ply
format ascii 1.0
comment Created by Open3D
element vertex 1578
property double x
property double y
property double z
property uchar red
property uchar green
property uchar blue
end_header
0.45 0.369 1.237 255 255 255
0.347 0.078 1.358 255 255 255
0.378 0.328 1.35 255 255 255
-1.191 0.179 2.438 255 255 255
-0.618 0.582 1.553 255 255 255
0.479 -0.118 1.094 255 255 255
0.56 0.12 1.013 255 255 255
0.13 0.238 1.766 255 255 255
-0.881 0.301 2.271 255 255 255
-0.013 0.085 2.013 255 255 255
-0.485 -0.245 2.13 255 255 255
-1.096 -1.133 2.154 255 255 255
0.575 0.069 0.976 255 255 255
-1.288 -0.62 2.216 255 255 255
0.194 0.279 1.662 255 255 255
0.218 -0.135 1.535 255 255 255
-1.033 -0.597 2.383 255 255 255
0.37 0.046 1.316 255 255 255
-1.037 0.252 2.128 255 255 255
-1.137 -0.339 2.413 255 255 255
-0.127 0.533 1.874 255 255 255
0.118 0.267 1.795 255 255 255
0.123 0.004 1.728 255 255 255
0.307 -0.526 2.03 255 255 255
0.487 0.036 1.116 255 255 255
0.319 0.338 1.454 255 255 255
0.506 -0.054 1.071 255 255 255
-0.827 -1.651 2.147 255 255 255
-0.663 0.608 1.452 255 255 255
-0.175 0.427 1.795 255 255 255
0.474 0.02 1.135 255 255 255
-1.224 -0.781 2.197 255 255 255
-1.119 -0.659 2.306 255 255 255
0.219 0.153 1.587 255 255 255
-0.331 0.679 1.323 255 255 255
-1.078 -0.184 2.504 255 255 255
0.072 -1.041 1.627 0 0 0
-0.888 -1.085 2.3 255 255 255
0.593 0.028 0.934 255 255 255
0.191 0.68 1.475 255 255 255
0.041 -0.984 1.707 0 0 0
-0.008 -0.402 1.904 255 255 255
-1.122 -0.259 2.452 255 255 255
-0.761 -0.909 2.419 255 255 255
0.229 0.139 1.565 255 255 255
-0.934 -0.362 2.525 255 255 255
0.43 0.414 1.281 255 255 255
0.192 0.516 1.705 255 255 255
-0.301 -0.118 1.973 255 255 255
-0.773 0.532 1.677 255 255 255
-0.551 0.064 0.832 255 255 255
-0.579 0.395 1.941 255 255 255
-0.207 0.106 2.116 255 255 255
-0.127 -0.687 1.839 255 255 255
0.595 -0.145 1.029 255 255 255
0.142 -0.96 1.654 0 0 0
-1.108 0.336 2.145 255 255 255
-0.06 0.366 2.115 255 255 255
0.061 -0.797 1.698 255 255 255
0.051 -0.171 1.835 255 255 255
0.324 -0.499 2.04 255 255 255
-0.492 -0.876 2.188 255 255 255
0.066 0.086 1.854 255 255 255
-1.355 -0.366 2.262 255 255 255
-1.243 0.09 2.412 255 255 255
0.41 0.233 1.286 255 255 255
-1.177 -1.204 2.08 255 255 255
-0.52 0.431 1.888 255 255 255
0.5 0.224 1.125 255 255 255
-0.192 -0.523 1.872 255 255 255
-0.755 0.538 1.663 255 255 255
-0.065 -0.812 1.905 0 0 0
0.051 -0.883 1.709 0 0 0
-1.252 -1.009 2.097 255 255 255
-0.317 0.163 2.078 255 255 255
-0.245 0.532 1.834 255 255 255
-1.079 -0.784 2.292 255 255 255
-0.36 -0.105 1.945 255 255 255
-0.327 -1.557 2.215 255 255 255
0.468 0.127 1.162 255 255 255
-1.198 -0.969 2.142 255 255 255
0.194 0.201 1.64 255 255 255
-0.522 -0.142 2.199 255 255 255
-0.944 0.001 2.651 255 255 255
-0.625 0.34 2.138 255 255 255
-1.376 -0.575 2.002 255 255 255
0.297 0.274 1.478 255 255 255
0.316 -0.072 1.384 255 255 255
-0.16 -0.093 2.047 255 255 255
-0.178 -0.846 1.768 255 255 255
-0.223 -0.084 2.03 255 255 255
0.346 -0.213 1.219 0 0 0
-0.085 -0.754 1.937 0 0 0
-0.596 0.523 1.709 0 0 0
-1.016 -0.288 2.504 255 255 255
0.053 0.535 1.886 255 255 255
-1.034 -0.733 2.333 255 255 255
-1.109 -0.882 2.234 255 255 255
0.244 -0.069 1.504 255 255 255
0.304 0.029 1.424 255 255 255
0.61 0.05 0.907 255 255 255
-0.764 -1.614 2.198 0 0 0
-0.218 -0.371 1.919 255 255 255
-0.185 -1.347 1.975 0 0 0
0.623 -0.15 1.001 255 255 255
-0.363 0.698 1.25 255 255 255
0.539 -0.35 1.169 255 255 255
0.335 0.235 1.402 255 255 255
-0.046 0.707 1.331 255 255 255
0.566 0.046 0.985 255 255 255
0.382 0.262 1.331 255 255 255
-0.859 -0.611 2.49 255 255 255
-0.742 -1.548 2.227 255 255 255
0.198 0.453 1.704 255 255 255
-1.171 -0.699 2.26 255 255 255
0.204 0.34 1.659 255 255 255
0.26 0.082 1.506 255 255 255
0.247 -0.146 1.484 255 255 255
-0.153 0.157 2.243 255 255 255
-0.768 0.552 1.605 255 255 255
-0.012 -0.667 1.856 255 255 255
0.417 -0.047 1.219 255 255 255
-0.21 -0.255 1.967 255 255 255
-0.919 -0.815 2.382 255 255 255
0.256 0.135 1.52 255 255 255
-0.888 -1.365 2.201 255 255 255
0.178 0.48 1.712 255 255 255
-0.568 0.429 1.91 255 255 255
0.595 -0.224 1.07 255 255 255
0.216 0.303 1.626 255 255 255
0.241 0.313 1.588 255 255 255
0.125 -0.074 1.706 255 255 255
0.604 -0.016 0.91 255 255 255
-0.508 0.671 1.291 255 255 255
-0.536 0.565 1.633 255 255 255
0.449 0.376 1.241 255 255 255
-0.213 -0.259 1.966 255 255 255
0.55 -0.303 1.169 255 255 255
-0.136 0.307 2.187 255 255 255
-0.09 0.689 1.341 255 255 255
-0.668 0.356 2.062 255 255 255
-1.003 -0.037 2.601 255 255 255
-0.33 -0.467 1.828 255 255 255
-0.38 0.613 1.511 255 255 255
0.552 -0.098 0.932 0 0 0
-0.104 0.649 1.491 255 255 255
0.423 -0.588 2.003 255 255 255
-0.218 -0.844 1.753 255 255 255
0.088 -0.024 1.789 255 255 255
-0.028 -0.992 1.813 255 255 255
0.593 -0.039 0.929 255 255 255
0.639 -0.131 0.97 255 255 255
-0.64 0.327 2.11 255 255 255
-0.845 -0.043 2.692 255 255 255
0.235 0.609 1.635 255 255 255
-0.092 -1.22 1.746 255 255 255
-0.222 0.704 1.276 255 255 255
0.116 -0.709 1.738 0 0 0
0.108 -0.865 1.68 255 255 255
-0.861 -0.468 2.534 255 255 255
0.249 0.203 1.548 255 255 255
0.259 0.207 1.528 255 255 255
0.039 0.386 1.954 255 255 255
0.472 -0.021 1.132 255 255 255
-0.364 0.622 1.492 255 255 255
-0.958 -0.741 2.38 255 255 255
-0.071 0.607 1.115 255 255 255
-0.482 -0.121 2.147 255 255 255
0.062 -1.102 1.634 0 0 0
-0.504 -0.962 2.219 255 255 255
-0.057 -1.179 1.795 0 0 0
-0.578 0.495 1.72 255 255 255
-0.16 0.448 1.788 255 255 255
0.432 0.119 1.22 255 255 255
-0.14 -0.151 2.065 255 255 255
-0.103 -1.04 1.722 0 0 0
-1.323 0.078 2.354 255 255 255
-0.044 -0.451 1.943 255 255 255
-0.927 -1.642 2.077 255 255 255
-0.409 0.917 2.027 255 255 255
-0.157 -0.692 1.829 255 255 255
-0.064 -0.71 1.925 0 0 0
-0.195 0.697 1.317 255 255 255
-0.718 0.328 2.039 255 255 255
-0.938 0.458 1.849 255 255 255
-0.74 -0.496 2.424 255 255 255
-0.899 0.096 2.692 255 255 255
-1.082 -1.154 2.154 255 255 255
0.556 -0.025 0.99 255 255 255
0.473 0.242 1.176 255 255 255
-0.365 -0.089 1.947 255 255 255
-0.365 0.149 2.039 255 255 255
-0.254 -0.345 1.905 255 255 255
-0.956 -0.593 2.434 255 255 255
-1.004 -1.547 2.054 0 0 0
-1.328 -0.164 2.36 255 255 255
-0.899 -0.794 2.393 255 255 255
0.061 -0.776 1.706 255 255 255
-0.994 -0.886 2.31 255 255 255
0.24 0.56 1.633 255 255 255
-0.748 0.494 1.798 255 255 255
-0.141 -0.097 2.144 255 255 255
0.462 -0.146 1.106 0 0 0
-1.268 -0.539 2.258 255 255 255
-1.274 -0.374 2.314 255 255 255
0.266 0.14 1.505 255 255 255
-0.227 -0.292 1.941 255 255 255
-0.269 -0.743 1.76 255 255 255
0.148 -0.226 1.642 255 255 255
0.107 0.215 0.424 255 255 255
-1.056 -1.339 2.104 255 255 255
-1.307 0.079 2.371 255 255 255
-0.088 -0.79 1.884 0 0 0
-0.469 0.405 1.969 255 255 255
-0.593 0.634 1.385 0 0 0
-0.234 -0.291 1.938 255 255 255
-0.47 0.582 1.588 255 255 255
-0.982 0.419 1.964 255 255 255
-1.296 -0.149 2.382 255 255 255
-0.086 -0.721 1.955 0 0 0
-0.249 -1.021 1.664 0 0 0
-0.886 -0.554 2.497 255 255 255
-0.17 -0.007 2.08 255 255 255
0.407 0.086 1.261 255 255 255
0.119 -0.838 1.694 0 0 0
0.268 -0.189 1.444 255 255 255
0.351 -0.125 1.314 255 255 255
0.369 -0.2 1.234 0 0 0
-0.198 -1.397 2.003 255 255 255
0.132 0.154 1.74 255 255 255
0.082 0.204 0.464 255 255 255
0.34 0.158 1.383 255 255 255
0.244 0.48 1.63 255 255 255
-0.579 -1 2.26 255 255 255
-0.264 -0.877 1.71 255 255 255
-0.289 -0.371 1.873 255 255 255
-0.97 0.281 2.162 255 255 255
0.239 0.321 1.595 255 255 255
-0.795 -0.725 2.48 255 255 255
-0.27 -0.86 1.71 255 255 255
0.325 0.251 1.425 255 255 255
-0.934 -0.589 2.449 255 255 255
-1.141 -0.321 1.669 255 255 255
0.073 0.156 1.855 255 255 255
-1.158 -1.097 2.127 255 255 255
0.162 0.041 1.663 255 255 255
0.48 -0.1 1.103 255 255 255
0.549 0.181 1.036 255 255 255
-0.368 0.7 1.247 255 255 255
-0.312 -0.125 1.963 255 255 255
-0.531 -1.697 2.31 0 0 0
0.35 0.313 1.393 255 255 255
0.282 -0.129 1.428 255 255 255
-0.233 -1.479 2.056 255 255 255
-0.964 -0.829 2.348 255 255 255
-1.096 -0.311 1.707 255 255 255
-0.399 0.623 1.472 255 255 255
0.222 -0.255 1.506 255 255 255
0.628 -0.032 0.871 255 255 255
-1.258 0.027 2.419 255 255 255
0.392 0.088 1.285 255 255 255
-0.029 -1.173 1.778 255 255 255
-0.66 -1.019 2.251 0 0 0
0.236 0.42 1.629 255 255 255
-0.57 0.635 1.385 0 0 0
0.101 -0.764 1.715 255 255 255
0.579 0.156 0.991 255 255 255
0.172 -0.711 1.748 255 255 255
-0.543 -0.99 2.28 255 255 255
-1.246 0.027 2.43 255 255 255
-0.443 0.573 1.622 255 255 255
-0.273 -0.087 2 255 255 255
-1.264 0.001 2.441 255 255 255
0.531 0.032 1.042 255 255 255
-0.957 -0.458 2.484 255 255 255
-0.032 -0.653 1.887 255 255 255
-0.726 -0.454 2.42 255 255 255
-0.089 0.018 2.115 255 255 255
0.423 0.139 1.24 255 255 255
-0.32 -0.736 1.727 255 255 255
0.182 0.683 1.474 255 255 255
-0.671 0.55 1.639 255 255 255
-0.421 0.405 2.042 0 0 0
0.054 -0.795 1.719 0 0 0
-0.064 0.674 1.416 255 255 255
-0.931 -0.723 2.402 255 255 255
-0.532 0.077 0.806 255 255 255
-0.271 -0.043 2.018 255 255 255
0.58 0.184 0.998 255 255 255
0.12 -0.644 1.755 0 0 0
-0.137 0.084 2.205 255 255 255
0.121 0.569 1.784 255 255 255
0.058 0.646 1.554 255 255 255
-0.363 -0.623 1.729 255 255 255
-0.782 -1.08 2.368 255 255 255
-0.016 -0.964 1.804 255 255 255
0.52 0.132 1.073 255 255 255
0.571 -0.065 0.957 255 255 255
0.085 -0.006 1.795 255 255 255
-1.211 -0.083 2.458 255 255 255
-0.829 0.342 2.106 255 255 255
-0.587 0.604 1.481 255 255 255
-1.086 0.386 1.936 255 255 255
-0.336 0.843 2.067 255 255 255
-0.638 -0.825 2.358 255 255 255
0.074 0.209 1.866 255 255 255
-1.307 -0.721 2.175 255 255 255
0.182 0.351 1.7 255 255 255
0.431 0.239 1.244 255 255 255
0.014 0.594 1.7 255 255 255
0.004 0.475 2.022 255 255 255
-0.868 0.292 2.281 255 255 255
-0.418 -0.096 1.915 255 255 255
-0.518 0.564 1.635 255 255 255
-0.784 -0.782 2.469 255 255 255
-0.09 0.138 2.147 255 255 255
-0.241 -0.131 2.003 255 255 255
-0.692 -0.025 0.916 255 255 255
0.175 -0.242 1.59 255 255 255
0.522 -0.389 1.141 255 255 255
-0.543 -0.861 2.182 255 255 255
0 0.535 1.886 255 255 255
0.419 0.034 1.232 255 255 255
-1.184 -0.378 2.371 255 255 255
-0.818 -0.188 2.638 255 255 255
0.516 -0.091 1.046 255 255 255
0.355 -0.059 1.323 255 255 255
0.577 0.024 0.96 255 255 255
-0.099 -1.379 1.844 0 0 0
-1.25 -0.39 2.323 255 255 255
-0.472 -0.23 2.113 255 255 255
-1.14 0.214 2.08 255 255 255
-0.883 0.276 2.308 255 255 255
-1.068 -0.26 2.478 255 255 255
0.101 -0.079 1.75 255 255 255
-0.492 -1.761 2.313 255 255 255
-0.884 -1.065 2.31 255 255 255
0.427 0.337 1.27 255 255 255
-0.886 -0.776 2.407 255 255 255
-0.753 0.39 2.013 255 255 255
-0.974 -1.55 2.078 0 0 0
-0.226 0.684 1.335 255 255 255
0.371 -0.034 1.299 255 255 255
-0.373 -0.539 1.759 255 255 255
-0.188 -1.455 1.966 0 0 0
-1.276 0.131 2.403 255 255 255
0.257 0.141 1.522 255 255 255
-1.116 -0.41 2.4 255 255 255
-0.326 -0.58 1.782 255 255 255
-0.308 -0.628 1.774 255 255 255
-0.306 -0.874 1.69 255 255 255
-0.92 -0.575 2.462 255 255 255
0.454 0.365 1.233 255 255 255
-1.046 -1.129 2.186 255 255 255
0.084 0.492 1.889 255 255 255
-0.551 -1.747 2.275 255 255 255
-0.302 0.519 1.855 255 255 255
-0.065 -0.826 1.905 0 0 0
-1.026 0.461 1.832 255 255 255
-0.854 -0.086 2.662 255 255 255
0.35 -0.173 1.308 255 255 255
-0.945 -0.144 2.601 255 255 255
-0.004 0.021 1.98 255 255 255
0.549 -0.312 1.185 255 255 255
-0.98 0.413 1.863 255 255 255
0.182 0.348 1.701 255 255 255
-0.882 -0.151 1.277 255 255 255
-0.658 0.596 1.479 255 255 255
-0.515 -1.65 2.337 255 255 255
-0.197 -0.798 1.785 0 0 0
0.615 -0.197 1.015 255 255 255
0.442 0.199 1.218 255 255 255
0.457 -0.214 1.234 255 255 255
0.497 -0.209 1.192 0 0 0
0.239 0.05 1.532 255 255 255
-1.102 0.405 1.916 255 255 255
-0.657 -0.685 2.38 255 255 255
-1.228 -0.015 2.468 255 255 255
0.346 -0.626 1.965 255 255 255
0.105 -0.822 1.695 255 255 255
-0.278 -0.908 1.693 255 255 255
-1.362 -0.694 2.15 255 255 255
0.361 -0.155 1.289 255 255 255
-1.087 0.369 1.969 255 255 255
-0.691 -0.02 1.036 255 255 255
0.102 -0.555 1.783 0 0 0
-0.077 0.491 1.981 255 255 255
-0.036 -0.94 1.838 255 255 255
-0.753 0.343 2.07 255 255 255
0.496 -0.029 1.09 255 255 255
0.15 -0.958 1.666 255 255 255
0.371 0.035 1.31 255 255 255
-1.202 -0.272 2.393 255 255 255
0.375 0.282 1.347 255 255 255
0.478 -0.037 1.119 255 255 255
-0.67 0.455 1.822 255 255 255
0.531 -0.187 1.137 255 255 255
-0.94 -0.81 2.362 255 255 255
0.223 -1.137 1.626 255 255 255
0.007 0.06 1.968 255 255 255
-0.9 0.508 1.725 255 255 255
0.105 -0.887 1.674 255 255 255
0.587 0.011 0.942 255 255 255
0.489 0.224 1.144 255 255 255
-0.185 -1.036 1.687 0 0 0
0.255 0.571 1.611 255 255 255
-0.819 -1.202 2.304 255 255 255
0.011 -0.52 1.851 0 0 0
-0.156 -0.877 1.762 255 255 255
-0.599 -1.2 2.214 255 255 255
-1.232 -0.854 2.171 255 255 255
-0.773 0.456 1.912 255 255 255
0.055 0.564 1.795 255 255 255
-1.08 -0.362 2.442 255 255 255
-1.157 -0.357 1.621 255 255 255
0.012 0.324 2.017 255 255 255
-0.373 -0.164 1.906 255 255 255
0.335 0.473 1.461 255 255 255
-0.326 0.697 1.267 255 255 255
-1.118 -1.161 2.131 255 255 255
-1.002 -1.196 2.193 255 255 255
-0.573 0.034 0.811 255 255 255
0.306 0.541 1.509 255 255 255
-0.203 -1.027 1.687 0 0 0
-0.323 -0.333 1.871 255 255 255
0.116 0.54 1.829 255 255 255
-0.274 -0.913 1.694 255 255 255
-0.525 -0.252 2.267 255 255 255
0.12 0.23 0.416 255 255 255
0.499 0.111 1.105 255 255 255
-0.675 0.12 2.549 255 255 255
0.489 -0.258 1.209 255 255 255
-0.029 0.066 2.033 255 255 255
0.428 -0.171 1.091 0 0 0
-1.138 -0.319 2.417 255 255 255
-0.535 0.406 1.946 255 255 255
-0.716 0.529 1.698 255 255 255
-1.216 -0.464 2.318 255 255 255
0.54 -0.105 0.968 0 0 0
0.172 0.231 1.69 255 255 255
-1.048 -1.484 2.065 0 0 0
-0.02 -0.555 1.892 255 255 255
0.114 0.217 0.412 255 255 255
0.389 0.334 1.335 255 255 255
0.603 0.023 0.921 255 255 255
-0.868 0.334 2.17 255 255 255
-0.164 0.306 2.146 255 255 255
-0.284 0.063 2.057 255 255 255
-0.853 0.447 1.887 255 255 255
-0.491 0.689 1.25 255 255 255
-0.651 -0.884 2.295 255 255 255
-0.812 -0.283 2.611 255 255 255
0.28 0.129 1.479 255 255 255
0.195 -0.449 1.845 255 255 255
-1.357 -0.851 2.095 255 255 255
0.293 -0.019 1.429 255 255 255
-1.119 -1.062 2.165 255 255 255
-0.298 -0.885 1.687 255 255 255
-0.567 0.129 2.347 255 255 255
0.128 -0.104 1.694 255 255 255
-0.983 0.46 1.825 255 255 255
-0.548 -0.828 2.397 0 0 0
-0.202 -0.036 2.061 255 255 255
-0.334 0.67 1.354 255 255 255
-0.415 0.052 1.959 255 255 255
-0.36 0.581 1.669 255 255 255
-0.863 0.19 2.329 255 255 255
-0.45 -0.044 2.003 255 255 255
-0.252 0.193 2.13 255 255 255
-0.207 0.372 2.048 255 255 255
0.292 0.197 1.472 255 255 255
-0.571 0.072 2.347 255 255 255
-0.375 0.541 1.769 255 255 255
-0.45 0.304 2.046 255 255 255
0.011 -0.174 1.913 255 255 255
0.173 0.403 1.741 255 255 255
-0.362 0.505 1.871 0 0 0
0.436 -0.244 1.292 255 255 255
-0.404 0.073 1.985 255 255 255
-1.007 -1.056 2.239 255 255 255
0.011 -1.076 1.728 255 255 255
-0.376 0.826 2.069 255 255 255
-0.293 0.529 1.821 255 255 255
-0.371 0.174 2.043 255 255 255
-0.929 -1.256 2.215 255 255 255
-0.064 0.33 2.109 255 255 255
0.011 -1.183 1.71 255 255 255
-1.102 -0.529 2.367 255 255 255
0.202 0.42 1.688 255 255 255
-1.411 -0.157 2.299 255 255 255
0.464 0.017 1.151 255 255 255
-1.407 -0.459 2.214 255 255 255
0.109 -1.095 1.607 255 255 255
0.129 0.199 0.452 255 255 255
-0.345 -0.724 1.704 255 255 255
-0.097 -0.837 1.809 255 255 255
0.523 -0.082 1.035 255 255 255
0.537 0.151 1.053 255 255 255
0.081 0.238 1.858 255 255 255
-0.651 0.535 1.695 255 255 255
-0.359 0.505 1.872 0 0 0
0.382 0.283 1.338 255 255 255
-1.049 -0.23 2.503 255 255 255
0.456 0.268 1.208 255 255 255
0.305 -0.121 1.397 255 255 255
-1.114 0.378 2.047 255 255 255
-0.644 -0.866 2.291 255 255 255
-0.127 -0.614 1.865 255 255 255
-1.298 -0.134 2.386 255 255 255
-0.714 -1.167 2.29 0 0 0
-1.134 -0.364 2.404 255 255 255
-0.677 -1.637 2.24 0 0 0
-0.375 0.127 2.023 255 255 255
-0.175 -0.701 1.817 255 255 255
0.486 -0.055 1.101 255 255 255
0.162 -0.21 1.62 255 255 255
-0.257 0.215 2.133 255 255 255
0.442 0.065 1.196 255 255 255
-0.195 -1.082 1.661 255 255 255
-0.938 -1.154 2.246 255 255 255
-0.293 0.067 2.058 255 255 255
-0.816 -0.107 1.138 255 255 255
-0.312 0.574 1.678 255 255 255
-1.287 -0.407 2.29 255 255 255
0.251 -0.221 1.466 255 255 255
0.487 -0.297 1.204 255 255 255
-1.301 0.136 2.392 255 255 255
-0.742 -1.56 2.224 255 255 255
-0.076 0.022 2.096 255 255 255
-0.016 -0.847 1.823 255 255 255
-0.437 0.256 2.03 255 255 255
-0.389 0.427 2.07 0 0 0
-1.179 -1.123 2.102 255 255 255
0.572 0.171 1.006 255 255 255
0.208 0.148 1.603 255 255 255
-0.562 0.054 0.841 255 255 255
-0.345 -0.88 1.655 255 255 255
-0.135 -0.188 2.109 255 255 255
0.424 -0.267 1.326 255 255 255
-0.071 0.038 2.093 255 255 255
0.511 -0.62 1.108 255 255 255
-0.096 0.217 2.166 255 255 255
0.389 0.061 1.286 255 255 255
-0.858 -0.685 2.459 255 255 255
-0.469 0.603 1.516 255 255 255
-0.549 -1.22 2.238 255 255 255
-0.204 0.034 2.088 255 255 255
-0.333 -0.741 1.716 255 255 255
0.373 -0.007 1.298 255 255 255
-1.124 -0.089 2.505 255 255 255
0.496 -0.407 1.162 255 255 255
-0.166 -0.156 2.022 255 255 255
0.534 0.154 1.057 255 255 255
0.363 0.252 1.359 255 255 255
0.108 0.215 0.422 255 255 255
0.218 -0.54 1.832 255 255 255
0.218 0.405 1.653 255 255 255
0.472 -0.142 1.082 0 0 0
-1.013 0.001 2.582 255 255 255
-0.73 0.472 1.844 0 0 0
0.098 0.603 1.69 255 255 255
-0.47 0.669 1.309 255 255 255
0.088 0.663 1.499 0 0 0
0.223 0.192 1.588 255 255 255
0.512 -0.04 1.062 255 255 255
-0.182 0.591 1.684 255 255 255
-1.082 -0.905 2.245 255 255 255
0.648 -0.144 0.962 255 255 255
-0.994 -0.117 2.577 255 255 255
0.054 -0.261 1.815 255 255 255
-1.003 0.199 2.343 255 255 255
-1.096 -0.381 2.424 255 255 255
0.326 -0.022 1.377 255 255 255
0.073 -0.501 1.797 255 255 255
-1.209 -0.936 2.15 255 255 255
-0.186 -0.852 1.771 255 255 255
-0.597 0.252 2.325 255 255 255
-0.119 0.598 1.743 255 255 255
0.291 0.13 1.46 255 255 255
-0.197 -0.806 1.783 0 0 0
-0.112 -0.42 2.047 0 0 0
-0.635 0.334 2.124 255 255 255
-1.252 -1.049 2.085 255 255 255
0.432 0.071 1.215 255 255 255
0.165 -0.777 1.731 255 255 255
0.373 -0.104 1.276 255 255 255
-1.238 -0.527 2.284 255 255 255
0.089 0.272 1.857 255 255 255
-0.333 0.401 2.102 255 255 255
-0.801 -0.46 2.561 255 255 255
-0.634 -1.648 2.264 0 0 0
-1.369 -0.63 1.971 255 255 255
-0.175 -0.265 1.98 255 255 255
-1.035 -0.095 2.561 255 255 255
-0.526 -1.698 2.312 0 0 0
0.439 0.29 1.243 255 255 255
-0.609 0.526 1.701 255 255 255
-0.348 -0.748 1.694 255 255 255
0.172 0.318 1.713 255 255 255
0.213 -1.178 1.615 0 0 0
-0.056 -0.639 1.931 255 255 255
0.272 0.283 1.527 255 255 255
0.427 -0.575 2.004 255 255 255
0.135 0.574 1.773 255 255 255
0.325 0.057 0.514 255 255 255
0.432 0.278 1.25 255 255 255
-0.773 -1.222 2.329 255 255 255
-0.08 0.06 2.112 255 255 255
0.246 0.185 0.523 255 255 255
-0.163 -1.032 1.705 0 0 0
-0.972 -0.755 2.37 255 255 255
-0.86 -0.128 1.154 255 255 255
-0.958 0.285 2.158 255 255 255
0.502 0.252 1.127 255 255 255
0.344 0.193 1.384 255 255 255
-1.235 0.012 2.458 255 255 255
0.318 0.07 0.509 255 255 255
0.113 -1.179 1.575 0 0 0
-1.045 0.08 2.486 255 255 255
-1.148 -0.932 2.192 255 255 255
0.344 -0.027 1.346 255 255 255
0.082 -0.828 1.684 255 255 255
0.086 0.037 1.804 255 255 255
-0.332 -0.491 1.814 255 255 255
0.324 0.206 1.422 255 255 255
-0.586 0.122 2.386 255 255 255
0.467 0.367 1.207 255 255 255
0.306 0.096 1.43 255 255 255
0.09 0.604 1.683 255 255 255
0.1 0.213 0.434 255 255 255
0.154 0.692 1.443 255 255 255
0.415 -0.164 1.181 255 255 255
-1.317 -0.897 2.107 255 255 255
-0.562 0.015 2.329 255 255 255
-0.547 -0.842 2.185 255 255 255
-0.962 -0.751 2.376 255 255 255
-1.248 -0.3 2.352 255 255 255
-0.264 -0.572 1.827 255 255 255
-0.933 -0.16 2.601 255 255 255
-0.161 0.596 1.648 255 255 255
0.373 -0.284 1.394 255 255 255
-0.723 0.218 2.468 255 255 255
-0.225 -1.054 1.667 0 0 0
-0.134 -0.656 1.845 255 255 255
-0.061 0.55 1.839 255 255 255
0.274 -0.242 1.406 0 0 0
0.594 0.017 0.931 255 255 255
-0.912 -0.167 1.275 255 255 255
0.132 -1.172 1.585 0 0 0
-0.781 -0.867 2.44 255 255 255
0.208 0.612 1.667 255 255 255
0.055 0.485 1.94 255 255 255
0.339 -0.578 2.009 255 255 255
-0.671 0.263 2.081 255 255 255
0.261 -0.167 1.458 255 255 255
-0.334 -0.178 1.928 255 255 255
-0.175 -0.947 1.741 255 255 255
0.185 0.465 1.709 255 255 255
-0.176 0.598 1.652 255 255 255
0.477 0.269 1.17 255 255 255
-0.754 -0.979 2.396 255 255 255
-0.126 -0.842 1.792 255 255 255
-1.253 0.038 2.409 255 255 255
-0.168 0.125 2.151 255 255 255
-0.93 -0.197 2.591 255 255 255
-0.497 -0.456 2.164 255 255 255
-0.041 0.495 2.016 255 255 255
0.014 -0.408 1.793 0 0 0
0.072 0.639 1.58 255 255 255
0.447 -0.012 1.175 255 255 255
-1.2 0.169 2.444 255 255 255
-0.568 0.125 2.353 255 255 255
-0.282 -0.722 1.756 255 255 255
-1.178 0.053 2.44 255 255 255
0.457 0.284 1.209 255 255 255
-1.228 -0.206 2.402 255 255 255
0.503 0.021 1.087 255 255 255
-0.796 -1.243 2.306 255 255 255
-1.079 -0.163 2.508 255 255 255
0.072 -0.086 1.809 255 255 255
-0.33 -0.181 1.926 255 255 255
-1.212 -0.903 2.164 255 255 255
0.237 0.18 0.518 255 255 255
-0.57 0.053 2.343 255 255 255
0.447 -0.082 1.159 255 255 255
0.17 -0.983 1.676 255 255 255
-0.643 -1.606 2.272 255 255 255
0.613 -0.012 0.893 255 255 255
-0.273 -0.708 1.773 0 0 0
-0.4 0.659 1.363 255 255 255
0.493 -0.209 1.196 0 0 0
0.61 -0.063 0.871 255 255 255
0.219 0.18 0.519 255 255 255
0.198 0.303 1.663 255 255 255
-1.046 -0.963 2.25 255 255 255
0.416 -0.139 1.203 255 255 255
-0.209 -0.663 1.824 255 255 255
0.015 -0.211 1.901 255 255 255
0.564 -0.614 1.072 255 255 255
-0.041 -0.075 2.015 255 255 255
-0.484 0.588 1.561 255 255 255
0.548 -0.099 0.964 255 255 255
-1.139 -0.808 2.243 255 255 255
-0.391 0.429 2.058 0 0 0
0.437 0.023 1.198 255 255 255
-0.108 -0.659 1.864 255 255 255
-1.327 -0.103 2.384 255 255 255
-0.187 -1.133 1.718 255 255 255
-0.109 0.273 2.163 255 255 255
0.047 -0.52 1.784 255 255 255
0.569 -0.067 0.958 255 255 255
0.519 -0.554 1.102 255 255 255
0.339 0.271 1.405 255 255 255
0.29 -0.083 1.424 255 255 255
0.546 -0.208 1.125 255 255 255
0.062 0.681 1.462 255 255 255
-1.078 -1.345 2.086 255 255 255
-0.332 0.045 2.019 255 255 255
0.31 0.296 1.463 255 255 255
0.093 0.134 1.812 255 255 255
-1.107 -0.31 2.441 255 255 255
0.15 0.459 1.757 255 255 255
0.591 -0.074 0.836 0 0 0
0.012 0.434 2.008 255 255 255
0.117 0.229 0.423 255 255 255
0.336 -0.181 1.33 255 255 255
-0.302 -0.11 1.978 255 255 255
-0.625 -1.67 2.266 0 0 0
0.423 -0.168 1.105 0 0 0
-0.061 -0.236 2.014 255 255 255
-0.956 -1.232 2.208 255 255 255
0.106 -0.449 1.818 255 255 255
-0.954 -0.186 2.576 255 255 255
-0.057 -0.16 2.024 255 255 255
-0.28 0.874 2.102 255 255 255
-0.06 -0.738 1.918 255 255 255
-0.277 0.695 1.283 255 255 255
0.383 0.078 1.301 255 255 255
-0.381 0.16 2.031 255 255 255
-1.235 -0.618 2.251 255 255 255
0.177 -0.667 1.77 255 255 255
-1.316 -0.149 2.374 255 255 255
-1.073 -0.691 2.324 255 255 255
-0.381 0.467 2.001 255 255 255
-0.185 0.52 1.884 0 0 0
-0.731 -0.382 2.445 255 255 255
-0.976 -0.492 2.456 255 255 255
-0.773 -1.082 2.374 255 255 255
-0.265 -0.356 1.896 255 255 255
-0.34 -0.398 1.829 255 255 255
0.51 0.136 1.092 255 255 255
-0.14 0.55 1.835 255 255 255
0.486 -0.236 1.218 255 255 255
0.233 0.025 1.536 255 255 255
-0.796 0.148 2.381 255 255 255
0.397 0.452 1.342 255 255 255
0.598 -0.184 1.041 255 255 255
-0.174 0.384 2.002 255 255 255
-1.146 0.227 2.071 255 255 255
-0.852 -0.341 2.588 255 255 255
0.473 -0.123 1.103 0 0 0
0.443 0.035 1.192 255 255 255
-0.309 -0.33 1.881 255 255 255
0.092 0.201 0.447 255 255 255
-0.565 -0.959 2.253 255 255 255
-0.205 0.431 1.794 255 255 255
-0.884 0.354 1.939 255 255 255
-0.471 0.612 1.484 255 255 255
-0.533 -0.813 2.191 255 255 255
0.14 -0.07 1.682 255 255 255
0.487 -0.216 1.208 255 255 255
-0.071 0.694 1.365 255 255 255
-1.142 -0.369 2.397 255 255 255
0.34 0.19 1.39 255 255 255
-0.778 -0.062 2.565 255 255 255
-0.842 -0.496 2.541 255 255 255
-0.372 -0.699 1.719 255 255 255
0.392 -0.01 1.269 255 255 255
-1.015 -0.79 2.328 255 255 255
-0.658 -0.019 2.489 255 255 255
-1.13 -0.363 1.646 255 255 255
-1.397 -0.307 2.266 255 255 255
-0.783 -0.755 2.472 255 255 255
-0.141 -0.973 1.741 255 255 255
-0.032 -0.955 1.83 255 255 255
-0.953 0.495 1.751 255 255 255
0.34 0.031 1.366 255 255 255
-0.22 -0.504 1.887 255 255 255
0.671 -0.124 0.926 255 255 255
-0.313 -1.014 1.615 0 0 0
0.301 0.207 1.457 255 255 255
0.418 -0.087 1.211 255 255 255
0.259 -0.173 1.462 255 255 255
-0.633 0.56 1.62 255 255 255
-1.102 -0.26 1.548 255 255 255
0.409 -0.078 1.226 255 255 255
-0.514 0.393 1.967 255 255 255
-0.509 0.617 1.461 255 255 255
-0.765 0.29 2.068 255 255 255
0.094 -0.316 1.731 255 255 255
-0.403 0.098 1.999 255 255 255
0.294 -0.082 1.416 255 255 255
-0.926 -0.037 2.651 255 255 255
-0.839 0.508 1.744 255 255 255
-0.128 0.354 2.117 255 255 255
-1.097 0.054 2.484 255 255 255
-0.673 -1.06 2.229 0 0 0
0.62 -0.171 1.007 255 255 255
0.523 -0.368 1.149 255 255 255
-0.546 -0.216 2.276 255 255 255
-0.676 -0.534 2.42 255 255 255
-0.266 -0.537 1.844 255 255 255
-0.188 -0.556 1.861 255 255 255
0.539 0.058 1.031 255 255 255
-1.271 -0.606 2.231 255 255 255
0.015 0.059 1.957 255 255 255
0.214 -0.102 1.55 255 255 255
-1.332 -0.479 2.241 255 255 255
0.261 0.185 1.523 255 255 255
0.065 0.311 1.91 255 255 255
-0.489 0.504 1.744 255 255 255
-0.916 -1.574 2.111 0 0 0
-0.962 -0.662 2.406 255 255 255
-0.345 -0.81 1.677 255 255 255
-1.353 -0.66 2.163 255 255 255
-0.017 0.396 2.049 255 255 255
-0.06 0.515 1.946 255 255 255
0.359 0.44 1.41 255 255 255
0.398 0.455 1.323 255 255 255
-0.574 -1.088 2.234 255 255 255
-0.38 0.671 1.327 255 255 255
-0.101 0.686 1.382 255 255 255
-0.937 -1.495 2.126 255 255 255
0.408 0.147 1.27 255 255 255
0.125 -0.563 1.794 255 255 255
-1.177 0.127 2.449 255 255 255
0.352 0.199 1.369 255 255 255
-0.46 0.441 1.855 255 255 255
0.376 0.379 1.366 255 255 255
-0.187 -0.603 1.843 255 255 255
-0.823 0.425 1.973 255 255 255
-0.959 -0.987 2.294 255 255 255
-0.204 -0.528 1.873 255 255 255
-0.073 0.598 1.119 255 255 255
0.316 0.241 1.44 255 255 255
0.141 0.197 0.441 0 0 0
-0.416 0.681 1.29 255 255 255
-1.196 -0.328 1.617 255 255 255
0.402 0.378 1.321 255 255 255
0.525 -0.114 0.927 0 0 0
-0.541 0.509 1.724 255 255 255
-1.089 -0.734 2.301 255 255 255
-0.566 -0.274 2.294 255 255 255
0.292 0.241 1.483 255 255 255
-1.222 0.111 2.429 255 255 255
-0.328 -0.847 1.676 255 255 255
0.083 -0.722 1.722 255 255 255
-1.231 -0.904 2.145 255 255 255
-0.099 0.36 2.133 255 255 255
0.534 -0.028 1.027 255 255 255
-1.411 0.131 2.352 255 255 255
0.285 0.39 1.531 255 255 255
0.364 0.494 1.365 255 255 255
0.542 -0.163 1.082 255 255 255
0.225 0.181 1.579 255 255 255
0.118 0.225 0.411 255 255 255
-0.889 -0.36 2.561 255 255 255
-0.082 -1.051 1.748 0 0 0
-1.379 -0.673 2.142 255 255 255
0.071 -0.185 1.792 255 255 255
0.529 0.116 1.055 255 255 255
0.381 0.236 1.33 255 255 255
-0.894 -1 2.328 255 255 255
0.475 -0.14 1.026 0 0 0
-0.883 0.372 1.976 255 255 255
-0.123 -0.417 1.951 0 0 0
0.397 -0.518 2.039 255 255 255
-0.399 0.657 1.372 255 255 255
-0.193 -0.048 2.056 255 255 255
0.03 -1.026 1.716 0 0 0
0.153 0.453 1.751 255 255 255
-0.717 -0.445 2.427 255 255 255
0.555 0.005 0.998 255 255 255
-1.105 -1.043 2.179 255 255 255
-0.697 0.106 2.572 255 255 255
0.158 0.631 1.613 255 255 255
0.444 -0.072 1.167 255 255 255
-0.945 -0.18 1.303 255 255 255
0.466 0.037 1.149 255 255 255
-0.04 0.581 1.763 255 255 255
0.098 -0.696 1.736 255 255 255
-0.298 0.697 1.272 255 255 255
0.223 0.276 1.607 255 255 255
-0.901 0.007 2.681 255 255 255
-1.299 0.068 2.367 255 255 255
0.146 0.362 1.774 255 255 255
-0.347 0.107 2.033 255 255 255
-0.369 0.79 2.063 255 255 255
0.15 0.377 1.771 255 255 255
-0.097 0.67 1.422 255 255 255
0.194 0.493 1.69 255 255 255
-1.304 0.105 2.376 255 255 255
-0.077 -0.673 1.957 0 0 0
-0.741 -0.949 2.377 0 0 0
0.271 0.573 1.583 0 0 0
0.591 0.118 0.982 255 255 255
-0.821 -0.425 2.575 255 255 255
0.059 -1.057 1.651 0 0 0
-1.055 0.243 2.122 255 255 255
-0.323 0.491 1.947 255 255 255
-0.681 -0.022 0.978 255 255 255
0.118 0.584 1.747 255 255 255
-0.385 0.212 2.052 255 255 255
0.523 -0.073 1.04 255 255 255
0.334 -0.171 1.334 255 255 255
-0.224 -0.495 1.885 255 255 255
0.216 0.406 1.657 255 255 255
0.146 -0.915 1.676 255 255 255
-0.33 -0.132 1.952 255 255 255
-1.344 -0.041 2.393 255 255 255
0.517 0.166 1.086 255 255 255
0.559 0.21 1.026 255 255 255
0.158 0.181 0.476 255 255 255
-0.942 0.216 2.274 255 255 255
-0.594 0.625 1.407 0 0 0
-1.398 -0.59 2.128 255 255 255
-0.673 -0.969 2.258 0 0 0
0.354 0.273 1.381 255 255 255
0.294 0.45 1.531 255 255 255
0.251 0.043 1.512 255 255 255
-0.25 -0.882 1.72 255 255 255
-0.039 0.539 1.87 255 255 255
0.286 -0.205 1.411 255 255 255
0.407 0.233 1.292 255 255 255
-0.745 -0.985 2.382 0 0 0
-0.287 0.544 1.753 255 255 255
-0.249 0.119 2.106 255 255 255
0.46 0.003 1.154 255 255 255
0.172 0.307 1.708 255 255 255
0.29 0.095 1.456 255 255 255
0.054 0.307 1.932 255 255 255
0.512 0.197 1.102 255 255 255
-1.147 -1.194 2.106 255 255 255
0.533 -0.617 1.072 255 255 255
0.312 0.009 1.406 255 255 255
0.496 0.08 1.105 255 255 255
-0.207 0.524 1.866 0 0 0
-0.064 -0.503 1.969 255 255 255
-0.107 0.482 1.863 255 255 255
0.5 -0.22 1.198 255 255 255
0.39 0.05 0.572 255 255 255
-1.206 0.09 2.435 255 255 255
0.402 0.245 1.296 255 255 255
-1.07 -1.178 2.158 255 255 255
0.138 -0.857 1.689 255 255 255
0.137 0.366 1.791 255 255 255
-0.099 -0.524 2.019 0 0 0
0.522 -0.406 1.136 255 255 255
-0.126 -0.999 1.738 255 255 255
-1.068 -0.491 2.4 255 255 255
-0.626 -1.52 2.311 255 255 255
0.172 -0.048 1.629 255 255 255
-0.162 0.184 2.243 255 255 255
-0.763 -1.134 2.361 255 255 255
0.546 0.034 1.016 255 255 255
0.439 0.155 1.213 255 255 255
-0.455 0.584 1.585 255 255 255
-0.031 -0.446 1.907 255 255 255
-0.131 -0.34 1.971 255 255 255
0.237 0.232 1.573 255 255 255
-0.208 -0.848 1.761 255 255 255
0.306 0.307 1.468 255 255 255
-0.143 0.152 2.228 255 255 255
-1.189 -0.336 1.62 255 255 255
-0.25 0.397 2.02 255 255 255
0.586 -0.039 0.939 255 255 255
0.417 -0.151 1.196 0 0 0
-0.236 -0.77 1.767 255 255 255
-0.208 -0.088 2.037 255 255 255
-0.484 0.679 1.272 255 255 255
-0.849 -0.059 2.686 255 255 255
-1.37 -0.507 2.208 255 255 255
0.616 -0.057 0.861 255 255 255
-1.183 0.143 2.449 255 255 255
-0.012 -1.005 1.784 255 255 255
0.118 0.246 0.463 255 255 255
-0.001 0.294 2.037 255 255 255
-0.177 0.527 1.88 0 0 0
0.526 -0.022 1.042 255 255 255
-0.03 0.366 2.069 255 255 255
-0.087 -0.261 2.049 255 255 255
-1.065 -0.887 2.261 255 255 255
0.077 -0.351 1.747 0 0 0
-0.593 0.548 1.662 0 0 0
-1.015 -1.279 2.152 255 255 255
-0.381 0.582 1.647 255 255 255
0.447 -0.043 1.168 255 255 255
0.038 0.206 1.941 255 255 255
0.036 -0.394 1.794 0 0 0
-1.265 -0.315 2.337 255 255 255
-1.056 -0.357 2.455 255 255 255
-0.247 -0.962 1.696 255 255 255
-0.588 -1.091 2.226 255 255 255
0.181 0.243 1.675 255 255 255
0.441 0.391 1.258 255 255 255
-0.866 -0.193 2.625 0 0 0
-0.048 -0.702 1.903 255 255 255
-0.5 0.471 1.778 255 255 255
-0.289 -0.213 1.939 255 255 255
0.574 -0.205 1.081 255 255 255
0.416 0.315 1.283 255 255 255
0.366 -0.225 1.24 255 255 255
0.442 0.111 1.202 255 255 255
-1.195 -0.866 2.187 255 255 255
-0.889 -0.727 2.425 255 255 255
-0.893 -1.527 2.147 255 255 255
0.424 -0.145 1.187 255 255 255
-0.779 0.366 2.048 255 255 255
-0.161 -0.64 1.844 255 255 255
-0.396 0.503 1.843 255 255 255
0.114 -0.017 1.741 255 255 255
-0.949 0.067 2.666 255 255 255
0.113 0.15 1.778 255 255 255
-0.095 -0.295 2.054 255 255 255
-0.337 -0.236 1.898 255 255 255
0.183 -0.806 1.72 255 255 255
0.518 0.055 1.063 255 255 255
-0.727 -1.476 2.264 255 255 255
-0.169 0.363 2.045 255 255 255
-0.108 -0.959 1.759 255 255 255
-0.064 0.38 2.121 255 255 255
0.126 0.617 1.646 255 255 255
0.501 0.278 1.133 255 255 255
-0.619 0.23 2.393 255 255 255
-0.775 0.375 2.023 255 255 255
0.501 -0.496 1.139 255 255 255
-0.739 -1.191 2.335 255 255 255
-0.929 -1.297 2.201 255 255 255
-0.163 -0.288 1.972 255 255 255
-1.189 -0.412 2.354 255 255 255
-1.403 -0.537 2.165 255 255 255
-0.335 -0.098 1.961 255 255 255
-0.817 0.333 2.14 255 255 255
-0.749 0.2 2.484 255 255 255
-0.425 0.129 1.984 255 255 255
-0.697 -0.66 2.359 255 255 255
-0.09 -0.719 1.949 0 0 0
-0.862 -0.63 2.48 255 255 255
0.365 -0.231 1.265 255 255 255
-0.786 -0.893 2.432 255 255 255
-0.17 -0.168 2.016 255 255 255
0.143 -0.752 1.74 255 255 255
-0.505 0.688 1.256 255 255 255
0.054 -0.583 1.762 255 255 255
0.018 -0.443 1.844 0 0 0
0.392 0.464 1.344 255 255 255
-1.178 0.143 2.451 255 255 255
0.243 0.013 1.521 255 255 255
-0.606 -0.335 2.351 255 255 255
-0.287 -1.517 2.151 255 255 255
-0.908 0.467 1.842 255 255 255
-1.194 -0.635 2.271 255 255 255
-0.574 0.646 1.346 255 255 255
0.183 -0.808 1.715 255 255 255
0.414 -0.174 1.128 0 0 0
-1.18 -0.334 1.636 255 255 255
-0.96 0.466 1.824 255 255 255
0.243 0.409 1.611 255 255 255
0.262 0.47 1.594 255 255 255
0.142 -0.165 1.661 255 255 255
-0.974 -0.68 2.391 255 255 255
-0.182 -0.148 2.023 255 255 255
-1.117 -0.26 2.454 255 255 255
-0.544 0.067 0.81 255 255 255
0.015 -0.842 1.775 0 0 0
0.499 -0.254 1.198 255 255 255
0.188 0.277 1.673 255 255 255
-0.129 0.689 1.359 255 255 255
-1.355 -0.298 2.291 255 255 255
0.34 -0.531 2.028 255 255 255
0.326 0.3 1.434 255 255 255
-0.17 0.38 2.004 255 255 255
-0.134 -0.093 2.156 255 255 255
-0.56 0.581 1.565 255 255 255
0.091 -0.576 1.777 255 255 255
0.601 -0.185 1.036 255 255 255
-0.906 -1.189 2.254 255 255 255
-1.236 -0.145 2.421 255 255 255
-0.004 -0.015 1.971 255 255 255
0.324 0.12 1.404 255 255 255
0.607 0.027 0.915 255 255 255
-0.712 -1.658 2.213 0 0 0
-0.684 0.499 1.772 0 0 0
0.437 0.179 1.227 255 255 255
-0.39 -0.272 1.843 255 255 255
0.516 -0.114 1.018 255 255 255
-1.003 -1.389 2.122 255 255 255
-0.987 -0.797 2.341 255 255 255
-0.15 0.329 2.125 255 255 255
-0.133 -0.115 2.152 255 255 255
-0.593 0.517 1.715 255 255 255
-0.989 -0.074 2.595 255 255 255
0.462 -0.076 1.138 255 255 255
-0.049 -0.986 1.853 0 0 0
-0.971 -1.444 2.117 255 255 255
-1.093 0.007 2.53 255 255 255
0.517 -0.315 1.163 255 255 255
0.118 0.606 1.678 255 255 255
-0.448 0.549 1.722 255 255 255
-0.162 0.234 2.242 255 255 255
-0.111 0.662 1.44 255 255 255
-0.321 -0.925 1.654 255 255 255
-1.113 -0.343 1.698 255 255 255
-0.32 -0.043 1.992 255 255 255
-1.37 0.114 2.337 255 255 255
-0.201 -0.287 1.962 255 255 255
0.058 -0.439 1.81 255 255 255
-1.294 -0.944 2.095 255 255 255
0.578 -0.031 0.953 255 255 255
-0.475 -0.298 2.104 255 255 255
0.314 -0.086 1.386 255 255 255
0.244 -0.06 1.505 255 255 255
0.37 -0.187 1.25 255 255 255
-0.025 0.065 2.026 255 255 255
-0.885 -0.145 1.238 255 255 255
-1.378 -0.097 2.351 255 255 255
-1.117 -0.313 1.709 255 255 255
-0.057 -1.016 1.855 0 0 0
-1.348 -0.598 2.009 255 255 255
0.487 -0.069 1.097 255 255 255
-0.191 0.274 2.166 255 255 255
-1.36 -0.478 2.226 255 255 255
-0.977 -0.196 2.561 255 255 255
-0.167 0.703 1.298 255 255 255
0.334 -0.219 1.241 0 0 0
0.015 -0.053 1.928 255 255 255
0.162 0.536 1.762 255 255 255
-0.353 0.8 2.068 255 255 255
0.291 0.286 1.491 255 255 255
-1.072 -0.089 2.537 255 255 255
0.341 0.29 1.408 255 255 255
-0.777 -1.215 2.327 255 255 255
-1.243 -0.58 2.261 255 255 255
-0.112 0.061 2.158 255 255 255
-0.682 0.597 1.475 255 255 255
-0.517 -0.466 2.167 255 255 255
-0.112 0.475 1.821 255 255 255
0.27 -0.197 1.438 255 255 255
0.527 -0.119 0.939 0 0 0
-0.99 0.04 2.63 255 255 255
-1.182 -0.982 2.152 255 255 255
0.159 -0.181 1.625 255 255 255
-0.499 -0.206 2.178 255 255 255
-1.244 -0.311 2.355 255 255 255
-1.167 -0.602 2.294 255 255 255
-0.1 -0.818 1.815 255 255 255
0.004 0.499 1.997 255 255 255
0.53 -0.391 1.146 255 255 255
0.23 0.171 1.571 255 255 255
-1.132 0.236 2.074 255 255 255
0.4 0.429 1.335 255 255 255
0.121 0.22 0.402 255 255 255
-0.056 -0.575 1.944 255 255 255
-1.234 -0.326 2.357 255 255 255
-0.713 -0.319 2.482 255 255 255
-0.88 -0.231 2.611 255 255 255
-0.103 -0.492 2.026 0 0 0
0.23 -1.127 1.618 255 255 255
0.484 0.316 1.171 255 255 255
-0.539 0.616 1.459 255 255 255
0.102 -0.622 1.762 255 255 255
-0.373 0.416 2.081 255 255 255
-0.327 0.129 2.058 255 255 255
0.086 0.554 1.838 255 255 255
0.187 0.039 1.619 255 255 255
-0.403 0.411 2.055 0 0 0
0.404 0.145 1.276 255 255 255
-1.026 0.463 1.824 255 255 255
-0.363 0.516 1.85 255 255 255
0.204 -0.28 1.512 255 255 255
-0.327 -0.442 1.836 255 255 255
-0.904 -0.298 2.577 255 255 255
0.424 0.121 1.235 255 255 255
-1.03 0.202 2.379 255 255 255
-0.541 -0.246 2.293 255 255 255
0.387 0.198 1.316 255 255 255
-0.602 -1.162 2.241 255 255 255
-0.077 -0.549 1.984 0 0 0
0.044 -0.837 1.737 0 0 0
-1.167 -0.781 2.234 255 255 255
0.234 0.183 0.522 255 255 255
-0.922 -1.423 2.161 255 255 255
0.365 0.057 1.327 255 255 255
0.611 0.023 0.909 255 255 255
-1.12 -0.336 1.702 255 255 255
-0.978 -0.787 2.349 255 255 255
-0.7 -0.508 2.414 255 255 255
-1.113 -0.302 1.636 255 255 255
-1.129 -0.998 2.183 255 255 255
0.147 0.145 1.715 255 255 255
0.644 -0.22 1.046 255 255 255
0.464 -0.245 1.273 255 255 255
0.356 -0.609 2.009 255 255 255
-0.445 0.648 1.381 255 255 255
0.051 -0.014 1.867 255 255 255
0.14 0.107 1.716 255 255 255
0.375 -0.499 2.036 255 255 255
0.033 0.557 1.809 0 0 0
-1.136 -0.687 2.286 255 255 255
0.116 0.213 0.412 255 255 255
-1.239 -0.379 2.327 255 255 255
-0.02 -0.356 1.93 255 255 255
0.516 -0.157 1.047 255 255 255
-1.066 -1.064 2.2 255 255 255
-0.663 -1.176 2.212 255 255 255
0.489 -0.339 1.189 255 255 255
-0.679 -1.111 2.217 255 255 255
0.319 -0.102 1.371 255 255 255
-0.28 -0.426 1.855 255 255 255
-1.043 -0.67 2.353 255 255 255
0.472 0.001 1.132 255 255 255
-1.189 -0.819 2.21 255 255 255
0.109 0.21 0.425 255 255 255
-0.104 0.286 2.158 255 255 255
-1.27 0.037 2.394 255 255 255
0.497 0.207 1.127 255 255 255
0.189 0.131 1.633 255 255 255
0.346 -0.171 1.315 255 255 255
-0.932 0.505 1.734 255 255 255
0.187 0.652 1.56 0 0 0
0.182 -0.451 1.836 255 255 255
0.208 -0.136 1.551 255 255 255
-0.057 0.505 1.973 255 255 255
-1.241 -0.346 2.346 255 255 255
-0.96 -0.973 2.3 255 255 255
-0.524 0.46 1.793 255 255 255
-0.85 -0.575 2.503 255 255 255
-0.069 -0.316 2.003 255 255 255
-0.192 0.248 2.171 255 255 255
-1.111 -1.154 2.143 255 255 255
0.493 0.236 1.139 255 255 255
-0.155 0.005 2.102 255 255 255
-1.126 -1.308 2.08 255 255 255
-1.433 -0.077 2.347 255 255 255
0.23 0.412 1.638 255 255 255
0.043 0.352 1.963 255 255 255
-0.289 0.009 2.035 255 255 255
-0.496 -0.174 2.164 255 255 255
-0.851 0.143 2.357 255 255 255
0.356 -0.191 1.277 255 255 255
0.411 -0.175 1.12 0 0 0
-0.404 0.255 2.058 255 255 255
-0.148 -1.077 1.741 255 255 255
-1.353 -0.352 2.271 255 255 255
-0.176 -0.579 1.857 255 255 255
0.126 0.557 1.807 255 255 255
-1.151 -0.353 1.649 255 255 255
-0.34 -0.342 1.858 255 255 255
0.478 0.106 1.143 255 255 255
-0.403 0.061 1.98 255 255 255
-0.739 0.033 2.585 255 255 255
0.346 -0.072 1.332 255 255 255
-0.438 0.65 1.38 255 255 255
-0.867 0.267 2.322 255 255 255
-0.263 -1.508 2.104 255 255 255
0.409 0.185 1.278 255 255 255
0.337 -0.507 2.038 255 255 255
-0.115 -0.428 2.027 0 0 0
-1.025 0.293 2.122 255 255 255
0.287 -0.246 1.315 0 0 0
-0.349 0.908 2.071 255 255 255
-0.425 0.568 1.655 255 255 255
0.459 0.084 1.17 255 255 255
0.102 -0.591 1.773 0 0 0
-1.064 -0.862 2.267 255 255 255
0.526 -0.04 1.038 255 255 255
-0.044 -0.949 1.846 255 255 255
-0.512 0.636 1.402 0 0 0
-0.721 -1.461 2.272 255 255 255
-0.257 -0.777 1.752 255 255 255
-0.112 -0.977 1.757 0 0 0
-0.986 -0.749 2.364 255 255 255
-0.254 -0.811 1.743 255 255 255
-0.338 -0.295 1.872 255 255 255
0.513 0.081 1.078 255 255 255
0.092 0.208 0.442 255 255 255
-0.363 -0.112 1.937 255 255 255
-0.136 -0.309 1.981 255 255 255
-0.98 -0.65 2.398 255 255 255
0.259 -0.247 1.435 255 255 255
-0.536 0.071 0.802 255 255 255
-1.25 -0.697 2.207 255 255 255
-1.213 -0.297 2.378 255 255 255
-1.339 -0.169 2.347 255 255 255
0.433 -0.132 1.176 255 255 255
0.06 0.248 1.903 255 255 255
-1.204 -1.02 2.127 255 255 255
-0.056 -0.31 1.992 255 255 255
-0.445 0.668 1.321 255 255 255
-0.199 -0.594 1.852 255 255 255
-0.436 0.412 1.951 255 255 255
-1.138 -0.982 2.181 255 255 255
-0.009 0.471 2.04 255 255 255
0.422 -0.054 1.21 255 255 255
0.491 0.01 1.102 255 255 255
0.073 0.492 1.906 255 255 255
-0.54 0.664 1.303 255 255 255
0.417 -0.007 1.227 255 255 255
-0.388 -0.015 1.965 255 255 255
0.293 -0.13 1.41 255 255 255
-0.634 0.537 1.692 255 255 255
0.441 0.02 1.189 255 255 255
-1.336 -0.293 2.301 255 255 255
0.277 0.027 1.467 255 255 255
0.28 -0.034 1.45 255 255 255
0.116 -0.9 1.674 255 255 255
-1.214 -1.044 2.116 255 255 255
-1.376 -0.449 2.225 255 255 255
0.348 0.405 1.422 255 255 255
0.384 0.008 1.286 255 255 255
0.043 -0.583 1.775 255 255 255
-0.843 -0.299 2.602 255 255 255
0.552 0.04 1.007 255 255 255
-0.834 -0.537 2.529 255 255 255
-0.074 0.668 1.441 255 255 255
0.019 -1.255 1.679 0 0 0
-1.4 -0.752 2.098 255 255 255
-1.178 0.281 2.045 255 255 255
-0.372 0.449 2.073 255 255 255
-0.146 0.619 1.583 255 255 255
-0.124 -0.608 1.872 255 255 255
-0.663 0.279 2.071 255 255 255
0.317 0.529 1.501 0 0 0
0.362 -0.01 1.318 255 255 255
0.492 0.095 1.114 255 255 255
-0.141 -0.413 1.933 255 255 255
-1.08 -0.339 1.686 0 0 0
-0.277 -0.496 1.852 255 255 255
0.31 -0.173 1.377 255 255 255
0.143 0.193 0.437 255 255 255
0.553 0.109 1.02 255 255 255
0.068 -0.71 1.722 255 255 255
0.234 0.629 1.619 0 0 0
-0.633 0.372 2.036 0 0 0
-1.022 -1.51 2.073 0 0 0
-0.99 -1.495 2.1 255 255 255
-1.243 -0.714 2.213 255 255 255
0.051 -0.327 1.814 255 255 255
-0.362 -1.713 2.264 0 0 0
0.389 0.175 1.306 255 255 255
0.462 0.299 1.205 255 255 255
-0.323 0.189 2.086 255 255 255
0.39 0.265 1.318 255 255 255
0.232 0.52 1.633 255 255 255
-0.86 -0.048 2.682 255 255 255
-0.327 -0.695 1.736 255 255 255
-0.607 -1.519 2.323 255 255 255
-0.104 -0.363 2.061 255 255 255
-0.755 -0.051 2.544 255 255 255
-1.331 0.017 2.392 255 255 255
0.599 -0.072 0.859 255 255 255
-1.072 -0.189 2.504 255 255 255
0.101 -0.836 1.69 255 255 255
-1.051 -0.373 2.455 255 255 255
0.478 0.087 1.138 255 255 255
-1.229 -0.4 2.329 255 255 255
0.105 -0.811 1.699 255 255 255
-0.547 0.442 1.864 255 255 255
-0.032 -0.665 1.883 255 255 255
0.261 -0.26 1.412 0 0 0
-0.108 -0.947 1.762 255 255 255
0.506 0.089 1.091 255 255 255
-0.646 0.001 0.877 255 255 255
-0.128 0.687 1.315 255 255 255
-1.093 -0.465 2.394 255 255 255
0.153 -0.019 1.67 255 255 255
-0.554 -1.599 2.329 255 255 255
-1.026 -0.729 2.34 255 255 255
-0.069 -0.429 1.992 255 255 255
-1.264 -0.18 2.391 255 255 255
0.287 0.337 1.513 255 255 255
-1.052 -0.664 2.348 255 255 255
0.418 -0.129 1.201 255 255 255
-0.016 -0.595 1.875 255 255 255
-0.3 -1.015 1.627 0 0 0
0.174 -0.119 1.614 255 255 255
-0.589 0.426 1.911 255 255 255
-0.4 -0.015 1.945 255 255 255
-1.331 -0.845 2.103 255 255 255
-0.335 -0.947 1.636 255 255 255
-1.35 -0.661 2.167 255 255 255
0.305 0.073 1.427 255 255 255
0.227 -0.235 1.501 255 255 255
-0.95 0.255 2.276 255 255 255
0.143 0.62 1.643 255 255 255
0.173 0.161 1.67 255 255 255
0.033 -0.518 1.816 0 0 0
0.429 -0.108 1.188 255 255 255
0.373 0.491 1.39 255 255 255
0.122 0.256 0.47 255 255 255
0.63 -0.146 0.99 255 255 255
0.501 0.292 1.137 255 255 255
0.334 -0.141 1.338 255 255 255
0.457 0.289 1.209 255 255 255
0.102 0.276 1.833 255 255 255
0.317 0.057 1.404 255 255 255
-1.376 -0.597 2.172 255 255 255
-0.267 -0.497 1.859 255 255 255
0.096 0.058 1.789 255 255 255
0.308 -0.325 1.461 255 255 255
-0.057 -0.184 2.014 255 255 255
-1.428 -0.232 2.27 255 255 255
-0.174 -1.327 1.954 255 255 255
-0.491 0.602 1.509 255 255 255
-1.204 -1.069 2.111 255 255 255
0.499 -0.378 1.163 255 255 255
0.074 0.692 1.446 255 255 255
-0.322 -0.422 1.833 255 255 255
0.314 0.02 1.403 255 255 255
-1.074 -0.677 2.329 255 255 255
-0.368 0.801 2.056 255 255 255
0.276 0.408 1.549 255 255 255
0.152 0.528 1.776 255 255 255
-1.163 -0.263 2.424 255 255 255
-0.505 0.673 1.288 255 255 255
0.526 -0.47 1.116 255 255 255
0.156 -0.208 1.628 255 255 255
0.193 -0.557 1.811 255 255 255
0.197 -0.24 1.556 255 255 255
-1.317 -0.229 2.338 255 255 255
-1.266 -0.688 2.206 255 255 255
0.078 0.19 0.465 255 255 255
-0.846 -1.642 2.139 255 255 255
-0.242 -0.302 1.932 255 255 255
0.172 0.553 1.744 255 255 255
-1.375 -0.562 2.077 255 255 255
-0.803 -0.272 2.603 255 255 255
-0.935 0.22 2.269 255 255 255
0.508 -0.009 1.075 255 255 255
0.015 -1.162 1.708 255 255 255
0.115 0.218 0.413 255 255 255
0.529 0.181 1.071 255 255 255
-0.315 -0.603 1.78 255 255 255
-0.59 0.471 1.775 255 255 255
-0.969 0.073 2.655 255 255 255
-0.236 -0.362 1.914 255 255 255
-0.892 0.475 1.827 255 255 255
0.321 -0.207 1.337 0 0 0
0.365 -0.1 1.296 255 255 255
0.457 -0.036 1.153 255 255 255
-1.167 0.348 2.109 255 255 255
-1.207 -0.649 2.259 255 255 255
0.447 -0.053 1.167 255 255 255
0.298 0.184 1.459 255 255 255
-0.213 -0.267 1.961 255 255 255
0.517 0.215 1.097 255 255 255
-1.094 -0.306 2.452 255 255 255
-0.683 -0.998 2.249 0 0 0
-0.952 -1.382 2.168 255 255 255
-0.215 -0.853 1.753 255 255 255
-0.316 -0.736 1.728 255 255 255
-0.879 0.194 2.315 255 255 255
0.122 0.257 0.47 255 255 255
0.442 -0.063 1.174 255 255 255
0.526 0.059 1.053 255 255 255
0.397 0.154 1.289 255 255 255
0.151 0.051 1.687 255 255 255
-0.881 -0.981 2.342 255 255 255
-0.791 -1.171 2.332 255 255 255
-0.507 -1.021 2.219 255 255 255
-0.959 -1.378 2.159 255 255 255
-0.09 -0.816 1.832 0 0 0
0.04 -0.074 1.872 255 255 255
-1.133 -0.653 2.3 255 255 255
0.52 -0.022 1.052 255 255 255
-0.33 0.477 1.994 255 255 255
-0.664 0.444 1.903 0 0 0
-0.337 -0.478 1.821 255 255 255
0.003 -0.565 1.855 0 0 0
0.471 0.219 1.175 255 255 255
-0.955 0.414 1.991 255 255 255
-0.727 -1.668 2.203 0 0 0
-0.998 -0.935 2.292 255 255 255
-0.915 -0.903 2.349 255 255 255
0.355 -0.206 1.271 0 0 0
0.094 0.667 1.483 0 0 0
-0.473 0.699 1.221 255 255 255
-0.261 0.055 2.069 255 255 255
0.235 0.18 0.525 255 255 255
-0.797 -0.69 2.494 255 255 255
-0.791 -1.373 2.26 255 255 255
0.632 -0.164 0.987 255 255 255
-0.978 -0.699 2.382 255 255 255
-1.064 -0.561 2.38 255 255 255
0.261 0.049 1.498 255 255 255
0.236 0.318 1.599 255 255 255
0.054 -0.643 1.745 255 255 255
0.515 -0.618 1.097 255 255 255
0.373 0.406 1.375 255 255 255
-1.023 -0.308 2.492 255 255 255
0.408 0.288 1.29 255 255 255
-0.424 0.669 1.32 255 255 255
0.175 -1.197 1.602 0 0 0
-1.127 -0.876 2.224 255 255 255
0.079 0.664 1.494 0 0 0
-0.182 -0.825 1.779 255 255 255
-0.487 0.595 1.531 255 255 255
-1.148 -0.453 2.363 255 255 255
-0.004 -0.28 1.921 255 255 255
-0.296 -0.73 1.744 255 255 255
0.313 -0.228 1.335 0 0 0
-1.309 -0.548 2.234 255 255 255
-0.156 -0.967 1.737 255 255 255
-0.221 -0.585 1.848 255 255 255
-0.202 -0.252 1.973 255 255 255
0.212 0.086 1.584 255 255 255
0.268 0.3 1.536 255 255 255
0.481 -0.044 1.114 255 255 255
-0.738 -0.373 2.452 255 255 255
0.512 -0.608 1.102 255 255 255
-0.12 -0.106 2.14 255 255 255
-0.524 0.625 1.433 0 0 0
0.033 -0.041 1.893 255 255 255
-0.325 0.046 2.024 255 255 255
-0.396 0.914 2.032 255 255 255
-1.08 -1.008 2.21 255 255 255
-0.767 -1.097 2.369 255 255 255
-0.792 -1.607 2.181 0 0 0
-0.695 0.589 1.499 255 255 255
0.106 -0.199 1.722 255 255 255
-0.254 -0.742 1.767 255 255 255
0.547 0.218 1.048 255 255 255
-0.235 0.005 2.06 255 255 255
-0.813 -0.909 2.408 255 255 255
0.541 0.202 1.054 255 255 255
0.464 0.356 1.207 255 255 255
0.517 0.076 1.07 255 255 255
-0.05 0.104 2.082 255 255 255
0.177 -0.671 1.77 255 255 255
-0.355 0.645 1.416 255 255 255
-1.249 -0.29 2.354 255 255 255
0.209 0.67 1.516 0 0 0
0.003 -0.228 1.915 255 255 255
-1.078 -0.269 1.722 255 255 255
0.473 0.224 1.172 255 255 255
0.186 0.001 1.614 255 255 255
0.329 0.085 1.39 255 255 255
-0.186 -0.429 1.912 255 255 255
0.402 -0.017 1.248 255 255 255
-0.454 0.342 2.044 255 255 255
0.332 -0.013 1.367 255 255 255
-0.06 -0.331 1.992 255 255 255
-0.176 0.376 2.023 255 255 255
0.168 0.044 1.652 255 255 255
-0.922 -1.642 2.079 255 255 255
0.416 -0.107 1.206 255 255 255
0.127 0.242 1.772 255 255 255
0.53 -0.051 1.03 255 255 255
-0.302 0.543 1.759 255 255 255
-0.175 -0.12 2.03 255 255 255
-0.546 0.419 1.924 255 255 255
-0.962 -1.021 2.278 255 255 255
0.129 -1.186 1.584 0 0 0
-0.312 -0.81 1.707 255 255 255
-1.308 -0.814 2.134 255 255 255
-0.736 -0.102 2.537 255 255 255
-0.405 0.456 1.931 255 255 255
-0.296 -0.757 1.74 255 255 255
-1.187 -1.031 2.135 255 255 255
-0.032 -0.2 1.979 255 255 255
0.373 0.207 1.338 255 255 255
-1.15 -0.036 2.509 255 255 255
-0.306 0.543 1.76 255 255 255
-0.31 0.168 2.085 255 255 255
-1.099 -0.391 2.416 255 255 255
-1.017 0.271 1.652 255 255 255
0.166 0.642 1.591 255 255 255
0.499 -0.278 1.188 255 255 255
