ply
format ascii 1.0
comment Created by Open3D
element vertex 1572
property double x
property double y
property double z
property uchar red
property uchar green
property uchar blue
end_header
-0.299 0.337 2.111 255 255 255
-0.489 0.644 1.42 0 0 0
0.089 0.011 1.793 255 255 255
-1.036 -0.626 2.371 255 255 255
-0.251 -0.87 1.731 255 255 255
0.533 -0.378 1.155 255 255 255
-0.906 -0.656 2.44 255 255 255
0.531 -0.729 1.057 255 255 255
-0.112 -0.432 2.042 0 0 0
-0.358 0.161 2.045 255 255 255
0.092 -0.408 1.823 255 255 255
-1.338 -0.677 2.175 255 255 255
-1.011 -0.968 2.273 255 255 255
-1.176 -0.642 2.282 255 255 255
0.113 0.339 1.826 255 255 255
-0.376 -0.323 1.829 255 255 255
-0.36 -0.403 1.812 255 255 255
0.159 -1.169 1.606 0 0 0
-1.106 -1.288 2.107 255 255 255
0.265 0.013 1.487 255 255 255
-0.689 -0.014 0.916 255 255 255
-1.135 -0.858 2.234 255 255 255
-0.692 -0.596 2.391 255 255 255
-0.547 0.627 1.459 255 255 255
0.128 0.094 1.738 255 255 255
-0.775 -1.044 2.394 255 255 255
0.495 0.223 1.134 255 255 255
-0.711 0.535 1.736 255 255 255
0.395 -0.481 2.011 255 255 255
-0.233 0.685 1.363 255 255 255
-0.362 0.221 2.063 255 255 255
-0.282 0.476 1.891 255 255 255
-0.973 -1.128 2.243 255 255 255
-0.961 -0.305 2.527 255 255 255
0.487 -0.187 1.17 255 255 255
0.35 0.235 1.38 255 255 255
-0.794 -1.015 2.39 255 255 255
-0.241 -0.332 1.921 255 255 255
-1.402 0.099 2.328 255 255 255
-1.01 -1.479 2.1 255 255 255
-0.588 0.638 1.415 0 0 0
-1.24 -0.608 2.251 255 255 255
-0.717 -0.329 2.476 255 255 255
0.201 0.627 1.668 255 255 255
0.284 -0.237 1.341 0 0 0
-0.649 0.603 1.521 255 255 255
-0.412 0.553 1.779 255 255 255
-1.392 -0.421 2.235 255 255 255
-1.11 -0.305 1.714 255 255 255
-0.223 0.18 2.138 255 255 255
0.09 -0.935 1.659 255 255 255
-1.091 -0.036 2.539 255 255 255
0.084 0.698 1.458 255 255 255
0.376 -0.181 1.242 0 0 0
-0.088 0.518 1.956 255 255 255
0.385 -0.185 1.16 0 0 0
0.185 0.686 1.497 255 255 255
-0.897 -0.802 2.4 255 255 255
-0.372 -0.288 1.849 255 255 255
0.117 0.249 0.462 255 255 255
0.028 0.484 1.987 255 255 255
0.031 0.364 1.986 255 255 255
-0.748 0.561 1.64 255 255 255
0.475 -0.059 1.124 255 255 255
0.555 -0.072 0.969 255 255 255
-0.7 -1.466 2.296 255 255 255
-0.315 0.066 2.041 255 255 255
-0.723 -0.02 2.567 255 255 255
-0.232 -0.607 1.837 255 255 255
-0.807 -0.857 2.438 255 255 255
-1.278 -0.364 2.311 255 255 255
0.28 -0.164 1.431 255 255 255
0.496 -0.419 1.166 255 255 255
0.144 -0.615 1.797 255 255 255
0.461 0.381 1.219 255 255 255
-0.595 0.482 1.801 255 255 255
-1.224 -1.064 2.105 255 255 255
-0.074 -0.263 2.031 255 255 255
0.131 0.112 1.737 255 255 255
-0.004 -0.883 1.805 255 255 255
-0.802 -1.291 2.29 255 255 255
0.557 0.204 1.032 255 255 255
-1.393 -0.507 1.993 0 0 0
0.062 -1.047 1.65 0 0 0
0.159 -0.405 1.791 255 255 255
-0.104 -0.8 1.823 255 255 255
0.563 0.077 0.996 255 255 255
0.317 -0.122 1.373 255 255 255
0.619 -0.012 0.89 255 255 255
-0.302 -0.023 2.009 255 255 255
-0.341 0.192 2.066 255 255 255
-0.992 -1.508 2.1 255 255 255
0.179 -0.277 1.565 255 255 255
0.147 -0.775 1.745 255 255 255
-0.569 0.354 2.185 255 255 255
-0.237 -0.766 1.776 255 255 255
-0.14 -0.293 1.984 255 255 255
-0.853 -1.175 2.3 255 255 255
-1.049 -0.655 2.355 255 255 255
-0.076 -0.948 1.843 0 0 0
-0.14 0.456 1.807 255 255 255
-0.108 -0.921 1.781 255 255 255
-0.802 -1.224 2.316 255 255 255
0.323 -0.194 1.346 0 0 0
0.428 -0.22 1.282 255 255 255
-0.505 0.563 1.707 0 0 0
-0.342 0.209 2.072 255 255 255
-0.054 0.457 2.035 255 255 255
0.494 0.003 1.102 255 255 255
-0.048 0.706 1.369 255 255 255
-0.526 -1.505 2.368 255 255 255
-1.148 0.312 2.088 255 255 255
-0.008 0.041 1.995 255 255 255
-0.396 0.575 1.702 255 255 255
-1.257 -0.119 2.414 255 255 255
-1.374 -0.367 2.263 255 255 255
-0.418 0.084 1.97 255 255 255
0.463 -0.191 1.199 255 255 255
0.313 0.415 1.486 255 255 255
0.18 0.518 1.727 255 255 255
0.536 -0.004 1.031 255 255 255
-0.987 -1.529 2.093 0 0 0
-0.299 -0.574 1.803 255 255 255
-0.9 0.296 2.308 255 255 255
0.592 -0.078 0.838 255 255 255
-0.882 -1.576 2.143 0 0 0
0.626 0.015 0.884 255 255 255
-0.317 -0.466 1.839 255 255 255
-1.155 -0.428 2.368 255 255 255
0.119 -0.156 1.707 255 255 255
0.623 0.015 0.888 255 255 255
-0.857 -0.641 2.48 255 255 255
-0.171 0.694 1.366 255 255 255
0.257 0.07 1.51 255 255 255
0.291 0.286 1.491 255 255 255
0.337 -0.163 1.335 255 255 255
-0.677 0.56 1.655 255 255 255
0.433 0.122 1.222 255 255 255
0.363 0.16 1.347 255 255 255
-0.256 0.941 2.108 255 255 255
-0.733 -1.373 2.308 255 255 255
0.41 0.383 1.308 255 255 255
-0.315 -0.253 1.905 255 255 255
-0.864 -1.206 2.289 255 255 255
-0.543 -0.791 2.199 255 255 255
-0.087 -0.237 2.059 255 255 255
-0.453 0.425 1.97 255 255 255
-0.405 0.933 2.029 255 255 255
-0.554 0.521 1.725 255 255 255
-0.559 -1.529 2.358 255 255 255
-1.083 -0.416 2.416 255 255 255
-0.749 -1.199 2.35 255 255 255
0.299 0.006 1.427 255 255 255
0.534 -0.544 1.101 255 255 255
-0.453 0.472 1.839 255 255 255
-0.916 -0.607 2.46 255 255 255
0.525 -0.459 1.123 255 255 255
-0.95 -0.387 2.505 255 255 255
0.134 0.125 1.732 255 255 255
0.551 -0.074 0.975 255 255 255
-0.821 -0.358 2.597 255 255 255
-0.612 -1.157 2.241 255 255 255
-0.589 0.654 1.368 255 255 255
-1.088 -0.1 2.518 255 255 255
-1.389 -0.463 2.214 255 255 255
-0.774 -1.581 2.208 255 255 255
0.528 -0.008 1.042 255 255 255
-0.971 -0.223 2.557 255 255 255
-1.042 -1.276 2.15 255 255 255
0.031 0.293 1.973 255 255 255
-0.442 0.273 2.032 255 255 255
-0.644 0.273 2.329 255 255 255
-1.211 -0.674 2.251 255 255 255
0.041 -0.998 1.708 0 0 0
0.123 -0.826 1.704 0 0 0
-0.945 -1.206 2.231 255 255 255
-1.068 -1.116 2.188 255 255 255
-0.586 0.039 0.834 255 255 255
-0.334 -1.535 2.241 255 255 255
0.42 0.443 1.291 255 255 255
-0.33 0.145 2.054 255 255 255
-0.43 -0.042 1.952 255 255 255
-0.577 -0.072 2.253 255 255 255
-0.209 -0.689 1.817 255 255 255
0.546 0.285 1.074 255 255 255
-0.276 -0.718 1.768 255 255 255
-1.258 -0.55 2.261 255 255 255
-0.916 0.518 1.745 255 255 255
0.63 -0.117 0.966 0 0 0
0.572 0.05 0.977 255 255 255
-0.142 -0.704 1.837 255 255 255
-1.019 0.054 2.538 255 255 255
0.611 -0.159 1.027 255 255 255
-0.343 0.17 2.056 255 255 255
-0.259 0.101 2.084 255 255 255
-1.031 -1.064 2.226 255 255 255
-0.302 -0.577 1.8 255 255 255
0.493 -0.121 1.056 255 255 255
0.333 0.166 1.4 255 255 255
-0.943 -0.208 2.579 255 255 255
0.626 -0.235 1.111 255 255 255
0.525 -0.464 1.122 255 255 255
0.083 -0.346 1.722 0 0 0
0.418 0.103 1.244 255 255 255
-0.619 -0.286 2.388 255 255 255
0.531 -0.616 1.082 255 255 255
0.151 0.198 0.476 255 255 255
-0.02 -0.883 1.825 255 255 255
0.453 -0.221 1.263 255 255 255
-1.181 -0.13 2.458 255 255 255
0.026 -0.048 1.907 255 255 255
-0.676 -0.359 2.48 255 255 255
-0.164 0.689 1.384 255 255 255
-0.323 -0.039 1.987 255 255 255
-0.295 -0.071 1.99 255 255 255
-1.006 0.104 2.592 255 255 255
0.022 -0.983 1.737 0 0 0
-0.215 -0.178 1.99 255 255 255
-0.987 -0.625 2.404 255 255 255
-0.23 -0.976 1.707 255 255 255
0.04 -0.52 1.799 255 255 255
0.126 -0.03 1.714 255 255 255
-0.054 0.109 2.086 255 255 255
0.562 -0.071 0.954 255 255 255
-0.086 -0.525 2.008 0 0 0
-0.512 -0.616 2.121 255 255 255
0.011 0.159 1.989 255 255 255
-0.016 -1.094 1.78 255 255 255
0.268 0.13 1.499 255 255 255
-0.324 0.652 1.436 255 255 255
-0.71 -1.411 2.311 255 255 255
-0.539 0.048 2.316 255 255 255
-0.285 -0.964 1.673 255 255 255
0.178 0.6 1.723 255 255 255
0.116 -0.855 1.694 255 255 255
0.015 -0.204 1.899 255 255 255
-1.154 0.033 2.492 255 255 255
-0.153 -0.728 1.823 255 255 255
-0.468 0.542 1.758 255 255 255
-0.445 0.687 1.303 255 255 255
-1.151 0.338 2.11 255 255 255
0.416 -0.136 1.202 255 255 255
0.011 -1.152 1.723 255 255 255
0.253 0.083 1.519 255 255 255
-1.39 -0.545 1.991 255 255 255
-0.738 0.486 1.849 255 255 255
0.415 0.345 1.294 255 255 255
0.576 -0.023 0.962 255 255 255
0.538 -0.638 1.07 255 255 255
-0.327 -0.486 1.826 255 255 255
-1.121 -1.229 2.113 255 255 255
-0.606 0.447 1.91 255 255 255
0.322 0.267 1.434 255 255 255
-0.626 0.055 2.425 255 255 255
0.007 -0.296 1.902 255 255 255
0.551 -0.266 1.204 255 255 255
-0.157 -0.929 1.759 255 255 255
0.051 -0.897 1.711 0 0 0
-0.162 -1.249 1.948 0 0 0
-0.387 -0.277 1.848 255 255 255
-0.611 0.458 1.868 0 0 0
0.468 0.056 1.153 255 255 255
-0.313 -0.561 1.8 255 255 255
-0.549 0.043 2.316 255 255 255
0.21 -0.037 1.569 255 255 255
-1.092 -0.711 2.311 255 255 255
0.078 0.279 1.875 255 255 255
0.509 0.303 1.128 255 255 255
-0.544 0.481 1.779 255 255 255
0.281 0.613 1.572 255 255 255
0.517 -0.208 1.18 255 255 255
-1.297 -0.654 2.204 255 255 255
-1.005 -1.109 2.23 255 255 255
-0.988 -0.679 2.384 255 255 255
-0.113 -0.458 1.991 0 0 0
0.487 0.096 1.126 255 255 255
-0.142 -0.365 1.955 255 255 255
-0.501 0.43 1.944 255 255 255
-0.98 -1.503 2.117 255 255 255
-1.196 -0.601 2.281 255 255 255
0.062 -0.902 1.687 0 0 0
0.462 0.2 1.188 255 255 255
-1.058 -1.292 2.129 255 255 255
-1.322 -0.888 2.108 255 255 255
0.022 -0.098 1.905 255 255 255
0.167 0.679 1.514 0 0 0
-0.028 -0.949 1.829 255 255 255
-0.049 -1.091 1.832 0 0 0
0.257 0.224 1.538 255 255 255
0.242 -0.084 1.509 255 255 255
0.5 -0.199 1.193 0 0 0
-0.116 0.547 1.883 255 255 255
0.212 -0.254 1.524 0 0 0
0.402 0.011 1.256 255 255 255
-1.207 -0.067 2.462 255 255 255
0.298 0.401 1.509 255 255 255
-0.953 -1.626 2.077 255 255 255
-0.182 0.696 1.355 255 255 255
0.242 0.615 1.632 255 255 255
0.142 -0.215 1.655 255 255 255
-0.217 -0.663 1.824 255 255 255
0.098 -0.735 1.731 255 255 255
-0.082 -0.365 2.024 255 255 255
0.321 0.563 1.48 255 255 255
-0.342 -0.147 1.932 255 255 255
-1.073 -1.311 2.115 255 255 255
0.52 -0.031 1.052 255 255 255
-0.354 0.27 2.087 255 255 255
-1.079 -0.222 1.474 255 255 255
-0.346 -0.879 1.662 255 255 255
-0.833 0.507 1.791 255 255 255
-1.054 -0.471 2.41 255 255 255
0.076 0.65 1.581 255 255 255
-0.377 -0.777 1.718 0 0 0
0.438 0.288 1.243 255 255 255
-0.437 -1.658 2.369 255 255 255
-0.175 -0.716 1.814 255 255 255
-0.689 0.259 2.42 255 255 255
-1.043 -0.246 2.501 255 255 255
-0.33 0.001 2.004 255 255 255
-0.866 -1.478 2.191 255 255 255
0.225 -0.158 1.52 255 255 255
-0.768 -0.067 2.553 255 255 255
0.428 -0.995 1.281 255 255 255
0.469 0.003 1.142 255 255 255
-0.04 -0.186 1.993 255 255 255
-0.663 -1.502 2.308 255 255 255
-0.962 -0.939 2.314 255 255 255
-0.013 0.319 2.061 255 255 255
-0.016 -1.038 1.793 255 255 255
0.544 -0.048 1.012 255 255 255
-0.726 0.081 2.596 255 255 255
0.103 -0.182 1.732 255 255 255
-0.376 -0.281 1.85 255 255 255
0.11 -0.514 1.801 0 0 0
0.623 -0.173 1.007 255 255 255
-0.562 0.602 1.553 255 255 255
-1.237 -0.463 2.302 255 255 255
-1.295 -0.94 2.099 255 255 255
0.201 -1.184 1.61 0 0 0
-0.234 0.709 1.296 255 255 255
-0.538 -0.985 2.283 255 255 255
0.55 -0.092 0.932 0 0 0
-0.101 -0.778 1.833 255 255 255
-0.048 -0.774 1.898 255 255 255
0.158 -0.039 1.656 255 255 255
-0.587 0.649 1.382 255 255 255
0.121 0.437 1.823 255 255 255
0.153 0.19 0.468 255 255 255
-0.739 -0.143 2.524 255 255 255
0.499 0.071 1.1 255 255 255
-1.205 -0.334 1.6 255 255 255
-1.149 -0.264 2.433 255 255 255
0.509 0.068 1.087 255 255 255
-1.37 -0.617 1.975 255 255 255
-1.252 -0.632 2.235 255 255 255
0.255 -0.133 1.475 255 255 255
-0.816 -0.118 2.651 255 255 255
0.147 0.621 1.685 255 255 255
-0.685 -0.728 2.342 255 255 255
-0.443 0.536 1.782 255 255 255
-0.328 0.294 2.11 255 255 255
-0.901 -0.687 2.437 255 255 255
0.377 0.237 1.338 255 255 255
-0.016 -0.187 1.96 255 255 255
-1.008 -0.52 2.43 255 255 255
-1.042 0.038 2.535 255 255 255
0.38 0.054 1.303 255 255 255
-1.378 -0.702 2.035 255 255 255
-0.383 0.596 1.602 0 0 0
0.428 -0.098 1.193 255 255 255
-0.096 0.657 1.509 255 255 255
-1.02 -0.81 2.323 255 255 255
-0.939 -0.499 2.478 255 255 255
-0.451 0.557 1.747 255 255 255
0.582 -0.057 0.928 255 255 255
-0.11 0.697 1.377 255 255 255
-1.342 -0.8 2.124 255 255 255
0.503 -0.117 1.038 255 255 255
-0.109 0.494 1.836 255 255 255
-1.254 -1.021 2.098 255 255 255
-0.737 -1.435 2.28 255 255 255
-0.33 -0.591 1.779 255 255 255
-1.271 -0.129 2.406 255 255 255
-0.555 0.672 1.331 255 255 255
0.385 0.271 1.333 255 255 255
-0.008 -0.717 1.843 255 255 255
-0.1 -0.252 2.077 255 255 255
0.039 0.665 1.546 255 255 255
-0.697 -0.014 1.059 255 255 255
0.052 0.125 1.889 255 255 255
0.183 -0.837 1.713 255 255 255
-1.068 -0.079 2.54 255 255 255
0.069 -0.359 1.731 0 0 0
-0.37 0.509 1.87 255 255 255
-0.106 -0.096 2.118 255 255 255
0.187 -0.784 1.727 255 255 255
0.095 0.705 1.429 255 255 255
-0.776 -1.487 2.238 255 255 255
0.064 -0.351 1.768 0 0 0
-0.493 -0.642 2.135 255 255 255
-0.545 0.576 1.633 255 255 255
-0.453 0.491 1.802 255 255 255
-0.034 0.394 2.081 255 255 255
0.14 0.636 1.636 255 255 255
-0.069 -0.855 1.91 0 0 0
0.534 -0.639 1.073 255 255 255
0.322 -0.086 1.374 255 255 255
-0.028 -0.285 1.957 255 255 255
-0.883 -0.086 2.646 255 255 255
-0.433 0.68 1.327 255 255 255
0.298 0.417 1.509 255 255 255
-0.506 -0.456 2.163 255 255 255
-0.6 0.597 1.549 255 255 255
0.197 -1.117 1.628 255 255 255
-0.963 -1.082 2.261 255 255 255
-1.02 0.262 2.136 255 255 255
0.521 -0.508 1.115 255 255 255
0.31 0.084 1.423 255 255 255
-0.578 0.627 1.459 255 255 255
0.159 -0.475 1.827 255 255 255
0.324 -0.214 1.313 0 0 0
0.475 -0.07 1.124 255 255 255
-1.23 -0.385 2.332 255 255 255
0.508 0.25 1.116 255 255 255
0.243 0.312 1.581 255 255 255
-0.135 0.625 1.608 255 255 255
0.318 0.124 1.415 255 255 255
0.083 -0.633 1.758 255 255 255
0.353 0.159 1.364 255 255 255
0.545 -0.227 1.134 255 255 255
-0.739 -0.037 1.127 255 255 255
0.476 -0.061 1.121 255 255 255
0.026 -0.108 1.896 255 255 255
-0.906 -1.39 2.195 255 255 255
-0.834 -0.092 2.675 255 255 255
-0.541 0.508 1.749 255 255 255
-1.093 0.292 2.098 255 255 255
0.074 -1.19 1.598 0 0 0
0.629 -0.152 0.997 255 255 255
-0.396 0.619 1.533 255 255 255
-0.886 -1.65 2.12 255 255 255
0.523 -0.042 1.047 255 255 255
0.16 0.426 1.761 255 255 255
0.102 -0.514 1.801 0 0 0
-0.008 -1.227 1.735 255 255 255
0.109 -0.879 1.682 255 255 255
-0.666 0.171 2.534 255 255 255
-0.92 -1.46 2.158 255 255 255
0.519 -0.486 1.122 255 255 255
-0.901 -0.976 2.338 255 255 255
-1.27 -0.364 2.318 255 255 255
-0.309 -0.97 1.656 255 255 255
0.312 0.371 1.476 255 255 255
-0.644 -1.03 2.266 255 255 255
0.249 -0.284 1.446 255 255 255
0.186 0.312 1.68 255 255 255
-0.056 -0.496 1.958 255 255 255
-0.377 -0.062 1.95 255 255 255
-0.974 -1.063 2.266 255 255 255
-0.361 0.68 1.348 255 255 255
0.107 -0.048 1.746 255 255 255
0.262 -0.02 1.485 255 255 255
-0.346 -0.027 1.98 255 255 255
0.065 -0.025 1.83 255 255 255
0.363 0.099 1.341 255 255 255
-0.141 0.071 2.203 255 255 255
-0.547 0.581 1.614 255 255 255
-0.586 -0.778 2.182 255 255 255
0.051 0.491 1.949 255 255 255
0.115 0.639 1.624 255 255 255
0.553 -0.417 1.159 255 255 255
-0.439 0.204 2.007 255 255 255
-1.308 0.074 2.372 255 255 255
-0.024 -0.765 1.856 255 255 255
0.56 -0.554 1.117 255 255 255
0.178 0.316 1.698 255 255 255
-1.235 -0.231 2.39 255 255 255
0.618 0.011 0.896 255 255 255
0.375 0.3 1.354 255 255 255
-0.761 -0.811 2.441 255 255 255
-0.872 0.465 1.886 255 255 255
0.53 0.227 1.078 255 255 255
-0.687 0.585 1.555 255 255 255
0.279 0.494 1.568 255 255 255
0.003 -0.497 1.871 0 0 0
-1.041 -0.621 2.369 255 255 255
-0.826 -1.086 2.346 255 255 255
-1.107 -0.455 2.388 255 255 255
-0.899 0.213 2.299 255 255 255
0.581 0.048 0.969 255 255 255
0.515 0.137 1.084 255 255 255
-0.247 -1.546 2.076 0 0 0
-0.166 0.715 1.309 255 255 255
-0.867 -1.04 2.335 255 255 255
-0.469 0.648 1.408 0 0 0
-0.001 0.448 2.031 255 255 255
0.377 -0.013 1.293 255 255 255
-0.348 0.683 1.343 255 255 255
-0.849 -1.145 2.315 255 255 255
-0.245 -0.2 1.968 255 255 255
-0.319 0.062 2.037 255 255 255
0.592 -0.125 0.997 255 255 255
-0.06 0.289 2.117 255 255 255
-1.1 -0.479 2.381 255 255 255
-0.144 0.023 2.192 255 255 255
0.035 0.358 1.977 255 255 255
-1.074 -1.423 2.072 255 255 255
-0.147 0.605 1.683 255 255 255
-0.065 -1.128 1.802 0 0 0
-0.551 0.449 1.892 255 255 255
-1.033 -0.617 2.378 255 255 255
-0.965 -0.233 2.556 255 255 255
-0.859 0.181 2.335 255 255 255
-0.686 0.339 2.037 255 255 255
0.285 0.435 1.54 255 255 255
0.509 -0.45 1.142 255 255 255
-0.745 -1.556 2.238 255 255 255
-0.247 -0.989 1.689 255 255 255
0.255 -0.008 1.498 255 255 255
0.375 0.111 1.321 255 255 255
-1.374 0.119 2.323 255 255 255
0.313 0.05 0.51 255 255 255
-0.183 -0.827 1.784 255 255 255
-1.192 -0.386 1.639 255 255 255
0.254 0.325 1.566 255 255 255
0.328 0.214 1.415 255 255 255
-0.351 -0.07 1.962 255 255 255
0.214 0.241 1.614 255 255 255
-0.016 -1.189 1.755 255 255 255
0.539 -0.432 1.143 255 255 255
0.095 0.228 1.83 255 255 255
-0.994 0.455 1.856 255 255 255
0.314 -0.22 1.282 0 0 0
0.128 -0.074 1.703 255 255 255
-0.862 -1.157 2.298 255 255 255
-0.656 0.572 1.627 255 255 255
-0.258 -0.36 1.9 255 255 255
-0.939 -0.449 2.498 255 255 255
-0.041 -0.079 2.012 255 255 255
-0.493 -1.734 2.336 0 0 0
-0.319 -0.182 1.934 255 255 255
-0.19 -0.735 1.808 255 255 255
-0.785 -0.372 2.553 255 255 255
-1.192 -0.377 2.365 255 255 255
-0.664 -1.581 2.282 255 255 255
0.555 -0.212 1.114 255 255 255
0.399 0.204 1.299 255 255 255
-0.311 -0.701 1.751 255 255 255
-0.395 0.399 2.062 255 255 255
-0.892 -0.588 2.476 255 255 255
-0.875 -0.774 2.423 255 255 255
0.412 0.452 1.31 255 255 255
-0.559 -0.783 2.406 0 0 0
-1.003 0.082 2.571 255 255 255
0.352 0.4 1.412 255 255 255
-0.356 0.403 2.087 255 255 255
-0.119 -0.181 2.121 255 255 255
-0.594 -1.03 2.249 255 255 255
-0.702 -0.422 2.45 255 255 255
-0.061 -0.319 1.997 255 255 255
-0.938 -0.224 2.578 255 255 255
-0.12 0.525 1.889 255 255 255
-0.23 0.072 2.087 255 255 255
0.178 0.625 1.675 255 255 255
-0.721 -1.699 2.208 255 255 255
0.347 0.519 1.448 0 0 0
0.358 0.167 1.359 255 255 255
0.203 0.166 1.615 255 255 255
0.625 0.047 0.886 255 255 255
-0.296 -0.279 1.905 255 255 255
-0.829 0.348 2.144 255 255 255
-0.452 0.65 1.416 0 0 0
0.223 0.543 1.66 255 255 255
0.404 -0.096 1.236 255 255 255
-0.325 -0.514 1.812 255 255 255
-0.781 -1.269 2.301 255 255 255
0.022 -0.512 1.839 0 0 0
0.366 0.291 1.367 255 255 255
-0.944 -1.135 2.254 255 255 255
-0.539 0.612 1.514 255 255 255
0.135 -1.027 1.645 0 0 0
0.086 -0.866 1.675 255 255 255
-0.267 0.182 2.109 255 255 255
-0.423 0.64 1.448 0 0 0
-1.298 -0.004 2.423 255 255 255
-0.123 -0.189 2.12 255 255 255
0.121 -1.134 1.607 255 255 255
0.173 -0.662 1.769 255 255 255
0.033 -0.197 1.869 255 255 255
0.273 0.253 1.517 255 255 255
0.471 -0.019 1.136 255 255 255
-1.217 -0.262 2.388 255 255 255
0.179 -1.146 1.635 255 255 255
0.551 -0.658 1.074 255 255 255
-0.976 -0.774 2.361 255 255 255
0.465 0.371 1.209 255 255 255
0.623 0.005 0.887 255 255 255
-0.279 0.538 1.854 255 255 255
-0.351 -0.483 1.811 255 255 255
0.135 -1.04 1.637 0 0 0
-1.02 -0.947 2.273 255 255 255
-0.523 -1.719 2.321 0 0 0
-0.98 -0.015 2.62 255 255 255
0.168 0.172 1.68 255 255 255
-0.247 -1.078 1.688 255 255 255
-0.75 0.424 2.013 255 255 255
0.047 -0.3 1.833 255 255 255
-0.512 -0.612 2.122 255 255 255
0.313 0.487 1.507 255 255 255
-0.765 -0.051 1.003 255 255 255
-0.382 -0.229 1.865 255 255 255
-0.184 -0.568 1.86 255 255 255
0.14 -0.196 1.666 255 255 255
-1.337 0.11 2.357 255 255 255
0.26 0.564 1.601 255 255 255
0.335 -0.171 1.337 255 255 255
-0.851 0.538 1.69 255 255 255
-1.145 -0.331 1.658 255 255 255
-0.839 -0.096 1.117 255 255 255
-0.394 -0.114 1.896 255 255 255
-0.238 -0.011 2.051 255 255 255
-0.626 0.323 2.143 255 255 255
0.124 0.197 0.464 255 255 255
0.176 -0.236 1.595 255 255 255
0.061 -0.779 1.703 255 255 255
-0.342 -0.619 1.755 255 255 255
-0.505 0.648 1.408 255 255 255
0.421 -0.131 1.196 255 255 255
-0.226 0.076 2.093 255 255 255
0.297 -0.068 1.416 255 255 255
0.099 0.086 1.789 255 255 255
0.482 -0.196 1.212 255 255 255
0.047 -0.47 1.797 255 255 255
-1.176 0.289 2.041 255 255 255
-1.197 0.321 2.066 255 255 255
-0.19 0.376 2.047 255 255 255
-0.951 -0.677 2.406 255 255 255
0.616 -0.165 1.02 255 255 255
0.127 -0.8 1.711 0 0 0
-0.711 -1.503 2.279 255 255 255
0.443 0.103 1.205 255 255 255
0.04 -0.768 1.753 0 0 0
-1.028 -0.814 2.314 255 255 255
0.402 0.047 1.264 255 255 255
-0.22 0.026 2.074 255 255 255
0.119 0.222 0.409 255 255 255
0.53 0.18 1.068 255 255 255
0.366 -0.19 1.254 0 0 0
-1.266 -1.003 2.103 255 255 255
0.579 -0.158 1.07 255 255 255
-0.72 -0.401 2.443 255 255 255
-0.676 0.487 1.82 255 255 255
-0.001 0.409 2.026 255 255 255
0.175 0.685 1.496 255 255 255
0.588 0.147 0.988 255 255 255
-0.588 -1.477 2.357 255 255 255
-0.041 -0.023 2.031 255 255 255
-1.072 -0.291 2.47 255 255 255
0.512 -0.464 1.133 255 255 255
0.247 0.432 1.608 255 255 255
0.404 0.353 1.315 255 255 255
-0.777 -1.494 2.239 255 255 255
-0.102 -0.045 2.117 255 255 255
0.044 -0.033 1.876 255 255 255
-0.66 -0.497 2.441 255 255 255
-0.963 -1.611 2.082 255 255 255
-0.446 0.343 2.047 255 255 255
0.539 -0.634 1.073 255 255 255
-0.171 0.038 2.094 255 255 255
0.456 0.17 1.191 255 255 255
-0.212 0.042 2.081 255 255 255
0.251 0.358 1.58 255 255 255
-0.263 -0.487 1.865 255 255 255
0.407 -0.126 1.225 255 255 255
-0.179 -0.881 1.768 255 255 255
0.158 0.364 1.747 255 255 255
-0.095 0.337 2.153 255 255 255
-0.131 -0.681 1.844 255 255 255
0.487 0.301 1.161 255 255 255
-0.276 -0.74 1.761 255 255 255
0.041 0.008 1.887 255 255 255
-1.385 -0.695 2.047 255 255 255
-1.355 -0.738 2.14 255 255 255
-0.59 0.61 1.508 255 255 255
-0.259 -0.744 1.772 255 255 255
-1.29 -0.26 2.342 255 255 255
-0.806 -1.279 2.291 255 255 255
-0.231 -0.499 1.883 255 255 255
0.59 -0.063 0.908 255 255 255
-0.24 0.257 2.091 255 255 255
-0.008 -0.319 1.923 255 255 255
-1.076 -1.038 2.204 255 255 255
0.517 -0.184 1.156 255 255 255
-0.221 -0.367 1.918 255 255 255
0.23 0.421 1.635 255 255 255
-0.208 0.691 1.37 255 255 255
-0.295 -1.518 2.18 255 255 255
-0.536 -1.228 2.245 255 255 255
-1.231 -0.903 2.156 255 255 255
-0.172 0.552 1.855 255 255 255
-0.637 -1.495 2.322 255 255 255
0.573 -0.156 1.075 255 255 255
-0.535 -0.802 2.202 255 255 255
0.23 0.186 0.52 255 255 255
-1.017 -1.121 2.215 255 255 255
0.612 -0.113 0.952 255 255 255
-1.009 0.481 1.815 255 255 255
0.51 -0.219 1.188 255 255 255
-1.016 0.038 2.544 255 255 255
-0.515 0.461 1.848 255 255 255
-0.166 0.287 2.231 255 255 255
-1.012 -0.489 2.432 255 255 255
-0.235 -0.491 1.885 255 255 255
-0.753 0.495 1.832 255 255 255
-1.294 -0.159 2.379 255 255 255
-0.303 -0.456 1.85 255 255 255
-1.406 -0.252 2.275 255 255 255
-0.174 -0.295 1.97 255 255 255
-0.105 -0.577 1.964 0 0 0
0.109 -0.832 1.699 255 255 255
-1.13 -0.203 2.461 255 255 255
0.547 -0.605 1.091 255 255 255
-0.559 0.072 0.851 255 255 255
-0.438 0.191 2.002 255 255 255
-1.053 -0.773 2.314 255 255 255
-0.078 -0.159 2.057 255 255 255
-0.322 -0.128 1.953 255 255 255
-0.4 -0.099 1.904 255 255 255
-0.383 0.639 1.471 255 255 255
0.124 0.07 1.739 255 255 255
0.047 0.345 1.951 255 255 255
0.199 0.17 1.628 255 255 255
-0.559 0.067 0.837 255 255 255
-0.313 -0.594 1.789 255 255 255
-0.922 -0.745 2.404 255 255 255
0.422 0.429 1.291 255 255 255
0.034 -1.072 1.698 0 0 0
0.169 0.481 1.728 255 255 255
-0.856 -0.49 2.533 255 255 255
0.095 0.008 1.782 255 255 255
-0.864 -0.118 2.64 255 255 255
0.123 -0.779 1.719 0 0 0
-0.045 -0.99 1.852 255 255 255
0.541 -0.613 1.079 255 255 255
-1.304 -0.909 2.114 255 255 255
0.105 0.527 1.854 255 255 255
0.485 0.273 1.161 255 255 255
0.502 0.332 1.145 255 255 255
0.03 -0.896 1.743 0 0 0
-1.206 0.361 2.087 255 255 255
-0.947 0.48 1.833 255 255 255
-0.851 0.166 2.343 255 255 255
0.388 0.384 1.346 255 255 255
-1.097 -0.282 1.719 255 255 255
-0.208 0.042 2.083 255 255 255
-0.845 -1.208 2.297 255 255 255
-0.083 -0.094 2.076 255 255 255
-1.086 -0.232 1.73 255 255 255
-0.082 0.662 1.481 255 255 255
-0.112 0.65 1.198 255 255 255
0.471 0.354 1.197 255 255 255
0.485 -0.021 1.112 255 255 255
-0.896 -0.182 2.61 255 255 255
0.48 0.298 1.173 255 255 255
-0.699 -0.021 0.953 255 255 255
0.185 -1.028 1.659 255 255 255
0.44 -0.119 1.173 255 255 255
-0.044 -0.559 1.931 255 255 255
-0.968 -0.621 2.415 255 255 255
-0.368 0.47 2.069 255 255 255
-1.156 0.157 2.441 255 255 255
-0.993 -0.97 2.284 255 255 255
-0.179 -0.997 1.731 255 255 255
-0.742 -1.253 2.326 255 255 255
-1.336 -0.782 2.138 255 255 255
-0.994 0.111 2.639 255 255 255
-0.555 0.519 1.729 255 255 255
-0.809 0.422 1.985 255 255 255
0.508 -0.257 1.186 255 255 255
-0.834 -0.106 1.159 255 255 255
-0.27 -0.537 1.844 255 255 255
-0.393 0.259 2.064 255 255 255
-0.545 0.589 1.594 255 255 255
-1.394 -0.004 2.37 255 255 255
0.196 -0.132 1.579 255 255 255
0.156 0.268 1.728 255 255 255
0.49 0.23 1.145 255 255 255
-0.147 0.616 1.641 255 255 255
-0.893 -1.404 2.201 255 255 255
0.279 0.16 1.489 255 255 255
-1.191 0.254 2.042 255 255 255
-0.082 -0.52 2.002 0 0 0
0.524 0.153 1.075 255 255 255
0.524 -0.461 1.122 255 255 255
0.058 -0.482 1.797 255 255 255
0.524 -0.244 1.192 255 255 255
-0.93 -0.764 2.392 255 255 255
0.527 -0.046 1.039 255 255 255
-0.361 -0.078 1.951 255 255 255
-0.076 0.601 1.753 255 255 255
-0.065 -0.68 1.94 255 255 255
-0.809 0.349 2.13 255 255 255
0.624 -0.014 0.881 255 255 255
-0.63 -1.599 2.296 255 255 255
-0.662 0.342 2.061 255 255 255
-1.288 -0.205 2.365 255 255 255
-0.456 0.306 2.057 255 255 255
-0.967 0.056 2.649 255 255 255
0.256 -0.223 1.458 255 255 255
-0.849 -0.696 2.464 255 255 255
-0.56 0.197 2.358 255 255 255
-0.833 -0.409 2.576 255 255 255
-0.897 -0.703 2.437 255 255 255
-0.753 0.39 2.065 255 255 255
-0.662 0.574 1.61 255 255 255
0.325 0.015 1.387 255 255 255
-0.696 -0.504 2.418 255 255 255
0.119 -0.075 1.721 255 255 255
-0.107 0.039 2.148 255 255 255
0.148 -0.647 1.785 255 255 255
0.492 0.026 1.109 255 255 255
0.157 0.449 1.764 255 255 255
-0.082 0.339 2.134 255 255 255
-0.971 -1.421 2.144 255 255 255
0.601 -0.052 0.893 255 255 255
-0.421 0.885 2.054 255 255 255
-0.26 -0.203 1.958 255 255 255
-0.372 -0.607 1.739 255 255 255
-0.763 0.412 2.011 255 255 255
0.498 0.126 1.113 255 255 255
-0.212 0.434 1.792 255 255 255
0.519 0.123 1.077 255 255 255
0.525 0.226 1.085 255 255 255
0.297 -0.167 1.4 255 255 255
-0.082 -0.277 2.041 255 255 255
0.432 0.031 1.207 255 255 255
-0.917 0.408 1.995 255 255 255
0.072 -0.968 1.648 255 255 255
-1.001 -0.64 2.394 255 255 255
0.126 -0.48 1.832 255 255 255
0.153 0.041 1.679 255 255 255
0.089 0.675 1.503 0 0 0
0.023 0.024 1.93 255 255 255
-0.265 0.075 2.071 255 255 255
0.373 -0.567 2.013 255 255 255
0.065 -0.129 1.818 255 255 255
-0.879 -1.226 2.276 255 255 255
-1.278 -0.577 2.237 255 255 255
-1.084 -0.466 2.399 255 255 255
0.229 0.126 1.564 255 255 255
-0.222 -0.201 1.978 255 255 255
0.026 -0.599 1.812 0 0 0
-1.038 -1.217 2.176 255 255 255
-0.617 -0.256 2.382 255 255 255
0.268 0.263 1.524 255 255 255
0.205 -0.975 1.7 255 255 255
0.026 -0.463 1.844 0 0 0
-0.773 0.145 2.604 255 255 255
-1.108 0.017 2.538 255 255 255
0.105 0.674 1.516 0 0 0
-1.288 0.007 2.428 255 255 255
-1.027 -0.122 2.555 255 255 255
0.106 -1.008 1.646 255 255 255
0.283 0.312 1.513 255 255 255
-0.212 0.026 2.076 255 255 255
-0.386 0.443 2.006 0 0 0
-0.115 -0.097 2.133 255 255 255
-0.76 -0.154 2.523 255 255 255
-1.139 -1.067 2.157 255 255 255
-1.034 0.086 2.531 255 255 255
-0.561 0.054 0.811 255 255 255
-0.643 0.277 2.095 255 255 255
0.194 0.3 1.665 255 255 255
0.341 -0.299 1.461 255 255 255
0.389 0.123 1.3 255 255 255
0.323 0.103 1.402 255 255 255
-1.163 -0.288 2.41 255 255 255
-1.184 -0.083 2.464 255 255 255
0.549 0.247 1.053 255 255 255
-1.08 -0.877 2.26 255 255 255
-0.299 0.577 1.688 255 255 255
-0.249 -0.103 2.004 255 255 255
-1.006 -0.693 2.369 255 255 255
-0.868 0.427 1.947 255 255 255
-0.012 -0.591 1.873 255 255 255
-1.237 -1.062 2.097 255 255 255
-0.883 -0.309 2.583 255 255 255
-0.776 -0.956 2.42 255 255 255
-0.46 0.568 1.706 255 255 255
-0.57 0.508 1.743 255 255 255
-0.936 -0.159 1.27 255 255 255
0.149 0.201 0.477 255 255 255
-0.725 0.436 2.032 0 0 0
0.584 -0.182 1.071 255 255 255
-1.353 -0.817 2.106 255 255 255
-1.28 0.012 2.436 255 255 255
0.452 -0.228 1.274 255 255 255
-0.329 0.054 2.025 255 255 255
0.293 0.334 1.497 255 255 255
0.36 -0.066 1.309 255 255 255
0.231 0.258 1.592 255 255 255
0.367 0.334 1.376 255 255 255
0.588 0.001 0.943 255 255 255
0.029 -0.242 1.867 255 255 255
-0.877 -1.254 2.261 255 255 255
0.198 0.157 1.624 255 255 255
-0.085 -1.349 1.827 0 0 0
-0.749 -1.246 2.335 255 255 255
-0.51 0.299 2.219 255 255 255
0.135 0.004 1.706 255 255 255
0.562 0.25 1.036 255 255 255
0.178 -0.035 1.623 255 255 255
0.477 -0.04 1.124 255 255 255
-1.323 0.007 2.411 255 255 255
0.426 0.239 1.256 255 255 255
-0.8 -0.081 1.098 255 255 255
0.039 0.319 1.959 255 255 255
0.214 -0.338 1.625 255 255 255
0.541 0.125 1.041 255 255 255
-0.29 0.383 2.075 255 255 255
0.061 -0.657 1.738 255 255 255
0.45 0.161 1.198 255 255 255
-0.159 -0.269 1.981 255 255 255
-0.695 -0.354 2.472 255 255 255
-0.09 -0.506 2.014 0 0 0
0.197 -0.218 1.558 255 255 255
0.506 -0.011 1.078 255 255 255
-0.728 0.129 2.604 255 255 255
-0.525 0.581 1.629 255 255 255
-0.881 0.343 2.229 255 255 255
0.264 -0.579 1.918 255 255 255
-0.252 0.563 1.794 255 255 255
0.105 -0.909 1.674 255 255 255
-0.796 0.451 1.984 255 255 255
-1.36 -0.035 2.376 255 255 255
-0.613 0.342 2.245 255 255 255
0.387 0.134 1.304 255 255 255
0.361 -0.116 1.3 255 255 255
0.121 -0.213 1.693 255 255 255
-0.408 -0.042 1.923 255 255 255
-0.361 -0.202 1.9 255 255 255
-0.267 -0.652 1.799 255 255 255
-0.265 -0.011 2.034 255 255 255
-0.794 -1.492 2.222 255 255 255
-1.015 0.033 2.557 255 255 255
-0.828 -0.779 2.451 255 255 255
-0.351 -0.859 1.673 255 255 255
-0.264 -1.006 1.668 0 0 0
0.551 -0.071 0.989 255 255 255
0.502 -0.416 1.154 255 255 255
-0.264 0.706 1.288 255 255 255
0.507 0.108 1.093 255 255 255
0.03 -0.164 1.885 255 255 255
-0.99 -1.559 2.087 0 0 0
0.011 -0.11 1.923 255 255 255
-0.331 -0.729 1.729 255 255 255
-0.568 -0.247 2.305 255 255 255
-0.19 -0.839 1.78 0 0 0
0.266 0.14 1.505 255 255 255
-1.106 0.247 2.095 255 255 255
0.39 0.22 1.314 255 255 255
-0.524 0.479 1.791 255 255 255
-0.862 -0.177 2.631 0 0 0
0.266 -0.246 1.348 0 0 0
0.315 -0.15 1.374 255 255 255
0.486 -0.03 1.108 255 255 255
-0.376 0.251 2.067 255 255 255
-0.841 -1.668 2.148 255 255 255
0.42 -1.002 1.309 255 255 255
-0.356 0.563 1.742 255 255 255
0.202 0.62 1.678 255 255 255
0.055 -1.035 1.668 0 0 0
0.317 0.345 1.46 255 255 255
0.377 0.054 0.576 255 255 255
-0.372 -0.277 1.852 255 255 255
0.672 -0.128 0.928 255 255 255
-0.523 -0.038 2.131 255 255 255
0.147 -0.395 1.781 0 0 0
-1.211 -1.075 2.111 255 255 255
0.672 -0.122 0.928 255 255 255
0.392 0.41 1.343 255 255 255
0.555 -0.56 1.111 255 255 255
-0.9 -1.214 2.259 255 255 255
-0.436 0.125 1.977 255 255 255
0.575 -0.054 0.955 255 255 255
-0.388 0.457 1.973 255 255 255
-0.029 -1.253 1.756 255 255 255
-1.315 0.068 2.352 255 255 255
0.272 0.186 1.502 255 255 255
0.163 -1.023 1.668 255 255 255
-0.233 -0.896 1.733 255 255 255
-1.072 -0.436 2.415 255 255 255
0.454 -0.091 1.15 255 255 255
-1.076 -0.751 2.306 255 255 255
0.566 0.239 1.029 255 255 255
-0.079 0.655 1.497 255 255 255
-0.028 -0.277 1.958 255 255 255
0.508 -0.475 1.133 255 255 255
0.186 -0.547 1.817 255 255 255
-0.35 0.275 2.089 255 255 255
-0.903 -0.911 2.359 255 255 255
0.037 -1.053 1.698 0 0 0
-1.089 -0.489 2.382 255 255 255
-0.384 0.487 1.926 255 255 255
-1.2 -0.484 2.319 255 255 255
0.516 -0.109 1.019 255 255 255
-1.279 -0.24 2.358 255 255 255
-0.606 -0.111 2.288 255 255 255
-0.054 0.702 1.381 255 255 255
0.458 0.116 1.178 255 255 255
-0.84 -1.07 2.344 255 255 255
-0.32 -0.553 1.798 255 255 255
-1.071 -0.59 2.364 255 255 255
0.555 -0.19 1.118 255 255 255
-0.895 -1.529 2.151 255 255 255
0 -0.948 1.783 255 255 255
-1.025 -1.514 2.079 0 0 0
0.258 0.037 1.5 255 255 255
-0.64 -0.767 2.36 255 255 255
0.082 0.569 1.837 255 255 255
0.363 0.336 1.384 255 255 255
0.326 0.447 1.47 255 255 255
-1.215 -1.05 2.115 255 255 255
-1.322 -0.773 2.148 255 255 255
-0.66 -1.078 2.234 0 0 0
-0.838 -0.893 2.404 255 255 255
0 -0.876 1.801 255 255 255
0.29 0.507 1.551 255 255 255
-0.673 0.214 2.108 255 255 255
-0.146 0.599 1.709 255 255 255
-0.622 0.354 2.142 255 255 255
0.325 -0.162 1.354 255 255 255
0.522 -0.6 1.094 255 255 255
0.103 -0.428 1.828 255 255 255
0.274 0.331 1.531 255 255 255
0.146 -0.096 1.666 255 255 255
-0.263 0.573 1.761 255 255 255
-0.681 0.404 2.014 255 255 255
-0.698 0.074 2.556 255 255 255
-0.794 0.492 1.826 255 255 255
-1.007 -0.283 2.512 255 255 255
-0.562 0.056 0.82 255 255 255
0.255 -0.127 1.477 255 255 255
-0.283 -0.351 1.888 255 255 255
-1.036 -1.044 2.23 255 255 255
-0.867 -1.156 2.296 255 255 255
-0.693 -0.413 2.457 255 255 255
-0.124 -0.173 2.131 255 255 255
0.503 -0.303 1.181 255 255 255
0.115 0.242 1.796 255 255 255
0.592 -0.057 0.907 255 255 255
-0.066 -0.02 2.071 255 255 255
-0.423 0.578 1.674 255 255 255
0.222 -0.482 1.848 255 255 255
0.332 0.198 1.406 255 255 255
0.548 0.242 1.052 255 255 255
-0.142 0.125 2.218 255 255 255
-0.225 0.541 1.853 255 255 255
0.308 -0.503 2.041 255 255 255
-0.912 -1.226 2.243 255 255 255
0.207 0.475 1.689 255 255 255
-0.255 -0.15 1.987 255 255 255
0.32 -0.083 1.377 255 255 255
0.561 0.059 0.998 255 255 255
-0.084 -1.189 1.754 255 255 255
-0.275 -0.957 1.684 255 255 255
0.368 -0.139 1.285 255 255 255
-0.705 -1.628 2.242 0 0 0
-0.473 0.437 1.927 255 255 255
-0.804 -0.65 2.506 255 255 255
0.49 -0.037 1.1 255 255 255
0.397 0.472 1.339 255 255 255
0.361 -0.255 1.385 255 255 255
-0.368 -0.639 1.729 255 255 255
-0.544 0.625 1.472 255 255 255
0.168 0.027 1.654 255 255 255
-0.744 -1.247 2.337 255 255 255
0.418 -0.169 1.11 0 0 0
-1.297 0.043 2.41 255 255 255
-0.354 -0.914 1.653 255 255 255
0.652 -0.117 0.953 255 255 255
-0.16 0.377 2.029 255 255 255
0.282 0.634 1.571 255 255 255
-0.128 -0.282 2.049 255 255 255
-0.954 -0.133 2.595 255 255 255
-0.053 -1.076 1.833 0 0 0
-1.013 -0.369 2.475 255 255 255
-0.199 -1.099 1.696 255 255 255
0.355 -0.199 1.262 0 0 0
-1.007 0.323 2.343 255 255 255
0.291 0.158 1.471 255 255 255
0.059 -1.091 1.646 0 0 0
-0.772 0.542 1.702 255 255 255
0.125 0.439 1.817 255 255 255
0.515 0.211 1.1 255 255 255
0.079 0.197 0.467 0 0 0
-0.897 -0.015 2.67 255 255 255
-0.284 0.7 1.306 255 255 255
-0.269 0.075 2.068 255 255 255
-0.143 0.161 2.23 255 255 255
0.047 0.405 1.945 255 255 255
-1.398 -0.717 2.083 255 255 255
0.386 -0.487 2.055 255 255 255
0.047 -0.193 1.838 255 255 255
0.286 0.098 1.465 255 255 255
0.022 0.57 1.815 0 0 0
-0.233 -0.212 1.97 255 255 255
-0.528 0.672 1.331 255 255 255
-0.325 -0.923 1.657 255 255 255
-0.052 -0.227 2.004 255 255 255
-0.689 -1.603 2.259 255 255 255
-0.333 0.669 1.395 255 255 255
-1.316 -0.725 2.169 255 255 255
0.076 0.594 1.755 255 255 255
0.556 -0.627 1.09 255 255 255
-0.24 -0.032 2.035 255 255 255
-0.306 -0.565 1.801 255 255 255
-0.469 0.535 1.75 255 255 255
-0.028 -0.043 2.009 255 255 255
0.141 -0.403 1.797 0 0 0
0.485 0.074 1.128 255 255 255
0.112 -0.836 1.699 255 255 255
-0.02 -1.028 1.8 255 255 255
-0.999 0.078 2.623 255 255 255
-0.551 -0.274 2.293 255 255 255
0.133 0.031 1.714 255 255 255
0.14 -0.657 1.78 255 255 255
0.1 0.205 0.447 255 255 255
-0.817 0.388 2.009 255 255 255
0.261 -0.082 1.476 255 255 255
-1.052 -0.058 2.561 255 255 255
-0.746 -1.71 2.189 255 255 255
-0.216 -0.95 1.727 255 255 255
0.023 0.055 1.938 255 255 255
0.294 0.253 1.48 255 255 255
0.03 0.655 1.602 255 255 255
-0.021 0.519 1.995 255 255 255
0.037 -0.129 1.871 255 255 255
-1.168 -0.191 2.439 255 255 255
0.289 -0.028 1.436 255 255 255
-1.381 -0.674 2.145 255 255 255
0.192 -0.46 1.857 255 255 255
-0.534 -0.536 2.131 255 255 255
0.521 0.192 1.087 255 255 255
-1.136 -0.198 2.461 255 255 255
-0.714 -1.436 2.298 255 255 255
-0.554 0.201 2.353 255 255 255
-0.33 0.564 1.725 255 255 255
-0.065 -0.7 1.935 255 255 255
0.124 0.467 1.806 255 255 255
-0.35 0.673 1.372 255 255 255
-0.161 -0.656 1.844 255 255 255
0.331 0.085 1.387 255 255 255
-1.127 -0.374 2.401 255 255 255
-0.325 0.38 2.081 255 255 255
-0.703 -0.731 2.332 255 255 255
0.61 0.007 0.907 255 255 255
-0.55 -0.13 2.221 255 255 255
0.41 -0.025 1.237 255 255 255
-0.008 -0.36 1.912 255 255 255
-0.643 0.386 2.068 255 255 255
0.344 0.552 1.456 255 255 255
-0.238 0.688 1.354 255 255 255
0.293 0.097 1.455 255 255 255
0.119 0.258 0.474 255 255 255
0.481 0.217 1.159 255 255 255
0.027 0.136 1.946 255 255 255
0.125 0.281 1.791 255 255 255
0.24 0.157 1.554 255 255 255
-0.1 0.239 2.168 255 255 255
-0.284 -0.699 1.772 255 255 255
-1.248 -0.236 2.379 255 255 255
-0.179 0.258 2.18 255 255 255
0.038 0.621 1.67 255 255 255
-0.171 -1.356 1.972 255 255 255
0.528 0.25 1.087 255 255 255
0.548 -0.687 1.061 255 255 255
-0.233 -0.867 1.744 255 255 255
0.387 0.204 1.315 255 255 255
-0.069 -0.728 1.939 0 0 0
0.355 -0.051 1.325 255 255 255
-0.332 -1.081 1.684 255 255 255
0.289 -0.222 1.385 0 0 0
-0.741 -1.423 2.28 255 255 255
-0.008 -0.331 1.922 255 255 255
-1.07 -0.221 1.506 255 255 255
-1.223 -0.963 2.146 255 255 255
0.222 0.191 0.487 255 255 255
0.15 -0.98 1.664 255 255 255
0.048 0.083 1.889 255 255 255
-1.159 -0.648 2.293 255 255 255
0.338 0.39 1.435 255 255 255
0.459 0.23 1.199 255 255 255
-0.467 0.688 1.294 255 255 255
-0.078 -0.247 2.038 255 255 255
-0.191 -0.877 1.769 0 0 0
-0.319 0.654 1.426 255 255 255
-1.049 0.017 2.567 255 255 255
0.113 -0.586 1.781 0 0 0
0.538 -0.745 1.048 255 255 255
-1.22 -0.831 2.188 255 255 255
0.389 -0.259 1.368 255 255 255
0.363 -0.521 2.039 255 255 255
-0.302 0.668 1.398 255 255 255
0.583 -0.142 1.048 255 255 255
-0.23 -0.553 1.862 255 255 255
-0.576 -0.867 2.178 255 255 255
0.166 0.469 1.738 255 255 255
0 -0.073 1.953 255 255 255
-1.282 -0.674 2.205 255 255 255
-1.197 0.049 2.466 255 255 255
0.547 -0.237 1.119 255 255 255
0.176 -0.295 1.507 0 0 0
-1.287 -0.775 2.17 255 255 255
-1.215 -0.404 1.64 255 255 255
0.343 0.361 1.419 255 255 255
0.477 0.228 1.167 255 255 255
-0.1 0.67 1.467 255 255 255
-0.359 0.888 2.056 255 255 255
-0.37 -0.372 1.81 255 255 255
0.113 -0.102 1.724 255 255 255
-0.32 0.207 2.09 255 255 255
0.275 0.007 1.471 255 255 255
0.485 0.086 1.128 255 255 255
-0.556 -0.223 2.298 255 255 255
0.069 0.354 1.91 255 255 255
-0.163 0.557 1.844 255 255 255
0.091 -1.153 1.588 0 0 0
0.373 -0.164 1.27 0 0 0
-0.848 0.524 1.741 255 255 255
-0.17 0.537 1.887 255 255 255
-0.194 0.681 1.387 255 255 255
-0.187 -1.041 1.71 255 255 255
-0.167 -0.909 1.755 255 255 255
0.022 -0.418 1.834 255 255 255
-1.213 0.18 2.446 255 255 255
0.128 0.42 1.818 255 255 255
0.298 0.245 1.469 255 255 255
-0.224 0.358 2.014 255 255 255
-0.95 -1.055 2.281 255 255 255
-1.138 -1.17 2.12 255 255 255
-0.87 -0.785 2.424 255 255 255
-0.091 0.622 1.165 255 255 255
-1.218 -0.692 2.239 255 255 255
-0.361 0.029 1.995 255 255 255
-1.305 -0.955 2.091 255 255 255
-1.229 0.084 2.42 255 255 255
-0.129 -0.456 1.927 255 255 255
-0.191 -0.974 1.739 0 0 0
-1.325 -0.513 2.235 255 255 255
-0.122 -0.445 1.935 255 255 255
-0.867 -0.474 2.535 255 255 255
-0.678 0.412 1.989 255 255 255
-0.575 -1.167 2.257 255 255 255
0.238 0.507 1.624 255 255 255
-0.101 -0.834 1.813 255 255 255
-1.373 -0.55 2.195 255 255 255
0.266 0.408 1.566 255 255 255
-0.217 -0.263 1.963 255 255 255
-0.377 -0.515 1.767 255 255 255
-0.987 0.062 2.637 255 255 255
-0.288 0.688 1.348 255 255 255
-0.216 -0.434 1.898 255 255 255
-0.009 0.275 2.044 255 255 255
0.419 0.373 1.291 255 255 255
-0.744 -0.041 1.145 255 255 255
0.076 -1.045 1.625 255 255 255
0.512 0.046 1.078 255 255 255
0.252 -0.017 1.499 255 255 255
-0.556 0.402 1.963 255 255 255
-0.157 -1.429 1.932 0 0 0
0.509 -0.116 1.019 255 255 255
-0.495 0.241 2.195 255 255 255
-1.223 0.376 2.086 255 255 255
-0.568 0.398 1.96 255 255 255
0.446 0.391 1.248 255 255 255
-0.383 0.656 1.411 255 255 255
0.064 0.561 1.862 255 255 255
0.325 0.487 1.484 255 255 255
0.205 -0.578 1.814 255 255 255
-0.133 -0.206 2.073 255 255 255
-0.729 0.571 1.604 255 255 255
0.625 0.013 0.883 255 255 255
0.044 -0.014 1.877 255 255 255
-0.483 -0.468 2.161 255 255 255
0.229 0.445 1.645 255 255 255
-0.406 0.229 2.049 255 255 255
0.414 -0.137 1.204 255 255 255
0.047 -0.219 1.838 255 255 255
-0.359 -0.67 1.717 255 255 255
-0.82 -1.277 2.283 255 255 255
0.061 -0.104 1.825 255 255 255
0.485 -0.21 1.219 255 255 255
-1.123 -0.897 2.223 255 255 255
0.192 0.244 1.655 255 255 255
-1.27 0.048 2.418 255 255 255
-0.401 0.645 1.447 0 0 0
0.416 0.312 1.285 255 255 255
-0.265 -0.963 1.688 255 255 255
0.136 0.052 1.714 255 255 255
-0.348 0.692 1.313 255 255 255
-1.417 -0.178 2.296 255 255 255
-0.582 -0.372 2.312 255 255 255
0.076 0.673 1.507 0 0 0
-0.343 0.681 1.353 255 255 255
0.418 0.229 1.265 255 255 255
-1.235 0.074 2.409 255 255 255
-0.558 -1.034 2.266 255 255 255
-0.891 0.267 2.315 255 255 255
-0.351 -0.922 1.652 255 255 255
-0.942 -0.599 2.441 255 255 255
-0.061 -0.248 2.012 255 255 255
-0.201 -0.929 1.74 255 255 255
0.031 0.384 1.986 255 255 255
-0.162 -0.345 1.955 255 255 255
-0.016 0.557 1.876 255 255 255
-0.199 0.543 1.864 255 255 255
-0.161 0.701 1.347 255 255 255
0.448 0.179 1.206 255 255 255
-0.173 -0.566 1.867 255 255 255
0.19 -0.274 1.546 255 255 255
-0.793 0.173 2.386 255 255 255
-1.39 -0.759 2.11 255 255 255
-0.16 -0.416 1.93 255 255 255
-0.777 0.427 1.998 255 255 255
-1.049 0.401 2.072 255 255 255
-0.02 -0.576 1.891 255 255 255
-1.066 0.012 2.565 255 255 255
0.41 0.169 1.273 255 255 255
0.147 -0.683 1.773 255 255 255
-0.397 0.652 1.417 255 255 255
-1.006 0.218 2.164 255 255 255
0.11 0.157 1.785 255 255 255
-0.075 -0.065 2.07 255 255 255
0.554 0.217 1.041 255 255 255
-0.168 -0.702 1.821 255 255 255
0.113 -1.036 1.639 255 255 255
-0.053 -1.007 1.857 0 0 0
-0.508 0.59 1.593 255 255 255
-0.911 0.073 2.693 255 255 255
0.044 -0.11 1.861 255 255 255
-1.172 -0.285 1.541 0 0 0
-1.19 -0.945 2.168 255 255 255
-1.221 -0.778 2.203 255 255 255
-0.001 0.116 2 255 255 255
-1.293 -0.269 2.336 255 255 255
0.187 -0.483 1.842 255 255 255
-0.151 0.533 1.889 255 255 255
0.139 -0.765 1.734 255 255 255
0.397 0.395 1.331 255 255 255
-0.529 -0.531 2.149 255 255 255
0.385 0.317 1.336 255 255 255
0.352 0.089 1.355 255 255 255
0.334 0.492 1.468 255 255 255
0.155 0.43 1.776 255 255 255
0.011 -1.197 1.708 255 255 255
-0.331 -0.54 1.794 255 255 255
0.394 0.251 1.314 255 255 255
0.252 0.065 1.518 255 255 255
0.166 -0.922 1.703 255 255 255
-0.788 -1.319 2.289 255 255 255
-0.221 0.242 2.155 255 255 255
-0.335 -0.035 1.987 255 255 255
-0.921 -0.888 2.354 255 255 255
-0.953 -0.751 2.381 255 255 255
-0.693 0.456 1.911 255 255 255
0.047 0.477 1.957 255 255 255
-0.355 -1.565 2.273 255 255 255
-0.497 -0.584 2.141 255 255 255
-0.719 -0.061 2.552 255 255 255
0.276 -0.107 1.443 255 255 255
0.554 -0.002 1.001 255 255 255
-0.736 0.234 2.474 255 255 255
0.432 0.246 1.248 255 255 255
-1.144 -0.721 2.272 255 255 255
-0.082 -0.798 1.934 0 0 0
-1.122 0.075 2.473 255 255 255
-0.437 0.663 1.371 255 255 255
0.392 0.447 1.356 255 255 255
-0.186 -1.075 1.735 255 255 255
-0.223 -0.97 1.714 255 255 255
0.374 0.001 1.302 255 255 255
0.418 -0.067 1.214 255 255 255
-0.208 0.942 2.127 255 255 255
0.422 0.439 1.288 255 255 255
-0.537 -1.673 2.326 255 255 255
-0.078 -0.142 2.056 255 255 255
-0.06 -0.49 1.968 255 255 255
0.443 -0.236 1.29 255 255 255
-0.618 -1.515 2.326 255 255 255
-0.073 -0.787 1.931 0 0 0
-0.247 0.951 2.109 255 255 255
-0.476 0.617 1.513 255 255 255
-0.102 0.59 1.764 255 255 255
0.3 -0.099 1.405 255 255 255
0.556 0.231 1.038 255 255 255
0.608 0.064 0.911 255 255 255
-0.036 -0.729 1.885 255 255 255
0.569 0.065 0.985 255 255 255
-0.101 -1.149 1.802 255 255 255
0.231 0.665 1.562 255 255 255
-0.168 -0.069 2.051 255 255 255
-0.378 0.627 1.511 255 255 255
-0.072 -1.344 1.813 0 0 0
-0.115 0.483 1.81 255 255 255
-1.018 0.407 2.008 255 255 255
0.504 -0.095 1.064 255 255 255
0.21 0.001 1.575 255 255 255
0.022 -1.022 1.732 255 255 255
-0.087 -0.29 2.047 255 255 255
-0.764 -1.187 2.347 255 255 255
-0.352 -0.466 1.819 255 255 255
0.479 0.104 1.139 255 255 255
0.399 0.108 1.278 255 255 255
-0.676 -0.375 2.478 255 255 255
-0.887 -0.839 2.397 255 255 255
-1.055 -0.831 2.292 255 255 255
-0.747 0.566 1.618 255 255 255
0.56 -0.201 1.109 255 255 255
-0.072 -1.327 1.813 0 0 0
-0.571 -1.612 2.325 255 255 255
0.212 0.442 1.676 255 255 255
-1.119 -0.912 2.222 255 255 255
-0.344 -0.124 1.942 255 255 255
0.554 -0.38 1.164 255 255 255
-0.032 -0.514 1.918 255 255 255
-0.742 -0.219 2.496 255 255 255
0.269 0.146 1.503 255 255 255
-0.873 -0.82 2.41 255 255 255
-0.024 -0.078 1.991 255 255 255
0.387 0.338 1.339 255 255 255
-1.366 -0.238 2.303 255 255 255
-0.258 -1.105 1.67 255 255 255
-1.021 -0.197 1.396 255 255 255
0.42 -0.233 1.308 255 255 255
0.509 -0.409 1.147 255 255 255
0.532 0.251 1.079 255 255 255
0.196 -1.057 1.652 255 255 255
-0.83 -1.117 2.334 255 255 255
-1.083 -0.377 2.434 255 255 255
-0.028 -1.005 1.819 255 255 255
0.149 0.255 1.736 255 255 255
0.212 -0.052 1.561 255 255 255
-0.328 0.706 1.271 255 255 255
-0.648 0.394 2.037 255 255 255
-0.677 0.524 1.76 0 0 0
-0.159 0.335 2.137 255 255 255
-1.293 -0.553 2.237 255 255 255
0.159 0.582 1.76 255 255 255
-0.773 -1.176 2.346 255 255 255
-0.625 0.5 1.789 255 255 255
-0.387 -0.2 1.872 255 255 255
-0.116 -0.688 1.852 255 255 255
-0.383 -0.015 1.961 255 255 255
-1.274 -0.568 2.243 255 255 255
0.499 -0.118 0.984 0 0 0
-1.024 0.128 2.519 255 255 255
-0.603 0.352 2.19 255 255 255
0.57 -0.006 0.97 255 255 255
-0.04 -0.342 1.965 255 255 255
-0.327 -0.461 1.835 255 255 255
-0.659 -1.585 2.279 255 255 255
-0.056 -0.44 1.968 255 255 255
0.274 0.408 1.553 255 255 255
-0.98 -0.436 2.472 255 255 255
0.482 0.173 1.146 255 255 255
-0.604 -0.986 2.261 255 255 255
0.376 0.22 1.337 255 255 255
0.567 -0.625 1.095 255 255 255
0.344 -0.31 1.485 255 255 255
0.157 0.665 1.551 255 255 255
-0.194 -1.455 1.983 0 0 0
0.322 0.164 1.417 255 255 255
-0.452 0.573 1.688 255 255 255
-0.229 -0.585 1.846 255 255 255
-0.25 -0.26 1.942 255 255 255
0.496 0.188 1.127 255 255 255
-0.089 -1.172 1.798 255 255 255
0.609 -0.175 1.027 255 255 255
-1.228 0.142 2.429 255 255 255
-0.054 0.038 2.067 255 255 255
-0.439 0.508 1.824 255 255 255
-0.375 -0.822 1.716 0 0 0
-0.8 -0.974 2.402 255 255 255
0.416 -0.037 1.223 255 255 255
-0.868 -1.03 2.34 255 255 255
-0.883 -0.928 2.364 255 255 255
-1.247 -0.009 2.456 255 255 255
0.19 0.57 1.711 255 255 255
0.548 0.042 1.014 255 255 255
0.608 -0.008 0.908 255 255 255
-0.389 0.118 2.008 255 255 255
0.117 -1.027 1.646 255 255 255
-0.94 -1.227 2.226 255 255 255
-0.483 -0.614 2.136 0 0 0
-0.354 -0.199 1.906 255 255 255
0.074 -0.209 1.784 255 255 255
0.114 0.464 1.824 255 255 255
0.5 0.261 1.134 255 255 255
0.357 0.456 1.421 255 255 255
-1.056 -0.457 2.416 255 255 255
0.076 -0.544 1.785 255 255 255
0.573 0.046 0.974 255 255 255
0.072 -0.021 1.82 255 255 255
-0.347 -0.631 1.742 255 255 255
-1.108 -0.713 2.296 255 255 255
-1.354 -0.123 2.353 255 255 255
0.387 -0.182 1.209 0 0 0
-0.194 0.38 2.047 255 255 255
0.271 0.45 1.569 255 255 255
0.366 0.132 1.34 255 255 255
-0.801 0.435 1.986 255 255 255
0.34 0.196 1.391 255 255 255
-0.844 -0.552 2.522 255 255 255
-1.304 -0.051 2.412 255 255 255
-1.11 -1.048 2.188 255 255 255
0.496 -0.105 1.058 255 255 255
-0.604 -0.766 2.38 255 255 255
0.161 0.187 0.488 255 255 255
0.085 -0.088 1.786 255 255 255
-0.847 0.456 1.948 255 255 255
0.223 0.675 1.526 0 0 0
-1.429 -0.102 2.329 255 255 255
0.586 -0.073 0.881 0 0 0
0.388 0.378 1.346 255 255 255
-0.5 0.485 1.787 255 255 255
0.383 0.474 1.375 0 0 0
-1.25 -0.691 2.221 255 255 255
-0.964 -0.08 2.607 255 255 255
-0.339 -0.143 1.936 255 255 255
-0.196 -0.06 2.045 255 255 255
0.293 0.086 1.454 255 255 255
0.192 -1.045 1.655 255 255 255
0.396 -0.069 1.253 255 255 255
-0.822 -1.387 2.245 255 255 255
0.149 0.705 1.447 255 255 255
-0.401 0.92 2.034 255 255 255
0.375 -0.065 1.286 255 255 255
0.323 0.354 1.454 255 255 255
0.054 -0.601 1.757 255 255 255
-1.203 -0.509 2.31 255 255 255
0.479 0.296 1.176 255 255 255
0.345 0.112 1.37 255 255 255
-1.074 -0.937 2.244 255 255 255
0.6 -0.039 0.916 255 255 255
-0.228 -0.466 1.896 255 255 255
0.191 0.192 1.646 255 255 255
-0.229 -1.538 2.032 255 255 255
-0.309 -0.579 1.795 255 255 255
-0.083 -0.867 1.856 0 0 0
-0.069 -0.678 1.945 0 0 0
-0.892 0.029 2.69 255 255 255
0.535 -0.064 1.023 255 255 255
0.461 0.111 1.172 255 255 255
0.329 0.143 1.401 255 255 255
0.52 -0.108 0.94 0 0 0
-0.438 0.23 2.017 255 255 255
0.532 0.041 1.044 255 255 255
-0.369 0.546 1.814 255 255 255
0.079 -0.735 1.722 255 255 255
0.247 0.479 1.625 255 255 255
-0.668 0.582 1.585 255 255 255
-0.31 -0.316 1.888 255 255 255
-0.999 -0.258 2.523 255 255 255
-0.188 0.051 2.09 255 255 255
-0.964 -1.337 2.174 255 255 255
-1.234 -0.729 2.215 255 255 255
-1.359 -0.496 2.025 0 0 0
0.124 -1.068 1.63 255 255 255
-0.106 0.686 1.411 255 255 255
0.325 0.009 1.387 255 255 255
