ply
format ascii 1.0
comment Created by Open3D
element vertex 1593
property double x
property double y
property double z
property uchar red
property uchar green
property uchar blue
end_header
-0.226 0.159 0.499 255 255 255
0.658 -0.093 1.974 255 255 255
-0.272 0.002 0.981 255 255 255
0.029 0.549 1.772 0 0 0
0.215 -0.479 2.482 255 255 255
-0.162 0.243 0.462 255 255 255
-0.118 0.078 0.316 255 255 255
0.765 -0.572 1.614 255 255 255
0.664 -0.782 1.808 255 255 255
-0.538 -1.078 2.305 255 255 255
-0.543 -0.923 2.275 0 0 0
0.425 0.702 1.412 255 255 255
-0.259 0.115 0.599 255 255 255
-1.285 -0.763 2.075 255 255 255
0.681 0.044 1.914 255 255 255
-0.605 -1.313 2.225 255 255 255
0.025 -0.825 2.513 255 255 255
0.19 -1.045 2.447 255 255 255
-0.465 -1.147 2.302 255 255 255
0.667 0.688 1.516 255 255 255
-0.54 -0.014 0.914 0 0 0
0.756 -0.083 1.497 255 255 255
0.648 -0.012 2.024 255 255 255
0.585 -0.939 1.674 255 255 255
-0.07 0.115 0.314 255 255 255
-1.053 -1.386 2.091 255 255 255
0.276 0.104 2.35 255 255 255
-0.332 0.017 2.678 255 255 255
0.702 -1.232 1.594 255 255 255
-0.519 -0.021 0.997 0 0 0
0.671 -0.278 1.885 255 255 255
-0.749 -1.366 2.17 255 255 255
0.727 -0.783 1.551 0 0 0
0.109 -0.869 2.524 255 255 255
0.027 0.034 2.771 255 255 255
-0.936 -1.048 2.214 255 255 255
-0.541 -1.391 2.21 255 255 255
-0.272 0.109 0.51 255 255 255
-0.296 0.002 0.969 0 0 0
-0.275 0.102 0.641 255 255 255
0.682 -1.223 1.672 0 0 0
-0.281 -0.039 1.156 255 255 255
-0.287 0.155 2.654 255 255 255
0.773 0.457 1.551 255 255 255
-0.128 -0.211 2.658 255 255 255
-0.272 0.139 0.543 255 255 255
0.57 -0.566 1.786 255 255 255
-0.995 -0.23 1.493 255 255 255
0.046 0.672 1.472 0 0 0
0.735 0.011 1.622 255 255 255
0.234 -0.004 2.561 255 255 255
0.805 -0.037 1.285 255 255 255
0.22 0.401 2.184 255 255 255
-0.116 0.679 1.425 255 255 255
-0.068 0.674 1.446 0 0 0
0.65 0.431 2.002 255 255 255
-0.095 0.244 0.591 255 255 255
-0.189 0.684 1.394 255 255 255
-0.637 -0.829 2.354 255 255 255
0.787 0.496 1.516 255 255 255
-0.292 0.1 0.513 255 255 255
0.395 0.133 1.984 255 255 255
0.094 -0.612 2.589 255 255 255
0.791 0.054 1.345 255 255 255
-0.078 -1.578 2.269 255 255 255
-1.131 -0.94 2.06 255 255 255
0.3 -0.147 2.312 255 255 255
-1.071 -0.235 1.474 0 0 0
0.735 0.536 1.676 255 255 255
0.584 -0.217 1.894 255 255 255
-0.279 0.019 0.901 255 255 255
0.095 -0.465 2.637 255 255 255
-0.529 0.013 0.81 255 255 255
-0.335 -0.063 2.658 255 255 255
-0.287 0.113 0.603 255 255 255
-0.194 -1.371 2.298 255 255 255
0.724 -0.392 1.667 255 255 255
-0.299 0.107 0.576 0 0 0
0.467 -1.015 1.632 255 255 255
-0.396 -0.273 1.933 255 255 255
0.102 0.675 1.454 0 0 0
-0.133 -1.137 2.383 255 255 255
-1.082 -1.17 2.15 255 255 255
-0.318 -0.855 2.425 255 255 255
-0.547 -0.003 0.824 255 255 255
-0.026 -0.731 2.528 255 255 255
-0.584 -0.028 0.911 0 0 0
0.671 -0.553 1.846 0 0 0
0.072 -1.136 2.432 255 255 255
-0.19 0.044 2.713 255 255 255
0.308 0.384 2.034 255 255 255
-0.117 0.125 0.32 255 255 255
-0.904 -1.165 2.193 255 255 255
0.626 -1.354 1.864 0 0 0
-0.248 -0.838 2.444 255 255 255
0.634 -0.672 1.796 255 255 255
-0.83 -1.165 2.212 255 255 255
-0.089 0.565 1.808 255 255 255
0.729 -0.266 1.577 255 255 255
-0.738 -0.419 1.85 255 255 255
0.711 -0.43 1.727 0 0 0
0.7 -0.676 1.721 255 255 255
-0.973 -0.361 1.517 255 255 255
-0.203 -0.815 2.459 255 255 255
0.167 -1.361 2.391 255 255 255
-0.936 -1.023 2.221 255 255 255
-0.589 -0.776 2.296 0 0 0
0.036 -0.543 2.595 255 255 255
0.01 -0.819 2.51 255 255 255
0.829 -0.056 1.19 255 255 255
0.434 -0.654 1.739 255 255 255
-0.213 0.106 0.642 255 255 255
0.642 -0.003 2.035 255 255 255
0.411 0.265 2.035 255 255 255
0.759 0.14 1.507 255 255 255
-0.372 -0.067 1.175 255 255 255
0.687 0.156 1.916 255 255 255
0.709 -1.003 1.618 255 255 255
-0.514 -0.058 1.102 0 0 0
0.726 -0.918 1.563 0 0 0
-0.179 -0.753 2.487 255 255 255
-0.404 -1.462 2.222 255 255 255
-0.606 -0.131 1.354 255 255 255
0.856 -0.259 1.357 255 255 255
-0.929 -0.26 1.515 255 255 255
-0.179 0.629 1.578 255 255 255
-0.179 0.099 0.667 255 255 255
-0.569 -0.102 1.201 255 255 255
0.797 0.219 1.35 255 255 255
0.725 -0.714 1.577 0 0 0
0.465 -0.737 1.717 255 255 255
0.469 0.625 1.702 255 255 255
0.108 -1.259 2.401 255 255 255
-0.72 -1.548 2.121 0 0 0
-0.408 0.065 0.675 0 0 0
0.129 -0.966 2.496 255 255 255
0.512 -0.828 1.695 255 255 255
0.327 -0.264 1.823 255 255 255
-0.427 -0.084 1.205 255 255 255
0.67 -0.417 1.878 0 0 0
-0.524 -0.98 2.339 255 255 255
0.348 -0.907 1.625 255 255 255
0.475 -0.273 1.862 255 255 255
-1.161 -1.003 2.033 255 255 255
-0.38 -0.053 1.139 255 255 255
-0.939 -0.294 1.507 255 255 255
0.308 0.094 1.945 255 255 255
-1.064 -1.392 2.087 255 255 255
0.626 0.406 2.058 255 255 255
0.281 -1.453 2.386 255 255 255
-0.075 0.077 0.305 255 255 255
-0.546 -0.634 2.267 255 255 255
-0.867 -1.282 2.167 255 255 255
-0.308 -1.651 2.186 0 0 0
-0.195 0.256 2.319 255 255 255
-0.767 -1.441 2.145 255 255 255
-1.1 -1.379 2.084 255 255 255
-1.093 -0.502 2.158 255 255 255
-0.488 -0.307 1.905 255 255 255
-0.253 0.143 0.52 255 255 255
-0.082 0.064 0.314 0 0 0
-0.027 -0.342 2.644 255 255 255
-0.112 0.102 0.299 255 255 255
0.646 -0.053 2.005 255 255 255
-0.365 -0.088 1.239 255 255 255
0.793 -0.2 1.212 255 255 255
0.675 -0.414 1.844 255 255 255
0.727 -0.091 1.666 255 255 255
-0.066 0.634 1.576 255 255 255
0.253 -0.927 2.331 255 255 255
0.472 -0.624 1.762 255 255 255
0.798 -0.04 1.32 255 255 255
0.072 -1.048 2.459 255 255 255
-0.238 0.115 0.589 255 255 255
0.455 0.355 2.072 255 255 255
-0.348 -0.454 2.532 255 255 255
-1.2 -0.696 2.125 0 0 0
0.759 0.618 1.609 255 255 255
0.714 0.646 1.649 255 255 255
-0.016 -1.609 2.276 255 255 255
-0.959 -1.568 2.059 0 0 0
0.637 -1.024 1.709 255 255 255
-0.526 -1.375 2.218 255 255 255
-0.168 0.218 0.476 255 255 255
0.607 -0.359 1.862 255 255 255
-0.104 -1.485 2.29 255 255 255
-0.667 -1.563 2.134 0 0 0
0.509 -0.74 1.725 255 255 255
0.355 0.331 2.04 255 255 255
0.422 0.134 1.991 255 255 255
0.721 -0.067 1.698 255 255 255
0.78 -0.069 1.395 255 255 255
-0.129 0.087 0.334 255 255 255
-0.062 0.58 1.76 255 255 255
0.509 0.304 2.064 255 255 255
0.702 -0.297 1.766 255 255 255
-0.379 0.054 0.68 255 255 255
-0.077 -0.037 2.725 255 255 255
-0.418 0.028 0.621 0 0 0
-0.564 -1.498 2.175 255 255 255
-0.412 -0.802 2.419 255 255 255
0.19 0.664 1.496 0 0 0
0.062 0.667 1.485 0 0 0
-0.451 -0.025 2.639 0 0 0
-0.567 -1.002 2.318 255 255 255
-0.285 0.378 2.312 0 0 0
-0.173 0.223 0.47 255 255 255
0.69 -0.591 1.762 255 255 255
-0.332 0.101 0.597 255 255 255
0.671 0.589 1.862 255 255 255
-0.46 -0.903 2.375 255 255 255
-0.473 -0.199 1.597 255 255 255
-0.115 0.087 0.308 255 255 255
0.346 -0.172 1.867 255 255 255
-0.064 0.073 0.321 255 255 255
-0.196 0.22 0.466 0 0 0
0.756 -0.176 1.485 255 255 255
0.051 -0.697 2.56 255 255 255
0.21 0.596 1.754 255 255 255
-0.557 -0.073 1.146 255 255 255
-0.177 -0.409 2.587 255 255 255
0.725 0.211 1.72 255 255 255
-0.093 0.093 0.296 255 255 255
0.62 -0.39 1.873 255 255 255
0.719 -0.445 1.674 0 0 0
-0.097 0.134 0.31 255 255 255
0.349 -0.359 1.804 255 255 255
0.176 -1.129 2.452 255 255 255
-0.225 0.171 0.487 255 255 255
-0.198 0.2 0.475 255 255 255
-0.059 0.104 0.311 255 255 255
-0.156 -0.445 2.584 255 255 255
0.329 -0.478 2.162 255 255 255
-0.159 -0.22 2.647 255 255 255
-0.077 0.183 0.354 255 255 255
0.262 0.195 2.429 255 255 255
0.77 0.029 1.44 255 255 255
0.396 -0.697 1.711 255 255 255
-0.541 -0.012 0.907 0 0 0
-0.067 0.198 0.388 255 255 255
-0.436 -0.551 2.485 255 255 255
0.371 -0.147 1.881 255 255 255
-0.483 -0.708 2.433 255 255 255
0.798 -0.463 1.647 0 0 0
0.75 0.249 1.583 255 255 255
-1.084 -0.306 2.232 0 0 0
0.561 0.664 1.629 255 255 255
0.297 -0.113 2.188 255 255 255
-0.514 -0.911 2.361 255 255 255
-0.747 -0.121 1.087 255 255 255
-0.251 -0.611 2.512 255 255 255
-0.027 0.534 1.881 0 0 0
-1.078 -0.609 2.178 0 0 0
-0.249 0.097 0.696 0 0 0
-0.518 -0.004 0.977 0 0 0
-0.94 -1.236 2.161 255 255 255
-0.305 -1.506 2.23 255 255 255
-0.088 -1.431 2.307 255 255 255
0.404 0.648 1.659 255 255 255
-1.046 -1.064 2.18 255 255 255
-0.412 -1.282 2.274 255 255 255
0.323 0.615 1.654 255 255 255
0.73 0.025 1.646 255 255 255
-0.44 -0.413 2.525 255 255 255
-1.049 -0.896 2.097 255 255 255
0.014 0.251 2.461 255 255 255
0.137 -0.471 2.64 255 255 255
0.561 0.629 1.716 255 255 255
-0.428 0.18 2.626 0 0 0
0.548 -1.554 2.262 255 255 255
-0.777 -0.315 1.79 255 255 255
-0.319 0.058 0.681 255 255 255
-0.112 -0.169 2.675 255 255 255
0.144 -0.373 2.669 255 255 255
0.071 -0.004 2.767 255 255 255
0.585 -0.928 1.679 255 255 255
0.318 -0.683 1.735 255 255 255
-0.548 -1.043 2.312 255 255 255
0.528 -0.587 1.773 255 255 255
0.625 0.344 2.109 255 255 255
0.227 -0.653 2.431 255 255 255
0.704 0.316 1.878 255 255 255
0.518 -0.163 1.912 255 255 255
0.081 0.39 2.126 255 255 255
-0.949 -0.319 1.506 255 255 255
0.151 -0.912 2.516 255 255 255
0.517 -0.926 1.664 255 255 255
-0.252 -1.086 2.366 255 255 255
-0.275 0.104 0.506 255 255 255
-0.15 0.106 0.756 255 255 255
0.325 -0.462 1.761 255 255 255
0.495 0.514 1.711 255 255 255
0.142 0.012 2.769 255 255 255
0.738 -0.074 1.594 255 255 255
0.391 -0.544 1.758 255 255 255
0.617 -1.297 1.91 255 255 255
0.704 -0.977 1.638 255 255 255
0.712 -1.094 1.588 255 255 255
-0.176 0.217 0.475 0 0 0
-0.899 -0.3 1.537 255 255 255
0.316 -0.217 2.129 255 255 255
0.029 0.543 1.789 0 0 0
-0.877 -0.283 1.646 255 255 255
-0.633 -0.781 2.371 255 255 255
0.719 0.234 1.761 255 255 255
-0.077 0.166 0.348 255 255 255
-0.7 -0.556 2.122 255 255 255
-0.205 0.176 0.486 255 255 255
0.624 -0.98 1.683 0 0 0
-0.715 -0.704 2.238 255 255 255
-0.089 0.186 0.345 255 255 255
0.4 0.699 1.418 255 255 255
0.734 0.227 1.663 255 255 255
-0.256 0.095 0.714 0 0 0
-0.605 -0.44 1.922 255 255 255
-0.125 0.135 0.773 255 255 255
0.646 0.356 2.04 255 255 255
-0.317 -1.189 2.322 255 255 255
0.078 0.641 1.566 255 255 255
0.777 0.226 1.454 255 255 255
0.589 0.653 1.625 255 255 255
0.115 0.686 1.418 255 255 255
0.772 -0.024 1.436 255 255 255
-0.131 0.563 1.814 255 255 255
-0.079 0.158 0.337 255 255 255
-0.076 0.456 2.089 255 255 255
0.545 -1.668 2.257 0 0 0
-0.29 -1.423 2.262 255 255 255
-0.377 -0.349 2.559 255 255 255
-0.262 0.109 0.61 255 255 255
0.63 -1.22 1.883 0 0 0
0.728 0.198 1.699 255 255 255
0.676 -0.019 1.902 255 255 255
0.302 0.964 2.013 255 255 255
0.733 -0.658 1.584 255 255 255
0.276 -0.318 2.335 255 255 255
0.334 0.55 1.933 255 255 255
0.517 -0.721 1.729 255 255 255
-0.494 -0.638 2.446 255 255 255
-0.978 -1.075 2.201 255 255 255
-0.887 -1.441 2.115 255 255 255
0.785 0.226 1.401 255 255 255
0.819 -0.021 1.218 255 255 255
-0.057 -1.338 2.343 255 255 255
0.447 -1.051 1.648 255 255 255
0.723 -0.144 1.68 255 255 255
0.551 0.629 1.708 255 255 255
0.717 -0.835 1.623 0 0 0
0.622 -0.501 1.833 255 255 255
0.703 -0.906 1.649 255 255 255
-1.234 -0.649 2.122 0 0 0
-0.58 -0.104 1.186 255 255 255
1.023 -0.401 1.794 255 255 255
-0.047 0.43 2.108 255 255 255
0.676 -0.754 1.8 255 255 255
0.571 -1.451 2.181 255 255 255
0.275 0.249 2.377 255 255 255
0.235 -0.142 2.312 255 255 255
0.323 -0.517 1.741 255 255 255
-0.258 0.009 1.001 255 255 255
-0.084 0.161 0.335 255 255 255
-0.022 -0.516 2.594 255 255 255
-0.028 -0.107 2.717 255 255 255
-1.174 -0.882 2.072 255 255 255
0.272 -0.053 2.239 255 255 255
-1.04 -0.83 2.118 255 255 255
0.553 0.292 2.064 255 255 255
-0.759 -0.837 2.185 0 0 0
-0.715 -0.131 1.162 255 255 255
0.312 -1.702 2.323 0 0 0
0.244 0.326 2.346 255 255 255
-0.476 -1.54 2.182 255 255 255
-0.14 0.616 1.632 255 255 255
-0.223 -1.059 2.385 255 255 255
-0.495 -0.034 0.929 255 255 255
0.312 -0.57 1.753 0 0 0
0.253 -0.067 2.273 255 255 255
-0.079 -1.664 2.244 0 0 0
-0.072 -0.854 2.482 255 255 255
-0.3 -1.466 2.248 255 255 255
0.789 0.004 1.355 255 255 255
-0.522 -0.252 2.556 255 255 255
0.759 0.51 1.632 255 255 255
-0.478 -0.363 2.539 0 0 0
-0.484 -0.323 1.904 255 255 255
-0.856 -0.708 2.201 255 255 255
0.693 0.427 1.932 255 255 255
-0.052 -1.021 2.436 255 255 255
-0.374 0.007 2.667 255 255 255
-0.118 0.082 0.314 255 255 255
0.003 0.589 1.73 255 255 255
-0.125 0.007 2.725 255 255 255
-0.112 0.071 0.314 255 255 255
-0.327 -1.153 2.331 255 255 255
-0.409 -0.655 2.461 255 255 255
0.756 -0.176 1.491 255 255 255
-0.1 0.105 0.294 255 255 255
-0.078 -0.648 2.54 255 255 255
0.286 0.309 2.158 255 255 255
-0.069 0.688 1.396 255 255 255
-0.42 -0.02 2.648 255 255 255
0.737 0.25 1.65 255 255 255
0.554 -0.527 1.794 255 255 255
-0.23 0.177 0.48 255 255 255
0.712 0.012 1.755 255 255 255
0.508 1.014 2.048 255 255 255
-0.36 0.155 2.643 0 0 0
-0.22 0.173 0.486 255 255 255
0.75 -0.841 1.529 255 255 255
0.756 -0.217 1.268 255 255 255
0.229 -1.664 2.316 255 255 255
0.35 -0.146 1.872 255 255 255
0.383 0.93 2.037 255 255 255
0.518 -0.887 1.682 255 255 255
-0.462 -0.037 1.04 255 255 255
0.664 -0.361 1.905 0 0 0
0.468 -1.492 2.398 255 255 255
-0.421 -0.12 2.619 255 255 255
0.778 -0.036 1.406 255 255 255
0.331 -1 2.304 255 255 255
-0.184 0.2 2.623 255 255 255
0.571 0.253 2.053 255 255 255
0.8 0.224 1.336 255 255 255
0.322 -0.622 1.711 255 255 255
0.707 -0.781 1.677 255 255 255
0.591 -0.305 1.87 255 255 255
0.463 -0.499 1.796 255 255 255
-0.731 -0.108 1.059 255 255 255
-0.249 0.139 0.532 255 255 255
-0.081 0.062 0.316 0 0 0
-0.482 -1.553 2.181 255 255 255
-0.281 -0.12 2.65 255 255 255
0.46 -0.839 1.684 255 255 255
1.05 -0.407 1.772 255 255 255
0.46 -0.18 1.891 255 255 255
0.062 -0.656 2.572 255 255 255
-0.463 -1.447 2.21 255 255 255
0.749 0.305 1.608 255 255 255
-0.62 -0.946 2.32 0 0 0
0.517 -0.777 1.713 255 255 255
-0.737 -1.252 2.209 255 255 255
-0.999 -0.382 1.52 255 255 255
-0.453 -0.171 2.59 255 255 255
-0.84 -0.911 2.255 255 255 255
0.468 -0.317 1.847 255 255 255
0.397 -0.367 1.817 255 255 255
-1.064 -1.127 2.162 255 255 255
-0.224 -0.084 2.673 255 255 255
-0.483 -0.409 1.959 255 255 255
-0.509 -0.456 2.497 255 255 255
-0.586 0 0.86 255 255 255
-0.316 -0.314 2.58 255 255 255
-0.364 0.043 0.765 255 255 255
0.114 -1.193 2.426 255 255 255
0.324 -1.403 2.408 255 255 255
0.794 0.153 1.352 255 255 255
-0.105 0.195 0.346 255 255 255
-0.166 -0.449 2.577 255 255 255
-0.097 0.097 2.683 255 255 255
0.752 0.307 1.58 255 255 255
-0.823 -0.979 2.265 255 255 255
0.146 -1.444 2.357 255 255 255
0.801 -0.017 1.302 255 255 255
0.714 0.101 1.768 255 255 255
-0.334 0.088 0.706 0 0 0
-0.683 -0.705 2.248 0 0 0
-0.775 -0.377 1.83 255 255 255
-0.118 -0.862 2.471 255 255 255
-0.56 -0.35 1.865 255 255 255
-0.195 0.069 0.828 255 255 255
0.765 0.313 1.533 255 255 255
0.716 0.049 1.755 255 255 255
-1.029 -0.857 2.11 255 255 255
-0.432 0.026 0.839 255 255 255
0.249 -1.533 2.356 255 255 255
0.274 0.153 2.369 255 255 255
-0.678 -0.686 2.252 0 0 0
-0.133 0.261 2.454 255 255 255
0.233 -0.615 2.442 255 255 255
-0.299 -0.762 2.455 255 255 255
0.685 0.525 1.904 255 255 255
0.521 -0.714 1.732 255 255 255
-1.067 -0.91 2.085 255 255 255
-0.209 0.071 2.684 0 0 0
-0.746 -1.544 2.119 0 0 0
0.305 0.223 2.309 255 255 255
-0.21 0.199 0.472 255 255 255
-0.486 0.025 0.845 255 255 255
-0.139 -1.41 2.303 255 255 255
0.157 -1.474 2.353 255 255 255
0.015 -0.915 2.483 255 255 255
-0.327 0.091 0.726 0 0 0
0.076 0.393 2.122 255 255 255
-0.567 -0.986 2.321 255 255 255
0.555 0.632 1.693 255 255 255
0.577 -1.559 2.089 255 255 255
-0.177 0.216 0.475 0 0 0
-0.327 -0.938 2.395 255 255 255
0.721 -0.915 1.593 0 0 0
-0.283 -0.471 2.544 255 255 255
0.747 -0.619 1.599 255 255 255
-0.745 -1.09 2.254 255 255 255
-1.132 -1.082 2.051 0 0 0
0.434 0.922 2.046 255 255 255
0.643 0.672 1.548 255 255 255
0.552 0.448 1.962 255 255 255
-0.123 -1.194 2.367 255 255 255
0.501 0.627 1.723 255 255 255
0.353 0.622 1.7 255 255 255
0.292 0.303 2.208 255 255 255
-0.058 -1.536 2.287 255 255 255
0.653 -0.731 1.813 255 255 255
0.812 0.074 1.266 255 255 255
0.098 -1.437 2.348 255 255 255
-0.228 -1.054 2.386 255 255 255
0.781 -0.06 1.391 255 255 255
-0.146 -0.45 2.583 255 255 255
0.689 0.669 1.579 255 255 255
-0.016 -1.142 2.409 255 255 255
0.764 0.283 1.513 255 255 255
0.398 1 2.024 255 255 255
0.399 -0.744 1.696 255 255 255
-0.642 -0.81 2.359 255 255 255
-0.403 -0.329 2.56 255 255 255
0.124 -1.364 2.375 255 255 255
-0.402 -0.064 1.151 255 255 255
-0.252 0.432 2.221 255 255 255
0.104 -0.664 2.58 255 255 255
0.03 -1.09 2.436 255 255 255
0.731 -1.166 1.49 255 255 255
0.484 -0.651 1.756 255 255 255
-0.048 0.688 1.403 255 255 255
0.121 0.018 2.783 255 255 255
0.631 -1.274 1.845 255 255 255
-1.013 -1.436 2.082 255 255 255
-0.103 -0.847 2.477 255 255 255
-0.26 0.078 0.68 255 255 255
0.61 -0.924 1.684 255 255 255
0.345 -0.604 1.723 255 255 255
-1.196 -0.718 2.113 255 255 255
-0.088 0.13 0.308 255 255 255
-0.255 0.126 0.555 0 0 0
-0.094 0.533 1.906 255 255 255
-0.087 0.068 0.308 255 255 255
0.704 -1.047 1.622 255 255 255
0.857 -0.249 1.348 255 255 255
0.378 -0.606 1.736 255 255 255
-0.396 -0.067 1.161 255 255 255
0.778 -0.675 1.582 255 255 255
-0.206 0.211 0.468 0 0 0
0.392 -0.418 1.805 255 255 255
-0.611 -0.109 1.121 255 255 255
-0.225 0.062 0.692 255 255 255
0.379 -0.289 1.833 255 255 255
0.31 -0.192 2.244 255 255 255
0.213 0.625 1.65 255 255 255
0.252 -0.358 2.521 255 255 255
-0.234 -0.705 2.486 255 255 255
0.038 0.162 2.78 255 255 255
0.706 0.065 1.801 255 255 255
-0.972 -0.768 2.15 255 255 255
0.156 0.673 1.471 0 0 0
-1.191 -0.737 2.11 255 255 255
-0.514 -0.035 0.898 0 0 0
-0.62 -0.652 2.266 255 255 255
0.299 0.428 2.024 0 0 0
-0.643 -0.096 1.06 255 255 255
-0.896 -1.243 2.174 255 255 255
0.81 0.165 1.286 255 255 255
-0.065 0.117 0.315 255 255 255
0.082 -1.143 2.435 255 255 255
0.262 0.23 2.436 255 255 255
0.415 -0.889 1.654 255 255 255
0.685 -1.261 1.665 255 255 255
-0.505 -0.862 2.377 255 255 255
0.15 0.537 1.792 255 255 255
-0.686 -0.814 2.269 255 255 255
-0.034 0.128 2.777 255 255 255
0.816 0.003 1.246 255 255 255
-0.313 -0.025 1.055 255 255 255
-0.63 -1.358 2.202 255 255 255
0.128 0.141 2.816 255 255 255
-0.381 -0.925 2.385 255 255 255
-0.55 -0.771 2.256 0 0 0
-1.176 -0.956 2.044 255 255 255
0.197 0.676 1.419 255 255 255
0.408 0.183 2.001 255 255 255
0.427 -0.011 1.943 255 255 255
-0.795 -1.552 2.1 0 0 0
0.135 -0.972 2.496 255 255 255
0.658 -0.397 1.922 0 0 0
-0.077 0.427 2.116 0 0 0
-0.089 -0.548 2.569 255 255 255
-0.415 0.028 0.613 0 0 0
-0.138 -1.239 2.35 255 255 255
-0.266 0.099 0.649 255 255 255
-0.373 -0.314 2.571 255 255 255
0.38 -0.688 1.71 255 255 255
0.004 -1.076 2.43 255 255 255
0.252 -0.893 2.326 255 255 255
-1.384 -0.63 2.088 255 255 255
0.578 -0.333 1.852 255 255 255
-0.685 -0.907 2.32 255 255 255
-0.039 0.034 2.753 255 255 255
0.604 0.08 2.023 255 255 255
-0.247 0 1.051 255 255 255
0.601 0.634 1.678 255 255 255
-0.426 0.138 2.617 0 0 0
-0.121 0.088 0.312 255 255 255
0.786 0.134 1.377 255 255 255
0.772 -0.202 1.354 255 255 255
-0.774 -0.989 2.275 255 255 255
0.368 0.593 1.786 255 255 255
-0.677 -1.567 2.129 0 0 0
-0.356 -1.136 2.329 255 255 255
-0.405 -0.114 2.624 255 255 255
0.228 -1.588 2.338 255 255 255
0.844 -0.577 1.606 255 255 255
-0.077 0.081 0.302 255 255 255
-0.083 -1.447 2.301 255 255 255
0.35 -0.15 1.871 255 255 255
-1.101 -0.628 2.109 255 255 255
0.014 0.585 1.729 255 255 255
1.014 -0.406 1.778 255 255 255
0.281 0.533 1.908 255 255 255
0.819 -0.116 1.221 255 255 255
-0.244 0.135 0.548 255 255 255
-0.487 -1.548 2.182 255 255 255
-1.043 -0.415 2.226 0 0 0
0.707 -0.062 1.762 255 255 255
-0.055 -0.069 2.717 255 255 255
0.802 0.03 1.309 255 255 255
-0.186 0.197 0.478 0 0 0
-0.313 0.096 0.74 0 0 0
-0.249 0.111 0.61 255 255 255
0.601 0.705 1.442 255 255 255
0.61 0.376 2.116 255 255 255
0.371 -0.422 1.795 255 255 255
0.842 -0.669 1.578 255 255 255
-1.127 -1.215 2.119 255 255 255
0.081 0.402 2.123 255 255 255
0.382 -1.028 1.621 255 255 255
0.271 -0.964 2.301 255 255 255
-0.46 -1.097 2.319 255 255 255
-0.427 -0.812 2.413 255 255 255
0.14 -0.905 2.514 255 255 255
0.558 -0.764 1.724 255 255 255
0.156 -1.167 2.445 255 255 255
0.686 0.303 1.963 255 255 255
-0.136 -0.01 2.716 255 255 255
0.727 -0.684 1.581 0 0 0
0.096 -0.257 2.696 255 255 255
0.703 -0.133 1.78 255 255 255
0.105 -1.697 2.278 0 0 0
0.36 -0.893 2.222 255 255 255
-0.303 0.048 0.754 255 255 255
-0.473 -0.687 2.435 255 255 255
0.418 0.724 1.328 255 255 255
0.744 0.456 1.675 255 255 255
-0.527 -0.127 1.323 255 255 255
-0.331 0.001 2.671 255 255 255
-0.361 -0.359 2.558 255 255 255
0.68 -0.848 1.76 0 0 0
0.256 -1.632 2.329 255 255 255
0.738 0.661 1.605 255 255 255
-0.508 -0.421 1.953 255 255 255
0.352 -1.057 1.704 255 255 255
0.489 -0.855 1.684 255 255 255
-0.274 0.125 0.57 255 255 255
-0.17 0.085 0.823 255 255 255
-0.16 0.302 2.35 255 255 255
0.657 -0.056 1.972 255 255 255
-0.775 -0.101 1.068 0 0 0
-0.973 -1.09 2.197 255 255 255
0.475 0.281 2.053 255 255 255
-0.274 0.132 0.508 0 0 0
0.077 0.651 1.53 255 255 255
0.783 -0.057 1.376 255 255 255
0.195 -0.371 2.508 255 255 255
-1.167 -0.971 2.044 255 255 255
0.762 0.288 1.524 255 255 255
-0.722 -1.441 2.156 255 255 255
-0.776 -1.45 2.137 255 255 255
0.138 -0.419 2.655 255 255 255
0.253 0.553 1.837 255 255 255
0.661 0.459 1.989 255 255 255
-0.765 -0.811 2.196 255 255 255
-0.001 0.278 2.434 255 255 255
-0.549 -0.719 2.284 0 0 0
-1.084 -0.473 2.212 0 0 0
-0.273 0.111 0.516 255 255 255
0.003 0.625 1.612 255 255 255
0.805 0.079 1.295 255 255 255
0.682 -0.119 1.868 255 255 255
0.782 -0.728 1.565 255 255 255
0.09 -0.434 2.646 255 255 255
-1.104 -0.312 1.459 255 255 255
-0.099 0.243 0.544 0 0 0
-0.702 -1.262 2.212 255 255 255
0.497 -0.425 1.821 255 255 255
-1.293 -0.774 2.075 255 255 255
-1.008 -1.011 2.198 255 255 255
0.39 0.475 2.054 255 255 255
0.613 -1.473 1.908 255 255 255
-0.14 0.094 0.354 255 255 255
-0.254 0.039 0.813 255 255 255
-0.063 0.271 2.416 255 255 255
0.491 -0.358 1.837 255 255 255
-0.237 -0.209 2.631 255 255 255
0.31 0.591 1.8 255 255 255
-0.162 0.099 0.747 255 255 255
-0.835 -1.636 2.065 255 255 255
-0.333 -0.479 2.53 255 255 255
-0.126 0.646 1.533 255 255 255
0.227 0.714 1.333 255 255 255
0.065 0.676 1.457 0 0 0
-1.024 -0.275 1.48 255 255 255
0.111 0.298 2.149 255 255 255
-0.211 0.244 2.338 255 255 255
-0.231 0.147 0.515 255 255 255
-0.506 -1.289 2.253 255 255 255
-0.251 0.139 0.529 255 255 255
0.098 -0.888 2.516 255 255 255
0.392 -1.726 2.337 0 0 0
-0.548 -0.358 1.867 255 255 255
0.223 0.594 1.77 255 255 255
0.87 -0.368 1.672 255 255 255
-0.027 -0.186 2.692 255 255 255
-0.47 -0.931 2.363 255 255 255
0.576 -0.734 1.739 255 255 255
-1.092 -0.92 2.077 255 255 255
-0.194 -0.761 2.477 255 255 255
-0.359 0.004 0.966 255 255 255
0.152 0.453 1.978 255 255 255
0.387 -0.937 1.626 255 255 255
-0.143 0.112 0.775 255 255 255
-0.33 -0.004 0.982 0 0 0
0.927 -0.364 1.69 255 255 255
-0.215 0.176 0.485 255 255 255
0.081 -0.151 2.726 255 255 255
-0.245 0.113 0.597 255 255 255
-0.164 0.233 0.467 255 255 255
-0.611 -1.546 2.15 255 255 255
-1.298 -0.54 2.053 255 255 255
0.211 -0.069 2.36 255 255 255
0.793 -0.126 1.327 255 255 255
0.412 0.715 1.36 255 255 255
-0.454 -0.243 1.81 255 255 255
-0.248 -0.978 2.405 255 255 255
-0.1 0.684 1.414 255 255 255
-0.783 -0.099 1.074 0 0 0
-0.499 -0.037 0.913 255 255 255
-0.377 -0.286 1.913 255 255 255
-0.36 -0.046 1.122 255 255 255
-0.232 0.023 2.701 255 255 255
0.652 0.047 2.023 255 255 255
-0.882 -0.615 2.22 0 0 0
-0.078 0.125 0.309 255 255 255
-0.458 -0.093 2.618 255 255 255
0.716 0.202 1.778 255 255 255
-0.771 -0.129 1.088 255 255 255
0.773 0.253 1.466 255 255 255
0.693 -0.294 1.805 255 255 255
-0.682 -0.422 1.861 255 255 255
-0.072 0.195 0.357 255 255 255
0.682 -0.778 1.772 255 255 255
0.009 0.682 1.427 255 255 255
0.689 0.605 1.801 255 255 255
0.793 -0.174 1.282 255 255 255
-0.322 -1.033 2.369 255 255 255
-1.067 -0.489 2.222 0 0 0
0.709 0.552 1.81 255 255 255
0.605 -0.459 1.827 255 255 255
0.649 -1.039 1.715 255 255 255
-0.064 0.078 0.316 255 255 255
-0.348 0.073 0.656 255 255 255
0.693 0.364 1.927 255 255 255
0.325 -0.633 1.707 255 255 255
-1.354 -0.649 2.096 255 255 255
0.738 0.241 1.636 255 255 255
0.351 -0.553 1.742 255 255 255
0.384 -0.523 1.767 255 255 255
0.737 0.09 1.616 255 255 255
0.302 -0.573 2.142 255 255 255
0.688 -1.29 1.644 255 255 255
-0.103 0.079 0.303 255 255 255
0.566 0.209 2.039 255 255 255
0.782 0.387 1.472 255 255 255
-0.542 0.008 0.806 255 255 255
0.29 -1.694 2.323 0 0 0
-0.539 -0.791 2.384 255 255 255
0.691 -0.683 1.741 255 255 255
-0.62 -0.09 1.086 255 255 255
0.046 0.675 1.463 0 0 0
0.704 0.061 1.807 255 255 255
0.574 0.086 1.994 255 255 255
0.176 -0.746 2.536 255 255 255
0.725 0.184 1.702 255 255 255
0.226 -1.422 2.382 255 255 255
0.411 0.495 1.725 255 255 255
-0.247 -0.527 2.538 255 255 255
0.658 0.215 2.035 255 255 255
-0.089 -0.507 2.578 255 255 255
-0.358 0.077 0.634 255 255 255
-0.175 0.4 2.063 255 255 255
-0.423 -0.718 2.438 255 255 255
-0.187 0.063 1.068 255 255 255
0.597 -0.278 1.878 255 255 255
0.795 0.042 1.346 255 255 255
0.71 -0.098 1.749 255 255 255
0.257 0.485 1.914 255 255 255
-0.146 -0.042 2.707 255 255 255
-0.009 0.389 2.149 255 255 255
0.733 -0.254 1.614 255 255 255
-0.511 -0.199 1.585 255 255 255
0.264 0.611 1.712 255 255 255
0.239 0.342 2.292 255 255 255
0.4 -0.726 1.702 255 255 255
0.378 -1.15 2.308 255 255 255
0.599 0.703 1.446 255 255 255
0.494 -0.315 1.854 255 255 255
-0.917 -0.277 1.521 255 255 255
-0.284 0.094 0.737 0 0 0
0.225 -0.209 2.566 255 255 255
0.868 -0.345 1.647 255 255 255
0.649 0.632 1.681 0 0 0
0.718 -0.403 1.688 0 0 0
0.711 0.364 1.834 255 255 255
0.789 0.257 1.397 255 255 255
-1.258 -0.803 2.068 255 255 255
0.514 0.225 2.038 255 255 255
0.665 0.204 2.003 255 255 255
0.72 -0.262 1.447 0 0 0
-0.987 -0.315 1.491 255 255 255
-0.273 0.055 0.712 255 255 255
0.348 -0.697 1.696 255 255 255
0.414 -0.011 1.941 255 255 255
0.068 0.693 1.391 255 255 255
-0.186 0.081 0.777 255 255 255
-0.034 0.485 2.081 255 255 255
0.044 0.652 1.524 255 255 255
-0.191 0.196 0.478 255 255 255
0.717 -0.883 1.616 0 0 0
-0.064 0.1 0.3 255 255 255
0.698 0.636 1.693 255 255 255
0.205 -0.976 2.323 0 0 0
0.005 0.106 2.786 255 255 255
-0.187 -0.423 2.58 255 255 255
-0.44 -0.202 1.628 255 255 255
-1.044 -0.29 1.48 255 255 255
0.52 -0.297 1.863 255 255 255
0.656 0.216 2.042 255 255 255
-0.934 -1.34 2.133 255 255 255
0.316 -0.159 1.85 255 255 255
0.357 -0.653 1.716 255 255 255
-0.773 -0.144 1.128 255 255 255
0.49 1.004 2.029 255 255 255
0.649 -0.052 1.999 255 255 255
0.788 -0.133 1.349 255 255 255
-0.177 0.247 0.465 255 255 255
0.636 0.094 2.072 255 255 255
0.072 -1.078 2.447 255 255 255
0.016 0.447 2.109 255 255 255
0.729 0.128 1.669 255 255 255
-0.445 -0.213 1.688 255 255 255
-0.305 0.024 0.863 255 255 255
-0.339 -1.408 2.254 255 255 255
-1.062 -0.368 1.496 255 255 255
-0.234 0.445 2.177 255 255 255
-0.458 -0.186 2.587 255 255 255
-0.382 -1.187 2.312 255 255 255
-0.307 -0.904 2.409 255 255 255
0.666 0.357 2.018 255 255 255
-0.536 -0.628 2.267 0 0 0
0.802 -0.074 1.296 255 255 255
-0.522 -0.004 0.916 255 255 255
0.432 0.61 1.743 255 255 255
0.356 0.629 1.675 255 255 255
-0.587 -1.401 2.199 255 255 255
-1.174 -0.763 2.103 255 255 255
0.12 -0.562 2.61 255 255 255
0.191 -1.147 2.426 255 255 255
-0.29 0.342 2.321 0 0 0
0.812 -0.142 1.241 255 255 255
0.667 0.39 1.989 255 255 255
-0.017 -0.265 2.673 255 255 255
-0.509 -1.08 2.313 255 255 255
-0.189 -0.802 2.471 255 255 255
-0.06 0.095 0.31 255 255 255
-0.25 -1.496 2.249 255 255 255
-0.043 0.681 1.425 255 255 255
-0.915 -0.842 2.146 255 255 255
-0.413 -1.341 2.259 255 255 255
-0.275 -0.634 2.496 255 255 255
-0.091 0.626 1.603 255 255 255
0.714 -0.017 1.75 255 255 255
0.737 -0.169 1.595 255 255 255
-1.355 -0.635 2.1 0 0 0
0.379 -1.048 2.309 255 255 255
-0.071 0.65 1.52 255 255 255
0.727 -0.223 1.649 255 255 255
-0.348 -0.076 1.206 255 255 255
0.097 -0.183 2.72 255 255 255
-0.25 -0.66 2.497 255 255 255
-0.343 0.074 0.669 0 0 0
0.737 -0.176 1.595 255 255 255
0.28 -0.327 2.144 255 255 255
-1.152 -1.125 2.116 255 255 255
0.77 -0.083 1.431 255 255 255
-0.021 -1.603 2.276 255 255 255
-0.642 -0.626 2.187 255 255 255
-0.471 -1.295 2.257 255 255 255
-0.796 -0.098 1.064 0 0 0
0.094 -1.64 2.289 255 255 255
0.676 0.065 1.949 255 255 255
-0.72 -1.363 2.182 255 255 255
-1.056 -0.522 2.217 0 0 0
-0.093 0.045 2.737 255 255 255
0.636 -1.254 1.857 255 255 255
-0.363 0.007 2.669 255 255 255
0.179 0.679 1.451 255 255 255
-0.083 0.141 0.32 255 255 255
0.735 -0.02 1.615 255 255 255
-0.059 -0.336 2.638 255 255 255
0.727 -0.831 1.585 0 0 0
-0.842 -0.722 2.201 255 255 255
-0.149 0.233 0.465 255 255 255
-0.826 -0.542 2.111 0 0 0
0.067 -1.324 2.373 255 255 255
0.788 0.254 1.402 255 255 255
-1.226 -0.981 2.034 255 255 255
-0.418 0.036 0.6 0 0 0
-0.519 -1.16 2.287 255 255 255
0.188 0.022 2.628 255 255 255
-0.876 -0.273 1.604 255 255 255
-0.474 -0.241 1.766 255 255 255
-0.41 -0.978 2.362 255 255 255
0.681 -0.43 1.823 255 255 255
0.552 -0.487 1.808 255 255 255
0.631 0.314 2.115 255 255 255
-1.084 -1.247 2.126 255 255 255
0.216 0.027 2.595 255 255 255
-0.074 0.115 0.31 255 255 255
0.374 -0.099 1.9 255 255 255
0.174 -0.646 2.529 255 255 255
0.201 0.724 1.315 255 255 255
0.76 -0.028 1.491 255 255 255
0.547 -0.932 1.669 255 255 255
0.114 -0.146 2.737 255 255 255
0.813 -0.047 1.247 255 255 255
0.693 -0.991 1.685 255 255 255
-0.309 0.074 0.682 0 0 0
0.312 -0.047 2.169 255 255 255
-0.649 -0.306 1.841 0 0 0
0.49 0.509 1.706 255 255 255
0.295 0.098 1.943 255 255 255
-0.125 -0.546 2.561 255 255 255
-0.316 -1.544 2.216 255 255 255
0.322 -0.06 1.89 255 255 255
-0.849 -0.824 2.169 255 255 255
0.764 0.547 1.564 255 255 255
0.133 0.714 1.334 255 255 255
-0.941 -0.236 1.51 255 255 255
0.395 0.468 1.724 255 255 255
-0.093 0.067 0.308 255 255 255
0.137 -1.604 2.315 255 255 255
-0.159 0.091 0.865 255 255 255
0.513 -0.019 1.958 255 255 255
0.298 0.912 2.029 255 255 255
0.365 -0.707 1.7 255 255 255
-1.053 -0.871 2.099 255 255 255
-0.001 -0.727 2.533 255 255 255
-0.695 -1.011 2.29 255 255 255
-0.387 0.027 0.835 255 255 255
0.646 -1.22 1.809 255 255 255
0.822 -0.136 1.171 0 0 0
-0.402 -0.17 1.526 255 255 255
-0.23 -1.472 2.263 255 255 255
-0.496 -0.145 1.379 255 255 255
-0.075 0.074 0.306 0 0 0
-1.202 -0.849 2.07 255 255 255
-0.093 0.671 1.454 0 0 0
0.509 -0.2 1.893 255 255 255
-0.377 0.008 0.94 255 255 255
0.717 -0.749 1.648 0 0 0
0.072 -1.474 2.334 255 255 255
-0.628 -0.055 0.904 0 0 0
-0.48 -0.058 1.116 255 255 255
-0.862 -0.963 2.258 255 255 255
-0.022 0.591 1.725 255 255 255
0.677 -0.316 1.85 255 255 255
-0.701 -1.587 2.113 0 0 0
0.56 -0.721 1.74 255 255 255
0.294 0.04 1.933 255 255 255
-0.434 -1.639 2.165 0 0 0
-0.5 -0.554 2.466 255 255 255
-0.426 -0.05 1.11 255 255 255
0.093 0.709 1.346 255 255 255
-0.067 0.198 0.392 255 255 255
-0.031 0.411 2.168 255 255 255
-0.956 -0.298 1.896 255 255 255
0.743 -0.243 1.416 0 0 0
0.469 -0.894 1.671 255 255 255
0.801 -0.883 1.52 255 255 255
-0.251 -0.27 2.611 255 255 255
0.766 0.144 1.47 255 255 255
-0.029 0.646 1.537 255 255 255
-0.705 -0.971 2.298 255 255 255
-0.544 -0.228 1.675 255 255 255
0.408 -0.536 1.769 255 255 255
-0.201 0.171 0.491 0 0 0
-0.425 -0.126 1.339 255 255 255
0.321 -0.558 2.155 255 255 255
-0.085 0.136 0.31 255 255 255
0.605 -0.831 1.711 255 255 255
0.031 -0.287 2.674 255 255 255
-0.288 -1.237 2.315 255 255 255
-0.198 0.075 0.784 255 255 255
0.561 0.248 2.049 255 255 255
-0.25 0.063 0.684 255 255 255
-0.238 0.247 2.322 255 255 255
0.369 0.978 2.013 255 255 255
0.383 0.363 2.052 255 255 255
0.647 -1.315 1.802 0 0 0
0.724 -0.278 1.549 0 0 0
0.692 0.483 1.883 255 255 255
-0.399 0.116 2.617 0 0 0
0.69 -0.205 1.829 255 255 255
0.669 -0.883 1.78 0 0 0
-0.172 0.078 0.935 255 255 255
0.005 -0.338 2.655 255 255 255
0.808 -0.646 1.592 255 255 255
0.596 -1.336 2.004 255 255 255
0.059 0.669 1.473 0 0 0
-1.056 -0.78 2.13 255 255 255
-0.41 -0.972 2.362 255 255 255
-1.408 -0.608 2.092 0 0 0
-0.249 0.15 0.51 255 255 255
-0.404 0.065 0.675 0 0 0
-0.273 0.062 0.682 255 255 255
-0.959 -0.287 1.498 255 255 255
-0.055 0.494 2.064 255 255 255
-0.195 0.078 0.78 255 255 255
0.264 -0.264 2.404 255 255 255
0.431 0.146 1.997 255 255 255
-0.227 0.154 0.502 255 255 255
-0.042 -0.619 2.554 255 255 255
0.123 0.635 1.587 255 255 255
-0.259 0.151 0.506 255 255 255
-1.271 -0.869 2.043 255 255 255
-1.22 -0.571 2.071 255 255 255
-1.08 -0.43 2.164 0 0 0
-0.641 -0.083 1.048 255 255 255
-1.061 -0.337 1.485 255 255 255
-0.474 -1.475 2.203 255 255 255
0.7 -0.501 1.751 255 255 255
-0.273 0.109 0.509 255 255 255
0.741 -0.334 1.667 255 255 255
-0.186 0.059 0.883 255 255 255
-0.262 -0.27 2.608 255 255 255
0.418 -0.945 1.627 0 0 0
-0.528 0.029 0.802 255 255 255
-0.091 -0.248 2.659 255 255 255
0.103 -0.086 2.738 0 0 0
-0.389 -1.648 2.173 0 0 0
0.344 0.374 2.045 255 255 255
-0.295 0.343 2.326 0 0 0
-0.918 -0.214 1.537 255 255 255
-0.353 -0.014 0.998 0 0 0
-0.747 -1.268 2.202 255 255 255
-0.541 -0.638 2.267 255 255 255
0.624 0.431 2.032 255 255 255
0.719 0.207 1.754 255 255 255
0.523 -0.261 1.879 255 255 255
-0.077 0.067 0.311 0 0 0
-0.386 0.05 0.712 255 255 255
1.106 -0.5 1.744 255 255 255
0.804 0.111 1.304 255 255 255
-0.88 -1.22 2.181 255 255 255
-0.361 -0.588 2.494 255 255 255
0.79 -0.173 1.301 0 0 0
-0.277 0.101 0.643 255 255 255
-0.276 0.105 0.505 255 255 255
0.094 0.549 1.769 255 255 255
-0.634 -1.29 2.221 255 255 255
-0.575 -0.063 1.098 255 255 255
-0.512 -0.361 1.868 255 255 255
-0.991 -0.848 2.125 255 255 255
-0.062 -1.316 2.347 255 255 255
-0.997 -0.929 2.103 0 0 0
0.736 0.15 1.63 255 255 255
-0.077 -1.036 2.429 255 255 255
0.037 -0.171 2.709 255 255 255
0.682 0.215 1.947 255 255 255
0.557 0.248 2.049 255 255 255
0.802 0.012 1.303 255 255 255
-0.874 -1.371 2.138 255 255 255
0.499 -0.577 1.771 255 255 255
-0.004 0.536 1.874 0 0 0
0.733 -0.071 1.618 255 255 255
-0.037 -0.525 2.589 255 255 255
0.399 0.468 1.723 255 255 255
0.727 -0.227 1.656 255 255 255
0.676 -0.209 1.869 255 255 255
0.719 -1.101 1.534 0 0 0
-0.07 0.194 0.362 255 255 255
0.277 0.609 1.727 255 255 255
-0.39 -0.158 1.469 255 255 255
-0.295 -0.663 2.485 255 255 255
0.707 -0.358 1.728 0 0 0
-0.05 0.023 2.749 255 255 255
-0.69 -0.102 1.087 0 0 0
-0.276 0.099 0.644 255 255 255
0.703 -1.025 1.626 255 255 255
-1.077 -0.705 2.145 255 255 255
-0.021 -1.056 2.436 255 255 255
0.771 -0.538 1.627 255 255 255
0.408 -1.45 2.414 255 255 255
-0.27 0.144 0.514 255 255 255
-0.733 -0.572 2.103 255 255 255
-0.23 -0.616 2.512 255 255 255
0.214 0.153 2.622 255 255 255
0.671 -0.509 1.854 0 0 0
0.016 0.162 2.78 255 255 255
-0.09 0.091 0.298 255 255 255
-0.231 0.161 0.497 255 255 255
0.437 -0.369 1.824 255 255 255
-0.531 -1.518 2.18 255 255 255
-0.105 0.065 0.316 0 0 0
-0.261 -0.605 2.51 255 255 255
-0.212 -0.152 2.657 255 255 255
0.092 -0.102 2.731 255 255 255
0.094 -1.579 2.31 255 255 255
0.4 0.903 2.041 255 255 255
0.072 0.635 1.58 255 255 255
0.413 -1.701 2.341 0 0 0
0.438 0.685 1.468 255 255 255
-0.059 0.085 0.321 0 0 0
0.69 -0.678 1.741 255 255 255
-1.341 -0.659 2.101 255 255 255
0.212 0.032 2.607 255 255 255
-0.016 -0.611 2.565 255 255 255
-0.615 -0.125 1.183 255 255 255
0.755 -0.211 1.268 0 0 0
-0.198 -0.896 2.44 255 255 255
-1.058 -0.715 2.149 255 255 255
0.197 0.681 1.393 255 255 255
-0.455 -0.922 2.369 255 255 255
0.805 -0.593 1.608 255 255 255
-0.555 -0.087 1.171 0 0 0
0.088 -1.285 2.392 255 255 255
-0.232 0.165 0.491 255 255 255
0.817 -0.096 1.224 255 255 255
0.01 -0.905 2.486 255 255 255
-0.408 -0.256 1.953 255 255 255
-1.231 -0.505 2.072 255 255 255
-0.309 -0.057 2.663 255 255 255
-0.19 0.096 0.675 255 255 255
-0.375 -0.031 1.027 255 255 255
0.712 0.462 1.823 255 255 255
-0.986 -1.009 2.214 255 255 255
0.756 0.497 1.639 255 255 255
-0.333 -0.12 2.641 255 255 255
0.422 -0.649 1.738 255 255 255
0.687 -0.992 1.706 0 0 0
0.263 -0.253 2.398 255 255 255
-1.33 -0.767 2.07 255 255 255
0.341 -0.831 2.209 255 255 255
-0.266 0.104 0.634 255 255 255
0.454 -0.371 1.83 255 255 255
0.547 -0.413 1.83 255 255 255
0.769 -0.046 1.444 255 255 255
0.727 -0.175 1.661 255 255 255
-0.671 -0.928 2.321 255 255 255
-0.33 0.015 0.905 255 255 255
0.425 0.711 1.372 255 255 255
-0.401 -1.093 2.331 255 255 255
0.243 0.03 2.446 255 255 255
-0.471 0.042 0.754 255 255 255
-0.083 -1.293 2.35 255 255 255
-0.628 -0.309 1.791 0 0 0
-0.238 0.043 0.797 255 255 255
-0.077 0.164 0.347 255 255 255
-0.932 -1.099 2.203 255 255 255
-0.321 0.391 2.332 0 0 0
-0.099 0.301 0.654 0 0 0
0.696 0.472 1.871 255 255 255
0.781 0.275 1.435 255 255 255
0.737 -0.156 1.597 255 255 255
0.724 -0.821 1.601 0 0 0
-0.39 -0.238 2.589 255 255 255
0.062 -0.561 2.603 255 255 255
-1.419 -0.541 2.054 255 255 255
-0.067 0.082 0.31 0 0 0
-0.128 -1.153 2.38 255 255 255
0.448 0.697 1.39 255 255 255
-0.286 -0.3 2.593 255 255 255
-0.12 0.094 0.307 255 255 255
-0.999 -0.259 1.504 0 0 0
0.668 -0.075 1.927 255 255 255
0.189 -0.143 2.577 255 255 255
0.703 -1.08 1.615 255 255 255
0.737 -0.379 1.671 255 255 255
0.482 -0.759 1.717 255 255 255
0.775 -0.492 1.636 255 255 255
-0.363 0.096 0.617 255 255 255
-0.332 0.112 2.634 0 0 0
-0.669 -0.08 1.024 255 255 255
0.286 -0.97 2.301 255 255 255
-1.313 -0.698 2.087 255 255 255
0.542 0.27 2.058 255 255 255
-0.089 0.131 0.308 255 255 255
-0.824 -0.751 2.203 0 0 0
-0.031 0.398 2.195 255 255 255
0.351 -0.799 1.66 255 255 255
-0.285 -0.039 1.151 255 255 255
-0.684 -0.381 1.836 255 255 255
0.759 0.202 1.533 255 255 255
0.722 0.172 1.734 255 255 255
-0.561 -1.354 2.218 255 255 255
0.771 -0.202 1.377 0 0 0
-0.499 -1.101 2.31 255 255 255
0.291 -1.399 2.404 255 255 255
0.798 -0.726 1.565 255 255 255
-0.486 -1.539 2.18 255 255 255
-0.484 -0.02 0.963 255 255 255
-0.258 -0.02 1.14 255 255 255
-0.348 -0.818 2.425 255 255 255
-0.071 0.117 0.312 255 255 255
-0.329 -0.035 1.076 255 255 255
-0.069 0.066 0.323 0 0 0
-0.148 -0.961 2.438 255 255 255
-0.463 -0.29 1.873 0 0 0
-1.002 -0.535 2.228 0 0 0
-0.442 -0.077 1.172 255 255 255
-0.033 -0.101 2.719 255 255 255
0.227 -0.348 2.524 255 255 255
-0.054 0.243 2.43 255 255 255
-1.002 -1.225 2.155 255 255 255
-0.295 -0.026 1.072 255 255 255
0.71 -1.152 1.579 0 0 0
-0.419 0.029 0.596 255 255 255
-0.577 -0.403 1.89 255 255 255
-0.529 0.016 0.773 255 255 255
-0.223 0.086 2.659 255 255 255
-1.094 -0.339 1.48 255 255 255
-0.1 0.174 0.343 255 255 255
0.649 -0.652 1.834 0 0 0
0.162 -0.649 2.585 255 255 255
-1.048 -0.899 2.092 255 255 255
0.741 0.105 1.583 255 255 255
0.77 -0.012 1.446 255 255 255
0.371 -0.746 2.433 255 255 255
-0.17 0.537 1.886 255 255 255
-0.087 0.083 0.302 255 255 255
-0.184 0.556 1.828 255 255 255
-0.193 0.058 0.868 255 255 255
-0.6 -0.088 1.139 255 255 255
0.192 -0.621 2.428 255 255 255
0.53 -0.862 1.691 255 255 255
-0.554 -0.02 0.921 0 0 0
0.783 0.521 1.542 255 255 255
-1.008 -1.075 2.192 255 255 255
-0.897 -0.241 1.54 255 255 255
0.833 -0.316 1.574 255 255 255
-0.889 -0.232 1.557 255 255 255
-0.243 0.121 0.566 255 255 255
0.392 -0.207 1.864 255 255 255
-0.346 -1.146 2.327 255 255 255
-0.425 -0.069 1.155 255 255 255
-0.783 -0.101 1.065 0 0 0
-0.628 -0.113 1.135 255 255 255
0.708 -0.412 1.733 0 0 0
0.689 0.084 1.9 255 255 255
-0.276 0.16 2.65 255 255 255
-0.101 0.251 0.542 0 0 0
-0.431 -0.978 2.361 255 255 255
0.601 -1.313 1.994 255 255 255
-0.534 -1.17 2.28 255 255 255
-0.353 -0.77 2.441 255 255 255
0.447 -0.631 1.751 255 255 255
0.388 -0.084 1.91 255 255 255
0.374 -0.228 1.853 255 255 255
-0.236 -0.026 2.687 255 255 255
0.046 -1.092 2.439 255 255 255
0.699 -0.56 1.737 255 255 255
-0.14 -0.611 2.539 255 255 255
0.618 -0.621 1.785 255 255 255
-0.243 0.143 0.519 255 255 255
0.279 0.018 2.088 255 255 255
-0.332 0.337 2.319 0 0 0
-1.139 -1.057 2.016 0 0 0
0.701 -0.776 1.697 255 255 255
0.205 0.499 1.862 255 255 255
-0.418 -0.283 1.941 255 255 255
0.526 -1.659 2.338 255 255 255
0.701 -0.547 1.733 255 255 255
0.158 0.679 1.452 255 255 255
-0.578 -0.891 2.241 0 0 0
0.232 -0.658 2.429 255 255 255
-0.807 -0.969 2.27 255 255 255
0.717 -0.246 1.717 255 255 255
-0.38 -0.434 2.534 255 255 255
-0.142 0.565 1.807 255 255 255
-0.599 -0.441 1.929 255 255 255
0.221 0.519 1.834 255 255 255
0.384 -0.088 1.909 255 255 255
-0.205 0.045 0.873 255 255 255
-0.195 0.19 0.479 255 255 255
-0.547 -0.569 2.303 0 0 0
0.359 -1.517 2.385 255 255 255
-0.387 -0.104 1.282 255 255 255
-1.127 -1.335 2.085 255 255 255
-0.622 -1.028 2.304 255 255 255
0.307 -0.452 1.768 0 0 0
-0.065 0.12 0.317 255 255 255
-0.05 0.209 0.381 255 255 255
-0.446 -0.008 0.964 255 255 255
-0.231 0.163 0.494 255 255 255
-0.747 -0.302 1.866 0 0 0
-0.313 -0.089 2.652 255 255 255
-1.199 -1.177 2.113 255 255 255
-0.098 0.065 0.313 0 0 0
0.429 -0.152 1.893 255 255 255
-0.054 0.09 0.322 255 255 255
0.458 -1.657 2.366 255 255 255
-0.217 0.029 0.951 255 255 255
0.349 0.899 2.026 255 255 255
-0.341 -0.578 2.501 255 255 255
-0.554 -0.757 2.277 0 0 0
-0.262 0.109 0.62 255 255 255
-0.143 0.589 1.725 255 255 255
0.443 0.13 1.996 255 255 255
0.183 0.059 2.635 255 255 255
-0.239 0.164 0.492 255 255 255
0.814 -0.084 1.252 255 255 255
0.792 0.312 1.403 255 255 255
0.648 0.667 1.573 255 255 255
0.831 -0.053 1.178 255 255 255
-0.563 -0.389 1.884 255 255 255
-0.236 0.167 0.488 255 255 255
-1.103 -0.489 2.136 255 255 255
-0.213 0.116 0.592 0 0 0
0.446 -0.519 1.786 255 255 255
0.644 0.329 2.065 255 255 255
-0.406 -1.251 2.284 255 255 255
0.747 -0.042 1.55 255 255 255
0.737 -0.257 1.515 0 0 0
-0.063 0.07 0.333 0 0 0
0.677 0.001 1.917 255 255 255
0.345 -0.353 2.194 255 255 255
-0.323 -1.635 2.191 0 0 0
-0.979 -0.357 1.514 255 255 255
-0.75 -0.148 1.207 255 255 255
0.242 0.626 1.652 255 255 255
-0.27 0.15 0.509 255 255 255
-0.722 -1.177 2.238 255 255 255
-0.207 0.057 0.757 255 255 255
0.336 -0.976 2.311 255 255 255
0.7 0.367 1.898 255 255 255
-0.459 0.029 0.82 255 255 255
-1.018 -0.926 2.09 255 255 255
0.744 0.007 1.576 255 255 255
-0.011 0.613 1.657 255 255 255
-0.084 0.721 1.319 255 255 255
0.8 -0.086 1.304 255 255 255
-0.379 -0.027 1.018 0 0 0
0.195 -0.401 2.505 255 255 255
0.723 0.298 1.756 255 255 255
-0.972 -0.695 2.178 255 255 255
0.137 0.431 2.007 0 0 0
-0.082 -0.015 2.727 255 255 255
0.135 -0.865 2.528 255 255 255
0.642 0.394 2.036 255 255 255
0.267 0.544 1.862 255 255 255
0.031 -0.487 2.614 255 255 255
-0.784 -0.744 2.206 0 0 0
-0.094 0.09 0.299 255 255 255
-0.251 -1.556 2.229 255 255 255
-0.223 -1.05 2.389 255 255 255
0.693 -1.154 1.657 255 255 255
0.724 -1.153 1.546 0 0 0
0.704 0.151 1.847 255 255 255
0.534 -0.646 1.755 255 255 255
0.638 -0.374 1.917 255 255 255
0.8 0.1 1.316 255 255 255
-0.195 0.078 0.751 255 255 255
-1.02 -0.299 1.483 255 255 255
0.764 0.061 1.477 255 255 255
0.681 0.592 1.842 255 255 255
0.711 -0.256 1.741 255 255 255
0.418 0.693 1.44 255 255 255
0.36 -0.36 1.806 255 255 255
-0.235 0.168 0.488 255 255 255
-0.133 -1.203 2.362 255 255 255
0.475 0.228 2.035 255 255 255
0.625 -0.937 1.687 255 255 255
-0.129 0.692 1.386 255 255 255
-0.421 0.001 2.657 255 255 255
0.747 -0.234 1.537 255 255 255
-0.698 -1.493 2.142 255 255 255
-0.027 -0.176 2.695 255 255 255
0.678 -0.336 1.851 255 255 255
-0.072 0.077 0.308 0 0 0
0.534 0.025 1.976 255 255 255
-0.015 0.283 2.44 255 255 255
0.805 -0.883 1.519 255 255 255
-0.543 0.016 0.753 255 255 255
-0.83 -0.917 2.272 255 255 255
0.596 -0.792 1.721 255 255 255
-0.113 0.113 0.311 255 255 255
0.396 0.551 1.801 255 255 255
0.748 0.384 1.631 255 255 255
0.212 0.315 2.412 255 255 255
-0.662 -0.795 2.359 255 255 255
-0.355 -1.465 2.232 255 255 255
-0.06 0.081 0.321 255 255 255
0.646 0.398 2.035 255 255 255
0.457 -0.438 1.815 255 255 255
-0.318 -0.021 1.034 255 255 255
-0.323 -1.614 2.2 0 0 0
-0.245 0.037 0.82 255 255 255
0.734 0.405 1.718 255 255 255
-0.28 -0.356 2.579 255 255 255
-0.793 -0.533 2.101 0 0 0
0.489 -0.443 1.818 255 255 255
0.062 -1.577 2.298 255 255 255
-0.214 0.133 0.549 0 0 0
-0.233 -1.129 2.361 255 255 255
0.01 -0.182 2.704 255 255 255
0.277 -0.768 2.236 255 255 255
-0.245 -0.695 2.488 255 255 255
0.702 -0.519 1.731 255 255 255
-0.833 -0.543 2.115 255 255 255
0.441 -0.216 1.873 255 255 255
-0.056 0.203 0.383 255 255 255
-0.186 0.099 0.661 255 255 255
-1.33 -0.831 2.043 255 255 255
-0.551 -1.304 2.239 255 255 255
0.675 -1.094 1.721 0 0 0
0.702 0.274 1.865 255 255 255
-0.529 -1.467 2.193 255 255 255
0.63 0.678 1.53 0 0 0
-0.631 -0.154 1.213 255 255 255
0.92 -0.409 1.67 255 255 255
0.843 -0.742 1.559 255 255 255
-0.215 0.487 2.03 255 255 255
-0.055 0.464 2.087 255 255 255
-0.483 -1.629 2.154 0 0 0
-0.919 -1.583 2.063 255 255 255
-1.024 -0.217 1.454 255 255 255
0.752 0.099 1.535 255 255 255
0.695 0.612 1.769 255 255 255
0.148 -0.398 2.659 255 255 255
0.66 -0.54 1.88 0 0 0
-0.096 0.066 0.31 0 0 0
0.537 0.136 2.016 255 255 255
0.73 0.372 1.724 255 255 255
0.268 0.227 2.4 255 255 255
0.713 0.503 1.763 255 255 255
-1.16 -1.031 2.023 255 255 255
0.753 -0.21 1.505 255 255 255
-0.4 -0.655 2.464 255 255 255
-0.446 -0.252 1.886 255 255 255
-0.067 -1.268 2.361 255 255 255
0.807 -0.423 1.665 255 255 255
-0.217 0.104 0.64 255 255 255
0.261 0.442 2.013 0 0 0
-0.302 0.383 2.339 0 0 0
0.652 -0.093 1.994 255 255 255
-0.535 -0.827 2.381 255 255 255
0.837 -0.693 1.57 255 255 255
0.061 -1.261 2.394 255 255 255
-0.207 0.115 0.602 0 0 0
0.701 -0.803 1.69 255 255 255
-0.062 -1.326 2.344 255 255 255
-0.778 -0.563 2.095 255 255 255
0.72 -1.036 1.552 255 255 255
-0.61 -0.55 2.173 255 255 255
-0.498 -0.039 0.907 255 255 255
0.678 -0.527 1.811 255 255 255
-0.064 0.131 0.321 255 255 255
0.773 0.382 1.516 255 255 255
0.005 -0.829 2.506 255 255 255
-0.19 0.22 0.467 0 0 0
0.703 0.108 1.835 255 255 255
0.076 -0.004 2.767 255 255 255
0.834 -0.125 1.154 255 255 255
-1.061 -0.784 2.127 255 255 255
-0.27 0.134 0.548 255 255 255
-0.913 -1.094 2.21 255 255 255
-0.365 -1.502 2.217 255 255 255
0.801 -0.141 1.292 255 255 255
0.488 0.546 1.705 255 255 255
0.419 -0.752 2.447 0 0 0
0.166 -0.928 2.513 255 255 255
0.411 -1.602 2.374 255 255 255
-0.055 0.101 0.313 255 255 255
0.367 -0.943 1.616 255 255 255
-0.434 -1.476 2.21 255 255 255
-0.604 -1.259 2.237 255 255 255
0.327 -0.806 2.211 255 255 255
-0.095 0.078 0.301 255 255 255
-0.092 0.191 0.341 255 255 255
0.092 -0.026 2.744 255 255 255
0.498 -0.646 1.751 255 255 255
-0.158 0.678 1.421 255 255 255
-0.198 -0.095 2.677 255 255 255
-0.382 -0.349 2.559 255 255 255
-0.347 -1.244 2.299 255 255 255
0.755 0.43 1.622 255 255 255
-0.643 -0.825 2.356 255 255 255
0.844 -0.257 1.388 255 255 255
-0.662 -0.698 2.246 0 0 0
-0.448 0.022 2.654 0 0 0
0.164 0.678 1.457 255 255 255
0.57 0.653 1.638 255 255 255
0.497 1.017 2.035 255 255 255
0.296 -0.185 2.319 255 255 255
-0.942 -0.548 2.235 0 0 0
-1.251 -0.779 2.073 255 255 255
-0.948 -0.334 1.516 255 255 255
-0.657 -0.795 2.36 255 255 255
-0.166 0.256 2.507 255 255 255
0.043 0.04 2.772 255 255 255
0.752 0.642 1.614 255 255 255
-0.928 -0.865 2.134 255 255 255
0.181 0.603 1.719 255 255 255
-0.446 -0.135 1.369 255 255 255
-0.011 -0.526 2.592 255 255 255
-0.534 -0.06 1.128 0 0 0
-0.077 0.694 1.379 255 255 255
-0.633 -0.86 2.35 255 255 255
0.605 -0.759 1.732 255 255 255
-0.153 -1.14 2.377 255 255 255
0.786 0.306 1.427 255 255 255
0.123 -0.289 2.693 255 255 255
0.712 0.302 1.811 255 255 255
0.623 -0.657 1.778 255 255 255
0.28 0.376 2.136 255 255 255
-1.201 -0.544 2.062 255 255 255
-0.363 -0.748 2.441 255 255 255
-0.299 0.351 2.317 0 0 0
0.775 0.164 1.442 255 255 255
0.876 -0.223 1.262 255 255 255
0.25 0.163 2.464 255 255 255
-0.75 -0.553 2.098 255 255 255
0.753 -0.119 1.513 255 255 255
-0.067 -1.007 2.442 255 255 255
-0.368 -0.289 2.578 255 255 255
-0.714 -1.153 2.237 255 255 255
0.716 -0.523 1.683 0 0 0
-0.247 0.347 2.233 255 255 255
-0.592 -1.017 2.311 255 255 255
0.284 0.269 2.019 255 255 255
0.299 -0.083 1.891 255 255 255
-0.618 -0.07 1.074 0 0 0
0.373 -0.62 1.73 255 255 255
0.679 -0.899 1.753 0 0 0
0.035 -1.024 2.457 255 255 255
0.465 0.48 1.703 255 255 255
-0.236 0.3 2.298 255 255 255
0.756 -0.064 1.512 255 255 255
0.557 -0.473 1.814 255 255 255
0.48 -0.92 1.66 255 255 255
-0.505 -0.078 1.161 255 255 255
0.342 -0.604 2.168 255 255 255
-0.332 0.081 0.703 0 0 0
-0.299 0.1 0.727 0 0 0
-0.138 0.119 0.825 255 255 255
-0.911 -0.686 2.199 255 255 255
-1.064 -0.443 2.245 0 0 0
-0.482 -0.346 1.877 255 255 255
-0.629 -1.3 2.219 255 255 255
0.34 0.846 2.04 255 255 255
0.234 0.236 2.502 255 255 255
0.161 -1.135 2.452 255 255 255
-0.395 -0.016 1.006 255 255 255
-0.067 0.063 0.333 255 255 255
0.585 0.21 2.042 255 255 255
-0.29 0.108 0.561 0 0 0
0.771 0.022 1.428 255 255 255
0.701 -0.685 1.711 255 255 255
0.385 0.1 1.974 255 255 255
0.371 -0.151 1.88 255 255 255
0.52 0.34 2.017 255 255 255
0.293 0.727 1.316 255 255 255
-0.064 0.715 1.321 255 255 255
0.686 -0.331 1.818 255 255 255
0.728 -0.257 1.45 0 0 0
-0.631 -0.11 1.12 0 0 0
-0.264 0.049 0.759 255 255 255
0.413 0.684 1.477 255 255 255
