ply
format ascii 1.0
comment Created by Open3D
element vertex 1596
property double x
property double y
property double z
property uchar red
property uchar green
property uchar blue
end_header
-0.218 -0.012 1.058 255 255 255
-0.072 0.192 0.349 255 255 255
0.844 -0.019 1.491 255 255 255
0.691 -0.464 1.777 255 255 255
0.178 0.438 2.102 255 255 255
0.811 -0.709 1.675 255 255 255
0.384 0.238 2.455 255 255 255
-0.112 -0.664 2.497 255 255 255
0.34 0.612 1.752 255 255 255
-0.481 -0.043 0.91 0 0 0
0.829 -0.643 1.62 0 0 0
0.847 0.207 1.486 255 255 255
0.647 -1.739 2.319 0 0 0
-0.304 -0.585 2.488 255 255 255
0.435 -0.624 1.688 0 0 0
-0.298 0.057 0.695 255 255 255
-0.229 0.058 0.723 255 255 255
0.868 0.129 1.358 255 255 255
-0.562 -0.001 0.786 255 255 255
-0.648 -0.746 2.24 255 255 255
-0.307 -0.786 2.43 255 255 255
-0.181 -1.017 2.382 255 255 255
0.45 -0.795 1.637 255 255 255
0.084 0.458 2.097 255 255 255
-0.905 -1.268 2.175 255 255 255
-1.045 -0.307 1.499 255 255 255
-0.218 0.104 0.678 255 255 255
0.765 -0.261 1.919 255 255 255
0.886 -0.059 1.245 255 255 255
0.699 0.242 2.006 255 255 255
0.585 -1.01 1.621 255 255 255
0.004 -0.514 2.562 255 255 255
0.802 0.324 1.883 255 255 255
-0.136 0.046 1.029 255 255 255
-0.472 -0.362 1.884 255 255 255
0.402 -0.21 2.384 255 255 255
-0.159 0.142 0.541 0 0 0
-0.27 0.117 0.513 255 255 255
0.792 0.501 1.865 255 255 255
0.877 -0.031 1.288 255 255 255
-0.128 -0.11 2.659 255 255 255
0.586 -0.655 1.712 255 255 255
-1.012 -1.321 2.142 255 255 255
0.889 -0.7 1.528 255 255 255
0.538 0.048 1.928 255 255 255
-0.966 -1.454 2.115 255 255 255
0.563 0.117 1.958 255 255 255
0.311 -1.095 2.446 255 255 255
-1.392 -0.635 2.13 255 255 255
0.617 -0.1 1.888 255 255 255
0.129 -0.614 2.554 255 255 255
-0.708 -0.104 1.082 255 255 255
0.485 0.722 1.374 255 255 255
0.832 0.247 1.62 255 255 255
1.17 -0.376 1.73 255 255 255
-0.319 -0.185 1.61 255 255 255
0.812 -0.3 1.71 255 255 255
-0.901 -1.392 2.145 255 255 255
0.773 0.096 1.972 255 255 255
0.598 -0.042 1.909 255 255 255
-0.09 -0.183 2.64 255 255 255
-1.099 -0.68 2.173 0 0 0
-1.001 -0.299 1.515 255 255 255
-0.484 -1.457 2.204 255 255 255
-0.342 -0.227 2.584 255 255 255
-0.05 0.283 0.579 255 255 255
0.396 -0.243 2.529 255 255 255
-1.174 -0.701 2.15 255 255 255
-0.677 -0.603 2.164 255 255 255
-0.383 -0.584 2.367 255 255 255
0.088 0.698 1.414 255 255 255
-0.925 -1.183 2.2 255 255 255
-0.31 0.054 0.721 255 255 255
-0.205 0.17 0.494 255 255 255
-0.228 -0.655 2.479 255 255 255
-0.148 0.112 0.646 255 255 255
-1.077 -1.18 2.174 255 255 255
-1.081 -0.518 2.121 255 255 255
0.841 0.18 1.521 255 255 255
-0.892 -1.633 2.075 255 255 255
-0.67 -0.911 2.319 255 255 255
-0.766 -0.84 2.192 255 255 255
-0.852 -0.817 2.179 255 255 255
-0.21 0.149 0.521 255 255 255
0.17 0.295 2.124 255 255 255
-0.034 0.137 0.319 255 255 255
0.4 -0.267 2.521 255 255 255
0.327 0.608 1.764 0 0 0
-0.138 0.239 0.466 255 255 255
0.835 -0.82 1.581 255 255 255
-0.201 -0.897 2.413 255 255 255
-0.231 -0.069 1.274 255 255 255
-0.156 0.054 0.781 255 255 255
-0.226 -0.454 2.54 255 255 255
-1.357 -0.772 2.094 255 255 255
0.545 -1.017 2.291 255 255 255
-0.017 0.123 2.673 0 0 0
0.091 -0.063 2.713 255 255 255
0.382 0.501 1.915 255 255 255
0.509 -0.763 2.164 0 0 0
-0.288 0.075 0.466 255 255 255
0.452 -0.373 2.162 255 255 255
-0.413 -1.438 2.223 255 255 255
0.627 -0.295 1.828 255 255 255
0.297 -1.399 2.36 255 255 255
-0.495 0.039 0.704 255 255 255
0.354 -1.154 2.391 255 255 255
0.451 -0.858 2.284 255 255 255
-0.404 -1.513 2.2 255 255 255
-0.156 0.082 0.68 255 255 255
0.716 -0.715 1.71 255 255 255
0.097 -0.764 2.509 255 255 255
0.49 0.516 1.733 255 255 255
-0.898 -0.555 2.257 0 0 0
-0.14 -0.355 2.583 255 255 255
-0.382 0.057 0.571 255 255 255
0.196 0.223 2.467 255 255 255
0.761 -1.266 1.819 255 255 255
0.053 0.671 1.495 0 0 0
-0.482 0.016 0.786 255 255 255
0.211 -1.17 2.41 255 255 255
0.099 0.72 1.342 255 255 255
-0.177 0.217 0.469 0 0 0
0.828 -0.066 1.641 255 255 255
-0.723 -0.121 1.066 255 255 255
0.841 -0.012 1.521 255 255 255
-0.783 -1.639 2.091 255 255 255
-0.358 -0.086 1.242 255 255 255
-0.035 0.196 0.371 255 255 255
-0.275 -0.077 1.245 255 255 255
-0.585 -1.337 2.217 255 255 255
0.654 -0.454 1.778 255 255 255
-0.255 0.075 0.692 0 0 0
1.019 -0.443 1.595 255 255 255
0.063 0.674 1.492 0 0 0
0.819 0.109 1.687 255 255 255
0.852 0.275 1.494 255 255 255
0.442 0.903 2.001 255 255 255
0.016 0.519 2.01 255 255 255
0.647 -0.721 1.7 255 255 255
-0.873 -1.49 2.116 255 255 255
-0.787 -0.281 1.589 255 255 255
-0.178 0.181 0.487 255 255 255
0.32 -0.451 2.611 255 255 255
0.85 0.212 1.47 255 255 255
-0.764 -1.205 2.226 255 255 255
-0.399 -0.11 1.313 255 255 255
-0.651 -0.596 2.142 255 255 255
-0.151 0.068 0.745 255 255 255
-0.386 0.002 0.956 255 255 255
0.09 -0.212 2.671 255 255 255
-0.914 -0.836 2.159 255 255 255
-0.172 -0.294 2.595 255 255 255
0.116 0.707 1.382 255 255 255
0.838 0.541 1.636 255 255 255
-0.236 0.103 0.743 0 0 0
-1.029 -0.255 1.515 255 255 255
0.761 0.309 2.048 255 255 255
0.694 -0.338 1.814 255 255 255
-0.459 0.002 0.87 255 255 255
0.637 -1.621 2.349 255 255 255
0.312 -1.64 2.295 255 255 255
-0.475 -0.047 1.081 255 255 255
-0.274 -0.126 1.429 255 255 255
-0.874 -0.362 1.559 255 255 255
0.563 0.2 1.983 255 255 255
0.02 -0.606 2.542 255 255 255
0.388 -0.094 2.251 255 255 255
0.932 -0.33 1.624 255 255 255
0.602 0.319 2.03 255 255 255
-0.159 0.027 1.003 255 255 255
-0.774 -0.266 1.639 255 255 255
-0.598 -0.648 2.257 255 255 255
-0.682 -1.533 2.146 255 255 255
0.471 -1.063 1.664 255 255 255
-0.166 0.027 0.947 255 255 255
0.45 -0.213 2.255 255 255 255
0.652 0.168 1.978 255 255 255
-0.164 0.003 1.168 255 255 255
-0.678 -1.565 2.135 0 0 0
0.827 -0.09 1.63 255 255 255
0.605 -0.748 1.684 255 255 255
0.11 0.488 2.095 255 255 255
-0.212 0.119 0.606 255 255 255
-0.241 0.124 0.577 255 255 255
-0.247 0.109 0.658 0 0 0
-0.916 -1.229 2.189 255 255 255
0.485 0.707 1.426 255 255 255
-0.325 -0.908 2.389 255 255 255
-0.453 0.024 0.845 255 255 255
0.263 0.023 2.76 255 255 255
0.817 0.408 1.763 255 255 255
0.271 0.051 2.777 255 255 255
-1.252 -0.863 2.095 255 255 255
0.275 -0.172 2.707 255 255 255
-0.274 -0.591 2.491 255 255 255
-0.04 0.122 0.309 255 255 255
-0.657 -0.118 1.154 255 255 255
0.085 0.601 1.729 255 255 255
0.599 -0.994 1.607 255 255 255
-0.933 -1.482 2.118 255 255 255
0.418 0.328 2.154 255 255 255
0.389 -1.653 2.307 255 255 255
0.077 -0.632 2.538 255 255 255
0.341 0.356 2.319 255 255 255
0.015 -1.051 2.411 255 255 255
0.021 0.061 2.726 255 255 255
-1.042 -1.251 2.16 255 255 255
0.627 -0.188 1.862 255 255 255
-0.555 -0.724 2.268 255 255 255
0.571 0.154 1.967 255 255 255
-0.516 -1.323 2.236 255 255 255
-0.292 -0.723 2.451 255 255 255
0.412 0.03 2.094 255 255 255
0.826 -0.249 1.546 0 0 0
0.306 -0.004 2.602 255 255 255
-0.147 0.262 2.618 255 255 255
0.19 -1.015 2.457 255 255 255
0.794 -0.353 1.779 255 255 255
-0.909 -0.703 2.204 255 255 255
0.672 0.228 1.996 255 255 255
0.549 -0.578 1.727 0 0 0
-0.05 0.14 0.314 255 255 255
-0.833 -0.601 2.257 255 255 255
-0.952 -0.295 1.528 255 255 255
-1.166 -0.857 2.109 255 255 255
0.638 -0.522 1.756 255 255 255
0.608 -0.914 1.629 255 255 255
-1.518 -0.419 2.069 255 255 255
-0.139 0.215 0.481 0 0 0
0.242 -1.697 2.262 0 0 0
0.465 -0.697 1.668 255 255 255
-0.053 0.679 1.464 255 255 255
0.796 -0.184 1.819 255 255 255
-0.198 -1.352 2.286 255 255 255
-0.205 -0.478 2.533 255 255 255
0.505 -0.432 1.764 255 255 255
-0.546 -0.154 1.257 255 255 255
-0.491 -0.07 1.154 255 255 255
-0.096 -0.942 2.419 255 255 255
-1.335 -0.804 2.089 255 255 255
-0.239 -0.052 2.655 255 255 255
0.835 -0.712 1.588 0 0 0
0.826 -0.091 1.643 255 255 255
-0.242 -0.071 1.265 255 255 255
-0.237 0.137 0.513 0 0 0
-0.053 0.103 0.297 255 255 255
-0.523 -0.117 1.241 255 255 255
-0.136 0.058 0.847 0 0 0
-0.341 -1.271 2.283 255 255 255
-0.191 -1.067 2.366 255 255 255
-0.348 -0.619 2.47 255 255 255
0.629 0.333 2.032 255 255 255
0.416 0.149 1.927 255 255 255
0.912 -0.695 1.525 255 255 255
-1.191 -0.853 2.102 255 255 255
-0.106 -0.136 2.651 255 255 255
-0.493 0.013 0.78 255 255 255
-0.275 0.104 0.608 0 0 0
0.355 -0.735 2.398 255 255 255
-0.048 0.226 2.624 255 255 255
0.471 0.879 1.997 255 255 255
0.472 -0.219 1.824 255 255 255
0.721 -1.422 2.105 255 255 255
0.393 -0.327 2.509 255 255 255
-0.165 0.185 0.489 255 255 255
0.558 -0.762 1.67 255 255 255
-0.14 0.234 0.467 255 255 255
-0.462 -0.029 0.932 0 0 0
-0.176 0.258 0.458 255 255 255
0.782 -0.153 1.881 255 255 255
-0.027 0.102 0.303 255 255 255
-0.417 -0.296 1.894 255 255 255
0.789 -0.694 1.794 0 0 0
0.035 -1.236 2.357 255 255 255
0.138 -0.927 2.468 255 255 255
0.291 -0.919 2.497 255 255 255
0.882 -0.29 1.593 255 255 255
-1.447 -0.619 2.122 0 0 0
0.826 -0.052 1.637 255 255 255
0.83 0.135 1.594 255 255 255
0.165 -0.181 2.687 255 255 255
0.428 -1.682 2.302 0 0 0
-0.211 0.103 0.663 255 255 255
0.587 0.134 1.964 255 255 255
0.47 -0.915 1.603 255 255 255
0.177 -0.541 2.586 255 255 255
0.121 0.566 1.785 0 0 0
-0.166 0.073 0.687 0 0 0
-0.786 -1.354 2.173 255 255 255
0.729 -1.507 2.02 0 0 0
-0.285 0.076 0.692 255 255 255
0.291 -0.402 2.642 255 255 255
-0.544 -0.29 1.89 0 0 0
0.423 0.887 2.001 255 255 255
-0.277 -0.743 2.447 255 255 255
-0.913 -0.467 2.281 0 0 0
-0.391 -0.579 2.454 255 255 255
-1.136 -1.311 2.128 255 255 255
-0.233 0.035 0.845 255 255 255
0.553 -0.884 1.625 255 255 255
0.294 -1.549 2.316 255 255 255
0.487 -1.573 2.341 255 255 255
0.473 -0.251 1.81 255 255 255
0.737 -1.422 1.94 0 0 0
0.474 0.285 1.993 255 255 255
-0.17 0.236 0.456 255 255 255
0.126 0.294 2.44 255 255 255
-0.031 0.103 0.302 255 255 255
-0.682 -0.577 2.153 255 255 255
0.826 -0.437 1.623 0 0 0
-0.081 -0.942 2.421 255 255 255
0.533 -0.998 2.288 255 255 255
0.886 0.018 1.267 255 255 255
-0.185 0.161 0.506 255 255 255
-0.4 -0.873 2.261 0 0 0
-0.205 0.15 0.522 255 255 255
-0.367 0.024 0.868 255 255 255
-0.398 -0.655 2.33 0 0 0
0.489 0.594 1.821 255 255 255
0.835 -0.173 1.569 255 255 255
0.428 -0.587 1.728 255 255 255
0.485 -1.064 2.305 255 255 255
-0.913 -0.778 2.183 255 255 255
-1.081 -0.61 2.161 255 255 255
0.775 0.276 1.989 255 255 255
-1.092 -0.9 2.106 255 255 255
0.376 0.592 1.807 255 255 255
0.041 -0.455 2.584 255 255 255
0.768 -0.028 1.961 255 255 255
-0.072 0.074 0.312 255 255 255
-0.063 0.095 0.299 255 255 255
0.281 -0.832 2.524 255 255 255
-0.313 -0.046 1.146 255 255 255
0.664 -0.327 1.824 255 255 255
-0.375 -0.812 2.404 255 255 255
-0.28 -0.31 1.926 255 255 255
0.242 0.637 1.63 255 255 255
-0.682 -1.057 2.283 255 255 255
-0.081 0.119 0.842 255 255 255
0.694 -1.606 2.284 255 255 255
-0.209 0.039 2.688 255 255 255
-1.007 -1.17 2.187 255 255 255
1 -0.371 1.62 255 255 255
0.031 -0.195 2.658 255 255 255
0.789 0.365 1.934 255 255 255
0.303 -0.659 2.57 255 255 255
-0.116 0.111 0.683 255 255 255
0.816 -0.5 1.697 255 255 255
-0.612 -0.16 1.466 255 255 255
-0.276 0.073 0.692 255 255 255
0.041 -0.395 2.604 255 255 255
-1.402 -0.655 2.123 255 255 255
-0.069 0.081 0.305 255 255 255
0.471 -0.519 2.146 255 255 255
-0.49 -0.214 1.692 255 255 255
0.391 0.397 2.166 255 255 255
0.757 0.315 2.061 255 255 255
0.696 -0.365 1.807 0 0 0
0.775 0.191 1.971 255 255 255
0.693 0.586 1.792 255 255 255
-0.453 -1.401 2.229 255 255 255
0.681 -0.826 1.671 255 255 255
0.356 0.291 2.576 255 255 255
-0.425 0.04 0.801 255 255 255
0.209 -0.166 2.703 255 255 255
-0.71 -1.595 2.123 0 0 0
0.716 -1.488 2.16 255 255 255
0.496 -0.385 1.78 255 255 255
0.83 -0.044 1.589 255 255 255
-0.227 0.112 0.526 255 255 255
0.377 0.517 1.868 255 255 255
-0.603 -1.594 2.143 0 0 0
0.009 0.674 1.485 0 0 0
0.051 0.664 1.519 255 255 255
0.175 -0.765 2.526 255 255 255
0.837 0.523 1.666 255 255 255
-0.137 0.251 0.469 255 255 255
-0.281 0.118 0.518 0 0 0
-0.07 0.12 0.309 255 255 255
-0.07 0.335 2.316 255 255 255
-0.276 -0.929 2.391 255 255 255
0.549 0.632 1.728 255 255 255
-0.343 -1.453 2.225 255 255 255
-0.254 -0.117 1.432 255 255 255
-1.097 -0.636 2.179 0 0 0
-0.121 -0.244 2.617 255 255 255
-0.34 -0.525 2.495 255 255 255
0.781 -0.277 1.879 255 255 255
0.271 -1.438 2.341 255 255 255
0.266 -0.673 2.564 255 255 255
-0.047 0.061 0.329 0 0 0
-0.201 0.167 0.496 255 255 255
-0.185 0.156 0.511 255 255 255
-1.056 -0.762 2.157 255 255 255
-0.19 0.17 0.495 255 255 255
-0.219 0.191 0.472 255 255 255
-0.176 -1.104 2.359 255 255 255
-0.897 -0.583 2.249 255 255 255
0.59 -1.41 2.4 255 255 255
0.821 -0.399 1.689 0 0 0
0.087 -0.814 2.495 255 255 255
-0.168 0.061 0.734 255 255 255
-0.799 -1.389 2.166 255 255 255
0.415 -0.074 2.197 255 255 255
0.682 -1.507 2.302 255 255 255
0.47 0.98 1.982 255 255 255
-1.051 -1.245 2.157 255 255 255
0.632 0.033 1.936 255 255 255
-0.25 0.087 0.722 0 0 0
-0.674 -0.691 2.255 0 0 0
-0.158 0.259 2.31 0 0 0
-0.21 0.153 0.513 255 255 255
-0.105 0.213 0.464 255 255 255
0.603 0.681 1.582 255 255 255
0.779 0.045 1.931 255 255 255
0.799 0.229 1.864 255 255 255
0.813 -0.084 1.73 255 255 255
-0.937 -0.643 2.219 0 0 0
-0.499 -0.074 1.147 255 255 255
-1.154 -0.97 2.075 255 255 255
-0.054 0.16 0.329 255 255 255
0.053 0.373 2.415 255 255 255
0.103 -0.634 2.546 255 255 255
0.597 -0.175 1.86 255 255 255
-0.294 0.058 0.697 255 255 255
0.535 -0.942 1.607 0 0 0
-0.348 -0.677 2.454 255 255 255
0.455 0.913 1.999 255 255 255
0.506 0.18 1.959 255 255 255
-0.08 0.093 0.305 255 255 255
-0.14 0.264 0.472 255 255 255
-1.249 -0.823 2.101 255 255 255
-0.322 -0.239 1.922 255 255 255
0.787 -0.241 1.845 255 255 255
-0.05 0.14 0.313 255 255 255
-0.517 -0.007 0.821 255 255 255
0.36 -0.606 2.418 255 255 255
0.522 -0.731 1.672 255 255 255
-0.322 0.016 0.928 255 255 255
-0.036 0.7 1.385 255 255 255
0.194 0.364 2.097 255 255 255
-0.217 0.124 0.576 255 255 255
-0.269 -0.062 1.197 255 255 255
0.801 -0.575 1.746 255 255 255
-0.676 -0.816 2.217 255 255 255
-0.142 0.082 0.749 255 255 255
0.796 0.371 1.916 255 255 255
-0.49 -1.511 2.186 255 255 255
0.491 -0.179 1.839 255 255 255
-1.084 -0.997 2.072 255 255 255
0.571 -0.927 1.604 0 0 0
-0.349 0.022 0.879 255 255 255
0.452 -0.037 1.88 255 255 255
-0.973 -1.018 2.095 0 0 0
0.883 0.027 1.274 255 255 255
-0.387 -0.079 1.206 255 255 255
-0.183 0.194 0.478 255 255 255
-1.05 -0.587 2.135 255 255 255
0.194 0.162 2.79 255 255 255
-0.142 -0.96 2.407 255 255 255
-0.219 0.102 0.74 0 0 0
0.542 -1.518 2.364 255 255 255
0.809 -0.669 1.691 255 255 255
0.584 -0.767 1.675 255 255 255
-0.274 -0.049 1.164 255 255 255
0.418 -1.026 2.28 255 255 255
0.405 -0.23 2.341 255 255 255
0.196 0.608 1.722 0 0 0
0.825 0.314 1.684 255 255 255
0.112 0.515 1.9 255 255 255
-0.158 0.137 0.556 0 0 0
0.871 0.067 1.335 255 255 255
-0.909 -0.93 2.133 255 255 255
-0.15 0.225 2.668 255 255 255
-0.16 0.121 0.606 0 0 0
0.423 0.028 1.889 255 255 255
-0.484 -0.147 1.427 255 255 255
-0.915 -0.851 2.157 255 255 255
0.406 0.626 1.704 255 255 255
0.092 0.034 2.739 255 255 255
-0.21 -0.049 1.228 255 255 255
-0.549 -0.362 1.868 255 255 255
-0.514 -0.534 2.163 255 255 255
-0.159 -0.504 2.533 255 255 255
-0.214 0.111 0.635 0 0 0
-0.327 0.073 0.55 0 0 0
0.315 -1.563 2.314 255 255 255
-0.721 -1.596 2.122 0 0 0
-0.363 0.047 0.754 255 255 255
-0.25 -0.217 2.602 255 255 255
0.754 0.34 2.05 255 255 255
-0.141 0.22 0.478 0 0 0
-0.496 -0.078 1.173 255 255 255
0.318 0.208 2.653 255 255 255
0.871 0.067 1.329 255 255 255
0.21 0.19 2.781 255 255 255
-0.286 -0.074 1.227 255 255 255
0.708 -1.576 2.215 255 255 255
0.236 0.674 1.498 0 0 0
-0.507 -0.151 1.437 255 255 255
0.829 -0.515 1.606 0 0 0
-0.356 -0.75 2.43 255 255 255
-0.262 -0.144 1.529 255 255 255
-0.28 -0.272 2.58 255 255 255
0.243 -1.168 2.418 255 255 255
0.212 -0.837 2.509 255 255 255
-0.385 -0.932 2.374 255 255 255
-0.047 0.173 0.341 255 255 255
0.737 0.404 2.047 255 255 255
0.921 -0.512 1.589 255 255 255
-0.102 0.66 2.783 255 255 255
-1.12 -0.642 2.178 0 0 0
0.139 0.395 2.105 255 255 255
0.692 0.604 1.798 255 255 255
0.479 0.728 1.351 255 255 255
0.769 0.344 1.991 255 255 255
-0.037 0.122 0.31 255 255 255
0.856 -0.04 1.416 255 255 255
1.189 -0.372 1.72 255 255 255
0.769 -0.117 1.95 0 0 0
0.138 0.612 1.714 0 0 0
-0.163 0.255 0.462 255 255 255
0.426 0.062 1.901 255 255 255
-0.157 -0.259 2.608 255 255 255
-0.635 -0.148 1.257 255 255 255
0.258 -1.128 2.431 255 255 255
-0.107 0.314 2.305 255 255 255
-0.337 -0.711 2.444 255 255 255
0.222 -1.317 2.366 255 255 255
0.01 -0.226 2.648 255 255 255
0.575 0.029 1.929 255 255 255
0.141 0.693 1.43 255 255 255
-0.717 -0.132 1.114 255 255 255
0.03 -0.516 2.568 255 255 255
0.526 0.452 2.026 255 255 255
-0.504 -0.063 1.11 255 255 255
0.42 0.483 2.007 0 0 0
-0.101 -1.032 2.393 255 255 255
0.639 -1.45 2.38 255 255 255
-0.065 0.096 0.297 255 255 255
-0.625 -0.383 1.858 255 255 255
0.368 -1.457 2.353 255 255 255
0.372 0.592 1.808 255 255 255
-0.219 -0.537 2.514 255 255 255
0.116 0.352 2.434 255 255 255
-0.205 -0.146 2.632 255 255 255
0.624 -0.05 1.911 255 255 255
0.475 -0.612 1.701 255 255 255
-0.59 -0.263 1.881 0 0 0
0.189 0.452 2.086 0 0 0
-0.453 -0.237 1.688 255 255 255
0.201 -0.312 2.659 255 255 255
0.439 -0.696 1.67 0 0 0
0.026 -0.026 2.708 255 255 255
0.603 -0.502 1.762 255 255 255
0.398 -0.428 2.15 255 255 255
0.675 0.037 1.935 255 255 255
-0.178 -0.004 1.11 255 255 255
-0.574 -0.138 1.221 255 255 255
0.772 -0.011 1.948 255 255 255
-0.352 0.029 0.851 255 255 255
-0.173 0.107 0.626 255 255 255
0.85 0.248 1.467 255 255 255
-0.877 -0.308 1.534 255 255 255
-0.976 -1.021 2.089 0 0 0
-0.06 0.101 0.297 255 255 255
0.883 0.061 1.257 255 255 255
0.95 -0.429 1.594 255 255 255
-0.011 -0.768 2.488 255 255 255
-0.474 0.002 0.833 255 255 255
-1.036 -0.954 2.1 255 255 255
0.704 0.616 1.792 255 255 255
0.237 0.583 1.736 255 255 255
-0.062 -1.298 2.327 255 255 255
0.549 0.554 1.667 255 255 255
-1.302 -0.804 2.104 255 255 255
0.84 0.477 1.654 255 255 255
-0.775 -1.446 2.152 255 255 255
-0.242 0.161 0.493 255 255 255
-0.174 0.19 0.484 255 255 255
0.78 0.029 1.912 255 255 255
-0.573 -0.04 0.955 0 0 0
-1.08 -0.269 1.489 255 255 255
0.784 -0.602 1.815 255 255 255
-0.162 0.305 2.3 0 0 0
0.869 -0.121 1.353 255 255 255
-1.272 -0.927 2.072 255 255 255
0.056 0.703 1.391 255 255 255
-0.166 0.083 0.677 255 255 255
0.488 0.536 1.71 255 255 255
-0.234 -1.508 2.229 255 255 255
-0.271 0.042 0.806 255 255 255
0.818 0.074 1.713 255 255 255
0.884 -0.124 1.266 255 255 255
0.15 0.681 1.473 0 0 0
0.813 0.126 1.792 255 255 255
0.737 -0.205 1.896 255 255 255
-0.246 -1.155 2.33 255 255 255
0.465 0.629 1.701 255 255 255
-0.419 -1.651 2.164 0 0 0
0.83 -0.576 1.57 0 0 0
0.662 -0.968 1.65 255 255 255
-0.474 -0.123 1.363 255 255 255
0.348 0.38 2.208 255 255 255
-0.659 -0.086 1.053 255 255 255
0.029 0.661 1.529 255 255 255
0.393 -0.503 2.457 255 255 255
0.057 0.256 2.415 255 255 255
-0.187 0.135 0.56 255 255 255
0.954 -0.687 1.542 255 255 255
-0.495 0.036 0.704 255 255 255
-0.17 0.237 0.456 255 255 255
-0.046 0.074 0.308 255 255 255
-1.004 -0.32 1.51 255 255 255
-0.583 -0.064 0.941 0 0 0
-0.315 -0.027 1.039 0 0 0
-0.119 -0.471 2.553 255 255 255
-0.031 0.203 0.38 255 255 255
0.677 0.637 1.713 0 0 0
0.835 -0.686 1.594 0 0 0
0.665 0.648 1.678 255 255 255
-0.394 0.028 0.611 255 255 255
0.16 0.296 2.105 255 255 255
-1.425 -0.627 2.125 0 0 0
-1.189 -1.119 2.052 255 255 255
-0.259 -0.068 1.219 255 255 255
-0.577 -0.15 1.24 255 255 255
-0.234 -0.552 2.51 255 255 255
0.714 -0.848 1.664 0 0 0
-0.809 -0.324 1.588 255 255 255
0.409 0.027 2.121 255 255 255
-0.218 -0.661 2.482 255 255 255
-0.909 -0.688 2.207 255 255 255
-0.06 -0.031 2.694 255 255 255
-0.665 -0.052 0.971 0 0 0
0.681 -0.139 1.876 255 255 255
-1.093 -0.599 2.154 255 255 255
0.32 -0.364 2.49 255 255 255
-0.089 0.092 0.321 255 255 255
-0.933 -0.537 2.254 0 0 0
0.317 -0.282 2.518 255 255 255
-0.048 0.09 0.3 255 255 255
0.239 0.157 2.798 255 255 255
-0.133 0.23 2.665 0 0 0
0.621 -1.54 2.365 255 255 255
-0.395 0.055 0.62 0 0 0
-0.426 0.036 0.822 255 255 255
0.104 0.678 1.484 0 0 0
0.407 0.066 1.907 255 255 255
0.076 -0.748 2.511 255 255 255
0.067 0.272 2.422 255 255 255
0.401 0.239 1.964 255 255 255
-0.91 -0.359 2.063 255 255 255
0.056 -0.491 2.579 255 255 255
-0.597 -1.555 2.155 0 0 0
0.521 0.696 1.458 255 255 255
-0.192 -0.049 1.315 255 255 255
0.03 -1.664 2.217 0 0 0
0.8 -0.533 1.753 255 255 255
-0.554 -0.814 2.262 0 0 0
-0.027 0.119 0.32 255 255 255
-1.11 -0.544 2.12 255 255 255
-0.818 -0.985 2.267 0 0 0
-0.673 -0.057 0.969 0 0 0
0.731 -1.407 2.15 255 255 255
-0.479 -0.565 2.257 255 255 255
0.908 -0.609 1.55 255 255 255
-0.257 0.158 0.495 255 255 255
0.103 0.681 1.476 0 0 0
-1.05 -0.275 1.518 0 0 0
0.298 -1.467 2.343 255 255 255
0.752 -1.098 1.741 255 255 255
0.749 -1.362 1.892 0 0 0
0.427 -0.361 1.766 255 255 255
0.534 -0.162 1.852 255 255 255
-0.629 -1.611 2.133 0 0 0
0.752 -1.463 1.871 255 255 255
-0.793 -1.139 2.239 255 255 255
0.377 -1.027 1.888 255 255 255
0.759 0.072 2.02 255 255 255
0.009 -1.018 2.414 255 255 255
-0.444 -1.08 2.321 255 255 255
0.727 -1.367 2.094 255 255 255
0.356 -0.84 2.347 0 0 0
-0.618 -1.219 2.248 255 255 255
-0.146 0.187 0.492 0 0 0
-0.09 0.088 0.34 255 255 255
-0.11 0.249 0.456 255 255 255
-0.323 0.026 0.868 255 255 255
-0.428 -1.627 2.168 0 0 0
0.132 0.715 1.363 255 255 255
-0.416 -0.236 1.713 0 0 0
-0.224 -0.056 1.221 255 255 255
-0.802 -0.738 2.215 255 255 255
0.697 -0.238 1.844 255 255 255
0.904 -0.526 1.577 255 255 255
0.854 -0.173 1.427 255 255 255
0.84 -0.804 1.507 255 255 255
0.097 -1.295 2.354 255 255 255
0.294 0.647 1.621 255 255 255
-0.326 -1.31 2.268 255 255 255
-0.39 0.041 0.599 0 0 0
-0.97 -1.334 2.145 255 255 255
-0.095 0.128 0.349 255 255 255
-0.214 0.179 0.482 255 255 255
0.087 -1.506 2.291 255 255 255
-0.044 0.066 2.714 255 255 255
-0.38 -1.057 2.34 255 255 255
-0.807 -0.155 1.07 255 255 255
-0.536 -0.109 1.148 255 255 255
0.828 0.628 1.677 255 255 255
0.787 0.307 1.936 255 255 255
0.382 0.325 2.401 255 255 255
-0.272 0.002 0.995 255 255 255
-0.207 -0.779 2.448 255 255 255
0.787 0.436 1.93 255 255 255
-0.222 -1.245 2.312 255 255 255
-0.163 0.16 0.513 0 0 0
-0.026 0.106 0.305 255 255 255
-0.207 -0.04 1.196 255 255 255
0.439 -0.341 1.772 255 255 255
0.844 0.119 1.501 255 255 255
1.134 -0.358 1.732 255 255 255
-0.101 0.096 0.821 255 255 255
-0.237 0.11 0.647 0 0 0
0.305 0.636 1.651 255 255 255
0.355 -1.301 2.393 255 255 255
-0.038 0.088 0.306 0 0 0
0.461 -0.689 1.669 255 255 255
0.833 -1.001 1.558 255 255 255
0.94 -0.487 1.589 255 255 255
0.008 0.506 2.044 255 255 255
-0.282 -0.423 2.539 255 255 255
0.866 -0.118 1.361 255 255 255
-0.943 -1.577 2.088 0 0 0
0.623 0.372 1.965 255 255 255
0.496 0.558 1.972 255 255 255
-0.037 0.092 0.306 0 0 0
-0.979 -0.806 2.157 255 255 255
-0.118 0.248 0.464 255 255 255
-0.069 0.095 0.301 255 255 255
0.486 0.352 2.019 255 255 255
-0.034 0.127 0.314 255 255 255
-0.306 0.068 0.691 255 255 255
-0.597 -1.561 2.154 0 0 0
0.29 -0.251 2.689 255 255 255
0.804 -0.271 1.771 255 255 255
-0.224 -0.562 2.506 255 255 255
0.706 -1.629 2.232 0 0 0
-0.24 0.138 0.512 0 0 0
-0.04 0.187 0.355 255 255 255
0.803 -0.354 1.759 255 255 255
0.793 -0.03 1.839 255 255 255
0.285 -0.991 2.476 255 255 255
-0.151 0.138 0.543 0 0 0
-0.277 0.111 0.502 255 255 255
0.512 -0.591 1.714 255 255 255
0.337 -0.132 2.56 255 255 255
-0.672 -1.412 2.181 255 255 255
-0.279 0.099 0.647 255 255 255
-0.455 0.028 0.841 255 255 255
-0.046 -1.324 2.319 255 255 255
-0.54 -1.252 2.256 255 255 255
0.425 0.325 1.991 255 255 255
0.594 -0.077 1.894 255 255 255
-1.031 -0.729 2.171 255 255 255
0.761 0.356 2.016 255 255 255
0.805 0.164 1.831 255 255 255
0.432 -0.684 1.722 255 255 255
0.015 -0.935 2.445 255 255 255
-0.77 -0.54 2.265 0 0 0
0.546 -0.345 1.797 255 255 255
0.106 0.272 2.427 255 255 255
-0.021 0.098 0.315 255 255 255
0.826 -0.425 1.618 0 0 0
0.609 0.025 1.928 255 255 255
0.739 -1.235 1.9 255 255 255
0.339 0.074 2.618 255 255 255
-1.021 -0.595 2.139 255 255 255
-0.148 0.065 0.782 255 255 255
-0.069 -0.265 2.622 255 255 255
-0.088 -1.567 2.244 255 255 255
-0.676 -1.097 2.271 255 255 255
-0.141 0.118 0.605 0 0 0
0.394 0.391 2.183 255 255 255
-0.577 -1.002 2.316 255 255 255
0.077 -1.508 2.285 255 255 255
-0.602 -0.947 2.327 255 255 255
-0.734 -1.535 2.138 255 255 255
0.385 -0.022 2.26 255 255 255
0.651 0.25 2.009 255 255 255
-0.006 -1.513 2.283 255 255 255
-0.062 -0.587 2.53 255 255 255
-0.085 -0.203 2.636 255 255 255
-0.181 0.131 0.561 255 255 255
0.305 0.159 2.641 255 255 255
0.585 -0.118 1.876 255 255 255
0.461 -0.082 1.865 255 255 255
-1.091 -0.721 2.159 255 255 255
0.715 -0.422 1.793 255 255 255
-0.45 -0.062 1.152 0 0 0
0.85 -0.031 1.46 255 255 255
0.834 -0.638 1.605 0 0 0
0.836 -0.172 1.557 255 255 255
-1.081 -0.739 2.157 255 255 255
0.894 -0.636 1.541 255 255 255
0.856 -0.729 1.512 255 255 255
-1.021 -1.44 2.118 255 255 255
0.811 -0.468 1.711 255 255 255
0.273 0.616 1.725 255 255 255
0.346 -1.476 2.342 255 255 255
-0.694 -0.673 2.256 0 0 0
0.633 0.336 2.028 255 255 255
-0.132 0.195 0.481 0 0 0
0.775 -0.019 1.943 255 255 255
-0.165 0.076 0.687 0 0 0
0.33 -1.436 2.354 255 255 255
-0.161 0.134 0.558 0 0 0
0.856 -0.816 1.492 255 255 255
-0.211 -1.096 2.354 255 255 255
-0.148 0.3 2.3 0 0 0
0.83 0.23 1.627 255 255 255
-0.791 -0.231 1.698 0 0 0
0.149 0.555 1.774 255 255 255
-0.252 0.116 2.627 0 0 0
0.673 0.16 1.976 255 255 255
-0.081 0.122 0.769 255 255 255
-0.235 0.041 0.822 255 255 255
-0.217 0.091 2.651 0 0 0
0.95 -0.643 1.531 255 255 255
0.127 -1.095 2.417 255 255 255
0.358 -0.697 2.392 255 255 255
-0.547 -0.711 2.276 255 255 255
-0.211 0.124 0.579 255 255 255
0.125 0.556 1.791 0 0 0
-1.106 -0.764 2.147 255 255 255
0.41 0.018 2.175 255 255 255
0.202 0.356 2.101 255 255 255
0.074 0.659 1.54 255 255 255
-0.09 0.697 1.398 255 255 255
-0.385 0.064 0.583 255 255 255
0.429 -0.519 2.456 255 255 255
0.822 0.145 1.676 255 255 255
0.522 -0.76 1.664 255 255 255
0.246 -1.578 2.301 255 255 255
0.679 0.673 1.603 255 255 255
-0.243 0.047 0.791 255 255 255
0.83 -0.575 1.578 0 0 0
0.404 -1.017 2.285 255 255 255
0.374 0.409 2.117 255 255 255
0.095 0.675 1.493 0 0 0
0.821 -0.662 1.644 0 0 0
0.164 -0.975 2.459 255 255 255
-0.022 0.129 2.673 255 255 255
-0.983 -0.548 2.157 255 255 255
-0.482 -1.366 2.23 255 255 255
-1.242 -0.704 2.137 255 255 255
0.269 -1.165 2.421 255 255 255
-0.032 -0.439 2.58 255 255 255
0.045 0.662 1.531 255 255 255
0.148 0.438 2.104 255 255 255
-0.072 0.071 0.316 0 0 0
-0.641 -0.971 2.312 255 255 255
0.232 0.692 1.443 255 255 255
-0.213 0.163 0.498 0 0 0
-0.052 0.134 0.308 255 255 255
0.575 0.335 2.028 255 255 255
0.808 -0.251 1.447 0 0 0
0.711 -1.545 2.178 255 255 255
0.469 -0.816 1.633 255 255 255
-1.046 -1.144 2.18 0 0 0
-0.884 -0.61 2.239 255 255 255
-0.328 0.058 0.614 255 255 255
0.342 -0.928 2.328 0 0 0
-0.055 0.111 0.295 255 255 255
0.825 -0.365 1.651 0 0 0
-0.427 -0.837 2.316 0 0 0
0.131 0.078 2.758 255 255 255
0.473 0.047 1.914 255 255 255
0.436 0.335 2.002 255 255 255
0.724 -0.915 1.645 255 255 255
0.794 0.451 1.901 255 255 255
-1.214 -0.779 2.122 255 255 255
0.832 -0.234 1.621 255 255 255
-0.072 -0.874 2.446 255 255 255
0.802 -0.385 1.762 255 255 255
0.61 0.55 1.679 255 255 255
0.351 -1.058 2.283 255 255 255
-0.421 -1.306 2.261 255 255 255
-0.184 0.186 0.482 255 255 255
-0.533 -0.624 2.234 255 255 255
-0.68 -1.498 2.153 255 255 255
-0.088 0.121 0.328 255 255 255
0.52 0.001 1.908 255 255 255
0.825 -1.097 1.581 255 255 255
-0.741 -0.701 2.24 255 255 255
0.468 0.267 1.984 255 255 255
-0.035 0.1 0.305 255 255 255
0.536 -0.254 1.825 255 255 255
0.867 0.119 1.357 255 255 255
0.966 -0.446 1.596 255 255 255
-0.032 0.125 0.313 255 255 255
0.839 0.024 1.531 255 255 255
0.464 0.596 1.833 255 255 255
0.401 0.358 1.993 255 255 255
0.443 -0.817 1.649 255 255 255
0.59 0.005 1.924 255 255 255
-0.567 -0.902 2.344 255 255 255
0.342 -0.485 2.451 255 255 255
-0.531 -0.058 0.922 0 0 0
-0.65 -1.489 2.165 255 255 255
-0.366 -0.4 1.971 255 255 255
0.797 0.202 1.872 255 255 255
0.448 -0.415 1.751 255 255 255
-0.138 0.112 0.644 255 255 255
0.501 0.711 1.408 255 255 255
-0.038 0.195 0.356 255 255 255
-1.016 -1.373 2.133 255 255 255
-1.353 -0.524 2.097 255 255 255
0.602 -1.49 2.375 255 255 255
0.117 -1.118 2.406 255 255 255
0.228 0.441 2.133 255 255 255
0.815 0.53 1.717 255 255 255
0.348 -0.715 2.384 0 0 0
-0.241 -0.161 2.622 255 255 255
0.736 -0.556 1.768 255 255 255
0.258 -0.171 2.705 255 255 255
-0.199 0.042 0.825 255 255 255
-0.987 -1.352 2.139 255 255 255
0.661 -1.661 2.34 255 255 255
-0.135 -0.345 2.586 255 255 255
0.814 -0.775 1.663 255 255 255
-0.675 -0.072 0.967 0 0 0
0.476 -0.861 2.288 255 255 255
0.838 0.26 1.583 255 255 255
-0.047 0.101 0.3 255 255 255
0.744 -0.26 1.886 255 255 255
-0.693 -0.86 2.193 0 0 0
0.804 -1.243 1.644 0 0 0
0.445 -0.837 1.701 255 255 255
-0.319 0.07 0.522 255 255 255
-0.03 0.443 2.09 255 255 255
-0.052 0.164 0.332 255 255 255
0.488 0.7 1.45 255 255 255
-0.104 0.237 0.46 255 255 255
0.084 0.543 1.883 0 0 0
-0.007 0.622 1.651 255 255 255
-0.38 0.016 0.91 255 255 255
-1.142 -1.276 2.142 255 255 255
-0.16 0.147 0.531 0 0 0
0.49 -1.06 2.308 0 0 0
0.202 -0.265 2.67 255 255 255
-0.88 -0.745 2.2 255 255 255
0.678 -0.011 1.92 255 255 255
-0.166 0.192 0.483 255 255 255
0.424 0.429 2.015 255 255 255
-0.926 -1.224 2.187 255 255 255
-0.065 0.077 0.306 255 255 255
-0.503 -0.943 2.346 255 255 255
-0.223 0.187 2.659 0 0 0
-0.74 -0.738 2.229 255 255 255
-0.509 -0.38 1.885 255 255 255
-0.202 0.14 0.551 255 255 255
0.582 -0.522 1.756 255 255 255
-0.073 0.695 1.409 255 255 255
-0.276 0.106 0.493 255 255 255
-0.184 0.165 0.501 255 255 255
-0.185 -0.141 2.639 255 255 255
0.884 -0.093 1.236 255 255 255
0.159 -1.329 2.356 255 255 255
-0.229 0.13 0.522 0 0 0
0.756 -1.449 1.824 255 255 255
0.73 0.61 1.819 255 255 255
0.458 0.591 1.857 255 255 255
0.25 0.695 1.433 255 255 255
0.716 0.654 1.671 255 255 255
0.037 0.459 2.083 255 255 255
-0.042 -0.568 2.539 255 255 255
-0.977 -1.195 2.186 255 255 255
0.122 -0.926 2.464 255 255 255
0.076 -1.07 2.415 255 255 255
0.801 -0.64 1.731 255 255 255
-1.292 -0.703 2.132 255 255 255
0.048 0.28 2.411 255 255 255
0.867 0.19 1.357 255 255 255
-0.403 -1.613 2.181 0 0 0
-1.12 -1.127 2.12 0 0 0
0.244 0.554 1.766 255 255 255
-0.12 0.099 0.74 255 255 255
-0.735 -0.615 2.254 0 0 0
-0.272 -0.16 2.612 255 255 255
-0.988 -0.719 2.185 255 255 255
-0.507 0.014 0.781 255 255 255
-0.379 -1.487 2.213 255 255 255
-1.098 -0.8 2.133 255 255 255
-0.197 0.125 0.567 255 255 255
-0.049 0.655 1.532 255 255 255
-0.294 0.05 0.749 255 255 255
0.149 -0.752 2.523 255 255 255
-0.155 -0.036 2.675 255 255 255
-0.745 -1.468 2.152 255 255 255
0.141 0.67 1.513 0 0 0
-0.179 0.175 0.493 255 255 255
0.33 -0.703 2.399 255 255 255
-0.586 -0.387 1.866 255 255 255
-0.266 0.109 0.641 255 255 255
0.424 0.569 1.873 255 255 255
-0.112 -0.733 2.477 255 255 255
-0.531 -0.42 1.901 255 255 255
0.377 0.653 1.615 255 255 255
-0.197 0.011 1 255 255 255
0.835 -0.181 1.576 255 255 255
-0.472 -0.035 0.899 0 0 0
0.157 0.556 1.778 255 255 255
0.346 -0.534 2.439 255 255 255
-0.566 -0.587 2.161 255 255 255
-0.227 0.152 0.516 255 255 255
-0.046 0.42 2.061 255 255 255
-0.194 0.068 0.692 255 255 255
-0.552 -0.087 1.096 255 255 255
0.446 -0.945 2.29 255 255 255
0.849 0.212 1.476 255 255 255
0.637 -0.599 1.735 255 255 255
-0.919 -0.993 2.114 0 0 0
0.546 0.245 1.993 255 255 255
0.112 -0.09 2.707 255 255 255
-0.627 -0.682 2.265 0 0 0
0.262 -0.556 2.598 255 255 255
0.664 -0.151 1.875 255 255 255
0.03 -1.007 2.428 255 255 255
-0.429 -0.018 0.992 0 0 0
-0.552 0.011 0.769 255 255 255
0.628 -0.598 1.734 255 255 255
0.356 -0.859 2.341 0 0 0
-0.106 -1.082 2.377 255 255 255
-0.224 0.138 0.517 0 0 0
-0.034 0.132 0.315 255 255 255
-0.154 0.195 0.485 255 255 255
0.813 0.146 1.754 255 255 255
-0.116 -1.071 2.377 255 255 255
-0.067 -0.697 2.5 255 255 255
-0.825 -1.431 2.146 255 255 255
-0.198 0.216 0.464 0 0 0
0.248 -1.301 2.379 255 255 255
-0.463 -0.334 1.882 255 255 255
0.834 -0.594 1.564 0 0 0
0.257 0.637 1.638 255 255 255
1.154 -0.396 1.734 255 255 255
0.953 -0.44 1.589 255 255 255
-1.129 -1.264 2.145 255 255 255
0.495 0.148 1.952 255 255 255
0.629 -0.077 1.9 255 255 255
-0.18 0.239 0.453 255 255 255
-1.496 -0.598 2.122 0 0 0
-0.38 0.006 0.952 255 255 255
0.053 0.512 2.048 255 255 255
-0.499 -1.52 2.178 255 255 255
0.73 -1.387 2.038 255 255 255
-1.033 -1.297 2.148 255 255 255
0.857 -0.053 1.418 255 255 255
-0.077 -0.726 2.489 255 255 255
-0.923 -1.638 2.064 255 255 255
0.463 -0.218 1.821 255 255 255
-0.518 -0.062 1.089 0 0 0
0.843 0.314 1.571 255 255 255
-0.664 -1.583 2.135 0 0 0
0.588 -0.058 1.901 255 255 255
-0.398 -0.073 1.191 255 255 255
-0.019 0.089 0.326 255 255 255
0.313 -0.081 2.571 255 255 255
-0.041 -1.189 2.36 255 255 255
0.395 -0.819 2.225 255 255 255
0.817 0.209 1.739 255 255 255
-0.178 0.225 0.463 255 255 255
-0.982 -0.441 2.147 255 255 255
0.536 -0.428 1.776 255 255 255
0.664 0.09 1.953 255 255 255
0.347 -0.704 2.382 0 0 0
0.781 -0.059 1.893 255 255 255
-0.098 0.288 2.314 255 255 255
-0.781 -0.295 1.635 255 255 255
-0.247 0.134 0.509 0 0 0
0.798 0.408 1.894 255 255 255
-0.245 0.012 2.671 255 255 255
-0.917 -1.428 2.128 255 255 255
-0.016 -0.519 2.557 255 255 255
0.66 -0.035 1.916 255 255 255
-0.017 0.034 2.719 255 255 255
-0.552 -0.074 1.085 255 255 255
-0.28 0.078 0.48 255 255 255
0.46 0.051 1.913 255 255 255
0.482 -0.959 2.292 255 255 255
0.909 -0.279 1.531 255 255 255
0.11 0.691 1.436 255 255 255
-0.484 0.03 0.719 255 255 255
-0.851 -0.778 2.199 255 255 255
-0.265 0.062 0.693 255 255 255
0.2 -0.998 2.458 255 255 255
0.117 -1.088 2.416 255 255 255
0.421 -0.944 2.291 255 255 255
-0.775 -0.286 1.649 255 255 255
0.243 -0.946 2.482 255 255 255
0.858 0.048 1.419 255 255 255
-0.073 -1.601 2.235 255 255 255
-0.362 -0.209 1.699 255 255 255
-0.723 -0.938 2.226 0 0 0
-0.035 0.135 0.317 255 255 255
0.184 -0.059 2.729 255 255 255
-0.483 -0.073 1.168 255 255 255
0.438 -0.773 1.708 255 255 255
-0.848 -1.466 2.135 255 255 255
-0.044 0.125 0.308 255 255 255
-0.046 0.096 0.301 255 255 255
-0.682 -0.943 2.316 255 255 255
0.785 -1.297 1.722 0 0 0
0.313 -0.277 2.526 255 255 255
0.725 0.665 1.62 255 255 255
0.418 0.603 1.799 255 255 255
0.799 0.126 1.85 255 255 255
0.472 0.416 2.024 255 255 255
0.178 0.564 1.765 255 255 255
0.962 -0.581 1.56 255 255 255
0.539 -0.619 1.71 255 255 255
0.775 0.438 1.945 255 255 255
-0.053 0.122 0.303 255 255 255
0.592 0.109 1.953 255 255 255
-0.203 -0.238 2.604 255 255 255
-0.423 -1.463 2.211 255 255 255
-0.068 0.107 0.294 255 255 255
0.68 -0.939 1.617 255 255 255
-0.803 -1.185 2.224 255 255 255
-0.337 -0.247 2.581 255 255 255
-0.243 -0.339 2.571 255 255 255
-0.173 0.345 2.322 0 0 0
-0.194 0.124 0.589 255 255 255
0.272 -0.004 2.741 255 255 255
0.722 -0.21 1.869 255 255 255
-0.327 -0.751 2.436 255 255 255
-0.431 -0.749 2.302 0 0 0
-0.037 0.098 0.302 255 255 255
-0.31 0.099 0.625 255 255 255
0.798 0.32 1.906 255 255 255
-0.598 -1.455 2.182 255 255 255
-0.84 -0.32 1.554 255 255 255
-0.26 0.148 0.503 255 255 255
0.24 0.557 1.763 255 255 255
-0.184 0.257 2.619 255 255 255
-0.363 -1.394 2.249 255 255 255
-1.104 -0.773 2.141 255 255 255
-0.179 0.138 0.556 255 255 255
-0.374 0.042 0.783 255 255 255
0.848 -0.006 1.47 255 255 255
0.781 -0.066 1.891 255 255 255
0.845 -0.798 1.546 255 255 255
-0.681 -0.112 1.097 255 255 255
0.326 0.628 1.689 255 255 255
-0.216 -0.414 2.55 255 255 255
-0.108 0.084 0.853 255 255 255
0.695 -0.264 1.838 255 255 255
0.491 -1.521 2.355 255 255 255
0.834 0.106 1.571 255 255 255
0.83 -0.528 1.624 0 0 0
-0.135 -0.366 2.581 255 255 255
-0.039 0.082 0.306 0 0 0
0.52 0.219 1.978 255 255 255
0.492 0.585 1.818 255 255 255
0.278 0.483 1.952 255 255 255
-0.695 -0.513 2.158 0 0 0
-0.054 0.096 0.298 255 255 255
0.05 -1.082 2.404 255 255 255
0.839 -0.77 1.579 0 0 0
0.674 -0.485 1.771 255 255 255
-0.133 0.225 0.478 255 255 255
0.934 -0.353 1.625 255 255 255
-0.063 -0.458 2.57 255 255 255
-0.335 -0.888 2.393 255 255 255
0.606 0.188 1.982 255 255 255
-0.291 -0.448 2.531 255 255 255
0.079 -0.222 2.664 255 255 255
-0.518 0.014 0.763 255 255 255
-0.251 0.153 0.506 0 0 0
-0.561 -0.669 2.284 0 0 0
0.592 -0.805 1.664 255 255 255
0.592 -0.065 1.901 255 255 255
0.518 -0.794 2.154 0 0 0
-0.17 0.208 2.662 255 255 255
-1.424 -0.656 2.118 255 255 255
-0.305 -0.067 1.192 255 255 255
0.397 -0.182 2.541 255 255 255
-0.188 0.042 0.829 255 255 255
0.405 -1.603 2.324 255 255 255
-0.228 -0.641 2.484 255 255 255
-0.488 -0.865 2.371 255 255 255
0.494 -0.88 2.296 255 255 255
-1.069 -1.406 2.109 255 255 255
-0.567 -1.022 2.313 255 255 255
0.453 -0.931 1.589 255 255 255
0.507 0.538 2.025 0 0 0
-0.783 -0.289 1.621 255 255 255
0.567 -0.566 1.736 255 255 255
0.755 -0.692 1.751 255 255 255
0.316 0.302 2.546 255 255 255
0.751 0.247 2.077 255 255 255
0.608 -0.382 1.798 255 255 255
-0.027 0.078 0.32 255 255 255
1.155 -0.412 1.733 255 255 255
0.723 -1.063 1.706 0 0 0
0.781 0.508 1.914 255 255 255
-1.032 -0.263 1.519 255 255 255
-0.427 -0.014 0.993 0 0 0
-0.209 -0.202 2.614 255 255 255
-0.787 -0.326 1.669 255 255 255
-0.043 0.123 0.307 255 255 255
-0.555 -0.545 2.161 255 255 255
0.528 0.433 2.037 255 255 255
0.948 -0.298 1.55 255 255 255
-0.277 0.094 0.472 255 255 255
-0.557 -0.084 1.089 255 255 255
-1.454 -0.6 2.126 0 0 0
0.412 0.046 2.03 255 255 255
0.838 0.464 1.661 255 255 255
0.189 -0.42 2.624 255 255 255
0.433 0.274 1.977 255 255 255
-0.198 -0.008 1.069 255 255 255
-0.914 -0.429 2.29 0 0 0
0.08 0.592 1.771 255 255 255
0.357 0.095 2.594 255 255 255
0.342 -1.526 2.328 255 255 255
0.664 -0.584 1.746 255 255 255
0.846 -0.045 1.486 255 255 255
-0.156 0.19 0.488 255 255 255
-0.597 -1.176 2.259 255 255 255
0.399 0.328 1.989 255 255 255
-0.208 -0.696 2.474 255 255 255
0.164 0.045 2.757 255 255 255
-0.436 -0.038 1.003 255 255 255
-0.089 0.111 0.789 255 255 255
-0.862 -1.149 2.219 255 255 255
0.258 -1.245 2.389 255 255 255
-0.045 0.16 0.332 255 255 255
0.111 0.518 1.88 255 255 255
-0.633 -0.792 2.228 255 255 255
-0.326 -0.027 1.037 255 255 255
-0.484 -0.751 2.4 255 255 255
0.342 0.427 2.166 0 0 0
-0.963 -0.81 2.157 255 255 255
0.786 -0.082 1.872 255 255 255
-0.579 -0.369 1.859 255 255 255
0.853 0.103 1.443 255 255 255
-0.024 0.086 0.32 255 255 255
-1.103 -0.976 2.082 255 255 255
-0.161 0.206 0.478 255 255 255
0.643 -0.252 1.844 255 255 255
0.375 0.186 2.567 255 255 255
0.366 0.303 2.462 255 255 255
-1.084 -0.274 1.501 255 255 255
-0.276 -0.468 2.529 255 255 255
0.537 -1.059 2.312 0 0 0
-0.49 0.015 0.822 255 255 255
-0.382 0.006 0.951 255 255 255
-0.064 0.484 2.096 255 255 255
-0.137 -0.219 2.626 255 255 255
0.227 -0.833 2.511 255 255 255
-0.854 -1.252 2.191 255 255 255
-0.037 0.073 0.315 0 0 0
0.934 -0.437 1.603 255 255 255
-0.253 -0.114 2.634 255 255 255
0.583 0.643 1.695 255 255 255
0.136 0.452 2.109 0 0 0
-0.143 0.218 0.479 0 0 0
0.873 -0.618 1.553 255 255 255
-0.089 0.099 0.313 0 0 0
-1.027 -1.414 2.114 255 255 255
0.226 0.659 1.549 255 255 255
-0.057 0.124 0.306 255 255 255
-0.486 -1.319 2.244 255 255 255
0.187 0.657 1.556 255 255 255
-0.784 -0.725 2.225 255 255 255
-0.581 -0.012 0.956 0 0 0
0.472 -0.583 1.708 255 255 255
-0.122 -0.862 2.44 255 255 255
0.521 -0.887 1.621 255 255 255
0.808 -0.549 1.708 255 255 255
-0.076 -0.968 2.416 255 255 255
-0.489 -0.42 1.929 255 255 255
0.361 -1.329 2.388 255 255 255
1.083 -0.395 1.692 255 255 255
0.202 -1.436 2.331 255 255 255
-0.211 -0.017 1.089 255 255 255
-0.213 -0.248 2.599 255 255 255
0.54 0.516 2.02 255 255 255
-1.074 -0.274 1.506 0 0 0
-0.402 -0.008 0.983 255 255 255
-1.075 -1.408 2.11 255 255 255
-0.902 -1.523 2.108 0 0 0
0.827 -0.502 1.63 0 0 0
0.81 -0.37 1.743 255 255 255
0.233 0.112 2.788 255 255 255
-0.127 0.073 0.863 255 255 255
0.07 0.537 1.919 0 0 0
0.502 -0.933 2.227 255 255 255
0.831 -1.023 1.575 255 255 255
0.086 -0.053 2.712 255 255 255
0.431 0.613 1.752 255 255 255
0.058 0.468 2.084 255 255 255
-0.089 0.1 0.312 0 0 0
-1.087 -0.537 2.119 255 255 255
0.808 -0.896 1.672 255 255 255
0.629 -0.773 1.679 255 255 255
-0.469 -1.179 2.285 255 255 255
-0.375 -0.193 1.62 255 255 255
-0.046 -1.33 2.318 255 255 255
0.877 0.112 1.285 255 255 255
0.013 0.654 1.547 255 255 255
-0.381 -0.043 1.111 255 255 255
0.534 -1.463 2.375 255 255 255
0.653 0.658 1.642 255 255 255
-0.579 -0.365 1.859 255 255 255
-0.783 -1.25 2.205 255 255 255
0.678 -0.294 1.833 255 255 255
0.604 0.361 2.005 255 255 255
0.084 0.576 1.795 255 255 255
0.79 -0.691 1.797 0 0 0
0.229 0.707 1.394 255 255 255
0.8 -0.057 1.814 255 255 255
0.248 -0.992 2.468 255 255 255
-0.149 0.057 0.785 255 255 255
0.703 -0.189 1.864 255 255 255
0.054 0.509 2.055 255 255 255
-0.462 0.033 0.819 255 255 255
-0.317 -0.766 2.433 255 255 255
0.751 -1.306 1.876 255 255 255
-0.251 0.111 0.506 255 255 255
-0.112 -0.115 2.659 255 255 255
-0.051 0.151 0.324 255 255 255
-0.025 0.103 0.305 255 255 255
0.59 0.545 1.666 255 255 255
-0.509 -0.806 2.385 255 255 255
0.382 -0.223 2.54 255 255 255
-0.036 0.108 0.299 255 255 255
0.797 -0.687 1.772 0 0 0
0.12 0.387 2.136 255 255 255
-0.85 -0.772 2.198 255 255 255
0.432 0.26 2.331 255 255 255
-0.141 -0.233 2.615 255 255 255
0.534 -0.791 1.656 255 255 255
-0.404 -0.874 2.378 255 255 255
-0.432 -0.875 2.276 0 0 0
-0.907 -0.23 1.531 255 255 255
0.821 -0.395 1.691 0 0 0
0.785 -0.29 1.855 255 255 255
0.328 -0.603 2.562 255 255 255
0.207 0.352 2.105 255 255 255
-0.031 -1.032 2.408 255 255 255
0.089 0.627 1.645 255 255 255
-0.112 -1.43 2.274 255 255 255
-0.484 -0.163 1.473 255 255 255
0.05 -1.159 2.381 255 255 255
-0.117 0.229 0.477 255 255 255
-0.839 -0.511 2.274 0 0 0
-1.004 -1.208 2.18 255 255 255
0.259 -0.36 2.648 255 255 255
-0.275 -0.084 1.273 255 255 255
-0.25 0.058 0.713 255 255 255
-0.292 -0.027 1.052 255 255 255
-0.616 -1.329 2.219 255 255 255
0.573 -1.6 2.349 255 255 255
0.295 0.508 1.874 255 255 255
-0.392 0.061 0.598 255 255 255
-1.219 -0.793 2.117 255 255 255
-0.17 0.037 0.859 255 255 255
0.698 -0.482 1.771 255 255 255
-0.264 0.096 0.499 255 255 255
-0.501 -0.034 0.927 0 0 0
0.796 -0.768 1.748 0 0 0
-0.643 -0.83 2.218 0 0 0
-0.17 0.172 0.497 255 255 255
0.052 0.261 2.411 255 255 255
-0.293 -1.42 2.248 255 255 255
-0.081 0.075 0.324 255 255 255
-0.696 -1.011 2.291 255 255 255
-0.288 0.072 0.691 0 0 0
-0.98 -1.133 2.201 255 255 255
0.45 -0.842 2.256 255 255 255
0.814 0.363 1.774 255 255 255
-0.495 0.024 0.729 255 255 255
-0.029 0.082 0.313 255 255 255
0.909 -0.291 1.565 255 255 255
-0.513 -1.608 2.158 0 0 0
-0.529 -0.107 1.146 255 255 255
-0.428 -0.759 2.285 0 0 0
-0.167 0.104 0.662 255 255 255
-1.059 -1.057 2.07 0 0 0
0.66 -0.539 1.756 255 255 255
-0.021 0.47 2.073 255 255 255
0.94 -0.555 1.559 255 255 255
-0.53 -0.555 2.169 255 255 255
0.82 -0.205 1.685 255 255 255
0.817 0.278 1.725 255 255 255
0.46 -0.375 1.774 255 255 255
0.047 -0.122 2.688 255 255 255
0.704 0.269 2.02 255 255 255
-0.972 -0.578 2.164 255 255 255
0.866 -0.584 1.557 255 255 255
0.857 -0.549 1.571 255 255 255
0.097 -1.475 2.295 255 255 255
0.592 -0.011 1.915 255 255 255
0.493 -0.77 1.655 255 255 255
0.833 -0.631 1.561 0 0 0
-0.055 0.693 1.412 255 255 255
0.578 0.667 1.601 255 255 255
0.16 -1.442 2.322 255 255 255
-1.288 -0.904 2.075 255 255 255
0.07 0.571 1.816 255 255 255
0.498 0.694 1.65 255 255 255
-0.257 0.158 0.497 255 255 255
0.402 0.323 1.984 255 255 255
0.823 -0.815 1.632 255 255 255
-0.285 -1.566 2.203 255 255 255
-1.052 -1.445 2.106 255 255 255
0.441 -0.832 1.638 0 0 0
-1.362 -0.801 2.084 255 255 255
0.486 -0.908 1.611 255 255 255
-0.391 -1.27 2.277 255 255 255
0.547 -0.678 1.696 255 255 255
0.394 0.351 2.003 255 255 255
0.622 -0.243 1.843 255 255 255
0.514 -0.727 1.674 255 255 255
0.744 -1.405 1.904 0 0 0
0.753 0.48 1.966 255 255 255
0.522 -0.678 1.689 255 255 255
-0.016 0.089 0.343 255 255 255
-0.98 -1.496 2.105 255 255 255
-0.256 0.137 0.506 255 255 255
0.822 -0.118 1.676 255 255 255
-0.043 0.078 0.306 255 255 255
0.84 -0.769 1.509 255 255 255
-0.155 0.038 0.855 255 255 255
0.082 -0.688 2.527 255 255 255
-0.289 -0.12 1.388 255 255 255
-0.032 0.148 0.333 255 255 255
-0.277 -0.216 1.969 255 255 255
-0.069 0.072 0.312 0 0 0
0.456 -0.926 1.587 255 255 255
-0.442 -1.372 2.235 255 255 255
-0.182 0.017 1.015 255 255 255
0.836 -0.468 1.596 255 255 255
-0.445 -0.003 0.908 255 255 255
-0.266 -1.598 2.202 0 0 0
-0.171 -0.063 2.668 255 255 255
0.808 -0.911 1.666 255 255 255
0.848 0.434 1.593 255 255 255
-1.431 -0.501 2.069 255 255 255
-0.935 -0.413 2.188 0 0 0
-0.592 -0.017 0.843 0 0 0
0.565 0.495 1.67 255 255 255
0.429 0.623 1.724 255 255 255
0.797 -0.73 1.749 0 0 0
-0.246 -0.166 2.62 255 255 255
0.629 -1.728 2.317 0 0 0
0.265 -1.41 2.348 255 255 255
-0.637 -1.401 2.19 255 255 255
-0.276 -0.251 1.955 255 255 255
-0.523 -1.607 2.155 0 0 0
-0.841 -1.284 2.187 255 255 255
-0.324 -0.629 2.474 255 255 255
-0.027 0.709 1.362 255 255 255
0.07 0.587 1.791 255 255 255
0.03 -1.085 2.398 255 255 255
-0.698 -0.129 1.114 255 255 255
-0.06 0.107 0.293 255 255 255
-0.382 -0.74 2.43 255 255 255
-1.361 -0.506 2.103 255 255 255
0.004 0.336 2.427 255 255 255
0.202 -0.7 2.546 255 255 255
-0.288 -0.368 2.556 255 255 255
-0.202 0.122 0.602 0 0 0
0.73 -1.397 2.034 255 255 255
-0.061 -1.039 2.397 255 255 255
0.025 0.593 1.751 255 255 255
0.518 -1.475 2.374 255 255 255
0.313 0.602 1.772 255 255 255
-0.054 0.065 0.318 0 0 0
-0.323 -0.099 1.29 255 255 255
0.468 0.609 1.795 255 255 255
0.801 -0.056 1.807 255 255 255
-1.045 -1.048 2.079 0 0 0
-0.22 0.058 0.725 255 255 255
-0.158 0.145 0.531 0 0 0
-0.726 -0.098 1.095 0 0 0
-0.487 -0.054 1.133 255 255 255
0.383 -0.183 2.553 255 255 255
0.796 -0.71 1.764 0 0 0
-0.107 -1.123 2.366 255 255 255
0.392 -1.062 2.289 255 255 255
-0.111 -0.98 2.403 255 255 255
0.847 -0.891 1.546 255 255 255
-0.593 -0.719 2.261 255 255 255
-1.296 -0.697 2.129 255 255 255
0.55 -0.549 1.735 255 255 255
0.942 -0.497 1.583 255 255 255
-0.29 -1.002 2.366 255 255 255
-0.042 0.116 0.307 255 255 255
-0.154 -0.46 2.547 255 255 255
-1.05 -0.901 2.109 255 255 255
0.453 -0.364 2.166 255 255 255
0.796 -0.064 1.824 255 255 255
0.818 0.259 1.747 255 255 255
-0.395 0.047 0.744 255 255 255
0.16 -1.457 2.315 255 255 255
-1.401 -0.765 2.087 255 255 255
-0.122 -0.669 2.494 255 255 255
0.309 -1.498 2.328 255 255 255
-0.542 -1.376 2.217 255 255 255
0.036 -1.63 2.247 0 0 0
0.638 -0.263 1.84 255 255 255
0.721 -0.263 1.849 255 255 255
0.828 0.379 1.672 255 255 255
0.264 -1.113 2.438 255 255 255
0.071 -1.009 2.434 255 255 255
-0.202 0.174 0.488 255 255 255
-0.395 -0.856 2.39 255 255 255
-0.042 0.081 0.305 255 255 255
-0.11 0.241 0.461 255 255 255
-0.785 -0.149 1.073 255 255 255
-0.44 -0.088 1.227 255 255 255
-0.104 -1.589 2.245 255 255 255
0.728 -0.23 1.871 255 255 255
0.827 -0.424 1.612 0 0 0
-0.337 -0.726 2.441 255 255 255
-0.999 -1.223 2.176 255 255 255
0.639 -0.288 1.83 255 255 255
-0.034 0.694 1.415 255 255 255
0.86 -0.899 1.542 255 255 255
0.8 -0.83 1.727 0 0 0
-0.166 0.077 0.686 0 0 0
-0.037 0.165 0.349 255 255 255
0.488 0.497 1.732 255 255 255
-0.582 -0.365 1.857 255 255 255
-0.66 -0.264 1.876 0 0 0
0.945 -0.668 1.538 255 255 255
-0.062 0.141 0.314 255 255 255
-0.643 -0.036 0.892 255 255 255
-0.199 0.172 0.491 255 255 255
0.762 -1.383 1.814 255 255 255
0.475 -1.531 2.352 255 255 255
1.194 -0.451 1.684 255 255 255
0.312 0.447 1.991 255 255 255
-0.217 -0.09 1.459 255 255 255
-0.137 0.197 0.487 0 0 0
-0.838 -1.342 2.172 255 255 255
-0.984 -0.74 2.172 255 255 255
0.829 -0.143 1.623 255 255 255
0.567 -0.398 1.791 255 255 255
-0.748 -0.775 2.215 255 255 255
0.957 -0.346 1.619 255 255 255
0.79 0.431 1.927 255 255 255
0.343 0.186 2.639 255 255 255
0.955 -0.47 1.588 255 255 255
-0.377 -0.605 2.33 0 0 0
0.76 -0.334 1.888 0 0 0
-0.293 0.092 0.729 0 0 0
-0.199 0.063 0.701 255 255 255
-0.327 0.036 0.822 255 255 255
0.026 0.561 1.878 255 255 255
-0.596 -0.054 0.942 0 0 0
0.662 -0.404 1.797 255 255 255
-0.545 -1.308 2.237 255 255 255
-0.533 -0.688 2.285 0 0 0
-0.179 0.131 0.561 255 255 255
-0.001 -1.382 2.312 255 255 255
0.828 -0.02 1.602 255 255 255
-0.212 -1.164 2.339 255 255 255
0.858 -0.034 1.413 255 255 255
0.073 0.639 1.599 255 255 255
-0.643 -0.105 1.115 255 255 255
0.84 0.127 1.523 255 255 255
0.83 0.105 1.602 255 255 255
0.311 -1.018 2.47 255 255 255
-0.375 -1.026 2.347 255 255 255
0.738 0.396 2.052 255 255 255
-0.227 -1.251 2.311 255 255 255
0.751 -1.24 1.888 255 255 255
-0.578 -1.44 2.192 255 255 255
-1.352 -0.575 2.126 255 255 255
-0.213 0.195 0.472 255 255 255
-1.233 -0.87 2.09 255 255 255
0.176 0.691 1.445 255 255 255
0.484 0.119 1.94 255 255 255
0.264 -1.123 2.433 255 255 255
-0.028 0.092 0.311 0 0 0
0.549 -0.6 1.721 255 255 255
-0.558 -0.588 2.166 255 255 255
-0.401 -0.475 2.345 0 0 0
-0.181 0.255 0.457 255 255 255
