ply
format ascii 1.0
comment Created by Open3D
element vertex 1599
property double x
property double y
property double z
property uchar red
property uchar green
property uchar blue
end_header
0.623 0.685 1.539 0 0 0
-0.261 -1.269 2.287 255 255 255
0.04 -0.504 2.534 255 255 255
-0.388 -1.037 2.333 255 255 255
-1.291 -0.819 2.157 255 255 255
-0.016 0.073 0.306 0 0 0
0.345 -0.628 2.532 255 255 255
-0.571 -0.126 1.155 255 255 255
-0.161 -1.256 2.302 255 255 255
-0.069 -0.046 2.654 0 0 0
-0.148 -0.245 1.987 255 255 255
-0.309 -0.895 2.386 255 255 255
-0.18 -1.096 2.342 255 255 255
0.407 -1.324 2.34 255 255 255
0.128 0.098 2.692 0 0 0
0.726 -0.663 1.654 255 255 255
0.055 -0.771 2.463 255 255 255
-0.294 -1.498 2.219 255 255 255
0.654 0.557 1.617 255 255 255
0.866 -0.595 1.684 255 255 255
-1.249 -0.524 2.161 255 255 255
-0.319 -0.97 2.365 255 255 255
0.615 -0.836 1.59 255 255 255
-0.913 -1.281 2.209 255 255 255
0.619 -0.085 1.82 255 255 255
0.544 -1.027 2.382 255 255 255
0.377 -0.217 2.652 255 255 255
-0.215 0.016 0.957 255 255 255
-0.217 0.142 0.458 255 255 255
-1.551 -0.58 2.187 255 255 255
0.725 0.421 1.96 255 255 255
0.481 -0.967 2.454 255 255 255
0.521 -1.583 2.279 255 255 255
-0.859 -0.704 2.238 0 0 0
-0.714 -0.793 2.232 255 255 255
0.892 -0.307 1.806 255 255 255
-0.167 0.031 0.883 255 255 255
-0.113 0.043 0.843 255 255 255
-0.238 -0.027 1.059 0 0 0
-0.113 0.197 0.485 255 255 255
-0.554 -1.451 2.194 255 255 255
-0.119 0.146 0.542 255 255 255
0.142 -0.735 2.483 255 255 255
0.891 0.376 2.02 255 255 255
-0.222 0.149 0.502 0 0 0
0.531 0.865 1.954 0 0 0
-0.294 0.039 0.625 0 0 0
-0.043 0.093 0.325 255 255 255
0.639 -0.363 2.123 255 255 255
-0.258 -0.134 1.422 255 255 255
0.055 -1.014 2.392 255 255 255
0.953 -0.238 1.552 255 255 255
-0.488 -0.01 0.976 0 0 0
0.64 1.052 1.934 255 255 255
0.96 -0.525 1.624 255 255 255
0.523 0.25 2.619 255 255 255
-0.146 -1.189 2.322 255 255 255
-0.183 -0.149 1.491 255 255 255
0.754 0.12 1.899 255 255 255
0.537 0.599 1.789 255 255 255
0.218 0.113 2.674 255 255 255
-0.417 0.019 0.798 255 255 255
0.814 -0.906 1.58 255 255 255
-0.454 -1.195 2.284 255 255 255
0.648 -0.928 2.255 255 255 255
-1.249 -0.864 2.145 255 255 255
-0.132 -0.599 2.488 255 255 255
0.653 -0.792 1.602 255 255 255
0.93 -0.394 1.789 0 0 0
0.231 -0.215 2.638 255 255 255
0.158 -0.141 2.651 255 255 255
0.657 0.651 1.656 255 255 255
0.625 -0.515 2.102 255 255 255
-0.086 0.255 0.471 255 255 255
0.451 -0.155 2.681 255 255 255
-0.001 -0.062 2.656 255 255 255
-0.748 -0.28 1.599 0 0 0
-0.028 0.097 0.822 255 255 255
0.949 -0.028 1.652 255 255 255
0.945 -0.8 1.68 255 255 255
-0.073 -0.022 1.257 255 255 255
-1.011 -0.172 1.343 255 255 255
-0.015 0.132 0.304 255 255 255
-0.161 0.139 0.562 255 255 255
0.063 0.128 2.651 0 0 0
0.217 -1.059 2.397 255 255 255
0.649 0.19 1.904 255 255 255
0.476 0.129 2.763 255 255 255
-0.238 0.174 0.486 255 255 255
0.745 -1.416 2.346 255 255 255
0.433 -0.871 2.475 255 255 255
0.546 0.449 1.97 0 0 0
-0.18 0.171 0.497 255 255 255
-0.404 0.06 0.678 255 255 255
0.62 0.281 1.937 255 255 255
0.828 0.537 1.879 255 255 255
0.422 0.067 2.742 255 255 255
0.691 -0.128 1.813 255 255 255
-1.129 -1.406 2.157 255 255 255
0.357 0.646 1.62 255 255 255
0.828 -0.038 1.848 255 255 255
-0.195 0.141 0.514 0 0 0
0.512 0.525 1.845 255 255 255
-0.002 0.182 0.34 255 255 255
-0.11 -0.15 2.617 0 0 0
-1.068 -0.852 2.174 255 255 255
-1.177 -1.247 2.194 255 255 255
0.638 0.194 1.907 255 255 255
0.031 -0.041 2.667 255 255 255
0.697 -0.774 2.118 0 0 0
0.552 -0.017 2.235 255 255 255
-0.187 -0.031 1.123 255 255 255
0.595 -0.678 2.367 255 255 255
-1.213 -0.83 2.152 255 255 255
-1.25 -1.186 2.204 255 255 255
-0.524 -1.443 2.205 255 255 255
0.93 -0.166 1.793 255 255 255
0.83 -0.526 1.704 255 255 255
0.943 0.487 1.827 255 255 255
-0.227 -1.424 2.248 255 255 255
0.602 -0.442 2.434 255 255 255
0.832 -0.823 1.62 255 255 255
-0.314 -1.52 2.21 255 255 255
0.32 0.624 1.698 0 0 0
-0.385 -0.003 0.897 255 255 255
-0.117 -0.496 2.519 255 255 255
0.133 -0.451 2.558 255 255 255
0.156 -0.992 2.404 255 255 255
-0.391 0.015 0.832 255 255 255
0.834 -0.335 1.755 255 255 255
0.428 -1.238 2.371 255 255 255
0.005 0.156 0.325 255 255 255
0.934 0.166 1.819 255 255 255
0.359 -1.276 2.347 255 255 255
-1.081 -0.221 1.562 255 255 255
0.533 -0.11 2.291 255 255 255
0.95 0.49 1.802 255 255 255
-0.104 0.227 0.472 0 0 0
-0.023 0.098 0.298 255 255 255
0.959 -0.866 1.622 255 255 255
0.977 -0.564 1.536 255 255 255
0.104 0.22 2.615 0 0 0
0.22 0.679 1.495 0 0 0
-0.019 0.068 0.318 0 0 0
-0.22 0.086 0.692 255 255 255
0.51 -0.302 2.634 255 255 255
-0.101 0.223 0.476 0 0 0
0.021 0.122 0.32 255 255 255
-0.535 -0.519 2.196 0 0 0
-0.105 0.093 0.694 0 0 0
0.321 -0.954 2.439 255 255 255
0.949 -0.25 1.537 0 0 0
0.912 -0.032 1.921 255 255 255
0.071 -0.529 2.529 255 255 255
-0.217 0.043 0.814 255 255 255
0.958 0.035 1.522 255 255 255
-1.225 -1.249 2.193 255 255 255
0.93 0.201 1.855 255 255 255
-0.384 -0.585 2.198 255 255 255
-0.247 0.072 0.691 0 0 0
-0.357 0.096 0.586 255 255 255
-0.097 0.054 0.792 255 255 255
0.004 -0.774 2.454 255 255 255
0.508 -1.497 2.304 255 255 255
-0.064 0.124 0.621 0 0 0
-0.598 -0.762 2.252 255 255 255
-0.081 0.138 0.563 0 0 0
-0.007 0.105 0.294 255 255 255
0.691 0.438 1.989 255 255 255
-0.813 -1.035 2.14 0 0 0
-1.108 -1.353 2.17 255 255 255
0.629 -0.408 1.716 255 255 255
-0.124 0.179 0.495 255 255 255
0.629 -0.345 1.737 255 255 255
-0.246 0.07 0.482 255 255 255
0.012 0.134 0.311 255 255 255
0.965 -0.066 1.492 255 255 255
0.224 -1.461 2.277 255 255 255
0.407 -1.352 2.333 255 255 255
0.943 -0.059 1.721 255 255 255
0.005 0.079 0.306 0 0 0
-0.169 0.004 1.001 0 0 0
-0.292 0.041 0.813 255 255 255
0.559 -0.039 2.206 255 255 255
0.607 -1.038 2.266 255 255 255
-0.215 -0.041 1.149 255 255 255
0.025 0.102 0.306 255 255 255
-0.003 0.084 0.299 255 255 255
-1.15 -0.31 1.596 255 255 255
0.656 -0.325 2.136 255 255 255
-0.326 -1.609 2.183 0 0 0
-0.758 -1.652 2.115 255 255 255
0.662 -0.193 1.788 255 255 255
0.632 -0.542 1.677 255 255 255
-0.165 -0.098 1.331 255 255 255
-0.085 0.199 0.49 255 255 255
0.718 0.239 1.935 255 255 255
-0.206 0.105 0.527 255 255 255
0.532 -0.658 2.359 255 255 255
0.065 -1.375 2.289 255 255 255
-0.669 -0.1 1.045 0 0 0
0.618 -1.684 2.257 0 0 0
-0.038 0.089 0.314 255 255 255
-0.006 -0.289 2.594 255 255 255
0.999 -0.485 1.525 255 255 255
0.641 -0.768 2.157 255 255 255
-0.015 0.125 0.302 255 255 255
-0.294 0.066 0.526 255 255 255
0.655 -0.626 1.656 255 255 255
-0.228 0.16 0.491 255 255 255
-0.036 0.088 0.309 255 255 255
-0.099 0.193 0.49 255 255 255
-0.237 0.042 0.815 255 255 255
-0.017 0.079 0.303 255 255 255
-0.389 -0.407 1.919 255 255 255
-0.707 -0.21 1.6 255 255 255
0.551 -0.584 2.39 255 255 255
-0.21 0.012 0.983 255 255 255
-0.1 0.119 0.615 255 255 255
-0.844 -1.07 2.126 0 0 0
0.022 0.102 0.307 255 255 255
0.87 0.455 1.959 255 255 255
0.627 -0.328 2.132 255 255 255
-1.291 -0.676 2.189 255 255 255
-1.153 -0.582 2.21 255 255 255
-0.117 0.246 0.46 255 255 255
-0.254 0.07 0.699 0 0 0
0.959 -0.497 1.636 255 255 255
-0.613 -0.291 1.965 255 255 255
0.587 -0.965 2.266 255 255 255
-0.425 -0.18 1.551 0 0 0
-0.674 -0.308 1.621 255 255 255
0.892 0.367 2.023 255 255 255
-0.29 -0.847 2.403 255 255 255
-0.196 0.157 0.507 255 255 255
0.285 -0.015 2.703 255 255 255
-0.202 -1.37 2.265 255 255 255
0.578 0.347 2.135 255 255 255
-0.067 0.025 1.048 255 255 255
0.001 0.158 0.325 255 255 255
0.632 -1.317 2.399 255 255 255
-0.202 -0.004 1.021 0 0 0
-0.447 -0.02 0.965 0 0 0
-1.008 -0.736 2.204 255 255 255
0.598 0.403 1.979 255 255 255
-0.219 0.088 0.49 255 255 255
0.621 -0.408 1.716 255 255 255
-0.763 -1.156 2.258 255 255 255
0.95 0.323 1.722 255 255 255
0.242 0.72 1.35 255 255 255
-0.217 0.098 0.657 255 255 255
-0.233 -0.517 2.346 0 0 0
-0.555 -0.042 0.983 0 0 0
0.672 0.674 1.595 255 255 255
-0.106 0.226 0.472 0 0 0
-0.558 -0.113 1.159 255 255 255
-0.368 -0.026 0.966 255 255 255
0.446 -0.144 2.682 255 255 255
-1.589 -0.478 2.219 0 0 0
-0.719 -1.021 2.168 0 0 0
0.386 0.675 1.505 0 0 0
-0.289 -1.546 2.203 255 255 255
-0.127 -0.091 1.349 255 255 255
-0.221 0.108 0.498 0 0 0
-0.142 0.189 0.485 255 255 255
0.957 -0.315 1.586 0 0 0
-0.105 -0.119 2.629 0 0 0
-0.818 -0.498 2.217 255 255 255
-0.556 -0.332 1.899 255 255 255
0.569 -0.157 2.516 255 255 255
-0.001 -1.654 2.204 0 0 0
-0.846 -0.344 1.587 255 255 255
0.341 0.418 2.077 255 255 255
0.902 -1.35 1.981 255 255 255
0.045 -0.81 2.448 255 255 255
-1.194 -0.662 2.209 255 255 255
-0.216 0.102 0.505 0 0 0
-0.209 0.144 0.509 255 255 255
-0.224 0.089 0.68 255 255 255
-0.951 -1.346 2.182 255 255 255
-0.542 -0.744 2.269 255 255 255
-0.139 0.193 0.482 255 255 255
0.657 -0.203 1.783 255 255 255
0.605 -0.608 1.651 255 255 255
0.925 -0.074 1.841 255 255 255
0.623 0.584 1.901 255 255 255
0.773 -0.596 1.676 255 255 255
0.502 -0.611 2.554 255 255 255
0.96 -0.104 1.517 255 255 255
-0.178 0.206 0.471 255 255 255
-0.285 -0.524 2.333 0 0 0
-0.075 -0.031 2.658 0 0 0
-0.193 0.195 0.472 255 255 255
-0.463 -1.42 2.218 255 255 255
-1.127 -0.56 2.185 255 255 255
0.477 -0.349 2.626 255 255 255
0.419 -0.275 2.64 255 255 255
-0.275 0.07 0.704 0 0 0
-0.149 0.057 0.761 255 255 255
-0.401 -0.411 1.918 255 255 255
0.277 -0.339 2.611 255 255 255
-0.45 -0.863 2.299 0 0 0
-0.258 -0.394 1.953 255 255 255
0.055 -0.693 2.488 255 255 255
0.967 -0.128 1.46 255 255 255
-0.727 -0.863 2.206 255 255 255
0.614 0.574 1.945 255 255 255
0.807 -0.13 1.827 255 255 255
-0.741 -0.27 1.603 0 0 0
-0.448 -0.005 0.932 255 255 255
0.293 -0.612 2.533 255 255 255
-0.184 0.11 0.511 255 255 255
-0.768 -0.472 2.316 0 0 0
-0.099 -0.257 2.592 255 255 255
-0.018 0.1 0.873 255 255 255
0.588 -0.189 2.277 255 255 255
0.02 -0.135 2.635 255 255 255
0.589 1.026 1.942 255 255 255
0.502 0.158 2.6 255 255 255
-0.132 -0.081 1.317 255 255 255
-1.114 -0.781 2.182 255 255 255
0.587 -0.327 1.73 255 255 255
-0.188 -0.49 2.515 255 255 255
0.579 -0.753 2.183 255 255 255
0.325 -1.482 2.291 255 255 255
0.612 -0.148 2.079 255 255 255
0.638 -0.648 1.646 255 255 255
-0.824 -1.342 2.198 255 255 255
0.942 -0.237 1.726 255 255 255
-0.21 -1.065 2.347 255 255 255
-0.359 -1.139 2.311 255 255 255
-0.036 -1.551 2.231 255 255 255
-0.478 -0.012 0.832 0 0 0
0.817 -1.584 2.309 255 255 255
-0.926 -1.371 2.179 255 255 255
0.165 -1.657 2.232 0 0 0
-0.256 0.073 0.541 0 0 0
0.293 0.68 1.488 0 0 0
0.934 -0.8 1.695 0 0 0
0.588 -0.744 1.61 255 255 255
-0.41 0.008 0.859 255 255 255
-0.304 -0.139 1.414 255 255 255
0.005 0.099 0.299 255 255 255
0.728 -0.905 1.571 255 255 255
-0.242 0.076 0.472 255 255 255
-0.142 0.029 0.898 255 255 255
-0.368 -0.033 1.001 0 0 0
-0.001 0.244 2.655 0 0 0
-0.038 0.104 0.304 255 255 255
0.952 -0.245 1.669 255 255 255
0.25 -0.333 2.608 255 255 255
-0.498 -0.18 1.537 0 0 0
-0.452 -0.962 2.344 255 255 255
-0.161 0.059 0.743 255 255 255
0.07 -1.11 2.365 255 255 255
0.945 0.488 1.812 255 255 255
0.014 0.129 0.31 255 255 255
-0.091 -0.737 2.454 255 255 255
0.562 0.478 1.961 255 255 255
0.54 -1.024 2.361 255 255 255
-0.194 0.157 0.505 255 255 255
0.579 -0.664 1.651 255 255 255
-1.047 -1.373 2.17 255 255 255
0.603 -0.11 2.097 255 255 255
-0.408 0.013 0.807 255 255 255
-0.51 -1.207 2.277 255 255 255
0.568 0.647 1.644 255 255 255
-1.09 -0.899 2.149 255 255 255
0.546 -1.045 2.412 255 255 255
0.417 -1.304 2.347 255 255 255
-0.728 -0.76 2.236 255 255 255
-0.654 -1.035 2.303 255 255 255
0.781 -1.692 2.277 0 0 0
-0.144 0.203 0.477 255 255 255
-0.065 0.123 0.626 255 255 255
0.584 0.608 1.809 255 255 255
0.367 -0.579 2.548 255 255 255
0.291 -0.01 2.706 255 255 255
-0.701 -0.118 1.07 255 255 255
-0.161 0.055 0.768 255 255 255
-0.101 0.184 0.496 255 255 255
-1.32 -0.518 2.153 255 255 255
-0.015 0.127 0.303 255 255 255
-0.777 -0.785 2.223 255 255 255
-0.032 0.117 2.639 0 0 0
0.944 -0.368 1.706 255 255 255
-0.317 0.052 0.58 255 255 255
-0.021 -0.468 2.539 255 255 255
-0.218 0.123 0.528 0 0 0
-0.111 0.216 0.477 0 0 0
-0.252 -0.301 1.921 255 255 255
0.242 -0.199 2.645 255 255 255
-0.996 -0.927 2.154 255 255 255
-0.86 -0.959 2.164 255 255 255
0.584 -0.524 2.412 255 255 255
0.638 -0.546 2.094 255 255 255
0.134 0.696 1.43 255 255 255
-0.832 -0.601 2.197 255 255 255
0.622 -0.661 1.642 255 255 255
-0.169 0.206 0.472 255 255 255
-0.281 -0.038 1.116 255 255 255
0.707 0.373 1.977 255 255 255
-0.385 -0.716 2.297 255 255 255
-0.798 -0.468 2.237 255 255 255
-0.103 0.15 0.538 255 255 255
-0.013 0.093 0.295 255 255 255
0.607 0.428 1.975 255 255 255
0.522 -0.732 2.349 255 255 255
-0.585 -0.052 0.891 255 255 255
0.298 0.636 1.652 255 255 255
1.101 -0.284 1.511 255 255 255
0.958 -0.629 1.63 255 255 255
0.454 -1.561 2.275 255 255 255
-0.16 0.026 0.907 255 255 255
-0.647 -0.243 1.74 255 255 255
0.939 -0.477 1.739 0 0 0
0.807 0.013 1.871 255 255 255
0.866 -1.527 2.305 255 255 255
0.058 0.049 2.695 255 255 255
-0.293 0.061 0.63 0 0 0
0.951 0.198 1.656 255 255 255
0.254 -0.996 2.422 255 255 255
-1.201 -0.658 2.212 255 255 255
-0.446 -0.067 0.967 255 255 255
-0.224 0.102 0.625 0 0 0
0.42 -0.123 2.689 255 255 255
-0.193 0.213 0.464 0 0 0
-0.806 -0.8 2.215 255 255 255
0.377 0.637 1.653 255 255 255
0.316 -1.143 2.383 255 255 255
0.131 -0.828 2.452 255 255 255
0.596 -0.022 1.836 255 255 255
-1.259 -0.724 2.186 255 255 255
-0.296 0.052 0.718 255 255 255
-1.07 -1.237 2.207 255 255 255
0.218 -1.167 2.367 255 255 255
0.684 -0.81 2.113 0 0 0
-1.134 -1.142 2.174 0 0 0
-0.177 0.132 0.593 255 255 255
0.332 0.602 1.691 255 255 255
-0.129 0.108 0.632 255 255 255
0.95 0.051 1.638 255 255 255
-0.049 0.096 0.349 255 255 255
0.481 0.47 1.961 255 255 255
0.935 0.126 1.806 255 255 255
0.465 -1.11 2.411 255 255 255
0.756 -0.364 1.747 255 255 255
0.869 -0.402 1.746 255 255 255
0.645 0.493 1.975 255 255 255
0.66 0.166 1.9 255 255 255
-0.027 0.107 0.294 255 255 255
-0.431 -0.098 1.156 255 255 255
-0.766 -0.859 2.202 255 255 255
-0.034 0.087 0.847 255 255 255
0.427 -1.008 2.434 255 255 255
0.07 -0.772 2.465 255 255 255
0.38 -0.878 2.469 255 255 255
0.523 -0.927 2.464 255 255 255
-0.319 -1.535 2.203 255 255 255
0.004 0.08 0.304 0 0 0
0.675 -0.764 1.617 255 255 255
0.787 -0.011 1.866 255 255 255
-0.261 -0.15 1.469 255 255 255
-0.296 -1.278 2.279 255 255 255
0.704 -0.874 1.585 255 255 255
0.916 0.323 1.953 255 255 255
0.081 -1.564 2.239 255 255 255
-0.073 -0.303 2.579 255 255 255
0.599 -0.701 1.62 255 255 255
-0.121 -1.351 2.278 255 255 255
0.939 -0.154 1.743 255 255 255
0.586 0.233 1.915 255 255 255
-0.612 -0.625 2.297 255 255 255
-0.377 0.026 0.859 255 255 255
-0.199 -0.602 2.316 0 0 0
0.571 -0.446 2.433 255 255 255
-0.782 -1.146 2.255 255 255 255
-0.141 -1.334 2.279 255 255 255
-0.67 -1.378 2.208 255 255 255
0.652 -1.505 2.314 255 255 255
-0.212 0.156 0.502 255 255 255
0.928 -0.179 1.816 255 255 255
0.211 0.715 1.37 255 255 255
-0.126 0.123 0.597 0 0 0
0.23 -0.02 2.693 255 255 255
0.083 0.251 2.61 255 255 255
0.561 0.346 1.946 255 255 255
-1.275 -0.715 2.185 255 255 255
-0.179 -1.608 2.202 0 0 0
0.835 0.433 1.947 255 255 255
0.802 -1.54 2.318 255 255 255
-0.635 -0.264 1.736 255 255 255
-0.7 -0.228 1.61 255 255 255
0.953 -0.802 1.659 255 255 255
-0.166 -1.23 2.309 255 255 255
0.621 -0.481 1.692 255 255 255
-0.172 0.17 0.499 255 255 255
-0.226 0.134 0.44 0 0 0
0.855 -0.813 1.618 255 255 255
-0.464 -1.621 2.165 0 0 0
-0.602 -1.505 2.178 255 255 255
0.238 -1.183 2.363 255 255 255
-0.081 0.136 0.57 0 0 0
-1.083 -1.317 2.181 255 255 255
0.262 0.178 2.691 255 255 255
0.741 0.304 1.957 255 255 255
0.611 0.571 1.949 255 255 255
-0.334 0.04 0.812 255 255 255
0.583 -0.553 2.404 255 255 255
-0.118 0.195 0.485 255 255 255
-0.606 -1.579 2.16 0 0 0
-0.275 -0.876 2.396 255 255 255
-0.163 0.196 0.477 255 255 255
0.949 0.511 1.787 255 255 255
0.716 -1.543 2.309 255 255 255
-1.376 -0.621 2.209 0 0 0
0.593 -0.377 2.137 255 255 255
-0.093 0.183 0.499 255 255 255
0.544 0.42 2.033 255 255 255
-0.218 0.14 0.507 0 0 0
0.739 -1.414 2.345 255 255 255
0.742 0.362 1.977 255 255 255
-0.233 -0.046 1.155 255 255 255
-0.336 -1.309 2.265 255 255 255
0.569 -0.242 1.756 255 255 255
0.56 0.131 1.874 255 255 255
-0.434 -1.099 2.315 255 255 255
0.928 -0.182 1.843 255 255 255
0.714 1.108 1.944 255 255 255
-0.051 -0.728 2.462 255 255 255
0.818 0.17 1.911 255 255 255
-0.295 0.048 0.763 255 255 255
0.516 0.017 2.567 255 255 255
-0.368 0.041 0.828 255 255 255
0.068 0.364 2.292 0 0 0
-0.512 -0.024 0.866 255 255 255
-0.412 -0.109 1.239 255 255 255
0.949 0.154 1.655 255 255 255
-1.064 -1.549 2.122 0 0 0
0.952 -0.662 1.635 255 255 255
0.768 -0.841 1.603 255 255 255
-0.115 0.239 0.461 255 255 255
0.382 -1.653 2.248 0 0 0
0.449 -0.004 2.704 255 255 255
-0.207 -0.887 2.357 0 0 0
-0.19 0.224 0.454 255 255 255
0.625 -0.181 1.787 255 255 255
0.11 0.693 1.433 255 255 255
-0.437 -0.564 2.163 255 255 255
0.072 -0.218 2.619 255 255 255
0.446 -1.631 2.259 0 0 0
0.623 -1.022 1.649 255 255 255
-0.052 -0.447 2.539 255 255 255
-1.155 -1.036 2.103 255 255 255
-0.155 0.186 0.485 255 255 255
-0.106 0.211 0.481 255 255 255
-0.184 -1.638 2.187 0 0 0
-0.612 -1.276 2.244 255 255 255
0.1 0.697 1.419 255 255 255
-0.837 -1.213 2.236 255 255 255
0.904 -1.652 2.089 255 255 255
0.541 -0.759 2.334 0 0 0
0.153 -1.491 2.266 255 255 255
0.931 0.503 1.829 255 255 255
0.359 -0.902 2.459 255 255 255
-0.121 -0.135 2.623 0 0 0
0.932 -0.496 1.775 0 0 0
1.033 -0.338 1.561 255 255 255
0.663 0.134 1.898 255 255 255
0.681 0.099 1.889 255 255 255
-0.951 -0.934 2.159 255 255 255
0.95 0.001 1.647 255 255 255
0.67 -0.782 1.611 255 255 255
0.949 -0.191 1.685 255 255 255
0.592 -0.06 2.121 255 255 255
-0.081 -0.653 2.477 255 255 255
0.198 0.267 2.419 255 255 255
1.041 -0.278 1.519 255 255 255
0.94 -0.374 1.739 255 255 255
0.432 0.505 1.922 255 255 255
0.514 -1.303 2.356 255 255 255
0.733 -0.907 1.564 0 0 0
-0.23 0.086 0.574 255 255 255
1.078 -0.345 1.545 255 255 255
-0.663 -0.28 1.934 255 255 255
0.541 0.585 1.821 255 255 255
0.563 0.321 1.941 255 255 255
-0.635 -0.86 2.218 255 255 255
0.879 -1.64 2.261 0 0 0
-0.086 0.136 0.568 255 255 255
-1.213 -0.72 2.189 255 255 255
-0.712 -0.231 1.601 255 255 255
-0.001 0.186 2.65 0 0 0
-0.522 -0.946 2.338 255 255 255
-0.806 -0.842 2.203 255 255 255
0.311 -0.883 2.457 255 255 255
-0.126 0.119 0.618 255 255 255
0.106 -0.782 2.463 255 255 255
0.531 0.608 1.781 255 255 255
0.03 -0.884 2.427 255 255 255
-0.484 -1.154 2.292 255 255 255
0.612 -0.392 2.436 255 255 255
0.015 -1.648 2.205 0 0 0
-0.382 0.015 0.857 255 255 255
0.649 1.087 1.939 255 255 255
-0.27 -0.33 1.907 255 255 255
0.562 0.154 2.529 255 255 255
-1.065 -1.371 2.171 255 255 255
-0.303 0.052 0.54 255 255 255
0.039 -1.052 2.375 255 255 255
0.96 0.227 1.557 255 255 255
0.024 0.205 0.381 255 255 255
0.384 0.646 1.616 255 255 255
0.927 0.173 1.86 255 255 255
0.651 0.542 1.642 255 255 255
0.001 0.09 0.299 255 255 255
-0.001 -1.549 2.238 255 255 255
0.952 -0.183 1.674 255 255 255
0.487 0.53 1.826 255 255 255
-0.12 0.257 0.462 255 255 255
-0.104 0.028 0.929 255 255 255
-0.147 0.118 0.614 255 255 255
-1.096 -0.847 2.165 255 255 255
-0.116 -1.185 2.326 255 255 255
-0.634 -0.252 1.759 255 255 255
0.843 0.48 1.904 255 255 255
0.874 -0.73 1.646 255 255 255
-0.028 0.104 0.298 0 0 0
0.754 0.189 1.917 255 255 255
-1.055 -1.318 2.181 255 255 255
0.323 -0.2 2.653 255 255 255
-0.051 -1.116 2.352 255 255 255
0.667 1.095 1.95 255 255 255
-1.269 -0.893 2.13 255 255 255
0.197 0.396 2.395 255 255 255
-0.185 0.175 0.491 255 255 255
-0.306 -1.331 2.264 255 255 255
0.631 -0.846 1.59 255 255 255
-0.394 -0.416 1.924 255 255 255
-0.415 0.019 0.798 255 255 255
0.952 -0.61 1.648 255 255 255
-0.32 -0.812 2.41 255 255 255
0.622 -0.646 1.646 255 255 255
0.587 -1.065 2.256 255 255 255
-0.188 0.126 0.527 255 255 255
0.936 -0.411 1.753 0 0 0
-0.983 -1.286 2.2 255 255 255
0.549 -1.067 2.394 255 255 255
0.454 -0.069 2.696 255 255 255
0.566 -0.82 2.322 0 0 0
-0.281 -1.623 2.188 0 0 0
0.674 -0.518 1.69 255 255 255
0.582 0.314 2.121 255 255 255
-0.143 0.05 0.799 255 255 255
-0.211 0.169 0.494 255 255 255
-0.951 -1.529 2.135 255 255 255
0.031 0.186 2.653 255 255 255
0.218 -0.798 2.474 255 255 255
0.982 -0.284 1.565 255 255 255
-0.105 0.182 0.497 255 255 255
0.661 -0.96 1.578 255 255 255
-0.651 -1.249 2.243 255 255 255
0.369 -1.004 2.432 255 255 255
0.968 -0.503 1.55 0 0 0
0.678 0.284 1.944 255 255 255
-0.454 0.002 0.808 0 0 0
-0.027 0.099 0.298 255 255 255
-0.231 -0.109 1.332 255 255 255
0.79 -0.664 1.66 255 255 255
-0.475 0.033 0.691 255 255 255
-0.457 -0.25 1.866 255 255 255
0.944 -0.237 1.462 0 0 0
-0.368 -0.093 1.229 255 255 255
0.947 -0.565 1.676 255 255 255
-1.151 -0.611 2.225 0 0 0
-0.079 -0.129 2.627 255 255 255
0.223 -0.924 2.439 255 255 255
-0.124 0.194 0.485 255 255 255
-0.756 -0.935 2.183 255 255 255
0.457 -0.685 2.529 255 255 255
0.919 -0.398 1.812 0 0 0
0.248 -1.086 2.391 255 255 255
-0.22 0.115 0.447 255 255 255
0.581 -0.63 2.381 255 255 255
0.492 0.39 2.218 255 255 255
-0.904 -1.437 2.168 255 255 255
0.625 1.05 1.932 255 255 255
-0.627 -1.266 2.245 255 255 255
0.513 -0.522 2.414 255 255 255
0.378 -0.175 2.663 255 255 255
-0.933 -1.591 2.121 0 0 0
-0.275 0.035 0.84 255 255 255
-0.071 0.23 0.476 255 255 255
0.03 -0.618 2.505 255 255 255
0.811 0.33 1.969 255 255 255
-0.021 0.111 0.291 255 255 255
0.951 -0.737 1.647 255 255 255
0.763 0.116 1.9 255 255 255
0.317 0.708 1.398 255 255 255
-0.123 0.223 0.469 0 0 0
0.574 0.335 1.95 255 255 255
-0.215 0.136 0.509 0 0 0
-0.074 0.242 0.47 255 255 255
-0.196 -1.27 2.293 255 255 255
-0.666 -1.2 2.259 255 255 255
0.616 -0.734 2.179 255 255 255
-0.108 0.153 0.531 255 255 255
-0.155 0.256 0.456 255 255 255
0.626 -1.085 2.242 255 255 255
-0.113 0.161 0.516 255 255 255
0.955 -0.347 1.647 0 0 0
0.257 -0.56 2.541 255 255 255
-0.077 0.095 0.719 255 255 255
-0.207 0.054 0.752 255 255 255
-0.501 -0.386 1.898 255 255 255
0.661 0.418 1.981 255 255 255
0.572 -0.692 1.685 0 0 0
-0.617 -1.265 2.246 255 255 255
0.409 -1.471 2.297 255 255 255
0.651 0.33 1.96 255 255 255
0.945 -0.423 1.69 255 255 255
0.115 0.169 2.643 255 255 255
-0.413 -0.894 2.371 255 255 255
-0.381 -1.335 2.253 255 255 255
0.725 -1.465 2.333 255 255 255
0.614 0.333 1.955 255 255 255
-0.29 -0.201 1.671 255 255 255
-0.163 0.18 0.488 255 255 255
-0.202 0.138 0.512 255 255 255
0.73 0.214 1.923 255 255 255
0.085 -1.37 2.29 255 255 255
0.954 0.06 1.564 255 255 255
-0.171 0.189 0.481 255 255 255
-0.631 -1.476 2.179 255 255 255
-0.697 -0.671 2.268 255 255 255
1.065 -0.459 1.513 255 255 255
0.582 -0.209 2.352 255 255 255
0.799 0.334 1.973 255 255 255
-0.183 0.224 0.457 255 255 255
0.527 -0.487 2.413 255 255 255
-1.098 -0.218 1.56 0 0 0
-0.229 0.108 0.454 255 255 255
-0.075 -0.024 1.254 255 255 255
-1.078 -0.717 2.205 255 255 255
-0.106 0 1.056 255 255 255
0.356 -0.67 2.526 255 255 255
0.384 0.489 1.932 255 255 255
0.551 0.093 1.886 255 255 255
0.843 0.069 1.88 255 255 255
0.812 -0.498 1.708 255 255 255
0.164 0.155 2.667 255 255 255
0.156 -1.121 2.372 255 255 255
-0.173 0.05 0.792 255 255 255
0.647 -0.704 1.634 255 255 255
-0.14 0.229 0.46 255 255 255
0.367 -0.615 2.541 255 255 255
-0.136 -0.17 2.607 0 0 0
-0.203 -0.119 1.384 255 255 255
0.792 -0.187 1.81 255 255 255
-0.027 0.062 1.099 255 255 255
0.632 0.694 1.512 255 255 255
0.303 -0.111 2.673 255 255 255
0.346 0.538 1.803 255 255 255
0.603 0.475 1.64 255 255 255
0.954 -0.086 1.636 255 255 255
-0.21 -0.561 2.349 0 0 0
-0.143 0.067 0.701 255 255 255
0.05 -1.244 2.328 255 255 255
0.708 0.643 1.698 255 255 255
-0.095 0.052 0.807 255 255 255
0.805 -1.702 2.276 0 0 0
-0.52 -1.237 2.265 255 255 255
0.03 -0.933 2.413 255 255 255
-1.266 -1.18 2.2 255 255 255
-0.388 -0.585 2.195 255 255 255
0.751 0.219 1.932 255 255 255
0.254 -0.881 2.457 255 255 255
0.494 -0.758 2.513 255 255 255
0.02 0.105 0.3 255 255 255
0.203 -0.004 2.697 255 255 255
-0.608 -0.142 1.174 255 255 255
0.215 -0.604 2.527 255 255 255
-0.423 -0.123 1.299 255 255 255
0.959 0.384 1.714 255 255 255
0.946 -0.586 1.677 255 255 255
0.946 0.345 1.789 255 255 255
-0.276 0.066 0.61 0 0 0
-0.126 -1.253 2.309 255 255 255
-0.57 -1.6 2.157 0 0 0
0.943 -0.489 1.708 255 255 255
-0.105 0.221 0.477 0 0 0
0.905 -1.371 1.966 255 255 255
0.779 -0.863 1.601 0 0 0
-0.151 -0.002 1.004 255 255 255
-0.311 -1.649 2.174 0 0 0
0.553 0.527 1.875 255 255 255
0.653 -1.556 2.299 255 255 255
-0.044 0.045 1.056 255 255 255
-0.315 -0.782 2.417 255 255 255
0.903 -1.578 2.141 0 0 0
0.427 -1.531 2.284 255 255 255
0.823 0.251 1.94 255 255 255
-0.289 -0.021 1.044 255 255 255
-0.029 0.082 0.303 255 255 255
-0.198 -0.484 2.508 0 0 0
0.953 -0.102 1.612 255 255 255
0.543 -0.058 2.237 255 255 255
0.945 -0.47 1.691 255 255 255
-0.2 0.181 0.478 255 255 255
-0.649 -0.907 2.202 0 0 0
0.945 -0.398 1.703 255 255 255
0.192 0.395 2.394 255 255 255
0.667 -0.535 2.098 255 255 255
0.24 -1.368 2.311 255 255 255
0.012 0.089 0.306 0 0 0
-0.123 0.249 0.46 255 255 255
-1.502 -0.536 2.2 255 255 255
0.338 -0.815 2.482 255 255 255
0.58 -0.722 2.192 255 255 255
-0.185 0.227 0.451 255 255 255
-0.363 -0.023 1.047 0 0 0
-0.2 0.203 0.467 255 255 255
0.35 0.692 1.458 255 255 255
0.343 -1.214 2.369 255 255 255
-0.128 0.228 0.465 255 255 255
-0.346 -1.62 2.178 0 0 0
-0.335 -1.288 2.271 255 255 255
0.787 -0.417 1.732 255 255 255
-0.191 -1.26 2.296 255 255 255
0.356 0.731 1.326 255 255 255
-0.326 -1.382 2.244 255 255 255
-0.124 0.055 0.778 255 255 255
0.254 -1.164 2.372 255 255 255
0.899 0.169 1.981 255 255 255
-0.203 -0.084 1.28 0 0 0
-0.315 -0.49 2.178 255 255 255
-0.25 -1.182 2.314 255 255 255
-0.102 -0.036 1.21 255 255 255
0.596 0.145 1.898 255 255 255
0.83 -0.13 1.819 255 255 255
0.97 0.032 1.376 255 255 255
0.919 -1.126 1.779 255 255 255
-0.781 -0.646 2.249 0 0 0
-0.006 0.038 2.683 255 255 255
0.198 0.093 2.699 0 0 0
0.592 -1.521 2.308 255 255 255
0.185 -0.442 2.567 255 255 255
-0.031 0.082 0.307 255 255 255
0.93 0.342 1.88 255 255 255
0.955 0.457 1.764 255 255 255
-0.419 0.014 0.802 255 255 255
0.959 0.031 1.51 255 255 255
0.646 -0.504 1.69 255 255 255
0.404 -1.68 2.243 0 0 0
-0.241 -0.07 1.206 255 255 255
0.614 -0.99 1.644 255 255 255
0.187 -1.189 2.354 255 255 255
0.746 -0.753 1.628 255 255 255
-1.128 -0.701 2.206 255 255 255
-0.397 -0.064 1.151 255 255 255
-0.217 0.149 0.506 255 255 255
0.648 -0.056 1.833 255 255 255
0.19 -0.1 2.665 255 255 255
-0.224 0.086 0.676 255 255 255
0.593 0.41 1.974 255 255 255
-0.105 0.247 0.463 255 255 255
-0.519 0.002 0.828 255 255 255
-0.014 0.088 0.295 255 255 255
-0.083 0.201 0.489 255 255 255
0.939 -0.414 1.723 255 255 255
-0.445 -0.005 0.811 255 255 255
-0.208 0.132 0.515 0 0 0
-0.031 -1.266 2.312 255 255 255
-0.385 -1.222 2.287 255 255 255
0.261 0.321 2.416 255 255 255
-0.177 0.149 0.52 255 255 255
-0.166 -0.026 1.092 255 255 255
-0.015 0.106 0.294 255 255 255
-0.193 0.221 0.458 255 255 255
-0.081 0.133 0.582 0 0 0
-0.377 -1.609 2.178 0 0 0
-0.513 -0.72 2.279 255 255 255
-0.302 0.049 0.747 255 255 255
-0.116 -0.868 2.413 255 255 255
-1.199 -1.016 2.106 255 255 255
-0.133 0.241 0.458 255 255 255
0.433 -1.268 2.358 255 255 255
0.648 -0.961 2.245 255 255 255
-0.713 -0.347 1.608 255 255 255
-0.137 0.219 0.472 0 0 0
0.557 0.293 1.923 255 255 255
-0.15 0.236 0.455 255 255 255
-0.292 -0.051 1.158 255 255 255
0.412 -0.306 2.632 255 255 255
0.883 -0.534 1.714 255 255 255
-0.466 -0.011 0.913 0 0 0
-0.262 0.103 0.462 255 255 255
-0.283 -0.383 1.934 255 255 255
0.722 -0.98 1.572 255 255 255
0.261 0.685 1.47 0 0 0
0.328 -0.447 2.583 255 255 255
-0.057 0.249 0.47 255 255 255
0.922 0.221 1.903 255 255 255
-0.578 -0.047 0.878 255 255 255
0.085 -0.728 2.478 255 255 255
0.988 -0.613 1.566 255 255 255
-0.412 -0.615 2.218 255 255 255
-0.166 -0.868 2.411 255 255 255
-0.11 0.22 0.476 0 0 0
0.546 -0.55 2.397 255 255 255
0.624 -0.014 1.847 255 255 255
-0.589 -0.064 1.004 0 0 0
-0.001 0.113 0.292 255 255 255
-0.24 0.169 0.488 255 255 255
0.919 0.136 1.913 255 255 255
0.846 -0.217 1.793 255 255 255
0.594 0.214 1.915 255 255 255
0.651 -0.696 2.16 255 255 255
-0.494 -1.145 2.294 255 255 255
0.931 -0.28 1.796 255 255 255
0.95 0.238 1.651 255 255 255
-0.35 -0.037 0.942 255 255 255
-0.106 0.23 0.468 255 255 255
0.199 0.68 1.483 0 0 0
1.057 -0.341 1.569 255 255 255
-0.926 -1.365 2.18 255 255 255
0.959 0.148 1.493 255 255 255
0.187 0.199 2.613 255 255 255
-1.163 -0.727 2.192 255 255 255
0.744 0.514 1.829 255 255 255
0.618 -0.991 1.645 255 255 255
-0.081 0.229 0.475 255 255 255
-0.345 -1.282 2.271 255 255 255
-1.137 -0.834 2.16 255 255 255
0.364 0.604 1.702 255 255 255
-0.854 -1.638 2.112 255 255 255
-0.056 -1.219 2.326 255 255 255
-0.14 -0.976 2.379 255 255 255
0.933 -0.049 1.787 255 255 255
-0.106 0.081 0.69 0 0 0
-0.595 -1.423 2.203 255 255 255
0.924 -0.17 1.854 255 255 255
0.701 -0.245 1.778 255 255 255
0.177 -0.952 2.427 255 255 255
-0.907 -1.413 2.17 255 255 255
-0.211 0.136 0.51 0 0 0
0.946 0.096 1.677 255 255 255
-0.37 0.013 0.982 255 255 255
-0.843 -1.098 2.163 0 0 0
0.767 -0.462 1.718 255 255 255
-0.825 -1.663 2.115 255 255 255
0.754 -1.729 2.264 255 255 255
-0.017 0.074 0.307 0 0 0
0.191 -0.063 2.678 255 255 255
0.525 -0.304 2.472 255 255 255
-0.185 0.047 0.803 255 255 255
0.607 -0.427 2.116 0 0 0
-0.91 -0.879 2.178 255 255 255
-0.305 -0.304 1.813 0 0 0
-0.149 0.048 0.811 255 255 255
0.794 0.225 1.938 255 255 255
0.666 -0.018 1.849 255 255 255
-1.171 -0.983 2.117 255 255 255
-0.075 0.066 0.778 255 255 255
-0.37 -0.581 2.2 255 255 255
-0.329 0.045 0.778 255 255 255
0.516 -1.38 2.336 255 255 255
-0.799 -0.297 1.579 255 255 255
-0.07 0.182 0.488 0 0 0
0.381 0.509 1.913 255 255 255
-0.147 0.157 0.515 255 255 255
0.153 -0.591 2.522 255 255 255
-0.046 -0.472 2.534 255 255 255
-0.003 0.079 0.304 255 255 255
0.971 -0.123 1.386 255 255 255
0.84 -0.548 1.693 255 255 255
0.622 -0.044 1.83 255 255 255
0.472 0.409 2.278 255 255 255
-0.723 -1.418 2.19 255 255 255
-0.175 -1.041 2.358 255 255 255
-0.233 0.112 0.439 255 255 255
-1.048 -0.223 1.436 255 255 255
0.767 0.141 1.908 255 255 255
-1.269 -0.874 2.135 255 255 255
0.415 0.351 2.133 255 255 255
-0.833 -1.249 2.226 255 255 255
-0.607 -0.154 1.214 255 255 255
-0.071 -1.336 2.286 255 255 255
0.608 -0.427 1.708 255 255 255
-0.209 -0.654 2.378 0 0 0
0.95 0.303 1.717 255 255 255
-0.1 0.139 0.56 255 255 255
0.657 -0.049 1.837 255 255 255
-0.155 -0.008 1.017 255 255 255
0.923 -0.653 1.732 0 0 0
0.537 0.212 2.612 255 255 255
-0.315 -0.98 2.364 255 255 255
-0.235 0.046 0.796 255 255 255
0.291 -0.812 2.477 255 255 255
-0.79 -0.898 2.188 255 255 255
-0.276 -0.388 1.941 255 255 255
0.791 0.294 1.959 255 255 255
-0.633 -0.121 1.077 255 255 255
0.045 -1.422 2.273 255 255 255
-0.731 -0.686 2.261 255 255 255
-0.012 0.095 0.295 255 255 255
0.321 -0.101 2.682 255 255 255
-0.105 0.043 0.846 255 255 255
-0.477 -0.269 1.915 255 255 255
-0.202 0.112 0.516 255 255 255
-0.632 -0.988 2.313 255 255 255
-1.139 -0.986 2.122 255 255 255
-0.573 -0.027 0.874 255 255 255
-0.007 0.104 0.295 255 255 255
-0.084 0.129 0.6 255 255 255
-0.238 0.093 0.665 0 0 0
0.014 -0.883 2.425 255 255 255
-0.031 -1.567 2.225 255 255 255
-0.412 0.026 0.78 255 255 255
-0.137 0.2 0.48 255 255 255
-0.594 0.007 0.891 0 0 0
-0.027 0.073 0.314 0 0 0
-0.226 0.087 0.556 255 255 255
0.203 -0.772 2.477 255 255 255
-0.439 -0.342 1.884 255 255 255
0.851 -1.571 2.313 255 255 255
0.927 -0.035 1.838 255 255 255
-0.194 -0.657 2.429 0 0 0
-1.515 -0.598 2.189 255 255 255
-1.296 -0.74 2.174 255 255 255
0.031 -0.02 2.673 255 255 255
0.952 -0.238 1.67 255 255 255
-0.481 -0.026 0.848 255 255 255
0.939 0.187 1.791 255 255 255
-0.042 0.026 1.164 255 255 255
-0.399 -0.123 1.373 255 255 255
-0.017 0.126 0.303 255 255 255
0.708 -0.528 1.691 255 255 255
-0.442 -0.583 2.166 255 255 255
0.585 -0.148 2.286 255 255 255
0.945 0.186 1.735 255 255 255
0.78 -0.387 1.741 255 255 255
0.105 -0.867 2.44 255 255 255
0.291 0.569 1.759 255 255 255
0.575 -0.589 1.659 255 255 255
-0.761 -1.282 2.225 255 255 255
0.53 -1.517 2.301 255 255 255
-0.099 0.135 0.562 255 255 255
0.812 -0.715 1.648 255 255 255
0.326 0.39 2.063 255 255 255
-0.851 -1.663 2.108 255 255 255
-0.082 0.207 0.488 255 255 255
-0.715 -0.339 1.604 255 255 255
-0.204 0.19 0.473 255 255 255
-0.305 -0.886 2.391 255 255 255
-0.069 0.025 1.044 255 255 255
0.134 -0.31 2.6 255 255 255
0.635 -0.892 1.572 255 255 255
0.589 0.106 2.249 255 255 255
-1.014 -1.277 2.196 255 255 255
0.55 0.52 1.896 255 255 255
-0.009 0.094 0.296 255 255 255
0.707 0.255 1.94 255 255 255
0.63 0.198 1.91 255 255 255
-0.413 0.007 0.806 255 255 255
-0.093 0.197 0.489 255 255 255
0.499 -0.069 2.701 255 255 255
0.652 -0.547 1.676 255 255 255
-0.223 -0.862 2.274 0 0 0
0.927 -0.007 1.82 255 255 255
0.464 -0.218 2.658 255 255 255
0.636 -1.335 2.361 255 255 255
0.705 -0.625 1.663 255 255 255
0.267 -0.565 2.542 255 255 255
0.055 0.323 2.3 255 255 255
-0.144 0.192 0.482 255 255 255
0.99 -0.315 1.575 255 255 255
-0.482 -0.042 0.982 0 0 0
0.232 0.207 2.65 255 255 255
0.671 0.288 1.948 255 255 255
0.514 -0.882 2.479 255 255 255
0.286 0.609 1.716 0 0 0
-0.171 0.165 0.502 0 0 0
0.671 -0.348 1.741 255 255 255
-0.094 -0.015 1.146 255 255 255
-0.14 0.132 0.565 255 255 255
-1.117 -0.667 2.215 255 255 255
-0.493 -1.063 2.316 255 255 255
0.724 -0.628 1.669 255 255 255
0.228 -1.173 2.367 255 255 255
0.738 -0.675 1.651 255 255 255
-0.091 0.238 0.466 255 255 255
-1.603 -0.459 2.222 0 0 0
-0.634 -0.555 2.316 0 0 0
-0.106 0.227 0.47 0 0 0
-0.026 -1.419 2.268 255 255 255
-0.219 -0.861 2.328 0 0 0
-0.208 -0.887 2.37 0 0 0
0.94 -0.348 1.725 255 255 255
0.045 0.304 2.299 0 0 0
0.105 -0.083 2.661 255 255 255
-0.482 -0.122 1.169 255 255 255
-0.16 -1.077 2.352 255 255 255
-0.048 0.218 0.472 255 255 255
-0.224 -0.847 2.335 0 0 0
-0.327 -0.535 2.19 255 255 255
0.945 -0.103 1.706 255 255 255
-0.15 0.09 0.717 0 0 0
0.449 -1.109 2.41 255 255 255
0.401 -0.332 2.625 255 255 255
-0.458 -0.028 0.83 255 255 255
0.01 0.146 0.318 255 255 255
0.963 0.122 1.449 255 255 255
-0.679 -0.824 2.223 255 255 255
-0.829 -1.452 2.17 255 255 255
0.478 0.648 1.644 255 255 255
0.603 -0.901 2.263 255 255 255
0.965 -0.432 1.581 0 0 0
-0.815 -0.956 2.168 255 255 255
0.752 -0.868 1.594 255 255 255
0.649 -0.508 1.689 255 255 255
-0.668 -0.103 1.081 0 0 0
-0.105 0.123 0.595 255 255 255
-0.131 -0.835 2.424 255 255 255
0.5 -0.015 2.711 255 255 255
-1.169 -0.722 2.192 255 255 255
0.798 0.641 1.714 255 255 255
0.557 -0.017 2.218 255 255 255
0.711 0.547 1.616 255 255 255
-0.134 0.166 0.507 255 255 255
0.799 -0.799 1.622 255 255 255
0.175 0.348 2.44 255 255 255
0.36 0.47 1.979 0 0 0
0.142 -0.126 2.656 255 255 255
0.687 -1.528 2.312 255 255 255
0.696 0.135 1.906 255 255 255
0.129 0.33 2.316 255 255 255
-0.083 0.192 0.495 255 255 255
0.642 0.3 1.951 255 255 255
-0.479 -0.332 1.868 255 255 255
-0.323 -0.29 1.771 0 0 0
-0.779 -1.014 2.151 0 0 0
-0.119 0.196 0.484 255 255 255
0.698 -0.792 2.114 0 0 0
-0.472 -1.358 2.238 255 255 255
-0.013 0.129 0.303 255 255 255
0.726 -0.725 1.637 255 255 255
0.656 0.339 1.963 255 255 255
0.956 -0.234 1.6 255 255 255
-0.464 -1.637 2.159 0 0 0
-0.185 -0.297 1.951 255 255 255
0.485 -1.634 2.267 0 0 0
0.776 -0.126 1.826 255 255 255
-1.031 -1.263 2.2 255 255 255
0.547 0.037 2.195 255 255 255
-0.223 0.149 0.459 0 0 0
-0.007 0.082 0.301 255 255 255
-0.066 -1.311 2.295 255 255 255
-0.205 0.027 0.889 255 255 255
-1.586 -0.452 2.218 0 0 0
-1.44 -0.608 2.193 0 0 0
0.422 0.462 2.11 0 0 0
-0.129 0.233 0.461 255 255 255
-0.593 -0.638 2.296 255 255 255
-0.163 0.191 0.48 255 255 255
0.362 0.445 2.096 255 255 255
-1.294 -0.761 2.175 255 255 255
-0.221 0.189 0.47 255 255 255
-0.003 0.136 0.307 255 255 255
-0.095 0.131 0.579 255 255 255
-0.307 -1.391 2.25 255 255 255
0.492 -0.952 2.458 255 255 255
-0.172 -0.637 2.473 255 255 255
-0.076 0.231 0.476 255 255 255
-0.926 -1.466 2.156 255 255 255
0.891 -1.48 2.2 255 255 255
-0.178 0.11 0.514 255 255 255
0.791 -0.417 1.733 255 255 255
-0.229 0.101 0.479 0 0 0
-0.508 -0.978 2.336 255 255 255
0.08 -0.941 2.418 255 255 255
-0.381 -0.205 1.689 255 255 255
0.06 0.269 2.319 255 255 255
0.105 -0.862 2.441 255 255 255
0.59 -0.688 2.365 255 255 255
-0.417 -1.62 2.169 0 0 0
0.563 -0.508 2.412 255 255 255
-1.318 -0.89 2.132 255 255 255
-0.332 -1.395 2.244 255 255 255
-0.038 0.095 0.306 255 255 255
0.575 -0.557 1.666 255 255 255
0.234 0.702 1.412 255 255 255
0.787 -0.406 1.734 255 255 255
0.935 0.365 1.868 255 255 255
0.526 -0.598 2.517 255 255 255
-1.045 -1.518 2.131 255 255 255
1.059 -0.355 1.564 255 255 255
0.966 0.129 1.446 255 255 255
-0.111 -1.19 2.325 255 255 255
0.177 -0.867 2.452 255 255 255
0.967 -0.176 1.445 255 255 255
0.005 0.066 0.326 255 255 255
0.728 1.077 1.953 255 255 255
-0.99 -1.604 2.114 0 0 0
-0.123 0.106 0.646 255 255 255
0.036 0.305 2.306 0 0 0
-0.612 -0.767 2.25 255 255 255
-0.012 0.072 0.308 0 0 0
0.926 -0.199 1.865 0 0 0
-0.55 -1.605 2.158 0 0 0
-1.048 -0.229 1.43 255 255 255
0.282 0.186 2.718 255 255 255
-0.633 -0.101 1.129 0 0 0
0.647 0.942 1.964 255 255 255
0.567 -0.57 1.697 0 0 0
-0.335 -0.188 1.606 255 255 255
0.843 -0.858 1.606 255 255 255
0.616 0.109 1.883 255 255 255
-0.554 -1.121 2.295 255 255 255
0.716 -0.869 1.587 255 255 255
-0.585 -1.455 2.195 255 255 255
0.341 0.648 1.609 255 255 255
-0.151 0.079 0.695 255 255 255
0.075 -1.334 2.303 255 255 255
0.947 0.171 1.731 255 255 255
0.69 0.688 1.556 0 0 0
-0.263 0.047 0.777 255 255 255
-0.706 -0.96 2.178 0 0 0
-0.237 0.11 0.444 255 255 255
-0.097 -1.609 2.207 0 0 0
-1.007 -0.547 2.188 255 255 255
0.947 0.245 1.717 255 255 255
0.301 -0.832 2.472 255 255 255
-0.011 -1.527 2.235 255 255 255
-0.498 0.024 0.763 0 0 0
-0.191 0.116 0.511 0 0 0
0.651 -0.618 1.658 255 255 255
-0.091 -0.762 2.448 255 255 255
0.962 0.004 1.469 255 255 255
-0.056 0.029 1.084 255 255 255
0.798 -0.465 1.72 255 255 255
-0.244 -0.989 2.363 255 255 255
0.843 -0.696 1.654 255 255 255
-0.914 -0.667 2.237 0 0 0
0.28 0.506 1.963 255 255 255
-0.71 -1.352 2.209 255 255 255
-0.355 -1.273 2.274 255 255 255
0.407 -1.33 2.338 255 255 255
-0.993 -0.741 2.206 255 255 255
0.3 0.715 1.372 255 255 255
0.325 0.178 2.763 255 255 255
-0.277 -0.041 1.128 255 255 255
-0.024 0.077 0.305 0 0 0
-0.178 0.176 0.492 255 255 255
0.949 -0.343 1.669 255 255 255
0.503 -0.146 2.526 255 255 255
-0.438 -1.641 2.158 0 0 0
-0.33 -0.03 0.975 255 255 255
0.536 -1.713 2.242 255 255 255
0.582 -0.292 1.741 255 255 255
-0.711 -0.998 2.165 0 0 0
0.494 -0.717 2.523 255 255 255
-0.49 -1.475 2.201 255 255 255
0.933 -0.306 1.761 255 255 255
-1.016 -1.583 2.116 0 0 0
0.629 0.593 1.713 255 255 255
-0.248 0.074 0.473 255 255 255
0.644 -1.452 2.327 255 255 255
-0.602 0.02 0.831 255 255 255
0.293 -0.329 2.616 255 255 255
-0.155 -0.976 2.378 255 255 255
-0.276 -0.172 1.556 255 255 255
-1.096 -0.988 2.126 255 255 255
-0.5 0.008 0.804 0 0 0
-1.318 -0.796 2.156 255 255 255
-0.246 -0.584 2.32 0 0 0
-0.244 0.1 0.624 255 255 255
0.624 0.982 1.949 255 255 255
0.671 -0.248 1.774 255 255 255
0.572 -0.641 1.698 0 0 0
-0.194 0.179 0.483 255 255 255
0.677 -1.551 2.308 255 255 255
-0.242 -0.13 1.415 255 255 255
-0.392 -0.052 0.927 0 0 0
-0.903 -1.547 2.135 0 0 0
0.426 0.467 1.957 255 255 255
0.966 -0.009 1.443 255 255 255
-0.26 -1.247 2.29 255 255 255
-0.332 0.031 0.857 255 255 255
0.171 -1.132 2.37 255 255 255
0.939 -0.681 1.72 0 0 0
-0.086 0.072 0.701 255 255 255
-0.096 0.228 0.473 0 0 0
-0.338 0.021 0.68 255 255 255
-0.194 -0.01 1.024 0 0 0
-0.141 -1.299 2.293 255 255 255
0.11 -0.917 2.426 255 255 255
0.322 -0.798 2.481 255 255 255
0.186 -1.651 2.232 0 0 0
-0.213 0.129 0.46 255 255 255
-0.103 0.165 0.514 255 255 255
-0.098 0.02 1.001 255 255 255
0.828 -1.721 2.266 255 255 255
0.964 -0.182 1.337 255 255 255
0.603 0.411 1.978 255 255 255
0.569 0.132 1.878 255 255 255
0.157 -0.795 2.468 255 255 255
0.617 -0.18 1.787 255 255 255
-0.586 -1.476 2.187 255 255 255
-0.009 0.093 0.296 255 255 255
0.761 0.643 1.684 255 255 255
0.764 -0.598 1.674 255 255 255
-0.252 -0.848 2.378 0 0 0
0.599 0.289 2.275 255 255 255
-0.362 0.002 0.929 255 255 255
-0.209 0.062 0.704 255 255 255
0.31 -0.522 2.562 255 255 255
-0.154 -1.645 2.188 0 0 0
0.664 -0.337 1.746 255 255 255
-0.955 -1.633 2.097 255 255 255
0.327 -1.032 2.419 255 255 255
-0.214 0.092 0.734 0 0 0
0.592 -1.037 2.266 255 255 255
-0.187 0.076 0.7 255 255 255
0.22 0.691 1.45 255 255 255
0.841 0.291 1.956 255 255 255
-0.219 -0.136 1.45 255 255 255
-0.983 -0.159 1.29 255 255 255
0.762 -1.545 2.314 255 255 255
-0.222 0.108 0.487 255 255 255
0.564 -0.503 2.098 255 255 255
0.963 0.097 1.418 255 255 255
0.237 0.082 2.716 255 255 255
0.002 0.162 0.327 255 255 255
0.758 -0.343 1.754 255 255 255
0.903 -1.507 2.104 0 0 0
0.951 -0.083 1.654 255 255 255
0.62 -0.544 1.676 255 255 255
0.958 0.041 1.496 255 255 255
-0.171 0.201 0.475 255 255 255
0.959 -0.149 1.568 255 255 255
0.542 -0.004 2.252 255 255 255
0.829 0.255 1.942 255 255 255
0.014 -1.052 2.375 255 255 255
-0.62 -1.243 2.248 255 255 255
-0.448 -1.632 2.163 0 0 0
-0.379 -0.58 2.195 255 255 255
0.743 -0.691 1.648 255 255 255
0.105 -1.164 2.355 255 255 255
-0.086 0.136 0.566 0 0 0
-0.578 -0.61 2.304 0 0 0
-0.509 -0.022 0.841 255 255 255
-0.828 -0.524 2.199 255 255 255
-0.777 -0.218 1.535 255 255 255
0.126 -1.247 2.332 255 255 255
-0.037 0.075 0.873 255 255 255
0.613 0.32 1.952 255 255 255
0.818 -0.832 1.615 255 255 255
-1.096 -1.435 2.151 255 255 255
-0.032 0.092 0.833 255 255 255
-0.658 -0.124 1.073 255 255 255
-0.321 0.026 0.878 255 255 255
0.826 -0.5 1.71 255 255 255
0.737 -0.022 1.858 255 255 255
0.826 -0.026 1.853 255 255 255
-0.198 0.007 1.003 255 255 255
0.954 0.054 1.593 255 255 255
-0.231 0.088 0.67 255 255 255
-0.155 0.147 0.537 255 255 255
-0.131 0.236 0.459 255 255 255
-0.232 -0.126 1.406 255 255 255
0.497 -0.937 2.464 255 255 255
0.514 -0.835 2.491 255 255 255
-0.229 0.088 0.672 255 255 255
0.637 -0.978 1.569 255 255 255
-0.271 0.069 0.552 0 0 0
0.204 0.635 1.629 255 255 255
0.937 -0.087 1.758 255 255 255
0.072 -0.32 2.591 255 255 255
0.854 -0.003 1.865 255 255 255
0.582 -0.01 1.83 255 255 255
-0.983 -0.899 2.168 255 255 255
-0.356 -0.052 1.165 0 0 0
-0.59 -0.74 2.264 255 255 255
0.898 -0.251 1.832 255 255 255
-0.28 -0.831 2.405 255 255 255
-0.104 0.063 0.742 255 255 255
0.101 -0.58 2.521 255 255 255
0.946 -0.771 1.682 0 0 0
-0.154 0.216 0.47 0 0 0
0.11 -1.112 2.367 255 255 255
-0.223 0.081 0.488 255 255 255
0.83 -0.692 1.657 255 255 255
0.111 0.521 2.778 255 255 255
0.59 -0.849 1.581 255 255 255
0.745 -0.781 1.616 255 255 255
-0.614 0.028 0.859 255 255 255
-0.221 0.114 0.48 0 0 0
-0.001 -0.933 2.411 255 255 255
-0.248 0.058 0.592 255 255 255
0.567 0.363 2.182 255 255 255
0.23 0.422 2.195 255 255 255
0.55 -0.349 2.464 255 255 255
-0.503 -0.537 2.176 0 0 0
-0.973 -0.745 2.209 255 255 255
-0.159 0.135 0.564 255 255 255
0.945 -0.589 1.675 255 255 255
-0.224 0.11 0.458 255 255 255
0.24 0.667 1.532 255 255 255
0.598 -1.593 2.282 255 255 255
-0.272 -1.405 2.246 255 255 255
0.513 0.486 1.953 0 0 0
0.331 0.537 1.803 255 255 255
0.204 -1.466 2.275 255 255 255
0.448 -0.363 2.617 255 255 255
-0.629 -0.689 2.274 255 255 255
-0.02 0.16 0.326 255 255 255
0.166 -0.311 2.601 255 255 255
0.751 -1.008 1.581 255 255 255
-0.032 0.108 0.295 255 255 255
-0.104 0.101 0.703 0 0 0
0.767 -0.347 1.755 255 255 255
0.455 0.561 1.784 255 255 255
0.69 -0.976 2.246 255 255 255
-0.071 -1.109 2.35 255 255 255
-0.815 -0.789 2.213 255 255 255
-0.026 0.128 0.306 255 255 255
-0.634 -1.107 2.288 255 255 255
0.685 0.467 1.89 255 255 255
0.641 -0.246 1.77 255 255 255
0.161 -0.954 2.42 255 255 255
-0.142 -1.438 2.255 255 255 255
0.264 -0.189 2.647 255 255 255
-0.394 0.069 0.644 255 255 255
0.947 0.041 1.687 255 255 255
-0.857 -1.472 2.163 255 255 255
-0.145 0.223 0.465 0 0 0
-1.179 -0.967 2.127 255 255 255
-0.023 0.124 0.303 255 255 255
-1.123 -1.405 2.157 255 255 255
0.218 0.696 1.431 255 255 255
-0.148 0.159 0.513 255 255 255
0.757 -1.418 2.348 255 255 255
-0.177 -1.465 2.235 255 255 255
0.683 -0.697 1.638 255 255 255
0.952 -0.337 1.659 255 255 255
0.183 0.67 1.518 0 0 0
-0.271 -0.379 1.933 255 255 255
-0.296 -1.626 2.181 0 0 0
-0.296 -1.326 2.266 255 255 255
0.36 -0.432 2.588 255 255 255
-0.166 0.106 0.714 0 0 0
-0.672 -1.211 2.256 255 255 255
0.969 -0.612 1.597 255 255 255
-0.644 -1.07 2.294 255 255 255
-0.319 -0.925 2.378 255 255 255
-0.328 0.059 0.617 0 0 0
-0.379 -1.115 2.319 255 255 255
0.091 -1.325 2.309 255 255 255
-0.531 -1.494 2.193 255 255 255
-0.232 0.108 0.451 255 255 255
-0.169 0.194 0.478 255 255 255
0.653 -0.547 2.096 255 255 255
0.126 0.16 2.654 255 255 255
0.349 -0.452 2.582 255 255 255
0.107 -0.555 2.527 255 255 255
0.607 -0.571 1.666 255 255 255
0.701 -0.154 1.807 255 255 255
-0.006 0.08 0.302 255 255 255
0.939 -0.048 1.746 255 255 255
-0.364 -0.56 2.194 255 255 255
0.977 -0.577 1.518 255 255 255
-0.036 -0.831 2.433 255 255 255
0.307 0.673 1.512 0 0 0
0.678 0.504 1.619 255 255 255
0.954 0.213 1.591 255 255 255
0.236 0.359 2.407 255 255 255
0.699 -0.72 1.631 255 255 255
0.04 -0.652 2.494 255 255 255
0.532 -0.629 2.368 255 255 255
0.92 -0.084 1.898 255 255 255
-1.012 -1.457 2.148 255 255 255
-0.339 -0.965 2.365 255 255 255
0.948 -0.083 1.673 255 255 255
-0.477 -1.336 2.243 255 255 255
-0.147 -0.268 1.973 255 255 255
0.965 -0.195 1.465 0 0 0
0.952 -0.217 1.679 255 255 255
0.009 -0.696 2.479 255 255 255
-0.156 -0.77 2.439 255 255 255
0.139 -0.391 2.575 255 255 255
-0.387 0.018 0.836 255 255 255
-0.314 -0.227 1.706 255 255 255
-0.102 0.169 0.51 255 255 255
-0.016 -0.388 2.561 255 255 255
0.152 -1.287 2.326 255 255 255
-0.581 -0.021 0.875 255 255 255
-0.007 0.089 0.301 255 255 255
0.56 0.228 2.544 255 255 255
0.789 -0.687 2.383 0 0 0
0.599 -0.393 2.445 255 255 255
-0.272 -0.355 1.915 255 255 255
0.438 -0.928 2.462 255 255 255
-0.282 -0.107 1.327 255 255 255
0.231 0.624 1.677 255 255 255
0.349 -0.069 2.694 255 255 255
-1.07 -1.555 2.119 0 0 0
0.306 -0.968 2.433 255 255 255
-0.326 0.06 0.609 0 0 0
-0.001 0.081 2.689 0 0 0
0.921 -0.281 1.565 255 255 255
-0.323 -0.701 2.34 0 0 0
0.642 0.106 1.888 255 255 255
-0.555 -1.202 2.272 255 255 255
0.63 -1.519 2.308 255 255 255
0.542 -1.328 2.351 255 255 255
-0.033 0.08 0.311 255 255 255
-0.253 -0.647 2.33 0 0 0
-0.147 -0.545 2.503 255 255 255
0.241 0.374 2.41 255 255 255
0.626 0.49 1.608 255 255 255
0.947 0.159 1.683 255 255 255
-0.19 -0.97 2.376 255 255 255
0.966 -0.192 1.467 255 255 255
0.003 0.138 0.307 255 255 255
0.007 0.101 0.299 255 255 255
0.957 -0.076 1.568 255 255 255
0.692 0.544 1.626 0 0 0
-1.178 -0.956 2.129 255 255 255
0.759 -0.285 1.773 255 255 255
0.536 0.584 1.819 255 255 255
0.94 -0.49 1.746 0 0 0
-0.188 0.049 0.794 255 255 255
-0.374 -1.5 2.204 255 255 255
-0.208 0.185 0.474 255 255 255
0.951 0.197 1.648 255 255 255
-0.629 -0.158 1.22 255 255 255
0.32 0.562 1.758 255 255 255
0.95 0.026 1.624 255 255 255
-0.684 -0.315 1.616 255 255 255
-1.468 -0.474 2.187 255 255 255
-0.538 -1.581 2.165 0 0 0
0.398 0.339 2.114 255 255 255
0.283 0.399 2.096 255 255 255
-0.164 -0.057 1.205 255 255 255
-0.615 -0.145 1.182 255 255 255
0.264 -0.179 2.651 255 255 255
-0.915 -1.075 2.106 0 0 0
0.95 0.315 1.699 255 255 255
0.924 0.506 1.861 255 255 255
-0.329 -0.88 2.388 255 255 255
0.641 -0.199 1.784 255 255 255
0.253 -0.2 2.646 255 255 255
-0.03 0.076 0.312 0 0 0
-1.373 -0.784 2.148 255 255 255
-0.666 -1.235 2.247 255 255 255
0.597 -0.288 2.45 255 255 255
-1.456 -0.714 2.166 255 255 255
-0.321 0.047 0.762 255 255 255
0.834 -0.662 1.663 255 255 255
-0.203 -0.028 1.083 255 255 255
0.721 0.036 1.872 255 255 255
0.285 0.618 1.709 0 0 0
0.536 0.351 2.355 255 255 255
-0.267 -0.056 1.166 255 255 255
-0.778 -1.162 2.253 255 255 255
0.609 -0.403 1.716 255 255 255
-0.177 0.133 0.59 255 255 255
-0.112 0.156 0.527 255 255 255
0.931 -0.306 1.784 255 255 255
-0.324 -1.004 2.354 255 255 255
-0.569 -1.104 2.295 255 255 255
0.264 -1.041 2.406 255 255 255
0.291 0.548 1.79 255 255 255
-0.516 -1.324 2.238 255 255 255
-0.87 -0.806 2.202 255 255 255
-0.001 -1.204 2.33 255 255 255
-0.006 0.178 0.337 255 255 255
-0.14 -0.902 2.401 255 255 255
0.939 -0.326 1.735 255 255 255
0.951 -0.108 1.654 255 255 255
0.221 0.688 1.458 255 255 255
0.927 -0.409 1.807 0 0 0
0.199 -0.183 2.642 255 255 255
-0.197 -0.041 1.155 255 255 255
0.728 -1.05 2.269 0 0 0
0.597 -0.632 1.644 255 255 255
-0.076 0.037 0.88 255 255 255
-0.548 -0.872 2.223 0 0 0
0.6 0.215 2.285 255 255 255
-0.041 -0.517 2.523 255 255 255
-0.126 0.198 0.482 255 255 255
0.776 -0.134 1.826 255 255 255
-0.952 -0.272 1.538 255 255 255
-0.178 0.231 0.451 255 255 255
0.002 0.064 0.328 255 255 255
-0.141 0.182 0.491 255 255 255
-0.598 -0.052 0.949 0 0 0
-0.232 -0.598 2.316 0 0 0
