ply
format ascii 1.0
comment Created by Open3D
element vertex 1605
property double x
property double y
property double z
property uchar red
property uchar green
property uchar blue
end_header
-0.093 0.242 0.458 255 255 255
0.517 -0.02 2.679 255 255 255
0.686 0.042 1.804 255 255 255
-0.375 -0.809 2.271 255 255 255
0.625 -0.29 2.608 255 255 255
0.01 0.08 0.855 255 255 255
1.059 -0.078 1.494 255 255 255
0.015 0.132 0.3 255 255 255
-0.108 -1.63 2.198 0 0 0
-0.21 0.204 0.465 0 0 0
-0.428 -0.105 1.185 255 255 255
0.062 0.103 0.308 255 255 255
-0.513 -0.055 1.03 0 0 0
-0.076 -1.476 2.237 255 255 255
-0.98 -0.856 2.212 255 255 255
0.712 -0.186 2.473 255 255 255
0.688 -0.638 1.604 0 0 0
1.013 0.399 1.941 255 255 255
0.835 0.439 1.935 255 255 255
-0.251 0.05 0.778 255 255 255
-1.307 -0.816 2.209 255 255 255
0.118 -0.221 2.594 255 255 255
0.282 -0.852 2.434 255 255 255
-0.575 -0.078 1.062 255 255 255
0.824 -1.681 2.23 0 0 0
-0.017 0.112 0.664 255 255 255
0.397 0.713 1.389 255 255 255
0.594 -0.02 2.678 255 255 255
1.046 -0.01 1.708 255 255 255
-0.254 -0.002 1.036 0 0 0
-0.127 -1.425 2.255 255 255 255
0.299 0.191 2.633 255 255 255
0.694 -0.825 2.283 0 0 0
-0.442 -1.262 2.277 255 255 255
-0.134 0.08 0.705 0 0 0
0.375 -0.822 2.449 255 255 255
0.698 -0.887 2.264 0 0 0
-0.519 -0.019 0.898 255 255 255
-0.3 0.017 0.9 255 255 255
0.714 -0.516 2.375 255 255 255
-0.8 -0.765 2.251 255 255 255
1.092 -0.475 1.571 255 255 255
0.029 0.032 1.145 255 255 255
0.749 -0.058 2.041 255 255 255
-0.483 0 0.885 255 255 255
-0.147 0.15 0.52 255 255 255
-0.176 0.137 0.452 0 0 0
-0.974 -0.684 2.264 255 255 255
0.318 -1.029 2.387 255 255 255
-0.097 0.146 0.56 255 255 255
0.056 -0.337 2.565 255 255 255
0.368 -0.004 2.674 255 255 255
-0.439 -1.406 2.239 255 255 255
-0.107 -1.468 2.243 255 255 255
-0.163 0.102 0.527 255 255 255
0.454 0.629 1.672 255 255 255
-0.263 -0.029 0.979 255 255 255
-0.101 0.118 0.62 255 255 255
0.011 0.231 0.434 255 255 255
0.402 -0.25 2.606 255 255 255
0.045 -1.634 2.204 0 0 0
-0.229 0.171 0.491 255 255 255
0.677 0.08 1.811 255 255 255
0.891 -0.853 1.561 255 255 255
-0.757 -0.554 2.223 255 255 255
0.711 0.177 2.451 255 255 255
-0.357 0.09 0.581 255 255 255
1.051 0.068 1.67 255 255 255
-0.021 0.243 0.471 255 255 255
0.912 -0.561 1.644 255 255 255
0.728 -0.524 1.642 255 255 255
0.662 -0.952 2.431 255 255 255
-0.259 -1.073 2.338 255 255 255
0.715 -0.025 1.793 255 255 255
0.66 -0.567 2.36 255 255 255
-0.335 -0.087 1.234 255 255 255
0.546 -0.669 2.499 255 255 255
0.705 -0.038 2.131 255 255 255
-1.23 -1.196 2.262 255 255 255
0.01 0.174 0.35 255 255 255
-0.372 0.034 0.744 255 255 255
-0.171 0.165 0.503 255 255 255
0.727 -0.705 1.596 255 255 255
1.047 -0.033 1.702 255 255 255
0.732 -0.276 2.087 255 255 255
-0.46 -0.799 2.263 255 255 255
-0.111 0.167 0.508 255 255 255
-0.223 -0.382 1.933 255 255 255
-0.056 -1.174 2.33 255 255 255
-0.152 0.193 0.48 255 255 255
-0.031 -0.921 2.396 255 255 255
-0.404 -0.721 2.294 255 255 255
1.026 -1.562 2.208 255 255 255
0.026 0.129 0.296 255 255 255
-0.18 0.129 0.441 0 0 0
-0.969 -1.04 2.16 255 255 255
-0.532 -0.872 2.241 255 255 255
1.042 -0.185 1.751 255 255 255
-0.284 -0.305 1.896 0 0 0
-0.217 -1.415 2.255 255 255 255
0.483 -0.282 2.605 255 255 255
0.406 -0.509 2.538 255 255 255
0.598 0.386 2.261 255 255 255
-0.089 0.13 0.599 0 0 0
-0.233 -0.355 1.917 255 255 255
-0.922 -1.694 2.123 255 255 255
-1.506 -0.53 2.279 255 255 255
0.686 -0.668 1.612 255 255 255
-0.175 0.168 0.5 255 255 255
-0.798 -0.297 1.602 255 255 255
-0.48 -1.606 2.179 0 0 0
0.746 -0.145 2.221 255 255 255
0.679 0.184 2.57 255 255 255
-0.165 0.093 0.699 255 255 255
-0.184 -0.271 1.755 0 0 0
-0.381 -1.225 2.293 255 255 255
-0.142 0.242 0.453 255 255 255
0.641 -1.475 2.278 255 255 255
0.651 -0.041 2.57 255 255 255
-0.09 0.014 0.999 0 0 0
-0.262 -0.669 2.321 0 0 0
0.66 -0.547 2.362 255 255 255
0.282 -1.042 2.38 255 255 255
0.811 -0.09 1.78 255 255 255
0.897 -0.472 1.667 255 255 255
-0.194 -1.649 2.182 0 0 0
1.018 0.408 1.912 255 255 255
0.345 -1.651 2.21 0 0 0
0.648 0.027 2.538 255 255 255
0.974 -0.405 1.688 255 255 255
0.499 0.615 1.689 255 255 255
-0.094 0.107 0.656 255 255 255
0.781 0.57 1.857 255 255 255
-0.07 0.135 0.567 255 255 255
0.939 -0.519 1.653 255 255 255
0.249 -0.544 2.518 255 255 255
-0.179 0.199 0.473 255 255 255
0.374 -0.146 2.635 255 255 255
0.691 0.602 1.818 255 255 255
-0.055 -1.136 2.334 255 255 255
0.753 -0.565 2.357 255 255 255
-0.046 0.137 0.576 255 255 255
-0.206 0.098 0.469 255 255 255
-0.025 -0.015 1.149 255 255 255
-0.706 -0.88 2.216 255 255 255
0.024 0.168 0.323 255 255 255
0.865 0.032 1.822 255 255 255
0.879 -0.635 2.341 255 255 255
-0.558 -0.111 1.102 255 255 255
-0.706 -0.714 2.274 255 255 255
0.001 0.09 0.307 255 255 255
-0.114 0.147 0.561 255 255 255
-0.007 0.128 0.333 255 255 255
0.402 -0.115 2.646 255 255 255
-0.375 -0.031 0.996 0 0 0
0.546 0.089 2.713 255 255 255
-0.51 -0.048 0.98 255 255 255
0.434 -0.413 2.56 255 255 255
-0.229 0.054 0.748 255 255 255
0.075 -1.221 2.318 255 255 255
-0.864 -0.843 2.221 255 255 255
-0.555 -0.273 1.648 255 255 255
-0.282 -0.047 1.18 0 0 0
-1.408 -0.71 2.235 255 255 255
0.67 -0.008 2.23 255 255 255
-0.448 -0.095 1.146 255 255 255
-0.119 0.099 0.757 255 255 255
0.945 -0.285 1.718 255 255 255
-0.941 -0.58 2.268 255 255 255
-0.236 0.012 0.969 255 255 255
-0.209 -0.019 1.056 0 0 0
0.986 -0.177 1.769 255 255 255
-0.584 -0.001 0.81 255 255 255
0.73 -0.07 1.778 255 255 255
0.439 0.713 1.387 255 255 255
-0.922 -1.555 2.173 255 255 255
0.702 0.227 1.869 255 255 255
-0.571 -0.945 2.218 0 0 0
-0.819 -0.975 2.176 255 255 255
-0.556 -0.331 1.715 0 0 0
-0.752 -1.389 2.231 255 255 255
0.721 0.645 1.667 255 255 255
-0.571 -0.983 2.208 0 0 0
0.388 -0.357 2.576 255 255 255
0.592 -0.058 2.668 255 255 255
-0.549 -0.032 0.853 255 255 255
-1.082 -1.533 2.177 255 255 255
0.673 -0.529 2.472 255 255 255
1.038 -0.29 1.583 255 255 255
0.065 0.102 0.307 255 255 255
0.68 -0.191 1.728 255 255 255
-1.037 -1.469 2.194 255 255 255
-0.27 0.106 0.491 255 255 255
-1.176 -0.955 2.184 0 0 0
0.693 0.737 1.6 255 255 255
0.725 0.496 1.549 255 255 255
0.135 -0.881 2.417 255 255 255
0.279 -0.559 2.511 255 255 255
1.022 0.121 1.908 255 255 255
-1.071 -1.548 2.172 255 255 255
0.919 0.202 1.87 255 255 255
0.919 0.1 1.838 255 255 255
-0.808 -1.67 2.149 255 255 255
-0.658 -0.239 1.627 255 255 255
1.062 0.126 1.576 255 255 255
0.693 -1.049 2.395 255 255 255
0.095 -0.94 2.401 255 255 255
-0.836 -1.21 2.267 255 255 255
0.746 -0.248 1.726 255 255 255
-0.182 0.08 0.513 255 255 255
-0.774 -0.296 1.603 255 255 255
-0.31 0.077 0.614 0 0 0
-0.156 0.155 0.518 255 255 255
-0.054 0.162 0.527 255 255 255
-0.185 0.107 0.609 0 0 0
-0.124 0.193 0.484 255 255 255
-0.409 0.064 0.624 255 255 255
-0.118 0.147 0.535 255 255 255
0.73 0.55 1.595 255 255 255
0.703 -0.611 1.611 255 255 255
-0.209 0.18 0.479 255 255 255
-0.304 -1.042 2.341 255 255 255
-0.157 0.074 0.709 255 255 255
-0.551 -0.007 0.891 255 255 255
-0.188 -0.074 1.246 255 255 255
-1.391 -0.435 2.295 0 0 0
-0.092 0.237 0.459 255 255 255
-0.186 -0.237 1.745 0 0 0
0.732 0.981 1.899 255 255 255
0.674 -0.726 2.486 255 255 255
0.37 -0.892 2.431 255 255 255
0.091 -0.486 2.524 255 255 255
0.875 -1.739 2.218 255 255 255
-0.236 0.077 0.534 0 0 0
-0.53 -0.939 2.21 0 0 0
-0.146 0.069 0.709 0 0 0
0.208 -1.485 2.255 255 255 255
1.051 0.179 1.741 255 255 255
-0.542 -0.033 0.884 255 255 255
0.972 -0.714 1.599 255 255 255
0.512 0.423 2.079 255 255 255
-0.528 -1.199 2.292 255 255 255
0.734 -0.858 1.543 255 255 255
-0.288 0.108 0.561 0 0 0
0.037 0.068 0.322 255 255 255
0.771 0.165 1.854 255 255 255
-0.22 0.048 0.616 255 255 255
-0.331 -0.521 2.188 255 255 255
1.054 -0.455 1.635 255 255 255
0.256 -1.031 2.383 255 255 255
-0.013 0.139 0.582 0 0 0
0.029 -1.134 2.342 255 255 255
-0.063 0.227 0.475 0 0 0
0.05 -1.477 2.249 255 255 255
1.039 0.439 1.845 255 255 255
0.256 -1.086 2.366 255 255 255
0.245 -0.484 2.535 255 255 255
0.729 -0.074 1.776 255 255 255
-1.033 -1.697 2.125 255 255 255
0.928 0.512 1.831 255 255 255
-0.183 0.103 0.643 255 255 255
0.947 -0.227 1.736 255 255 255
-0.727 -0.34 1.623 255 255 255
-0.571 -1.653 2.163 0 0 0
-0.06 -0.768 2.418 255 255 255
0.719 -0.161 2.479 255 255 255
1.086 -0.433 1.535 255 255 255
-0.351 -0.863 2.296 0 0 0
0.717 -1.241 2.344 255 255 255
-0.898 -0.24 1.558 255 255 255
0.318 -0.197 2.614 255 255 255
0.518 -0.809 2.462 255 255 255
-0.4 0.068 0.659 0 0 0
-0.541 -0.027 0.886 255 255 255
0.761 -0.169 1.75 255 255 255
0.74 0.937 1.908 255 255 255
-0.899 -1.397 2.221 255 255 255
-0.119 0.137 0.538 0 0 0
-0.036 -0.09 1.38 255 255 255
0.043 0.096 0.297 0 0 0
0.518 -0.764 2.474 255 255 255
0.544 -1.17 2.363 255 255 255
-0.742 -1.319 2.242 255 255 255
0.271 -0.435 2.547 255 255 255
1.104 -0.363 1.511 255 255 255
-0.887 -0.236 1.56 255 255 255
0.687 -0.712 1.603 255 255 255
0.021 0.169 0.325 255 255 255
0.387 -1.344 2.3 255 255 255
-0.174 0.117 0.468 255 255 255
-1.424 -0.795 2.201 255 255 255
-0.367 0.081 0.6 255 255 255
-0.747 -1.388 2.231 255 255 255
0.698 -0.944 2.246 0 0 0
0.256 -0.971 2.401 255 255 255
0.835 -0.041 1.796 255 255 255
-0.125 0.164 0.509 255 255 255
0.556 0.067 2.707 255 255 255
0.145 -0.861 2.423 255 255 255
-0.112 0.025 0.946 255 255 255
0.125 -1.157 2.341 255 255 255
0.916 0.286 1.896 255 255 255
-0.297 0.025 0.907 255 255 255
-0.516 -1.139 2.304 255 255 255
-0.236 0.05 0.783 255 255 255
-0.56 -1.043 2.323 255 255 255
-0.736 -0.691 2.276 0 0 0
0.353 -0.511 2.531 255 255 255
-0.046 -1.421 2.261 255 255 255
0.772 -0.38 1.686 255 255 255
0.575 -0.289 2.608 255 255 255
-0.473 -0.027 0.904 255 255 255
0.453 -0.084 2.659 255 255 255
-0.769 -1.67 2.148 255 255 255
-1.398 -1.085 2.28 255 255 255
-0.156 0.1 0.732 0 0 0
-0.266 0.037 0.642 0 0 0
0.071 -0.362 2.557 255 255 255
0.515 -0.627 2.508 255 255 255
0.73 0.151 2.131 255 255 255
-0.048 0.113 0.66 255 255 255
-1.353 -1.042 2.294 255 255 255
-0.193 0.091 0.476 0 0 0
0.765 -1.513 2.273 255 255 255
0.756 -0.111 1.769 255 255 255
0.588 -0.031 2.677 255 255 255
0.201 -0.263 2.591 255 255 255
-0.007 0.107 0.305 255 255 255
-1.116 -0.303 1.515 255 255 255
-0.349 -0.053 0.955 255 255 255
0.727 0.593 1.725 255 255 255
-1.202 -1.274 2.24 255 255 255
0.753 0.062 1.824 255 255 255
0.888 -0.265 1.73 255 255 255
0.455 -0.282 2.6 255 255 255
-0.028 0.203 0.491 255 255 255
0.17 -0.773 2.449 255 255 255
-0.92 -0.709 2.258 255 255 255
-0.095 0.216 0.475 0 0 0
0.885 -0.184 1.756 255 255 255
0.041 0.127 0.301 255 255 255
0.842 -0.026 1.802 255 255 255
-0.251 -1.26 2.293 255 255 255
0.678 -1.221 2.347 255 255 255
-0.184 0.08 0.543 255 255 255
0.03 -1.646 2.202 0 0 0
0.943 -0.03 1.797 255 255 255
0.055 0.078 0.319 255 255 255
-0.393 -0.033 0.875 255 255 255
0.202 -1.37 2.286 255 255 255
0.785 0.098 1.837 255 255 255
-0.061 0.105 0.717 0 0 0
-0.052 -0.032 1.173 255 255 255
0.847 0.155 1.856 255 255 255
-0.218 0.092 0.477 255 255 255
-0.008 -0.269 1.956 255 255 255
0.035 0.11 0.29 255 255 255
0.675 0.053 1.806 255 255 255
-0.152 0.234 0.452 255 255 255
0.688 -0.458 2.074 255 255 255
-0.088 -0.044 1.189 255 255 255
-0.198 -0.394 1.956 255 255 255
0.714 -0.139 1.757 255 255 255
0.256 -1.542 2.247 255 255 255
0.106 -0.491 2.523 255 255 255
0.723 -0.022 1.792 255 255 255
-0.255 0.132 0.507 255 255 255
-0.044 0.172 0.515 255 255 255
0.169 0.245 2.653 0 0 0
-1.087 -1.116 2.235 0 0 0
-0.03 0.09 0.68 255 255 255
0.213 -1.448 2.267 255 255 255
-0.889 -0.247 1.563 255 255 255
-1.257 -1.133 2.274 255 255 255
0.753 -0.109 2.215 255 255 255
0.147 -1.485 2.248 255 255 255
0.757 0.296 1.894 255 255 255
-0.067 0.246 0.463 255 255 255
-0.976 -1.023 2.169 255 255 255
-0.019 -0.013 1.151 255 255 255
1.059 0.064 1.547 255 255 255
-0.484 -0.908 2.232 0 0 0
0.578 0.634 1.705 0 0 0
-0.001 0.249 0.47 255 255 255
-0.109 0.255 0.46 255 255 255
-0.197 -1.34 2.276 255 255 255
0.636 0.418 2.121 255 255 255
-0.285 -0.004 1.043 0 0 0
0.678 -0.503 1.65 0 0 0
-0.767 -0.323 1.618 255 255 255
0.058 0.108 0.295 255 255 255
-0.037 0.213 0.487 255 255 255
0.626 -0.75 2.484 255 255 255
-0.692 -1.195 2.279 255 255 255
-0.677 -0.904 2.215 255 255 255
0.055 -1.279 2.303 255 255 255
-0.039 0.156 0.538 0 0 0
0.031 0.132 0.298 255 255 255
-0.061 0.231 0.473 255 255 255
-0.137 0.031 0.897 255 255 255
0.095 -1.218 2.322 255 255 255
0.757 -0.167 2.195 0 0 0
-0.54 0.01 0.831 255 255 255
0.227 -0.009 2.663 255 255 255
0.719 0.503 1.578 255 255 255
-0.928 -1.491 2.186 255 255 255
0.791 -0.78 1.571 255 255 255
0.894 0.359 1.92 255 255 255
-0.13 -0.054 1.199 255 255 255
1.033 0.081 1.823 255 255 255
0.029 0.093 0.293 255 255 255
-0.184 0.136 0.445 0 0 0
0.887 -1.417 2.305 255 255 255
0.604 -0.042 2.674 255 255 255
-0.182 0.129 0.439 0 0 0
-0.227 0.173 0.49 255 255 255
0.055 -1.4 2.268 255 255 255
-0.051 -0.015 1.11 255 255 255
0.495 -1.113 2.375 255 255 255
-0.295 0.012 0.914 255 255 255
0.712 0.101 2.456 255 255 255
-0.093 -0.205 1.777 255 255 255
0.978 -0.559 1.642 255 255 255
0.544 0.533 1.841 255 255 255
0.423 0.374 2.062 255 255 255
0.814 -0.582 1.63 255 255 255
-0.189 0.058 0.732 255 255 255
0.869 0.501 1.805 255 255 255
0.575 0.195 2.74 255 255 255
-0.37 0.081 0.598 255 255 255
-0.575 -0.887 2.231 255 255 255
-0.256 0.168 0.499 255 255 255
0.814 0.447 1.938 255 255 255
-0.658 -0.102 1.1 0 0 0
-0.072 0.039 0.878 255 255 255
-0.138 0.225 0.464 0 0 0
0.711 0.596 1.877 0 0 0
-0.332 -0.035 0.955 0 0 0
1.044 -0.254 1.701 255 255 255
0.488 -0.642 2.505 255 255 255
0.218 -0.578 2.506 255 255 255
0.219 -0.161 2.622 255 255 255
-0.654 -0.271 1.634 0 0 0
0.144 -0.232 2.595 255 255 255
0.474 -0.348 2.583 255 255 255
-0.852 -0.132 1.234 255 255 255
-1.009 -1.381 2.219 255 255 255
0.969 -0.209 1.744 255 255 255
-0.758 -0.664 2.284 0 0 0
-1.353 -1.143 2.263 255 255 255
-0.026 -1.281 2.296 255 255 255
0.453 0.529 1.885 255 255 255
-0.19 0.064 0.596 255 255 255
0.923 0.524 1.817 255 255 255
0.738 -0.259 2.051 255 255 255
0.773 0.53 1.937 0 0 0
-0.156 0.148 0.517 255 255 255
-0.041 -1.159 2.334 255 255 255
0.792 -0.339 1.7 255 255 255
-0.138 0.133 0.531 0 0 0
0.854 -0.205 1.745 255 255 255
-0.47 0.04 0.707 255 255 255
0.723 -0.759 2.142 255 255 255
0.609 0.05 2.694 255 255 255
0.267 -0.395 2.558 255 255 255
0.642 -1.331 2.317 255 255 255
-0.239 -1.009 2.358 255 255 255
0.931 -0.485 1.662 255 255 255
-0.923 -1.037 2.153 0 0 0
-0.557 0.006 0.824 0 0 0
-0.085 -0.267 1.91 0 0 0
0.356 -1.455 2.256 255 255 255
0.61 0.411 2.213 255 255 255
0.032 0.114 0.285 255 255 255
0.406 -1.131 2.362 255 255 255
0.662 0.011 2.529 255 255 255
0.933 -1.407 2.31 255 255 255
-0.65 -1.667 2.15 255 255 255
-0.212 0.114 0.458 255 255 255
-0.114 0.182 0.495 255 255 255
0.02 0.11 0.286 255 255 255
0.017 0.054 0.991 255 255 255
-0.638 -0.679 2.289 255 255 255
-0.181 0.037 0.864 255 255 255
-0.001 0.124 0.633 255 255 255
0.288 -1.296 2.312 255 255 255
0.715 0.15 2.343 255 255 255
0.046 0.103 0.295 255 255 255
-0.433 -0.046 0.997 0 0 0
0.806 0.129 1.845 255 255 255
-0.881 -1.278 2.246 255 255 255
-0.206 0.114 0.453 0 0 0
-0.406 -0.038 0.9 255 255 255
0.054 0.137 0.744 255 255 255
0.479 -0.236 2.618 255 255 255
0.823 0.401 1.935 255 255 255
-0.24 -0.351 1.915 255 255 255
0.371 0.667 1.549 255 255 255
-0.089 0.13 0.575 255 255 255
0.996 -1.624 2.249 0 0 0
0.029 0.066 0.322 255 255 255
0.888 -1.036 2.238 0 0 0
0.963 -0.268 1.727 255 255 255
0.694 -1.123 2.378 255 255 255
0.701 -0.249 2.45 255 255 255
-0.181 0.11 0.472 255 255 255
1.043 -0.022 1.743 255 255 255
-0.152 0.058 0.754 255 255 255
-0.635 -0.286 1.621 255 255 255
-0.21 0.072 0.501 255 255 255
-0.52 -0.111 1.143 255 255 255
1.025 -0.262 1.491 255 255 255
-0.036 -1.179 2.327 255 255 255
-0.253 0.066 0.541 0 0 0
0.67 -0.337 2.545 255 255 255
0.48 0.681 1.499 0 0 0
-0.387 -0.554 2.222 255 255 255
-0.246 0.059 0.606 255 255 255
-0.206 0.097 0.47 255 255 255
-0.072 -0.58 2.332 0 0 0
-0.378 -1.377 2.251 255 255 255
0.453 -1.154 2.356 255 255 255
0.414 0.039 2.69 255 255 255
-0.88 -0.118 1.222 0 0 0
-0.161 0 1.03 255 255 255
0.517 -0.901 2.439 255 255 255
-0.102 0.157 0.528 255 255 255
0.583 0.139 2.729 255 255 255
0.735 -0.172 1.745 255 255 255
0.421 0.177 2.661 0 0 0
0.76 -0.301 1.707 255 255 255
0.205 -0.928 2.408 255 255 255
0.282 0.312 2.35 255 255 255
-0.158 0.178 0.493 255 255 255
-0.068 0.15 0.545 255 255 255
-0.133 -0.602 2.319 0 0 0
-0.137 0.073 0.706 0 0 0
-0.021 0.105 0.697 255 255 255
1.03 -0.044 1.861 255 255 255
0.033 0.077 0.303 255 255 255
-0.342 -1.36 2.257 255 255 255
-0.587 -0.049 0.831 0 0 0
-0.554 -0.313 1.675 255 255 255
-0.205 0.095 0.471 255 255 255
-0.192 -0.115 1.368 255 255 255
1.044 -0.329 1.74 0 0 0
0.409 0.723 1.355 255 255 255
-0.084 0.051 0.822 255 255 255
-0.069 -0.032 1.155 255 255 255
0.549 -1.273 2.328 255 255 255
-0.569 -0.129 1.138 255 255 255
0.306 -0.525 2.525 255 255 255
-0.06 -0.831 2.416 255 255 255
-0.083 0.122 0.609 255 255 255
-0.285 -0.037 1.151 0 0 0
-0.543 -0.049 0.885 255 255 255
-0.299 0.006 0.913 255 255 255
-0.012 -0.086 1.447 255 255 255
-0.708 -0.106 1.101 0 0 0
0.871 -1.461 2.293 255 255 255
0.856 0.51 1.813 255 255 255
-0.005 0.143 0.592 0 0 0
-0.165 0.221 0.462 0 0 0
0.499 0.408 2.067 255 255 255
0.039 0.103 0.291 255 255 255
-0.579 -0.059 0.837 255 255 255
0.065 -0.466 2.527 255 255 255
0.041 0.087 0.299 0 0 0
1.018 -1.64 2.235 0 0 0
0.3 0.73 1.334 255 255 255
-1.064 -0.277 1.552 255 255 255
-0.072 0.223 0.477 0 0 0
1.062 -0.133 1.543 255 255 255
1.063 -0.19 1.513 255 255 255
1.047 0.097 1.732 255 255 255
0.11 -0.036 2.654 0 0 0
-0.046 0.118 0.615 0 0 0
-1.094 -0.519 2.216 255 255 255
0.647 0.42 2.127 255 255 255
0.463 -0.105 2.652 255 255 255
-0.053 0.24 0.467 255 255 255
0.679 -0.97 2.302 255 255 255
0.502 0.495 1.905 255 255 255
-0.137 0.025 0.938 255 255 255
-0.107 0.063 0.742 255 255 255
1.072 -0.431 1.585 255 255 255
0.15 -0.813 2.439 255 255 255
0.314 -1.531 2.217 255 255 255
0.216 -1.665 2.211 0 0 0
-0.333 -0.005 0.895 255 255 255
-0.157 0.158 0.517 255 255 255
-0.488 -1.52 2.2 255 255 255
-0.959 -0.938 2.193 255 255 255
0.013 0.14 0.302 255 255 255
-0.171 0.246 0.449 255 255 255
0.267 -1.088 2.369 255 255 255
-0.284 -0.803 2.278 0 0 0
0.861 -0.776 1.577 255 255 255
-0.093 0.078 0.7 0 0 0
-0.162 0.224 0.46 255 255 255
-0.182 -1.46 2.238 255 255 255
-0.121 -0.06 1.215 255 255 255
-0.185 -0.969 2.374 255 255 255
-1.442 -0.606 2.258 255 255 255
-0.343 0.07 0.6 0 0 0
-0.252 0.164 0.504 255 255 255
0.943 -0.163 1.757 255 255 255
-0.314 0.087 0.599 0 0 0
-0.304 0.108 0.56 255 255 255
1.068 -0.173 1.476 255 255 255
-0.35 0.031 0.764 255 255 255
-0.204 0.099 0.47 255 255 255
0.019 0.097 0.294 255 255 255
0.703 -0.273 1.709 255 255 255
-1.412 -0.982 2.3 255 255 255
-0.174 -0.636 2.295 255 255 255
0.316 0.278 2.51 255 255 255
-0.037 0.067 0.745 255 255 255
0.826 -1.482 2.285 255 255 255
0.283 -0.354 2.568 255 255 255
-1.111 -1.333 2.228 255 255 255
-0.188 0.205 0.469 255 255 255
-0.585 -0.636 2.306 255 255 255
0.219 -0.145 2.627 255 255 255
-0.588 -0.148 1.164 255 255 255
0.199 -0.078 2.645 255 255 255
-0.111 -1.208 2.315 255 255 255
0.715 0.91 1.897 255 255 255
-0.165 0.107 0.566 0 0 0
0.319 -1.303 2.31 255 255 255
1.054 0.063 1.616 255 255 255
0.409 0.736 1.313 255 255 255
0.026 0.106 0.29 255 255 255
-0.406 -1.189 2.301 255 255 255
0.018 0.174 0.329 255 255 255
-0.049 0.153 0.541 255 255 255
-0.111 0.058 0.778 255 255 255
0.82 -0.026 1.8 255 255 255
0.726 -0.88 2.254 0 0 0
-0.365 0.004 0.915 255 255 255
-0.219 0.174 0.49 255 255 255
0.805 -0.719 2.103 255 255 255
-0.353 0.029 0.79 255 255 255
0.231 -1.556 2.251 255 255 255
0.512 0.475 2.075 255 255 255
-0.035 0.074 0.699 255 255 255
-0.164 0.169 0.501 255 255 255
0.761 -0.369 2.079 255 255 255
-1.303 -1.169 2.256 255 255 255
0.73 -0.186 1.744 255 255 255
0.099 -0.119 2.625 255 255 255
-0.423 -0.016 0.867 0 0 0
0.334 -0.87 2.434 255 255 255
-0.421 -0.001 0.834 0 0 0
-0.439 0.053 0.687 255 255 255
0.505 -1.592 2.244 255 255 255
0.131 -0.591 2.5 255 255 255
0.01 0.038 1.036 255 255 255
0.7 -1.436 2.29 255 255 255
0.732 -0.387 2.089 0 0 0
0.848 0.449 1.797 255 255 255
-0.201 0.074 0.488 255 255 255
-0.308 -0.799 2.28 0 0 0
1.009 -0.459 1.708 255 255 255
0.328 -1.177 2.343 255 255 255
0.925 -0.621 1.629 255 255 255
0.227 -1.35 2.292 255 255 255
0.598 -0.545 2.535 255 255 255
-1.081 -0.694 2.252 255 255 255
0.361 -0.666 2.489 255 255 255
1.056 0.151 1.674 255 255 255
0.781 0.165 1.856 255 255 255
0.529 0.61 1.703 255 255 255
-0.889 -0.717 2.26 255 255 255
1.053 0.269 1.778 255 255 255
-0.344 -0.056 1.109 0 0 0
0.73 -0.641 2.337 255 255 255
-1.17 -1.246 2.245 255 255 255
0.636 0.527 1.86 255 255 255
-0.388 -1.636 2.176 0 0 0
-0.623 -1.132 2.296 255 255 255
0.417 0.659 1.586 255 255 255
-0.263 0.161 0.506 255 255 255
-0.019 0.09 0.728 0 0 0
0.505 -1 2.404 255 255 255
-0.381 -0.073 1.11 255 255 255
0.801 0.303 1.903 255 255 255
-0.161 0.177 0.496 255 255 255
0.371 0.722 1.354 255 255 255
0.473 0.543 1.815 255 255 255
0.054 0.13 0.305 255 255 255
0.125 -0.807 2.437 255 255 255
0.335 -1.356 2.294 255 255 255
1.062 -0.336 1.516 0 0 0
0.711 0.173 2.263 255 255 255
-0.998 -1.243 2.255 255 255 255
0.495 -0.899 2.435 255 255 255
0.858 -0.949 2.208 255 255 255
0.667 0.65 1.649 255 255 255
-0.24 0.067 0.623 0 0 0
0.399 0.172 2.662 255 255 255
-0.006 -1.468 2.245 255 255 255
1.093 -0.456 1.57 255 255 255
-0.576 -0.798 2.257 255 255 255
-0.071 0.202 0.485 255 255 255
-0.26 -0.522 2.201 0 0 0
-0.644 -0.614 2.288 0 0 0
0.769 -1.324 2.325 255 255 255
0.071 -0.332 2.564 255 255 255
-0.081 0.203 0.483 255 255 255
0.014 0.097 0.296 255 255 255
0.262 -0.812 2.446 255 255 255
-0.17 -1.06 2.352 255 255 255
-0.138 0.116 0.652 255 255 255
-0.103 0.223 0.471 0 0 0
0.781 -0.159 1.756 255 255 255
0.373 -0.357 2.576 255 255 255
0.717 -0.663 1.601 255 255 255
0.924 0.08 1.831 255 255 255
0.705 -0.737 2.153 255 255 255
0.913 -0.624 2.331 0 0 0
0.055 -0.535 2.509 255 255 255
-0.199 0.06 0.603 255 255 255
0.549 -0.929 2.434 255 255 255
1.033 0.009 1.859 255 255 255
-0.032 -0.317 1.934 255 255 255
0.629 0.622 1.742 255 255 255
-0.165 -1.106 2.341 255 255 255
0.788 0.189 1.861 255 255 255
1.096 -0.319 1.507 255 255 255
0.589 -0.33 2.593 255 255 255
-0.547 -0.999 2.275 0 0 0
-0.513 -0.881 2.24 255 255 255
0.412 -0.733 2.474 255 255 255
-0.638 -1.169 2.284 255 255 255
0.002 0.033 1.029 255 255 255
0.575 0.621 1.725 255 255 255
0.261 0.715 1.378 255 255 255
1.068 -0.576 1.61 255 255 255
-1.327 -1.038 2.293 255 255 255
-0.109 0.222 0.47 0 0 0
0.277 0.033 2.679 255 255 255
-0.559 -0.71 2.286 255 255 255
0.685 1.002 1.903 255 255 255
-1.107 -1.267 2.245 255 255 255
-0.175 0.139 0.504 255 255 255
-0.058 0.022 0.973 0 0 0
-0.1 0.13 0.588 255 255 255
-0.618 -0.678 2.29 255 255 255
-0.164 -0.039 1.153 255 255 255
0.038 0.118 0.291 255 255 255
0.694 0.314 2.383 255 255 255
-0.54 0.017 0.914 0 0 0
-0.01 0.21 0.481 255 255 255
-0.057 0 1.05 255 255 255
-0.561 -0.109 1.107 255 255 255
0.188 0.304 2.294 0 0 0
0.276 -1.532 2.251 255 255 255
0.523 -1.261 2.333 255 255 255
-0.285 -0.091 1.255 255 255 255
0.003 0.249 0.462 255 255 255
-1.569 -0.472 2.29 0 0 0
0.7 0.136 2.363 255 255 255
0.644 0.117 2.724 255 255 255
0.992 0.053 1.853 255 255 255
0.06 0.095 0.311 255 255 255
-0.185 -0.822 2.415 255 255 255
-0.109 0.129 0.586 255 255 255
0.822 -0.427 1.678 255 255 255
0.293 -0.156 2.626 255 255 255
1.061 0.092 1.529 255 255 255
-0.713 -0.663 2.29 0 0 0
-0.589 -0.314 2.075 255 255 255
-0.388 -0.078 1.122 255 255 255
1.049 -0.398 1.683 255 255 255
0.204 -0.388 2.553 255 255 255
0.091 -1.635 2.205 0 0 0
0.009 0.117 0.686 255 255 255
0.126 -0.057 2.646 255 255 255
0.549 0.286 2.42 255 255 255
0.21 -0.093 2.639 255 255 255
-0.338 -0.588 2.197 255 255 255
-0.833 -0.266 1.594 255 255 255
1.056 -0.376 1.621 255 255 255
-1.037 -0.725 2.247 255 255 255
0.73 -0.143 2.049 255 255 255
-0.06 -0.874 2.37 0 0 0
-0.335 -1.517 2.214 255 255 255
-0.422 -0.785 2.27 255 255 255
-0.028 -0.217 1.991 255 255 255
-0.183 0.158 0.479 0 0 0
-0.034 -0.033 1.194 255 255 255
-0.005 0.126 0.32 255 255 255
-0.628 -1.503 2.201 255 255 255
0.818 -0.586 1.629 255 255 255
0.195 -0.298 2.58 255 255 255
0.676 -0.07 2.5 255 255 255
-0.401 -0.067 1.015 255 255 255
-1.134 -0.605 2.274 0 0 0
0.04 0.181 0.335 255 255 255
-0.15 0.234 0.454 255 255 255
-0.175 -0.4 1.968 255 255 255
-0.133 -1.645 2.189 0 0 0
0.024 0.115 0.286 255 255 255
0.038 0.112 0.287 255 255 255
-0.218 0.043 0.832 255 255 255
-0.351 0.069 0.599 255 255 255
0.505 -1.431 2.283 255 255 255
-0.391 -1.213 2.293 255 255 255
0.413 -0.105 2.648 255 255 255
-0.117 0.138 0.57 255 255 255
0.772 0.49 1.929 255 255 255
-0.021 0.241 0.472 255 255 255
-0.912 -1.674 2.137 255 255 255
-0.019 0.103 0.706 255 255 255
-0.282 -0.134 1.453 255 255 255
0.221 -1.619 2.224 0 0 0
0.09 -1.166 2.335 255 255 255
0.5 -1.108 2.376 255 255 255
-1.42 -0.785 2.206 255 255 255
0.681 0.376 2.048 255 255 255
-0.004 0.106 0.304 255 255 255
-0.422 -0.865 2.25 0 0 0
-1.033 -1.154 2.258 0 0 0
0.06 -1.273 2.303 255 255 255
-0.107 0.091 0.718 255 255 255
-0.255 0.044 0.633 0 0 0
0.635 -1.048 2.404 255 255 255
0.688 0.408 2.08 255 255 255
0.24 0.039 2.682 255 255 255
0.457 -0.209 2.619 255 255 255
0.246 -0.815 2.441 255 255 255
-0.028 -0.286 1.965 255 255 255
-0.024 0.142 0.578 0 0 0
-0.417 0.031 0.729 255 255 255
-0.288 -0.16 1.531 255 255 255
-0.031 0.214 0.487 255 255 255
-0.174 0.15 0.513 255 255 255
-0.181 0.235 0.449 255 255 255
-1.361 -1.097 2.28 255 255 255
0.096 -1.524 2.239 255 255 255
0.49 0.585 1.705 255 255 255
1.061 -0.483 1.618 255 255 255
-0.105 0.205 0.48 255 255 255
0.585 -1.135 2.37 255 255 255
0.686 -0.575 1.624 0 0 0
-0.904 -0.844 2.228 255 255 255
0.681 0.945 1.908 255 255 255
-0.703 -1.011 2.185 255 255 255
0.303 -0.804 2.451 255 255 255
-1.09 -1.009 2.168 0 0 0
1.056 0.111 1.64 255 255 255
-0.193 0.09 0.476 255 255 255
0.973 -0.486 1.664 255 255 255
0.368 0.676 1.518 0 0 0
1.061 -0.313 1.601 0 0 0
0.521 0.559 1.753 255 255 255
0.226 -1.198 2.334 255 255 255
-0.399 -1.621 2.183 0 0 0
-0.22 0.149 0.468 255 255 255
-0.095 0.004 1.009 0 0 0
0.516 0.633 1.692 0 0 0
0.495 -0.868 2.442 255 255 255
0.697 0.099 2.518 255 255 255
-0.957 -0.233 1.475 255 255 255
-0.282 -0.055 1.2 0 0 0
-0.185 0.197 0.472 255 255 255
0.176 -1.305 2.303 255 255 255
0.219 -1.542 2.24 255 255 255
0.761 -0.711 1.589 255 255 255
-0.189 -1.649 2.183 0 0 0
0.055 0.13 0.767 255 255 255
0.382 0.666 1.554 255 255 255
-0.396 -0.689 2.307 255 255 255
0.371 -1.271 2.325 255 255 255
-0.11 0.242 0.456 255 255 255
-0.168 0.037 0.868 255 255 255
0.353 0.033 2.683 255 255 255
-0.252 0.129 0.519 0 0 0
0.686 -1.279 2.339 255 255 255
-0.296 0.108 0.562 255 255 255
0.526 -1.392 2.299 255 255 255
-0.528 -0.636 2.316 255 255 255
0.014 0.07 0.322 255 255 255
0.458 -0.53 2.533 255 255 255
-0.258 0.122 0.483 255 255 255
0 0.041 0.894 255 255 255
-0.388 -0.286 1.911 255 255 255
-0.128 0.192 0.485 255 255 255
1.059 -0.23 1.592 255 255 255
0.044 0.116 0.793 255 255 255
0.254 -0.588 2.505 255 255 255
1.064 -0.204 1.507 255 255 255
0.172 -0.502 2.524 255 255 255
-0.596 -0.478 2.356 0 0 0
0.704 -0.102 2.276 255 255 255
-0.143 0.144 0.521 0 0 0
-0.755 -0.739 2.261 255 255 255
-0.176 0.15 0.47 255 255 255
0.196 -0.754 2.455 255 255 255
-1.298 -0.7 2.241 255 255 255
0.404 0.177 2.658 255 255 255
0.788 0.032 1.816 255 255 255
-0.003 0.099 0.304 255 255 255
-0.161 0.108 0.58 0 0 0
-0.768 -0.982 2.191 255 255 255
-0.081 -0.748 2.308 0 0 0
1.024 0.313 1.964 255 255 255
0.476 0.039 2.696 255 255 255
-0.162 0.101 0.674 0 0 0
0.702 -1.065 2.246 255 255 255
0.466 0.663 1.567 255 255 255
-0.179 0.076 0.552 255 255 255
-0.271 -1.636 2.187 0 0 0
0.689 -0.03 2.168 255 255 255
0.256 -0.881 2.425 255 255 255
-0.172 0.136 0.49 255 255 255
-0.025 0.236 0.474 255 255 255
0.925 -0.577 1.64 255 255 255
0.241 -1.025 2.383 255 255 255
0.68 -0.632 1.657 0 0 0
-1.079 -0.747 2.237 255 255 255
0.765 -0.007 1.803 255 255 255
0.665 -0.101 2.645 255 255 255
-1.348 -0.728 2.225 255 255 255
-0.512 -0.148 1.24 255 255 255
0.573 -0.732 2.487 255 255 255
-1.284 -0.889 2.193 0 0 0
-1.171 -0.821 2.208 255 255 255
-0.552 -0.007 0.889 255 255 255
0.911 -0.733 1.596 255 255 255
0.234 0.241 2.607 0 0 0
-0.318 0.018 0.872 255 255 255
-0.117 -1.572 2.212 255 255 255
-1.365 -1.065 2.286 255 255 255
0.017 0.136 0.301 0 0 0
0.195 -1.165 2.341 255 255 255
0.24 0.044 2.681 255 255 255
0.672 -0.352 2.429 0 0 0
-0.082 0.21 0.479 255 255 255
-0.337 0.092 0.593 0 0 0
0.02 -1.547 2.226 255 255 255
-0.108 0.17 0.506 255 255 255
0.747 0.465 1.94 255 255 255
-0.235 -0.567 2.213 255 255 255
0.317 0.714 1.382 255 255 255
0.388 -0.597 2.51 255 255 255
-1.455 -0.682 2.233 255 255 255
0.021 0.01 1.192 255 255 255
0.893 -0.159 1.765 255 255 255
-0.084 0.164 0.516 255 255 255
0.54 -0.72 2.487 255 255 255
-0.215 -0.509 2.207 0 0 0
-0.186 0.09 0.479 255 255 255
0.4 -1.141 2.358 255 255 255
0.14 -1.01 2.381 255 255 255
0.835 0.158 1.858 255 255 255
0.046 -0.144 2.614 0 0 0
0.379 -1.083 2.374 255 255 255
-0.128 0.233 0.458 255 255 255
0.009 -1.443 2.256 255 255 255
-0.008 -0.221 1.988 255 255 255
-0.464 -0.131 1.236 255 255 255
0.748 -0.055 1.783 255 255 255
-0.137 0.237 0.454 255 255 255
0.204 0.275 2.632 0 0 0
0.925 -0.551 1.645 255 255 255
1.038 -0.25 1.497 0 0 0
-0.275 -1.187 2.309 255 255 255
-0.33 -0.031 0.949 0 0 0
-0.127 0.132 0.6 255 255 255
0.256 -1.101 2.361 255 255 255
0.528 -0.231 2.62 255 255 255
-1.2 -1.23 2.252 255 255 255
-0.596 -0.493 2.355 0 0 0
0.008 0.113 0.696 255 255 255
0.687 0.72 1.58 0 0 0
-0.189 0.065 0.592 255 255 255
-0.106 0.129 0.59 255 255 255
0.301 0.382 2.456 255 255 255
0.033 0.129 0.3 255 255 255
0.16 -1.245 2.315 255 255 255
1.031 0.001 1.864 255 255 255
-0.973 -1.643 2.147 0 0 0
-0.428 -0.087 1.135 0 0 0
-0.369 0.053 0.712 255 255 255
0.504 0.668 1.563 255 255 255
0.672 0.984 1.91 255 255 255
0.936 -0.478 1.663 255 255 255
-0.633 -0.54 2.335 0 0 0
1.032 0.131 1.863 255 255 255
0.364 -1.053 2.385 255 255 255
-0.215 0.198 0.468 255 255 255
0.749 0.132 1.843 255 255 255
-0.135 -0.886 2.4 255 255 255
-0.168 0.079 0.695 0 0 0
0.546 -1.371 2.303 255 255 255
-0.237 0.102 0.499 255 255 255
-1.134 -0.785 2.224 255 255 255
-0.151 0.133 0.527 0 0 0
0.908 -0.783 1.576 255 255 255
0.699 -0.491 2.06 255 255 255
-0.775 -0.336 1.608 255 255 255
0.11 -1.338 2.287 255 255 255
-0.119 0.142 0.529 0 0 0
0.971 -0.168 1.759 255 255 255
-0.32 -1.161 2.313 255 255 255
0.775 0.96 1.908 255 255 255
-1.314 -1.206 2.253 255 255 255
1.048 0.336 1.822 255 255 255
-0.01 0.104 0.313 255 255 255
-0.337 -1.329 2.268 255 255 255
0.787 -0.371 1.692 255 255 255
0.688 -0.095 2.242 255 255 255
0.023 0.096 0.292 255 255 255
-0.294 -0.496 2.186 0 0 0
-0.145 -0.129 1.447 255 255 255
0.034 0.145 0.306 255 255 255
0.862 0.075 1.834 255 255 255
0.729 -1.031 1.58 255 255 255
0.431 0.605 1.707 255 255 255
-0.206 -0.052 1.18 255 255 255
0.704 -0.474 2.063 255 255 255
-1.367 -1.061 2.291 255 255 255
0.366 0.129 2.658 0 0 0
-0.841 -1.498 2.189 255 255 255
0.905 -1.659 2.241 0 0 0
-0.057 0.007 1.021 255 255 255
-0.782 -0.876 2.215 255 255 255
0.683 0.369 1.91 255 255 255
-0.015 0.124 0.632 255 255 255
1.048 -0.033 1.688 255 255 255
1.051 -0.07 1.663 255 255 255
0.501 -0.945 2.424 255 255 255
0.62 -1.291 2.328 255 255 255
-0.217 0.043 0.832 255 255 255
-0.214 -0.761 2.295 0 0 0
0.251 -0.926 2.413 255 255 255
0.445 0.663 1.571 255 255 255
0.807 0.255 1.88 255 255 255
-0.123 0.118 0.554 255 255 255
-0.327 0.107 0.543 255 255 255
-0.568 -0.052 0.832 255 255 255
1.003 -0.244 1.769 255 255 255
-0.32 -1.177 2.309 255 255 255
0.746 -1.024 1.595 255 255 255
-1.077 -1.257 2.247 255 255 255
-0.581 -0.153 1.216 255 255 255
-0.185 -0.915 2.39 255 255 255
0.629 0.484 1.939 0 0 0
-1.208 -0.792 2.22 255 255 255
0.664 -0.026 2.243 255 255 255
-0.019 0.197 0.495 0 0 0
-0.427 0.038 0.703 255 255 255
0.688 -1.065 2.392 255 255 255
-0.12 -0.095 1.328 255 255 255
-0.062 0.254 0.466 255 255 255
-0.157 0.154 0.518 255 255 255
0.459 -0.328 2.587 255 255 255
-0.797 -1.201 2.269 255 255 255
0.025 0.075 0.304 255 255 255
0.826 0.043 1.823 255 255 255
-1.276 -0.757 2.222 255 255 255
-1.315 -0.736 2.23 255 255 255
-0.14 -0.881 2.402 255 255 255
0.586 0.491 1.908 255 255 255
0.057 0.099 0.304 255 255 255
-0.144 0.111 0.611 0 0 0
-0.422 -1.557 2.195 255 255 255
-0.273 -0.026 1.111 0 0 0
-0.031 0.259 0.473 255 255 255
-0.198 0.074 0.572 0 0 0
-0.092 0.162 0.515 255 255 255
-0.915 -1.535 2.176 255 255 255
0.676 -1.509 2.273 255 255 255
-0.161 0.118 0.524 255 255 255
-0.72 -1.545 2.186 255 255 255
-0.213 0.086 0.479 0 0 0
0.819 -0.692 2.092 0 0 0
-0.88 -1.488 2.194 255 255 255
0.712 0.154 2.493 255 255 255
0.458 -0.957 2.417 255 255 255
0.85 0.283 1.894 255 255 255
-1.16 -0.695 2.25 255 255 255
-0.442 -0.763 2.279 255 255 255
0.2 0.27 2.64 0 0 0
-0.064 0.233 0.47 255 255 255
-0.016 0.067 0.779 255 255 255
-1.49 -0.519 2.287 255 255 255
1.061 0.057 1.53 255 255 255
0.236 -0.87 2.426 255 255 255
-0.109 0.21 0.477 255 255 255
-0.193 0.058 0.74 255 255 255
-0.168 0.242 0.45 255 255 255
1.042 0.229 1.813 255 255 255
0.699 0.295 2.384 255 255 255
0.821 -0.607 1.622 255 255 255
-0.72 -1.265 2.26 255 255 255
-1.011 -0.882 2.202 255 255 255
-0.06 0.186 0.498 255 255 255
-0.717 -1.153 2.285 255 255 255
-0.143 0.093 0.738 0 0 0
0.103 -0.226 2.592 255 255 255
-0.269 -0.965 2.37 255 255 255
-0.866 -0.825 2.23 255 255 255
-0.21 -1.651 2.184 0 0 0
0.854 -0.068 1.789 255 255 255
-0.106 -0.284 1.948 255 255 255
0.752 0.383 1.928 255 255 255
0.98 -1.646 2.244 0 0 0
-0.29 -0.925 2.38 255 255 255
0.165 -0.928 2.409 255 255 255
-0.176 0.151 0.478 255 255 255
0.381 -0.752 2.469 255 255 255
-0.674 -0.574 2.242 255 255 255
-0.569 -0.088 1.114 255 255 255
-0.046 -0.057 1.262 255 255 255
-0.325 -0.296 1.909 255 255 255
-0.511 -0.005 0.91 0 0 0
-0.333 0.035 0.746 255 255 255
0.495 -0.576 2.522 255 255 255
-0.036 -0.878 2.411 255 255 255
-0.195 0.087 0.477 255 255 255
0.671 -0.349 1.69 255 255 255
-0.3 -1.106 2.331 255 255 255
0.722 0.681 1.569 255 255 255
0.328 0.734 1.324 255 255 255
1.022 0.322 1.968 255 255 255
-0.144 -0.101 1.334 255 255 255
0.61 0.471 2.039 0 0 0
-0.179 0.084 0.491 255 255 255
-0.084 0.161 0.519 255 255 255
0.772 0.012 1.809 255 255 255
0.437 -1.502 2.26 255 255 255
-0.593 -0.051 0.836 0 0 0
-0.175 0.189 0.479 255 255 255
1.04 -0.202 1.77 255 255 255
-0.045 0.115 0.641 255 255 255
-0.501 -1.165 2.299 255 255 255
0.313 -1.055 2.381 255 255 255
-0.276 -1.603 2.198 0 0 0
-0.723 -0.879 2.223 255 255 255
0.009 0.134 0.304 255 255 255
0.865 -0.117 1.773 255 255 255
-0.43 0.058 0.661 255 255 255
0.764 -1.73 2.212 255 255 255
-0.745 -1.549 2.177 255 255 255
0.742 -0.498 2.061 255 255 255
-0.561 -0.867 2.237 255 255 255
1.084 -0.528 1.585 255 255 255
-0.786 -0.225 1.53 255 255 255
-1.35 -0.599 2.264 0 0 0
-0.04 0.203 0.49 255 255 255
-0.155 0.04 0.857 255 255 255
-0.173 0.082 0.679 255 255 255
1.043 0.047 1.75 255 255 255
0.821 -0.319 1.709 255 255 255
-0.006 0.108 0.303 255 255 255
0.18 0.017 2.671 255 255 255
1.051 -0.469 1.698 0 0 0
0.698 -0.231 1.721 255 255 255
1.008 0.444 1.926 255 255 255
-0.18 0.146 0.455 0 0 0
-0.13 0.106 0.531 255 255 255
-0.683 -0.569 2.239 255 255 255
0.722 -0.654 1.606 255 255 255
-0.278 -0.126 1.433 0 0 0
0.967 -1.393 2.311 255 255 255
0.185 -0.303 2.577 255 255 255
0.458 0.684 1.494 0 0 0
-0.435 -0.643 2.317 255 255 255
-0.536 -0.649 2.306 255 255 255
0.553 0.487 1.913 255 255 255
0.803 -0.542 1.642 0 0 0
-0.572 -0.608 2.319 255 255 255
-0.335 -1.015 2.353 255 255 255
-0.356 -0.804 2.274 255 255 255
0.449 0.072 2.701 255 255 255
-0.808 -1.045 2.153 255 255 255
-0.158 0.224 0.461 255 255 255
-0.059 0.161 0.526 255 255 255
1.066 0.183 1.65 255 255 255
0.911 -0.226 1.744 255 255 255
-0.481 -0.023 0.906 255 255 255
0.047 0.104 0.295 0 0 0
-0.021 0.132 0.593 255 255 255
0.024 0.065 0.32 255 255 255
0.601 0.385 2.257 255 255 255
0.267 -0.767 2.458 255 255 255
0.017 0.076 0.306 0 0 0
0.897 -0.125 1.775 255 255 255
-0.208 0.062 0.716 255 255 255
-0.069 0.221 0.477 0 0 0
0.961 0.203 1.87 255 255 255
0.898 -0.026 1.806 255 255 255
-0.163 0.102 0.504 0 0 0
0.014 0.077 0.307 0 0 0
-0.419 -0.999 2.346 255 255 255
-0.659 -0.8 2.249 255 255 255
0.933 -0.359 1.703 255 255 255
0.389 0.702 1.426 255 255 255
-0.125 0.053 0.8 255 255 255
0.037 0.078 0.304 0 0 0
-0.085 0.178 0.501 255 255 255
0.614 0.657 1.566 255 255 255
-0.241 0.116 0.503 255 255 255
-0.014 0.109 0.677 255 255 255
-0.179 0.079 0.561 255 255 255
-0.027 0.118 0.646 255 255 255
-0.922 -0.642 2.277 0 0 0
-0.202 0.117 0.448 255 255 255
-0.546 -0.114 1.116 255 255 255
0.079 -0.963 2.389 255 255 255
-0.196 0.028 0.9 255 255 255
-0.379 -0.042 0.982 0 0 0
-1.06 -0.921 2.19 255 255 255
0.617 -0.444 2.562 255 255 255
-0.119 0.141 0.569 255 255 255
0.705 -0.796 2.29 0 0 0
0.539 -0.371 2.582 255 255 255
-0.701 -0.885 2.216 255 255 255
-1.407 -0.529 2.287 0 0 0
0.49 -0.551 2.529 255 255 255
-0.19 -0.974 2.371 255 255 255
0.375 -1.542 2.247 255 255 255
-0.305 0.111 0.527 255 255 255
-0.015 0.253 0.476 255 255 255
-0.519 -1.006 2.335 255 255 255
-0.574 -1.261 2.268 255 255 255
-0.511 -1.538 2.204 255 255 255
-0.638 -0.879 2.225 255 255 255
1.065 -0.177 1.484 255 255 255
0.512 -0.936 2.429 255 255 255
0.961 -0.13 1.768 255 255 255
0.197 -0.606 2.496 255 255 255
-1.353 -1.026 2.298 255 255 255
-0.312 -0.551 2.182 255 255 255
-0.287 -0.032 0.945 255 255 255
0.531 0.536 1.823 255 255 255
0.916 -0.779 1.574 255 255 255
-0.183 0.104 0.64 0 0 0
0.044 0.087 0.301 0 0 0
-0.063 0.123 0.609 255 255 255
-0.659 -0.962 2.205 255 255 255
-0.644 -1.145 2.294 255 255 255
0.147 0.202 2.649 0 0 0
0.798 -0.06 1.789 255 255 255
-0.048 0.144 0.56 0 0 0
-1.073 -0.258 1.513 255 255 255
-0.966 -1.273 2.251 255 255 255
0.09 -0.629 2.485 255 255 255
0.786 0.628 1.668 255 255 255
-0.104 0.107 0.758 0 0 0
0.966 -0.72 1.595 255 255 255
-0.879 -1.214 2.264 255 255 255
-0.237 0.072 0.534 255 255 255
0.023 0.183 0.335 255 255 255
0.96 0.491 1.861 255 255 255
-0.683 -0.578 2.237 255 255 255
-0.138 -0.146 1.495 255 255 255
0.745 -0.012 2.056 255 255 255
0.005 0.075 0.833 255 255 255
-0.187 0.195 0.473 255 255 255
-0.032 0.227 0.481 0 0 0
0.447 -1.613 2.243 255 255 255
0.639 -1.54 2.266 255 255 255
-1.581 -0.614 2.236 255 255 255
-0.324 -1.02 2.351 255 255 255
0.825 -0.681 2.332 255 255 255
-0.086 -0.544 2.343 0 0 0
0.448 0.708 1.412 255 255 255
0.475 0.63 1.68 255 255 255
1.043 -0.501 1.719 0 0 0
-0.236 0.176 0.487 255 255 255
-0.942 -0.541 2.25 255 255 255
-0.367 -0.087 1.157 255 255 255
-0.6 -0.307 1.635 255 255 255
-0.452 -0.3 1.944 255 255 255
0.014 -1.186 2.33 255 255 255
0.29 0.702 1.427 255 255 255
-0.92 -1.077 2.146 0 0 0
-0.301 -0.094 1.256 255 255 255
-0.22 -1.641 2.189 0 0 0
0.583 -0.784 2.475 255 255 255
-0.756 -0.544 2.221 255 255 255
0.067 -0.191 2.604 255 255 255
0.034 0.153 0.315 255 255 255
-0.087 -1.592 2.212 255 255 255
0.006 0.083 0.307 255 255 255
-0.154 0.178 0.496 255 255 255
-0.526 -0.287 1.745 255 255 255
0.008 0.13 0.305 255 255 255
0.128 -0.277 2.585 255 255 255
-1.033 -1.264 2.25 255 255 255
1.009 0.418 1.951 255 255 255
-0.171 0.018 0.967 255 255 255
0.027 0.168 0.324 255 255 255
0.233 -0.617 2.496 255 255 255
0.848 -0.615 1.624 255 255 255
0.881 -1.746 2.216 255 255 255
-0.98 -0.89 2.203 255 255 255
0.487 0.531 1.872 255 255 255
-0.837 -0.277 1.617 0 0 0
0.751 -0.935 1.537 255 255 255
-0.352 -0.153 1.294 255 255 255
0.478 -1.636 2.222 0 0 0
0.493 0.16 2.728 255 255 255
-0.321 0.074 0.635 0 0 0
0.105 -0.791 2.439 255 255 255
-0.356 -0.065 1.14 255 255 255
-0.372 -1.57 2.2 255 255 255
-0.786 -0.76 2.257 255 255 255
1.055 0.115 1.638 255 255 255
-0.831 -1.613 2.161 0 0 0
0.451 -0.609 2.508 255 255 255
0.189 0.169 2.64 255 255 255
-0.192 0.166 0.49 255 255 255
-0.023 0.257 0.475 255 255 255
-0.754 -0.497 2.224 255 255 255
1.052 -0.099 1.656 255 255 255
0.692 -0.088 1.766 255 255 255
0.093 -0.191 2.603 255 255 255
0.006 0.104 0.296 255 255 255
-1.1 -0.777 2.226 255 255 255
0.257 -0.697 2.474 255 255 255
0.802 0.039 1.819 255 255 255
0.784 -0.522 2.056 255 255 255
0.737 -0.579 2.356 255 255 255
0.777 -0.195 1.745 255 255 255
-0.189 0.181 0.481 255 255 255
1.047 0.417 1.862 255 255 255
-0.479 -0.616 2.324 255 255 255
0.429 0.713 1.389 255 255 255
0.936 0.128 1.843 255 255 255
-0.105 -0.308 1.925 255 255 255
-0.14 -0.543 2.383 0 0 0
-0.248 -0.164 1.541 255 255 255
1.062 -0.515 1.621 255 255 255
0.135 -0.822 2.435 255 255 255
0.458 -1.494 2.264 255 255 255
0.575 -1.016 2.406 255 255 255
0.453 -1.17 2.352 255 255 255
0.914 0.193 1.87 255 255 255
0.655 -0.711 2.498 255 255 255
-0.704 -1.447 2.21 255 255 255
-0.001 -0.741 2.451 255 255 255
-0.132 0.13 0.541 0 0 0
0.345 0.721 1.363 255 255 255
0.02 -1.444 2.257 255 255 255
1.03 0.054 1.879 255 255 255
-0.047 0.245 0.467 255 255 255
0.226 -1.582 2.24 255 255 255
0.004 0.101 0.749 255 255 255
0.005 0.049 0.909 255 255 255
0.397 0.686 1.478 0 0 0
0.739 0.062 1.822 255 255 255
-0.016 -1.117 2.343 255 255 255
1.053 0.074 1.621 255 255 255
0.714 0.111 2.34 255 255 255
0.802 0.456 1.941 255 255 255
1.061 0.111 1.555 255 255 255
0.49 -1.113 2.375 255 255 255
0.693 -0.09 2.224 255 255 255
-0.025 0.141 0.583 255 255 255
-1.3 -0.477 2.239 255 255 255
1.033 0.195 1.843 255 255 255
1.046 0.097 1.746 255 255 255
0.62 -1.516 2.264 255 255 255
-0.301 0.041 0.861 255 255 255
-0.158 0.079 0.708 0 0 0
0.469 0.643 1.653 255 255 255
0.73 -0.301 2.107 255 255 255
-0.142 0.119 0.516 0 0 0
-0.175 0.102 0.495 0 0 0
0.014 0.176 0.337 255 255 255
0.335 -1.335 2.3 255 255 255
0.668 -1.482 2.275 255 255 255
-0.099 0.125 0.614 255 255 255
-0.189 0.07 0.713 255 255 255
-0.934 -1.557 2.173 255 255 255
-0.551 -0.124 1.143 255 255 255
0.839 -0.135 1.765 255 255 255
0.886 -0.041 1.8 255 255 255
0.036 0.148 0.307 255 255 255
0.911 -0.274 1.73 255 255 255
-0.156 0.068 0.711 0 0 0
0.274 -1.39 2.282 255 255 255
0.765 0.109 1.841 255 255 255
-0.684 -1.305 2.251 255 255 255
-0.872 -1.042 2.142 0 0 0
-0.258 0.057 0.622 0 0 0
0.69 0.408 2.129 255 255 255
0.017 0.109 0.29 255 255 255
0.221 0.347 2.297 255 255 255
0.807 -1.694 2.222 255 255 255
-0.042 0.191 0.499 255 255 255
-0.072 0.047 0.84 255 255 255
-0.834 -1.318 2.241 255 255 255
0.673 -0.885 2.448 255 255 255
0.76 -0.594 1.625 255 255 255
0.544 -0.366 2.583 255 255 255
0.776 -0.901 2.227 255 255 255
0.885 0.075 1.834 255 255 255
0.772 -0.9 1.522 255 255 255
-0.901 -1.57 2.17 0 0 0
0.73 -0.468 1.659 255 255 255
0.305 -1.439 2.267 255 255 255
0.533 -0.02 2.679 255 255 255
-0.122 0.189 0.486 255 255 255
0.502 -0.465 2.549 255 255 255
0.854 0.001 1.808 255 255 255
-0.643 -1.498 2.2 255 255 255
-0.22 -1.005 2.363 255 255 255
-0.729 -1.532 2.184 255 255 255
0.753 -0.169 2.17 0 0 0
-1.468 -0.653 2.24 255 255 255
0.794 -0.887 1.539 255 255 255
0.573 -0.763 2.481 255 255 255
-0.897 -0.817 2.23 255 255 255
1.042 -0.403 1.751 0 0 0
0.512 -0.809 2.462 255 255 255
0.446 -0.219 2.614 255 255 255
0.415 -0.352 2.576 255 255 255
-0.298 -0.047 1.175 255 255 255
-0.883 -1.317 2.238 255 255 255
0.924 -0.234 1.742 255 255 255
0.894 -0.114 1.778 255 255 255
1.064 -0.565 1.629 255 255 255
0.819 -0.16 1.756 255 255 255
-0.06 0.062 0.77 255 255 255
0.008 0.084 0.304 255 255 255
0.056 0.111 0.292 255 255 255
-1.06 -0.267 1.54 255 255 255
-0.66 -0.507 2.271 255 255 255
-0.145 0.106 0.536 255 255 255
-0.013 0.129 0.62 255 255 255
-1.448 -0.722 2.225 255 255 255
-0.643 -1.36 2.235 255 255 255
0.675 0.06 2.052 255 255 255
-1.205 -0.803 2.224 255 255 255
-0.288 -0.017 1.063 0 0 0
-0.383 -1.382 2.249 255 255 255
1.05 0.165 1.718 255 255 255
0.325 -1.371 2.289 255 255 255
-0.902 -1.603 2.159 0 0 0
0.174 -0.358 2.56 255 255 255
-0.338 -0.059 0.965 255 255 255
0.598 -0.906 2.441 255 255 255
-0.092 -0.006 1.028 255 255 255
1.078 -0.568 1.59 255 255 255
0.034 -0.892 2.406 255 255 255
-0.031 -0.911 2.398 255 255 255
1.032 -1.462 2.173 255 255 255
1.057 0.08 1.504 255 255 255
-1.316 -0.666 2.246 255 255 255
0.892 -0.236 1.74 255 255 255
0.711 0.303 2.287 255 255 255
0.717 -1.598 2.246 255 255 255
0.652 0.233 2.588 255 255 255
-0.552 -0.019 0.861 255 255 255
-0.955 -1.619 2.157 0 0 0
0.474 -1.462 2.274 255 255 255
0.559 -0.989 2.412 255 255 255
0.044 0.11 0.29 255 255 255
-0.374 0.062 0.671 255 255 255
-0.315 -0.023 0.936 255 255 255
0.504 -1.607 2.236 255 255 255
0.008 0.138 0.308 255 255 255
-0.17 0.168 0.501 255 255 255
-0.454 -0.291 1.937 255 255 255
-0.562 -0.108 1.121 255 255 255
0.02 -1.428 2.263 255 255 255
0.604 -1.315 2.318 255 255 255
0.872 -0.849 1.559 0 0 0
-0.571 -0.655 2.305 255 255 255
-0.171 0.189 0.479 255 255 255
-0.183 0.043 0.838 255 255 255
-0.195 0.122 0.441 0 0 0
-0.167 -0.492 2.218 255 255 255
0.702 0.163 2.403 255 255 255
-0.11 0.169 0.508 0 0 0
-0.139 0.083 0.708 255 255 255
0.72 -0.189 2.309 255 255 255
0.374 -0.301 2.593 255 255 255
-0.389 -0.027 1.008 0 0 0
-0.322 0.082 0.597 255 255 255
-0.342 -0.124 1.268 255 255 255
-0.209 0.208 0.464 0 0 0
-0.082 0.092 0.704 255 255 255
-0.04 0.057 0.806 255 255 255
0.401 -0.923 2.422 255 255 255
-0.044 0.083 0.691 0 0 0
0.637 -1.503 2.271 255 255 255
-0.427 -1.536 2.203 255 255 255
0.509 0.626 1.695 255 255 255
0.34 -1.393 2.282 255 255 255
0.933 -0.366 1.702 255 255 255
-0.166 0.185 0.481 255 255 255
-0.912 -1.07 2.143 0 0 0
0.122 -0.462 2.533 255 255 255
-0.006 0.226 0.487 255 255 255
-0.943 -1.043 2.162 0 0 0
-0.955 -1.051 2.163 0 0 0
-0.22 -0.054 1.186 255 255 255
-1.395 -0.452 2.3 0 0 0
-0.121 0.201 0.481 255 255 255
0.495 0.094 2.709 255 255 255
-0.475 -0.564 2.337 0 0 0
-0.553 -0.27 1.652 255 255 255
0.014 0.112 0.732 255 255 255
-0.016 -0.244 1.976 255 255 255
0.684 0.313 1.894 255 255 255
0.792 -0.007 1.806 255 255 255
0.685 -0.728 2.307 0 0 0
-0.557 -0.85 2.247 255 255 255
0.369 -1.174 2.346 255 255 255
0.854 0.527 1.785 255 255 255
-0.774 -0.561 2.226 255 255 255
-0.56 -1.334 2.248 255 255 255
1.066 0.243 1.714 255 255 255
1.039 -0.238 1.455 0 0 0
-0.061 0.162 0.522 255 255 255
-0.549 -0.025 0.88 255 255 255
-0.495 -0.039 0.96 255 255 255
0.816 -0.454 1.669 255 255 255
0.277 -0.772 2.455 255 255 255
-0.466 -0.772 2.273 255 255 255
-0.07 -0.974 2.376 255 255 255
-1.211 -0.619 2.261 0 0 0
0.258 -0.613 2.499 255 255 255
0.763 -0.497 2.368 255 255 255
0.354 0.721 1.363 255 255 255
-1.491 -0.715 2.221 255 255 255
-0.437 0.056 0.684 255 255 255
0.459 -1.236 2.339 255 255 255
-0.599 -0.338 1.65 255 255 255
-0.4 -1.167 2.305 255 255 255
-0.023 0.248 0.472 255 255 255
-0.829 -1.46 2.204 255 255 255
0.543 0.664 1.573 255 255 255
0.823 -0.854 2.063 0 0 0
-0.676 -0.133 1.108 255 255 255
-0.528 -0.015 0.897 255 255 255
0.697 -0.519 1.635 255 255 255
0.127 0.038 2.671 0 0 0
-0.03 0.236 0.472 255 255 255
-0.009 0.098 0.347 255 255 255
0.669 0.258 1.871 255 255 255
1.043 0.146 1.771 255 255 255
-0.144 0.111 0.616 0 0 0
-0.011 0.114 0.326 255 255 255
-0.306 -0.038 0.93 0 0 0
-0.11 -1.142 2.333 255 255 255
0.489 -0.389 2.571 255 255 255
0.919 -0.409 1.686 255 255 255
-0.269 -0.544 2.195 255 255 255
0.774 -0.528 1.644 255 255 255
0.91 -1.425 2.302 255 255 255
0.025 0.172 0.325 255 255 255
0.3 0.133 2.643 0 0 0
-0.887 -1.61 2.162 0 0 0
0.711 -0.86 1.545 255 255 255
0.043 0.113 0.801 255 255 255
-0.565 0.025 0.825 0 0 0
-0.351 -0.034 0.974 0 0 0
-0.417 -0.376 1.942 255 255 255
0.654 0.625 1.743 0 0 0
0.001 0.092 0.305 255 255 255
-0.052 0.114 0.626 255 255 255
-0.389 0.059 0.671 255 255 255
-0.254 0.118 0.482 255 255 255
-0.054 0.036 0.897 255 255 255
0.835 0.313 1.907 255 255 255
0.135 -1.136 2.345 255 255 255
-0.379 -1.019 2.345 255 255 255
0.041 0.078 0.306 255 255 255
0.334 -0.203 2.615 255 255 255
-0.565 -1.499 2.206 255 255 255
1.043 -0.03 1.734 255 255 255
0.527 0.38 2.076 255 255 255
0.724 0.937 1.902 255 255 255
-0.066 0.051 0.822 255 255 255
0.19 -0.881 2.416 255 255 255
-0.397 0.046 0.716 255 255 255
-0.16 0.256 0.451 255 255 255
0.037 0.146 0.305 255 255 255
0.036 0.109 0.291 255 255 255
-0.195 0.128 0.439 0 0 0
-0.245 0.06 0.544 255 255 255
0.035 0.132 0.3 255 255 255
0.032 0.101 0.292 255 255 255
0.656 -0.218 2.629 255 255 255
0.403 0.455 2.08 255 255 255
0.032 0.121 0.734 255 255 255
-0.383 0.028 0.74 255 255 255
0.745 -0.69 2.15 255 255 255
-1.016 -0.592 2.277 0 0 0
0.365 -1.572 2.233 255 255 255
-0.346 0.086 0.598 0 0 0
-1.097 -0.859 2.201 255 255 255
0.015 0.029 1.093 255 255 255
0.054 0.092 0.305 255 255 255
-0.411 -0.629 2.325 0 0 0
-0.162 -1.453 2.248 255 255 255
-0.076 0.057 0.792 255 255 255
