ply
format ascii 1.0
comment Created by Open3D
element vertex 1608
property double x
property double y
property double z
property uchar red
property uchar green
property uchar blue
end_header
0.719 -1.253 2.307 255 255 255
-0.215 -1.006 2.366 255 255 255
0.705 -0.391 2.547 255 255 255
-0.382 -1.213 2.305 255 255 255
-0.323 0.031 0.756 255 255 255
-0.634 -0.516 2.247 255 255 255
0.311 -0.852 2.416 255 255 255
-0.651 -0.789 2.277 255 255 255
-0.135 0.166 0.506 255 255 255
0.779 0.651 1.665 255 255 255
-0.19 -0.359 1.919 255 255 255
-1.001 -0.626 2.314 0 0 0
-0.205 -0.1 1.322 255 255 255
0.622 -0.993 2.384 255 255 255
1.013 -0.258 1.687 255 255 255
-0.254 0.124 0.495 0 0 0
1.076 -1.542 2.226 255 255 255
0.691 -0.236 2.592 255 255 255
-0.137 0.129 0.507 255 255 255
-0.453 -0.108 1.179 255 255 255
-1.158 -0.661 2.301 255 255 255
0.882 -0.605 1.582 255 255 255
1.128 0.005 1.777 255 255 255
-0.122 0.08 0.694 255 255 255
-0.902 -1.363 2.261 255 255 255
0.7 -0.031 2.651 255 255 255
-0.552 -1.479 2.228 255 255 255
-0.247 -0.124 1.409 255 255 255
0.682 0.556 1.746 255 255 255
-1.372 -0.764 2.271 0 0 0
-0.272 -0.106 1.222 255 255 255
-0.119 0.181 0.493 255 255 255
0.058 -0.714 2.396 0 0 0
-0.128 0.096 0.678 0 0 0
-0.371 -0.797 2.283 255 255 255
-0.112 -1.574 2.215 255 255 255
1.14 -0.22 1.629 255 255 255
-0.059 0.237 0.462 255 255 255
-0.159 0.139 0.449 255 255 255
-0.088 0.232 0.461 255 255 255
-0.194 0.097 0.5 255 255 255
0.005 -0.103 1.376 255 255 255
0.603 -0.342 2.559 255 255 255
0.745 0.458 1.985 255 255 255
-0.16 -0.021 1.066 255 255 255
0.017 0.167 0.527 0 0 0
0.042 0.162 0.328 255 255 255
0.895 0.474 1.788 255 255 255
-0.471 -0.045 0.91 255 255 255
0.157 -1.56 2.221 255 255 255
0.795 -1.548 2.226 255 255 255
-0.093 0.116 0.629 255 255 255
0.026 0.147 0.362 255 255 255
-0.177 -1.452 2.246 255 255 255
0.846 -0.208 2.179 255 255 255
-0.036 0.204 0.485 255 255 255
-0.158 0.218 0.466 0 0 0
-0.161 0.075 0.708 0 0 0
0.793 0.078 2.51 255 255 255
0.01 0.189 0.503 255 255 255
-0.661 -1.176 2.308 255 255 255
0.944 -1.341 2.28 255 255 255
0.097 -0.279 1.944 255 255 255
0.233 -1.528 2.229 255 255 255
-0.181 0.069 0.533 255 255 255
0.607 0.63 1.676 255 255 255
0.643 -1 2.382 255 255 255
-0.314 0.061 0.697 255 255 255
-0.152 0.217 0.467 0 0 0
0.066 0.109 0.287 255 255 255
0.884 -0.341 1.661 255 255 255
-0.13 0.1 0.511 0 0 0
-0.879 -1.664 2.183 0 0 0
-0.718 -1.48 2.23 255 255 255
-0.299 0.067 0.682 255 255 255
0.049 0.099 0.29 255 255 255
-0.579 -1.267 2.29 255 255 255
-0.029 0.183 0.498 255 255 255
-0.336 -0.536 2.358 0 0 0
-0.157 -0.706 2.317 255 255 255
0.502 -0.094 2.629 255 255 255
-0.889 -1.053 2.201 0 0 0
0.165 -0.263 2.597 255 255 255
-1.002 -0.594 2.309 0 0 0
-0.686 -0.761 2.282 255 255 255
-0.001 0.18 0.506 255 255 255
0.065 0.105 0.287 255 255 255
0.991 -1.488 2.24 255 255 255
-0.359 -0.64 2.333 255 255 255
0.903 -0.029 1.754 255 255 255
0.786 0.403 2.132 255 255 255
-0.185 -0.162 1.537 255 255 255
-0.083 0.134 0.541 0 0 0
0.089 0.105 0.299 255 255 255
0.068 0.155 0.31 255 255 255
0.075 0.119 0.291 255 255 255
0.028 0.229 0.484 0 0 0
1.129 0.152 1.767 255 255 255
0.082 0.023 1.121 255 255 255
0.065 -0.324 1.93 255 255 255
0.041 0.085 0.299 255 255 255
0.433 0.194 2.601 255 255 255
0.052 0.115 0.687 255 255 255
-0.282 -0.147 1.298 255 255 255
-0.41 -0.747 2.296 255 255 255
0.75 0.439 1.916 255 255 255
-1.218 -1.409 2.252 255 255 255
-0.016 0.207 0.485 255 255 255
0.065 0.111 0.283 255 255 255
0.035 0.086 0.303 255 255 255
0.782 -0.427 1.627 255 255 255
-0.067 0.218 0.477 0 0 0
0.894 -0.403 2.035 255 255 255
-0.315 0.009 0.837 255 255 255
0.632 0.415 2.06 255 255 255
0.048 0.248 0.482 255 255 255
0.021 0.125 0.621 255 255 255
-0.092 -1.523 2.228 255 255 255
-0.264 0.153 0.504 255 255 255
0.339 0.317 2.276 0 0 0
0.054 0.081 0.297 255 255 255
-0.029 0.139 0.566 0 0 0
-0.42 -1.362 2.263 255 255 255
0.833 0.391 1.883 255 255 255
-1.33 -0.468 2.361 0 0 0
-0.154 0.095 0.479 255 255 255
-0.296 -0.024 0.976 0 0 0
0.341 -0.778 2.436 255 255 255
0.92 -0.89 2.191 255 255 255
0.046 0.12 0.659 255 255 255
0.087 0.12 0.302 255 255 255
0.829 -0.107 2.272 255 255 255
-0.181 0.213 0.464 0 0 0
-1.217 -1.414 2.248 255 255 255
0.879 -0.757 1.543 255 255 255
0.812 0.598 1.715 255 255 255
0.043 0.067 0.811 255 255 255
-0.167 0.054 0.609 0 0 0
-0.475 -1.271 2.289 255 255 255
0.772 -0.657 2.477 255 255 255
-0.516 -0.235 1.654 255 255 255
-0.228 0.036 0.613 255 255 255
0.382 -0.503 2.514 255 255 255
0.689 -0.486 2.518 255 255 255
-0.484 -0.009 0.916 255 255 255
0.805 -0.545 2.495 255 255 255
-0.673 -1.046 2.197 0 0 0
-0.049 0.112 0.743 0 0 0
0.924 0.451 1.785 255 255 255
-0.496 -0.025 0.882 255 255 255
0.584 -0.568 2.496 255 255 255
-0.664 -0.648 2.319 0 0 0
0.071 0.084 0.296 0 0 0
-0.962 -1.294 2.281 255 255 255
-0.043 -0.049 1.195 255 255 255
-0.627 -1.155 2.306 0 0 0
0.844 -1.025 1.573 255 255 255
-0.312 -0.056 0.978 0 0 0
0.075 -1.476 2.246 255 255 255
-0.16 0.065 0.603 0 0 0
-0.103 0.094 0.741 0 0 0
0.521 -0.901 2.406 255 255 255
-1.109 -0.254 1.441 255 255 255
-1.393 -0.669 2.294 255 255 255
0.054 -1.077 2.354 255 255 255
-0.202 -0.309 1.926 255 255 255
-0.176 0.193 0.476 255 255 255
0.028 0.089 0.31 255 255 255
-0.143 -0.789 2.29 0 0 0
0.041 0.107 0.291 255 255 255
-0.696 -1.297 2.279 255 255 255
0.202 -0.144 2.608 0 0 0
0.715 0.66 1.567 255 255 255
-1.52 -0.705 2.28 255 255 255
0.833 -0.073 1.736 255 255 255
0.479 -1.649 2.192 0 0 0
0.778 -1.164 2.333 255 255 255
0.357 -1.289 2.293 255 255 255
0.954 0.126 1.798 255 255 255
-0.447 -1.439 2.241 255 255 255
-0.155 0.242 0.452 255 255 255
-0.777 -1.062 2.161 0 0 0
0.004 0.117 0.627 255 255 255
-0.333 -1.629 2.191 0 0 0
-0.036 -0.826 2.418 255 255 255
0.961 -0.931 2.161 255 255 255
1.144 0.008 1.63 255 255 255
-0.188 0.032 0.877 255 255 255
0.785 -0.015 2.652 255 255 255
0.752 -0.916 2.408 255 255 255
-0.375 -0.064 1.006 255 255 255
0.864 -0.681 1.56 255 255 255
-0.015 0.226 0.476 0 0 0
0.088 0.208 0.38 255 255 255
-0.733 -1.693 2.168 255 255 255
-0.315 0.103 0.536 255 255 255
0.821 0.46 1.898 255 255 255
0.008 0.059 0.791 255 255 255
-0.159 0.206 0.473 255 255 255
-0.175 -0.144 1.475 255 255 255
0.84 -0.858 2.241 0 0 0
-0.036 0.128 0.597 0 0 0
0.839 0.529 1.897 0 0 0
-1.168 -1.305 2.277 255 255 255
0.824 0.228 2.224 255 255 255
0.787 -0.808 1.609 255 255 255
1.131 0.188 1.776 255 255 255
-0.239 0.014 0.967 255 255 255
0.024 -1.086 2.35 255 255 255
0.957 -0.646 2.301 255 255 255
-1.359 -1.027 2.347 255 255 255
-0.31 -1.479 2.237 255 255 255
0.466 0.32 2.352 255 255 255
-0.28 -0.09 1.181 255 255 255
-0.338 0.075 0.622 0 0 0
1.145 0.131 1.686 255 255 255
0.776 0.168 1.803 255 255 255
0.25 -0.114 2.62 255 255 255
0.076 0.1 0.292 0 0 0
-0.765 -0.104 1.19 255 255 255
-0.102 0.106 0.531 255 255 255
-1.039 -1.179 2.311 255 255 255
-0.321 0.094 0.561 255 255 255
-1.182 -0.437 2.289 255 255 255
-0.134 0.122 0.477 255 255 255
0.86 -0.14 2.431 255 255 255
0.835 -0.075 2.023 255 255 255
-0.101 0.009 1.015 255 255 255
1.023 -1.106 2.154 255 255 255
0.742 0.326 2.512 255 255 255
0.023 -0.775 2.327 0 0 0
0.048 0.071 0.312 0 0 0
0.831 -0.466 1.62 255 255 255
0.141 -0.504 2.509 255 255 255
0.732 -1.494 2.239 255 255 255
0.762 -0.141 1.715 255 255 255
-0.34 -0.611 2.341 0 0 0
-0.485 0.013 0.933 0 0 0
-0.21 0.191 0.475 255 255 255
0.029 0.125 0.311 255 255 255
-0.806 -0.124 1.188 255 255 255
-1.337 -0.539 2.34 0 0 0
-0.828 -1.03 2.201 255 255 255
0.331 -0.864 2.417 255 255 255
-0.091 -0.289 1.809 0 0 0
0.683 -1.485 2.245 255 255 255
0.932 -0.822 2.158 255 255 255
-0.053 0.223 0.475 0 0 0
0.788 0.127 2.68 255 255 255
-0.138 0.176 0.5 255 255 255
-0.586 -1.677 2.174 255 255 255
0.863 -0.161 1.714 255 255 255
-0.362 -0.044 0.962 0 0 0
0.967 -0.443 1.63 255 255 255
0.065 0.133 0.295 0 0 0
-0.122 0.031 0.892 255 255 255
0.837 -0.443 1.629 255 255 255
-0.299 0.028 0.79 255 255 255
-0.131 0.216 0.47 0 0 0
-0.22 0.03 0.654 0 0 0
1.016 -0.095 1.735 255 255 255
0.7 -0.385 2.549 255 255 255
1.012 -1.566 2.218 255 255 255
-1.541 -0.76 2.291 255 255 255
0.08 -1.316 2.283 255 255 255
0.349 -0.333 2.555 255 255 255
0.562 -1.39 2.269 255 255 255
0.871 -1.025 2.192 255 255 255
0.052 0.103 0.287 255 255 255
-0.2 0.057 0.632 0 0 0
0.819 -0.483 1.617 255 255 255
0.408 -1.618 2.225 0 0 0
-0.338 -0.031 1.026 0 0 0
0.874 -0.291 1.674 255 255 255
-0.046 0.142 0.564 255 255 255
-0.037 0.13 0.573 255 255 255
-1.637 -0.856 2.413 255 255 255
0.389 -0.404 2.541 255 255 255
-1.745 -0.629 2.4 255 255 255
1.134 -0.248 1.72 0 0 0
-0.177 0.234 0.45 255 255 255
0.766 -1.068 2.358 255 255 255
-0.006 0.123 0.614 255 255 255
0.831 -0.408 1.639 255 255 255
0.499 0.366 2.365 255 255 255
-1.06 -1.364 2.267 255 255 255
0.204 -1.024 2.37 255 255 255
0.048 0.127 0.297 255 255 255
0.756 -0.646 2.479 255 255 255
0.009 0.178 0.512 255 255 255
0.046 0.185 0.34 255 255 255
0.228 -0.436 2.53 255 255 255
-0.002 0.144 0.559 0 0 0
-0.85 -0.833 2.257 255 255 255
-0.114 0.174 0.505 255 255 255
-0.008 0.165 0.521 255 255 255
-0.351 0.033 0.738 255 255 255
0.705 0.1 2.69 255 255 255
-1.143 -0.661 2.307 0 0 0
0.075 0.087 0.296 255 255 255
-1.431 -0.643 2.308 255 255 255
-0.898 -1.515 2.223 255 255 255
-0.001 0.201 0.491 255 255 255
-0.244 0.163 0.512 255 255 255
0.558 -1.116 2.346 255 255 255
-0.207 0.025 0.663 0 0 0
-0.367 -0.524 2.37 0 0 0
0.064 -0.004 1.159 255 255 255
0.054 -1.03 2.364 255 255 255
0.812 0.103 1.792 255 255 255
0.262 -1.393 2.267 255 255 255
0.53 0.699 1.43 255 255 255
0.772 -0.076 1.732 255 255 255
0.725 -1.423 2.262 255 255 255
0.673 -0.708 2.463 255 255 255
0.814 0.073 1.778 255 255 255
-0.082 -0.261 1.767 0 0 0
-0.126 0.162 0.51 255 255 255
-0.117 0.13 0.534 0 0 0
-0.039 0.109 0.744 0 0 0
-0.142 -1.392 2.263 255 255 255
0.782 -0.651 1.569 255 255 255
0.137 -1.553 2.222 255 255 255
0.767 0.868 1.864 0 0 0
0.958 0.265 1.841 255 255 255
-0.18 -0.025 1.066 255 255 255
0.531 -0.906 2.403 255 255 255
-0.453 -1.2 2.306 255 255 255
0.574 0.207 2.683 255 255 255
0.021 0.235 0.475 255 255 255
1.005 0.131 1.797 255 255 255
-0.815 -1.456 2.232 255 255 255
-0.154 -1.641 2.192 0 0 0
-0.361 0.027 0.744 255 255 255
0.291 -1.229 2.31 255 255 255
0.94 -0.949 2.171 255 255 255
-0.818 -1.519 2.217 255 255 255
-0.18 0.242 0.449 255 255 255
1.083 -1.555 2.223 255 255 255
-0.076 -0.705 2.316 0 0 0
-0.279 0.081 0.611 255 255 255
-0.055 0.24 0.461 255 255 255
0.781 -0.431 2.366 255 255 255
0.803 0.238 1.831 255 255 255
-0.021 -0.595 2.453 0 0 0
-0.147 0.051 0.785 255 255 255
-0.199 -0.826 2.276 0 0 0
-0.82 -0.169 1.307 255 255 255
0.821 -0.735 1.55 255 255 255
-0.219 0.021 0.94 255 255 255
-0.22 0.164 0.509 0 0 0
0.895 0.529 1.897 255 255 255
0.889 0.22 1.826 255 255 255
1.127 0.013 1.799 0 0 0
-0.12 0.202 0.479 255 255 255
0.377 -1.238 2.307 255 255 255
0.049 0.097 0.743 255 255 255
0.819 0.228 2.5 255 255 255
0.077 -0.188 1.931 255 255 255
-0.352 -0.122 1.226 255 255 255
0.602 -0.765 2.447 255 255 255
-0.899 -0.184 1.196 255 255 255
-0.509 -0.293 1.651 255 255 255
-0.229 0.098 0.567 0 0 0
0.734 -1.015 2.375 255 255 255
0.564 0.673 1.523 0 0 0
-0.148 0.165 0.503 255 255 255
0.291 -0.694 2.46 255 255 255
-1.02 -1.565 2.204 255 255 255
0.039 -0.101 1.423 255 255 255
-1.414 -1.03 2.352 255 255 255
0.497 -0.78 2.441 255 255 255
-0.455 -0.047 0.923 255 255 255
0.77 -0.288 1.667 255 255 255
-0.086 -1.162 2.328 255 255 255
0.275 -0.81 2.424 255 255 255
-0.018 0 1.015 255 255 255
0.447 0.18 2.622 255 255 255
0.053 0.098 0.289 255 255 255
-0.042 0.11 0.718 0 0 0
-0.071 -1.376 2.269 255 255 255
-0.124 -0.347 1.922 255 255 255
-0.651 -0.234 1.592 255 255 255
0.949 -0.949 2.168 255 255 255
-0.061 -0.617 2.267 255 255 255
-0.136 0.018 0.969 255 255 255
0.629 -0.068 2.637 255 255 255
-0.342 -0.824 2.274 255 255 255
0.794 -0.943 2.396 255 255 255
0 0.157 0.537 255 255 255
-0.183 0.041 0.838 255 255 255
-0.18 0.178 0.485 255 255 255
-0.1 0.249 0.458 255 255 255
0.06 0.126 0.294 255 255 255
0.095 -1.267 2.302 255 255 255
0.023 0.122 0.635 255 255 255
0.676 -0.303 2.572 255 255 255
0.625 0.21 2.71 255 255 255
-1.176 -1.447 2.239 255 255 255
0.312 -1.287 2.294 255 255 255
-0.657 -0.067 0.996 255 255 255
0.989 -1.724 2.177 255 255 255
0.413 -0.273 2.574 255 255 255
0.175 -0.241 2.584 0 0 0
0.043 0.074 0.312 0 0 0
-0.051 -1.137 2.337 255 255 255
0.055 0.08 0.298 255 255 255
-0.466 -0.249 1.669 255 255 255
0.66 -0.036 2.649 255 255 255
0.003 -0.302 1.941 255 255 255
-0.1 0.207 0.479 255 255 255
0.219 -0.944 2.39 255 255 255
0.901 -0.352 2.046 255 255 255
0.071 0.128 0.295 255 255 255
0.57 0.13 2.666 0 0 0
0.032 0.137 0.603 255 255 255
0.627 0.436 2.057 255 255 255
-0.765 -0.103 1.076 255 255 255
-0.029 0.152 0.535 255 255 255
-0.033 0.065 0.738 255 255 255
-1.392 -0.993 2.357 255 255 255
0.06 0.105 0.755 255 255 255
0.83 0.123 2.455 255 255 255
0.67 0.601 1.714 255 255 255
-0.89 -0.995 2.206 255 255 255
-0.816 -0.165 1.301 255 255 255
0.718 -0.101 2.633 255 255 255
-0.061 0.145 0.561 255 255 255
-0.689 -0.596 2.288 255 255 255
-0.054 0.111 0.656 255 255 255
-0.039 0.093 0.711 0 0 0
-0.464 -0.721 2.303 255 255 255
0.435 -0.723 2.454 255 255 255
0.604 -0.327 2.562 255 255 255
0.943 -0.056 1.745 255 255 255
-0.405 -0.562 2.358 255 255 255
-0.87 -0.839 2.254 255 255 255
0.013 0.055 0.81 255 255 255
-0.573 -0.482 2.283 255 255 255
-0.129 -0.373 1.932 255 255 255
-0.348 0.055 0.69 255 255 255
-1.182 -1.116 2.331 255 255 255
0.521 0.066 2.672 255 255 255
-0.585 -1.356 2.261 255 255 255
0.099 0.133 0.746 255 255 255
0.023 0.172 0.511 0 0 0
-0.092 0.065 0.714 255 255 255
1.098 -1.433 2.251 255 255 255
-1.15 -0.637 2.314 0 0 0
-0.646 -0.026 0.892 255 255 255
-1.196 -0.429 2.295 255 255 255
0.449 -0.787 2.436 255 255 255
-0.114 0.11 0.527 255 255 255
0.83 -0.634 1.571 255 255 255
0.713 0.475 2.033 0 0 0
0.816 -0.375 1.648 255 255 255
0.245 -1.049 2.361 255 255 255
-0.296 0.095 0.592 0 0 0
-0.119 0.18 0.495 255 255 255
-0.131 0.075 0.703 0 0 0
-1.056 -0.269 1.527 255 255 255
-0.321 0.049 0.737 255 255 255
-0.634 -1.376 2.255 255 255 255
0.938 0.433 1.893 255 255 255
0.049 0.132 0.298 255 255 255
-0.008 0.254 0.468 255 255 255
-0.1 -0.057 1.194 255 255 255
-0.332 -0.558 2.325 255 255 255
0.014 -0.486 2.35 0 0 0
-0.204 0.191 0.474 255 255 255
-0.318 -1.405 2.251 255 255 255
0.764 -1.563 2.225 255 255 255
0.598 -0.654 2.474 255 255 255
-0.313 0.028 0.765 255 255 255
0.621 -0.22 2.595 255 255 255
-0.047 0.197 0.488 255 255 255
0.745 -0.666 2.475 255 255 255
-1.156 -0.657 2.309 0 0 0
0.471 0.049 2.671 255 255 255
-1.274 -1.315 2.275 255 255 255
-0.37 0.075 0.582 255 255 255
-0.085 0.219 0.473 0 0 0
0.014 -1.111 2.343 255 255 255
0.821 -0.655 2.294 255 255 255
-0.256 -1.645 2.191 0 0 0
1.136 0.261 1.81 255 255 255
-0.178 -0.032 1.079 255 255 255
0.832 0.031 1.771 255 255 255
-0.58 -0.28 1.645 255 255 255
0.925 -0.826 2.013 0 0 0
0.646 0.57 1.722 255 255 255
-0.007 0.211 0.485 255 255 255
-0.208 -1.481 2.239 255 255 255
0.386 -0.538 2.503 255 255 255
0.04 0.122 0.299 255 255 255
0.907 -0.498 1.613 255 255 255
-0.462 -0.965 2.232 0 0 0
-1.172 -1.001 2.341 0 0 0
0.591 0.453 2.04 255 255 255
1.137 -0.207 1.661 255 255 255
0.943 -0.498 1.616 255 255 255
-1.412 -1.061 2.339 255 255 255
-0.454 -1.228 2.303 255 255 255
-0.852 -1.529 2.214 255 255 255
-0.277 -1.32 2.28 255 255 255
-0.073 0.105 0.679 255 255 255
-0.016 0.183 0.502 255 255 255
-0.597 -1.546 2.212 255 255 255
-0.067 0.045 0.837 255 255 255
0.785 -0.668 2.292 255 255 255
1.139 -0.448 1.656 255 255 255
0.033 0.169 0.376 0 0 0
0.632 -1.039 2.37 255 255 255
-0.598 -1.022 2.206 255 255 255
0.321 -0.819 2.43 255 255 255
0.125 -1.25 2.304 255 255 255
1.026 0.372 1.876 255 255 255
-0.2 0.146 0.499 255 255 255
0.857 -0.715 2.109 255 255 255
-0.514 -0.411 2.266 255 255 255
0.038 0.079 0.307 0 0 0
-0.075 0.23 0.463 255 255 255
-0.444 -0.244 1.71 255 255 255
0.604 0.648 1.627 255 255 255
0.011 0.162 0.535 0 0 0
0.071 0.111 0.285 255 255 255
0.676 -0.42 2.539 255 255 255
1.125 -1.439 2.241 255 255 255
1.034 0.408 1.885 255 255 255
-0.177 0.176 0.493 255 255 255
0.057 0.126 0.295 255 255 255
-0.027 0.241 0.464 255 255 255
-0.185 0.177 0.488 255 255 255
0.714 -0.837 2.429 255 255 255
-0.094 0.132 0.54 0 0 0
0.467 -0.009 2.65 255 255 255
-0.433 -1.184 2.311 255 255 255
0.602 -0.147 2.613 255 255 255
0.906 0.361 1.876 255 255 255
-0.247 -0.067 1.188 255 255 255
1.015 -0.399 1.641 255 255 255
-0.122 0.092 0.499 255 255 255
0.009 0.224 0.485 0 0 0
0.762 -0.33 1.66 255 255 255
0.249 -0.969 2.382 255 255 255
-1.296 -0.491 2.351 0 0 0
0.472 -0.274 2.574 255 255 255
-0.725 -0.269 1.645 255 255 255
-0.133 -1.556 2.217 255 255 255
-0.299 -0.856 2.266 255 255 255
0.025 -0.02 1.147 255 255 255
0.821 0.324 2.28 255 255 255
-0.257 0.107 0.562 255 255 255
0.781 -0.407 2.369 255 255 255
-0.068 -0.006 1.037 0 0 0
0.303 0.054 2.667 0 0 0
0.091 0.13 0.74 255 255 255
-0.23 0.11 0.484 255 255 255
-1.044 -1.284 2.286 255 255 255
1.007 -0.663 1.579 255 255 255
0.777 0.895 1.869 255 255 255
-0.799 -1.276 2.286 255 255 255
0.004 -1.182 2.322 255 255 255
-0.13 -0.255 1.8 0 0 0
-1.471 -0.524 2.319 0 0 0
-0.512 -0.118 1.114 255 255 255
0.917 -0.414 1.639 255 255 255
0.082 0.104 0.295 255 255 255
0.498 0.725 1.34 255 255 255
-1.042 -0.624 2.318 0 0 0
0.612 -0.932 2.403 255 255 255
-0.184 -0.586 2.201 255 255 255
0.015 0.025 0.962 255 255 255
0.92 -1.658 2.194 0 0 0
0.331 -0.844 2.422 255 255 255
0.969 -0.321 1.667 255 255 255
-0.602 -1.358 2.262 255 255 255
-0.35 -0.041 1.013 0 0 0
-0.185 -0.319 1.916 255 255 255
0.075 0.094 0.292 0 0 0
-0.272 -1.336 2.275 255 255 255
-0.266 -0.836 2.273 255 255 255
0.436 -0.598 2.485 255 255 255
0.411 -0.588 2.488 255 255 255
-0.251 0.104 0.594 255 255 255
0.908 -0.623 1.579 255 255 255
0.773 -0.583 1.621 255 255 255
0.071 -0.035 1.272 255 255 255
-0.706 -0.839 2.261 255 255 255
-1.266 -0.825 2.256 0 0 0
-0.247 0.161 0.512 255 255 255
-0.026 -0.237 1.86 0 0 0
-0.129 0.211 0.472 0 0 0
0.887 -1.278 2.305 255 255 255
0.095 -1.447 2.25 255 255 255
-0.306 -1.144 2.326 255 255 255
-0.229 0.143 0.497 255 255 255
-0.235 0.116 0.481 0 0 0
-0.12 -0.335 1.92 255 255 255
0.135 -1.379 2.273 255 255 255
-0.174 -0.418 1.955 255 255 255
-0.397 0.032 0.737 255 255 255
0.567 0.109 2.679 0 0 0
0.061 0.101 0.288 255 255 255
-1.078 -1.25 2.296 255 255 255
-0.218 0.137 0.503 0 0 0
0.867 0.005 1.762 255 255 255
0.18 -0.18 2.597 0 0 0
0.847 -1.304 2.293 255 255 255
-0.513 0.002 0.845 0 0 0
-0.171 0.19 0.477 255 255 255
0.04 0.136 0.302 255 255 255
0.025 0.115 0.655 255 255 255
-0.43 -0.238 1.806 255 255 255
-0.497 -0.028 0.852 255 255 255
0.935 -0.218 1.698 255 255 255
-1.199 -1.202 2.313 255 255 255
0.722 -1.637 2.201 0 0 0
0.027 0.19 0.504 0 0 0
0.018 0.17 0.523 0 0 0
0.969 -0.357 1.655 255 255 255
0.585 -1.022 2.376 255 255 255
0.919 -0.961 2.168 255 255 255
-0.661 -0.277 1.651 0 0 0
-0.175 0.131 0.456 255 255 255
-0.12 0.188 0.486 255 255 255
-0.84 -0.192 1.399 255 255 255
-0.215 0.133 0.512 0 0 0
-0.143 0.057 0.737 255 255 255
-0.354 -0.944 2.298 0 0 0
-0.92 -0.528 2.264 255 255 255
1.143 -0.007 1.635 255 255 255
0.21 -0.741 2.447 255 255 255
-0.24 -1.156 2.321 255 255 255
0.071 0.165 0.32 255 255 255
-0.388 -0.031 0.943 255 255 255
-0.91 -0.751 2.281 255 255 255
-0.018 0.204 0.487 255 255 255
-0.991 -0.262 1.553 255 255 255
-0.297 -1.65 2.186 0 0 0
0.007 0.177 0.513 255 255 255
-0.62 -1.588 2.2 0 0 0
-0.002 0.163 0.526 255 255 255
0.051 0.158 0.317 255 255 255
-0.102 0.149 0.525 255 255 255
0.834 0.086 2.421 255 255 255
0.593 -1.302 2.296 255 255 255
0.813 -0.398 2.371 255 255 255
0.095 0.115 0.792 255 255 255
0.135 -1.276 2.295 255 255 255
-1.053 -1.628 2.184 0 0 0
-0.543 -1.27 2.289 255 255 255
0.082 0.124 0.733 255 255 255
-0.62 -0.511 2.251 255 255 255
-0.525 -0.053 0.852 0 0 0
-0.509 -1.12 2.326 255 255 255
-0.187 0.037 0.857 255 255 255
0.545 -0.472 2.522 255 255 255
0.004 -0.002 1.058 255 255 255
0.654 0.652 1.625 255 255 255
0.899 0.356 1.872 255 255 255
-0.046 -0.012 1.043 255 255 255
-0.012 0.256 0.468 255 255 255
-0.021 -1.021 2.369 255 255 255
-1.125 -0.556 2.287 255 255 255
-0.728 -1.259 2.292 255 255 255
-1.115 -0.927 2.235 0 0 0
-0.996 -1.441 2.238 255 255 255
-0.137 0.09 0.498 255 255 255
0.51 -1.547 2.237 255 255 255
-0.523 -0.127 1.131 255 255 255
-0.101 -1.157 2.33 255 255 255
-0.148 0.238 0.453 255 255 255
-0.294 -0.157 1.534 255 255 255
-0.183 0.073 0.523 0 0 0
0.542 0.415 2.01 255 255 255
0.002 0.04 0.875 255 255 255
-0.565 -0.368 1.665 255 255 255
0.785 -1.665 2.196 0 0 0
0.766 -0.173 1.704 255 255 255
-0.191 -0.242 1.867 0 0 0
0.445 -1.234 2.314 255 255 255
-0.358 0.006 0.834 255 255 255
0.15 -0.587 2.484 255 255 255
-0.528 -0.1 1.097 0 0 0
0.011 0.213 0.489 255 255 255
0.826 0.284 2.311 255 255 255
-0.588 -0.687 2.308 0 0 0
0.52 -1.38 2.27 255 255 255
0.077 0.08 0.302 255 255 255
-0.798 -0.145 1.273 255 255 255
1.141 0.088 1.653 255 255 255
0.035 0.12 0.3 255 255 255
-0.902 -1.201 2.305 255 255 255
0.924 0.526 1.791 255 255 255
0.312 -0.739 2.449 255 255 255
-0.095 0.158 0.526 255 255 255
0.915 0.089 1.785 255 255 255
-0.611 -0.535 2.252 255 255 255
0.794 -0.203 2.544 255 255 255
-0.033 -0.101 1.348 255 255 255
0.048 0.1 0.29 255 255 255
0.373 -1.296 2.293 255 255 255
-0.87 -0.701 2.299 255 255 255
1.056 -1.411 2.259 255 255 255
-0.148 -0.729 2.31 255 255 255
0.988 -1.442 2.252 255 255 255
-0.01 0.13 0.586 255 255 255
1.013 -0.392 1.646 255 255 255
-0.458 -1.114 2.332 255 255 255
-0.514 -0.337 1.66 255 255 255
-0.276 -1.19 2.316 255 255 255
-0.601 -0.007 0.841 255 255 255
-0.133 0.091 0.501 0 0 0
-0.165 0.124 0.448 255 255 255
-0.245 0.139 0.492 255 255 255
0.886 -0.721 2.09 255 255 255
-0.039 -0.017 1.074 255 255 255
0.058 0.126 0.295 255 255 255
-0.945 -1.57 2.201 255 255 255
-0.041 -1.187 2.321 255 255 255
-0.432 0.061 0.652 255 255 255
0.789 0.041 2.164 255 255 255
0.794 0.343 2.431 255 255 255
0.395 -0.364 2.549 255 255 255
-0.628 -0.876 2.247 255 255 255
0.004 -1.116 2.341 255 255 255
0.054 -0.297 1.959 255 255 255
0.824 0.178 2.314 255 255 255
1.145 -0.032 1.597 255 255 255
-0.273 0.094 0.614 0 0 0
0.02 0.165 0.525 0 0 0
0.438 -1.002 2.376 255 255 255
-0.56 -0.888 2.249 255 255 255
0.078 0.034 1.067 255 255 255
0.887 -0.674 2.092 255 255 255
-0.159 0.217 0.466 0 0 0
0.017 0.058 0.799 255 255 255
-0.445 -0.033 0.922 255 255 255
0.755 0.141 1.796 255 255 255
-1.114 -0.841 2.255 255 255 255
0.788 -0.445 2.353 255 255 255
-0.391 0.067 0.615 255 255 255
0.776 -0.074 2.269 0 0 0
0.791 0.399 2.133 255 255 255
-0.147 0.156 0.483 0 0 0
-0.104 0.089 0.737 0 0 0
-0.006 -1.175 2.321 255 255 255
-0.134 -0.098 1.335 255 255 255
-0.558 -0.505 2.278 255 255 255
-0.162 0.174 0.497 255 255 255
-0.102 0.075 0.713 255 255 255
0.065 0.128 0.297 255 255 255
-0.583 -0.934 2.23 255 255 255
1.004 -0.079 1.739 255 255 255
0.934 0.327 1.861 255 255 255
1.137 0.183 1.753 255 255 255
-0.862 -0.743 2.284 255 255 255
-0.148 0.136 0.452 0 0 0
0.775 0.647 1.678 255 255 255
-0.826 -0.159 1.153 255 255 255
0.482 -0.481 2.522 255 255 255
-0.016 0.124 0.613 0 0 0
0.577 -1.607 2.224 0 0 0
-0.769 -0.108 1.077 255 255 255
0.778 -0.791 1.545 255 255 255
-0.597 -0.119 1.122 255 255 255
-0.156 0.073 0.496 255 255 255
-0.014 0.061 0.768 255 255 255
0.975 -1.406 2.262 255 255 255
-0.305 0.087 0.609 0 0 0
-1.665 -0.495 2.285 0 0 0
0.83 -0.146 1.717 255 255 255
0.073 -0.554 2.433 0 0 0
-0.029 0.227 0.475 0 0 0
0.642 0.182 2.709 255 255 255
-0.501 0.017 0.848 0 0 0
-0.28 0.071 0.619 0 0 0
-0.282 -0.149 1.299 255 255 255
-0.174 0.187 0.479 255 255 255
-0.045 -0.198 1.717 255 255 255
0.83 0.224 2.451 255 255 255
0.528 -0.726 2.453 255 255 255
-0.205 0.132 0.511 0 0 0
-0.67 -0.812 2.266 255 255 255
0.843 -0.467 1.62 255 255 255
-0.165 0.071 0.5 255 255 255
-0.27 -0.087 1.203 255 255 255
-0.309 -0.099 1.165 255 255 255
-0.392 -1.179 2.317 255 255 255
0.848 -0.376 2.044 255 255 255
-0.179 0.212 0.464 0 0 0
0.96 -0.033 1.752 255 255 255
0.966 -1.706 2.189 255 255 255
-0.136 0.083 0.673 255 255 255
0.94 0.281 1.85 255 255 255
0.196 -0.544 2.496 255 255 255
0.648 0.534 1.819 255 255 255
-0.568 -1.265 2.288 255 255 255
0.876 0.027 1.771 255 255 255
0.026 0.154 0.551 0 0 0
0.041 0.237 0.478 255 255 255
0.433 -0.514 2.511 255 255 255
0.493 -1.516 2.243 255 255 255
0.358 0.251 2.591 0 0 0
-0.283 -1.438 2.246 255 255 255
-1.412 -1.044 2.343 255 255 255
-0.813 -0.645 2.314 0 0 0
0.044 0.041 0.887 255 255 255
-0.234 -0.012 1.062 0 0 0
-0.002 0.065 0.753 255 255 255
-0.397 -1.056 2.35 255 255 255
-1.31 -1.044 2.347 255 255 255
0.036 0.096 0.297 255 255 255
0.03 0.243 0.474 255 255 255
-0.69 -0.321 1.631 255 255 255
-0.44 0.042 0.685 255 255 255
0.43 -1.347 2.279 255 255 255
-0.07 0.147 0.558 255 255 255
-0.287 -0.072 1.158 255 255 255
0.863 -0.029 1.754 255 255 255
-0.273 -0.365 1.924 255 255 255
-0.185 -0.334 1.915 255 255 255
-0.133 0.117 0.534 255 255 255
-0.249 -0.291 1.959 0 0 0
-0.954 -1.181 2.314 255 255 255
-0.213 0.103 0.514 0 0 0
0.045 0.249 0.481 255 255 255
-0.299 -1.486 2.229 255 255 255
-0.808 -1.603 2.202 0 0 0
-0.279 0.078 0.611 255 255 255
-0.025 0.153 0.535 255 255 255
0.834 -0.389 2.371 255 255 255
0.803 -0.12 1.724 255 255 255
0.819 -0.662 1.567 255 255 255
-0.055 0.248 0.462 255 255 255
0.857 -0.454 2.033 255 255 255
1.148 -0.128 1.598 255 255 255
0 -0.05 1.207 255 255 255
-0.986 -0.771 2.276 255 255 255
0.032 0.124 0.307 255 255 255
-0.539 -1.345 2.27 255 255 255
-0.099 0.225 0.466 0 0 0
-0.065 0.029 0.909 255 255 255
-0.046 -1.061 2.358 255 255 255
-0.189 0.09 0.494 0 0 0
0.8 -0.075 2.166 255 255 255
-1.355 -1.114 2.326 255 255 255
0.937 0.23 1.83 255 255 255
-0.615 -0.048 0.934 0 0 0
-1.341 -1.025 2.35 255 255 255
-0.038 0.073 0.701 255 255 255
0.044 0.14 0.301 255 255 255
-0.354 0.074 0.634 255 255 255
-0.533 -0.752 2.295 255 255 255
-0.058 0.082 0.702 255 255 255
0.861 -0.395 2.37 255 255 255
0.66 -1.284 2.296 255 255 255
1.145 -0.459 1.648 255 255 255
-0.497 -0.016 0.841 255 255 255
0.823 -0.292 1.673 255 255 255
-1.078 -1.244 2.297 255 255 255
0.711 -0.02 2.652 255 255 255
0.897 -0.437 1.631 255 255 255
0.022 0.14 0.585 255 255 255
0.672 0.477 2.05 255 255 255
-0.785 -1.366 2.26 255 255 255
0.115 -1.346 2.28 255 255 255
0.051 -0.618 2.325 0 0 0
0.282 -0.297 2.568 255 255 255
0.794 -0.209 1.691 255 255 255
0.039 -1.065 2.354 255 255 255
-0.049 0.186 0.495 255 255 255
1.037 -0.095 1.73 255 255 255
0.018 0.171 0.522 0 0 0
-0.832 -0.235 1.596 255 255 255
-1.499 -0.989 2.394 255 255 255
-0.141 0.256 0.455 255 255 255
-0.97 -0.76 2.279 255 255 255
-0.275 -0.003 0.895 255 255 255
-0.081 0.177 0.502 255 255 255
-0.063 -0.375 1.949 255 255 255
0.418 -0.036 2.646 255 255 255
0.745 -1.042 2.368 255 255 255
-0.871 -0.762 2.275 255 255 255
1.129 0.124 1.768 255 255 255
-0.128 0.178 0.496 255 255 255
1.137 -1.483 2.222 255 255 255
-0.112 -1.467 2.241 255 255 255
0.735 -0.584 2.494 255 255 255
-0.134 0.071 0.716 255 255 255
0.812 -0.791 2.42 255 255 255
-0.186 -1.283 2.295 255 255 255
-0.087 -1.48 2.242 255 255 255
-0.139 0.183 0.486 255 255 255
0.752 -0.33 2.564 255 255 255
0.855 -0.666 1.564 255 255 255
1.037 -0.62 1.595 255 255 255
0.95 -1.445 2.257 255 255 255
0.952 -0.57 1.593 255 255 255
-0.359 -1.653 2.183 0 0 0
0.662 -1.631 2.204 0 0 0
0.548 -0.989 2.386 255 255 255
0.449 0.713 1.378 255 255 255
-0.081 -0.312 1.906 0 0 0
-0.597 -0.497 2.258 255 255 255
1.12 0.251 1.878 255 255 255
-0.369 -1.388 2.259 255 255 255
0.538 -0.341 2.556 255 255 255
-0.478 -0.039 0.909 255 255 255
-0.174 0.242 0.45 255 255 255
0.357 -1.181 2.325 255 255 255
-1.663 -0.615 2.399 255 255 255
-0.218 0.038 0.647 0 0 0
0.087 0.132 0.307 255 255 255
-0.637 -1.603 2.198 0 0 0
-0.12 0.198 0.482 255 255 255
0.804 -1.27 2.31 255 255 255
0.089 0.105 0.297 255 255 255
-0.142 0.181 0.489 255 255 255
-0.095 0.229 0.462 255 255 255
-0.069 0.184 0.495 255 255 255
0.287 -1.365 2.271 255 255 255
-0.569 -1.002 2.215 255 255 255
1.003 -0.532 1.604 255 255 255
-0.32 0.08 0.612 0 0 0
-0.23 -1.642 2.189 0 0 0
-0.027 0.15 0.54 255 255 255
0.721 -0.72 2.458 255 255 255
-0.058 0.115 0.649 0 0 0
-0.108 0.007 1.019 255 255 255
0.466 -1.379 2.265 255 255 255
-0.514 -0.001 0.842 0 0 0
-0.628 -1.004 2.21 255 255 255
-0.489 0.032 0.783 255 255 255
-0.311 0.065 0.656 255 255 255
0.045 -1.431 2.257 255 255 255
0.837 -0.237 2.193 255 255 255
0.047 0.096 0.292 255 255 255
-0.574 -0.021 0.853 255 255 255
0.94 -1.478 2.249 255 255 255
1.14 -0.223 1.629 255 255 255
-1.233 -1.22 2.301 255 255 255
0.047 0.078 0.302 0 0 0
-0.2 -0.904 2.389 255 255 255
0.907 -0.466 2.011 255 255 255
-0.448 -0.002 0.928 0 0 0
0.74 0.467 1.932 0 0 0
0.649 0.598 1.712 255 255 255
0.467 0.247 2.494 255 255 255
0.738 -1.632 2.2 0 0 0
-0.212 -0.62 2.254 255 255 255
0.033 0.22 0.49 0 0 0
-1.114 -1.106 2.329 255 255 255
1.061 0.394 1.892 255 255 255
0.311 -1.219 2.312 255 255 255
-0.806 -0.301 1.643 255 255 255
-1.535 -0.777 2.424 255 255 255
0.778 -0.008 2.203 255 255 255
0.913 -0.551 1.597 255 255 255
-0.046 -1.155 2.327 255 255 255
-0.519 -0.348 1.665 255 255 255
1.022 -0.284 1.677 255 255 255
-0.028 0.193 0.492 255 255 255
0.722 -1.628 2.207 0 0 0
-0.643 -0.364 1.662 255 255 255
0.019 -0.002 1.069 255 255 255
-0.06 -1.035 2.361 255 255 255
0.003 0.148 0.555 255 255 255
0.86 -0.5 2.339 255 255 255
-0.155 0.166 0.497 0 0 0
0.717 0.216 2.71 255 255 255
0.705 -1.635 2.201 0 0 0
-0.133 0.054 0.766 255 255 255
-0.641 -1.429 2.245 255 255 255
0.328 0.022 2.658 255 255 255
-1.523 -0.639 2.489 255 255 255
0.927 0.255 1.836 255 255 255
-0.322 0.078 0.615 0 0 0
-0.341 0.058 0.684 255 255 255
1.131 -0.077 1.726 255 255 255
0.746 -0.463 2.528 255 255 255
0.986 -0.669 1.58 255 255 255
0.842 -0.542 1.602 255 255 255
-0.839 -1.036 2.2 255 255 255
-1.03 -0.958 2.226 0 0 0
0.996 -0.192 1.711 255 255 255
-0.952 -0.506 2.268 255 255 255
-0.699 -1.127 2.246 0 0 0
0.789 -1.168 2.313 255 255 255
-0.701 -1.153 2.288 0 0 0
0.822 -0.894 2.226 0 0 0
-0.573 -0.372 1.666 255 255 255
0.024 -1.148 2.335 255 255 255
-0.103 0.132 0.533 0 0 0
-0.007 0.206 0.487 255 255 255
-0.247 0.157 0.51 255 255 255
-0.579 -0.085 1.128 0 0 0
0.446 -0.099 2.621 255 255 255
0.209 -0.067 2.636 0 0 0
0.051 0.097 0.29 255 255 255
-0.175 0.256 0.452 255 255 255
1.143 -0.05 1.594 255 255 255
-0.107 0.054 0.782 255 255 255
-0.399 -0.287 2.005 255 255 255
0.496 -0.531 2.506 255 255 255
0.758 -0.304 2.568 255 255 255
-0.014 0.109 0.676 255 255 255
0.834 0.418 1.893 255 255 255
-0.182 0.043 0.82 255 255 255
-0.038 0.041 0.859 255 255 255
-0.066 0.188 0.493 255 255 255
0.75 0.343 2.444 255 255 255
-1.392 -1.096 2.328 255 255 255
1.067 -0.057 1.75 255 255 255
-0.146 0.219 0.467 0 0 0
-0.149 0.111 0.457 255 255 255
0.056 0.079 0.298 255 255 255
-0.258 0.09 0.612 255 255 255
-0.082 -1.556 2.218 255 255 255
-0.141 0.074 0.711 0 0 0
0.815 -0.619 1.578 255 255 255
-0.407 -1.081 2.342 255 255 255
0.807 -0.021 1.753 255 255 255
-0.251 0.015 0.9 255 255 255
-0.166 -0.566 2.197 255 255 255
0.632 -0.978 2.387 255 255 255
0.788 -1.358 2.279 255 255 255
-0.158 0.177 0.495 255 255 255
-0.169 -0.398 1.939 255 255 255
0.819 -0.789 2.259 0 0 0
0.59 -0.894 2.408 255 255 255
-0.928 -1.233 2.302 255 255 255
0.629 -0.741 2.452 255 255 255
-0.125 0.079 0.694 255 255 255
-0.319 0.094 0.565 255 255 255
0.998 0.055 1.778 255 255 255
0.831 -1.303 2.295 255 255 255
-0.236 0.102 0.581 0 0 0
-1.218 -0.795 2.263 255 255 255
-0.158 0.023 0.923 255 255 255
0.947 0.302 1.851 255 255 255
-0.152 0.234 0.454 255 255 255
1.053 0.08 1.782 255 255 255
-0.049 -0.259 1.859 0 0 0
0.545 -0.11 2.628 255 255 255
-0.65 -1.201 2.299 255 255 255
0.813 -0.401 2.05 255 255 255
1.052 0.352 1.871 255 255 255
-0.084 0.163 0.513 255 255 255
0.366 -1.074 2.354 255 255 255
-0.154 0.247 0.454 255 255 255
-0.031 -1.522 2.228 255 255 255
-0.115 0.177 0.501 255 255 255
-0.06 0.21 0.481 255 255 255
-0.026 0.123 0.604 255 255 255
-0.503 -0.151 1.224 255 255 255
-0.108 0.136 0.525 0 0 0
-0.056 -1.468 2.244 255 255 255
-0.173 -1.501 2.231 255 255 255
0.075 0.133 0.685 255 255 255
-0.008 -0.216 1.808 255 255 255
0.668 0.54 1.779 255 255 255
-0.496 -0.283 1.656 255 255 255
-0.51 -0.922 2.237 255 255 255
-1.559 -0.962 2.398 255 255 255
0.015 0.16 0.542 0 0 0
-1.018 -1.184 2.315 255 255 255
-0.154 0.115 0.45 255 255 255
-0.184 0.102 0.481 255 255 255
0.057 0.118 0.285 255 255 255
0.259 0.033 2.663 0 0 0
0.836 -0.228 2.243 255 255 255
-0.74 -0.888 2.243 255 255 255
0.043 0.13 0.299 255 255 255
-1.039 -0.489 2.257 255 255 255
0.775 -0.62 1.627 0 0 0
0.041 0.146 0.307 255 255 255
0.775 0.11 2.522 255 255 255
-0.123 0.247 0.457 255 255 255
-0.566 0.004 0.837 255 255 255
0.031 0.086 0.309 255 255 255
-0.545 -1.581 2.202 255 255 255
0.898 0.217 1.825 255 255 255
0.814 -0.978 2.38 255 255 255
0.048 0.126 0.296 255 255 255
-0.137 0.115 0.519 255 255 255
-0.049 0.194 0.489 255 255 255
1.016 -0.026 1.761 255 255 255
-0.6 -1.257 2.29 255 255 255
-0.22 -0.068 1.217 255 255 255
-0.426 -0.033 0.943 255 255 255
-0.165 0.205 0.472 255 255 255
0.017 0.124 0.622 255 255 255
-0.267 0.115 0.515 255 255 255
-0.424 -0.12 1.186 255 255 255
-0.153 0.072 0.501 255 255 255
-0.158 0.073 0.495 255 255 255
0.796 -0.138 1.718 255 255 255
-0.133 0.081 0.678 255 255 255
-0.013 0.079 0.695 0 0 0
-0.035 0.232 0.47 255 255 255
0.787 0.381 1.882 255 255 255
1.104 -1.467 2.251 255 255 255
0.864 -0.01 1.756 255 255 255
0.207 -0.18 2.601 255 255 255
-0.991 -1.24 2.3 255 255 255
-0.147 0.058 0.729 255 255 255
0.992 -0.271 1.681 255 255 255
-0.016 0.13 0.589 255 255 255
1.085 -1.512 2.23 255 255 255
-0.096 -1.313 2.288 255 255 255
0.523 -0.507 2.516 255 255 255
-0.792 -0.771 2.273 255 255 255
-0.501 -0.07 0.873 255 255 255
1.011 -0.598 1.586 255 255 255
0.81 -0.716 2.445 255 255 255
-0.62 -0.633 2.308 255 255 255
0.066 0.151 0.306 255 255 255
-0.328 0.019 0.798 0 0 0
0.941 -0.011 1.759 255 255 255
-0.039 -0.285 1.929 255 255 255
0.592 -1.358 2.274 255 255 255
-0.19 0.064 0.54 255 255 255
-0.567 -1.191 2.307 255 255 255
0.521 -1.431 2.258 255 255 255
-0.558 -1.301 2.277 255 255 255
-0.785 -0.135 1.265 255 255 255
0.563 -1.147 2.337 255 255 255
-1.068 -1.336 2.27 255 255 255
-0.357 0.052 0.71 0 0 0
0.67 -1.129 2.344 255 255 255
1.144 0.057 1.644 255 255 255
-0.926 -1.41 2.248 255 255 255
1.009 -1.399 2.262 255 255 255
0.615 -1.593 2.207 0 0 0
-0.169 -0.162 1.534 255 255 255
-0.502 -1.512 2.225 255 255 255
0.605 0.16 2.7 255 255 255
0.443 -0.997 2.378 255 255 255
-0.052 0.186 0.494 255 255 255
0.642 -0.445 2.531 255 255 255
-1.379 -0.526 2.338 255 255 255
-0.138 0.085 0.559 255 255 255
-0.352 -1.238 2.299 255 255 255
-0.263 -0.056 0.961 255 255 255
-0.028 -0.066 1.248 255 255 255
-0.283 -0.122 1.236 255 255 255
-0.186 -1.256 2.301 255 255 255
-0.105 0.103 0.716 255 255 255
-1.247 -0.584 2.327 0 0 0
-0.639 -0.521 2.248 255 255 255
-0.653 -0.317 1.655 0 0 0
0.532 -1.48 2.242 255 255 255
-0.94 -0.928 2.231 255 255 255
-1.141 -0.431 2.267 255 255 255
0.488 0.195 2.608 255 255 255
0.114 -0.915 2.393 255 255 255
0.75 -0.468 2.525 255 255 255
-0.567 -0.262 1.662 0 0 0
0.136 -1.476 2.244 255 255 255
-0.097 0.112 0.629 0 0 0
-0.268 -0.107 1.238 255 255 255
-0.207 0.178 0.483 255 255 255
1.113 -1.465 2.244 255 255 255
-0.998 -1.736 2.16 255 255 255
-0.194 0.037 0.639 255 255 255
-0.342 -0.537 2.361 0 0 0
0.016 0.124 0.621 255 255 255
-0.231 0.155 0.507 255 255 255
0.385 0.092 2.678 255 255 255
-0.031 0.192 0.492 255 255 255
-0.779 -0.09 1.055 255 255 255
-0.078 0.174 0.505 255 255 255
0.015 0.227 0.483 0 0 0
-0.367 0.035 0.726 255 255 255
-0.255 -0.146 1.486 255 255 255
-0.198 0.066 0.596 255 255 255
0.901 -0.521 2.021 255 255 255
-1.012 -1.373 2.261 255 255 255
-0.113 0.182 0.491 255 255 255
0.764 0.488 1.886 0 0 0
-0.523 -1.326 2.273 255 255 255
0.806 -0.29 2.069 255 255 255
0.521 -0.136 2.617 255 255 255
0.771 0.655 1.645 255 255 255
-0.162 0.208 0.471 0 0 0
-0.47 -0.138 1.208 255 255 255
-0.729 -0.683 2.305 0 0 0
-0.186 -1.153 2.329 255 255 255
0.361 -1.064 2.358 255 255 255
0.818 0.023 1.768 255 255 255
0.823 0.224 2.279 255 255 255
-0.899 -0.606 2.324 0 0 0
-1.318 -0.93 2.356 0 0 0
0.051 0.122 0.667 255 255 255
-0.373 0.056 0.635 255 255 255
-0.166 0.07 0.516 255 255 255
-0.23 0.109 0.485 255 255 255
0.9 -0.759 1.55 255 255 255
1.128 0.161 1.789 255 255 255
0.003 -0.322 1.919 255 255 255
-0.218 -0.256 1.939 0 0 0
-1.47 -0.941 2.405 255 255 255
-0.495 -0.114 1.123 255 255 255
-0.666 -1.369 2.258 255 255 255
-0.659 -0.931 2.234 255 255 255
-0.165 0.206 0.472 255 255 255
-0.396 -0.016 0.877 255 255 255
0.863 -0.089 2.15 255 255 255
0.816 -1.507 2.24 255 255 255
0.886 -0.364 2.044 255 255 255
-0.626 -0.545 2.249 255 255 255
-0.131 -0.054 1.187 255 255 255
-0.105 -0.688 2.324 255 255 255
-0.844 -0.607 2.319 0 0 0
-0.259 0.029 0.879 255 255 255
-0.026 0.23 0.472 0 0 0
0.04 0.154 0.32 255 255 255
-1.294 -0.576 2.324 0 0 0
-0.145 -1.165 2.321 255 255 255
-0.89 -0.18 1.19 0 0 0
-1.371 -1.033 2.344 255 255 255
-0.57 -0.001 0.833 255 255 255
0.028 0.122 0.635 255 255 255
-0.207 0.167 0.501 255 255 255
1 0.044 1.773 255 255 255
-1.016 -0.655 2.303 0 0 0
-0.126 -1.265 2.298 255 255 255
0.075 -1.327 2.281 255 255 255
0.461 -1.373 2.266 255 255 255
0.024 0.066 0.761 255 255 255
0.2 -0.77 2.437 255 255 255
-0.08 -1.125 2.336 255 255 255
-0.074 0.193 0.486 255 255 255
0.084 -0.754 2.442 255 255 255
0.694 -0.77 2.447 255 255 255
-0.735 -0.684 2.307 0 0 0
0.366 -1.027 2.365 255 255 255
-0.255 -0.036 0.941 0 0 0
-0.592 -0.14 1.137 255 255 255
-1.255 -1.097 2.334 255 255 255
0.834 -0.155 2.005 255 255 255
0.532 -0.811 2.43 255 255 255
0.714 -0.594 2.493 255 255 255
-0.108 0.214 0.474 0 0 0
0.801 0.3 2.545 255 255 255
0.48 -0.838 2.421 255 255 255
-0.197 0.222 0.456 255 255 255
0.072 -0.313 1.911 255 255 255
-0.349 -0.086 1.134 255 255 255
0.286 0.017 2.66 0 0 0
0.362 0.271 2.585 0 0 0
0.392 0.712 1.38 255 255 255
0.687 0.664 1.546 255 255 255
0.556 -0.11 2.629 255 255 255
0.485 -0.944 2.394 255 255 255
0.868 -0.158 1.716 255 255 255
0.757 0.34 1.866 255 255 255
-0.128 0.115 0.531 255 255 255
-0.229 -0.526 2.201 0 0 0
-0.026 0.159 0.528 255 255 255
1.148 -0.469 1.658 255 255 255
0.485 -0.545 2.502 255 255 255
-0.122 -0.391 1.943 255 255 255
-1.111 -0.732 2.286 255 255 255
-0.276 -0.809 2.283 255 255 255
-0.875 -1.054 2.207 0 0 0
0.051 0.109 0.286 255 255 255
0.059 -1.235 2.311 255 255 255
-0.187 0.219 0.46 0 0 0
0.915 -0.314 1.667 255 255 255
0.528 -0.346 2.556 255 255 255
0.049 -0.836 2.383 0 0 0
-0.07 -1.125 2.335 255 255 255
0.891 0.043 1.775 255 255 255
0.845 0.285 1.851 255 255 255
0.631 0.531 1.844 255 255 255
0.019 0.222 0.486 0 0 0
0.658 -0.068 2.64 255 255 255
-0.699 -1.411 2.247 255 255 255
-0.298 -1.353 2.27 255 255 255
-0.444 0.04 0.708 255 255 255
1.147 0.09 1.625 255 255 255
-0.66 -0.812 2.268 255 255 255
0.528 -0.213 2.595 255 255 255
0.719 -1.264 2.303 255 255 255
-0.285 -0.162 1.554 255 255 255
0.621 0.667 1.551 255 255 255
0.939 -0.09 1.737 255 255 255
0.092 0.1 0.305 255 255 255
-0.332 0.075 0.62 255 255 255
-0.192 -0.231 1.834 255 255 255
-1.22 -0.529 2.33 255 255 255
0.111 -0.48 2.518 255 255 255
0.843 -0.171 1.708 255 255 255
-0.172 0.114 0.46 0 0 0
-0.581 -0.373 1.667 255 255 255
0.892 -0.462 1.625 255 255 255
0.92 -1.047 2.19 255 255 255
-1.309 -1.28 2.281 255 255 255
0.029 0.215 0.491 255 255 255
-0.616 -1.249 2.294 255 255 255
-0.057 0.149 0.539 255 255 255
-0.136 0.139 0.511 255 255 255
-0.451 0.034 0.81 255 255 255
-0.114 0.17 0.507 255 255 255
-0.343 -0.035 1.02 0 0 0
0.553 -0.99 2.386 255 255 255
0.432 -1.444 2.251 255 255 255
0.023 -0.324 1.927 255 255 255
-0.159 0.087 0.48 255 255 255
-0.121 -0.819 2.319 0 0 0
-0.169 0.201 0.473 255 255 255
0.785 0.365 1.982 255 255 255
0.066 0.121 0.291 255 255 255
-0.94 -0.551 2.271 255 255 255
0.039 0.091 0.748 255 255 255
0.017 0.029 0.954 255 255 255
-1.243 -0.883 2.256 0 0 0
0.07 0.126 0.695 255 255 255
-0.555 -0.275 1.659 0 0 0
-0.26 -1.066 2.347 255 255 255
-0.222 0.104 0.498 255 255 255
0.036 0.092 0.299 255 255 255
0.622 0.48 1.961 255 255 255
-0.009 -0.002 1.041 255 255 255
0.934 0.239 1.833 255 255 255
-0.041 -1.09 2.347 255 255 255
0.606 -0.189 2.605 255 255 255
0.062 0.13 0.296 255 255 255
0.955 -0.506 1.612 255 255 255
-0.462 -0.296 1.677 255 255 255
0.05 0.142 0.301 255 255 255
-0.107 -1.5 2.232 255 255 255
0.983 0.134 1.8 255 255 255
-0.094 0.226 0.465 255 255 255
-0.529 -0.681 2.315 0 0 0
0.023 0.029 0.956 255 255 255
-0.808 -1.385 2.256 255 255 255
0.435 0.319 2.422 255 255 255
-0.416 0.052 0.686 0 0 0
0.977 -0.436 1.633 255 255 255
0.334 -0.298 2.568 255 255 255
-0.105 0.185 0.49 255 255 255
0.052 0.249 0.479 255 255 255
0.709 0.594 1.745 255 255 255
0.013 0.213 0.489 255 255 255
-0.04 0.139 0.567 255 255 255
0.407 -1.035 2.366 255 255 255
0.707 -0.706 2.469 255 255 255
-0.669 -0.643 2.319 0 0 0
-1.228 -0.643 2.315 0 0 0
-1.078 -0.252 1.495 255 255 255
-0.17 -0.566 2.196 255 255 255
-0.42 0.045 0.688 255 255 255
-0.913 -0.645 2.311 0 0 0
0.024 -0.043 1.209 255 255 255
0.132 -1.535 2.234 255 255 255
-0.102 0.252 0.458 255 255 255
0.717 0.621 1.714 255 255 255
-0.339 -1.454 2.237 255 255 255
0.037 0.098 0.297 255 255 255
-0.483 -1.394 2.256 255 255 255
-0.013 0.119 0.619 255 255 255
0.022 0.207 0.492 255 255 255
0.659 -0.954 2.393 255 255 255
0.27 -0.402 2.537 255 255 255
-0.348 -0.059 0.994 0 0 0
0.235 -0.727 2.45 255 255 255
-0.026 -1.151 2.331 255 255 255
-0.289 -0.284 1.962 0 0 0
-0.964 -0.497 2.271 255 255 255
0.877 -0.597 2.311 255 255 255
0.024 -1.179 2.327 255 255 255
-0.615 -0.334 1.643 255 255 255
0.917 -0.624 1.579 255 255 255
0.039 -1.204 2.32 255 255 255
0.129 -1.153 2.331 255 255 255
0.314 -1.433 2.256 255 255 255
0.852 -0.457 2.353 255 255 255
-0.495 0.021 0.849 0 0 0
0.622 -1.224 2.315 255 255 255
0.535 0.701 1.424 255 255 255
0.892 -0.38 1.647 255 255 255
-0.026 -0.704 2.451 0 0 0
-0.395 -0.091 1.137 255 255 255
-0.276 -0.324 1.895 255 255 255
-0.126 -0.61 2.276 255 255 255
0.745 -0.468 2.526 255 255 255
0.051 0.009 1.073 255 255 255
0.02 0.138 0.588 255 255 255
0.292 -0.61 2.483 255 255 255
0.071 -0.588 2.341 0 0 0
-0.086 0.219 0.474 0 0 0
-1.171 -1.496 2.222 255 255 255
-0.509 -0.527 2.364 0 0 0
0.728 0.659 1.572 255 255 255
0.81 -1.15 2.334 255 255 255
-0.21 -0.94 2.382 255 255 255
-0.035 0.19 0.494 255 255 255
-0.07 0.21 0.48 255 255 255
-0.89 -0.163 1.186 0 0 0
0.075 0.114 0.285 255 255 255
-0.162 0.151 0.466 0 0 0
-0.215 -0.004 1.044 0 0 0
-0.061 -0.029 1.136 255 255 255
0.629 -0.256 2.583 255 255 255
-0.71 -0.606 2.306 255 255 255
0.514 -0.295 2.572 255 255 255
0.796 -0.325 2.39 255 255 255
0.043 0.248 0.466 255 255 255
0.474 -0.208 2.594 255 255 255
-0.108 0.12 0.521 0 0 0
0.755 -1.098 2.348 255 255 255
-0.282 0.114 0.524 255 255 255
-0.409 -1.315 2.279 255 255 255
-0.465 0 0.934 0 0 0
0.017 0.151 0.554 255 255 255
-0.309 -0.015 0.97 0 0 0
0.098 -0.242 1.963 255 255 255
-0.061 0.24 0.46 255 255 255
-0.273 0.09 0.613 255 255 255
-0.216 0.177 0.485 255 255 255
0.921 -0.185 1.706 255 255 255
-0.078 0.007 1.023 255 255 255
-0.228 -0.008 1.055 0 0 0
0.714 -0.934 2.403 255 255 255
-0.136 0.127 0.54 0 0 0
-1.27 -1.225 2.298 255 255 255
0.947 -1.377 2.275 255 255 255
0.791 -0.232 2.588 255 255 255
-0.24 0.163 0.512 255 255 255
-1.062 -1.387 2.249 255 255 255
-0.359 0.108 0.593 255 255 255
0.036 0.113 0.659 255 255 255
-0.386 -1.641 2.192 0 0 0
-0.256 0.152 0.502 255 255 255
1.073 -1.488 2.239 255 255 255
-0.32 -1.127 2.326 255 255 255
0.21 -0.732 2.45 255 255 255
-1.044 -1.278 2.288 255 255 255
0.956 -0.74 1.554 255 255 255
-0.838 -0.14 1.274 0 0 0
0.67 0.623 1.697 255 255 255
-0.222 0.038 0.851 255 255 255
-1.01 -0.575 2.292 255 255 255
0.23 -0.89 2.407 255 255 255
0.915 -0.297 1.676 255 255 255
-0.601 -0.023 0.863 255 255 255
0.724 -0.169 2.613 255 255 255
-0.006 -0.08 1.305 255 255 255
-0.965 -0.266 1.566 255 255 255
0.184 -1.032 2.363 255 255 255
0.616 -1.104 2.35 255 255 255
-0.722 -0.745 2.287 255 255 255
0.357 0.113 2.668 0 0 0
-0.191 0.029 0.892 255 255 255
-0.339 0.035 0.748 255 255 255
0.44 -0.294 2.572 255 255 255
-0.304 -0.055 0.973 0 0 0
0.707 -1.07 2.361 255 255 255
0.216 -0.633 2.474 255 255 255
-0.501 -0.402 2.391 0 0 0
0.783 -0.525 1.602 255 255 255
-0.546 -0.104 1.105 0 0 0
-0.147 0.13 0.447 0 0 0
0.876 -0.375 2.37 255 255 255
0.05 -0.328 1.931 255 255 255
0.003 0.032 0.924 255 255 255
-1.486 -1.055 2.378 255 255 255
-0.016 0.012 0.994 0 0 0
-0.036 0.006 1.011 0 0 0
0.97 -0.955 2.164 255 255 255
-0.105 0.104 0.715 255 255 255
0.611 -1.151 2.338 255 255 255
-0.142 0.063 0.719 255 255 255
0.418 -0.931 2.397 255 255 255
0.061 0.093 0.289 255 255 255
-0.37 -0.029 1.032 0 0 0
-0.396 -0.793 2.284 255 255 255
0.779 -0.389 2.381 255 255 255
0.832 0.588 1.879 255 255 255
0.48 0.277 2.35 255 255 255
-0.16 -0.934 2.383 255 255 255
-0.483 -0.104 1.186 0 0 0
0.855 -0.113 2.001 255 255 255
-0.364 -0.101 1.181 0 0 0
1.131 -0.433 1.684 0 0 0
0.293 -0.556 2.497 255 255 255
0.394 0.113 2.665 0 0 0
-0.368 -0.742 2.303 255 255 255
-0.13 -0.028 1.104 255 255 255
0.818 0.102 2.313 255 255 255
-0.25 -1.559 2.215 255 255 255
-0.176 0.124 0.457 255 255 255
0.039 0.152 0.317 255 255 255
-0.057 -1.581 2.216 255 255 255
0.031 0.151 0.345 255 255 255
-0.521 -1.024 2.212 0 0 0
-0.397 -0.7 2.311 255 255 255
-0.372 0.059 0.654 255 255 255
-0.567 -0.189 1.364 255 255 255
-0.11 0.07 0.713 255 255 255
-1.361 -0.896 2.36 0 0 0
-0.081 -0.054 1.192 255 255 255
-0.733 -0.746 2.288 255 255 255
-0.537 -1.259 2.292 255 255 255
0.285 -0.916 2.399 255 255 255
0.247 -1.393 2.269 255 255 255
-0.129 0.099 0.661 0 0 0
0.026 0.107 0.297 255 255 255
0.508 -1.626 2.214 0 0 0
-0.157 0.128 0.445 0 0 0
-0.554 -0.905 2.241 255 255 255
-1.254 -1.006 2.359 255 255 255
-0.22 -1.044 2.351 255 255 255
-0.734 -0.238 1.574 255 255 255
0.245 -0.382 2.545 255 255 255
1.053 -0.514 1.606 255 255 255
-0.196 -0.664 2.326 0 0 0
-1.476 -0.602 2.326 255 255 255
-0.138 0.118 0.496 255 255 255
0.711 -0.746 2.456 255 255 255
-0.846 -0.741 2.283 255 255 255
-0.088 0.154 0.529 255 255 255
-0.026 -0.812 2.422 255 255 255
-0.524 -0.636 2.299 255 255 255
-0.371 -1.091 2.341 255 255 255
0.038 0.095 0.296 255 255 255
0.109 -1.081 2.35 255 255 255
0.86 -1.608 2.208 0 0 0
-0.141 0.159 0.507 255 255 255
0.739 -0.504 2.519 255 255 255
-1.568 -0.644 2.304 255 255 255
-0.562 -0.694 2.303 0 0 0
0.752 -0.595 2.492 255 255 255
0.042 -0.006 1.119 255 255 255
-0.141 0.122 0.531 255 255 255
-0.314 -0.04 0.998 0 0 0
-0.292 0.1 0.567 255 255 255
-0.014 0.172 0.512 255 255 255
0.844 0.183 2.125 255 255 255
0.571 -1.521 2.229 255 255 255
0.844 0.165 2.189 255 255 255
-0.089 0.186 0.49 255 255 255
0.028 0.101 0.301 255 255 255
-0.258 0.098 0.609 0 0 0
0.036 0.141 0.598 255 255 255
0.991 -0.326 1.666 255 255 255
-1.074 -0.455 2.253 255 255 255
-0.126 0.04 0.852 255 255 255
-0.259 0.122 0.5 255 255 255
-0.125 0.215 0.471 0 0 0
-1.134 -0.704 2.292 255 255 255
0.042 0.115 0.287 255 255 255
-0.171 0.111 0.462 0 0 0
-0.102 0.194 0.485 255 255 255
-0.035 0.13 0.574 255 255 255
-1.006 -1.107 2.293 0 0 0
0 0.116 0.615 255 255 255
-0.456 -0.302 1.693 255 255 255
0.888 -1.024 2.196 255 255 255
0.905 -0.555 1.598 255 255 255
0.827 -0.67 1.564 255 255 255
0.109 -1.011 2.371 255 255 255
0.28 -0.876 2.409 255 255 255
1.137 -1.458 2.201 255 255 255
-0.389 -1 2.351 255 255 255
-0.035 0.201 0.487 255 255 255
-0.374 -1.621 2.195 0 0 0
-0.813 -0.149 1.141 255 255 255
0.947 -0.312 1.669 255 255 255
0.551 -0.167 2.605 255 255 255
-0.049 0.25 0.463 255 255 255
0.469 0.708 1.393 255 255 255
0 0.232 0.475 0 0 0
-0.965 -1.609 2.192 0 0 0
0.768 0.107 1.871 255 255 255
0.051 0.129 0.298 255 255 255
0.312 -0.363 2.55 255 255 255
0.747 -1.572 2.221 255 255 255
-0.386 -1.652 2.188 0 0 0
-0.146 -0.13 1.425 255 255 255
0.758 -0.063 2.637 255 255 255
1.047 -0.248 1.683 255 255 255
-0.592 -0.374 1.667 255 255 255
-0.126 0.095 0.527 255 255 255
0.853 -0.585 1.589 255 255 255
-0.907 -0.694 2.3 255 255 255
-0.767 -1.058 2.166 255 255 255
-0.024 0.191 0.495 255 255 255
0.526 -0.146 2.612 255 255 255
0.838 -0.214 1.695 255 255 255
-1.145 -0.616 2.319 0 0 0
0.789 0.053 1.77 255 255 255
-0.569 -0.103 1.112 0 0 0
-0.072 -1.632 2.201 0 0 0
0.826 0.113 2.462 255 255 255
-0.378 -0.138 1.279 255 255 255
-0.07 0.067 0.711 255 255 255
1.06 -0.414 1.637 255 255 255
-0.239 0.107 0.492 0 0 0
-0.023 0.251 0.465 255 255 255
-0.289 0.068 0.625 0 0 0
-1.167 -0.638 2.313 0 0 0
-0.488 0.012 0.881 255 255 255
0.328 -0.646 2.475 255 255 255
