ply
format ascii 1.0
comment Created by Open3D
element vertex 1613
property double x
property double y
property double z
property uchar red
property uchar green
property uchar blue
end_header
0.338 -1.167 2.3 255 255 255
-0.429 -1.198 2.317 255 255 255
0.998 -1.084 2.282 255 255 255
0.846 -0.548 2.45 255 255 255
-0.172 0.211 0.462 0 0 0
0.293 -1.264 2.275 255 255 255
0.59 -0.327 2.526 255 255 255
0.108 0.08 0.286 0 0 0
-0.53 -0.013 0.872 255 255 255
-0.001 -1.218 2.301 255 255 255
-1.019 -0.317 1.506 255 255 255
-0.087 0.078 0.546 255 255 255
-0.312 -0.038 0.888 255 255 255
0.509 -0.246 2.55 255 255 255
0.047 0.012 0.959 255 255 255
-1.034 -0.328 1.501 255 255 255
-0.147 0.078 0.505 0 0 0
-0.407 -0.841 2.286 255 255 255
0.18 0.016 1.126 255 255 255
0.862 -0.084 2.587 255 255 255
-0.86 -1.515 2.264 255 255 255
0.741 -0.639 2.429 255 255 255
-0.179 0.095 0.587 0 0 0
0.035 -1.62 2.195 0 0 0
1.202 -0.654 2.218 255 255 255
-0.833 -1.679 2.215 0 0 0
-0.021 -1.148 2.324 255 255 255
1.034 -0.905 2.112 255 255 255
-0.935 -1.603 2.245 255 255 255
0.77 -0.12 2.579 255 255 255
0.964 0.35 2.253 255 255 255
0.925 -0.207 1.632 255 255 255
0.819 0.115 2.649 255 255 255
0.96 -0.003 2.032 255 255 255
0.163 0.046 0.992 255 255 255
-0.067 -0.715 2.314 255 255 255
0.907 -0.269 1.61 255 255 255
0.107 -0.727 2.288 0 0 0
-0.046 -1.55 2.21 255 255 255
-0.25 0.151 0.515 0 0 0
-0.225 0.055 0.702 0 0 0
0.506 -0.495 2.483 255 255 255
-0.077 0.227 0.456 255 255 255
1.091 -0.406 1.568 255 255 255
-0.342 -1.157 2.326 255 255 255
-0.027 0.15 0.528 255 255 255
1.016 -0.271 2.344 255 255 255
0.107 0.123 0.621 255 255 255
-0.763 -0.687 2.347 0 0 0
0.176 -0.376 1.947 255 255 255
0.063 0.067 0.691 255 255 255
-0.586 -0.288 1.649 255 255 255
-0.32 0.095 0.554 255 255 255
0.115 0.045 0.824 255 255 255
-0.519 -0.711 2.332 0 0 0
-0.448 -0.774 2.311 255 255 255
1.061 0.232 1.763 255 255 255
0.802 -0.015 2.612 255 255 255
0.119 0.084 0.77 255 255 255
-0.131 -0.265 1.923 0 0 0
0.105 -1.529 2.207 255 255 255
1.008 -0.144 2.12 255 255 255
-0.411 -0.503 2.29 255 255 255
0.533 -1.081 2.312 255 255 255
0.683 -0.893 2.358 255 255 255
-1.761 -0.738 2.572 255 255 255
0.077 0.076 0.299 0 0 0
-1.283 -0.524 2.393 0 0 0
-0.283 -0.068 1.02 0 0 0
-1.317 -0.808 2.347 0 0 0
-0.723 -0.16 1.234 255 255 255
1.02 0.035 1.704 255 255 255
-1.486 -0.878 2.511 255 255 255
0.982 -0.505 2.442 255 255 255
-0.211 0.079 0.62 0 0 0
0.984 -1.029 2.306 255 255 255
-0.039 0.234 0.457 255 255 255
-1.088 -0.632 2.383 0 0 0
0.345 -1.37 2.242 255 255 255
0 0.16 0.51 255 255 255
0.317 -0.912 2.371 255 255 255
-0.491 -1.042 2.208 255 255 255
-0.196 0.157 0.509 255 255 255
0.038 0.072 0.69 0 0 0
-0.754 -1.447 2.275 255 255 255
0.513 -1.23 2.264 255 255 255
-0.093 0.171 0.496 255 255 255
0.485 -1.515 2.193 255 255 255
-0.032 -0.163 1.461 255 255 255
0.66 -0.685 2.419 255 255 255
-0.363 -0.386 1.7 255 255 255
1.031 -0.31 2.325 255 255 255
1.137 -0.101 1.66 255 255 255
-0.257 0.095 0.535 255 255 255
-0.138 0.051 0.61 255 255 255
-0.45 -1.017 2.231 255 255 255
-0.069 0.052 0.72 255 255 255
0.092 0.215 0.484 255 255 255
0.023 -0.737 2.304 255 255 255
-1.561 -0.629 2.484 0 0 0
0.965 -0.054 1.992 255 255 255
-0.074 0.118 0.537 0 0 0
-0.05 0.188 0.485 255 255 255
-0.319 -1.395 2.266 255 255 255
-0.844 -0.971 2.267 255 255 255
0.573 0.106 2.605 0 0 0
-1.131 -1.005 2.415 0 0 0
-0.209 0.158 0.502 255 255 255
0.113 0.052 0.806 255 255 255
1.178 0.079 1.707 255 255 255
-0.188 -0.077 0.983 255 255 255
0.908 -0.647 1.524 255 255 255
0.527 -0.465 2.488 255 255 255
0.115 0.077 0.775 255 255 255
-0.142 0.223 0.456 255 255 255
-0.403 -0.023 0.942 0 0 0
-0.246 -1.646 2.193 0 0 0
-1.507 -0.635 2.474 255 255 255
0.92 -0.801 2.374 255 255 255
-0.198 0.118 0.498 0 0 0
-0.231 0.095 0.559 255 255 255
0.123 -1.14 2.318 255 255 255
-0.262 -0.12 1.186 0 0 0
-0.51 0.044 0.744 255 255 255
0.129 0.019 1.008 255 255 255
0.749 0.206 2.641 255 255 255
0.042 0.122 0.582 255 255 255
0.937 0.353 2.027 255 255 255
-0.249 0.109 0.49 0 0 0
-0.7 -0.698 2.344 0 0 0
-0.135 0.022 0.648 255 255 255
-1.646 -0.868 2.519 255 255 255
-0.146 0.217 0.46 0 0 0
-0.246 -0.008 0.848 255 255 255
0.04 0.058 0.728 255 255 255
-0.221 0.129 0.495 255 255 255
-0.34 -1.083 2.22 0 0 0
-0.509 -0.939 2.254 255 255 255
-0.055 -0.043 1.104 255 255 255
-0.874 -1.579 2.245 255 255 255
-0.53 -0.157 1.156 255 255 255
0.979 -0.59 2.366 255 255 255
-1.365 -0.97 2.477 255 255 255
-1.203 -1.304 2.344 255 255 255
-0.891 -1.205 2.356 255 255 255
0.273 -0.869 2.392 255 255 255
-0.251 0.112 0.486 255 255 255
-1.06 -1.133 2.38 255 255 255
0.071 0.118 0.294 255 255 255
0.984 -0.27 1.615 255 255 255
0.999 0.408 1.829 255 255 255
-0.18 0.096 0.497 255 255 255
-0.752 -0.134 1.016 255 255 255
-0.305 -0.808 2.29 255 255 255
-0.272 -0.01 0.847 255 255 255
0.693 -0.052 2.605 255 255 255
-0.261 -0.107 1.149 255 255 255
-0.862 -0.24 1.267 255 255 255
-0.604 -0.719 2.328 255 255 255
-0.088 0.176 0.488 255 255 255
0.101 0.116 0.274 255 255 255
0.974 -0.087 1.958 255 255 255
-0.429 -0.706 2.328 0 0 0
-0.126 0.105 0.464 255 255 255
-0.093 0.078 0.491 255 255 255
0.066 -0.093 1.275 0 0 0
0.024 0.159 0.514 0 0 0
-0.067 -0.696 2.318 0 0 0
0.112 0.101 0.281 0 0 0
0.03 0.232 0.463 255 255 255
-0.032 0.206 0.477 255 255 255
0.07 -0.732 2.304 255 255 255
-0.359 -1.316 2.286 255 255 255
-0.107 -1.543 2.209 255 255 255
0.116 0.005 1.019 255 255 255
0.09 0.205 0.484 0 0 0
-0.177 0.155 0.514 255 255 255
0.099 0.128 0.284 255 255 255
0.104 0.074 0.291 255 255 255
-0.093 0.055 0.722 255 255 255
-0.731 -0.172 1.312 0 0 0
0.327 -1.105 2.314 255 255 255
0.921 -1.547 2.161 0 0 0
-0.443 -0.763 2.311 255 255 255
0.077 0.116 0.625 255 255 255
-0.144 0.03 0.826 255 255 255
-0.308 0.019 0.733 255 255 255
0 -0.155 1.447 255 255 255
-0.438 -1.336 2.29 255 255 255
-0.515 -0.273 1.659 255 255 255
-0.201 0.189 0.472 255 255 255
-0.461 0.035 0.709 0 0 0
0.852 -0.698 2.408 255 255 255
0.045 -0.069 1.199 255 255 255
-0.02 0.147 0.529 255 255 255
-0.321 -0.753 2.31 255 255 255
0.449 -0.749 2.415 255 255 255
-0.048 0.064 0.712 255 255 255
-0.637 -0.926 2.266 255 255 255
-0.194 -0.91 2.253 255 255 255
-0.443 -0.308 1.672 0 0 0
-0.059 0.029 0.846 255 255 255
-1.119 -0.895 2.317 0 0 0
0.016 -0.004 1.013 255 255 255
0.788 -1.12 2.287 255 255 255
0.055 0.214 0.479 0 0 0
0.572 -1.385 2.216 255 255 255
-0.461 -1.446 2.26 255 255 255
0.492 -0.416 2.504 255 255 255
1.047 -0.889 2.12 255 255 255
-1.095 -0.779 2.343 255 255 255
0.268 -0.78 2.413 255 255 255
-0.442 0.006 0.838 255 255 255
0 0.013 0.934 255 255 255
-0.585 -1.072 2.199 255 255 255
1.016 -0.525 1.544 255 255 255
-0.291 0.114 0.508 255 255 255
-0.438 -1.398 2.269 255 255 255
0.112 0.105 0.279 255 255 255
-0.312 0.069 0.571 255 255 255
-0.516 -0.269 1.653 255 255 255
-0.124 0.18 0.483 255 255 255
1.005 -0.98 2.137 0 0 0
-1.716 -0.597 2.494 255 255 255
0.273 -0.903 2.38 255 255 255
0.149 -1.364 2.257 255 255 255
-0.255 -0.508 2.373 255 255 255
-1.157 -0.752 2.343 255 255 255
0.051 0.193 0.487 255 255 255
0.303 -0.79 2.41 255 255 255
-0.184 -0.047 0.952 0 0 0
0.902 0.222 1.762 255 255 255
0.776 -1.464 2.191 255 255 255
0.073 0.09 0.291 255 255 255
-0.059 0.236 0.456 255 255 255
0.092 0.096 0.279 255 255 255
-0.155 0.096 0.523 255 255 255
0.123 -1.069 2.336 255 255 255
1.013 -0.906 2.15 0 0 0
-0.249 -0.074 0.997 0 0 0
-0.739 -0.14 1.055 255 255 255
0.238 -1.278 2.272 255 255 255
-0.309 0.086 0.59 255 255 255
-0.014 0.07 0.703 255 255 255
0.986 -0.507 1.543 255 255 255
0.065 0.105 0.657 255 255 255
-1.192 -1.059 2.412 255 255 255
-0.463 -0.116 1.137 0 0 0
-0.937 -0.975 2.269 0 0 0
0.35 -1.411 2.228 255 255 255
0.051 0.208 0.481 255 255 255
0.589 0.224 2.553 0 0 0
0.175 -1.457 2.224 255 255 255
-0.415 -0.133 1.126 255 255 255
1.138 -0.36 1.581 255 255 255
-1.118 -1.078 2.406 255 255 255
-0.152 -0.605 2.328 255 255 255
0.142 -0.624 2.422 255 255 255
-0.688 -1.254 2.327 255 255 255
-0.119 -0.306 1.965 255 255 255
1.054 -0.665 2.227 255 255 255
1.12 -0.29 1.599 255 255 255
-0.182 0.196 0.47 255 255 255
-0.042 0.201 0.48 255 255 255
-0.031 0.201 0.479 255 255 255
-0.24 0.094 0.556 255 255 255
-0.26 -0.037 0.864 255 255 255
0.079 -1.257 2.284 255 255 255
0.077 0.145 0.301 255 255 255
1.017 -0.369 1.581 255 255 255
-0.706 -0.192 1.341 255 255 255
-0.39 0.044 0.668 255 255 255
0.257 -0.229 1.942 255 255 255
-1.189 -0.879 2.332 0 0 0
0.509 -0.564 2.463 255 255 255
0.899 -0.05 1.68 255 255 255
0.398 -0.519 2.484 255 255 255
1.062 -0.398 1.575 255 255 255
1.103 0.31 1.792 255 255 255
-0.003 0.073 0.699 255 255 255
-0.916 -1.284 2.334 255 255 255
-0.265 0.013 0.762 255 255 255
-1.485 -0.974 2.485 255 255 255
-0.994 -0.686 2.368 0 0 0
0.441 -0.651 2.442 255 255 255
-0.791 -0.199 1.164 255 255 255
0.069 0.152 0.542 255 255 255
-0.039 0.224 0.462 0 0 0
1.218 0.033 1.727 255 255 255
0.826 -1.103 2.292 255 255 255
-0.099 -0.884 2.257 0 0 0
-0.841 -1.488 2.269 255 255 255
1.074 0.027 1.699 255 255 255
0.409 -0.459 2.498 255 255 255
0.735 0.305 2.027 255 255 255
-0.054 -0.558 2.187 255 255 255
-0.276 -0.811 2.288 255 255 255
1.009 0.177 1.743 255 255 255
0.476 -0.69 2.429 255 255 255
0.728 0.284 2.327 255 255 255
-0.08 0.063 0.588 255 255 255
-0.567 0.016 0.846 255 255 255
0.934 0.468 1.841 255 255 255
0.365 -1.407 2.229 255 255 255
-1.073 -1.728 2.21 255 255 255
-0.281 -0.83 2.281 255 255 255
0.202 -0.862 2.319 0 0 0
-0.416 -0.009 0.87 255 255 255
-1.125 -0.524 2.417 0 0 0
0.895 -1.623 2.129 0 0 0
0.143 -1.029 2.346 255 255 255
-0.537 -0.052 0.916 0 0 0
-0.211 0.171 0.483 255 255 255
-1.654 -0.648 2.481 0 0 0
-0.413 -1.624 2.213 0 0 0
-1.168 -1.215 2.366 255 255 255
0.508 -1.101 2.309 255 255 255
-0.251 -1.171 2.326 255 255 255
-0.067 0.205 0.474 255 255 255
0.634 0.309 2.312 255 255 255
-0.087 0.187 0.482 255 255 255
0.066 0.109 0.285 255 255 255
0 0.112 0.616 255 255 255
1.008 0.119 1.728 255 255 255
0.128 -0.872 2.394 255 255 255
-0.111 0.104 0.457 255 255 255
-0.776 -0.745 2.328 255 255 255
0.993 -0.166 1.934 255 255 255
0.24 -0.24 1.966 255 255 255
-0.324 0.068 0.58 255 255 255
0.081 0.096 0.283 255 255 255
-0.436 -1.237 2.311 255 255 255
1.081 0.001 1.688 255 255 255
0.936 -0.501 2.458 255 255 255
-1.254 -0.596 2.41 0 0 0
0.243 -1.258 2.279 255 255 255
-0.152 0.166 0.502 255 255 255
-0.085 0.124 0.509 255 255 255
-0.6 -0.093 1.012 255 255 255
-0.087 0.209 0.47 0 0 0
1.077 -0.151 1.648 255 255 255
-1.344 -0.945 2.303 0 0 0
-0.665 -0.175 1.316 255 255 255
-0.161 0.255 0.455 255 255 255
-0.013 0.225 0.462 0 0 0
-0.218 -0.144 1.258 255 255 255
-1.768 -0.678 2.49 255 255 255
1.058 -1.038 2.114 255 255 255
-1.375 -0.675 2.352 0 0 0
-0.749 -0.15 1.055 255 255 255
-0.765 -0.069 1.078 0 0 0
0.094 0.148 0.555 0 0 0
-0.155 0.16 0.507 255 255 255
-0.084 0.096 0.508 0 0 0
-0.212 0.073 0.617 0 0 0
0.988 -0.724 2.053 255 255 255
0.98 0.261 1.775 255 255 255
-1.099 -0.659 2.378 0 0 0
-0.055 0.242 0.458 255 255 255
0.955 0.331 1.8 255 255 255
-0.606 -1.26 2.318 255 255 255
-0.429 -0.123 1.116 255 255 255
-0.125 0.241 0.456 255 255 255
-0.987 -1.07 2.393 0 0 0
-0.108 0.063 0.5 255 255 255
0.818 -1.478 2.182 255 255 255
-0.188 0.215 0.459 0 0 0
-0.808 -1.303 2.325 255 255 255
0.964 -1.463 2.173 255 255 255
-0.157 0.109 0.523 0 0 0
-0.548 -0.029 0.874 255 255 255
-0.017 0.14 0.559 255 255 255
-0.775 -1.333 2.317 255 255 255
-0.13 0.221 0.459 0 0 0
-0.362 -1.049 2.216 255 255 255
0.974 0.212 2.215 255 255 255
-0.261 -0.867 2.271 255 255 255
0.868 -1.312 2.233 255 255 255
1.064 -0.24 1.613 255 255 255
-1.126 -1.672 2.23 0 0 0
-0.699 -0.303 1.644 255 255 255
0.573 -1.423 2.206 255 255 255
-0.146 -1.29 2.288 255 255 255
0.72 -0.861 2.368 255 255 255
-0.211 0.168 0.487 255 255 255
0.979 0.458 1.838 255 255 255
-0.02 0.061 0.705 255 255 255
1.085 -0.384 1.57 255 255 255
0.018 0.2 0.479 255 255 255
0.034 0.072 0.692 0 0 0
-0.051 -1.402 2.251 255 255 255
-0.048 0.207 0.477 255 255 255
0.68 -0.805 2.388 255 255 255
0.714 -1.367 2.223 255 255 255
-0.39 -1.114 2.221 0 0 0
-1.199 -0.782 2.338 255 255 255
-1.099 -0.758 2.345 255 255 255
1.049 -0.328 1.587 255 255 255
0.011 0.104 0.721 0 0 0
0.988 -0.701 2.105 255 255 255
-0.398 -0.793 2.299 255 255 255
-0.677 -0.695 2.338 0 0 0
0.036 0.218 0.476 0 0 0
0.873 0.215 1.783 255 255 255
0.973 0.191 2.251 255 255 255
0.129 0.099 0.743 255 255 255
-0.209 -0.865 2.27 255 255 255
0.453 -0.812 2.394 255 255 255
-0.067 0.06 0.715 255 255 255
-0.063 0.191 0.482 0 0 0
1.004 -0.806 2.181 0 0 0
-0.415 -0.106 1.113 255 255 255
-0.522 -1.312 2.303 255 255 255
-0.292 0.068 0.622 255 255 255
0.026 0.195 0.484 255 255 255
-0.257 -0.028 0.879 255 255 255
0.111 -0.065 1.213 255 255 255
-0.313 0.093 0.562 255 255 255
-0.108 0.175 0.487 255 255 255
0.074 0.159 0.531 255 255 255
-0.871 -0.346 1.675 255 255 255
0.083 0.16 0.311 255 255 255
-0.369 0.062 0.617 255 255 255
1.007 -0.095 1.665 255 255 255
0.009 0.128 0.565 255 255 255
0.063 0.21 0.481 255 255 255
0.349 -1.338 2.25 255 255 255
0.798 -0.177 2.559 255 255 255
0.664 0.122 2.596 255 255 255
-0.917 -1.131 2.372 0 0 0
-0.336 -0.456 2.402 0 0 0
0.09 0.13 0.284 255 255 255
0.988 0.178 2.132 255 255 255
-0.627 -1.241 2.325 0 0 0
-0.373 -0.8 2.292 255 255 255
0.963 -0.626 1.52 255 255 255
0.071 0.14 0.322 255 255 255
-0.032 -0.424 1.934 255 255 255
0.079 0.135 0.29 255 255 255
0.154 -0.771 2.424 255 255 255
-0.054 0.242 0.458 255 255 255
-0.785 -0.622 2.33 255 255 255
0.55 -0.411 2.503 255 255 255
0.499 -0.843 2.384 255 255 255
-1.355 -0.545 2.361 0 0 0
-0.378 -0.801 2.294 255 255 255
-0.033 0.069 0.706 0 0 0
-0.315 0.074 0.563 255 255 255
0.589 -1.138 2.29 255 255 255
-0.641 -1.346 2.3 255 255 255
-0.089 0.169 0.501 255 255 255
-0.208 0.086 0.616 255 255 255
-0.45 -0.04 0.852 255 255 255
0.417 -0.958 2.354 255 255 255
0.926 -0.313 2.513 255 255 255
-0.258 -0.067 1.007 0 0 0
0.681 -0.314 2.526 255 255 255
0 0.215 0.472 0 0 0
0.14 -1.474 2.222 255 255 255
0.187 -1.629 2.175 0 0 0
0.111 0.046 0.816 255 255 255
-1.149 -0.833 2.322 255 255 255
-0.925 -1.139 2.375 255 255 255
0.91 -0.182 1.638 255 255 255
0.081 -0.369 1.917 255 255 255
0.066 0.1 0.296 255 255 255
0.629 -0.104 2.591 255 255 255
0.504 -0.853 2.381 255 255 255
-0.256 0.046 0.705 255 255 255
0.177 0.02 1.109 255 255 255
0.082 0.213 0.483 255 255 255
1.133 -0.36 1.581 255 255 255
-0.024 -0.295 1.919 0 0 0
0.578 -0.476 2.482 255 255 255
0.891 -1.636 2.129 255 255 255
0.654 0.017 2.627 255 255 255
-0.065 0.174 0.494 255 255 255
0.763 -1.434 2.198 255 255 255
0.322 -0.518 2.488 255 255 255
0.801 -1.201 2.268 255 255 255
0.975 0.236 2.495 255 255 255
-0.174 0.226 0.451 255 255 255
0.089 0.253 0.472 255 255 255
-0.091 -1.298 2.283 255 255 255
0.007 -0.373 1.915 255 255 255
0.327 -0.488 2.495 255 255 255
-0.169 0.1 0.494 255 255 255
-0.154 0.016 0.657 0 0 0
-0.842 -0.578 2.303 255 255 255
1.099 0.02 1.693 255 255 255
0.104 0.115 0.274 255 255 255
0.024 -0.264 1.738 0 0 0
0.053 0.077 0.684 0 0 0
0.859 0.198 2.66 255 255 255
0.093 0.102 0.276 255 255 255
0.975 -0.602 2.244 255 255 255
-0.787 -1.398 2.295 255 255 255
-1.106 -1.429 2.301 255 255 255
-0.506 -0.812 2.295 255 255 255
-0.034 0.09 0.71 255 255 255
0.103 0.071 0.295 255 255 255
0.075 0.177 0.508 255 255 255
0.538 -1.032 2.327 255 255 255
0.07 -0.695 2.314 0 0 0
-0.433 -1.62 2.205 0 0 0
-0.085 0.064 0.635 255 255 255
-0.021 0.089 0.757 0 0 0
-0.158 -0.061 0.957 255 255 255
0.915 0.427 1.957 255 255 255
-0.483 -0.029 0.852 255 255 255
-0.107 -1.529 2.217 255 255 255
0.078 0.233 0.468 255 255 255
0.084 0.168 0.317 255 255 255
-0.126 0.183 0.481 255 255 255
-0.348 -1.227 2.313 255 255 255
-0.708 -1.548 2.245 255 255 255
-1.11 -0.764 2.342 255 255 255
0.992 0.13 1.732 255 255 255
0.973 -1.013 2.312 255 255 255
-0.624 -1.296 2.314 255 255 255
-0.262 -0.853 2.276 255 255 255
-0.712 -0.103 0.971 255 255 255
-0.166 -0.151 1.404 255 255 255
0.779 -1.184 2.274 255 255 255
0.049 -1.142 2.323 255 255 255
0.93 -0.944 2.336 255 255 255
-0.294 -1.447 2.25 255 255 255
0.223 -1.045 2.34 255 255 255
-0.932 -1.189 2.363 255 255 255
0.431 -0.129 2.591 0 0 0
-1.144 -0.859 2.317 0 0 0
-0.918 -1.645 2.227 0 0 0
-0.054 0.152 0.518 255 255 255
0.116 0.131 0.289 255 255 255
-0.055 -0.934 2.359 255 255 255
-1.412 -1.088 2.446 255 255 255
0.177 -0.279 1.882 0 0 0
0.156 0.111 0.769 255 255 255
-1.1 -0.832 2.316 255 255 255
-0.051 -1.332 2.269 255 255 255
-0.067 -0.438 1.942 255 255 255
-0.178 0.154 0.517 0 0 0
0.166 -0.009 1.157 255 255 255
-0.175 -0.924 2.249 0 0 0
-0.101 0.212 0.468 0 0 0
-0.378 -0.835 2.286 255 255 255
0.749 -0.43 2.487 255 255 255
0.101 0.108 0.277 255 255 255
-0.038 0.241 0.457 255 255 255
-0.11 -0.06 1.17 0 0 0
1.126 -0.262 1.611 255 255 255
-0.364 -0.128 1.206 0 0 0
-0.095 0.023 0.866 255 255 255
-0.148 -0.125 1.276 255 255 255
0.042 0.119 0.599 255 255 255
1.004 -0.188 1.633 255 255 255
0.094 0.243 0.45 255 255 255
0.913 -0.058 2.584 255 255 255
-0.137 0.156 0.501 255 255 255
-0.039 0.13 0.527 0 0 0
0.083 0.051 0.789 255 255 255
-0.861 -1.178 2.358 255 255 255
-0.514 -1.615 2.216 0 0 0
-0.705 -0.091 0.939 255 255 255
0.014 -1.131 2.324 255 255 255
0.046 -0.83 2.266 0 0 0
-0.555 -0.675 2.342 0 0 0
1.052 -0.361 1.974 255 255 255
-1.097 -1.1 2.393 255 255 255
0.079 -1.368 2.256 255 255 255
-0.068 0.169 0.501 255 255 255
-0.156 -0.825 2.277 255 255 255
0.103 0.159 0.305 255 255 255
-0.176 0.144 0.513 255 255 255
0.015 0.01 0.969 255 255 255
-0.311 0.085 0.568 255 255 255
0.985 -0.811 2.185 0 0 0
1.035 -0.01 1.69 255 255 255
0.989 -0.108 1.949 255 255 255
0.054 -1.321 2.27 255 255 255
0.987 -0.195 2.139 255 255 255
-0.176 0.186 0.478 255 255 255
0.699 0.017 2.627 255 255 255
1.133 -0.052 1.67 255 255 255
1.021 -0.197 2.101 255 255 255
-0.05 -0.065 1.182 255 255 255
-0.098 -0.053 1.112 0 0 0
1.109 -0.454 1.552 255 255 255
0.95 -1.512 2.161 255 255 255
-0.114 -0.047 1.136 0 0 0
-0.718 -0.043 0.995 255 255 255
0.741 -1.22 2.26 255 255 255
1.238 -0.665 2.205 0 0 0
0.544 -1.032 2.327 255 255 255
0.098 0.105 0.66 255 255 255
-0.05 0.134 0.526 0 0 0
-0.932 -0.875 2.297 255 255 255
0.095 -0.629 2.241 255 255 255
0.056 0.241 0.463 255 255 255
-0.564 -0.761 2.318 255 255 255
0.106 0.137 0.287 255 255 255
-0.152 -0.881 2.262 255 255 255
0.045 -1.495 2.227 255 255 255
-0.374 0.074 0.604 255 255 255
0.183 -0.786 2.34 0 0 0
0.872 -0.031 2.601 255 255 255
1.057 -0.454 1.558 255 255 255
-1.044 -1.224 2.356 255 255 255
0.21 -0.637 2.297 0 0 0
-0.171 0.186 0.479 255 255 255
1.1 -0.453 1.553 255 255 255
-0.148 0.175 0.483 255 255 255
0.084 0.079 0.289 255 255 255
-0.008 0.097 0.755 0 0 0
-0.283 -1.354 2.274 255 255 255
-0.092 0.104 0.48 255 255 255
-0.297 0.065 0.6 255 255 255
0.059 0.229 0.469 0 0 0
-0.314 -0.896 2.262 255 255 255
0.989 0.118 1.728 255 255 255
0.13 0.1 0.74 255 255 255
0.136 -1.641 2.174 0 0 0
0.969 -0.45 1.562 255 255 255
-0.334 -0.36 1.719 255 255 255
0.753 0.31 2.026 255 255 255
0.909 -0.852 2.363 255 255 255
-1.073 -1.388 2.308 255 255 255
-1.223 -1.101 2.4 255 255 255
-0.037 -0.459 1.978 255 255 255
-0.147 0.019 0.656 0 0 0
1.166 0.146 1.723 255 255 255
0.799 -0.864 2.361 255 255 255
0.965 -0.079 2.406 0 0 0
0.228 -1.253 2.282 255 255 255
0.497 -0.17 2.576 255 255 255
0.932 -0.305 1.604 255 255 255
-0.089 0.212 0.467 0 0 0
0.092 0.106 0.277 255 255 255
0.944 -0.437 1.566 255 255 255
1 -0.913 2.307 255 255 255
0.084 0.146 0.292 255 255 255
0.907 0.362 1.81 255 255 255
0.294 -1.638 2.169 0 0 0
0.143 -0.96 2.367 255 255 255
-0.461 -0.17 1.175 255 255 255
0.955 -0.134 2.392 0 0 0
-0.368 0.054 0.63 255 255 255
0.074 0.129 0.292 255 255 255
0.072 0.127 0.296 255 255 255
1.246 -0.019 1.73 255 255 255
1.074 -0.621 2.23 255 255 255
1.138 0.153 1.733 255 255 255
0.897 -0.65 2.418 255 255 255
0.327 -0.947 2.363 255 255 255
-0.277 -1.187 2.322 255 255 255
0.297 -1.058 2.327 255 255 255
-0.356 -1.445 2.251 255 255 255
-0.747 -0.11 1.147 0 0 0
-0.098 0.097 0.484 0 0 0
-0.816 -1.398 2.299 255 255 255
-0.468 -1.524 2.238 255 255 255
0.023 -0.361 1.914 255 255 255
1.012 -0.21 2.104 255 255 255
-0.286 -0.849 2.278 255 255 255
0.085 0.165 0.522 0 0 0
1.017 -0.447 1.561 255 255 255
-0.577 -0.096 1.03 255 255 255
-0.656 -0.117 1.085 255 255 255
0.847 -1.524 2.165 255 255 255
-0.071 0.219 0.464 0 0 0
0.188 -1.135 2.317 255 255 255
-0.185 0.216 0.458 0 0 0
0.424 -0.321 2.536 255 255 255
-0.293 0.016 0.742 255 255 255
0.846 -0.286 2.527 255 255 255
-0.285 0.095 0.579 255 255 255
-0.461 -1.456 2.255 255 255 255
-0.879 -1.208 2.352 255 255 255
-0.1 0.111 0.446 0 0 0
0.034 -0.122 1.343 255 255 255
-0.103 0.199 0.475 255 255 255
0.404 -0.703 2.425 255 255 255
-0.743 -0.8 2.311 255 255 255
-0.055 0.073 0.702 0 0 0
-0.061 0.17 0.502 255 255 255
0.88 0.217 1.761 255 255 255
-0.456 -1.675 2.192 0 0 0
-0.295 -0.333 1.772 255 255 255
-0.103 0.103 0.457 255 255 255
0.563 -1.031 2.322 255 255 255
-0.025 0.137 0.534 0 0 0
0.365 -1.411 2.226 255 255 255
-0.277 -0.053 0.906 255 255 255
-0.152 -0.104 1.24 255 255 255
0.929 -0.521 1.538 255 255 255
-0.133 0.186 0.479 255 255 255
-0.085 0.133 0.49 255 255 255
0.977 0.568 1.851 255 255 255
0.059 -1.259 2.288 255 255 255
-0.931 -0.269 1.504 255 255 255
-0.216 -0.677 2.334 255 255 255
0.933 -0.395 2.492 255 255 255
0.829 -0.467 2.474 255 255 255
-0.144 0.064 0.547 0 0 0
-0.249 0.08 0.598 255 255 255
0.893 -1.29 2.232 255 255 255
0.931 -0.047 1.683 255 255 255
-0.083 0.069 0.675 255 255 255
0.028 0.171 0.502 255 255 255
-0.102 -1.584 2.201 255 255 255
-0.415 0.013 0.817 255 255 255
-0.031 0.238 0.456 255 255 255
-0.357 0.063 0.616 0 0 0
-0.303 -0.32 1.758 255 255 255
1.046 -0.869 2.124 255 255 255
-0.654 -1.582 2.234 255 255 255
0.118 0.082 0.771 255 255 255
0.202 -0.714 2.292 0 0 0
-0.024 0.187 0.487 255 255 255
0.978 -0.281 2.5 255 255 255
0.099 0.229 0.477 255 255 255
-0.134 0.215 0.462 0 0 0
-0.294 0.059 0.654 255 255 255
0.946 0.331 1.801 255 255 255
0.981 -0.084 2.404 0 0 0
0.039 0.129 0.568 255 255 255
-0.296 0.043 0.707 0 0 0
0.104 -1.144 2.315 255 255 255
-0.496 -0.135 1.142 255 255 255
0.023 0.237 0.459 255 255 255
-0.03 -1.022 2.359 255 255 255
0.068 0.139 0.316 255 255 255
0.031 0.126 0.58 255 255 255
-1.166 -1.52 2.276 255 255 255
0.258 -0.888 2.384 255 255 255
0.906 -0.671 1.561 0 0 0
-0.208 0.16 0.497 255 255 255
0.985 -0.003 1.972 255 255 255
-0.031 0.173 0.498 255 255 255
0.595 -1.024 2.326 255 255 255
0.501 -1.338 2.242 255 255 255
-0.862 -0.865 2.301 255 255 255
0.202 -0.541 2.328 0 0 0
-0.17 0.013 0.907 255 255 255
-0.076 0.194 0.478 255 255 255
-0.554 -0.019 0.876 255 255 255
0.894 0.061 2.63 255 255 255
1.115 -0.044 1.673 255 255 255
0.986 0.3 2.084 255 255 255
-0.546 -0.805 2.299 255 255 255
-0.471 -0.06 0.87 255 255 255
-0.383 -0.159 1.213 255 255 255
-0.475 -0.353 1.663 255 255 255
-0.29 0.013 0.749 255 255 255
-0.391 -1.056 2.216 255 255 255
-0.252 -0.792 2.294 255 255 255
0.026 0.217 0.475 0 0 0
1.06 -0.412 1.57 255 255 255
1.007 -0.084 1.666 255 255 255
0.258 -0.868 2.389 255 255 255
-0.211 0.187 0.47 255 255 255
0.054 0.205 0.482 255 255 255
0.06 0.182 0.497 255 255 255
-0.098 0.036 0.804 255 255 255
0.991 0.014 1.975 255 255 255
1.055 -0.612 2.239 255 255 255
0.114 0.139 0.589 0 0 0
-0.071 0.053 0.719 255 255 255
0.884 0.017 2.618 255 255 255
0.107 0.043 0.825 255 255 255
-0.25 -0.18 1.357 255 255 255
1.026 -1.46 2.172 255 255 255
1.155 -0.303 1.592 255 255 255
-0.162 0.205 0.465 0 0 0
0.446 -1.357 2.241 255 255 255
0.152 0.126 0.718 255 255 255
0.079 0.16 0.324 255 255 255
-0.324 0.02 0.726 255 255 255
0.275 -0.575 2.468 255 255 255
0.889 -0.026 2.6 255 255 255
-0.027 0.088 0.716 255 255 255
-0.346 0.044 0.654 255 255 255
-0.128 0.162 0.502 255 255 255
-0.193 0.16 0.502 255 255 255
-0.117 0.085 0.478 255 255 255
-0.069 0.15 0.519 255 255 255
-1.725 -0.673 2.483 255 255 255
-0.283 -1.344 2.278 255 255 255
0.99 0.196 2.381 255 255 255
-0.556 -0.887 2.275 255 255 255
0.252 -1.014 2.344 255 255 255
-0.606 -1.256 2.321 255 255 255
0.105 0.133 0.286 255 255 255
1.087 -0.313 1.59 255 255 255
0.019 -1.388 2.248 255 255 255
-0.727 -0.214 1.444 255 255 255
-1.028 -1.456 2.289 255 255 255
-0.825 -0.788 2.32 255 255 255
-0.159 0.099 0.513 255 255 255
0.994 -0.145 2.227 255 255 255
-0.935 -0.701 2.359 0 0 0
0.104 0.239 0.45 255 255 255
1.166 -0.153 1.635 255 255 255
-0.007 0.151 0.525 255 255 255
-0.511 -0.273 1.659 0 0 0
-0.797 -1.043 2.251 255 255 255
0.034 0.181 0.494 255 255 255
0.026 -0.16 1.467 255 255 255
-0.107 0.195 0.477 255 255 255
1.028 -1.56 2.15 0 0 0
0.131 0.104 0.291 255 255 255
0.969 0.262 2.199 255 255 255
0.971 0.249 2.304 255 255 255
-0.004 0.186 0.487 255 255 255
0.06 0.154 0.529 255 255 255
0.412 -1.038 2.332 255 255 255
-1.73 -0.851 2.537 255 255 255
-0.407 -0.166 1.203 255 255 255
0.654 -1.569 2.175 0 0 0
0.031 0.174 0.5 255 255 255
-0.072 -1.602 2.198 0 0 0
-0.122 0.15 0.484 0 0 0
0.113 0.034 0.873 255 255 255
-0.193 -0.584 2.363 0 0 0
-1.087 -1.585 2.249 255 255 255
-0.19 -0.096 1.169 255 255 255
0.069 0.097 0.291 255 255 255
0.338 -0.459 2.502 255 255 255
-0.074 0.133 0.522 0 0 0
1.101 0.141 1.731 255 255 255
-0.343 0.066 0.612 0 0 0
-1.293 -1.112 2.437 255 255 255
0.111 0.089 0.282 0 0 0
0.308 -1.196 2.291 255 255 255
-0.919 -0.325 1.6 255 255 255
1 -0.831 2.178 0 0 0
-0.168 0.111 0.501 0 0 0
0.527 0.163 2.592 0 0 0
-0.487 -0.158 1.158 255 255 255
0.816 -0.636 2.426 255 255 255
-0.132 0.055 0.632 0 0 0
0.07 0.237 0.464 255 255 255
-0.69 -0.314 1.651 255 255 255
0.094 -0.585 2.218 255 255 255
-1.06 -1.484 2.283 255 255 255
0.052 0.181 0.496 255 255 255
-0.905 -0.287 1.587 255 255 255
-0.122 0.041 0.699 255 255 255
0.095 0.095 0.279 255 255 255
-0.18 0.102 0.486 255 255 255
-1.132 -1.243 2.358 255 255 255
-0.153 0.025 0.652 0 0 0
-0.301 0.02 0.736 255 255 255
0.067 0.184 0.497 255 255 255
-0.155 0.205 0.465 0 0 0
0.564 0.193 2.56 0 0 0
-0.138 0.221 0.457 0 0 0
-0.341 -0.431 2.272 255 255 255
0.949 0.22 1.764 255 255 255
-0.162 0.226 0.452 255 255 255
-0.136 0.211 0.465 0 0 0
0.072 0.168 0.511 255 255 255
-0.079 0.163 0.505 255 255 255
-0.103 0.071 0.489 0 0 0
-0.289 -0.419 2.342 255 255 255
-0.517 -0.743 2.317 255 255 255
0.554 -0.297 2.535 255 255 255
0.821 -0.887 2.357 255 255 255
-0.091 0.218 0.464 0 0 0
-0.097 0.174 0.489 255 255 255
1.071 -0.651 2.229 255 255 255
0.268 -0.859 2.393 255 255 255
1.158 -0.285 1.599 255 255 255
-0.853 -0.551 2.294 255 255 255
0.986 -0.749 2.202 255 255 255
0.964 -0.592 2.246 255 255 255
-0.353 -0.988 2.237 255 255 255
-0.113 0.172 0.49 255 255 255
0.049 0.14 0.549 0 0 0
1.087 -1.037 2.117 255 255 255
-0.031 -1.338 2.269 255 255 255
0.11 -0.019 1.084 255 255 255
-0.023 -0.02 1.04 255 255 255
-0.405 0.032 0.695 0 0 0
0.524 -1.617 2.16 0 0 0
-0.086 -0.723 2.309 255 255 255
0.333 -1.265 2.273 255 255 255
-1.118 -0.635 2.384 0 0 0
0.752 -0.365 2.504 255 255 255
0.009 -0.967 2.372 255 255 255
0.887 -0.328 2.513 255 255 255
-0.03 -1.051 2.347 255 255 255
0.687 -0.299 2.53 255 255 255
0.985 -0.347 1.591 255 255 255
-1.372 -1.179 2.419 255 255 255
0.957 -0.497 1.955 255 255 255
-1.228 -0.594 2.408 255 255 255
0.389 -0.763 2.415 255 255 255
-0.483 -0.384 1.673 255 255 255
0.074 0.076 0.305 255 255 255
-0.388 -1.488 2.244 255 255 255
-1.123 -1.513 2.278 255 255 255
-0.073 0.193 0.48 255 255 255
0.421 -0.415 2.509 255 255 255
0.048 0.135 0.553 255 255 255
0.257 -1.082 2.321 255 255 255
0.196 -0.264 1.884 255 255 255
-0.297 0.061 0.606 255 255 255
0.012 0.176 0.496 255 255 255
0.055 0.129 0.569 0 0 0
-0.172 0.195 0.473 255 255 255
-0.911 -1.305 2.328 255 255 255
-0.364 -1.302 2.293 255 255 255
-0.611 -0.085 1.018 0 0 0
-0.076 0.211 0.47 0 0 0
0.831 -0.11 2.579 255 255 255
0.712 -1.567 2.171 0 0 0
-1.128 -0.65 2.377 255 255 255
0.693 -0.514 2.468 255 255 255
-0.319 -1.367 2.272 255 255 255
0.392 -0.983 2.35 255 255 255
-0.126 0.063 0.594 0 0 0
1.006 -0.257 2.349 255 255 255
-0.981 -0.924 2.282 255 255 255
0.638 -1.551 2.181 255 255 255
0.984 0.057 2.426 255 255 255
0.023 -0.809 2.279 255 255 255
0.729 -0.425 2.492 255 255 255
-0.732 -0.23 1.444 255 255 255
-0.054 0.21 0.473 0 0 0
-0.214 0.072 0.617 255 255 255
-0.093 -0.276 1.924 255 255 255
0.78 -0.35 2.508 255 255 255
0.787 -1.466 2.191 255 255 255
0.154 0.082 0.839 255 255 255
-0.118 -0.917 2.248 0 0 0
-1.315 -1.329 2.371 255 255 255
-0.227 0.056 0.697 255 255 255
0.293 -1.613 2.173 0 0 0
0.388 -1.183 2.292 255 255 255
-0.116 0.119 0.448 255 255 255
0.047 -0.782 2.289 255 255 255
0.723 -0.156 2.57 255 255 255
-0.441 -0.926 2.258 255 255 255
0.44 -0.67 2.436 255 255 255
0.973 -0.303 2.457 255 255 255
1.022 0.077 1.714 255 255 255
0.064 -0.951 2.374 255 255 255
-0.705 -0.154 1.286 0 0 0
0.919 -1.209 2.255 255 255 255
-0.596 -1.673 2.197 0 0 0
-0.072 0.094 0.64 0 0 0
-0.084 0.121 0.538 0 0 0
0.074 0.177 0.506 255 255 255
-0.283 -0.627 2.347 0 0 0
0.148 -1.145 2.315 255 255 255
-0.173 0.02 0.642 255 255 255
0.838 -0.847 2.367 255 255 255
-0.05 0.169 0.503 255 255 255
1.194 -0.083 1.664 255 255 255
0.086 0.078 0.288 255 255 255
0.045 0.132 0.557 255 255 255
0.178 -0.837 2.398 255 255 255
0.457 -0.963 2.348 255 255 255
-0.198 0.147 0.519 0 0 0
-0.166 -1.38 2.262 255 255 255
0.081 0.017 0.949 255 255 255
-0.692 -1.107 2.228 0 0 0
-0.957 -0.814 2.318 255 255 255
-0.948 -1.356 2.319 255 255 255
1.028 -0.227 2.349 255 255 255
0.949 -0.402 2.329 255 255 255
-0.484 -1.515 2.242 255 255 255
0.434 -1.327 2.243 255 255 255
-0.72 -0.111 1.008 255 255 255
0.826 -0.167 2.559 255 255 255
0.506 -0.311 2.531 255 255 255
0.898 0.354 2.301 255 255 255
-0.583 -1.389 2.285 255 255 255
-0.107 0.138 0.461 0 0 0
0.085 0.18 0.354 255 255 255
-1.036 -1.624 2.238 0 0 0
-1.032 -0.213 1.362 0 0 0
0.902 -1.393 2.202 255 255 255
0.886 -0.234 1.63 255 255 255
0.088 0.109 0.276 255 255 255
-0.156 0.097 0.52 0 0 0
-0.282 0.113 0.513 255 255 255
0.24 -0.228 1.968 255 255 255
-0.019 0.237 0.457 255 255 255
1.072 -0.705 1.993 255 255 255
0.055 0.229 0.47 0 0 0
-0.633 -0.025 0.937 0 0 0
0.141 0.1 0.308 255 255 255
0.928 -0.04 2.14 255 255 255
-0.241 0.15 0.517 0 0 0
-0.024 0.165 0.506 255 255 255
-0.524 -1.446 2.262 255 255 255
0.074 0.12 0.29 255 255 255
-1.094 -0.32 1.516 255 255 255
-0.114 0.147 0.476 0 0 0
-0.547 -1.101 2.172 0 0 0
0.036 0.191 0.488 255 255 255
-0.455 0.031 0.709 0 0 0
-0.063 -0.297 1.957 0 0 0
0.081 0.118 0.62 255 255 255
-1.244 -1.164 2.398 255 255 255
0.084 0.227 0.475 0 0 0
0.445 -0.68 2.433 255 255 255
0.105 0.132 0.286 255 255 255
0.091 0.176 0.498 0 0 0
1.031 -0.287 2.252 255 255 255
-0.781 -0.154 1.054 255 255 255
0.293 -1.208 2.292 255 255 255
-0.375 -0.168 1.239 255 255 255
-0.001 0.145 0.531 255 255 255
1.129 0.009 1.694 255 255 255
-1.204 -0.686 2.368 255 255 255
0.071 0.2 0.486 255 255 255
-0.443 -1.368 2.28 255 255 255
1.039 -0.402 1.962 255 255 255
-0.335 -0.067 1.059 0 0 0
-0.256 -1.635 2.196 0 0 0
0.778 -0.908 2.351 255 255 255
-0.179 0.147 0.517 255 255 255
0.024 0.043 0.803 255 255 255
-0.281 -0.539 2.379 0 0 0
0.251 -0.231 1.957 255 255 255
0.131 0.137 0.63 255 255 255
0.005 0.147 0.529 255 255 255
0.127 0.126 0.65 255 255 255
1.068 0.054 1.704 255 255 255
1.088 -0.833 1.95 255 255 255
-0.12 0.203 0.472 255 255 255
-0.977 -1.086 2.391 255 255 255
0.042 0.206 0.481 255 255 255
0.113 -0.044 1.164 255 255 255
-0.046 0.159 0.509 0 0 0
0.192 -1.592 2.189 0 0 0
1.01 -1.481 2.168 255 255 255
-0.096 0.067 0.517 255 255 255
-0.055 -0.155 1.445 255 255 255
-0.193 0.164 0.494 255 255 255
-0.069 0.1 0.519 255 255 255
1.205 -1.091 2.096 255 255 255
0.126 -0.295 1.916 0 0 0
-1.081 -1.6 2.242 255 255 255
0.086 0.069 0.304 255 255 255
0.079 0.109 0.276 255 255 255
0.089 0.125 0.286 255 255 255
-0.409 0.033 0.695 255 255 255
-0.64 0.001 0.915 255 255 255
0.129 -1.226 2.291 255 255 255
-0.191 0.094 0.594 255 255 255
0.033 0.253 0.464 255 255 255
-0.162 -0.009 0.925 255 255 255
-0.094 0.068 0.504 255 255 255
1.15 0.194 1.741 255 255 255
-0.891 -0.599 2.316 255 255 255
1.086 -0.98 2.096 255 255 255
0.117 -0.006 1.053 255 255 255
-0.404 0.026 0.699 255 255 255
-0.145 0.225 0.455 255 255 255
0.694 -0.849 2.371 255 255 255
0.071 0.233 0.467 255 255 255
0.205 -1.434 2.235 255 255 255
1.08 0.373 1.813 255 255 255
0.625 -0.176 2.57 255 255 255
0.892 0.089 1.785 255 255 255
0.901 -0.553 1.542 255 255 255
-1.071 -1.664 2.234 0 0 0
-0.804 -0.673 2.346 0 0 0
-1.337 -0.606 2.376 0 0 0
-1.36 -1.06 2.456 255 255 255
0.907 -1.408 2.193 255 255 255
0.676 0.297 2.323 255 255 255
-0.106 0.201 0.474 255 255 255
-1.05 -0.321 1.498 255 255 255
-0.025 0.081 0.732 255 255 255
-0.431 -0.946 2.256 255 255 255
-1.308 -1.328 2.371 255 255 255
-0.73 -0.125 1.008 255 255 255
-0.938 -1.243 2.347 255 255 255
-0.904 -1.288 2.333 255 255 255
-0.712 -0.1 0.956 255 255 255
-0.157 -0.043 0.979 255 255 255
0.666 -0.383 2.505 255 255 255
-0.364 -0.133 1.178 255 255 255
0.789 -1.224 2.257 255 255 255
-0.465 -0.3 1.661 255 255 255
-0.318 -1.642 2.191 0 0 0
0.039 0.225 0.472 0 0 0
-0.182 -0.596 2.352 0 0 0
-0.647 -0.298 1.631 255 255 255
0.768 -1.207 2.264 255 255 255
-1.225 -0.817 2.334 0 0 0
0.244 -1.279 2.274 255 255 255
-0.033 0.173 0.498 255 255 255
-0.054 0.121 0.532 0 0 0
-0.158 0.048 0.557 255 255 255
-0.522 -0.06 0.928 0 0 0
0.262 -1.048 2.332 255 255 255
0.095 0.251 0.472 255 255 255
0.155 -0.314 1.935 255 255 255
-0.079 0.123 0.534 0 0 0
0.115 0.118 0.28 255 255 255
-0.098 0.072 0.492 0 0 0
0.056 0.231 0.467 255 255 255
0.029 0.077 0.689 255 255 255
-0.7 -0.947 2.267 255 255 255
-0.017 -0.212 1.665 255 255 255
-0.235 -1.652 2.184 0 0 0
0.803 -1.106 2.29 255 255 255
-0.408 0.013 0.837 255 255 255
0.099 -1.005 2.357 255 255 255
-0.377 0.066 0.613 255 255 255
1 -0.229 2.109 255 255 255
-0.227 0.042 0.731 255 255 255
0.418 -0.871 2.383 255 255 255
-0.16 -0.126 1.265 255 255 255
0.025 0.149 0.531 255 255 255
0.049 -0.273 1.753 0 0 0
-0.123 0.145 0.476 0 0 0
-0.699 -0.015 0.933 255 255 255
0.386 -1.439 2.218 255 255 255
-0.82 -1.338 2.317 255 255 255
0.065 0.104 0.361 0 0 0
0.865 -1.417 2.198 255 255 255
-0.158 -0.115 1.253 255 255 255
0.084 0.17 0.317 255 255 255
0.797 -0.441 2.482 255 255 255
0.897 0.098 1.725 255 255 255
0.953 0.255 2.655 255 255 255
-0.212 0.186 0.473 255 255 255
0.921 0.239 1.771 255 255 255
-0.084 0.208 0.469 0 0 0
-0.087 0.086 0.497 255 255 255
0.791 -0.571 2.445 255 255 255
-0.012 -0.365 1.914 255 255 255
0.98 -1.687 2.116 255 255 255
0.978 -0.853 2.172 0 0 0
0.544 -1.178 2.283 255 255 255
-0.068 0.154 0.512 255 255 255
-0.15 0.13 0.507 255 255 255
-0.051 0.182 0.488 255 255 255
0.677 -1.389 2.215 255 255 255
0.158 -1.015 2.352 255 255 255
0.942 -0.512 1.54 255 255 255
-0.314 0.113 0.567 0 0 0
-0.172 0.129 0.506 0 0 0
0.087 -0.641 2.249 255 255 255
-0.638 -1.602 2.226 255 255 255
-0.164 -0.266 1.899 255 255 255
0.65 -0.403 2.501 255 255 255
1.107 -0.159 1.642 255 255 255
-0.435 -0.005 0.87 0 0 0
-0.463 -1.54 2.233 255 255 255
-0.553 -1.293 2.307 255 255 255
0.552 -0.526 2.475 255 255 255
-0.264 0.12 0.499 255 255 255
-0.357 -0.164 1.232 255 255 255
0.895 -1.354 2.213 255 255 255
-1.051 -1.557 2.26 255 255 255
1.179 -1.017 2.115 255 255 255
0.088 0.109 0.276 255 255 255
-0.142 -1.536 2.216 255 255 255
0.208 -0.912 2.257 0 0 0
-0.241 0.127 0.492 255 255 255
-1.269 -1.383 2.35 255 255 255
-0.573 -1.009 2.231 255 255 255
-0.834 -1.708 2.206 255 255 255
0.874 0.37 1.817 255 255 255
0.484 -1.524 2.187 255 255 255
0.17 -0.314 1.933 255 255 255
-1.071 -1.268 2.348 255 255 255
-0.153 0.167 0.495 255 255 255
-1.315 -0.902 2.472 0 0 0
-0.786 -0.206 1.332 0 0 0
0.097 0.144 0.575 255 255 255
0.051 0.132 0.565 0 0 0
0.115 0.124 0.646 255 255 255
0.084 0.089 0.282 255 255 255
0.079 -1.091 2.336 255 255 255
-0.407 -0.817 2.292 255 255 255
0.684 -1.212 2.267 255 255 255
0.586 0.363 2.396 0 0 0
-0.274 -0.068 1.017 0 0 0
0.937 0.104 2.477 255 255 255
-1.048 -1.637 2.232 0 0 0
-0.151 -1.281 2.293 255 255 255
0.522 -0.009 2.622 255 255 255
0.107 0.149 0.292 255 255 255
1.057 -0.663 1.952 255 255 255
-0.772 -0.26 1.699 0 0 0
-0.124 0.042 0.734 255 255 255
-0.1 -1.037 2.354 255 255 255
0.941 0.332 1.975 255 255 255
-0.294 0.085 0.614 0 0 0
0.071 0.107 0.652 255 255 255
-0.063 -0.527 2.191 0 0 0
-0.088 0.09 0.496 0 0 0
0.009 -1.549 2.2 255 255 255
-1.17 -0.939 2.396 0 0 0
0.071 -0.55 2.192 255 255 255
-0.074 0.244 0.458 255 255 255
0.131 -0.316 1.925 255 255 255
-0.056 0.068 0.705 0 0 0
-0.372 -0.501 2.309 255 255 255
-0.984 -1.377 2.312 255 255 255
-0.312 -0.04 0.893 255 255 255
0.638 -1.525 2.192 255 255 255
0.695 -1.456 2.196 255 255 255
0.497 -0.944 2.35 255 255 255
-0.297 -0.683 2.33 255 255 255
0.141 0.146 0.644 0 0 0
0.003 0.102 0.734 0 0 0
-0.309 0.086 0.592 255 255 255
0.499 -0.857 2.38 255 255 255
1.04 0.353 1.805 255 255 255
-0.167 0.219 0.456 0 0 0
0.903 -0.372 1.582 255 255 255
-0.092 -1.518 2.221 255 255 255
1.143 0.043 1.7 255 255 255
0.091 0.13 0.601 255 255 255
0.4 -1.402 2.228 255 255 255
0.084 -0.081 1.248 255 255 255
0.518 -0.916 2.359 255 255 255
0.636 0.256 2.306 255 255 255
-0.014 -0.068 1.18 255 255 255
-1.208 -1.469 2.292 255 255 255
-0.15 -1.022 2.356 255 255 255
-0.43 -0.02 0.864 0 0 0
0.983 -1.682 2.109 255 255 255
0.294 -0.732 2.427 255 255 255
0.929 -0.888 2.35 255 255 255
-0.022 0.195 0.482 255 255 255
0.703 -0.212 2.555 255 255 255
0.547 -0.485 2.481 255 255 255
-0.09 0.187 0.482 255 255 255
-0.583 -0.848 2.294 255 255 255
1.049 -0.474 1.962 255 255 255
-0.27 -1.511 2.23 255 255 255
-0.165 0.119 0.523 0 0 0
-0.078 0.15 0.517 255 255 255
1.045 -0.693 2.026 255 255 255
-0.174 0.036 0.596 255 255 255
0.976 -0.203 2.373 255 255 255
0.595 -0.452 2.491 255 255 255
1.099 -0.307 1.595 255 255 255
0.1 0.244 0.449 255 255 255
-0.1 0.216 0.464 0 0 0
-0.301 -0.085 1.021 255 255 255
0.4 -0.435 2.506 255 255 255
-0.54 -1.016 2.215 255 255 255
0.032 0.1 0.675 255 255 255
-1.322 -1.353 2.364 255 255 255
0.064 0.132 0.573 255 255 255
-1.207 -1.199 2.374 255 255 255
-0.847 -1.308 2.325 255 255 255
-0.185 -1.141 2.328 255 255 255
0.045 0.196 0.486 255 255 255
-0.138 0.05 0.62 0 0 0
0.898 0.396 1.824 255 255 255
-0.14 0.149 0.497 255 255 255
-0.196 0.089 0.611 255 255 255
-0.434 -0.046 0.858 0 0 0
-0.224 0.156 0.505 255 255 255
-0.614 -1.364 2.292 255 255 255
0.003 0.198 0.479 255 255 255
0.723 0.113 2.611 255 255 255
1.113 -0.648 2.223 255 255 255
0.054 -1.161 2.314 255 255 255
-0.05 0.231 0.457 255 255 255
-0.461 -1.467 2.252 255 255 255
0.788 -0.863 2.361 255 255 255
-1.333 -1.208 2.411 255 255 255
0.794 -0.828 2.369 255 255 255
0.947 0.118 1.734 255 255 255
-1.248 -1.417 2.333 255 255 255
0.06 0.104 0.337 255 255 255
-0.781 -1.408 2.29 255 255 255
0.072 0.148 0.329 0 0 0
0.411 -1.454 2.209 255 255 255
-0.091 0.229 0.455 255 255 255
0.084 0.173 0.511 0 0 0
0.954 -0.134 1.658 255 255 255
0.888 -0.173 1.671 255 255 255
0.031 -0.399 1.926 255 255 255
0.967 -0.112 1.658 255 255 255
-0.723 -1.628 2.228 0 0 0
0.435 -0.66 2.439 255 255 255
0.687 -0.508 2.468 255 255 255
-0.03 0.072 0.708 255 255 255
-0.104 -0.006 0.999 255 255 255
0.493 -0.931 2.358 255 255 255
0.248 -1.232 2.285 255 255 255
-0.104 0.192 0.478 255 255 255
0.086 0.105 0.276 255 255 255
-0.474 -1.296 2.302 255 255 255
-0.025 0.116 0.607 255 255 255
-0.026 0.13 0.537 0 0 0
-0.095 0.039 0.781 255 255 255
0.883 -0.579 2.438 255 255 255
-0.11 -0.324 1.952 0 0 0
0.034 0.158 0.517 255 255 255
0.022 0.179 0.494 255 255 255
0.251 -0.9 2.361 0 0 0
0.954 0.358 2.087 255 255 255
-0.238 0.013 0.781 255 255 255
0.077 0.247 0.468 255 255 255
-0.018 0.088 0.759 0 0 0
0.673 0.055 2.636 255 255 255
-0.016 0.093 0.733 0 0 0
0.118 0.072 0.31 255 255 255
0.067 -0.135 1.415 255 255 255
-0.275 -0.425 2.346 0 0 0
0.05 0.19 0.489 255 255 255
-1.082 -0.788 2.339 255 255 255
-1.365 -1 2.442 255 255 255
0.976 0.463 1.841 255 255 255
-0.019 -0.67 2.299 255 255 255
-0.156 0.086 0.536 0 0 0
0.663 -0.814 2.384 255 255 255
-0.942 -0.474 2.286 255 255 255
-1.15 -0.612 2.394 0 0 0
-0.41 0.056 0.63 255 255 255
1.118 -0.351 1.582 255 255 255
-0.164 0.066 0.563 255 255 255
-0.369 -0.751 2.313 255 255 255
0.981 0.165 2.073 255 255 255
-0.058 -0.545 2.192 0 0 0
0.674 -0.323 2.52 255 255 255
0.756 -1.199 2.263 255 255 255
-1.072 -1.71 2.216 255 255 255
-0.161 -0.872 2.265 255 255 255
-0.125 0.186 0.48 255 255 255
-0.431 -0.123 1.141 0 0 0
-0.028 0.155 0.513 255 255 255
-0.597 -1.305 2.311 255 255 255
-0.103 0.102 0.463 255 255 255
0.915 -1.464 2.177 255 255 255
0.293 -0.756 2.42 255 255 255
1.029 -0.178 1.636 255 255 255
0.04 0.238 0.461 255 255 255
0.877 0.109 1.736 255 255 255
-0.077 0.046 0.74 255 255 255
-0.135 -0.095 1.225 255 255 255
-0.102 0.222 0.458 0 0 0
-0.157 0.241 0.452 255 255 255
-1.222 -1.479 2.293 255 255 255
-1.029 -1.611 2.241 255 255 255
-0.717 -0.994 2.259 255 255 255
-0.087 0.21 0.469 0 0 0
0.076 0.074 0.305 0 0 0
-0.115 0.235 0.455 255 255 255
0.894 -0.215 2.542 255 255 255
-0.055 -1.147 2.321 255 255 255
0.99 -0.845 2.356 255 255 255
-0.322 0.032 0.722 255 255 255
-0.455 -0.617 2.274 255 255 255
-1.523 -0.687 2.468 255 255 255
-0.29 0.07 0.62 255 255 255
1.023 -0.917 2.12 255 255 255
1.048 -0.462 2.272 255 255 255
-0.809 -1.662 2.217 0 0 0
0.332 -0.947 2.361 255 255 255
-0.419 -0.042 0.918 255 255 255
-0.907 -1.655 2.224 0 0 0
1.057 0.035 1.703 255 255 255
-0.719 -0.703 2.339 0 0 0
-0.453 -0.018 0.862 255 255 255
0.068 0.109 0.649 255 255 255
-1.752 -0.652 2.483 255 255 255
0.275 -0.58 2.468 255 255 255
0.116 -1.638 2.171 0 0 0
1.089 0.316 1.785 255 255 255
-0.268 0.111 0.504 255 255 255
-0.291 -1.54 2.222 255 255 255
-0.427 0.009 0.816 255 255 255
-1.259 -0.58 2.41 0 0 0
-0.121 0.079 0.482 0 0 0
0.214 -1.306 2.27 255 255 255
0.952 -0.419 2.308 255 255 255
-0.155 -0.041 0.991 255 255 255
0.07 0.138 0.306 0 0 0
-0.026 0.214 0.472 0 0 0
-0.234 0.178 0.479 255 255 255
-0.114 0.145 0.471 0 0 0
0.955 -1.168 2.26 255 255 255
-0.785 -0.334 1.719 255 255 255
-0.542 -0.786 2.305 255 255 255
0.086 0.161 0.308 255 255 255
0.078 0.108 0.278 255 255 255
0.945 0.344 2.326 255 255 255
-0.08 0.134 0.52 255 255 255
-0.456 -0.81 2.294 255 255 255
-0.16 0.14 0.507 255 255 255
-0.328 -0.605 2.356 0 0 0
-0.34 -0.459 2.394 0 0 0
-0.537 -1.249 2.32 255 255 255
-0.431 -0.869 2.275 255 255 255
-0.396 0.016 0.828 255 255 255
-0.254 -0.145 1.243 255 255 255
0.584 0.288 2.394 0 0 0
0.93 0.006 2.145 255 255 255
-0.07 0.088 0.498 0 0 0
0.245 -0.264 1.936 255 255 255
0.034 -1.156 2.317 255 255 255
-0.539 -1.384 2.283 255 255 255
0.339 -0.757 2.419 255 255 255
0.538 -0.877 2.368 255 255 255
-1.229 -0.743 2.345 255 255 255
-0.293 0.06 0.651 255 255 255
0.102 0.097 0.279 255 255 255
-0.015 -0.012 1.029 255 255 255
0.969 -1.276 2.231 255 255 255
-1.056 -1.075 2.402 255 255 255
0.085 0.16 0.307 255 255 255
0.077 0.219 0.479 0 0 0
-0.038 0.148 0.526 0 0 0
-0.142 -0.931 2.242 0 0 0
-0.24 0.161 0.493 255 255 255
-0.573 -1.013 2.227 255 255 255
1.005 -0.908 2.156 0 0 0
0.178 -0.086 1.396 255 255 255
0.695 -1.445 2.199 255 255 255
-0.12 0.154 0.49 0 0 0
-0.205 -0.13 1.226 0 0 0
-0.043 0.14 0.525 255 255 255
-0.249 0.162 0.491 255 255 255
-0.58 -0.157 1.208 0 0 0
-0.005 0.178 0.491 255 255 255
0.721 0.368 1.994 255 255 255
-0.033 0.217 0.471 0 0 0
1.032 -0.888 2.123 255 255 255
-1.292 -1.173 2.418 255 255 255
-0.24 0.125 0.491 255 255 255
0.004 0.109 0.632 255 255 255
-0.801 -1.477 2.271 255 255 255
0.668 -0.348 2.515 255 255 255
-0.101 0.242 0.455 255 255 255
-0.801 -0.654 2.355 0 0 0
0.965 -0.473 1.964 255 255 255
-0.453 -1.336 2.288 255 255 255
-0.287 -0.715 2.32 255 255 255
1.173 -1.049 2.103 255 255 255
-0.05 -0.027 1.052 255 255 255
0.563 -1.046 2.317 255 255 255
-0.441 -0.169 1.177 255 255 255
0.134 -1.389 2.248 255 255 255
-1.132 -0.681 2.368 255 255 255
-0.796 -1.504 2.262 255 255 255
-1.004 -1.231 2.356 255 255 255
-0.754 -0.226 1.576 255 255 255
0.09 0.069 0.303 255 255 255
-0.157 0.023 0.87 255 255 255
-0.037 0.102 0.524 0 0 0
-0.464 -0.965 2.244 255 255 255
0.901 0.121 1.731 255 255 255
-0.339 0.08 0.542 255 255 255
0.073 0.157 0.367 255 255 255
0.103 0.11 0.654 255 255 255
-0.272 0.148 0.523 255 255 255
-0.091 0.173 0.49 255 255 255
0.947 -0.617 2.424 255 255 255
0.004 0.101 0.654 255 255 255
-1.252 -0.579 2.409 0 0 0
0.954 -0.04 1.685 255 255 255
-0.165 0.245 0.453 255 255 255
0.097 0.098 0.279 255 255 255
-0.391 0.055 0.642 255 255 255
0.626 -0.353 2.517 255 255 255
-0.564 -0.703 2.333 0 0 0
0.614 -0.368 2.513 255 255 255
-0.289 0.102 0.572 255 255 255
-0.736 -1.526 2.257 255 255 255
-0.216 -0.658 2.339 255 255 255
0.099 0.132 0.285 255 255 255
0.9 0.103 1.827 255 255 255
-0.035 0.129 0.528 0 0 0
-0.315 -0.851 2.281 255 255 255
0.035 0.142 0.544 255 255 255
-0.491 -0.039 0.858 255 255 255
0.074 0.101 0.283 255 255 255
0.538 -0.431 2.496 255 255 255
-0.117 0.096 0.472 255 255 255
-0.5 -1.34 2.289 255 255 255
-0.233 0.178 0.479 255 255 255
1.021 -0.526 1.545 255 255 255
0.462 -1.422 2.222 255 255 255
0.093 0.119 0.278 255 255 255
0.002 0.17 0.501 255 255 255
-0.092 0.129 0.459 0 0 0
0.845 0.083 2.639 255 255 255
-0.975 -1.471 2.284 255 255 255
-0.329 -0.297 1.685 255 255 255
0.379 -0.767 2.414 255 255 255
-0.721 -1.423 2.285 255 255 255
1.085 -0.843 2.007 255 255 255
0.091 0.089 0.28 255 255 255
0.647 -1.182 2.275 255 255 255
0.292 -1.17 2.298 255 255 255
-0.72 -0.904 2.277 255 255 255
-0.034 0.155 0.511 255 255 255
0.109 0.122 0.63 255 255 255
1.011 -0.383 1.577 255 255 255
-0.402 0.02 0.762 255 255 255
0.963 -1.531 2.156 255 255 255
-1.41 -1.17 2.431 255 255 255
1.001 -0.463 1.968 255 255 255
0.569 0.163 2.588 255 255 255
1.009 -0.11 1.66 255 255 255
-0.036 0.099 0.533 255 255 255
-0.469 0.041 0.712 255 255 255
1.014 -1.057 2.121 255 255 255
0.965 -0.369 1.584 255 255 255
-0.762 -0.15 1.194 255 255 255
0.864 -0.183 2.556 255 255 255
-0.037 0.135 0.527 0 0 0
-0.077 0.191 0.48 255 255 255
-0.564 -1.3 2.308 255 255 255
0.03 0.194 0.486 255 255 255
-1.347 -1.367 2.37 255 255 255
-0.299 0.02 0.736 255 255 255
-0.545 -1.595 2.222 255 255 255
-0.431 -0.053 0.86 255 255 255
-0.134 -0.647 2.338 0 0 0
-0.3 -1.123 2.33 255 255 255
0.169 -1.237 2.289 255 255 255
-0.059 0.127 0.527 0 0 0
-0.239 0.112 0.487 0 0 0
-0.155 -1.115 2.335 255 255 255
-0.509 -1.478 2.253 255 255 255
-0.316 -0.45 2.401 0 0 0
-0.119 0.25 0.457 255 255 255
-0.113 0.142 0.466 0 0 0
0.961 0.2 1.754 255 255 255
0.327 -0.493 2.494 255 255 255
-0.938 -1.19 2.364 255 255 255
-0.047 0.016 0.899 255 255 255
-0.143 -0.707 2.321 255 255 255
-0.163 0.11 0.511 255 255 255
0.103 0.121 0.619 255 255 255
-0.143 0.206 0.467 0 0 0
-0.88 -0.285 1.587 0 0 0
0.075 0.246 0.467 255 255 255
-0.087 0.145 0.505 255 255 255
0.544 -0.287 2.538 255 255 255
-0.302 -0.678 2.331 0 0 0
0.897 0.155 1.738 255 255 255
1.133 -0.356 1.581 255 255 255
-1.339 -1.074 2.45 255 255 255
0.979 0.234 2.153 255 255 255
-1.076 -0.238 1.412 0 0 0
0.394 -0.139 2.593 0 0 0
0.733 0.309 2.021 255 255 255
-0.307 0.072 0.578 255 255 255
-0.944 -0.811 2.313 255 255 255
0.224 -1.336 2.257 255 255 255
0.398 -0.806 2.399 255 255 255
0.027 0.193 0.485 255 255 255
-0.259 -0.631 2.348 255 255 255
-0.403 0.008 0.885 255 255 255
0.146 -1.574 2.195 255 255 255
-0.153 -0.312 1.899 255 255 255
-1.171 -1.072 2.404 255 255 255
-0.105 -0.646 2.319 255 255 255
-0.03 0.228 0.46 255 255 255
0.763 -1.207 2.265 255 255 255
0.732 -1.623 2.158 0 0 0
-0.024 0.194 0.482 255 255 255
-0.086 0.229 0.455 255 255 255
-0.119 -0.762 2.301 255 255 255
0.454 -0.549 2.474 255 255 255
0.984 0.057 1.713 255 255 255
-0.096 0.164 0.504 255 255 255
0.961 -0.367 2.324 255 255 255
-0.173 -0.091 1.177 255 255 255
-0.359 -0.035 0.943 0 0 0
0.985 -1.538 2.15 0 0 0
1.181 0.087 1.71 255 255 255
0.607 -1.656 2.162 0 0 0
-0.161 0.127 0.51 0 0 0
-0.041 0.102 0.641 0 0 0
-1.345 -0.962 2.479 255 255 255
-0.416 -0.083 0.92 255 255 255
0.059 0.107 0.316 255 255 255
-0.035 0.169 0.503 255 255 255
0.973 0.328 1.799 255 255 255
-0.135 0.125 0.471 255 255 255
-0.001 -1.544 2.203 255 255 255
0.075 0.12 0.29 255 255 255
0.095 0.032 0.872 255 255 255
0.994 -0.998 2.312 255 255 255
-0.23 0.055 0.641 0 0 0
0.727 -0.254 2.541 255 255 255
-0.632 -0.002 0.919 0 0 0
-0.314 -0.109 1.139 255 255 255
-0.335 0.053 0.627 0 0 0
0.842 -1.176 2.268 255 255 255
0.438 -0.221 2.565 255 255 255
-1.093 -1.447 2.29 255 255 255
-0.133 0.216 0.462 0 0 0
0.086 0.127 0.286 255 255 255
-1.08 -1.174 2.372 255 255 255
1.019 -0.464 1.965 255 255 255
0.884 -0.104 1.675 255 255 255
0.945 -0.139 2.395 255 255 255
-0.994 -0.642 2.363 255 255 255
0.872 -1.471 2.179 255 255 255
-0.607 -0.911 2.274 255 255 255
0.322 -1.08 2.322 255 255 255
1.006 -0.249 1.615 255 255 255
