ply
format ascii 1.0
comment Created by Open3D
element vertex 1612
property double x
property double y
property double z
property uchar red
property uchar green
property uchar blue
end_header
0.103 -0.187 1.517 255 255 255
-0.347 -0.184 1.197 255 255 255
0.97 -0.808 2.329 255 255 255
0.072 0.097 0.67 255 255 255
-1.933 -0.667 2.674 255 255 255
-0.859 -0.303 1.532 255 255 255
0.243 -0.316 1.917 255 255 255
-0.157 0.12 0.502 0 0 0
1.098 -0.396 1.532 255 255 255
-0.219 -0.36 1.767 255 255 255
1.133 -1.087 2.206 255 255 255
1.047 0.155 2.437 255 255 255
0.422 -1.316 2.236 255 255 255
-0.127 0.098 0.5 255 255 255
0.076 -0.275 1.814 0 0 0
0.051 0.186 0.481 255 255 255
-0.135 0.146 0.52 0 0 0
0.122 0.221 0.472 0 0 0
-0.063 0.157 0.502 255 255 255
1.11 -0.676 2.337 255 255 255
-0.047 0.232 0.453 255 255 255
0.565 -0.051 2.596 0 0 0
0.314 -0.246 1.95 255 255 255
1.016 0.284 2.493 255 255 255
1.066 0.157 1.698 255 255 255
-0.081 0.112 0.446 255 255 255
0.594 -0.482 2.458 255 255 255
-1.413 -0.721 2.508 0 0 0
-0.324 0.053 0.622 255 255 255
-0.088 0.015 0.659 255 255 255
1.135 -0.317 1.941 255 255 255
-0.087 0.112 0.449 0 0 0
1.206 -0.877 2.061 255 255 255
0.026 0.039 0.778 255 255 255
-0.118 0.227 0.451 255 255 255
-0.29 -0.072 0.984 255 255 255
-0.688 -0.82 2.332 255 255 255
-0.204 0.166 0.483 255 255 255
0.723 0.182 2.529 0 0 0
1.046 -0.395 1.531 255 255 255
0.473 -1.569 2.157 0 0 0
0.654 -0.129 2.559 255 255 255
0.095 0.02 0.88 255 255 255
0.242 -1.215 2.276 255 255 255
0.6 0.001 2.606 0 0 0
-0.317 -0.405 1.682 255 255 255
-0.025 0.166 0.499 255 255 255
-0.157 -1.057 2.214 0 0 0
-1.249 -1.235 2.444 255 255 255
-0.242 0.003 0.749 255 255 255
-0.416 -0.051 0.857 255 255 255
-0.029 -0.156 1.426 255 255 255
-0.217 0.145 0.506 255 255 255
0.262 -0.369 1.905 255 255 255
1.124 -1.001 2.251 255 255 255
0.559 -0.891 2.343 255 255 255
0.282 -1.304 2.251 255 255 255
0.757 -1.403 2.169 255 255 255
-0.026 -1.486 2.223 255 255 255
-0.248 0.016 0.743 255 255 255
-0.067 -1.627 2.186 0 0 0
0.085 0.053 0.733 255 255 255
0.641 -0.824 2.355 255 255 255
-0.176 -0.37 2.433 0 0 0
1.112 -0.162 2.016 255 255 255
1.133 -0.18 2.286 255 255 255
-1.059 -1.439 2.333 255 255 255
0.048 0.195 0.476 255 255 255
0.921 -1.217 2.211 255 255 255
0.022 0.171 0.492 255 255 255
0.321 -1.061 2.319 255 255 255
0.119 0.136 0.278 255 255 255
0.119 0.149 0.537 255 255 255
0.613 -1.123 2.265 255 255 255
0.905 -0.672 2.376 255 255 255
-0.431 -0.762 2.325 0 0 0
-0.363 -0.185 1.181 255 255 255
-0.125 0.086 0.521 255 255 255
-0.591 -0.016 0.926 0 0 0
0.2 -0.579 2.189 255 255 255
-1.058 -1.571 2.292 255 255 255
-0.283 -1.268 2.306 255 255 255
-0.392 -0.292 1.667 255 255 255
1.039 -0.012 2.039 255 255 255
0.15 0.105 0.671 255 255 255
-0.093 0.089 0.475 0 0 0
0.529 -0.33 2.511 255 255 255
-0.172 -0.7 2.328 255 255 255
-1.557 -1.002 2.545 255 255 255
-0.064 0.201 0.468 255 255 255
0.154 -1.397 2.229 255 255 255
0.053 -0.601 2.173 255 255 255
0.101 0.125 0.284 255 255 255
-0.026 0.148 0.511 255 255 255
-0.227 0.152 0.498 255 255 255
1.015 -0.775 2.335 255 255 255
-0.241 0.169 0.479 255 255 255
-0.248 0.055 0.642 0 0 0
-0.122 0.122 0.509 0 0 0
-0.346 -0.997 2.258 255 255 255
0.995 -1.09 2.244 255 255 255
-0.359 0.064 0.611 255 255 255
-0.86 -0.605 2.349 255 255 255
-0.365 -0.804 2.304 255 255 255
0.291 -1.613 2.154 0 0 0
0.074 0.119 0.579 255 255 255
-0.155 0.114 0.503 0 0 0
0.178 -0.643 2.236 255 255 255
-1.21 -0.772 2.376 0 0 0
0.069 0.077 0.68 255 255 255
-0.072 -0.683 2.325 255 255 255
1.007 -0.331 2.468 255 255 255
0.223 -0.112 1.371 255 255 255
-0.086 0.22 0.454 0 0 0
-0.27 0.074 0.587 255 255 255
0.171 -1.601 2.175 0 0 0
-0.127 0.019 0.621 255 255 255
0.666 -1.59 2.145 0 0 0
-0.858 -1.676 2.246 0 0 0
0.01 0.215 0.464 0 0 0
1.034 -1.589 2.088 0 0 0
-0.138 -0.023 0.896 255 255 255
-0.309 -1.304 2.302 255 255 255
-0.33 -0.579 2.271 255 255 255
-0.013 0.184 0.481 255 255 255
0.128 0.147 0.545 255 255 255
1.055 -0.037 1.971 255 255 255
0.346 -1.257 2.258 255 255 255
0.836 -0.856 2.327 255 255 255
-0.107 0.148 0.504 0 0 0
-0.328 0.075 0.529 255 255 255
-0.946 -1.747 2.232 255 255 255
-0.107 0.23 0.452 255 255 255
0.802 -0.171 2.536 255 255 255
0.019 -1.225 2.292 255 255 255
0.103 0.23 0.462 255 255 255
0.956 -0.004 2.574 255 255 255
-0.355 -0.857 2.292 255 255 255
-0.017 0.162 0.501 255 255 255
0.317 -1.606 2.161 0 0 0
0.978 0.232 1.724 255 255 255
-0.622 -1.513 2.269 255 255 255
1.086 0.051 2.348 255 255 255
-0.358 -0.002 0.941 0 0 0
0.55 -0.2 2.547 255 255 255
1.102 0.169 1.693 255 255 255
-0.345 -0.181 1.197 255 255 255
-1.138 -1.709 2.295 0 0 0
-0.393 -0.194 1.19 255 255 255
-0.257 -0.973 2.249 255 255 255
-0.694 -1.427 2.308 255 255 255
0.002 0.102 0.604 0 0 0
0.953 0.251 1.761 255 255 255
-0.092 0.1 0.463 255 255 255
-1.165 -1.532 2.347 255 255 255
-0.089 -0.191 1.522 255 255 255
-0.675 -0.693 2.368 0 0 0
-0.021 -1.454 2.233 255 255 255
1.017 -0.219 2.502 255 255 255
1 -1.065 2.249 255 255 255
0.736 -0.88 2.326 255 255 255
-0.494 -0.372 1.662 255 255 255
-0.191 0.081 0.583 255 255 255
0.16 0.137 0.607 255 255 255
1.066 -0.463 1.514 255 255 255
0.119 0.095 0.279 255 255 255
0.942 0.42 2.03 255 255 255
-0.162 0.088 0.584 0 0 0
0.993 0.391 1.922 255 255 255
-0.057 0.104 0.463 255 255 255
1.042 -0.021 1.641 255 255 255
0.895 -0.328 2.473 255 255 255
0.996 -0.268 1.568 255 255 255
0.077 0.037 0.805 255 255 255
-0.456 -1.091 2.188 255 255 255
0.492 -1.536 2.164 255 255 255
-0.857 -0.593 2.344 255 255 255
-0.036 0.208 0.469 255 255 255
-0.157 0.079 0.619 0 0 0
-0.486 -0.375 1.661 255 255 255
0.314 -0.321 1.921 255 255 255
-0.14 0.106 0.494 255 255 255
0.069 -1.194 2.3 255 255 255
-0.175 -0.967 2.239 255 255 255
1.048 -1.296 2.176 255 255 255
0.08 0.191 0.479 255 255 255
0.158 -0.943 2.365 255 255 255
-0.643 -0.173 1.148 255 255 255
-0.723 -1.646 2.243 0 0 0
-0.663 -0.126 1.043 255 255 255
-0.957 -1.73 2.237 255 255 255
-0.279 -0.339 1.674 255 255 255
-0.274 -0.504 2.286 255 255 255
-1.212 -0.931 2.521 0 0 0
-0.745 -0.269 1.402 255 255 255
-0.648 -0.234 1.432 255 255 255
0.634 -0.4 2.481 255 255 255
-1.159 -1.447 2.367 255 255 255
-0.204 -0.321 1.773 255 255 255
-0.631 -0.068 0.844 255 255 255
-0.145 0.229 0.449 255 255 255
-0.659 -0.687 2.368 0 0 0
0.095 0.094 0.299 0 0 0
0.116 0.191 0.486 255 255 255
0.059 0.046 0.758 255 255 255
-0.454 -0.013 0.872 255 255 255
1.079 -0.579 2.387 255 255 255
0.005 0.24 0.452 255 255 255
-0.583 -0.831 2.322 255 255 255
0.937 -0.921 2.301 255 255 255
-0.514 -0.017 0.882 255 255 255
-0.069 0.062 0.572 0 0 0
0.164 0.114 0.656 255 255 255
-0.366 0.033 0.657 255 255 255
-0.077 0.086 0.479 0 0 0
1.134 -0.158 2.324 255 255 255
0.9 -1.18 2.226 255 255 255
0.102 0.235 0.457 255 255 255
0.622 -0.414 2.476 255 255 255
0.063 -0.151 1.384 255 255 255
0.107 0.115 0.268 255 255 255
-0.02 0.139 0.518 255 255 255
0.008 0.102 0.653 255 255 255
-0.27 0.087 0.598 255 255 255
-0.304 -0.036 0.936 255 255 255
-1.573 -1.125 2.502 255 255 255
0.564 -0.925 2.332 255 255 255
-0.01 0.096 0.52 0 0 0
-0.651 -1.279 2.346 255 255 255
-0.687 -0.995 2.281 255 255 255
1.052 0.064 1.928 255 255 255
0.839 -1.555 2.123 0 0 0
0.114 0.128 0.28 255 255 255
-0.21 -0.173 1.287 255 255 255
-0.47 -0.798 2.318 255 255 255
0.031 0.18 0.485 255 255 255
-0.993 -1.254 2.382 255 255 255
-0.077 0.119 0.445 0 0 0
-0.179 0.155 0.494 255 255 255
0.706 -0.015 2.591 255 255 255
0.034 0.196 0.475 255 255 255
-0.712 -0.216 1.187 255 255 255
0.874 -1.029 2.279 255 255 255
0.549 -0.319 2.509 255 255 255
1.016 0.088 2.593 255 255 255
-0.072 0.032 0.767 255 255 255
0.262 -1.303 2.25 255 255 255
-0.623 -0.093 1.056 255 255 255
0.377 -1.611 2.152 0 0 0
0.028 -0.165 1.433 255 255 255
1.146 -0.742 1.962 255 255 255
-0.319 0.05 0.624 0 0 0
0.469 -1.08 2.294 255 255 255
1.039 0.372 1.775 255 255 255
1.114 -0.691 1.996 255 255 255
-0.069 0.204 0.467 255 255 255
0.283 -1.295 2.256 255 255 255
-0.45 -0.887 2.291 255 255 255
-0.022 -0.058 1.083 255 255 255
-0.768 -1.613 2.258 255 255 255
0.173 0.002 1.007 255 255 255
-0.262 0.087 0.61 0 0 0
1.087 0.282 2.401 255 255 255
-0.129 0.102 0.501 255 255 255
-0.207 0.145 0.512 0 0 0
1.079 -0.486 2.311 255 255 255
-0.214 0.096 0.506 255 255 255
0.397 -0.749 2.403 255 255 255
0.572 -0.537 2.448 255 255 255
-0.515 -0.91 2.288 255 255 255
-0.089 0.059 0.512 255 255 255
-0.597 -0.347 1.675 255 255 255
-0.124 0.09 0.512 255 255 255
0.991 -1.223 2.203 255 255 255
1.036 0.093 2.597 255 255 255
-0.213 0.084 0.552 255 255 255
0.511 -0.734 2.393 255 255 255
-0.112 0.047 0.611 0 0 0
0.944 -0.623 2.384 255 255 255
0.726 -0.165 2.543 255 255 255
-0.355 -0.898 2.277 255 255 255
-0.275 -0.632 2.277 255 255 255
-0.212 0.085 0.548 255 255 255
-0.558 -0.008 0.911 0 0 0
0.964 -0.254 2.496 255 255 255
0.937 -1.264 2.193 255 255 255
0.062 0.186 0.48 255 255 255
-0.19 0.126 0.497 255 255 255
0.748 -1.166 2.244 255 255 255
0.022 0.045 0.743 255 255 255
0.841 -0.689 2.378 255 255 255
0.093 0.11 0.279 255 255 255
1.084 -0.306 2.46 255 255 255
0.384 -0.907 2.351 255 255 255
-0.547 -0.01 0.765 255 255 255
0.103 0.093 0.333 255 255 255
-0.898 -1.194 2.397 255 255 255
-0.247 -1.246 2.311 255 255 255
0.116 0.071 0.295 255 255 255
-1.224 -1.345 2.409 255 255 255
-0.009 0.095 0.621 0 0 0
-0.248 -0.92 2.262 255 255 255
-0.134 -1.048 2.23 0 0 0
0.066 -0.61 2.171 255 255 255
0.769 0.367 1.952 255 255 255
1.1 -0.329 1.943 255 255 255
-0.014 0.016 0.868 255 255 255
-0.807 -0.99 2.296 255 255 255
0.435 -1.101 2.295 255 255 255
-1.071 -0.773 2.384 255 255 255
-1.503 -1.076 2.518 255 255 255
0.114 0.213 0.475 0 0 0
-0.121 0.029 0.651 0 0 0
-0.214 0.144 0.508 255 255 255
1.078 -0.864 2.302 255 255 255
1.063 -0.525 2.233 255 255 255
-0.502 -0.709 2.346 0 0 0
-0.705 -1.603 2.256 255 255 255
0.161 0.134 0.617 255 255 255
0.589 -0.077 2.582 0 0 0
-0.133 0.02 0.615 255 255 255
-0.039 0.172 0.487 255 255 255
0.14 0.057 0.74 255 255 255
-0.014 0.18 0.483 255 255 255
0.027 0.178 0.484 255 255 255
0.854 -0.057 2.563 255 255 255
1.033 -0.308 1.558 255 255 255
-0.545 -0.351 1.689 0 0 0
0.188 -0.002 1.03 255 255 255
0.869 -1.29 2.192 255 255 255
-0.204 -0.062 0.914 255 255 255
1.17 -0.696 1.958 255 255 255
-0.455 -1.275 2.323 255 255 255
1.17 -0.691 1.959 255 255 255
0.045 0.11 0.606 255 255 255
-0.548 -1.326 2.323 255 255 255
-0.153 0.15 0.516 0 0 0
0.303 -0.329 1.922 255 255 255
-0.334 -0.142 1.199 0 0 0
-0.26 -0.001 0.788 255 255 255
0.596 -1.211 2.247 255 255 255
-0.217 -0.587 2.372 0 0 0
0.077 0.234 0.455 255 255 255
-0.813 -0.18 1.113 255 255 255
-0.285 -0.109 1.057 255 255 255
1.204 -0.941 2.05 255 255 255
1.095 -0.107 2.085 255 255 255
0.094 0.227 0.464 0 0 0
0.756 -0.584 2.416 255 255 255
-0.342 -0.031 0.959 0 0 0
0.606 -0.859 2.352 255 255 255
0.825 -1.372 2.174 255 255 255
-0.226 -0.565 2.366 0 0 0
0.08 0.215 0.469 0 0 0
0.02 0.144 0.523 255 255 255
-0.085 0.177 0.48 255 255 255
-0.84 -0.339 1.623 255 255 255
0.318 -0.579 2.295 0 0 0
-0.199 0.205 0.457 0 0 0
-0.447 -1.091 2.19 0 0 0
-0.191 0.124 0.496 255 255 255
0.094 0.101 0.286 255 255 255
0.687 0.266 2.493 0 0 0
1.117 0.008 1.647 255 255 255
1.132 -1.086 2.217 255 255 255
0.068 -0.05 1.109 255 255 255
-0.299 -1.328 2.291 255 255 255
0.006 0.21 0.467 0 0 0
-1.15 -0.342 1.578 255 255 255
0.045 0.223 0.462 0 0 0
0.608 -0.415 2.481 255 255 255
-0.019 0.148 0.513 255 255 255
-0.21 0.093 0.523 255 255 255
-0.128 -0.039 0.982 0 0 0
0.98 0.428 1.789 255 255 255
-0.208 -1.508 2.23 255 255 255
-0.273 0.062 0.573 255 255 255
0.187 0.107 0.727 255 255 255
0.867 -1.207 2.217 255 255 255
0.843 -0.247 2.506 255 255 255
0.731 -1.074 2.273 255 255 255
1.068 -0.422 1.525 255 255 255
-0.413 -1.57 2.234 255 255 255
0.893 -0.892 2.308 255 255 255
-0.194 -0.482 2.397 0 0 0
-0.198 0.114 0.493 0 0 0
-0.453 -1.26 2.318 0 0 0
0.07 0.226 0.462 0 0 0
-0.262 -0.37 1.691 255 255 255
0.51 -0.98 2.328 255 255 255
-0.312 -0.188 1.251 255 255 255
1.207 -0.851 1.986 255 255 255
0.099 0.125 0.295 255 255 255
-0.574 -0.126 1.051 255 255 255
-0.659 -0.134 1.005 255 255 255
-0.088 0.211 0.461 0 0 0
0.039 0.033 0.813 255 255 255
-0.739 -0.122 0.973 255 255 255
-0.419 -1.054 2.207 255 255 255
0.162 0.094 0.718 255 255 255
0.24 -0.829 2.371 255 255 255
1.214 -1.001 2.063 255 255 255
-0.314 0.095 0.525 255 255 255
-0.458 -0.668 2.334 255 255 255
0.506 -0.384 2.496 255 255 255
-0.284 0.012 0.723 255 255 255
0.67 -1.081 2.276 255 255 255
1.066 0.291 2.058 255 255 255
-0.148 0.235 0.452 255 255 255
0.089 -1.209 2.295 255 255 255
-0.675 -0.88 2.307 255 255 255
0.276 -0.566 2.305 0 0 0
0.041 0.011 0.899 255 255 255
0.614 -1.529 2.153 255 255 255
0.049 0.195 0.477 255 255 255
-0.463 -1.405 2.287 255 255 255
-0.085 0.048 0.624 0 0 0
0.005 0.103 0.624 255 255 255
-0.184 0.018 0.777 255 255 255
-0.763 -0.711 2.378 0 0 0
0.099 0.133 0.297 255 255 255
0.582 -1.511 2.162 255 255 255
-1.272 -1.485 2.377 255 255 255
-0.258 0.031 0.729 0 0 0
-0.007 0.246 0.454 255 255 255
0.129 0.078 0.28 255 255 255
-0.274 0.028 0.729 0 0 0
-0.258 -0.385 1.709 255 255 255
1.094 -0.473 2.236 255 255 255
0.102 0.087 0.286 255 255 255
1.264 -0.987 2.062 255 255 255
0.025 0.021 0.858 255 255 255
0.711 -1.432 2.164 255 255 255
0.013 0.245 0.455 255 255 255
0.05 0.206 0.472 255 255 255
0.613 0.028 2.614 0 0 0
-0.115 0.121 0.51 0 0 0
0.092 0.141 0.541 0 0 0
0.209 0.061 0.9 255 255 255
-0.088 0.048 0.627 0 0 0
0.055 0.161 0.502 255 255 255
0.741 -1.376 2.179 255 255 255
0.049 -1.208 2.293 255 255 255
1.093 -1.01 2.114 255 255 255
0.144 0.239 0.479 255 255 255
1.045 -0.552 2.395 255 255 255
0.11 0.217 0.472 0 0 0
0.538 -0.139 2.567 0 0 0
1.096 -0.246 2.07 255 255 255
-0.499 -1.054 2.244 255 255 255
0.117 0.099 0.271 255 255 255
-0.447 0.047 0.655 255 255 255
1.088 0.241 2.408 255 255 255
0.814 -0.54 2.421 255 255 255
-1.207 -0.81 2.374 255 255 255
0.054 0.162 0.502 255 255 255
-0.227 -0.292 1.729 255 255 255
-0.073 0.21 0.462 0 0 0
0.78 0.138 2.577 0 0 0
-0.1 -1.139 2.328 255 255 255
-0.223 0.173 0.475 255 255 255
-0.096 0.217 0.456 0 0 0
-0.451 -0.336 1.685 0 0 0
0.521 -0.275 2.527 255 255 255
-1.033 -1.036 2.447 255 255 255
0.559 -1.227 2.239 255 255 255
-1.247 -0.73 2.373 0 0 0
0.191 -0.677 2.283 0 0 0
-0.206 -0.032 0.854 255 255 255
-0.079 0.044 0.625 0 0 0
1.003 -0.02 2.559 255 255 255
1.098 -0.689 2.347 255 255 255
0.547 -0.384 2.494 255 255 255
-0.133 0.209 0.461 0 0 0
-0.156 -0.925 2.252 255 255 255
-0.155 0.178 0.479 255 255 255
0.23 -0.298 1.879 0 0 0
0.128 0.101 0.269 255 255 255
0.524 -0.584 2.434 255 255 255
-0.162 0.257 0.459 255 255 255
0.98 -0.934 2.294 255 255 255
-0.21 -0.034 0.854 0 0 0
1.15 0.039 1.652 255 255 255
1.133 -0.177 2.31 255 255 255
-0.049 0.122 0.477 255 255 255
-0.739 -0.32 1.609 255 255 255
-0.317 0.031 0.681 255 255 255
0.008 0.226 0.454 255 255 255
0.142 0.077 0.284 255 255 255
-0.304 0.102 0.554 0 0 0
0.769 -0.093 2.56 255 255 255
0.822 -0.333 2.485 255 255 255
-0.004 0.222 0.457 0 0 0
-0.151 0.219 0.451 255 255 255
0.037 0.144 0.524 255 255 255
0.14 0.093 0.697 255 255 255
0.978 -1.441 2.142 255 255 255
-0.499 -0.075 0.939 255 255 255
0.936 -1.575 2.107 0 0 0
-0.075 0.059 0.586 0 0 0
-0.87 -1.662 2.254 0 0 0
-0.059 0.169 0.49 255 255 255
1.091 -0.404 1.926 0 0 0
-0.47 -0.343 1.685 0 0 0
-0.5 -0.828 2.311 255 255 255
-0.951 -0.343 1.526 255 255 255
0.281 -1.051 2.325 255 255 255
-0.092 -1.529 2.217 255 255 255
-0.555 -0.665 2.345 255 255 255
-1.692 -0.776 2.577 255 255 255
-0.156 0.086 0.591 255 255 255
-0.919 -0.769 2.375 255 255 255
0.557 -1.338 2.213 255 255 255
-0.859 -1.576 2.276 255 255 255
-0.143 0.18 0.478 255 255 255
0.109 0.127 0.281 0 0 0
0.277 -0.889 2.373 255 255 255
0.169 -1.352 2.247 255 255 255
-0.686 -0.155 1.127 255 255 255
0.074 -1.353 2.251 255 255 255
0.119 0.113 0.265 255 255 255
-0.252 -0.024 0.856 255 255 255
-1.318 -1.316 2.427 255 255 255
-0.214 0.176 0.472 255 255 255
1.073 0.215 2.058 255 255 255
0.018 0.03 0.82 255 255 255
0.636 -0.34 2.497 255 255 255
-0.177 0.084 0.584 255 255 255
0.564 -1.133 2.271 255 255 255
0.641 -1.462 2.165 255 255 255
-0.173 0.145 0.52 0 0 0
-0.244 0.022 0.735 0 0 0
0.251 -0.942 2.357 255 255 255
1.116 -0.255 1.932 255 255 255
0.114 0.087 0.275 255 255 255
-0.214 0.146 0.505 255 255 255
1.087 -0.128 2.142 255 255 255
-0.642 -0.065 1.005 255 255 255
-0.398 -0.616 2.277 255 255 255
0.087 0.141 0.54 255 255 255
1.091 -0.01 1.645 255 255 255
-0.135 -1.216 2.306 255 255 255
0.103 0.004 0.963 255 255 255
0.019 -1.486 2.214 255 255 255
0.391 -0.762 2.397 255 255 255
0.376 -1.543 2.171 255 255 255
0.088 -0.148 1.382 255 255 255
0.313 -0.611 2.287 0 0 0
0.265 -0.726 2.391 255 255 255
0.703 0.022 2.599 255 255 255
-0.147 -0.088 0.977 255 255 255
0.866 -0.243 2.506 255 255 255
0.614 -1.554 2.142 0 0 0
0.134 0.192 0.491 0 0 0
0.112 0.224 0.469 0 0 0
1.021 0.033 2.561 255 255 255
1.021 -0.204 1.753 255 255 255
-0.315 -1.362 2.284 255 255 255
0.052 0.115 0.598 255 255 255
1.027 -0.597 2.386 255 255 255
1.016 -1.152 2.22 255 255 255
1.109 -0.069 1.621 255 255 255
-1.003 -0.847 2.357 255 255 255
-0.053 0.172 0.485 255 255 255
0.076 -0.126 1.324 255 255 255
1.079 -0.574 2.388 255 255 255
0.002 0.17 0.493 255 255 255
-0.097 0.008 0.903 255 255 255
1.005 -0.09 1.625 255 255 255
-0.093 0.051 0.573 255 255 255
0.208 0.126 0.727 255 255 255
0.444 -0.933 2.342 255 255 255
0.197 0.051 0.897 255 255 255
0.758 -0.49 2.439 255 255 255
-0.073 0.03 0.617 255 255 255
1.021 0.113 1.688 255 255 255
-1.068 -0.24 1.407 255 255 255
-0.674 -0.302 1.689 255 255 255
-0.111 0.151 0.507 255 255 255
-1.63 -0.634 2.537 255 255 255
-0.124 0.196 0.469 255 255 255
1.063 -0.557 2.216 255 255 255
1.122 -0.319 1.544 255 255 255
-0.109 0.253 0.457 255 255 255
-0.006 0.036 0.776 255 255 255
0.093 0.1 0.296 0 0 0
0.202 0.155 0.657 0 0 0
0.15 -0.697 2.303 0 0 0
-1.49 -1.086 2.516 255 255 255
0.067 0.074 0.681 255 255 255
-0.261 0.102 0.545 255 255 255
0.123 -0.062 1.164 255 255 255
0.437 -0.735 2.407 255 255 255
0.107 0.142 0.287 255 255 255
-0.833 -1.291 2.357 255 255 255
-0.372 -0.401 1.672 255 255 255
-0.611 -0.025 0.941 0 0 0
0.218 0.046 0.972 255 255 255
-0.385 0.07 0.609 255 255 255
1.078 0.133 1.687 255 255 255
-0.125 0.008 0.891 255 255 255
0.114 0.076 0.288 255 255 255
-0.175 -0.339 2.015 255 255 255
-0.113 0.125 0.505 255 255 255
-0.076 0.157 0.499 255 255 255
1.013 -1.118 2.236 255 255 255
-0.324 0.026 0.702 0 0 0
-0.765 -0.55 2.311 255 255 255
-0.05 -0.196 1.539 255 255 255
-1.215 -1.168 2.461 255 255 255
0.218 0.053 0.957 255 255 255
-0.683 -0.088 1.035 255 255 255
-0.404 -0.049 0.858 255 255 255
-1.371 -1.192 2.467 255 255 255
-0.262 0.15 0.498 255 255 255
1.064 0.195 2.146 255 255 255
0.85 -0.161 2.531 255 255 255
-0.939 -0.922 2.334 255 255 255
-0.551 -0.845 2.308 255 255 255
-0.098 0.069 0.49 0 0 0
-1.097 -0.607 2.435 0 0 0
0.684 -1.352 2.192 255 255 255
1.092 -0.29 1.951 255 255 255
0.846 0.386 1.968 255 255 255
-0.04 0.046 0.716 255 255 255
0.592 -0.2 2.544 255 255 255
-1.372 -1.181 2.473 255 255 255
0.696 -0.685 2.393 255 255 255
-1.374 -1.126 2.493 255 255 255
-0.783 -0.736 2.367 0 0 0
0.208 0.137 0.703 255 255 255
0.048 0.136 0.539 255 255 255
-1.024 -1.016 2.443 0 0 0
0.056 -0.249 1.761 255 255 255
0.048 0.141 0.529 255 255 255
1.137 -0.478 1.905 0 0 0
0.756 -0.75 2.369 255 255 255
-0.711 -0.332 1.643 255 255 255
-0.009 0.177 0.484 255 255 255
0.356 -1.235 2.26 255 255 255
-0.054 0.06 0.574 0 0 0
0.246 -1.164 2.29 255 255 255
-0.496 -0.775 2.325 255 255 255
0.098 0.174 0.496 255 255 255
0.102 0.092 0.28 255 255 255
0.908 -0.463 2.433 255 255 255
-0.225 0.076 0.567 255 255 255
-0.189 0.15 0.503 255 255 255
-0.079 0.197 0.471 255 255 255
-0.181 0.048 0.695 255 255 255
-1.105 -1.5 2.333 255 255 255
-0.916 -0.635 2.395 255 255 255
0.696 -0.306 2.502 255 255 255
1 -0.606 2.388 255 255 255
0.902 -0.805 2.339 255 255 255
0.131 0.188 0.493 0 0 0
-0.624 -0.063 0.857 255 255 255
-0.201 0.092 0.538 255 255 255
0.088 0.066 0.68 255 255 255
-0.072 0.222 0.454 255 255 255
-0.216 -1.268 2.299 255 255 255
-0.377 -0.718 2.337 0 0 0
-0.149 0.122 0.503 255 255 255
0.894 -1.14 2.24 255 255 255
-0.317 0.013 0.721 255 255 255
0.124 0.089 0.271 255 255 255
0.892 -0.572 2.404 255 255 255
0.196 -0.85 2.301 0 0 0
-0.886 -0.638 2.372 255 255 255
0.085 0.203 0.474 255 255 255
-0.531 -0.82 2.315 255 255 255
0.997 -0.264 1.57 255 255 255
0.147 0.091 0.703 255 255 255
-0.101 0.254 0.457 255 255 255
-0.403 0.042 0.648 255 255 255
0.088 0.086 0.686 0 0 0
-0.267 0.068 0.589 255 255 255
-0.22 -1.572 2.216 255 255 255
-0.653 -0.244 1.474 255 255 255
0.212 -0.081 1.276 255 255 255
-0.001 -0.471 1.975 255 255 255
0.127 -0.227 1.67 255 255 255
0.014 -1.317 2.264 255 255 255
-0.062 -0.733 2.307 255 255 255
0.055 0.008 0.929 255 255 255
1.082 0.046 1.66 255 255 255
-0.402 -0.04 0.862 255 255 255
-0.127 0.205 0.463 0 0 0
0.639 -0.713 2.391 255 255 255
0.187 0.13 0.677 255 255 255
-0.092 -0.033 1.05 0 0 0
-0.011 0.197 0.476 255 255 255
1.039 -0.722 2.35 255 255 255
-0.192 0.067 0.621 0 0 0
-0.533 -0.01 0.775 255 255 255
-0.552 -1.505 2.269 255 255 255
-0.168 -1.533 2.221 255 255 255
-0.123 0.027 0.656 0 0 0
-0.678 -0.106 0.92 255 255 255
0.949 -0.015 2.571 255 255 255
-0.124 -0.048 0.941 255 255 255
1.073 0.275 2.436 255 255 255
-0.034 0.017 0.857 255 255 255
1.021 -0.183 2.512 255 255 255
-0.682 -0.838 2.324 255 255 255
-0.251 0.02 0.738 0 0 0
0.83 -1.528 2.144 255 255 255
0.163 -0.249 1.733 0 0 0
-0.273 0.126 0.513 255 255 255
-0.046 -1.524 2.211 255 255 255
-0.059 0.24 0.455 255 255 255
0.068 0.188 0.479 255 255 255
-0.372 0.065 0.61 255 255 255
0.02 0.216 0.465 0 0 0
0.145 -0.532 2.172 255 255 255
1.057 -0.939 2.286 255 255 255
-0.135 0.207 0.461 0 0 0
-0.384 -0.886 2.282 255 255 255
-0.158 -0.731 2.315 255 255 255
-0.567 -0.36 1.696 0 0 0
0.497 -1.367 2.208 255 255 255
0.676 -0.296 2.508 255 255 255
-0.284 0.104 0.554 0 0 0
1.11 -0.08 2.074 0 0 0
-0.229 0.137 0.525 0 0 0
-0.777 -1.174 2.38 0 0 0
0.016 0.157 0.503 255 255 255
-0.294 0.086 0.542 255 255 255
-0.747 -0.149 1.021 255 255 255
-0.134 0.062 0.573 0 0 0
0.388 -0.571 2.443 255 255 255
1.117 -1.147 2.216 255 255 255
-0.317 -0.109 1.065 0 0 0
-0.317 0.062 0.608 0 0 0
-1.813 -0.728 2.618 255 255 255
-0.191 -0.036 1.007 0 0 0
1.062 -0.372 1.538 255 255 255
0.366 -1.612 2.146 0 0 0
-0.138 0.163 0.489 255 255 255
-0.014 0.171 0.49 255 255 255
-0.913 -1.512 2.291 255 255 255
-0.217 0.086 0.54 255 255 255
-0.267 -1.267 2.305 255 255 255
-0.461 -0.285 1.596 0 0 0
0.69 -1.359 2.193 255 255 255
-0.202 -0.045 0.9 255 255 255
-0.261 0.041 0.624 255 255 255
0.627 -0.067 2.581 255 255 255
-0.915 -0.35 1.536 255 255 255
0.593 -0.707 2.397 255 255 255
0.183 -1.231 2.277 255 255 255
-0.368 -0.009 0.867 255 255 255
-1.438 -1.165 2.488 255 255 255
0.912 0.191 2.627 255 255 255
-0.699 -1.719 2.221 255 255 255
0.709 0.382 2.304 0 0 0
0.815 -0.658 2.387 255 255 255
-1.667 -0.859 2.642 255 255 255
-0.262 0.128 0.505 255 255 255
-0.083 0.157 0.499 255 255 255
0.692 -0.067 2.579 255 255 255
0.985 -1.406 2.146 255 255 255
1.059 0.294 2.161 255 255 255
-0.187 -0.032 0.883 255 255 255
-0.133 0.117 0.515 0 0 0
0.586 -1.306 2.216 255 255 255
-0.201 0.143 0.52 0 0 0
-0.017 0.09 0.642 255 255 255
1.003 0.433 1.788 255 255 255
0.365 -1.235 2.259 255 255 255
-0.033 0.092 0.625 0 0 0
-0.029 -0.883 2.256 255 255 255
1.117 -1.101 2.231 255 255 255
-0.068 0.216 0.459 0 0 0
0.13 0.1 0.27 255 255 255
0.135 -1.594 2.176 0 0 0
1.069 -0.183 1.591 255 255 255
0.061 -0.394 1.905 255 255 255
-0.628 -0.95 2.287 255 255 255
0.676 -0.524 2.445 255 255 255
0.084 -0.871 2.25 0 0 0
0.063 0.04 0.791 255 255 255
-0.684 -0.217 1.223 255 255 255
0.476 -0.759 2.393 255 255 255
0.02 0.162 0.501 255 255 255
-0.723 -0.227 1.233 0 0 0
1.123 -0.883 2.108 0 0 0
0.55 -0.108 2.576 0 0 0
0.136 -0.057 1.155 255 255 255
-0.015 0.089 0.652 255 255 255
-0.661 -0.925 2.302 255 255 255
0.083 0.13 0.551 255 255 255
-0.235 -0.431 2.23 255 255 255
0.091 0.223 0.468 0 0 0
0.099 0.136 0.335 0 0 0
0.142 0.095 0.689 255 255 255
0.204 -1.414 2.224 255 255 255
0.858 -1.418 2.158 255 255 255
1.085 -0.066 1.906 255 255 255
-0.042 0.055 0.584 255 255 255
-0.023 0.189 0.479 255 255 255
-0.538 -0.075 0.956 255 255 255
-1.115 -1.7 2.288 0 0 0
-0.12 0.179 0.478 255 255 255
1.062 0.083 1.672 255 255 255
-0.525 -0.067 0.933 255 255 255
-1.535 -0.988 2.548 255 255 255
0.029 0.218 0.464 0 0 0
-0.267 -1.614 2.205 0 0 0
0.888 -1.213 2.212 255 255 255
-0.246 0.014 0.747 0 0 0
0.823 0.282 2.289 255 255 255
1.07 0.076 1.67 255 255 255
0.31 -1.024 2.324 255 255 255
-0.533 -0.662 2.337 255 255 255
0.262 -1.323 2.244 255 255 255
1.086 -0.932 2.097 0 0 0
-0.365 0.046 0.637 255 255 255
0.093 0.215 0.47 0 0 0
0.99 -1.495 2.121 255 255 255
0.707 -0.836 2.346 255 255 255
0.079 0.18 0.488 255 255 255
-1.382 -1.363 2.419 255 255 255
0.888 -0.887 2.311 255 255 255
-0.058 -0.066 1.16 0 0 0
0.084 0.008 0.945 255 255 255
0.576 -0.295 2.514 255 255 255
-0.034 0.222 0.456 0 0 0
-1.107 -1.143 2.434 255 255 255
-0.534 -0.647 2.32 255 255 255
-0.302 -0.129 1.174 255 255 255
-0.267 0.045 0.611 255 255 255
0.111 0.108 0.27 255 255 255
-0.371 -0.112 0.908 255 255 255
1.054 -0.362 2.453 255 255 255
1.051 -1.065 2.249 255 255 255
0.823 -1.444 2.158 255 255 255
0.804 -0.938 2.306 255 255 255
0.06 0.145 0.522 255 255 255
-0.693 -1.383 2.321 255 255 255
0.054 -1.292 2.273 255 255 255
-0.191 -0.139 1.198 255 255 255
-0.13 0.094 0.498 255 255 255
-1.26 -1.365 2.411 255 255 255
1.071 -0.098 1.62 255 255 255
0.059 0.142 0.53 255 255 255
0.725 -0.884 2.324 255 255 255
0.644 -1.367 2.194 255 255 255
1.043 0.279 1.736 255 255 255
-0.104 0.116 0.481 255 255 255
-0.153 -0.727 2.318 255 255 255
0.876 0.252 2.308 255 255 255
-0.214 0.116 0.492 255 255 255
0.036 0.028 0.831 255 255 255
-0.67 -0.875 2.311 255 255 255
0.628 -1.053 2.283 255 255 255
0.609 -0.99 2.309 255 255 255
1.11 -0.411 1.526 255 255 255
-0.24 0.031 0.705 255 255 255
-1.183 -1.142 2.469 255 255 255
-0.038 0.166 0.498 255 255 255
-0.381 -1.288 2.31 255 255 255
-0.495 -1.398 2.293 255 255 255
-0.035 0.14 0.517 0 0 0
-0.453 -1.025 2.247 255 255 255
-0.29 0.069 0.552 255 255 255
-1.117 -0.657 2.431 0 0 0
-0.536 -1.307 2.325 255 255 255
-0.676 -0.14 0.998 255 255 255
1.01 -0.516 1.499 255 255 255
-1.692 -0.9 2.574 255 255 255
1.081 -1.279 2.18 255 255 255
1.265 -0.648 2.171 255 255 255
-0.307 -0.621 2.267 255 255 255
0.065 0.038 0.797 255 255 255
-0.217 -0.292 1.793 255 255 255
1.077 -0.209 1.586 255 255 255
0.133 -1.217 2.286 255 255 255
1.006 0.376 1.932 255 255 255
-0.021 0.117 0.526 0 0 0
0.181 0.112 0.702 255 255 255
-0.096 -0.159 1.29 255 255 255
1.025 -0.022 2.182 255 255 255
0.569 -0.345 2.504 255 255 255
-0.796 -1.648 2.241 0 0 0
-0.081 -1.37 2.259 255 255 255
-0.788 -0.666 2.363 255 255 255
-0.867 -0.606 2.354 255 255 255
-0.269 0.086 0.603 0 0 0
-0.129 -0.109 1.167 255 255 255
-0.432 0.01 0.589 255 255 255
-0.274 -0.099 1.041 255 255 255
-0.083 0.115 0.446 255 255 255
0.434 -1.011 2.318 255 255 255
-0.103 0.225 0.452 255 255 255
0.287 -0.787 2.4 255 255 255
-0.393 -0.348 1.666 255 255 255
-0.42 -0.15 1.145 0 0 0
0.039 -0.612 2.179 255 255 255
-0.165 0.091 0.542 255 255 255
-0.069 0.166 0.491 255 255 255
-0.193 0.165 0.483 255 255 255
-0.131 0.032 0.583 255 255 255
0.105 -1.631 2.162 0 0 0
0.794 -0.938 2.308 255 255 255
0.077 0.128 0.553 255 255 255
-0.316 -0.146 1.197 0 0 0
0.539 -1.622 2.127 0 0 0
0.886 -0.749 2.354 255 255 255
0.689 -0.553 2.431 255 255 255
1.034 0.068 1.673 255 255 255
-0.008 0.22 0.458 0 0 0
-0.437 -0.706 2.343 0 0 0
0.469 -0.938 2.337 255 255 255
-0.084 0.203 0.467 255 255 255
1.048 0.3 1.742 255 255 255
-0.585 -1.143 2.217 0 0 0
-1.444 -1.072 2.512 255 255 255
-0.282 0.103 0.52 255 255 255
-0.245 0.133 0.507 255 255 255
-0.055 0.063 0.539 255 255 255
-1.626 -0.912 2.573 255 255 255
-0.292 0.098 0.556 255 255 255
0.622 -0.581 2.429 255 255 255
-0.137 0.246 0.455 255 255 255
0.177 -0.084 1.245 255 255 255
-0.527 -0.018 0.706 255 255 255
0.102 0.1 0.277 255 255 255
-0.351 -0.019 0.962 0 0 0
0.018 -0.971 2.252 0 0 0
-0.051 -1.464 2.228 255 255 255
-1.115 -1.091 2.456 255 255 255
-0.703 -0.726 2.368 0 0 0
-0.041 0.249 0.456 255 255 255
-0.041 0.113 0.535 0 0 0
-0.277 0.068 0.565 255 255 255
0.105 0.095 0.278 255 255 255
0.859 -1.641 2.094 255 255 255
0.6 -1.603 2.127 0 0 0
-0.283 -0.768 2.312 0 0 0
-0.061 0.063 0.538 0 0 0
0.137 0.083 0.709 0 0 0
-0.625 -1.345 2.323 255 255 255
0.031 0.222 0.461 0 0 0
1.106 -0.294 2.293 255 255 255
-0.741 -0.134 0.996 255 255 255
0.022 0.183 0.482 255 255 255
0.522 -0.74 2.393 255 255 255
0.44 -1.237 2.254 255 255 255
-0.1 -0.065 0.942 255 255 255
-0.401 -0.036 0.866 255 255 255
0.38 -1.011 2.326 255 255 255
-0.256 0.02 0.741 0 0 0
-1.231 -1.313 2.422 255 255 255
0.041 0.076 0.706 255 255 255
-1.169 -0.713 2.377 0 0 0
-0.169 -0.008 0.847 255 255 255
0.494 -1.226 2.248 255 255 255
1.035 -1.268 2.184 255 255 255
-0.566 -1.247 2.334 0 0 0
0.319 -0.68 2.283 0 0 0
0.783 -1.022 2.285 255 255 255
0.126 0.209 0.375 255 255 255
-0.427 0.046 0.656 255 255 255
-0.934 -0.272 1.39 0 0 0
-0.659 -0.102 1.006 255 255 255
1.086 -0.289 1.557 255 255 255
0.924 -1.353 2.169 255 255 255
0.761 -0.451 2.453 255 255 255
-0.115 0.191 0.471 255 255 255
-0.217 0.089 0.528 255 255 255
-0.131 -1.363 2.267 255 255 255
1.072 -0.744 2.175 255 255 255
0.097 0.094 0.305 0 0 0
0.622 -0.429 2.472 255 255 255
0.166 -0.624 2.201 255 255 255
0.103 0.132 0.287 255 255 255
-0.288 0.106 0.516 255 255 255
0.006 0.163 0.498 255 255 255
-0.018 0.104 0.512 0 0 0
-0.992 -1.162 2.41 255 255 255
-0.204 0.074 0.595 255 255 255
-0.218 0.113 0.491 255 255 255
0.927 -1.502 2.13 255 255 255
-0.024 0.248 0.456 255 255 255
-0.156 0.168 0.484 255 255 255
-0.183 0.082 0.586 255 255 255
0.704 -0.256 2.517 255 255 255
0.999 0.265 1.735 255 255 255
0.116 -0.189 1.526 255 255 255
-0.357 -0.149 1.171 0 0 0
-0.309 0.069 0.547 255 255 255
-0.205 0.188 0.467 255 255 255
0.926 -1.485 2.134 255 255 255
-0.272 -1.573 2.223 255 255 255
-0.586 -0.692 2.363 0 0 0
-0.985 -0.761 2.387 255 255 255
1.011 -0.24 2.498 255 255 255
-1.388 -0.582 2.345 255 255 255
1.057 -0.119 1.612 255 255 255
-0.418 -0.047 0.857 255 255 255
-0.183 0.005 0.793 255 255 255
0.089 0.134 0.545 255 255 255
0.797 0.112 2.577 0 0 0
1.136 -0.91 2.092 0 0 0
1.085 0.026 2.345 255 255 255
-0.069 -0.356 1.887 255 255 255
1.11 -0.633 2.185 255 255 255
-0.401 0.021 0.71 0 0 0
-0.049 0.125 0.479 255 255 255
0.43 -1.211 2.261 255 255 255
-0.107 0.065 0.493 0 0 0
-1.011 -0.788 2.377 255 255 255
0.046 0.154 0.508 255 255 255
-0.102 0.032 0.653 0 0 0
1.083 -0.134 1.608 255 255 255
0.079 0.162 0.502 255 255 255
-0.413 -1.58 2.229 255 255 255
0.093 0.099 0.302 0 0 0
-0.05 -0.209 1.566 255 255 255
0.071 0.191 0.478 255 255 255
-0.29 -1.403 2.272 255 255 255
-0.113 0.11 0.527 0 0 0
-0.335 -0.063 0.935 255 255 255
0.048 0.167 0.496 255 255 255
-0.114 -0.892 2.265 255 255 255
1.04 -0.008 2.011 255 255 255
-0.171 0.153 0.503 255 255 255
1.122 -0.138 1.602 255 255 255
0.126 -0.313 1.753 0 0 0
0.849 0.039 2.598 255 255 255
0.78 -0.784 2.352 255 255 255
-0.145 0.256 0.458 255 255 255
1.131 -1.125 2.175 255 255 255
1.102 -0.312 1.948 255 255 255
1.116 -0.987 2.262 255 255 255
-0.185 -0.001 0.824 255 255 255
-0.242 -1.327 2.284 255 255 255
0.093 0.216 0.47 0 0 0
-0.035 0.239 0.454 255 255 255
0.056 -0.739 2.295 255 255 255
1.004 -0.377 1.531 255 255 255
0.037 0.159 0.504 255 255 255
-0.238 -0.71 2.309 255 255 255
1.331 -0.62 2.156 0 0 0
-1.537 -0.936 2.564 255 255 255
0.329 -1.472 2.196 255 255 255
-0.535 -1.038 2.252 255 255 255
-0.397 -1.568 2.233 255 255 255
-0.016 0.117 0.525 255 255 255
0.034 0.129 0.556 255 255 255
-0.137 0.234 0.452 255 255 255
1.036 -0.878 2.307 255 255 255
-0.05 0.113 0.506 255 255 255
1.022 0.338 1.766 255 255 255
-0.15 0.081 0.609 255 255 255
0.913 -0.736 2.355 255 255 255
-0.004 0.088 0.709 0 0 0
-0.084 0.105 0.452 255 255 255
-0.021 -1.258 2.287 255 255 255
-0.92 -1.577 2.284 255 255 255
1.051 -0.063 2.546 0 0 0
0.069 -1.225 2.291 255 255 255
-0.427 -1.483 2.261 255 255 255
-0.806 -1.371 2.334 255 255 255
-0.111 0.251 0.457 255 255 255
-0.609 -0.76 2.341 255 255 255
-0.162 -0.851 2.276 255 255 255
0.052 -0.061 1.139 255 255 255
0.814 -1.551 2.133 0 0 0
1.003 0.101 1.682 255 255 255
1.068 0.263 2.227 255 255 255
-0.185 0.231 0.449 255 255 255
0.569 -1.147 2.264 255 255 255
-0.134 0.187 0.475 255 255 255
-0.596 -1.566 2.252 255 255 255
0.241 -0.188 1.62 255 255 255
0.038 0.088 0.757 0 0 0
0.441 -1.288 2.238 255 255 255
0.833 -0.625 2.398 255 255 255
0.026 0.2 0.472 255 255 255
0.328 -1.401 2.213 255 255 255
-1.726 -0.681 2.611 255 255 255
-0.218 0.183 0.468 255 255 255
-0.063 0.188 0.477 255 255 255
0.778 -1.182 2.234 255 255 255
1.054 -0.039 2.378 255 255 255
-0.654 -0.181 1.23 255 255 255
1.25 -1.011 2.074 255 255 255
-0.138 -0.029 0.908 255 255 255
-0.661 -0.125 0.964 255 255 255
0.029 0.018 0.87 255 255 255
1.051 -0.079 1.626 255 255 255
-0.956 -1.142 2.415 255 255 255
0.946 -1.127 2.236 255 255 255
0.303 -1.377 2.228 255 255 255
0.013 0.034 0.8 255 255 255
0.049 0.158 0.505 0 0 0
-0.271 0.064 0.576 255 255 255
-0.645 -0.244 1.393 255 255 255
-0.729 -0.327 1.63 255 255 255
-0.495 -0.029 0.886 255 255 255
-0.292 0.086 0.544 255 255 255
0 0.172 0.491 255 255 255
0.164 -0.426 1.936 255 255 255
0.969 -0.092 1.625 255 255 255
1.371 -0.63 2.159 0 0 0
1.103 -0.637 2.182 255 255 255
-0.315 0.099 0.532 255 255 255
1.325 -0.615 2.157 0 0 0
0.097 0.197 0.478 255 255 255
0.102 -0.009 0.991 0 0 0
-0.077 0.029 0.618 255 255 255
0.145 -0.044 1.117 255 255 255
-0.011 0.189 0.479 255 255 255
0.103 0.217 0.471 0 0 0
-0.07 0.081 0.478 255 255 255
-0.103 0.062 0.486 0 0 0
0.03 0.205 0.471 255 255 255
-0.105 0.044 0.549 255 255 255
-0.538 -0.02 0.906 255 255 255
0.519 -1.592 2.145 0 0 0
-0.136 0.172 0.483 255 255 255
-0.48 -0.011 0.871 255 255 255
0.051 -0.03 1.038 255 255 255
0.091 0.231 0.458 255 255 255
-0.076 0.066 0.482 0 0 0
0.076 0.15 0.52 255 255 255
-0.105 0.105 0.503 0 0 0
-0.132 0.016 0.631 255 255 255
0.556 -0.189 2.55 255 255 255
-0.686 -0.097 0.905 0 0 0
0.543 -1.097 2.282 255 255 255
1.029 -0.01 1.651 255 255 255
-0.07 0.075 0.478 255 255 255
-0.093 0.201 0.467 255 255 255
-0.018 0.118 0.527 0 0 0
-1.299 -1.342 2.419 255 255 255
0.154 -0.807 2.269 255 255 255
0.124 -0.421 1.918 255 255 255
-0.192 -1.422 2.258 255 255 255
0.126 0.159 0.529 255 255 255
-0.335 -0.185 1.226 255 255 255
-1.071 -0.998 2.446 0 0 0
-1.197 -0.597 2.407 0 0 0
0.473 -0.287 2.552 0 0 0
0.114 0.183 0.492 255 255 255
0.056 0.147 0.52 255 255 255
0.953 0.413 1.785 255 255 255
-0.354 -0.005 0.867 255 255 255
-0.184 0.03 0.738 255 255 255
0.138 -0.994 2.355 255 255 255
0.711 -0.88 2.33 255 255 255
-0.325 0.081 0.519 255 255 255
0.119 -0.234 1.698 255 255 255
-0.487 0.011 0.773 255 255 255
0.122 0.085 0.274 255 255 255
0.103 0.181 0.491 255 255 255
-0.188 0.094 0.541 255 255 255
-1.671 -0.903 2.614 255 255 255
1.093 -0.224 2.127 255 255 255
-0.551 -0.367 1.681 0 0 0
0.105 0.228 0.464 255 255 255
0.965 -1.298 2.18 255 255 255
0.227 -0.524 2.193 255 255 255
-0.296 -0.673 2.281 255 255 255
-1.157 -1.315 2.409 255 255 255
-0.089 0.068 0.485 255 255 255
-0.292 -0.078 1.037 255 255 255
1.153 -0.667 1.964 255 255 255
-0.295 0.104 0.536 255 255 255
-0.109 0.178 0.479 255 255 255
-0.363 -0.019 0.925 0 0 0
-0.173 0.049 0.699 0 0 0
1.057 0.183 1.704 255 255 255
-0.035 -0.156 1.431 255 255 255
-0.014 0.099 0.513 255 255 255
-0.516 -1.417 2.289 255 255 255
1.071 0.164 2.591 255 255 255
1.017 -0.422 2.44 255 255 255
1.078 -0.392 2.261 255 255 255
-0.142 0.091 0.494 255 255 255
0.144 0 0.971 255 255 255
-0.215 -0.71 2.326 0 0 0
-0.123 0.153 0.508 255 255 255
0.737 -0.995 2.296 255 255 255
0.001 0.199 0.475 255 255 255
0.648 0.006 2.601 0 0 0
0.148 -1.176 2.296 255 255 255
-0.06 0.132 0.459 0 0 0
0.856 -0.046 2.568 255 255 255
-0.008 0.205 0.471 255 255 255
0.113 -0.753 2.291 0 0 0
1.07 -1.16 2.222 255 255 255
-0.115 -0.187 1.299 255 255 255
-0.278 -0.185 1.253 255 255 255
-0.132 0.219 0.452 0 0 0
0.207 -0.238 1.748 255 255 255
0.135 0.197 0.49 0 0 0
-0.067 -0.875 2.262 255 255 255
-0.57 -0.026 0.821 255 255 255
0.628 -1.013 2.295 255 255 255
-0.015 0.085 0.672 0 0 0
-0.599 -0.818 2.327 255 255 255
0.412 -0.749 2.402 255 255 255
0.039 -0.254 1.772 255 255 255
-0.218 -1.436 2.258 255 255 255
-0.165 0.217 0.451 0 0 0
0.47 -1.267 2.239 255 255 255
0.018 0.128 0.559 255 255 255
-0.083 -0.408 1.951 255 255 255
-1.567 -1.118 2.505 255 255 255
-0.618 -1.217 2.314 0 0 0
-0.661 -0.234 1.363 255 255 255
0.015 -0.189 1.504 255 255 255
0.201 -1.558 2.188 255 255 255
-0.047 0.188 0.479 255 255 255
0.771 -0.451 2.451 255 255 255
-0.068 0.218 0.457 0 0 0
0.055 0.21 0.47 0 0 0
0.051 0.15 0.516 255 255 255
0.128 0.11 0.629 255 255 255
-0.151 0.245 0.455 255 255 255
-0.215 -0.312 1.744 255 255 255
0.052 0.247 0.455 255 255 255
0.66 0.017 2.604 0 0 0
0.317 -1.345 2.234 255 255 255
0.029 0.14 0.528 255 255 255
1.074 -0.966 2.279 255 255 255
0.388 -1.623 2.149 0 0 0
-0.18 0.046 0.703 0 0 0
1.04 -0.144 1.605 255 255 255
-0.201 -0.123 1.16 0 0 0
0.013 -0.934 2.228 0 0 0
-0.262 0.091 0.603 0 0 0
0.953 -1.043 2.265 255 255 255
-0.175 0.113 0.497 0 0 0
-0.161 0.203 0.463 0 0 0
-0.089 -0.37 1.921 255 255 255
0.062 0.194 0.477 255 255 255
-0.449 -0.88 2.288 255 255 255
0.224 -0.726 2.278 0 0 0
0.34 -0.242 1.942 255 255 255
0.809 -0.58 2.414 255 255 255
-0.048 -0.842 2.27 255 255 255
0.145 -0.248 1.722 0 0 0
0.124 0.05 0.767 255 255 255
-0.132 0.16 0.498 255 255 255
-0.016 -0.201 1.557 255 255 255
0.189 -0.192 1.577 255 255 255
0.119 0.235 0.462 255 255 255
0.856 0.071 2.603 255 255 255
-0.387 -0.089 0.878 255 255 255
0.089 -1.104 2.327 255 255 255
0.237 0.024 1.077 255 255 255
-0.067 0.086 0.477 255 255 255
0.937 -0.826 2.326 255 255 255
0.074 0.137 0.54 255 255 255
0.209 0.082 0.837 255 255 255
1.093 -0.065 1.625 255 255 255
-0.404 -0.154 1.142 255 255 255
-0.134 0.15 0.513 255 255 255
-1.386 -1.092 2.5 255 255 255
0.701 -0.894 2.328 255 255 255
-0.12 0.136 0.508 255 255 255
0.094 0.125 0.304 255 255 255
0.407 -0.754 2.402 255 255 255
-0.221 0.089 0.529 255 255 255
-0.058 -0.706 2.318 255 255 255
-0.031 0.212 0.466 0 0 0
-0.022 0.243 0.455 255 255 255
-0.189 0.046 0.693 0 0 0
-0.148 0.068 0.604 255 255 255
0.348 -0.835 2.32 0 0 0
-0.88 -0.34 1.573 0 0 0
-0.017 0.091 0.637 255 255 255
-0.166 0.104 0.499 0 0 0
0.187 0.082 0.803 255 255 255
0.567 -0.736 2.391 255 255 255
-0.205 0.031 0.726 255 255 255
-0.029 0.141 0.518 255 255 255
0.061 0.056 0.7 255 255 255
0.559 -1.602 2.133 0 0 0
-0.017 0.039 0.754 255 255 255
0.173 -1.062 2.331 255 255 255
0.977 -0.404 1.548 0 0 0
0.128 0.081 0.276 255 255 255
-0.145 0.086 0.599 0 0 0
0.679 -1.513 2.146 255 255 255
-1.027 -0.704 2.405 255 255 255
-0.622 -1.636 2.239 0 0 0
0.111 0.159 0.306 255 255 255
-0.078 0.047 0.626 0 0 0
0.234 0.051 0.996 255 255 255
1.016 0.132 2.607 255 255 255
0.682 0.318 2.305 0 0 0
-0.681 -0.216 1.357 0 0 0
0.346 -0.229 1.931 255 255 255
-1.196 -1.496 2.359 255 255 255
1.072 -0.024 2.392 255 255 255
-1.168 -0.746 2.462 255 255 255
0.435 -1.506 2.176 255 255 255
-0.027 0.093 0.536 255 255 255
-0.134 -0.103 1.155 255 255 255
0.453 -1.393 2.206 255 255 255
0.081 0.175 0.491 255 255 255
0.339 -1.477 2.192 255 255 255
0.48 -1.272 2.236 255 255 255
-0.149 0.222 0.449 255 255 255
-0.011 0.097 0.518 0 0 0
0.271 -1.119 2.302 255 255 255
-0.056 -1.479 2.222 255 255 255
0.092 0.101 0.291 255 255 255
-0.535 -1.14 2.221 0 0 0
0.744 -1.338 2.188 255 255 255
-0.024 0.046 0.716 255 255 255
-0.157 0.134 0.506 255 255 255
-0.215 0.175 0.473 255 255 255
0.272 -0.344 1.896 255 255 255
-0.516 0.014 0.747 255 255 255
0.736 -1.014 2.289 255 255 255
1.025 -0.068 2.541 255 255 255
-1.225 -1.33 2.417 255 255 255
1.099 -1.344 2.156 255 255 255
1.084 0.031 1.655 255 255 255
0.214 -0.309 1.903 0 0 0
-0.373 -1.226 2.307 0 0 0
-0.801 -1.711 2.228 0 0 0
-0.375 -0.103 0.889 255 255 255
0.998 -0.25 1.573 255 255 255
-0.057 -0.879 2.258 255 255 255
0.862 -1.062 2.266 255 255 255
-0.214 0.187 0.467 255 255 255
1.033 0.005 1.657 255 255 255
0.771 -0.297 2.499 255 255 255
0.996 -1.127 2.235 255 255 255
-0.167 0.069 0.619 255 255 255
-0.269 0.087 0.602 0 0 0
-1.38 -1.126 2.492 255 255 255
-0.815 -0.828 2.348 255 255 255
0.125 0.187 0.491 255 255 255
-0.586 -0.162 1.251 0 0 0
0.994 0.071 1.674 255 255 255
0.147 -0.049 1.136 255 255 255
0.159 -1.447 2.219 255 255 255
1.113 -0.156 1.595 255 255 255
0.108 0.096 0.275 255 255 255
0.8 -0.914 2.317 255 255 255
-0.454 -1.145 2.186 255 255 255
0.181 -0.082 1.242 255 255 255
0.808 -1.345 2.184 255 255 255
0.496 -1.334 2.215 255 255 255
-0.012 0.247 0.454 255 255 255
-0.071 0.057 0.509 255 255 255
-0.807 -0.975 2.3 255 255 255
0.155 -0.079 1.212 255 255 255
1.048 0.223 1.718 255 255 255
-0.182 0.107 0.498 0 0 0
0.549 -0.634 2.422 255 255 255
1.14 -0.274 2.283 255 255 255
-0.501 -0.637 2.305 255 255 255
1.088 -0.173 1.591 255 255 255
-0.899 -1.298 2.367 255 255 255
-0.065 0.175 0.482 255 255 255
-0.201 -0.083 1.005 0 0 0
-0.101 0.016 0.856 255 255 255
0.208 -1.355 2.239 255 255 255
-0.154 -0.015 0.878 255 255 255
-0.2 -0.01 0.823 255 255 255
-0.255 -1.529 2.229 255 255 255
-0.312 0.064 0.578 255 255 255
0.067 0.098 0.684 255 255 255
1.031 0.384 2.172 255 255 255
-0.024 0.107 0.515 255 255 255
-0.177 0.218 0.449 255 255 255
-0.354 -0.367 1.662 255 255 255
-0.013 0.175 0.487 255 255 255
-0.073 -0.288 1.897 0 0 0
0.376 -1.241 2.257 255 255 255
0.561 -1.256 2.238 255 255 255
0.724 -0.598 2.415 255 255 255
0.453 -1.38 2.215 255 255 255
-1.642 -0.908 2.576 255 255 255
-0.262 -0.374 1.693 255 255 255
-0.074 0.036 0.713 255 255 255
1.194 -0.988 2.05 255 255 255
-0.223 0.127 0.505 255 255 255
-0.178 -0.001 0.831 255 255 255
-0.615 -0.286 1.647 255 255 255
-0.188 -0.187 1.333 255 255 255
-0.019 0.072 0.679 255 255 255
-0.353 -0.598 2.267 255 255 255
-0.183 -0.586 2.369 0 0 0
-0.193 0.176 0.473 255 255 255
-0.287 0.131 0.514 255 255 255
-0.123 0.182 0.477 255 255 255
-0.147 0.187 0.474 255 255 255
0.068 0.231 0.456 255 255 255
-0.168 -0.083 0.983 0 0 0
-0.121 -0.001 0.734 255 255 255
0.13 0.242 0.468 255 255 255
0.995 -0.476 1.506 255 255 255
0.039 0.234 0.453 255 255 255
-0.066 0.037 0.733 255 255 255
0.328 -1.411 2.209 255 255 255
0 -0.341 1.935 0 0 0
0.936 -0.564 2.403 255 255 255
0.402 -1.392 2.211 255 255 255
-0.239 0.121 0.507 0 0 0
0.966 0.089 1.68 255 255 255
-0.176 0.041 0.717 0 0 0
0.969 -0.943 2.292 255 255 255
0.296 -0.908 2.363 255 255 255
-0.308 0.108 0.518 255 255 255
-0.079 0.061 0.49 255 255 255
-0.958 -0.364 1.521 255 255 255
0.183 -0.116 1.327 255 255 255
0.044 0.219 0.466 0 0 0
-0.008 0.028 0.815 255 255 255
0.787 -1.549 2.136 0 0 0
0.25 -0.056 1.28 255 255 255
-0.028 0.202 0.472 255 255 255
-0.234 0.134 0.521 0 0 0
-0.011 0.035 0.783 255 255 255
0.066 -0.064 1.155 255 255 255
0.78 -0.025 2.578 255 255 255
-0.189 -0.563 2.377 0 0 0
1.117 -0.213 1.576 255 255 255
0.007 0.068 0.706 255 255 255
-0.181 0.153 0.501 255 255 255
0.906 -1.541 2.115 0 0 0
0.006 0.046 0.724 255 255 255
1.034 -0.003 2.05 255 255 255
0.301 -1.619 2.152 0 0 0
-1.081 -1.49 2.323 255 255 255
-0.369 0.031 0.665 255 255 255
1.098 -0.172 1.871 255 255 255
-0.027 0.006 0.904 255 255 255
0.34 -1.119 2.295 255 255 255
-0.262 -0.484 2.261 255 255 255
0.111 0.237 0.458 255 255 255
0.198 0.156 0.652 0 0 0
-1.025 -1.754 2.231 255 255 255
-0.014 0.131 0.52 0 0 0
-0.299 0.079 0.538 255 255 255
0.094 0.126 0.304 255 255 255
0.103 0.222 0.469 0 0 0
-0.172 0.154 0.499 255 255 255
0.74 -0.7 2.38 255 255 255
0.194 -0.546 2.172 255 255 255
-0.129 0.254 0.457 255 255 255
-0.224 -0.868 2.277 255 255 255
0.904 -0.39 2.461 255 255 255
0.122 0.119 0.603 255 255 255
-0.86 -0.752 2.37 0 0 0
-0.099 0.053 0.539 255 255 255
1.081 -0.191 1.587 255 255 255
-1.29 -1.469 2.38 255 255 255
-0.128 -0.823 2.286 255 255 255
-0.591 -0.201 1.337 255 255 255
1.061 0.277 2.463 255 255 255
-0.124 0.123 0.507 0 0 0
-0.277 0.137 0.51 255 255 255
-0.032 0.084 0.495 255 255 255
1.136 -0.292 1.945 255 255 255
0.082 -0.179 1.476 255 255 255
-0.228 -0.148 1.228 255 255 255
-0.184 0.203 0.459 0 0 0
0.945 -0.052 2.561 255 255 255
-0.135 0.095 0.491 0 0 0
1.031 -1.618 2.082 255 255 255
-0.34 0.069 0.573 255 255 255
-1.07 -0.756 2.385 255 255 255
-0.069 -0.047 1.044 0 0 0
-0.347 -0.352 1.661 255 255 255
-0.211 0.187 0.468 255 255 255
-0.652 -1.229 2.343 0 0 0
0.671 -1.208 2.239 255 255 255
0.664 -0.976 2.306 255 255 255
-1.031 -0.248 1.429 255 255 255
0.407 -1.304 2.239 255 255 255
1.081 -0.376 1.531 255 255 255
-0.49 0.037 0.734 255 255 255
0.765 -0.232 2.521 255 255 255
-0.521 -0.633 2.307 255 255 255
0.706 0.243 2.467 0 0 0
-0.258 -0.304 1.676 255 255 255
0.124 0.19 0.49 255 255 255
0.168 -0.969 2.359 255 255 255
-0.679 -0.165 1.084 255 255 255
1.09 -1.459 2.128 255 255 255
0.054 0.222 0.464 0 0 0
-0.143 -0.032 0.912 255 255 255
-0.403 -1.306 2.308 255 255 255
0.079 0.004 0.966 255 255 255
-0.549 -1.596 2.243 255 255 255
-0.215 0.038 0.699 255 255 255
-0.145 0.205 0.462 0 0 0
-0.011 -0.118 1.296 255 255 255
1.039 0.271 1.737 255 255 255
-0.02 -0.764 2.296 255 255 255
-0.011 -1.054 2.342 255 255 255
0.415 -1.256 2.248 255 255 255
-0.391 -1.517 2.248 255 255 255
0.972 -0.311 1.56 255 255 255
0.606 -1.631 2.118 255 255 255
0.078 -0.051 1.121 255 255 255
-0.063 0.084 0.48 255 255 255
-0.572 -0.299 1.63 0 0 0
-0.066 0.184 0.477 255 255 255
0.943 0.082 2.602 255 255 255
-0.231 -0.312 1.702 255 255 255
0.052 0.09 0.748 0 0 0
-0.35 -0.033 0.953 0 0 0
1.071 0.223 2.104 255 255 255
1.016 -1.071 2.246 255 255 255
0.455 -0.869 2.359 255 255 255
-0.107 0.209 0.462 0 0 0
0.618 -1.023 2.294 255 255 255
-0.36 0.061 0.613 255 255 255
0.414 -1.108 2.288 255 255 255
1.157 0.024 1.648 255 255 255
0.214 -0.456 1.995 255 255 255
0.181 -0.058 1.174 255 255 255
0.102 0.114 0.271 255 255 255
0.144 -0.291 1.748 0 0 0
0.945 -0.223 2.507 255 255 255
0.494 -0.875 2.353 255 255 255
-0.593 -0.797 2.329 255 255 255
-0.06 0.115 0.451 0 0 0
-0.076 0.068 0.48 255 255 255
1.006 -0.192 1.591 255 255 255
-0.163 0.185 0.472 255 255 255
0.127 0.069 0.293 255 255 255
-0.232 -0.472 2.295 255 255 255
-0.334 -0.666 2.285 255 255 255
-0.354 -1.519 2.244 255 255 255
-0.438 0.046 0.658 255 255 255
0.118 0.168 0.509 255 255 255
0.612 -0.765 2.375 255 255 255
-0.194 -0.041 1.035 0 0 0
-0.976 -0.242 1.387 0 0 0
-0.374 0.027 0.688 255 255 255
0.114 0.085 0.276 255 255 255
-0.176 0.052 0.669 0 0 0
1.105 0.08 1.672 255 255 255
-0.227 0.158 0.487 255 255 255
0.095 0.118 0.325 255 255 255
1.106 -0.141 1.599 255 255 255
-0.997 -0.726 2.396 255 255 255
1.054 -0.29 1.966 255 255 255
0.131 0.255 0.471 255 255 255
0.788 -0.14 2.546 255 255 255
-0.574 -1.515 2.27 255 255 255
0.708 -0.821 2.35 255 255 255
-0.472 0.008 0.655 255 255 255
-0.046 0.17 0.49 255 255 255
-0.138 0.085 0.587 0 0 0
0.125 -0.284 1.732 0 0 0
-0.041 0.072 0.619 255 255 255
-0.076 0.166 0.492 255 255 255
0.592 -0.108 2.571 0 0 0
-1.159 -1.401 2.383 255 255 255
0.738 -1.236 2.222 255 255 255
-0.1 0.249 0.456 255 255 255
0.602 -0.551 2.438 255 255 255
1.301 -0.635 2.164 255 255 255
0.084 0.251 0.456 255 255 255
-0.165 0.084 0.6 255 255 255
-0.23 0.147 0.506 255 255 255
-0.087 0.071 0.483 0 0 0
-0.056 0.013 0.874 255 255 255
0.716 0.049 2.607 255 255 255
0.085 -0.246 1.711 0 0 0
-0.067 -0.719 2.312 255 255 255
-0.429 -0.947 2.271 255 255 255
0.121 0.095 0.27 255 255 255
-0.091 0.219 0.455 0 0 0
0.943 -1.578 2.109 0 0 0
0.986 -0.466 2.429 255 255 255
0.03 0.197 0.474 255 255 255
-0.638 -0.089 0.905 255 255 255
-0.024 -0.175 1.471 255 255 255
-0.035 0.165 0.498 255 255 255
1.045 -0.163 2.516 255 255 255
-0.488 -0.945 2.271 255 255 255
-0.357 0.059 0.616 255 255 255
-0.099 0.056 0.54 255 255 255
1.076 -0.136 1.897 255 255 255
1.092 -0.352 2.446 255 255 255
0.914 -1.043 2.263 255 255 255
-0.089 -0.024 1.039 0 0 0
-0.073 0.238 0.454 255 255 255
-0.293 0.091 0.547 255 255 255
-0.158 0.21 0.458 0 0 0
1.144 -1.033 2.06 255 255 255
0.133 0.078 0.28 255 255 255
0.036 0.164 0.499 255 255 255
0.069 0.053 0.72 255 255 255
0.054 0.057 0.694 255 255 255
0.106 0.124 0.283 255 255 255
0.078 0.242 0.453 255 255 255
0.018 0.202 0.47 255 255 255
0.794 -0.347 2.483 255 255 255
-0.025 0.079 0.678 0 0 0
0.046 0.235 0.453 255 255 255
-0.016 0.161 0.501 255 255 255
1.003 -0.061 1.637 255 255 255
0.401 -1.273 2.248 255 255 255
-0.35 -1.259 2.316 255 255 255
0.137 0.097 0.272 255 255 255
-0.101 -1.347 2.272 255 255 255
