ply
format ascii 1.0
comment Created by Open3D
element vertex 1618
property double x
property double y
property double z
property uchar red
property uchar green
property uchar blue
end_header
0.073 -0.428 1.911 255 255 255
0.092 0.155 0.489 255 255 255
-0.175 0.168 0.469 255 255 255
-0.216 0.123 0.504 255 255 255
-0.024 0.189 0.467 255 255 255
0.03 0.078 0.651 255 255 255
-0.427 -0.008 0.785 255 255 255
-0.493 -0.214 1.331 255 255 255
-0.639 -0.22 1.134 255 255 255
0.318 -0.43 1.907 255 255 255
0.119 0.074 0.673 0 0 0
0.227 -0.172 1.427 255 255 255
-0.076 0.167 0.474 255 255 255
1.156 -0.711 2.291 255 255 255
-0.031 0.118 0.44 0 0 0
0.783 -1.112 2.22 255 255 255
-0.081 0.113 0.504 0 0 0
-0.166 0.174 0.467 255 255 255
-0.114 0.049 0.624 255 255 255
0.7 -1.47 2.125 255 255 255
-1.283 -0.758 2.559 255 255 255
-0.444 -0.119 1.011 255 255 255
-1.26 -1.062 2.565 255 255 255
0.574 -1.591 2.106 0 0 0
-0.268 0.064 0.539 255 255 255
1.019 -1.053 2.202 255 255 255
-0.224 0.17 0.473 255 255 255
-0.144 -0.098 1.006 0 0 0
0.365 -1.322 2.222 255 255 255
0.251 0.08 0.787 255 255 255
0.142 -1.064 2.323 255 255 255
-0.345 -0.031 0.879 0 0 0
-0.123 -1.004 2.228 255 255 255
-0.107 0.175 0.475 255 255 255
0.836 -0.462 2.414 255 255 255
0.26 0.135 0.678 255 255 255
0.136 -0.208 1.508 255 255 255
-0.594 -1.609 2.275 255 255 255
-0.199 -0.431 1.682 255 255 255
0.09 0.043 0.708 255 255 255
0.158 -0.892 2.235 255 255 255
-0.425 0.03 0.708 0 0 0
0.469 -1.417 2.172 255 255 255
1.011 -0.077 2.507 255 255 255
-0.023 0.058 0.48 255 255 255
0.654 -1.441 2.139 255 255 255
0.57 -1.468 2.147 255 255 255
-0.149 0.209 0.448 0 0 0
0.186 0.106 0.609 255 255 255
0.103 -0.145 1.322 255 255 255
0.099 -0.234 1.607 255 255 255
-0.257 -0.431 1.676 255 255 255
0.87 -0.884 2.275 255 255 255
0.116 -0.589 2.213 255 255 255
0.969 -0.698 2.32 255 255 255
0.171 0.043 0.749 255 255 255
0.153 -0.148 1.323 255 255 255
-0.012 0.098 0.465 255 255 255
-0.269 0.032 0.633 255 255 255
-0.06 0.213 0.448 0 0 0
-0.76 -0.376 1.579 255 255 255
0.537 -0.758 2.365 255 255 255
0.218 -0.476 1.92 255 255 255
1.073 0.052 1.61 255 255 255
0.381 -1.45 2.176 255 255 255
0.982 0.244 2.255 255 255 255
0.853 -1.486 2.094 255 255 255
-0.059 0.141 0.492 255 255 255
0.164 -1.47 2.204 255 255 255
0.005 0.045 0.701 0 0 0
-0.097 0.092 0.483 255 255 255
0.13 -0.956 2.215 0 0 0
0.035 0.203 0.459 255 255 255
-0.181 0.193 0.459 255 255 255
0.632 -0.46 2.444 255 255 255
0.028 -0.75 2.3 255 255 255
-0.247 -0.171 1.158 255 255 255
0.565 -1.278 2.201 255 255 255
-0.024 -0.642 2.341 0 0 0
-0.08 0.11 0.514 0 0 0
0.137 0.085 0.272 255 255 255
0.002 0.168 0.475 255 255 255
0.113 0.217 0.454 0 0 0
1.506 -0.724 2.184 255 255 255
0.191 0.135 0.56 255 255 255
-0.005 0.182 0.469 255 255 255
-0.063 0.107 0.484 0 0 0
-0.584 -0.136 1.019 255 255 255
0.168 -1.351 2.235 255 255 255
-0.228 -1.163 2.178 0 0 0
1.207 -0.211 2.038 255 255 255
0.516 -1.183 2.241 255 255 255
-0.192 -0.116 1.031 255 255 255
-0.229 0.165 0.474 255 255 255
0.214 0.106 0.651 255 255 255
0.049 -1.195 2.302 255 255 255
0.348 -0.242 1.739 255 255 255
-0.542 -0.07 0.744 0 0 0
-0.155 0.067 0.585 255 255 255
0.179 0.09 0.657 255 255 255
1.143 -0.075 2.036 255 255 255
0.739 -0.837 2.31 255 255 255
0.679 -0.164 2.53 0 0 0
-0.254 -0.973 2.261 255 255 255
-0.615 -0.306 1.475 255 255 255
-0.918 -1.679 2.289 0 0 0
-0.855 -1.739 2.265 0 0 0
0.672 -1.157 2.219 255 255 255
0.618 -1.202 2.214 255 255 255
0.378 -1.227 2.242 255 255 255
-0.303 -0.203 1.183 255 255 255
-0.069 0.101 0.525 0 0 0
-0.329 -0.206 1.183 255 255 255
-0.368 0.008 0.552 255 255 255
1.232 -0.579 2.312 255 255 255
-0.03 0.201 0.459 255 255 255
0.299 -1.105 2.293 255 255 255
0.004 -0.664 2.329 255 255 255
0.08 0.23 0.439 255 255 255
-0.755 -0.212 1.155 255 255 255
0.022 0.092 0.51 255 255 255
-0.089 -0.328 1.839 255 255 255
-0.414 -1.44 2.299 255 255 255
-0.6 -0.161 1.012 255 255 255
0.069 0.149 0.494 255 255 255
-0.606 -0.1 1.07 255 255 255
0.046 0.114 0.527 0 0 0
0.383 -1.575 2.139 0 0 0
0.813 -0.067 2.539 255 255 255
-1.315 -1.54 2.425 255 255 255
0.984 -0.683 2.318 255 255 255
-0.034 -0.739 2.312 255 255 255
-0.253 -0.347 1.68 0 0 0
-0.602 -0.143 1.091 255 255 255
-0.254 -0.865 2.296 255 255 255
-0.008 0.042 0.583 0 0 0
0.203 0.228 0.475 255 255 255
-0.902 -1.378 2.384 255 255 255
-0.084 -0.026 0.874 255 255 255
-0.259 -0.1 0.944 255 255 255
0.653 -1.556 2.108 0 0 0
0.731 -1.005 2.256 255 255 255
-0.305 -1.167 2.18 255 255 255
-0.203 0.196 0.455 255 255 255
0.895 -0.949 2.254 255 255 255
-0.237 0.091 0.57 0 0 0
-0.633 -0.232 1.166 255 255 255
-0.147 -1.448 2.251 255 255 255
0.134 0.247 0.445 255 255 255
-1.736 -0.748 2.715 255 255 255
0.011 0.086 0.494 0 0 0
0.918 -0.149 2.5 255 255 255
0.19 -0.384 1.885 255 255 255
-0.624 -0.303 1.473 0 0 0
-0.055 0.219 0.447 255 255 255
-0.174 0.185 0.463 255 255 255
-0.387 -1.389 2.313 255 255 255
0.065 -1.599 2.184 0 0 0
0.181 0.212 0.467 0 0 0
0.165 -1.556 2.178 255 255 255
-0.357 0.043 0.646 0 0 0
-0.127 0.193 0.461 255 255 255
-0.224 0.09 0.579 0 0 0
-0.308 0.026 0.658 255 255 255
-0.454 0.012 0.74 0 0 0
-0.24 -1.445 2.271 255 255 255
0.077 -0.427 1.908 255 255 255
-0.079 0.01 0.608 255 255 255
1.229 -1.056 2.181 255 255 255
-0.139 0.152 0.485 255 255 255
-0.085 -0.07 0.986 0 0 0
-0.108 0.019 0.727 255 255 255
-0.909 -0.855 2.391 255 255 255
0.014 0.048 0.701 0 0 0
-0.137 0.115 0.494 255 255 255
-0.149 0.095 0.499 0 0 0
-0.117 -0.657 2.285 255 255 255
0.06 0.187 0.465 255 255 255
-0.066 -0.054 0.946 255 255 255
0.01 0.044 0.708 255 255 255
0.515 -0.917 2.32 255 255 255
-0.078 0.154 0.49 255 255 255
-0.216 0.026 0.691 255 255 255
0.062 0.136 0.519 255 255 255
0.472 -1.309 2.207 255 255 255
-0.307 0.038 0.635 255 255 255
-1.045 -0.917 2.403 0 0 0
0.004 -0.701 2.319 255 255 255
-1.106 -1.149 2.51 255 255 255
0.173 0.028 0.81 255 255 255
-0.678 -1.268 2.392 255 255 255
1.242 -0.975 2.026 255 255 255
-0.251 0.118 0.519 255 255 255
-0.484 -0.353 1.657 255 255 255
0.191 0.049 0.73 255 255 255
0.157 0.215 0.456 0 0 0
0.682 -1.368 2.157 255 255 255
1.189 0.211 2.194 255 255 255
-0.025 0.181 0.47 255 255 255
1.222 -0.61 2.311 255 255 255
-0.005 -0.825 2.28 255 255 255
0.095 0.116 0.551 255 255 255
-1.526 -0.787 2.615 0 0 0
0.129 0.105 0.272 255 255 255
-0.058 -0.552 2.379 0 0 0
-0.18 0.15 0.484 255 255 255
-0.165 0.214 0.446 0 0 0
-0.747 -1.342 2.376 255 255 255
-1.615 -1.016 2.606 255 255 255
0.427 -1.194 2.251 255 255 255
-0.267 0.106 0.524 0 0 0
-0.133 -0.9 2.271 255 255 255
-0.651 -0.146 1 0 0 0
-0.091 0.094 0.488 255 255 255
0.179 0.222 0.459 0 0 0
-0.38 -0.077 0.901 0 0 0
0.045 0.103 0.511 0 0 0
1.167 -0.711 2.288 255 255 255
-0.07 0.095 0.521 0 0 0
-1.343 -1.498 2.443 255 255 255
-0.405 -0.73 2.359 0 0 0
0.098 -0.917 2.236 255 255 255
-0.606 -0.985 2.312 255 255 255
0.047 0.067 0.71 0 0 0
-0.088 0.182 0.471 255 255 255
-0.143 0.093 0.512 255 255 255
-0.93 -0.803 2.415 255 255 255
-0.293 -0.168 1.126 255 255 255
0.221 -1.206 2.272 255 255 255
-0.151 0.145 0.495 255 255 255
-0.168 0.212 0.447 0 0 0
-0.659 -1.158 2.395 0 0 0
0.913 -0.134 2.502 255 255 255
-0.018 -0.003 0.88 255 255 255
-0.01 0.239 0.448 255 255 255
0.133 0.09 0.308 255 255 255
1.181 0.244 1.954 255 255 255
-0.168 -1.543 2.225 255 255 255
0.455 -0.706 2.239 0 0 0
-0.151 0.242 0.455 255 255 255
-0.015 0.061 0.481 0 0 0
-0.102 0.206 0.452 0 0 0
0.687 -0.537 2.407 255 255 255
1.288 -0.399 2.168 255 255 255
0.692 -0.269 2.491 255 255 255
-0.332 -0.301 1.628 255 255 255
0.009 -1.387 2.247 255 255 255
-0.098 0.18 0.472 255 255 255
1.043 -1.445 2.087 255 255 255
-0.029 -0.655 2.335 0 0 0
-0.12 0.226 0.448 255 255 255
0.977 -0.051 2.522 255 255 255
-0.139 0.142 0.504 255 255 255
-0.145 0.168 0.473 255 255 255
0.194 0.174 0.5 0 0 0
0.03 0.119 0.511 0 0 0
-0.173 0.06 0.586 255 255 255
-0.196 -1.107 2.213 255 255 255
0.169 0.132 0.545 255 255 255
1.179 -0.573 2.326 255 255 255
0.18 0.176 0.498 255 255 255
-0.205 -0.196 1.233 255 255 255
-0.492 -0.815 2.35 255 255 255
0.27 -1.225 2.26 255 255 255
-0.123 0.167 0.479 255 255 255
1.089 -0.176 2.466 255 255 255
0.21 0.106 0.64 255 255 255
-1.079 -0.723 2.442 0 0 0
0.214 0.139 0.584 255 255 255
0.046 0.137 0.512 255 255 255
-1.071 -0.377 1.62 255 255 255
-0.189 0.065 0.584 255 255 255
1.001 -1.518 2.092 0 0 0
-0.66 -0.201 1.089 255 255 255
0.123 0.202 0.458 255 255 255
-0.244 -0.123 1.064 0 0 0
-0.293 -0.099 0.93 0 0 0
0.382 -1.064 2.293 255 255 255
1.212 0.274 2.334 255 255 255
1.156 -0.042 1.931 255 255 255
-0.801 -0.36 1.592 255 255 255
-0.936 -0.688 2.454 255 255 255
-0.38 -0.729 2.357 0 0 0
0.193 0.168 0.504 0 0 0
-0.029 0.237 0.449 255 255 255
-1.149 -1.476 2.425 255 255 255
-0.854 -1.31 2.402 255 255 255
0.912 -0.255 2.462 255 255 255
1.007 -0.009 2.526 255 255 255
-0.255 -0.067 0.946 255 255 255
-0.173 -0.148 1.157 255 255 255
-0.419 -0.016 0.825 255 255 255
0.044 -1.282 2.276 255 255 255
0.097 0.088 0.643 255 255 255
-0.139 -0.072 0.901 0 0 0
0.821 -0.845 2.299 255 255 255
0.113 -0.178 1.417 255 255 255
0.106 0.117 0.56 255 255 255
0.148 0.103 0.605 255 255 255
-0.18 0.202 0.452 0 0 0
0.675 -1.275 2.187 255 255 255
-1.108 -1.586 2.373 255 255 255
0.174 -0.321 1.886 0 0 0
0.05 0.139 0.514 255 255 255
-1.723 -1.022 2.622 255 255 255
-0.129 -0.049 0.883 255 255 255
-0.228 0.023 0.643 0 0 0
-0.186 -0.36 1.664 255 255 255
-0.051 -1.286 2.284 255 255 255
-0.11 0.004 0.806 255 255 255
0.608 -1.544 2.119 0 0 0
0.027 0.233 0.442 255 255 255
-0.195 0.216 0.449 255 255 255
0.12 0.23 0.442 255 255 255
0.09 -0.615 2.333 0 0 0
-0.297 0.031 0.652 255 255 255
-0.22 -0.174 1.18 255 255 255
-0.19 0.2 0.451 0 0 0
-0.29 0.103 0.524 255 255 255
-0.38 -0.753 2.351 0 0 0
0.287 -0.145 1.382 255 255 255
-0.749 -0.888 2.362 255 255 255
0.1 0.226 0.443 255 255 255
0.17 0.053 0.701 255 255 255
0.022 0.045 0.702 255 255 255
-1.54 -0.892 2.672 255 255 255
-1.716 -0.834 2.678 255 255 255
0.737 -1.38 2.145 255 255 255
-0.634 -0.593 2.329 255 255 255
-1.322 -1.262 2.512 255 255 255
0.144 0.216 0.454 0 0 0
0.703 -0.179 2.518 0 0 0
1.246 -0.356 2.191 255 255 255
1.179 -0.657 2.3 255 255 255
1.261 -0.941 2.207 255 255 255
0.178 0.17 0.505 255 255 255
-0.398 -0.12 0.991 0 0 0
0.646 -0.264 2.5 0 0 0
0.072 0.074 0.718 0 0 0
0.923 -0.653 2.338 255 255 255
-0.329 -0.152 1.143 0 0 0
-0.052 -1.088 2.202 0 0 0
-0.14 0.134 0.519 0 0 0
-0.574 -0.058 0.993 0 0 0
-1.497 -1.143 2.582 255 255 255
-0.218 0.098 0.51 255 255 255
1.112 -0.437 2.377 255 255 255
-0.361 -1.454 2.285 255 255 255
-0.073 0.211 0.449 0 0 0
-0.99 -0.316 1.558 255 255 255
0.68 -1.266 2.191 255 255 255
-0.254 0.078 0.54 255 255 255
-0.594 -0.084 0.971 255 255 255
0.142 0.055 0.675 255 255 255
0.357 -0.822 2.254 0 0 0
0.084 0.101 0.597 255 255 255
0.331 -1.43 2.19 255 255 255
0.13 0.094 0.273 255 255 255
-0.302 0.089 0.504 255 255 255
1.238 -0.605 2.307 255 255 255
1.05 -0.642 2.323 255 255 255
-0.159 0.141 0.501 255 255 255
0.17 0.008 0.893 255 255 255
-0.579 -0.587 2.332 255 255 255
0.696 -0.74 2.347 255 255 255
0.086 0.144 0.506 255 255 255
-0.326 -0.186 1.165 255 255 255
-1.12 -1.68 2.346 255 255 255
-0.359 0.031 0.578 255 255 255
1.206 -0.37 2.383 255 255 255
-0.058 0.061 0.482 0 0 0
0.852 -0.354 2.441 255 255 255
0.108 0.187 0.465 255 255 255
0.685 -0.605 2.389 255 255 255
0.163 0.11 0.598 255 255 255
-1.199 -0.94 2.591 255 255 255
0.158 0.229 0.447 255 255 255
-0.134 0.246 0.455 255 255 255
-0.369 0.022 0.534 255 255 255
0.216 -1.088 2.312 255 255 255
0.065 0.212 0.452 0 0 0
0.011 0.151 0.494 255 255 255
1.02 -1.149 2.174 255 255 255
-1.112 -0.709 2.465 0 0 0
-1.082 -0.837 2.41 0 0 0
0.823 -1.475 2.105 255 255 255
-1.058 -0.999 2.554 255 255 255
1.262 -1.124 2.166 255 255 255
0.029 0.059 0.667 255 255 255
0.184 0.17 0.508 255 255 255
-0.26 0.014 0.707 255 255 255
-0.472 -0.045 0.916 255 255 255
0.664 -1.278 2.184 255 255 255
0.085 0.027 0.787 255 255 255
0.072 0.096 0.629 255 255 255
-0.479 -0.137 1.044 255 255 255
-0.532 -0.225 1.343 255 255 255
-0.068 0.185 0.466 255 255 255
0.343 -0.935 2.332 255 255 255
1.045 -0.554 2.354 255 255 255
-0.252 0.058 0.55 255 255 255
-0.442 -0.378 1.701 0 0 0
0.224 -1.514 2.18 255 255 255
-0.217 0.049 0.586 255 255 255
1.262 -0.273 2.228 255 255 255
-0.955 -1.816 2.285 255 255 255
-0.311 0.076 0.504 255 255 255
0.103 -0.67 2.313 0 0 0
-0.018 -0.15 1.236 255 255 255
-0.291 -1.39 2.292 255 255 255
-0.246 -0.337 1.686 0 0 0
0.167 -0.959 2.208 0 0 0
-0.585 -1.234 2.378 0 0 0
1.083 -0.144 1.546 255 255 255
-0.068 0.157 0.483 255 255 255
-0.515 -0.043 0.778 255 255 255
-0.395 -0.039 0.889 255 255 255
0.513 -1.007 2.285 0 0 0
-0.069 0.176 0.469 255 255 255
0.749 -0.072 2.547 0 0 0
-0.557 -0.09 1.047 255 255 255
-0.24 -0.093 0.982 255 255 255
-0.562 -1.484 2.307 255 255 255
0.164 -0.175 1.412 255 255 255
0.442 -1.238 2.233 255 255 255
0.412 -1.045 2.297 255 255 255
0.788 -0.299 2.468 255 255 255
-0.039 0.177 0.472 255 255 255
-1.576 -1.144 2.554 255 255 255
-0.207 0.171 0.47 255 255 255
-0.244 -1.007 2.254 255 255 255
-0.171 -1.062 2.223 255 255 255
-0.101 0.099 0.489 255 255 255
0.005 -0.011 0.916 255 255 255
-0.11 0.081 0.498 255 255 255
0.075 -0.007 0.921 255 255 255
0.903 -0.773 2.305 255 255 255
0.962 0.365 1.933 255 255 255
-0.582 -0.127 0.998 255 255 255
-0.293 0.015 0.697 255 255 255
0.26 -1.607 2.149 0 0 0
-0.054 0.225 0.447 255 255 255
-0.28 0.065 0.531 255 255 255
0.208 0.038 0.781 255 255 255
-0.07 0.155 0.488 255 255 255
1.204 -0.648 2.112 255 255 255
0.189 -0.142 1.312 255 255 255
0.435 -0.616 2.253 0 0 0
-0.565 -0.696 2.362 255 255 255
0.011 0.104 0.514 255 255 255
-0.514 -1.168 2.257 0 0 0
-0.722 -0.715 2.4 255 255 255
1.104 -1.263 2.129 255 255 255
-0.011 -1.269 2.285 255 255 255
-0.834 -0.918 2.366 255 255 255
0.143 -1.363 2.235 255 255 255
-1.427 -1.218 2.545 255 255 255
0.99 -0.221 2.463 255 255 255
1.058 0.028 2.536 255 255 255
0.149 0.134 0.341 255 255 255
0.139 -0.208 1.507 255 255 255
-0.304 -0.001 0.711 255 255 255
-0.628 -0.87 2.35 255 255 255
0.205 -0.153 1.363 255 255 255
-0.214 -0.159 1.215 0 0 0
0.128 0.191 0.464 255 255 255
0.21 0.139 0.579 255 255 255
0.841 -1.607 2.07 255 255 255
-0.161 0.079 0.544 0 0 0
-0.164 -0.38 1.677 255 255 255
1.072 0.001 1.595 255 255 255
-0.762 -1.144 2.437 255 255 255
0.039 -0.447 1.96 255 255 255
1.228 -0.475 2.344 255 255 255
-0.164 0.002 0.761 255 255 255
0.219 -0.353 1.807 0 0 0
-0.52 -0.053 0.793 255 255 255
0.011 0.081 0.487 0 0 0
-0.168 0.231 0.45 255 255 255
0.768 -0.025 2.558 0 0 0
-0.163 -0.67 2.263 255 255 255
0.029 -1.179 2.305 255 255 255
-0.931 -0.877 2.384 255 255 255
0.262 0.01 0.984 255 255 255
0.139 0.135 0.525 0 0 0
-0.995 -1.739 2.315 0 0 0
-0.718 -1.701 2.263 0 0 0
-0.169 0.223 0.449 255 255 255
0.043 0.168 0.479 255 255 255
0.857 -0.438 2.416 255 255 255
1.049 -1.188 2.162 255 255 255
0.428 -1.276 2.228 255 255 255
-0.199 -0.072 0.968 255 255 255
1.216 -0.173 2.008 255 255 255
0.612 -0.285 2.511 0 0 0
0.155 0.102 0.621 255 255 255
-0.25 -0.31 1.668 255 255 255
0.77 -1.272 2.172 255 255 255
-0.272 -0.017 0.923 0 0 0
-0.217 0.161 0.476 255 255 255
0.091 0.007 0.863 255 255 255
-0.107 0.08 0.549 0 0 0
-0.282 -0.66 2.287 255 255 255
-1.039 -0.422 1.669 255 255 255
-0.922 -1.437 2.367 255 255 255
-1.2 -1.345 2.473 255 255 255
0.982 0.182 2.548 255 255 255
-0.086 -0.851 2.279 255 255 255
-0.023 0.223 0.446 255 255 255
0.123 0.114 0.564 255 255 255
-0.026 0.189 0.467 255 255 255
1.188 -0.007 1.864 255 255 255
-0.743 -1.612 2.293 255 255 255
-0.75 -1.508 2.322 255 255 255
-1.541 -0.861 2.653 255 255 255
-0.092 -1.592 2.202 0 0 0
0.029 0.223 0.442 255 255 255
0.051 0.191 0.465 255 255 255
0.113 0.147 0.502 255 255 255
-0.199 -0.603 2.263 255 255 255
-1.091 -0.424 1.675 255 255 255
-0.139 0.046 0.614 255 255 255
-1.231 -1.086 2.553 255 255 255
-1.481 -0.727 2.583 255 255 255
0.268 -0.58 2.155 0 0 0
-0.093 0.183 0.471 255 255 255
-0.366 0.008 0.728 0 0 0
0.033 0.088 0.525 255 255 255
-0.176 0.058 0.588 255 255 255
0.523 -1.012 2.284 255 255 255
-0.591 -0.231 1.347 255 255 255
-0.313 -0.116 0.89 255 255 255
-1.26 -1.148 2.541 255 255 255
0.801 -1.32 2.153 255 255 255
0.68 -0.812 2.327 255 255 255
-0.152 0.197 0.457 255 255 255
0.226 0.012 0.914 255 255 255
-0.248 -0.219 1.273 255 255 255
0.439 -0.752 2.357 0 0 0
-0.652 -0.865 2.363 255 255 255
-0.42 0.03 0.697 0 0 0
1.061 -0.025 2.514 255 255 255
0.44 -0.3 1.894 255 255 255
0.154 0.224 0.449 255 255 255
0.086 0.023 0.803 255 255 255
-0.211 -0.042 0.882 255 255 255
-0.291 0.077 0.51 255 255 255
1.193 0.091 2.186 255 255 255
0.667 -1.088 2.241 255 255 255
-1.119 -0.689 2.471 0 0 0
1.182 0.051 1.878 255 255 255
-0.217 -0.171 1.179 255 255 255
-0.023 0.19 0.467 255 255 255
1.067 -0.242 1.535 255 255 255
-1.327 -1.04 2.588 255 255 255
0.193 -0.208 1.531 255 255 255
1.217 -0.663 2.292 255 255 255
-0.904 -1.623 2.306 255 255 255
0.133 -1.342 2.242 255 255 255
-1.476 -1.039 2.61 255 255 255
0.07 -0.94 2.23 255 255 255
-0.072 -0.827 2.284 255 255 255
-0.736 -0.976 2.333 255 255 255
-0.039 0.003 0.656 0 0 0
0.047 -0.764 2.294 255 255 255
-0.084 -0.219 1.35 255 255 255
-0.319 -1.44 2.287 255 255 255
1.254 -0.739 2.243 255 255 255
0.202 -0.42 1.888 255 255 255
-0.056 -1.627 2.186 0 0 0
0.162 0.173 0.484 255 255 255
-0.146 -0.026 0.827 0 0 0
-0.134 0.059 0.619 0 0 0
-0.034 -0.078 0.935 255 255 255
0.066 0.216 0.449 0 0 0
-0.211 -0.949 2.269 255 255 255
-0.17 0.102 0.487 0 0 0
-0.412 -0.015 0.637 255 255 255
0.236 -0.591 2.148 255 255 255
0.86 0.252 2.226 255 255 255
-0.289 -0.088 0.931 255 255 255
1.073 -0.165 1.543 255 255 255
1.237 -1.001 2.041 255 255 255
-0.162 -0.65 2.261 255 255 255
0.782 -1.047 2.239 255 255 255
0.141 0.143 0.52 255 255 255
-0.576 -0.652 2.33 255 255 255
0.339 -0.395 1.871 255 255 255
0.839 -0.588 2.373 255 255 255
0.01 0.078 0.611 0 0 0
-0.475 -0.932 2.309 255 255 255
-0.288 -0.929 2.281 255 255 255
-0.21 0.161 0.476 255 255 255
-0.634 -1.43 2.335 255 255 255
0.228 -0.074 1.154 255 255 255
-0.217 0.11 0.506 255 255 255
-0.047 0.215 0.448 0 0 0
-0.214 0.03 0.62 255 255 255
-0.693 -1.199 2.412 255 255 255
1.209 -0.624 2.306 255 255 255
-1.143 -1.649 2.372 255 255 255
-1.461 -1.251 2.533 255 255 255
0.1 0.116 0.567 0 0 0
0.114 0.226 0.446 255 255 255
-0.423 -0.11 0.991 0 0 0
-0.075 0.155 0.488 255 255 255
0.139 0.171 0.48 255 255 255
0.139 0.139 0.523 0 0 0
0.807 -1.326 2.151 255 255 255
-0.296 -0.103 0.913 255 255 255
-0.113 0.03 0.712 0 0 0
0.102 -0.926 2.232 255 255 255
1.197 -0.478 2.171 255 255 255
1.091 -0.131 1.551 255 255 255
0.205 -0.03 1.02 255 255 255
-0.211 -0.793 2.315 0 0 0
0.384 -1.31 2.219 255 255 255
0.658 -1.564 2.1 0 0 0
1.134 0.131 2.555 255 255 255
1.063 -0.104 2.491 255 255 255
0.063 0.075 0.706 0 0 0
0.256 -0.853 2.236 255 255 255
1.181 0.259 2.404 255 255 255
1.244 -0.428 2.18 255 255 255
-0.002 0.04 0.695 255 255 255
-0.319 -1.434 2.288 255 255 255
0.073 -0.04 1.024 255 255 255
0.087 0.24 0.441 255 255 255
0.132 0.218 0.453 0 0 0
0.052 0.21 0.456 0 0 0
-0.064 0.189 0.464 255 255 255
0.108 0.169 0.478 255 255 255
0.048 0.1 0.511 255 255 255
0.468 -0.548 2.287 0 0 0
0.769 -0.204 2.501 255 255 255
-0.123 -0.05 1.011 0 0 0
1.12 -0.645 2.313 255 255 255
0.224 -0.001 0.955 255 255 255
0.85 -1.559 2.086 0 0 0
-1.456 -1.264 2.534 255 255 255
-0.179 -1.581 2.221 255 255 255
-0.206 -0.306 1.67 255 255 255
-0.569 -0.884 2.337 255 255 255
-1.308 -0.774 2.566 255 255 255
0.451 -1.064 2.285 255 255 255
-0.192 -0.76 2.323 0 0 0
-0.247 0.091 0.564 0 0 0
-0.259 0.133 0.511 255 255 255
0.565 -0.639 2.4 255 255 255
1.072 -0.402 2.395 255 255 255
-0.092 0.13 0.507 255 255 255
-0.224 -0.171 1.175 255 255 255
-0.399 -0.012 0.542 255 255 255
-0.258 -0.14 1.113 255 255 255
0.085 0.132 0.527 255 255 255
1.21 -0.53 2.335 255 255 255
0.155 0.044 0.739 255 255 255
-0.316 -0.308 1.65 0 0 0
-0.396 -0.013 0.561 255 255 255
1.096 0.099 1.846 255 255 255
0.7 -1.464 2.126 255 255 255
-0.137 -0.07 0.906 255 255 255
-0.173 0.116 0.499 255 255 255
0.835 -0.229 2.481 255 255 255
0.024 0.094 0.505 255 255 255
-1.099 -1.745 2.328 0 0 0
1.223 -0.039 2.297 255 255 255
0.046 -0.98 2.224 0 0 0
-0.149 -0.115 1.028 255 255 255
-0.135 0.082 0.55 255 255 255
0.105 0.174 0.473 255 255 255
0.023 0.049 0.699 0 0 0
0.088 0.229 0.44 255 255 255
-0.107 0.08 0.515 255 255 255
-0.036 0.063 0.471 255 255 255
1.191 -0.289 2.41 255 255 255
-0.195 -0.651 2.262 255 255 255
0.096 0.226 0.444 255 255 255
0.685 -1.594 2.089 0 0 0
-0.092 0.174 0.474 255 255 255
1.083 -0.041 2.51 255 255 255
-0.202 0.169 0.469 255 255 255
-0.315 0.009 0.706 0 0 0
1.129 -0.912 2.235 255 255 255
0.704 -1.558 2.1 0 0 0
-0.808 -0.382 1.561 255 255 255
-0.295 0.04 0.627 0 0 0
1.249 -0.249 2.238 255 255 255
-0.208 0.151 0.488 255 255 255
1.153 -0.409 2.38 255 255 255
-0.178 0.155 0.481 255 255 255
-0.216 0.05 0.588 255 255 255
0.963 -0.838 2.275 255 255 255
0.353 -1.079 2.293 255 255 255
-1.75 -0.857 2.679 255 255 255
0.317 -0.789 2.25 255 255 255
-0.001 -1.288 2.276 255 255 255
-0.333 -1.01 2.265 255 255 255
-0.113 0.087 0.488 0 0 0
1.117 -0.318 2.414 255 255 255
0.814 -0.113 2.524 255 255 255
-0.753 -0.69 2.401 255 255 255
0.012 0.023 0.772 255 255 255
0.514 -1.067 2.272 255 255 255
1.14 -0.013 2.101 255 255 255
0.074 -1.207 2.291 255 255 255
-0.103 0.205 0.453 0 0 0
0.157 0.035 0.778 255 255 255
0.212 -1.34 2.235 255 255 255
-0.359 -0.017 0.8 0 0 0
-0.226 -0.841 2.303 255 255 255
1.265 -0.817 1.997 255 255 255
0.184 0.14 0.555 255 255 255
-0.051 0.151 0.496 255 255 255
-0.527 -0.345 1.666 255 255 255
-0.254 -0.711 2.328 255 255 255
-0.383 -1.512 2.271 255 255 255
-0.313 -0.898 2.293 255 255 255
0.717 -1.08 2.239 255 255 255
0.18 0.038 0.774 255 255 255
1.01 -0.371 2.416 255 255 255
0.118 -1.115 2.314 255 255 255
-0.223 0.019 0.652 255 255 255
-0.089 0.114 0.502 0 0 0
-0.606 -0.363 1.665 255 255 255
0.117 0.113 0.565 255 255 255
-0.012 0.205 0.456 0 0 0
1.013 -0.009 2.526 255 255 255
0.012 0.027 0.748 255 255 255
-0.131 0.149 0.49 255 255 255
-0.023 0.045 0.607 0 0 0
1.073 -1.007 2.21 255 255 255
-0.186 0.079 0.539 0 0 0
-0.093 0.197 0.459 255 255 255
-0.477 -1.303 2.348 255 255 255
0.069 0.21 0.454 0 0 0
0.034 -1.518 2.202 255 255 255
-0.047 0.228 0.448 255 255 255
0.047 0.183 0.469 255 255 255
0.081 0.107 0.594 255 255 255
-0.098 0.227 0.447 255 255 255
0.113 -0.036 1.016 255 255 255
0.832 -0.831 2.304 255 255 255
0.058 0.229 0.441 255 255 255
0.795 -0.67 2.356 255 255 255
0.679 -0.668 2.372 255 255 255
-0.178 -0.409 1.681 255 255 255
1.206 -0.192 2.027 255 255 255
-0.344 -0.113 0.892 0 0 0
-0.195 0.166 0.47 255 255 255
0.051 -0.727 2.306 255 255 255
0.995 -1.461 2.086 255 255 255
1.023 -0.119 2.491 255 255 255
0.122 0.122 0.553 255 255 255
-0.136 -0.073 1.046 0 0 0
1.269 -0.897 2.034 255 255 255
-0.367 -1.054 2.25 255 255 255
0.054 0 0.879 255 255 255
-0.048 0.214 0.45 0 0 0
-0.196 0.176 0.467 255 255 255
0.057 0.137 0.518 255 255 255
-0.253 -0.082 0.94 255 255 255
-1.386 -1.389 2.489 255 255 255
0.312 -0.03 1.164 255 255 255
-0.479 -1.46 2.301 255 255 255
-0.711 -1.213 2.412 255 255 255
0.53 -0.956 2.306 0 0 0
-1.566 -0.85 2.648 255 255 255
-0.173 -0.136 1.13 255 255 255
-0.101 -0.068 1.011 0 0 0
-1.04 -0.252 1.434 255 255 255
-0.739 -1.673 2.27 0 0 0
-0.062 -1.636 2.189 0 0 0
0.671 -1.352 2.163 255 255 255
-0.097 0.166 0.478 255 255 255
-0.421 -0.021 0.562 255 255 255
-0.054 0.169 0.474 255 255 255
0.126 0.192 0.464 255 255 255
-0.786 -1.19 2.427 255 255 255
-0.604 -0.164 1.018 255 255 255
0.237 0.084 0.749 255 255 255
-0.171 0.104 0.488 255 255 255
1.119 0.078 1.827 255 255 255
0.055 0.062 0.703 0 0 0
-0.192 0.091 0.524 0 0 0
-0.575 -0.09 0.927 255 255 255
0.903 -0.38 2.428 255 255 255
0.388 -0.972 2.323 255 255 255
0.034 -0.125 1.231 255 255 255
0.339 -0.105 1.372 255 255 255
0.809 -0.471 2.413 255 255 255
-0.092 0.229 0.447 255 255 255
0.021 0.074 0.66 0 0 0
-0.11 0.077 0.587 0 0 0
0.995 -1.154 2.18 255 255 255
0.074 -0.347 1.949 0 0 0
0.808 -1.152 2.202 255 255 255
-0.175 0.074 0.546 255 255 255
-0.018 -0.19 1.284 255 255 255
0.744 -0.533 2.402 255 255 255
0.346 -0.247 1.748 255 255 255
-0.338 -0.033 0.881 0 0 0
0.095 0.134 0.52 255 255 255
0.18 -1.583 2.168 0 0 0
0.514 -1.156 2.244 255 255 255
-0.111 0.213 0.448 0 0 0
0.086 0.235 0.44 255 255 255
0.459 -1.591 2.124 0 0 0
-0.255 -0.065 0.947 0 0 0
0.462 -0.56 2.277 0 0 0
0.167 0.032 0.791 255 255 255
0.124 0.105 0.273 255 255 255
0.127 -0.734 2.293 255 255 255
0.08 0.054 0.683 0 0 0
0.136 0.079 0.278 0 0 0
-0.455 -0.312 1.634 255 255 255
-0.164 0.038 0.621 0 0 0
0.057 0.122 0.531 0 0 0
0.677 -0.348 2.469 255 255 255
0.304 -1.548 2.166 255 255 255
-0.268 -0.318 1.671 255 255 255
0.127 -0.168 1.385 0 0 0
0.712 -0.696 2.355 255 255 255
-0.08 0.198 0.457 255 255 255
-0.056 0.06 0.482 0 0 0
0.238 -1.418 2.209 255 255 255
-0.031 0.195 0.462 255 255 255
-0.113 0.194 0.461 255 255 255
0.955 -0.195 2.477 255 255 255
0.925 -1.508 2.088 0 0 0
0.664 -1.239 2.198 255 255 255
-0.049 0 0.647 255 255 255
-0.04 0.218 0.447 0 0 0
-0.138 -0.854 2.285 255 255 255
1.004 -1.353 2.113 255 255 255
1.153 0.044 1.953 255 255 255
-0.312 -0.699 2.333 255 255 255
0.082 0.2 0.458 255 255 255
-1.086 -1.393 2.441 255 255 255
1.16 0.005 1.912 255 255 255
0.837 0.286 2.242 0 0 0
-0.101 0.15 0.496 255 255 255
-0.372 0.029 0.555 255 255 255
-0.274 -0.314 1.668 255 255 255
-0.307 -0.077 0.889 255 255 255
-0.104 0.204 0.454 0 0 0
0.061 0.085 0.684 255 255 255
-1.05 -0.837 2.419 0 0 0
-0.164 0.152 0.483 255 255 255
-0.121 -0.682 2.27 255 255 255
-0.037 0.241 0.451 255 255 255
-0.052 0.224 0.447 255 255 255
1.18 -0.494 2.352 255 255 255
0.196 0.19 0.495 0 0 0
1.222 -0.208 2.429 255 255 255
-0.059 0.231 0.447 255 255 255
-1.383 -0.959 2.611 255 255 255
-0.265 0.054 0.57 255 255 255
-1.039 -0.356 1.602 255 255 255
-0.252 -0.322 1.678 255 255 255
-0.018 0.206 0.456 0 0 0
-0.3 -0.77 2.333 0 0 0
0.993 -0.424 2.395 255 255 255
-0.283 -0.183 1.152 255 255 255
0.124 0.092 0.676 255 255 255
-0.199 -0.057 0.884 255 255 255
-0.042 0.093 0.449 255 255 255
-0.153 -0.805 2.306 255 255 255
0.631 -0.769 2.349 255 255 255
-0.296 0.088 0.508 255 255 255
-0.033 0.063 0.471 255 255 255
-1.834 -0.82 2.706 255 255 255
0.347 -0.649 2.194 255 255 255
0.183 0.169 0.509 255 255 255
-0.029 -0.685 2.332 0 0 0
0.214 0.076 0.736 255 255 255
0.815 -0.685 2.348 255 255 255
0.178 -0.732 2.285 0 0 0
-1.495 -1.189 2.565 255 255 255
0.777 -0.239 2.49 255 255 255
0.274 -0.069 1.179 255 255 255
-0.306 0.047 0.623 0 0 0
-0.968 -0.286 1.446 255 255 255
-0.782 -0.397 1.571 255 255 255
-1.296 -1.398 2.467 255 255 255
0.013 0.114 0.517 0 0 0
-0.073 0.169 0.474 255 255 255
-1.217 -1.089 2.55 255 255 255
0.636 -0.817 2.335 255 255 255
-0.826 -0.715 2.438 0 0 0
-0.672 -1.321 2.374 255 255 255
-0.11 -0.76 2.312 0 0 0
0.734 -0.402 2.441 255 255 255
0.114 -1.334 2.249 255 255 255
-0.402 -0.015 0.616 255 255 255
-0.63 -0.178 1.208 0 0 0
0.51 -0.911 2.319 0 0 0
-0.618 -1.427 2.334 255 255 255
0.012 0.199 0.461 255 255 255
0.991 -0.411 2.406 255 255 255
-0.754 -0.943 2.346 255 255 255
0.802 -1.082 2.224 255 255 255
0.738 -0.446 2.429 255 255 255
-1.5 -1.169 2.58 255 255 255
-0.007 0.028 0.728 255 255 255
0.623 -0.961 2.289 255 255 255
-0.147 0.17 0.471 255 255 255
0.348 -0.931 2.335 255 255 255
-0.259 -0.336 1.68 0 0 0
-0.308 0.115 0.532 255 255 255
0.057 -0.343 1.923 0 0 0
0.221 0.078 0.738 255 255 255
0.653 -1.06 2.257 255 255 255
0.145 0.146 0.518 255 255 255
-0.025 -0.362 2.007 255 255 255
0.07 0.145 0.501 255 255 255
0.451 -0.706 2.241 0 0 0
-0.039 0.008 0.812 255 255 255
0.001 0.072 0.482 0 0 0
-0.277 -0.152 1.173 255 255 255
-0.081 0.041 0.561 255 255 255
1.239 -0.649 2.291 255 255 255
-0.234 -0.388 1.663 255 255 255
-0.344 -1.355 2.313 255 255 255
0.088 0.014 0.839 255 255 255
1.114 0.511 2.847 0 0 0
-0.825 -1.625 2.295 255 255 255
-0.438 -0.001 0.772 255 255 255
0.169 -0.779 2.274 255 255 255
0.784 -0.872 2.293 255 255 255
-0.124 0.222 0.447 255 255 255
-0.402 -0.006 0.78 255 255 255
0.038 -0.387 1.888 255 255 255
0.178 0.139 0.543 255 255 255
-0.115 0.2 0.458 255 255 255
-1.203 -1.098 2.544 255 255 255
0.379 -1.607 2.128 0 0 0
-0.102 0.108 0.503 0 0 0
-0.74 -0.658 2.381 255 255 255
-0.881 -0.676 2.462 0 0 0
0.127 0.092 0.678 255 255 255
-0.322 0.06 0.531 255 255 255
0.342 -0.653 2.191 255 255 255
-0.073 0.185 0.465 255 255 255
0.64 -0.494 2.43 255 255 255
-0.133 0.078 0.567 0 0 0
1.065 0.019 1.598 255 255 255
-0.199 0.011 0.736 0 0 0
-1.15 -1.38 2.449 255 255 255
-0.768 -1.145 2.438 255 255 255
-0.637 -0.806 2.381 255 255 255
1.178 0.162 1.972 255 255 255
-0.53 -0.746 2.378 0 0 0
0.053 0.012 0.834 255 255 255
0.691 -0.45 2.433 255 255 255
-0.044 0.075 0.467 255 255 255
0.065 -0.011 0.94 255 255 255
1.253 -0.746 2.065 0 0 0
-0.213 0.172 0.471 255 255 255
-0.597 -0.335 1.71 0 0 0
0.245 -1.622 2.143 0 0 0
-0.265 0.095 0.527 255 255 255
0.19 0.185 0.499 255 255 255
-0.006 0.24 0.448 255 255 255
1.207 -0.822 2.067 255 255 255
-0.176 0.154 0.482 255 255 255
0.074 0.205 0.456 0 0 0
0.396 -1.43 2.182 255 255 255
-0.043 0.087 0.458 255 255 255
-0.221 0.174 0.471 255 255 255
0.033 -0.078 1.128 0 0 0
0.103 -0.021 0.992 255 255 255
0.015 0.189 0.466 255 255 255
-0.829 -1.23 2.424 255 255 255
-0.296 -1.391 2.292 255 255 255
0.131 0.157 0.493 255 255 255
0.059 0.144 0.505 255 255 255
0.081 0.175 0.471 255 255 255
-0.627 -0.277 1.45 0 0 0
0.187 -0.823 2.255 255 255 255
0.134 0.092 0.291 0 0 0
-0.357 -0.319 1.632 255 255 255
-0.735 -0.286 1.327 0 0 0
-1.081 -1.473 2.414 255 255 255
1.171 -0.771 2.271 255 255 255
0.272 -0.014 1.048 255 255 255
1.108 -0.052 2.5 255 255 255
-0.632 -1.229 2.396 255 255 255
0.725 -0.108 2.539 0 0 0
1.07 -0.196 2.462 255 255 255
0.035 0.069 0.675 255 255 255
-0.123 -0.044 0.878 255 255 255
-0.981 -0.684 2.468 0 0 0
0.043 0.203 0.458 255 255 255
0.461 -1.074 2.281 255 255 255
-0.319 -0.929 2.29 255 255 255
0.043 0.198 0.461 255 255 255
0.074 -1.257 2.274 255 255 255
0.93 -0.418 2.406 255 255 255
0.169 -0.454 1.899 255 255 255
0.279 -0.412 1.882 255 255 255
0.146 0.213 0.455 0 0 0
-0.5 -1.659 2.241 0 0 0
-1.487 -0.875 2.699 255 255 255
0.878 -0.917 2.261 255 255 255
-0.307 -0.074 0.9 255 255 255
-0.022 0.054 0.566 0 0 0
-1.073 -1.584 2.38 255 255 255
0.07 -0.839 2.262 255 255 255
-1.963 -0.564 2.615 0 0 0
0.904 -0.36 2.432 255 255 255
-0.292 -0.061 0.941 255 255 255
-1.193 -0.725 2.55 255 255 255
-0.079 0.124 0.5 255 255 255
-0.314 -1.106 2.202 255 255 255
-1.148 -1.486 2.419 255 255 255
0.748 -1.17 2.206 255 255 255
-0.055 0.078 0.474 255 255 255
0.882 0.038 2.56 255 255 255
0.204 0.024 0.833 255 255 255
0.176 0.117 0.588 255 255 255
0.17 0.209 0.461 0 0 0
-1.126 -1.841 2.304 255 255 255
-0.621 -0.16 1.009 255 255 255
-0.586 -0.094 0.864 255 255 255
1.114 -0.186 2.456 255 255 255
0.182 -0.895 2.23 0 0 0
-0.206 -0.981 2.257 255 255 255
-0.38 -0.714 2.358 0 0 0
1.208 -0.074 1.999 255 255 255
-0.596 -1.682 2.249 0 0 0
1.165 -0.011 1.869 255 255 255
-0.211 -1.635 2.209 0 0 0
1.141 -0.039 2.062 255 255 255
-0.211 0.008 0.732 255 255 255
0.787 -0.964 2.263 255 255 255
1.189 -0.358 2.226 255 255 255
-0.2 0.045 0.641 255 255 255
1.169 -0.028 1.866 255 255 255
0.117 0.143 0.51 255 255 255
0.859 -1.037 2.234 255 255 255
-0.149 -0.111 1.011 0 0 0
-0.618 -0.4 1.75 255 255 255
-0.851 -0.72 2.448 0 0 0
0.049 0.141 0.512 255 255 255
0.062 -0.176 1.426 255 255 255
1.121 -0.547 2.344 255 255 255
0.072 0.159 0.486 255 255 255
0.12 0.049 0.693 255 255 255
0.529 -1.106 2.256 255 255 255
1.06 -1.396 2.094 255 255 255
-0.182 0.199 0.453 0 0 0
-0.133 -0.063 1.055 0 0 0
-1.038 -0.833 2.448 255 255 255
1.125 0.116 1.628 255 255 255
-0.206 0.034 0.637 255 255 255
0.287 -1.37 2.217 255 255 255
1.21 -0.111 2.019 255 255 255
1.103 -0.492 2.363 255 255 255
0.121 0.025 0.808 255 255 255
0.992 -0.439 2.392 255 255 255
0.082 0.202 0.457 255 255 255
-0.329 -0.45 1.7 255 255 255
-0.175 0.143 0.498 255 255 255
-0.33 -0.065 0.866 255 255 255
1.227 -0.968 2.203 255 255 255
-1.278 -1.178 2.529 255 255 255
1.187 0.287 1.978 255 255 255
0.539 -1.116 2.252 255 255 255
1.125 0.373 1.926 255 255 255
0.837 -1.312 2.151 255 255 255
1.109 0.104 1.627 255 255 255
-1.315 -1.545 2.422 255 255 255
0.152 0.039 0.762 255 255 255
0.176 0.13 0.567 255 255 255
0.028 0.038 0.704 255 255 255
-0.166 0.176 0.467 255 255 255
-0.031 -1.363 2.259 255 255 255
1.281 -0.579 2.128 255 255 255
-0.841 -1.351 2.384 255 255 255
-0.187 0.169 0.47 255 255 255
0.612 -0.576 2.411 255 255 255
-0.179 0.259 0.462 255 255 255
0.792 -0.501 2.408 255 255 255
0.044 0.185 0.468 255 255 255
-0.068 0.198 0.458 255 255 255
-1.152 -1.387 2.45 255 255 255
-0.31 -1.64 2.218 0 0 0
1.078 -0.227 2.451 255 255 255
0.962 -0.956 2.24 255 255 255
-0.088 0.095 0.492 0 0 0
0.082 0.146 0.501 255 255 255
-0.606 -0.095 0.871 255 255 255
-0.112 0.223 0.446 255 255 255
0.881 0.356 1.903 255 255 255
-0.058 0.16 0.48 255 255 255
0.079 0.202 0.457 255 255 255
1.129 0.36 1.954 255 255 255
-0.134 0.026 0.718 255 255 255
0.041 0.222 0.444 255 255 255
-0.329 0.024 0.648 255 255 255
-0.931 -0.752 2.427 255 255 255
0.142 0.125 0.328 255 255 255
0.184 -0.569 2.154 0 0 0
-0.593 -0.35 1.695 255 255 255
0.023 0.165 0.48 255 255 255
1.184 0.183 1.946 255 255 255
-0.266 0.094 0.546 0 0 0
-0.079 0.047 0.557 255 255 255
-0.154 0.018 0.727 255 255 255
-0.303 -0.003 0.713 255 255 255
1.016 -0.935 2.242 255 255 255
-0.418 -0.955 2.292 255 255 255
0.289 -0.843 2.233 255 255 255
0.035 0.222 0.443 255 255 255
0.114 0.17 0.477 255 255 255
-0.114 -0.931 2.256 255 255 255
-0.098 0.135 0.517 0 0 0
-0.429 -0.895 2.314 255 255 255
0.845 0.059 2.568 0 0 0
0.008 0.223 0.442 255 255 255
0.239 0.021 0.899 255 255 255
-0.281 -0.074 0.938 255 255 255
1.063 -0.003 1.596 255 255 255
0.088 0.082 0.719 0 0 0
-0.05 0.246 0.452 255 255 255
0.13 -0.906 2.233 255 255 255
-0.458 -0.335 1.642 255 255 255
0.834 -1.026 2.241 255 255 255
1.175 -0.009 2.341 255 255 255
0.657 -0.755 2.351 255 255 255
0.879 -0.764 2.314 255 255 255
0.944 -0.359 2.421 255 255 255
-0.191 0.092 0.521 0 0 0
-0.599 -0.125 0.925 255 255 255
-0.636 -0.24 1.226 255 255 255
-0.146 0.149 0.49 255 255 255
0.038 0.137 0.511 255 255 255
0.814 -0.574 2.382 255 255 255
1.068 0.218 1.666 255 255 255
-0.299 0.069 0.513 255 255 255
0.787 -1.464 2.117 255 255 255
0.897 -0.682 2.336 255 255 255
-0.22 0.029 0.625 255 255 255
-0.53 -0.147 1.092 255 255 255
0.103 -0.784 2.279 255 255 255
-0.118 0.182 0.465 255 255 255
0.199 -0.48 1.924 255 255 255
0.851 -1.595 2.07 255 255 255
-0.351 0.06 0.587 255 255 255
0.07 0.198 0.458 255 255 255
0.246 -0.433 1.892 255 255 255
-0.317 0.07 0.51 255 255 255
-0.704 -0.397 1.645 255 255 255
0.119 0.227 0.445 255 255 255
1.296 -0.594 2.121 255 255 255
1.267 -1.007 2.142 255 255 255
-0.853 -1.534 2.331 255 255 255
-0.262 0.123 0.52 255 255 255
1.085 -0.378 2.402 255 255 255
-0.007 0.042 0.583 0 0 0
0.699 -0.85 2.311 255 255 255
1.101 -1.312 2.118 255 255 255
-0.667 -1.336 2.369 255 255 255
1.081 -0.316 1.493 255 255 255
1.225 -0.16 2.424 255 255 255
-1.703 -1.041 2.609 255 255 255
-0.041 0.093 0.448 255 255 255
-0.616 -0.39 1.758 0 0 0
0.718 -1.426 2.133 255 255 255
1.21 -0.367 2.21 255 255 255
-0.657 -0.156 1.017 0 0 0
0.043 -0.144 1.29 255 255 255
-0.031 -1.569 2.2 255 255 255
0.056 0.136 0.52 255 255 255
-0.392 -1.416 2.304 255 255 255
1.19 0.062 2.347 255 255 255
0.258 -0.054 1.129 255 255 255
0.033 0.158 0.49 255 255 255
-1.562 -0.782 2.629 0 0 0
-0.008 0.048 0.58 0 0 0
-0.663 -0.133 0.979 0 0 0
1.224 -0.604 2.127 255 255 255
-0.627 -0.116 1.113 0 0 0
-1.698 -0.957 2.635 255 255 255
-0.246 0.041 0.623 0 0 0
0.568 -1.54 2.129 0 0 0
0.044 -1.421 2.231 255 255 255
0.15 -0.282 1.783 255 255 255
0.216 -1.241 2.26 255 255 255
-0.079 0.12 0.5 255 255 255
-0.188 0.226 0.451 255 255 255
-0.144 0.094 0.509 255 255 255
-0.166 0.23 0.45 255 255 255
-0.2 0.163 0.473 255 255 255
0.151 0.011 0.868 255 255 255
-0.59 -0.1 1.078 255 255 255
1.104 -0.343 2.408 255 255 255
-0.061 0.143 0.497 255 255 255
-0.054 -0.161 1.228 0 0 0
-0.074 0.104 0.532 0 0 0
0.105 0.068 0.674 255 255 255
-0.709 -0.387 1.648 255 255 255
-0.8 -0.429 1.63 255 255 255
-0.126 0.241 0.453 255 255 255
0.447 -0.313 1.875 255 255 255
-0.097 -0.006 0.85 0 0 0
0.994 -1.097 2.194 255 255 255
-0.559 -0.078 0.998 255 255 255
1.143 -0.046 2.496 255 255 255
-0.479 -0.164 1.228 0 0 0
-0.751 -0.679 2.398 255 255 255
-0.096 0.153 0.488 255 255 255
1.052 -1.046 2.203 255 255 255
0.38 -1.403 2.192 255 255 255
-1.154 -1.481 2.42 255 255 255
1.197 0.15 2.479 255 255 255
0.017 0.111 0.518 0 0 0
-1.109 -0.702 2.461 0 0 0
-0.242 -1.149 2.184 255 255 255
0.185 0.142 0.552 255 255 255
0.843 -0.598 2.369 255 255 255
0.239 0.074 0.782 255 255 255
-0.612 -1.416 2.338 255 255 255
0.097 0.13 0.534 255 255 255
0.082 0.106 0.595 255 255 255
1.264 -0.547 2.145 255 255 255
0.017 0.235 0.444 255 255 255
-0.204 -0.399 1.667 255 255 255
0.11 0.002 0.891 255 255 255
-0.116 0.218 0.446 255 255 255
-0.45 -0.853 2.329 255 255 255
-1.033 -1.558 2.383 255 255 255
-0.597 -0.173 1.085 255 255 255
0.908 -0.025 2.537 255 255 255
-0.321 -0.096 0.877 255 255 255
1.188 -0.135 2.462 255 255 255
-0.189 0.061 0.591 0 0 0
-0.693 -0.157 1.018 255 255 255
1.204 -0.694 2.113 255 255 255
1.232 -0.14 1.982 255 255 255
-0.102 0.183 0.467 255 255 255
0.384 -1.61 2.123 0 0 0
-0.458 -0.112 1.016 0 0 0
-0.005 -0.751 2.301 255 255 255
-1.055 -0.861 2.44 0 0 0
0.009 0.117 0.51 0 0 0
-0.281 0.082 0.517 255 255 255
-1.051 -1.211 2.493 255 255 255
-0.618 -0.861 2.355 255 255 255
-0.265 -0.321 1.673 255 255 255
-0.554 -1.345 2.346 255 255 255
0.639 -1.254 2.198 255 255 255
0.021 0.045 0.702 255 255 255
0.219 -0.005 0.961 255 255 255
-0.192 -0.745 2.325 0 0 0
1.167 0.32 2.346 255 255 255
-0.2 0.09 0.533 255 255 255
-0.213 -1.339 2.296 255 255 255
0.645 -0.377 2.466 0 0 0
0.002 0.132 0.506 255 255 255
0.363 -1.199 2.257 255 255 255
1.061 -0.01 1.607 255 255 255
1.24 -0.218 1.954 255 255 255
-0.04 0.081 0.464 255 255 255
0.024 -0.167 1.373 255 255 255
-0.004 -0.032 1.02 0 0 0
1.057 -0.608 2.333 255 255 255
1.073 0.205 2.551 255 255 255
0.129 0.112 0.575 255 255 255
-0.109 0.217 0.445 255 255 255
0.108 -0.658 2.309 0 0 0
-1.007 -1.41 2.419 255 255 255
-0.168 0.128 0.522 0 0 0
-0.016 0.204 0.457 0 0 0
0.105 0.219 0.451 0 0 0
0.374 -1.283 2.227 255 255 255
1.069 -0.089 1.596 255 255 255
-0.032 -0.03 1.011 0 0 0
-1.083 -1.036 2.546 255 255 255
-0.515 -0.138 1.078 255 255 255
-0.562 -0.21 1.326 0 0 0
0.973 -1.046 2.213 255 255 255
1.199 -1.183 2.151 255 255 255
-0.113 -0.708 2.275 255 255 255
-0.07 0.232 0.448 255 255 255
-0.019 0.204 0.458 255 255 255
-0.073 -0.117 1.106 255 255 255
-0.368 -0.936 2.29 255 255 255
-0.024 -0.61 2.352 0 0 0
-0.104 0.142 0.51 255 255 255
-0.586 -0.119 1.005 255 255 255
-0.604 -1.003 2.301 255 255 255
1.229 -0.106 2.014 255 255 255
-0.793 -0.781 2.408 0 0 0
0.95 -1.242 2.159 255 255 255
-0.261 0.127 0.511 255 255 255
0.149 0.145 0.52 0 0 0
-0.35 -0.424 1.682 255 255 255
0.21 -0.087 1.177 255 255 255
1.144 -0.902 2.232 255 255 255
-0.6 -0.23 1.295 255 255 255
0.259 -0.571 2.155 0 0 0
0.161 0.11 0.595 255 255 255
-0.813 -1.436 2.355 255 255 255
-0.05 0.055 0.512 0 0 0
0.344 -0.799 2.233 0 0 0
0.119 -0.085 1.153 255 255 255
0.184 0.031 0.801 255 255 255
0.236 0 0.971 255 255 255
1.178 -0.936 2.222 255 255 255
0.152 -0.373 1.891 255 255 255
-0.08 0.21 0.45 0 0 0
0.126 0.073 0.664 255 255 255
-0.291 -0.199 1.176 255 255 255
0.122 0.14 0.516 255 255 255
-0.006 -0.064 0.988 0 0 0
-0.257 0.074 0.537 255 255 255
-0.344 -0.333 1.686 0 0 0
-0.48 -0.957 2.302 255 255 255
0.951 -1.168 2.174 255 255 255
-0.159 0.061 0.6 255 255 255
1.194 -0.381 2.243 255 255 255
0.267 -1.436 2.195 255 255 255
-1.027 -1.579 2.373 255 255 255
0.362 -1.505 2.164 255 255 255
1.21 -0.199 2.062 255 255 255
-0.311 -0.16 1.133 0 0 0
-1.171 -1.005 2.555 0 0 0
0.098 -0.766 2.286 255 255 255
1.138 0.067 1.613 255 255 255
-0.22 0.017 0.726 255 255 255
-0.672 -1.288 2.383 255 255 255
-0.236 -1.505 2.253 255 255 255
-0.362 -0.161 1.154 0 0 0
0.751 -1.021 2.249 255 255 255
0.148 0.072 0.651 255 255 255
0.323 -0.102 1.326 255 255 255
0.13 0.201 0.46 255 255 255
-0.172 0.19 0.46 255 255 255
0.125 0.038 0.753 255 255 255
0.122 0.097 0.612 255 255 255
1.214 -1.153 2.156 255 255 255
-1.07 -0.972 2.421 0 0 0
-0.588 -0.134 1.036 255 255 255
-0.189 0.238 0.456 255 255 255
-0.594 -0.163 1.029 255 255 255
0.125 -0.577 2.203 0 0 0
-0.177 0.263 0.463 255 255 255
-1.251 -1.404 2.467 255 255 255
0.004 -0.53 2.304 255 255 255
1.083 -1.293 2.123 255 255 255
0.248 -1.475 2.188 255 255 255
0.143 0.1 0.603 255 255 255
-0.095 0.084 0.487 0 0 0
-0.331 -0.46 1.711 255 255 255
-0.284 0.061 0.539 255 255 255
0.148 -1.374 2.233 255 255 255
-0.302 0.058 0.579 255 255 255
-0.174 -0.049 0.872 0 0 0
1.189 -0.089 2.478 255 255 255
0.106 0.17 0.478 255 255 255
0.765 -0.868 2.3 255 255 255
-0.048 -0.939 2.239 255 255 255
0.189 0.12 0.582 255 255 255
-1.05 -1.271 2.47 255 255 255
-0.233 0.102 0.516 0 0 0
0.453 -1.343 2.196 255 255 255
-0.983 -0.608 2.471 0 0 0
0.147 0.071 0.279 255 255 255
0.819 -1.144 2.206 255 255 255
-0.514 -0.651 2.319 255 255 255
1.015 -0.597 2.342 255 255 255
0.185 -0.22 1.568 255 255 255
1.128 0.041 1.607 255 255 255
-0.607 -0.195 1.117 255 255 255
0.074 0.144 0.504 255 255 255
0.019 0 0.87 255 255 255
0.114 0.019 0.829 255 255 255
-0.906 -1.207 2.436 255 255 255
0.074 -1.16 2.302 255 255 255
-0.823 -0.302 1.403 0 0 0
0.035 0.14 0.51 0 0 0
-0.103 0.137 0.517 0 0 0
-0.058 -0.001 0.65 0 0 0
0.035 -0.077 1.118 0 0 0
-0.22 0.06 0.597 255 255 255
-0.139 0.248 0.456 255 255 255
-0.528 -0.167 1.121 255 255 255
0.824 0.065 2.574 0 0 0
-0.269 0.137 0.508 255 255 255
0.185 0.099 0.628 255 255 255
0.028 0.17 0.476 255 255 255
-0.429 -0.855 2.323 255 255 255
0.599 -0.932 2.302 255 255 255
0.423 -0.604 2.265 0 0 0
-0.108 -0.067 1.02 0 0 0
-0.022 0.198 0.46 255 255 255
-0.024 -0.633 2.345 0 0 0
0.321 -1.395 2.205 255 255 255
1.128 0.041 2.02 255 255 255
0.129 0.093 0.292 0 0 0
1.207 0.076 2.516 255 255 255
0.096 -0.082 1.153 255 255 255
-0.791 -0.896 2.374 255 255 255
-0.18 0.157 0.48 255 255 255
0.759 -0.061 2.546 0 0 0
1.26 -0.381 1.849 255 255 255
0.047 0.214 0.451 0 0 0
-0.074 0.122 0.501 255 255 255
-0.446 -0.33 1.638 255 255 255
0.231 -1.141 2.29 255 255 255
0.781 -1.368 2.136 255 255 255
0.058 0.233 0.441 255 255 255
-0.184 0.225 0.451 255 255 255
-0.003 0.199 0.46 255 255 255
-0.015 0.152 0.494 255 255 255
0.024 0.144 0.499 255 255 255
-1.551 -1.131 2.566 255 255 255
0.933 -0.808 2.29 255 255 255
-0.237 0.116 0.516 255 255 255
0.22 0.163 0.549 0 0 0
1.139 -0.114 2.474 255 255 255
-0.273 -1.638 2.209 0 0 0
-0.242 0.076 0.553 255 255 255
1.033 0.205 2.556 255 255 255
0.052 0.112 0.536 0 0 0
1.267 -0.58 2.135 255 255 255
0.148 0.161 0.491 255 255 255
-0.005 -0.856 2.267 255 255 255
-0.593 -1.319 2.361 255 255 255
1.246 -0.512 2.151 255 255 255
-0.021 0.155 0.494 255 255 255
1.139 0.308 2.387 255 255 255
-0.071 0.063 0.522 255 255 255
-0.021 -0.073 0.948 255 255 255
1.12 -0.798 2.269 255 255 255
1.241 -1.113 2.162 255 255 255
-0.042 -0.131 1.173 255 255 255
0.066 0.135 0.519 255 255 255
-0.245 -1.44 2.273 255 255 255
-0.306 0.003 0.709 255 255 255
-0.07 0.189 0.463 255 255 255
0.156 0.252 0.453 255 255 255
0.311 -1.42 2.196 255 255 255
-0.148 0.062 0.608 0 0 0
-0.648 -0.282 1.365 255 255 255
-0.818 -0.667 2.441 255 255 255
0.972 -0.03 2.524 255 255 255
-0.074 0.154 0.493 255 255 255
-0.258 0.118 0.521 255 255 255
1.131 0.064 1.889 255 255 255
-0.715 -1.653 2.276 0 0 0
0.152 -0.439 1.887 255 255 255
0.088 -0.138 1.308 255 255 255
-0.154 0.212 0.446 0 0 0
-0.604 -0.389 1.758 0 0 0
-0.247 0.136 0.511 255 255 255
1.151 -0.706 2.293 255 255 255
0.206 0.139 0.571 255 255 255
-0.207 0.174 0.469 255 255 255
-0.255 -0.773 2.328 0 0 0
0.883 -0.531 2.383 255 255 255
-0.312 0.047 0.622 0 0 0
0.408 -0.924 2.337 255 255 255
-0.054 -0.127 1.163 255 255 255
-0.281 0.124 0.515 255 255 255
0.095 -0.062 1.083 255 255 255
0.79 -0.534 2.397 255 255 255
-0.176 0.251 0.458 255 255 255
-0.416 -0.039 0.892 255 255 255
-1.617 -0.921 2.632 255 255 255
1.101 -0.073 2.496 255 255 255
0.044 -0.202 1.489 255 255 255
0.728 -1.555 2.091 0 0 0
-0.197 -0.835 2.302 255 255 255
-0.357 -1.04 2.256 255 255 255
0.087 0.144 0.506 255 255 255
-0.133 0.175 0.467 255 255 255
-0.74 -1.205 2.416 255 255 255
0.9 -0.978 2.244 255 255 255
-0.531 -0.062 0.735 0 0 0
0.243 0.145 0.64 255 255 255
-0.24 -0.086 0.967 255 255 255
-0.04 0.205 0.455 0 0 0
0.03 -0.338 1.877 255 255 255
1.006 -1.477 2.078 255 255 255
0.225 -0.276 1.698 0 0 0
-0.195 0.188 0.462 255 255 255
-0.681 -0.147 0.997 255 255 255
0.715 -0.817 2.32 255 255 255
0.954 -0.854 2.276 255 255 255
-0.211 0.025 0.641 255 255 255
1.184 -0.029 2.335 255 255 255
-1.738 -0.91 2.66 255 255 255
0.121 0.103 0.592 255 255 255
0.014 0.033 0.714 255 255 255
0.426 -0.74 2.371 255 255 255
-1.036 -0.626 2.441 0 0 0
0.164 0.048 0.719 255 255 255
0.049 0.204 0.459 255 255 255
1.211 0.146 2.316 255 255 255
0.074 0.162 0.482 255 255 255
-0.973 -0.676 2.463 0 0 0
-0.812 -0.938 2.363 255 255 255
0.064 -1.43 2.225 255 255 255
0.837 -1.435 2.118 255 255 255
-0.091 0.249 0.454 255 255 255
1.08 -0.914 2.241 255 255 255
-0.151 0.104 0.492 0 0 0
0.813 -0.733 2.333 255 255 255
0.244 -0.407 1.881 255 255 255
0.113 -1.131 2.312 255 255 255
-0.365 0.037 0.611 255 255 255
0.886 -0.666 2.34 255 255 255
-0.675 -0.769 2.393 0 0 0
0.12 0.169 0.478 255 255 255
0.172 0.104 0.616 255 255 255
-0.141 0.196 0.458 255 255 255
1.239 -0.665 1.923 255 255 255
0.448 -0.793 2.231 0 0 0
0.952 0.096 2.547 255 255 255
1.154 -0.041 2.495 255 255 255
-0.015 -0.014 0.937 255 255 255
-0.302 -0.015 0.842 255 255 255
0.2 -0.557 2.142 255 255 255
0.133 0.249 0.445 255 255 255
1.194 -0.718 2.283 255 255 255
-0.01 -0.683 2.325 255 255 255
0.003 -0.005 0.891 255 255 255
-1.549 -1.208 2.525 255 255 255
0.259 0.076 0.801 255 255 255
-0.129 0.198 0.458 255 255 255
-0.135 0.237 0.452 255 255 255
0.22 0.108 0.659 255 255 255
-1.772 -0.825 2.695 255 255 255
-0.146 -1.274 2.303 255 255 255
0.052 -0.705 2.314 255 255 255
0.372 -0.264 1.817 255 255 255
0.124 0.099 0.6 255 255 255
1.044 -0.401 2.399 255 255 255
1.179 -0.299 2.409 255 255 255
-0.113 0.166 0.479 255 255 255
0.119 0.199 0.46 255 255 255
0.115 0.13 0.535 0 0 0
-0.367 -0.074 0.882 0 0 0
0.794 -0.466 2.418 255 255 255
0.114 0.099 0.6 255 255 255
-0.179 0.24 0.455 255 255 255
-0.348 -1.002 2.269 255 255 255
0.855 -0.8 2.301 255 255 255
1.096 0.005 1.596 255 255 255
0.147 0.049 0.708 255 255 255
-1.121 -1.71 2.336 0 0 0
-0.132 0.256 0.457 255 255 255
0.26 -0.631 2.156 255 255 255
1.024 -0.524 2.363 255 255 255
0.436 -1.03 2.298 255 255 255
-0.62 -0.798 2.377 0 0 0
-0.109 -1.048 2.219 255 255 255
0.441 -1.064 2.287 255 255 255
-0.802 -1.672 2.275 0 0 0
0.859 -0.922 2.265 255 255 255
0.056 -0.845 2.263 255 255 255
0.505 -1.183 2.241 255 255 255
-0.032 0.213 0.45 0 0 0
0.127 0.23 0.441 255 255 255
1.12 -0.477 2.364 255 255 255
0.328 -0.687 2.242 0 0 0
-0.104 -0.099 0.976 0 0 0
0.061 0.097 0.61 255 255 255
0.05 0.228 0.442 255 255 255
0.123 0.102 0.288 255 255 255
0.099 -0.694 2.311 0 0 0
1.184 -0.083 2.48 255 255 255
-1.028 -1.45 2.412 255 255 255
0.173 -0.492 1.939 255 255 255
0.557 -0.551 2.424 255 255 255
0.11 0.175 0.473 255 255 255
0.314 -1.017 2.319 255 255 255
-0.488 -1.327 2.345 255 255 255
-0.149 0.189 0.462 255 255 255
0.116 0.002 0.894 255 255 255
-0.387 -1.431 2.297 255 255 255
-1.081 -1.129 2.514 255 255 255
1.26 -0.879 2.221 255 255 255
0.177 -1.192 2.281 255 255 255
1.254 -0.602 2.128 255 255 255
-0.862 -0.284 1.413 0 0 0
0.705 -0.203 2.505 0 0 0
0.124 -1.412 2.225 255 255 255
-1.463 -1.235 2.542 255 255 255
0.237 0.031 0.832 255 255 255
0.332 -0.757 2.258 255 255 255
0.747 -0.383 2.45 255 255 255
-0.18 0.142 0.5 255 255 255
-1.083 -0.914 2.545 255 255 255
-0.244 -0.715 2.325 255 255 255
1.111 0.101 1.623 255 255 255
0.117 -0.743 2.291 255 255 255
0.012 0.127 0.506 255 255 255
-0.155 0.148 0.488 255 255 255
-0.392 -0.007 0.551 255 255 255
-1.506 -1.181 2.574 255 255 255
-0.087 0.209 0.45 0 0 0
-0.223 -1.294 2.312 255 255 255
1.171 -0.459 2.363 255 255 255
1.096 -0.035 1.582 255 255 255
1.22 -0.841 2.055 0 0 0
0.609 -0.957 2.296 255 255 255
1.294 -0.627 2.111 255 255 255
0.084 0.12 0.544 255 255 255
-1.021 -1.476 2.4 255 255 255
1.2 -0.375 2.201 0 0 0
0.764 -0.877 2.296 255 255 255
-0.415 -0.084 0.922 255 255 255
-0.103 0.19 0.462 255 255 255
-0.476 -0.831 2.338 255 255 255
