ply
format ascii 1.0
comment Created by Open3D
element vertex 1618
property double x
property double y
property double z
property uchar red
property uchar green
property uchar blue
end_header
-0.043 0.113 0.499 0 0 0
0.066 0.084 0.526 255 255 255
-0.003 0.052 0.486 255 255 255
0.436 -1.146 2.257 255 255 255
0.128 -0.025 0.973 255 255 255
0.107 -0.166 1.346 255 255 255
-1.517 -1.361 2.595 255 255 255
0.137 0.172 0.463 255 255 255
0.392 -0.76 2.246 0 0 0
0.4 -0.657 2.149 255 255 255
0.037 0.071 0.477 255 255 255
0.295 -0.735 2.27 255 255 255
-0.121 0.144 0.487 255 255 255
-0.237 -1.321 2.339 255 255 255
-0.18 0.069 0.574 255 255 255
-0.096 -0.817 2.315 255 255 255
-0.18 -0.66 2.312 255 255 255
-1.209 -1.447 2.525 255 255 255
0.281 -0.716 2.276 0 0 0
-0.213 -0.149 1.121 0 0 0
0.915 -1.565 2.029 255 255 255
0.184 0.17 0.469 255 255 255
0.024 0.103 0.44 0 0 0
0.741 -0.558 2.373 255 255 255
-0.167 -0.066 0.943 0 0 0
-0.178 0.104 0.513 255 255 255
-0.022 0.193 0.456 255 255 255
-0.542 -0.178 1.199 0 0 0
-0.677 -1.518 2.364 255 255 255
0.859 -0.419 2.393 255 255 255
0.154 0.109 0.562 255 255 255
1.004 -1.546 2.042 0 0 0
-0.299 0.102 0.515 255 255 255
0.189 -1.502 2.193 255 255 255
-0.883 -0.37 1.637 255 255 255
0.43 -1.002 2.298 255 255 255
0.246 -0.043 1.023 255 255 255
-0.896 -1.358 2.487 255 255 255
-0.451 -0.077 0.982 0 0 0
0.877 -0.569 2.345 255 255 255
1.309 0.201 2.075 255 255 255
-0.018 0.203 0.45 0 0 0
0.217 0.138 0.522 255 255 255
0.019 0.039 0.605 0 0 0
-0.013 -0.017 0.807 255 255 255
-0.449 -0.049 0.705 0 0 0
-0.039 0.075 0.524 255 255 255
0.495 -0.274 1.788 0 0 0
0.118 0.228 0.429 255 255 255
-0.069 0.21 0.443 0 0 0
-0.052 0.078 0.493 255 255 255
-0.735 -0.748 2.477 255 255 255
-0.062 -0.083 1.025 0 0 0
0.012 0.062 0.463 255 255 255
-0.901 -1.151 2.552 255 255 255
0.195 -0.391 1.863 255 255 255
0.056 -0.767 2.303 0 0 0
0.901 -0.679 2.305 255 255 255
-0.268 0.031 0.641 255 255 255
0.075 0.219 0.435 255 255 255
-0.446 -1.292 2.391 255 255 255
0.927 -0.569 2.335 255 255 255
-0.271 0.084 0.501 255 255 255
0.16 0 0.875 255 255 255
-1.877 -0.383 2.487 255 255 255
1.257 0.019 2.025 255 255 255
-0.826 -1.139 2.541 255 255 255
-0.245 0.074 0.517 255 255 255
-0.047 -0.663 2.259 255 255 255
-0.155 0.253 0.463 255 255 255
-0.078 -0.359 1.664 255 255 255
-1.186 -1.114 2.625 255 255 255
-0.775 -0.207 1.231 255 255 255
0.893 -1.295 2.116 255 255 255
-0.097 0.13 0.518 0 0 0
0.174 -0.684 2.31 255 255 255
0.038 0.075 0.479 255 255 255
0.064 0.078 0.616 255 255 255
1.35 -0.033 2.234 0 0 0
1.306 -0.15 2.391 255 255 255
0.03 0.188 0.459 255 255 255
-0.115 0.145 0.487 255 255 255
0.037 0.175 0.464 255 255 255
0.158 -1.042 2.183 0 0 0
-0.01 0.064 0.476 255 255 255
-0.333 -1.443 2.323 255 255 255
1.315 -0.474 2.279 255 255 255
0.185 0.095 0.605 255 255 255
-1.447 -0.876 2.718 255 255 255
0.023 0.045 0.587 0 0 0
-1.378 -0.928 2.723 255 255 255
0.018 0.19 0.457 255 255 255
0.082 0.154 0.481 0 0 0
-0.719 -1.165 2.48 255 255 255
0.175 0.13 0.514 0 0 0
0.242 -0.863 2.236 255 255 255
-0.102 0.187 0.46 255 255 255
-0.883 -1.109 2.562 255 255 255
-0.125 0.131 0.515 0 0 0
0.042 -0.817 2.287 255 255 255
-1.136 -1.588 2.467 255 255 255
0.227 -0.416 1.87 255 255 255
0.163 0.036 0.739 255 255 255
0.533 -0.954 2.299 255 255 255
-0.127 0.254 0.462 255 255 255
1.266 -0.044 2.031 0 0 0
-0.246 -0.358 1.702 0 0 0
-0.299 0.101 0.509 255 255 255
0.247 0.168 0.504 255 255 255
-0.026 0.192 0.456 255 255 255
-0.209 -0.392 1.682 0 0 0
-0.669 -1.699 2.3 0 0 0
1.298 0.159 2.331 255 255 255
0.979 0.367 1.861 255 255 255
-0.918 -1.539 2.429 255 255 255
0.07 0.029 0.716 255 255 255
0.141 0.05 0.668 255 255 255
-0.055 0.111 0.497 0 0 0
1.074 -0.836 2.22 255 255 255
0.165 -0.644 2.325 255 255 255
0.176 0.035 0.749 255 255 255
0.014 0.176 0.463 255 255 255
0.105 0.095 0.609 255 255 255
1.115 -1.104 2.133 255 255 255
0.957 -0.066 2.486 255 255 255
-0.511 -0.06 0.735 0 0 0
-0.046 -1.524 2.23 255 255 255
0.984 0.255 2.174 0 0 0
0.25 -1.615 2.151 0 0 0
-0.099 0.208 0.446 0 0 0
-0.586 -1.255 2.431 255 255 255
0.618 -1.323 2.166 255 255 255
-0.606 -1.497 2.354 255 255 255
-0.057 -0.056 1.021 0 0 0
-1.229 -1.725 2.446 255 255 255
-0.064 0.038 0.683 255 255 255
-0.252 -0.985 2.29 255 255 255
1.351 0.028 2.431 255 255 255
-1.576 -0.879 2.755 255 255 255
1.205 -0.788 2.207 255 255 255
-1.703 -0.719 2.836 255 255 255
0.063 0.161 0.478 255 255 255
-0.098 -0.053 0.862 0 0 0
-0.127 0.139 0.498 255 255 255
1.048 0.392 1.859 255 255 255
-0.01 0.196 0.455 255 255 255
-0.453 -0.219 1.336 0 0 0
0.185 0.174 0.464 255 255 255
-0.5 -1.554 2.321 255 255 255
0.224 -0.888 2.236 255 255 255
-1.265 -1.633 2.493 255 255 255
-0.424 -0.153 1.073 255 255 255
0.056 0.174 0.465 255 255 255
-0.242 -0.01 0.719 255 255 255
0.902 -1.234 2.134 255 255 255
0.285 0.183 0.553 0 0 0
0.178 0.132 0.513 0 0 0
-0.322 0.018 0.55 255 255 255
0.27 -0.118 1.25 255 255 255
-0.022 0.084 0.497 255 255 255
-0.218 -0.1 0.935 255 255 255
0.203 0.184 0.462 255 255 255
-0.073 0.189 0.459 255 255 255
0.694 -1.222 2.183 255 255 255
0.014 -0.857 2.282 255 255 255
-0.233 -0.101 0.905 255 255 255
-0.15 0.093 0.518 255 255 255
0.695 -0.846 2.298 255 255 255
0.083 0.155 0.48 255 255 255
0.757 -1.421 2.105 255 255 255
1.334 -0.269 2.167 0 0 0
-0.093 -1.66 2.201 0 0 0
-0.007 0.179 0.465 255 255 255
-0.528 -0.258 1.38 255 255 255
0.048 0.09 0.503 0 0 0
-0.078 0.176 0.464 255 255 255
-0.463 -0.028 0.613 255 255 255
-0.534 -0.059 0.712 0 0 0
-0.02 0.186 0.462 255 255 255
-0.327 0.012 0.519 255 255 255
-0.02 0.237 0.447 255 255 255
-0.612 -0.428 1.661 255 255 255
-0.045 0.169 0.471 255 255 255
1.074 0.205 2.47 0 0 0
-0.399 -0.618 2.342 0 0 0
-0.11 0.146 0.486 255 255 255
-0.195 -1.38 2.313 255 255 255
0.177 0.132 0.513 0 0 0
-0.106 -0.86 2.303 255 255 255
0.004 0.073 0.46 255 255 255
-0.169 -0.817 2.325 255 255 255
1.227 -0.687 2.237 255 255 255
0.791 -0.722 2.317 255 255 255
0.298 -0.592 2.145 0 0 0
0.047 0.104 0.517 0 0 0
1.051 -0.633 2.288 255 255 255
-1.34 -1.164 2.642 255 255 255
-0.038 0.032 0.578 255 255 255
-0.735 -0.118 0.998 255 255 255
-0.037 0.194 0.455 255 255 255
-0.092 0.13 0.518 0 0 0
0.005 0.126 0.445 0 0 0
-0.114 0.114 0.498 255 255 255
0.012 0.03 0.626 0 0 0
-0.829 -1.411 2.463 0 0 0
-0.048 -1.122 2.205 255 255 255
0.004 0.083 0.454 255 255 255
-0.081 -1.101 2.206 255 255 255
-0.109 0.083 0.518 255 255 255
0.126 0.185 0.454 255 255 255
0.125 -0.24 1.558 0 0 0
-0.765 -0.414 1.574 255 255 255
-0.271 0.04 0.63 255 255 255
-0.421 -0.939 2.347 255 255 255
1.263 -0.723 2.218 255 255 255
1.226 -0.516 2.287 255 255 255
0.187 0.066 0.645 0 0 0
-0.285 0.061 0.515 255 255 255
-0.811 -0.835 2.455 255 255 255
1.174 -0.955 2.17 255 255 255
0.972 -0.488 2.35 255 255 255
-0.472 -0.326 1.629 255 255 255
0.122 0.052 0.675 255 255 255
-0.207 -0.444 1.688 255 255 255
-0.038 -0.42 1.703 255 255 255
0.066 -0.051 1.041 0 0 0
0.167 0.176 0.46 255 255 255
-0.165 0.097 0.51 255 255 255
0.87 -0.506 2.365 255 255 255
0.165 0.092 0.616 255 255 255
0.266 -1.142 2.291 255 255 255
0.118 0.219 0.438 255 255 255
-1.301 -1.646 2.492 255 255 255
1.327 -0.564 2.254 255 255 255
0.05 -0.117 1.153 255 255 255
-0.014 -0.678 2.259 255 255 255
0.091 0.051 0.682 0 0 0
-0.067 0.048 0.617 0 0 0
-0.04 0.21 0.445 0 0 0
0.028 0.04 0.591 0 0 0
-0.541 -0.667 2.371 255 255 255
0.224 -0.924 2.221 255 255 255
0.582 -0.939 2.295 255 255 255
-0.228 0.133 0.505 255 255 255
-1.099 -1.547 2.468 255 255 255
0.142 -1.099 2.21 0 0 0
0.078 0.228 0.431 255 255 255
0.123 -1.223 2.287 255 255 255
-0.173 0.04 0.587 255 255 255
0.089 -0.771 2.301 255 255 255
0.194 0.121 0.552 0 0 0
-0.031 0.126 0.499 255 255 255
-0.422 -0.095 0.979 255 255 255
1.229 -0.551 2.277 255 255 255
-0.181 0.054 0.571 255 255 255
-0.458 -1.428 2.349 255 255 255
-0.309 0.074 0.52 255 255 255
-0.027 0.186 0.461 255 255 255
-0.52 -0.141 0.954 255 255 255
1.04 -1.187 2.126 255 255 255
0.239 -0.713 2.286 255 255 255
-0.024 0.105 0.518 0 0 0
-0.083 0.155 0.48 255 255 255
0.31 -1.285 2.236 255 255 255
1.3 0.21 1.97 255 255 255
-1.135 -1.844 2.385 255 255 255
0.017 0.168 0.468 255 255 255
0.266 -0.582 2.178 0 0 0
-1.186 -1.125 2.621 255 255 255
0.253 -0.2 1.46 255 255 255
-0.654 -0.796 2.449 0 0 0
-0.016 0.073 0.481 255 255 255
0.018 -0.884 2.273 255 255 255
0.173 -0.154 1.331 255 255 255
-0.425 -0.065 0.961 0 0 0
0.136 0.146 0.49 255 255 255
-0.324 0.022 0.538 255 255 255
0.059 -0.404 2.1 255 255 255
0.94 -0.866 2.237 255 255 255
1.125 0.181 2.492 0 0 0
0.001 0.222 0.44 255 255 255
-0.231 0.126 0.516 0 0 0
-0.108 0.111 0.493 255 255 255
0.227 -0.015 0.96 255 255 255
0.885 -1.095 2.181 255 255 255
-0.151 0.136 0.503 255 255 255
-0.28 0.039 0.63 255 255 255
-0.234 0.107 0.534 0 0 0
0.871 -1.608 2.025 255 255 255
0.458 -0.516 2.04 255 255 255
-0.208 0.178 0.47 255 255 255
0.194 0.017 0.822 255 255 255
0.045 0.16 0.477 255 255 255
0.118 0.143 0.498 255 255 255
0.133 -0.562 2.355 0 0 0
1.09 -0.728 2.257 255 255 255
0.125 0.144 0.496 255 255 255
-0.004 -0.004 0.643 0 0 0
0.46 -1.264 2.213 255 255 255
-0.006 -0.056 0.92 255 255 255
-0.063 -0.004 0.784 255 255 255
0.528 -1.012 2.282 255 255 255
-0.176 0.229 0.457 255 255 255
-0.129 0.126 0.524 0 0 0
0.045 0.066 0.524 255 255 255
-0.338 -0.105 0.958 0 0 0
-0.179 -0.028 0.888 255 255 255
-0.333 0.038 0.565 255 255 255
0.346 -0.261 1.674 0 0 0
-1.144 -1.148 2.608 255 255 255
0.019 0.1 0.432 0 0 0
0.164 0.2 0.445 0 0 0
-0.015 -0.794 2.308 0 0 0
-0.403 -0.169 1.242 0 0 0
0.396 -0.726 2.249 0 0 0
0.077 0.123 0.501 0 0 0
1.029 -0.762 2.251 255 255 255
1.354 -0.595 2.242 255 255 255
0.093 -0.924 2.241 255 255 255
-0.314 -0.069 0.88 255 255 255
-0.356 -0.023 0.56 255 255 255
0.078 0.084 0.611 255 255 255
-0.257 -0.987 2.293 255 255 255
-0.237 0.105 0.535 0 0 0
1.159 -0.164 2.413 255 255 255
1.146 -0.997 2.16 255 255 255
-0.34 -0.008 0.538 255 255 255
0.069 0.231 0.433 255 255 255
0.08 -0.899 2.257 255 255 255
-0.156 0.13 0.511 255 255 255
0.084 -0.861 2.266 255 255 255
0.179 0.214 0.444 0 0 0
-0.194 0.094 0.52 255 255 255
-0.604 -0.202 1.095 255 255 255
0.07 0.219 0.435 255 255 255
-0.01 0.088 0.464 255 255 255
-0.517 -1.574 2.318 255 255 255
1.338 0.076 2.452 255 255 255
-0.046 0.187 0.46 255 255 255
-0.113 0.173 0.466 255 255 255
0.002 -0.158 1.168 255 255 255
0.864 -0.794 2.28 255 255 255
1.092 -1.31 2.083 255 255 255
0.69 -1.563 2.082 0 0 0
0.82 -1.481 2.075 255 255 255
-1.715 -0.685 2.729 255 255 255
0.075 -1.492 2.222 255 255 255
0.127 0.149 0.484 255 255 255
0.056 -1.006 2.223 255 255 255
-0.05 -0.091 1 0 0 0
1.323 -0.663 2.23 255 255 255
-0.13 0.187 0.46 255 255 255
-0.132 -0.058 0.877 255 255 255
-1.339 -1.456 2.559 255 255 255
0.006 0.157 0.48 255 255 255
0.257 0.05 0.723 255 255 255
0.958 -0.815 2.253 255 255 255
-0.175 -0.042 0.925 255 255 255
-0.181 0.153 0.481 255 255 255
-1.099 -1.12 2.599 255 255 255
-0.166 0.243 0.46 255 255 255
-1.489 -0.788 2.761 0 0 0
-0.346 0.037 0.503 255 255 255
-0.685 -0.884 2.425 255 255 255
-1.505 -1.07 2.674 255 255 255
0.896 -0.173 2.469 255 255 255
1.032 -0.705 2.27 255 255 255
0.135 0.138 0.499 255 255 255
0.977 -0.59 2.32 255 255 255
0.326 -1.382 2.204 255 255 255
0.163 0.058 0.658 0 0 0
1.148 -0.417 2.333 255 255 255
-0.124 0.14 0.492 255 255 255
-0.328 0.004 0.531 255 255 255
-0.054 0.079 0.486 255 255 255
-0.088 -1.653 2.201 0 0 0
-0.049 0.211 0.444 0 0 0
-0.051 0.162 0.476 255 255 255
-0.065 0.019 0.726 255 255 255
-0.056 -1.453 2.261 255 255 255
-0.267 0.04 0.63 255 255 255
0.071 0.114 0.508 0 0 0
-0.507 -1.06 2.333 0 0 0
-0.109 -0.135 1.089 255 255 255
-0.172 0.203 0.451 0 0 0
0.078 0.132 0.5 255 255 255
-0.431 -0.93 2.349 255 255 255
-0.525 -0.407 1.753 255 255 255
-0.271 -0.366 1.704 255 255 255
-0.004 -0.047 0.916 255 255 255
-1.022 -1.453 2.483 255 255 255
-0.433 -0.141 1.091 0 0 0
0.439 -1.415 2.173 255 255 255
1.098 -0.63 2.281 255 255 255
-0.492 -0.906 2.379 255 255 255
0.16 0.195 0.446 255 255 255
1.327 0.107 2.288 255 255 255
0.817 -1.383 2.11 255 255 255
0.304 0.058 0.792 255 255 255
-0.092 0.1 0.491 255 255 255
-0.138 0.234 0.456 255 255 255
0.162 0.223 0.437 255 255 255
-0.066 -1.404 2.274 255 255 255
-0.29 -1.417 2.325 255 255 255
-0.982 -1.052 2.567 0 0 0
-0.381 -0.115 1.008 255 255 255
0.445 -0.313 1.831 0 0 0
-0.128 0.01 0.721 255 255 255
-0.234 0.002 0.711 255 255 255
-0.364 -1.258 2.346 0 0 0
-0.475 -0.304 1.606 255 255 255
-0.769 -1.761 2.305 0 0 0
0.173 0.018 0.812 255 255 255
-0.137 0.042 0.627 0 0 0
-0.645 -0.694 2.457 255 255 255
-0.978 -1.492 2.465 255 255 255
0.15 -0.36 1.868 255 255 255
1.179 -0.501 2.301 255 255 255
0.446 -1.018 2.296 255 255 255
0.034 0.197 0.453 255 255 255
-0.131 0.157 0.481 255 255 255
-1.122 -1.842 2.386 255 255 255
0.699 -1.443 2.113 255 255 255
-0.908 -0.989 2.598 255 255 255
0.163 0.188 0.451 255 255 255
-1.48 -1.277 2.606 255 255 255
0.238 0.043 0.738 255 255 255
-0.162 0.074 0.61 0 0 0
0.178 -1.319 2.252 255 255 255
0.292 0.008 0.912 255 255 255
-0.175 0.086 0.526 255 255 255
1.242 0.103 2.485 255 255 255
-0.097 -1.502 2.256 255 255 255
-0.361 -1.55 2.29 255 255 255
-0.183 0.196 0.455 255 255 255
0.234 0.095 0.63 255 255 255
-0.161 0.209 0.449 0 0 0
-0.262 -0.04 0.888 0 0 0
0.196 0.094 0.638 255 255 255
-0.206 0.184 0.465 255 255 255
1.018 -1.434 2.055 255 255 255
0.158 0.187 0.452 255 255 255
0.227 -1.32 2.24 255 255 255
0.905 -1.042 2.195 255 255 255
-0.1 -0.118 1.018 255 255 255
1.236 0.146 2.497 255 255 255
-0.058 -1.123 2.205 255 255 255
-0.143 0.233 0.456 255 255 255
-0.143 0.128 0.522 0 0 0
0.349 -1.31 2.223 255 255 255
-0.037 0.103 0.519 0 0 0
-0.885 -0.33 1.516 255 255 255
0.99 -1.502 2.04 0 0 0
-0.171 0.075 0.604 0 0 0
-0.209 -0.095 0.939 255 255 255
-0.364 -0.356 1.661 255 255 255
-0.029 0.105 0.517 0 0 0
-0.778 -0.911 2.421 255 255 255
-0.755 -1.105 2.505 255 255 255
0.04 -0.014 0.922 255 255 255
0.208 -1.393 2.221 255 255 255
-1.007 -1.633 2.42 255 255 255
-0.965 -1.756 2.371 0 0 0
0.208 0.136 0.529 255 255 255
0.274 -1.051 2.3 0 0 0
-0.299 -0.728 2.378 0 0 0
0.145 -1.556 2.188 255 255 255
-0.212 0.08 0.553 255 255 255
0.261 -0.813 2.25 255 255 255
1.366 -0.694 2.03 255 255 255
-1.555 -1.245 2.636 255 255 255
0.423 -0.194 1.534 255 255 255
1.025 -0.999 2.178 255 255 255
-0.004 -0.007 0.651 0 0 0
-0.004 0.156 0.481 255 255 255
0.479 -1.208 2.226 255 255 255
-0.054 0.105 0.503 0 0 0
-0.456 -0.241 1.352 255 255 255
0.05 0.152 0.485 255 255 255
-0.016 0.21 0.445 0 0 0
-1.467 -1.307 2.6 255 255 255
-0.038 0.088 0.494 255 255 255
-0.791 -1.403 2.432 255 255 255
1.054 -0.362 2.373 255 255 255
0.163 0.028 0.772 255 255 255
1.02 -0.995 2.182 255 255 255
0.97 -1.106 2.158 255 255 255
0.212 0.104 0.602 255 255 255
0.017 -0.119 1.112 255 255 255
-0.822 -0.836 2.455 255 255 255
-1.046 -1.724 2.403 255 255 255
-0.354 0.027 0.504 255 255 255
-0.718 -0.322 1.427 0 0 0
1.388 -0.885 2.173 255 255 255
-0.206 0.065 0.546 255 255 255
-0.345 -1.554 2.287 255 255 255
-0.006 0.025 0.612 255 255 255
-1.338 -0.977 2.747 255 255 255
-0.125 0.173 0.467 255 255 255
0.702 -1.052 2.23 255 255 255
0.875 -0.208 2.457 255 255 255
-0.744 -1.316 2.438 255 255 255
0 0.037 0.577 255 255 255
-0.098 0.184 0.462 255 255 255
-0.96 -1.571 2.436 255 255 255
-0.099 0 0.76 255 255 255
-1.507 -1.132 2.66 255 255 255
-0.836 -1.741 2.347 0 0 0
0.094 0.233 0.43 255 255 255
0.077 0.147 0.485 255 255 255
-0.135 0.053 0.59 0 0 0
0.669 -1.221 2.186 255 255 255
-0.189 0.041 0.588 255 255 255
-0.074 -0.038 0.844 255 255 255
-0.051 -0.141 1.144 255 255 255
0.044 0.04 0.573 0 0 0
1.37 -0.924 2.164 255 255 255
0.658 -1.072 2.232 255 255 255
0.127 0.219 0.437 255 255 255
-0.17 0.081 0.586 0 0 0
-0.429 -0.044 0.692 255 255 255
0.974 -0.371 2.383 255 255 255
0.042 -1.073 2.205 255 255 255
0.017 0.217 0.44 255 255 255
1.014 -0.163 2.441 255 255 255
-0.502 -0.08 0.843 255 255 255
-0.776 -1.445 2.404 255 255 255
-0.149 0.139 0.493 255 255 255
0.043 0.207 0.446 0 0 0
0.205 0.03 0.776 255 255 255
0.447 -1.346 2.191 255 255 255
-0.029 0.078 0.526 0 0 0
0.038 0.154 0.485 255 255 255
0.748 -1.53 2.079 0 0 0
-1.087 -1.576 2.46 255 255 255
1.346 -0.068 2.237 0 0 0
0.118 0.214 0.441 0 0 0
1.02 -1.039 2.168 255 255 255
0.484 -1.139 2.249 255 255 255
1.406 -0.77 2.179 255 255 255
0.49 -1.264 2.209 255 255 255
0.005 0.187 0.459 255 255 255
-0.844 -1.484 2.446 255 255 255
-0.362 -0.049 0.905 255 255 255
0.009 -0.973 2.245 255 255 255
-0.232 0.129 0.512 255 255 255
-0.135 0.181 0.464 255 255 255
-0.416 -0.226 1.34 255 255 255
0.26 0.087 0.676 255 255 255
-0.038 0.244 0.45 255 255 255
-1.279 -0.86 2.672 255 255 255
0.177 -0.875 2.243 255 255 255
-0.261 -0.341 1.669 255 255 255
0.17 -0.588 2.34 0 0 0
-0.031 0.147 0.497 255 255 255
-0.144 0.21 0.448 0 0 0
-0.011 0.172 0.467 255 255 255
-0.749 -1.235 2.465 255 255 255
0.182 0.156 0.484 255 255 255
0.199 0.043 0.723 255 255 255
-0.546 -0.275 1.281 0 0 0
1.402 -0.295 2.148 255 255 255
-0.366 -0.011 0.501 255 255 255
-0.54 -1.583 2.318 255 255 255
-0.009 0.169 0.469 0 0 0
-0.327 0.047 0.572 255 255 255
-0.071 0.203 0.449 0 0 0
1.29 0.157 2.492 255 255 255
1.208 -0.225 2.388 255 255 255
0.645 -1.206 2.196 255 255 255
-0.068 0.146 0.492 255 255 255
1.024 -0.293 2.401 255 255 255
-0.361 -1.271 2.361 0 0 0
1.01 -1.381 2.073 255 255 255
1.189 -0.384 2.337 255 255 255
-0.26 -1.547 2.274 255 255 255
0.116 0.051 0.679 255 255 255
0.053 0.032 0.698 255 255 255
1.31 0.124 2.471 255 255 255
0.055 -1.414 2.25 255 255 255
0.632 -1.462 2.127 255 255 255
0.378 -0.233 1.616 255 255 255
-0.034 0.183 0.463 255 255 255
0.018 -1.025 2.219 255 255 255
-0.234 0.08 0.527 255 255 255
0.784 -1.115 2.189 255 255 255
0.579 -1.485 2.132 255 255 255
-0.177 0.003 0.72 255 255 255
-0.252 -0.021 0.735 255 255 255
-0.266 0.09 0.514 255 255 255
0.137 0.11 0.577 255 255 255
0.354 -0.663 2.144 255 255 255
0.217 -0.353 1.929 0 0 0
0.566 -1.064 2.256 255 255 255
-1.464 -0.791 2.754 0 0 0
0.17 0.108 0.577 255 255 255
-0.267 0.034 0.638 255 255 255
0.162 0.186 0.452 255 255 255
0.06 0.173 0.466 255 255 255
-0.045 0.207 0.447 0 0 0
-1.16 -1.448 2.515 255 255 255
-0.378 -0.37 1.673 255 255 255
-0.541 -0.191 1.235 0 0 0
0.205 0.045 0.713 255 255 255
-0.529 -0.15 1.113 255 255 255
0.253 0.011 0.872 255 255 255
-0.42 -0.34 1.674 255 255 255
0.025 -1.493 2.233 255 255 255
0.004 -0.884 2.273 255 255 255
0.018 0.237 0.442 255 255 255
-0.29 0.132 0.517 255 255 255
1.357 -0.382 2.125 255 255 255
-0.466 -0.28 1.566 255 255 255
-0.028 0.194 0.454 255 255 255
0.007 0.206 0.447 0 0 0
-0.113 0.241 0.456 255 255 255
-0.182 -0.128 1.06 255 255 255
0.691 -0.69 2.336 0 0 0
-0.183 -0.01 0.732 255 255 255
-0.233 -0.813 2.342 255 255 255
-0.283 0.021 0.648 255 255 255
-0.068 -0.302 1.675 255 255 255
-0.874 -0.697 2.504 0 0 0
1.245 -0.811 2.198 255 255 255
-0.669 -0.816 2.441 255 255 255
0.562 -0.899 2.306 255 255 255
-0.02 0.159 0.475 255 255 255
0.37 -0.31 1.713 0 0 0
1.256 0.015 2.006 255 255 255
0.061 0.128 0.499 255 255 255
-0.222 -1.577 2.252 255 255 255
-0.026 0.151 0.493 255 255 255
-0.542 -0.288 1.396 255 255 255
0.095 -0.506 2.373 0 0 0
0.7 -1.463 2.105 255 255 255
1.168 -0.875 2.193 255 255 255
-0.157 0.033 0.617 255 255 255
0.026 0.008 0.788 255 255 255
0.146 0.179 0.457 255 255 255
-0.027 0.138 0.505 0 0 0
-0.19 0.063 0.562 255 255 255
-0.008 0.048 0.529 255 255 255
0.041 0.004 0.835 255 255 255
0.108 0.096 0.599 255 255 255
-0.01 -0.885 2.274 255 255 255
1.352 -0.122 1.916 255 255 255
-0.005 0.015 0.628 0 0 0
1.064 -0.42 2.349 255 255 255
1.286 0.239 1.99 255 255 255
1.218 -0.056 2.438 255 255 255
0.611 -0.86 2.207 0 0 0
0.446 -1.26 2.219 255 255 255
-0.36 -0.782 2.38 0 0 0
0.528 -1.247 2.205 255 255 255
-0.182 -0.082 0.947 255 255 255
0.169 -0.136 1.282 255 255 255
-0.706 -0.227 1.203 255 255 255
0.057 0.106 0.51 0 0 0
-1.545 -1.156 2.657 255 255 255
0.145 -0.886 2.248 255 255 255
0.169 0.225 0.437 255 255 255
0.108 0.216 0.439 255 255 255
-0.668 -0.383 1.624 0 0 0
-0.323 0.017 0.531 255 255 255
-0.421 -0.043 0.805 255 255 255
0.163 0.187 0.452 255 255 255
-0.581 -1.35 2.398 255 255 255
0.084 0.074 0.655 0 0 0
-0.594 -0.137 0.981 255 255 255
0.211 -0.214 1.501 255 255 255
-0.013 0.186 0.462 255 255 255
-0.031 -1.425 2.258 255 255 255
0.02 -0.036 0.911 255 255 255
0.221 0.037 0.756 255 255 255
0.12 0.09 0.655 255 255 255
0.315 -0.281 1.673 255 255 255
0.99 -0.752 2.264 255 255 255
-0.004 0.192 0.457 255 255 255
0.494 -1.488 2.142 255 255 255
-0.24 0.128 0.515 255 255 255
-0.654 -1.745 2.285 0 0 0
0.498 -1.464 2.143 255 255 255
0.002 0.05 0.483 255 255 255
-0.217 -1.502 2.28 255 255 255
-1.183 -1.491 2.509 255 255 255
0.166 0.197 0.446 255 255 255
1.014 -0.035 2.486 255 255 255
-0.29 -0.068 0.872 255 255 255
-0.196 0.006 0.713 255 255 255
-0.16 0.217 0.452 0 0 0
-0.022 0.166 0.47 255 255 255
-0.759 -0.98 2.411 0 0 0
-0.112 0.125 0.52 0 0 0
1.313 -0.165 2.219 255 255 255
-0.006 0.028 0.604 255 255 255
0.034 -1.372 2.263 255 255 255
-0.19 0.149 0.489 255 255 255
0.103 -0.902 2.249 255 255 255
-0.238 -0.399 1.693 255 255 255
-0.866 -0.653 2.504 0 0 0
-0.149 0.25 0.462 255 255 255
0.113 0.086 0.671 255 255 255
1.343 -0.93 2.159 255 255 255
1.115 -0.519 2.311 255 255 255
0.173 0.152 0.486 255 255 255
0.01 0.046 0.565 255 255 255
1.274 0.026 1.815 255 255 255
-0.296 -0.038 0.885 0 0 0
-0.141 0.01 0.722 0 0 0
-0.315 -0.086 0.911 0 0 0
-0.057 0.078 0.493 255 255 255
0.017 0.059 0.467 255 255 255
1.336 -0.951 2.161 255 255 255
0.174 -1.448 2.219 255 255 255
0.105 0.153 0.48 0 0 0
0.356 -0.31 1.697 0 0 0
-0.366 -0.763 2.385 0 0 0
-0.165 0.151 0.486 255 255 255
0.179 -0.647 2.32 255 255 255
0.283 0.069 0.752 255 255 255
-0.018 -0.082 0.981 0 0 0
1.209 -0.633 2.257 255 255 255
-0.57 -1.377 2.39 255 255 255
-0.019 0.054 0.485 255 255 255
-1.073 -1.81 2.387 0 0 0
-0.046 -0.093 0.995 0 0 0
1.364 -0.244 2.313 255 255 255
-0.107 0.027 0.636 255 255 255
0.892 -0.242 2.439 255 255 255
-0.571 -1.336 2.409 255 255 255
1.27 0.007 2.444 255 255 255
-0.201 0.088 0.527 255 255 255
-0.191 -1.547 2.259 255 255 255
-0.098 0.003 0.754 255 255 255
0.051 0.163 0.472 255 255 255
-0.062 -1.639 2.211 0 0 0
1.094 -1.157 2.118 255 255 255
0.72 -1.307 2.148 255 255 255
-0.016 -1.388 2.269 255 255 255
0.667 -1.274 2.176 255 255 255
0.091 0.1 0.5 255 255 255
-0.094 -0.287 1.669 255 255 255
-0.663 -0.409 1.597 255 255 255
1.321 -0.274 2.166 255 255 255
0.042 0.039 0.574 0 0 0
0.471 -0.454 1.921 255 255 255
-0.72 -0.934 2.402 255 255 255
0.157 -0.589 2.345 0 0 0
1.345 0.151 2.464 255 255 255
-0.472 -0.264 1.38 255 255 255
-0.102 0.148 0.485 255 255 255
-0.982 -1.513 2.452 255 255 255
1.141 -0.539 2.301 255 255 255
-1.212 -1.779 2.428 0 0 0
0.907 -0.664 2.307 255 255 255
0.847 -0.554 2.356 255 255 255
0.16 0.04 0.72 255 255 255
-0.527 -0.099 1.05 0 0 0
0.175 0.101 0.581 255 255 255
-0.061 -0.631 2.264 255 255 255
0.152 -0.094 1.156 255 255 255
0.063 0.176 0.464 0 0 0
-0.149 -0.174 1.172 255 255 255
-0.18 -0.455 1.691 255 255 255
0.445 -1.169 2.245 255 255 255
1.26 0.119 2.483 255 255 255
-0.179 0.187 0.459 255 255 255
1.213 0.012 2.465 255 255 255
0.108 0.24 0.43 255 255 255
-0.871 -0.215 1.3 255 255 255
0.039 0.06 0.518 255 255 255
0.241 0.069 0.672 255 255 255
-0.055 0.018 0.731 255 255 255
0.174 -1.463 2.213 255 255 255
-0.268 -0.068 0.875 255 255 255
1.321 -1.007 2.152 255 255 255
0.112 0.221 0.434 255 255 255
1.176 -0.973 2.158 255 255 255
-0.157 0.196 0.453 255 255 255
-0.541 -0.295 1.435 255 255 255
0.418 -0.403 1.858 255 255 255
0.142 -0.173 1.398 255 255 255
0.295 0.167 0.582 255 255 255
-0.001 -1.634 2.196 0 0 0
-0.252 -0.01 0.72 255 255 255
-0.022 -0.087 0.979 0 0 0
-0.35 -0.002 0.505 255 255 255
-0.036 -1.655 2.195 0 0 0
-0.091 -0.394 1.665 255 255 255
-0.164 -0.863 2.308 255 255 255
0.197 -1.118 2.305 255 255 255
-0.546 -0.703 2.39 255 255 255
-0.915 -1.624 2.406 255 255 255
0.063 0.232 0.434 255 255 255
-0.513 -1.352 2.387 255 255 255
1.165 -0.607 2.269 255 255 255
-0.474 -0.1 1.058 255 255 255
0.269 0.087 0.692 255 255 255
-0.591 -1.185 2.452 255 255 255
-0.526 -0.269 1.269 255 255 255
0.255 0.019 0.836 255 255 255
-0.007 -0.163 1.168 255 255 255
-0.211 0.175 0.474 255 255 255
-0.174 0.076 0.593 255 255 255
1.295 -0.393 1.802 255 255 255
-1.357 -1.096 2.667 255 255 255
1.109 -1.311 2.081 255 255 255
-1.361 -1.209 2.629 255 255 255
0.186 0.091 0.685 0 0 0
-0.271 0.109 0.538 0 0 0
-0.431 -0.043 0.792 0 0 0
-1.369 -1.04 2.649 0 0 0
-0.022 0.192 0.456 255 255 255
-0.256 0.151 0.486 255 255 255
-0.197 0.214 0.455 0 0 0
-0.322 0.05 0.571 255 255 255
0.231 -0.209 1.489 255 255 255
1.252 -0.61 2.254 255 255 255
0.762 -0.977 2.246 255 255 255
1.134 0.272 2.193 255 255 255
-0.193 0.111 0.519 255 255 255
-0.211 0.032 0.632 255 255 255
-0.503 -0.114 0.944 255 255 255
-0.2 -0.114 0.939 255 255 255
0.196 -0.865 2.244 255 255 255
0.123 0.232 0.428 255 255 255
0.004 0.158 0.476 255 255 255
0.738 -1.337 2.145 255 255 255
0.145 0.136 0.507 255 255 255
-0.362 -0.022 0.803 255 255 255
-0.273 -0.866 2.338 255 255 255
-0.181 0.098 0.516 0 0 0
-0.546 -0.193 1.233 0 0 0
0.1 -1.433 2.238 255 255 255
0.458 -0.829 2.203 0 0 0
0.236 0.043 0.737 255 255 255
0.164 -0.073 1.11 255 255 255
-0.17 0.256 0.464 255 255 255
0.165 0.039 0.728 255 255 255
-0.005 0.138 0.474 0 0 0
0.125 0.096 0.622 255 255 255
-0.278 0.054 0.536 255 255 255
-0.194 -0.162 1.185 0 0 0
0.112 0.222 0.433 255 255 255
-0.068 0.214 0.442 0 0 0
0.91 -0.992 2.207 255 255 255
0.557 -0.291 1.866 255 255 255
1.335 0.151 2.177 255 255 255
-0.008 0.109 0.439 255 255 255
0.86 -1.03 2.205 255 255 255
-0.272 0.125 0.528 0 0 0
0.066 -0.689 2.329 0 0 0
-0.098 0.076 0.551 255 255 255
-0.285 -1.429 2.314 255 255 255
-0.178 0.108 0.513 255 255 255
-0.055 0.182 0.463 255 255 255
0.023 -0.884 2.273 255 255 255
0.202 0.116 0.549 255 255 255
-0.127 -1.378 2.292 255 255 255
0.17 0.148 0.49 255 255 255
0.03 0.104 0.448 255 255 255
0.607 -1.307 2.171 255 255 255
-0.35 -0.205 1.232 0 0 0
0.503 -0.272 1.82 255 255 255
0.204 0.154 0.499 0 0 0
0.057 0.178 0.462 255 255 255
0.172 -0.382 1.861 255 255 255
0.512 -0.352 1.843 255 255 255
0.442 -1.59 2.116 0 0 0
-0.072 -1.604 2.22 0 0 0
-0.068 0.009 0.758 255 255 255
-1.494 -0.979 2.702 255 255 255
0.09 0.144 0.489 255 255 255
-0.282 -0.03 0.816 255 255 255
0.293 -0.349 1.858 0 0 0
-0.016 0.12 0.462 255 255 255
-0.219 0.139 0.496 255 255 255
-0.287 0.017 0.656 255 255 255
-0.936 -0.917 2.469 0 0 0
-0.002 0.243 0.444 255 255 255
-0.216 0.035 0.63 0 0 0
-0.317 0.035 0.611 255 255 255
0.564 -1.528 2.113 0 0 0
-0.158 0.04 0.606 255 255 255
0.295 -0.155 1.349 255 255 255
0.527 -0.947 2.297 255 255 255
0.356 -1.011 2.302 255 255 255
0.134 -1.394 2.236 255 255 255
1.356 -0.27 2.164 0 0 0
-0.268 -0.39 1.682 255 255 255
-0.083 0.098 0.494 0 0 0
-0.438 -1.531 2.315 255 255 255
-0.036 0.073 0.566 255 255 255
-0.367 -0.068 0.906 255 255 255
1.184 -0.229 2.387 255 255 255
1.12 0.038 2.486 255 255 255
-0.068 0.04 0.642 0 0 0
0.155 -0.561 2.329 255 255 255
0.022 0.039 0.608 0 0 0
0.04 0.079 0.482 0 0 0
0.925 -0.506 2.353 255 255 255
-0.127 0.214 0.448 0 0 0
1.236 -1.002 2.141 255 255 255
1.315 0.339 2.283 255 255 255
-1.272 -1.651 2.484 255 255 255
0.226 -0.161 1.336 255 255 255
-0.102 0.141 0.494 255 255 255
-0.035 -0.074 1.013 0 0 0
-0.071 -0.021 0.811 255 255 255
-0.638 -0.702 2.448 255 255 255
0.034 0.172 0.466 0 0 0
-0.188 -1.024 2.271 255 255 255
-0.475 -0.205 1.206 255 255 255
-0.037 0.157 0.477 255 255 255
-0.379 -0.076 0.911 255 255 255
-0.916 -1.307 2.512 255 255 255
-0.019 -0.098 0.964 255 255 255
-0.038 0.165 0.473 255 255 255
-0.058 -0.018 0.826 255 255 255
0.784 -1.454 2.092 255 255 255
-0.711 -1.693 2.314 0 0 0
0.07 0.135 0.499 255 255 255
1.062 0.054 2.503 255 255 255
-0.467 -0.319 1.576 255 255 255
-0.682 -0.742 2.465 0 0 0
-0.001 0.241 0.444 255 255 255
-0.234 -0.37 1.691 0 0 0
-0.413 -0.205 1.294 0 0 0
-0.684 -0.692 2.482 0 0 0
-0.22 0.073 0.533 255 255 255
-0.265 0.072 0.509 255 255 255
0.965 -1.588 2.037 255 255 255
1.068 -0.263 2.4 255 255 255
0 0.084 0.455 255 255 255
1.25 -0.541 2.272 255 255 255
0.026 0.041 0.598 0 0 0
1.299 -1.016 2.153 255 255 255
-0.055 0.074 0.587 255 255 255
-0.067 0.114 0.494 255 255 255
0.931 -1.067 2.182 255 255 255
-0.165 0.018 0.64 255 255 255
-0.147 0.046 0.625 0 0 0
0.32 -1.357 2.213 255 255 255
-0.319 0.023 0.576 255 255 255
0.455 -1.061 2.279 255 255 255
0.075 -0.474 2.336 255 255 255
0.021 0.056 0.472 255 255 255
-0.108 0.074 0.551 255 255 255
-0.149 -0.949 2.287 255 255 255
-0.531 -0.133 0.934 255 255 255
-0.519 -0.138 0.948 255 255 255
0.91 -0.875 2.241 255 255 255
0.782 -1.421 2.1 255 255 255
0.022 0.088 0.458 255 255 255
0.193 -0.122 1.25 255 255 255
0.36 -0.444 1.876 255 255 255
0.193 -0.715 2.294 255 255 255
0.251 -1.293 2.245 255 255 255
0.054 0.207 0.447 0 0 0
0.967 -0.794 2.253 255 255 255
0.742 -0.736 2.324 255 255 255
-0.099 0.223 0.448 255 255 255
-0.915 -0.246 1.394 255 255 255
-0.458 -0.267 1.452 255 255 255
0.012 0.101 0.428 0 0 0
-0.069 -0.069 0.965 0 0 0
-0.045 -0.41 1.69 255 255 255
0.944 -1.124 2.155 255 255 255
0.156 0.031 0.759 255 255 255
0.948 -1.589 2.035 255 255 255
-0.015 0.129 0.472 0 0 0
-0.228 0.079 0.532 255 255 255
0.28 -1.595 2.15 0 0 0
-0.545 -0.187 1.225 0 0 0
0.352 -0.012 1.043 255 255 255
1.376 -0.597 2.056 255 255 255
-0.375 -0.628 2.344 0 0 0
-0.186 0.197 0.453 255 255 255
0.274 0.011 0.888 255 255 255
-0.198 0.151 0.483 255 255 255
0.288 0.101 0.688 255 255 255
-0.261 0.042 0.627 0 0 0
-0.425 -0.142 1.078 255 255 255
0.178 0.105 0.573 255 255 255
1.198 0.156 2.507 255 255 255
1.308 -0.414 1.794 255 255 255
1.02 -1.477 2.042 0 0 0
0.926 -1.278 2.11 255 255 255
1.229 -0.439 2.315 255 255 255
0.826 -0.952 2.237 255 255 255
-0.318 0.009 0.551 255 255 255
-0.083 0.168 0.475 255 255 255
-0.157 0.018 0.728 255 255 255
-0.179 -0.874 2.31 255 255 255
0.175 0.112 0.562 255 255 255
-0.041 0.23 0.446 255 255 255
-0.023 0.012 0.644 0 0 0
0.973 -1.498 2.039 0 0 0
-0.401 -0.932 2.346 255 255 255
-0.444 -0.074 0.978 0 0 0
0.349 -1.618 2.128 0 0 0
-0.035 0.188 0.458 255 255 255
-0.028 0.053 0.553 255 255 255
0.116 0.08 0.673 255 255 255
1.005 -1.265 2.106 255 255 255
0.002 -0.035 0.896 255 255 255
1.339 -0.668 2.059 255 255 255
-0.334 0.042 0.566 255 255 255
0.844 -0.606 2.337 255 255 255
-1.5 -1.028 2.689 255 255 255
-0.45 -1.633 2.281 255 255 255
0.841 -0.242 2.451 255 255 255
-0.325 -0.001 0.607 255 255 255
-1.303 -0.984 2.698 255 255 255
-0.114 0.088 0.505 255 255 255
-0.541 -0.161 1.002 255 255 255
-1.332 -0.928 2.76 255 255 255
0.019 0.218 0.439 255 255 255
-0.108 0.008 0.735 255 255 255
-0.386 -1.312 2.377 255 255 255
-0.065 -0.153 1.164 255 255 255
-0.168 0.108 0.505 255 255 255
0.993 -0.347 2.391 255 255 255
0.16 0.157 0.475 255 255 255
0.997 -0.357 2.386 255 255 255
-0.247 0.114 0.529 255 255 255
-0.191 0.21 0.453 0 0 0
0.84 -0.592 2.345 255 255 255
0.286 -0.118 1.249 255 255 255
-0.103 0.06 0.601 255 255 255
0.036 0.216 0.438 255 255 255
0.248 -0.768 2.268 255 255 255
-0.87 -1.069 2.572 255 255 255
0.127 -0.778 2.288 255 255 255
1.263 -0.012 1.946 255 255 255
0.053 -0.003 0.861 255 255 255
-0.167 0.073 0.61 0 0 0
0.133 0.197 0.446 255 255 255
-1.568 -1.072 2.695 255 255 255
-1.104 -1.653 2.439 255 255 255
0.616 -1.609 2.077 255 255 255
0.966 -1.615 2.027 255 255 255
-0.696 -1.324 2.424 255 255 255
-0.196 -1.495 2.28 255 255 255
-0.237 0.116 0.528 255 255 255
-0.095 0.095 0.494 0 0 0
-0.029 -0.886 2.277 255 255 255
-0.288 0.029 0.642 255 255 255
0.316 -0.063 1.116 255 255 255
-0.566 -0.256 1.205 255 255 255
0.311 -0.93 2.203 0 0 0
-0.186 0.237 0.459 255 255 255
-0.925 -0.828 2.46 255 255 255
-0.443 -0.634 2.339 255 255 255
-0.276 0.14 0.51 255 255 255
-0.498 -0.082 0.848 255 255 255
-1.585 -1.001 2.718 255 255 255
0.176 0.187 0.453 255 255 255
0.168 -0.064 1.076 255 255 255
-0.068 0.217 0.443 255 255 255
0.577 -0.928 2.296 255 255 255
-0.265 0.131 0.516 255 255 255
0.064 0.158 0.48 255 255 255
0.484 -0.943 2.306 255 255 255
-0.318 0.067 0.502 255 255 255
0.115 -1.514 2.205 255 255 255
-0.876 -0.308 1.474 255 255 255
-0.097 0.168 0.473 255 255 255
-0.17 0.124 0.51 255 255 255
-0.223 -1.557 2.262 255 255 255
0.736 -1.155 2.19 255 255 255
0.092 0.12 0.504 0 0 0
-0.394 -1.492 2.321 255 255 255
0.208 -1.347 2.236 255 255 255
0.019 -0.054 0.974 0 0 0
-1.219 -1.299 2.569 255 255 255
0.79 -1.609 2.039 255 255 255
-0.131 0.199 0.451 0 0 0
0.669 -1.039 2.244 255 255 255
1.341 0.169 2.236 255 255 255
-0.001 0.156 0.481 255 255 255
0.894 -1.476 2.057 0 0 0
-0.164 0.14 0.494 255 255 255
1.092 -1.319 2.078 255 255 255
-0.309 0.108 0.528 255 255 255
-0.251 0.15 0.487 255 255 255
1.047 -1.08 2.152 255 255 255
-0.083 0.213 0.443 0 0 0
0.211 0.067 0.638 0 0 0
-0.942 -1.631 2.411 255 255 255
0.055 0.213 0.441 0 0 0
0.155 0.11 0.561 0 0 0
-0.609 -0.76 2.448 0 0 0
-1.359 -1.188 2.646 255 255 255
0.085 -0.767 2.302 0 0 0
-0.031 0.066 0.56 255 255 255
-0.217 -0.048 0.965 0 0 0
0.456 -0.629 2.142 255 255 255
-0.624 -1.547 2.343 255 255 255
-0.926 -0.393 1.642 255 255 255
1.392 -0.662 2.199 255 255 255
-0.446 -1.013 2.323 255 255 255
0.699 -0.86 2.292 255 255 255
-0.817 -1.415 2.461 255 255 255
1.043 -1.165 2.128 255 255 255
0.717 -1.493 2.098 255 255 255
0.02 0.047 0.581 0 0 0
0.196 -0.358 1.913 0 0 0
1.326 -0.722 2.212 255 255 255
0.772 -1.495 2.088 255 255 255
-0.18 0.069 0.572 255 255 255
-0.149 0 0.739 255 255 255
0.154 0.168 0.465 255 255 255
-0.833 -1.114 2.554 255 255 255
-0.106 -0.141 1.122 255 255 255
-1.868 -0.484 2.453 255 255 255
-0.391 -0.055 0.91 255 255 255
-0.714 -1.186 2.474 255 255 255
0.875 -1.457 2.073 255 255 255
0.927 -0.326 2.408 255 255 255
0.07 0.109 0.505 0 0 0
1.123 0.059 2.492 255 255 255
1.375 -0.415 2.273 255 255 255
0.051 -0.892 2.265 255 255 255
-0.781 -1.726 2.326 0 0 0
-0.267 -1.301 2.345 0 0 0
0.054 0.122 0.5 0 0 0
-0.22 0.166 0.479 255 255 255
0.289 -0.033 1.019 255 255 255
-0.193 0.083 0.571 0 0 0
-0.287 0.059 0.518 255 255 255
-1.547 -0.885 2.741 255 255 255
-1.069 -0.815 2.595 0 0 0
0.187 0.15 0.495 255 255 255
-0.126 0.079 0.517 255 255 255
-0.07 0.072 0.588 255 255 255
0.089 0.16 0.475 255 255 255
-0.17 0.11 0.506 255 255 255
0.636 -1.409 2.142 255 255 255
-0.057 0.027 0.71 0 0 0
1.078 -0.914 2.196 255 255 255
0.302 0.01 0.924 255 255 255
-0.221 0.067 0.535 255 255 255
-0.188 0.238 0.459 255 255 255
1.152 -0.138 2.424 255 255 255
0.757 -1.523 2.076 0 0 0
-1.415 -1.473 2.522 255 255 255
1.215 -0.305 2.36 255 255 255
-0.316 0.051 0.567 255 255 255
-0.464 -0.579 2.356 255 255 255
-0.137 0.232 0.455 255 255 255
-0.272 -1.131 2.245 255 255 255
0.076 0.047 0.689 0 0 0
-0.1 0.171 0.467 255 255 255
0.136 -0.363 1.883 255 255 255
-1.094 -0.971 2.64 255 255 255
0.054 0.161 0.475 255 255 255
-0.031 -1.364 2.271 255 255 255
1.181 -0.123 2.423 255 255 255
-0.053 -0.179 1.247 255 255 255
-0.189 -1.32 2.328 255 255 255
0.179 0.129 0.516 255 255 255
1.14 -1.189 2.109 255 255 255
-0.041 0.109 0.504 0 0 0
-1.137 -1.91 2.376 255 255 255
-0.077 -0.035 0.84 255 255 255
-1.262 -1.225 2.601 255 255 255
-0.005 0.091 0.447 0 0 0
0.465 -0.331 1.863 255 255 255
0.063 0.235 0.435 255 255 255
0.208 0.106 0.597 255 255 255
0.093 0.032 0.718 255 255 255
-0.621 -1.633 2.316 255 255 255
0.049 -1.247 2.289 0 0 0
-0.036 0.078 0.508 255 255 255
-0.146 0.011 0.733 0 0 0
0.298 0.123 0.668 255 255 255
0.841 -0.865 2.26 255 255 255
-0.162 0.192 0.455 255 255 255
-0.277 0.03 0.638 255 255 255
0.039 -0.105 1.107 255 255 255
0.051 0.197 0.453 255 255 255
-0.111 0.093 0.494 0 0 0
-1.216 -1.58 2.492 255 255 255
0.224 -0.297 1.828 255 255 255
0.251 0.082 0.68 255 255 255
-0.612 -0.143 0.987 255 255 255
-0.528 -0.933 2.374 255 255 255
-0.702 -0.984 2.403 0 0 0
0.022 0.219 0.438 255 255 255
-0.996 -1.815 2.36 0 0 0
0.828 -0.365 2.417 255 255 255
0.036 0.119 0.468 255 255 255
-0.087 0.018 0.722 255 255 255
0.118 -0.106 1.18 0 0 0
-1.346 -1.602 2.518 255 255 255
-0.696 -1.335 2.422 255 255 255
-0.101 -0.07 0.881 255 255 255
-0.062 -1.068 2.228 255 255 255
-0.131 0.076 0.523 255 255 255
-1.372 -0.913 2.715 255 255 255
0.258 -1.492 2.184 255 255 255
0.028 -0.93 2.255 255 255 255
-0.679 -1.279 2.44 255 255 255
0.376 -0.495 1.951 255 255 255
0.163 -1.356 2.243 255 255 255
-0.776 -1.484 2.39 255 255 255
-0.074 0.159 0.478 255 255 255
-0.941 -1.187 2.553 255 255 255
0.238 -0.116 1.233 255 255 255
1.313 -0.137 2.231 255 255 255
-0.33 -0.011 0.601 255 255 255
-0.248 0.126 0.521 0 0 0
0.026 0.022 0.596 0 0 0
-0.365 -0.013 0.793 255 255 255
-0.037 0.217 0.443 255 255 255
-0.144 0.239 0.458 255 255 255
0.779 -1.563 2.061 0 0 0
-0.805 -0.703 2.5 0 0 0
0.092 0.227 0.43 255 255 255
-0.14 0.176 0.466 255 255 255
-0.051 0.13 0.511 255 255 255
0.348 -1.182 2.26 255 255 255
-0.169 -1.352 2.31 255 255 255
0.975 -1.082 2.165 255 255 255
-0.094 0.194 0.456 255 255 255
1.073 -0.895 2.204 255 255 255
-0.186 -1.11 2.209 255 255 255
0.15 -0.804 2.274 255 255 255
0.542 -1.107 2.245 255 255 255
-0.028 -0.11 0.987 255 255 255
0.189 0.112 0.563 255 255 255
0.125 0.137 0.501 255 255 255
0.963 -1.489 2.047 0 0 0
0.284 0.072 0.749 255 255 255
-0.04 0.213 0.443 0 0 0
1.111 -1.145 2.123 255 255 255
-0.164 0.186 0.46 255 255 255
-0.17 -0.158 1.174 255 255 255
-0.866 -0.408 1.648 0 0 0
-0.622 -0.421 1.659 255 255 255
-1.067 -1.531 2.474 255 255 255
-0.627 -1.288 2.429 255 255 255
-0.399 -0.041 0.69 255 255 255
0.101 -0.043 0.996 255 255 255
-0.762 -0.639 2.515 0 0 0
-0.211 -1.461 2.288 255 255 255
-0.068 0.172 0.473 255 255 255
1.309 -0.077 2.411 255 255 255
0.055 0.2 0.453 255 255 255
0.19 -1.566 2.181 255 255 255
-0.886 -0.169 1.222 255 255 255
0.031 0.147 0.488 255 255 255
-0.29 0.119 0.523 255 255 255
0.177 0.142 0.507 255 255 255
0.005 -0.098 0.95 0 0 0
-0.006 0.06 0.473 255 255 255
-0.099 0.164 0.478 255 255 255
-1.249 -1.123 2.63 255 255 255
-0.429 -0.69 2.358 255 255 255
-1.082 -0.834 2.593 255 255 255
-0.306 -1.418 2.326 255 255 255
0.05 0.158 0.481 255 255 255
0.554 -0.333 1.838 255 255 255
-0.143 0.132 0.507 255 255 255
-0.178 0.268 0.469 255 255 255
0.306 -0.139 1.3 255 255 255
-0.182 0.209 0.452 0 0 0
0.386 -0.813 2.226 255 255 255
0.29 0.162 0.594 255 255 255
0.336 -1.441 2.186 255 255 255
-0.141 -0.657 2.284 255 255 255
-0.108 0.027 0.634 255 255 255
-0.32 -0.003 0.575 255 255 255
-0.243 -0.809 2.345 255 255 255
0.849 -1.319 2.118 255 255 255
-0.929 -1.389 2.487 255 255 255
0.273 -0.196 1.455 255 255 255
0.126 0.121 0.534 255 255 255
0.457 -1.343 2.194 255 255 255
-0.023 0.171 0.468 255 255 255
0.745 -1.589 2.059 255 255 255
-1.372 -1.513 2.504 255 255 255
-0.193 -0.71 2.344 255 255 255
-0.581 -0.952 2.372 255 255 255
0.434 -0.422 1.871 255 255 255
0.175 0.047 0.69 255 255 255
0.196 -0.399 1.866 255 255 255
-0.614 -0.17 1.035 255 255 255
-0.147 0.124 0.528 0 0 0
0.114 0.144 0.497 255 255 255
0.681 -0.749 2.328 255 255 255
-0.335 0.052 0.54 255 255 255
1.113 -0.465 2.327 255 255 255
0.151 -0.215 1.511 255 255 255
1.255 -0.955 2.156 255 255 255
0.727 -0.995 2.245 255 255 255
-0.034 -0.79 2.312 0 0 0
0.159 -1.432 2.225 255 255 255
0.206 0.196 0.457 255 255 255
0.086 0.142 0.496 255 255 255
0.032 -0.947 2.247 255 255 255
-0.092 0.247 0.455 255 255 255
-0.505 -0.079 0.964 0 0 0
0.232 0.123 0.562 255 255 255
-0.519 -0.422 1.768 255 255 255
1.082 0.18 2.491 0 0 0
-1.121 -1.321 2.544 255 255 255
-0.062 0.157 0.479 255 255 255
1.34 0.188 2.285 255 255 255
-0.296 0.068 0.512 255 255 255
0.15 0.228 0.43 255 255 255
1.255 -1.064 2.135 255 255 255
-0.55 -0.233 1.281 0 0 0
1.095 -0.514 2.317 255 255 255
-0.152 0.174 0.467 255 255 255
0.075 -0.118 1.184 255 255 255
1.26 -0.003 2.04 255 255 255
1.045 -1.443 2.05 255 255 255
0.197 0.121 0.549 0 0 0
-0.199 -0.198 1.169 255 255 255
1.406 -0.609 2.052 255 255 255
-0.292 0.081 0.49 255 255 255
0.622 -1.269 2.185 255 255 255
0.998 -1.228 2.117 255 255 255
0.08 -0.163 1.261 255 255 255
-0.179 -0.947 2.292 255 255 255
-0.555 -0.242 1.283 0 0 0
-0.245 0.027 0.648 255 255 255
0.445 -0.593 2.116 255 255 255
-0.101 -0.046 0.859 0 0 0
-0.135 -0.784 2.336 0 0 0
-0.066 0.129 0.512 255 255 255
0.208 0.189 0.46 255 255 255
-0.065 -0.635 2.262 255 255 255
0.434 -1.437 2.169 255 255 255
-0.055 0.218 0.443 255 255 255
-0.249 -0.078 0.874 255 255 255
1.158 -0.174 2.41 255 255 255
0.239 0.031 0.785 255 255 255
-0.173 -0.367 1.668 255 255 255
-0.391 -1.709 2.246 0 0 0
-0.078 0.116 0.494 255 255 255
0.111 0.155 0.478 0 0 0
-0.541 -0.11 1.067 0 0 0
-0.015 0.17 0.468 255 255 255
-0.834 -1.443 2.447 255 255 255
1.153 -0.5 2.308 255 255 255
-0.875 -1.82 2.343 255 255 255
0.689 -0.811 2.306 255 255 255
-0.252 0.082 0.516 255 255 255
1.285 -0.065 1.791 255 255 255
0.289 0.161 0.594 255 255 255
0.205 -1.535 2.183 255 255 255
-0.047 0.071 0.591 0 0 0
-1.109 -1.442 2.503 255 255 255
0.344 -0.115 1.258 255 255 255
-0.219 -0.45 1.698 255 255 255
0.15 -0.895 2.244 255 255 255
0.153 0.23 0.429 255 255 255
-0.096 0.204 0.449 0 0 0
-1.142 -1.064 2.625 255 255 255
0.008 0.218 0.44 255 255 255
-1.2 -1.735 2.434 255 255 255
-0.211 0.062 0.545 255 255 255
-0.46 -0.058 0.774 255 255 255
0.771 -1.009 2.23 255 255 255
-0.231 0.13 0.513 255 255 255
0.196 0.179 0.463 255 255 255
0.655 -0.776 2.302 0 0 0
-0.29 -0.044 0.891 0 0 0
-0.419 -0.041 0.8 255 255 255
0.455 -1.484 2.15 255 255 255
0.17 0.104 0.577 255 255 255
0.558 -1.466 2.136 255 255 255
-1.241 -1.569 2.491 255 255 255
0.028 0.101 0.448 255 255 255
-0.368 -0.014 0.5 255 255 255
0.151 0.112 0.561 0 0 0
-0.204 -0.84 2.33 255 255 255
-0.242 0.067 0.523 255 255 255
1.36 -0.133 2.343 255 255 255
1.042 0.152 2.481 0 0 0
0.001 0.036 0.581 255 255 255
0.061 0.156 0.482 255 255 255
0 0.101 0.434 0 0 0
-0.105 0.142 0.493 255 255 255
0.426 -0.35 1.847 255 255 255
1.326 0.256 2.494 255 255 255
-0.631 -0.411 1.663 255 255 255
0.474 -1.061 2.276 255 255 255
0.078 0.113 0.511 0 0 0
-0.399 -0.104 0.979 255 255 255
-0.587 -1.314 2.413 255 255 255
0.612 -1.287 2.177 255 255 255
-1.698 -0.834 2.765 255 255 255
-0.18 0.141 0.496 255 255 255
-0.14 -0.209 1.242 255 255 255
-0.061 0.156 0.48 255 255 255
-0.082 -1.5 2.253 255 255 255
1.335 0.237 2.327 255 255 255
-1.259 -1.356 2.565 255 255 255
0.201 0.192 0.456 255 255 255
0.209 0.142 0.522 255 255 255
0.244 0.084 0.67 0 0 0
1.274 0.001 1.839 255 255 255
-0.057 0.139 0.508 255 255 255
0.113 -0.033 0.976 255 255 255
-0.664 -0.657 2.475 255 255 255
-0.117 0.204 0.449 0 0 0
0.45 -1.003 2.299 255 255 255
0.404 -1.395 2.186 255 255 255
-0.997 -1.546 2.445 255 255 255
0.983 -0.785 2.253 255 255 255
1.269 -0.3 1.816 255 255 255
-0.363 -1.169 2.256 0 0 0
-0.061 0.24 0.45 255 255 255
-0.14 -0.166 1.221 0 0 0
-0.322 -0.005 0.571 255 255 255
0.008 0.201 0.451 0 0 0
-0.007 -0.35 1.71 255 255 255
-0.37 -0.021 0.527 255 255 255
0.132 0.138 0.499 255 255 255
-0.025 0.194 0.454 255 255 255
0.135 0.207 0.443 0 0 0
0.005 0.207 0.446 0 0 0
-0.017 0.083 0.478 255 255 255
-0.057 0.241 0.45 255 255 255
0.501 -0.332 1.862 255 255 255
1.38 -0.117 2.201 0 0 0
-1.34 -0.986 2.733 255 255 255
0.164 -0.885 2.244 255 255 255
-0.475 -0.214 1.185 255 255 255
0.027 0.214 0.439 0 0 0
-0.118 0.024 0.68 255 255 255
0.956 -0.025 2.499 0 0 0
0.161 0.234 0.429 255 255 255
-0.21 0.032 0.633 255 255 255
-0.676 -0.398 1.594 255 255 255
-0.031 0.02 0.561 255 255 255
0.158 -0.415 1.906 255 255 255
0.192 0.15 0.502 255 255 255
0.814 -0.611 2.342 255 255 255
0.244 -0.732 2.281 255 255 255
-0.189 -0.078 0.947 255 255 255
-0.433 -0.643 2.337 255 255 255
0.862 -0.143 2.484 0 0 0
-1.455 -1.404 2.556 255 255 255
0.976 -0.922 2.217 255 255 255
-0.128 -1.548 2.244 255 255 255
0.456 -0.813 2.217 255 255 255
-0.021 0.145 0.493 255 255 255
0.975 -1.209 2.121 255 255 255
-0.679 -0.426 1.607 255 255 255
-0.105 0.011 0.729 255 255 255
-0.892 -0.305 1.468 0 0 0
1.27 0.035 1.856 255 255 255
-0.047 0.063 0.585 255 255 255
-0.294 -0.181 1.168 0 0 0
0.809 -0.336 2.43 255 255 255
-0.014 0.08 0.472 255 255 255
0.006 0.2 0.451 255 255 255
-0.109 -0.435 1.676 255 255 255
-0.52 -0.283 1.461 0 0 0
0.779 -0.411 2.428 0 0 0
0.182 0.043 0.717 255 255 255
0.858 -1.348 2.103 255 255 255
0.005 -0.049 0.953 255 255 255
-0.732 -1.266 2.453 255 255 255
-0.001 0.049 0.514 0 0 0
-0.262 -0.047 0.889 0 0 0
-0.288 -0.948 2.315 255 255 255
1.132 0.171 2.495 255 255 255
-0.006 0.023 0.613 255 255 255
-0.086 -1.043 2.245 255 255 255
-0.35 0.001 0.505 255 255 255
0.272 -0.115 1.244 255 255 255
-1.201 -1.497 2.503 255 255 255
-0.273 0.079 0.501 255 255 255
-0.365 -0.146 1.072 255 255 255
-0.244 0.016 0.677 255 255 255
-0.203 0.046 0.57 255 255 255
-0.902 -0.343 1.487 255 255 255
0.986 -1.499 2.046 0 0 0
0.104 0.161 0.474 255 255 255
0.073 -0.072 0.988 255 255 255
1.278 -0.044 1.797 255 255 255
0.515 -1.303 2.191 255 255 255
-0.256 -0.131 0.902 255 255 255
0.464 -0.354 1.839 255 255 255
-0.487 -0.229 1.205 255 255 255
-0.131 0.028 0.658 0 0 0
0.017 0.04 0.607 0 0 0
-0.151 0.244 0.46 255 255 255
0.426 -1.028 2.295 255 255 255
0.034 0.165 0.47 255 255 255
-0.263 -0.911 2.319 255 255 255
0.683 -0.648 2.354 255 255 255
0.15 -0.132 1.249 255 255 255
0.922 -0.326 2.409 255 255 255
-0.077 -0.131 1.094 255 255 255
0.888 -1.425 2.078 255 255 255
0.128 0.17 0.465 255 255 255
-0.135 0.073 0.532 255 255 255
-0.775 -1.406 2.416 255 255 255
-0.002 0.116 0.436 0 0 0
-0.029 0.223 0.443 255 255 255
-1.849 -0.652 2.567 255 255 255
-0.081 0.244 0.453 255 255 255
-0.402 -0.806 2.383 0 0 0
0.072 0.109 0.505 0 0 0
-1.609 -1.068 2.69 255 255 255
0.161 0.118 0.548 255 255 255
-0.123 0.192 0.457 255 255 255
-0.725 -0.316 1.427 0 0 0
0.009 0.175 0.465 0 0 0
-0.51 -0.142 0.979 255 255 255
0.081 0.163 0.473 255 255 255
-0.154 -0.058 0.903 255 255 255
0.154 -0.877 2.25 255 255 255
-0.166 0.014 0.664 255 255 255
1.132 -0.077 2.447 255 255 255
-0.333 -0.01 0.563 255 255 255
0.166 0.163 0.471 0 0 0
-0.515 -0.074 1.023 0 0 0
0 0.062 0.468 0 0 0
0.481 -1.319 2.192 255 255 255
-0.008 0.123 0.45 255 255 255
0.337 0.016 0.961 255 255 255
-0.078 0.074 0.575 0 0 0
-0.108 0.191 0.458 255 255 255
0.533 -1.467 2.142 255 255 255
0.414 -1.409 2.177 255 255 255
0.11 -1.454 2.231 255 255 255
-0.093 -1.655 2.204 0 0 0
-0.074 0.036 0.684 255 255 255
-0.392 -0.685 2.346 255 255 255
0.054 0.156 0.483 255 255 255
0.014 0.007 0.629 255 255 255
0.084 0.096 0.493 0 0 0
-0.117 0.203 0.449 0 0 0
0.423 -1.384 2.185 255 255 255
0.836 -0.865 2.261 255 255 255
-0.893 -1.805 2.35 0 0 0
1.3 0.2 2.334 255 255 255
-0.417 -0.87 2.366 255 255 255
-0.161 0.203 0.45 0 0 0
-0.804 -0.87 2.443 255 255 255
-0.276 0.023 0.645 255 255 255
-1.008 -1.484 2.467 255 255 255
0.396 -1.067 2.287 255 255 255
-1.185 -0.955 2.663 255 255 255
0.886 -1.233 2.136 255 255 255
1.022 -0.68 2.276 255 255 255
-0.028 0.162 0.473 255 255 255
0.153 0.158 0.474 255 255 255
-0.174 -0.428 1.673 255 255 255
-1.599 -0.741 2.445 255 255 255
0.861 -1.159 2.167 255 255 255
0.283 -1.497 2.18 255 255 255
-0.056 -1.312 2.297 255 255 255
-0.309 -0.027 0.827 255 255 255
-0.478 -1.583 2.306 255 255 255
0.214 0.172 0.479 255 255 255
-0.07 0.166 0.474 255 255 255
-0.325 0.015 0.52 255 255 255
0.054 0.084 0.484 0 0 0
0.182 -0.353 1.888 255 255 255
0.009 0.049 0.481 255 255 255
0.037 0.208 0.447 0 0 0
0.079 -0.151 1.24 255 255 255
1.016 -0.248 2.413 255 255 255
0.811 -0.39 2.414 255 255 255
-0.032 0.165 0.472 255 255 255
0.204 0.068 0.641 0 0 0
0.19 0.15 0.501 255 255 255
0.687 -1.082 2.224 255 255 255
0.528 -1.002 2.284 255 255 255
0.742 -0.678 2.338 255 255 255
0.135 0.187 0.452 255 255 255
0.912 -1.482 2.061 0 0 0
0.76 -0.76 2.311 255 255 255
-1.559 -0.858 2.756 255 255 255
0.209 -0.359 1.92 0 0 0
0.872 -0.291 2.426 255 255 255
0.417 -1.564 2.13 0 0 0
0.144 0.129 0.527 0 0 0
0.293 -0.262 1.685 255 255 255
0.314 0.062 0.8 255 255 255
0.358 -1.171 2.26 255 255 255
-0.058 0.051 0.618 0 0 0
0.33 -0.322 1.708 0 0 0
-0.307 -0.353 1.67 255 255 255
-1.027 -1.316 2.53 255 255 255
0.063 0.21 0.444 0 0 0
0.156 0.181 0.455 255 255 255
-0.651 -0.364 1.622 255 255 255
-0.673 -0.421 1.602 255 255 255
-0.034 0.109 0.505 0 0 0
1.007 -0.243 2.418 255 255 255
0.01 0.047 0.514 255 255 255
0.751 -1.596 2.058 255 255 255
1.017 -0.715 2.272 255 255 255
-0.027 0.139 0.504 255 255 255
-0.302 0.005 0.723 0 0 0
-0.295 -0.086 0.888 0 0 0
0.177 -0.893 2.238 255 255 255
-0.325 0.025 0.535 255 255 255
-1.812 -0.557 2.679 255 255 255
0.508 -1.152 2.237 255 255 255
0.206 0.064 0.642 0 0 0
-1.754 -0.593 2.658 0 0 0
0.155 0.211 0.441 0 0 0
0.15 -1.562 2.187 255 255 255
0.158 0.199 0.445 0 0 0
-0.112 0.168 0.47 255 255 255
-0.221 0.167 0.48 255 255 255
-0.058 0.003 0.779 255 255 255
