ply
format ascii 1.0
comment Created by Open3D
element vertex 1621
property double x
property double y
property double z
property uchar red
property uchar green
property uchar blue
end_header
-0.095 0.218 0.449 0 0 0
0.078 -0.359 1.7 255 255 255
0.17 -0.784 2.29 0 0 0
0.148 -0.027 0.973 0 0 0
-1.773 -0.407 2.448 255 255 255
-0.048 0.122 0.502 255 255 255
-0.262 0.108 0.545 0 0 0
-0.177 -0.03 0.886 255 255 255
-0.28 0.079 0.513 0 0 0
-1.733 -0.753 2.515 255 255 255
0.227 0.043 0.714 255 255 255
1.417 -0.383 2.251 255 255 255
-0.088 0.235 0.454 255 255 255
1.097 -1.062 2.119 255 255 255
0.505 -0.562 2.108 0 0 0
-0.292 -0.338 1.667 255 255 255
-0.786 -0.805 2.49 255 255 255
-0.183 -0.208 1.187 255 255 255
0.174 0.013 0.814 255 255 255
-0.25 0.134 0.521 255 255 255
-0.63 -0.41 1.611 255 255 255
0.614 -0.747 2.189 0 0 0
-0.84 -0.179 1.279 255 255 255
0.148 0.044 0.674 255 255 255
0.105 0.104 0.488 0 0 0
1.292 0.15 2.448 255 255 255
0.054 0.226 0.432 255 255 255
-1.193 -1.065 2.722 255 255 255
-1.109 -1.401 2.588 255 255 255
-0.671 -0.104 0.973 0 0 0
0.323 -1.462 2.191 255 255 255
0.124 0.211 0.435 0 0 0
-0.299 -0.753 2.411 0 0 0
0.164 0.018 0.793 255 255 255
1.411 -0.574 2.195 255 255 255
0.838 -0.837 2.257 255 255 255
0.14 -0.986 2.224 255 255 255
-0.456 -1.557 2.352 255 255 255
0.086 0.088 0.485 0 0 0
0.766 -0.608 2.261 0 0 0
0.343 -0.652 2.29 0 0 0
1.235 -0.02 2.412 255 255 255
0.094 -1.001 2.235 255 255 255
-0.193 0.173 0.474 255 255 255
-0.4 -0.053 0.779 255 255 255
-0.905 -0.753 2.623 255 255 255
0.347 0.057 0.768 0 0 0
1.425 -0.126 2.174 255 255 255
0.029 -0.057 0.928 0 0 0
-0.8 -1.068 2.617 255 255 255
-1.3 -0.773 2.813 0 0 0
0.316 -0.604 2.315 0 0 0
-1.026 -1.8 2.444 0 0 0
1.275 -0.375 2.285 255 255 255
0.136 0.19 0.444 255 255 255
-0.14 0.083 0.582 0 0 0
-0.053 0.105 0.492 0 0 0
0.563 -0.263 1.746 255 255 255
-0.912 -1.093 2.641 255 255 255
0.114 0.167 0.462 255 255 255
1.067 -1.14 2.102 255 255 255
0.09 0.135 0.491 255 255 255
0.08 -1.115 2.201 255 255 255
0.056 0.237 0.434 255 255 255
0.016 0.058 0.483 255 255 255
-0.166 0.233 0.464 255 255 255
-1.281 -1.635 2.532 255 255 255
-0.262 -0.135 1.019 0 0 0
1.382 -0.525 2.217 255 255 255
1.123 -0.715 2.22 255 255 255
0.174 0.082 0.647 255 255 255
1.235 -0.311 2.317 255 255 255
0.621 -1.503 2.104 255 255 255
0.284 0.147 0.519 255 255 255
0.231 -1.536 2.193 255 255 255
-0.189 -0.046 0.89 0 0 0
0.028 -0.973 2.258 255 255 255
1.16 0.017 2.443 255 255 255
-1.003 -1.366 2.572 255 255 255
1.235 -0.602 2.223 255 255 255
-0.011 0.069 0.604 255 255 255
-0.187 0.127 0.519 0 0 0
-0.239 -0.368 1.681 255 255 255
0.009 0.175 0.461 255 255 255
0.03 -0.063 0.965 255 255 255
0.335 -1.577 2.157 0 0 0
1.339 -0.95 2.124 255 255 255
-0.756 -0.791 2.526 255 255 255
0.05 0.156 0.478 255 255 255
-0.126 -0.074 0.953 0 0 0
0.022 0.095 0.459 255 255 255
0.415 -0.75 2.243 255 255 255
-0.129 -1.305 2.348 255 255 255
1.289 0.16 2.453 255 255 255
-0.238 0.139 0.512 255 255 255
-0.157 -0.219 1.196 255 255 255
0.011 0.157 0.471 255 255 255
0.427 -0.286 1.668 0 0 0
-0.389 -0.786 2.439 0 0 0
1.175 -0.5 2.271 255 255 255
-0.368 -1.631 2.307 255 255 255
0.794 -0.623 2.313 0 0 0
0.184 -0.701 2.313 0 0 0
1.218 -0.588 2.237 255 255 255
0.01 0.188 0.455 255 255 255
-0.417 -0.259 1.411 0 0 0
-0.811 -0.343 1.518 255 255 255
0.533 -0.418 1.853 255 255 255
-0.38 -0.361 1.769 0 0 0
1.129 -0.335 2.338 255 255 255
-0.251 -0.125 0.977 0 0 0
-0.029 -0.185 1.205 255 255 255
0.02 0.208 0.442 0 0 0
1.451 -0.571 2.188 255 255 255
-0.037 0.117 0.494 255 255 255
1.436 0.163 2.249 255 255 255
-0.038 0.199 0.451 255 255 255
-0.451 -1.634 2.323 255 255 255
-0.222 -0.052 0.894 0 0 0
0.221 0.143 0.496 0 0 0
-1.259 -0.813 2.759 0 0 0
0.276 -0.8 2.255 255 255 255
-0.326 0.017 0.511 255 255 255
0.139 0.002 0.848 255 255 255
0.068 0.09 0.47 255 255 255
0.56 -1.164 2.219 255 255 255
-0.818 -1.194 2.583 255 255 255
1.42 -0.289 2.276 255 255 255
0.206 0.19 0.444 255 255 255
-0.215 -0.995 2.314 255 255 255
-1.005 -1.795 2.442 0 0 0
-0.211 -0.941 2.33 255 255 255
-0.23 0.144 0.497 255 255 255
-0.084 0.089 0.499 0 0 0
0.059 0.007 0.631 255 255 255
-0.12 -1.639 2.247 0 0 0
-0.269 0.086 0.493 255 255 255
1.279 -0.086 2.378 255 255 255
0.097 0.203 0.442 0 0 0
-0.123 0.084 0.571 255 255 255
0.496 -1.547 2.123 0 0 0
1.337 0.006 2.394 255 255 255
-0.377 -0.991 2.371 255 255 255
-0.034 0.144 0.493 255 255 255
-0.615 -1.291 2.475 255 255 255
0.064 0.06 0.469 255 255 255
-0.221 0.11 0.531 255 255 255
-0.68 -1.596 2.423 255 255 255
1.199 -0.355 2.312 255 255 255
0.092 -0.671 2.252 255 255 255
0.186 0.15 0.476 255 255 255
-0.096 0.143 0.489 255 255 255
0.026 0.125 0.447 255 255 255
0.339 -1.121 2.288 255 255 255
-0.098 0.076 0.527 255 255 255
0.055 -1.566 2.223 255 255 255
0.113 -0.018 0.932 255 255 255
-0.15 0.017 0.654 255 255 255
-0.952 -1.018 2.67 255 255 255
-0.081 0.041 0.624 0 0 0
-0.145 0.024 0.642 0 0 0
-1.172 -0.838 2.689 255 255 255
-0.672 -0.107 0.978 0 0 0
0.123 0.226 0.421 255 255 255
-0.178 -0.393 1.686 255 255 255
1.139 -0.997 2.134 255 255 255
-0.434 -1.559 2.348 255 255 255
-0.235 0.107 0.524 255 255 255
0.073 0.074 0.47 255 255 255
-0.024 0.079 0.486 255 255 255
0.46 -1.229 2.224 255 255 255
-0.039 0.229 0.445 255 255 255
0.005 0.119 0.493 255 255 255
0.465 -0.46 1.878 255 255 255
0.095 -0.141 1.161 255 255 255
0.07 -1.498 2.24 255 255 255
-0.34 -0.822 2.405 0 0 0
0.063 0.098 0.446 255 255 255
-0.437 -1.116 2.427 0 0 0
-0.369 -0.122 1.072 255 255 255
-0.147 0.149 0.493 255 255 255
0.159 0.01 0.824 255 255 255
0.236 -0.679 2.305 0 0 0
1.081 -1.203 2.086 255 255 255
-0.136 0.061 0.586 255 255 255
-0.448 -0.131 0.982 255 255 255
0.262 0.032 0.769 255 255 255
-0.185 -0.908 2.328 255 255 255
0.031 0.22 0.436 255 255 255
-0.497 -1.59 2.355 255 255 255
-1.261 -1.534 2.555 0 0 0
0.131 0.206 0.437 0 0 0
-0.458 -0.309 1.491 0 0 0
-0.286 -0.006 0.567 255 255 255
-0.452 -0.278 1.29 255 255 255
0.212 0.114 0.545 255 255 255
-0.12 0.111 0.51 255 255 255
0.114 0.088 0.512 255 255 255
-1.046 -0.979 2.698 255 255 255
0.158 -0.026 0.952 255 255 255
-0.083 0.236 0.453 255 255 255
0.164 -1.021 2.218 255 255 255
1.455 -0.438 2.224 255 255 255
0.196 0.155 0.468 255 255 255
1.452 0.061 2.198 255 255 255
0.074 0.17 0.46 255 255 255
-0.183 0.076 0.54 255 255 255
-0.911 -1.767 2.434 0 0 0
0.652 -1.05 2.235 255 255 255
-0.346 -0.334 1.695 255 255 255
0.293 0.099 0.625 255 255 255
1.359 0.038 2.399 255 255 255
0.359 -0.068 1.112 255 255 255
0.142 0.048 0.675 255 255 255
-0.326 -1.151 2.327 0 0 0
-0.233 0.144 0.498 255 255 255
0.159 0.066 0.687 0 0 0
0.035 0.167 0.464 255 255 255
0.007 0.055 0.556 255 255 255
-0.008 0.215 0.439 255 255 255
1.301 -0.682 2.187 255 255 255
1.084 -1.073 2.124 255 255 255
0.052 0.057 0.463 255 255 255
-0.679 -1.77 2.367 0 0 0
1.457 0.131 2.223 255 255 255
0.313 -0.094 1.155 255 255 255
-1.713 -0.786 2.584 255 255 255
0.437 -0.257 1.655 0 0 0
0.072 0.081 0.472 255 255 255
0.108 0.217 0.431 255 255 255
0.755 -1.232 2.155 255 255 255
-0.699 -0.89 2.458 255 255 255
-0.078 -1.47 2.287 255 255 255
0.15 0.169 0.455 255 255 255
0.195 0.136 0.498 255 255 255
1.231 -0.252 2.338 255 255 255
-1.675 -0.943 2.663 255 255 255
1.35 0.049 2.406 255 255 255
-0.092 0.131 0.507 255 255 255
0.089 0.095 0.498 255 255 255
0.163 -0.045 0.992 255 255 255
0.143 0.155 0.469 0 0 0
0.914 -0.703 2.276 255 255 255
-0.179 -0.383 1.69 255 255 255
0.438 -0.111 1.252 255 255 255
1.071 -0.334 2.349 255 255 255
0.424 -0.69 2.225 255 255 255
-0.408 -0.062 0.985 0 0 0
-0.054 0.158 0.478 255 255 255
-1.495 -1.217 2.73 255 255 255
0.125 0.187 0.446 255 255 255
-0.288 0.021 0.52 255 255 255
0.083 0.103 0.507 0 0 0
0.204 0.13 0.506 0 0 0
0.297 -1.399 2.214 255 255 255
0.171 -1.536 2.206 255 255 255
-0.002 0.118 0.493 255 255 255
-0.149 0.053 0.566 255 255 255
-0.08 -0.475 1.691 255 255 255
0.439 -0.577 2.108 0 0 0
0.42 -1.065 2.279 255 255 255
1.124 -0.081 2.416 255 255 255
-0.212 -0.05 0.893 0 0 0
-0.442 -0.065 0.999 0 0 0
-0.729 -1.595 2.435 255 255 255
-0.348 -0.082 0.95 255 255 255
0.873 -1.292 2.106 255 255 255
-0.097 0.205 0.449 0 0 0
-0.117 -0.785 2.355 255 255 255
-0.278 0.11 0.535 0 0 0
0.272 0.125 0.55 255 255 255
-0.345 -0.833 2.405 255 255 255
-0.284 0.131 0.509 255 255 255
-0.106 0.227 0.453 255 255 255
1.503 -0.611 2.132 255 255 255
-0.561 -0.386 1.65 255 255 255
-0.204 -0.177 1.156 0 0 0
-0.114 0.126 0.523 0 0 0
-1.438 -0.792 2.847 255 255 255
0.122 0.023 0.754 255 255 255
-0.043 0.223 0.444 255 255 255
0.343 -0.982 2.175 0 0 0
-0.719 -0.212 1.268 255 255 255
-0.128 0.087 0.523 255 255 255
0.035 0.05 0.519 0 0 0
-0.54 -1.389 2.428 255 255 255
1.251 -0.142 2.369 255 255 255
-0.252 -0.068 0.886 255 255 255
-1.032 -1.841 2.445 0 0 0
0.108 0.158 0.471 255 255 255
-0.14 -0.013 0.754 255 255 255
1.446 0.291 2.415 255 255 255
-0.844 -0.402 1.682 255 255 255
0.546 -0.823 2.188 255 255 255
-0.912 -0.996 2.668 255 255 255
0.12 0.162 0.466 255 255 255
0.204 0.064 0.648 255 255 255
1.208 -0.448 2.284 255 255 255
-1.466 -1.284 2.696 255 255 255
0.401 -1.061 2.285 255 255 255
-0.217 -0.74 2.39 0 0 0
-0.205 -0.137 0.916 255 255 255
-0.608 -0.638 2.538 0 0 0
0.098 0.114 0.498 0 0 0
-1.755 -0.433 2.518 255 255 255
0.032 -1.14 2.186 255 255 255
0.049 -0.062 0.918 0 0 0
-1.732 -0.581 2.566 255 255 255
-0.073 0.072 0.55 255 255 255
-0.139 0.176 0.471 255 255 255
0.151 0.228 0.42 255 255 255
0.118 -0.065 1.053 0 0 0
0.151 0.071 0.699 0 0 0
-0.134 0.132 0.52 0 0 0
-0.647 -0.227 1.23 0 0 0
-0.149 -0.175 1.134 255 255 255
1.279 -0.705 2.185 255 255 255
-0.997 -1.232 2.615 255 255 255
0.116 0.002 0.842 255 255 255
0.653 -0.998 2.254 255 255 255
-0.183 0.191 0.463 255 255 255
0.208 0.173 0.455 255 255 255
-0.487 -0.253 1.21 255 255 255
1.467 -0.409 2.227 255 255 255
-0.15 -1.357 2.341 255 255 255
1.422 0.006 2.231 255 255 255
0.683 -1.292 2.151 255 255 255
-0.088 -0.343 1.674 255 255 255
-0.201 -0.825 2.362 255 255 255
-0.28 0.004 0.56 255 255 255
-0.72 -1.28 2.539 255 255 255
0.192 -1.096 2.181 0 0 0
-0.361 -0.039 0.816 255 255 255
-0.085 -0.062 0.889 255 255 255
-0.675 -0.389 1.602 255 255 255
0.722 -1.267 2.152 255 255 255
-0.288 -1.389 2.366 255 255 255
0.237 0.068 0.633 0 0 0
0.305 -0.199 1.449 255 255 255
-1.696 -0.849 2.642 255 255 255
-0.097 0.053 0.595 0 0 0
0.047 0.016 0.638 0 0 0
1.375 -0.485 2.231 255 255 255
0.028 0.034 0.535 255 255 255
-0.128 0.009 0.692 255 255 255
0.164 -0.041 0.977 255 255 255
0.244 0.04 0.733 255 255 255
0.846 -1.44 2.074 255 255 255
-0.277 0.079 0.518 0 0 0
-1.063 -1.512 2.544 255 255 255
0.184 -0.167 1.346 255 255 255
-0.411 -0.065 0.8 255 255 255
-0.469 -0.048 0.724 255 255 255
0.01 0.109 0.504 0 0 0
-0.35 -0.014 0.775 0 0 0
0.033 0.171 0.463 0 0 0
0.318 0.125 0.609 255 255 255
0.386 -0.002 0.969 255 255 255
-0.301 -0.006 0.534 255 255 255
0.705 -1.108 2.205 255 255 255
0.319 -0.315 1.88 255 255 255
-0.896 -1.128 2.621 255 255 255
-0.136 0.223 0.456 255 255 255
-0.694 -1.158 2.568 255 255 255
1.345 -0.748 2.164 255 255 255
-0.1 -0.059 0.907 255 255 255
0.575 -0.34 1.828 255 255 255
0.025 -1.615 2.216 0 0 0
0.045 0.07 0.455 0 0 0
-0.227 0.07 0.517 255 255 255
-0.476 -0.25 1.226 255 255 255
-0.327 -0.005 0.51 0 0 0
0.255 -1.519 2.194 255 255 255
-1.307 -1.009 2.733 255 255 255
-0.194 0.046 0.622 0 0 0
-0.686 -1.808 2.355 0 0 0
1.105 -0.3 2.351 255 255 255
-0.33 0.011 0.508 255 255 255
0.914 -0.608 2.307 255 255 255
-0.196 -0.114 0.893 255 255 255
-0.125 0.175 0.469 255 255 255
-0.341 -0.237 1.365 255 255 255
-0.335 -0.21 1.318 0 0 0
0.335 -0.879 2.216 255 255 255
-0.109 -0.13 1.068 0 0 0
1.468 -0.287 2.088 255 255 255
-0.261 -0.007 0.748 0 0 0
0.26 -0.049 1.008 255 255 255
0.704 -0.961 2.247 255 255 255
-0.188 0.097 0.532 0 0 0
-0.628 -1.748 2.325 0 0 0
-0.072 0.071 0.557 255 255 255
0.111 0.233 0.423 255 255 255
-0.015 0.145 0.497 255 255 255
0.217 0.127 0.519 0 0 0
0.7 -0.914 2.264 255 255 255
-0.055 -0.345 1.684 0 0 0
1.473 -0.547 2.186 255 255 255
0.09 0.127 0.491 255 255 255
0.043 0.059 0.46 255 255 255
1.457 -0.014 2.187 255 255 255
-0.062 0.024 0.689 255 255 255
0.047 -0.956 2.267 255 255 255
0.32 -0.015 0.936 255 255 255
-0.102 -1.066 2.269 255 255 255
-0.013 0.118 0.494 255 255 255
-0.687 -1.605 2.425 255 255 255
-0.318 -0.137 1.044 255 255 255
0.851 -0.56 2.335 255 255 255
1.403 -0.408 2.247 255 255 255
0.161 0.137 0.493 255 255 255
1.286 -0.797 2.156 255 255 255
-0.621 -1.293 2.478 255 255 255
-0.087 0.116 0.507 255 255 255
0.184 -0.035 0.984 255 255 255
1.213 -1.098 2.098 255 255 255
-0.308 0.081 0.494 255 255 255
-0.858 -1.23 2.583 255 255 255
0.033 -0.856 2.295 255 255 255
1.15 -0.086 2.41 255 255 255
0.08 -0.852 2.283 255 255 255
-0.237 0.147 0.497 255 255 255
-0.881 -1.593 2.469 255 255 255
-0.167 -0.094 0.939 255 255 255
-0.896 -0.777 2.626 255 255 255
-1.462 -1.049 2.767 255 255 255
1.141 -0.04 2.428 255 255 255
0.997 -0.435 2.335 255 255 255
0.026 0.217 0.437 255 255 255
-0.528 -0.289 1.301 255 255 255
0.277 -0.769 2.269 255 255 255
-0.407 -0.065 0.82 255 255 255
0.125 0.167 0.46 255 255 255
0.267 -1.299 2.253 255 255 255
-0.043 0.069 0.583 255 255 255
-0.046 -0.01 0.762 255 255 255
1.239 0.318 2.142 255 255 255
-0.341 -0.035 0.603 255 255 255
-0.15 0.045 0.574 255 255 255
0.112 0.088 0.511 255 255 255
0.949 -0.334 2.379 255 255 255
0.049 0.214 0.436 0 0 0
0.065 0.197 0.447 255 255 255
0.699 -0.79 2.151 0 0 0
-0.183 -0.228 1.203 255 255 255
-0.309 -0.749 2.414 0 0 0
0.265 -0.597 2.329 0 0 0
-0.215 0.07 0.519 255 255 255
-0.135 0.064 0.595 255 255 255
-0.014 0.148 0.492 255 255 255
0.058 0.212 0.438 0 0 0
-1.443 -0.905 2.283 255 255 255
0.02 0.239 0.439 255 255 255
-0.037 0.183 0.461 255 255 255
0 -0.058 1.017 0 0 0
-0.162 -0.751 2.378 0 0 0
1.401 -0.584 2.197 255 255 255
0.042 0.099 0.424 0 0 0
-0.327 0.037 0.507 255 255 255
-0.014 -0.035 0.836 255 255 255
-0.112 0.173 0.47 0 0 0
-0.02 0.154 0.479 255 255 255
-0.701 -0.305 1.478 0 0 0
-0.138 0.211 0.454 0 0 0
0.433 -0.558 2.105 255 255 255
0 0.156 0.474 255 255 255
-0.285 -0.338 1.666 255 255 255
-0.127 0.058 0.617 255 255 255
0.662 -1.357 2.143 255 255 255
0.523 -0.412 1.847 255 255 255
1.002 -1.021 2.157 255 255 255
1.488 -0.488 2.028 255 255 255
-0.117 0.217 0.453 0 0 0
0.85 -0.584 2.328 255 255 255
0.116 0.121 0.493 0 0 0
-0.03 0.068 0.602 255 255 255
-1.145 -1.529 2.567 255 255 255
-0.265 0.02 0.676 0 0 0
-0.144 0.152 0.488 255 255 255
1.268 -0.976 2.119 255 255 255
0.086 0.086 0.483 0 0 0
0.121 -1.53 2.218 255 255 255
0.073 0.029 0.581 0 0 0
-0.097 0.242 0.458 255 255 255
0.047 0.211 0.439 0 0 0
0.228 -0.503 2.351 0 0 0
-0.048 0.053 0.614 0 0 0
-0.225 0.014 0.666 255 255 255
-0.448 -0.138 1.002 255 255 255
-0.174 0.258 0.473 255 255 255
1.053 -0.604 2.273 255 255 255
0.024 0.145 0.486 255 255 255
0.178 0.09 0.623 255 255 255
0.145 -1.489 2.225 255 255 255
-0.052 0.033 0.622 255 255 255
0.125 0.192 0.444 255 255 255
-0.562 -1.694 2.332 0 0 0
0.499 -0.396 1.831 255 255 255
0.04 0.116 0.427 0 0 0
0.031 0.202 0.445 0 0 0
-0.102 -0.004 0.736 255 255 255
0.074 0.16 0.471 255 255 255
-0.135 0.183 0.465 255 255 255
-0.048 0.197 0.453 255 255 255
-0.252 -0.033 0.856 255 255 255
0.145 0.147 0.476 255 255 255
0.65 -1.26 2.175 255 255 255
0.774 -0.955 2.189 0 0 0
0.427 -1.55 2.136 0 0 0
1.384 -0.641 2.179 255 255 255
-0.3 0.081 0.504 255 255 255
0.811 -0.965 2.22 255 255 255
-0.475 -0.054 0.73 255 255 255
-0.522 -0.658 2.482 255 255 255
0.179 0.083 0.643 255 255 255
1.03 -1.219 2.089 255 255 255
0.157 0.182 0.445 255 255 255
-0.337 -0.595 2.355 255 255 255
0.186 -0.025 0.965 255 255 255
1.487 -0.285 2.26 255 255 255
0.257 -1.282 2.256 255 255 255
0.399 -0.848 2.208 255 255 255
0.612 -0.769 2.178 0 0 0
-1.316 -1.555 2.564 255 255 255
0.713 -1.441 2.107 255 255 255
-0.272 -0.984 2.336 255 255 255
-0.126 0.232 0.459 255 255 255
-1.292 -0.811 2.788 0 0 0
-0.476 -1.723 2.303 0 0 0
0.055 -0.019 0.865 255 255 255
-0.098 0.015 0.722 0 0 0
-0.042 0.053 0.613 255 255 255
0.171 0.087 0.643 255 255 255
0.275 -0.877 2.23 255 255 255
-0.078 0.053 0.601 255 255 255
-0.158 0.131 0.518 255 255 255
1.236 -0.632 2.219 255 255 255
-0.422 -1.508 2.365 255 255 255
-0.431 -0.748 2.45 0 0 0
0.415 -0.308 1.804 0 0 0
0.02 0.212 0.439 0 0 0
1.406 -0.153 2.324 255 255 255
-0.158 0.179 0.47 255 255 255
0.094 -1.054 2.221 255 255 255
1.077 -0.758 2.22 255 255 255
-0.549 -0.671 2.505 0 0 0
0.197 -1.636 2.165 0 0 0
-0.197 0.206 0.461 0 0 0
0.099 0.158 0.474 255 255 255
0.14 0.144 0.489 255 255 255
0.127 0.234 0.421 255 255 255
-0.217 0.102 0.54 0 0 0
-0.155 0.081 0.569 255 255 255
-0.161 0.197 0.456 255 255 255
0.302 -1.326 2.235 255 255 255
0.309 0.044 0.74 255 255 255
-0.147 0.08 0.574 255 255 255
0.064 0.219 0.431 255 255 255
0.151 0.215 0.431 255 255 255
-0.029 0.082 0.482 255 255 255
1.036 -0.378 2.343 255 255 255
0.04 0.2 0.447 0 0 0
0.265 0.056 0.667 255 255 255
1.388 -0.51 2.219 255 255 255
-1.275 -1.641 2.531 255 255 255
-0.049 0.157 0.479 255 255 255
0.025 0.221 0.436 255 255 255
0.531 -1.401 2.158 255 255 255
0.489 -0.303 1.737 0 0 0
-0.309 -0.028 0.858 255 255 255
1.111 -0.162 2.398 255 255 255
-0.042 -0.136 1.102 255 255 255
0.15 0.178 0.448 255 255 255
1.429 -0.482 2.218 255 255 255
-0.413 -1.05 2.359 0 0 0
-0.187 -1.417 2.333 255 255 255
-0.14 -1.464 2.307 255 255 255
0.361 -0.183 1.405 255 255 255
-0.339 -0.126 1.06 0 0 0
-0.23 0.026 0.647 255 255 255
0.161 -0.009 0.891 255 255 255
-0.103 0.095 0.504 255 255 255
0.073 0.088 0.477 255 255 255
0.175 -0.677 2.32 0 0 0
0.691 -1.094 2.213 255 255 255
0.064 0.085 0.463 0 0 0
-0.019 0.216 0.44 255 255 255
0.453 -1.429 2.164 255 255 255
0.676 -1.079 2.22 255 255 255
0.203 -0.136 1.233 255 255 255
-0.775 -0.842 2.503 255 255 255
0.298 0.042 0.742 255 255 255
-1.043 -1.509 2.544 255 255 255
-1.716 -0.724 2.613 255 255 255
-0.318 0.02 0.512 255 255 255
0.129 0.069 0.652 255 255 255
-0.047 0.229 0.447 255 255 255
-0.009 0.189 0.455 255 255 255
-0.074 -0.081 0.954 255 255 255
-0.388 -0.713 2.408 255 255 255
-0.325 0.056 0.507 255 255 255
0.056 0.156 0.479 255 255 255
-0.063 0.148 0.485 255 255 255
-0.106 0.109 0.501 255 255 255
-0.034 -0.385 1.658 255 255 255
-0.307 -0.028 0.861 255 255 255
0.064 0.061 0.467 0 0 0
-0.128 0.173 0.471 255 255 255
-0.066 0.151 0.483 255 255 255
0.004 0.153 0.481 255 255 255
-0.468 -0.223 1.207 255 255 255
1.276 -0.56 2.229 255 255 255
0.274 -1.472 2.2 255 255 255
-0.088 -0.801 2.343 255 255 255
0.647 -0.943 2.267 255 255 255
0.894 -0.898 2.219 255 255 255
-0.343 -0.039 0.646 255 255 255
-0.031 0.151 0.483 255 255 255
0.003 0.085 0.494 0 0 0
0.185 -1.412 2.242 255 255 255
0.01 0.12 0.493 255 255 255
1.354 -0.021 1.912 255 255 255
-0.19 0.052 0.559 255 255 255
-0.836 -0.317 1.481 255 255 255
-0.224 0.097 0.537 0 0 0
0.049 0.103 0.421 0 0 0
-1.005 -1.339 2.586 255 255 255
-0.847 -1.367 2.542 255 255 255
-0.317 -1.117 2.305 0 0 0
0.015 0.007 0.605 255 255 255
0.782 -1.349 2.113 255 255 255
0.016 0.09 0.504 255 255 255
0.061 0.204 0.445 0 0 0
1.491 -0.25 2.096 255 255 255
0.083 0.166 0.463 255 255 255
0.038 -0.838 2.301 255 255 255
0.152 0.18 0.447 255 255 255
0.269 0.131 0.541 255 255 255
-0.245 0.106 0.543 0 0 0
0 -0.108 0.992 0 0 0
1.301 -0.117 2.362 255 255 255
0.351 -0.407 1.851 255 255 255
-0.475 -1.182 2.476 255 255 255
0.142 0.192 0.44 255 255 255
-0.132 -0.113 0.993 255 255 255
-0.284 0.067 0.508 255 255 255
1.069 -0.671 2.247 255 255 255
1.309 -0.779 2.157 255 255 255
-0.189 0.22 0.466 0 0 0
0.041 0.062 0.46 255 255 255
1.133 -0.769 2.205 255 255 255
0.111 0.214 0.433 255 255 255
-0.993 -1.639 2.494 255 255 255
-0.355 -1.006 2.355 255 255 255
-0.025 0.232 0.445 255 255 255
-1.185 -1.147 2.696 255 255 255
0.079 0.193 0.449 255 255 255
-1.026 -0.733 2.628 0 0 0
-0.215 0.169 0.479 255 255 255
-0.291 -0.032 0.871 0 0 0
-0.08 0.151 0.483 255 255 255
-0.197 0.128 0.517 255 255 255
-0.235 0.049 0.628 0 0 0
-0.317 0.07 0.505 255 255 255
1.181 -0.708 2.211 255 255 255
0.106 0.214 0.433 255 255 255
-0.337 -0.005 0.503 255 255 255
0.185 -1.396 2.247 255 255 255
-1.158 -1.83 2.475 0 0 0
-0.156 -1.036 2.286 255 255 255
0.328 0.095 0.68 255 255 255
-0.129 0.203 0.451 0 0 0
0.11 0.17 0.457 255 255 255
0.231 0.017 0.815 255 255 255
0.009 -0.818 2.317 255 255 255
0.332 0.104 0.669 255 255 255
0.173 0.187 0.443 255 255 255
0.209 0.182 0.451 255 255 255
-0.033 -0.657 2.288 255 255 255
-0.535 -0.724 2.482 255 255 255
-0.422 -0.242 1.266 255 255 255
0.166 0.048 0.666 0 0 0
0.724 -0.88 2.197 255 255 255
-0.645 -0.846 2.47 255 255 255
0.075 0.166 0.462 255 255 255
-0.078 -0.05 0.869 255 255 255
0.264 0.095 0.635 0 0 0
-0.511 -0.238 1.18 255 255 255
0.151 -1.576 2.197 255 255 255
-0.341 0.019 0.507 255 255 255
0.172 0.026 0.759 255 255 255
0.143 0.181 0.448 255 255 255
-0.283 0.002 0.77 0 0 0
0.146 -0.016 0.924 255 255 255
-0.009 0.02 0.724 255 255 255
-1.408 -0.854 2.818 255 255 255
-0.209 -0.024 0.749 255 255 255
-0.231 -0.988 2.324 255 255 255
1.208 -0.539 2.25 255 255 255
-1.201 -1.887 2.476 0 0 0
1.089 -0.127 2.415 255 255 255
-1.324 -1.036 2.733 255 255 255
-0.719 -0.223 1.285 255 255 255
-0.707 -1.692 2.399 255 255 255
1.142 -0.754 2.204 255 255 255
0.073 0.134 0.475 255 255 255
-0.105 0.044 0.635 0 0 0
-0.044 0.209 0.444 0 0 0
1.346 0.027 2.399 255 255 255
0.468 -0.815 2.206 255 255 255
1.154 -1.035 2.116 255 255 255
-0.201 0.124 0.522 0 0 0
0.079 -1.269 2.295 0 0 0
-0.012 -0.149 1.148 255 255 255
-0.281 -1.097 2.302 255 255 255
1.123 -0.858 2.174 255 255 255
0.27 0.025 0.799 255 255 255
0.052 -0.786 2.315 0 0 0
0.065 0.083 0.465 0 0 0
0.136 -1.476 2.234 255 255 255
-0.195 0.033 0.638 255 255 255
-0.763 -1.254 2.556 255 255 255
-0.085 0.09 0.49 0 0 0
1.454 -0.458 2.038 255 255 255
-0.03 0.131 0.514 0 0 0
-0.086 0.105 0.491 255 255 255
-0.272 -1.435 2.346 255 255 255
0.211 0.059 0.645 0 0 0
0.722 -0.919 2.231 255 255 255
-0.049 -0.062 0.874 255 255 255
-0.146 0.162 0.478 0 0 0
-0.32 -0.836 2.4 255 255 255
-0.014 -0.438 1.675 255 255 255
-0.076 0.052 0.605 255 255 255
1.167 -0.769 2.193 255 255 255
0.2 0.125 0.512 255 255 255
1.426 -0.244 2.289 255 255 255
-0.237 0.111 0.529 255 255 255
0.027 0.113 0.435 255 255 255
-0.242 0.055 0.535 255 255 255
-0.093 0.085 0.501 255 255 255
0.077 0.018 0.691 255 255 255
1.307 -0.895 2.135 255 255 255
-0.313 -0.188 1.246 0 0 0
-0.932 -1.096 2.646 255 255 255
0.551 -0.787 2.2 255 255 255
0.2 0.158 0.465 255 255 255
1.162 -0.05 2.422 255 255 255
0.046 -0.04 0.885 255 255 255
-1.77 -0.571 2.391 255 255 255
-0.688 -1.19 2.555 255 255 255
1.503 -0.589 2.175 255 255 255
-0.166 0.117 0.523 255 255 255
-0.252 0.137 0.518 255 255 255
0.613 -1.027 2.251 255 255 255
0.261 -1.131 2.245 0 0 0
-0.237 0.06 0.524 255 255 255
-0.533 -0.387 1.691 255 255 255
0.255 0.017 0.819 255 255 255
0.019 0.047 0.534 255 255 255
1.277 0.017 2.411 255 255 255
0.053 0.012 0.611 0 0 0
-0.117 -0.072 0.955 0 0 0
-0.098 -0.181 1.162 255 255 255
0.556 -1.205 2.21 255 255 255
0.974 -1.183 2.115 255 255 255
-0.46 -0.81 2.453 0 0 0
0.937 -0.78 2.248 255 255 255
-0.2 0.168 0.482 255 255 255
-0.512 -1.473 2.395 255 255 255
0.136 -0.755 2.296 0 0 0
1.489 -0.537 2.183 255 255 255
0.19 0.009 0.835 255 255 255
0.136 0.225 0.421 255 255 255
0.096 0.17 0.458 0 0 0
-0.072 -1.389 2.311 255 255 255
0.123 -0.054 1.042 0 0 0
-0.503 -1.657 2.329 255 255 255
0.132 0.222 0.424 255 255 255
-1.662 -0.674 2.758 255 255 255
-0.292 0.092 0.486 255 255 255
-0.367 -0.761 2.43 0 0 0
-0.103 0.044 0.635 0 0 0
0.559 -0.274 1.746 0 0 0
-0.089 0.22 0.449 255 255 255
-0.149 0.243 0.463 255 255 255
-0.149 0.189 0.461 255 255 255
0.121 0.117 0.502 0 0 0
0.37 -0.35 1.877 0 0 0
0.115 0.127 0.492 0 0 0
0.07 0.165 0.465 255 255 255
0.602 -0.397 1.853 255 255 255
-0.007 0.18 0.463 255 255 255
-0.305 -1.429 2.356 255 255 255
0.274 -0.063 1.079 255 255 255
0.323 0.037 0.768 255 255 255
1.012 -1.41 2.037 255 255 255
-1.462 -0.698 2.492 255 255 255
-0.573 -1.181 2.499 255 255 255
0.804 -0.803 2.274 255 255 255
-0.058 0.2 0.45 0 0 0
1.021 -1.03 2.147 255 255 255
-0.978 -1.201 2.624 255 255 255
-0.439 -0.309 1.482 0 0 0
0.167 0.156 0.467 255 255 255
0.69 -0.961 2.25 255 255 255
-0.126 0.09 0.517 255 255 255
-0.459 -0.185 1.082 255 255 255
-0.338 0.024 0.506 255 255 255
1.079 -0.686 2.24 255 255 255
0.18 0.012 0.82 255 255 255
0.025 -1.391 2.284 255 255 255
0.114 0.194 0.445 255 255 255
0.676 -0.611 2.194 0 0 0
0.143 0.016 0.795 255 255 255
0.292 -0.031 0.965 255 255 255
-0.097 0.047 0.613 0 0 0
0.169 -0.043 0.983 255 255 255
-0.902 -1.589 2.481 255 255 255
0.262 -1.196 2.282 255 255 255
-1.321 -1.66 2.536 255 255 255
0.264 0.141 0.524 255 255 255
-0.312 0.015 0.515 0 0 0
-1.285 -1.036 2.723 0 0 0
-0.088 -0.068 0.901 255 255 255
-1.193 -0.941 2.801 255 255 255
0.123 0.117 0.505 0 0 0
-0.084 0.235 0.453 255 255 255
0.136 -1.091 2.194 255 255 255
-0.314 -1.017 2.347 255 255 255
-1.129 -1.718 2.502 255 255 255
-1.294 -1.255 2.649 0 0 0
-1.747 -0.519 2.506 255 255 255
0.113 0.093 0.488 255 255 255
0.057 0.129 0.444 0 0 0
0.241 -0.129 1.259 255 255 255
0.098 0.194 0.447 255 255 255
0.038 0.082 0.451 255 255 255
-0.138 0.07 0.578 255 255 255
0.034 0.162 0.467 255 255 255
1.187 -0.916 2.148 255 255 255
0.753 -1.465 2.087 255 255 255
0.331 -0.212 1.498 255 255 255
-0.029 0.217 0.441 255 255 255
0.863 -1.203 2.14 255 255 255
1.031 -0.839 2.21 255 255 255
-0.038 0.079 0.554 255 255 255
1.411 -0.009 2.368 255 255 255
1.027 -0.962 2.167 255 255 255
0.405 -0.47 1.876 255 255 255
-1.657 -0.817 2.712 255 255 255
0.509 -0.461 1.892 255 255 255
0.049 0.059 0.461 255 255 255
-0.474 -0.746 2.457 255 255 255
0.712 -0.929 2.177 0 0 0
-0.185 0.216 0.462 0 0 0
-0.003 0.085 0.488 255 255 255
-0.015 0.179 0.466 255 255 255
0.071 0.08 0.471 255 255 255
0.103 0.151 0.476 0 0 0
0.138 0.193 0.441 255 255 255
0.077 -0.04 0.922 255 255 255
0.701 -0.798 2.296 255 255 255
-0.128 0.036 0.597 255 255 255
0.246 0.153 0.49 255 255 255
0.235 -0.747 2.283 255 255 255
0.034 0.002 0.637 0 0 0
0.954 -1.349 2.067 255 255 255
0.19 0.133 0.508 0 0 0
0.135 0.226 0.421 255 255 255
-0.016 -0.104 1.004 0 0 0
1.106 -0.192 2.387 255 255 255
-0.323 -0.001 0.786 0 0 0
-0.607 -0.817 2.472 255 255 255
-0.031 0.054 0.611 255 255 255
0.375 -0.022 1.005 255 255 255
0.173 0.17 0.453 255 255 255
0.069 -1.26 2.29 0 0 0
-0.029 -0.966 2.279 255 255 255
1.049 -1.16 2.104 255 255 255
0.04 0.181 0.458 255 255 255
-0.568 -1.397 2.426 255 255 255
0.005 -0.191 1.243 255 255 255
-0.384 -0.12 1.074 0 0 0
-0.998 -1.343 2.581 255 255 255
-1.154 -1.08 2.701 255 255 255
1.161 -0.31 2.334 255 255 255
-0.051 0.019 0.712 255 255 255
0.225 -0.436 2.188 255 255 255
-0.688 -0.117 0.983 255 255 255
-0.079 0.182 0.462 255 255 255
-0.128 0.057 0.614 255 255 255
-0.158 0.224 0.461 255 255 255
1.182 -0.688 2.216 255 255 255
0.033 -0.931 2.272 255 255 255
0.494 -1.473 2.148 255 255 255
0.192 0.044 0.688 255 255 255
-0.263 -0.379 1.697 255 255 255
-0.107 0.029 0.659 255 255 255
-0.102 -0.756 2.362 0 0 0
-0.016 0.165 0.472 255 255 255
-0.232 0.056 0.531 255 255 255
-0.27 -0.031 0.855 255 255 255
0.069 0.13 0.461 255 255 255
0.208 -1.257 2.28 255 255 255
0.163 0.116 0.531 255 255 255
0.052 0.004 0.624 255 255 255
0.106 0.161 0.468 255 255 255
0.747 -1.067 2.203 255 255 255
0.048 0.205 0.443 0 0 0
-0.272 0.097 0.504 255 255 255
1.094 -1.151 2.094 255 255 255
0.177 -0.128 1.209 255 255 255
0.075 -0.91 2.27 255 255 255
-0.102 -0.972 2.292 255 255 255
-0.061 0.237 0.451 255 255 255
-0.034 0.12 0.495 255 255 255
0.203 -0.023 0.969 255 255 255
-0.071 -0.073 0.939 0 0 0
-0.07 0.137 0.502 255 255 255
0.378 -0.411 1.848 255 255 255
0.233 0.13 0.52 255 255 255
0.002 0.05 0.558 0 0 0
-0.05 0.165 0.476 255 255 255
0.697 -1.409 2.119 255 255 255
-0.189 0.152 0.487 255 255 255
0.391 -0.345 1.845 0 0 0
-0.286 -1.048 2.316 255 255 255
-0.225 -0.089 0.877 255 255 255
0.06 0.084 0.462 0 0 0
-0.148 0.054 0.566 255 255 255
0.945 -0.793 2.238 255 255 255
-0.308 0.011 0.516 255 255 255
-0.12 0.112 0.51 255 255 255
-1.718 -0.709 2.571 255 255 255
1.256 0.275 2.136 255 255 255
-0.056 -1.295 2.321 0 0 0
0.315 -1.251 2.249 255 255 255
0.314 -1.513 2.181 255 255 255
0.095 -1.467 2.242 255 255 255
0.188 0.11 0.558 255 255 255
-0.199 0.129 0.516 255 255 255
-0.318 0.063 0.509 255 255 255
-0.122 -1.135 2.25 255 255 255
0.063 0.029 0.597 0 0 0
-0.117 0.084 0.531 255 255 255
-0.599 -0.386 1.641 0 0 0
0.256 -0.611 2.328 0 0 0
0.619 -1.189 2.201 255 255 255
-1.517 -1.307 2.702 255 255 255
0.058 0.184 0.455 255 255 255
-1.369 -1.152 2.708 255 255 255
-0.394 -0.215 1.326 0 0 0
-0.105 0.145 0.488 255 255 255
0.031 0.096 0.437 255 255 255
0.453 -1.435 2.163 255 255 255
-0.032 0.009 0.751 255 255 255
-0.21 -0.36 1.697 255 255 255
-0.038 0.147 0.488 255 255 255
-0.152 0.151 0.486 255 255 255
1.476 -0.121 2.146 255 255 255
0.12 0.087 0.591 255 255 255
-0.544 -1.241 2.474 255 255 255
0.111 0.019 0.77 255 255 255
0.211 0.099 0.584 255 255 255
0.759 -1.191 2.164 255 255 255
0.004 -1.453 2.272 255 255 255
-0.799 -0.303 1.509 0 0 0
-0.729 -1.579 2.442 255 255 255
-0.508 -0.798 2.461 0 0 0
-0.221 -1.015 2.31 255 255 255
0.695 -1.488 2.095 255 255 255
0.41 -0.589 2.122 0 0 0
-0.065 -0.411 1.667 255 255 255
1.245 0.158 2.429 0 0 0
1.238 -0.805 2.164 255 255 255
0.39 -1.359 2.209 255 255 255
-0.2 0.042 0.631 0 0 0
-0.159 -0.35 1.704 0 0 0
-1.032 -1.853 2.44 0 0 0
-0.283 0.012 0.542 255 255 255
-0.332 -0.184 1.256 0 0 0
-0.092 -0.901 2.314 255 255 255
-0.167 0.078 0.558 255 255 255
-0.247 0.034 0.644 255 255 255
0.231 0.162 0.472 255 255 255
-0.062 0.096 0.486 255 255 255
0.225 0.047 0.691 255 255 255
-0.659 -1.419 2.451 255 255 255
1.162 -0.256 2.352 255 255 255
0.501 -1.552 2.12 0 0 0
-0.668 -0.844 2.475 255 255 255
-0.006 -1.496 2.258 255 255 255
-0.958 -1.896 2.406 255 255 255
-0.226 0.155 0.49 255 255 255
1.402 -0.667 2.173 255 255 255
-0.067 0.115 0.497 255 255 255
0.484 -1.085 2.265 255 255 255
-0.044 0.067 0.589 255 255 255
0.328 0.03 0.794 255 255 255
-0.377 -0.253 1.388 255 255 255
0.014 0.08 0.512 0 0 0
-0.286 0.019 0.688 0 0 0
0.213 0.16 0.467 255 255 255
-0.327 -0.154 1.071 255 255 255
0.203 -0.717 2.3 0 0 0
0.155 0.067 0.697 0 0 0
-0.098 -1.34 2.335 255 255 255
0.339 -0.91 2.204 255 255 255
-0.664 -1.275 2.498 255 255 255
1.35 -0.857 2.135 255 255 255
0.327 0.106 0.66 255 255 255
1.207 -0.515 2.262 255 255 255
0.271 -0.136 1.277 255 255 255
-0.134 -0.156 1.168 255 255 255
-0.533 -1.24 2.472 255 255 255
-0.177 0.168 0.48 255 255 255
-0.113 0.132 0.51 255 255 255
-0.002 -0.083 1.022 0 0 0
0.338 -0.969 2.183 0 0 0
1.168 -0.967 2.131 255 255 255
-1.192 -1.112 2.707 255 255 255
-0.216 0.043 0.63 0 0 0
0.928 -0.431 2.356 255 255 255
-1.074 -1.84 2.455 0 0 0
-0.828 -0.437 1.724 255 255 255
0.192 -0.192 1.427 255 255 255
-0.117 -0.2 1.187 255 255 255
-0.121 -0.444 1.697 255 255 255
-0.086 0.06 0.576 255 255 255
-1.007 -1.487 2.539 255 255 255
-0.327 0.008 0.733 0 0 0
-0.71 -0.166 1.193 255 255 255
0.318 0.024 0.816 255 255 255
-0.135 0.159 0.477 255 255 255
0.156 0.146 0.481 255 255 255
-0.028 0.153 0.482 255 255 255
0.604 -1.524 2.109 0 0 0
-0.343 -0.138 1.064 0 0 0
-0.464 -1.251 2.453 255 255 255
-1.762 -0.553 2.425 255 255 255
0.073 -0.408 1.728 255 255 255
-0.311 -0.019 0.554 255 255 255
0.242 -0.04 0.995 255 255 255
-0.287 -1.134 2.296 0 0 0
1.372 -0.832 2.148 255 255 255
0.904 -0.688 2.28 255 255 255
0.183 0.044 0.677 255 255 255
0.108 -0.963 2.244 255 255 255
1.219 -0.477 2.268 255 255 255
-0.184 -1.651 2.261 0 0 0
1.371 -0.264 2.302 255 255 255
0.012 -0.065 1.031 0 0 0
1.202 -0.433 2.287 255 255 255
-0.154 0.135 0.507 255 255 255
0.09 -0.329 1.725 255 255 255
0.631 -1.464 2.12 255 255 255
-0.389 -0.313 1.511 255 255 255
0.086 0.203 0.442 0 0 0
0.299 0.024 0.81 255 255 255
0.796 -1.274 2.136 255 255 255
0.288 0.115 0.588 255 255 255
0.027 0.038 0.525 255 255 255
-0.286 0.043 0.58 255 255 255
0.053 -0.186 1.258 255 255 255
-0.157 0.086 0.529 255 255 255
-1.28 -1.277 2.642 0 0 0
0.198 0.119 0.538 255 255 255
0.328 0.117 0.64 255 255 255
-0.088 0.091 0.485 255 255 255
-0.401 -0.407 1.792 0 0 0
0.681 -0.983 2.251 255 255 255
0.813 -0.626 2.32 255 255 255
-0.419 -0.095 1.04 255 255 255
0.971 -0.532 2.314 255 255 255
-0.297 0.013 0.519 255 255 255
-0.197 0.067 0.53 255 255 255
0.025 0.174 0.46 255 255 255
-0.253 -0.367 1.676 255 255 255
0.842 -1.275 2.115 255 255 255
-0.08 -0.195 1.203 255 255 255
-0.106 0.248 0.462 255 255 255
0.672 -1.501 2.1 255 255 255
1.344 -0.014 2.384 255 255 255
0.919 -1.137 2.142 255 255 255
0.486 -1.351 2.183 255 255 255
-0.614 -0.659 2.534 0 0 0
0.061 0.15 0.481 255 255 255
-0.035 0.039 0.621 255 255 255
-0.495 -1.507 2.375 255 255 255
-1.076 -1.496 2.55 255 255 255
-0.592 -0.896 2.46 255 255 255
0.81 -1.56 2.04 0 0 0
0.905 -0.987 2.195 255 255 255
0.092 0.214 0.432 255 255 255
-0.167 0.07 0.548 255 255 255
0.345 -0.115 1.232 255 255 255
-1.686 -0.92 2.649 255 255 255
-0.137 0.061 0.578 255 255 255
-0.218 0.11 0.523 255 255 255
-0.14 0.209 0.454 0 0 0
0.886 -1.442 2.066 255 255 255
0.381 -0.066 1.113 255 255 255
0.582 -0.577 2.101 255 255 255
0.202 -0.055 1.026 255 255 255
-0.175 -0.101 0.913 255 255 255
-0.677 -0.319 1.471 0 0 0
-0.664 -0.115 1.027 255 255 255
-0.046 0.09 0.501 255 255 255
0.269 -0.406 1.871 255 255 255
0.306 0.106 0.626 255 255 255
-0.184 -0.142 0.924 255 255 255
0.941 -0.445 2.347 255 255 255
-0.145 0.011 0.679 255 255 255
-0.6 -0.289 1.384 255 255 255
0.018 0.055 0.476 255 255 255
0.338 -0.028 0.993 255 255 255
-0.088 0.149 0.484 255 255 255
0.706 -0.77 2.163 0 0 0
0.087 -0.647 2.253 255 255 255
-0.287 -0.063 0.907 255 255 255
-1.711 -0.727 2.629 255 255 255
-0.105 0.103 0.497 255 255 255
-0.423 -0.309 1.469 255 255 255
-0.726 -0.411 1.638 0 0 0
-0.011 0.083 0.483 255 255 255
-1.076 -1.044 2.695 255 255 255
-0.311 -0.003 0.516 255 255 255
1.262 -1.029 2.114 255 255 255
-0.165 0.148 0.492 255 255 255
-0.086 0.056 0.588 255 255 255
-0.959 -1.793 2.438 0 0 0
0.865 -1.368 2.082 255 255 255
0.143 0.213 0.431 255 255 255
-0.088 0.049 0.603 255 255 255
0.134 0.149 0.475 255 255 255
0.16 0.092 0.645 255 255 255
-0.053 0.146 0.487 255 255 255
-0.413 -0.031 0.635 255 255 255
0.163 0.137 0.495 255 255 255
0.046 0.191 0.452 255 255 255
-0.033 0.199 0.452 255 255 255
0.113 0.22 0.427 255 255 255
-0.031 0.161 0.476 255 255 255
0.993 -0.498 2.319 255 255 255
-0.016 0.069 0.603 255 255 255
1.454 0.098 2.124 255 255 255
0.908 -1.413 2.063 255 255 255
1.512 -0.197 2.102 255 255 255
-0.511 -1.367 2.427 255 255 255
1.23 -0.056 2.402 255 255 255
1.441 0.303 2.277 255 255 255
-0.293 0.054 0.551 255 255 255
0.142 0.138 0.495 255 255 255
0.51 -1.335 2.184 255 255 255
-0.143 0.076 0.573 255 255 255
1.231 -0.54 2.247 255 255 255
-0.018 0.015 0.734 255 255 255
0.022 0.019 0.643 0 0 0
-0.256 -1.241 2.359 0 0 0
-0.084 0.012 0.714 255 255 255
0.008 0.169 0.464 255 255 255
-0.037 0.145 0.491 255 255 255
0.049 0.162 0.467 255 255 255
0.307 0.03 0.789 255 255 255
-0.266 0.051 0.581 255 255 255
1.263 0.213 2.449 0 0 0
0.023 0.041 0.529 255 255 255
1.424 -0.674 2.167 255 255 255
-0.023 -0.077 0.881 255 255 255
-0.157 0.126 0.519 255 255 255
-0.28 -1.616 2.294 255 255 255
0.387 -0.208 1.506 255 255 255
-0.892 -0.74 2.621 255 255 255
-0.217 0.059 0.53 255 255 255
-0.496 -0.902 2.428 255 255 255
-0.174 0.199 0.457 255 255 255
0.619 -0.548 2.124 255 255 255
-0.722 -1.558 2.445 255 255 255
0.556 -1.427 2.145 255 255 255
-0.006 0.209 0.442 0 0 0
-0.076 0.21 0.445 0 0 0
-0.456 -0.164 1.114 255 255 255
0.208 -0.04 1.002 255 255 255
-0.021 -0.015 0.787 255 255 255
-1.117 -1.578 2.545 255 255 255
0.033 0.1 0.43 0 0 0
-0.383 -1.539 2.344 255 255 255
0.181 0.169 0.455 255 255 255
0.024 -0.452 1.689 255 255 255
0.049 0.145 0.474 0 0 0
-0.202 0.13 0.515 255 255 255
-0.088 0.181 0.464 255 255 255
-1.179 -0.952 2.798 255 255 255
0.973 -1.153 2.123 255 255 255
0.163 0.013 0.811 255 255 255
0.01 0.214 0.437 0 0 0
1.084 -1.146 2.099 255 255 255
0.26 0.132 0.537 255 255 255
-0.283 -0.019 0.789 255 255 255
-0.281 0.016 0.692 0 0 0
0.23 -0.79 2.274 255 255 255
-0.019 0.02 0.723 255 255 255
0.609 -0.64 2.138 255 255 255
-0.068 0.054 0.608 255 255 255
-0.311 0.045 0.511 255 255 255
0.022 0.132 0.47 0 0 0
1.204 -0.306 2.326 255 255 255
0.295 0.138 0.553 255 255 255
-0.383 -0.613 2.363 255 255 255
-0.123 -0.349 1.683 255 255 255
1.263 -0.292 2.316 255 255 255
1.411 -0.138 2.333 255 255 255
-0.026 0.144 0.501 255 255 255
-0.044 -0.945 2.293 255 255 255
-0.107 -0.092 0.988 255 255 255
0.046 0.159 0.472 255 255 255
0.197 -0.869 2.253 255 255 255
-1.152 -1.689 2.522 255 255 255
-0.128 0.236 0.46 255 255 255
0.161 0.115 0.535 255 255 255
-0.123 0.011 0.681 255 255 255
1.412 -0.471 2.223 255 255 255
0.942 -0.765 2.251 255 255 255
-1.531 -0.624 2.679 0 0 0
-0.118 0.055 0.622 0 0 0
0.99 -0.842 2.216 255 255 255
-0.872 -0.302 1.476 255 255 255
1.307 -0.508 2.238 255 255 255
-0.185 0.071 0.534 255 255 255
-0.229 0.058 0.527 255 255 255
-0.347 0.021 0.502 255 255 255
0.894 -0.917 2.214 255 255 255
-0.059 0.214 0.442 0 0 0
0.134 0.146 0.479 255 255 255
0.2 0.182 0.448 255 255 255
1.243 -0.326 2.309 255 255 255
-0.806 -1.797 2.391 0 0 0
-0.127 -0.389 1.689 0 0 0
0.546 -0.698 2.216 255 255 255
0.087 -0.072 0.912 255 255 255
0.531 -1.097 2.248 255 255 255
0.168 0.218 0.431 255 255 255
0.291 -0.714 2.283 255 255 255
0.164 0.126 0.519 255 255 255
1.146 -0.217 2.371 255 255 255
0.02 0.041 0.531 255 255 255
1.247 -0.081 2.387 255 255 255
0.234 0 0.888 255 255 255
-0.224 0.169 0.478 255 255 255
-0.198 0.099 0.535 0 0 0
-0.139 0.043 0.58 255 255 255
0.251 0.108 0.585 255 255 255
-1.468 -1.378 2.669 255 255 255
0.113 0.137 0.492 0 0 0
0.012 0.159 0.47 255 255 255
-0.159 0.25 0.467 255 255 255
0.04 0.182 0.458 255 255 255
0.015 -1.612 2.222 0 0 0
1.079 -0.829 2.195 255 255 255
0.021 0.237 0.439 255 255 255
-0.242 0.105 0.545 0 0 0
0.123 0.231 0.421 255 255 255
1.144 -0.137 2.395 255 255 255
-0.052 -0.11 1.029 0 0 0
-0.206 -0.104 0.889 255 255 255
-0.031 0.101 0.495 255 255 255
0.228 -0.589 2.341 0 0 0
0.651 -0.889 2.279 255 255 255
1.127 -0.197 2.381 255 255 255
0.209 0.092 0.696 0 0 0
0.205 0.009 0.836 255 255 255
-0.008 0.204 0.447 0 0 0
0.301 -0.427 1.876 255 255 255
0.998 -0.949 2.182 255 255 255
-0.902 -0.794 2.623 255 255 255
0.114 0.118 0.495 0 0 0
-0.016 0.115 0.494 255 255 255
-0.035 -0.01 0.767 255 255 255
0.777 -0.979 2.208 0 0 0
1.326 -0.751 2.163 255 255 255
-0.022 0.041 0.647 0 0 0
-0.368 -1.655 2.301 255 255 255
0.019 0.148 0.487 255 255 255
-0.196 -0.652 2.337 255 255 255
-0.946 -1.698 2.458 255 255 255
1.049 -0.426 2.327 255 255 255
0.557 -1.474 2.13 255 255 255
-0.663 -0.118 1.03 0 0 0
1.084 -0.824 2.196 255 255 255
-1.228 -1.214 2.684 255 255 255
0.486 -0.824 2.2 255 255 255
-0.161 -1.142 2.252 255 255 255
-0.192 0.242 0.471 255 255 255
0.785 -0.993 2.214 0 0 0
-0.189 0.003 0.713 0 0 0
0.148 0.031 0.728 255 255 255
0.076 0.08 0.475 0 0 0
-0.316 -0.03 0.642 255 255 255
-0.229 0.17 0.479 255 255 255
1.364 -0.323 2.285 255 255 255
-0.057 0.145 0.489 255 255 255
0.968 -1.335 2.069 255 255 255
1.428 -0.258 2.114 255 255 255
0.071 -0.757 2.318 0 0 0
1.468 -0.043 2.165 0 0 0
-0.09 0.22 0.449 255 255 255
1.476 -0.155 2.136 255 255 255
-0.299 -0.813 2.398 0 0 0
0.523 -0.571 2.105 0 0 0
1.099 -1.157 2.092 255 255 255
-0.314 -0.756 2.417 0 0 0
1.479 -0.066 2.33 255 255 255
0.233 -0.366 1.891 255 255 255
0.317 -0.166 1.347 255 255 255
-0.566 -0.943 2.425 255 255 255
-0.307 -0.013 0.542 255 255 255
-0.794 -1.208 2.576 255 255 255
0.025 -1.538 2.241 255 255 255
-0.066 0.14 0.499 255 255 255
0.103 -0.912 2.261 255 255 255
-0.571 -0.217 1.158 255 255 255
-0.052 0.005 0.749 255 255 255
0.081 0.112 0.498 0 0 0
-0.559 -0.365 1.649 255 255 255
0.051 0.044 0.575 255 255 255
1.411 -0.442 2.235 255 255 255
-0.156 -0.959 2.311 255 255 255
-1.401 -1.577 2.591 255 255 255
-0.187 -0.145 0.931 255 255 255
0.352 -0.009 0.955 255 255 255
-0.105 0.133 0.507 255 255 255
0.88 -0.942 2.212 255 255 255
-0.114 0.153 0.487 255 255 255
-0.076 0.158 0.479 255 255 255
-0.759 -0.213 1.302 255 255 255
-0.259 -0.213 1.208 255 255 255
0.026 -0.003 0.821 255 255 255
0.415 -1.407 2.184 255 255 255
1.356 -0.66 2.181 255 255 255
-0.343 -1.427 2.371 255 255 255
0.654 -1.289 2.162 255 255 255
1.39 -0.632 2.181 255 255 255
0.311 -1.293 2.239 255 255 255
-0.387 -0.877 2.404 255 255 255
1.325 -0.04 2.384 255 255 255
0.235 -1.491 2.203 255 255 255
0.098 0.187 0.45 255 255 255
0.201 0.122 0.525 255 255 255
0.145 0.22 0.426 255 255 255
-1.306 -0.885 2.774 255 255 255
-1.731 -0.538 2.559 255 255 255
0.541 -1.568 2.108 0 0 0
-0.117 0.17 0.471 0 0 0
-0.992 -0.742 2.651 0 0 0
-0.714 -0.638 2.522 0 0 0
-0.643 -0.223 1.223 0 0 0
-0.606 -1.079 2.527 0 0 0
-0.152 0.032 0.635 0 0 0
-0.274 0.013 0.577 255 255 255
-0.004 -0.08 1.032 0 0 0
-1.727 -0.58 2.594 255 255 255
-0.164 0.101 0.53 255 255 255
0.351 0.093 0.721 255 255 255
0.001 0.081 0.497 255 255 255
-0.2 -0.021 0.737 255 255 255
-1.314 -1.487 2.587 255 255 255
-0.057 0.026 0.681 255 255 255
-0.078 -1.552 2.261 255 255 255
0.927 -0.527 2.328 255 255 255
0.2 -0.363 1.986 255 255 255
0.031 -0.022 0.86 255 255 255
-0.034 0.183 0.46 255 255 255
-0.225 0.063 0.524 255 255 255
0.053 0.05 0.478 255 255 255
-0.192 0.038 0.634 255 255 255
-0.489 -1.51 2.371 255 255 255
0.016 0.118 0.478 255 255 255
-1.275 -1.483 2.577 0 0 0
-0.064 0.107 0.49 255 255 255
0.969 -1.202 2.108 255 255 255
-0.285 0.006 0.542 255 255 255
0.352 -0.016 0.973 255 255 255
-0.008 -0.094 1.004 0 0 0
-0.2 0.114 0.534 255 255 255
-0.075 0.184 0.46 255 255 255
0.177 -0.019 0.95 255 255 255
-0.143 0.226 0.458 255 255 255
0.892 -0.779 2.258 255 255 255
1.043 -0.106 2.43 0 0 0
-0.785 -1.566 2.457 255 255 255
-0.216 0 0.718 255 255 255
-0.701 -0.871 2.468 255 255 255
1.379 0.194 2.442 255 255 255
0.96 -0.852 2.221 255 255 255
0.003 0.066 0.564 255 255 255
-0.042 0.215 0.441 0 0 0
-0.159 0.248 0.467 255 255 255
-0.832 -0.378 1.679 0 0 0
0.276 -0.337 1.9 255 255 255
-0.57 -0.822 2.475 255 255 255
-0.092 0.087 0.497 0 0 0
-0.071 0.133 0.515 0 0 0
-0.07 0.135 0.508 255 255 255
0.094 0.206 0.439 0 0 0
0.051 -0.402 1.687 255 255 255
-0.008 0.078 0.563 0 0 0
-0.263 0.078 0.506 255 255 255
0.108 -0.86 2.276 255 255 255
0.012 0.101 0.526 0 0 0
-0.062 -0.004 0.758 255 255 255
0.129 0.17 0.457 255 255 255
-0.114 0.116 0.516 0 0 0
0.24 0.161 0.481 255 255 255
-0.309 -0.794 2.403 0 0 0
-0.062 0.092 0.503 255 255 255
-0.061 -0.149 1.169 0 0 0
0.236 0.056 0.653 255 255 255
-0.673 -0.113 1.001 0 0 0
-0.091 0.159 0.477 255 255 255
0.12 -0.12 1.157 255 255 255
-0.122 -0.982 2.301 255 255 255
0.069 0.228 0.429 255 255 255
0.009 0.2 0.447 0 0 0
-0.374 -0.194 1.243 255 255 255
0.968 -0.508 2.324 255 255 255
0.928 -1.161 2.129 255 255 255
0.198 0.136 0.5 255 255 255
1.439 0.261 2.277 255 255 255
-0.236 -1.563 2.3 255 255 255
0.87 -1.102 2.165 255 255 255
0.841 -1.102 2.173 255 255 255
-1.735 -0.569 2.527 255 255 255
-0.196 -0.031 0.872 255 255 255
0.245 0.131 0.519 255 255 255
0.917 -1.273 2.102 255 255 255
0.256 -0.19 1.428 255 255 255
0.113 -0.874 2.271 255 255 255
-0.487 -1.678 2.32 0 0 0
0.164 0.163 0.46 255 255 255
-0.144 -1.313 2.351 255 255 255
1.332 0.139 2.44 255 255 255
-0.942 -1.881 2.401 255 255 255
-0.686 -0.69 2.534 0 0 0
0.449 -0.452 1.862 255 255 255
0.6 -0.431 1.883 255 255 255
-0.42 -0.23 1.325 255 255 255
-0.111 0.205 0.45 0 0 0
0.019 0.144 0.489 255 255 255
0.786 -1.273 2.137 255 255 255
-0.355 -1.011 2.353 255 255 255
-0.76 -0.162 1.189 255 255 255
0.084 0.047 0.56 0 0 0
0.427 -1.302 2.211 255 255 255
0.524 -1.263 2.203 255 255 255
-0.501 -1.532 2.372 255 255 255
-0.089 -0.417 1.673 255 255 255
0.09 0.04 0.578 255 255 255
0.129 0.199 0.44 0 0 0
-0.14 0.067 0.574 255 255 255
-0.328 -1.552 2.327 255 255 255
1.41 -0.647 2.17 255 255 255
-0.015 -0.166 1.193 255 255 255
0.513 -1.471 2.142 255 255 255
-1.71 -0.479 2.616 0 0 0
0.171 0.176 0.449 255 255 255
1.166 -0.612 2.246 255 255 255
0.259 0.093 0.635 0 0 0
-0.288 0.086 0.489 255 255 255
0.206 0.054 0.65 255 255 255
1.149 -0.504 2.276 255 255 255
1.126 -1.169 2.085 255 255 255
0.018 0.081 0.478 255 255 255
0.18 0.147 0.48 255 255 255
0.081 -0.063 0.967 0 0 0
0.175 0.169 0.455 255 255 255
-1.421 -1.492 2.62 255 255 255
0.203 -1.172 2.241 0 0 0
-1.742 -0.666 2.443 255 255 255
0.175 -0.092 1.152 0 0 0
0.094 0.106 0.498 0 0 0
0.159 0.097 0.592 255 255 255
0.693 -0.554 2.195 0 0 0
-0.16 0.042 0.615 0 0 0
0.006 -0.016 0.823 255 255 255
-0.135 0.257 0.466 255 255 255
1.408 0.21 2.435 255 255 255
0.319 -0.131 1.266 255 255 255
1.476 -0.556 2.18 255 255 255
-0.048 0.041 0.613 255 255 255
-0.285 0.03 0.581 255 255 255
0.026 0.108 0.436 0 0 0
0.579 -1.12 2.229 255 255 255
-0.108 -0.177 1.164 255 255 255
0.292 0.049 0.71 255 255 255
0.224 0.06 0.641 255 255 255
-0.047 0.243 0.452 255 255 255
-0.448 -1.713 2.303 0 0 0
0.099 0.21 0.436 0 0 0
0.104 0.079 0.594 0 0 0
-0.175 0.089 0.529 255 255 255
-0.237 0.064 0.52 255 255 255
0.843 -1.596 2.026 255 255 255
0.159 0.058 0.666 0 0 0
0.478 -0.384 1.831 255 255 255
0.12 0.134 0.492 255 255 255
-0.858 -0.386 1.67 255 255 255
-0.331 0.03 0.506 255 255 255
-0.175 -0.338 1.659 255 255 255
0.064 0.1 0.445 255 255 255
-0.028 0.176 0.469 255 255 255
1.017 -0.441 2.331 255 255 255
-0.123 0.015 0.652 255 255 255
0.095 -1.302 2.289 255 255 255
0.046 0.203 0.446 0 0 0
0.084 -0.027 0.923 255 255 255
1.434 0.059 2.373 255 255 255
0.228 0.148 0.491 0 0 0
0.08 0.183 0.453 255 255 255
-0.218 -0.368 1.702 255 255 255
0.226 -0.312 1.874 0 0 0
-0.585 -1.39 2.434 255 255 255
1.459 -0.193 2.127 255 255 255
0.23 0.139 0.498 255 255 255
0.017 0.158 0.471 255 255 255
0.68 -1.482 2.099 255 255 255
0.336 -0.177 1.388 255 255 255
-0.662 -0.926 2.453 255 255 255
0.264 0.135 0.534 255 255 255
-0.349 -0.089 0.959 255 255 255
-1.526 -1.153 2.751 255 255 255
-0.236 0.011 0.668 255 255 255
0.142 0.148 0.475 255 255 255
0.561 -0.934 2.272 0 0 0
0.055 0.154 0.481 255 255 255
-0.843 -1.259 2.566 255 255 255
1.244 -0.786 2.168 255 255 255
-1.356 -0.931 2.343 255 255 255
-0.022 0.232 0.444 255 255 255
1.417 -0.496 2.216 255 255 255
0.161 0.17 0.453 255 255 255
1.447 0.049 2.373 255 255 255
-0.215 0.127 0.522 255 255 255
0.066 0.16 0.472 255 255 255
-0.176 0.12 0.519 255 255 255
0.057 0.079 0.458 255 255 255
0.116 0.219 0.427 255 255 255
0.037 -0.708 2.293 255 255 255
0.142 -0.048 1 0 0 0
-0.341 -0.152 1.07 255 255 255
-0.036 -0.059 0.857 0 0 0
0.007 0.018 0.583 255 255 255
0.418 -0.61 2.112 255 255 255
-0.171 -0.914 2.331 255 255 255
-0.017 0.186 0.459 255 255 255
1.271 -0.944 2.121 255 255 255
-0.088 0.252 0.46 255 255 255
0.04 0.15 0.483 255 255 255
-0.398 -0.053 0.782 255 255 255
-0.056 0.148 0.486 255 255 255
0.173 0.091 0.63 255 255 255
0.071 0.085 0.472 255 255 255
-0.082 0.101 0.489 0 0 0
0.074 0.034 0.577 0 0 0
1.471 -0.23 2.106 255 255 255
-0.684 -1.426 2.484 255 255 255
0.146 0.233 0.419 255 255 255
-0.312 -0.053 0.917 255 255 255
-1.727 -0.634 2.527 255 255 255
0.144 0.222 0.424 255 255 255
0.19 0.179 0.449 255 255 255
-1.361 -0.945 2.348 255 255 255
-0.23 0.028 0.645 255 255 255
0.394 -0.932 2.187 255 255 255
0.018 -0.049 0.923 0 0 0
0.543 -0.355 1.811 255 255 255
-0.39 -0.123 1.084 0 0 0
1.116 -0.246 2.367 255 255 255
-0.465 -0.292 1.402 255 255 255
-0.06 0.075 0.554 255 255 255
0.106 0.005 0.827 255 255 255
-1.241 -1.328 2.613 255 255 255
0.946 -0.818 2.235 255 255 255
-0.374 -0.096 1.01 255 255 255
0.435 -0.852 2.201 255 255 255
1.137 -0.568 2.265 255 255 255
0.2 -1.4 2.242 255 255 255
0.111 0.236 0.423 255 255 255
0.182 0.113 0.561 0 0 0
0.39 -1.392 2.192 255 255 255
0.118 -0.001 0.855 255 255 255
0.22 0.045 0.7 255 255 255
-1.732 -0.677 2.527 255 255 255
0.515 -0.43 1.858 255 255 255
1.206 -0.53 2.257 255 255 255
-0.448 -0.152 1.025 255 255 255
-0.021 0.212 0.441 0 0 0
-0.643 -1.267 2.485 255 255 255
0.256 0.1 0.609 255 255 255
-1.125 -1.696 2.517 255 255 255
-0.579 -0.426 1.632 255 255 255
-0.745 -1.729 2.392 0 0 0
-0.272 0.076 0.524 0 0 0
-0.009 0.133 0.509 0 0 0
-0.084 -0.003 0.749 0 0 0
-0.091 0.197 0.453 255 255 255
-0.267 0.106 0.537 0 0 0
0.86 -0.604 2.323 255 255 255
1.142 -0.793 2.194 255 255 255
0.245 0.104 0.592 255 255 255
0.186 -0.031 0.977 255 255 255
0.051 0.078 0.456 0 0 0
-1.192 -1.721 2.526 255 255 255
0.141 0.043 0.678 255 255 255
-0.051 0.136 0.51 0 0 0
0.173 0.165 0.458 255 255 255
-0.024 0.146 0.498 255 255 255
-0.189 0.075 0.533 255 255 255
0.277 0.143 0.525 255 255 255
-0.014 -0.007 0.782 255 255 255
1.515 -0.68 2.156 255 255 255
