ply
format ascii 1.0
comment Created by Open3D
element vertex 1579
property double x
property double y
property double z
property uchar red
property uchar green
property uchar blue
end_header
0.536 -0.353 1.169 255 255 255
-0.543 -0.502 2.138 255 255 255
0.418 -0.012 1.223 255 255 255
-0.814 -1.034 2.377 255 255 255
0.646 -0.153 0.966 255 255 255
-1.099 0.39 2.13 255 255 255
-0.154 0.611 1.679 255 255 255
0.575 -0.101 0.902 255 255 255
0.462 -0.208 1.248 255 255 255
-1.183 -0.57 2.308 255 255 255
0.16 0.094 1.676 255 255 255
-0.126 0.637 1.583 255 255 255
-0.539 0.48 1.789 255 255 255
0.375 0.052 0.572 255 255 255
0.537 -0.008 1.028 255 255 255
-1.261 -0.589 2.248 255 255 255
0.428 -0.156 1.154 0 0 0
-0.139 -0.17 2.043 255 255 255
-0.871 -0.936 2.374 255 255 255
-1.279 -0.808 2.16 255 255 255
-0.73 0.544 1.721 255 255 255
-0.848 -0.107 2.643 255 255 255
-0.038 0.221 2.087 255 255 255
-0.621 0.032 0.918 255 255 255
-0.016 -0.148 1.963 255 255 255
-0.159 -0.125 2.036 255 255 255
-0.342 0.703 1.283 255 255 255
0.479 0.121 1.144 255 255 255
0.133 -0.283 1.66 255 255 255
0.369 -0.123 1.288 255 255 255
-1.14 -0.311 1.714 255 255 255
-1.112 -0.885 2.24 255 255 255
-0.331 0.696 1.317 255 255 255
0.539 -0.443 1.142 255 255 255
0.499 0.312 1.147 255 255 255
-0.711 0.591 1.555 255 255 255
-0.397 0.085 1.989 255 255 255
-0.822 -1.357 2.258 255 255 255
-0.321 0.001 1.999 255 255 255
-0.536 -1.149 2.297 255 255 255
0.1 0.221 0.437 255 255 255
-0.677 0.226 2.511 255 255 255
-0.674 0.399 2.035 255 255 255
0.314 -0.186 1.368 255 255 255
0.076 -1.075 1.614 255 255 255
0.344 0.475 1.443 255 255 255
-0.453 0.586 1.646 255 255 255
0.141 0.287 1.757 255 255 255
0.421 -0.128 1.196 255 255 255
-0.854 -0.727 2.455 255 255 255
0.572 0.074 0.981 255 255 255
-0.735 -1.499 2.267 255 255 255
0.154 0.395 1.769 255 255 255
0.537 0.204 1.063 255 255 255
0.004 0.36 2.033 255 255 255
-0.993 -1.49 2.112 255 255 255
-1.091 0.166 2.44 255 255 255
0.205 0.533 1.687 255 255 255
0.405 -0.253 1.351 255 255 255
-0.376 -0.28 1.849 255 255 255
0.253 0.117 1.522 255 255 255
-0.56 0.283 2.309 255 255 255
-0.128 -0.303 1.995 255 255 255
-0.841 -0.818 2.43 255 255 255
-0.431 0.356 2.052 255 255 255
-0.004 -0.4 1.875 255 255 255
0.123 0.263 0.472 255 255 255
-0.229 -0.582 1.849 255 255 255
0.348 0.346 1.406 255 255 255
-0.103 0.099 2.151 255 255 255
0.462 0.121 1.175 255 255 255
0.524 0.324 1.126 255 255 255
-1.126 0.398 2.109 255 255 255
-0.465 0.614 1.547 255 255 255
0.093 0.697 1.456 255 255 255
-0.078 0.275 2.145 255 255 255
-0.927 -1.199 2.246 255 255 255
-0.258 -0.95 1.699 255 255 255
0.424 0.184 1.247 255 255 255
-0.864 -1.381 2.223 255 255 255
0.432 0.376 1.267 255 255 255
0.462 0.164 1.179 255 255 255
-0.963 -0.259 2.549 255 255 255
0.173 0.02 1.641 255 255 255
-0.319 -0.989 1.641 255 255 255
0.191 0.438 1.704 255 255 255
0 -0.973 1.777 255 255 255
0.537 -0.041 1.022 255 255 255
0.453 0.339 1.227 255 255 255
-0.324 -0.866 1.689 255 255 255
0.43 -0.144 1.159 0 0 0
0.158 -0.042 1.653 255 255 255
-0.635 0.612 1.49 255 255 255
-1.008 0.189 1.623 255 255 255
0.568 0.095 0.996 255 255 255
0.352 0.523 1.44 0 0 0
0.201 0.039 1.597 255 255 255
-0.88 -0.483 2.522 255 255 255
-0.34 -0.962 1.638 255 255 255
-0.696 -1.431 2.315 255 255 255
-0.507 -0.844 2.195 0 0 0
0.361 0.201 1.357 255 255 255
-0.701 -1.515 2.278 255 255 255
0.058 -0.032 1.846 255 255 255
-0.432 0.178 1.993 255 255 255
0.262 0.285 1.541 255 255 255
-1.012 0.166 2.378 255 255 255
0.557 -0.082 0.958 255 255 255
-1.007 -0.653 2.379 255 255 255
-0.077 0.71 1.362 255 255 255
-0.848 -0.98 2.378 255 255 255
-1.296 -0.577 2.227 255 255 255
0.278 0.487 1.567 255 255 255
0.263 0.1 1.504 255 255 255
0.122 -0.524 1.809 255 255 255
-0.281 0.709 1.285 255 255 255
-0.317 -0.83 1.704 255 255 255
0.25 0.305 1.564 255 255 255
0.232 0.304 1.595 255 255 255
-0.431 0.427 2.023 0 0 0
-0.526 0.469 1.83 255 255 255
-0.542 0.509 1.753 255 255 255
-0.082 -0.203 2.047 255 255 255
0.273 -0.136 1.445 255 255 255
-0.504 0.47 1.835 255 255 255
0.519 -0.033 1.054 255 255 255
-0.646 -0.311 2.469 255 255 255
-0.418 0.701 1.276 255 255 255
0.106 -1.059 1.624 255 255 255
0.567 0.215 1.025 255 255 255
-0.964 -0.407 2.495 255 255 255
0.494 0.043 1.108 255 255 255
0.498 -0.068 1.082 255 255 255
0.198 0.245 1.644 255 255 255
0.217 0.177 1.595 255 255 255
-0.913 -1.5 2.152 255 255 255
-0.378 0.491 1.957 255 255 255
-0.347 0.335 2.092 255 255 255
0.141 -0.043 1.687 255 255 255
0.545 0.285 1.071 255 255 255
-0.175 0.676 1.407 255 255 255
-0.813 0.361 2.115 255 255 255
0.577 0.007 0.96 255 255 255
-0.985 -0.907 2.31 255 255 255
0.549 -0.196 1.127 255 255 255
-0.534 0.596 1.583 255 255 255
-1.394 0.027 2.37 255 255 255
0.353 0.017 1.337 255 255 255
0.386 0.143 1.308 255 255 255
-0.696 -0.009 1.039 255 255 255
0.499 -0.316 1.181 255 255 255
-1.162 -1.219 2.092 255 255 255
-0.223 0.4 2.036 255 255 255
0.151 0.438 1.779 255 255 255
-1.217 0.132 2.431 255 255 255
-0.689 -0.389 2.466 255 255 255
-1.045 -1.223 2.163 255 255 255
-0.765 -0.02 2.561 255 255 255
-0.922 -1.185 2.254 255 255 255
0.511 0.155 1.098 255 255 255
-0.138 0.357 2.139 255 255 255
0.603 -0.03 0.913 255 255 255
-0.674 -0.835 2.316 255 255 255
-0.379 -0.47 1.784 255 255 255
0.159 -0.557 1.801 255 255 255
-0.866 -1.478 2.191 255 255 255
0.497 -0.211 1.206 255 255 255
-0.134 -0.913 1.772 255 255 255
0.209 0.566 1.686 255 255 255
0.129 0.324 1.788 255 255 255
-1.168 -0.647 2.287 255 255 255
0.113 -0.328 1.612 0 0 0
0.252 0.052 1.514 255 255 255
-1.011 -0.127 2.56 255 255 255
0.278 -0.005 1.458 255 255 255
0.355 -0.181 1.283 255 255 255
0.094 0.153 1.814 255 255 255
-0.624 0.317 2.136 255 255 255
-0.293 -0.129 1.971 255 255 255
0.03 0.128 1.936 255 255 255
-0.937 -1.418 2.159 255 255 255
-0.556 0.158 2.343 255 255 255
0.33 -0.208 1.26 0 0 0
-0.665 -0.569 2.413 255 255 255
-0.374 -0.108 1.931 255 255 255
0.432 0.347 1.265 255 255 255
-0.948 -0.139 2.594 255 255 255
-0.66 0.073 2.516 255 255 255
0.132 -1.042 1.64 0 0 0
-0.124 0.633 1.601 255 255 255
0.105 -0.833 1.701 255 255 255
0.195 -0.147 1.571 255 255 255
0.198 0.033 1.6 255 255 255
-0.166 -0.136 2.025 255 255 255
0.292 -0.215 1.382 0 0 0
-0.141 -0.439 1.925 255 255 255
-0.994 -1.204 2.2 255 255 255
0.048 -1.099 1.665 0 0 0
-1.357 0.012 2.394 255 255 255
0.04 -0.888 1.728 0 0 0
-0.16 -0.469 1.912 255 255 255
-0.348 0.625 1.53 255 255 255
0.162 0.591 1.752 255 255 255
-1.301 -0.529 2.243 255 255 255
0.037 -0.85 1.746 0 0 0
-1.118 -0.232 1.719 255 255 255
-0.117 0.035 2.163 255 255 255
-0.648 -1.668 2.269 0 0 0
0.505 0.168 1.107 255 255 255
0.077 -0.517 1.8 255 255 255
-1.275 -0.49 2.268 255 255 255
0.048 -1.051 1.68 0 0 0
-0.899 0.534 1.717 255 255 255
-0.805 0.478 1.908 255 255 255
-0.478 0.659 1.392 255 255 255
0.471 0.296 1.186 255 255 255
0.458 0.025 1.163 255 255 255
-0.302 0.958 2.074 255 255 255
0.501 -0.246 1.198 255 255 255
0.496 0.017 1.101 255 255 255
-0.723 -0.445 2.429 255 255 255
-1.241 -1.066 2.104 255 255 255
-0.698 -0.013 1.033 255 255 255
0.279 0.527 1.563 255 255 255
0.644 -0.115 0.962 0 0 0
-1.128 -1.126 2.152 255 255 255
0.611 0.019 0.909 255 255 255
0.374 -0.167 1.255 0 0 0
-1.186 -0.981 2.162 255 255 255
0.211 -0.127 1.55 255 255 255
-0.511 0.481 1.8 255 255 255
-0.409 0.566 1.744 255 255 255
-0.102 -0.573 1.995 0 0 0
-1.231 -0.758 2.204 255 255 255
-0.241 -0.024 2.039 255 255 255
-0.543 -1.197 2.263 255 255 255
0.173 -0.364 1.717 255 255 255
0.501 0.174 1.115 255 255 255
0.503 -0.464 1.151 255 255 255
-0.194 -0.413 1.914 255 255 255
-0.36 -0.318 1.846 255 255 255
-0.313 -0.297 1.888 255 255 255
-0.538 0.623 1.497 255 255 255
0.212 -0.245 1.526 255 255 255
-0.358 0.43 2.09 255 255 255
0.502 -0.134 1.005 255 255 255
0.358 0.513 1.429 0 0 0
-0.765 -0.247 2.516 255 255 255
-0.823 -0.795 2.448 255 255 255
0.252 0.43 1.598 255 255 255
0.018 -0.858 1.772 0 0 0
-0.887 -0.849 2.394 255 255 255
-0.273 -0.405 1.866 255 255 255
0.137 -0.568 1.811 255 255 255
-0.615 0.085 2.421 255 255 255
-0.71 -0.569 2.384 255 255 255
-1.056 0.141 2.456 255 255 255
-0.726 0.027 2.577 255 255 255
0.57 -0.59 1.115 255 255 255
0.003 -1.039 1.753 255 255 255
-0.036 -0.764 1.875 255 255 255
0.543 0.099 1.032 255 255 255
0.139 -0.77 1.735 255 255 255
0.186 0.128 1.637 255 255 255
0.216 -0.083 1.547 255 255 255
0.508 0.156 1.103 255 255 255
-0.798 -0.691 2.496 255 255 255
-0.411 0.575 1.702 255 255 255
0.42 0.169 1.252 255 255 255
0.384 0.148 1.311 255 255 255
0.488 0.064 1.118 255 255 255
-0.103 -0.544 2.012 0 0 0
0.299 0.731 1.316 255 255 255
-0.073 0.404 2.13 255 255 255
-0.118 -0.267 2.094 255 255 255
0.593 0.128 0.99 255 255 255
-0.194 -0.993 1.724 255 255 255
0.554 0.236 1.043 255 255 255
-0.293 0.56 1.768 255 255 255
0.384 0.159 1.311 255 255 255
0.504 0.151 1.106 255 255 255
-0.145 0.627 1.613 255 255 255
-0.209 -0.963 1.734 255 255 255
0.14 -0.718 1.757 255 255 255
0.218 -0.113 1.537 255 255 255
0.073 0.498 1.913 255 255 255
-0.536 0.167 2.342 255 255 255
-0.914 0.443 1.973 255 255 255
-1.28 -0.823 2.157 255 255 255
0.348 0.146 1.369 255 255 255
-0.2 -1.01 1.697 0 0 0
-1.024 0.426 1.918 255 255 255
-1.14 -0.541 2.334 255 255 255
0.247 -0.154 1.483 255 255 255
0.347 -0.115 1.324 255 255 255
0.365 -0.082 1.299 255 255 255
-0.646 -0.584 2.417 255 255 255
0.128 0.664 1.558 255 255 255
-0.492 -0.069 2.173 255 255 255
-0.326 -0.845 1.69 255 255 255
-0.671 -0.369 2.479 255 255 255
-0.045 -0.031 2.036 255 255 255
-1.147 -0.318 1.678 255 255 255
-0.082 -0.24 2.045 255 255 255
-0.253 0.228 2.136 255 255 255
0.105 -0.321 1.683 0 0 0
0.558 -0.361 1.184 255 255 255
-1.395 -0.112 2.326 255 255 255
0.553 0.003 1.004 255 255 255
0.065 -0.129 1.814 255 255 255
-0.259 -0.733 1.775 255 255 255
-0.318 -0.059 1.981 255 255 255
0.262 -0.141 1.462 255 255 255
-0.008 -0.945 1.794 255 255 255
-1.1 -0.435 2.4 255 255 255
0.354 0.171 1.366 255 255 255
-0.273 -0.738 1.766 0 0 0
-0.977 -0.427 2.48 255 255 255
0.439 0.129 1.214 255 255 255
0.237 0.05 1.54 255 255 255
0.373 0.252 1.344 255 255 255
0.344 0.407 1.429 255 255 255
0.151 -0.758 1.754 255 255 255
-0.495 0.513 1.749 255 255 255
0.162 -0.777 1.741 255 255 255
-0.98 -0.315 2.515 255 255 255
-1.182 -0.655 2.268 255 255 255
-0.544 0.57 1.683 255 255 255
-1.361 -0.025 2.378 255 255 255
-1.217 0.095 2.42 255 255 255
-0.077 -0.842 1.92 0 0 0
0.243 -0.143 1.494 255 255 255
-0.374 0.689 1.323 255 255 255
-0.727 -1.7 2.209 255 255 255
-0.279 0.709 1.291 255 255 255
-1.22 -0.678 2.244 255 255 255
-0.507 -0.83 2.199 0 0 0
0.474 0.07 1.147 255 255 255
-0.802 0.484 1.878 255 255 255
-0.406 0.631 1.499 255 255 255
-0.692 -0.418 2.454 255 255 255
-0.635 -0.909 2.265 255 255 255
0.456 -0.163 1.092 255 255 255
0.562 -0.324 1.174 255 255 255
0.049 0.661 1.572 255 255 255
-0.734 0.565 1.645 255 255 255
0.428 0.243 1.252 255 255 255
0.197 0.575 1.703 255 255 255
-1.231 -0.681 2.232 255 255 255
-0.726 0.538 1.742 255 255 255
0.055 -0.458 1.81 255 255 255
0.115 0.429 1.841 255 255 255
0.058 -0.22 1.817 255 255 255
-0.222 -1.499 2.032 0 0 0
0.312 0.515 1.512 255 255 255
0.643 -0.262 1.088 255 255 255
0.544 -0.19 1.135 255 255 255
0.044 -0.059 1.871 255 255 255
-0.227 -0.917 1.739 255 255 255
0.433 0.19 1.232 255 255 255
-1.063 0.429 1.896 255 255 255
-0.208 0.466 1.782 255 255 255
0.548 -0.071 0.993 255 255 255
-0.117 0.541 1.903 255 255 255
-1.073 -0.152 2.509 255 255 255
0.404 0.006 1.253 255 255 255
0.411 -0.127 1.213 255 255 255
-0.438 0.705 1.26 255 255 255
-0.55 -1.527 2.367 255 255 255
0.518 0.173 1.088 255 255 255
-0.914 -1.243 2.241 255 255 255
-0.507 0.607 1.548 255 255 255
-0.888 -1.076 2.32 255 255 255
0.135 0.311 1.774 255 255 255
-0.849 0.425 1.967 255 255 255
-0.743 0.579 1.588 255 255 255
-0.37 -0.453 1.797 255 255 255
-1.239 0.064 2.416 255 255 255
0.085 0.713 1.424 255 255 255
0.022 -0.128 1.898 255 255 255
-1.206 -0.396 1.643 255 255 255
-0.476 -0.142 2.139 255 255 255
-1.063 -1.449 2.076 255 255 255
0.165 0.077 1.662 255 255 255
0.18 0.3 1.69 255 255 255
0.271 -0.128 1.449 255 255 255
0.094 -1.024 1.635 255 255 255
-0.127 0.547 1.882 0 0 0
0.252 -1.122 1.616 255 255 255
-0.06 -0.529 1.96 255 255 255
0.504 -0.084 1.07 255 255 255
0.351 0.1 1.359 255 255 255
-0.344 0.641 1.474 255 255 255
-0.925 -0.234 2.575 255 255 255
-0.118 -0.209 2.11 255 255 255
0.116 0.333 1.814 255 255 255
-0.694 -0.017 0.955 255 255 255
-0.167 0.198 2.192 255 255 255
-1.094 -0.416 2.414 255 255 255
-0.945 -0.867 2.349 255 255 255
-0.844 -0.648 2.489 255 255 255
0.434 0.036 1.206 255 255 255
-0.812 -0.82 2.444 255 255 255
0.627 0.033 0.885 255 255 255
0.061 -0.141 1.821 255 255 255
0.276 0.492 1.573 255 255 255
-0.491 -0.631 2.128 255 255 255
-0.253 -0.428 1.885 255 255 255
-0.45 0.626 1.504 255 255 255
0.078 0.661 1.562 255 255 255
0.322 -0.072 1.373 255 255 255
-0.238 -0.287 1.937 255 255 255
0.672 -0.152 0.925 255 255 255
0.291 0.238 1.482 255 255 255
0.28 0.306 1.514 255 255 255
0.47 -0.18 1.176 255 255 255
-0.021 0.069 2.02 255 255 255
-0.017 0.388 2.05 255 255 255
0.024 0.489 1.992 255 255 255
-0.948 -0.925 2.326 255 255 255
-0.676 0.484 1.822 255 255 255
-0.806 -0.074 2.639 255 255 255
-0.695 0.285 2.043 255 255 255
-1.333 -0.83 2.122 255 255 255
-0.386 0.581 1.689 255 255 255
-0.351 0.17 2.053 255 255 255
-0.637 0.324 2.283 255 255 255
0.365 -1.013 1.359 255 255 255
-0.258 -0.914 1.715 0 0 0
-0.291 -1.119 1.65 255 255 255
0.058 -0.56 1.775 255 255 255
-0.412 0.184 2.018 255 255 255
0.398 -0.151 1.222 0 0 0
-0.775 0.336 2.078 255 255 255
-0.569 -1.682 2.313 0 0 0
-0.951 -0.974 2.306 255 255 255
-1.357 -0.601 1.995 255 255 255
-0.254 -0.604 1.828 255 255 255
0.122 0.266 1.791 255 255 255
0.3 -0.096 1.405 255 255 255
0.105 0.418 1.861 255 255 255
-0.476 0.662 1.384 255 255 255
0.319 0.371 1.464 255 255 255
-1.064 -0.738 2.32 255 255 255
-0.26 -0.027 2.028 255 255 255
0.243 -0.348 1.621 255 255 255
0.258 0.404 1.576 255 255 255
0.266 -0.158 1.454 255 255 255
-0.232 0.224 2.146 255 255 255
-0.098 0.069 2.136 255 255 255
-1.355 -0.536 2.032 0 0 0
0.542 -0.617 1.08 255 255 255
0.487 0.192 1.143 255 255 255
-0.617 -1.127 2.25 255 255 255
-0.335 0.526 1.892 255 255 255
-0.213 -0.455 1.901 255 255 255
0.072 0.305 1.894 255 255 255
-0.899 0.232 2.297 255 255 255
-1.218 0.137 2.434 255 255 255
-0.318 -0.14 1.952 255 255 255
-0.458 0.569 1.711 255 255 255
0.43 0.167 1.234 255 255 255
-0.223 -0.909 1.741 255 255 255
-0.06 -0.731 1.922 255 255 255
-0.38 -0.419 1.798 255 255 255
-0.175 -0.776 1.796 255 255 255
0.208 0.504 1.665 255 255 255
-0.854 -1.264 2.273 255 255 255
0.171 -1.066 1.661 255 255 255
-0.564 0.478 1.794 255 255 255
-0.767 -0.17 2.526 255 255 255
-0.647 0.54 1.729 0 0 0
-0.596 0.625 1.469 255 255 255
-0.179 0.042 2.087 255 255 255
-0.55 -1.572 2.352 255 255 255
0.515 -0.721 1.08 255 255 255
-0.52 0.462 1.867 255 255 255
-1.143 -0.458 2.364 255 255 255
0.163 -1.037 1.667 255 255 255
0.41 0.329 1.299 255 255 255
0.435 -0.024 1.194 255 255 255
-0.251 -0.954 1.699 0 0 0
-0.28 0.687 1.354 255 255 255
0.366 -0.108 1.298 255 255 255
-0.246 -0.42 1.887 255 255 255
-0.692 -0.423 2.454 255 255 255
-0.402 -0.291 1.843 255 255 255
-0.624 0.032 0.927 255 255 255
-0.855 -0.833 2.42 255 255 255
-1.165 -0.541 2.325 255 255 255
-0.599 -0.757 2.385 255 255 255
0.343 -0.153 1.326 255 255 255
-1.048 0.45 1.876 255 255 255
-0.17 -0.497 1.897 255 255 255
-0.731 -0.148 2.517 255 255 255
0.428 0.268 1.256 255 255 255
0.239 -0.261 1.388 0 0 0
-0.136 -0.2 2.052 255 255 255
0.414 -0.159 1.181 0 0 0
-0.489 0.412 1.98 255 255 255
0.353 0.065 0.546 255 255 255
0.03 -1.196 1.67 255 255 255
0.146 0.201 0.463 255 255 255
-0.719 -0.029 0.993 255 255 255
0.372 -0.065 1.293 255 255 255
-0.195 -0.97 1.74 0 0 0
-0.557 -0.788 2.2 255 255 255
-0.183 -0.1 2.035 255 255 255
-1.2 0.366 2.086 255 255 255
0.419 0.246 1.266 255 255 255
0.105 -0.898 1.679 255 255 255
0.168 0.609 1.725 255 255 255
0.472 0.343 1.195 255 255 255
-0.84 -0.352 2.588 255 255 255
-1.238 0.059 2.439 255 255 255
0.523 0.305 1.103 255 255 255
-0.983 -0.074 2.595 255 255 255
0.284 -0.04 1.443 255 255 255
-0.061 -0.859 1.898 0 0 0
0.569 -0.004 0.972 255 255 255
0.026 -0.135 1.89 255 255 255
0.163 -1.056 1.66 255 255 255
-0.471 0.707 1.249 255 255 255
0.2 -0.243 1.552 255 255 255
0.236 0.699 1.488 255 255 255
-0.487 0.52 1.748 255 255 255
0.106 -0.639 1.763 0 0 0
-0.655 0.35 2.082 255 255 255
0.113 0.135 1.775 255 255 255
-0.954 -1.492 2.128 255 255 255
-0.325 -0.51 1.813 255 255 255
0.15 0.475 1.762 255 255 255
-0.458 0.439 1.936 255 255 255
-0.481 0.671 1.355 255 255 255
-1.177 -0.902 2.188 255 255 255
0.356 -0.154 1.301 255 255 255
0.403 0.129 1.274 255 255 255
0.282 0.24 1.497 255 255 255
-1.077 0.193 2.448 255 255 255
-0.905 -0.13 1.225 255 255 255
-0.474 -0.163 2.13 255 255 255
0.253 0.083 1.519 255 255 255
0.343 -0.076 1.34 255 255 255
-0.855 0.552 1.667 255 255 255
0.493 -0.121 1.008 0 0 0
0.213 0.178 1.608 255 255 255
0.249 0.539 1.601 255 255 255
-0.025 0.383 2.066 255 255 255
0.026 -0.642 1.807 0 0 0
-0.204 -0.532 1.875 255 255 255
0.14 0.121 1.722 255 255 255
-1.104 -0.657 2.324 255 255 255
-0.341 0.253 2.086 255 255 255
0.555 0.238 1.04 255 255 255
0.091 -0.531 1.793 255 255 255
-0.703 -1.573 2.263 255 255 255
0.502 -0.089 1.072 255 255 255
0.338 0.328 1.419 255 255 255
0.139 0.204 0.475 255 255 255
0.187 -0.896 1.695 255 255 255
0.062 -0.459 1.812 255 255 255
0.051 -0.41 1.815 255 255 255
0.087 0.207 0.453 255 255 255
-1.405 -0.528 2.17 255 255 255
0.513 -0.49 1.127 255 255 255
-0.765 -1.095 2.38 255 255 255
-0.126 0.018 2.173 255 255 255
0.178 -0.204 1.592 255 255 255
-0.598 0.412 1.943 0 0 0
-0.142 -0.816 1.8 255 255 255
-0.42 0.166 1.997 255 255 255
-0.589 -1.102 2.25 255 255 255
-0.032 -0.286 1.963 255 255 255
-0.127 -0.355 1.967 255 255 255
0.567 0.033 0.982 255 255 255
0.495 -0.013 1.098 255 255 255
0.39 0.483 1.354 255 255 255
0.413 -0.07 1.222 255 255 255
0.019 0.206 1.979 255 255 255
0.466 0.26 1.191 255 255 255
-0.197 -0.163 2.007 255 255 255
-0.234 0.528 1.866 0 0 0
0.157 -0.088 1.646 255 255 255
0.459 -0.139 1.063 0 0 0
0.728 -0.237 1.08 255 255 255
0.474 0.046 1.141 255 255 255
0.061 0.308 1.919 255 255 255
-0.13 0.681 1.414 255 255 255
0.442 0.223 1.222 255 255 255
-0.795 -1.692 2.172 255 255 255
-0.361 0.555 1.792 255 255 255
0.505 -0.106 1.039 255 255 255
-0.3 -0.419 1.859 255 255 255
0.25 0.354 1.578 255 255 255
-1.125 -0.304 2.43 255 255 255
-1.048 0.262 2.128 255 255 255
0.046 0.558 1.879 255 255 255
-0.669 -0.501 2.435 255 255 255
-1.19 -0.52 2.318 255 255 255
-1.076 -0.224 1.527 255 255 255
-1.212 -0.211 2.406 255 255 255
0.227 0.228 1.588 255 255 255
0.246 0.099 0.425 255 255 255
0.234 0.524 1.623 255 255 255
-0.172 0.446 1.795 255 255 255
-1.307 -0.902 2.11 255 255 255
0.389 0.447 1.357 255 255 255
0.48 0.227 1.161 255 255 255
-0.149 0.679 1.415 255 255 255
0.255 -0.25 1.385 0 0 0
-1.032 -1.226 2.173 255 255 255
-1.14 -0.954 2.194 255 255 255
-0.984 -0.451 2.466 255 255 255
-0.946 -1.46 2.152 255 255 255
0.114 0.197 1.788 255 255 255
0.372 0.189 1.335 255 255 255
-0.052 -0.625 1.927 255 255 255
-0.184 0.673 1.401 255 255 255
-0.857 -0.134 2.634 255 255 255
0.208 -0.167 1.549 255 255 255
-0.71 -1.671 2.222 0 0 0
0.038 0.151 1.928 255 255 255
0.327 0.082 1.393 255 255 255
-0.7 -0.03 2.544 255 255 255
0.348 -0.274 1.427 255 255 255
-0.8 -1.472 2.231 255 255 255
-1.141 -0.384 2.392 255 255 255
-0.107 0.564 1.858 255 255 255
0.076 -0.911 1.663 255 255 255
0.539 -0.279 1.195 255 255 255
-1.236 -0.38 2.332 255 255 255
-0.162 0.712 1.328 255 255 255
0.538 -0.692 1.062 255 255 255
-0.255 -0.308 1.917 255 255 255
0.375 0.451 1.383 255 255 255
-0.158 0.373 2.056 255 255 255
-1.293 -0.515 2.254 255 255 255
0.505 -0.091 1.067 255 255 255
0.049 -1.176 1.642 255 255 255
-0.621 0.424 1.933 0 0 0
-0.888 0.469 1.9 255 255 255
-0.246 0.694 1.345 255 255 255
-0.256 -0.419 1.881 255 255 255
0.019 0.106 1.954 255 255 255
-0.082 -0.741 1.948 0 0 0
0.44 -0.027 1.186 255 255 255
0.222 0.079 1.568 255 255 255
-0.177 -0.024 2.063 255 255 255
-1.277 -0.664 2.209 255 255 255
-1.33 -0.862 2.108 255 255 255
-0.56 0.478 1.793 255 255 255
0.098 -0.969 1.656 255 255 255
-0.734 -1.529 2.251 255 255 255
0.557 0.269 1.05 255 255 255
-0.122 -1.007 1.728 0 0 0
0.135 -0.05 1.696 255 255 255
-0.367 -0.373 1.812 255 255 255
-1.168 -0.237 2.424 255 255 255
-0.23 -0.995 1.7 255 255 255
0.539 -0.09 0.985 255 255 255
-0.193 -0.175 2.004 255 255 255
0.382 0.394 1.354 255 255 255
0.291 0.407 1.521 255 255 255
0.517 -0.074 1.05 255 255 255
-1.186 0.023 2.496 255 255 255
-0.992 -0.143 2.57 255 255 255
-0.37 -0.401 1.804 255 255 255
0.378 0.055 0.58 255 255 255
0.331 0.562 1.467 255 255 255
-1.024 -0.835 2.313 255 255 255
0.495 0.114 1.118 255 255 255
-0.697 -0.67 2.357 255 255 255
-0.914 -1.35 2.201 255 255 255
-0.171 -0.799 1.789 255 255 255
-0.044 -0.553 1.926 255 255 255
-0.572 -0.854 2.184 255 255 255
-0.401 -0.215 1.866 255 255 255
-0.269 -0.447 1.88 255 255 255
-0.302 0.177 2.09 255 255 255
0.381 -0.172 1.235 0 0 0
-0.328 -0.531 1.802 255 255 255
-0.024 -0.141 1.978 255 255 255
0.277 0.226 1.504 255 255 255
-1.398 -0.601 2.156 255 255 255
-0.131 -0.846 1.799 255 255 255
0.572 0.018 0.973 255 255 255
-0.358 -0.36 1.827 255 255 255
-0.896 0.118 2.7 255 255 255
0.295 0.109 1.451 255 255 255
-1.119 -0.37 2.411 255 255 255
-0.013 0.175 2.033 255 255 255
-0.268 -0.821 1.735 255 255 255
-0.021 0.193 2.05 255 255 255
-0.241 0.072 2.08 255 255 255
0.611 -0.17 1.025 255 255 255
-0.015 0.595 1.769 255 255 255
-0.072 0.48 1.971 255 255 255
0.433 -0.078 1.187 255 255 255
-0.995 -0.896 2.309 255 255 255
0.453 0.305 1.219 255 255 255
0.306 0.461 1.509 255 255 255
-0.289 0.523 1.9 255 255 255
-1.063 -1.296 2.125 255 255 255
0.169 0.232 1.694 255 255 255
0.464 0.083 1.162 255 255 255
-0.946 -0.713 2.399 255 255 255
-0.087 -0.152 2.07 255 255 255
0.098 -0.066 1.762 255 255 255
-0.348 0.608 1.531 255 255 255
-1.387 0.162 2.343 255 255 255
-0.504 -0.404 2.178 255 255 255
0.64 -0.107 0.948 255 255 255
-0.598 -1.149 2.251 255 255 255
0.186 -0.279 1.542 0 0 0
-0.263 -0.685 1.791 255 255 255
0.133 0.069 1.722 255 255 255
-1.29 -0.505 2.26 255 255 255
0.412 0.285 1.286 255 255 255
0.245 -0.167 1.485 255 255 255
0.48 -0.13 1.054 0 0 0
-0.138 -0.059 2.164 255 255 255
0.478 -0.002 1.127 255 255 255
0.43 -0.074 1.194 255 255 255
0.543 -0.33 1.181 255 255 255
-1.341 0.209 2.371 255 255 255
-0.158 0.078 2.14 255 255 255
0.085 0.585 1.799 255 255 255
-0.849 -1.125 2.322 255 255 255
-0.147 -0.546 1.885 0 0 0
0.374 0.003 1.301 255 255 255
-0.048 -0.691 1.908 255 255 255
-0.193 -0.309 1.955 255 255 255
-1.192 -0.47 2.33 255 255 255
-0.842 -0.778 2.442 255 255 255
-0.226 -0.565 1.859 255 255 255
-0.217 -0.255 1.963 255 255 255
-0.766 -1.687 2.192 255 255 255
-0.591 -0.754 2.395 255 255 255
0.492 -0.277 1.198 255 255 255
0.329 0.105 0.588 255 255 255
0.131 0.663 1.564 255 255 255
0.139 -0.235 1.659 255 255 255
-0.96 -0.167 1.314 255 255 255
-1.314 -0.505 2.249 255 255 255
0.559 -0.682 1.076 255 255 255
-1.064 -1.237 2.149 255 255 255
-0.539 -0.862 2.186 0 0 0
0.518 -0.278 1.18 255 255 255
-0.921 -0.302 2.559 255 255 255
-1.332 -0.102 2.371 255 255 255
0.616 -0.037 0.873 255 255 255
0.096 0.293 1.845 255 255 255
-0.495 0.573 1.681 255 255 255
0.13 -0.293 1.661 255 255 255
-1.231 -0.498 2.297 255 255 255
0.215 -0.202 1.53 255 255 255
-1.214 -0.165 2.425 255 255 255
-0.804 0.434 1.983 255 255 255
-0.086 -0.632 1.976 0 0 0
-0.649 0.567 1.651 255 255 255
-0.175 -0.758 1.803 255 255 255
-0.143 0.241 2.23 255 255 255
-1.088 0.212 2.431 255 255 255
0.286 0.22 1.487 255 255 255
-0.174 -0.307 1.967 255 255 255
0.55 -0.237 1.161 255 255 255
-1.229 -0.025 2.457 255 255 255
0.377 0.214 1.331 255 255 255
0.425 -0.158 1.096 0 0 0
0.069 -0.575 1.774 255 255 255
0.125 -0.088 1.706 255 255 255
0.099 -0.524 1.797 0 0 0
-0.078 -0.255 2.034 255 255 255
0.197 0.281 1.657 255 255 255
-0.621 0.487 1.817 255 255 255
0.179 -0.594 1.814 255 255 255
0.113 -0.171 1.719 255 255 255
0.467 -0.211 1.245 255 255 255
0.101 0.686 1.487 255 255 255
-0.567 -0.256 2.302 255 255 255
-0.389 0.427 2.07 255 255 255
0.075 -0.142 1.796 255 255 255
0.212 0.054 1.583 255 255 255
0.295 0.484 1.533 255 255 255
0.631 -0.13 0.988 255 255 255
0.358 -0.161 1.299 255 255 255
-0.211 0.28 2.142 255 255 255
-1.053 -0.442 2.425 255 255 255
-1.126 -0.508 2.358 255 255 255
-0.056 0.335 2.113 255 255 255
-0.931 -0.069 2.631 255 255 255
-0.679 0.094 2.546 255 255 255
0.23 0.085 1.556 255 255 255
-0.214 0.687 1.377 255 255 255
-0.723 -0.294 2.48 255 255 255
0.292 -1.072 1.504 255 255 255
-0.747 0.156 2.61 255 255 255
-1.026 0.32 2.12 255 255 255
-0.142 -1.386 1.915 0 0 0
0.317 -0.119 1.374 255 255 255
0.096 -0.417 1.829 0 0 0
0.169 -0.081 1.632 255 255 255
0.428 -0.088 1.193 255 255 255
-0.785 -0.72 2.484 255 255 255
0.263 0.028 1.492 255 255 255
-0.672 0.551 1.707 255 255 255
0.244 0.388 1.597 255 255 255
0.133 0.229 1.757 255 255 255
0.592 -0.149 1.049 255 255 255
-0.098 0.001 2.123 255 255 255
-0.517 -0.453 2.168 255 255 255
0.535 -0.053 1.024 255 255 255
-0.061 -0.983 1.874 0 0 0
0.497 -0.306 1.186 255 255 255
-0.619 -1.697 2.275 0 0 0
-1.222 -0.983 2.139 255 255 255
-0.869 -1.067 2.332 255 255 255
0.538 0.27 1.072 255 255 255
-0.343 -0.721 1.716 255 255 255
0.109 -0.944 1.667 255 255 255
0.528 0.152 1.067 255 255 255
-0.458 0.633 1.493 255 255 255
0.584 0.041 0.958 255 255 255
-0.124 0.69 1.404 255 255 255
0.526 -0.203 1.163 255 255 255
-0.845 -0.884 2.409 255 255 255
-1.124 0.404 2.063 255 255 255
0.344 0.38 1.42 255 255 255
-0.94 -0.897 2.342 255 255 255
-1.062 0.266 2.123 255 255 255
0.565 0.018 0.984 255 255 255
0.116 0.322 1.815 255 255 255
-1.296 -0.304 2.317 255 255 255
-0.374 0.131 2.019 255 255 255
0.499 0.049 1.1 255 255 255
0.098 0.219 1.824 255 255 255
0.182 0.363 1.704 255 255 255
0.094 -0.101 1.761 255 255 255
-0.016 0.545 1.919 255 255 255
0.326 -0.278 1.452 255 255 255
-0.156 -0.215 2 255 255 255
0.477 0.046 1.137 255 255 255
0.018 -0.237 1.891 255 255 255
0.394 0.323 1.325 255 255 255
0.567 -0.027 0.974 255 255 255
-0.925 -1.529 2.142 255 255 255
-0.599 0.397 1.995 0 0 0
0.152 -1.193 1.598 0 0 0
-0.345 -0.37 1.84 255 255 255
0.288 0.37 1.514 255 255 255
0.448 0.254 1.218 255 255 255
-0.399 -0.103 1.9 255 255 255
0.242 -0.03 1.514 255 255 255
0.274 0.412 1.552 255 255 255
0.112 -0.201 1.711 255 255 255
-0.337 0.504 1.931 255 255 255
-0.522 0.523 1.736 255 255 255
-0.386 0.229 2.053 255 255 255
-0.674 0.436 1.962 0 0 0
0.371 0.316 1.36 255 255 255
0.172 -0.032 1.634 255 255 255
0.355 -0.101 1.312 255 255 255
0.309 -0.305 1.5 255 255 255
-0.602 0.489 1.797 255 255 255
0.085 0.194 0.468 255 255 255
-0.48 -0.416 2.172 255 255 255
-0.963 -1.083 2.262 255 255 255
0.375 0.351 1.359 255 255 255
-0.89 -1.606 2.136 0 0 0
0.284 -0.178 1.422 255 255 255
0.435 -0.153 1.131 0 0 0
-0.148 -0.442 1.921 255 255 255
-0.459 0.585 1.642 255 255 255
0.562 -0.708 1.065 255 255 255
0.369 -0.578 2.037 255 255 255
0.527 0.023 1.049 255 255 255
0.545 -0.019 1.013 255 255 255
-0.764 -0.986 2.41 255 255 255
0.457 -0.09 1.145 255 255 255
0.043 -0.562 1.781 255 255 255
0.214 0.676 1.53 0 0 0
0.071 -0.157 1.798 255 255 255
-0.944 0.018 2.652 255 255 255
-0.835 -0.9 2.409 255 255 255
-1.063 0.221 2.414 255 255 255
0.521 0.005 1.058 255 255 255
0.1 -0.159 1.742 255 255 255
0.492 -0.121 1.054 255 255 255
0.068 0.562 1.867 255 255 255
-1.234 -0.03 2.456 255 255 255
0.178 0.222 1.675 255 255 255
0.553 -0.677 1.07 255 255 255
-0.769 0.379 2.071 255 255 255
0.303 0.117 1.443 255 255 255
0.116 0.221 0.412 255 255 255
0.277 0.744 1.357 255 255 255
-0.863 -0.599 2.487 255 255 255
-1.156 -0.33 1.645 255 255 255
0.498 0.17 1.12 255 255 255
0.07 -1.175 1.612 0 0 0
-0.017 0.18 2.04 255 255 255
-0.876 -0.874 2.389 255 255 255
-0.619 0.406 1.97 0 0 0
-1.071 0.007 2.563 255 255 255
0.155 -0.854 1.724 255 255 255
0.486 0.348 1.171 255 255 255
-1.184 -1.137 2.107 255 255 255
-0.591 -0.817 2.193 255 255 255
-0.573 -0.365 2.298 255 255 255
-0.385 0.427 2.073 255 255 255
-0.594 -1.145 2.255 255 255 255
-0.229 -1.523 2.038 0 0 0
-0.625 0.533 1.736 0 0 0
-0.309 0.887 2.083 255 255 255
0.49 -0.246 1.213 255 255 255
-1.11 -1.307 2.096 255 255 255
-0.326 -0.577 1.784 255 255 255
-0.164 -0.733 1.815 255 255 255
-0.987 -1.457 2.124 255 255 255
-0.669 -0.31 2.498 255 255 255
0.497 0.003 1.092 255 255 255
0.38 0.055 0.573 255 255 255
0.094 0.197 1.823 255 255 255
0.276 -0.238 1.347 0 0 0
0.657 -0.16 0.964 255 255 255
0.507 -0.245 1.192 255 255 255
0.431 -0.004 1.204 255 255 255
0.037 0.574 1.814 0 0 0
-0.549 -1.08 2.257 255 255 255
-0.632 -0.972 2.275 255 255 255
-1.378 -0.636 2.097 255 255 255
-0.254 -0.368 1.9 255 255 255
0.294 0.247 1.478 255 255 255
-0.605 0.416 1.938 0 0 0
-0.189 0.305 2.133 255 255 255
-0.822 -1.409 2.238 255 255 255
-0.33 0.07 2.027 255 255 255
0.046 0.204 1.924 255 255 255
0.162 0.031 1.663 255 255 255
-1.02 -1.33 2.145 255 255 255
-0.942 -0.534 2.464 255 255 255
0.007 -0.255 1.909 255 255 255
-0.571 0.564 1.684 255 255 255
0.004 0.395 2.018 255 255 255
-0.974 0.073 2.652 255 255 255
-1.339 -0.158 2.347 255 255 255
0.423 -0.019 1.214 255 255 255
0.522 -0.709 1.074 255 255 255
0.458 0.131 1.179 255 255 255
0.314 0.561 1.495 255 255 255
0.423 0.067 1.228 255 255 255
0.562 0.066 0.995 255 255 255
0.453 0.35 1.227 255 255 255
-0.581 0.385 2.025 0 0 0
-1.033 -1.107 2.217 255 255 255
-0.374 0.524 1.865 255 255 255
-0.199 -0.384 1.926 255 255 255
-0.732 0.455 1.996 255 255 255
-0.235 0.021 2.06 255 255 255
-0.382 -0.494 1.773 255 255 255
-0.342 -0.522 1.797 255 255 255
0.06 0.646 1.608 255 255 255
-0.114 0.696 1.389 255 255 255
0.26 -0.002 1.49 255 255 255
0.026 -0.191 1.885 255 255 255
-0.607 0.036 0.874 255 255 255
0.439 0.202 1.224 255 255 255
-1.205 -0.81 2.21 255 255 255
-0.151 -0.58 1.875 255 255 255
-0.974 -0.325 2.514 255 255 255
0.225 0.439 1.648 255 255 255
-0.266 -0.699 1.784 255 255 255
-0.415 0.543 1.813 0 0 0
-0.232 -1.009 1.684 0 0 0
0.379 -0.159 1.255 0 0 0
-0.607 0.037 0.878 255 255 255
0.118 -0.326 1.637 0 0 0
-0.231 -0.295 1.939 255 255 255
0.425 -0.128 1.19 255 255 255
0.177 -0.639 1.781 255 255 255
0.003 0.112 1.991 255 255 255
-0.241 0.233 2.143 255 255 255
-0.89 0.057 2.701 255 255 255
-0.645 -0.743 2.365 255 255 255
0.373 0.309 1.357 255 255 255
-0.288 -0.509 1.842 255 255 255
-0.317 0.419 2.107 255 255 255
0 0.588 1.783 255 255 255
0.196 0.191 1.635 255 255 255
0.499 -0.461 1.158 255 255 255
-0.104 0.556 1.872 255 255 255
-0.645 -0.752 2.362 255 255 255
0.083 -0.746 1.719 255 255 255
0.19 -0.082 1.592 255 255 255
-0.11 0.63 1.592 255 255 255
0.324 -0.022 1.382 255 255 255
-1.225 -0.155 2.422 255 255 255
0.407 -0.128 1.224 255 255 255
0.42 0.067 1.235 255 255 255
-1.127 0.312 2.099 255 255 255
0.431 -0.047 1.197 255 255 255
-1.025 -0.922 2.28 255 255 255
-0.29 -0.749 1.751 255 255 255
-0.932 -1.348 2.191 255 255 255
0.348 0.337 1.406 255 255 255
0.259 -0.159 1.465 255 255 255
0.145 -0.132 1.658 255 255 255
-0.429 0.434 1.955 255 255 255
-0.486 -1.667 2.355 255 255 255
-0.571 0.664 1.341 255 255 255
0.335 -0.16 1.338 255 255 255
0.014 0.587 1.792 255 255 255
-0.117 0.1 2.175 255 255 255
-0.638 -0.979 2.278 255 255 255
-0.505 0.458 1.871 255 255 255
0.142 0.442 1.798 255 255 255
0.043 -0.359 1.804 255 255 255
0 -1.042 1.759 255 255 255
-1.369 -0.082 2.358 255 255 255
-0.59 0.348 2.231 255 255 255
0.087 0.452 1.87 255 255 255
-0.392 0.442 2.02 0 0 0
-0.472 0.573 1.695 255 255 255
-0.238 -0.902 1.736 255 255 255
-0.624 0.311 2.121 255 255 255
-0.493 0.352 2.1 255 255 255
-0.145 0.688 1.399 255 255 255
-0.507 -0.988 2.23 255 255 255
0.361 0.436 1.406 255 255 255
0.524 0.094 1.062 255 255 255
-0.47 0.653 1.412 255 255 255
0.055 -0.949 1.693 0 0 0
0.2 -0.92 1.705 255 255 255
-0.478 0.611 1.545 255 255 255
-0.37 0.634 1.504 255 255 255
-0.693 0.469 1.896 255 255 255
0.121 0.609 1.729 255 255 255
-0.674 0.032 2.527 255 255 255
-0.052 -0.263 1.998 255 255 255
-0.895 0.498 1.82 0 0 0
0.626 0.029 0.888 255 255 255
-0.375 0.563 1.765 255 255 255
0.096 -0.314 1.722 0 0 0
0.565 -0.084 0.924 0 0 0
0.375 0.062 1.312 255 255 255
0.239 0.633 1.629 255 255 255
0.026 -0.717 1.789 0 0 0
-0.248 -0.335 1.916 255 255 255
-1.373 -0.419 2.234 255 255 255
-1.239 -0.16 2.413 255 255 255
0.237 0.069 1.54 255 255 255
0.157 0.203 1.709 255 255 255
-1.046 -0.837 2.296 255 255 255
0.478 0.31 1.18 255 255 255
-1.271 -0.964 2.114 255 255 255
0.557 0.086 1.01 255 255 255
0.09 0.667 1.534 255 255 255
0.205 -1.028 1.673 255 255 255
0.235 0.36 1.607 255 255 255
0.477 -0.037 1.123 255 255 255
-1.35 -0.391 2.262 255 255 255
-0.04 -0.264 1.979 255 255 255
0.298 -0.037 1.423 255 255 255
-0.505 0.505 1.759 255 255 255
-1.008 -0.767 2.345 255 255 255
-0.389 0.589 1.667 255 255 255
-0.936 -1.657 2.096 255 255 255
-0.788 -0.069 1.073 255 255 255
-0.758 -0.184 2.513 255 255 255
0.264 -0.328 1.568 255 255 255
-0.772 -1.411 2.275 255 255 255
-0.308 0.146 2.073 255 255 255
0 -0.644 1.847 0 0 0
0.23 -0.25 1.479 255 255 255
0.317 -0.122 1.373 255 255 255
-0.04 -0.985 1.842 255 255 255
-0.633 0.617 1.476 255 255 255
0.404 -0.078 1.235 255 255 255
0.423 -0.591 2.028 255 255 255
0.123 0.531 1.828 255 255 255
0.54 0.052 1.029 255 255 255
0.086 0.196 0.468 255 255 255
-0.054 0.038 2.066 255 255 255
-0.049 -0.104 2.026 255 255 255
0.145 -0.442 1.836 255 255 255
0.246 0.689 1.497 255 255 255
-0.255 -0.804 1.755 255 255 255
-1.126 -0.284 1.636 255 255 255
-0.118 0.692 1.401 255 255 255
0.061 -0.686 1.731 255 255 255
-0.004 -1.175 1.742 255 255 255
-1.012 0.28 2.138 255 255 255
-0.161 -0.18 2.01 255 255 255
0.095 0.489 1.875 255 255 255
0.469 0.379 1.209 255 255 255
-0.926 -0.581 2.46 255 255 255
0.61 -0.034 0.899 255 255 255
-1.061 -0.347 2.454 255 255 255
-0.028 -0.465 1.918 255 255 255
-0.046 0.566 1.841 255 255 255
-0.415 0.311 2.065 255 255 255
-0.345 0.572 1.725 255 255 255
0.465 0.317 1.202 255 255 255
-0.776 0.504 1.812 255 255 255
-1.354 -0.827 2.106 255 255 255
-0.113 0.686 1.418 255 255 255
-0.322 0.373 2.089 255 255 255
-0.333 0.678 1.363 255 255 255
0.55 0.135 1.027 255 255 255
-0.151 0.707 1.339 255 255 255
-0.833 0.473 1.912 255 255 255
-0.33 -0.877 1.676 255 255 255
-0.284 -0.149 1.968 255 255 255
-1.035 -0.977 2.26 255 255 255
0.174 -0.157 1.61 255 255 255
0.556 0.089 1.012 255 255 255
-0.852 -0.989 2.369 255 255 255
-0.487 -1.727 2.337 0 0 0
0.489 -0.181 1.157 255 255 255
-0.908 -1.171 2.266 255 255 255
-0.019 -0.412 1.859 255 255 255
-0.653 0.009 0.925 255 255 255
0.306 -0.176 1.386 255 255 255
-0.781 0.505 1.801 255 255 255
-1.434 -0.238 2.279 255 255 255
0.436 0.323 1.255 255 255 255
-0.347 0.293 2.096 255 255 255
-0.326 -0.493 1.821 255 255 255
-0.555 0.375 2.146 255 255 255
0.109 0.092 1.772 255 255 255
-0.523 0.379 2.002 255 255 255
-0.207 -1.07 1.672 255 255 255
0.524 -0.587 1.097 255 255 255
-1.182 0.127 2.446 255 255 255
-0.478 -0.249 2.122 255 255 255
-0.55 0.075 0.826 255 255 255
-0.685 0.413 2.012 255 255 255
0.492 -0.321 1.192 255 255 255
0.534 0.016 1.033 255 255 255
-0.186 -0.787 1.791 255 255 255
-0.397 0.44 2.047 0 0 0
0.141 0.461 1.78 255 255 255
-1.045 0.097 1.657 255 255 255
-0.103 -0.493 2.03 0 0 0
0.062 0.584 1.795 255 255 255
-0.761 0.568 1.622 255 255 255
-1.367 -0.817 2.1 255 255 255
0.53 0.025 1.045 255 255 255
-0.183 -0.894 1.759 255 255 255
-0.849 0.474 1.894 255 255 255
-0.361 0.471 2.077 255 255 255
0.117 -0.308 1.671 0 0 0
-1.192 -0.288 2.397 255 255 255
-0.177 0.495 1.806 255 255 255
-0.201 0.573 1.803 255 255 255
0.275 -0.255 1.366 255 255 255
0.467 0.392 1.216 255 255 255
0.487 -0.123 1.016 0 0 0
-0.82 -1.332 2.26 255 255 255
0.568 0.247 1.032 255 255 255
-0.987 -0.73 2.371 255 255 255
-0.291 -0.4 1.859 255 255 255
-0.668 -1.701 2.242 255 255 255
0.534 -0.44 1.137 255 255 255
-1.194 -1.093 2.118 255 255 255
-0.223 -0.993 1.706 255 255 255
0.379 0.205 1.328 255 255 255
-0.365 0.094 2.016 255 255 255
-0.981 -0.047 2.606 255 255 255
0.317 -0.102 1.376 255 255 255
-0.329 -0.85 1.683 255 255 255
-0.131 -0.666 1.85 255 255 255
-0.168 0.46 1.792 255 255 255
0.169 -0.296 1.529 0 0 0
-0.318 0.569 1.718 255 255 255
-1.002 -0.273 2.514 255 255 255
-0.254 -0.895 1.72 255 255 255
0.455 -0.1 1.146 255 255 255
-0.429 0.684 1.322 255 255 255
0.501 0.042 1.095 255 255 255
-0.102 -0.654 1.888 0 0 0
-1.309 -0.113 2.384 255 255 255
-0.864 0.242 2.316 255 255 255
0.342 0.042 1.362 255 255 255
-0.095 0.687 1.427 255 255 255
-1.009 -1.625 2.078 255 255 255
-0.724 -1.602 2.241 255 255 255
0.103 0.147 1.793 255 255 255
-0.235 0.412 2.034 255 255 255
0.627 -0.133 0.996 255 255 255
-0.153 0.441 1.793 255 255 255
-0.88 -1.164 2.284 255 255 255
0.418 -0.017 1.222 255 255 255
-0.004 -1.061 1.767 255 255 255
0.089 0.681 1.499 255 255 255
0.495 -0.312 1.186 255 255 255
-0.87 0.501 1.804 255 255 255
0.335 0.551 1.473 255 255 255
-0.364 0.643 1.474 255 255 255
-1.319 -0.688 2.183 255 255 255
-1.148 -0.243 2.433 255 255 255
0.53 -0.29 1.185 255 255 255
-0.333 0.477 2.067 255 255 255
0.114 0.039 1.748 255 255 255
0.022 -0.287 1.87 255 255 255
-0.358 -0.438 1.817 255 255 255
0.081 0.197 0.469 255 255 255
-0.988 -1.585 2.086 255 255 255
-0.183 -1.428 1.971 0 0 0
-0.758 -0.082 2.537 255 255 255
0.473 0.383 1.203 255 255 255
0.593 -0.099 0.902 255 255 255
-0.471 0.651 1.424 0 0 0
0.312 -0.067 1.394 255 255 255
-0.462 0.451 1.88 255 255 255
0.211 0.658 1.591 255 255 255
-0.922 0.442 1.968 255 255 255
-0.348 0.252 2.079 255 255 255
-1.131 -0.889 2.229 255 255 255
0.137 -0.146 1.676 255 255 255
-0.221 -0.236 1.968 255 255 255
-0.45 0.623 1.515 255 255 255
0.326 -0.104 1.362 255 255 255
-1.339 -0.64 1.987 255 255 255
-0.759 -1.509 2.246 255 255 255
-1.286 -0.811 2.15 255 255 255
0.651 -0.112 0.952 0 0 0
-0.335 0.099 2.033 255 255 255
-0.178 0.469 1.781 255 255 255
-0.883 -0.298 2.582 255 255 255
-0.709 0.494 1.839 0 0 0
-0.645 0.334 2.095 255 255 255
-1.061 -0.776 2.305 255 255 255
-0.335 -0.031 1.987 255 255 255
-1.051 0.28 2.121 255 255 255
-0.073 -0.462 1.992 255 255 255
-0.129 -0.504 1.91 255 255 255
0.135 -1.011 1.649 0 0 0
-0.837 -0.326 2.599 255 255 255
-0.142 0.353 2.139 255 255 255
0.31 0.302 1.459 255 255 255
-0.273 -0.225 1.94 255 255 255
0.043 0.359 1.961 255 255 255
0.404 0.195 1.287 255 255 255
-0.713 -1.575 2.254 255 255 255
0.136 0.346 1.783 255 255 255
-0.572 -1.616 2.33 255 255 255
0.567 0.077 0.99 255 255 255
0.48 -0.086 1.11 255 255 255
-1.134 -0.463 2.368 255 255 255
-0.34 0.395 2.091 255 255 255
-1.165 -0.363 2.383 255 255 255
0.517 -0.076 1.049 255 255 255
0.53 0.293 1.091 255 255 255
-0.223 -1.514 2.027 0 0 0
-0.803 -0.074 1.066 255 255 255
-0.554 0.623 1.492 255 255 255
-0.28 0.708 1.296 255 255 255
0.106 0.554 1.85 255 255 255
-1.251 0.068 2.393 255 255 255
-0.211 0.098 2.109 255 255 255
-0.955 -1.396 2.171 255 255 255
-0.419 0.423 2.048 0 0 0
0.329 0.079 1.388 255 255 255
0.535 -0.076 1.013 255 255 255
0.026 -0.683 1.798 0 0 0
-0.543 -1.128 2.289 0 0 0
-0.094 -0.615 1.99 0 0 0
-1.083 -0.232 1.733 255 255 255
0.413 0.178 1.265 255 255 255
-0.654 0.581 1.608 255 255 255
0.557 0.082 1.009 255 255 255
0.223 0.519 1.642 255 255 255
-0.416 0.688 1.32 255 255 255
-0.316 -0.09 1.97 255 255 255
0.087 -0.676 1.745 255 255 255
0.353 0.283 1.387 255 255 255
-0.105 0.695 1.394 255 255 255
-1.178 -1.191 2.1 255 255 255
-0.122 -0.423 1.945 255 255 255
0.585 0.092 0.984 255 255 255
0.47 0.087 1.151 255 255 255
0.184 -0.944 1.685 255 255 255
0.288 -0.092 1.429 255 255 255
0.359 -0.198 1.202 0 0 0
0.264 0.556 1.586 255 255 255
0.515 0.316 1.119 255 255 255
-0.212 -0.175 1.996 255 255 255
0.292 0.08 0.482 255 255 255
0.32 0.174 1.422 255 255 255
-0.336 -0.019 1.989 255 255 255
0.524 0.124 1.065 255 255 255
-0.385 -0.648 1.74 255 255 255
-0.012 -0.994 1.791 255 255 255
-0.114 0.292 2.173 255 255 255
0.189 0.325 1.675 255 255 255
-0.292 -0.205 1.938 255 255 255
-0.199 -0.245 1.979 255 255 255
-0.369 -0.796 1.714 255 255 255
-1 0.333 2.338 255 255 255
0.434 -0.16 1.093 0 0 0
0.158 0.108 1.686 255 255 255
0.287 0.353 1.512 255 255 255
0.51 0.167 1.1 255 255 255
0.539 -0.257 1.205 255 255 255
-0.38 -1.682 2.298 0 0 0
-0.118 0.702 1.366 255 255 255
-1.029 -0.592 2.388 255 255 255
-0.716 0.372 2.041 255 255 255
-0.204 0.574 1.795 255 255 255
0.552 -0.587 1.101 255 255 255
-0.669 -1.558 2.288 255 255 255
-0.364 0.182 2.05 255 255 255
-0.782 -1.65 2.186 255 255 255
0.103 -0.217 1.726 255 255 255
-0.94 0.274 2.277 255 255 255
-1.299 -0.495 2.256 255 255 255
0.142 0.035 1.7 255 255 255
0.185 0.277 1.674 255 255 255
0.513 -0.404 1.149 255 255 255
-0.958 -1.661 2.076 255 255 255
-0.23 0.272 2.081 255 255 255
0.535 0.301 1.093 255 255 255
-0.036 -0.398 1.943 255 255 255
-0.86 -1.409 2.218 255 255 255
0.493 -0.327 1.186 255 255 255
-1.249 -0.535 2.269 255 255 255
-0.528 -1.077 2.279 255 255 255
-0.971 -1.55 2.1 0 0 0
-0.603 0.435 1.93 255 255 255
-0.29 0.173 2.094 255 255 255
-0.635 0.458 1.932 0 0 0
-1.066 0.401 2.012 255 255 255
-0.299 -0.767 1.733 255 255 255
0.344 0.045 1.359 255 255 255
0.557 -0.559 1.116 255 255 255
0.399 0.355 1.325 255 255 255
0.439 0.073 1.203 255 255 255
0.502 -0.439 1.15 255 255 255
-0.114 0.566 1.852 255 255 255
0.018 -0.222 1.892 255 255 255
-0.852 -0.377 2.57 255 255 255
0.418 -0.161 1.175 0 0 0
0.276 0.136 1.49 255 255 255
0.293 0.337 1.497 255 255 255
0.526 -0.317 1.165 255 255 255
-1.419 -0.598 1.998 255 255 255
-0.539 0.475 1.802 255 255 255
-0.778 -1.664 2.187 255 255 255
-0.114 0.582 1.787 255 255 255
0.097 -0.308 1.728 255 255 255
-0.387 0.696 1.299 255 255 255
-0.854 -0.106 1.151 255 255 255
0.144 0.457 1.78 255 255 255
0.117 0.235 0.427 255 255 255
-1.211 0.38 2.083 255 255 255
-1.211 -0.644 2.257 255 255 255
0.094 -0.976 1.653 255 255 255
0.047 -0.539 1.782 255 255 255
-0.029 0.519 2.008 255 255 255
-0.049 -1.09 1.83 255 255 255
-0.058 -0.044 2.048 255 255 255
-1.17 -0.461 2.345 255 255 255
-0.228 0.486 1.797 255 255 255
0 -0.679 1.843 0 0 0
-0.567 -0.228 2.305 255 255 255
-0.03 0.599 1.769 255 255 255
0.264 -0.167 1.457 255 255 255
0.029 -0.13 1.883 255 255 255
0.037 -0.876 1.738 0 0 0
-0.658 -0.931 2.29 255 255 255
-0.535 0.053 2.32 255 255 255
-0.114 0.667 1.483 255 255 255
-0.184 0.154 2.137 255 255 255
0.438 0.246 1.233 255 255 255
-0.296 0.697 1.324 255 255 255
0.574 0.18 1.003 255 255 255
0.161 -0.072 1.647 255 255 255
-1.001 -1.054 2.252 255 255 255
0.542 -0.094 0.937 0 0 0
-0.48 0.415 1.979 255 255 255
-0.87 -0.991 2.356 255 255 255
0.39 -0.064 1.261 255 255 255
-0.32 -0.782 1.717 255 255 255
0.045 0.149 1.911 255 255 255
-0.835 0.225 2.352 255 255 255
-1.243 -0.428 2.307 255 255 255
0.435 0.291 1.248 255 255 255
-0.139 0.714 1.327 255 255 255
0.109 -0.656 1.755 0 0 0
0.115 0.283 1.806 255 255 255
0.319 -0.489 2.034 255 255 255
-0.759 -0.788 2.44 255 255 255
0.185 0.291 1.676 255 255 255
0.42 0.402 1.291 255 255 255
0.434 -0.188 1.189 255 255 255
0.551 0.036 1.006 255 255 255
0.259 -0.179 1.463 255 255 255
-0.038 0.472 2.08 255 255 255
0.349 0.51 1.442 0 0 0
-0.208 0.442 1.791 255 255 255
-0.69 -0.519 2.416 255 255 255
-1.338 0.063 2.359 255 255 255
-0.83 -0.357 2.592 255 255 255
-0.986 -0.893 2.317 255 255 255
-1.114 -0.242 1.742 255 255 255
-0.282 0.913 2.111 255 255 255
-1.362 -0.561 2.01 0 0 0
0.577 -0.161 1.076 255 255 255
-1.363 -0.538 2.015 0 0 0
0.48 -0.07 1.112 255 255 255
-0.749 -0.984 2.395 0 0 0
0.203 -0.276 1.505 0 0 0
-1.179 -0.753 2.242 255 255 255
-0.087 0.697 1.398 255 255 255
-0.362 -1.118 1.707 255 255 255
-0.906 -1.552 2.142 0 0 0
0.522 -0.082 1.037 255 255 255
-0.796 -0.407 2.569 255 255 255
0.551 0.016 1.01 255 255 255
0.505 0.12 1.104 255 255 255
-0.093 0.704 1.338 255 255 255
0.424 0.018 1.223 255 255 255
0.162 0.292 1.723 255 255 255
-0.333 0.692 1.329 255 255 255
-0.609 -1.536 2.328 255 255 255
-0.356 -1.114 1.695 255 255 255
0.402 0.228 1.296 255 255 255
0.157 0.074 1.68 255 255 255
0.044 0.582 1.801 255 255 255
-1.027 0.311 2.157 255 255 255
0.084 -0.449 1.82 255 255 255
0.308 0.449 1.504 255 255 255
0.49 -0.083 1.092 255 255 255
-1.025 -0.583 2.394 255 255 255
0.209 0.685 1.516 0 0 0
-0.374 0.604 1.626 0 0 0
-0.71 -0.295 2.492 255 255 255
-0.146 -0.632 1.859 255 255 255
-0.06 -0.359 1.99 255 255 255
-1.353 -0.586 2.038 255 255 255
-0.092 -0.082 2.096 255 255 255
0.054 -0.134 1.833 255 255 255
-1.239 -0.71 2.218 255 255 255
-0.776 -1.632 2.192 0 0 0
-0.95 0.265 2.275 255 255 255
-1.038 -0.592 2.382 255 255 255
-0.559 -0.983 2.287 255 255 255
-0.02 -0.402 1.921 255 255 255
-0.194 0.102 2.109 255 255 255
0.269 -0.237 1.414 0 0 0
-0.044 -0.926 1.856 255 255 255
0.22 -0.052 1.549 255 255 255
0.554 -0.392 1.167 255 255 255
0.522 -0.605 1.093 255 255 255
0.6 0.063 0.935 255 255 255
-0.249 -0.695 1.796 255 255 255
-0.923 -0.61 2.449 255 255 255
-0.198 0.675 1.395 255 255 255
-0.164 0.464 1.79 255 255 255
-0.468 0.683 1.319 255 255 255
0.451 0.197 1.203 255 255 255
-0.416 0.288 2.051 255 255 255
0.521 0.083 1.067 255 255 255
0.537 -0.044 1.023 255 255 255
-0.41 0.453 1.899 255 255 255
0.349 0.452 1.43 255 255 255
0.582 0.003 0.955 255 255 255
-0.086 -0.362 2.031 255 255 255
-0.542 -0.443 2.161 255 255 255
0.448 0.143 1.2 255 255 255
-0.378 0.559 1.778 255 255 255
-0.682 -1.131 2.221 255 255 255
0.373 0.201 1.338 255 255 255
-0.161 -0.727 1.821 255 255 255
-0.045 -0.103 2.017 255 255 255
-1.099 -0.876 2.251 255 255 255
0.384 0.487 1.376 255 255 255
0.228 -0.221 1.508 255 255 255
0.532 -0.196 1.151 255 255 255
-0.141 0.588 1.745 255 255 255
0.072 -0.743 1.714 255 255 255
-0.21 0.49 1.8 255 255 255
0.32 -0.094 1.374 255 255 255
-0.269 -0.149 1.975 255 255 255
-1.013 0.472 1.852 255 255 255
0.158 -0.66 1.774 255 255 255
0.234 0.404 1.619 255 255 255
-0.687 0.001 2.536 255 255 255
0.376 0.087 1.315 255 255 255
-1.134 -0.309 2.423 255 255 255
-0.071 0.577 1.811 255 255 255
-0.914 -0.266 2.575 255 255 255
-0.383 -0.617 1.754 255 255 255
-0.156 -0.85 1.779 255 255 255
-0.196 -0.538 1.868 255 255 255
0.214 0.658 1.591 255 255 255
-0.838 -1.078 2.352 255 255 255
-0.823 -0.79 2.451 255 255 255
-0.09 -0.705 1.96 0 0 0
-1.382 -0.487 2.209 255 255 255
0.542 0.184 1.053 255 255 255
0.403 -0.504 2.051 255 255 255
0.433 0.016 1.204 255 255 255
0.628 -0.012 0.879 255 255 255
-0.111 0.648 1.548 255 255 255
-0.016 -0.619 1.873 255 255 255
0.351 -0.107 1.317 255 255 255
-0.5 0.615 1.522 255 255 255
-0.839 -0.043 2.691 255 255 255
-0.064 0.574 1.826 255 255 255
-0.234 0.431 1.791 255 255 255
-1.376 -0.48 2.035 0 0 0
-0.981 -1.425 2.137 255 255 255
-0.835 -0.516 2.534 255 255 255
-0.246 -0.433 1.89 255 255 255
0.198 0.702 1.468 255 255 255
-0.191 -0.622 1.839 255 255 255
-0.598 -1 2.255 255 255 255
-1.139 -0.581 2.325 255 255 255
-0.568 -0.997 2.279 255 255 255
0.358 0.525 1.399 255 255 255
-0.639 -1.143 2.232 255 255 255
-0.958 0.457 1.86 255 255 255
-0.296 0.021 2.025 255 255 255
0.24 -0.135 1.498 255 255 255
0.4 -0.458 2.063 255 255 255
-0.005 0.427 2.033 255 255 255
-1.145 -0.317 1.697 255 255 255
0.099 -0.478 1.812 0 0 0
0.247 -0.543 1.882 255 255 255
0.167 0.349 1.727 255 255 255
-0.06 0.582 1.801 255 255 255
0.289 -0.513 1.997 255 255 255
0.268 -0.175 1.447 255 255 255
0.178 -0.016 1.628 255 255 255
0.561 -0.017 0.986 255 255 255
-0.721 0.44 2.033 0 0 0
-0.328 -0.285 1.886 255 255 255
0.056 0.685 1.471 255 255 255
-0.4 0.662 1.399 255 255 255
0.543 -0.232 1.166 255 255 255
0.04 -0.827 1.744 0 0 0
0.118 0.264 0.477 255 255 255
0.497 -0.189 1.182 255 255 255
-0.745 0.059 2.585 255 255 255
0.106 -1.103 1.613 255 255 255
-0.716 -0.397 2.448 255 255 255
-1.187 -0.155 2.443 255 255 255
-0.506 -0.101 2.19 255 255 255
-0.711 -1.482 2.287 255 255 255
-0.742 -0.214 2.497 255 255 255
-1.303 -0.159 2.372 255 255 255
0.516 0.276 1.11 255 255 255
0.029 -0.808 1.767 0 0 0
-0.139 0.702 1.365 255 255 255
-0.143 -0.618 1.865 0 0 0
-0.993 -0.031 2.606 255 255 255
0.356 0.228 1.371 255 255 255
0.106 -0.137 1.73 255 255 255
0.109 -1.027 1.639 255 255 255
0.628 -0.118 0.972 0 0 0
-0.086 0.133 2.141 255 255 255
0.431 -0.136 1.169 0 0 0
0.298 -0.022 1.422 255 255 255
-0.354 -0.844 1.675 255 255 255
-1.193 -0.382 1.641 255 255 255
0.449 -0.185 1.184 255 255 255
0.358 0.257 1.373 255 255 255
-1.235 -0.946 2.14 255 255 255
-0.594 0.368 2.155 255 255 255
0.212 -0.263 1.503 0 0 0
0.024 0.375 2.003 255 255 255
0.324 -0.019 1.383 255 255 255
0.182 0.498 1.71 255 255 255
-0.434 0.595 1.611 255 255 255
0.03 -0.138 1.884 255 255 255
-0.781 -0.59 2.513 255 255 255
0.389 0.274 1.323 255 255 255
