ply
format ascii 1.0
comment Created by Open3D
element vertex 1628
property double x
property double y
property double z
property uchar red
property uchar green
property uchar blue
end_header
0.502 -0.962 2.145 0 0 0
0.447 -0.314 1.856 255 255 255
0.137 -1.595 2.215 255 255 255
0.004 0.196 0.451 255 255 255
1.183 -0.92 2.117 255 255 255
1.584 -0.04 2.266 255 255 255
0.152 0.219 0.422 255 255 255
0.029 0.162 0.468 255 255 255
0.578 -1.034 2.25 0 0 0
-0.082 -0.412 1.684 255 255 255
-0.275 0.022 0.524 0 0 0
-0.072 0.256 0.467 255 255 255
-0.105 0.083 0.53 255 255 255
-0.175 0.22 0.477 0 0 0
1.365 -0.721 2.131 255 255 255
0.279 -0.021 0.956 255 255 255
-0.188 -0.377 1.68 255 255 255
0.117 0.085 0.476 0 0 0
0.223 0.157 0.459 255 255 255
1.231 -0.406 2.266 255 255 255
-0.205 -0.924 2.382 255 255 255
1.044 -0.99 2.136 255 255 255
0.293 0.128 0.53 255 255 255
0.188 0.104 0.546 255 255 255
-0.296 0.025 0.467 255 255 255
-0.237 0.057 0.546 0 0 0
0.474 -1.597 2.121 0 0 0
-0.414 -0.007 0.558 255 255 255
-0.032 0.154 0.481 255 255 255
-1.086 -1.765 2.529 255 255 255
-0.043 0.089 0.498 0 0 0
0.068 0.048 0.518 0 0 0
-0.086 0.156 0.48 255 255 255
1.056 -1.166 2.078 255 255 255
0.304 0.124 0.543 255 255 255
1.337 -0.689 2.142 255 255 255
-1.338 -1.492 2.693 255 255 255
0.073 0.075 0.451 255 255 255
0.969 -1.186 2.1 255 255 255
0.208 0.157 0.46 255 255 255
-0.261 0.07 0.519 0 0 0
1.076 -0.818 2.18 255 255 255
0.027 0.237 0.441 255 255 255
-0.553 -0.064 0.786 0 0 0
0.54 -0.28 1.65 0 0 0
-0.123 0.142 0.503 255 255 255
0.026 0.183 0.458 255 255 255
0.317 -1.6 2.162 0 0 0
0.267 -0.901 2.239 255 255 255
0.147 0.122 0.485 0 0 0
-0.041 0.16 0.477 255 255 255
0.107 0.044 0.573 0 0 0
0.186 0.18 0.442 255 255 255
0.1 0.153 0.474 255 255 255
-0.079 -0.004 0.728 255 255 255
-0.009 0.207 0.444 0 0 0
-0.148 0.053 0.553 255 255 255
-0.48 -0.857 2.495 255 255 255
-0.152 0.113 0.531 255 255 255
0.013 -0.482 1.692 255 255 255
-0.3 0.064 0.474 255 255 255
0.219 0.165 0.456 255 255 255
0.361 0.013 0.856 255 255 255
-0.029 0.195 0.454 255 255 255
-0.279 -0.284 1.559 255 255 255
-0.138 -0.053 0.892 0 0 0
-1.03 -0.948 2.846 255 255 255
0.13 -0.162 1.156 255 255 255
1.192 -0.146 2.36 255 255 255
-0.198 0.249 0.492 255 255 255
0.306 -0.07 1.08 255 255 255
-0.947 -1.297 2.654 255 255 255
0.007 0.002 0.758 255 255 255
0.311 -1.588 2.165 0 0 0
-0.378 -1.049 2.401 0 0 0
0.448 -0.751 2.241 255 255 255
0.263 0.121 0.533 255 255 255
0.733 -1.412 2.097 255 255 255
0.406 -0.266 1.702 255 255 255
-0.933 -1.306 2.647 255 255 255
-0.018 -0.474 1.702 255 255 255
0.199 0.061 0.657 255 255 255
0.256 -0.114 1.152 0 0 0
0.087 0.155 0.476 255 255 255
-0.022 0.231 0.448 255 255 255
1.593 -0.279 2.2 255 255 255
0.21 0.131 0.509 255 255 255
0.086 0.085 0.448 255 255 255
-0.104 -0.12 0.94 0 0 0
0.909 -1.451 2.034 255 255 255
-0.149 0.238 0.473 255 255 255
0.1 -0.024 0.855 255 255 255
-0.131 -0.189 1.163 0 0 0
-0.039 0.201 0.449 0 0 0
0.231 0.007 0.827 255 255 255
1.289 -0.075 2.351 255 255 255
-0.078 0.01 0.694 255 255 255
0.021 0.137 0.505 255 255 255
0.934 -0.53 2.317 255 255 255
-0.026 0.184 0.461 255 255 255
1.031 -1.04 2.128 255 255 255
-0.49 -0.417 1.628 255 255 255
0.953 -0.723 2.246 255 255 255
-0.406 -0.131 0.94 255 255 255
1.412 -0.574 2.166 255 255 255
-0.143 -1.03 2.323 255 255 255
-0.066 0.197 0.452 255 255 255
0.159 -1.127 2.178 255 255 255
0.02 -0.012 0.767 255 255 255
-0.251 -0.886 2.409 255 255 255
-0.138 0.217 0.466 0 0 0
-0.088 -1.18 2.261 0 0 0
0.048 0.164 0.464 255 255 255
0.79 -1.374 2.092 255 255 255
-0.368 -0.082 0.913 255 255 255
-0.419 -0.134 0.942 255 255 255
1.533 0.021 2.147 255 255 255
0.046 0.218 0.435 255 255 255
0.278 0.098 0.608 255 255 255
-0.096 0.072 0.594 255 255 255
1.298 0.017 2.381 255 255 255
-0.153 0.251 0.478 255 255 255
-0.202 0.119 0.541 0 0 0
0.077 0.197 0.444 255 255 255
-0.051 0.124 0.527 0 0 0
-0.233 -1.5 2.359 255 255 255
-0.095 -0.081 0.95 255 255 255
-0.102 0.147 0.495 255 255 255
0.226 -0.827 2.277 255 255 255
-1.098 -1.943 2.459 255 255 255
0.148 0.124 0.485 0 0 0
-0.977 -1.765 2.533 255 255 255
-1.638 -0.791 2.416 255 255 255
-0.121 0.048 0.565 255 255 255
-0.224 0.138 0.509 255 255 255
-0.134 -0.095 0.901 255 255 255
-0.289 0.055 0.48 255 255 255
1.228 -0.749 2.157 255 255 255
-0.387 -0.086 1.044 0 0 0
-0.065 0.181 0.464 255 255 255
-0.113 -0.901 2.355 255 255 255
-0.223 0.005 0.711 255 255 255
0.073 -0.023 0.853 255 255 255
-0.204 0.136 0.51 255 255 255
-0.654 -0.968 2.477 255 255 255
-0.11 -0.004 0.721 255 255 255
-0.059 -1.072 2.284 255 255 255
-0.385 -1.162 2.495 0 0 0
-0.093 0.104 0.508 255 255 255
-0.297 0.052 0.512 255 255 255
1.191 -0.491 2.246 255 255 255
0.087 -0.304 1.665 255 255 255
-0.447 -1.613 2.376 255 255 255
-0.102 0.145 0.497 255 255 255
-0.269 0.037 0.523 0 0 0
0.363 0.109 0.638 255 255 255
-0.238 0.027 0.682 0 0 0
0.053 0.186 0.454 255 255 255
-0.308 -0.076 0.979 255 255 255
0.24 -1.355 2.257 255 255 255
0.152 0.18 0.442 255 255 255
-0.178 0.003 0.694 255 255 255
-0.153 0.171 0.482 255 255 255
-0.387 -0.022 0.611 255 255 255
0.3 0.118 0.556 255 255 255
0.646 -1.03 2.24 255 255 255
-0.065 0.244 0.461 255 255 255
-0.176 0.103 0.549 0 0 0
0.46 -0.813 2.215 255 255 255
-0.124 -0.83 2.38 255 255 255
-0.286 0.076 0.486 255 255 255
0.241 0.132 0.496 0 0 0
-0.008 0.193 0.454 255 255 255
-0.015 0.123 0.508 0 0 0
0.527 -1.398 2.163 255 255 255
1.099 -0.958 2.132 255 255 255
-0.61 -1.25 2.575 255 255 255
0.023 0.158 0.472 255 255 255
-0.402 -0.099 0.883 255 255 255
0.097 0.031 0.621 0 0 0
0.394 -0.726 2.264 255 255 255
0.163 0.184 0.441 255 255 255
0.004 0.236 0.445 255 255 255
0.187 0.044 0.665 0 0 0
-1.06 -1.009 2.823 255 255 255
0.133 0.088 0.484 255 255 255
-0.213 0.137 0.509 255 255 255
-0.203 0.213 0.482 0 0 0
-0.191 0.138 0.507 255 255 255
-0.411 -0.886 2.457 255 255 255
0.103 0.008 0.63 255 255 255
0.089 -0.706 2.301 255 255 255
-0.194 0.233 0.485 255 255 255
0.276 0.041 0.716 255 255 255
-1.576 -0.901 2.669 255 255 255
-0.224 -0.092 0.911 255 255 255
-0.955 -1.8 2.508 255 255 255
-0.418 -0.161 1.238 0 0 0
-0.066 0.046 0.624 0 0 0
0.048 -0.004 0.809 255 255 255
-0.066 -0.147 1.1 255 255 255
-0.708 -0.217 1.267 255 255 255
-0.29 0.113 0.515 255 255 255
1.584 -0.071 2.256 255 255 255
-0.004 0.044 0.611 0 0 0
0.03 0.099 0.5 255 255 255
1.111 -1.071 2.098 255 255 255
0.105 0.168 0.455 255 255 255
1.01 -0.985 2.147 255 255 255
-0.154 -1.648 2.288 255 255 255
0.077 -0.114 0.987 0 0 0
-0.428 -0.058 0.743 255 255 255
-0.939 -1.761 2.512 255 255 255
0.156 0.213 0.427 255 255 255
-0.07 0.021 0.658 255 255 255
-0.306 0.007 0.482 255 255 255
0.215 0.169 0.451 255 255 255
-0.319 -0.056 0.981 0 0 0
0.374 -0.489 2.273 255 255 255
-0.524 -1.242 2.516 255 255 255
-1.552 -0.808 2.767 255 255 255
0.093 0.228 0.426 255 255 255
0.12 0.072 0.476 255 255 255
1.436 -0.404 2.209 255 255 255
0.348 -0.058 1.057 255 255 255
-0.035 -0.427 1.689 0 0 0
-0.19 -1.6 2.307 255 255 255
0.156 -1.414 2.267 255 255 255
0.456 -1.488 2.157 255 255 255
0.013 0.047 0.612 0 0 0
1.027 -0.269 2.37 0 0 0
0.123 -1.056 2.236 255 255 255
-0.603 -0.419 1.626 255 255 255
-0.324 -0.305 1.448 255 255 255
1.419 -0.661 2.14 255 255 255
0.151 -1.055 2.222 255 255 255
0.38 -1.582 2.15 0 0 0
1.154 -0.357 2.304 255 255 255
-0.301 -0.352 1.617 255 255 255
-0.99 -1.761 2.535 255 255 255
0.08 -1.043 2.245 255 255 255
0.061 -1.633 2.222 0 0 0
-0.976 -1.304 2.663 255 255 255
0.514 -0.557 2.087 255 255 255
-0.211 0.121 0.539 255 255 255
-0.141 0.048 0.563 255 255 255
0.05 0.189 0.453 255 255 255
0.158 0.092 0.485 0 0 0
0.051 0.019 0.558 255 255 255
-0.072 0.096 0.507 255 255 255
-0.25 0.043 0.53 255 255 255
0.105 0.223 0.423 255 255 255
-0.065 0.112 0.51 0 0 0
0.254 0.012 0.816 255 255 255
0.617 -0.288 1.73 0 0 0
0.081 -0.805 2.323 0 0 0
0.411 -1.413 2.193 255 255 255
0.802 -1.442 2.068 255 255 255
-0.305 0.028 0.51 255 255 255
0.779 -0.567 2.17 0 0 0
0.032 0.17 0.464 255 255 255
0.697 -0.342 1.789 255 255 255
0.167 -0.354 1.69 255 255 255
-0.187 0.194 0.469 255 255 255
1.39 -0.437 2.212 255 255 255
0.501 -0.807 2.206 255 255 255
-0.101 0.085 0.589 0 0 0
-0.131 -1.399 2.359 255 255 255
-0.08 0.22 0.454 255 255 255
0.824 -0.617 2.147 0 0 0
0.836 -0.98 2.196 255 255 255
0.938 -1.544 2.01 0 0 0
-0.558 -1.57 2.457 255 255 255
0.125 0.212 0.43 255 255 255
-0.593 -0.856 2.525 255 255 255
0.508 -0.901 2.171 255 255 255
-0.356 -0.258 1.266 255 255 255
-0.247 0.04 0.59 255 255 255
-0.128 -0.33 1.621 255 255 255
-0.052 0.087 0.501 0 0 0
0.463 -1.083 2.264 255 255 255
0.42 -1.579 2.141 0 0 0
-0.165 0.077 0.534 255 255 255
-0.069 0.149 0.486 255 255 255
-0.163 0.277 0.493 255 255 255
0.436 -0.463 1.858 255 255 255
0.399 0.055 0.771 0 0 0
-0.17 0.032 0.642 0 0 0
0.398 -0.735 2.26 255 255 255
-0.05 0.203 0.449 0 0 0
-0.376 -0.086 0.779 0 0 0
1.099 -1.254 2.055 255 255 255
0.03 -1.496 2.277 255 255 255
1.118 -0.308 2.33 255 255 255
1.332 0.199 2.38 0 0 0
0.192 0.154 0.461 255 255 255
0.022 0.06 0.608 0 0 0
-0.139 0.045 0.574 255 255 255
0.361 -0.079 1.111 255 255 255
0.437 -0.016 0.986 255 255 255
0.002 0.143 0.492 255 255 255
0.928 -1.391 2.053 255 255 255
0.78 -1.104 2.18 255 255 255
0.827 -0.807 2.233 255 255 255
0.258 -0.935 2.232 255 255 255
0.586 -1.473 2.123 255 255 255
-0.251 0.081 0.503 255 255 255
-0.394 -0.131 0.963 255 255 255
1.144 -0.578 2.241 255 255 255
0.349 -0.001 0.906 255 255 255
-0.396 -0.126 1.004 255 255 255
0.198 0.133 0.51 255 255 255
0.539 -0.377 1.808 255 255 255
0.101 0.16 0.468 255 255 255
1.152 -0.259 2.333 255 255 255
-0.039 -0.842 2.342 255 255 255
-0.111 0.155 0.484 255 255 255
-0.18 0.234 0.481 255 255 255
-0.19 0.051 0.569 255 255 255
-0.231 0.018 0.606 255 255 255
1.213 -0.04 2.392 0 0 0
-0.272 -0.256 1.406 255 255 255
0.172 -1.595 2.203 0 0 0
0.243 0.139 0.491 255 255 255
0.18 0.176 0.444 255 255 255
-0.305 -1.613 2.338 255 255 255
-0.545 -0.068 0.819 0 0 0
0.117 -0.064 0.917 0 0 0
1.405 -0.457 2.202 255 255 255
-0.011 0.1 0.49 0 0 0
0.127 0.082 0.468 0 0 0
-1.083 -1.044 2.767 255 255 255
-0.232 0.134 0.515 255 255 255
-0.017 0.172 0.466 255 255 255
-0.295 0.034 0.515 255 255 255
-0.084 0.032 0.605 255 255 255
0.108 0.075 0.466 0 0 0
0.056 0.078 0.463 255 255 255
0.339 -0.467 2.263 255 255 255
0.079 0.095 0.425 0 0 0
-0.597 -1.303 2.553 255 255 255
-0.173 0.19 0.468 255 255 255
0.3 -1.476 2.205 255 255 255
0.107 0.215 0.427 255 255 255
-0.214 0.048 0.601 255 255 255
0.175 0.012 0.798 255 255 255
0.041 -1.622 2.235 0 0 0
-0.093 0.035 0.593 255 255 255
-0.223 -1.657 2.297 255 255 255
0.261 0.096 0.6 255 255 255
-0.353 -0.126 1.097 255 255 255
0.104 -0.056 0.912 255 255 255
-1.601 -0.751 2.589 255 255 255
-0.042 -0.407 1.692 0 0 0
0.119 0.129 0.485 255 255 255
0.012 0.056 0.61 0 0 0
-0.071 -0.165 1.181 255 255 255
-0.712 -0.415 1.691 255 255 255
0.206 0.046 0.656 255 255 255
-0.108 0.152 0.487 255 255 255
-0.395 -0.145 0.987 255 255 255
-0.023 0.243 0.453 255 255 255
-0.018 0.236 0.449 255 255 255
-0.137 0.121 0.523 0 0 0
-0.293 0 0.52 255 255 255
0.62 -1.456 2.12 255 255 255
0.103 -0.31 1.661 255 255 255
-0.577 -1.603 2.451 255 255 255
-0.169 0.156 0.491 255 255 255
0.11 0.236 0.425 255 255 255
-0.07 -0.035 0.895 0 0 0
-0.678 -1.752 2.428 0 0 0
0.09 0.2 0.44 0 0 0
-0.011 0.099 0.49 0 0 0
0.13 0.097 0.486 0 0 0
0.659 -1.348 2.138 255 255 255
-0.206 -0.11 0.959 0 0 0
-0.719 -1.202 2.607 0 0 0
0.388 -1.52 2.164 255 255 255
0.735 -1.236 2.156 255 255 255
-0.158 0.196 0.463 255 255 255
-0.106 0.155 0.483 255 255 255
-0.136 0.17 0.483 255 255 255
-0.114 -0.019 0.827 255 255 255
0.039 0.106 0.508 0 0 0
-0.042 -1.406 2.329 255 255 255
-0.17 0.138 0.511 255 255 255
0.247 0.136 0.493 255 255 255
1.018 -0.576 2.273 255 255 255
-0.057 0.011 0.737 0 0 0
-0.188 0.19 0.47 255 255 255
-0.832 -1.239 2.64 255 255 255
-0.058 0.238 0.458 255 255 255
0.027 0.171 0.464 255 255 255
0.158 0.162 0.458 255 255 255
0.441 -0.467 1.86 255 255 255
1.122 -0.567 2.245 255 255 255
-0.63 -0.858 2.692 255 255 255
-0.071 0.218 0.453 0 0 0
0.175 0.17 0.451 255 255 255
0.511 -0.118 1.257 255 255 255
0.01 0.158 0.473 255 255 255
0.074 0.008 0.627 0 0 0
0.702 -0.665 2.109 255 255 255
-0.096 0.144 0.497 255 255 255
-0.107 0.015 0.652 255 255 255
0.096 -1.455 2.274 255 255 255
0.107 0.184 0.448 255 255 255
-0.089 0.203 0.452 0 0 0
-0.105 0.179 0.471 255 255 255
-0.005 -0.983 2.294 255 255 255
0.182 0.158 0.459 255 255 255
1.148 -0.777 2.175 255 255 255
-0.034 -0.013 0.748 255 255 255
0.169 -1.047 2.215 255 255 255
-0.271 0.005 0.527 0 0 0
-0.247 -0.084 0.917 255 255 255
-0.032 -1.551 2.28 255 255 255
-0.005 -0.852 2.339 255 255 255
-0.132 0.154 0.488 255 255 255
-0.035 0.092 0.49 0 0 0
0.421 -0.02 0.98 255 255 255
-1.583 -0.82 2.753 255 255 255
-0.168 -0.094 0.885 255 255 255
0.013 0.221 0.439 255 255 255
-1.165 -0.986 2.787 0 0 0
0.673 -1.583 2.066 0 0 0
0.868 -1.39 2.067 255 255 255
0.849 -0.904 2.094 0 0 0
-0.292 -1.298 2.441 255 255 255
-0.02 -0.724 2.361 255 255 255
-0.01 0.109 0.49 255 255 255
-0.14 0.184 0.471 255 255 255
0.289 -0.658 2.315 0 0 0
-0.001 0.19 0.456 255 255 255
0.264 -1.295 2.269 255 255 255
1.246 0.069 2.41 0 0 0
0.268 -0.8 2.27 0 0 0
0.099 0.051 0.537 0 0 0
1.284 -0.819 2.125 255 255 255
-0.124 -0.207 1.183 255 255 255
1.051 -0.438 2.306 255 255 255
-0.065 0.188 0.459 255 255 255
0.36 -0.394 1.841 255 255 255
0.813 -0.924 2.224 255 255 255
-0.186 -0.007 0.728 0 0 0
-0.316 -1.477 2.39 255 255 255
-0.24 -1.069 2.342 255 255 255
-0.314 -1.291 2.449 255 255 255
-0.178 -1.085 2.307 255 255 255
-0.055 0.055 0.575 255 255 255
-0.212 0.136 0.511 255 255 255
0.433 -0.491 1.909 255 255 255
-0.315 -0.021 0.533 255 255 255
-0.281 -0.017 0.527 255 255 255
-0.036 0.163 0.474 255 255 255
-0.096 0.097 0.511 255 255 255
-0.708 -0.396 1.694 255 255 255
0.371 -0.7 2.279 255 255 255
1.303 -0.03 2.366 255 255 255
-0.105 0.236 0.464 255 255 255
0.13 0.027 0.639 255 255 255
1.563 0.105 2.284 255 255 255
-0.041 0.09 0.502 0 0 0
0.339 -0.019 0.941 0 0 0
-0.094 -0.12 0.94 255 255 255
-1.169 -1.487 2.631 255 255 255
-0.134 0.18 0.471 255 255 255
0.088 0.16 0.466 255 255 255
1.479 -0.58 2.141 255 255 255
-0.164 0.253 0.483 255 255 255
0.145 0.092 0.484 255 255 255
0.126 0.152 0.47 255 255 255
0.041 -0.036 0.829 255 255 255
0.575 -1.386 2.156 255 255 255
-1.262 -1 2.824 255 255 255
0.305 0.105 0.58 255 255 255
0.931 -1.192 2.111 255 255 255
-0.076 0.05 0.62 0 0 0
1.43 -0.389 2.211 255 255 255
-0.183 0.288 0.505 255 255 255
0.507 -0.186 1.428 255 255 255
-0.065 0.02 0.721 0 0 0
0.286 0.041 0.721 255 255 255
-0.396 -0.129 1.01 255 255 255
-1.203 -0.845 2.847 0 0 0
0.116 0.162 0.463 255 255 255
-0.293 -0.647 2.383 255 255 255
-0.385 -0.034 0.611 255 255 255
-0.347 -0.061 0.833 0 0 0
0.329 -0.78 2.267 255 255 255
0.212 0.105 0.561 255 255 255
0.095 0.07 0.455 255 255 255
0.037 0.193 0.45 255 255 255
0.445 -0.867 2.199 255 255 255
-0.354 -1.144 2.471 0 0 0
0.373 -0.868 2.223 255 255 255
-0.294 0.138 0.527 255 255 255
-0.246 0.158 0.499 255 255 255
-0.312 -0.182 1.141 255 255 255
1.109 -1.191 2.064 255 255 255
-0.267 0.002 0.788 0 0 0
-0.415 -0.015 0.563 255 255 255
1.187 -0.894 2.131 255 255 255
-1.177 -1.09 2.76 255 255 255
-0.101 -0.077 0.95 255 255 255
1.263 -0.308 2.281 255 255 255
0.051 0.24 0.437 255 255 255
-0.872 -1.206 2.661 255 255 255
-0.183 0.157 0.493 255 255 255
0.532 -1.069 2.26 255 255 255
-0.8 -1.131 2.665 255 255 255
-0.03 -0.065 0.884 255 255 255
-0.203 0.064 0.523 255 255 255
0.857 -1.328 2.09 255 255 255
-0.002 0.194 0.454 255 255 255
0.207 -1.596 2.194 0 0 0
-0.43 -0.241 1.176 255 255 255
-0.438 -1.282 2.481 255 255 255
0.128 0.208 0.434 0 0 0
-0.083 0.134 0.501 255 255 255
-1.073 -1.01 2.823 255 255 255
-0.282 0.119 0.518 255 255 255
-0.094 0.206 0.454 0 0 0
0.115 0.18 0.451 255 255 255
-1.25 -1.913 2.525 0 0 0
-0.037 -1.52 2.294 255 255 255
0.349 -1.516 2.173 255 255 255
-0.254 0.16 0.502 255 255 255
-0.009 -0.125 1.033 255 255 255
-1.351 -1.223 2.776 255 255 255
0.504 -1.616 2.105 0 0 0
-0.139 0.258 0.478 255 255 255
-0.052 0.172 0.467 0 0 0
-0.027 0.055 0.601 255 255 255
0.068 0.11 0.424 0 0 0
-0.139 0.202 0.462 255 255 255
-0.259 -0.341 1.703 255 255 255
-0.542 -0.062 0.777 0 0 0
-0.146 -0.391 1.714 255 255 255
-0.623 -0.087 0.829 255 255 255
-0.1 0.043 0.58 255 255 255
-0.988 -1.675 2.544 255 255 255
-0.162 -0.08 0.883 255 255 255
0.642 -1.011 2.249 255 255 255
-0.008 0.078 0.547 255 255 255
1.58 0.007 2.29 255 255 255
0.315 0.099 0.606 255 255 255
-0.002 0.169 0.471 255 255 255
-0.111 -0.003 0.72 255 255 255
-0.041 0.17 0.467 255 255 255
0.112 0.219 0.424 255 255 255
-0.23 0.073 0.521 255 255 255
0.005 0.041 0.614 255 255 255
0.342 -1.313 2.24 255 255 255
0.073 -0.357 1.655 255 255 255
0.122 -0.18 1.216 255 255 255
0.151 0.171 0.45 255 255 255
-0.291 -0.009 0.769 255 255 255
-0.055 0.164 0.471 255 255 255
1.182 -0.279 2.321 255 255 255
-0.326 -1.45 2.399 255 255 255
-0.639 -0.094 0.861 255 255 255
-0.353 -0.205 1.187 255 255 255
0.125 0.23 0.419 255 255 255
0.067 0.157 0.472 255 255 255
-0.322 -0.286 1.417 255 255 255
-0.805 -1.355 2.594 255 255 255
-0.039 0.114 0.5 255 255 255
1.35 -0.886 2.107 255 255 255
0.026 0.237 0.442 255 255 255
0.054 0.009 0.595 255 255 255
0.751 -0.276 1.795 255 255 255
0.675 -1.18 2.183 255 255 255
-0.079 -1.598 2.278 255 255 255
1.022 -1.157 2.094 255 255 255
-0.014 0.088 0.509 255 255 255
0.032 -0.022 0.815 255 255 255
0.261 0.132 0.507 255 255 255
-0.174 0.086 0.543 0 0 0
-0.107 0.148 0.494 255 255 255
-0.224 0.053 0.538 0 0 0
0.339 0.006 0.875 255 255 255
0.187 0.167 0.451 255 255 255
0.134 0.144 0.476 255 255 255
-0.313 -0.048 0.762 255 255 255
0.593 -0.882 2.147 0 0 0
0.193 0.128 0.512 255 255 255
-0.065 0.231 0.457 255 255 255
0.323 0.025 0.791 255 255 255
-0.189 -1.434 2.36 255 255 255
0.85 -1.513 2.038 0 0 0
-0.059 0.247 0.462 255 255 255
0.355 -0.146 1.277 255 255 255
0.16 0.081 0.614 255 255 255
0.269 0.014 0.814 255 255 255
-0.239 0.146 0.51 255 255 255
-0.07 0.083 0.527 255 255 255
-0.383 -0.039 0.638 255 255 255
0.366 -0.759 2.261 255 255 255
0.229 -1.323 2.267 255 255 255
1.177 -0.096 2.379 0 0 0
-0.129 0.101 0.534 0 0 0
-0.422 -1.434 2.429 255 255 255
1.336 -0.59 2.18 255 255 255
0.503 -0.594 2.11 0 0 0
-0.066 0.178 0.466 255 255 255
0.107 0.18 0.45 255 255 255
1.188 -0.758 2.167 255 255 255
-0.076 0.206 0.45 0 0 0
0.104 0 0.647 255 255 255
-0.193 -0.351 1.67 0 0 0
0.087 0.076 0.451 255 255 255
-0.134 0.197 0.46 255 255 255
0.108 0.068 0.465 255 255 255
-0.103 0.106 0.517 255 255 255
1.319 -0.555 2.189 255 255 255
0.034 0.157 0.471 255 255 255
-0.303 -0.318 1.617 255 255 255
0.059 0.13 0.454 0 0 0
-0.157 -0.407 1.719 0 0 0
0.946 -1.202 2.104 255 255 255
0.007 -0.071 0.872 255 255 255
0.581 -0.374 1.804 255 255 255
-0.17 0.229 0.477 255 255 255
0.08 0.033 0.582 255 255 255
0.06 0.086 0.453 0 0 0
0.064 0.182 0.455 255 255 255
0.739 -1.424 2.095 255 255 255
0.18 0.096 0.584 0 0 0
0.72 -1.547 2.062 0 0 0
-0.969 -1.761 2.528 255 255 255
0.465 -0.202 1.464 255 255 255
-0.017 -0.043 0.844 0 0 0
-0.062 0.203 0.45 0 0 0
-1.697 -0.377 2.375 0 0 0
-0.293 0.056 0.474 255 255 255
0.067 -0.858 2.312 255 255 255
-0.107 0.126 0.525 0 0 0
-0.224 0.013 0.685 0 0 0
0.93 -0.847 2.215 255 255 255
0.328 0.103 0.608 255 255 255
0.462 -0.12 1.233 255 255 255
-0.133 -0.122 0.905 255 255 255
0.099 0.227 0.424 255 255 255
0.148 -0.689 2.261 255 255 255
0.016 0.098 0.487 255 255 255
-0.264 -0.032 0.83 255 255 255
0.107 -0.378 1.658 255 255 255
0.619 -0.248 1.676 255 255 255
1.127 -0.313 2.324 255 255 255
0.033 -0.814 2.335 255 255 255
-0.079 0.109 0.514 0 0 0
1.075 -1.031 2.118 255 255 255
0.905 -0.895 2.207 255 255 255
0.204 0.094 0.629 255 255 255
-0.286 -0.036 0.61 255 255 255
0.275 -0.031 0.977 255 255 255
0.062 0.074 0.457 0 0 0
-0.205 0.019 0.663 255 255 255
0.368 -0.036 0.985 255 255 255
-0.565 -0.795 2.532 255 255 255
-0.462 -0.28 1.286 255 255 255
0.12 0.055 0.519 255 255 255
0.847 -1.433 2.063 255 255 255
-0.267 0.086 0.496 0 0 0
0.195 0.113 0.544 255 255 255
0.084 0.066 0.453 255 255 255
-0.051 -0.189 1.154 255 255 255
-0.866 -1.299 2.632 255 255 255
-0.947 -1.362 2.634 255 255 255
-0.106 -0.448 1.726 255 255 255
-0.153 0.189 0.468 255 255 255
-0.138 0.15 0.49 255 255 255
-0.414 -0.409 1.7 255 255 255
0.302 -0.073 1.089 255 255 255
0.137 0.1 0.48 0 0 0
0.002 0.072 0.574 255 255 255
1.51 0.012 2.317 255 255 255
-0.242 -0.014 0.605 255 255 255
-0.376 -1.426 2.421 255 255 255
1.045 -1.049 2.119 255 255 255
-0.068 -1.476 2.317 255 255 255
1.582 -0.337 2.18 255 255 255
-0.507 -0.223 1.167 255 255 255
0.199 -0.116 1.154 255 255 255
-0.205 0.036 0.644 255 255 255
0.795 -1.143 2.163 255 255 255
-0.161 0.033 0.64 0 0 0
-0.271 0.04 0.523 0 0 0
-1.058 -0.845 2.725 0 0 0
0.188 -1.098 2.196 255 255 255
-1.218 -1.713 2.583 255 255 255
-1.123 -0.946 2.793 255 255 255
1.312 -0.304 2.272 255 255 255
0.448 -1.269 2.225 255 255 255
1.305 -0.221 2.298 255 255 255
-0.478 -1.17 2.53 255 255 255
-0.216 0.048 0.637 0 0 0
-1.228 -1.935 2.528 0 0 0
0.219 0.135 0.495 255 255 255
-0.225 0.023 0.682 0 0 0
1.455 -0.025 2.323 255 255 255
1.077 -0.486 2.283 255 255 255
0.712 -1.267 2.154 255 255 255
-0.067 0.136 0.504 255 255 255
-0.102 0.099 0.516 255 255 255
0.003 0.22 0.44 255 255 255
0.17 0.183 0.44 255 255 255
-0.278 -0.026 0.556 255 255 255
-0.25 0.087 0.497 0 0 0
1.443 0.128 2.376 255 255 255
0.28 -0.233 1.521 255 255 255
-0.162 0.168 0.483 255 255 255
0.143 0.151 0.467 0 0 0
-0.249 0.057 0.548 0 0 0
0.307 -0.722 2.292 0 0 0
0.093 0.219 0.427 255 255 255
-0.393 -1.346 2.451 255 255 255
-1.112 -1.719 2.547 255 255 255
-0.305 -1.596 2.343 255 255 255
-0.141 0.084 0.571 255 255 255
0.013 -0.346 1.671 255 255 255
-0.301 0.008 0.517 255 255 255
0.227 0.137 0.488 255 255 255
-0.06 -0.03 0.851 0 0 0
-0.184 0.086 0.536 0 0 0
0.002 0.077 0.556 255 255 255
-0.087 0.142 0.495 255 255 255
-0.147 0.174 0.476 255 255 255
-0.749 -1.754 2.45 255 255 255
-0.741 -1.513 2.519 255 255 255
0.383 0.093 0.694 255 255 255
-0.3 -0.011 0.519 255 255 255
-0.24 -0.797 2.42 0 0 0
-1.099 -1.055 2.755 0 0 0
-0.299 -0.038 0.595 255 255 255
0.232 0.054 0.646 0 0 0
0.229 -1.277 2.282 0 0 0
0.556 -0.792 2.199 255 255 255
-0.966 -1.738 2.529 255 255 255
-1.199 -1.093 2.763 255 255 255
0.335 -0.294 1.822 0 0 0
-0.8 -0.475 1.76 255 255 255
0.167 0.2 0.433 0 0 0
0.099 0.209 0.434 0 0 0
-1.18 -1.353 2.672 255 255 255
0.69 -1.2 2.174 255 255 255
-0.294 0.036 0.515 255 255 255
-1.57 -0.868 2.692 255 255 255
-0.015 -1.025 2.289 255 255 255
0.055 0.131 0.467 0 0 0
-0.69 -0.325 1.557 255 255 255
0.157 0.201 0.433 0 0 0
-1.014 -1.694 2.557 255 255 255
0.254 0.114 0.546 255 255 255
0.099 0.201 0.44 0 0 0
-1.402 -1.657 2.629 255 255 255
0.825 -0.647 2.132 0 0 0
0.56 -0.827 2.184 255 255 255
0.331 -1.017 2.185 255 255 255
0.699 -0.795 2.15 0 0 0
0.126 0.132 0.485 255 255 255
1.525 -0.168 2.255 255 255 255
-0.129 -0.797 2.391 0 0 0
-0.064 0.183 0.464 255 255 255
-0.194 0.161 0.495 255 255 255
0.853 -1.183 2.136 255 255 255
-0.201 -1.608 2.308 255 255 255
-0.212 0.181 0.48 255 255 255
0.057 -0.112 0.985 0 0 0
0.455 -1.425 2.177 255 255 255
-0.135 0.211 0.463 0 0 0
-0.106 0.211 0.458 0 0 0
-0.28 -0.587 2.368 255 255 255
0.151 0.157 0.464 255 255 255
0.487 -0.816 2.206 255 255 255
0.145 -0.035 0.939 255 255 255
-0.343 -0.183 1.155 255 255 255
-0.111 0.106 0.522 255 255 255
-0.093 0.119 0.509 255 255 255
-0.277 -0.954 2.398 255 255 255
-0.27 0.004 0.527 255 255 255
1.167 -0.171 2.357 255 255 255
-1.726 -0.406 2.281 255 255 255
-0.22 0.183 0.481 255 255 255
0.171 0.163 0.456 255 255 255
1.503 -0.611 2.132 255 255 255
0.1 0.221 0.424 255 255 255
0.074 0.185 0.452 255 255 255
-0.086 0.139 0.496 255 255 255
-0.01 0.146 0.487 255 255 255
0.217 -0.716 2.249 255 255 255
1.306 -0.076 2.35 255 255 255
-0.513 -1.301 2.497 255 255 255
-0.075 0.138 0.496 255 255 255
-1.292 -0.979 2.353 255 255 255
-0.04 0.14 0.495 255 255 255
-0.64 -0.093 0.855 255 255 255
-1.399 -0.947 2.873 255 255 255
-0.123 0.153 0.486 255 255 255
0.267 0.132 0.512 255 255 255
-0.236 -0.615 2.362 255 255 255
-0.238 0.056 0.547 0 0 0
0.985 -0.848 2.203 255 255 255
-1.012 -1.152 2.721 255 255 255
-0.011 -0.105 1.055 255 255 255
-0.149 0.265 0.484 255 255 255
1.267 -0.497 2.222 255 255 255
0.135 0.159 0.467 255 255 255
1.298 -0.025 2.368 255 255 255
1.206 -0.904 2.122 255 255 255
-0.023 0.182 0.462 255 255 255
0.102 0.06 0.468 255 255 255
-0.16 0.108 0.541 255 255 255
1.519 0.091 2.34 255 255 255
-0.217 0.05 0.541 255 255 255
0.085 0.206 0.437 0 0 0
-0.244 -0.004 0.638 0 0 0
1.44 -0.142 2.287 255 255 255
0.407 -0.73 2.258 255 255 255
0.117 0.187 0.447 255 255 255
-0.119 -0.135 0.937 255 255 255
-0.168 -1.46 2.351 255 255 255
-0.265 0.155 0.505 255 255 255
0.016 0.046 0.615 255 255 255
-0.04 0.05 0.604 255 255 255
0.169 0.016 0.778 255 255 255
-0.031 -0.178 1.192 0 0 0
-0.03 0.065 0.569 255 255 255
-0.92 -1.21 2.674 255 255 255
-0.105 0.007 0.687 255 255 255
0.043 -0.221 1.268 255 255 255
-0.316 -1.567 2.361 255 255 255
0.103 0.186 0.448 255 255 255
-0.126 -1.485 2.329 255 255 255
0.541 -1.068 2.257 255 255 255
0.06 0.158 0.468 255 255 255
-0.056 -0.456 1.701 255 255 255
1.183 -0.298 2.31 255 255 255
1.255 -0.756 2.151 255 255 255
-0.2 -0.197 1.204 255 255 255
0.732 -1.037 2.213 255 255 255
0.17 0.141 0.484 255 255 255
-0.078 -1.182 2.243 0 0 0
-0.173 -0.087 0.881 255 255 255
-0.178 0.148 0.495 0 0 0
0.141 -1.341 2.291 255 255 255
-0.019 -0.131 1.047 0 0 0
-1.203 -1.634 2.594 255 255 255
-0.089 0.22 0.456 0 0 0
0.487 -0.194 1.444 255 255 255
0.967 -1.272 2.075 255 255 255
-0.206 0.069 0.517 255 255 255
0.832 -0.63 2.139 0 0 0
0.19 0.091 0.629 255 255 255
-0.096 -0.218 1.192 255 255 255
0.045 0.19 0.451 255 255 255
-0.061 0.172 0.469 0 0 0
0.145 0.136 0.484 255 255 255
-0.01 0.208 0.444 0 0 0
0.816 -0.791 2.264 255 255 255
-0.719 -1.611 2.486 255 255 255
0.29 0.023 0.787 255 255 255
-0.316 -0.052 0.731 255 255 255
0.245 0.085 0.705 0 0 0
-0.157 0.231 0.474 255 255 255
0.784 -1.304 2.118 255 255 255
-0.015 0.216 0.443 0 0 0
0.04 0.196 0.446 255 255 255
-0.039 0.079 0.523 255 255 255
0.008 0.152 0.478 255 255 255
-0.405 -0.208 1.118 255 255 255
0.291 0.029 0.765 255 255 255
0.451 -0.347 1.869 0 0 0
-0.838 -0.752 2.657 0 0 0
-0.177 0.006 0.68 255 255 255
-0.343 -1.465 2.401 255 255 255
-0.025 0.22 0.446 255 255 255
-0.017 -0.123 1.047 0 0 0
0.029 0.088 0.483 255 255 255
0.01 0.192 0.453 255 255 255
-0.623 -1.472 2.504 255 255 255
-1.278 -1.282 2.736 255 255 255
-1.21 -1.14 2.761 255 255 255
-0.082 0.048 0.616 0 0 0
1.006 -0.971 2.154 255 255 255
0.885 -1.288 2.095 255 255 255
1.07 -0.991 2.13 255 255 255
-0.547 -1.383 2.5 255 255 255
0.095 -0.434 1.671 255 255 255
-0.419 -0.128 1.075 0 0 0
-0.304 0.043 0.459 255 255 255
-0.093 0.093 0.514 255 255 255
0.059 0.199 0.446 0 0 0
-0.301 0.013 0.516 255 255 255
-0.505 -0.203 1.12 255 255 255
0.035 0.233 0.439 255 255 255
0.477 -0.434 1.832 255 255 255
0.132 -0.055 0.959 0 0 0
-0.025 -0.21 1.221 255 255 255
0.032 -0.211 1.244 255 255 255
-0.068 0.037 0.632 255 255 255
0.771 -1.08 2.19 255 255 255
-0.262 0.029 0.523 0 0 0
0.372 -0.34 1.887 0 0 0
0.03 0.211 0.437 0 0 0
-1.448 -1.385 2.594 255 255 255
-1.169 -0.905 2.817 0 0 0
0.103 0.191 0.446 255 255 255
0.943 -1.005 2.162 255 255 255
-0.199 0.194 0.472 255 255 255
0.06 0.005 0.822 255 255 255
0.072 0.13 0.442 0 0 0
1.211 -0.957 2.105 255 255 255
0.28 -0.523 2.308 255 255 255
0.195 0.025 0.749 255 255 255
0.008 -0.122 1.02 255 255 255
-0.083 0.156 0.478 255 255 255
-0.116 -0.079 0.951 255 255 255
-0.481 -1.636 2.374 255 255 255
0.154 0.154 0.465 255 255 255
0.91 -1.342 2.068 255 255 255
0.55 -0.446 1.836 255 255 255
1.418 -0.305 2.24 255 255 255
0.293 0.019 0.803 255 255 255
0.063 0.103 0.426 255 255 255
-0.108 0.035 0.615 255 255 255
-0.361 -0.405 1.704 255 255 255
-0.841 -1.719 2.492 255 255 255
0.776 -1.066 2.194 255 255 255
0.313 -1.382 2.225 255 255 255
1.375 -0.172 2.303 255 255 255
1.166 -1.112 2.069 255 255 255
-0.07 0.148 0.487 255 255 255
0.6 -1.228 2.191 255 255 255
0.184 0.095 0.598 0 0 0
0.12 0.159 0.468 255 255 255
-0.607 -0.722 2.565 0 0 0
-0.514 -0.167 1.05 255 255 255
-0.242 -0.058 0.92 255 255 255
0.124 0.045 0.554 0 0 0
-0.274 0.042 0.523 0 0 0
-0.144 0.244 0.474 255 255 255
0.28 -1.476 2.206 255 255 255
-1.046 -1.007 2.821 255 255 255
-1.63 -0.497 2.569 0 0 0
-1.59 -0.721 2.677 255 255 255
0.137 -1.535 2.235 255 255 255
0.119 0.212 0.431 255 255 255
-0.153 -0.109 0.892 255 255 255
1.573 0.106 2.308 255 255 255
-0.153 0.205 0.465 0 0 0
0.186 0.199 0.433 0 0 0
0.003 0.104 0.491 0 0 0
0.129 0.129 0.485 255 255 255
0.185 0.15 0.466 255 255 255
0.092 -0.022 0.857 0 0 0
0.178 0.167 0.452 255 255 255
-0.025 -0.126 1.052 0 0 0
0.05 0.104 0.514 0 0 0
0.561 -1.538 2.118 0 0 0
-0.109 0.197 0.457 255 255 255
0.122 -1.111 2.191 255 255 255
0.832 -1.054 2.179 255 255 255
0.654 -0.354 1.783 255 255 255
0.085 0.088 0.441 255 255 255
0.056 -0.696 2.301 255 255 255
-0.01 -0.989 2.294 255 255 255
-0.186 0.062 0.529 255 255 255
-0.033 0.071 0.548 255 255 255
-0.197 0.136 0.519 255 255 255
-0.009 -0.013 0.758 255 255 255
0.052 0.16 0.466 255 255 255
0.023 0.216 0.437 255 255 255
0.076 -0.005 0.634 0 0 0
1.116 -0.795 2.175 255 255 255
-0.207 -0.006 0.74 0 0 0
0.349 -0.082 1.11 255 255 255
-0.064 -0.837 2.357 255 255 255
1.137 -1.229 2.061 255 255 255
-0.147 0.019 0.659 255 255 255
-0.107 0.078 0.58 0 0 0
1.156 -0.907 2.135 255 255 255
-0.259 -1.217 2.454 0 0 0
0.012 -0.076 0.872 0 0 0
-0.891 -1.668 2.518 255 255 255
0.804 -0.934 2.223 255 255 255
1.408 -0.398 2.215 255 255 255
1.352 -0.663 2.153 255 255 255
0.192 -0.608 2.248 255 255 255
0.442 -0.012 0.982 255 255 255
-1.071 -1.483 2.637 255 255 255
-0.83 -0.867 2.666 255 255 255
0.455 0.013 0.954 255 255 255
-0.1 0.148 0.493 255 255 255
-0.298 -0.36 1.64 255 255 255
0.162 0.172 0.447 255 255 255
-0.299 -0.823 2.445 0 0 0
-0.204 0.193 0.472 255 255 255
-0.068 0.249 0.464 255 255 255
1.242 -0.386 2.267 255 255 255
0.658 -0.467 1.887 255 255 255
0.309 -0.875 2.235 255 255 255
-0.387 -0.093 0.888 255 255 255
-0.546 -1.31 2.523 255 255 255
-0.739 -0.41 1.697 0 0 0
-0.1 -0.008 0.725 255 255 255
0.251 -1.461 2.225 255 255 255
0.063 0.14 0.474 255 255 255
-0.231 0.031 0.639 255 255 255
0.018 -0.107 1.017 255 255 255
-0.232 -1.249 2.435 255 255 255
0.596 -0.803 2.181 0 0 0
-0.164 -0.014 0.729 0 0 0
0.658 -1.253 2.171 255 255 255
0.268 -0.804 2.268 0 0 0
-0.011 -1.652 2.239 0 0 0
0.732 -0.264 1.824 255 255 255
0.628 -1.027 2.25 255 255 255
-1.409 -1.507 2.67 255 255 255
-0.069 0.211 0.45 0 0 0
-0.287 -0.018 0.523 255 255 255
-0.042 -0.037 0.85 0 0 0
-0.483 -0.158 1.03 255 255 255
-0.015 0.189 0.458 255 255 255
-0.071 -1.259 2.311 0 0 0
-0.852 -1.707 2.495 255 255 255
0.134 0.041 0.581 255 255 255
1.134 -1.002 2.109 255 255 255
-0.058 0.182 0.464 255 255 255
0.296 0.075 0.607 0 0 0
-0.722 -1.316 2.585 255 255 255
1.556 0.028 2.315 0 0 0
0.382 -1.435 2.192 255 255 255
-0.019 -0.178 1.173 255 255 255
0.023 -0.683 2.308 255 255 255
0.028 -0.758 2.356 0 0 0
0.046 0.234 0.438 255 255 255
-1.67 -0.634 2.374 255 255 255
0.313 0.111 0.572 255 255 255
-0.291 0.02 0.52 255 255 255
0.161 0.071 0.639 0 0 0
0.582 -0.939 2.189 0 0 0
-0.421 -1.194 2.507 255 255 255
0.67 -1.023 2.233 255 255 255
1.181 -1.16 2.07 255 255 255
-1.559 -0.918 2.715 255 255 255
-0.425 -1.69 2.345 255 255 255
0.922 -0.785 2.237 255 255 255
0.557 -0.698 2.182 255 255 255
0.376 -1.367 2.214 255 255 255
-0.014 0.055 0.611 0 0 0
-0.277 0.136 0.516 255 255 255
-0.188 0.023 0.654 255 255 255
0.234 -0.009 0.893 255 255 255
1.135 -0.468 2.275 255 255 255
0.16 -0.146 1.155 255 255 255
-0.316 0.014 0.47 255 255 255
1.438 -0.202 2.27 255 255 255
-0.315 -0.825 2.448 0 0 0
0.704 -1.199 2.17 255 255 255
0.187 0.085 0.653 255 255 255
0.17 0.054 0.658 255 255 255
0.107 0.208 0.435 0 0 0
-0.297 0.01 0.517 255 255 255
0.577 -1.48 2.126 255 255 255
-0.178 -0.068 0.889 255 255 255
0.478 -1.553 2.134 0 0 0
-0.043 0.156 0.484 255 255 255
1.168 -0.477 2.26 255 255 255
0.102 0.048 0.564 0 0 0
0.562 -1.27 2.187 255 255 255
0.014 -0.072 0.863 0 0 0
0.062 -0.988 2.268 255 255 255
0.213 -1.623 2.183 0 0 0
-0.236 0.172 0.493 255 255 255
-0.139 0.066 0.545 255 255 255
-0.399 -0.172 1.044 255 255 255
1.238 -0.857 2.129 255 255 255
1.457 -0.117 2.294 255 255 255
0.066 0.2 0.443 0 0 0
1.39 -0.49 2.194 255 255 255
-0.259 -0.069 0.926 255 255 255
-0.176 0.26 0.491 255 255 255
0.179 -0.964 2.244 255 255 255
-0.095 0.061 0.605 255 255 255
-1.67 -0.486 2.44 255 255 255
0.023 0.136 0.508 0 0 0
0.373 -0.614 2.309 0 0 0
0.051 0.068 0.529 255 255 255
0.03 0.221 0.437 255 255 255
0.315 -0.114 1.201 255 255 255
-0.232 0.022 0.609 255 255 255
0.106 0.024 0.583 0 0 0
-0.393 -0.016 0.602 255 255 255
0.014 -1.045 2.273 255 255 255
-0.122 -0.076 0.951 255 255 255
-0.12 0.15 0.488 255 255 255
-0.05 0.047 0.6 255 255 255
0.056 0.005 0.604 255 255 255
-0.343 -0.208 1.178 255 255 255
0.281 -0.914 2.231 255 255 255
-0.308 -1.219 2.467 255 255 255
0.22 0.054 0.649 0 0 0
-0.257 0.127 0.509 255 255 255
-0.257 0.035 0.579 255 255 255
0.169 0.147 0.469 255 255 255
0.788 -1.264 2.131 255 255 255
-0.212 0.059 0.526 255 255 255
0.319 -0.82 2.252 255 255 255
0.613 -0.401 1.812 255 255 255
0.039 0.143 0.492 255 255 255
-0.234 0 0.59 255 255 255
0.051 0.134 0.5 0 0 0
0.167 0.119 0.499 0 0 0
-0.042 0.056 0.584 255 255 255
-0.191 -0.068 0.891 255 255 255
0.866 -1.079 2.163 255 255 255
0.824 -0.604 2.152 0 0 0
-0.778 -0.471 1.769 255 255 255
0.1 -0.323 1.658 255 255 255
-0.093 0.072 0.605 0 0 0
-0.318 -1.69 2.316 0 0 0
-0.479 -1.389 2.459 255 255 255
-0.118 -0.218 1.193 255 255 255
0.188 -0.093 1.087 255 255 255
-0.797 -0.404 1.707 255 255 255
-0.228 0.133 0.522 255 255 255
0.061 0.081 0.455 0 0 0
0.674 -0.271 1.727 255 255 255
1.378 0.117 2.386 255 255 255
0.052 0.198 0.446 255 255 255
0.309 0.126 0.544 255 255 255
0.03 0.178 0.459 255 255 255
0.14 -0.712 2.287 255 255 255
0.781 -1.197 2.149 255 255 255
-0.203 0.179 0.48 255 255 255
-1.587 -0.64 2.712 255 255 255
0.069 -0.002 0.63 0 0 0
-0.471 -1.659 2.367 255 255 255
1.117 -0.166 2.374 0 0 0
0.181 0.165 0.454 255 255 255
1.326 -0.161 2.316 255 255 255
0.178 0.146 0.48 255 255 255
-0.321 -0.3 1.438 255 255 255
-1.081 -0.774 2.751 255 255 255
-0.81 -0.446 1.769 255 255 255
-0.506 -1.38 2.463 255 255 255
-0.061 0.186 0.461 255 255 255
-0.742 -1.498 2.529 255 255 255
0.172 0.052 0.665 0 0 0
1.108 -0.786 2.183 255 255 255
1.018 -0.828 2.196 255 255 255
0.556 -1.569 2.107 0 0 0
-0.309 0.031 0.501 255 255 255
0.38 -1.233 2.254 255 255 255
1.221 -0.812 2.141 255 255 255
-0.489 -0.433 1.636 255 255 255
0.107 -1.6 2.223 255 255 255
-0.077 0.157 0.478 255 255 255
-0.402 -0.101 0.887 255 255 255
-0.26 0.035 0.572 255 255 255
1.382 -0.675 2.148 255 255 255
-0.196 0.152 0.497 255 255 255
-0.708 -1.34 2.569 255 255 255
-0.281 -0.132 1.065 255 255 255
0.219 0.141 0.487 255 255 255
-0.094 0.189 0.461 255 255 255
-0.417 -0.137 1.158 0 0 0
1.538 0.161 2.366 255 255 255
0.14 0.12 0.487 0 0 0
0.018 0.186 0.455 255 255 255
0.005 0.131 0.514 0 0 0
0.148 -0.336 1.67 255 255 255
0.08 0.181 0.453 255 255 255
0.266 0.107 0.55 0 0 0
0.018 0.211 0.439 0 0 0
0.15 0.103 0.477 255 255 255
-0.154 -0.22 1.189 255 255 255
-0.293 -0.368 1.778 0 0 0
0.134 -0.046 0.93 255 255 255
0.075 0.087 0.438 255 255 255
-0.098 0.185 0.464 255 255 255
-0.292 -0.037 0.604 255 255 255
0.96 -0.925 2.187 255 255 255
-1.411 -0.483 2.494 255 255 255
0.696 -0.705 2.179 0 0 0
0.198 0.15 0.467 255 255 255
-0.914 -1.105 2.707 255 255 255
-0.27 0.008 0.767 0 0 0
-0.109 0.222 0.46 0 0 0
1.062 -0.414 2.309 255 255 255
-0.32 -0.042 0.805 0 0 0
-0.191 0.128 0.525 255 255 255
1.045 -0.553 2.275 255 255 255
-0.526 -1.382 2.477 255 255 255
0.416 0.016 0.9 255 255 255
-0.278 -0.835 2.432 0 0 0
0.287 0.042 0.716 255 255 255
0.341 -1.225 2.264 255 255 255
1.263 -0.823 2.129 255 255 255
0.245 0.056 0.639 0 0 0
-0.074 0.189 0.46 255 255 255
0.158 -0.005 0.855 255 255 255
0.915 -0.822 2.223 255 255 255
-0.197 0.084 0.521 255 255 255
0.196 -0.64 2.241 255 255 255
-0.495 -0.339 1.418 255 255 255
1.437 0.038 2.347 255 255 255
0.344 -0.122 1.222 255 255 255
-0.054 -1.049 2.282 255 255 255
-0.213 0.16 0.49 255 255 255
-0.077 -0.018 0.753 255 255 255
0.793 -1.259 2.131 255 255 255
0.079 -0.01 0.653 255 255 255
-0.776 -1.416 2.574 255 255 255
0.392 -0.473 1.909 255 255 255
0.485 -0.279 1.635 255 255 255
0.149 0.138 0.484 0 0 0
0.325 -0.206 1.455 255 255 255
-0.072 -0.094 0.945 255 255 255
0.495 -0.317 1.756 0 0 0
-0.128 0.226 0.466 255 255 255
0.311 -0.698 2.296 0 0 0
0.052 0.091 0.499 255 255 255
-0.232 -0.35 1.681 255 255 255
0.259 -0.727 2.25 255 255 255
-0.276 -0.037 0.871 255 255 255
0.316 -0.042 0.981 0 0 0
1.094 -0.724 2.205 255 255 255
-0.2 -0.056 0.905 0 0 0
-0.231 0.179 0.486 255 255 255
-0.032 -0.042 0.85 0 0 0
0.849 -0.608 2.162 0 0 0
1.421 -0.33 2.233 255 255 255
0.514 -0.368 1.806 0 0 0
1.539 -0.47 2.16 255 255 255
-1.304 -1 2.359 255 255 255
-0.285 -0.245 1.369 255 255 255
-0.109 -0.858 2.37 255 255 255
0.409 -0.118 1.217 255 255 255
-0.261 -0.186 1.259 0 0 0
0.169 0.201 0.432 0 0 0
-0.291 -0.086 0.952 255 255 255
-0.121 -0.689 2.346 255 255 255
-0.412 -0.258 1.225 255 255 255
0.92 -0.885 2.206 255 255 255
-0.08 0.093 0.515 0 0 0
-0.278 -0.001 0.787 0 0 0
0.088 -0.664 2.278 255 255 255
-0.839 -1.506 2.549 255 255 255
0.216 0.069 0.669 0 0 0
-0.044 -0.18 1.202 0 0 0
-0.048 -0.026 0.828 255 255 255
-0.4 -1.53 2.392 255 255 255
-0.353 -0.796 2.472 0 0 0
-0.122 -0.043 0.896 0 0 0
1.286 -0.747 2.146 255 255 255
-0.189 0.248 0.49 255 255 255
-0.184 -1.116 2.312 255 255 255
-0.153 0.168 0.486 255 255 255
-0.055 -1.255 2.293 0 0 0
-0.13 0.159 0.487 255 255 255
0.004 0.194 0.453 255 255 255
0.285 0.109 0.573 255 255 255
0.408 -0.029 0.989 255 255 255
-0.38 -0.083 0.862 255 255 255
-0.417 -0.678 2.507 255 255 255
0.027 0.187 0.455 255 255 255
-0.645 -1.7 2.434 255 255 255
-0.125 -1.3 2.385 0 0 0
-0.248 0.058 0.531 255 255 255
0.525 -0.77 2.213 255 255 255
-0.062 0.182 0.464 255 255 255
-0.13 0.06 0.552 255 255 255
0.426 -1.411 2.188 255 255 255
-0.239 -0.091 0.914 255 255 255
-0.222 -0.624 2.359 255 255 255
-0.019 0.032 0.616 0 0 0
-0.277 -1.431 2.393 255 255 255
0.155 0.155 0.465 255 255 255
-0.541 -0.066 0.813 0 0 0
0.231 0.062 0.644 0 0 0
0.795 -0.679 2.167 0 0 0
0.104 0.095 0.468 255 255 255
-0.248 0.159 0.499 255 255 255
-0.224 0.186 0.479 255 255 255
-0.161 0.048 0.566 255 255 255
-0.142 0.178 0.473 255 255 255
0.502 -0.256 1.635 255 255 255
0.156 0.12 0.488 0 0 0
-0.028 -0.156 1.151 255 255 255
0.296 -0.226 1.51 255 255 255
-1.577 -1.069 2.564 255 255 255
0.232 0.148 0.474 255 255 255
1.448 0.234 2.379 255 255 255
-1.198 -1.262 2.712 255 255 255
-0.308 -0.135 1.105 255 255 255
-0.025 -1.184 2.236 0 0 0
0.258 -0.019 0.946 255 255 255
-0.413 -0.931 2.456 255 255 255
0.114 0.222 0.423 255 255 255
-0.658 -1.195 2.602 255 255 255
-0.654 -0.189 1.223 255 255 255
-0.19 -0.211 1.204 255 255 255
1.449 -0.365 2.214 255 255 255
0.776 -1.148 2.167 255 255 255
0.029 0.062 0.603 0 0 0
0.982 -1.467 2.018 0 0 0
-0.337 -1.441 2.405 255 255 255
-0.452 -0.637 2.533 0 0 0
0.835 -1.262 2.115 255 255 255
0.098 0.232 0.426 255 255 255
-0.007 0.084 0.492 0 0 0
-0.016 0.245 0.451 255 255 255
0.205 0.152 0.465 255 255 255
-0.566 -1.665 2.427 255 255 255
1.173 -1.191 2.066 255 255 255
1.129 -1.147 2.073 255 255 255
0.071 -1.429 2.283 255 255 255
1.054 -0.962 2.142 255 255 255
0.157 0.167 0.452 255 255 255
-0.08 0.126 0.514 255 255 255
1.454 -0.237 2.253 255 255 255
0.235 0.072 0.653 0 0 0
0.043 -0.424 1.662 255 255 255
-0.462 -0.394 1.705 255 255 255
0.01 0.21 0.44 0 0 0
0.124 0.111 0.5 0 0 0
-0.769 -1.513 2.537 255 255 255
-0.135 0.147 0.495 255 255 255
0.331 0.038 0.746 255 255 255
0.545 -1.521 2.125 255 255 255
-0.42 -0.011 0.551 255 255 255
-0.098 0.237 0.463 255 255 255
-0.307 -0.949 2.398 255 255 255
-0.076 0.077 0.598 0 0 0
-0.376 -0.436 1.758 255 255 255
-0.22 -0.004 0.752 0 0 0
0.213 0.034 0.715 255 255 255
-0.538 -1.145 2.562 255 255 255
0.142 0.197 0.437 0 0 0
-0.357 -0.111 1.086 0 0 0
0.187 -0.067 1.046 0 0 0
-0.195 0.125 0.53 255 255 255
-0.22 -0.024 0.793 255 255 255
-0.303 -0.308 1.562 255 255 255
-0.529 -1.544 2.431 255 255 255
-0.093 0.226 0.46 255 255 255
-0.009 0.028 0.655 255 255 255
1.356 0.001 2.361 255 255 255
0.085 0.192 0.446 255 255 255
0.156 0.099 0.478 0 0 0
0.119 0.114 0.494 0 0 0
0.052 -0.915 2.297 255 255 255
0.753 -1.092 2.196 255 255 255
0.116 -0.227 1.346 255 255 255
0.622 -0.548 2.069 0 0 0
0.814 -0.929 2.223 255 255 255
0.865 -1.268 2.108 255 255 255
-0.016 -1.534 2.285 255 255 255
-0.077 0.231 0.459 255 255 255
-0.128 -0.403 1.705 0 0 0
0.846 -1.408 2.072 255 255 255
-0.359 -0.074 0.858 255 255 255
0.049 0.108 0.506 0 0 0
1.47 -0.346 2.218 255 255 255
-0.021 0.133 0.513 255 255 255
0.306 -1.555 2.175 255 255 255
-0.039 -1.044 2.282 255 255 255
-0.056 0.156 0.483 255 255 255
0.253 0.076 0.635 0 0 0
0.699 -0.322 1.807 255 255 255
0.283 0.022 0.79 255 255 255
0.172 -1.552 2.219 255 255 255
-0.201 0.069 0.519 255 255 255
-0.15 -0.692 2.354 255 255 255
1.15 -0.686 2.2 255 255 255
0.535 -0.249 1.627 255 255 255
0.656 -1.024 2.238 255 255 255
0.02 -0.048 0.84 255 255 255
0.12 0.18 0.449 0 0 0
-0.221 -1.322 2.408 255 255 255
-0.159 0 0.715 255 255 255
0.359 -0.619 2.31 0 0 0
-0.024 0.094 0.494 0 0 0
0.173 -0.068 0.948 0 0 0
1.334 -0.824 2.105 255 255 255
-0.34 -0.967 2.412 255 255 255
0.318 -0.114 1.2 255 255 255
0.035 0.076 0.574 0 0 0
0.054 0.07 0.48 255 255 255
0.201 -1.377 2.265 255 255 255
-0.517 -0.178 1.078 255 255 255
-0.072 0.133 0.511 255 255 255
1.177 -0.777 2.165 255 255 255
-0.175 -1.632 2.294 255 255 255
-0.631 -0.812 2.58 255 255 255
-0.331 -0.587 2.386 255 255 255
-0.498 -0.159 1.029 255 255 255
0.155 0.207 0.431 0 0 0
-0.239 -0.035 0.87 0 0 0
-0.287 0.078 0.496 255 255 255
0.214 0.082 0.639 255 255 255
0.663 -0.58 2.062 255 255 255
-1.601 -0.897 2.51 255 255 255
-1.66 -0.568 2.424 255 255 255
0.551 -1.19 2.214 255 255 255
0.498 -0.74 2.231 255 255 255
-1.633 -0.729 2.478 255 255 255
0.055 0.16 0.465 255 255 255
0.062 -0.901 2.302 255 255 255
0.977 -0.995 2.155 255 255 255
0.69 -1.532 2.075 0 0 0
0.007 0.179 0.463 255 255 255
-0.136 -0.133 0.908 255 255 255
-0.199 0.136 0.515 255 255 255
-0.142 0.014 0.677 255 255 255
-0.186 0.068 0.522 255 255 255
1.137 -0.672 2.21 255 255 255
-0.107 -0.429 1.694 255 255 255
-0.119 0.041 0.579 255 255 255
0.006 0.005 0.752 255 255 255
0.049 0.017 0.709 255 255 255
1.015 -0.976 2.149 255 255 255
1.483 -0.395 2.193 255 255 255
1.521 -0.434 2.167 255 255 255
-0.839 -1.898 2.426 255 255 255
0.436 -1.431 2.179 255 255 255
-0.668 -0.375 1.636 255 255 255
0.124 0.089 0.477 0 0 0
-0.246 0.11 0.547 0 0 0
-0.033 0.207 0.446 0 0 0
-0.209 -0.947 2.371 255 255 255
-0.156 0.122 0.526 255 255 255
-1.357 -0.933 2.332 255 255 255
-0.096 -0.032 0.946 0 0 0
0.234 0.081 0.699 0 0 0
-0.099 0.216 0.457 0 0 0
-0.477 -1.239 2.504 255 255 255
1.068 -0.288 2.346 255 255 255
-0.028 0.04 0.616 0 0 0
-0.159 0.253 0.481 255 255 255
0.187 0.132 0.511 255 255 255
-0.331 -0.771 2.465 0 0 0
0.169 -1.074 2.204 255 255 255
-0.212 0.05 0.542 255 255 255
0.249 0.056 0.638 255 255 255
-0.059 0.204 0.449 0 0 0
0.277 0.009 0.836 255 255 255
-0.041 0.03 0.642 0 0 0
-0.713 -0.449 1.726 255 255 255
-0.397 -0.012 0.593 255 255 255
0.177 0.191 0.436 255 255 255
0.208 -0.035 0.965 255 255 255
-0.257 -0.014 0.567 255 255 255
0.37 -0.082 1.117 255 255 255
-0.566 -1.263 2.554 255 255 255
0.151 0.178 0.445 255 255 255
-0.009 0.21 0.443 0 0 0
0.298 0.087 0.599 0 0 0
0.196 0.135 0.496 255 255 255
-0.391 -0.168 1.075 255 255 255
0.302 -0.685 2.303 0 0 0
-1.044 -1.047 2.767 255 255 255
0.981 -0.477 2.319 0 0 0
-0.168 0.117 0.528 255 255 255
1.093 -0.409 2.302 255 255 255
0.086 0.1 0.424 0 0 0
0.201 -1.419 2.253 255 255 255
0.345 -0.162 1.332 255 255 255
-0.65 -0.141 1.036 255 255 255
-0.26 -1.022 2.362 255 255 255
0.026 0.03 0.7 0 0 0
0.04 -0.04 0.836 255 255 255
-0.716 -0.329 1.53 0 0 0
0.332 0.038 0.744 255 255 255
1.442 0.017 2.344 255 255 255
-1.396 -1.721 2.622 255 255 255
-0.595 -0.422 1.626 255 255 255
0.183 -0.154 1.181 255 255 255
-0.077 -0.067 0.96 0 0 0
0.146 0.209 0.431 0 0 0
1.192 -0.429 2.267 255 255 255
0.163 -0.005 0.857 255 255 255
1.065 -0.938 2.148 255 255 255
0.956 -0.848 2.212 255 255 255
0.345 -0.859 2.23 255 255 255
-0.173 0.065 0.53 255 255 255
0.146 -1.081 2.207 255 255 255
0.383 0.02 0.846 255 255 255
0.208 0.098 0.603 255 255 255
0.055 0.045 0.53 255 255 255
0.261 0.096 0.594 255 255 255
-0.224 0.043 0.624 255 255 255
0.392 -0.072 1.102 255 255 255
-0.203 -0.204 1.22 255 255 255
0.22 0.082 0.649 255 255 255
0.298 -0.675 2.305 0 0 0
-0.417 -0.401 1.696 255 255 255
-0.649 -0.126 0.96 255 255 255
0.246 0.12 0.522 255 255 255
0.686 -1.142 2.197 255 255 255
-0.591 -1.375 2.527 255 255 255
0.314 -0.552 2.345 0 0 0
-0.008 0.119 0.497 255 255 255
0.582 -0.611 2.076 255 255 255
0.581 -1.609 2.083 255 255 255
-0.35 -1.621 2.345 255 255 255
0.267 -0.938 2.226 255 255 255
-0.149 0.07 0.539 255 255 255
0.079 0.235 0.43 255 255 255
-0.388 -0.021 0.61 255 255 255
0.079 -0.032 0.86 255 255 255
1.281 0.032 2.395 255 255 255
0.052 0.113 0.449 255 255 255
0.044 0.022 0.568 0 0 0
0.103 0.168 0.456 0 0 0
-0.007 0.183 0.459 255 255 255
-0.124 0.079 0.572 0 0 0
-1.66 -0.553 2.437 255 255 255
0.245 0.098 0.579 255 255 255
-0.258 0.014 0.527 255 255 255
0.094 0.067 0.455 255 255 255
-0.21 -0.116 0.976 0 0 0
-1.305 -1.1 2.371 255 255 255
-0.1 0.084 0.59 0 0 0
1.168 -0.415 2.279 255 255 255
-0.717 -0.741 2.576 0 0 0
0.127 0.202 0.438 0 0 0
-1.232 -1.468 2.662 255 255 255
-0.455 -1.177 2.52 255 255 255
-1.349 -1.622 2.652 255 255 255
1.09 -0.156 2.391 0 0 0
0.198 0.004 0.832 255 255 255
-0.3 0.022 0.456 255 255 255
-1.091 -1.046 2.771 255 255 255
-0.061 0.183 0.463 255 255 255
-0.186 0.1 0.55 0 0 0
-0.02 0.224 0.447 255 255 255
1.268 -0.196 2.319 255 255 255
0.842 -1.05 2.179 255 255 255
-0.255 -0.002 0.542 255 255 255
-0.498 -0.177 1.06 255 255 255
-0.942 -1.627 2.561 255 255 255
-0.259 -0.081 0.924 255 255 255
0.213 -0.032 0.949 255 255 255
-0.005 -1.07 2.257 255 255 255
-0.263 0.072 0.517 255 255 255
-0.071 -0.067 0.96 0 0 0
0.17 0.041 0.67 255 255 255
-0.06 0.236 0.457 255 255 255
0.03 -0.176 1.179 255 255 255
0.891 -1.147 2.134 255 255 255
0.271 -0.982 2.207 255 255 255
1.504 -0.503 2.161 255 255 255
0.182 0.212 0.428 255 255 255
0.115 -0.071 0.913 0 0 0
-0.219 0.072 0.51 255 255 255
-0.41 -0.057 0.746 0 0 0
-0.19 0.173 0.484 0 0 0
-0.33 -0.206 1.245 255 255 255
-0.631 -0.801 2.58 0 0 0
1.391 -0.31 2.248 255 255 255
-0.211 0.2 0.476 255 255 255
0.257 -1.035 2.195 255 255 255
0.874 -0.812 2.172 0 0 0
0.003 0.067 0.595 255 255 255
1.175 -0.53 2.243 255 255 255
0.041 0.201 0.445 0 0 0
0.482 -1.344 2.193 255 255 255
-1.637 -0.451 2.574 0 0 0
0.009 0.033 0.675 255 255 255
-0.113 -0.113 0.941 255 255 255
-0.032 -1.596 2.266 255 255 255
1.241 -0.328 2.282 255 255 255
0.138 0.222 0.42 255 255 255
0.18 0.097 0.565 255 255 255
0.251 0.14 0.489 255 255 255
0.103 0.151 0.473 255 255 255
0.372 -0.441 1.875 255 255 255
-0.393 -0.124 0.952 255 255 255
0.03 0.109 0.496 0 0 0
0.234 0.05 0.652 255 255 255
0.119 0.037 0.564 0 0 0
1.051 -0.318 2.344 0 0 0
0.012 0.037 0.634 0 0 0
0.304 0.029 0.767 255 255 255
-0.191 0.104 0.534 255 255 255
0.102 0.203 0.438 0 0 0
-0.005 0.111 0.49 255 255 255
-0.506 -0.667 2.56 0 0 0
-0.028 0.162 0.479 255 255 255
-0.035 0.135 0.503 255 255 255
-0.064 0.13 0.508 255 255 255
0.585 -1.248 2.186 255 255 255
-0.015 0.008 0.728 255 255 255
-0.29 -0.035 0.588 255 255 255
-0.119 -0.005 0.721 255 255 255
-0.254 -0.733 2.418 255 255 255
0.027 0.051 0.615 0 0 0
-0.419 -0.38 1.68 0 0 0
-0.148 0.07 0.539 255 255 255
0.071 -1.544 2.249 255 255 255
-0.473 -0.375 1.665 255 255 255
-0.043 0.07 0.547 255 255 255
-0.302 -0.32 1.592 255 255 255
0.187 0.149 0.465 255 255 255
-0.335 -0.976 2.407 255 255 255
0.429 -1.572 2.139 0 0 0
0.244 0.043 0.69 255 255 255
-0.24 0.061 0.544 0 0 0
0.557 -1.585 2.101 0 0 0
1.509 -0.42 2.181 255 255 255
0.246 -0.094 1.117 0 0 0
-0.203 0.019 0.661 255 255 255
1.226 -0.967 2.097 255 255 255
-0.027 -0.36 1.674 255 255 255
-0.15 0.114 0.532 255 255 255
-0.24 0.046 0.57 0 0 0
0.067 0.224 0.431 255 255 255
-0.312 -1.018 2.374 255 255 255
-0.185 0.218 0.479 0 0 0
-0.78 -0.3 1.541 255 255 255
-0.008 0.034 0.619 255 255 255
-0.283 -0.343 1.764 0 0 0
0.038 -0.026 0.825 255 255 255
