ply
format ascii 1.0
comment Created by Open3D
element vertex 1630
property double x
property double y
property double z
property uchar red
property uchar green
property uchar blue
end_header
0.863 -1.19 2.114 255 255 255
0.033 0.118 0.5 255 255 255
0.186 0.194 0.425 0 0 0
0.03 -0.047 0.749 255 255 255
0.077 -0.195 1.129 255 255 255
-1.516 -0.549 2.675 0 0 0
0.046 0.035 0.607 0 0 0
-0.315 0.057 0.533 255 255 255
0.038 -0.07 0.825 0 0 0
0.077 0.036 0.552 255 255 255
-0.218 -0.034 0.562 255 255 255
-0.168 -0.051 0.763 255 255 255
-0.43 -1.657 2.4 255 255 255
-0.298 0.097 0.551 255 255 255
1.451 -0.319 2.211 255 255 255
-0.526 -0.094 0.768 0 0 0
1.242 -0.811 2.115 255 255 255
-0.569 -1.533 2.499 255 255 255
-0.263 -1.626 2.34 255 255 255
-0.071 -0.071 0.893 255 255 255
0.258 0.101 0.502 255 255 255
0.479 -0.842 2.208 255 255 255
0.262 -0.08 0.984 255 255 255
0.5 -1.599 2.092 0 0 0
-0.502 -0.077 0.703 255 255 255
-0.257 -0.053 0.547 255 255 255
-0.538 -1.219 2.602 255 255 255
1.518 -0.631 2.122 255 255 255
0.079 0.032 0.547 0 0 0
-0.055 0.179 0.455 255 255 255
0.21 -0.004 0.724 255 255 255
-0.084 -0.409 1.641 255 255 255
0.234 0.109 0.499 255 255 255
-0.205 -0.06 0.821 255 255 255
0.922 -1.297 2.059 255 255 255
-0.166 0.101 0.536 255 255 255
0.529 -0.135 1.162 255 255 255
-0.173 0.138 0.496 255 255 255
-1.015 -1.852 2.512 0 0 0
0.36 -0.902 2.22 255 255 255
-0.285 -0.321 1.418 0 0 0
0.121 0.136 0.47 255 255 255
-0.083 0.195 0.464 255 255 255
-0.001 0.164 0.461 255 255 255
-0.613 -1.15 2.621 0 0 0
-1.496 -0.717 2.639 255 255 255
-0.535 -0.102 0.738 255 255 255
0.078 -0.217 1.174 0 0 0
-0.265 -0.026 0.524 255 255 255
0.025 -1.541 2.276 255 255 255
-0.219 -0.109 0.928 255 255 255
0.138 -0.085 0.882 255 255 255
0.74 -0.79 2.142 0 0 0
-0.09 0.04 0.557 255 255 255
0.273 -1.041 2.207 255 255 255
0.192 -0.093 0.925 255 255 255
-0.017 0.12 0.489 255 255 255
1.382 -0.025 2.341 0 0 0
-0.237 0.162 0.497 255 255 255
0.585 -0.889 2.155 255 255 255
-0.264 -0.69 2.43 255 255 255
0.175 0.176 0.434 255 255 255
-0.141 -0.012 0.664 255 255 255
-0.032 -1.456 2.327 255 255 255
-0.014 -0.066 0.851 0 0 0
0.162 -0.15 0.978 255 255 255
-0.019 0.076 0.489 0 0 0
-0.414 -0.46 1.658 255 255 255
-0.022 0.177 0.454 255 255 255
0.075 0.112 0.5 0 0 0
-0.374 -1.232 2.514 255 255 255
0.197 0.131 0.458 255 255 255
0.405 -0.397 1.87 0 0 0
0.059 -0.168 1.027 255 255 255
-0.676 -1.85 2.426 0 0 0
0.082 -1.667 2.21 0 0 0
-0.315 0.016 0.496 0 0 0
-1.444 -1.327 2.59 255 255 255
0.078 0.004 0.563 0 0 0
0.144 0.204 0.419 0 0 0
-0.158 -1.423 2.377 255 255 255
0.069 0.204 0.436 0 0 0
-0.331 0.026 0.521 0 0 0
0.358 -0.788 2.201 255 255 255
0.129 0.154 0.45 255 255 255
-0.746 -1.565 2.546 255 255 255
-1.534 -0.951 2.393 255 255 255
0.491 -0.889 2.184 255 255 255
-0.991 -1.556 2.604 255 255 255
0.35 -0.085 0.977 255 255 255
-0.156 0.16 0.482 255 255 255
-0.177 0.245 0.514 255 255 255
0.079 0.104 0.487 255 255 255
-0.351 -0.302 1.306 0 0 0
-1.597 -0.675 2.332 255 255 255
-0.324 0.069 0.523 255 255 255
0.271 0.041 0.628 0 0 0
-0.223 -0.484 1.785 0 0 0
-0.014 0.072 0.488 255 255 255
1.213 -1.018 2.066 255 255 255
-0.383 -0.042 0.571 255 255 255
0.068 0.057 0.491 255 255 255
-0.34 -0.138 0.918 255 255 255
-0.298 0.037 0.501 0 0 0
-0.002 0.131 0.481 255 255 255
0.631 -0.444 1.773 255 255 255
0.02 -1.506 2.293 255 255 255
0.086 0.102 0.443 0 0 0
-0.363 -1.577 2.383 255 255 255
-0.082 0.126 0.496 255 255 255
-0.216 -0.05 0.606 255 255 255
0.411 0.013 0.729 255 255 255
-0.29 -1.656 2.33 255 255 255
0.061 -1.618 2.23 0 0 0
-0.185 0.046 0.515 255 255 255
0.011 0.186 0.444 255 255 255
-0.022 -0.036 0.73 255 255 255
1.475 -0.62 2.117 255 255 255
0.506 -1.459 2.134 255 255 255
0.154 0.211 0.416 255 255 255
-0.073 0.059 0.583 0 0 0
1.136 -0.328 2.317 0 0 0
-0.62 -1.679 2.461 255 255 255
-0.297 -0.012 0.5 255 255 255
-0.01 0.06 0.508 0 0 0
0.174 0.181 0.432 255 255 255
0.877 -0.872 2.195 255 255 255
-1.269 -0.937 2.923 255 255 255
-0.239 -0.762 2.41 255 255 255
-0.873 -0.854 2.713 255 255 255
-0.746 -1.482 2.575 255 255 255
-0.093 0.067 0.53 0 0 0
-0.251 0.041 0.519 255 255 255
-0.05 0.265 0.486 255 255 255
0.045 -0.023 0.737 255 255 255
1.338 -0.501 2.188 255 255 255
-0.082 0.134 0.486 255 255 255
0.087 -0.142 0.984 0 0 0
-0.208 -1.17 2.351 0 0 0
1.545 -0.399 2.159 255 255 255
0.038 -1.193 2.222 255 255 255
0.087 -0.094 0.87 255 255 255
-1.51 -0.817 2.567 255 255 255
0.147 -1.02 2.251 255 255 255
0.233 -0.071 0.977 0 0 0
-0.047 0.169 0.461 255 255 255
1.209 -0.758 2.141 255 255 255
0.35 -0.1 1.034 255 255 255
-1.492 -0.981 2.561 255 255 255
0.375 -0.185 1.25 255 255 255
1.347 -0.51 2.181 255 255 255
-0.264 0 0.464 255 255 255
-0.074 0.015 0.578 255 255 255
-0.287 -0.308 1.386 255 255 255
-1.498 -1.031 2.481 255 255 255
-0.031 0.121 0.491 255 255 255
0.02 0.181 0.446 255 255 255
-0.255 0.155 0.504 255 255 255
-0.026 0.045 0.537 255 255 255
-0.016 -1.421 2.333 255 255 255
-1.114 -1.313 2.741 255 255 255
-0.254 -0.063 0.605 255 255 255
0.123 0.217 0.426 255 255 255
-1.37 -1.422 2.611 255 255 255
0.329 0.092 0.55 255 255 255
-0.167 0.021 0.637 0 0 0
0.023 0.233 0.454 255 255 255
0.009 -1.155 2.258 255 255 255
0.044 0.054 0.547 0 0 0
0.146 0.125 0.469 255 255 255
-0.079 0 0.636 0 0 0
-0.044 0.179 0.454 255 255 255
-0.013 -0.089 0.92 255 255 255
0.93 -0.649 2.114 0 0 0
-0.097 -0.15 0.89 255 255 255
0.102 0.013 0.525 255 255 255
-1.503 -0.793 2.572 255 255 255
-0.938 -1.663 2.598 255 255 255
0.01 0.161 0.461 255 255 255
0.106 0.207 0.429 0 0 0
0.116 0.056 0.445 255 255 255
0.142 0.201 0.42 0 0 0
-1.494 -1.083 2.525 255 255 255
0.208 0.052 0.626 0 0 0
0.147 -1.109 2.219 255 255 255
-0.145 0.234 0.497 0 0 0
0.258 0.034 0.636 255 255 255
-0.599 -1.426 2.547 255 255 255
-0.9 -1.113 2.783 255 255 255
1.295 -0.439 2.226 255 255 255
0.309 -0.97 2.212 255 255 255
1.084 -0.759 2.187 255 255 255
-0.159 -1.609 2.312 255 255 255
0.024 -1.243 2.207 255 255 255
0.421 -1.186 2.098 0 0 0
0.072 0.074 0.506 255 255 255
0.362 -1.1 2.141 255 255 255
-1.486 -0.696 2.69 255 255 255
-0.684 -1.651 2.498 255 255 255
-0.907 -1.727 2.55 255 255 255
-0.573 -0.236 1.242 255 255 255
1.044 -0.669 2.228 255 255 255
0.099 0.081 0.418 0 0 0
-1.462 -0.954 2.673 255 255 255
-0.381 -0.843 2.512 255 255 255
-0.063 0.077 0.512 255 255 255
-0.071 0.091 0.516 255 255 255
-0.415 -1.563 2.409 255 255 255
0.18 0.177 0.434 255 255 255
-0.139 -1.109 2.324 255 255 255
1.431 -0.256 2.245 255 255 255
-0.245 -0.945 2.436 255 255 255
-0.035 -0.242 1.159 255 255 255
-0.323 -1.373 2.447 255 255 255
-0.586 -0.144 0.931 255 255 255
-0.229 0.13 0.51 0 0 0
0.027 0.156 0.461 255 255 255
0.05 0.174 0.451 0 0 0
1.032 -1.228 2.037 255 255 255
1.109 -1.273 2.019 255 255 255
0.487 -0.494 1.818 255 255 255
0.302 -0.066 0.954 255 255 255
-0.363 0.037 0.558 255 255 255
1.437 0.006 2.336 255 255 255
0.215 0.158 0.437 255 255 255
0.365 0.002 0.753 255 255 255
-0.033 -0.094 0.964 0 0 0
-1.569 -0.489 2.54 255 255 255
0.409 -0.182 1.242 255 255 255
0.383 -0.247 1.401 255 255 255
1.317 -0.141 2.322 0 0 0
0.922 -1.176 2.093 255 255 255
-0.172 0.048 0.517 255 255 255
0.298 0.081 0.545 255 255 255
0.077 0.009 0.546 255 255 255
1.2 -0.867 2.109 255 255 255
1.356 -0.633 2.135 255 255 255
0.033 0.163 0.456 255 255 255
-0.218 -0.03 0.554 255 255 255
0.149 -0.131 0.935 255 255 255
0.664 -0.884 2.126 0 0 0
-0.651 -0.457 1.712 0 0 0
0.377 -0.015 0.814 255 255 255
-0.037 0.252 0.476 255 255 255
-0.274 -1.666 2.326 255 255 255
-0.393 -0.057 0.601 255 255 255
0.776 -1.258 2.111 255 255 255
-0.068 0.048 0.578 255 255 255
-0.161 0.248 0.51 255 255 255
-0.105 0.16 0.477 0 0 0
-0.019 0.226 0.462 255 255 255
0.575 -0.649 2.097 0 0 0
-0.178 -0.069 0.855 0 0 0
-1.066 -1.651 2.597 255 255 255
-0.363 -0.037 0.594 255 255 255
0.224 -0.196 1.152 255 255 255
0.35 -0.831 2.236 0 0 0
-0.062 0.239 0.476 255 255 255
-0.156 0.103 0.531 255 255 255
-0.184 0.066 0.523 255 255 255
0.097 -1.665 2.208 0 0 0
0.355 -1.344 2.218 0 0 0
-0.104 0.032 0.55 255 255 255
-0.071 0.138 0.482 255 255 255
0.163 0.186 0.43 255 255 255
-0.065 0.247 0.481 255 255 255
0.103 0.043 0.448 0 0 0
-1.534 -0.748 2.499 255 255 255
-0.258 0.167 0.504 255 255 255
0.715 -1.221 2.144 255 255 255
0.369 -0.879 2.226 0 0 0
-1.18 -1.082 2.365 255 255 255
0.437 -0.714 2.27 0 0 0
0.016 0.101 0.509 0 0 0
-0.526 -1.243 2.587 255 255 255
-0.024 -0.207 1.161 0 0 0
-1.282 -1.748 2.61 255 255 255
-0.233 -1.045 2.39 255 255 255
0.004 -1.188 2.244 255 255 255
-0.074 -1.651 2.265 0 0 0
-0.404 0.022 0.608 0 0 0
0.657 -1.558 2.054 0 0 0
0.105 0.031 0.46 255 255 255
0.823 -1.198 2.117 255 255 255
0.012 0.115 0.5 255 255 255
0.457 -1.306 2.204 255 255 255
-1.206 -1.044 2.351 255 255 255
0.088 0.034 0.54 255 255 255
-0.008 0.13 0.483 255 255 255
0.061 -0.756 2.3 255 255 255
1.492 -0.633 2.121 255 255 255
-0.86 -1.481 2.615 255 255 255
-0.105 0.152 0.483 255 255 255
-0.238 0.062 0.503 0 0 0
-0.048 -0.043 0.731 255 255 255
0.179 0.191 0.427 0 0 0
0.222 0.013 0.662 255 255 255
-0.009 0.186 0.447 255 255 255
1.05 -1.325 2.015 255 255 255
0.056 0.185 0.442 255 255 255
1.514 -0.261 2.213 255 255 255
-0.183 0.251 0.519 255 255 255
-0.308 0.107 0.552 255 255 255
0.097 0.17 0.445 255 255 255
0.428 -0.062 0.944 255 255 255
0.13 -0.141 0.951 0 0 0
0.219 0.15 0.443 255 255 255
-1.125 -1.214 2.783 255 255 255
0.09 0.015 0.523 255 255 255
-0.039 0.163 0.466 255 255 255
1.061 -1.156 2.056 255 255 255
-0.2 -0.035 0.608 255 255 255
0.056 0.17 0.451 255 255 255
-0.068 0.012 0.586 255 255 255
0.313 0.038 0.608 0 0 0
0.821 -1.472 2.031 0 0 0
0.465 -0.066 0.978 255 255 255
-0.028 0.25 0.473 255 255 255
-0.196 0.043 0.536 0 0 0
-0.208 -0.017 0.564 255 255 255
0.029 0.003 0.63 255 255 255
0.095 -1.167 2.215 255 255 255
0.169 0.185 0.431 255 255 255
0.114 -0.012 0.609 0 0 0
0.025 0.163 0.457 0 0 0
-0.911 -1.283 2.706 255 255 255
0.307 -0.152 1.147 0 0 0
0.168 0.233 0.42 255 255 255
1.176 -0.655 2.189 255 255 255
-0.222 0.005 0.583 255 255 255
0.594 -0.907 2.146 255 255 255
-0.029 0.201 0.455 255 255 255
0.285 -0.097 0.995 255 255 255
0.91 -1.247 2.077 255 255 255
0.582 -0.682 2.081 255 255 255
-1.318 -1.717 2.572 255 255 255
0.59 -1.381 2.135 255 255 255
-0.053 -1.374 2.361 255 255 255
0.095 0.015 0.515 255 255 255
1.463 -0.661 2.12 255 255 255
0.744 -1.266 2.123 255 255 255
-0.027 -0.154 0.961 255 255 255
0.25 0.061 0.617 255 255 255
-0.268 -0.004 0.475 255 255 255
0.001 0.056 0.526 255 255 255
-0.669 -1.146 2.664 255 255 255
-0.123 0.171 0.47 255 255 255
-0.24 -0.054 0.802 255 255 255
0.158 0.07 0.473 0 0 0
0.121 -1.398 2.293 255 255 255
0.134 -0.494 1.643 255 255 255
0.38 0.031 0.662 255 255 255
0.152 -1.62 2.201 0 0 0
-0.113 -0.01 0.667 255 255 255
-0.154 0.153 0.488 0 0 0
-0.179 0.128 0.507 255 255 255
0.125 0.155 0.449 0 0 0
-0.676 -1.439 2.572 255 255 255
0.226 -1.542 2.201 255 255 255
-0.238 -0.096 0.933 255 255 255
1.266 -0.419 2.242 255 255 255
-0.243 0.041 0.521 255 255 255
-1.103 -1.503 2.666 255 255 255
-0.609 -0.153 0.909 255 255 255
-0.061 -0.021 0.68 255 255 255
-0.132 0.269 0.51 255 255 255
-0.154 0.006 0.644 255 255 255
-0.568 -0.482 1.681 0 0 0
-0.266 -0.038 0.523 255 255 255
0.207 0.108 0.485 0 0 0
-0.044 -0.771 2.33 255 255 255
-0.134 0.218 0.487 0 0 0
-0.28 -0.246 1.166 255 255 255
-0.231 0.26 0.542 255 255 255
-0.209 -0.108 0.925 255 255 255
0.572 -0.908 2.153 255 255 255
0.243 -0.17 1.154 255 255 255
0.127 -1.641 2.203 0 0 0
-0.111 0.13 0.494 255 255 255
-0.069 0.147 0.478 255 255 255
-0.02 0.024 0.594 0 0 0
0.025 0.135 0.475 255 255 255
-0.373 -0.781 2.546 0 0 0
0.443 0.049 0.729 255 255 255
-0.176 0.156 0.487 255 255 255
0.148 0.143 0.452 255 255 255
1.295 -0.337 2.259 255 255 255
0.034 0.078 0.49 0 0 0
-1.496 -0.978 2.53 255 255 255
-0.025 -0.28 1.206 255 255 255
0.101 0.208 0.43 0 0 0
-0.153 0.008 0.641 255 255 255
-0.264 -0.5 1.782 255 255 255
-0.225 0.297 0.562 255 255 255
0.884 -0.641 2.115 0 0 0
0.136 0.224 0.424 255 255 255
-0.241 -0.014 0.529 0 0 0
0.255 0.091 0.537 0 0 0
-0.008 0.049 0.539 255 255 255
0.426 -0.805 2.241 0 0 0
-0.339 0.059 0.526 255 255 255
-0.262 -0.071 0.645 255 255 255
-0.975 -1.517 2.629 255 255 255
-0.301 0.101 0.551 255 255 255
-0.066 0.077 0.515 255 255 255
-0.062 0.04 0.588 255 255 255
-0.03 -0.983 2.331 255 255 255
0.714 -1.389 2.094 255 255 255
0.158 0.156 0.443 255 255 255
-0.208 0.064 0.506 255 255 255
-0.143 0.262 0.51 255 255 255
-0.044 0.111 0.508 255 255 255
-0.448 -0.203 1.041 255 255 255
-0.096 0.086 0.531 0 0 0
-0.108 -0.027 0.709 255 255 255
0.01 0.131 0.479 255 255 255
0.007 -0.02 0.715 255 255 255
-0.56 -1.171 2.439 0 0 0
0.123 -0.022 0.619 0 0 0
-0.016 0.209 0.455 0 0 0
-0.23 -0.189 1.072 0 0 0
-1.59 -0.521 2.412 255 255 255
-0.42 -0.826 2.527 255 255 255
0.006 0.168 0.459 255 255 255
0.082 0.067 0.508 0 0 0
0.52 -0.422 1.804 255 255 255
0.355 -0.836 2.236 0 0 0
-0.016 0.202 0.453 0 0 0
-1.202 -1.162 2.376 255 255 255
0.408 -0.159 1.187 255 255 255
0.157 0.224 0.42 255 255 255
0.943 -1.057 2.118 255 255 255
0.101 -1.431 2.286 255 255 255
-0.274 0.001 0.517 255 255 255
1.253 -0.438 2.237 255 255 255
-0.078 0.139 0.484 0 0 0
-1.076 -1.687 2.592 255 255 255
0.143 0.131 0.467 255 255 255
-0.344 -0.332 1.306 0 0 0
0.321 -0.024 0.824 255 255 255
0.384 0.063 0.64 255 255 255
0.097 -0.017 0.717 0 0 0
-0.24 -0.13 0.956 255 255 255
0.1 0.098 0.419 255 255 255
-0.175 0.119 0.509 255 255 255
0.003 0.197 0.446 255 255 255
-0.24 -1.435 2.403 255 255 255
0.031 -0.071 0.83 0 0 0
-0.037 0.102 0.525 0 0 0
-0.281 -0.026 0.504 255 255 255
1.332 -0.577 2.165 255 255 255
0.368 -1.165 2.127 255 255 255
-0.257 -0.022 0.527 0 0 0
-0.135 0.14 0.496 255 255 255
-0.263 0.014 0.483 255 255 255
-0.227 -0.044 0.568 255 255 255
-0.114 -0.139 0.885 255 255 255
-0.663 -1.659 2.48 255 255 255
0.245 0.076 0.578 255 255 255
-0.188 0.062 0.512 255 255 255
-0.243 -0.062 0.807 255 255 255
0.181 0.128 0.461 255 255 255
-0.233 -0.042 0.801 255 255 255
-0.34 -0.139 0.93 255 255 255
0.104 -0.025 0.801 255 255 255
0.345 -1.6 2.141 0 0 0
-0.231 0.175 0.5 255 255 255
-0.07 -0.082 0.917 255 255 255
-0.067 0.016 0.579 255 255 255
0.272 -1.616 2.169 0 0 0
0.206 0.098 0.505 0 0 0
0.072 0.091 0.491 0 0 0
0.219 0.149 0.445 255 255 255
-0.159 0.099 0.539 255 255 255
0.916 -0.833 2.063 0 0 0
0.052 0.244 0.449 255 255 255
0.017 0.176 0.452 255 255 255
0.088 0.082 0.429 255 255 255
-0.194 -0.005 0.617 255 255 255
0.282 0.081 0.547 255 255 255
0.454 -0.605 2.302 0 0 0
-0.54 -0.111 0.719 255 255 255
-0.075 -0.007 0.643 255 255 255
-0.149 0.101 0.532 255 255 255
0.001 0.203 0.449 0 0 0
-0.045 0.146 0.475 255 255 255
1.08 -1.132 2.058 255 255 255
0.76 -0.319 1.703 255 255 255
-0.045 0.107 0.515 255 255 255
-0.028 0.049 0.53 255 255 255
-0.034 0.135 0.482 255 255 255
1.514 -0.462 2.153 255 255 255
0.136 -0.526 1.663 255 255 255
0.237 -0.382 1.668 255 255 255
-0.198 0.159 0.49 255 255 255
1.133 -0.72 2.18 255 255 255
-0.422 -0.166 0.978 255 255 255
0.566 -1.356 2.148 255 255 255
-0.201 -0.021 0.585 255 255 255
-0.238 -0.284 1.36 0 0 0
1.335 -0.487 2.195 255 255 255
-0.25 -0.048 0.538 255 255 255
-1.502 -0.567 2.713 0 0 0
0.985 -1.147 2.085 255 255 255
-1.619 -0.501 2.31 255 255 255
0.022 0.177 0.449 255 255 255
0.134 0.203 0.42 0 0 0
-0.016 -0.188 1.091 255 255 255
-0.363 -0.06 0.601 255 255 255
0.318 0.042 0.605 0 0 0
-0.022 0.099 0.527 0 0 0
-0.016 0.027 0.585 255 255 255
0.985 -1.195 2.067 255 255 255
0.007 0.037 0.579 255 255 255
-0.953 -1.782 2.553 255 255 255
-1.399 -1.567 2.559 255 255 255
1.084 -0.679 2.215 255 255 255
-1.569 -0.536 2.476 255 255 255
-0.012 -0.146 0.976 255 255 255
-0.229 0.086 0.537 0 0 0
0.149 0.006 0.56 0 0 0
-0.526 -1.15 2.62 255 255 255
0.133 -0.442 1.632 255 255 255
-0.145 -0.024 0.683 255 255 255
0.865 -1.163 2.116 255 255 255
0.398 0.008 0.74 255 255 255
0.205 -0.157 1.066 255 255 255
-0.083 0.181 0.461 255 255 255
0.687 -1.161 2.177 255 255 255
-0.13 0.06 0.555 0 0 0
-0.21 -0.047 0.613 255 255 255
-0.144 0.003 0.649 255 255 255
1.469 -0.503 2.148 255 255 255
-0.029 -0.047 0.749 255 255 255
0.181 0.102 0.478 0 0 0
1.112 -0.928 2.12 255 255 255
0.334 0 0.75 255 255 255
0.336 0.067 0.596 255 255 255
0.676 -0.662 2.027 255 255 255
0.172 0.181 0.433 255 255 255
-1.371 -1.472 2.595 255 255 255
1.17 -0.533 2.233 255 255 255
-0.131 0.012 0.636 0 0 0
0.159 0.094 0.484 0 0 0
0.039 0.214 0.445 0 0 0
0.751 -0.318 1.702 255 255 255
0.948 -1.275 2.053 255 255 255
-0.105 -0.013 0.671 255 255 255
-0.009 0.018 0.607 255 255 255
0.309 0.034 0.621 255 255 255
0.349 -0.219 1.343 255 255 255
0.289 -0.161 1.162 255 255 255
-0.03 0.072 0.498 0 0 0
-0.228 0.104 0.515 255 255 255
0.032 0.121 0.491 255 255 255
0.012 0.128 0.48 255 255 255
-0.049 -0.449 1.701 0 0 0
0.102 -0.013 0.622 0 0 0
-0.104 0.201 0.473 255 255 255
0.136 0.18 0.437 255 255 255
-0.03 0.1 0.528 0 0 0
1.371 -0.784 2.096 255 255 255
0.187 0.13 0.459 255 255 255
-0.211 0.136 0.505 0 0 0
-0.256 -0.901 2.451 0 0 0
0.353 0.028 0.663 255 255 255
-0.262 -1.282 2.461 255 255 255
-0.515 -1.558 2.478 255 255 255
-0.01 0.244 0.466 255 255 255
0.111 -0.196 1.133 255 255 255
0.09 0.111 0.456 0 0 0
-0.183 0.078 0.559 0 0 0
0.164 0.128 0.464 255 255 255
1.292 -0.742 2.126 255 255 255
-0.191 0.181 0.49 0 0 0
0.1 -0.386 1.648 255 255 255
0.731 -0.653 2.029 255 255 255
0.274 -0.18 1.182 255 255 255
0.142 0.173 0.439 255 255 255
-0.069 0.123 0.498 255 255 255
1.41 -0.709 2.107 255 255 255
0.134 -0.043 0.826 255 255 255
-0.669 -1.841 2.425 0 0 0
0.161 0.156 0.443 0 0 0
0.048 -1.065 2.269 255 255 255
-0.027 0.048 0.531 255 255 255
-0.267 0.072 0.497 0 0 0
-0.283 -0.109 0.993 0 0 0
-0.21 0.165 0.49 255 255 255
0.215 -0.222 1.208 255 255 255
0.612 -0.371 1.631 0 0 0
0.176 -0.896 2.285 255 255 255
-0.013 0.139 0.477 255 255 255
0.203 0.01 0.666 0 0 0
1.309 -0.533 2.185 255 255 255
0.099 0.139 0.461 255 255 255
-0.165 0.162 0.481 255 255 255
-0.106 -0.15 0.891 0 0 0
1.415 -0.421 2.193 255 255 255
-0.024 -0.409 1.657 255 255 255
0.279 -1.427 2.22 255 255 255
0.865 -1.153 2.119 255 255 255
0.303 0.024 0.655 255 255 255
1.074 -0.885 2.145 255 255 255
-0.11 0.132 0.494 255 255 255
-0.183 0.085 0.53 255 255 255
0.171 0.179 0.434 255 255 255
0.006 -0.173 1.058 0 0 0
-0.108 0.06 0.54 255 255 255
1.501 -0.514 2.136 255 255 255
-1.017 -1.165 2.754 0 0 0
1.268 -0.557 2.194 255 255 255
-0.282 -0.125 1.006 0 0 0
-1.595 -0.546 2.393 255 255 255
-0.114 0.205 0.476 255 255 255
-0.064 0.254 0.483 255 255 255
-1.429 -1.002 2.755 255 255 255
-0.033 -0.012 0.665 255 255 255
-0.16 0.185 0.483 255 255 255
-0.132 -0.006 0.66 255 255 255
-1.453 -1.276 2.581 255 255 255
0.116 -0.46 1.636 255 255 255
-0.161 0.029 0.54 255 255 255
0.133 -0.463 1.634 255 255 255
0.417 0.038 0.708 255 255 255
-0.026 -0.019 0.73 255 255 255
-0.109 -0.133 0.883 0 0 0
0.29 -0.783 2.221 255 255 255
-1.209 -0.836 2.564 255 255 255
0.118 0.173 0.442 255 255 255
-0.63 -0.159 0.883 255 255 255
0.284 -0.77 2.213 255 255 255
-0.193 -0.015 0.628 255 255 255
0.801 -0.841 2.102 0 0 0
0.19 0.18 0.431 255 255 255
-0.096 -0.03 0.716 0 0 0
0.571 -1.556 2.086 0 0 0
-0.754 -1.128 2.699 255 255 255
-0.049 -0.151 0.932 255 255 255
-0.075 -0.069 0.888 255 255 255
1.347 -0.5 2.183 255 255 255
1.562 -0.242 2.207 255 255 255
-0.068 0.006 0.617 0 0 0
1.064 -0.758 2.192 255 255 255
0.426 -0.254 1.415 255 255 255
-0.166 0.068 0.548 0 0 0
-0.352 -1.528 2.404 255 255 255
0.75 -0.692 2.032 255 255 255
-0.106 0.186 0.468 255 255 255
-0.299 0.077 0.527 255 255 255
0.238 -1.173 2.144 255 255 255
0.118 0.181 0.439 255 255 255
-0.044 0.122 0.491 255 255 255
0.27 0.105 0.499 255 255 255
0.177 0.141 0.454 255 255 255
-0.209 0.181 0.496 255 255 255
0.013 0.181 0.447 255 255 255
0.126 0.05 0.449 255 255 255
-0.02 0.038 0.555 255 255 255
0.083 0.217 0.435 255 255 255
0.134 0.112 0.455 255 255 255
0.297 0.092 0.529 255 255 255
-0.078 0.21 0.468 0 0 0
-0.123 0.094 0.526 255 255 255
-0.147 0.174 0.474 255 255 255
1.201 -0.471 2.245 255 255 255
-0.13 -0.891 2.4 0 0 0
0.743 -1.104 2.176 255 255 255
0.299 0.083 0.541 0 0 0
0.225 -0.014 0.767 255 255 255
-0.126 0.194 0.477 255 255 255
0.014 -1.083 2.272 255 255 255
-0.239 0.216 0.521 255 255 255
0.396 -0.005 0.781 255 255 255
-0.312 -1.303 2.472 255 255 255
0.045 0.145 0.468 255 255 255
0.296 0.023 0.657 255 255 255
0.097 -0.427 1.646 255 255 255
-0.085 0.023 0.566 255 255 255
0.108 0.09 0.413 0 0 0
-0.331 -0.265 1.276 0 0 0
-0.271 -0.017 0.493 255 255 255
-0.32 0.058 0.529 255 255 255
0.619 -0.234 1.414 255 255 255
-0.277 -0.002 0.518 255 255 255
-0.191 -0.464 1.766 255 255 255
-0.339 -0.137 0.929 255 255 255
-0.303 0.088 0.548 255 255 255
0.109 0.082 0.412 0 0 0
-0.189 -0.056 0.791 255 255 255
-0.354 -0.076 0.667 255 255 255
-1.305 -1.57 2.652 255 255 255
-0.491 -1.646 2.431 255 255 255
0.085 -0.142 0.984 0 0 0
-0.983 -1.451 2.637 255 255 255
-0.299 0.124 0.531 255 255 255
-0.061 0.169 0.461 255 255 255
-0.328 -0.274 1.283 0 0 0
0.405 -0.683 2.287 0 0 0
0.035 0.004 0.633 0 0 0
0.094 0.074 0.428 255 255 255
-0.09 -0.022 0.695 255 255 255
0.203 0.172 0.432 255 255 255
0.032 0.05 0.559 255 255 255
-0.247 0.144 0.512 255 255 255
0.507 -0.426 1.842 0 0 0
0.108 0.141 0.46 255 255 255
-0.515 -0.071 0.682 255 255 255
1.536 -0.33 2.182 255 255 255
-0.041 0.097 0.532 0 0 0
-0.043 -0.741 2.319 255 255 255
-0.233 0.177 0.502 255 255 255
-1.661 -0.448 2.227 255 255 255
-0.264 0.004 0.462 255 255 255
1.414 -0.382 2.207 255 255 255
0.016 0.232 0.455 255 255 255
0.096 0.088 0.418 0 0 0
-0.02 0.125 0.488 255 255 255
-0.123 0.199 0.477 255 255 255
-0.051 0.174 0.458 255 255 255
-0.003 0.011 0.626 0 0 0
0.186 -0.385 1.636 255 255 255
-0.275 0.131 0.525 255 255 255
-0.154 -0.035 0.731 0 0 0
-1.276 -0.988 2.91 255 255 255
-0.677 -0.492 1.721 255 255 255
-0.371 -0.009 0.591 255 255 255
-0.04 -0.98 2.337 255 255 255
1.443 0.089 2.323 0 0 0
-0.118 0.087 0.537 255 255 255
0.188 -0.2 1.136 255 255 255
-0.391 -0.827 2.515 0 0 0
-0.405 -1.088 2.435 0 0 0
-0.01 0.157 0.467 0 0 0
0.023 0.016 0.606 255 255 255
-0.509 -0.078 0.694 255 255 255
0.91 -0.971 2.169 255 255 255
-0.634 -0.164 0.892 255 255 255
0.066 -0.119 0.874 0 0 0
1.019 -0.918 2.15 255 255 255
1.637 0.07 2.292 255 255 255
-0.236 0.234 0.528 0 0 0
-1.217 -0.931 2.917 255 255 255
-0.244 -0.973 2.42 255 255 255
-0.666 -1.74 2.457 255 255 255
0.605 -1.133 2.205 0 0 0
0.095 0.014 0.516 255 255 255
0.204 -0.02 0.786 255 255 255
0.172 0.125 0.464 255 255 255
0.721 -0.408 1.746 255 255 255
0.131 0.153 0.449 255 255 255
0.157 0.031 0.515 0 0 0
-0.572 -0.161 1.005 0 0 0
0.268 0.013 0.68 255 255 255
0.273 0.03 0.63 255 255 255
0.002 0.03 0.594 255 255 255
0.065 0.075 0.498 255 255 255
0.083 0.181 0.441 255 255 255
0.083 0.194 0.433 0 0 0
-0.192 -0.007 0.623 255 255 255
0.208 -0.046 0.873 255 255 255
-0.334 -0.112 0.781 0 0 0
0.363 0.005 0.741 255 255 255
-0.097 0.153 0.483 255 255 255
0.296 0.074 0.569 255 255 255
-0.082 0.142 0.484 0 0 0
-0.226 0.23 0.524 0 0 0
-0.318 0.055 0.532 255 255 255
1.271 -0.206 2.314 0 0 0
-0.189 0.093 0.543 255 255 255
0.805 -1.098 2.16 255 255 255
0.034 0.119 0.499 255 255 255
-0.069 0.038 0.576 255 255 255
0.037 0.145 0.469 255 255 255
-1.089 -1.542 2.648 255 255 255
-0.289 -0.142 1.071 0 0 0
-0.213 0.212 0.512 255 255 255
0.04 -0.432 1.664 255 255 255
0.337 -0.191 1.247 255 255 255
0.011 0.145 0.472 255 255 255
0.413 -0.045 0.897 0 0 0
0.164 0.078 0.473 0 0 0
0.052 0.033 0.606 0 0 0
-0.073 0.103 0.527 0 0 0
-0.511 -0.083 0.693 255 255 255
-0.624 -1.438 2.553 255 255 255
-0.347 -0.064 0.613 255 255 255
-0.395 -0.052 0.593 255 255 255
-0.527 -0.096 0.736 255 255 255
0.194 0.136 0.456 0 0 0
0.105 0.231 0.434 255 255 255
0.023 0.191 0.44 255 255 255
0.149 -0.388 1.639 255 255 255
-0.313 0.059 0.532 255 255 255
0.135 0.06 0.456 255 255 255
1.178 -0.447 2.26 255 255 255
0.183 0.191 0.427 0 0 0
0.069 -0.149 1.01 0 0 0
0.788 -0.869 2.1 255 255 255
0.061 0.239 0.446 255 255 255
1.137 -0.533 2.246 255 255 255
-0.035 0.171 0.459 255 255 255
0.02 0.042 0.576 255 255 255
0.543 -1.147 2.188 0 0 0
-0.201 0.14 0.503 0 0 0
0.549 -1.603 2.08 0 0 0
0.06 0.075 0.49 255 255 255
-0.889 -1.402 2.659 255 255 255
-0.337 -0.134 0.918 255 255 255
0.233 0.081 0.555 255 255 255
-0.258 0.035 0.479 0 0 0
0.764 -0.901 2.096 255 255 255
0.084 -0.078 0.838 255 255 255
-0.132 0.083 0.546 0 0 0
-0.429 -0.353 1.365 0 0 0
0.145 0.022 0.559 0 0 0
0.305 -0.006 0.765 255 255 255
-0.177 0.056 0.512 255 255 255
0.124 0.086 0.427 255 255 255
0.344 -0.041 0.904 255 255 255
-0.268 -0.1 0.985 0 0 0
-0.04 0.194 0.456 255 255 255
-0.184 0.112 0.519 255 255 255
1.159 -0.946 2.095 255 255 255
-0.326 -0.037 0.586 255 255 255
0.822 -0.999 2.181 255 255 255
-0.42 0.033 0.602 255 255 255
0.192 -1.516 2.224 255 255 255
0.44 -0.18 1.237 255 255 255
-0.229 -0.046 0.572 255 255 255
-0.22 0.08 0.535 0 0 0
-0.144 0.158 0.484 255 255 255
1.23 -0.996 2.072 255 255 255
0.064 0.106 0.495 255 255 255
-0.157 0.078 0.559 0 0 0
0.079 0.118 0.489 255 255 255
0.157 -0.926 2.282 255 255 255
-1.313 -1.725 2.573 255 255 255
0.574 -0.535 1.82 255 255 255
0.008 0.135 0.477 255 255 255
-0.02 0.189 0.45 255 255 255
0.219 -0.226 1.212 255 255 255
0.274 -1.433 2.219 255 255 255
0.021 0.172 0.454 255 255 255
-0.089 0.002 0.637 255 255 255
-0.211 0.02 0.572 255 255 255
0.343 -0.145 1.144 255 255 255
-0.233 0.261 0.543 255 255 255
0.155 0.106 0.478 255 255 255
-0.267 -0.013 0.523 255 255 255
0.107 0.142 0.458 255 255 255
0.294 0.042 0.616 255 255 255
-0.065 0.231 0.472 255 255 255
-0.531 -0.096 0.768 0 0 0
0.15 -0.113 0.956 0 0 0
-0.22 0.155 0.496 255 255 255
-0.062 -0.023 0.693 255 255 255
0.227 0.145 0.446 255 255 255
0.776 -0.714 2.049 255 255 255
-0.161 -0.875 2.415 0 0 0
1.431 -0.066 2.315 255 255 255
1.033 -1.297 2.025 255 255 255
0.494 -1.556 2.107 0 0 0
-0.086 0.111 0.51 255 255 255
0.164 0.04 0.53 255 255 255
1.209 -0.357 2.285 255 255 255
-0.046 0.024 0.617 0 0 0
-0.243 -0.712 2.416 255 255 255
1.02 -0.904 2.155 255 255 255
0.545 -0.411 1.838 0 0 0
0.122 0.089 0.423 255 255 255
0.048 0.163 0.458 255 255 255
-0.04 0.213 0.463 0 0 0
-0.226 0.087 0.542 255 255 255
-0.24 -0.441 1.677 255 255 255
-0.344 -1.184 2.506 0 0 0
-0.157 0.174 0.476 255 255 255
-0.212 0.141 0.505 0 0 0
-1.449 -1.063 2.693 255 255 255
-0.638 -0.164 0.89 255 255 255
-0.509 -1.63 2.448 255 255 255
-0.859 -1.786 2.51 255 255 255
0.849 -1.58 1.983 255 255 255
0.746 -1.546 2.026 0 0 0
1.607 -0.097 2.24 255 255 255
-0.235 -1.44 2.4 255 255 255
0.004 -0.04 0.743 255 255 255
0.231 0.056 0.652 0 0 0
0.56 -0.319 1.594 255 255 255
-0.406 -0.006 0.54 255 255 255
-0.221 0.094 0.542 255 255 255
-0.084 -1.605 2.288 255 255 255
-0.388 -0.047 0.576 255 255 255
0.015 0.134 0.476 255 255 255
0.737 -0.391 1.769 255 255 255
-0.173 -0.012 0.676 0 0 0
0.154 -0.761 2.267 255 255 255
-1.119 -1.822 2.561 255 255 255
0.486 -0.107 1.076 255 255 255
0.033 -1.047 2.29 255 255 255
-0.76 -1.29 2.65 255 255 255
0.959 -0.935 2.116 0 0 0
0.078 -0.158 1.001 255 255 255
0.037 0.14 0.472 255 255 255
0.071 -1.231 2.195 255 255 255
0.166 0.2 0.42 0 0 0
1.185 -0.759 2.151 255 255 255
0.956 -1.395 2.01 255 255 255
-0.2 0.016 0.619 255 255 255
-0.239 -0.018 0.529 0 0 0
-0.337 -0.234 1.238 0 0 0
-0.135 0.131 0.498 255 255 255
0.157 0.094 0.484 0 0 0
0.107 0.065 0.436 255 255 255
-0.053 -1.597 2.278 255 255 255
-0.363 -0.321 1.243 255 255 255
0.671 -0.85 2.141 255 255 255
0.127 -0.127 0.976 0 0 0
0.189 -0.388 1.634 255 255 255
-0.04 0.26 0.482 255 255 255
-1.501 -0.754 2.615 255 255 255
-1.486 -0.961 2.582 255 255 255
0.019 0.181 0.448 255 255 255
-0.745 -1.597 2.529 255 255 255
-0.102 0.076 0.538 0 0 0
-0.81 -1.711 2.521 255 255 255
0.101 0.105 0.428 0 0 0
0.212 0.155 0.439 255 255 255
0.17 0.167 0.437 255 255 255
-0.113 0.159 0.478 0 0 0
-0.336 -0.212 1.078 255 255 255
0.668 -1.429 2.098 255 255 255
-0.348 -0.268 1.276 0 0 0
1.336 -0.284 2.262 255 255 255
0.286 0.049 0.62 0 0 0
-0.027 0.111 0.507 255 255 255
0.171 0.197 0.423 0 0 0
-0.528 -1.687 2.433 255 255 255
0.863 -1.411 2.042 255 255 255
-1.153 -1.606 2.654 255 255 255
-0.26 -0.072 0.648 255 255 255
-0.249 -0.048 0.539 255 255 255
-0.087 0.186 0.463 255 255 255
0.481 -0.137 1.142 255 255 255
0.131 0.128 0.47 255 255 255
0.037 0.141 0.472 255 255 255
0.514 -0.039 0.969 255 255 255
0.029 -0.156 1.06 0 0 0
0.109 0.07 0.427 255 255 255
-0.161 -0.847 2.428 0 0 0
0.036 0.083 0.491 0 0 0
-0.364 -0.99 2.467 255 255 255
-0.38 -0.044 0.573 255 255 255
-0.218 0.016 0.586 255 255 255
-0.106 -0.098 0.891 0 0 0
-0.174 -1.414 2.382 255 255 255
-0.019 0.045 0.537 255 255 255
-0.23 0.079 0.523 0 0 0
-0.932 -1.455 2.657 255 255 255
0.678 -0.34 1.699 0 0 0
-1.251 -1.155 2.374 255 255 255
0.108 0.205 0.428 0 0 0
-1.002 -1.143 2.753 255 255 255
0.048 0.13 0.476 255 255 255
-1.511 -0.771 2.578 255 255 255
-0.113 -0.12 0.88 255 255 255
0.131 0.222 0.424 255 255 255
-0.078 0.268 0.493 255 255 255
-0.096 0.043 0.554 255 255 255
0.09 0.086 0.423 0 0 0
-0.064 0.03 0.582 255 255 255
-0.225 0.203 0.512 255 255 255
0.036 0.02 0.606 255 255 255
0.383 -0.789 2.244 255 255 255
0.095 0.102 0.428 0 0 0
0.051 -0.001 0.69 255 255 255
-0.313 -0.484 1.707 255 255 255
0.393 -0.066 0.935 0 0 0
-0.053 0.041 0.614 0 0 0
-0.379 -1.296 2.49 255 255 255
0.267 0.098 0.516 255 255 255
0.08 -0.07 0.824 255 255 255
0.357 -0.424 1.928 255 255 255
0.206 -1.418 2.251 255 255 255
-0.236 -0.349 1.464 255 255 255
0.169 0.188 0.43 255 255 255
-0.434 -1.239 2.549 255 255 255
1.003 -1.292 2.035 255 255 255
-0.089 -0.133 0.886 255 255 255
0.118 0.058 0.444 255 255 255
-0.217 -1.025 2.384 255 255 255
0.35 -1.611 2.137 0 0 0
-0.053 -0.067 0.94 0 0 0
-0.389 -0.014 0.58 0 0 0
1.142 -0.409 2.286 0 0 0
-0.121 0.051 0.541 255 255 255
-0.109 -0.142 0.885 255 255 255
-0.102 0.192 0.468 255 255 255
0.262 0.075 0.575 255 255 255
0.112 0.141 0.459 255 255 255
-0.039 -0.005 0.63 255 255 255
0.685 -0.945 2.097 0 0 0
0.32 0.052 0.596 255 255 255
-0.09 0.091 0.527 255 255 255
0.625 -0.434 1.768 255 255 255
-0.293 0.096 0.55 0 0 0
0.268 -0.148 1.138 255 255 255
-0.335 -1.046 2.426 255 255 255
0.095 0.155 0.454 255 255 255
0.077 0.157 0.456 255 255 255
-0.239 -0.102 0.936 255 255 255
0.208 0.142 0.452 255 255 255
-0.293 0.111 0.542 255 255 255
-0.058 0.224 0.469 0 0 0
-0.266 -0.234 1.158 255 255 255
0.329 -0.851 2.252 0 0 0
-0.073 -0.067 0.888 255 255 255
0.239 0.124 0.468 255 255 255
0.022 0.219 0.449 255 255 255
0.226 0.111 0.499 255 255 255
0.95 -1.121 2.1 255 255 255
0.279 0.07 0.584 255 255 255
0.125 0.186 0.434 255 255 255
-0.55 -1.676 2.434 255 255 255
-0.135 0.085 0.546 255 255 255
-0.521 -0.789 2.558 0 0 0
-0.109 0.133 0.494 255 255 255
1.357 -0.587 2.154 255 255 255
0.043 -0.09 0.859 0 0 0
-0.183 0.089 0.543 255 255 255
-0.278 -0.47 1.714 255 255 255
-0.372 -0.203 1.012 255 255 255
0.144 0.122 0.47 255 255 255
0.183 0.18 0.433 255 255 255
0.281 -0.177 1.179 255 255 255
-0.933 -1.796 2.544 255 255 255
0.136 -0.769 2.276 255 255 255
-0.18 -0.165 1.007 0 0 0
-0.898 -1.174 2.737 255 255 255
1.025 -0.899 2.155 255 255 255
0.001 -0.024 0.722 255 255 255
0.539 -1.106 2.14 0 0 0
-0.38 -0.066 0.62 0 0 0
1.524 -0.142 2.255 255 255 255
-0.015 -0.273 1.199 255 255 255
-0.163 -0.105 0.897 255 255 255
0.16 -0.781 2.282 255 255 255
1.487 -0.349 2.195 255 255 255
0.08 0.186 0.439 255 255 255
-1.067 -0.898 2.887 255 255 255
0.145 0.049 0.458 0 0 0
0.089 0.122 0.48 255 255 255
-0.05 0.031 0.62 255 255 255
0.135 0.147 0.451 255 255 255
-0.533 -1.567 2.479 255 255 255
0.07 -0.019 0.733 255 255 255
0.03 0.127 0.481 255 255 255
0.403 -1.173 2.108 0 0 0
0.076 0.153 0.457 255 255 255
0.402 -0.106 1.067 255 255 255
-0.082 0.155 0.478 255 255 255
0.034 0.16 0.458 255 255 255
-0.901 -1.155 2.754 255 255 255
0.077 0.144 0.461 255 255 255
-0.059 0.133 0.483 255 255 255
0.676 -0.447 1.761 255 255 255
0.334 0.078 0.581 255 255 255
0.066 0.115 0.499 255 255 255
0.147 0.201 0.42 0 0 0
-0.066 0.172 0.461 255 255 255
0.156 0.023 0.547 0 0 0
0.093 0.183 0.438 255 255 255
0.624 -0.285 1.557 255 255 255
-0.272 -0.178 1.108 0 0 0
-0.362 -0.013 0.59 255 255 255
0.208 0.138 0.454 255 255 255
0.294 -0.025 0.821 255 255 255
0.223 -0.098 1.014 0 0 0
0.017 0.088 0.488 255 255 255
0.173 0.082 0.468 0 0 0
-0.333 -0.486 1.696 255 255 255
-0.126 0.101 0.526 255 255 255
-0.25 -0.058 0.574 255 255 255
0.445 -0.96 2.173 255 255 255
1.334 -0.121 2.321 0 0 0
-0.039 0.064 0.524 255 255 255
-0.286 -0.197 1.136 0 0 0
0.026 -0.071 0.832 0 0 0
0.038 -1.107 2.253 255 255 255
-0.245 0.092 0.529 255 255 255
-1.498 -0.98 2.496 255 255 255
-0.975 -1.528 2.624 255 255 255
-1.189 -1.124 2.835 255 255 255
-0.015 -0.744 2.313 255 255 255
-0.152 0.081 0.553 0 0 0
0.164 0.162 0.441 0 0 0
-0.339 -0.2 1.09 255 255 255
0.205 -0.11 0.911 255 255 255
-0.349 -0.218 1.189 0 0 0
-0.136 0.06 0.547 0 0 0
0.297 -0.753 2.206 255 255 255
-0.093 0 0.639 0 0 0
-0.28 -0.147 1.061 255 255 255
1.449 -0.521 2.144 255 255 255
1.508 -0.462 2.154 255 255 255
-0.269 -0.072 0.794 0 0 0
-0.092 0.029 0.559 255 255 255
0.073 0.185 0.44 255 255 255
-0.416 -0.243 1.102 255 255 255
-0.499 -0.102 0.824 0 0 0
1.201 -0.983 2.077 255 255 255
0.078 0.194 0.433 0 0 0
0.245 -0.412 1.672 255 255 255
-0.284 0.014 0.459 255 255 255
1.163 -0.571 2.224 255 255 255
-0.94 -1.338 2.701 255 255 255
-0.185 -1.402 2.395 255 255 255
0.351 0.037 0.625 255 255 255
-0.617 -0.161 0.908 255 255 255
0.152 -0.963 2.269 255 255 255
-1.244 -1.498 2.719 255 255 255
0.896 -1.223 2.092 255 255 255
0.495 -0.925 2.17 255 255 255
-0.142 0.017 0.632 0 0 0
-0.701 -1.868 2.425 0 0 0
0.422 -0.209 1.298 0 0 0
0.071 -1.577 2.248 255 255 255
-0.42 -1.278 2.513 255 255 255
-0.116 -1.612 2.297 255 255 255
0.071 0.14 0.464 255 255 255
0.224 0.152 0.44 255 255 255
-0.301 -1.472 2.405 255 255 255
-0.104 0.082 0.535 255 255 255
1.307 -0.216 2.302 255 255 255
-1.35 -1.39 2.609 0 0 0
-0.543 -0.287 1.272 255 255 255
-1.013 -1.37 2.679 0 0 0
0.18 -0.108 0.89 0 0 0
0.295 0.106 0.506 255 255 255
1.136 -0.679 2.195 255 255 255
0.011 0.072 0.489 0 0 0
0.081 -0.008 0.711 255 255 255
-0.343 -0.175 0.977 255 255 255
-0.062 0.169 0.462 255 255 255
0.441 0.058 0.715 255 255 255
0.103 0.154 0.452 0 0 0
-0.363 -0.045 0.586 255 255 255
0.876 -1.373 2.048 255 255 255
1.245 -0.595 2.188 255 255 255
0.846 -1.372 2.054 255 255 255
1.48 -0.551 2.128 255 255 255
-0.051 0.238 0.473 255 255 255
-0.04 0.242 0.473 255 255 255
0.343 -0.429 1.936 255 255 255
0.221 -1.527 2.209 255 255 255
-0.808 -1.56 2.575 255 255 255
0.405 -0.712 2.281 0 0 0
-0.221 -0.82 2.425 255 255 255
0.379 -0.099 1.036 255 255 255
-0.031 0.177 0.454 255 255 255
0.273 -0.021 0.803 255 255 255
-0.166 0.139 0.498 255 255 255
-0.176 0.246 0.515 255 255 255
0.219 0.138 0.452 255 255 255
-0.185 -1.333 2.419 255 255 255
-0.137 0.081 0.549 0 0 0
0.237 0.047 0.678 0 0 0
-1.534 -0.838 2.456 255 255 255
0.458 -0.743 2.248 0 0 0
0.34 -1.045 2.175 255 255 255
-0.077 -0.004 0.64 255 255 255
0.591 -1.357 2.146 255 255 255
0.039 0.217 0.446 0 0 0
-0.025 0.134 0.482 255 255 255
-0.911 -1.296 2.705 255 255 255
0.08 0.17 0.449 255 255 255
1.563 -0.538 2.127 255 255 255
0.187 0.195 0.424 0 0 0
-0.243 0.15 0.505 255 255 255
-0.534 -0.481 1.632 255 255 255
-0.45 -0.236 1.103 255 255 255
-0.158 0.25 0.509 255 255 255
-0.245 0.19 0.511 255 255 255
-1.169 -1.124 2.383 255 255 255
-0.778 -0.934 2.678 255 255 255
-0.033 -0.015 0.69 255 255 255
0.326 0.046 0.6 0 0 0
0.109 0.116 0.446 0 0 0
-1.531 -0.744 2.507 255 255 255
-0.132 0.267 0.509 255 255 255
-0.657 -1.675 2.472 255 255 255
-0.412 -0.334 1.312 255 255 255
0.34 -0.135 1.119 255 255 255
-0.223 -0.006 0.528 255 255 255
0.41 -0.927 2.199 255 255 255
-0.409 -1.133 2.482 0 0 0
0.164 0.059 0.472 255 255 255
0.606 -1.093 2.158 0 0 0
0.198 0.124 0.473 255 255 255
-0.09 0.146 0.485 255 255 255
-0.016 0.078 0.489 255 255 255
-0.117 0.074 0.542 0 0 0
0.15 0.199 0.42 0 0 0
-0.133 0.148 0.484 255 255 255
-1.522 -0.975 2.415 255 255 255
0.053 -0.937 2.311 255 255 255
0.17 -0.205 1.141 255 255 255
-1.556 -0.853 2.35 255 255 255
-0.148 0.082 0.534 255 255 255
-0.06 -0.867 2.381 0 0 0
0.045 0.134 0.474 255 255 255
0.117 -0.026 0.619 0 0 0
0.208 -1.045 2.22 255 255 255
0 0.065 0.502 255 255 255
-1.275 -0.955 2.915 255 255 255
1.094 -0.73 2.191 255 255 255
-0.118 0.169 0.471 255 255 255
0.123 0.229 0.428 255 255 255
0.21 0.068 0.578 255 255 255
-0.34 -0.118 0.823 0 0 0
1.504 -0.374 2.179 255 255 255
-0.073 0.188 0.46 255 255 255
-0.077 0.009 0.622 0 0 0
0.13 -0.018 0.598 0 0 0
-0.06 0.138 0.48 255 255 255
0.119 0.096 0.422 0 0 0
1.16 -0.928 2.102 255 255 255
0.587 -0.18 1.281 255 255 255
-0.02 0.204 0.454 0 0 0
0.057 -0.108 0.862 255 255 255
-1.521 -0.997 2.408 255 255 255
-0.135 0.084 0.547 255 255 255
-0.295 0.126 0.53 255 255 255
-0.217 0.001 0.533 255 255 255
-1.456 -1.055 2.665 255 255 255
0.094 0.183 0.438 255 255 255
-0.244 -0.029 0.529 255 255 255
-0.173 0.231 0.507 0 0 0
-1.688 -0.449 2.187 255 255 255
0.252 0.083 0.546 255 255 255
0.089 -0.538 1.67 255 255 255
-0.01 0.099 0.522 0 0 0
-1.051 -1.447 2.668 255 255 255
-0.035 -0.893 2.363 255 255 255
0.271 0.109 0.492 255 255 255
0.079 -0.08 0.841 255 255 255
-0.021 0.109 0.506 255 255 255
0.14 0.144 0.451 255 255 255
1.151 -0.333 2.312 0 0 0
0.387 -0.15 1.155 255 255 255
-0.045 0.055 0.579 255 255 255
0.241 0.121 0.472 255 255 255
1.331 -0.586 2.162 255 255 255
1.146 -0.787 2.157 255 255 255
0.891 -1.557 1.976 255 255 255
-0.017 -0.06 0.839 0 0 0
-0.683 -1.436 2.578 255 255 255
-0.05 0.141 0.477 255 255 255
-0.072 0.067 0.521 255 255 255
1.511 -0.182 2.244 255 255 255
0.179 -0.421 1.632 255 255 255
-0.195 0.155 0.492 255 255 255
-0.095 0.139 0.488 255 255 255
0.043 -0.011 0.708 255 255 255
-1.025 -0.931 2.834 0 0 0
-0.124 0.147 0.491 255 255 255
0.178 0.112 0.477 255 255 255
0.296 -0.739 2.206 255 255 255
1.591 0.059 2.305 255 255 255
-0.619 -0.463 1.697 255 255 255
1.502 -0.071 2.294 255 255 255
-0.184 0.096 0.546 0 0 0
0.183 0.139 0.455 255 255 255
-0.159 0.057 0.523 255 255 255
0.445 -0.786 2.241 0 0 0
-1.175 -1.574 2.671 255 255 255
1.163 -0.318 2.314 0 0 0
-0.01 0.209 0.454 0 0 0
-0.232 0.026 0.526 0 0 0
-0.294 -0.139 1.047 255 255 255
-0.184 -0.125 0.908 255 255 255
-0.216 0.013 0.526 255 255 255
-0.389 -0.284 1.173 255 255 255
0.905 -0.89 2.195 255 255 255
0.348 -0.783 2.201 255 255 255
-0.01 0.119 0.491 255 255 255
0.036 0.212 0.444 0 0 0
-0.351 -1.628 2.356 255 255 255
-0.191 -1.366 2.409 255 255 255
0.619 -0.254 1.469 255 255 255
-1.201 -1.905 2.565 0 0 0
-0.15 0.094 0.544 0 0 0
-0.139 -0.108 0.883 255 255 255
0.028 0.131 0.477 255 255 255
-0.027 0.109 0.507 255 255 255
1.151 -1.198 2.041 255 255 255
0.03 0.076 0.49 0 0 0
-0.23 0.233 0.526 0 0 0
-0.06 0.179 0.456 255 255 255
-0.342 -0.157 0.957 255 255 255
-0.24 0.214 0.52 255 255 255
-0.124 0.152 0.482 255 255 255
0.161 0.212 0.416 255 255 255
-0.257 -0.224 1.132 255 255 255
0.742 -0.866 2.114 255 255 255
-0.125 0.184 0.472 255 255 255
0.431 -0.497 1.882 255 255 255
0.082 0.194 0.433 0 0 0
-0.099 0.032 0.552 255 255 255
0.185 0.1 0.477 0 0 0
1.147 -0.735 2.172 255 255 255
-0.278 -0.089 0.853 255 255 255
0.25 -0.425 1.682 255 255 255
0.243 0.06 0.633 255 255 255
-0.047 -1.394 2.353 255 255 255
-1.218 -1.272 2.797 255 255 255
-0.106 0.136 0.492 0 0 0
-0.378 -0.08 0.692 255 255 255
0.065 0.238 0.444 255 255 255
-0.184 0.021 0.561 255 255 255
0.056 -1.66 2.221 0 0 0
-0.263 -0.308 1.385 0 0 0
-0.432 -0.766 2.547 0 0 0
0.309 -1.03 2.191 255 255 255
-0.033 0.139 0.475 255 255 255
0.602 -1.194 2.191 255 255 255
-0.404 -0.805 2.532 0 0 0
0.029 -0.865 2.347 0 0 0
-0.322 -0.2 1.176 255 255 255
0.15 -0.08 0.888 255 255 255
-0.093 0.07 0.533 0 0 0
-0.618 -0.161 0.905 255 255 255
0.373 -1.206 2.111 0 0 0
0.457 -1.062 2.129 255 255 255
0.939 -1.388 2.024 255 255 255
-0.281 -0.092 0.965 0 0 0
-0.181 -0.086 0.912 255 255 255
1.34 -0.591 2.156 255 255 255
-0.127 -0.121 0.877 255 255 255
-0.038 -0.129 0.937 255 255 255
1.326 -0.333 2.25 255 255 255
-1.057 -1.58 2.618 255 255 255
0.176 -0.971 2.262 255 255 255
-0.304 0.127 0.532 255 255 255
0.587 -0.448 1.784 255 255 255
0.315 -0.739 2.205 255 255 255
-1.475 -0.87 2.663 255 255 255
-0.142 0.122 0.503 0 0 0
0.11 -1.023 2.271 255 255 255
-0.535 -0.245 1.208 255 255 255
-0.554 -1.19 2.605 255 255 255
0.21 0.117 0.481 255 255 255
0.013 0.152 0.464 255 255 255
-0.207 0.23 0.518 0 0 0
0.185 -0.937 2.269 255 255 255
-0.08 0.124 0.499 255 255 255
-0.094 0.161 0.473 255 255 255
0.543 -1.549 2.099 0 0 0
0.404 -1.119 2.131 255 255 255
0.375 -0.098 1.033 255 255 255
1.278 -0.618 2.168 255 255 255
-0.259 0.03 0.478 0 0 0
0.293 -0.02 0.803 255 255 255
-1.282 -1.694 2.651 255 255 255
-1.323 -1.503 2.601 255 255 255
-0.607 -0.163 0.937 255 255 255
-0.003 0.061 0.508 255 255 255
0.233 -0.378 1.666 255 255 255
0.046 0.13 0.476 255 255 255
-0.093 0.156 0.476 255 255 255
-0.18 0.131 0.508 255 255 255
0.375 -0.021 0.832 255 255 255
0.187 0.067 0.507 255 255 255
0.397 -0.054 0.915 0 0 0
0.078 0.173 0.447 255 255 255
-0.019 0.168 0.462 255 255 255
-0.133 0.113 0.517 255 255 255
0.464 -0.905 2.189 255 255 255
-0.215 0.021 0.527 255 255 255
0.579 -1.502 2.101 255 255 255
1.631 0.049 2.284 255 255 255
-0.201 -0.444 1.763 0 0 0
1.171 -0.919 2.104 255 255 255
-0.196 -0.164 1.015 255 255 255
-0.263 0.039 0.517 255 255 255
0.392 -1.488 2.164 255 255 255
-0.842 -1.304 2.678 255 255 255
0.047 0.19 0.439 255 255 255
0.439 -1.164 2.096 0 0 0
0.459 -0.212 1.306 255 255 255
-0.072 -0.713 2.326 255 255 255
-0.338 -0.191 1.051 255 255 255
-1.476 -1.01 2.619 255 255 255
-1.579 -0.616 2.412 255 255 255
-1.567 -0.496 2.513 0 0 0
0.423 -0.404 1.81 255 255 255
-0.021 0.17 0.46 255 255 255
-0.194 -0.077 0.888 255 255 255
0.09 0.06 0.45 255 255 255
0.103 0.118 0.455 0 0 0
0.723 -0.465 1.774 255 255 255
0.48 -1.029 2.134 255 255 255
0.102 0.169 0.446 255 255 255
0.157 0.062 0.458 0 0 0
0.034 -0.467 1.676 0 0 0
0.451 -0.893 2.199 255 255 255
-0.225 -0.019 0.533 255 255 255
-0.669 -0.437 1.7 255 255 255
0.086 -0.253 1.22 255 255 255
-0.223 -0.331 1.482 255 255 255
0.213 -1.033 2.229 255 255 255
-0.047 -1.512 2.312 255 255 255
0.136 0.152 0.449 0 0 0
1.402 0.022 2.364 0 0 0
-0.155 -0.265 1.249 255 255 255
0.047 0.096 0.488 255 255 255
0 0.13 0.481 255 255 255
0.233 -0.026 0.811 255 255 255
0.063 -0.251 1.211 255 255 255
-0.507 -0.104 0.823 0 0 0
-1.066 -1.324 2.715 255 255 255
0.715 -1.174 2.163 255 255 255
0.126 0.16 0.447 0 0 0
1.393 -0.42 2.198 255 255 255
-0.101 0.127 0.493 255 255 255
-0.288 -0.233 1.16 255 255 255
-0.208 0.319 0.573 255 255 255
0.74 -1.44 2.07 255 255 255
0.125 0.183 0.436 255 255 255
-0.048 0.071 0.517 0 0 0
0.89 -0.633 2.119 0 0 0
0.14 0.005 0.572 0 0 0
-0.238 0.06 0.503 255 255 255
0.063 0.046 0.589 0 0 0
-0.064 0.166 0.465 255 255 255
-0.678 -0.291 1.371 255 255 255
0.113 0.159 0.449 255 255 255
-0.239 0.048 0.519 255 255 255
1.431 -0.624 2.128 255 255 255
-0.606 -0.164 0.944 255 255 255
0.181 -1.439 2.255 255 255 255
0.087 0.126 0.479 255 255 255
1.286 -0.865 2.085 255 255 255
0.274 0.08 0.551 255 255 255
-0.63 -0.508 1.721 255 255 255
0.128 -0.085 0.889 255 255 255
0.156 0.163 0.442 255 255 255
-0.088 0.085 0.529 0 0 0
-0.207 -0.083 0.913 255 255 255
-0.92 -1.132 2.76 255 255 255
0.512 -1.014 2.132 255 255 255
-0.07 0.05 0.579 255 255 255
0.18 0.197 0.423 0 0 0
0.571 -0.757 2.21 0 0 0
-0.087 0.033 0.56 255 255 255
-0.123 -0.161 0.908 255 255 255
0.53 -0.758 2.22 255 255 255
-0.001 -1.06 2.293 255 255 255
-0.066 0.239 0.477 255 255 255
0.112 0.232 0.432 255 255 255
1.454 -0.122 2.289 255 255 255
0.102 0.115 0.45 0 0 0
0.562 -1.508 2.112 255 255 255
0.601 -1.212 2.182 255 255 255
0.346 -1.361 2.218 255 255 255
-0.971 -1.114 2.806 255 255 255
1.048 -0.903 2.144 255 255 255
-0.281 -0.003 0.512 255 255 255
0.045 0.053 0.559 0 0 0
-0.275 -0.028 0.5 255 255 255
-1.537 -0.769 2.488 255 255 255
-0.65 -1.08 2.676 255 255 255
0.005 0.192 0.444 255 255 255
-0.249 0.006 0.527 255 255 255
-0.34 -0.26 1.162 255 255 255
-0.051 0.058 0.556 255 255 255
-1.502 -0.658 2.646 255 255 255
0.273 0.087 0.544 255 255 255
1.35 -0.136 2.315 255 255 255
0.038 -0.993 2.303 255 255 255
-0.009 0.147 0.468 255 255 255
0.102 0.023 0.509 255 255 255
0.225 0.069 0.607 255 255 255
-0.118 0.215 0.48 0 0 0
0.106 0.08 0.413 0 0 0
-0.167 0.137 0.503 255 255 255
-0.271 -0.07 0.615 255 255 255
-1.594 -0.557 2.391 255 255 255
-0.768 -1.696 2.507 255 255 255
0.738 -0.884 2.111 255 255 255
-0.33 -0.291 1.299 0 0 0
0.157 -0.132 0.925 0 0 0
-0.11 -1.045 2.346 255 255 255
1.264 -0.704 2.147 255 255 255
-0.747 -1.858 2.445 0 0 0
0.145 0.026 0.541 0 0 0
-0.293 0.112 0.539 255 255 255
0.704 -0.836 2.139 255 255 255
1.161 -0.343 2.308 0 0 0
-0.134 0.142 0.495 255 255 255
-0.091 -0.462 1.709 255 255 255
0.114 -1.139 2.225 255 255 255
-0.03 0.102 0.526 0 0 0
-0.29 0.113 0.534 255 255 255
-0.514 -1.431 2.52 255 255 255
-0.003 0.172 0.457 255 255 255
-0.165 -1.103 2.335 255 255 255
0.309 -0.161 1.165 0 0 0
0.147 0.026 0.544 0 0 0
0.549 -1.422 2.139 255 255 255
-0.113 -0.116 0.88 255 255 255
0.125 0.032 0.466 255 255 255
-0.035 -0.896 2.359 255 255 255
-0.11 0.01 0.634 0 0 0
-0.587 -0.287 1.317 255 255 255
0.176 0.194 0.427 0 0 0
0.162 -1.612 2.199 0 0 0
-0.169 0.039 0.526 255 255 255
0.291 0.076 0.557 255 255 255
0.139 0.019 0.571 0 0 0
-1.458 -0.886 2.752 255 255 255
0.04 0.175 0.452 255 255 255
-0.662 -1.367 2.591 255 255 255
-1.457 -1.353 2.534 255 255 255
1.225 -0.636 2.176 255 255 255
0.066 0.042 0.598 255 255 255
-0.001 -1.041 2.3 255 255 255
-0.005 -1.033 2.308 255 255 255
-0.185 0.299 0.549 255 255 255
-1.333 -0.548 2.536 0 0 0
-0.132 0.132 0.497 255 255 255
0.453 -1.412 2.167 255 255 255
-0.26 0.081 0.523 255 255 255
0.069 0.049 0.579 0 0 0
-0.233 -0.061 0.622 255 255 255
0.039 0.054 0.539 255 255 255
0.144 0.019 0.569 0 0 0
-1.013 -1.519 2.624 0 0 0
0.004 0.177 0.452 255 255 255
0.896 -1.189 2.104 255 255 255
0.428 -0.934 2.188 255 255 255
-0.067 0.223 0.471 0 0 0
-0.191 0.161 0.486 255 255 255
-0.178 0.11 0.527 255 255 255
-0.292 -0.367 1.482 0 0 0
0.201 0.181 0.43 255 255 255
-0.088 0.193 0.464 255 255 255
0.081 -0.282 1.294 255 255 255
0 -0.122 0.96 0 0 0
0.49 -0.948 2.163 255 255 255
0.139 -0.436 1.635 255 255 255
-0.402 -1.258 2.512 255 255 255
-0.176 0.059 0.515 255 255 255
0.863 -1.416 2.04 255 255 255
0.141 0.045 0.464 255 255 255
-1.083 -0.939 2.867 0 0 0
0.848 -1.223 2.104 255 255 255
0.274 -0.092 0.986 255 255 255
0.817 -1.334 2.078 255 255 255
0.165 0.096 0.481 0 0 0
1.473 -0.236 2.232 255 255 255
-0.215 -0.005 0.536 255 255 255
0.109 0.195 0.428 0 0 0
0.523 -1.31 2.181 255 255 255
0.863 -0.63 2.115 0 0 0
0.349 -0.015 0.8 255 255 255
-0.001 0.083 0.489 255 255 255
-1.077 -1.991 2.497 255 255 255
0.734 -0.857 2.121 255 255 255
-1.054 -1.867 2.525 0 0 0
-0.881 -1.771 2.529 255 255 255
-0.395 -0.253 1.118 255 255 255
-0.044 0.258 0.482 255 255 255
1.551 -0.384 2.159 255 255 255
0.512 -1.047 2.122 255 255 255
0.06 0.211 0.439 0 0 0
0.734 -0.707 2.038 255 255 255
-0.027 -1.539 2.292 255 255 255
0.88 -1.172 2.108 255 255 255
-1.151 -1.766 2.601 255 255 255
0.108 0.147 0.456 0 0 0
0.091 0.035 0.458 0 0 0
0.076 -1.219 2.205 255 255 255
-0.202 -1.029 2.382 255 255 255
-0.092 0.274 0.498 255 255 255
0.319 0.07 0.621 0 0 0
-0.547 -1.716 2.429 255 255 255
0.207 -0.268 1.309 255 255 255
0.12 0.019 0.547 255 255 255
0.036 0.131 0.477 255 255 255
0.857 -1.125 2.134 255 255 255
-1.544 -0.708 2.477 255 255 255
-0.049 0.034 0.623 0 0 0
-0.097 0.248 0.486 255 255 255
0.068 0.092 0.489 255 255 255
0.326 0.049 0.599 0 0 0
0.228 -0.386 1.654 255 255 255
-0.145 -0.001 0.653 255 255 255
-0.32 -0.109 1.001 0 0 0
0.067 0.051 0.575 0 0 0
0.09 0.037 0.462 0 0 0
-0.059 0.111 0.503 255 255 255
0.071 0.135 0.468 255 255 255
-0.02 0.173 0.458 255 255 255
-0.234 0.076 0.518 0 0 0
-0.052 -0.002 0.622 255 255 255
0.824 -1.059 2.168 255 255 255
0.804 -1.053 2.172 255 255 255
-0.577 -0.202 1.154 0 0 0
0.023 0.118 0.494 255 255 255
0.13 -0.452 1.633 255 255 255
0.321 0.062 0.603 255 255 255
-0.002 0.068 0.499 0 0 0
0.236 0.109 0.498 255 255 255
-0.161 0.074 0.556 0 0 0
-0.222 0.248 0.531 0 0 0
0.134 -0.002 0.604 0 0 0
-0.095 -1.027 2.342 255 255 255
-0.132 0.026 0.553 255 255 255
0.286 -0.053 0.925 255 255 255
-0.286 -0.089 0.816 0 0 0
-0.039 -0.022 0.702 255 255 255
-0.132 0.254 0.502 255 255 255
1.067 -0.688 2.214 255 255 255
-1.491 -0.917 2.601 255 255 255
-0.557 -0.117 0.767 255 255 255
-0.305 0.109 0.539 255 255 255
1.577 0.15 2.333 255 255 255
-0.177 -0.014 0.681 0 0 0
-0.393 -0.101 0.751 0 0 0
