ply
format ascii 1.0
comment Created by Open3D
element vertex 1629
property double x
property double y
property double z
property uchar red
property uchar green
property uchar blue
end_header
-0.347 -0.036 0.57 255 255 255
-0.021 -0.18 0.917 255 255 255
-1.136 -1.422 2.79 255 255 255
-0.356 -1.192 2.604 255 255 255
-0.198 0.094 0.534 255 255 255
0.596 -0.429 1.818 0 0 0
1.332 -0.558 2.149 255 255 255
0.19 -0.001 0.563 255 255 255
0.009 -0.285 1.195 255 255 255
-0.497 -0.121 0.816 255 255 255
0.024 0.048 0.524 255 255 255
0.381 -0.954 2.217 255 255 255
-0.177 -0.109 0.931 255 255 255
0.186 0.12 0.463 255 255 255
0.008 0.113 0.49 255 255 255
0.153 0.172 0.431 255 255 255
0.172 -1.092 2.24 255 255 255
-0.048 -0.09 0.891 0 0 0
0.128 0.025 0.518 255 255 255
-1.496 -0.863 2.272 255 255 255
-0.19 -1.034 2.434 255 255 255
-0.045 0.129 0.485 255 255 255
0.124 0.058 0.441 0 0 0
-0.155 0.262 0.534 255 255 255
0.177 -1.245 2.186 255 255 255
-0.095 0.228 0.489 0 0 0
0.238 -0.436 1.615 255 255 255
-0.182 0.005 0.528 255 255 255
-0.025 0.054 0.586 0 0 0
-0.367 -0.105 0.755 0 0 0
-0.016 -1.015 2.368 255 255 255
0.353 0.07 0.627 0 0 0
-0.33 -0.031 0.609 0 0 0
0.287 0.075 0.571 255 255 255
-0.019 0.035 0.602 255 255 255
-0.902 -1.777 2.581 255 255 255
-0.287 0.081 0.555 255 255 255
-1.558 -0.521 2.121 255 255 255
0.101 -0.115 0.873 255 255 255
-1.221 -1.743 2.541 255 255 255
-0.179 0.006 0.59 255 255 255
0.986 -0.975 2.13 255 255 255
-0.138 0.016 0.568 255 255 255
-0.214 -0.134 1.022 0 0 0
1.317 -0.268 2.262 0 0 0
-0.351 -0.001 0.617 255 255 255
-0.327 -0.815 2.552 0 0 0
-0.542 -0.54 1.759 255 255 255
0.164 -1.575 2.243 255 255 255
-0.09 -0.102 0.897 0 0 0
0.053 0.195 0.437 0 0 0
-0.034 0.101 0.527 0 0 0
0.162 0.054 0.44 0 0 0
0.295 0.024 0.625 0 0 0
0.595 -1.589 2.063 255 255 255
-0.235 0.188 0.529 255 255 255
-0.954 -1.721 2.628 255 255 255
-0.309 -0.475 1.685 255 255 255
0.007 -0.156 0.929 255 255 255
0.019 -1.027 2.345 255 255 255
-0.133 0.064 0.548 0 0 0
-0.029 0.054 0.584 0 0 0
-0.032 0.022 0.57 255 255 255
0.049 -0.94 2.359 255 255 255
-0.115 0.132 0.501 255 255 255
-0.005 0.076 0.498 0 0 0
1.14 -0.69 2.178 255 255 255
0.017 0.057 0.501 255 255 255
0.019 -0.272 1.181 255 255 255
0.038 0.144 0.465 255 255 255
0.099 0.149 0.451 0 0 0
0.137 0.063 0.431 255 255 255
-0.96 -1.159 2.821 255 255 255
-0.299 0.126 0.544 255 255 255
-0.299 0.127 0.543 255 255 255
0.912 -1.252 2.065 255 255 255
1.494 -0.08 2.261 0 0 0
0.482 -0.685 2.232 255 255 255
-0.248 0.177 0.527 255 255 255
0.049 0.179 0.444 255 255 255
1.312 -0.321 2.238 255 255 255
0.047 -0.079 0.852 0 0 0
0.034 -1.12 2.302 255 255 255
-0.076 0.119 0.501 255 255 255
-0.049 -0.474 1.702 255 255 255
0.638 -0.443 1.77 255 255 255
0.286 0.072 0.585 255 255 255
0.085 0.052 0.481 0 0 0
-0.195 0.197 0.518 255 255 255
-0.691 -1.372 2.665 255 255 255
0.038 0.169 0.452 255 255 255
-0.537 -0.55 1.768 255 255 255
0.345 0.053 0.583 255 255 255
-1.413 -0.79 2.546 255 255 255
0.674 -1.43 2.099 255 255 255
-0.315 -0.899 2.518 255 255 255
-0.058 0.034 0.553 255 255 255
-0.439 -1.341 2.585 255 255 255
-0.181 0.256 0.542 255 255 255
0.704 -1.36 2.108 255 255 255
-0.017 -0.18 0.927 255 255 255
0.219 0.146 0.441 255 255 255
-0.072 0.066 0.536 0 0 0
-0.103 -0.221 1.183 255 255 255
0.014 0.048 0.515 255 255 255
1.28 -0.764 2.099 255 255 255
0.098 0.197 0.427 0 0 0
0.029 0.11 0.498 255 255 255
-0.483 -0.109 0.791 0 0 0
0.402 0.014 0.696 255 255 255
-0.317 -0.319 1.234 255 255 255
-0.792 -1.95 2.519 0 0 0
0.164 -0.021 0.613 0 0 0
0.408 -0.102 1.019 255 255 255
-0.062 0.136 0.488 255 255 255
-1.233 -1.609 2.594 255 255 255
0.041 0.105 0.509 0 0 0
0.07 0.173 0.446 255 255 255
1.021 -0.784 2.032 0 0 0
-0.046 0.182 0.459 255 255 255
0.974 -0.647 2.073 0 0 0
0.734 -0.686 2.002 255 255 255
0.12 0.046 0.514 255 255 255
0.308 -1 2.231 255 255 255
-0.151 0.045 0.512 255 255 255
-1.254 -1.593 2.6 255 255 255
-0.205 -1.531 2.399 255 255 255
0.048 -1.03 2.325 255 255 255
0.172 -1.195 2.21 255 255 255
0.474 -1.241 2.078 0 0 0
-1.548 -0.666 2.238 255 255 255
-0.063 -0.712 2.356 255 255 255
0.168 0.15 0.438 0 0 0
-0.252 0.142 0.52 255 255 255
-0.486 -0.107 0.698 255 255 255
-1.559 -0.495 2.117 255 255 255
-0.963 -1.818 2.595 255 255 255
0.962 -1.095 2.1 255 255 255
0.828 -1.572 1.987 255 255 255
0.017 -0.024 0.727 255 255 255
-0.17 0.173 0.496 0 0 0
-0.287 0.053 0.536 255 255 255
0.151 0.115 0.436 0 0 0
0.028 0.114 0.492 255 255 255
0.105 -0.448 1.67 0 0 0
0.029 0.013 0.604 255 255 255
1.312 -0.771 2.092 255 255 255
-0.155 0.117 0.515 0 0 0
0.996 -1.024 2.114 255 255 255
-1.294 -0.951 2.828 255 255 255
0.043 -0.242 1.136 255 255 255
-1.216 -0.609 2.564 0 0 0
-0.191 0.219 0.527 255 255 255
0.723 -0.782 2.151 0 0 0
-0.201 -0.061 0.581 255 255 255
1.124 -0.598 2.221 255 255 255
1.079 -1.27 2.014 255 255 255
-0.471 -1.762 2.441 0 0 0
-0.649 -0.375 1.542 255 255 255
-0.037 0.109 0.503 255 255 255
0.311 -0.075 0.969 255 255 255
-0.281 0.172 0.538 255 255 255
1.58 -0.096 2.221 255 255 255
-0.036 -0.1 0.884 255 255 255
-0.519 -1.098 2.691 255 255 255
-1.351 -1.005 2.649 255 255 255
-0.779 -0.974 2.742 255 255 255
-0.425 -1.09 2.492 255 255 255
-0.023 0.164 0.462 255 255 255
-0.495 -0.115 0.696 255 255 255
1.499 -0.423 2.137 255 255 255
0.205 -1.187 2.193 255 255 255
-0.917 -1.121 2.818 255 255 255
0.051 -1.543 2.298 255 255 255
0.347 -0.008 0.751 255 255 255
-0.023 0.131 0.479 255 255 255
-0.012 0.096 0.522 0 0 0
-0.014 0.139 0.472 255 255 255
-0.002 -0.118 0.942 255 255 255
0.288 0.096 0.512 255 255 255
-0.342 0.068 0.548 255 255 255
0.224 0.106 0.464 0 0 0
-0.282 -0.097 0.723 0 0 0
0.042 0.242 0.456 255 255 255
0.144 0.175 0.431 255 255 255
-0.367 0.018 0.618 0 0 0
0.115 0.001 0.551 0 0 0
-0.035 0.123 0.493 255 255 255
0.197 0.135 0.451 255 255 255
0.963 -1 2.132 255 255 255
-0.217 -0.033 0.531 0 0 0
0.089 0.113 0.496 0 0 0
0.235 -0.16 1.012 255 255 255
-0.149 0.144 0.497 0 0 0
-0.126 -0.004 0.651 255 255 255
-0.161 -0.026 0.588 255 255 255
-0.05 0.023 0.56 255 255 255
0.249 0.124 0.462 255 255 255
0.695 -0.449 1.747 255 255 255
-0.906 -1.869 2.552 0 0 0
0.897 -0.39 1.697 255 255 255
0.601 -0.86 2.168 255 255 255
-0.244 -0.994 2.473 255 255 255
0.137 0.068 0.423 255 255 255
0.27 -0.174 1.093 255 255 255
0.063 -0.035 0.734 255 255 255
-0.205 -0.042 0.534 255 255 255
-0.129 0.16 0.482 255 255 255
-0.141 -0.103 0.92 255 255 255
0.274 -0.171 1.092 255 255 255
-0.158 -0.156 0.979 255 255 255
-0.259 0.104 0.553 0 0 0
-0.048 -0.416 1.659 255 255 255
-0.13 0.125 0.505 255 255 255
0.129 0.053 0.439 255 255 255
0.229 -0.918 2.284 255 255 255
-0.017 -0.427 1.647 255 255 255
0.676 -0.166 1.251 255 255 255
0.11 0.13 0.47 255 255 255
-0.343 -0.234 1.084 0 0 0
-0.242 0.152 0.514 255 255 255
0.205 -0.13 0.92 255 255 255
-0.039 0.11 0.504 255 255 255
0.185 0.195 0.42 0 0 0
-0.056 0.055 0.54 255 255 255
-0.034 -0.693 2.344 255 255 255
0.32 -0.04 0.842 255 255 255
0.291 -0.102 0.924 255 255 255
-1.137 -1.48 2.773 255 255 255
0.09 0.059 0.47 255 255 255
0.738 -0.665 2.005 255 255 255
-0.036 -1.037 2.366 255 255 255
0.234 -0.881 2.297 0 0 0
0.025 0.057 0.506 0 0 0
-1.309 -1.114 2.694 255 255 255
-0.056 0.057 0.529 255 255 255
0.239 -0.17 1.059 255 255 255
0.057 0.063 0.488 255 255 255
-0.363 0.049 0.555 255 255 255
1.027 -1.359 1.999 255 255 255
-0.035 -0.177 0.9 255 255 255
0.189 0.128 0.453 0 0 0
0.348 0.057 0.583 0 0 0
0.696 -0.5 1.763 255 255 255
-0.492 -1.234 2.626 255 255 255
-0.01 0.005 0.595 255 255 255
0.062 -1.656 2.253 0 0 0
0.288 -0.403 1.617 255 255 255
0.044 0.198 0.441 0 0 0
0.187 -1.177 2.219 255 255 255
-0.297 -1.651 2.405 255 255 255
-0.223 0.074 0.501 0 0 0
-0.006 -1.041 2.35 255 255 255
0.193 -0.85 2.328 0 0 0
0.095 0.039 0.592 255 255 255
-0.093 0.205 0.481 255 255 255
0.123 0.075 0.516 0 0 0
-0.025 0.159 0.468 255 255 255
0.787 -1.472 2.04 0 0 0
-0.772 -1.446 2.672 255 255 255
-0.006 0.056 0.528 0 0 0
-0.204 0.132 0.519 0 0 0
0.076 -0.068 0.813 0 0 0
-0.199 -1.395 2.449 255 255 255
-0.562 -0.84 2.645 255 255 255
-0.194 -0.034 0.537 255 255 255
0.226 -0.243 1.236 255 255 255
1.035 -0.667 2.056 0 0 0
-0.12 -0.457 1.775 0 0 0
0.159 0.181 0.427 255 255 255
0.041 -0.124 0.94 255 255 255
-1.082 -0.946 2.959 255 255 255
0.076 0.228 0.44 255 255 255
0.201 0.135 0.45 255 255 255
-0.59 -0.469 1.727 0 0 0
-1.504 -0.731 2.303 255 255 255
0.106 -0.004 0.689 0 0 0
-0.221 -0.06 0.552 255 255 255
-0.412 -0.401 1.473 0 0 0
0.292 -0.391 1.623 255 255 255
0.109 0.059 0.489 255 255 255
0.114 0.226 0.431 255 255 255
0.277 -1.157 2.164 255 255 255
-0.532 -0.542 1.753 255 255 255
-0.322 0.117 0.554 255 255 255
0.211 -0.935 2.288 255 255 255
0.074 -0.168 1.052 0 0 0
-0.15 0.157 0.488 255 255 255
-0.005 0.06 0.525 0 0 0
-0.76 -0.879 2.737 255 255 255
0.083 0.125 0.476 255 255 255
-0.227 -1.606 2.374 255 255 255
-0.015 0.224 0.466 0 0 0
-1.01 -1.598 2.691 255 255 255
-1.362 -0.943 2.629 255 255 255
-1.454 -0.72 2.437 255 255 255
-0.032 0.029 0.57 255 255 255
1.207 -0.768 2.124 255 255 255
-0.091 0.186 0.473 255 255 255
-0.032 0.106 0.505 255 255 255
1.394 -0.493 2.15 255 255 255
-0.295 -1.389 2.49 255 255 255
1.26 -0.699 2.131 255 255 255
-0.057 0.226 0.475 0 0 0
-0.49 -0.097 0.69 255 255 255
0.561 -1.302 2.171 255 255 255
-0.039 0.152 0.475 255 255 255
-0.524 -0.176 1.013 255 255 255
-0.318 -0.207 1.007 255 255 255
0.627 -0.175 1.229 255 255 255
-0.234 -0.373 1.486 0 0 0
0.147 0.068 0.427 255 255 255
0.121 0.112 0.47 0 0 0
-0.055 0.101 0.524 255 255 255
-0.064 0.122 0.495 255 255 255
0.796 -0.755 2.053 255 255 255
0.148 -1.535 2.263 255 255 255
0.149 0.058 0.435 255 255 255
0.088 -0.037 0.746 0 0 0
0.154 0.227 0.42 255 255 255
-0.184 0.121 0.522 255 255 255
-0.227 0.101 0.533 255 255 255
-0.206 0.021 0.53 0 0 0
0.867 -1.329 2.057 255 255 255
-0.236 0.132 0.526 255 255 255
-0.025 0.15 0.472 255 255 255
0.034 -0.031 0.725 0 0 0
-0.175 0.149 0.5 255 255 255
0.178 0.145 0.439 255 255 255
-1.55 -0.558 2.269 255 255 255
0.013 -0.129 0.935 255 255 255
-0.069 -1.455 2.378 255 255 255
0.117 0.056 0.462 255 255 255
-1.009 -1.517 2.718 255 255 255
0.509 -0.784 2.226 0 0 0
0.146 -0.16 0.981 0 0 0
0.026 0.018 0.594 255 255 255
0.278 -0.075 0.971 0 0 0
-0.505 -0.106 0.684 255 255 255
-0.092 0.022 0.552 255 255 255
0.277 0.052 0.641 0 0 0
-0.24 -0.002 0.46 255 255 255
-1.427 -0.919 2.429 255 255 255
0.084 0.225 0.438 255 255 255
1.009 -1.423 1.979 0 0 0
0.014 -0.285 1.197 255 255 255
-0.03 0.192 0.459 255 255 255
-0.116 -0.498 1.773 255 255 255
-0.179 0.245 0.535 0 0 0
-0.125 -0.107 0.911 255 255 255
0.479 -0.114 1.059 255 255 255
-0.344 -1.327 2.554 255 255 255
-0.074 0.181 0.467 0 0 0
0.193 0.161 0.434 255 255 255
1.434 -0.66 2.085 255 255 255
-0.175 -0.105 0.931 255 255 255
0.104 0.112 0.495 0 0 0
0.174 0.152 0.437 0 0 0
-0.08 0.257 0.499 255 255 255
0.506 -0.23 1.325 255 255 255
0.166 0.163 0.434 255 255 255
-1.368 -0.867 2.643 255 255 255
0.754 -1.194 2.148 255 255 255
0.704 -0.977 2.083 255 255 255
-0.037 0.257 0.486 255 255 255
-0.078 -1.238 2.407 0 0 0
0.164 0.132 0.458 255 255 255
0.652 -0.465 1.76 255 255 255
0.777 -0.564 1.86 255 255 255
0.085 -0.009 0.687 255 255 255
-0.013 -0.05 0.739 255 255 255
-0.142 0.156 0.488 255 255 255
-0.377 0 0.617 0 0 0
0.023 0.05 0.519 255 255 255
-0.086 0.199 0.476 255 255 255
0.09 0.208 0.431 0 0 0
-1.362 -0.978 2.62 255 255 255
0.291 0.073 0.574 255 255 255
0.353 0.058 0.579 255 255 255
0.161 0.192 0.419 0 0 0
0.054 0.152 0.457 255 255 255
-0.28 -0.113 0.776 0 0 0
-0.275 0.137 0.528 255 255 255
-0.181 0.267 0.547 255 255 255
-0.368 -0.184 1.002 255 255 255
0.158 -1.453 2.288 255 255 255
1.151 -1.111 2.036 255 255 255
-0.177 0.141 0.506 255 255 255
0.624 -1.519 2.088 0 0 0
1.124 -1.003 2.074 0 0 0
0.821 -0.364 1.704 0 0 0
-0.244 -1.273 2.506 255 255 255
-0.174 -0.928 2.454 255 255 255
0.117 0.079 0.508 0 0 0
-0.064 0.109 0.512 255 255 255
-1.005 -1.797 2.614 255 255 255
-0.176 0.301 0.569 255 255 255
0.929 -1.328 2.037 255 255 255
-0.134 -0.093 0.915 255 255 255
0.352 0.068 0.649 0 0 0
0.178 0.135 0.454 255 255 255
0.502 -1.363 2.181 255 255 255
0.042 -0.218 1.167 0 0 0
0.889 -0.888 2.043 0 0 0
-0.146 -0.131 0.918 255 255 255
0.809 -0.439 1.702 255 255 255
-0.173 -0.132 0.938 255 255 255
0.29 -0.904 2.27 255 255 255
-0.468 -0.275 1.247 0 0 0
-0.141 0.245 0.518 0 0 0
0.106 0.04 0.576 0 0 0
-1.072 -0.857 2.594 255 255 255
0.834 -1.286 2.085 255 255 255
1.231 -0.836 2.098 255 255 255
0.13 -0.081 0.828 255 255 255
-0.161 0.126 0.516 255 255 255
-0.163 0.138 0.504 0 0 0
0.931 -0.988 2.137 0 0 0
-0.008 0.119 0.488 255 255 255
-0.086 0.06 0.539 255 255 255
0.402 -1.228 2.106 255 255 255
-0.163 -1.083 2.391 255 255 255
-0.196 0.171 0.504 0 0 0
0.127 0.157 0.445 255 255 255
0.151 0.025 0.487 255 255 255
-0.07 -0.009 0.646 255 255 255
0.078 0.123 0.481 255 255 255
0.751 -0.865 2.111 255 255 255
0.631 -0.202 1.286 255 255 255
-0.24 0.156 0.513 255 255 255
0.352 0.078 0.563 255 255 255
-0.728 -1.931 2.494 255 255 255
0.598 -0.658 2.239 0 0 0
-0.153 -0.007 0.635 255 255 255
-0.5 -0.112 0.691 255 255 255
-0.734 -1.192 2.749 255 255 255
-0.43 -1.827 2.399 0 0 0
-0.306 -0.048 0.62 0 0 0
-0.289 0.136 0.533 255 255 255
-0.038 0.228 0.473 255 255 255
0.028 0.15 0.461 255 255 255
0.535 -1.139 2.086 255 255 255
0.739 -0.835 2.127 255 255 255
0.048 0.178 0.444 255 255 255
0.262 0.105 0.489 255 255 255
0.131 -0.858 2.353 0 0 0
-0.364 0.01 0.624 0 0 0
0.208 -1.512 2.246 255 255 255
0.297 0.081 0.545 0 0 0
-1.172 -1.828 2.555 255 255 255
-0.917 -1.953 2.531 0 0 0
-0.147 0.156 0.489 255 255 255
-1.361 -0.759 2.708 255 255 255
-0.02 0.046 0.59 255 255 255
-0.067 0.187 0.467 255 255 255
-0.78 -1.504 2.66 255 255 255
-0.446 -0.496 1.639 255 255 255
-0.099 0.052 0.54 255 255 255
-0.304 -0.167 1.104 0 0 0
0.263 0.1 0.495 255 255 255
0.549 -1.028 2.122 255 255 255
0.153 0.093 0.413 255 255 255
0.302 -1.494 2.221 255 255 255
-1.183 -1.564 2.622 255 255 255
0.404 -0.067 0.934 255 255 255
-0.91 -1.763 2.594 255 255 255
0.017 0.07 0.486 0 0 0
0.111 -0.031 0.749 255 255 255
-0.103 -0.053 0.745 255 255 255
-0.426 -1.308 2.586 255 255 255
-1.375 -1.101 2.53 255 255 255
0.721 -1.57 2.038 255 255 255
-1.307 -0.902 2.835 255 255 255
-0.107 0.221 0.493 0 0 0
0.12 0.124 0.473 255 255 255
0.169 -0.02 0.589 255 255 255
0.146 -0.014 0.605 0 0 0
0.261 -0.037 0.821 255 255 255
1.14 -0.828 2.124 255 255 255
-0.163 -0.001 0.612 255 255 255
0.137 0.199 0.419 0 0 0
0.569 -0.203 1.273 255 255 255
0.449 -0.129 1.083 255 255 255
-0.397 -1.518 2.506 255 255 255
0.044 0.054 0.525 255 255 255
-1.145 -1.985 2.565 255 255 255
-1.294 -1.032 2.791 255 255 255
0.38 0.014 0.691 255 255 255
0.074 0.133 0.468 255 255 255
-0.782 -1.327 2.726 255 255 255
-0.107 -1.501 2.376 255 255 255
-0.285 0.057 0.535 255 255 255
1 -1.434 1.979 0 0 0
-0.457 -0.121 0.847 0 0 0
0.077 0.198 0.432 0 0 0
-0.065 0.037 0.548 255 255 255
-0.165 -0.106 0.929 255 255 255
0.227 0.103 0.464 0 0 0
0.187 0.086 0.484 0 0 0
0.163 -0.41 1.642 255 255 255
-0.012 0.255 0.478 255 255 255
-0.193 0.082 0.544 0 0 0
-0.188 -0.03 0.54 255 255 255
0.302 0.016 0.652 255 255 255
0.124 0.072 0.516 0 0 0
-0.062 -0.01 0.645 255 255 255
0.379 -0.144 1.088 255 255 255
0.162 0.165 0.433 255 255 255
-0.12 0.159 0.482 255 255 255
-0.289 -0.221 1.042 255 255 255
-1.426 -0.631 2.574 255 255 255
-0.272 -1.523 2.424 255 255 255
0.36 -1.128 2.154 255 255 255
-1.035 -1.281 2.816 255 255 255
0.154 0.192 0.419 0 0 0
0.168 -1.26 2.192 255 255 255
0.784 -0.359 1.688 0 0 0
0.116 -0.113 0.841 0 0 0
-0.006 0.081 0.505 255 255 255
0 0.137 0.472 255 255 255
-0.206 -0.022 0.532 0 0 0
-0.043 0.187 0.461 255 255 255
-0.185 -0.202 1.099 255 255 255
-0.126 -0.172 1.009 0 0 0
-0.176 -0.054 0.602 255 255 255
-0.113 0.291 0.535 255 255 255
0.096 -0.007 0.689 255 255 255
0.012 0.068 0.486 0 0 0
0.02 -1.54 2.304 255 255 255
0.253 0.003 0.674 255 255 255
0.118 0.065 0.463 255 255 255
-1.348 -0.988 2.676 255 255 255
0.302 -1.142 2.175 255 255 255
-1.436 -0.626 2.544 255 255 255
0.066 -0.238 1.135 255 255 255
0.168 0.056 0.444 0 0 0
-0.15 -0.501 1.782 0 0 0
0.229 -0.516 1.636 255 255 255
0.19 -0.057 0.841 255 255 255
-0.02 0.014 0.582 255 255 255
-0.028 -0.046 0.725 255 255 255
0.299 0.09 0.515 255 255 255
-0.784 -0.933 2.747 255 255 255
-0.046 0.114 0.504 255 255 255
-0.405 -0.29 1.207 255 255 255
-0.079 0.086 0.534 255 255 255
0.273 0.112 0.485 255 255 255
-0.085 0.28 0.515 255 255 255
-0.003 -0.038 0.718 255 255 255
0.201 -1.029 2.256 255 255 255
-0.269 0.092 0.561 255 255 255
0.17 0.129 0.457 255 255 255
0.079 0.023 0.598 0 0 0
0.121 0.146 0.451 0 0 0
0.089 0.04 0.588 255 255 255
-1.176 -1.844 2.541 0 0 0
-0.328 -0.084 0.665 255 255 255
-0.196 -0.948 2.461 255 255 255
-0.184 0.026 0.524 255 255 255
-0.107 0.037 0.528 255 255 255
-0.096 -0.183 1.014 0 0 0
-1.404 -0.717 2.596 255 255 255
0.059 0.146 0.466 255 255 255
-0.775 -1.63 2.615 255 255 255
-1.333 -1.2 2.616 255 255 255
-0.11 0.084 0.537 255 255 255
-0.086 0.178 0.47 255 255 255
0.405 -0.865 2.24 0 0 0
-0.052 0.076 0.529 0 0 0
0.269 0.113 0.484 255 255 255
0.153 0.186 0.423 255 255 255
0.088 -0.429 1.68 0 0 0
0.146 -0.017 0.606 0 0 0
0.282 -1.429 2.243 255 255 255
0.12 0.073 0.425 0 0 0
0.01 -0.002 0.639 255 255 255
-0.164 0.145 0.501 255 255 255
-1.246 -1.708 2.552 255 255 255
1.491 -0.145 2.235 255 255 255
-0.077 0.139 0.49 255 255 255
-1.152 -1.95 2.561 0 0 0
-0.281 0.108 0.546 255 255 255
-0.08 0.007 0.634 0 0 0
0.12 0.045 0.464 255 255 255
0.742 -1.527 2.038 0 0 0
0.199 -0.439 1.63 0 0 0
0.076 -0.77 2.312 255 255 255
0.004 -0.844 2.391 255 255 255
0.358 -1.239 2.1 0 0 0
-0.209 0.115 0.537 255 255 255
-0.228 0.136 0.521 255 255 255
0.578 -0.127 1.107 255 255 255
0.33 -0.042 0.857 255 255 255
0.492 -0.018 0.837 255 255 255
-0.064 0.17 0.463 255 255 255
0.974 -1.374 2.01 255 255 255
0.26 0.104 0.49 255 255 255
-0.207 0.298 0.58 255 255 255
-0.373 -0.012 0.592 0 0 0
-0.05 0.007 0.627 0 0 0
-0.572 -0.176 0.914 255 255 255
-0.072 0.038 0.544 255 255 255
-0.09 0.014 0.613 255 255 255
-0.192 0.014 0.528 0 0 0
0.326 -1.197 2.119 255 255 255
-1.456 -0.808 2.399 255 255 255
-0.08 0.174 0.467 255 255 255
0.555 -0.524 1.84 255 255 255
0.065 0.199 0.435 0 0 0
-0.035 0.064 0.518 255 255 255
-0.09 -0.093 0.902 0 0 0
-0.053 0.101 0.524 255 255 255
-0.709 -0.901 2.72 0 0 0
0.422 -1.414 2.194 255 255 255
-0.142 -0.121 0.916 255 255 255
0.166 0.046 0.444 255 255 255
-0.382 -0.219 1.058 255 255 255
-0.036 0.168 0.461 255 255 255
-0.249 -1.558 2.395 255 255 255
0.294 0.068 0.578 255 255 255
-0.324 -0.045 0.596 255 255 255
0.345 -0.001 0.731 255 255 255
-0.068 -0.053 0.728 255 255 255
0.02 -0.134 0.933 255 255 255
-0.055 0.227 0.475 0 0 0
-0.583 -0.453 1.709 255 255 255
0.061 -0.028 0.719 255 255 255
0.124 0.176 0.436 255 255 255
-0.333 0.077 0.555 255 255 255
1.087 -0.633 2.15 0 0 0
0.083 0.043 0.578 255 255 255
0.529 -0.005 0.852 255 255 255
-0.308 -1.499 2.471 255 255 255
0.972 -1.417 2 255 255 255
-0.181 0.041 0.525 255 255 255
-0.242 0.016 0.468 255 255 255
-0.351 -0.117 0.755 0 0 0
-0.041 -0.114 0.879 255 255 255
-0.416 -1.708 2.435 255 255 255
-0.477 -0.062 0.652 255 255 255
0.25 0.008 0.653 255 255 255
0.088 0.183 0.435 255 255 255
0.288 -0.011 0.745 255 255 255
0.149 0.195 0.416 0 0 0
0.666 -0.432 1.749 255 255 255
-1.367 -0.717 2.713 255 255 255
-0.177 0.109 0.527 255 255 255
0.112 0.185 0.43 255 255 255
0.235 0.117 0.47 255 255 255
0.004 -0.106 0.955 0 0 0
0.21 0.152 0.436 255 255 255
-0.131 -0.012 0.671 0 0 0
-0.639 -1.177 2.712 255 255 255
0.256 0.098 0.503 255 255 255
-0.286 0.018 0.517 0 0 0
0.02 -1.598 2.289 255 255 255
0.224 0.066 0.511 255 255 255
0.036 -1.695 2.249 0 0 0
-0.401 -0.403 1.467 0 0 0
0.504 -0.436 1.802 255 255 255
-0.277 0.136 0.532 255 255 255
0.103 -0.11 0.857 255 255 255
-0.451 -1.558 2.51 255 255 255
0.682 -0.32 1.567 0 0 0
-0.582 -0.927 2.67 255 255 255
-0.226 -0.312 1.252 255 255 255
-0.088 0.075 0.546 0 0 0
-0.01 0.032 0.617 0 0 0
0.242 0.016 0.64 255 255 255
-1.444 -0.873 2.387 255 255 255
1.127 -1.016 2.065 255 255 255
0.329 -1.109 2.174 255 255 255
0.229 -1.628 2.199 0 0 0
0.831 -0.353 1.682 0 0 0
-0.057 -0.111 0.882 0 0 0
0.335 0.04 0.599 0 0 0
0.424 -1.198 2.11 255 255 255
-1.086 -1.121 2.89 255 255 255
0.16 0.165 0.434 255 255 255
-0.185 0.048 0.524 255 255 255
0.25 0.127 0.458 255 255 255
-0.308 -0.055 0.627 255 255 255
-0.158 -1.131 2.381 0 0 0
0.108 0.013 0.61 0 0 0
-0.17 -0.044 0.592 255 255 255
0.038 0.144 0.466 255 255 255
0.13 0.082 0.405 0 0 0
-0.134 0.111 0.515 255 255 255
-0.063 0.153 0.475 255 255 255
-0.003 0.072 0.499 255 255 255
-0.049 0.173 0.46 255 255 255
0.595 -1.506 2.103 255 255 255
-0.07 -0.017 0.672 255 255 255
-0.692 -1.275 2.702 255 255 255
0.037 0.018 0.605 255 255 255
-0.08 0.164 0.47 255 255 255
-0.042 0.113 0.503 255 255 255
0.172 0.137 0.452 255 255 255
-0.358 -0.017 0.605 0 0 0
0.234 0.135 0.446 255 255 255
-0.248 0.003 0.458 255 255 255
-0.166 -0.301 1.365 255 255 255
-0.327 0.046 0.547 255 255 255
0.175 -0.135 0.961 0 0 0
-0.236 0.148 0.513 255 255 255
-0.059 -0.766 2.363 255 255 255
0.24 0.051 0.603 0 0 0
-0.371 -0.238 1.087 255 255 255
-0.251 -0.083 0.656 0 0 0
0.614 -0.357 1.725 255 255 255
0.852 -1.289 2.075 255 255 255
-0.058 0.004 0.633 0 0 0
-0.492 -0.088 0.685 255 255 255
-0.131 0.162 0.481 255 255 255
0.391 -0.815 2.231 255 255 255
-0.096 -1.646 2.317 255 255 255
0.958 -1.23 2.054 255 255 255
-0.293 -0.351 1.287 255 255 255
0.054 0.133 0.472 255 255 255
0.105 0.033 0.577 0 0 0
0.812 -1.333 2.079 255 255 255
0.172 0.151 0.437 255 255 255
0.176 -0.455 1.629 255 255 255
1.476 -0.175 2.23 255 255 255
0.423 -0.031 0.856 255 255 255
0.715 -0.301 1.568 255 255 255
0.217 0.088 0.467 255 255 255
0.235 -1.225 2.146 255 255 255
0.046 0.233 0.452 255 255 255
-0.246 0.007 0.462 255 255 255
1.019 -1.263 2.031 255 255 255
0.186 -0.13 0.959 0 0 0
-0.112 -0.259 1.261 0 0 0
0.18 -0.138 0.948 0 0 0
-0.492 -0.116 0.7 255 255 255
0.01 0.255 0.472 255 255 255
-0.18 -1.117 2.412 0 0 0
0.666 -0.922 2.12 255 255 255
-0.256 -0.018 0.502 255 255 255
0.077 -1.444 2.328 255 255 255
0.312 0.036 0.612 255 255 255
0.131 -0.83 2.349 255 255 255
0.169 -0.198 1.118 255 255 255
0.009 0.062 0.479 255 255 255
0.211 0.122 0.462 255 255 255
-0.234 -0.009 0.525 255 255 255
-0.081 -0.124 0.877 255 255 255
0.072 0.045 0.563 0 0 0
0.056 -0.094 0.873 255 255 255
-0.269 0.182 0.537 255 255 255
-0.086 0.13 0.494 0 0 0
0.197 -0.915 2.304 255 255 255
0.457 -0.139 1.102 255 255 255
0.78 -0.621 1.987 255 255 255
0.039 0.085 0.485 255 255 255
0.95 -1.174 2.081 255 255 255
-0.081 -0.032 0.702 255 255 255
-0.127 -1.048 2.404 255 255 255
0.035 0.14 0.472 255 255 255
0.362 -0.418 1.697 255 255 255
1.304 -0.393 2.217 255 255 255
-0.239 -0.016 0.525 255 255 255
-0.081 0.205 0.477 255 255 255
0.791 -1.112 2.145 0 0 0
0.045 -0.095 0.899 255 255 255
0.153 -0.026 0.61 0 0 0
-0.098 -0.092 0.903 0 0 0
-0.363 -0.029 0.546 255 255 255
0.085 -0.221 1.183 0 0 0
0.892 -1.13 2.112 255 255 255
-0.122 0.205 0.492 255 255 255
0.058 0.021 0.605 0 0 0
0.458 -0.238 1.352 255 255 255
0.17 -0.531 1.654 255 255 255
0.104 -0.014 0.705 255 255 255
1.187 -0.674 2.161 255 255 255
-0.056 -0.124 0.877 255 255 255
0.084 0.102 0.49 255 255 255
0.263 -0.013 0.744 255 255 255
1.275 -0.544 2.176 255 255 255
0.173 -1.426 2.295 255 255 255
-1.117 -1.007 2.949 255 255 255
-0.315 -1.599 2.443 255 255 255
0.234 -0.016 0.736 255 255 255
-0.522 -0.919 2.655 255 255 255
0.125 0.122 0.471 255 255 255
-0.211 0.107 0.533 0 0 0
0.657 -0.2 1.285 255 255 255
-1.287 -1.627 2.583 255 255 255
0.624 -0.85 2.165 255 255 255
0.044 -1.138 2.291 255 255 255
0.337 -1.078 2.177 255 255 255
0.269 -0.075 0.969 0 0 0
0.01 0.054 0.501 255 255 255
-0.053 0.245 0.482 255 255 255
0.319 -0.032 0.819 255 255 255
0.431 -0.125 1.071 255 255 255
0.006 -0.213 1.118 0 0 0
-1.105 -1.064 2.92 255 255 255
1.359 -0.36 2.21 255 255 255
-0.046 0.149 0.479 255 255 255
-0.162 0.234 0.522 0 0 0
-0.031 0.078 0.512 255 255 255
-1.18 -1.714 2.609 255 255 255
-0.112 0.111 0.519 255 255 255
0.168 -0.075 0.871 0 0 0
-0.191 0.318 0.588 255 255 255
-0.257 -0.122 1.016 0 0 0
0.004 0.133 0.478 255 255 255
0.153 0.097 0.414 0 0 0
0.065 0.194 0.434 0 0 0
0.341 0.067 0.658 0 0 0
-0.251 -0.119 1.009 0 0 0
-0.281 -0.322 1.25 255 255 255
-0.121 0.199 0.49 255 255 255
-0.165 0.112 0.521 0 0 0
-0.267 -0.84 2.53 0 0 0
0.293 0.089 0.522 255 255 255
0.223 -0.113 0.884 0 0 0
0.001 0.105 0.505 255 255 255
-0.027 0.266 0.487 255 255 255
-0.484 -0.095 0.693 255 255 255
-0.098 0.249 0.502 255 255 255
-0.087 0.269 0.51 255 255 255
-0.16 0.116 0.517 255 255 255
0.302 -0.088 0.955 0 0 0
0.371 -0.029 0.827 255 255 255
-0.221 -0.09 0.84 255 255 255
0.156 0.064 0.439 255 255 255
-0.135 0.206 0.498 255 255 255
-0.054 0.23 0.476 255 255 255
0.574 -1.412 2.139 255 255 255
1 -0.965 2.128 255 255 255
-0.58 -0.527 1.758 255 255 255
-0.928 -1.543 2.676 255 255 255
-0.049 0.106 0.51 255 255 255
0.112 0.03 0.542 255 255 255
-0.473 -0.103 0.777 0 0 0
0.804 -0.649 1.996 0 0 0
0.805 -0.456 1.729 255 255 255
0.112 -0.171 1.012 255 255 255
-0.083 -0.1 0.896 0 0 0
0.111 0.007 0.62 0 0 0
-0.269 -0.135 0.913 255 255 255
-0.038 0.194 0.461 255 255 255
0.157 0.057 0.438 255 255 255
0.244 0 0.677 255 255 255
-0.586 -0.49 1.723 255 255 255
-0.028 -0.032 0.711 255 255 255
0.074 0.174 0.443 255 255 255
0.046 -0.09 0.888 255 255 255
0.554 -0.412 1.84 255 255 255
-0.634 -1.655 2.547 255 255 255
-1.375 -1.079 2.522 0 0 0
-1.11 -1.133 2.898 255 255 255
-0.93 -1.026 2.865 255 255 255
-0.226 0.142 0.514 255 255 255
0.275 -1.043 2.222 255 255 255
-0.053 0.118 0.502 255 255 255
0.378 -0.396 1.759 255 255 255
-0.188 -1.51 2.398 255 255 255
0.028 0.058 0.502 255 255 255
0.352 -1.075 2.18 255 255 255
0.499 -0.399 1.847 0 0 0
-1.23 -1.118 2.749 0 0 0
-0.255 -1.593 2.385 255 255 255
0.893 -0.842 2.067 255 255 255
-1.436 -1.028 2.356 255 255 255
0.283 -0.021 0.777 255 255 255
-0.717 -1.338 2.687 255 255 255
-1.239 -1.584 2.601 255 255 255
-1.356 -0.798 2.718 255 255 255
-0.374 0.016 0.601 255 255 255
0.375 -0.124 1.049 255 255 255
0.004 -0.132 0.936 255 255 255
-0.31 0.128 0.544 255 255 255
-0.185 0.124 0.511 255 255 255
-0.214 0.089 0.528 255 255 255
-0.238 0.04 0.487 255 255 255
0.413 0.023 0.674 255 255 255
0.428 -1.067 2.153 255 255 255
0.123 0.206 0.423 0 0 0
0.184 -1.606 2.227 255 255 255
-1.17 -1.783 2.611 255 255 255
-0.34 -0.99 2.485 255 255 255
1.121 -0.838 2.128 255 255 255
-0.033 0.055 0.582 0 0 0
-0.633 -0.376 1.566 255 255 255
-0.154 -0.015 0.608 255 255 255
-0.26 -0.015 0.495 255 255 255
0.13 0.076 0.413 255 255 255
0.027 0.108 0.501 255 255 255
-0.09 0.167 0.47 255 255 255
0.142 0.054 0.437 255 255 255
-0.494 -0.073 0.651 255 255 255
0.118 0.113 0.486 0 0 0
-0.427 -1.315 2.587 255 255 255
-0.227 -0.002 0.526 255 255 255
0.45 -0.006 0.776 255 255 255
-0.284 0.098 0.55 255 255 255
0.144 0.133 0.464 255 255 255
-0.284 -0.177 1 255 255 255
-0.055 0.073 0.533 255 255 255
-0.096 0.149 0.483 0 0 0
-0.279 0.068 0.53 255 255 255
0.292 0.099 0.5 255 255 255
1.004 -1.061 2.096 255 255 255
-0.058 0.074 0.533 255 255 255
0.145 0.177 0.43 255 255 255
0.061 0.08 0.485 0 0 0
0.031 0.216 0.451 0 0 0
0.298 0.091 0.513 255 255 255
-0.06 -0.047 0.72 255 255 255
-0.676 -1.588 2.574 255 255 255
0.149 -1.216 2.208 255 255 255
0.065 0.1 0.498 255 255 255
0.026 -0.048 0.731 255 255 255
-0.212 -0.027 0.531 0 0 0
-0.006 -0.901 2.4 0 0 0
-0.107 -1.462 2.388 255 255 255
0.083 0.094 0.48 255 255 255
-0.052 0.251 0.486 255 255 255
-0.102 0.159 0.479 255 255 255
0.02 -0.153 0.932 255 255 255
-0.133 -0.44 1.766 0 0 0
-0.011 0.11 0.496 255 255 255
-0.18 0.122 0.515 255 255 255
1.014 -1.166 2.056 255 255 255
0.462 -0.749 2.19 255 255 255
-0.239 0.004 0.46 255 255 255
1.144 -0.619 2.199 255 255 255
-1.097 -1.351 2.817 255 255 255
1.447 -0.278 2.208 255 255 255
0.104 -0.156 1.037 0 0 0
0.561 -1.308 2.17 255 255 255
-0.209 -0.054 0.549 255 255 255
0.009 -0.715 2.332 255 255 255
-0.069 0.105 0.518 255 255 255
0.135 -0.206 1.139 255 255 255
-0.031 -1.202 2.316 0 0 0
0.675 -0.767 2.175 255 255 255
0.156 0.102 0.42 255 255 255
-0.161 -0.515 1.789 255 255 255
-0.105 -0.018 0.662 255 255 255
-0.476 -0.104 0.779 0 0 0
0.26 0.09 0.511 255 255 255
0.124 0.038 0.515 255 255 255
0.413 -1.523 2.156 255 255 255
-1.445 -0.54 2.548 255 255 255
0.285 -1.27 2.102 255 255 255
0.219 0.081 0.457 0 0 0
-0.55 -1.308 2.638 255 255 255
-0.323 -0.503 1.657 255 255 255
1.276 -0.661 2.135 255 255 255
0.131 0.138 0.453 255 255 255
-0.582 -0.176 0.905 255 255 255
-0.236 -0.377 1.479 0 0 0
0.771 -1.224 2.125 255 255 255
0.215 -0.068 0.86 255 255 255
0.293 0.02 0.631 255 255 255
0.359 -0.006 0.748 255 255 255
0.187 0.129 0.454 255 255 255
-0.102 -1.608 2.332 255 255 255
0.774 -0.473 1.742 255 255 255
0.717 -0.976 2.078 255 255 255
0.046 -1.355 2.362 0 0 0
-0.061 0.165 0.467 255 255 255
-0.259 0.112 0.539 255 255 255
0.702 -1.389 2.106 255 255 255
0.32 -0.021 0.784 255 255 255
0.635 -0.902 2.138 255 255 255
0.604 -0.461 1.772 255 255 255
0.054 0.087 0.484 255 255 255
-1.45 -0.961 2.328 255 255 255
0.149 0.173 0.431 255 255 255
0.026 -0.265 1.176 255 255 255
-1.035 -1.404 2.776 255 255 255
0.468 -0.089 0.999 255 255 255
-0.179 0.052 0.51 255 255 255
-0.476 -0.274 1.252 255 255 255
-1.539 -0.592 2.278 255 255 255
0.112 0.19 0.427 255 255 255
0.042 0.068 0.485 0 0 0
-0.057 0.045 0.56 255 255 255
-0.063 0.007 0.631 0 0 0
-1.443 -0.998 2.352 255 255 255
0.162 0.17 0.43 255 255 255
-0.054 0.155 0.473 255 255 255
-0.17 0.146 0.501 255 255 255
-0.238 -0.015 0.527 255 255 255
1.01 -1.119 2.077 255 255 255
-0.181 0.101 0.535 255 255 255
-0.113 0.153 0.485 255 255 255
0.079 0.218 0.436 255 255 255
-0.122 0.075 0.54 255 255 255
-0.172 -0.043 0.584 255 255 255
-1.422 -0.976 2.419 255 255 255
-0.312 -0.03 0.609 0 0 0
0.379 -1.354 2.202 0 0 0
-0.343 0.049 0.555 255 255 255
0.824 -0.622 1.992 255 255 255
0.468 -1.094 2.127 255 255 255
-0.245 -0.005 0.458 255 255 255
0.358 0.046 0.586 0 0 0
-0.153 0.048 0.51 255 255 255
-0.193 -0.027 0.535 255 255 255
0.218 -1.464 2.262 255 255 255
0.205 0.126 0.454 255 255 255
0.456 -0.124 1.071 255 255 255
-1.486 -0.821 2.309 255 255 255
-0.366 -0.481 1.647 255 255 255
-0.269 0.13 0.535 255 255 255
0.077 0.196 0.431 0 0 0
0.28 -0.96 2.253 255 255 255
-0.262 0.131 0.532 255 255 255
-1.329 -0.937 2.767 0 0 0
0.051 0.233 0.451 255 255 255
0.068 0.034 0.589 0 0 0
-0.214 0.217 0.534 255 255 255
-0.394 -0.013 0.544 0 0 0
-0.03 0.009 0.579 255 255 255
0.244 -0.227 1.186 255 255 255
-1.319 -1.405 2.562 255 255 255
-1.526 -0.683 2.274 255 255 255
-0.227 0.255 0.56 0 0 0
-1.474 -0.719 2.402 255 255 255
-0.622 -0.365 1.566 255 255 255
-0.998 -1.549 2.712 255 255 255
-0.916 -1.198 2.792 255 255 255
-0.445 -1.569 2.505 255 255 255
1.577 0.017 2.266 255 255 255
0.203 -0.465 1.623 255 255 255
0.396 -1.566 2.163 0 0 0
-0.408 -0.021 0.551 0 0 0
0.015 -0.092 0.971 0 0 0
0.038 -0.822 2.36 255 255 255
-0.739 -1.327 2.704 255 255 255
0.133 -0.07 0.811 255 255 255
1.29 -0.487 2.19 255 255 255
-0.045 0.146 0.479 255 255 255
0.159 -1.63 2.233 0 0 0
-0.87 -1.587 2.635 0 0 0
0.14 0.136 0.455 255 255 255
-0.009 0.054 0.55 255 255 255
0.124 0.077 0.417 255 255 255
-0.11 0.151 0.486 0 0 0
1.21 -0.703 2.144 255 255 255
0.553 -1.019 2.124 255 255 255
-0.364 -0.023 0.548 255 255 255
0.224 -0.532 1.644 255 255 255
0.354 -0.901 2.243 255 255 255
-0.028 0.068 0.512 255 255 255
0.338 -1.126 2.163 255 255 255
-0.082 0.075 0.544 0 0 0
-0.63 -0.401 1.526 255 255 255
0.088 0.133 0.463 255 255 255
1.216 -0.83 2.104 255 255 255
0.163 0.185 0.424 255 255 255
-0.102 0 0.646 0 0 0
0.122 -0.76 2.297 255 255 255
-0.349 0.098 0.569 255 255 255
0.339 -0.085 0.956 255 255 255
-0.333 -1.326 2.552 255 255 255
-0.097 -0.933 2.425 0 0 0
-0.565 -1.842 2.444 0 0 0
0.93 -1.557 1.965 255 255 255
-0.017 -0.02 0.653 255 255 255
0.661 -0.407 1.705 0 0 0
-0.199 0.013 0.531 0 0 0
0.07 0.177 0.442 255 255 255
-0.132 0.207 0.497 255 255 255
1.404 -0.18 2.258 0 0 0
-0.389 0.004 0.554 255 255 255
0.698 -1.027 2.066 0 0 0
-0.185 -0.206 1.095 255 255 255
0.252 0.119 0.464 255 255 255
-0.248 0.135 0.527 255 255 255
0.101 -1.219 2.226 255 255 255
-0.007 0.259 0.478 255 255 255
-0.154 0.169 0.488 0 0 0
-0.26 -1.611 2.38 255 255 255
-1.141 -1.596 2.723 255 255 255
-0.172 -0.023 0.56 255 255 255
0.333 0.051 0.594 255 255 255
0.298 -0.091 0.988 0 0 0
0.696 -1.189 2.163 255 255 255
-0.401 0.019 0.606 0 0 0
1.217 -0.871 2.085 255 255 255
0.236 -1.28 2.132 0 0 0
-0.063 0.07 0.536 0 0 0
-0.137 -0.022 0.684 0 0 0
-0.302 0.131 0.54 255 255 255
-0.244 0.123 0.531 255 255 255
0.308 0.071 0.559 255 255 255
-0.694 -1.167 2.742 255 255 255
-0.213 0.348 0.613 255 255 255
-0.094 -0.447 1.709 255 255 255
-0.209 0.163 0.504 255 255 255
0.358 0.054 0.577 255 255 255
0.121 -0.903 2.333 0 0 0
-0.016 0.133 0.478 255 255 255
-1.358 -0.638 2.751 0 0 0
-0.409 -0.296 1.219 255 255 255
-0.18 0.087 0.55 255 255 255
-0.364 -0.476 1.656 0 0 0
-0.041 -0.945 2.4 255 255 255
0.193 0.086 0.477 0 0 0
0.317 0.036 0.61 255 255 255
0.264 0.067 0.596 255 255 255
0.34 -0.027 0.806 255 255 255
-0.211 -1.631 2.361 255 255 255
1.431 -0.482 2.132 255 255 255
0.132 0.208 0.421 255 255 255
-0.593 -1.546 2.565 255 255 255
0.609 -0.413 1.796 255 255 255
-0.104 -0.027 0.674 255 255 255
-0.22 -0.006 0.529 255 255 255
1.24 -0.802 2.102 255 255 255
0.61 -1.51 2.097 0 0 0
-0.055 0.149 0.482 255 255 255
-0.321 -1.533 2.47 0 0 0
-0.402 -1.331 2.568 255 255 255
0.293 0.01 0.671 255 255 255
-1.175 -1.753 2.598 255 255 255
0.044 0.16 0.455 0 0 0
0.858 -0.462 1.74 255 255 255
0.168 0.192 0.418 0 0 0
-0.069 -1.343 2.419 255 255 255
-0.103 0.182 0.476 255 255 255
0.511 -0.158 1.172 255 255 255
-0.025 0.115 0.497 255 255 255
-0.101 -1.439 2.394 255 255 255
0.099 0.128 0.472 255 255 255
0.072 0.193 0.432 255 255 255
0.767 -1.418 2.068 255 255 255
-1.523 -0.612 2.302 255 255 255
0.652 -0.79 2.176 255 255 255
-1.16 -1.837 2.598 255 255 255
-1.14 -1.632 2.706 255 255 255
0.464 -0.053 0.891 255 255 255
0.063 0.179 0.44 255 255 255
0.002 0.055 0.513 255 255 255
0.161 -0.029 0.608 0 0 0
-0.447 -1.807 2.411 0 0 0
1.001 -1.12 2.082 255 255 255
1.468 -0.557 2.108 255 255 255
1.5 -0.489 2.11 255 255 255
0.105 -0.467 1.674 0 0 0
0.188 0.086 0.484 0 0 0
-0.368 -1.647 2.446 255 255 255
0.357 0.072 0.608 0 0 0
-0.216 -1.331 2.473 255 255 255
0.2 0.139 0.449 255 255 255
0.064 -0.426 1.67 255 255 255
0.163 -0.038 0.825 255 255 255
-0.447 -0.118 0.85 0 0 0
-0.076 0.204 0.475 255 255 255
0.107 0.013 0.615 0 0 0
-0.249 -1.653 2.359 255 255 255
0.031 -0.081 0.911 255 255 255
-0.167 -0.012 0.598 255 255 255
0.355 0.042 0.589 255 255 255
0.13 0.095 0.41 255 255 255
-0.223 0.226 0.539 255 255 255
-0.249 -1.395 2.458 255 255 255
0.688 -0.743 2.175 0 0 0
-0.027 -1.707 2.264 0 0 0
0.122 0.039 0.533 255 255 255
-0.235 -0.108 0.987 0 0 0
0.047 0.168 0.451 255 255 255
-1.498 -0.859 2.276 255 255 255
-0.105 -0.123 0.888 0 0 0
-0.261 -0.147 1.049 255 255 255
-0.21 -0.043 0.532 255 255 255
0.229 0.117 0.468 255 255 255
-0.833 -1.399 2.707 255 255 255
0.153 0.154 0.441 0 0 0
0.92 -0.296 1.745 255 255 255
-0.281 -1.094 2.446 0 0 0
0.771 -0.917 2.082 255 255 255
0.301 0.067 0.573 255 255 255
0.068 0.191 0.433 255 255 255
-0.271 0.1 0.558 0 0 0
-0.354 0.08 0.566 255 255 255
0.135 0.184 0.427 255 255 255
-1.072 -1.107 2.402 255 255 255
0.158 0.147 0.442 255 255 255
-0.413 -1.131 2.588 0 0 0
0.278 -0.406 1.618 255 255 255
-0.153 0.026 0.542 0 0 0
0.435 0.04 0.655 255 255 255
0.082 -1.624 2.256 255 255 255
0.102 -1.037 2.302 255 255 255
-0.043 0.218 0.471 0 0 0
-0.62 -1.122 2.722 255 255 255
-1.357 -1.087 2.567 255 255 255
0.513 -1.036 2.132 255 255 255
-1.185 -1.818 2.522 0 0 0
0.047 0.075 0.483 255 255 255
-0.277 -0.24 1.103 255 255 255
-0.235 0 0.523 255 255 255
-0.317 -0.056 0.62 255 255 255
0.602 -0.242 1.373 255 255 255
-0.034 -0.275 1.175 255 255 255
-0.309 0.033 0.56 0 0 0
-0.085 0.096 0.528 255 255 255
-0.135 0.035 0.528 255 255 255
0.839 -0.889 2.071 255 255 255
-0.465 -0.05 0.646 255 255 255
-0.35 -1.294 2.565 255 255 255
-0.324 -0.123 0.768 0 0 0
-0.442 -1.217 2.462 0 0 0
-0.968 -1.4 2.753 255 255 255
-0.521 -0.246 1.251 255 255 255
0.133 -0.381 1.609 0 0 0
-0.027 -1.524 2.34 255 255 255
-0.002 -0.212 1.102 0 0 0
0.368 -0.901 2.242 255 255 255
-0.166 0.089 0.53 255 255 255
0.5 -1.152 2.097 255 255 255
-0.625 -1.859 2.469 0 0 0
1.256 -0.35 2.252 0 0 0
-0.161 -0.028 0.726 0 0 0
0.165 -0.149 0.959 0 0 0
0.654 -0.178 1.25 255 255 255
0.234 0.098 0.482 0 0 0
-0.162 -0.031 0.584 255 255 255
-0.29 0.034 0.555 255 255 255
0.272 0.018 0.637 255 255 255
0.525 -0.204 1.254 0 0 0
0.599 -0.921 2.143 255 255 255
0.044 0.181 0.441 255 255 255
0.986 -0.99 2.126 255 255 255
-1.073 -1.581 2.727 255 255 255
-1.01 -2.01 2.553 255 255 255
-0.136 0.1 0.534 255 255 255
-0.193 0.129 0.516 0 0 0
-0.198 0.303 0.58 255 255 255
0.122 0.014 0.519 255 255 255
0.278 0.053 0.633 255 255 255
0.17 0.192 0.418 0 0 0
-1.363 -0.986 2.605 255 255 255
0.216 0.094 0.475 0 0 0
0.657 -0.438 1.757 255 255 255
0.487 -0.151 1.141 255 255 255
0.012 0.038 0.545 255 255 255
0.473 0 0.762 255 255 255
0.216 -0.118 0.91 0 0 0
0.36 -1.517 2.182 255 255 255
0.338 0.056 0.624 255 255 255
-0.034 -0.772 2.349 255 255 255
0.747 -0.503 1.763 255 255 255
0.128 0.185 0.428 255 255 255
0.742 -1.338 2.104 255 255 255
-0.068 0.178 0.464 255 255 255
0.139 0.19 0.422 0 0 0
-0.183 0.083 0.55 0 0 0
0.108 0.218 0.43 255 255 255
-0.241 -0.169 1.097 255 255 255
0.121 0.186 0.428 255 255 255
-0.287 -0.163 0.957 255 255 255
1.372 -0.412 2.185 255 255 255
0.448 -1.538 2.145 255 255 255
-1.45 -0.887 2.37 255 255 255
-0.244 -0.108 0.868 255 255 255
-0.467 -0.075 0.692 255 255 255
-1.013 -1.93 2.581 0 0 0
0.06 0.168 0.45 255 255 255
-0.272 0.062 0.526 255 255 255
-0.454 -0.091 0.733 255 255 255
-1.388 -1.016 2.498 255 255 255
-0.037 0.115 0.5 255 255 255
0.959 -1.501 1.969 0 0 0
-0.142 0.032 0.527 255 255 255
0.695 -0.338 1.588 0 0 0
0.704 -1.525 2.052 0 0 0
0.586 -0.436 1.785 255 255 255
0.647 -0.835 2.162 255 255 255
1.213 -0.51 2.23 255 255 255
-0.131 0.296 0.548 255 255 255
0.638 -1.319 2.144 255 255 255
-0.026 0.104 0.519 0 0 0
-0.086 -1.117 2.343 255 255 255
-0.325 -0.043 0.6 255 255 255
0.384 0.021 0.669 255 255 255
-0.08 0.012 0.626 0 0 0
-0.105 0.119 0.502 255 255 255
0.312 -0.464 1.648 255 255 255
-0.077 0.109 0.509 255 255 255
-0.098 0.028 0.539 255 255 255
-0.112 0.05 0.528 255 255 255
-0.016 0.055 0.541 255 255 255
0.101 0.15 0.45 0 0 0
-0.242 0.286 0.588 255 255 255
-0.022 0.089 0.508 255 255 255
0.103 0.083 0.493 0 0 0
0.891 -1.125 2.113 255 255 255
-0.634 -1.659 2.542 255 255 255
0.499 -0.045 0.898 255 255 255
0.343 -0.166 1.143 255 255 255
0.13 0.091 0.409 0 0 0
-1.501 -0.624 2.373 255 255 255
-0.043 0.066 0.524 0 0 0
-0.215 0.009 0.528 255 255 255
-0.471 -0.106 0.782 0 0 0
0.041 0.111 0.499 255 255 255
-0.31 0.059 0.535 255 255 255
0.154 0.069 0.432 255 255 255
-0.148 -0.92 2.448 0 0 0
0.077 0.147 0.46 255 255 255
-0.429 -0.381 1.492 0 0 0
0.431 -0.141 1.106 255 255 255
-1.23 -0.596 2.583 0 0 0
-0.12 0.041 0.524 255 255 255
-0.567 -0.251 1.268 255 255 255
-0.033 -0.004 0.635 0 0 0
0.018 -0.714 2.328 255 255 255
-0.451 -1.545 2.511 255 255 255
0.181 0.165 0.433 255 255 255
-0.191 0.077 0.537 0 0 0
-0.169 -0.998 2.43 255 255 255
1.375 -0.643 2.104 255 255 255
0.089 -0.002 0.673 0 0 0
1.006 -1.322 2.003 255 255 255
-0.275 0.069 0.531 255 255 255
-0.573 -1.807 2.469 0 0 0
-0.137 0.143 0.495 0 0 0
-0.233 0.014 0.471 255 255 255
-0.823 -1.871 2.527 0 0 0
-0.102 0.275 0.519 255 255 255
0.027 0.185 0.442 255 255 255
0.169 0.176 0.428 255 255 255
-0.227 0.016 0.525 255 255 255
0.093 0.215 0.431 255 255 255
0.261 -0.993 2.245 255 255 255
0.013 0.059 0.498 0 0 0
-0.366 -0.021 0.542 255 255 255
0.116 -0.507 1.664 0 0 0
1.283 -0.412 2.219 255 255 255
0.13 0.135 0.458 255 255 255
-0.068 -0.016 0.666 255 255 255
-0.361 -1.325 2.56 255 255 255
-0.446 -0.087 0.731 255 255 255
-0.019 -0.166 0.911 255 255 255
-0.107 -1.496 2.379 255 255 255
-0.124 0.243 0.511 0 0 0
0.096 0.134 0.461 255 255 255
0.006 0.014 0.613 255 255 255
0.133 0.191 0.423 0 0 0
0.308 -0.929 2.252 255 255 255
-0.185 0.207 0.518 255 255 255
0.282 0.107 0.488 255 255 255
0.123 0.076 0.477 0 0 0
0.245 -0.429 1.617 255 255 255
0.152 -0.037 0.806 255 255 255
-0.174 0.246 0.533 0 0 0
-0.025 0.117 0.497 255 255 255
0.865 -1.21 2.097 255 255 255
0.59 -0.991 2.125 255 255 255
-0.096 0.111 0.514 255 255 255
-0.258 0.183 0.534 255 255 255
-0.274 -0.101 0.745 0 0 0
-0.018 0.162 0.463 255 255 255
-0.079 -0.421 1.675 255 255 255
-0.078 0.111 0.508 255 255 255
0.048 0.03 0.588 255 255 255
0.795 -1.272 2.1 255 255 255
-1.38 -0.62 2.713 0 0 0
0.21 0.164 0.431 255 255 255
-0.182 0.015 0.525 255 255 255
-0.296 -0.146 0.903 255 255 255
-0.198 0.108 0.534 0 0 0
-0.025 0.056 0.535 255 255 255
0.15 0.057 0.435 255 255 255
0.17 0.103 0.443 255 255 255
0.608 -1.27 2.169 255 255 255
0.277 -0.047 0.859 255 255 255
1.308 -0.407 2.211 255 255 255
-0.204 0.322 0.589 255 255 255
-0.221 0.118 0.525 255 255 255
0.924 -1.337 2.034 255 255 255
-0.138 0.197 0.496 255 255 255
-0.061 0.113 0.509 255 255 255
0.097 0.127 0.474 255 255 255
-1.348 -0.711 2.748 255 255 255
-0.108 -0.116 0.891 255 255 255
0.029 -0.889 2.382 0 0 0
-0.124 0.235 0.507 0 0 0
0.064 0.114 0.499 255 255 255
0.839 -0.353 1.682 0 0 0
0.372 0.022 0.66 255 255 255
-0.215 0.026 0.526 255 255 255
0.463 -1.599 2.116 0 0 0
0.106 0.115 0.488 255 255 255
-1.445 -0.574 2.543 255 255 255
-0.272 -1.363 2.481 255 255 255
0.319 0.073 0.561 255 255 255
0.077 0.115 0.495 255 255 255
0.473 -0.184 1.221 255 255 255
0.222 0.105 0.464 0 0 0
-0.006 -1.53 2.329 255 255 255
-0.334 -0.174 0.951 255 255 255
0.129 0.084 0.407 0 0 0
0.079 0.114 0.497 255 255 255
0.523 -1.455 2.145 255 255 255
0.551 -0.654 2.269 0 0 0
0.39 0.026 0.651 255 255 255
0.18 0.139 0.448 255 255 255
1.238 -0.321 2.267 0 0 0
-0.584 -0.957 2.671 255 255 255
-0.224 -0.019 0.529 255 255 255
0.613 -1.467 2.109 255 255 255
-0.223 0.041 0.516 255 255 255
0.199 0.031 0.513 255 255 255
0.01 0.2 0.449 0 0 0
0.651 -1.258 2.16 255 255 255
-0.083 -0.131 0.882 255 255 255
-0.063 0.121 0.496 255 255 255
-1.09 -1.025 2.927 255 255 255
-0.138 -0.906 2.454 0 0 0
-1.062 -1.195 2.411 255 255 255
-0.116 0.026 0.538 255 255 255
-0.127 0.257 0.52 255 255 255
-0.298 0.047 0.535 255 255 255
-0.322 -0.029 0.609 0 0 0
0.645 -0.663 2.214 255 255 255
-0.759 -1.308 2.718 255 255 255
0.088 -0.182 1.043 0 0 0
-0.81 -1.168 2.788 255 255 255
-0.324 0.112 0.559 255 255 255
0.139 0.209 0.42 255 255 255
0.514 -1.018 2.14 255 255 255
0.754 -0.998 2.048 0 0 0
0.082 -1.491 2.31 255 255 255
-0.022 0.058 0.522 255 255 255
-0.085 -1.437 2.391 255 255 255
-0.015 0.049 0.585 255 255 255
0.122 -0.234 1.162 255 255 255
-0.506 -1.496 2.551 255 255 255
-1.444 -0.95 2.367 255 255 255
-0.259 0.123 0.535 255 255 255
0.145 0.049 0.436 0 0 0
-0.278 -1.652 2.377 255 255 255
0.19 -0.231 1.203 255 255 255
0.58 -1.292 2.17 255 255 255
-0.054 0.007 0.629 0 0 0
0.753 -0.7 1.998 255 255 255
0.231 -1.223 2.153 255 255 255
0.115 0.083 0.499 0 0 0
0.105 0.193 0.427 0 0 0
0.7 -0.819 2.147 255 255 255
1.346 -0.793 2.082 255 255 255
-0.107 -0.048 0.738 0 0 0
0.117 0.027 0.534 255 255 255
-0.194 -1.661 2.344 255 255 255
0.056 -1.39 2.356 255 255 255
-0.123 -1.649 2.32 255 255 255
0.065 -0.147 0.994 255 255 255
0.94 -1.558 1.963 255 255 255
-0.233 -0.17 1.091 255 255 255
0.832 -1.422 2.038 255 255 255
-0.27 0.095 0.56 255 255 255
0.066 0.178 0.442 255 255 255
1.453 -0.613 2.095 255 255 255
1.024 -1.219 2.034 255 255 255
-0.137 0.245 0.516 0 0 0
0.05 0.04 0.56 255 255 255
-0.285 -0.11 0.739 0 0 0
-0.034 -0.147 0.888 255 255 255
-0.3 0.134 0.536 255 255 255
-0.059 0.178 0.461 255 255 255
0.056 -0.12 0.93 0 0 0
0.141 0.059 0.438 255 255 255
0.116 -0.896 2.342 0 0 0
-0.711 -1.857 2.506 0 0 0
0.477 -1.139 2.107 255 255 255
-0.331 -0.046 0.588 255 255 255
-0.22 0.032 0.488 255 255 255
1.039 -1.072 2.085 255 255 255
0.13 0.078 0.411 255 255 255
1.375 -0.535 2.142 255 255 255
0.041 0.12 0.482 255 255 255
0.076 -0.095 0.848 255 255 255
0.274 -0.475 1.627 255 255 255
-0.692 -1.894 2.484 0 0 0
-0.036 -0.149 0.886 255 255 255
0.61 -1.313 2.16 255 255 255
-0.369 -0.103 0.755 0 0 0
-0.52 -0.168 0.995 255 255 255
-0.881 -1.448 2.682 0 0 0
-0.995 -0.968 2.917 255 255 255
0.529 -0.895 2.18 255 255 255
-0.472 -0.08 0.693 255 255 255
0.115 0.093 0.431 255 255 255
0.106 0.09 0.483 0 0 0
0.099 -0.029 0.741 255 255 255
0.499 -1.109 2.109 255 255 255
0.082 -0.157 1.047 0 0 0
0.075 0.162 0.45 255 255 255
0.252 0.014 0.648 255 255 255
-0.124 0.181 0.484 255 255 255
-0.211 0.157 0.503 255 255 255
-0.093 0.187 0.475 255 255 255
0.917 -1.462 1.99 0 0 0
-0.063 0.149 0.484 255 255 255
-0.079 0.011 0.624 0 0 0
-0.027 0.222 0.469 0 0 0
0.035 0.228 0.454 255 255 255
0.043 0.223 0.449 255 255 255
-0.169 0.149 0.498 255 255 255
0.212 -0.066 0.855 255 255 255
-0.207 0.063 0.512 0 0 0
-0.026 0.174 0.456 255 255 255
-0.226 0.009 0.474 255 255 255
-0.222 -1.036 2.438 255 255 255
-0.214 0.114 0.537 255 255 255
-0.234 -0.044 0.518 255 255 255
-0.327 -1.236 2.58 255 255 255
-0.227 0.217 0.538 255 255 255
-0.225 0.226 0.539 255 255 255
0.312 -0.073 0.942 255 255 255
-0.567 -0.181 0.935 255 255 255
0.139 0.102 0.414 0 0 0
-0.276 -0.106 0.761 0 0 0
0.79 -0.958 2.053 0 0 0
0.172 -0.069 0.838 255 255 255
0.002 -0.152 0.929 255 255 255
-1.028 -1.261 2.821 255 255 255
-1.003 -1.076 2.45 255 255 255
-0.401 -0.02 0.547 0 0 0
-0.018 0.245 0.475 255 255 255
0.051 0.172 0.449 255 255 255
0.255 -0.273 1.274 255 255 255
0.372 -0.877 2.246 0 0 0
0.335 -0.163 1.139 255 255 255
0.401 -1.185 2.119 255 255 255
0.105 0.126 0.479 255 255 255
0.724 -0.47 1.744 255 255 255
0.126 -0.015 0.712 255 255 255
0.8 -0.416 1.705 255 255 255
0.447 -0.988 2.176 255 255 255
0.804 -1.188 2.126 255 255 255
-0.219 0.087 0.525 255 255 255
-1.299 -1.557 2.573 255 255 255
-0.099 0.266 0.513 255 255 255
0.145 0.162 0.438 255 255 255
0.011 0.113 0.492 255 255 255
-0.925 -1.001 2.851 255 255 255
-0.04 0.214 0.469 0 0 0
0.905 -0.61 1.993 255 255 255
-0.2 -0.033 0.534 255 255 255
0.106 0.143 0.453 255 255 255
-0.637 -0.362 1.55 255 255 255
-0.069 0.154 0.474 255 255 255
-0.197 0.23 0.532 255 255 255
0.08 0.161 0.451 255 255 255
-0.036 -0.034 0.713 0 0 0
1.288 -0.777 2.089 255 255 255
0.108 -1.447 2.312 255 255 255
-0.18 -0.006 0.533 255 255 255
-0.238 0.025 0.476 255 255 255
-0.41 -0.023 0.554 0 0 0
-0.323 -0.039 0.609 0 0 0
0.355 0.07 0.631 0 0 0
0.089 0.17 0.441 255 255 255
-0.221 0.035 0.488 255 255 255
0.737 -0.492 1.751 255 255 255
-0.281 0.155 0.528 255 255 255
-1.508 -0.672 2.333 255 255 255
0.024 -0.139 0.931 255 255 255
-0.73 -0.958 2.72 255 255 255
-0.21 0.196 0.522 255 255 255
0.105 0.014 0.622 255 255 255
-0.073 0.092 0.525 255 255 255
-0.176 0.207 0.514 255 255 255
0.008 0.037 0.576 0 0 0
-0.178 0.087 0.552 0 0 0
0.391 0.018 0.681 255 255 255
0.412 0.032 0.64 255 255 255
-0.167 0.197 0.506 255 255 255
0.996 -0.669 2.061 0 0 0
0.191 0.111 0.468 255 255 255
0.202 0.119 0.468 0 0 0
0.253 -0.055 0.907 255 255 255
-0.061 0.164 0.468 255 255 255
1.493 -0.16 2.227 255 255 255
-1.57 -0.446 2.225 255 255 255
-1.105 -1.259 2.848 255 255 255
0.435 -1.373 2.197 255 255 255
-0.545 -0.178 0.974 255 255 255
0.803 -0.419 1.702 255 255 255
0.501 -0.136 1.106 255 255 255
1.071 -1.253 2.017 255 255 255
0.104 0.089 0.484 0 0 0
-0.124 0.172 0.479 255 255 255
-0.176 0.324 0.579 255 255 255
1.097 -1.03 2.044 0 0 0
0.073 -0.083 0.836 255 255 255
-0.208 -0.058 0.561 255 255 255
-0.152 -0.023 0.61 255 255 255
-0.027 0.002 0.619 0 0 0
-0.088 -0.711 2.368 255 255 255
-0.108 0.173 0.475 255 255 255
-0.044 0.154 0.475 255 255 255
-0.194 0.227 0.53 255 255 255
-0.13 -0.234 1.237 0 0 0
-0.05 0.082 0.525 255 255 255
-0.153 -0.12 0.922 255 255 255
0.16 -0.45 1.636 255 255 255
-0.391 -1.297 2.581 255 255 255
-0.007 -0.044 0.722 255 255 255
-0.273 0.136 0.53 255 255 255
-0.047 0.048 0.571 255 255 255
-0.378 -0.002 0.569 255 255 255
0.071 -0.004 0.653 0 0 0
0.357 0.058 0.574 255 255 255
-1.447 -0.843 2.422 255 255 255
-0.178 -0.012 0.578 255 255 255
-0.411 -1.82 2.392 0 0 0
0.406 -0.24 1.358 255 255 255
-0.036 0.232 0.475 255 255 255
0.067 0.069 0.476 0 0 0
-0.514 -0.113 0.68 255 255 255
-0.627 -0.421 1.542 255 255 255
0.099 0.081 0.495 255 255 255
0.593 -1.116 2.074 0 0 0
-0.187 -0.069 0.818 255 255 255
-0.346 -0.102 0.754 0 0 0
0.488 -0.138 1.107 255 255 255
