ply
format ascii 1.0
comment Created by Open3D
element vertex 1627
property double x
property double y
property double z
property uchar red
property uchar green
property uchar blue
end_header
-1.248 -1.095 2.59 0 0 0
-0.121 0.044 0.513 255 255 255
-0.096 0.165 0.484 255 255 255
0.067 0.163 0.451 255 255 255
-0.015 0.103 0.507 255 255 255
0.191 0.049 0.43 0 0 0
-0.788 -1.355 2.77 255 255 255
-0.317 0.01 0.638 255 255 255
-0.091 0.031 0.528 255 255 255
1.475 -0.381 2.135 255 255 255
0.089 -0.264 1.158 0 0 0
-0.048 -0.009 0.643 255 255 255
0.132 0.102 0.49 0 0 0
0.078 0.22 0.446 255 255 255
0.321 -0.912 2.287 255 255 255
0.239 0.07 0.449 255 255 255
1.334 -0.762 2.069 255 255 255
-0.059 0.065 0.552 0 0 0
0.086 -0.261 1.153 0 0 0
-0.197 -0.108 0.791 255 255 255
0.007 0.17 0.455 255 255 255
1.398 -0.584 2.102 255 255 255
0.328 -0.012 0.717 255 255 255
0.044 0.021 0.612 0 0 0
0.101 -0.816 2.34 255 255 255
0.657 -0.113 1.059 255 255 255
0.127 0.216 0.429 255 255 255
0.359 0.037 0.594 255 255 255
-0.061 0.159 0.476 255 255 255
0.186 -0.443 1.662 0 0 0
0.113 -1.053 2.338 255 255 255
-0.168 0.099 0.537 0 0 0
-0.377 -0.003 0.536 255 255 255
-0.286 0.17 0.567 255 255 255
1.155 -0.993 2.038 255 255 255
0.137 -0.745 2.311 255 255 255
-0.109 0.066 0.565 0 0 0
0.028 0.107 0.492 255 255 255
-0.51 -1.145 2.731 255 255 255
0.838 -0.815 2.102 255 255 255
-0.085 -0.039 0.705 255 255 255
0.423 -1.616 2.144 0 0 0
-0.286 0.061 0.553 255 255 255
-0.124 0.285 0.564 255 255 255
-0.294 0.084 0.576 255 255 255
-0.564 -1.254 2.733 255 255 255
0.085 -0.185 1.01 255 255 255
-0.559 -0.41 1.555 255 255 255
0.179 -0.042 0.768 255 255 255
0.75 -1.081 2.025 0 0 0
-0.078 0.272 0.531 255 255 255
-1.428 -0.881 2.23 255 255 255
-0.158 0.123 0.523 0 0 0
-1.455 -0.728 2.142 255 255 255
0.043 0.17 0.449 255 255 255
-0.125 -1.345 2.479 255 255 255
0.589 -0.639 2.208 255 255 255
0.103 0.061 0.461 0 0 0
0.405 0.016 0.646 255 255 255
-0.163 -1.408 2.474 255 255 255
-0.115 -0.007 0.642 255 255 255
-0.134 0.14 0.506 255 255 255
0.054 0.107 0.497 255 255 255
-0.18 0.309 0.603 255 255 255
0.774 -1.277 2.114 255 255 255
-0.302 0.043 0.562 255 255 255
-0.324 0 0.641 0 0 0
-0.183 0.055 0.522 0 0 0
0.106 0.056 0.46 255 255 255
0.1 0.245 0.446 255 255 255
0.117 0.09 0.476 255 255 255
0.032 0.172 0.448 255 255 255
0.169 0.137 0.441 255 255 255
-0.765 -1.909 2.559 0 0 0
0.021 -1.321 2.437 255 255 255
-1.347 -0.732 2.482 255 255 255
0.103 0.183 0.43 255 255 255
0.181 -0.066 0.794 255 255 255
0.186 -1.608 2.259 255 255 255
1.227 -0.939 2.051 255 255 255
-0.155 0.039 0.53 255 255 255
0.069 0.004 0.61 255 255 255
-0.033 0.198 0.474 255 255 255
-0.002 0.097 0.517 255 255 255
0.087 -0.231 1.113 0 0 0
-0.013 -0.287 1.225 255 255 255
0.341 -1.189 2.165 255 255 255
-0.883 -1.117 2.906 255 255 255
1.407 -0.363 2.178 0 0 0
0.059 -0.149 0.929 255 255 255
-0.148 0.037 0.532 255 255 255
0.276 -1.619 2.211 0 0 0
-0.078 0.053 0.55 0 0 0
0.014 0.25 0.48 255 255 255
-0.461 -1.673 2.531 255 255 255
-1.296 -1.16 2.416 255 255 255
0.079 -0.915 2.406 0 0 0
-1.305 -0.922 2.501 255 255 255
0.822 -0.321 1.568 255 255 255
-0.483 -0.097 0.668 255 255 255
-0.644 -1.296 2.756 255 255 255
-0.319 -0.409 1.469 0 0 0
0.088 -1.376 2.386 255 255 255
0.147 -0.135 0.961 255 255 255
0.267 -0.121 0.896 0 0 0
-0.215 -0.232 1.097 255 255 255
-0.474 -1.175 2.715 255 255 255
0 0.081 0.512 255 255 255
-1.223 -0.817 2.784 255 255 255
0.218 0.062 0.443 0 0 0
-0.07 0.108 0.511 255 255 255
-0.211 -1.485 2.501 255 255 255
-0.023 0.195 0.469 255 255 255
0.866 -0.412 1.684 0 0 0
-0.081 -0.323 1.377 255 255 255
-0.334 -0.023 0.592 0 0 0
0.13 -0.002 0.638 255 255 255
-0.037 -0.021 0.668 255 255 255
-0.25 0.282 0.62 0 0 0
-0.102 0.277 0.545 255 255 255
0.961 -1.176 2.069 255 255 255
0.978 -1.517 1.968 255 255 255
0.039 0.233 0.465 255 255 255
-0.425 -0.013 0.568 255 255 255
0.659 -0.967 2.117 255 255 255
0.042 0.052 0.5 0 0 0
0.189 0.153 0.432 255 255 255
-0.079 -0.117 0.915 255 255 255
0.037 -0.138 0.932 255 255 255
0.106 0.049 0.472 255 255 255
-0.399 -0.302 1.275 255 255 255
1.518 -0.565 2.077 255 255 255
0.141 0.06 0.481 0 0 0
-0.133 -0.04 0.777 0 0 0
0.126 0.12 0.476 255 255 255
0.148 0.229 0.426 255 255 255
0.87 -0.522 1.736 255 255 255
-0.049 0.048 0.565 0 0 0
0.408 -0.049 0.855 255 255 255
-0.077 0.107 0.511 255 255 255
0.446 -0.02 0.766 255 255 255
-0.11 0.282 0.553 255 255 255
-0.003 -0.023 0.651 255 255 255
-1.159 -1.665 2.61 255 255 255
0.077 -0.096 0.949 0 0 0
0.725 -0.677 2.196 0 0 0
-0.026 0.202 0.472 255 255 255
0.027 -0.023 0.642 0 0 0
-0.052 0.04 0.541 255 255 255
0.567 -0.195 1.197 255 255 255
1.207 -0.977 2.046 255 255 255
0.701 -0.47 1.736 255 255 255
0.246 -1.615 2.226 0 0 0
0.393 0.002 0.691 255 255 255
0.053 -0.813 2.362 255 255 255
-0.042 0.231 0.49 0 0 0
-0.138 -0.027 0.553 255 255 255
-0.165 0.287 0.585 255 255 255
-0.267 -1.126 2.632 255 255 255
0.335 -1.512 2.226 255 255 255
-0.23 -0.183 0.984 255 255 255
-0.004 0.141 0.476 255 255 255
-0.117 -0.476 1.68 255 255 255
-0.066 0.26 0.517 255 255 255
0.069 0.108 0.491 255 255 255
-0.318 -0.048 0.573 255 255 255
0.03 0.1 0.508 255 255 255
-0.121 0.019 0.551 0 0 0
-0.099 0.088 0.546 255 255 255
-0.503 -0.186 0.959 255 255 255
0.108 0.044 0.547 255 255 255
-0.246 0.173 0.552 255 255 255
0.011 0.257 0.484 255 255 255
0.432 -0.476 1.674 255 255 255
-0.351 -0.005 0.567 0 0 0
0.118 0.004 0.599 255 255 255
-0.485 -0.271 1.277 255 255 255
0.061 -0.277 1.171 255 255 255
-0.02 0.017 0.557 255 255 255
0.64 -0.737 2.215 0 0 0
-0.149 -0.059 0.585 255 255 255
0.135 -1.684 2.25 0 0 0
0.163 0.042 0.434 0 0 0
0.043 0.038 0.585 0 0 0
0.138 0.19 0.42 0 0 0
-0.563 -0.4 1.568 255 255 255
-0.201 -0.242 1.222 0 0 0
0.052 -1.518 2.352 255 255 255
0.145 -0.233 1.179 0 0 0
-0.468 -0.078 0.654 255 255 255
-0.294 0.154 0.562 255 255 255
-0.184 -0.11 0.863 255 255 255
0.154 0.042 0.5 255 255 255
-0.238 0.052 0.535 255 255 255
0.159 0.043 0.439 255 255 255
0.312 -0.487 1.604 255 255 255
0.127 -0.039 0.734 255 255 255
-1.055 -1.952 2.507 255 255 255
-0.019 0.008 0.571 255 255 255
0.287 -1.047 2.242 255 255 255
0.169 0.23 0.421 255 255 255
-0.158 0.09 0.531 255 255 255
-0.175 0.007 0.536 255 255 255
0.771 -0.871 2.109 255 255 255
-0.094 0.261 0.532 255 255 255
-0.324 0.077 0.587 255 255 255
-0.191 -0.324 1.316 0 0 0
0.113 0.072 0.477 255 255 255
0.318 -0.015 0.722 255 255 255
-0.085 0.241 0.516 0 0 0
-0.899 -1.578 2.748 255 255 255
0.044 0.075 0.487 255 255 255
0.085 0.217 0.442 255 255 255
0.133 0.16 0.44 255 255 255
0.125 0.16 0.442 255 255 255
0.357 -1.085 2.211 255 255 255
-1.288 -1.054 2.499 255 255 255
-1.046 -1.927 2.556 0 0 0
-0.417 -1.629 2.524 255 255 255
-0.163 -1.251 2.53 255 255 255
-0.014 0.113 0.502 255 255 255
0.637 -0.522 1.8 255 255 255
-0.041 -1.054 2.418 255 255 255
-0.159 -0.027 0.539 255 255 255
0.565 -0.108 1.017 255 255 255
-0.235 0.226 0.577 255 255 255
-0.495 -0.119 0.671 255 255 255
-0.496 -0.938 2.698 0 0 0
-0.636 -1.406 2.714 255 255 255
0.009 0.075 0.506 255 255 255
-0.728 -1.044 2.843 255 255 255
-0.177 0.079 0.537 255 255 255
-0.101 0.157 0.486 255 255 255
1.5 -0.165 2.218 0 0 0
0.255 0.07 0.451 0 0 0
-0.189 -0.832 2.546 0 0 0
-1.071 -1.536 2.655 255 255 255
0.214 -0.051 0.817 255 255 255
-0.272 0.114 0.558 255 255 255
0.093 0.145 0.459 255 255 255
0.035 -0.101 0.921 255 255 255
-0.211 -1.767 2.388 0 0 0
-0.109 -0.119 0.932 255 255 255
-0.28 0.181 0.57 255 255 255
-0.072 0.009 0.628 255 255 255
-0.387 -0.292 1.254 0 0 0
0.468 -1.095 2.15 255 255 255
0.053 0.008 0.622 0 0 0
0.038 0.091 0.526 0 0 0
0.521 -0.053 0.862 255 255 255
-0.246 0.11 0.552 255 255 255
-1.318 -0.747 2.552 255 255 255
0.449 0.024 0.636 255 255 255
-0.79 -1.981 2.551 255 255 255
0.313 -0.432 1.605 255 255 255
-0.284 -0.059 0.606 255 255 255
-1.372 -0.969 2.313 255 255 255
-1.295 -1.359 2.318 255 255 255
0.526 -0.039 0.836 255 255 255
-0.362 0.031 0.592 255 255 255
-1.009 -1.705 2.733 255 255 255
-0.078 0.078 0.547 255 255 255
0.078 -0.42 1.618 255 255 255
0.521 -1.079 2.132 255 255 255
0.037 -0.045 0.714 255 255 255
0.193 -0.01 0.58 0 0 0
0.926 -0.423 1.663 255 255 255
-0.405 -1.562 2.545 255 255 255
0.377 0.014 0.641 255 255 255
-1.106 -1.957 2.499 255 255 255
-0.275 0.047 0.546 255 255 255
0.262 -0.244 1.198 255 255 255
-0.217 -0.109 0.773 255 255 255
-0.046 0.195 0.478 255 255 255
-1.033 -0.942 2.978 255 255 255
-0.187 -0.338 1.307 0 0 0
-0.353 -0.017 0.561 0 0 0
0.17 0.014 0.493 255 255 255
1.529 -0.214 2.181 255 255 255
0.323 -0.247 1.217 255 255 255
0.018 0.165 0.456 255 255 255
0.597 -1.314 2.124 0 0 0
-1.334 -1.219 2.289 255 255 255
-0.078 -0.009 0.649 255 255 255
0.136 0.116 0.477 255 255 255
-1.314 -1.158 2.373 255 255 255
-0.103 0.131 0.499 255 255 255
0.761 -0.389 1.736 0 0 0
0.155 -0.245 1.141 255 255 255
0.968 -0.353 1.678 255 255 255
0.109 -0.743 2.322 255 255 255
-0.067 0.113 0.503 255 255 255
-0.28 -1.811 2.392 0 0 0
1.295 -0.757 2.085 255 255 255
-1.315 -0.563 2.657 255 255 255
0.041 0.227 0.461 255 255 255
-0.133 -0.028 0.576 255 255 255
-0.182 0.017 0.534 255 255 255
0.992 -0.359 1.679 255 255 255
0.677 -1.559 2.051 0 0 0
0.062 0.05 0.508 255 255 255
0.572 -0.727 2.178 255 255 255
-0.084 0.072 0.541 255 255 255
1.519 -0.367 2.125 255 255 255
-0.22 -0.114 0.796 255 255 255
0.164 0.123 0.462 255 255 255
-1.25 -0.685 2.745 0 0 0
-0.201 0.101 0.555 0 0 0
1.12 -1.043 2.054 255 255 255
-0.087 -1.683 2.339 255 255 255
-0.179 0.092 0.523 255 255 255
-0.06 0.189 0.481 255 255 255
0.214 0.01 0.556 0 0 0
0.05 0.15 0.461 255 255 255
-0.01 0.014 0.563 255 255 255
0.055 -0.108 0.956 0 0 0
0.794 -0.958 2.064 255 255 255
0.238 -0.108 0.897 0 0 0
0.344 -0.243 1.189 255 255 255
0.175 0.027 0.44 255 255 255
-0.154 0.063 0.528 0 0 0
0.713 -1 2.074 255 255 255
0.35 -0.175 1.085 255 255 255
-0.171 -0.12 0.995 0 0 0
0.978 -0.936 1.997 0 0 0
0.119 0.083 0.477 255 255 255
0.04 0.041 0.6 0 0 0
0.082 -0.082 0.861 255 255 255
0.151 0 0.592 0 0 0
-0.227 0.107 0.548 255 255 255
0.245 -0.521 1.629 255 255 255
-1.181 -1.759 2.516 255 255 255
-1.464 -0.743 2.173 255 255 255
0.916 -0.319 1.627 255 255 255
-0.031 -0.891 2.463 0 0 0
-1.265 -1.453 2.344 255 255 255
-1.401 -0.805 2.325 255 255 255
-0.624 -1.25 2.761 255 255 255
0.097 -0.034 0.714 255 255 255
-1.039 -1.547 2.74 255 255 255
0.661 -0.353 1.673 255 255 255
-1.1 -0.623 2.613 0 0 0
0.635 -1.357 2.138 255 255 255
0.497 -0.245 1.333 255 255 255
-0.518 -0.499 1.74 255 255 255
0.852 -0.91 2.058 0 0 0
-0.045 0.015 0.561 0 0 0
-0.162 0.281 0.58 255 255 255
0.673 -1.351 2.13 255 255 255
0.127 0.179 0.43 255 255 255
0.108 -0.452 1.658 255 255 255
-0.153 0.013 0.531 0 0 0
0.117 0.036 0.575 255 255 255
-0.002 -0.182 0.899 255 255 255
-0.03 -0.024 0.673 255 255 255
0.44 -0.866 2.251 0 0 0
-0.129 -0.034 0.579 255 255 255
0.392 -0.245 1.191 255 255 255
-0.156 0.192 0.524 255 255 255
0.031 -1.387 2.407 255 255 255
-0.007 0.138 0.478 255 255 255
0.513 -0.175 1.162 255 255 255
0.051 0.099 0.506 255 255 255
0.075 -0.06 0.755 255 255 255
-0.204 0.16 0.527 0 0 0
0.134 0.148 0.444 255 255 255
-0.576 -1.319 2.712 255 255 255
0.171 -0.458 1.677 0 0 0
0.059 0.026 0.561 255 255 255
-0.28 0.09 0.57 255 255 255
-1.169 -1.604 2.605 255 255 255
0.163 0.016 0.502 0 0 0
1.044 -1.048 2.079 255 255 255
0.022 0.114 0.487 255 255 255
0.994 -0.884 2.013 255 255 255
-0.214 0.139 0.525 255 255 255
-1.009 -1.907 2.646 0 0 0
0.123 0.116 0.48 255 255 255
-0.104 0.039 0.52 255 255 255
-0.303 0.116 0.563 255 255 255
0.166 0.191 0.414 0 0 0
-0.182 0.19 0.533 255 255 255
-0.109 0.283 0.554 255 255 255
-0.225 0.171 0.542 255 255 255
-0.105 0.217 0.513 255 255 255
0.099 0.035 0.565 255 255 255
-1.225 -0.772 2.781 255 255 255
0.375 -1.612 2.173 0 0 0
-0.892 -1.811 2.649 255 255 255
0.138 0.118 0.476 255 255 255
0.685 -0.965 2.107 255 255 255
-0.271 0.083 0.579 0 0 0
0.311 0.026 0.62 0 0 0
-0.275 -0.068 0.631 255 255 255
-0.373 0.057 0.59 255 255 255
-0.053 0.071 0.548 0 0 0
-0.332 -0.027 0.556 255 255 255
0.128 0.054 0.469 255 255 255
0.191 -1.516 2.292 255 255 255
0.123 -0.488 1.67 0 0 0
1.226 -0.81 2.084 255 255 255
-0.052 0.201 0.482 255 255 255
-0.696 -1.36 2.751 255 255 255
-1.399 -0.676 2.371 255 255 255
0.537 -0.014 0.792 255 255 255
0.46 -0.962 2.2 255 255 255
1.498 -0.277 2.17 255 255 255
-0.07 -1.517 2.392 255 255 255
0.091 0.226 0.443 255 255 255
0.331 0.071 0.558 255 255 255
-0.06 0.133 0.497 255 255 255
1.342 -0.706 2.086 255 255 255
-0.337 0.095 0.584 255 255 255
0.869 -0.483 1.705 255 255 255
-1.457 -0.497 2.177 255 255 255
-0.015 -0.73 2.416 255 255 255
-0.149 0.054 0.512 0 0 0
-1.267 -1.076 2.533 255 255 255
0.449 -0.828 2.229 255 255 255
0.146 0.124 0.469 255 255 255
-0.164 -0.068 0.581 255 255 255
-1.465 -0.483 2.152 255 255 255
-0.941 -1.929 2.633 0 0 0
0.8 -0.564 1.777 255 255 255
0.018 -0.047 0.714 255 255 255
0.119 0.162 0.441 255 255 255
0.285 0.068 0.524 255 255 255
0.133 0.188 0.423 255 255 255
0.059 0.176 0.441 255 255 255
-0.249 -0.14 0.878 255 255 255
0.272 -0.412 1.626 255 255 255
0.093 0.071 0.478 0 0 0
0.029 0.147 0.466 255 255 255
-0.056 -0.11 0.906 255 255 255
-0.273 -0.485 1.676 255 255 255
0.371 -0.9 2.265 255 255 255
0.872 -0.83 2.081 0 0 0
-0.199 -0.278 1.283 0 0 0
0.742 -0.456 1.729 255 255 255
0.237 0.077 0.447 0 0 0
-0.921 -1.118 2.921 255 255 255
1.453 -0.276 2.188 0 0 0
-0.162 0.082 0.545 255 255 255
-0.041 0.188 0.475 255 255 255
-0.056 -0.033 0.678 255 255 255
-0.452 -0.162 0.972 0 0 0
0.174 0.048 0.428 255 255 255
0.07 -0.01 0.648 0 0 0
0.116 0.113 0.485 255 255 255
-0.194 -0.971 2.506 255 255 255
-0.445 -0.248 1.265 0 0 0
0.093 0.106 0.498 0 0 0
-1.372 -0.586 2.481 255 255 255
0.71 -0.445 1.744 255 255 255
0.702 -0.322 1.536 255 255 255
0.176 -1.599 2.267 255 255 255
0.12 0.11 0.489 255 255 255
0.173 0.014 0.489 255 255 255
-0.319 0.062 0.566 255 255 255
0.161 -0.092 0.815 0 0 0
-0.088 -0.875 2.494 0 0 0
0.242 -0.147 0.925 0 0 0
-0.025 -0.136 0.875 255 255 255
1.478 -0.496 2.105 255 255 255
-0.684 -1.4 2.736 255 255 255
0.021 0.23 0.468 255 255 255
0.146 -0.107 0.844 0 0 0
-0.214 -0.246 1.127 255 255 255
-0.488 -0.091 0.656 255 255 255
0.153 0.027 0.44 0 0 0
-0.059 -0.427 1.702 0 0 0
-0.226 -1.18 2.588 0 0 0
-0.17 0.147 0.509 255 255 255
0.525 -1.47 2.148 255 255 255
-0.168 0.32 0.602 255 255 255
-0.048 0.044 0.552 255 255 255
0.614 -1.093 2.089 255 255 255
0.304 0.011 0.628 255 255 255
0.108 -0.075 0.815 0 0 0
0.161 0.158 0.435 255 255 255
-0.081 -1.275 2.492 255 255 255
-0.303 -0.045 0.588 255 255 255
0.89 -0.825 2.075 0 0 0
-0.077 0.027 0.534 255 255 255
0.171 -1.589 2.272 255 255 255
0.076 -0.018 0.671 0 0 0
0.555 -0.809 2.148 255 255 255
0.779 -1.272 2.115 255 255 255
0.221 0.021 0.521 0 0 0
-0.042 -0.898 2.465 0 0 0
0.651 -0.781 2.192 0 0 0
0.76 -1.273 2.121 255 255 255
-0.421 -0.104 0.727 255 255 255
0.434 -0.087 0.936 255 255 255
0.032 0.247 0.473 255 255 255
-0.091 -0.031 0.686 0 0 0
1.019 -0.638 1.974 255 255 255
0.515 -0.922 2.197 255 255 255
-1.282 -0.949 2.556 255 255 255
-0.44 -0.12 0.721 255 255 255
0.113 0.247 0.443 255 255 255
-1.353 -0.572 2.534 255 255 255
0.079 0.098 0.508 0 0 0
0.102 0.062 0.464 255 255 255
-0.222 -0.007 0.47 255 255 255
-0.056 -0.099 0.905 255 255 255
0.041 -0.476 1.682 255 255 255
1.145 -0.949 2.01 255 255 255
-0.474 -0.054 0.634 255 255 255
0.122 0.228 0.433 255 255 255
-0.964 -1.518 2.788 255 255 255
0.585 -0.039 0.881 255 255 255
1.442 -0.234 2.224 0 0 0
0.097 0.211 0.436 0 0 0
-0.028 0.206 0.474 255 255 255
0.176 0.022 0.48 255 255 255
0.145 -1.407 2.35 255 255 255
-1.453 -0.615 2.171 255 255 255
-0.127 -0.026 0.597 255 255 255
-0.195 -0.02 0.531 255 255 255
0.779 -0.975 2.059 0 0 0
1.322 -0.727 2.078 255 255 255
-0.518 -0.175 0.915 255 255 255
0.054 0.159 0.455 255 255 255
-0.016 -0.113 0.889 255 255 255
0.042 -0.013 0.621 255 255 255
0.552 -1.58 2.104 0 0 0
0.038 -0.284 1.17 255 255 255
0.172 0.135 0.442 255 255 255
0.435 -0.88 2.248 0 0 0
0.023 -0.055 0.73 255 255 255
0.91 -0.395 1.696 255 255 255
-1.232 -1.235 2.572 255 255 255
-0.21 0.216 0.554 255 255 255
-0.745 -1.247 2.781 0 0 0
-1.401 -0.591 2.413 255 255 255
0.154 0.063 0.426 255 255 255
-0.657 -1.164 2.857 255 255 255
0.965 -0.805 2.052 0 0 0
-0.303 -1.521 2.52 255 255 255
-0.288 0.213 0.593 255 255 255
0.148 -0.014 0.688 0 0 0
-0.207 0.32 0.62 255 255 255
-0.229 -0.12 0.794 255 255 255
-0.173 0.048 0.513 0 0 0
0.048 0.03 0.556 0 0 0
-0.042 0.038 0.544 255 255 255
0.276 -0.02 0.708 255 255 255
0.215 0.153 0.428 255 255 255
-0.07 -1.592 2.37 255 255 255
-0.535 -1.549 2.603 255 255 255
0.171 0.058 0.425 255 255 255
0.084 0.167 0.444 255 255 255
-0.34 -0.316 1.24 255 255 255
0.774 -0.888 2.099 255 255 255
-0.922 -1.223 2.482 255 255 255
0.163 0.124 0.462 255 255 255
0.195 0.025 0.456 255 255 255
0.574 -1.221 2.057 255 255 255
-0.244 0.008 0.515 0 0 0
-1.219 -1.546 2.496 255 255 255
-0.084 0.054 0.55 255 255 255
-0.08 -0.041 0.714 255 255 255
1.138 -0.869 2.062 255 255 255
0.083 -0.234 1.117 0 0 0
-0.051 0.125 0.498 0 0 0
-0.131 -1.008 2.485 255 255 255
-0.017 -0.005 0.634 0 0 0
0.924 -1.167 2.086 255 255 255
-0.142 0.043 0.528 0 0 0
-1.047 -1.917 2.565 0 0 0
0.097 0.168 0.442 255 255 255
-0.176 0.184 0.527 255 255 255
0.089 0.085 0.48 255 255 255
0.455 -0.059 0.896 255 255 255
-0.009 0.211 0.47 0 0 0
-0.195 -0.045 0.535 255 255 255
0.045 0.006 0.611 255 255 255
0.126 -0.112 0.857 255 255 255
-0.596 -1.518 2.652 255 255 255
0.114 0.028 0.592 0 0 0
-1.031 -1.848 2.612 255 255 255
-0.138 0.253 0.549 0 0 0
0.677 -1.267 2.118 0 0 0
-0.116 0.171 0.497 0 0 0
-0.299 -0.057 0.594 255 255 255
-0.155 0.266 0.566 0 0 0
-0.844 -0.997 2.935 255 255 255
-1.381 -0.588 2.46 255 255 255
0.54 -0.931 2.178 255 255 255
-0.2 0.121 0.535 255 255 255
-1.35 -1.093 2.335 255 255 255
0.385 -0.442 1.605 255 255 255
0.916 -1.155 2.098 255 255 255
-0.035 0.248 0.495 255 255 255
0.042 -1.559 2.332 255 255 255
-0.75 -1.431 2.716 0 0 0
0.346 -0.418 1.599 255 255 255
0.934 -0.588 1.868 255 255 255
-0.547 -1.877 2.495 0 0 0
-0.108 0.223 0.517 255 255 255
0.141 0.086 0.476 0 0 0
-0.155 0.182 0.517 255 255 255
0.001 0.155 0.466 255 255 255
-0.048 0.125 0.496 0 0 0
0.031 -1.488 2.368 255 255 255
-0.269 -0.066 0.639 255 255 255
0.317 0.044 0.643 0 0 0
-0.142 0.13 0.515 0 0 0
0.112 -0.43 1.627 255 255 255
0.261 -1.585 2.232 255 255 255
0.263 -0.157 0.933 255 255 255
0.28 -1.503 2.247 255 255 255
-0.079 -0.033 0.677 255 255 255
0.094 -0.226 1.113 0 0 0
0.886 -0.34 1.61 0 0 0
0.101 0.228 0.441 255 255 255
0.4 0.026 0.608 255 255 255
0.297 -0.096 0.894 255 255 255
0.967 -0.737 1.98 255 255 255
-0.13 -0.042 0.582 255 255 255
0.852 -1.173 2.118 255 255 255
-1.038 -1.09 2.429 255 255 255
-0.061 0.118 0.501 0 0 0
-0.907 -1.115 2.451 255 255 255
-0.144 0.268 0.561 255 255 255
-0.059 0.153 0.481 255 255 255
0 -0.058 0.731 255 255 255
1.301 -0.544 2.191 0 0 0
0.027 0.011 0.597 255 255 255
0.017 -0.029 0.66 255 255 255
1.514 -0.272 2.165 255 255 255
-0.247 -0.01 0.515 255 255 255
0.469 -0.938 2.205 255 255 255
-0.112 -0.025 0.618 255 255 255
0.149 0.131 0.451 255 255 255
0.529 -0.737 2.157 255 255 255
-0.428 -0.211 1.13 0 0 0
0.129 0.126 0.461 255 255 255
0.143 0.229 0.427 255 255 255
-0.053 0.116 0.5 255 255 255
0.514 -0.958 2.183 255 255 255
0.043 0.15 0.462 255 255 255
-0.265 -0.164 0.919 255 255 255
0.183 -0.759 2.289 255 255 255
-0.309 -0.043 0.582 255 255 255
-0.136 0.109 0.527 255 255 255
-0.266 -0.516 1.645 255 255 255
-0.204 -1.063 2.475 255 255 255
-0.13 0.049 0.512 255 255 255
-0.032 0.152 0.476 255 255 255
-0.056 0.024 0.542 255 255 255
0.368 -0.065 0.891 255 255 255
0.001 0.119 0.491 255 255 255
-0.044 -0.132 0.882 255 255 255
0.258 -0.229 1.169 255 255 255
-1.221 -0.82 2.796 255 255 255
-0.462 -0.059 0.639 255 255 255
-0.122 -0.032 0.594 255 255 255
0.158 0.042 0.44 255 255 255
0.043 0.124 0.478 255 255 255
-0.189 0.32 0.612 255 255 255
-0.028 0.087 0.525 255 255 255
0.065 0.153 0.457 255 255 255
-0.007 0.032 0.563 255 255 255
-0.242 0.067 0.546 255 255 255
0.259 -1.266 2.177 255 255 255
0.755 -1.207 2.13 0 0 0
0.859 -1.155 2.114 255 255 255
-0.141 0.097 0.535 255 255 255
0.764 -0.323 1.538 0 0 0
-0.942 -1.171 2.911 255 255 255
0.005 -0.038 0.706 255 255 255
0.562 -0.273 1.391 255 255 255
-0.16 0.1 0.541 0 0 0
-0.113 -0.065 0.819 0 0 0
0.537 -0.869 2.203 0 0 0
0.168 0.025 0.452 255 255 255
-0.46 -0.119 0.701 255 255 255
-0.13 0.101 0.529 255 255 255
-0.011 -0.946 2.431 0 0 0
-1.339 -1.206 2.302 255 255 255
-0.142 0.119 0.515 255 255 255
-1.188 -1.421 2.635 255 255 255
-0.705 -1.857 2.564 0 0 0
0.676 -1.034 2.087 255 255 255
-0.855 -1.1 2.902 255 255 255
-0.17 -0.005 0.537 0 0 0
-0.066 0.204 0.488 255 255 255
-1.006 -1.77 2.698 255 255 255
0.894 -1.381 2.036 255 255 255
0.162 0.115 0.457 255 255 255
-0.35 -1.576 2.515 255 255 255
-0.184 0.027 0.53 255 255 255
0.645 -0.46 1.742 255 255 255
0.527 -0.844 2.206 255 255 255
0.754 -0.73 2.168 0 0 0
-0.461 -0.124 0.705 255 255 255
-0.013 0.266 0.497 255 255 255
0.717 -0.795 2.162 255 255 255
-1.169 -0.829 2.921 255 255 255
0.161 -1.084 2.305 255 255 255
0.078 0.07 0.479 255 255 255
0.109 0.052 0.464 255 255 255
-0.213 0.018 0.487 255 255 255
-0.17 0.209 0.538 255 255 255
0.333 -0.036 0.792 255 255 255
0.217 0.074 0.466 255 255 255
0.31 -0.003 0.673 255 255 255
0.579 -0.46 1.906 255 255 255
-0.169 -0.051 0.541 255 255 255
0.279 -0.944 2.291 255 255 255
-0.306 -0.034 0.615 0 0 0
-0.237 0.108 0.55 255 255 255
0.153 -0.167 1.038 0 0 0
0.009 -1.141 2.357 255 255 255
-0.26 0.095 0.563 255 255 255
-0.074 0.178 0.482 0 0 0
-0.1 0.197 0.5 255 255 255
0.768 -0.44 1.704 255 255 255
0.207 -0.516 1.651 0 0 0
0.59 -0.873 2.179 0 0 0
0.071 -0.126 0.939 255 255 255
-0.058 0.124 0.498 0 0 0
-0.417 -0.902 2.671 0 0 0
-0.182 -0.084 0.642 255 255 255
-0.027 0.093 0.527 255 255 255
-0.063 -0.185 1.014 0 0 0
0.313 0.015 0.623 255 255 255
0.21 0.128 0.449 255 255 255
-0.006 -1.431 2.404 255 255 255
-0.129 -0.002 0.613 255 255 255
0.196 0.063 0.435 255 255 255
1.3 -0.733 2.089 255 255 255
-1.435 -0.471 2.342 255 255 255
0.174 0.001 0.527 0 0 0
-0.163 -1.209 2.532 0 0 0
-0.059 0.093 0.528 255 255 255
0.069 -0.049 0.721 255 255 255
1.352 -0.387 2.195 0 0 0
-0.275 0.064 0.552 255 255 255
0.157 0.198 0.416 0 0 0
-0.17 0.092 0.521 255 255 255
-0.303 0.125 0.56 255 255 255
-0.448 -0.131 0.734 255 255 255
-0.111 0.074 0.537 255 255 255
0.142 0.041 0.573 0 0 0
-0.411 -0.426 1.568 0 0 0
-1.167 -1.023 2.838 255 255 255
1.426 -0.368 2.168 255 255 255
0.517 -1.071 2.138 255 255 255
0.622 -0.24 1.303 255 255 255
0.344 -1.531 2.214 255 255 255
-0.131 -0.142 0.955 255 255 255
-1.515 -0.441 2.026 255 255 255
1.37 -0.612 2.102 255 255 255
-0.218 0.127 0.537 255 255 255
-0.225 -0.199 1.028 255 255 255
-0.327 -0.011 0.631 0 0 0
0.597 -1.49 2.118 255 255 255
0.743 -0.572 1.794 255 255 255
-0.833 -1.637 2.693 255 255 255
0.046 -0.245 1.137 0 0 0
-0.519 -0.186 0.929 255 255 255
-1.455 -0.696 2.158 255 255 255
0.585 -0.12 1.038 255 255 255
-1.136 -1.826 2.55 255 255 255
1.534 -0.363 2.119 255 255 255
0.163 -0.824 2.331 255 255 255
0.067 0.03 0.556 255 255 255
-1.395 -0.572 2.429 255 255 255
0.524 -0.856 2.213 0 0 0
0.066 0.135 0.469 255 255 255
-0.259 0.033 0.562 0 0 0
-0.136 -0.018 0.595 255 255 255
0.839 -1.15 2.12 255 255 255
0.148 0.072 0.428 255 255 255
0.847 -1.202 2.109 255 255 255
1.265 -0.668 2.125 255 255 255
-0.138 0.209 0.523 255 255 255
0.145 0.142 0.445 255 255 255
0.109 0.173 0.437 255 255 255
1.296 -0.686 2.104 255 255 255
0.653 -0.17 1.155 255 255 255
0.076 0.125 0.471 255 255 255
0.854 -1.43 2.036 255 255 255
-0.933 -1.957 2.615 0 0 0
-0.298 -0.091 0.672 0 0 0
0.09 0.111 0.485 255 255 255
-0.81 -1.672 2.666 255 255 255
0.94 -0.781 2.047 255 255 255
-0.047 0.003 0.634 0 0 0
0.341 0.019 0.611 255 255 255
-0.055 0.076 0.545 255 255 255
-0.466 -0.085 0.662 255 255 255
-1.118 -1.84 2.551 0 0 0
-0.158 -0.08 0.764 255 255 255
0.851 -0.928 2.051 255 255 255
-0.219 0.137 0.527 255 255 255
0.377 -0.078 0.912 255 255 255
0.845 -0.744 1.98 255 255 255
0.336 -0.046 0.822 255 255 255
-0.093 0.149 0.489 255 255 255
0.433 -0.17 1.117 255 255 255
0.41 -0.094 0.953 255 255 255
0.561 -0.267 1.374 255 255 255
0.454 -0.749 2.176 255 255 255
-0.357 0.04 0.577 255 255 255
0.81 -1.239 2.111 255 255 255
0.435 -1.127 2.143 255 255 255
0.023 0.024 0.606 255 255 255
-0.685 -1.122 2.882 255 255 255
-0.062 0.003 0.638 0 0 0
0.22 -0.036 0.814 0 0 0
0.924 -0.649 1.949 0 0 0
0.034 0.051 0.537 0 0 0
0.679 -0.89 2.14 255 255 255
0.065 0.124 0.473 255 255 255
-0.541 -1.556 2.601 255 255 255
0.1 -0.042 0.726 255 255 255
0.815 -0.728 1.981 255 255 255
0.135 -0.098 0.842 255 255 255
0.149 0.083 0.418 255 255 255
0.088 0.213 0.44 0 0 0
-0.063 0.054 0.547 255 255 255
0.162 0.089 0.404 0 0 0
-0.463 -0.501 1.731 255 255 255
0.155 0.04 0.45 0 0 0
0.059 0.144 0.46 255 255 255
-1.281 -1.199 2.455 255 255 255
-0.016 0.151 0.473 255 255 255
-0.01 0.069 0.525 255 255 255
0.119 0.029 0.592 0 0 0
0.15 0.098 0.448 255 255 255
0.882 -1.072 2.061 0 0 0
0.415 -1.066 2.187 255 255 255
-0.112 -0.067 0.819 0 0 0
0.062 0.06 0.493 0 0 0
-0.224 -0.348 1.266 255 255 255
0.122 -1.185 2.28 255 255 255
0.606 -0.133 1.07 255 255 255
-0.116 0.05 0.518 255 255 255
-0.168 -0.006 0.538 0 0 0
-0.081 0.212 0.501 255 255 255
0.074 0.093 0.508 0 0 0
-0.377 0.007 0.548 255 255 255
0.086 0.02 0.592 255 255 255
-1.054 -1.932 2.537 0 0 0
0.665 -0.552 1.815 255 255 255
0.014 0.073 0.506 255 255 255
0.842 -0.941 2.049 255 255 255
-0.148 -0.012 0.534 255 255 255
0.088 -1.571 2.309 255 255 255
0.023 -0.021 0.64 0 0 0
0.254 -0.214 1.13 255 255 255
-0.033 -1.542 2.368 255 255 255
-0.074 0.059 0.55 0 0 0
0.22 0.118 0.451 255 255 255
-1.333 -0.828 2.473 255 255 255
0.16 -0.11 0.826 0 0 0
0.426 0.028 0.612 255 255 255
0.12 0.138 0.455 255 255 255
-0.965 -1.168 2.432 255 255 255
0.387 0.043 0.574 255 255 255
0.985 -1.271 2.024 255 255 255
-0.097 -1.422 2.443 255 255 255
-1.426 -0.815 2.253 255 255 255
0.768 -1.222 2.133 255 255 255
-0.164 0.139 0.515 255 255 255
-0.188 0.055 0.5 0 0 0
0.094 -0.146 0.934 255 255 255
0.059 -0.006 0.651 0 0 0
-1.421 -0.857 2.246 255 255 255
0.414 -1.083 2.178 255 255 255
0.014 0.012 0.578 255 255 255
0.027 -0.468 1.679 255 255 255
0.426 -1.521 2.18 255 255 255
1.454 -0.414 2.128 255 255 255
0.351 -0.277 1.28 255 255 255
-0.241 0.009 0.515 0 0 0
0.244 -0.106 0.878 0 0 0
-0.234 0.094 0.56 255 255 255
-0.14 0.117 0.528 255 255 255
0.142 0.023 0.571 255 255 255
-0.297 0.182 0.579 255 255 255
0.069 0.241 0.456 255 255 255
-0.046 0.084 0.528 255 255 255
-0.324 0.07 0.576 255 255 255
0.299 -0.495 1.607 255 255 255
0.659 -0.935 2.128 255 255 255
-0.255 0.19 0.564 255 255 255
0.024 -0.05 0.716 255 255 255
-0.298 0.054 0.554 255 255 255
0.137 0.044 0.562 0 0 0
-0.788 -1.114 2.862 255 255 255
0.144 0.195 0.419 0 0 0
-0.619 -1.834 2.545 255 255 255
-0.065 -1.733 2.308 0 0 0
-1.453 -0.625 2.149 255 255 255
-0.097 0.303 0.562 255 255 255
0.434 -0.906 2.233 0 0 0
-0.16 0.045 0.515 255 255 255
0.159 -0.005 0.671 255 255 255
0.836 -0.556 1.769 255 255 255
0.76 -0.462 1.72 255 255 255
0.114 -1.488 2.335 255 255 255
0.158 0.238 0.425 255 255 255
0.343 -0.169 1.064 255 255 255
-0.345 0.096 0.584 255 255 255
-0.039 0.041 0.551 255 255 255
-0.018 -0.121 0.88 255 255 255
1.365 -0.689 2.088 255 255 255
0.115 0.21 0.431 0 0 0
0.969 -1.397 1.999 255 255 255
-0.773 -1.056 2.868 255 255 255
-0.089 0.054 0.545 255 255 255
0.236 -0.136 0.958 0 0 0
0.301 -0.023 0.743 255 255 255
0.111 0.157 0.446 255 255 255
-0.122 -0.005 0.631 255 255 255
1.044 -1.366 1.984 255 255 255
0.17 0.003 0.511 255 255 255
0.048 0.245 0.466 255 255 255
-0.513 -1.616 2.585 255 255 255
0.192 0.039 0.431 255 255 255
0.151 -0.024 0.705 255 255 255
0.38 -0.078 0.914 255 255 255
0.23 0.137 0.44 255 255 255
0.631 -0.729 2.222 0 0 0
-0.144 0.101 0.534 255 255 255
-0.122 0.145 0.499 255 255 255
0.105 0.115 0.484 255 255 255
0.143 -0.133 0.947 255 255 255
0.744 -0.78 2.155 255 255 255
1.064 -1.053 2.072 255 255 255
-0.26 0.125 0.546 255 255 255
0.081 0.074 0.481 0 0 0
0.943 -1.564 1.952 255 255 255
0.748 -0.372 1.67 0 0 0
0.873 -0.482 1.703 255 255 255
-0.7 -1.118 2.868 255 255 255
0.251 0.107 0.456 255 255 255
-1.469 -0.511 2.134 255 255 255
-0.141 0.093 0.545 255 255 255
0.511 -0.08 0.922 255 255 255
0.062 0.095 0.515 0 0 0
0.096 0.164 0.444 255 255 255
-0.183 0.212 0.544 255 255 255
0.068 -0.021 0.713 0 0 0
0.155 0.076 0.468 0 0 0
1.467 -0.252 2.192 0 0 0
-0.513 -1.657 2.568 255 255 255
-0.323 0.01 0.642 0 0 0
-0.502 -1.001 2.685 255 255 255
-0.856 -1.776 2.652 255 255 255
0.355 -1.594 2.188 0 0 0
0.175 0.014 0.489 255 255 255
-1.179 -1.511 2.632 255 255 255
0.249 0.063 0.472 255 255 255
-0.05 -0.124 0.888 255 255 255
0.169 0.127 0.457 255 255 255
-0.16 0.021 0.535 0 0 0
-0.301 -0.075 0.62 255 255 255
0.231 0.023 0.512 0 0 0
0.895 -0.917 2.038 255 255 255
0.11 -0.195 1.054 255 255 255
-0.2 -0.031 0.504 255 255 255
-0.245 0.05 0.545 255 255 255
0.155 0.209 0.418 255 255 255
-0.284 -0.075 0.62 255 255 255
0.158 0.074 0.476 0 0 0
-0.186 0.023 0.495 255 255 255
0.398 -0.034 0.797 255 255 255
-0.225 0.102 0.548 255 255 255
-0.077 0.021 0.541 255 255 255
-0.282 -0.075 0.619 255 255 255
-0.102 0.2 0.502 255 255 255
-0.772 -1.385 2.747 255 255 255
0.448 -0.035 0.825 255 255 255
-0.258 0.237 0.589 255 255 255
-0.419 -0.108 0.773 0 0 0
0.131 -0.24 1.179 0 0 0
0.015 0.212 0.465 0 0 0
0.32 0.046 0.621 0 0 0
-0.196 -0.141 1.029 0 0 0
0.566 -0.222 1.256 0 0 0
0.847 -1.379 2.055 255 255 255
0.106 0.16 0.443 255 255 255
0.582 -0.123 1.042 255 255 255
0.109 0.125 0.464 255 255 255
1.405 -0.301 2.201 0 0 0
0.246 0.12 0.451 255 255 255
-0.215 -0.314 1.22 255 255 255
0.228 0.109 0.459 255 255 255
0.93 -0.495 1.718 255 255 255
0.588 -0.123 1.043 255 255 255
0.577 -1.449 2.137 255 255 255
-0.124 -1.322 2.484 255 255 255
0.058 0.021 0.57 255 255 255
-1.444 -0.579 2.309 255 255 255
0.139 0.14 0.447 255 255 255
0.9 -1.309 2.054 255 255 255
-0.317 -0.043 0.572 255 255 255
-0.099 0.017 0.546 255 255 255
0.228 0.03 0.494 255 255 255
0.755 -0.424 1.669 0 0 0
-0.388 0.002 0.532 255 255 255
0.094 0.049 0.493 0 0 0
0.72 -1.088 2.035 0 0 0
-0.492 -1.42 2.64 255 255 255
-0.292 -0.851 2.563 0 0 0
-0.155 0.125 0.521 0 0 0
-1.154 -1.833 2.542 0 0 0
0.424 -0.998 2.202 255 255 255
0.354 -1.571 2.193 255 255 255
0.578 -0.487 1.971 255 255 255
-0.461 -1.31 2.667 255 255 255
0.991 -0.702 1.964 255 255 255
-0.043 0.013 0.565 0 0 0
-0.01 0.027 0.559 255 255 255
0.294 0.094 0.488 255 255 255
-0.309 -0.058 0.587 255 255 255
0.06 0.248 0.462 255 255 255
1.498 -0.42 2.116 255 255 255
0.128 -0.935 2.372 0 0 0
0.069 -1.089 2.343 255 255 255
0.109 -0.009 0.634 0 0 0
0.018 0.06 0.514 255 255 255
0.007 -0.089 0.884 255 255 255
-0.011 0.059 0.524 0 0 0
0.153 -0.211 1.115 255 255 255
-0.518 -0.406 1.592 0 0 0
-0.258 0.206 0.572 255 255 255
-1.313 -0.954 2.483 255 255 255
0.155 0.059 0.431 0 0 0
0.525 -1.616 2.111 0 0 0
-0.197 -0.04 0.525 255 255 255
0.121 -0.837 2.354 255 255 255
-0.619 -1.793 2.565 255 255 255
-1.267 -1.31 2.432 255 255 255
-0.257 0.196 0.566 255 255 255
-0.049 0.046 0.557 255 255 255
-0.074 0.083 0.546 0 0 0
0.009 -0.281 1.178 255 255 255
-0.745 -1.655 2.638 0 0 0
0.701 -0.751 2.183 255 255 255
-0.157 0.295 0.587 255 255 255
0.6 -1.421 2.138 255 255 255
0.236 0.12 0.45 255 255 255
-0.065 0.248 0.508 255 255 255
0.718 -1.509 2.054 0 0 0
0.535 -0.058 0.884 255 255 255
-1.337 -0.997 2.389 255 255 255
-0.16 0.308 0.598 255 255 255
0.247 -0.087 0.857 255 255 255
-0.222 -1.41 2.533 255 255 255
0.15 0.195 0.418 0 0 0
-0.053 0.288 0.525 255 255 255
-0.157 -0.197 1.109 0 0 0
-0.03 0.103 0.515 255 255 255
0.085 0.01 0.609 0 0 0
-0.007 -0.181 0.902 0 0 0
0.052 0.065 0.484 0 0 0
0.365 0.022 0.609 255 255 255
-0.087 0.124 0.506 255 255 255
-0.254 -0.043 0.607 255 255 255
0.188 -0.023 0.595 0 0 0
0.206 0.122 0.45 255 255 255
0.508 -0.133 1.053 255 255 255
-0.189 0.18 0.533 255 255 255
-0.301 0.119 0.562 255 255 255
0.224 0.123 0.448 255 255 255
0.162 -0.068 0.786 255 255 255
0.793 -1.034 2.036 255 255 255
0.054 0.172 0.446 255 255 255
0.062 0.071 0.482 0 0 0
0.329 -0.083 0.958 0 0 0
-0.154 0.007 0.532 0 0 0
0.074 0.154 0.454 255 255 255
-0.406 -0.32 1.303 255 255 255
0.086 0.171 0.441 255 255 255
0.085 0.016 0.6 255 255 255
0.218 0.123 0.448 255 255 255
0.987 -0.761 1.986 0 0 0
0.056 0.185 0.441 255 255 255
-0.007 0.097 0.517 255 255 255
-0.172 0.197 0.532 255 255 255
1.458 -0.395 2.136 255 255 255
0.927 -0.489 1.712 255 255 255
0.311 -0.112 0.924 255 255 255
-0.322 -0.211 1.042 255 255 255
0.784 -1.257 2.119 255 255 255
-0.161 -0.226 1.169 0 0 0
0.166 -1.092 2.298 255 255 255
0.182 0.144 0.436 255 255 255
-0.045 0.008 0.588 255 255 255
-0.167 0.066 0.528 0 0 0
0.24 0.129 0.442 255 255 255
0.027 0.168 0.451 255 255 255
-0.13 -0.114 0.937 255 255 255
0.871 -0.665 1.957 255 255 255
-1.469 -0.477 2.14 255 255 255
-0.187 0.029 0.509 255 255 255
-0.166 0.033 0.531 255 255 255
0.063 0.103 0.498 255 255 255
-0.716 -1.164 2.813 255 255 255
0.312 -0.983 2.267 255 255 255
-0.042 0.144 0.482 255 255 255
0.32 -0.278 1.254 255 255 255
0.632 -0.64 2.259 0 0 0
-0.105 -0.166 0.982 255 255 255
-0.409 0.017 0.616 0 0 0
-0.324 -0.014 0.625 0 0 0
0.363 -1.451 2.229 255 255 255
-0.048 0.004 0.632 0 0 0
0.307 -1.289 2.162 255 255 255
-0.342 -0.004 0.578 255 255 255
-0.036 0.05 0.563 0 0 0
-0.441 -0.12 0.786 255 255 255
0.185 -1.43 2.323 255 255 255
-1.005 -1.536 2.786 255 255 255
0.004 0.029 0.57 255 255 255
0.096 -0.006 0.605 255 255 255
0.043 -0.123 0.939 255 255 255
-0.262 -1.422 2.54 255 255 255
-0.218 0.099 0.549 255 255 255
-0.147 -0.8 2.551 0 0 0
-0.341 0.098 0.58 255 255 255
0.654 -0.271 1.405 255 255 255
0.076 0.161 0.451 255 255 255
0.123 0.174 0.433 255 255 255
-0.343 -0.005 0.572 255 255 255
0.813 -0.444 1.692 255 255 255
0.705 -1.511 2.061 0 0 0
-0.073 0.161 0.476 255 255 255
0.119 -0.777 2.318 255 255 255
0.966 -1.209 2.055 255 255 255
-0.018 -0.446 1.706 255 255 255
-0.927 -1.155 2.909 255 255 255
0.949 -0.885 2.03 255 255 255
0.356 -0.064 0.886 255 255 255
-0.311 -0.035 0.588 255 255 255
0.057 0.136 0.466 255 255 255
-0.825 -1.635 2.691 255 255 255
0.24 -0.443 1.628 255 255 255
0.003 0.073 0.512 255 255 255
0.347 -1.042 2.226 255 255 255
0.373 -0.822 2.266 255 255 255
-0.171 0.082 0.539 255 255 255
0.676 -0.15 1.133 255 255 255
0.043 -0.019 0.632 255 255 255
0.127 0.184 0.427 255 255 255
-0.343 0.037 0.569 255 255 255
0.039 0.154 0.46 255 255 255
0.074 0.048 0.519 255 255 255
0.861 -1.192 2.108 255 255 255
-0.524 -1.33 2.687 255 255 255
0.898 -0.49 1.709 255 255 255
-0.007 0.12 0.491 255 255 255
-0.023 0.01 0.565 255 255 255
-0.034 0.249 0.495 255 255 255
0.655 -0.931 2.13 255 255 255
-0.223 -0.273 1.13 255 255 255
0.04 -0.455 1.658 255 255 255
-1.06 -1.557 2.656 255 255 255
0.041 0.159 0.457 255 255 255
0.473 -1.459 2.178 255 255 255
0.152 0.102 0.431 255 255 255
0.152 0.026 0.53 255 255 255
0.09 0.009 0.602 0 0 0
0.97 -0.902 2.014 255 255 255
0.084 -0.026 0.688 255 255 255
-0.184 0.08 0.525 255 255 255
-0.079 -0.42 1.553 255 255 255
-0.371 0.048 0.586 255 255 255
-0.277 0.203 0.579 255 255 255
0.131 0.103 0.492 0 0 0
0.156 0.19 0.417 0 0 0
-0.147 0.219 0.532 255 255 255
-0.866 -1.185 2.874 255 255 255
-1.392 -0.572 2.435 255 255 255
-0.269 -1.645 2.462 255 255 255
0.043 0.224 0.46 255 255 255
-0.184 -0.842 2.541 0 0 0
-1.455 -0.471 2.237 0 0 0
0.235 -0.193 1.08 255 255 255
-0.038 0.211 0.48 255 255 255
0.075 0.155 0.453 0 0 0
-0.158 -1.256 2.526 255 255 255
0.016 0.208 0.463 0 0 0
0.17 -0.152 1.004 0 0 0
-0.021 0.023 0.553 255 255 255
0.328 -1.086 2.216 255 255 255
-1.19 -0.893 2.837 0 0 0
-0.589 -1.499 2.657 255 255 255
0.013 0.076 0.506 255 255 255
-0.96 -1.203 2.441 255 255 255
0.857 -0.351 1.625 0 0 0
-0.145 -0.95 2.483 255 255 255
-0.255 -0.156 0.905 255 255 255
0.223 -0.155 0.942 0 0 0
-0.038 0.189 0.474 255 255 255
-0.356 -1.596 2.512 255 255 255
0.067 0.042 0.53 0 0 0
-0.331 -0.027 0.559 255 255 255
0.198 0.121 0.45 255 255 255
1.288 -0.686 2.109 255 255 255
0.102 0.133 0.462 255 255 255
0.321 -0.957 2.269 255 255 255
-0.03 0.144 0.485 255 255 255
0.031 -0.174 0.903 255 255 255
0.123 0.073 0.481 255 255 255
-1.266 -0.707 2.702 255 255 255
-1.167 -1.383 2.681 255 255 255
0.259 -0.125 0.929 0 0 0
0.05 0.105 0.498 255 255 255
0.065 0.213 0.449 0 0 0
-0.001 -1.107 2.371 255 255 255
0.192 -0.449 1.655 0 0 0
0.283 -0.192 1.079 255 255 255
0.095 0.072 0.478 0 0 0
0.156 0.042 0.445 0 0 0
-0.085 0.107 0.511 255 255 255
-0.171 -0.063 0.563 255 255 255
0.012 0.087 0.507 255 255 255
-0.246 0.079 0.575 255 255 255
0.509 -0.193 1.202 255 255 255
0.219 -0.544 1.657 255 255 255
-1.228 -1.47 2.482 255 255 255
0.141 -0.184 1.025 0 0 0
-0.081 0.151 0.485 255 255 255
-0.438 0.01 0.607 0 0 0
0.17 0.165 0.43 255 255 255
0.017 0.011 0.582 255 255 255
-0.488 -0.067 0.639 255 255 255
0.795 -1.194 2.129 255 255 255
-0.085 0.122 0.505 255 255 255
0.627 -1.023 2.107 255 255 255
0.017 -0.005 0.603 255 255 255
-0.694 -1.787 2.603 255 255 255
-0.739 -1.649 2.642 0 0 0
-0.051 0.02 0.55 255 255 255
0.188 -0.084 0.813 255 255 255
0.051 0.028 0.557 255 255 255
-0.013 0.145 0.479 255 255 255
-0.194 0.181 0.534 255 255 255
0.121 -0.135 0.911 255 255 255
-0.05 0.147 0.482 255 255 255
-0.384 -0.017 0.547 255 255 255
-0.108 0.158 0.487 255 255 255
-1.313 -0.728 2.572 255 255 255
-0.458 -0.902 2.684 255 255 255
-1.281 -0.926 2.559 255 255 255
-0.153 0.137 0.515 255 255 255
-0.118 -0.037 0.603 255 255 255
0.161 -1.142 2.285 255 255 255
0.094 -0.989 2.37 255 255 255
-0.047 0.097 0.519 255 255 255
-0.167 0.019 0.536 0 0 0
-0.039 0 0.635 0 0 0
-0.868 -1.998 2.57 255 255 255
0.187 0.161 0.431 255 255 255
-0.031 -1.149 2.374 255 255 255
-1.256 -1.384 2.423 255 255 255
-0.168 0.113 0.526 255 255 255
0.145 0.148 0.441 255 255 255
0.59 -1.087 2.092 255 255 255
-0.274 0.078 0.583 255 255 255
-0.067 0.273 0.525 255 255 255
0.068 0.193 0.44 255 255 255
-0.496 -0.176 0.956 255 255 255
0.304 -1.223 2.169 255 255 255
0.119 0.137 0.456 255 255 255
-0.011 -0.751 2.414 255 255 255
-1.267 -0.908 2.606 255 255 255
0.35 -1.521 2.218 255 255 255
-1.288 -0.936 2.531 255 255 255
0.148 0.162 0.435 255 255 255
0.585 -0.093 0.983 255 255 255
-0.147 -1.392 2.469 255 255 255
-0.189 -0.051 0.534 255 255 255
-0.101 0.145 0.493 255 255 255
0.253 0.101 0.456 255 255 255
-0.496 -0.984 2.689 255 255 255
1.457 -0.386 2.145 255 255 255
0.59 -1.083 2.094 255 255 255
1.146 -0.954 2.009 255 255 255
0.426 -0.008 0.725 255 255 255
-0.001 0.094 0.526 0 0 0
0.09 0.061 0.488 255 255 255
0.937 -0.649 1.944 255 255 255
-0.162 -0.202 1.112 255 255 255
-0.952 -1.975 2.625 0 0 0
-0.523 -1.45 2.64 255 255 255
-0.412 -0.127 0.844 0 0 0
-0.056 0.164 0.472 255 255 255
0.173 0.136 0.441 255 255 255
-0.311 -0.046 0.579 255 255 255
0.402 -1.054 2.198 255 255 255
-0.326 0.067 0.573 255 255 255
-0.442 -0.116 0.715 255 255 255
0.923 -1.434 2.003 0 0 0
-0.962 -1.16 2.428 255 255 255
-0.289 0.024 0.575 255 255 255
-1.355 -0.932 2.365 255 255 255
0.372 -0.844 2.283 0 0 0
-0.048 -0.094 0.893 255 255 255
0.305 -0.184 1.066 255 255 255
-0.019 0.05 0.533 255 255 255
0.222 -0.001 0.539 0 0 0
-0.294 -0.037 0.622 0 0 0
0.012 0.069 0.506 255 255 255
0.146 -1.224 2.255 255 255 255
0.273 -0.131 0.884 0 0 0
-0.07 -1.513 2.396 255 255 255
0.223 -0.148 0.945 0 0 0
0.295 0.05 0.608 0 0 0
-0.198 -1.048 2.468 255 255 255
0.464 -0.985 2.192 255 255 255
-0.058 0.233 0.497 0 0 0
0.024 0.1 0.511 255 255 255
-0.298 -0.059 0.595 255 255 255
-1.187 -1.006 2.823 0 0 0
-0.857 -1.784 2.651 255 255 255
-1.259 -1.495 2.374 255 255 255
0.63 -0.069 0.969 255 255 255
0.002 0.168 0.458 255 255 255
-0.351 -0.522 1.654 255 255 255
-0.12 0.119 0.52 255 255 255
0.218 -0.254 1.177 255 255 255
-0.053 0.208 0.484 255 255 255
0.003 0.058 0.515 255 255 255
-1.36 -0.943 2.36 255 255 255
-0.19 -0.157 1.04 255 255 255
0.238 0.106 0.457 255 255 255
0.039 0.218 0.46 0 0 0
0.121 0.154 0.446 255 255 255
0.113 -0.099 0.852 0 0 0
0.033 0.034 0.609 0 0 0
-0.957 -1.561 2.773 255 255 255
-0.004 -0.038 0.707 255 255 255
-0.017 0.018 0.557 255 255 255
-0.058 0.13 0.497 255 255 255
0.133 0.148 0.444 255 255 255
-1.228 -0.642 2.811 0 0 0
1.361 -0.457 2.161 0 0 0
0.026 0.25 0.477 255 255 255
0.022 0.255 0.48 255 255 255
-1.326 -1.231 2.293 255 255 255
0.163 -0.468 1.663 255 255 255
-1.001 -1.841 2.672 255 255 255
-0.126 -0.998 2.489 255 255 255
-0.231 0.095 0.553 255 255 255
0.667 -0.97 2.111 255 255 255
0.799 -1.559 2.004 255 255 255
-0.31 -1.702 2.457 255 255 255
0.213 -0.06 0.819 255 255 255
0.111 0.229 0.438 255 255 255
0.008 0.17 0.455 255 255 255
-0.834 -1.573 2.724 255 255 255
0.907 -0.878 2.052 0 0 0
-0.083 0.183 0.489 255 255 255
0.879 -0.629 1.939 255 255 255
0.032 0.071 0.491 255 255 255
0.125 -0.078 0.81 0 0 0
0.173 0.024 0.445 255 255 255
-0.168 0.082 0.54 255 255 255
0.383 -0.781 2.219 255 255 255
-0.22 0.32 0.61 255 255 255
0.122 0.182 0.428 255 255 255
0.022 -0.038 0.707 255 255 255
0.095 0.054 0.473 0 0 0
-0.108 -1.284 2.496 255 255 255
0.358 -0.017 0.738 255 255 255
0.04 0.055 0.482 0 0 0
-0.068 -0.026 0.665 255 255 255
1.492 -0.233 2.192 0 0 0
0.471 -0.066 0.9 0 0 0
0.161 -1.12 2.286 255 255 255
0.088 -0.003 0.602 255 255 255
0.612 -1.195 2.044 0 0 0
-0.138 -0.05 0.582 255 255 255
0.171 -0.062 0.785 255 255 255
0.01 -1.492 2.375 255 255 255
-0.245 0.073 0.564 255 255 255
-0.28 0.227 0.596 255 255 255
0.922 -1.084 2.111 0 0 0
-0.202 -0.022 0.532 255 255 255
0.456 -1.201 2.1 255 255 255
0.799 -0.462 1.706 255 255 255
-0.027 0.146 0.483 255 255 255
-0.057 0.154 0.479 255 255 255
-0.327 -0.008 0.637 0 0 0
-0.053 0.102 0.516 255 255 255
0.874 -0.416 1.681 255 255 255
-0.214 -0.329 1.255 255 255 255
1.44 -0.372 2.159 255 255 255
-0.142 -0.013 0.543 255 255 255
-0.176 -0.332 1.282 255 255 255
-0.053 0.11 0.509 255 255 255
0.083 -0.003 0.606 0 0 0
-0.06 -0.206 1.067 255 255 255
-0.753 -1.201 2.799 255 255 255
-0.051 0.169 0.471 255 255 255
0.197 -0.826 2.321 255 255 255
0.767 -1.383 2.081 255 255 255
-0.24 0.174 0.55 255 255 255
-0.204 -0.497 1.71 255 255 255
1.412 -0.373 2.174 255 255 255
-0.311 -0.063 0.596 255 255 255
0.135 0.221 0.427 255 255 255
-0.284 0.268 0.627 255 255 255
-0.285 -1.448 2.537 255 255 255
0.309 -1.259 2.15 255 255 255
0.994 -0.834 2.028 255 255 255
-0.109 -0.142 0.931 255 255 255
0.023 0.075 0.512 255 255 255
0.167 0.088 0.397 0 0 0
-0.379 -0.04 0.562 0 0 0
-0.928 -1.883 2.653 255 255 255
0.176 0.025 0.443 255 255 255
-1.419 -0.815 2.274 255 255 255
0.119 -0.197 1.055 0 0 0
0.157 0.082 0.404 255 255 255
0.599 -0.139 1.082 255 255 255
-0.305 -1.129 2.511 255 255 255
0.108 -0.001 0.601 255 255 255
-0.045 0.171 0.469 255 255 255
-1.003 -1.952 2.628 0 0 0
0.065 -0.188 0.975 255 255 255
-1.418 -0.741 2.311 255 255 255
0.023 0.029 0.606 255 255 255
0.1 -0.01 0.623 255 255 255
-0.387 0.012 0.591 0 0 0
-0.029 0.224 0.481 0 0 0
0.95 -0.694 1.953 255 255 255
-0.114 -1.236 2.514 255 255 255
-0.787 -1.107 2.86 255 255 255
-0.818 -1.061 2.894 255 255 255
-0.227 0.251 0.586 255 255 255
0.369 0.04 0.585 255 255 255
0.068 0.196 0.442 255 255 255
0.93 -0.386 1.685 255 255 255
-0.067 0.051 0.549 0 0 0
0.214 -0.007 0.558 0 0 0
-0.213 0.043 0.511 255 255 255
-0.061 -0.026 0.666 255 255 255
0.059 0.217 0.452 0 0 0
0.847 -0.48 1.703 255 255 255
-0.424 -1.206 2.687 255 255 255
0.45 -0.09 0.936 255 255 255
-0.183 0.16 0.517 255 255 255
0.732 -0.842 2.134 255 255 255
0.204 -0.52 1.652 0 0 0
0.15 0.007 0.578 255 255 255
0.028 0.229 0.466 255 255 255
-0.068 0.198 0.487 255 255 255
-0.454 -0.128 0.713 255 255 255
0.302 -1.629 2.203 0 0 0
0.149 -0.075 0.795 0 0 0
-0.326 -0.054 0.576 255 255 255
0.219 0.106 0.459 255 255 255
0.098 0.003 0.596 0 0 0
0.71 -0.245 1.338 255 255 255
0.186 0.085 0.407 255 255 255
-1.457 -0.47 2.325 0 0 0
-0.274 -1.649 2.457 255 255 255
0.012 0.201 0.462 255 255 255
0.023 0.186 0.452 255 255 255
-0.245 0.065 0.544 255 255 255
-0.144 0.007 0.533 255 255 255
0.051 -0.079 0.925 0 0 0
0.132 -0.004 0.652 255 255 255
-1.19 -1.519 2.604 255 255 255
0.238 -1.388 2.282 0 0 0
-0.027 -0.107 0.897 0 0 0
-0.473 -1.416 2.634 255 255 255
0.38 0.066 0.616 255 255 255
-0.401 -0.142 0.891 0 0 0
-0.154 0.013 0.532 0 0 0
0.144 0.005 0.635 0 0 0
0.015 0.161 0.458 255 255 255
-0.182 0.04 0.516 255 255 255
0.599 -1.17 2.061 255 255 255
-0.124 0.108 0.522 0 0 0
-0.087 0.081 0.553 0 0 0
0.417 0.002 0.697 255 255 255
-0.101 0.141 0.497 0 0 0
0.011 0.099 0.511 255 255 255
-0.239 -0.501 1.657 255 255 255
0.816 -1.16 2.124 255 255 255
0.006 0.23 0.473 255 255 255
0.531 -0.115 1.027 255 255 255
-0.088 0.056 0.551 0 0 0
0.135 -1.381 2.361 255 255 255
0.296 -0.415 1.622 255 255 255
0.437 -0.964 2.208 255 255 255
0.372 0.053 0.653 0 0 0
-0.08 -0.293 1.321 255 255 255
0.891 -1.544 1.967 255 255 255
-0.552 -1.734 2.555 255 255 255
0.111 -0.036 0.719 255 255 255
0.222 0.055 0.434 0 0 0
-0.157 -0.401 1.502 0 0 0
-0.062 -1.056 2.424 255 255 255
-0.015 0.23 0.478 255 255 255
0.196 0.166 0.428 255 255 255
-0.042 0.283 0.519 255 255 255
0.108 0.106 0.499 0 0 0
0.108 0.181 0.431 255 255 255
-0.207 0.003 0.471 255 255 255
-0.354 0.014 0.621 255 255 255
-0.184 -0.805 2.549 0 0 0
-0.09 0.188 0.494 255 255 255
-0.02 -0.006 0.636 255 255 255
-1.359 -0.846 2.406 255 255 255
0.144 -0.229 1.17 255 255 255
-0.068 -0.152 0.939 255 255 255
0.387 -0.226 1.172 255 255 255
-0.112 -0.052 0.8 0 0 0
0.093 0.201 0.435 0 0 0
0.22 -0.424 1.637 0 0 0
0.524 -0.171 1.149 255 255 255
0.017 0.059 0.514 255 255 255
-0.182 -0.08 0.621 255 255 255
-0.239 0.117 0.548 255 255 255
-0.181 -0.026 0.536 255 255 255
0.036 -0.018 0.626 255 255 255
0.003 0.037 0.572 255 255 255
0.14 0.163 0.437 255 255 255
-0.059 0.016 0.554 255 255 255
0.023 -0.098 0.885 255 255 255
-0.21 -0.056 0.546 255 255 255
-0.053 -0.034 0.68 255 255 255
0.034 0.175 0.447 255 255 255
-0.288 -0.018 0.602 255 255 255
0.026 0.194 0.453 255 255 255
-0.132 0.32 0.587 255 255 255
0.753 -0.396 1.579 0 0 0
0.006 0.074 0.507 255 255 255
0.033 0.066 0.5 255 255 255
0.006 0.199 0.464 255 255 255
0.075 0.05 0.515 255 255 255
-0.025 0.074 0.531 255 255 255
-0.367 -0.002 0.543 255 255 255
0.643 -0.768 2.201 0 0 0
0.132 0.193 0.422 0 0 0
-0.449 -0.023 0.597 255 255 255
0.153 0.21 0.42 255 255 255
0.099 0.088 0.478 255 255 255
0.31 -1.108 2.218 255 255 255
-1.393 -0.665 2.397 255 255 255
0.008 0.085 0.506 255 255 255
0.059 0.176 0.442 255 255 255
-0.351 -1.774 2.439 0 0 0
-0.505 -0.182 0.95 255 255 255
0.049 -0.085 0.956 0 0 0
-0.199 0.051 0.502 255 255 255
0.455 -0.101 0.969 0 0 0
-0.259 0.224 0.588 255 255 255
0.09 -0.443 1.64 255 255 255
0.706 -0.866 2.138 255 255 255
-0.356 -0.015 0.56 0 0 0
-0.233 0.16 0.54 255 255 255
0.008 -0.003 0.621 0 0 0
-0.882 -1.934 2.605 0 0 0
-0.04 0.282 0.517 255 255 255
1.268 -0.631 2.138 255 255 255
-0.217 0.23 0.571 255 255 255
-0.191 -0.34 1.312 0 0 0
0.54 -0.115 1.029 255 255 255
-0.238 0.154 0.537 255 255 255
0.519 -1.394 2.178 255 255 255
0.282 -0.201 1.091 0 0 0
0.2 0.156 0.431 255 255 255
1.322 -0.611 2.121 255 255 255
0.312 0.02 0.622 255 255 255
0.077 0.053 0.511 255 255 255
-0.021 0.191 0.468 255 255 255
0.018 0.006 0.582 255 255 255
0.033 0.178 0.446 255 255 255
0.25 -0.101 0.871 0 0 0
-0.274 -1.338 2.581 255 255 255
0.066 0.033 0.548 255 255 255
-0.17 -1.569 2.427 255 255 255
0.204 -0.029 0.592 0 0 0
0.157 -0.031 0.728 255 255 255
-0.208 -0.135 1.028 0 0 0
-0.509 -0.936 2.708 255 255 255
-0.138 -0.039 0.562 255 255 255
0.273 -0.416 1.63 255 255 255
-0.061 0.122 0.499 0 0 0
0.242 -0.149 0.924 0 0 0
-0.226 -0.217 1.03 255 255 255
-0.056 0.14 0.486 255 255 255
-0.198 0.012 0.483 255 255 255
-0.332 0.007 0.628 0 0 0
0.73 -0.771 2.162 255 255 255
0.151 0.029 0.446 0 0 0
-1.278 -1.253 2.431 255 255 255
-0.158 0.209 0.532 255 255 255
-0.064 0.204 0.487 255 255 255
-1.342 -0.771 2.477 255 255 255
0.147 -0.544 1.709 0 0 0
0.396 0.061 0.645 0 0 0
0.089 0.015 0.602 0 0 0
-1.486 -0.492 2.106 255 255 255
0.151 0.107 0.482 0 0 0
0.024 -1.131 2.348 255 255 255
-0.662 -1.911 2.545 0 0 0
0.059 -0.162 0.928 255 255 255
-0.239 -1.54 2.487 255 255 255
-0.035 0.216 0.48 0 0 0
0.256 0.064 0.472 255 255 255
0.217 -0.455 1.635 255 255 255
0.083 -1.606 2.299 255 255 255
0.191 0.044 0.429 255 255 255
-0.043 0.283 0.519 255 255 255
-0.099 -0.077 0.825 255 255 255
0.624 -0.115 1.039 255 255 255
0.113 0.112 0.489 255 255 255
-0.252 0.154 0.545 255 255 255
-0.308 -0.033 0.613 0 0 0
0.269 -0.962 2.284 255 255 255
1.233 -0.625 2.15 0 0 0
0.066 -0.265 1.164 255 255 255
-1.281 -0.731 2.644 255 255 255
