ply
format ascii 1.0
comment Created by Open3D
element vertex 1623
property double x
property double y
property double z
property uchar red
property uchar green
property uchar blue
end_header
-0.093 0.086 0.551 255 255 255
0.04 0.198 0.464 255 255 255
0.402 -1.485 2.237 255 255 255
-0.118 0.066 0.556 255 255 255
0.018 -0.116 0.896 0 0 0
1.226 -0.874 2.058 255 255 255
-0.245 0.133 0.561 255 255 255
-1.318 -0.861 2.299 255 255 255
0.28 -0.942 2.341 0 0 0
-0.184 0.104 0.552 255 255 255
0.181 -0.221 1.091 255 255 255
0.439 -0.051 0.819 255 255 255
-0.234 -0.088 0.63 255 255 255
0.041 -0.047 0.706 255 255 255
-0.258 0.15 0.578 255 255 255
-0.111 -0.006 0.591 255 255 255
-0.281 -0.453 1.525 255 255 255
0.793 -0.39 1.694 0 0 0
0.626 -1.03 2.122 255 255 255
0.999 -0.416 1.634 255 255 255
0.24 0.089 0.436 255 255 255
0.088 -0.449 1.662 255 255 255
-0.362 0.067 0.627 255 255 255
0.149 0.129 0.452 255 255 255
0.177 0.19 0.416 0 0 0
-0.152 -1.78 2.409 0 0 0
-0.25 0.179 0.588 255 255 255
-0.534 -1.621 2.676 255 255 255
0.145 -0.183 0.985 255 255 255
0.497 -0.006 0.693 255 255 255
0.058 -0.024 0.633 0 0 0
0.381 -1.282 2.141 255 255 255
0.85 -0.752 2.135 255 255 255
0.013 0.131 0.483 255 255 255
-0.256 -1.376 2.617 255 255 255
-0.079 -0.127 0.939 255 255 255
-0.134 0.194 0.541 255 255 255
-0.749 -1.096 2.948 255 255 255
0.062 0.241 0.472 255 255 255
0.723 -0.448 1.735 255 255 255
0.769 -0.465 1.712 255 255 255
0.135 0.166 0.435 255 255 255
0.193 -0.232 1.134 255 255 255
0.402 -1.565 2.208 255 255 255
0.623 -0.78 2.123 255 255 255
-0.037 -0.127 0.921 255 255 255
-0.021 0.019 0.541 255 255 255
-0.099 0.051 0.532 255 255 255
-0.534 -1.204 2.855 255 255 255
-0.126 -0.043 0.543 255 255 255
0.213 -0.081 0.793 255 255 255
-0.184 0.228 0.586 255 255 255
0.346 0.019 0.61 0 0 0
0.183 0.017 0.525 0 0 0
-0.413 -0.13 0.72 255 255 255
-1.291 -1.089 2.269 255 255 255
-1.356 -0.689 2.236 255 255 255
0.299 -0.077 0.823 255 255 255
-0.034 0.179 0.487 0 0 0
1.11 -1.204 2.01 255 255 255
-0.316 -1.351 2.655 255 255 255
-1.29 -0.998 2.294 255 255 255
0.549 -0.05 0.831 0 0 0
-0.319 0.209 0.643 255 255 255
0.861 -1.57 1.975 255 255 255
-0.264 0.013 0.589 255 255 255
0.173 0.036 0.562 0 0 0
-0.175 -0.225 1.183 0 0 0
0.6 -0.103 0.967 255 255 255
-0.261 0.18 0.593 255 255 255
-0.323 0.029 0.591 255 255 255
0.918 -1.539 1.971 255 255 255
0.856 -1.487 2.016 0 0 0
-0.08 0.001 0.565 255 255 255
-0.082 -0.248 1.127 255 255 255
1.363 -0.724 2.067 255 255 255
0.547 -0.891 2.219 0 0 0
0.02 -0.048 0.707 255 255 255
-0.201 0.122 0.544 255 255 255
-0.085 0.298 0.583 255 255 255
-0.712 -1.452 2.793 255 255 255
-0.035 0.231 0.509 0 0 0
-0.101 -0.003 0.596 255 255 255
0.746 -1.442 2.072 255 255 255
-0.275 -1.761 2.481 255 255 255
1.015 -1.128 2.059 255 255 255
-0.44 -0.136 0.697 255 255 255
0.876 -1.402 2.035 255 255 255
0.097 0.106 0.48 255 255 255
0.06 0.258 0.481 255 255 255
-0.119 -0.025 0.541 0 0 0
-0.223 0.15 0.562 255 255 255
0.369 -0.047 0.788 255 255 255
0.197 0.041 0.42 255 255 255
-0.897 -1.545 2.799 255 255 255
-0.27 -0.04 0.634 0 0 0
0.169 -1.038 2.365 255 255 255
-0.804 -1.21 2.931 255 255 255
0.146 0.039 0.54 255 255 255
-0.269 0.063 0.587 255 255 255
-0.122 0.16 0.517 0 0 0
-0.24 0.331 0.65 255 255 255
0.2 -0.738 2.319 255 255 255
0.373 -0.495 1.587 255 255 255
-0.38 -0.01 0.541 255 255 255
-1.246 -0.652 2.541 255 255 255
0.102 0.102 0.488 255 255 255
-0.207 0.258 0.62 255 255 255
-0.18 -0.17 0.953 255 255 255
0.232 0.06 0.433 255 255 255
0.087 0.217 0.454 0 0 0
0.644 -1.042 2.11 255 255 255
-0.402 -1.702 2.56 255 255 255
0.977 -1.23 2.048 255 255 255
-0.44 -1.674 2.592 255 255 255
-0.059 -0.22 1.084 0 0 0
0.523 -0.089 0.899 255 255 255
-0.077 0.079 0.552 255 255 255
0.338 -0.114 0.911 0 0 0
-0.074 0.033 0.522 255 255 255
-0.358 0.115 0.609 255 255 255
-0.095 0.083 0.554 255 255 255
-0.32 -1.017 2.68 255 255 255
1.007 -0.532 1.709 255 255 255
0.178 0.073 0.41 255 255 255
-0.135 0.296 0.61 255 255 255
0.116 -1.677 2.3 0 0 0
-0.057 0.014 0.54 255 255 255
0.099 -0.002 0.605 255 255 255
-0.289 0.246 0.659 255 255 255
-0.357 0.117 0.61 255 255 255
0.762 -0.973 2.083 255 255 255
-1.177 -1.084 2.516 255 255 255
0.019 0.178 0.463 255 255 255
0.127 0.132 0.457 255 255 255
-0.229 0.261 0.634 255 255 255
0.36 0.057 0.573 255 255 255
0.097 -0.121 0.949 0 0 0
0.7 -0.519 1.791 255 255 255
-0.125 0.042 0.516 255 255 255
-0.024 0.146 0.483 255 255 255
-0.73 -1.952 2.614 0 0 0
-1.444 -0.533 2.028 255 255 255
0.186 0.15 0.433 255 255 255
-0.049 0.12 0.509 255 255 255
0.066 0.237 0.469 255 255 255
0.605 -0.089 0.929 255 255 255
-0.082 0.039 0.519 255 255 255
-0.134 -1.188 2.624 255 255 255
0.154 -0.161 0.952 255 255 255
0.382 -0.412 1.597 255 255 255
0.58 -1.005 2.158 255 255 255
0.258 -0.285 1.198 255 255 255
-0.052 -0.177 0.981 255 255 255
0.065 -0.041 0.676 255 255 255
0.142 0.12 0.459 255 255 255
0.047 0.079 0.508 255 255 255
-0.27 0.14 0.577 255 255 255
0.177 0.208 0.419 255 255 255
0.024 0.087 0.523 0 0 0
0.18 -0.015 0.666 0 0 0
0.087 0.123 0.47 255 255 255
-0.301 0.042 0.594 255 255 255
-0.319 0.258 0.68 255 255 255
-0.975 -0.626 2.656 0 0 0
0.296 -0.152 0.909 0 0 0
-0.167 0.27 0.609 0 0 0
-0.155 0.015 0.52 255 255 255
0.695 -0.75 2.18 255 255 255
0.626 -1.044 2.118 255 255 255
-0.286 -1.32 2.649 255 255 255
0.667 -0.991 2.123 255 255 255
0.084 0.094 0.498 255 255 255
-0.051 -0.081 0.796 255 255 255
0.746 -0.647 2.224 0 0 0
0.372 -1.546 2.224 255 255 255
0.079 -1.414 2.419 255 255 255
0.099 -0.134 0.933 255 255 255
-0.779 -1.598 2.781 255 255 255
0.145 0.034 0.554 255 255 255
0.939 -1.192 2.075 255 255 255
0.207 0.12 0.452 255 255 255
0.155 0.172 0.425 255 255 255
0.448 -0.441 1.58 255 255 255
0.094 -0.051 0.715 255 255 255
-0.055 -0.081 0.803 255 255 255
0.661 -0.15 1.067 255 255 255
-0.136 0.281 0.6 0 0 0
-0.434 -0.196 0.991 255 255 255
0.247 -0.015 0.591 0 0 0
0.883 -1.204 2.091 255 255 255
0.134 0.206 0.431 0 0 0
0.147 0.197 0.423 0 0 0
-0.133 0.088 0.538 255 255 255
0.5 -1.051 2.179 255 255 255
0.561 -1.587 2.122 0 0 0
-0.226 0.149 0.562 255 255 255
-0.352 -1.513 2.61 255 255 255
-0.184 0.31 0.621 255 255 255
-0.875 -1.798 2.72 255 255 255
0.341 -0.11 0.897 0 0 0
-0.023 0.096 0.517 255 255 255
0.182 0.091 0.466 255 255 255
-0.306 -0.011 0.643 0 0 0
-0.367 -0.089 0.726 255 255 255
-0.326 0.082 0.602 255 255 255
0.276 -1.226 2.218 255 255 255
0.284 -0.501 1.64 0 0 0
0.199 0.029 0.427 255 255 255
-0.28 -1.236 2.68 255 255 255
-0.165 0.192 0.554 255 255 255
-0.031 0.053 0.552 0 0 0
-0.149 -0.006 0.54 255 255 255
0.18 -0.231 1.127 255 255 255
-1.324 -0.853 2.29 255 255 255
1.46 -0.542 2.09 255 255 255
0.252 -0.01 0.541 0 0 0
-0.307 0.018 0.598 255 255 255
0.869 -1.312 2.069 255 255 255
0.185 -0.007 0.521 255 255 255
-1.219 -0.619 2.611 255 255 255
-0.094 -0.218 1.129 0 0 0
-0.07 0.199 0.514 255 255 255
-0.039 -0.115 0.92 255 255 255
-0.517 -0.41 1.578 255 255 255
-0.151 0.337 0.636 255 255 255
0.069 0.045 0.509 0 0 0
0.328 -0.464 1.606 255 255 255
0.188 -0.006 0.513 255 255 255
0.415 -0.105 0.922 255 255 255
-1.376 -0.669 2.127 255 255 255
-0.015 -0.118 0.913 255 255 255
0.124 0.001 0.6 0 0 0
-0.157 -0.199 1.124 255 255 255
-0.554 -1.706 2.653 255 255 255
-0.403 -1.554 2.627 255 255 255
0.624 -0.175 1.125 255 255 255
0.499 -0.416 1.637 255 255 255
-0.669 -1.565 2.726 255 255 255
-0.268 -1.755 2.472 255 255 255
0.043 0.128 0.474 0 0 0
0.397 -0.03 0.749 255 255 255
-0.268 -0.046 0.61 255 255 255
0.156 0.131 0.447 255 255 255
-0.106 -1.404 2.54 255 255 255
1.153 -0.72 1.951 255 255 255
-0.666 -0.1 0.901 255 255 255
-0.653 -1.917 2.59 0 0 0
0.101 0.126 0.468 255 255 255
-0.432 -0.034 0.62 0 0 0
0.275 0.008 0.525 0 0 0
-0.217 0.086 0.568 255 255 255
-0.089 0.217 0.531 255 255 255
-0.024 0.026 0.537 255 255 255
0.154 0.102 0.488 0 0 0
0.183 0.059 0.417 255 255 255
0.177 -0.087 0.801 0 0 0
0.209 -0.022 0.647 255 255 255
0.021 0.055 0.528 0 0 0
0.265 -0.519 1.643 255 255 255
-0.273 -0.05 0.595 255 255 255
-0.03 0.07 0.535 255 255 255
0.173 0.107 0.473 255 255 255
-1.445 -0.43 2.018 255 255 255
0.026 0.072 0.521 255 255 255
0.042 -0.106 0.887 0 0 0
0.167 -0.001 0.598 0 0 0
0.565 -1.041 2.146 255 255 255
-0.144 -0.044 0.543 0 0 0
0.022 0.166 0.458 255 255 255
-1.156 -1.631 2.314 255 255 255
0.057 -0.271 1.179 255 255 255
0.131 0.062 0.474 0 0 0
0.555 -1.56 2.131 0 0 0
0.178 -0.061 0.732 255 255 255
0.611 -0.296 1.404 255 255 255
-0.202 -0.893 2.559 0 0 0
0.971 -1.381 2.012 255 255 255
-0.019 0.191 0.483 255 255 255
0.739 -1.033 2.07 255 255 255
0.141 0.082 0.473 255 255 255
-0.066 0.141 0.496 255 255 255
-0.266 0.325 0.668 255 255 255
-0.017 0.231 0.498 0 0 0
-0.132 -0.074 0.574 255 255 255
-0.321 0.069 0.608 255 255 255
-1.433 -0.506 2.044 255 255 255
-0.125 0.055 0.532 0 0 0
-0.305 -0.026 0.57 255 255 255
0.231 0.107 0.435 255 255 255
-1.037 -1.4 2.722 255 255 255
-1.075 -1.048 2.781 255 255 255
0.143 0.119 0.461 255 255 255
0.333 -0.788 2.26 255 255 255
-0.163 -0.175 1.076 0 0 0
0.052 -0.07 0.771 255 255 255
-0.17 0.322 0.635 255 255 255
-0.219 -0.095 0.67 255 255 255
-0.176 0.022 0.503 0 0 0
0 -0.056 0.723 0 0 0
0.081 0.234 0.461 255 255 255
-0.314 0.145 0.604 255 255 255
-1.08 -1.53 2.587 255 255 255
-0.002 -0.074 0.744 0 0 0
-0.837 -1.412 2.868 255 255 255
-0.127 0.073 0.551 255 255 255
0.347 -0.246 1.165 255 255 255
-1.01 -1.887 2.567 0 0 0
-0.118 0.015 0.536 0 0 0
-0.44 0.006 0.631 0 0 0
-0.172 0.148 0.534 255 255 255
0.178 -0.02 0.676 255 255 255
0.196 -0.121 0.838 0 0 0
0.123 0.145 0.449 255 255 255
-0.124 0.11 0.526 0 0 0
0.138 0.103 0.492 0 0 0
0.79 -0.192 1.197 255 255 255
0.064 -0.021 0.619 0 0 0
0.046 0.111 0.49 255 255 255
-0.025 0.188 0.484 255 255 255
0.28 -0.221 1.1 255 255 255
-0.007 0.186 0.475 255 255 255
0.046 0.224 0.471 0 0 0
0.18 -0.112 0.839 255 255 255
0.155 0.152 0.439 255 255 255
0.526 -0.163 1.084 255 255 255
0.187 0.046 0.427 0 0 0
0.132 -1.608 2.321 255 255 255
-1.127 -1.24 2.568 255 255 255
0.122 0.121 0.464 255 255 255
0.295 -1.594 2.251 255 255 255
0.13 0.135 0.455 255 255 255
0.006 0.188 0.471 255 255 255
-0.232 0.036 0.552 255 255 255
0.311 -1.198 2.238 255 255 255
-0.45 -0.093 0.664 255 255 255
-0.198 -0.156 0.819 0 0 0
0.307 -1.194 2.242 255 255 255
-0.364 -0.269 1.266 0 0 0
-0.101 0.111 0.521 255 255 255
-0.579 -1.885 2.578 0 0 0
-0.186 0.274 0.62 0 0 0
0.768 -1.12 2.022 255 255 255
0.191 -0.022 0.536 0 0 0
0.948 -0.348 1.574 0 0 0
-0.191 0.048 0.548 255 255 255
0.077 0.158 0.451 255 255 255
-0.45 -0.207 0.988 255 255 255
-0.182 -0.015 0.472 255 255 255
-0.099 0.077 0.545 255 255 255
-0.323 -1.326 2.671 255 255 255
-1.118 -1.415 2.502 255 255 255
-0.194 0.274 0.624 0 0 0
-1.089 -1.164 2.699 255 255 255
-0.838 -1.389 2.88 255 255 255
0.251 0.052 0.425 0 0 0
0.194 -0.079 0.778 0 0 0
0.033 -0.042 0.69 255 255 255
-1.062 -1.133 2.798 255 255 255
-0.54 -0.055 0.754 0 0 0
-1.399 -0.652 2.069 255 255 255
-1.181 -1.095 2.494 255 255 255
-0.006 0.147 0.476 0 0 0
0.118 0.048 0.507 255 255 255
-0.334 -1.77 2.499 255 255 255
0.97 -1.189 2.06 255 255 255
0.155 0.005 0.586 255 255 255
0.229 0.134 0.436 255 255 255
0.89 -1.061 1.978 0 0 0
1.027 -0.409 1.629 255 255 255
-0.145 0.259 0.587 0 0 0
-0.186 0.122 0.542 255 255 255
0.223 -1.075 2.332 255 255 255
-0.272 -0.048 0.601 255 255 255
-0.181 0.044 0.534 0 0 0
-0.433 -0.094 0.672 255 255 255
0 0.088 0.523 255 255 255
0.432 -0.01 0.696 255 255 255
-0.278 0.031 0.584 255 255 255
1.47 -0.347 2.141 0 0 0
-0.286 -1.263 2.667 255 255 255
-0.147 -0.003 0.54 255 255 255
0.04 -0.809 2.497 0 0 0
-0.005 0.2 0.479 255 255 255
-0.013 -0.138 0.895 255 255 255
0.213 -0.184 0.995 255 255 255
-0.273 0.114 0.573 255 255 255
0.996 -0.528 1.698 255 255 255
-0.438 -0.029 0.617 255 255 255
-1.189 -0.599 2.725 255 255 255
-0.071 0.287 0.565 255 255 255
0.629 -1.245 2.038 255 255 255
0.115 0.233 0.447 255 255 255
1.025 -1.139 2.054 255 255 255
0.25 0.114 0.444 255 255 255
-0.192 0.087 0.559 255 255 255
0.569 -0.768 2.14 255 255 255
0.137 -0.016 0.612 255 255 255
-0.513 -1.468 2.716 255 255 255
-0.537 -1.907 2.57 0 0 0
0.07 0.13 0.466 255 255 255
0.055 0.178 0.451 255 255 255
-0.243 0.138 0.565 255 255 255
-0.079 0.07 0.553 255 255 255
-1.356 -0.78 2.217 255 255 255
-1.313 -0.812 2.326 255 255 255
0.122 0.048 0.485 255 255 255
-0.291 -0.043 0.589 0 0 0
-1.168 -1.238 2.463 255 255 255
-0.443 -0.116 0.688 255 255 255
0.498 -0.031 0.77 255 255 255
0.005 0.006 0.561 255 255 255
0.113 0.199 0.437 0 0 0
-0.733 -1.684 2.714 255 255 255
0.177 -1.308 2.396 0 0 0
0.723 -0.25 1.292 255 255 255
0.31 -0.147 0.887 255 255 255
0.321 -0.774 2.281 0 0 0
0.01 0.047 0.529 255 255 255
-1.197 -0.753 2.612 255 255 255
0.216 0.062 0.415 255 255 255
0.4 -1.116 2.201 255 255 255
-0.18 -0.991 2.527 255 255 255
-0.082 0.225 0.532 255 255 255
-1.215 -1.07 2.433 255 255 255
0.738 -0.634 2.232 0 0 0
0.384 -0.214 1.094 255 255 255
-0.092 0.218 0.533 255 255 255
-0.368 0.084 0.619 255 255 255
-0.177 -1.023 2.55 255 255 255
1.215 -0.669 1.947 0 0 0
0.934 -0.544 1.707 255 255 255
0.19 -0.475 1.661 255 255 255
-0.169 0.012 0.494 255 255 255
-0.421 -1.044 2.71 255 255 255
-0.773 -1.936 2.642 0 0 0
-0.103 0.126 0.516 255 255 255
0.031 0.217 0.473 0 0 0
-0.244 0.074 0.583 255 255 255
-0.927 -1.574 2.706 255 255 255
0.004 0.278 0.516 255 255 255
-0.171 -0.021 0.479 255 255 255
-0.228 0.304 0.658 0 0 0
0.153 0.103 0.485 255 255 255
-0.256 -1.664 2.503 255 255 255
0.079 0.219 0.457 0 0 0
-0.136 0.021 0.537 255 255 255
0.071 -0.092 0.875 255 255 255
-0.097 0.121 0.515 0 0 0
-0.008 0.027 0.542 255 255 255
0.123 -0.03 0.676 0 0 0
-0.226 0.142 0.558 255 255 255
0.23 0.118 0.444 255 255 255
0.114 0.154 0.446 255 255 255
0.398 -0.1 0.95 0 0 0
0.157 0.169 0.427 255 255 255
0.097 0.16 0.445 255 255 255
-0.441 -0.058 0.637 255 255 255
0.076 0.137 0.462 0 0 0
-0.315 -0.047 0.554 255 255 255
0.144 0.203 0.427 0 0 0
0.143 0.056 0.454 255 255 255
-1.196 -0.687 2.635 255 255 255
-1.253 -1.154 2.311 255 255 255
0.015 -0.836 2.527 0 0 0
0.946 -1.538 1.96 255 255 255
0.077 -0.027 0.626 255 255 255
-1.273 -0.955 2.359 255 255 255
-1.125 -1.082 2.644 255 255 255
-0.048 -0.402 1.453 0 0 0
-0.182 0.226 0.586 255 255 255
-1.171 -0.853 2.636 255 255 255
-0.292 0.35 0.697 255 255 255
-0.297 0.179 0.611 255 255 255
0.327 0.003 0.618 255 255 255
0.128 0.186 0.427 255 255 255
-0.435 -0.115 0.694 255 255 255
0.039 -0.535 1.769 255 255 255
-0.016 -0.147 0.897 255 255 255
-0.025 0.24 0.506 0 0 0
-0.141 -0.004 0.54 255 255 255
0.129 -0.067 0.728 255 255 255
-0.26 -0.033 0.635 255 255 255
-0.467 -0.062 0.648 255 255 255
-0.19 0.329 0.586 255 255 255
-0.163 -0.296 1.153 255 255 255
-0.249 0.092 0.58 255 255 255
-1.001 -0.992 2.909 255 255 255
-0.233 0.041 0.551 255 255 255
0.178 0.134 0.438 255 255 255
0.116 0.032 0.542 255 255 255
0.13 0.153 0.442 0 0 0
-0.808 -1.174 2.468 255 255 255
0.152 0.124 0.453 255 255 255
-1.216 -1.311 2.314 255 255 255
0.555 -0.056 0.835 0 0 0
0.613 -0.899 2.187 0 0 0
-1.019 -0.954 2.933 255 255 255
-0.446 -1.467 2.669 255 255 255
0.17 -1.01 2.379 255 255 255
-0.298 -1.306 2.66 255 255 255
-0.1 -0.05 0.572 255 255 255
-0.45 -0.393 1.577 255 255 255
-0.191 -1.49 2.545 255 255 255
0.498 -0.188 1.107 255 255 255
-0.425 -0.437 1.58 0 0 0
0.128 -0.145 0.925 255 255 255
0.25 -0.523 1.636 255 255 255
0.124 0.243 0.447 255 255 255
0.172 0.236 0.427 255 255 255
0.371 -0.5 1.59 255 255 255
-0.397 -1.613 2.605 255 255 255
0.214 -1.611 2.282 255 255 255
-0.72 -1.731 2.693 255 255 255
0.491 -1.099 2.166 255 255 255
0.056 -0.443 1.749 0 0 0
-0.109 0.055 0.538 0 0 0
0.202 0.17 0.424 255 255 255
-0.318 -0.417 1.523 255 255 255
0.061 0.26 0.482 255 255 255
0.015 -1.415 2.444 255 255 255
-0.144 0.125 0.53 255 255 255
-0.15 0.126 0.53 255 255 255
-0.137 0.023 0.536 255 255 255
-0.37 -0.095 0.736 255 255 255
-1.3 -0.686 2.4 255 255 255
-0.31 -0.035 0.562 255 255 255
-0.307 -0.02 0.578 255 255 255
0.105 0.189 0.437 255 255 255
0.071 0.198 0.453 255 255 255
0.018 0.215 0.476 0 0 0
0.018 0.008 0.559 255 255 255
-0.209 0.121 0.546 255 255 255
-0.429 -0.056 0.642 255 255 255
-0.219 0.007 0.549 0 0 0
-0.073 0.071 0.557 0 0 0
0.707 -1.346 2.105 0 0 0
0.139 0.013 0.593 0 0 0
-0.114 0.025 0.536 0 0 0
0.194 0.071 0.392 0 0 0
0.39 -0.818 2.253 255 255 255
0.215 -0.045 0.743 255 255 255
-0.085 0.088 0.543 255 255 255
-0.422 -0.049 0.637 255 255 255
0.085 0.067 0.482 255 255 255
-0.188 0.124 0.538 255 255 255
0.033 0.237 0.482 255 255 255
0.188 0.003 0.563 255 255 255
-0.642 -1.039 2.88 255 255 255
-0.299 0 0.635 0 0 0
-0.119 0.214 0.544 255 255 255
0.072 0.125 0.469 255 255 255
0.334 -0.52 1.604 255 255 255
-0.27 0.328 0.672 255 255 255
0.267 -0.075 0.815 255 255 255
0.05 0.146 0.466 255 255 255
-0.079 -0.049 0.614 255 255 255
0.067 0.133 0.466 255 255 255
0.918 -0.462 1.649 255 255 255
1.104 -1.17 2.023 255 255 255
-0.612 -1.465 2.724 0 0 0
-0.118 -0.028 0.541 0 0 0
-0.406 -0.18 0.99 255 255 255
0.558 -0.234 1.265 255 255 255
-1.324 -0.965 2.237 255 255 255
-0.15 -0.033 0.542 255 255 255
0.183 -1.095 2.329 255 255 255
-0.17 -0.018 0.479 255 255 255
0.074 0.193 0.448 255 255 255
-0.182 0.337 0.606 255 255 255
0.081 -0.144 0.921 255 255 255
0.128 0.066 0.476 0 0 0
-1.102 -1.265 2.633 255 255 255
-0.881 -1.828 2.703 255 255 255
0.111 -1.441 2.397 255 255 255
0.255 0.081 0.46 0 0 0
-0.12 -0.332 1.307 0 0 0
0.119 0.171 0.434 255 255 255
0.435 -0.184 1.099 255 255 255
0.364 -1.169 2.2 255 255 255
0.091 0.033 0.526 255 255 255
-0.341 -1.851 2.472 0 0 0
0.134 0.204 0.43 0 0 0
-0.164 -0.321 1.191 255 255 255
0.09 -1.53 2.369 255 255 255
0.048 -1.718 2.308 0 0 0
-1.354 -0.892 2.141 255 255 255
0.473 -1.14 2.162 255 255 255
-0.44 -0.135 0.697 255 255 255
-0.069 -0.016 0.675 0 0 0
-0.022 0.223 0.496 0 0 0
0.827 -0.757 2.141 255 255 255
0.023 0.084 0.525 0 0 0
-0.456 -0.196 0.957 255 255 255
-0.25 -1.386 2.611 255 255 255
0.44 -0.903 2.266 0 0 0
0.032 0.048 0.518 255 255 255
0.384 -0.859 2.295 255 255 255
-0.385 0.048 0.627 255 255 255
0.415 -0.248 1.164 255 255 255
-0.227 0.152 0.564 255 255 255
0.742 -0.158 1.111 255 255 255
0.278 -0.509 1.645 255 255 255
-0.322 0.129 0.597 255 255 255
0.406 -0.124 0.985 0 0 0
-0.185 0.225 0.587 255 255 255
-0.438 -0.06 0.643 255 255 255
-0.981 -0.659 2.65 0 0 0
0.387 -0.003 0.658 255 255 255
-0.078 0.21 0.521 255 255 255
0.189 -0.018 0.529 255 255 255
1.031 -1.255 2.024 255 255 255
0.079 -1.329 2.45 255 255 255
-0.032 0.007 0.556 255 255 255
-1.09 -1.255 2.675 255 255 255
-0.151 0.031 0.523 255 255 255
-0.238 -1.652 2.497 255 255 255
-1.026 -1.796 2.594 255 255 255
-0.052 -0.118 0.929 255 255 255
0.102 0.048 0.499 255 255 255
0.09 -1.14 2.365 255 255 255
-1.07 -1.103 2.771 255 255 255
-1.014 -1.815 2.59 255 255 255
0.064 -0.782 2.43 255 255 255
0.875 -0.519 1.691 255 255 255
0.153 0.022 0.588 0 0 0
-0.214 0.113 0.557 255 255 255
0.555 -0.03 0.79 255 255 255
-0.184 0.088 0.564 0 0 0
1.364 -0.712 2.061 255 255 255
-0.083 0.016 0.547 0 0 0
0.725 -1.169 2.022 255 255 255
0.062 -0.015 0.601 255 255 255
-0.151 -0.276 1.173 255 255 255
0.056 0.044 0.521 255 255 255
-0.431 0.002 0.632 0 0 0
0.281 -0.076 0.82 255 255 255
-0.116 -0.179 1.086 0 0 0
0.066 0.065 0.49 255 255 255
0.315 -1.641 2.219 0 0 0
0.582 -0.118 0.995 255 255 255
0.116 0.163 0.44 255 255 255
-0.338 -0.134 0.85 0 0 0
-1.28 -0.894 2.364 255 255 255
-0.405 -0.275 1.261 255 255 255
0.02 0.261 0.498 255 255 255
-0.11 0.136 0.51 255 255 255
0.858 -1.405 2.044 255 255 255
0.036 -0.263 1.2 255 255 255
-0.546 -0.949 2.779 255 255 255
0.021 0.127 0.481 0 0 0
0.372 -0.195 1.063 255 255 255
0.185 -0.002 0.527 255 255 255
-0.13 0.041 0.517 0 0 0
-0.078 -1.56 2.459 0 0 0
-1.058 -1.581 2.62 255 255 255
0.604 -0.913 2.185 0 0 0
0.43 -1.494 2.218 255 255 255
-0.251 0.088 0.582 255 255 255
0.498 -1.561 2.161 0 0 0
-0.165 -0.015 0.482 255 255 255
0.184 -0.127 0.882 255 255 255
-0.42 -0.118 0.71 255 255 255
0.205 0.094 0.402 255 255 255
-0.567 -1.71 2.658 255 255 255
-0.028 0.029 0.534 255 255 255
0.135 0.049 0.46 255 255 255
0.072 0.168 0.445 255 255 255
0.107 0.1 0.493 255 255 255
0.163 0.215 0.424 255 255 255
-0.229 -0.089 0.655 255 255 255
-0.296 0.069 0.604 255 255 255
0.205 -0.778 2.316 255 255 255
-0.001 -0.01 0.637 0 0 0
0.129 -0.883 2.409 255 255 255
0.036 0.251 0.489 255 255 255
0.569 -0.294 1.407 255 255 255
0.041 -0.178 0.886 255 255 255
-1.172 -0.873 2.619 255 255 255
0.125 -0.042 0.71 0 0 0
0.193 -1.452 2.348 255 255 255
0.201 -0.034 0.705 255 255 255
0.469 -0.496 1.607 255 255 255
0.137 0.041 0.5 255 255 255
-0.164 0.281 0.615 0 0 0
-0.163 -1.791 2.403 0 0 0
-0.113 -0.027 0.539 255 255 255
-0.203 -1.581 2.51 255 255 255
0.119 0.173 0.432 255 255 255
0.102 0.097 0.499 255 255 255
-0.308 -0.014 0.615 255 255 255
0.056 0.13 0.469 255 255 255
0.114 0.203 0.437 0 0 0
0.326 -0.227 1.126 255 255 255
0.018 0.169 0.46 255 255 255
0.613 -1.449 2.14 255 255 255
0.102 0.117 0.47 255 255 255
0.122 0.03 0.549 255 255 255
0.165 0.237 0.431 255 255 255
-0.23 -0.088 0.651 255 255 255
0.016 0.115 0.486 255 255 255
0.145 -0.132 0.936 0 0 0
-0.131 0.073 0.548 255 255 255
0.026 -1.376 2.455 255 255 255
-1.373 -0.594 2.157 255 255 255
0.198 0.146 0.433 255 255 255
-0.054 0.02 0.534 255 255 255
-0.007 0.159 0.468 255 255 255
-0.234 -0.042 0.622 255 255 255
-0.226 0.329 0.618 255 255 255
-0.158 0.011 0.529 255 255 255
0.383 -1.596 2.207 0 0 0
-0.168 -1.494 2.53 255 255 255
0.157 0.175 0.423 255 255 255
-0.037 0.019 0.535 255 255 255
-0.082 0.01 0.55 0 0 0
-0.284 0.218 0.629 255 255 255
0.428 -0.033 0.758 255 255 255
-0.892 -1.523 2.814 255 255 255
1.104 -0.688 1.926 255 255 255
0.011 0.1 0.508 255 255 255
0.186 0.157 0.43 255 255 255
-1.108 -0.684 2.837 0 0 0
0.41 -0.111 0.956 0 0 0
0.265 -0.988 2.333 255 255 255
0.055 0.099 0.494 255 255 255
0.816 -1.125 1.999 0 0 0
-0.077 0.195 0.514 255 255 255
-0.369 0.043 0.617 255 255 255
0.134 0.138 0.453 255 255 255
0.023 -0.058 0.718 255 255 255
0.345 0 0.627 255 255 255
-0.035 0.21 0.497 255 255 255
-0.179 0.006 0.491 255 255 255
-1.276 -0.789 2.418 255 255 255
-0.308 0.028 0.578 255 255 255
-0.205 0.253 0.615 255 255 255
-0.029 -0.001 0.627 0 0 0
0.199 0.023 0.432 255 255 255
-0.161 -0.016 0.49 255 255 255
-0.07 0.314 0.586 255 255 255
-1.108 -1.432 2.539 255 255 255
-0.377 0.046 0.623 255 255 255
-0.042 0.007 0.554 255 255 255
-0.078 0.208 0.52 255 255 255
0.474 -1.497 2.197 255 255 255
-0.261 0.112 0.568 255 255 255
-0.149 -0.082 0.583 255 255 255
-0.375 0.046 0.622 255 255 255
0.378 -0.047 0.791 255 255 255
0.462 -0.016 0.715 255 255 255
-0.248 0.299 0.666 0 0 0
-0.153 0.061 0.514 0 0 0
0.077 0.23 0.462 255 255 255
0.145 0.173 0.426 255 255 255
0.137 -0.294 1.166 255 255 255
-0.029 0.135 0.489 255 255 255
-0.055 -1.436 2.479 255 255 255
-0.039 -1.482 2.445 255 255 255
0.342 -1.225 2.199 255 255 255
-0.007 -0.05 0.709 255 255 255
-0.443 -0.15 0.7 255 255 255
-0.209 0.25 0.614 255 255 255
0.186 0.072 0.488 0 0 0
-0.086 0.199 0.52 255 255 255
-0.237 -0.123 0.776 0 0 0
-0.303 0.03 0.577 255 255 255
0.345 -0.021 0.701 255 255 255
-0.178 0.128 0.534 255 255 255
0.139 0.145 0.448 255 255 255
0.058 -1.425 2.426 255 255 255
0.072 0.12 0.476 255 255 255
0.922 -1.424 2.007 255 255 255
1.02 -0.366 1.602 0 0 0
0.145 0.158 0.436 255 255 255
0.044 0.093 0.506 255 255 255
-0.085 -0.03 0.611 255 255 255
0.232 -0.985 2.356 255 255 255
-0.106 -1.676 2.431 255 255 255
-1.349 -0.779 2.141 255 255 255
-0.082 -0.017 0.632 255 255 255
0.86 -0.496 1.683 255 255 255
0.235 -0.032 0.593 0 0 0
0.105 -0.025 0.693 255 255 255
-0.396 -1.296 2.714 255 255 255
0.183 0.093 0.413 255 255 255
-0.014 0.137 0.483 255 255 255
-0.169 0.038 0.509 0 0 0
-0.39 -1.705 2.554 255 255 255
-0.07 0.136 0.499 255 255 255
0.152 0.232 0.434 255 255 255
-0.231 -0.248 1.081 0 0 0
0.554 -1.25 2.042 255 255 255
0.398 -0.032 0.754 255 255 255
-0.035 0.106 0.506 255 255 255
0.432 -0.882 2.281 0 0 0
-0.11 -0.01 0.594 255 255 255
0.062 0.176 0.447 255 255 255
-1.333 -0.976 2.215 255 255 255
0.002 0.073 0.533 255 255 255
0 -0.029 0.665 255 255 255
-0.185 0.031 0.526 255 255 255
0.075 -0.006 0.601 255 255 255
-0.104 -0.165 1.055 0 0 0
-0.009 -0.061 0.73 0 0 0
0.771 -1.009 2.068 255 255 255
0.348 -0.228 1.11 255 255 255
-0.212 0.081 0.57 255 255 255
-1.102 -0.804 2.817 255 255 255
-0.347 0.117 0.604 255 255 255
-0.103 0.151 0.503 255 255 255
-0.165 0.095 0.547 255 255 255
0.182 0.121 0.457 255 255 255
-0.252 0.016 0.579 255 255 255
-0.196 0.322 0.613 255 255 255
-0.056 0.249 0.532 0 0 0
0.505 -1.466 2.185 255 255 255
-0.334 0.251 0.681 255 255 255
0.083 0.143 0.458 0 0 0
-0.521 -0.395 1.571 255 255 255
1.02 -0.888 2.001 0 0 0
-0.323 0.104 0.594 255 255 255
-0.033 0.022 0.536 255 255 255
0.141 0.015 0.593 0 0 0
0.777 -0.323 1.495 255 255 255
0.2 0.028 0.427 255 255 255
0.191 0.038 0.428 255 255 255
0.932 -1.528 1.969 255 255 255
-0.472 -1.242 2.763 255 255 255
-0.063 -0.835 2.543 0 0 0
-0.633 -1.726 2.638 255 255 255
0.181 0.08 0.402 255 255 255
-0.365 0.065 0.629 255 255 255
0.979 -0.43 1.622 255 255 255
0.173 -0.784 2.334 255 255 255
-0.249 0.338 0.644 255 255 255
-1.362 -0.615 2.282 255 255 255
1.061 -1.33 2 255 255 255
-0.12 -0.06 0.563 255 255 255
-0.466 -0.342 1.426 255 255 255
0.315 -1.212 2.221 255 255 255
0.877 -0.41 1.581 0 0 0
0.217 -0.02 0.577 0 0 0
-0.197 0.226 0.59 255 255 255
0.05 0.238 0.477 255 255 255
0.127 0.001 0.596 0 0 0
0.394 -0.961 2.269 255 255 255
0.003 0.253 0.501 255 255 255
0.176 -0.01 0.65 255 255 255
0.568 -0.098 0.942 255 255 255
0.329 -0.007 0.64 255 255 255
-0.128 0.137 0.514 255 255 255
-0.085 -0.016 0.625 255 255 255
-1.473 -0.392 1.975 255 255 255
-0.072 -1.401 2.523 255 255 255
-0.01 0.253 0.508 255 255 255
-0.309 0.28 0.69 255 255 255
0.054 0.152 0.461 255 255 255
-0.035 -0.067 0.754 0 0 0
-0.177 0.096 0.55 255 255 255
0.122 0.057 0.483 255 255 255
0.166 0.142 0.438 255 255 255
0.191 0.051 0.419 255 255 255
-0.202 0.154 0.554 255 255 255
0.191 -0.004 0.576 0 0 0
-0.095 0.012 0.561 0 0 0
-0.18 0.056 0.552 0 0 0
0.386 -1.46 2.25 255 255 255
1.11 -1.176 2.021 255 255 255
0.569 -1.287 2.033 255 255 255
-0.155 0.223 0.567 255 255 255
-1.019 -1.923 2.557 0 0 0
-0.021 0.04 0.555 0 0 0
-0.089 -1.655 2.432 255 255 255
0.725 -0.461 1.707 255 255 255
-0.273 0.126 0.571 255 255 255
-1.223 -1.024 2.436 255 255 255
0.681 -1.114 2.062 255 255 255
0.133 -0.057 0.726 255 255 255
0.049 0.135 0.47 255 255 255
1.481 -0.362 2.137 0 0 0
-0.028 0.027 0.535 255 255 255
-0.34 -1.354 2.66 255 255 255
-0.413 -0.072 0.659 255 255 255
-0.256 0.075 0.587 255 255 255
-0.073 0.004 0.556 255 255 255
0.014 0.265 0.504 255 255 255
-0.321 -0.057 0.578 255 255 255
-0.35 -0.047 0.577 0 0 0
0.526 -0.782 2.175 255 255 255
0.202 0.005 0.485 255 255 255
-0.099 -0.363 1.302 255 255 255
0.332 -0.212 1.091 0 0 0
0.381 0.027 0.589 255 255 255
-0.149 0.073 0.522 255 255 255
-0.088 0.257 0.553 0 0 0
-0.412 -0.149 0.759 255 255 255
0.337 0.057 0.569 255 255 255
0.012 0.18 0.466 255 255 255
-0.216 -0.3 1.152 255 255 255
-0.04 0.278 0.541 255 255 255
0.042 -0.17 0.88 255 255 255
-0.273 -0.544 1.663 255 255 255
0.076 0.022 0.607 0 0 0
-0.099 -0.213 1.117 255 255 255
0.917 -1.195 2.086 255 255 255
0.051 -0.1 0.878 255 255 255
0.214 0.143 0.431 255 255 255
0.057 -0.274 1.182 255 255 255
-0.091 -0.084 0.823 255 255 255
-0.441 0.033 0.624 255 255 255
-0.099 -0.521 1.71 255 255 255
-0.148 0.066 0.543 255 255 255
0.36 -1.127 2.218 255 255 255
-0.106 -1.528 2.486 255 255 255
-0.061 -1.677 2.402 255 255 255
0.699 -0.183 1.138 255 255 255
-0.108 -0.002 0.546 255 255 255
-0.186 -0.92 2.554 0 0 0
0.108 0.163 0.442 255 255 255
-0.563 -1.895 2.584 0 0 0
-0.371 -0.129 0.807 0 0 0
-0.273 0.23 0.634 255 255 255
-0.011 0.106 0.504 255 255 255
0.114 0.242 0.451 255 255 255
0.716 -0.515 1.756 255 255 255
-0.103 -0.08 0.774 255 255 255
0.918 -0.844 2.065 255 255 255
-0.394 0.039 0.619 255 255 255
-0.727 -1.624 2.742 255 255 255
-0.144 0.05 0.529 0 0 0
0.383 -0.086 0.936 255 255 255
0.285 -1.627 2.241 0 0 0
-0.169 0 0.485 255 255 255
-0.162 0.192 0.553 255 255 255
-0.068 0.319 0.584 255 255 255
0.117 -0.115 0.958 0 0 0
0.112 0.134 0.462 255 255 255
-0.007 0.092 0.518 255 255 255
0.321 -0.121 0.854 0 0 0
-0.275 0.014 0.591 255 255 255
0.888 -1.199 2.092 255 255 255
0.934 -1.183 2.08 255 255 255
-0.203 -1.372 2.587 0 0 0
0.099 0.207 0.445 0 0 0
0.935 -1.203 2.075 255 255 255
0.665 -1.025 2.105 255 255 255
0.118 0.177 0.43 255 255 255
0.005 -0.01 0.634 0 0 0
-0.648 -1.758 2.637 255 255 255
-0.082 -0.051 0.604 255 255 255
0.138 0.148 0.445 255 255 255
0.074 0.239 0.467 255 255 255
-0.78 -1.874 2.671 255 255 255
-0.204 0.291 0.635 0 0 0
0.09 0.094 0.499 255 255 255
0.209 -1.697 2.245 0 0 0
-0.619 -1.392 2.758 255 255 255
0.674 -0.455 1.743 255 255 255
0.304 0.061 0.487 255 255 255
-0.378 -0.098 0.73 255 255 255
-0.994 -1.66 2.657 255 255 255
0.029 0.211 0.473 0 0 0
0.416 -0.006 0.679 255 255 255
0.162 0.086 0.47 255 255 255
0.023 -0.11 0.895 0 0 0
0.933 -1.24 2.069 255 255 255
0.002 0.086 0.527 255 255 255
-0.328 -1.171 2.719 255 255 255
-0.232 0.103 0.567 255 255 255
0.128 0.249 0.449 255 255 255
0.984 -1.295 2.026 255 255 255
0.173 0.039 0.548 0 0 0
-0.204 0.022 0.554 255 255 255
-0.395 -0.518 1.761 0 0 0
0.512 -0.093 0.909 255 255 255
-0.04 -0.007 0.644 0 0 0
-0.423 -0.145 0.719 255 255 255
0.215 0.012 0.479 255 255 255
0.044 0.008 0.572 255 255 255
-0.18 -1.487 2.541 255 255 255
0.018 0.262 0.5 255 255 255
-0.449 -0.09 0.661 255 255 255
-0.036 0.134 0.491 0 0 0
0.052 -0.021 0.633 0 0 0
0.2 0.133 0.436 255 255 255
-1.138 -0.629 2.803 255 255 255
-1.101 -1.063 2.705 255 255 255
-0.283 -0.226 1.054 255 255 255
0.203 0.129 0.441 255 255 255
-0.289 -0.046 0.582 255 255 255
0.185 0.179 0.419 255 255 255
0.918 -0.475 1.655 255 255 255
-0.001 0.038 0.57 0 0 0
-0.204 0.035 0.558 255 255 255
-0.106 0.065 0.565 0 0 0
0.2 0.005 0.489 255 255 255
0.087 0.101 0.49 255 255 255
-0.474 -0.439 1.568 255 255 255
0.732 -0.296 1.417 255 255 255
1.027 -1.202 2.034 255 255 255
-0.104 0.279 0.578 255 255 255
0.428 -0.488 1.587 255 255 255
-0.33 0.157 0.618 255 255 255
0.686 -0.473 1.819 255 255 255
-0.366 -1.732 2.54 255 255 255
-0.159 0.273 0.607 0 0 0
0.216 0.029 0.425 0 0 0
0.439 -0.063 0.864 255 255 255
-0.432 -0.064 0.649 255 255 255
-0.207 0.317 0.617 255 255 255
-0.1 0.106 0.531 255 255 255
-0.14 -1.196 2.628 255 255 255
0.112 0.15 0.448 255 255 255
0.259 -1.027 2.31 255 255 255
-0.151 -0.956 2.591 0 0 0
-1.005 -1.481 2.719 255 255 255
-0.099 0.098 0.53 255 255 255
0.051 0.066 0.507 255 255 255
0.138 0.039 0.536 255 255 255
0.017 -0.001 0.576 255 255 255
0.082 0.157 0.451 255 255 255
-0.244 -0.134 0.771 255 255 255
0.014 0.232 0.486 0 0 0
-0.076 0.156 0.493 255 255 255
0.117 0.087 0.499 0 0 0
0.04 0.107 0.494 255 255 255
0.02 0.135 0.478 255 255 255
0.94 -0.816 2.063 0 0 0
0.729 -1.159 2.023 255 255 255
-0.794 -1.284 2.893 255 255 255
0.237 -0.305 1.231 255 255 255
0.561 -1.01 2.162 255 255 255
-0.152 0.066 0.533 255 255 255
-0.373 -1.021 2.702 255 255 255
0.045 0.169 0.451 255 255 255
0.855 -0.72 2.143 0 0 0
-0.096 0.031 0.536 0 0 0
0.188 0.073 0.468 0 0 0
0.892 -0.668 1.96 0 0 0
-1.046 -1.112 2.836 255 255 255
0.019 0.037 0.571 0 0 0
0.157 -0.715 2.329 255 255 255
-1.143 -1.54 2.368 255 255 255
-0.089 -0.047 0.59 255 255 255
-0.134 -0.09 0.636 255 255 255
0.871 -0.697 1.986 255 255 255
0.403 -0.974 2.262 255 255 255
0.077 0.126 0.468 255 255 255
0.572 -0.24 1.282 255 255 255
-0.026 0.261 0.521 255 255 255
0.242 -0.037 0.58 255 255 255
-0.388 -0.536 1.744 255 255 255
0.151 -0.061 0.727 255 255 255
1.526 -0.408 2.093 255 255 255
-0.813 -1.225 2.47 255 255 255
0.095 0.238 0.457 255 255 255
0.641 -1.198 2.043 255 255 255
-0.298 0.3 0.684 0 0 0
-0.081 0.125 0.509 0 0 0
-1 -1.769 2.608 255 255 255
0.389 -0.984 2.26 255 255 255
-0.1 0.039 0.516 255 255 255
0.064 0.181 0.448 255 255 255
-1.191 -1.216 2.434 255 255 255
0.214 0.08 0.401 255 255 255
-0.455 -0.4 1.595 255 255 255
0.728 -1.383 2.11 255 255 255
0.023 0.168 0.458 255 255 255
0.182 0.076 0.477 0 0 0
-0.105 -0.235 1.153 255 255 255
0.345 -0.002 0.638 255 255 255
0.01 -0.005 0.622 0 0 0
-0.202 0.068 0.582 255 255 255
0.109 0.015 0.578 255 255 255
-0.26 -0.334 1.248 255 255 255
-0.191 -0.29 1.134 255 255 255
-0.037 -0.141 0.915 255 255 255
1.1 -1.137 2.026 255 255 255
-0.098 -0.002 0.589 255 255 255
-1.176 -1.456 2.341 255 255 255
0.49 -0.176 1.089 255 255 255
0.536 -1.04 2.172 255 255 255
1.03 -0.93 1.977 255 255 255
0.072 0.067 0.485 255 255 255
0.653 -0.729 2.14 255 255 255
-0.302 0.098 0.587 255 255 255
0.09 0.246 0.463 255 255 255
-0.136 -0.079 0.585 255 255 255
-0.027 0.087 0.524 255 255 255
0.345 -0.221 1.087 255 255 255
-0.058 -0.825 2.544 0 0 0
-0.087 -0.052 0.778 0 0 0
-0.359 -0.112 0.758 255 255 255
0.182 0.003 0.598 0 0 0
0.977 -0.881 2.023 255 255 255
0.624 -0.982 2.146 255 255 255
0.423 -0.472 1.582 255 255 255
-0.729 -1.162 2.928 255 255 255
-0.389 -0.26 1.256 0 0 0
-0.669 -1.81 2.629 255 255 255
0.463 -0.054 0.839 255 255 255
-0.384 -0.113 0.732 255 255 255
-0.391 -0.293 1.298 255 255 255
0.481 -1.442 2.201 255 255 255
-0.255 0.195 0.599 255 255 255
0.822 -0.266 1.356 255 255 255
-0.168 -0.009 0.483 255 255 255
0.208 -0.517 1.655 0 0 0
0.137 0.213 0.432 255 255 255
0.114 0.247 0.454 255 255 255
-1.317 -1.026 2.218 255 255 255
-0.992 -1.687 2.639 255 255 255
0.19 0.066 0.4 255 255 255
-0.613 -1.349 2.77 255 255 255
-0.435 -0.161 0.846 255 255 255
-1.112 -1.133 2.662 255 255 255
0.606 -0.992 2.148 255 255 255
-0.188 0.054 0.557 255 255 255
-0.392 -0.302 1.31 255 255 255
-0.1 -0.855 2.549 0 0 0
0.025 0.097 0.504 255 255 255
-0.146 -1.385 2.565 255 255 255
-0.853 -1.192 2.458 255 255 255
-0.282 0.205 0.624 255 255 255
-0.479 -0.096 0.646 255 255 255
-1.174 -1.036 2.537 255 255 255
0.191 -0.016 0.673 0 0 0
0.17 0.177 0.422 255 255 255
-0.108 -0.087 0.778 255 255 255
0.828 -0.832 2.112 255 255 255
-1.161 -0.686 2.721 255 255 255
-0.096 -0.08 0.815 255 255 255
-0.355 -0.083 0.703 0 0 0
0.142 -1.607 2.319 255 255 255
0.088 0.096 0.495 255 255 255
-0.865 -1.148 2.976 255 255 255
-0.044 -0.078 0.781 255 255 255
0.069 0.014 0.616 255 255 255
0.891 -1.567 1.972 255 255 255
-1.417 -0.611 2.057 255 255 255
-0.062 -0.063 0.795 0 0 0
0 -0.124 0.899 255 255 255
-1.163 -1.434 2.381 255 255 255
0.059 -0.133 0.873 255 255 255
-0.073 0.09 0.542 255 255 255
0.794 -0.834 2.127 255 255 255
-0.414 0.029 0.648 255 255 255
0.002 0.125 0.49 0 0 0
1.225 -0.859 2.06 255 255 255
0.396 0.038 0.573 255 255 255
-0.123 -0.005 0.539 0 0 0
0.12 0.212 0.439 0 0 0
0.734 -1.447 2.083 255 255 255
0.019 -0.038 0.681 255 255 255
0.113 0.214 0.443 0 0 0
0.291 -0.467 1.623 255 255 255
-0.247 0.038 0.556 255 255 255
0.325 0.004 0.614 255 255 255
-0.314 0.132 0.594 255 255 255
-1.332 -0.633 2.35 255 255 255
-1.284 -0.724 2.423 255 255 255
-0.02 0.182 0.481 0 0 0
-0.441 -1.366 2.714 255 255 255
-1.144 -1.398 2.46 255 255 255
0.154 0.129 0.449 255 255 255
-1.076 -1.396 2.644 255 255 255
-0.225 -0.527 1.65 255 255 255
-0.011 0.058 0.547 0 0 0
-0.734 -1.354 2.838 255 255 255
0.952 -0.688 1.916 255 255 255
0.003 0.208 0.478 255 255 255
-0.002 0.181 0.473 255 255 255
-1.224 -1.146 2.389 255 255 255
0.637 -0.799 2.119 255 255 255
-0.09 -0.137 0.977 0 0 0
0.027 0.147 0.467 255 255 255
0.104 0.127 0.467 255 255 255
0.051 -0.03 0.641 255 255 255
-0.297 -0.03 0.624 0 0 0
0.805 -1.41 2.057 255 255 255
0.956 -1.014 1.969 0 0 0
-1.444 -0.518 2.022 255 255 255
0.989 -1.389 2 255 255 255
-0.259 0.345 0.66 255 255 255
-1.197 -1.424 2.299 255 255 255
0.03 0.068 0.516 255 255 255
0.409 -1.217 2.157 255 255 255
-0.019 -0.195 1.012 0 0 0
0.145 0.147 0.444 255 255 255
0.156 0.157 0.432 255 255 255
0.766 -0.784 2.163 0 0 0
0.013 0.107 0.496 255 255 255
0.119 0.02 0.573 255 255 255
0.04 0.133 0.473 255 255 255
-1.24 -0.994 2.398 255 255 255
-0.096 0.2 0.526 255 255 255
1.158 -1.067 2.032 255 255 255
0.9 -0.976 2.018 0 0 0
-0.19 0.284 0.627 0 0 0
0.4 -0.881 2.297 0 0 0
-0.398 -0.212 1.076 255 255 255
-0.794 -1.809 2.703 255 255 255
0.084 -0.13 0.933 255 255 255
-0.409 -0.078 0.665 255 255 255
0.078 0.03 0.53 0 0 0
-0.216 0.124 0.548 255 255 255
-0.299 -0.035 0.603 0 0 0
-0.237 -0.085 0.625 255 255 255
-0.094 -0.036 0.587 255 255 255
-0.401 0.074 0.634 255 255 255
0.072 -0.175 0.89 255 255 255
0.183 0.094 0.466 255 255 255
-0.937 -1.13 2.465 255 255 255
-0.136 0.014 0.54 0 0 0
-0.271 -0.027 0.642 255 255 255
-0.132 0.116 0.531 0 0 0
-0.472 -0.089 0.645 255 255 255
0.565 -1.105 2.123 255 255 255
0.546 -0.955 2.197 255 255 255
0.516 -0.076 0.888 0 0 0
-0.214 0.32 0.642 255 255 255
0.371 -0.4 1.593 255 255 255
-0.101 0.304 0.596 255 255 255
-0.145 -1.606 2.475 255 255 255
0.286 -0.484 1.631 255 255 255
-0.109 -0.03 0.545 255 255 255
0.153 0.133 0.446 255 255 255
0.614 -0.136 1.029 255 255 255
-0.138 -0.016 0.542 255 255 255
0.04 -0.098 0.869 255 255 255
-0.279 0.157 0.591 255 255 255
0.059 -0.098 0.879 255 255 255
0.237 -0.775 2.304 255 255 255
0.783 -0.805 2.146 255 255 255
0.041 -0.055 0.713 0 0 0
0.178 0.026 0.54 255 255 255
0.165 0.119 0.46 255 255 255
-0.423 -0.178 0.973 255 255 255
0.901 -0.946 2.031 255 255 255
0.14 0.172 0.428 255 255 255
-0.103 0.196 0.526 255 255 255
0.165 0.173 0.423 255 255 255
-0.991 -1.02 2.893 255 255 255
0.088 0.031 0.527 255 255 255
-0.474 -0.186 0.908 255 255 255
0.19 0.029 0.437 0 0 0
0.385 -0.112 0.956 255 255 255
-0.11 0.171 0.517 255 255 255
0.147 -0.107 0.87 255 255 255
0.114 0.034 0.537 255 255 255
-0.198 -0.537 1.648 255 255 255
-0.197 0.259 0.616 255 255 255
0.09 0.176 0.436 255 255 255
-0.259 -0.053 0.615 255 255 255
-0.212 -0.277 1.121 0 0 0
-0.102 0.041 0.516 255 255 255
0.754 -1.353 2.105 255 255 255
0.171 0.038 0.555 0 0 0
-0.162 -1.169 2.636 255 255 255
-0.188 0.175 0.556 255 255 255
-0.034 0.145 0.485 255 255 255
0.198 -1.353 2.387 255 255 255
0.072 0.122 0.474 255 255 255
-1.071 -1.123 2.769 255 255 255
0.258 0.089 0.45 0 0 0
-0.05 0.139 0.493 255 255 255
-1.257 -0.931 2.398 255 255 255
-0.169 -0.024 0.48 255 255 255
1.125 -1.158 2.013 255 255 255
0.55 -0.935 2.197 0 0 0
0.784 -0.593 2.139 255 255 255
0.273 0.01 0.517 0 0 0
0.724 -0.751 2.193 0 0 0
-0.441 0.008 0.631 0 0 0
0.165 0.009 0.587 0 0 0
0.068 -0.166 0.888 255 255 255
0.005 0.1 0.505 255 255 255
-0.146 0.112 0.537 0 0 0
-1.143 -1.678 2.324 0 0 0
-0.124 0.021 0.538 0 0 0
-0.032 0.246 0.515 255 255 255
-0.093 -0.064 0.799 0 0 0
0.86 -0.896 2.072 255 255 255
-0.11 0.205 0.535 255 255 255
0.247 -0.083 0.814 255 255 255
-1.402 -0.583 2.096 255 255 255
-0.785 -1.629 2.767 255 255 255
-0.418 -0.131 0.715 255 255 255
0.119 -0.109 0.962 0 0 0
-0.451 0.009 0.626 255 255 255
-0.147 0.194 0.547 255 255 255
0.042 -0.003 0.575 255 255 255
-1.458 -0.409 1.996 255 255 255
-1.231 -1.115 2.386 255 255 255
0.126 -1.336 2.427 255 255 255
0.041 0.052 0.514 255 255 255
0.028 0.258 0.495 255 255 255
-0.245 -0.084 0.625 255 255 255
-0.034 0.023 0.535 255 255 255
-0.44 -1.479 2.666 255 255 255
-0.023 0.238 0.505 0 0 0
-0.192 -0.065 0.588 255 255 255
-0.009 0.118 0.496 0 0 0
-1.277 -0.966 2.339 255 255 255
-0.038 -0.485 1.664 255 255 255
0.073 0.069 0.486 255 255 255
-0.123 -1.737 2.413 255 255 255
-0.092 -0.243 1.162 0 0 0
0.046 0.108 0.491 255 255 255
-0.063 0.254 0.539 0 0 0
0.192 0.047 0.421 255 255 255
0.184 -1.064 2.346 255 255 255
-0.228 0.072 0.593 255 255 255
0.195 0.129 0.439 255 255 255
-0.46 -0.203 0.963 255 255 255
0.27 -1.647 2.241 0 0 0
0.182 0.099 0.432 0 0 0
0.143 -0.083 0.816 0 0 0
0.12 0.181 0.429 255 255 255
0.176 0.032 0.572 0 0 0
0.022 0.069 0.525 255 255 255
0.291 -0.471 1.624 255 255 255
0.025 -0.007 0.623 0 0 0
1.031 -0.903 1.986 255 255 255
0.096 0.168 0.44 255 255 255
0.494 -0.095 0.916 255 255 255
-0.123 -0.012 0.54 0 0 0
0.921 -0.537 1.7 255 255 255
0.134 0.153 0.441 255 255 255
-0.551 -1.945 2.565 0 0 0
-0.09 0.063 0.571 0 0 0
0.049 0.08 0.51 255 255 255
0.337 -0.12 0.871 255 255 255
0.207 0.148 0.43 255 255 255
1.042 -0.395 1.648 255 255 255
-0.095 0.268 0.567 0 0 0
0.183 -1.436 2.365 255 255 255
-0.269 -0.029 0.639 255 255 255
-0.641 -1.732 2.646 255 255 255
-0.183 -1.227 2.596 255 255 255
-0.551 -1.398 2.752 255 255 255
0.222 -0.051 0.761 255 255 255
0.084 0.17 0.44 255 255 255
0.636 -0.07 0.904 255 255 255
-0.024 -0.229 1.076 255 255 255
-0.208 0.1 0.561 255 255 255
1.01 -0.9 1.998 0 0 0
-0.299 0.2 0.629 255 255 255
0.011 -0.068 0.728 255 255 255
1.031 -0.696 1.902 255 255 255
0.055 0.048 0.518 255 255 255
-0.428 -1.308 2.722 255 255 255
-0.176 0.04 0.52 0 0 0
-0.028 -1.714 2.343 0 0 0
0.097 0.167 0.44 255 255 255
-0.295 0.098 0.584 255 255 255
-0.206 0.123 0.544 255 255 255
0.585 -0.227 1.251 255 255 255
0.049 -0.163 0.875 255 255 255
-0.048 0.269 0.539 255 255 255
0.204 -0.095 0.803 0 0 0
0.861 -1.383 2.048 255 255 255
-0.15 0.244 0.58 255 255 255
0.838 -1.038 2.022 255 255 255
-0.248 -0.132 0.771 255 255 255
-0.39 0.047 0.629 255 255 255
0.173 0.128 0.443 255 255 255
-0.038 0.092 0.526 255 255 255
-0.222 0.035 0.55 255 255 255
-1.365 -0.846 2.109 255 255 255
0.095 0.167 0.44 255 255 255
0.241 -0.844 2.323 255 255 255
-1.048 -1.49 2.684 255 255 255
-0.059 0.048 0.555 255 255 255
-0.007 0.139 0.481 255 255 255
0.436 -1.176 2.161 255 255 255
0.036 0.232 0.479 255 255 255
-0.272 -0.096 0.666 0 0 0
-0.32 0.013 0.631 0 0 0
-0.08 0.063 0.551 255 255 255
-0.047 0.024 0.533 255 255 255
0.308 -1.237 2.193 255 255 255
-0.758 -1.093 2.958 255 255 255
0.253 0.073 0.456 0 0 0
-0.115 -0.025 0.539 255 255 255
0.025 0.089 0.52 255 255 255
-0.057 0.309 0.577 255 255 255
0.288 -0.059 0.813 255 255 255
0.32 -1.015 2.289 255 255 255
0.053 0.166 0.45 255 255 255
-0.862 -1.758 2.736 255 255 255
-0.251 0.066 0.591 0 0 0
0.125 -0.008 0.595 255 255 255
0.031 0.251 0.491 255 255 255
-0.028 0.143 0.487 0 0 0
-0.83 -1.405 2.869 255 255 255
0.016 -0.328 1.366 255 255 255
0.156 0.128 0.449 255 255 255
-0.543 -1.896 2.577 0 0 0
-0.3 -0.046 0.559 255 255 255
0.731 -1.183 2.006 0 0 0
0.011 -0.073 0.732 255 255 255
-1 -0.986 2.909 255 255 255
0.264 -0.089 0.851 0 0 0
0.005 -1.03 2.47 255 255 255
0.167 0.22 0.425 255 255 255
1.383 -0.719 2.061 255 255 255
0.021 0.025 0.558 255 255 255
0.024 0.09 0.516 255 255 255
-0.143 0.048 0.527 0 0 0
0.083 -0.491 1.697 255 255 255
0.1 0.156 0.447 255 255 255
0.484 -1.547 2.172 255 255 255
-0.137 0.201 0.547 255 255 255
0.143 0.05 0.455 255 255 255
-0.005 -0.268 1.245 0 0 0
-0.297 -0.011 0.651 0 0 0
-0.087 -0.03 0.611 255 255 255
0.905 -1.231 2.082 255 255 255
0.12 0.134 0.46 255 255 255
-0.033 0.047 0.548 255 255 255
-0.322 0.025 0.59 255 255 255
-0.03 0.22 0.498 255 255 255
0.012 -0.039 0.684 255 255 255
-1.411 -0.528 2.091 255 255 255
0.009 0.282 0.516 255 255 255
-0.249 -0.301 1.173 255 255 255
-0.028 0.301 0.551 255 255 255
0.01 -0.098 0.853 255 255 255
-0.059 -0.197 1.047 255 255 255
-0.488 -1.907 2.532 0 0 0
-0.264 0.041 0.566 255 255 255
-0.111 -1.012 2.51 255 255 255
0.687 -0.824 2.137 255 255 255
0.003 0.276 0.516 255 255 255
0.037 0.159 0.458 255 255 255
0.062 -0.201 0.899 255 255 255
0.333 -1.15 2.231 255 255 255
0.061 0.035 0.582 255 255 255
-0.203 -1.594 2.509 255 255 255
0.143 0.125 0.456 255 255 255
1.06 -0.919 1.965 255 255 255
-0.332 -0.027 0.561 255 255 255
0.164 -0.272 1.135 255 255 255
-0.159 0.093 0.563 0 0 0
0.123 -0.111 0.96 0 0 0
0.462 -0.028 0.751 255 255 255
-0.938 -1.855 2.584 255 255 255
-0.577 -1.318 2.783 255 255 255
-0.323 0.02 0.602 255 255 255
0.14 0.115 0.467 255 255 255
-0.197 0.194 0.568 255 255 255
0.585 -0.207 1.19 255 255 255
1.085 -0.891 1.96 255 255 255
0.331 -1.278 2.17 255 255 255
0.385 -0.91 2.29 0 0 0
-0.326 0.043 0.593 255 255 255
-1.062 -1.457 2.657 255 255 255
-0.834 -1.571 2.804 255 255 255
-0.025 0.004 0.568 255 255 255
-1.161 -1.255 2.473 255 255 255
0.015 0.058 0.533 0 0 0
0.577 -0.137 1.027 255 255 255
0.096 0.167 0.441 255 255 255
-1.326 -0.797 2.306 255 255 255
-1.092 -1.87 2.436 0 0 0
-0.07 0.094 0.526 255 255 255
0.078 0.189 0.446 255 255 255
-1.134 -1.275 2.542 255 255 255
0.387 -1.472 2.249 255 255 255
-0.202 0.314 0.619 255 255 255
-0.003 0.094 0.514 255 255 255
0.527 -0.091 0.902 255 255 255
-0.031 -0.011 0.645 255 255 255
0.237 -0.206 1.055 255 255 255
-0.54 -1.681 2.652 255 255 255
-1.27 -0.964 2.352 255 255 255
-1.155 -0.643 2.747 255 255 255
0.161 0.186 0.418 0 0 0
-0.079 0.248 0.545 0 0 0
-0.225 0.284 0.642 0 0 0
-0.007 0.195 0.479 255 255 255
0.017 0.094 0.509 255 255 255
-0.052 -0.154 0.926 255 255 255
0.261 -0.562 1.654 255 255 255
0.118 0.128 0.462 255 255 255
0.189 0.072 0.488 0 0 0
0.042 0.115 0.485 255 255 255
1.072 -1.186 2.02 255 255 255
-0.224 -0.134 0.789 0 0 0
0.06 0.211 0.462 0 0 0
0.259 0.042 0.46 255 255 255
-0.428 -1.613 2.614 255 255 255
1.33 -0.825 2.057 255 255 255
-0.834 -1.841 2.695 255 255 255
-0.171 0.088 0.568 0 0 0
-0.016 -0.039 0.673 255 255 255
1.203 -0.747 1.926 255 255 255
-0.221 0.282 0.639 0 0 0
0.002 0.215 0.482 0 0 0
-0.022 0.189 0.484 255 255 255
-0.19 0.33 0.619 255 255 255
-0.619 -1.445 2.738 0 0 0
-0.035 0.061 0.557 0 0 0
-0.093 -0.019 0.608 255 255 255
0.421 -0.427 1.584 255 255 255
-1.362 -0.671 2.272 255 255 255
-0.202 0.193 0.569 255 255 255
0.122 0.133 0.46 255 255 255
0.672 -1.595 2.055 255 255 255
-0.075 -0.07 0.815 0 0 0
-0.022 -1.632 2.378 255 255 255
-1.14 -1.155 2.578 255 255 255
-0.368 0.013 0.626 0 0 0
-0.416 -0.191 1.007 255 255 255
-0.401 -0.114 0.721 255 255 255
0.181 0.055 0.446 255 255 255
-0.312 0.051 0.596 255 255 255
-1.23 -0.842 2.496 255 255 255
0.223 -0.061 0.775 255 255 255
0.744 -0.447 1.777 0 0 0
0.613 -1.423 2.148 255 255 255
-0.592 -1.377 2.746 255 255 255
0.063 -0.089 0.862 255 255 255
0.182 0.14 0.436 255 255 255
-0.004 0.125 0.493 255 255 255
-0.733 -1.679 2.718 255 255 255
-0.061 -1.313 2.542 255 255 255
0.01 -0.55 1.782 255 255 255
0.883 -1.345 2.049 255 255 255
-1.086 -1.871 2.439 0 0 0
0.055 -0.279 1.189 255 255 255
0.098 0.12 0.469 255 255 255
0.031 0.072 0.515 255 255 255
-0.402 -1.615 2.597 255 255 255
-0.698 -1.74 2.674 255 255 255
0.178 0.209 0.419 255 255 255
0.188 -0.072 0.754 255 255 255
-0.158 0.095 0.553 0 0 0
-1.326 -0.953 2.232 255 255 255
-0.282 0.033 0.587 255 255 255
0.962 -1.397 2.011 255 255 255
0.053 0.097 0.496 255 255 255
0.29 -0.12 0.913 0 0 0
0.028 0.238 0.484 255 255 255
0.226 -0.091 0.801 255 255 255
0.152 0.108 0.478 255 255 255
-0.37 0.046 0.622 255 255 255
0.026 -1.614 2.362 255 255 255
0.225 -0.421 1.574 255 255 255
-0.845 -1.134 2.98 255 255 255
-0.45 0.019 0.624 255 255 255
-0.307 0.049 0.594 255 255 255
0.085 -1.602 2.344 255 255 255
-0.427 0.017 0.652 0 0 0
-0.163 -1.41 2.561 255 255 255
-0.096 0.04 0.516 255 255 255
-0.016 -0.285 1.274 0 0 0
-0.457 -0.34 1.418 255 255 255
0.057 -0.503 1.766 0 0 0
-0.13 -0.544 1.697 255 255 255
0.01 0.164 0.462 255 255 255
-0.054 0.105 0.513 255 255 255
0.098 0.214 0.448 0 0 0
-0.171 0.039 0.512 0 0 0
0.123 -0.291 1.166 255 255 255
0.164 -0.147 0.944 0 0 0
-0.467 -0.181 0.903 255 255 255
-0.229 -0.1 0.673 255 255 255
-1.308 -0.768 2.35 255 255 255
-0.361 -0.022 0.553 255 255 255
0.766 -0.416 1.752 255 255 255
0.355 0.049 0.592 255 255 255
0.049 0.184 0.456 255 255 255
0.112 0.243 0.453 255 255 255
1.513 -0.493 2.072 255 255 255
0.199 0.025 0.431 255 255 255
0.276 -0.304 1.246 255 255 255
-0.275 -0.023 0.648 255 255 255
0.173 0.23 0.426 255 255 255
-1.007 -1.557 2.697 255 255 255
0.679 -0.248 1.279 255 255 255
-0.26 0.043 0.564 255 255 255
-1.114 -1.793 2.385 0 0 0
1.484 -0.404 2.117 0 0 0
-1.248 -1.272 2.247 255 255 255
-0.75 -1.669 2.738 255 255 255
0.066 0.192 0.451 255 255 255
0.052 0.152 0.461 255 255 255
0.168 -1.674 2.274 0 0 0
1.071 -0.371 1.631 255 255 255
-0.123 -1.226 2.61 255 255 255
0.912 -1.538 1.97 255 255 255
-0.058 0.237 0.525 0 0 0
-1.13 -1.414 2.483 255 255 255
-0.069 0.036 0.523 255 255 255
-0.176 0.141 0.532 255 255 255
-0.044 -0.385 1.427 255 255 255
0.235 0.013 0.51 0 0 0
-0.243 0.135 0.562 255 255 255
0.063 0.055 0.515 0 0 0
-1.221 -0.973 2.445 255 255 255
0.704 -1.099 2.06 255 255 255
-0.169 0.242 0.586 255 255 255
0.012 0.21 0.475 255 255 255
-0.157 0.335 0.638 255 255 255
-0.431 -0.161 0.866 255 255 255
-0.204 0.319 0.57 255 255 255
0.042 0.03 0.573 255 255 255
0.279 -0.846 2.312 255 255 255
-0.516 -1.874 2.572 0 0 0
-0.073 -0.035 0.68 0 0 0
0.004 0.101 0.505 255 255 255
0.712 -1.536 2.057 0 0 0
-0.682 -1.943 2.598 0 0 0
0.632 -0.494 1.935 255 255 255
0.187 -0.016 0.672 0 0 0
0.738 -0.423 1.775 0 0 0
-0.311 0.067 0.608 255 255 255
-0.094 -0.349 1.281 255 255 255
-0.486 -1.542 2.671 255 255 255
0.22 0.068 0.414 255 255 255
