ply
format ascii 1.0
comment Created by Open3D
element vertex 1618
property double x
property double y
property double z
property uchar red
property uchar green
property uchar blue
end_header
-0.078 -0.257 1.239 0 0 0
0.228 0.044 0.469 255 255 255
0.629 -1.596 2.122 0 0 0
-0.198 0.346 0.628 255 255 255
0.394 -1.448 2.314 255 255 255
0.343 -0.767 2.304 255 255 255
0.602 -0.156 1.065 255 255 255
0.261 -0.018 0.636 255 255 255
0.061 0.047 0.525 255 255 255
0.447 -1.166 2.228 255 255 255
0.435 -0.077 0.909 255 255 255
0.068 0.063 0.524 255 255 255
-0.164 -1.034 2.703 255 255 255
0.997 -0.996 1.974 255 255 255
0.304 0.01 0.508 0 0 0
0.351 -1.212 2.272 255 255 255
0.033 -0.007 0.638 0 0 0
0.066 0.097 0.504 255 255 255
0.107 0.187 0.445 255 255 255
-0.369 0.072 0.657 255 255 255
-1.122 -1.183 2.324 255 255 255
-1.109 -0.9 2.475 255 255 255
1.126 -0.459 1.605 255 255 255
0.183 0.155 0.434 255 255 255
-0.788 -1.16 2.525 255 255 255
-0.236 0.036 0.594 255 255 255
0.927 -0.699 2.135 0 0 0
-0.902 -1.374 2.712 255 255 255
0.025 0.292 0.535 255 255 255
0.882 -0.395 1.71 255 255 255
0.196 0.156 0.433 255 255 255
0.144 0.098 0.494 255 255 255
-0.234 0.173 0.616 255 255 255
-0.244 -0.046 0.6 255 255 255
-0.052 0.134 0.512 255 255 255
0.073 -0.061 0.718 0 0 0
0.109 -1.275 2.553 255 255 255
-0.063 0.145 0.51 255 255 255
0.062 0.163 0.458 255 255 255
-0.017 0.225 0.524 255 255 255
-0.139 -0.135 0.751 0 0 0
0.03 0.173 0.473 255 255 255
0.111 0.136 0.46 255 255 255
-1.191 -0.732 2.381 255 255 255
0.982 -0.682 2.109 0 0 0
0.384 -0.129 0.856 0 0 0
-1.123 -1.084 2.359 255 255 255
0.071 -0.133 0.884 255 255 255
-0.012 0.28 0.557 255 255 255
-0.065 0.133 0.516 255 255 255
-0.448 -0.038 0.707 255 255 255
0.04 -0.126 0.916 255 255 255
0.272 -0.18 1.021 0 0 0
0.029 0.156 0.472 255 255 255
-0.238 0.268 0.689 255 255 255
0.284 -0.047 0.603 255 255 255
-0.231 0.042 0.587 255 255 255
-0.21 -1.641 2.595 255 255 255
0.244 0.057 0.412 255 255 255
0.253 -0.221 1.095 255 255 255
-0.339 -0.081 0.693 255 255 255
0.846 -1.36 2.075 0 0 0
-0.626 -1.166 2.99 255 255 255
-0.572 -0.122 0.891 255 255 255
0.346 -1.626 2.272 255 255 255
0.026 0.284 0.529 255 255 255
-0.456 -0.058 0.75 0 0 0
0.111 -0.01 0.59 255 255 255
-0.122 0.119 0.546 255 255 255
-0.943 -1.888 2.399 255 255 255
-0.435 -1.873 2.602 255 255 255
-0.28 0.172 0.645 255 255 255
-0.123 0.009 0.504 255 255 255
-0.042 -0.037 0.601 255 255 255
0.191 0.182 0.418 255 255 255
0.15 -0.192 0.903 255 255 255
0.004 0.1 0.511 255 255 255
0.137 -0.202 0.897 255 255 255
-0.076 0.21 0.55 255 255 255
-1.072 -1.07 2.461 255 255 255
0.089 0.061 0.503 255 255 255
0.686 -0.109 0.973 255 255 255
0.415 -0.094 0.866 255 255 255
0.08 0.143 0.468 255 255 255
-0.045 0.217 0.536 255 255 255
-0.979 -0.901 2.723 255 255 255
-0.31 -1.757 2.617 255 255 255
-0.166 -0.334 1.248 255 255 255
0.243 0.025 0.493 255 255 255
-0.14 0.33 0.626 255 255 255
-0.296 0.246 0.667 255 255 255
0.092 0.064 0.503 255 255 255
0.579 -0.055 0.846 255 255 255
-0.218 -0.033 0.654 0 0 0
-0.348 0.198 0.687 0 0 0
-0.036 0.145 0.498 255 255 255
-0.277 0.281 0.708 0 0 0
0.906 -0.629 2.173 0 0 0
0.173 0.093 0.491 0 0 0
0.204 0.054 0.456 255 255 255
0.258 -0.08 0.778 0 0 0
-0.178 0.011 0.596 0 0 0
0.533 -1.17 2.157 255 255 255
0.904 -0.917 2.06 255 255 255
-0.218 0.072 0.603 255 255 255
-0.376 -1.949 2.59 0 0 0
0.707 -1.148 2.07 255 255 255
-0.002 0.216 0.508 255 255 255
-0.193 0.155 0.584 255 255 255
0.14 -1.558 2.401 255 255 255
-0.217 0.335 0.689 255 255 255
-0.09 0.097 0.56 255 255 255
-0.18 -1.176 2.739 255 255 255
-0.865 -1.665 2.682 255 255 255
0.596 -0.905 2.233 0 0 0
-0.125 0.001 0.496 255 255 255
0.092 -0.034 0.657 255 255 255
0.751 -0.275 1.346 255 255 255
0.114 -0.095 0.863 255 255 255
-0.14 -0.025 0.483 255 255 255
-1.175 -0.702 2.418 255 255 255
-0.239 -0.041 0.62 0 0 0
0.13 0.207 0.443 0 0 0
0.49 -0.463 1.563 255 255 255
-0.026 -0.034 0.62 255 255 255
0.188 0.187 0.417 0 0 0
-0.552 -0.094 0.885 255 255 255
-0.155 0.051 0.561 255 255 255
0.374 -0.138 0.884 0 0 0
-0.257 -0.026 0.621 255 255 255
-0.095 0.338 0.641 255 255 255
-0.605 -0.12 0.935 0 0 0
0.501 -0.106 0.923 255 255 255
-0.844 -1.022 2.952 255 255 255
-1.139 -1.425 2.188 255 255 255
0.812 -1.123 2.017 255 255 255
0.965 -0.542 1.671 255 255 255
0.758 -0.944 2.127 255 255 255
1.092 -1.182 2.028 255 255 255
-0.791 -1.823 2.627 255 255 255
0.089 0.138 0.465 255 255 255
0.981 -0.958 1.998 255 255 255
-1.159 -0.58 2.498 0 0 0
0.213 0.116 0.461 255 255 255
-0.272 -0.005 0.654 0 0 0
-0.038 -0.09 0.819 255 255 255
0.206 0.043 0.472 255 255 255
0.409 -1.461 2.301 255 255 255
-1.128 -1.232 2.28 255 255 255
-0.144 0.227 0.6 255 255 255
0.135 0.243 0.453 255 255 255
0.325 -0.161 0.935 0 0 0
-0.281 -0.048 0.592 0 0 0
-0.918 -1.552 2.615 255 255 255
0.129 0.248 0.458 255 255 255
0.149 -0.167 0.9 255 255 255
0.292 -0.014 0.541 0 0 0
0.882 -1.188 1.964 0 0 0
-0.174 0.113 0.564 255 255 255
-0.024 0.151 0.492 255 255 255
-0.206 0.25 0.658 255 255 255
-0.545 -0.069 0.801 255 255 255
-0.149 0.275 0.638 255 255 255
0.028 0.248 0.507 255 255 255
0.403 -0.021 0.705 255 255 255
0.034 -0.485 1.676 255 255 255
0.166 0.115 0.464 255 255 255
-0.225 -0.018 0.67 0 0 0
-0.002 0.171 0.489 0 0 0
0.016 -1.352 2.58 255 255 255
-1.093 -1.209 2.363 255 255 255
1.073 -1.308 1.998 255 255 255
-0.016 -0.056 0.788 0 0 0
0.457 -0.46 1.583 255 255 255
-0.152 0.262 0.632 255 255 255
-0.265 0.314 0.715 0 0 0
0.423 -0.42 1.594 255 255 255
-0.096 0.189 0.55 255 255 255
0.176 0.141 0.444 255 255 255
0.114 0.068 0.481 255 255 255
-0.093 -0.894 2.632 255 255 255
1.212 -0.797 1.94 255 255 255
0.995 -0.475 1.626 255 255 255
0.471 -0.932 2.295 255 255 255
0.103 -0.95 2.498 255 255 255
-0.861 -1.509 2.751 255 255 255
-0.182 0.081 0.583 255 255 255
-0.077 0.12 0.53 255 255 255
-1.28 -0.581 2.135 255 255 255
-0.07 -0.038 0.548 0 0 0
-1.316 -0.593 2.063 255 255 255
0.806 -1.45 2.079 255 255 255
1.001 -0.676 2.082 255 255 255
-1.204 -0.681 2.368 255 255 255
-0.021 -0.021 0.655 255 255 255
0.871 -1.496 2.026 0 0 0
-0.495 -0.055 0.774 255 255 255
0.85 -0.522 1.711 255 255 255
-0.998 -1.607 2.368 255 255 255
-0.565 -1.711 2.759 255 255 255
-0.161 -0.09 0.687 255 255 255
0.228 0.038 0.429 0 0 0
0.108 0.136 0.461 0 0 0
0.32 -1.523 2.325 255 255 255
-1.081 -1.068 2.453 255 255 255
0.171 0.039 0.529 255 255 255
-0.4 0.007 0.594 255 255 255
0.057 0.01 0.554 255 255 255
-0.175 0.012 0.598 0 0 0
-0.155 0.06 0.585 255 255 255
0.168 -0.081 0.861 255 255 255
-0.29 -0.055 0.587 0 0 0
0.669 -1.02 2.139 255 255 255
-0.076 0.079 0.537 255 255 255
-0.315 -1.606 2.674 255 255 255
-0.929 -1.83 2.444 0 0 0
-0.082 -0.519 1.667 255 255 255
-0.109 0.162 0.542 255 255 255
-0.178 0.087 0.579 255 255 255
0.203 0.14 0.438 255 255 255
0.509 -0.038 0.787 255 255 255
0.548 -0.869 2.272 0 0 0
-0.359 -1.45 2.751 255 255 255
-0.062 0.086 0.547 255 255 255
0.267 -0.516 1.681 0 0 0
-0.918 -1.179 2.762 255 255 255
-0.857 -1.735 2.673 255 255 255
-0.217 0.011 0.595 255 255 255
-0.018 -1.636 2.49 255 255 255
-1.279 -0.614 2.126 255 255 255
-0.145 -0.546 1.668 255 255 255
0.877 -1.178 1.968 0 0 0
-0.332 -0.136 0.753 255 255 255
-0.336 -0.127 0.745 255 255 255
0.224 0.116 0.455 255 255 255
-0.806 -1.898 2.604 0 0 0
0.329 -0.461 1.646 255 255 255
-0.147 0.194 0.576 255 255 255
0.523 -0.122 0.954 0 0 0
0.093 0.09 0.511 0 0 0
0.274 -0.124 0.812 0 0 0
-0.81 -0.64 2.703 0 0 0
-0.264 0.228 0.676 255 255 255
0.207 -1.268 2.473 255 255 255
0.101 0.118 0.478 255 255 255
0.04 0.031 0.545 255 255 255
-0.024 -0.026 0.636 255 255 255
-0.323 0.125 0.644 255 255 255
0.047 -0.052 0.713 255 255 255
0.243 0.026 0.491 255 255 255
-0.557 -0.032 0.772 255 255 255
0.26 -0.03 0.692 255 255 255
-0.586 -1.81 2.727 255 255 255
0.14 0.185 0.43 255 255 255
0.399 -1.547 2.271 255 255 255
-0.283 -1.633 2.635 255 255 255
-0.198 0.117 0.571 255 255 255
-0.525 0.017 0.738 255 255 255
0.838 -0.662 2.149 255 255 255
-0.28 0.359 0.725 255 255 255
0.033 -1.269 2.609 255 255 255
0.165 0.057 0.48 255 255 255
0.444 -0.04 0.772 255 255 255
-0.167 0.316 0.595 255 255 255
-0.122 0.11 0.55 255 255 255
0.111 0.178 0.44 255 255 255
-0.114 -0.207 0.984 255 255 255
-0.08 -1.253 2.669 255 255 255
-0.121 0.078 0.571 0 0 0
0.024 0.201 0.486 255 255 255
-0.989 -1.495 2.442 255 255 255
0.115 0.043 0.524 0 0 0
-0.107 0.14 0.528 255 255 255
0.224 0.09 0.397 255 255 255
0.941 -0.246 1.314 255 255 255
-0.401 -0.124 0.694 255 255 255
-0.884 -1.09 2.867 255 255 255
-0.296 -1.659 2.641 255 255 255
0.244 -0.005 0.631 255 255 255
0.028 0.028 0.539 255 255 255
0.483 -1.587 2.21 255 255 255
0.344 -0.103 0.85 0 0 0
-0.36 0.063 0.657 255 255 255
0.07 0.103 0.499 255 255 255
0.183 0.045 0.46 255 255 255
-0.183 0.011 0.595 0 0 0
0.3 -0.174 0.967 255 255 255
-0.326 -0.47 1.591 255 255 255
-1.077 -0.666 2.628 255 255 255
-1.252 -0.967 2.044 255 255 255
-0.17 0.118 0.558 255 255 255
-0.354 -0.128 0.737 255 255 255
0.623 -0.865 2.234 0 0 0
0.436 -1.134 2.233 255 255 255
-0.088 0.157 0.529 255 255 255
0.654 -0.983 2.168 255 255 255
-0.883 -1.774 2.605 255 255 255
-0.168 -1.325 2.692 255 255 255
-0.439 -1.441 2.766 255 255 255
0.937 -1.332 2.043 255 255 255
0.301 -1.028 2.373 255 255 255
0.14 -0.458 1.72 255 255 255
-0.041 0.011 0.559 0 0 0
0.737 -1.246 2.016 255 255 255
-0.372 0.04 0.622 255 255 255
0.901 -0.351 1.566 0 0 0
0.07 0.106 0.498 255 255 255
0.171 -0.49 1.752 0 0 0
0.003 0.099 0.515 255 255 255
0.101 0.143 0.459 255 255 255
0.197 0.023 0.58 0 0 0
0.758 -0.185 1.133 255 255 255
-0.19 0.034 0.566 255 255 255
-1.238 -0.723 2.169 255 255 255
0.109 -0.054 0.708 255 255 255
0.337 -0.093 0.823 255 255 255
0.465 -0.484 1.569 255 255 255
0.153 -0.136 0.928 255 255 255
-0.112 -0.005 0.51 255 255 255
0.998 -0.879 2.025 255 255 255
-0.155 0.084 0.571 255 255 255
0.194 -0.875 2.474 0 0 0
-0.165 0.172 0.58 255 255 255
-0.783 -1.513 2.745 255 255 255
0.114 0.042 0.509 0 0 0
-0.319 0.23 0.652 255 255 255
0.074 0.142 0.471 255 255 255
-0.007 0.102 0.514 255 255 255
-0.382 0.141 0.686 255 255 255
-0.062 0.033 0.535 255 255 255
0.518 -1.021 2.23 255 255 255
0.013 0.011 0.545 255 255 255
0.087 0.031 0.569 255 255 255
-1.173 -1.161 2.229 255 255 255
0.004 -0.125 0.936 255 255 255
-0.042 0.225 0.537 255 255 255
-0.796 -1.522 2.745 255 255 255
-0.155 0.124 0.55 255 255 255
0.161 -1.643 2.36 255 255 255
0.455 -0.084 0.918 0 0 0
0.976 -0.783 2.072 255 255 255
-1.159 -1.411 2.156 255 255 255
-0.441 -0.123 0.684 255 255 255
-0.191 0.096 0.583 255 255 255
0.208 0.02 0.581 0 0 0
-0.796 -1.76 2.65 255 255 255
-1.151 -1.144 2.279 255 255 255
-1.233 -0.585 2.242 255 255 255
-0.246 -0.005 0.653 0 0 0
-1.258 -0.758 2.122 255 255 255
-0.339 -0.06 0.647 0 0 0
-0.353 -0.087 0.685 255 255 255
-0.585 -1.689 2.772 255 255 255
-0.325 0.027 0.653 255 255 255
-0.343 -0.12 0.739 255 255 255
-0.028 0.173 0.505 255 255 255
0.867 -0.486 1.673 255 255 255
0.098 -1.772 2.369 0 0 0
-0.061 0.149 0.508 0 0 0
0.222 0.057 0.438 255 255 255
0.15 -1.374 2.471 255 255 255
-1.413 -0.442 1.91 255 255 255
-1.142 -1.113 2.323 255 255 255
0.19 0.16 0.431 255 255 255
0.21 0.109 0.465 255 255 255
0.231 0.079 0.469 0 0 0
-0.193 0.345 0.619 255 255 255
1.014 -0.71 1.937 0 0 0
-0.035 -0.038 0.608 255 255 255
-1.108 -1.122 2.383 255 255 255
0.169 0 0.605 0 0 0
0.011 0.06 0.559 0 0 0
0.175 -0.023 0.662 0 0 0
-0.278 0.108 0.607 255 255 255
0.955 -1.453 1.994 0 0 0
-0.113 0.055 0.525 0 0 0
0.167 0.048 0.469 255 255 255
-0.048 -0.213 1.14 255 255 255
0.12 0.042 0.496 255 255 255
-0.097 0.124 0.535 255 255 255
0.039 0.123 0.493 0 0 0
-0.467 -1.592 2.736 255 255 255
-0.89 -1.499 2.696 255 255 255
-1.03 -1.239 2.476 255 255 255
0.853 -0.52 1.701 255 255 255
0.096 0.031 0.576 255 255 255
0.188 -0.472 1.675 255 255 255
0.569 -1.59 2.163 0 0 0
-0.011 -0.014 0.675 0 0 0
-0.087 -0.229 1.106 255 255 255
0.089 0.065 0.502 255 255 255
-0.347 -1.252 2.812 255 255 255
0.683 -0.889 2.189 0 0 0
0.071 0.051 0.519 0 0 0
0.105 0.217 0.458 0 0 0
0.649 -0.875 2.214 0 0 0
0.053 0.085 0.527 255 255 255
-0.494 -1.332 2.84 255 255 255
-0.606 -0.039 0.795 255 255 255
-0.066 0.159 0.519 0 0 0
-0.121 0.091 0.556 255 255 255
0.147 0.131 0.46 255 255 255
0.834 -0.228 1.233 255 255 255
0.827 -1.362 2.082 0 0 0
-0.198 -1.441 2.665 255 255 255
0.073 0.004 0.562 255 255 255
-0.985 -0.766 2.768 255 255 255
-0.004 -0.488 1.688 255 255 255
-0.411 0.155 0.711 255 255 255
0.208 -1.537 2.376 255 255 255
-0.012 -1.7 2.456 255 255 255
-0.065 0.122 0.523 255 255 255
0.215 0.123 0.453 255 255 255
0.028 0.125 0.495 255 255 255
-0.108 0.013 0.509 255 255 255
-1.283 -0.792 2.054 255 255 255
0.796 -0.958 2.101 255 255 255
0.052 -0.317 1.353 255 255 255
-0.309 0.093 0.626 255 255 255
0.098 0.021 0.581 255 255 255
0.723 -1.093 2.077 255 255 255
0.198 0.144 0.436 255 255 255
0.765 -0.876 2.15 0 0 0
0.16 0.108 0.475 255 255 255
0.206 0.022 0.584 0 0 0
-0.159 0.141 0.558 255 255 255
0.041 0.01 0.555 255 255 255
0.564 -1.617 2.153 0 0 0
0.006 0.097 0.52 255 255 255
0.099 0.039 0.581 0 0 0
0.097 0.014 0.578 255 255 255
0.049 -0.125 0.91 255 255 255
0.895 -0.541 1.692 255 255 255
-0.492 0.046 0.712 255 255 255
0.321 -0.236 1.161 0 0 0
-0.607 -1.373 2.898 255 255 255
0.041 0.076 0.528 255 255 255
0.048 0.076 0.527 255 255 255
-0.319 -0.096 0.734 255 255 255
0.555 -0.087 0.896 255 255 255
0.106 0.161 0.446 255 255 255
-0.046 -0.051 0.579 255 255 255
-0.099 -0.246 1.056 255 255 255
-0.045 0.034 0.523 255 255 255
-0.179 0.141 0.572 0 0 0
-0.402 0.136 0.694 255 255 255
0.084 -0.14 0.873 255 255 255
-1.332 -0.574 2.036 255 255 255
-1.226 -0.554 2.267 255 255 255
-0.253 0.045 0.604 255 255 255
-0.416 -0.14 0.692 255 255 255
0.005 0.221 0.505 255 255 255
0.437 -0.961 2.29 255 255 255
-0.38 -1.172 2.909 255 255 255
-0.227 0.103 0.587 255 255 255
1.097 -0.902 1.96 255 255 255
-1.209 -0.952 2.181 255 255 255
0.879 -0.73 2.151 0 0 0
0.17 -0.45 1.702 0 0 0
-0.212 -0.537 1.742 255 255 255
0.042 0.112 0.494 255 255 255
-0.092 0.061 0.551 255 255 255
-0.02 0.079 0.549 255 255 255
0.142 0.167 0.435 255 255 255
-0.368 0.189 0.674 255 255 255
-1.076 -1.316 2.343 255 255 255
-1.074 -1.336 2.331 255 255 255
0.165 -0.898 2.494 0 0 0
-1.169 -1.13 2.255 255 255 255
-0.004 -0.151 0.944 255 255 255
-0.215 -0.01 0.657 0 0 0
-0.012 0.012 0.543 255 255 255
-0.035 -0.188 1.094 255 255 255
0.111 0.145 0.456 255 255 255
-0.166 0.15 0.569 255 255 255
0.066 0.124 0.481 0 0 0
0.02 -0.142 0.924 255 255 255
-1.208 -1.092 2.111 255 255 255
-0.038 -0.322 1.316 0 0 0
-0.062 0.1 0.54 255 255 255
0.369 -0.142 0.887 0 0 0
-0.214 -0.078 0.617 255 255 255
0.14 -0.167 0.888 255 255 255
0.549 -1.017 2.215 255 255 255
-0.9 -1.941 2.495 255 255 255
0.238 -0.458 1.634 255 255 255
-0.15 -1.458 2.623 255 255 255
-0.021 0.165 0.496 0 0 0
-0.028 0.087 0.546 255 255 255
0.07 -0.153 0.898 255 255 255
0.083 0.019 0.564 255 255 255
-0.382 0.01 0.652 255 255 255
-1.197 -1.246 2.159 255 255 255
-0.005 -0.251 1.131 255 255 255
0.397 -0.082 0.842 255 255 255
0.177 0.087 0.469 255 255 255
-0.902 -1.711 2.562 255 255 255
0.101 0.259 0.477 255 255 255
-1.156 -0.633 2.484 255 255 255
-0.371 0.035 0.65 0 0 0
-0.302 -1.615 2.653 255 255 255
0.544 -0.507 1.568 255 255 255
-0.395 -0.119 0.694 255 255 255
0.202 0.046 0.462 255 255 255
-0.387 0.184 0.7 255 255 255
-1.38 -0.382 2.01 255 255 255
0.065 0.225 0.477 0 0 0
0.142 0.095 0.503 0 0 0
-1.284 -0.585 2.13 255 255 255
-0.014 0.259 0.542 255 255 255
-0.03 0.058 0.572 0 0 0
0.22 0.107 0.468 0 0 0
-0.113 -0.042 0.549 255 255 255
0.921 -0.673 2.15 0 0 0
-0.138 0.173 0.564 255 255 255
0.229 -0.212 1.06 255 255 255
-0.102 0.011 0.544 255 255 255
0.87 -0.4 1.72 0 0 0
0.175 -0.149 0.921 255 255 255
-0.223 -0.088 0.635 0 0 0
0.164 -0.026 0.687 0 0 0
-0.043 0.048 0.539 255 255 255
0.169 0.108 0.472 255 255 255
-0.305 -0.107 0.764 255 255 255
0.16 0.057 0.481 255 255 255
0.218 -0.081 0.797 0 0 0
-1.026 -1.214 2.491 255 255 255
0.004 0.245 0.521 0 0 0
0.112 -0.434 1.569 255 255 255
0.102 0.065 0.507 255 255 255
-0.073 0.235 0.565 255 255 255
0.124 0.174 0.435 255 255 255
-0.108 0.142 0.53 255 255 255
-0.099 0.114 0.541 255 255 255
0.91 -0.748 2.121 0 0 0
-0.336 -0.108 0.736 255 255 255
0.345 -0.815 2.308 255 255 255
0.036 0.119 0.495 0 0 0
0.071 0.206 0.467 255 255 255
0.125 0.029 0.538 0 0 0
0.093 -1.029 2.468 255 255 255
0.508 -1.631 2.182 0 0 0
0.139 0.116 0.468 255 255 255
0.935 -1.524 1.981 255 255 255
0.224 0.096 0.442 255 255 255
0.06 0 0.573 255 255 255
-0.065 0.243 0.564 255 255 255
0.086 0.259 0.486 255 255 255
0.671 -0.114 0.981 255 255 255
-0.186 -1.687 2.564 255 255 255
-1.014 -1.707 2.295 0 0 0
0.129 -0.009 0.602 255 255 255
0.007 -0.525 1.713 255 255 255
1.108 -1.043 1.948 255 255 255
-0.445 0.061 0.686 255 255 255
0.033 0.051 0.542 0 0 0
-0.218 -0.042 0.648 0 0 0
0.015 -0.019 0.651 255 255 255
1.005 -0.638 1.913 255 255 255
-0.141 0.115 0.554 255 255 255
0.009 0.213 0.499 255 255 255
0.23 0.049 0.417 0 0 0
0.134 0.141 0.45 255 255 255
-1.354 -0.455 2.034 255 255 255
0.135 0.013 0.579 0 0 0
0.325 -0.276 1.172 255 255 255
0.061 0.039 0.569 0 0 0
0.92 -0.428 1.668 255 255 255
-0.117 0.132 0.533 255 255 255
-1.063 -0.729 2.628 255 255 255
1.02 -1.294 2.023 255 255 255
-0.156 -1.22 2.723 255 255 255
-1.062 -0.687 2.649 255 255 255
-1.031 -1.229 2.481 255 255 255
0.507 -1.542 2.22 255 255 255
-0.079 -0.074 0.58 255 255 255
-0.137 -0.435 1.477 0 0 0
-0.024 0.184 0.507 255 255 255
0.031 0.083 0.532 255 255 255
-0.282 0.226 0.683 255 255 255
-0.276 0.064 0.624 255 255 255
-0.142 0.306 0.629 255 255 255
0.517 -0.898 2.283 0 0 0
-0.223 -0.026 0.667 0 0 0
-0.375 0.056 0.663 255 255 255
0.317 0.005 0.517 0 0 0
0.811 -1.464 2.07 255 255 255
-0.385 -1.339 2.805 255 255 255
0.134 0.078 0.486 255 255 255
0.238 -0.019 0.674 0 0 0
0.127 0.199 0.44 0 0 0
-0.064 0.064 0.569 0 0 0
1.001 -0.996 1.973 255 255 255
0.489 -1.411 2.262 0 0 0
-0.237 0.35 0.615 255 255 255
0.232 -0.758 2.412 255 255 255
0.856 -0.341 1.552 255 255 255
-1.142 -0.836 2.426 255 255 255
0.344 -0.137 0.944 0 0 0
0.158 -0.44 1.736 255 255 255
0.13 0.17 0.436 255 255 255
0.035 0.046 0.539 255 255 255
-1.023 -0.953 2.623 255 255 255
-0.547 -1.927 2.666 0 0 0
0.132 0.165 0.441 255 255 255
-1.42 -0.376 1.921 255 255 255
-0.166 0.08 0.577 255 255 255
-1.075 -0.846 2.555 255 255 255
0.528 -0.794 2.267 255 255 255
0.882 -1.427 2.043 255 255 255
-1.404 -0.409 1.937 255 255 255
0.176 0.212 0.427 255 255 255
0.31 -1.204 2.306 0 0 0
1.068 -0.963 1.957 255 255 255
-0.179 -1.279 2.706 255 255 255
1.035 -0.797 2.036 255 255 255
0.138 0.065 0.475 0 0 0
-0.225 -0.067 0.602 255 255 255
-0.191 0.327 0.66 255 255 255
-0.197 -1.483 2.641 255 255 255
-0.173 0.034 0.562 255 255 255
-0.207 0.211 0.628 255 255 255
0.554 -0.993 2.221 255 255 255
1.008 -1.09 1.957 0 0 0
0.024 -0.101 0.878 0 0 0
0.951 -1.516 1.984 0 0 0
-0.319 0.225 0.657 255 255 255
0.483 -0.236 1.135 255 255 255
0.214 0.046 0.471 255 255 255
0.591 -0.07 0.858 0 0 0
-0.757 -0.145 1.004 255 255 255
0.293 0.004 0.54 0 0 0
-0.168 -1.381 2.671 255 255 255
-0.075 0.124 0.528 255 255 255
0.906 -0.873 2.077 255 255 255
0.733 -0.185 1.124 255 255 255
-0.252 0.339 0.628 255 255 255
0.527 -1.565 2.201 255 255 255
0.923 -0.322 1.458 0 0 0
-0.012 0.015 0.539 255 255 255
0.917 -0.575 2.086 255 255 255
0.03 0.045 0.543 255 255 255
-0.966 -1.707 2.397 255 255 255
0.86 -1.079 2.014 255 255 255
0.253 -0.423 1.606 255 255 255
0.144 -1.033 2.461 255 255 255
0.289 -0.018 0.554 0 0 0
-0.817 -1.958 2.594 0 0 0
0.408 -0.023 0.713 255 255 255
-0.016 0.021 0.534 255 255 255
0.809 -1.148 2.014 255 255 255
-1.12 -1.387 2.231 255 255 255
0.126 0.103 0.489 255 255 255
-0.229 -0.033 0.648 255 255 255
0.292 -0.829 2.351 255 255 255
0.176 0.011 0.59 0 0 0
0.395 -1.074 2.278 255 255 255
0.12 0.136 0.457 255 255 255
0.171 -0.294 1.165 255 255 255
-0.138 -1.436 2.634 255 255 255
0.06 -0.071 0.732 0 0 0
0.044 -1.63 2.46 255 255 255
-1.189 -1.074 2.253 255 255 255
0.146 0.114 0.467 255 255 255
0.101 -0.172 0.88 255 255 255
0.144 0.105 0.48 255 255 255
0.154 0.04 0.52 255 255 255
-0.274 0.199 0.658 255 255 255
-1.342 -0.421 2.066 255 255 255
0.367 -0.489 1.637 255 255 255
0.925 -0.39 1.506 0 0 0
0.193 -1.341 2.468 255 255 255
0.114 -0.845 2.537 0 0 0
-0.579 -0.057 0.802 255 255 255
0.028 0.108 0.501 255 255 255
-1.191 -0.557 2.452 0 0 0
0.376 -0.929 2.354 0 0 0
-0.191 -1.492 2.633 255 255 255
0.151 -1.295 2.504 255 255 255
0.027 0.107 0.503 255 255 255
-0.063 -0.227 1.191 0 0 0
-1.257 -0.839 2.1 255 255 255
0.248 -0.028 0.689 255 255 255
0.242 0.058 0.409 255 255 255
0.069 -0.033 0.669 255 255 255
-0.811 -1.73 2.674 255 255 255
-0.301 -0.276 1.285 255 255 255
0.139 0.153 0.445 255 255 255
0.102 0.252 0.472 255 255 255
0.108 0.212 0.455 0 0 0
-0.107 0.017 0.516 255 255 255
0.053 0.089 0.521 255 255 255
0.008 0.105 0.507 0 0 0
0.497 -0.824 2.255 255 255 255
-1.084 -1.341 2.325 255 255 255
0.191 0.035 0.553 0 0 0
-0.122 0.089 0.561 255 255 255
1.18 -0.831 1.952 255 255 255
-0.105 0.055 0.523 255 255 255
0.151 0.109 0.471 255 255 255
0.083 0.093 0.504 255 255 255
0.155 -0.127 0.93 255 255 255
-0.432 -1.514 2.731 255 255 255
1.111 -0.824 1.988 0 0 0
0.061 -0.096 0.848 255 255 255
-0.58 -0.005 0.777 255 255 255
0.986 -0.976 1.992 255 255 255
0.214 -0.108 0.861 255 255 255
0.807 -0.797 2.089 255 255 255
-0.028 0.118 0.51 255 255 255
-0.999 -1.32 2.519 255 255 255
-0.083 -0.021 0.547 0 0 0
0.248 -0.998 2.413 255 255 255
-0.35 -0.008 0.663 0 0 0
-0.116 0.093 0.551 255 255 255
-0.977 -1.313 2.565 255 255 255
-0.089 -0.081 0.585 255 255 255
-0.083 0.02 0.543 255 255 255
0.103 -1.114 2.447 0 0 0
0.604 -0.135 1.017 255 255 255
0.076 -0.005 0.604 0 0 0
-0.138 0.096 0.56 255 255 255
0.757 -0.716 2.105 255 255 255
-0.284 -0.028 0.573 255 255 255
-0.279 0.029 0.617 255 255 255
-0.778 -1.687 2.686 255 255 255
0.233 0.131 0.44 255 255 255
-0.085 0.064 0.556 255 255 255
-0.017 0.14 0.497 255 255 255
0.552 -0.2 1.121 255 255 255
-0.201 0.024 0.576 255 255 255
-0.352 -0.128 0.738 255 255 255
0.069 0.082 0.521 0 0 0
-0.134 0.12 0.546 255 255 255
0.196 0.117 0.463 255 255 255
-0.741 -1.842 2.653 255 255 255
-0.332 -0.604 1.856 255 255 255
0.072 -0.271 1.232 255 255 255
0.223 0.097 0.438 255 255 255
0.219 -0.932 2.446 0 0 0
-0.067 -0.08 0.607 255 255 255
0.133 -0.092 0.871 255 255 255
0.236 -0.031 0.694 255 255 255
0.286 -0.111 0.826 255 255 255
-0.174 0.158 0.576 255 255 255
-0.035 -0.021 0.621 255 255 255
-0.043 0.062 0.574 0 0 0
-0.058 0.053 0.548 0 0 0
0.077 -0.111 0.898 0 0 0
0.049 -0.225 1.065 255 255 255
-0.03 -0.051 0.609 255 255 255
-0.056 0.117 0.522 0 0 0
-0.113 0.218 0.576 255 255 255
0.087 -0.024 0.635 255 255 255
0.564 -0.412 1.562 255 255 255
0.4 -1.104 2.269 255 255 255
-0.264 0.311 0.712 0 0 0
-0.058 0.017 0.548 255 255 255
0.016 -0.001 0.638 0 0 0
0.183 0.194 0.419 0 0 0
-0.274 0.06 0.625 255 255 255
0.464 0.002 0.656 255 255 255
-0.209 -1.393 2.679 255 255 255
-1.101 -1.196 2.358 255 255 255
-0.03 0.114 0.521 255 255 255
0.928 -0.313 1.46 255 255 255
-0.06 0.059 0.565 0 0 0
0.008 0.007 0.554 255 255 255
0.986 -1.327 2.019 255 255 255
-1.008 -0.751 2.729 255 255 255
-0.343 -0.232 1.108 255 255 255
0.886 -0.401 1.717 255 255 255
-0.287 0.252 0.676 0 0 0
-0.052 0.196 0.529 255 255 255
-1.113 -1.423 2.227 255 255 255
0.469 -1.546 2.241 255 255 255
-0.376 0.097 0.658 255 255 255
-1.205 -0.879 2.29 255 255 255
0.026 0.102 0.511 255 255 255
-0.715 -0.137 0.994 255 255 255
0.128 0.171 0.436 255 255 255
0.046 0.067 0.535 255 255 255
0.312 -0.763 2.326 255 255 255
0.828 -0.395 1.724 0 0 0
0.133 0.087 0.512 0 0 0
0.175 -0.881 2.492 0 0 0
0.198 -0.112 0.942 0 0 0
-0.084 0.144 0.519 255 255 255
-0.036 0.082 0.552 255 255 255
-0.404 0 0.633 0 0 0
0.829 -0.856 2.107 255 255 255
-0.16 0.105 0.566 255 255 255
-0.03 -0.142 1.003 0 0 0
0.956 -1.115 1.959 0 0 0
-0.275 -0.007 0.607 255 255 255
-0.92 -0.894 2.861 255 255 255
-0.096 0.131 0.525 255 255 255
-0.298 -0.237 1.168 255 255 255
-0.106 0.292 0.624 0 0 0
-0.024 -0.196 1.088 255 255 255
-0.958 -1.212 2.655 255 255 255
0.911 -1.02 2.008 255 255 255
0.524 -0.254 1.163 255 255 255
0.14 -0.212 0.917 255 255 255
0.545 -0.061 0.861 255 255 255
-0.237 0.052 0.598 255 255 255
0.022 -0.144 0.922 255 255 255
-0.018 0.038 0.529 255 255 255
-0.094 0.338 0.641 255 255 255
-0.577 -1.597 2.798 255 255 255
-0.371 0.078 0.654 255 255 255
0.742 -1.108 2.069 255 255 255
-0.875 -1.576 2.708 255 255 255
0.497 -1.013 2.252 255 255 255
0.265 0.042 0.414 255 255 255
-0.63 -1.941 2.698 255 255 255
0.234 0.074 0.39 255 255 255
-0.05 0.097 0.534 255 255 255
-0.127 0.099 0.556 255 255 255
-0.32 0.052 0.654 255 255 255
-1.093 -0.934 2.474 255 255 255
0.124 -1.305 2.512 255 255 255
-0.283 -1.305 2.756 255 255 255
-0.041 0.181 0.514 255 255 255
-0.437 -1.935 2.587 0 0 0
-0.272 -0.011 0.593 255 255 255
0.537 -0.901 2.261 0 0 0
0.048 0.08 0.526 255 255 255
-0.095 -0.023 0.548 255 255 255
-0.194 0.083 0.589 255 255 255
0.153 0.063 0.468 0 0 0
0.682 -0.119 0.992 255 255 255
0.368 -0.139 0.896 0 0 0
-0.002 0.149 0.485 255 255 255
0.22 -0.053 0.725 255 255 255
0.121 -0.133 0.869 255 255 255
0.009 0.061 0.561 0 0 0
-0.004 0.133 0.497 0 0 0
-0.328 -1.561 2.696 255 255 255
0.402 0.019 0.59 255 255 255
-1.24 -0.898 2.107 255 255 255
0.829 -1.339 2.064 0 0 0
0.08 0.174 0.451 255 255 255
-0.073 0.051 0.537 0 0 0
-0.215 0.021 0.588 255 255 255
0.188 0.145 0.439 255 255 255
0.257 -0.738 2.365 255 255 255
-1.131 -0.627 2.54 255 255 255
0.113 -1.53 2.433 255 255 255
0.696 -0.282 1.367 255 255 255
0.228 0.01 0.559 255 255 255
0.06 0.06 0.53 255 255 255
-1.088 -1.605 2.192 0 0 0
-0.252 -0.036 0.577 255 255 255
-0.13 0.115 0.55 255 255 255
0.412 -0.415 1.591 255 255 255
-0.322 0.186 0.678 255 255 255
-0.03 0.145 0.496 255 255 255
-0.333 0.207 0.688 0 0 0
-0.404 -0.117 0.686 255 255 255
-0.319 -0.094 0.727 255 255 255
-0.005 0.058 0.559 0 0 0
0.177 -1.599 2.367 255 255 255
-0.255 0.215 0.658 255 255 255
-1.015 -1.726 2.29 0 0 0
-1.277 -0.718 2.101 255 255 255
-0.236 0.103 0.592 255 255 255
0.164 -0.054 0.709 255 255 255
0.277 -0.025 0.683 255 255 255
-0.139 -0.027 0.485 255 255 255
-0.553 -0.069 0.803 255 255 255
-1.142 -1.213 2.276 255 255 255
-0.069 -0.017 0.542 0 0 0
-0.24 -1.54 2.652 255 255 255
-0.049 -0.063 0.596 255 255 255
-0.137 0.313 0.632 255 255 255
-0.202 0.091 0.59 255 255 255
-1.037 -0.961 2.591 0 0 0
0.014 -0.007 0.644 0 0 0
0.08 -0.405 1.463 255 255 255
-1.07 -0.918 2.542 255 255 255
0.738 -0.238 1.247 255 255 255
0.548 -1.467 2.219 255 255 255
-0.026 0.319 0.587 255 255 255
0.23 0.016 0.508 255 255 255
0.065 -0.119 0.902 255 255 255
0.077 -1.393 2.533 255 255 255
-0.957 -1.697 2.431 255 255 255
0.165 0.232 0.436 255 255 255
-1.258 -0.934 2.054 255 255 255
-0.091 0.129 0.528 255 255 255
0.194 0.151 0.433 255 255 255
-0.188 -0.081 0.631 255 255 255
0.548 -0.885 2.271 0 0 0
0.204 -0.295 1.162 255 255 255
-0.336 -0.155 0.884 0 0 0
0.28 -0.046 0.749 255 255 255
-0.052 0.092 0.538 255 255 255
-0.127 0.258 0.615 255 255 255
0.419 -0.452 1.598 255 255 255
0.419 0.01 0.61 255 255 255
-0.15 -1.713 2.526 255 255 255
0.161 0.22 0.434 255 255 255
0.134 -1.614 2.38 255 255 255
-0.16 0.026 0.569 255 255 255
0.489 -0.219 1.106 255 255 255
0.343 -0.238 1.125 0 0 0
0.129 0.086 0.514 0 0 0
0.022 -0.018 0.651 255 255 255
-0.144 0.217 0.599 255 255 255
0.564 -1.104 2.165 255 255 255
-1.13 -0.942 2.401 255 255 255
-0.186 -0.056 0.643 0 0 0
0.282 -0.439 1.598 255 255 255
0.311 -0.495 1.654 0 0 0
-0.093 -0.088 0.609 255 255 255
0.225 0.018 0.522 255 255 255
0.453 -0.028 0.74 255 255 255
0.108 0.129 0.462 255 255 255
0.107 -0.142 0.871 255 255 255
0.231 -0.015 0.663 255 255 255
0.291 -0.116 0.834 255 255 255
-0.196 0.215 0.623 255 255 255
-0.426 -0.306 1.392 255 255 255
0.639 -0.79 2.164 255 255 255
-0.712 -2.036 2.64 255 255 255
0.642 -1.284 2.015 255 255 255
-0.072 0.304 0.607 255 255 255
-0.082 -0.242 1.099 255 255 255
0.91 -0.78 2.112 0 0 0
0.037 -0.906 2.584 0 0 0
-0.116 -0.184 0.951 255 255 255
0.221 -0.104 0.835 255 255 255
-0.165 0.071 0.596 255 255 255
-1.187 -1.004 2.268 255 255 255
-1.356 -0.404 2.044 255 255 255
0.051 0.273 0.508 255 255 255
-0.109 -0.027 0.546 255 255 255
-0.42 -1.443 2.758 255 255 255
0.074 0.127 0.476 0 0 0
0.097 0.197 0.454 255 255 255
-0.03 0.073 0.56 0 0 0
-0.408 0.173 0.72 255 255 255
0.195 0.025 0.576 0 0 0
-0.026 -0.024 0.639 255 255 255
-1.207 -0.849 2.301 0 0 0
-1.167 -1.211 2.224 255 255 255
-0.183 0.266 0.652 255 255 255
0.141 -0.009 0.625 255 255 255
-0.051 -0.015 0.607 255 255 255
0.813 -0.226 1.234 255 255 255
0.203 -1.046 2.409 255 255 255
0.147 -0.276 1.171 255 255 255
0.018 0.077 0.539 0 0 0
0.958 -1.061 1.969 255 255 255
-0.01 -0.255 1.142 255 255 255
-0.271 -0.056 0.572 255 255 255
-0.557 -1.649 2.772 255 255 255
0.768 -1.437 2.099 255 255 255
0.417 -1.26 2.191 0 0 0
0.591 -1.11 2.15 255 255 255
0.039 -0.001 0.599 255 255 255
0.913 -0.371 1.503 0 0 0
-0.15 0.082 0.571 255 255 255
-1.013 -1.253 2.51 255 255 255
0.259 -0.076 0.77 255 255 255
-0.176 0.125 0.56 255 255 255
0.02 0.26 0.52 255 255 255
0.928 -0.398 1.576 0 0 0
-0.663 -1.694 2.809 255 255 255
-1.197 -0.762 2.364 0 0 0
0.209 -1.24 2.431 0 0 0
0.078 0.004 0.563 255 255 255
0.111 0.211 0.454 0 0 0
0.828 -0.457 1.676 255 255 255
0.531 -0.094 0.913 255 255 255
-0.864 -1.542 2.728 255 255 255
-0.363 -0.168 0.894 255 255 255
0.074 0.084 0.521 0 0 0
-0.714 -1.612 2.803 255 255 255
-0.388 0.027 0.639 255 255 255
0.117 0.038 0.581 255 255 255
-1.038 -1.579 2.3 255 255 255
-0.248 -0.039 0.623 0 0 0
-1.035 -0.758 2.679 255 255 255
0.641 -1.463 2.166 255 255 255
0.188 0.08 0.466 255 255 255
0.438 0.01 0.619 255 255 255
-0.089 0.312 0.62 255 255 255
0.133 0.036 0.517 255 255 255
-1.235 -0.985 2.083 255 255 255
0.01 0.142 0.487 255 255 255
0.234 -0.834 2.417 255 255 255
-0.065 -0.011 0.541 255 255 255
0.161 0.057 0.481 255 255 255
-0.072 -0.186 1.082 255 255 255
0.315 -1.584 2.305 255 255 255
-0.043 0.234 0.544 255 255 255
-0.133 0.132 0.539 255 255 255
-0.192 -1.308 2.712 255 255 255
0.713 -0.121 0.994 255 255 255
-1.404 -0.359 1.969 255 255 255
0.044 -0.173 0.961 0 0 0
-1.219 -1.09 2.076 255 255 255
0.229 0.04 0.426 0 0 0
-0.33 0.027 0.656 255 255 255
-0.076 -0.326 1.206 255 255 255
0.229 0.113 0.457 255 255 255
0.43 -0.517 1.589 255 255 255
-0.195 0.219 0.624 255 255 255
-0.159 0.033 0.569 255 255 255
-1.279 -0.667 2.116 255 255 255
-0.149 0.037 0.553 255 255 255
-0.036 0.027 0.528 255 255 255
0.14 -1.319 2.502 255 255 255
0.119 -1.564 2.411 255 255 255
0.246 -0.449 1.626 255 255 255
0.023 0.062 0.553 0 0 0
-0.303 -0.052 0.604 0 0 0
-0.042 0.027 0.536 0 0 0
0.032 -0.034 0.666 255 255 255
-0.335 0.108 0.641 255 255 255
-0.113 0.111 0.547 255 255 255
-0.937 -1.754 2.466 255 255 255
0.469 -0.096 0.895 0 0 0
0.692 -1.128 2.078 255 255 255
0.426 -0.946 2.322 0 0 0
0.186 -0.185 0.931 255 255 255
-0.163 0.071 0.595 255 255 255
0.584 -1.011 2.196 255 255 255
-0.09 0.1 0.541 255 255 255
-1.367 -0.508 1.981 255 255 255
0.379 -0.086 0.844 255 255 255
0.158 0.007 0.588 255 255 255
0.301 -0.994 2.386 255 255 255
0.59 -1.175 2.125 255 255 255
0.003 -0.532 1.71 255 255 255
-0.059 0.134 0.513 255 255 255
-1.074 -1.257 2.392 255 255 255
0.021 -0.027 0.658 255 255 255
-0.023 0.034 0.526 255 255 255
0.855 -0.872 2.104 0 0 0
-0.105 -0.023 0.547 255 255 255
-0.272 0.151 0.629 255 255 255
0.118 0.052 0.476 255 255 255
-1.008 -1.141 2.564 255 255 255
0.128 0.224 0.45 255 255 255
-0.179 0.097 0.576 255 255 255
0.226 0.088 0.395 255 255 255
0.254 -0.067 0.745 255 255 255
0.944 -1.264 2.045 0 0 0
-0.39 0.099 0.667 255 255 255
-0.162 -1.612 2.585 255 255 255
0.373 -0.481 1.635 0 0 0
0.574 -0.797 2.21 255 255 255
0.205 -0.437 1.65 255 255 255
-0.012 -1.254 2.591 255 255 255
-0.068 0.254 0.573 0 0 0
0.094 -0.106 0.886 0 0 0
0.082 -0.215 1.046 255 255 255
0.092 -0.008 0.608 0 0 0
0.411 -0.764 2.272 255 255 255
0.954 -1.108 1.956 0 0 0
-0.327 -0.276 1.268 255 255 255
0.197 -0.102 0.921 0 0 0
-0.088 0.094 0.559 255 255 255
-0.203 -0.262 1.116 255 255 255
-0.205 -0.122 0.776 255 255 255
-0.361 -0.011 0.636 0 0 0
-1.322 -0.537 2.074 255 255 255
0.082 -1.075 2.452 255 255 255
0.005 -0.018 0.654 0 0 0
-0.113 -0.132 0.822 255 255 255
-0.242 0.292 0.699 255 255 255
0.258 0.026 0.424 255 255 255
-0.302 0.24 0.664 255 255 255
-0.331 -0.114 0.744 255 255 255
-0.038 -0.011 0.628 255 255 255
0.542 -0.063 0.864 255 255 255
0.579 -1.605 2.153 0 0 0
-0.097 -0.085 0.594 255 255 255
0.678 -0.228 1.241 255 255 255
0.343 -0.101 0.846 0 0 0
-0.348 -0.025 0.577 255 255 255
-0.306 -0.603 1.843 255 255 255
0.181 -0.062 0.714 255 255 255
0.057 0.107 0.501 255 255 255
0.528 -1.223 2.139 255 255 255
-0.067 0.102 0.544 255 255 255
0.015 0.187 0.486 255 255 255
-0.075 0.076 0.554 255 255 255
-0.09 0.066 0.555 255 255 255
-1.242 -0.783 2.141 255 255 255
-1.12 -0.864 2.467 255 255 255
-0.202 0.142 0.582 255 255 255
0.401 -0.424 1.601 255 255 255
0.05 -0.134 0.898 255 255 255
-1.106 -1.243 2.338 255 255 255
0.258 0.035 0.415 255 255 255
-0.934 -0.902 2.82 255 255 255
-0.11 0.182 0.554 255 255 255
0.058 0.048 0.527 255 255 255
-0.064 -0.033 0.547 255 255 255
-0.07 0.015 0.541 0 0 0
-0.276 0.007 0.646 0 0 0
-0.085 0.078 0.542 255 255 255
0.231 0.006 0.56 255 255 255
-0.004 0.199 0.502 255 255 255
-1.408 -0.383 1.946 255 255 255
0.074 -0.104 0.881 255 255 255
0.197 -0.035 0.696 255 255 255
0.242 -0.22 1.089 255 255 255
-1.247 -0.744 2.148 255 255 255
0.156 0.136 0.454 255 255 255
0.3 -1.4 2.384 255 255 255
0.539 -0.178 1.087 255 255 255
0.03 0.184 0.48 0 0 0
-0.103 0.095 0.55 255 255 255
-0.001 0.03 0.531 255 255 255
0.114 -0.102 0.879 255 255 255
-0.188 -0.13 0.778 255 255 255
0.124 0.199 0.441 0 0 0
-0.325 0.084 0.636 255 255 255
-1.037 -1.61 2.282 255 255 255
0.208 -1.59 2.352 255 255 255
-0.278 -0.301 1.302 255 255 255
0.144 -1.049 2.458 255 255 255
0.235 -0.059 0.724 255 255 255
0.093 0.079 0.507 255 255 255
0.093 0.097 0.494 255 255 255
0.063 0.112 0.489 255 255 255
-0.044 0.239 0.549 255 255 255
0.908 -0.329 1.465 255 255 255
1.047 -1.276 2.014 255 255 255
0.252 -0.055 0.727 255 255 255
-0.235 -0.045 0.615 0 0 0
0.19 0.043 0.472 255 255 255
-0.127 -0.192 0.95 255 255 255
-0.126 -0.025 0.487 255 255 255
0.265 -1.564 2.34 255 255 255
0.82 -0.894 2.116 0 0 0
0.04 0.225 0.487 0 0 0
0.045 0.224 0.483 0 0 0
-0.839 -0.975 2.971 255 255 255
0.076 0.125 0.475 255 255 255
0.203 0.071 0.472 255 255 255
-0.209 0.091 0.591 255 255 255
0.152 0.18 0.424 255 255 255
-0.187 0.112 0.569 255 255 255
0.258 0.007 0.491 255 255 255
0.168 -0.454 1.718 0 0 0
0.396 -0.85 2.312 255 255 255
0.176 -0.441 1.694 0 0 0
0.083 -0.055 0.713 255 255 255
-0.119 -0.331 1.213 255 255 255
0.201 -0.088 0.823 0 0 0
0.11 0.168 0.442 255 255 255
0.071 -0.068 0.724 255 255 255
0.079 0.115 0.482 255 255 255
0.021 0.155 0.475 255 255 255
-0.184 0.299 0.671 0 0 0
0.024 -0.408 1.501 0 0 0
0.297 -0.006 0.555 0 0 0
-0.162 0.178 0.58 255 255 255
-0.65 -1.397 2.914 255 255 255
-0.181 -0.039 0.619 255 255 255
-0.331 -0.391 1.563 255 255 255
0.033 -0.123 0.922 255 255 255
0.189 -0.959 2.459 255 255 255
0.905 -1.183 1.959 0 0 0
-0.286 -0.039 0.579 255 255 255
-0.101 -0.044 0.548 255 255 255
-0.13 0.02 0.511 255 255 255
0.223 0.12 0.457 255 255 255
-0.977 -1.664 2.409 255 255 255
0.056 0.104 0.506 255 255 255
-1.314 -0.589 2.07 255 255 255
0.755 -1.41 2.119 255 255 255
0.26 -1.142 2.337 255 255 255
-0.081 0.191 0.542 255 255 255
0.846 -1.482 2.04 0 0 0
0.465 -0.945 2.288 255 255 255
0.276 -0.853 2.375 255 255 255
-0.042 0.135 0.509 255 255 255
-0.16 0.322 0.581 255 255 255
0.79 -0.694 2.12 255 255 255
-0.081 0.005 0.546 0 0 0
-1.104 -1.4 2.259 255 255 255
-0.362 -0.302 1.345 255 255 255
0.277 -0.028 0.58 0 0 0
0.066 0.081 0.521 0 0 0
-0.291 -1.855 2.568 0 0 0
0.057 0.056 0.533 0 0 0
0.626 -1.167 2.113 255 255 255
1.011 -1.161 2.025 0 0 0
0.079 0.143 0.468 255 255 255
0.227 0.036 0.562 0 0 0
0.145 0.197 0.431 0 0 0
-0.166 -0.094 0.68 255 255 255
-0.078 0.117 0.532 0 0 0
0.305 -0.813 2.336 255 255 255
0.394 -0.088 0.845 255 255 255
-0.166 0.313 0.658 255 255 255
0.214 -0.216 1.063 255 255 255
-0.23 -0.044 0.622 0 0 0
-0.196 -0.07 0.625 255 255 255
-0.315 0.01 0.645 0 0 0
0.112 0.051 0.521 0 0 0
-0.987 -1.557 2.429 255 255 255
-0.159 -0.079 0.661 0 0 0
-0.374 0.186 0.678 0 0 0
0.141 -0.542 1.764 255 255 255
0.139 0.14 0.448 255 255 255
0.968 -0.572 1.722 255 255 255
-0.378 -0.119 0.713 255 255 255
0.897 -1.377 2.048 255 255 255
-0.979 -0.699 2.799 0 0 0
-0.146 -0.018 0.488 255 255 255
-0.299 0.138 0.64 255 255 255
0.303 0.01 0.509 0 0 0
0.727 -1.029 2.111 255 255 255
0.234 0.114 0.454 255 255 255
-0.142 -0.17 0.885 0 0 0
0.609 -0.418 1.604 255 255 255
0.241 -0.05 0.723 255 255 255
0.408 0.026 0.584 255 255 255
0.339 -0.156 0.922 0 0 0
-0.633 -1.445 2.879 255 255 255
-0.047 -0.301 1.295 0 0 0
-0.4 0 0.644 0 0 0
0.443 -1.012 2.282 255 255 255
-0.025 0.105 0.519 255 255 255
-0.033 0.287 0.574 255 255 255
-0.059 -0.016 0.579 255 255 255
0.254 0.046 0.41 0 0 0
-0.929 -0.951 2.814 255 255 255
-0.307 0.239 0.66 255 255 255
0.026 0.031 0.54 255 255 255
-0.932 -0.965 2.799 255 255 255
0.202 -1.446 2.413 255 255 255
0.867 -0.693 2.166 255 255 255
-0.041 0.031 0.526 255 255 255
0.007 0.178 0.488 0 0 0
-0.511 0.007 0.733 255 255 255
-0.376 -0.142 0.724 255 255 255
0.426 -0.056 0.81 255 255 255
-0.158 0.183 0.58 255 255 255
0.087 0.061 0.503 255 255 255
-0.058 -0.018 0.584 255 255 255
0.898 -0.697 2.153 0 0 0
-1.332 -0.653 2.001 255 255 255
-0.038 -0.376 1.319 0 0 0
-0.205 0.065 0.601 255 255 255
0.124 -0.133 0.87 255 255 255
-0.434 -0.301 1.379 255 255 255
-0.115 -0.226 1.008 255 255 255
0.081 0.016 0.562 255 255 255
-0.02 -0.158 1.004 0 0 0
0.711 -1.152 2.066 255 255 255
-0.234 -0.998 2.734 255 255 255
-0.197 -0.254 1.095 255 255 255
0.143 0.074 0.474 255 255 255
-0.094 0.3 0.617 255 255 255
-0.663 -1.204 2.495 255 255 255
-0.89 -1.662 2.633 255 255 255
-0.09 0.021 0.542 255 255 255
0.264 -1.139 2.331 255 255 255
-0.118 0.123 0.54 255 255 255
-0.33 -0.212 1.068 255 255 255
-0.377 0.186 0.705 255 255 255
0.171 0.056 0.456 255 255 255
-0.002 -0.078 0.815 0 0 0
-0.426 0.067 0.677 255 255 255
-0.04 -0.06 0.605 255 255 255
0.086 -0.147 0.871 255 255 255
-0.102 0.071 0.544 255 255 255
0.191 0.007 0.581 0 0 0
-0.206 0.298 0.685 255 255 255
-0.013 -0.045 0.71 0 0 0
0.466 -0.086 0.907 0 0 0
0.116 0.194 0.443 255 255 255
-0.086 -0.048 0.548 0 0 0
-0.002 0.059 0.563 0 0 0
0.49 -0.421 1.572 255 255 255
-0.132 0.034 0.527 255 255 255
-0.16 0.291 0.65 0 0 0
-0.164 0.057 0.575 255 255 255
0.861 -1.035 2.032 255 255 255
-0.007 0.053 0.565 0 0 0
-0.198 -0.339 1.267 255 255 255
0.962 -0.772 2.089 255 255 255
-0.112 0.005 0.543 255 255 255
0.628 -1.076 2.152 255 255 255
0.301 -0.832 2.344 255 255 255
0.064 0.126 0.482 0 0 0
-0.12 0.043 0.52 0 0 0
0.079 -0.034 0.668 255 255 255
0.716 -1.21 2.028 255 255 255
-0.104 0.304 0.623 255 255 255
0.979 -0.924 2.016 255 255 255
0.236 0.019 0.501 255 255 255
-0.652 -1.198 2.496 255 255 255
0.005 -1.54 2.517 255 255 255
-0.175 0.3 0.669 0 0 0
0.36 -0.075 0.815 255 255 255
-0.174 -1.241 2.725 255 255 255
0.141 0.013 0.57 0 0 0
1.007 -0.683 1.928 255 255 255
0.112 0.018 0.604 255 255 255
0.165 0.141 0.45 255 255 255
-1.083 -0.838 2.546 0 0 0
0.044 -0.012 0.639 0 0 0
-0.368 -1.743 2.66 255 255 255
-0.649 -0.109 0.936 255 255 255
-0.385 -1.365 2.789 255 255 255
-0.129 -0.517 1.648 255 255 255
-0.774 -1.864 2.62 255 255 255
-0.995 -1.333 2.52 255 255 255
-0.062 -0.08 0.613 255 255 255
0.185 0.074 0.469 0 0 0
0.843 -1.099 2.015 255 255 255
0.13 0.008 0.603 0 0 0
0.156 0.035 0.531 255 255 255
-0.018 -0.529 1.712 255 255 255
0.296 -0.008 0.532 0 0 0
0.422 -0.914 2.337 0 0 0
-1.155 -0.921 2.365 255 255 255
-0.143 0.173 0.566 255 255 255
-1.125 -1.234 2.286 255 255 255
0.279 0.004 0.526 255 255 255
-0.074 0.125 0.527 255 255 255
-0.214 0.129 0.585 0 0 0
-0.057 -1.567 2.538 255 255 255
0.036 0.075 0.529 255 255 255
0.439 -1.492 2.274 255 255 255
0.14 0.096 0.499 255 255 255
-0.247 0.091 0.599 255 255 255
0.933 -1.068 1.981 255 255 255
-0.415 -0.097 0.672 255 255 255
-0.019 -0.038 0.67 255 255 255
0.14 -0.057 0.709 255 255 255
0.227 0.029 0.429 0 0 0
-1.062 -0.921 2.552 255 255 255
-0.297 -0.462 1.616 255 255 255
-0.139 -1.222 2.713 255 255 255
-1.059 -1.507 2.288 255 255 255
-1.091 -1.357 2.304 255 255 255
-0.985 -0.82 2.74 255 255 255
0.164 -0.049 0.712 255 255 255
0.18 0.177 0.423 255 255 255
-0.295 0.151 0.642 255 255 255
-0.252 0.232 0.673 255 255 255
-0.262 -0.052 0.568 255 255 255
0.232 0.038 0.473 255 255 255
-0.266 0.134 0.616 255 255 255
0.044 0.14 0.48 255 255 255
-0.227 0.062 0.609 255 255 255
-0.263 0.104 0.602 255 255 255
-0.915 -1.482 2.632 255 255 255
-0.128 -0.016 0.484 255 255 255
0.227 0.05 0.473 0 0 0
-0.172 0.154 0.574 255 255 255
-0.649 -1.885 2.722 255 255 255
-0.923 -1.855 2.458 0 0 0
-0.12 0.105 0.551 255 255 255
0.176 0.094 0.493 0 0 0
-0.234 0.142 0.602 255 255 255
0.333 -0.211 1.073 255 255 255
0.003 0.037 0.537 255 255 255
0.707 -0.931 2.159 255 255 255
-0.339 -0.362 1.469 255 255 255
-0.184 0.182 0.593 255 255 255
0.113 0.238 0.462 255 255 255
-0.091 -0.192 1.102 0 0 0
0.757 -1.2 2.02 255 255 255
-0.068 0.078 0.538 255 255 255
0.153 0.138 0.452 255 255 255
0.09 -0.046 0.702 255 255 255
-0.964 -1.376 2.561 255 255 255
0.111 0.062 0.493 255 255 255
0.093 0.019 0.572 255 255 255
-1.137 -0.883 2.431 255 255 255
-1.113 -1.019 2.41 255 255 255
1.009 -0.521 1.649 255 255 255
0.193 0.043 0.466 255 255 255
-0.399 -0.138 0.705 255 255 255
0.275 -1.159 2.324 255 255 255
-0.242 0.198 0.643 255 255 255
0.398 -0.512 1.616 0 0 0
-0.513 -0.07 0.802 0 0 0
0.099 -0.046 0.701 255 255 255
0.099 0.125 0.467 255 255 255
0.213 -0.025 0.675 255 255 255
0.333 -0.234 1.16 0 0 0
-0.043 0.077 0.558 255 255 255
1.054 -0.926 1.972 255 255 255
-0.898 -0.975 2.878 255 255 255
-1.176 -1.256 2.187 255 255 255
0.158 -0.02 0.667 255 255 255
-0.105 0.278 0.616 0 0 0
-1.13 -0.715 2.507 255 255 255
-0.154 -0.207 0.98 255 255 255
-0.016 0.095 0.521 255 255 255
0.074 0.098 0.501 255 255 255
-0.12 -0.021 0.489 255 255 255
0.094 0.069 0.503 0 0 0
-1.13 -1.096 2.342 255 255 255
-0.038 0.095 0.529 255 255 255
0.085 0.066 0.503 255 255 255
-0.13 0.152 0.548 255 255 255
-0.108 0.016 0.531 255 255 255
-0.423 0.112 0.694 255 255 255
-1.02 -1.677 2.291 0 0 0
-0.095 -0.05 0.548 0 0 0
0.224 0.03 0.433 255 255 255
-1.196 -0.719 2.369 255 255 255
-0.302 -1.444 2.718 255 255 255
0.015 0.165 0.477 0 0 0
-0.387 -1.867 2.61 255 255 255
-0.327 -0.209 1.065 255 255 255
0.426 0.003 0.639 255 255 255
-0.107 0.18 0.551 255 255 255
-0.153 -0.26 1.105 0 0 0
0.094 0.157 0.452 255 255 255
-1.326 -0.715 1.997 255 255 255
-0.17 0.315 0.658 255 255 255
0.949 -0.843 2.066 255 255 255
0.543 -0.107 0.941 255 255 255
-0.036 0.024 0.533 255 255 255
-0.106 -0.089 0.603 255 255 255
0.119 -0.295 1.256 255 255 255
0.229 0.042 0.469 255 255 255
0.652 -0.412 1.68 255 255 255
0.026 -0.185 0.993 255 255 255
-0.377 0.022 0.671 0 0 0
0.548 -0.162 1.072 255 255 255
-0.06 0.022 0.543 255 255 255
-0.087 -0.011 0.548 0 0 0
-0.308 0.19 0.672 255 255 255
-0.118 0.035 0.514 255 255 255
-1.265 -0.548 2.198 255 255 255
-0.175 0.117 0.561 255 255 255
0.001 -0.049 0.714 255 255 255
-0.007 0.123 0.502 255 255 255
0.233 -0.267 1.126 255 255 255
-0.092 -1.17 2.699 255 255 255
-0.013 0.057 0.548 255 255 255
-0.286 -0.103 0.759 255 255 255
-0.306 0.004 0.647 0 0 0
-0.482 0.052 0.706 255 255 255
-0.124 -0.126 0.775 0 0 0
-0.124 0.087 0.575 0 0 0
0.045 0.054 0.54 0 0 0
0.155 0.156 0.439 255 255 255
0.016 0.157 0.475 255 255 255
-0.388 -0.215 0.99 255 255 255
-1.262 -0.622 2.169 255 255 255
-0.065 -0.524 1.66 255 255 255
-0.038 0.134 0.508 255 255 255
0.112 -0.191 0.892 0 0 0
-1.133 -1.12 2.342 255 255 255
0.039 0.004 0.568 255 255 255
0.775 -0.983 2.104 255 255 255
-0.159 -0.092 0.692 0 0 0
-0.438 0.057 0.685 255 255 255
-0.565 -1.859 2.695 255 255 255
0.427 -0.938 2.33 0 0 0
0.53 -0.45 1.558 255 255 255
0.107 0.093 0.501 255 255 255
0.12 0.064 0.477 255 255 255
0.118 0.059 0.478 0 0 0
-1.013 -0.832 2.69 255 255 255
-0.234 0.151 0.606 255 255 255
0.737 -0.838 2.15 255 255 255
-0.139 0.325 0.629 255 255 255
0.045 0.055 0.541 0 0 0
-0.347 -0.15 0.756 255 255 255
0.208 -0.202 1.013 255 255 255
-0.252 -1.379 2.716 255 255 255
0.185 -0.028 0.673 255 255 255
-0.04 -1.77 2.44 0 0 0
-0.081 -0.062 0.556 255 255 255
-0.149 -0.236 1.047 255 255 255
0.694 -1.203 2.041 255 255 255
-1.143 -0.971 2.366 255 255 255
-0.377 -0.096 0.686 255 255 255
-0.171 0.166 0.579 255 255 255
-0.234 -0.058 0.595 255 255 255
-1.212 -0.561 2.332 255 255 255
1.053 -1.361 1.993 255 255 255
-0.192 -0.07 0.644 255 255 255
-1.262 -0.503 2.178 255 255 255
0.433 -0.419 1.592 255 255 255
-0.405 0.136 0.696 255 255 255
-0.306 -0.021 0.563 255 255 255
0.155 0.185 0.424 255 255 255
0.852 -0.74 2.158 255 255 255
0.336 -0.507 1.62 255 255 255
-0.277 -0.034 0.579 255 255 255
-0.125 0.184 0.564 255 255 255
-0.196 0.174 0.596 255 255 255
0.296 -0.01 0.533 0 0 0
0.113 0.068 0.481 255 255 255
-0.392 0.062 0.668 255 255 255
0.09 0.251 0.479 255 255 255
0.548 -0.044 0.818 255 255 255
0.017 0.24 0.509 0 0 0
-0.027 -1.025 2.544 255 255 255
0.958 -1.477 1.991 0 0 0
0.179 0.186 0.419 0 0 0
0.035 0.102 0.51 255 255 255
0.095 0.112 0.482 255 255 255
-0.275 0.053 0.617 255 255 255
-0.179 -0.097 0.661 255 255 255
-0.266 -0.012 0.633 0 0 0
-0.073 -0.046 0.551 255 255 255
1.099 -0.394 1.597 255 255 255
-0.339 0.207 0.668 255 255 255
0.023 0.168 0.476 0 0 0
1.069 -1.241 2.017 255 255 255
-0.101 0.016 0.544 255 255 255
-0.067 0.23 0.557 255 255 255
-0.082 -0.032 0.549 0 0 0
0.012 0.195 0.489 255 255 255
-1.361 -0.413 2.04 255 255 255
0.024 0.172 0.476 255 255 255
0.225 0.017 0.545 255 255 255
0.194 0.163 0.43 255 255 255
-0.338 -0.026 0.576 255 255 255
-0.687 -0.11 0.913 255 255 255
0.945 -0.802 2.08 255 255 255
-0.527 -0.04 0.763 255 255 255
-0.15 0.316 0.583 255 255 255
0.123 0.161 0.444 255 255 255
0.593 -0.091 0.899 0 0 0
-1.029 -1.524 2.35 255 255 255
-0.96 -0.652 2.867 255 255 255
0.031 0.043 0.551 255 255 255
0.222 -0.216 1.07 255 255 255
0.112 0.049 0.52 0 0 0
-0.895 -1.192 2.766 255 255 255
0.059 0.197 0.468 255 255 255
0.245 0.021 0.466 255 255 255
0.007 0.111 0.504 0 0 0
-0.299 0.037 0.635 255 255 255
-1.388 -0.389 1.994 255 255 255
-1.366 -0.481 1.993 255 255 255
-0.068 -0.529 1.653 255 255 255
-0.216 -0.063 0.609 255 255 255
-0.299 0.092 0.622 255 255 255
0.035 0.1 0.511 255 255 255
-1.14 -0.717 2.487 255 255 255
-0.213 0.108 0.58 255 255 255
-0.24 -1.383 2.711 255 255 255
0.057 0.042 0.546 255 255 255
-0.572 -1.289 2.905 255 255 255
-0.24 -0.016 0.665 0 0 0
1.018 -1.267 2.028 255 255 255
0.119 0.155 0.448 255 255 255
0.067 0.144 0.472 255 255 255
0.023 0.251 0.512 255 255 255
0.153 0.198 0.428 0 0 0
0.247 -1.052 2.392 255 255 255
0.118 0.155 0.449 255 255 255
0.923 -1.009 2.015 255 255 255
0.009 0.083 0.534 255 255 255
-0.147 0.251 0.621 255 255 255
0.009 -0.009 0.646 0 0 0
-0.324 0.101 0.63 255 255 255
0.082 -0.064 0.717 255 255 255
0.087 0.119 0.475 255 255 255
-0.038 -0.511 1.678 255 255 255
-0.251 -1 2.74 255 255 255
0.936 -0.83 2.076 255 255 255
-0.033 -0.185 1.089 255 255 255
-0.556 -0.045 0.787 255 255 255
0.178 0.169 0.428 255 255 255
-1.167 -0.765 2.428 255 255 255
-0.213 0.054 0.589 255 255 255
0.3 -1.449 2.367 255 255 255
-0.059 0.308 0.602 255 255 255
0.804 -0.975 2.089 255 255 255
0.399 0.003 0.621 255 255 255
-0.239 0.375 0.704 255 255 255
0.024 -0.163 0.934 255 255 255
-0.32 -0.208 1.072 255 255 255
0.489 -1.617 2.203 0 0 0
-0.298 -0.022 0.565 255 255 255
0.333 -0.498 1.626 255 255 255
-0.264 0.354 0.679 255 255 255
-0.162 0.303 0.663 0 0 0
-0.276 -0.024 0.58 255 255 255
-0.573 -0.064 0.804 255 255 255
-0.029 0.055 0.573 0 0 0
-0.143 0.11 0.558 255 255 255
-0.057 -0.385 1.32 255 255 255
0.186 0.12 0.454 255 255 255
-0.265 0.116 0.605 255 255 255
-0.404 -0.11 0.684 255 255 255
0.145 0.232 0.444 255 255 255
-0.206 0.088 0.594 255 255 255
0.546 -0.148 1.039 0 0 0
-0.247 0.028 0.597 255 255 255
-0.222 0.07 0.606 255 255 255
0.065 -0.368 1.406 255 255 255
0.038 0.027 0.542 255 255 255
0.161 0.106 0.478 255 255 255
-0.361 0.195 0.669 255 255 255
-0.297 -0.046 0.601 0 0 0
-1.186 -0.849 2.345 255 255 255
0.29 -0.026 0.583 0 0 0
-0.141 0.118 0.551 255 255 255
0.055 -1.208 2.601 255 255 255
0.213 0.053 0.463 255 255 255
-0.329 -1.179 2.896 255 255 255
0.245 -0.263 1.115 255 255 255
0.225 -0.247 1.1 0 0 0
0.843 -0.646 2.18 255 255 255
