ply
format ascii 1.0
comment Created by Open3D
element vertex 1613
property double x
property double y
property double z
property uchar red
property uchar green
property uchar blue
end_header
0.112 -0.012 0.637 0 0 0
0.078 0.043 0.542 255 255 255
0.145 -0.55 1.681 255 255 255
-0.602 -1.171 2.898 255 255 255
0.288 -0.103 0.935 0 0 0
0.058 0.239 0.521 0 0 0
0.424 -1.046 2.403 255 255 255
0.021 0.119 0.516 0 0 0
0.408 -1.459 2.407 255 255 255
-0.73 -1.638 2.446 255 255 255
-0.092 0.298 0.674 0 0 0
-0.05 0.012 0.51 255 255 255
-0.985 -1.441 2.035 255 255 255
-0.051 -0.004 0.498 255 255 255
-1.098 -0.636 2.158 255 255 255
-0.241 0.032 0.668 255 255 255
-1.049 -1.033 2.093 255 255 255
0.85 -1.569 2.082 0 0 0
0.515 -0.45 1.612 255 255 255
-0.056 -0.056 0.547 0 0 0
-0.173 0.132 0.625 255 255 255
0.207 0.168 0.429 255 255 255
0.432 -1.383 2.419 255 255 255
-0.332 0.045 0.704 255 255 255
-0.948 -1.492 2.16 255 255 255
0.847 -0.922 2.141 255 255 255
-0.223 -0.077 0.664 255 255 255
-0.198 -0.009 0.668 0 0 0
-0.588 -1.792 2.674 255 255 255
0.275 -0.056 0.697 255 255 255
0.036 0.138 0.501 255 255 255
0.185 0.129 0.451 255 255 255
-0.007 0.059 0.552 255 255 255
-0.082 0.222 0.615 255 255 255
0.179 0.107 0.473 255 255 255
-1.003 -0.763 2.278 255 255 255
0.093 0.136 0.481 255 255 255
-0.997 -0.668 2.337 255 255 255
0.121 0.198 0.461 255 255 255
0.395 -0.064 0.758 255 255 255
-1.255 -0.432 1.972 255 255 255
0.41 -0.242 1.086 255 255 255
0.166 0.138 0.451 255 255 255
0.116 -0.014 0.636 0 0 0
-0.783 -1.228 2.552 255 255 255
-0.569 -1.24 2.904 255 255 255
-0.34 -0.128 0.7 255 255 255
-0.872 -0.826 2.58 255 255 255
-0.596 -1.188 2.892 255 255 255
-0.333 -1.665 2.837 255 255 255
0.277 0.023 0.562 0 0 0
0.235 0.048 0.502 255 255 255
0.034 0.129 0.508 0 0 0
-0.987 -1.044 2.19 255 255 255
0.231 -1.226 2.512 0 0 0
-1.142 -0.539 2.13 255 255 255
-0.037 0.133 0.532 255 255 255
-0.254 0.331 0.628 255 255 255
-0.172 0.345 0.623 255 255 255
-0.258 0.151 0.695 255 255 255
-0.054 0.111 0.556 255 255 255
-0.642 0.032 0.914 255 255 255
-0.893 -1.266 2.342 0 0 0
-0.519 -0.1 0.87 255 255 255
0.143 0.045 0.527 255 255 255
0.095 0.171 0.464 0 0 0
0.606 -0.232 1.101 255 255 255
-0.331 -0.118 0.7 255 255 255
-0.399 -1.597 2.885 255 255 255
0.586 -1.601 2.244 255 255 255
-0.967 -1.077 2.303 255 255 255
0.153 -1.676 2.515 255 255 255
0.152 0.185 0.439 255 255 255
0.099 0.103 0.504 255 255 255
-0.415 -0.074 0.823 255 255 255
-0.085 -1.747 2.671 255 255 255
-0.068 0.232 0.611 255 255 255
-1.267 -0.562 1.906 255 255 255
-0.843 -1.016 2.535 255 255 255
0.681 -1.304 2.121 0 0 0
-0.361 0.067 0.719 255 255 255
-0.295 0.189 0.68 255 255 255
0.079 0.163 0.47 255 255 255
0.225 -0.002 0.607 255 255 255
0.186 0.03 0.588 255 255 255
-0.341 -1.924 2.742 255 255 255
-0.29 -0.055 0.658 255 255 255
-0.099 -0.104 0.678 255 255 255
-1.273 -0.563 1.889 255 255 255
0.125 0.006 0.558 255 255 255
0.538 -1.7 2.233 0 0 0
-0.004 0.27 0.593 0 0 0
0.023 0.013 0.565 0 0 0
-1.043 -1.284 1.998 255 255 255
-0.313 -1.572 2.86 255 255 255
-0.002 0.222 0.557 255 255 255
0.088 -0.038 0.681 0 0 0
-0.293 0.076 0.676 255 255 255
0.331 -0.038 0.7 255 255 255
-0.42 -1.356 2.527 255 255 255
0.115 -0.207 1.096 0 0 0
-0.248 0.102 0.658 255 255 255
-0.644 0.064 0.931 255 255 255
0.348 -0.238 1.07 0 0 0
-0.024 0.077 0.534 255 255 255
0.063 -1.236 2.747 255 255 255
0.091 0.138 0.477 255 255 255
-0.121 -0.212 1.031 255 255 255
-0.379 -1.618 2.871 255 255 255
-0.014 -0.014 0.549 0 0 0
-0.637 -0.855 2.954 255 255 255
0.025 0.07 0.542 255 255 255
0.103 0.099 0.504 255 255 255
-0.236 -0.026 0.578 255 255 255
0.309 -0.146 0.894 255 255 255
-0.158 0.364 0.724 255 255 255
0.103 0.089 0.522 255 255 255
0.902 -1.141 2.007 255 255 255
0.503 -0.442 1.598 255 255 255
-1.136 -0.526 2.142 255 255 255
0.169 0.066 0.492 255 255 255
0.217 -0.164 0.86 255 255 255
0.093 0.064 0.546 0 0 0
0.456 -0.26 1.125 255 255 255
-0.021 0.299 0.619 255 255 255
0.13 -0.238 1.092 255 255 255
-0.101 -0.073 0.654 255 255 255
-0.669 -1.068 2.793 255 255 255
-0.058 -0.022 0.488 255 255 255
-0.11 0.074 0.596 255 255 255
0.305 -0.03 0.68 255 255 255
-0.682 -0.044 0.921 255 255 255
0.085 0.264 0.515 255 255 255
0.139 0.133 0.465 0 0 0
0.554 -0.244 1.143 255 255 255
-0.098 0.321 0.6 255 255 255
0.076 0.153 0.475 255 255 255
0.792 -0.953 2.166 255 255 255
0.298 0.018 0.488 255 255 255
-0.12 0.324 0.671 255 255 255
0.311 0.032 0.48 0 0 0
-0.744 -0.089 0.978 255 255 255
-0.066 -0.015 0.488 255 255 255
0.388 -0.081 0.77 255 255 255
-0.006 0.018 0.544 0 0 0
0.299 0.051 0.477 255 255 255
-1.02 -1.317 2.022 255 255 255
-0.137 0.261 0.684 255 255 255
0.052 0.102 0.514 255 255 255
-0.181 0.364 0.72 255 255 255
-0.899 -0.945 2.474 255 255 255
-0.491 -0.047 0.823 255 255 255
0.075 -0.014 0.662 0 0 0
0.213 0.156 0.431 255 255 255
0.176 0.095 0.49 255 255 255
-0.032 0.175 0.552 255 255 255
-0.142 0.216 0.653 255 255 255
-0.145 -0.018 0.684 0 0 0
0.192 0.163 0.433 255 255 255
0.085 0.092 0.515 255 255 255
-0.207 0.255 0.687 255 255 255
-0.115 0.34 0.624 255 255 255
1 -0.492 1.662 255 255 255
-0.504 -1.629 2.758 255 255 255
-1.115 -0.738 2.091 255 255 255
-0.091 0.312 0.638 255 255 255
-0.634 -0.115 0.946 255 255 255
0.069 -1.71 2.557 255 255 255
0.07 -0.149 1.007 0 0 0
-0.126 0.219 0.642 255 255 255
0.578 -0.269 1.197 255 255 255
-1.024 -1.08 2.108 255 255 255
0.601 -0.446 1.539 255 255 255
-0.355 -0.028 0.693 255 255 255
-0.147 -0.622 1.865 255 255 255
-0.126 0.157 0.605 255 255 255
0.532 -0.867 2.341 255 255 255
-0.55 0.042 0.846 255 255 255
-0.175 0.098 0.61 255 255 255
0.114 0.106 0.496 255 255 255
-0.01 -0.042 0.549 0 0 0
0.282 -0.072 0.791 255 255 255
-0.296 -0.078 0.689 255 255 255
-0.436 0.03 0.762 255 255 255
-0.8 -1.444 2.409 255 255 255
0.071 0.254 0.52 255 255 255
0.199 -0.146 0.857 255 255 255
0.636 -0.255 1.189 255 255 255
-0.129 0.314 0.685 0 0 0
0.813 -0.831 2.184 255 255 255
-0.116 0.269 0.67 255 255 255
0.154 -0.187 0.987 255 255 255
-0.339 -1.647 2.845 255 255 255
-0.193 -0.041 0.602 0 0 0
-1.195 -0.573 2.026 255 255 255
-0.029 0.14 0.527 255 255 255
-1.243 -0.386 2.004 255 255 255
-0.245 0.102 0.658 0 0 0
0.893 -1.158 2.02 255 255 255
0.664 -0.988 2.242 255 255 255
0.123 0.211 0.463 0 0 0
0.706 -0.993 2.206 255 255 255
0.091 -0.143 0.967 0 0 0
0.106 0.179 0.46 255 255 255
-1.144 -0.543 2.123 255 255 255
-0.469 0.222 0.884 0 0 0
0.068 -0.164 1.025 0 0 0
0.109 -0.347 1.315 0 0 0
-0.601 0.096 0.922 255 255 255
0.368 -1.757 2.312 0 0 0
-0.156 0.344 0.624 255 255 255
0.818 -1.043 2.109 255 255 255
0.412 -1.248 2.478 0 0 0
-0.109 -1.473 2.769 255 255 255
-0.909 -1.683 2.141 255 255 255
-0.002 0.013 0.544 0 0 0
0.664 -0.242 1.108 255 255 255
-0.293 -1.834 2.746 255 255 255
0.093 -0.026 0.654 0 0 0
0.336 0.003 0.508 255 255 255
-0.994 -1.222 2.105 255 255 255
1.071 -0.512 1.605 255 255 255
0.304 0.015 0.532 255 255 255
0.327 -0.28 1.133 255 255 255
0.239 0.01 0.58 255 255 255
-0.449 -1.165 2.522 255 255 255
0.212 -0.109 0.869 0 0 0
-0.733 -1.212 2.641 255 255 255
0.1 0.217 0.477 0 0 0
-0.594 -1.545 2.767 255 255 255
-0.239 -0.179 0.961 0 0 0
-1.343 -0.389 1.836 255 255 255
-0.491 0.045 0.803 255 255 255
0.162 0.063 0.491 255 255 255
-0.475 0.197 0.876 255 255 255
0.049 0.184 0.5 255 255 255
-0.431 -0.725 2.621 255 255 255
-0.166 0.147 0.627 255 255 255
0.365 -0.001 0.525 0 0 0
0.43 -0.162 0.911 0 0 0
-0.51 -1.746 2.711 255 255 255
0.638 -1.165 2.183 255 255 255
0.217 -0.33 1.348 255 255 255
-0.052 -0.011 0.495 255 255 255
1.042 -0.497 1.905 255 255 255
0.115 0.044 0.544 255 255 255
-0.963 -0.883 2.409 255 255 255
-0.46 -1.316 2.545 255 255 255
1.02 -0.936 2.022 255 255 255
0.12 -0.072 0.75 255 255 255
0.015 0.237 0.554 255 255 255
-0.015 -0.075 0.562 255 255 255
0.368 -1.675 2.35 255 255 255
-0.309 -0.152 0.729 255 255 255
-0.036 0.022 0.513 0 0 0
0.437 -1.611 2.322 255 255 255
0.308 -0.261 1.109 255 255 255
0.005 -1.674 2.617 255 255 255
-0.123 0.306 0.682 0 0 0
-0.079 -0.064 0.659 0 0 0
0.137 -1.241 2.697 255 255 255
0.022 0.082 0.557 255 255 255
0.091 0.158 0.465 255 255 255
-0.272 -0.139 0.751 255 255 255
-0.032 0.287 0.628 0 0 0
0.178 0.209 0.437 0 0 0
-0.053 -0.053 0.532 0 0 0
-0.771 -1.185 2.586 255 255 255
-0.128 0.066 0.609 255 255 255
0.353 -0.018 0.663 255 255 255
-0.997 -0.79 2.283 255 255 255
1.242 -0.816 1.928 255 255 255
-0.616 -0.114 0.939 255 255 255
-0.033 0.023 0.528 255 255 255
0.186 0.207 0.433 0 0 0
0.642 -0.153 1.022 255 255 255
-0.026 -0.073 0.548 255 255 255
0.299 -0.09 0.842 255 255 255
0.146 0.007 0.552 255 255 255
0.167 0.197 0.435 0 0 0
-0.564 -0.175 1.024 255 255 255
0.329 -0.107 0.811 255 255 255
0.101 0.045 0.55 0 0 0
-0.757 -1.318 2.556 255 255 255
0.223 0.123 0.449 255 255 255
0.038 -0.231 1.189 0 0 0
-1.069 -0.504 2.248 255 255 255
0.038 0.068 0.548 255 255 255
0.188 0.148 0.439 0 0 0
-1.092 -0.859 2.081 255 255 255
0.301 0.012 0.48 255 255 255
0.198 0.003 0.579 255 255 255
0.559 -0.552 1.605 255 255 255
-0.827 -1.487 2.361 255 255 255
0.104 0.028 0.532 255 255 255
0.199 -0.148 0.858 255 255 255
-0.364 -1.227 2.571 255 255 255
-0.308 -0.007 0.672 0 0 0
0.063 -1.702 2.58 255 255 255
-0.577 -1.58 2.767 255 255 255
0.488 -1.652 2.282 0 0 0
0.518 -1.195 2.274 0 0 0
-0.093 0.319 0.591 255 255 255
-1.207 -0.37 2.097 255 255 255
-0.105 0.303 0.676 0 0 0
0.054 0.154 0.484 255 255 255
-0.481 -0.106 0.908 255 255 255
1.015 -1.042 1.977 255 255 255
-0.183 0.069 0.633 255 255 255
0.659 -0.49 1.519 255 255 255
0.031 -0.067 0.6 255 255 255
-1.322 -0.471 1.835 255 255 255
-0.997 -1.175 2.116 255 255 255
-0.802 -0.817 2.684 255 255 255
0.062 0.001 0.565 255 255 255
-0.481 0.173 0.87 255 255 255
1.103 -0.701 2.068 0 0 0
-0.653 -0.033 0.902 255 255 255
0.468 -0.137 0.847 0 0 0
-0.407 0.149 0.805 255 255 255
-0.852 -1.244 2.421 255 255 255
-0.214 -0.203 1.04 255 255 255
-1.028 -1.113 2.081 255 255 255
-0.699 -1.255 2.686 255 255 255
0.802 -0.211 1.191 255 255 255
-0.007 -0.058 0.55 255 255 255
0.051 -0.329 1.199 255 255 255
0.031 -0.052 0.579 255 255 255
-0.514 -0.094 0.846 255 255 255
-0.192 0.186 0.672 255 255 255
-0.22 0.332 0.602 255 255 255
-0.31 -0.159 0.727 255 255 255
-0.082 0.048 0.572 255 255 255
0.228 0.13 0.444 255 255 255
0.074 0.165 0.475 255 255 255
-0.726 -1.258 2.644 255 255 255
-0.376 -1.145 2.554 255 255 255
-0.824 -1.135 2.517 255 255 255
0.698 -1.011 2.211 255 255 255
0.042 -0.034 0.609 255 255 255
0.347 -0.164 0.949 255 255 255
0.104 0.155 0.462 255 255 255
0.342 -0.036 0.702 255 255 255
-0.201 0.283 0.71 255 255 255
0.398 -0.047 0.754 255 255 255
0.235 0.074 0.45 0 0 0
0.163 0.111 0.472 255 255 255
0.229 0.132 0.442 255 255 255
0.943 -0.998 2.044 255 255 255
0.648 -1.229 2.14 0 0 0
-0.224 0.166 0.681 255 255 255
-0.24 -0.156 0.824 255 255 255
0.164 -0.067 0.711 255 255 255
-0.063 -0.594 1.796 255 255 255
0.272 -1.426 2.535 255 255 255
-0.427 0.087 0.776 255 255 255
0.183 0.193 0.429 0 0 0
-0.242 -0.051 0.629 0 0 0
-0.116 0.012 0.605 255 255 255
-0.98 -1.124 2.234 255 255 255
0.028 -0.065 0.594 255 255 255
0.155 0.104 0.481 255 255 255
-0.777 -0.821 2.723 255 255 255
0.01 0.076 0.541 255 255 255
0.046 -1.361 2.713 255 255 255
-0.085 0.084 0.579 255 255 255
-0.174 -0.103 0.737 255 255 255
0.182 0.053 0.485 0 0 0
0.276 -0.295 1.163 255 255 255
0.009 -0.066 0.576 255 255 255
-0.359 -1.621 2.864 255 255 255
-0.028 0.019 0.544 255 255 255
-0.96 -1.281 2.232 255 255 255
-0.745 -1.192 2.623 255 255 255
0.094 0.073 0.53 255 255 255
-0.442 0.014 0.773 255 255 255
0.825 -0.401 1.628 255 255 255
-0.2 -0.206 1.058 255 255 255
1.041 -1.371 2.015 255 255 255
-0.297 0.055 0.687 255 255 255
-0.224 0.201 0.7 255 255 255
-0.984 -0.799 2.349 255 255 255
-1.272 -0.624 1.857 255 255 255
0.544 -1.176 2.257 255 255 255
-0.162 0.197 0.66 255 255 255
-0.056 -0.133 0.773 0 0 0
0.053 0.083 0.541 255 255 255
0.398 -0.241 1.131 0 0 0
-0.019 0.131 0.525 255 255 255
-0.684 -0.062 0.932 255 255 255
0.044 0.012 0.543 0 0 0
0.227 -0.028 0.65 255 255 255
0.575 -0.575 1.638 255 255 255
-1.164 -0.888 1.924 255 255 255
-0.105 -0.343 1.321 255 255 255
-0.236 0.059 0.66 255 255 255
-0.189 -0.106 0.766 255 255 255
-0.129 0.229 0.656 255 255 255
-0.203 -0.126 0.795 255 255 255
-1.211 -0.446 2.045 255 255 255
-0.515 -0.027 0.825 255 255 255
-0.838 -1.308 2.427 255 255 255
-1.039 -1.233 2.023 255 255 255
-0.857 -0.893 2.572 255 255 255
0.113 -0.126 0.926 255 255 255
0.22 0.125 0.448 255 255 255
-0.056 0.355 0.652 255 255 255
0.67 -0.1 0.927 255 255 255
0.139 0.145 0.458 255 255 255
0.052 0.096 0.52 255 255 255
0.194 0.04 0.578 255 255 255
-1.059 -1.2 2.007 255 255 255
0.567 -0.86 2.316 255 255 255
-0.259 0.211 0.674 255 255 255
-0.293 0.027 0.663 255 255 255
-0.515 -0.085 0.833 255 255 255
0.025 0.103 0.527 255 255 255
-0.053 0.039 0.53 0 0 0
0.739 -1.437 2.207 255 255 255
0.073 0.188 0.484 255 255 255
-0.968 -0.654 2.485 255 255 255
0.141 0.223 0.458 255 255 255
-0.227 0.145 0.67 255 255 255
-0.568 0.065 0.876 255 255 255
-0.459 0.228 0.867 0 0 0
0.522 -1.074 2.31 255 255 255
-1.115 -0.862 2.037 255 255 255
-0.73 -1.337 2.586 255 255 255
0.192 -1.188 2.677 255 255 255
0.679 -1.465 2.234 255 255 255
0.014 0.108 0.529 255 255 255
0.172 0.112 0.467 255 255 255
1.057 -0.9 2.009 255 255 255
-0.241 -0.161 0.851 255 255 255
0.097 -1.438 2.651 255 255 255
0.171 0.065 0.492 255 255 255
0.397 -1.471 2.405 255 255 255
-0.165 0.31 0.713 255 255 255
0.109 0.001 0.596 255 255 255
1.068 -0.679 2.088 255 255 255
1.077 -0.838 2.024 0 0 0
-0.078 0.32 0.596 255 255 255
0.812 -1.578 2.095 0 0 0
-0.078 -0.061 0.655 0 0 0
-0.956 -1.34 2.215 255 255 255
0.8 -1.002 2.143 255 255 255
-0.32 -0.139 0.717 255 255 255
0.314 -0.901 2.525 0 0 0
-0.387 0.118 0.767 255 255 255
-0.18 0.328 0.741 0 0 0
0.479 -0.153 0.887 255 255 255
0.126 0.051 0.52 255 255 255
-0.177 0.309 0.724 255 255 255
-1.007 -1.102 2.125 255 255 255
1.148 -0.953 1.928 255 255 255
0.055 0.011 0.542 255 255 255
-0.838 -1.349 2.393 255 255 255
0.188 0.118 0.46 255 255 255
0.081 0.191 0.479 255 255 255
0.193 0.065 0.464 0 0 0
0.545 -1.311 2.377 255 255 255
0.169 0.186 0.431 255 255 255
0.128 0.03 0.541 255 255 255
0.143 0.022 0.545 255 255 255
-0.345 0.217 0.712 0 0 0
-0.102 -0.3 1.258 255 255 255
0.887 -0.825 2.134 255 255 255
-0.003 0.142 0.512 255 255 255
-0.653 -0.916 2.897 255 255 255
-0.085 0.308 0.591 255 255 255
-0.936 -0.981 2.403 255 255 255
-0.329 0.013 0.635 255 255 255
0.174 0.146 0.444 255 255 255
-0.268 0.098 0.671 255 255 255
-0.248 -0.16 0.796 255 255 255
-0.212 0.281 0.645 255 255 255
-1.25 -0.544 1.936 255 255 255
-0.091 0.314 0.589 255 255 255
-0.93 -0.681 2.537 255 255 255
1.057 -0.983 1.972 255 255 255
-0.317 0.283 0.683 255 255 255
-0.691 -0.012 0.923 0 0 0
0.542 -0.102 0.824 255 255 255
0.29 -0.027 0.671 255 255 255
0.142 -1.189 2.712 255 255 255
0.505 -0.239 1.116 255 255 255
0.233 0.036 0.527 255 255 255
0.177 0.033 0.573 255 255 255
-0.276 0.085 0.668 255 255 255
0.142 0.123 0.469 255 255 255
1.088 -0.395 1.609 0 0 0
-0.052 0.324 0.628 255 255 255
-1.058 -0.791 2.181 255 255 255
-0.065 0.046 0.576 255 255 255
0.364 -0.002 0.547 0 0 0
0.288 0.037 0.551 255 255 255
-0.221 -0.238 1.114 255 255 255
-1.096 -1.024 2.006 255 255 255
-0.77 -1.42 2.481 255 255 255
0.035 0.078 0.555 255 255 255
0.66 -0.539 1.538 255 255 255
0.11 -0.264 1.155 255 255 255
0.021 -0.44 1.477 0 0 0
-0.211 0.201 0.691 255 255 255
0.253 -0.158 0.883 255 255 255
-1.055 -1.034 2.08 255 255 255
0.007 -0.079 0.595 255 255 255
0.298 0.019 0.5 255 255 255
0.302 -0.26 1.105 255 255 255
0.498 -1.638 2.282 255 255 255
0.066 0.274 0.536 255 255 255
0.071 0.057 0.562 0 0 0
0 0.141 0.511 255 255 255
0.26 -1.272 2.58 255 255 255
0.263 0.078 0.451 255 255 255
0.188 0 0.571 255 255 255
0.101 0.066 0.541 0 0 0
0.237 -0.006 0.608 0 0 0
-0.345 -0.127 0.7 255 255 255
-0.107 0.049 0.585 255 255 255
0.638 -1.003 2.256 255 255 255
-0.802 -1.226 2.515 0 0 0
-0.971 -1.57 2.01 255 255 255
-0.946 -1.136 2.322 255 255 255
-1.002 -1.21 2.102 255 255 255
-0.213 -0.223 1.085 255 255 255
0.053 0.056 0.568 0 0 0
-0.739 -1.779 2.369 0 0 0
-1.176 -0.873 1.92 255 255 255
0.123 0.108 0.494 255 255 255
0.061 -0.318 1.197 255 255 255
0.457 -1.351 2.416 255 255 255
-0.119 -0.089 0.638 255 255 255
0.163 0.193 0.437 255 255 255
0.588 -0.504 1.55 0 0 0
0.099 0.216 0.477 0 0 0
0.159 0.179 0.432 255 255 255
-0.054 -1.267 2.816 255 255 255
0.302 -0.047 0.703 255 255 255
0.156 -0.006 0.616 0 0 0
0.679 -0.805 2.214 255 255 255
0.043 -0.04 0.6 255 255 255
0.031 0.21 0.525 255 255 255
-1.077 -0.691 2.184 0 0 0
-0.97 -0.618 2.497 255 255 255
-0.103 0.29 0.677 255 255 255
-0.248 0.018 0.667 255 255 255
-1.039 -1.085 2.077 255 255 255
0.083 -0.1 0.847 255 255 255
-0.369 0.028 0.723 255 255 255
0.444 -0.035 0.755 255 255 255
0.157 0.024 0.551 255 255 255
-0.086 0.326 0.593 255 255 255
-0.93 -1.421 2.221 255 255 255
0.198 -0.049 0.693 255 255 255
0.295 -0.165 0.894 255 255 255
-0.134 0.166 0.616 255 255 255
-0.015 0.038 0.524 0 0 0
0.099 0.134 0.484 255 255 255
-0.158 0.228 0.68 255 255 255
-0.388 0.032 0.734 255 255 255
0.15 0.18 0.437 255 255 255
0.341 -0.982 2.464 255 255 255
-0.235 0.291 0.669 255 255 255
-1.124 -0.928 2.004 255 255 255
0.567 -0.457 1.562 255 255 255
0.465 -1.087 2.359 255 255 255
0.78 -0.918 2.187 255 255 255
0.09 0.147 0.475 0 0 0
1.002 -1.428 2.03 255 255 255
0.028 0.086 0.544 255 255 255
0.038 0.013 0.55 0 0 0
-0.858 -1.078 2.491 255 255 255
-0.144 -0.015 0.685 0 0 0
-0.152 0.107 0.596 255 255 255
0.007 0.252 0.567 0 0 0
-1.048 -0.989 2.117 255 255 255
-0.985 -0.907 2.326 255 255 255
-0.25 0.154 0.691 255 255 255
0.22 0.115 0.456 255 255 255
-0.174 0.307 0.72 255 255 255
0.491 -1.167 2.305 255 255 255
0.214 0.096 0.487 0 0 0
-0.233 -0.011 0.668 0 0 0
-0.017 -0.033 0.55 255 255 255
-0.215 0.273 0.685 255 255 255
0.154 -0.51 1.708 255 255 255
-0.984 -1.074 2.276 255 255 255
0.046 0.001 0.561 255 255 255
0.015 0.083 0.552 255 255 255
-0.322 -0.07 0.705 255 255 255
0.229 0.074 0.453 0 0 0
0.791 -0.199 1.166 255 255 255
-0.104 -0.086 0.641 255 255 255
0.219 0.117 0.454 255 255 255
0.074 0.194 0.485 255 255 255
-1.202 -0.439 2.06 255 255 255
-0.315 -0.117 0.707 255 255 255
0.052 -0.007 0.629 255 255 255
0.108 -0.059 0.742 0 0 0
-0.044 0.07 0.572 0 0 0
-0.205 0.305 0.619 255 255 255
-0.122 0.153 0.6 255 255 255
-0.279 -0.215 0.991 255 255 255
0.852 -1.03 2.094 255 255 255
-0.21 0.245 0.69 255 255 255
0.123 0.067 0.524 255 255 255
0.401 -0.14 0.878 255 255 255
-0.287 -0.07 0.684 255 255 255
0.09 -0.029 0.665 0 0 0
0.574 -0.523 1.567 255 255 255
-0.266 -0.082 0.695 255 255 255
0.106 -0.002 0.629 0 0 0
0.026 -0.272 1.095 255 255 255
-0.183 0.262 0.72 255 255 255
0.332 -0.021 0.668 255 255 255
-0.484 0.18 0.874 255 255 255
-0.693 -1.401 2.613 255 255 255
-0.293 -0.085 0.695 255 255 255
0.262 0.096 0.446 255 255 255
1.202 -0.732 1.987 255 255 255
-0.912 -1.511 2.213 255 255 255
-0.488 -0.066 0.835 255 255 255
0.076 0.129 0.493 255 255 255
0.043 0.095 0.524 255 255 255
0.799 -1.125 2.102 255 255 255
0.462 -1.016 2.394 255 255 255
-0.007 0.002 0.547 0 0 0
1.173 -0.887 1.944 255 255 255
-0.442 -0.106 0.921 0 0 0
-0.106 -0.08 0.647 255 255 255
0.151 0.188 0.44 255 255 255
0.223 0.095 0.483 0 0 0
0.502 -1.447 2.352 255 255 255
-0.258 0.228 0.664 255 255 255
-0.082 -0.128 0.767 255 255 255
0.498 -0.09 0.852 255 255 255
0.117 0.12 0.482 255 255 255
0.169 0.209 0.44 0 0 0
0.145 0.253 0.47 255 255 255
0.192 -0.141 0.857 255 255 255
0.241 -1.793 2.412 0 0 0
-0.699 -0.839 2.845 255 255 255
-0.216 -1.222 2.925 255 255 255
-0.989 -0.647 2.45 255 255 255
-0.414 -0.076 0.825 255 255 255
-0.137 0.026 0.589 255 255 255
0.023 -1.471 2.687 255 255 255
0.144 0 0.584 255 255 255
-0.866 -1.042 2.489 255 255 255
-0.101 0.15 0.585 255 255 255
-0.248 0.31 0.654 255 255 255
0.014 0.178 0.52 255 255 255
0.212 0.081 0.458 255 255 255
-0.16 0.058 0.628 255 255 255
1.066 -1.074 1.927 255 255 255
-0.589 -1.917 2.622 0 0 0
-0.63 0.092 0.942 255 255 255
-0.29 0.204 0.673 255 255 255
0.101 0.075 0.526 255 255 255
-0.009 0.238 0.573 255 255 255
1.073 -0.479 1.593 255 255 255
-0.204 0.264 0.704 0 0 0
0.09 -0.285 1.271 0 0 0
-0.812 -1.163 2.528 255 255 255
0.105 0.206 0.468 255 255 255
0.108 0.145 0.468 255 255 255
0.341 -1.545 2.455 255 255 255
-0.245 0.096 0.653 255 255 255
0.031 -0.024 0.606 255 255 255
0.293 0.037 0.55 255 255 255
-0.243 -0.051 0.629 0 0 0
0.235 0.052 0.457 255 255 255
-0.546 0.036 0.844 255 255 255
0.248 0.014 0.577 0 0 0
-0.207 -0.236 1.117 255 255 255
0.155 0.194 0.439 255 255 255
-0.261 0.04 0.688 255 255 255
-0.327 -0.121 0.702 255 255 255
-0.912 -1.381 2.268 255 255 255
-1.093 -0.784 2.115 255 255 255
0.27 0.064 0.438 255 255 255
1.072 -0.865 2.018 0 0 0
0.031 0.078 0.555 255 255 255
0.238 0.064 0.435 255 255 255
-0.143 0.08 0.612 255 255 255
0.271 0.041 0.539 255 255 255
-0.113 -0.092 0.643 255 255 255
0.093 0.144 0.476 0 0 0
0.964 -1.17 1.958 255 255 255
0.043 0.039 0.524 255 255 255
0.022 0.01 0.568 0 0 0
-0.419 0.18 0.833 255 255 255
-0.183 0.345 0.626 255 255 255
0.25 0.053 0.439 255 255 255
-0.937 -1.184 2.313 255 255 255
-0.3 0.185 0.681 0 0 0
-0.034 -0.064 0.551 255 255 255
-1.316 -0.34 1.903 255 255 255
0.561 -0.484 1.571 0 0 0
0.687 -1.31 2.12 0 0 0
-0.144 -0.096 0.657 0 0 0
0.497 -0.085 0.842 255 255 255
0.224 0.073 0.452 0 0 0
-0.416 -1.575 2.872 255 255 255
-0.247 0.236 0.662 255 255 255
0.091 -0.163 1.033 0 0 0
0.127 0.161 0.45 255 255 255
0.376 -0.022 0.639 255 255 255
0.188 0.18 0.424 255 255 255
-0.192 0.355 0.735 255 255 255
0.074 0.01 0.542 255 255 255
-0.147 0.112 0.592 255 255 255
-0.849 -1.571 2.281 255 255 255
-0.811 -1.217 2.508 255 255 255
-0.454 -0.008 0.79 255 255 255
-0.791 -1.38 2.464 255 255 255
0.749 -0.435 1.521 255 255 255
-0.874 -1.324 2.349 255 255 255
-0.093 0.07 0.6 255 255 255
0.472 -0.933 2.411 0 0 0
-0.133 0.047 0.597 255 255 255
-0.211 -0.014 0.632 0 0 0
0.163 -0.351 1.379 255 255 255
0.338 -0.073 0.757 0 0 0
0.745 -0.883 2.23 0 0 0
0.185 0.07 0.465 255 255 255
-0.982 -1.3 2.191 255 255 255
-0.571 -0.172 1.032 255 255 255
-1.352 -0.243 1.842 255 255 255
0.315 -1.028 2.496 255 255 255
0.484 -0.123 0.821 0 0 0
0.111 0.094 0.515 255 255 255
-0.228 0 0.673 255 255 255
-0.203 0.2 0.685 255 255 255
-0.293 0 0.697 0 0 0
-0.058 0.188 0.575 255 255 255
-0.982 -0.788 2.332 255 255 255
-0.174 -0.083 0.645 255 255 255
-0.193 0.053 0.641 255 255 255
0.078 0.138 0.484 0 0 0
0.577 -0.563 1.602 255 255 255
0.917 -1.097 2.024 255 255 255
-0.978 -1.21 2.169 255 255 255
-0.1 0.13 0.569 255 255 255
0.012 0.061 0.567 0 0 0
-0.209 -0.045 0.594 255 255 255
0.169 -0.143 0.871 255 255 255
-0.522 -0.164 1.014 255 255 255
0.566 -0.072 0.866 0 0 0
-0.144 -0.066 0.615 255 255 255
0.016 0.15 0.503 255 255 255
-0.989 -1.022 2.19 255 255 255
0.146 -0.2 1.032 0 0 0
-0.324 -0.001 0.647 255 255 255
-0.127 0.133 0.595 0 0 0
1.037 -1.146 1.918 255 255 255
0.349 -0.07 0.748 0 0 0
-0.404 -1.724 2.826 255 255 255
-0.699 -1.853 2.393 255 255 255
-0.978 -1.198 2.144 255 255 255
-0.459 0.087 0.799 255 255 255
-0.024 0.332 0.644 255 255 255
-0.55 -1.207 2.734 255 255 255
0.467 -1.604 2.307 255 255 255
-1.21 -0.728 1.922 255 255 255
0.261 -0.178 0.891 255 255 255
0.156 -0.063 0.713 255 255 255
-0.022 -0.462 1.538 255 255 255
1.016 -1.056 1.974 255 255 255
-0.245 0.305 0.661 255 255 255
0.868 -1.008 2.088 255 255 255
0.49 -0.116 0.805 0 0 0
-0.071 -0.473 1.635 255 255 255
0.115 0.091 0.516 255 255 255
-1.354 -0.357 1.824 255 255 255
-0.473 -1.848 2.667 255 255 255
0.372 -0.514 1.711 0 0 0
0.046 -1.518 2.646 255 255 255
0.131 0.074 0.515 255 255 255
0.356 -0.031 0.701 255 255 255
0.743 -1.486 2.181 255 255 255
-0.313 -1.467 2.9 255 255 255
0.032 0.174 0.507 255 255 255
0.223 0.084 0.455 255 255 255
0.72 -1.201 2.116 255 255 255
0.353 -0.098 0.789 0 0 0
0.022 0.31 0.593 255 255 255
-0.247 0.163 0.695 255 255 255
-1.173 -0.441 2.109 255 255 255
-0.517 -0.003 0.817 255 255 255
-0.45 0.201 0.863 255 255 255
0.13 -1.543 2.579 255 255 255
-1.157 -0.403 2.178 255 255 255
-0.124 0.326 0.678 255 255 255
-0.013 -0.023 0.548 255 255 255
0.005 0.14 0.508 255 255 255
-0.076 0.323 0.599 255 255 255
-0.6 -0.023 0.869 255 255 255
0.432 -0.511 1.655 255 255 255
-0.496 0.166 0.857 0 0 0
-1.083 -0.645 2.182 255 255 255
-0.001 -1.068 2.745 255 255 255
-0.055 0.274 0.636 255 255 255
0.294 0.014 0.566 0 0 0
0.233 -0.13 0.862 255 255 255
0.1 0.009 0.55 255 255 255
0.934 -1.04 2.034 255 255 255
-0.805 -1.624 2.33 255 255 255
0.011 0.055 0.553 0 0 0
0.372 -0.068 0.754 255 255 255
-0.182 -0.013 0.665 0 0 0
-0.098 0.25 0.65 255 255 255
-1.152 -0.798 1.998 255 255 255
0.372 0.004 0.535 0 0 0
0.015 -0.442 1.485 0 0 0
0.182 0.227 0.441 255 255 255
0.148 -0.101 0.864 255 255 255
0.089 0.198 0.478 255 255 255
0.105 -0.36 1.319 0 0 0
0.771 -0.951 2.181 255 255 255
0.721 -0.855 2.245 0 0 0
0.312 -0.101 0.836 255 255 255
-0.821 -1.498 2.357 255 255 255
0.028 -0.044 0.574 255 255 255
-0.137 -0.081 0.624 255 255 255
-0.027 0.086 0.564 0 0 0
-0.233 0.253 0.667 255 255 255
-0.182 -0.175 0.939 0 0 0
-0.772 -1.262 2.544 255 255 255
0.01 0.097 0.538 255 255 255
0.179 -0.058 0.699 255 255 255
-0.057 -0.004 0.495 255 255 255
-0.238 -0.431 1.612 255 255 255
0.804 -1.628 2.081 255 255 255
-0.129 0.089 0.6 255 255 255
0.523 -1.065 2.316 255 255 255
0.079 0.259 0.516 255 255 255
0.172 0.008 0.56 255 255 255
-0.114 -0.53 1.79 255 255 255
-0.184 0.117 0.622 255 255 255
-0.022 0.034 0.527 255 255 255
0.746 -0.989 2.187 255 255 255
1.013 -0.865 2.051 0 0 0
-0.248 -0.127 0.757 255 255 255
-0.888 -0.859 2.532 255 255 255
-0.718 -0.082 0.964 255 255 255
-0.066 0.058 0.587 255 255 255
-0.676 -0.894 2.865 255 255 255
-0.116 -0.049 0.66 0 0 0
-0.697 -1.322 2.657 255 255 255
0.017 -1.212 2.782 255 255 255
1.18 -0.606 1.811 255 255 255
0.067 0.009 0.545 255 255 255
0.515 -0.205 1.06 255 255 255
-0.3 -1.815 2.764 255 255 255
0.306 0.031 0.484 255 255 255
-1.316 -0.31 1.914 0 0 0
-0.147 0.345 0.626 255 255 255
0.187 0.095 0.495 0 0 0
0.156 0.121 0.47 255 255 255
-0.223 0.326 0.603 255 255 255
-0.3 -0.103 0.705 255 255 255
-0.801 -1.279 2.492 255 255 255
0.228 0.027 0.547 255 255 255
-0.013 -0.165 0.914 255 255 255
-0.131 0.331 0.66 255 255 255
-0.169 -0.248 1.189 255 255 255
-0.024 -0.308 1.169 255 255 255
-0.709 -0.736 2.876 0 0 0
0.728 -1.222 2.099 255 255 255
0.079 0.161 0.47 255 255 255
0.006 0.032 0.536 255 255 255
-1.028 -1.132 2.086 255 255 255
0.138 0.267 0.481 255 255 255
0.058 0.008 0.547 255 255 255
0.268 0.026 0.564 0 0 0
-0.594 -1.869 2.634 255 255 255
-0.79 -1.067 2.602 255 255 255
0.193 0.045 0.488 255 255 255
0.151 0.173 0.435 255 255 255
0.203 0.095 0.495 0 0 0
0.821 -1.506 2.123 255 255 255
0.443 -0.049 0.778 255 255 255
0.221 -1.273 2.446 0 0 0
0.302 -0.044 0.702 255 255 255
-0.738 -1.107 2.664 255 255 255
-0.759 -1.125 2.626 255 255 255
0.272 -1.58 2.482 255 255 255
-0.175 -0.067 0.592 255 255 255
-0.313 0.011 0.655 255 255 255
-0.309 -0.145 0.729 255 255 255
-0.858 -1.201 2.434 255 255 255
-0.176 -0.134 0.807 0 0 0
-0.14 0.345 0.627 255 255 255
-0.252 -0.13 0.757 255 255 255
0.095 -0.067 0.783 0 0 0
0.263 0.051 0.444 255 255 255
0.372 -1.491 2.418 255 255 255
0.19 0.145 0.438 255 255 255
-0.773 -1.377 2.486 255 255 255
-0.238 0.244 0.662 255 255 255
0.398 -1.697 2.317 0 0 0
-0.318 -0.028 0.632 255 255 255
-0.031 0.085 0.566 0 0 0
-0.307 -0.065 0.679 255 255 255
-0.244 0.172 0.697 255 255 255
0.454 -0.765 2.381 255 255 255
0.337 -0.296 1.147 255 255 255
-0.755 -0.094 0.988 255 255 255
-0.303 -0.205 0.93 255 255 255
-0.894 -0.734 2.574 255 255 255
-0.278 0.06 0.678 255 255 255
0.093 0.199 0.476 255 255 255
-0.007 0.128 0.524 255 255 255
-0.043 0.174 0.558 255 255 255
0.198 -0.007 0.583 255 255 255
0.068 0.118 0.501 255 255 255
0.256 -0.028 0.694 0 0 0
-0.261 0.222 0.664 255 255 255
-0.931 -0.655 2.544 255 255 255
0.233 0.024 0.557 255 255 255
-1.029 -0.641 2.285 255 255 255
-0.501 0.062 0.816 255 255 255
-1.315 -0.424 1.873 255 255 255
-0.145 -0.016 0.685 0 0 0
-1.042 -0.734 2.22 255 255 255
-0.134 0.042 0.59 255 255 255
-0.321 -0.127 0.707 255 255 255
0.092 0.145 0.476 0 0 0
0.361 -0.283 1.129 255 255 255
-0.02 0.2 0.557 255 255 255
-0.891 -0.802 2.552 255 255 255
-0.189 0.337 0.625 255 255 255
-0.825 -0.772 2.668 255 255 255
-1.075 -0.519 2.246 255 255 255
0.28 0.033 0.557 0 0 0
0.104 0.073 0.53 255 255 255
0.339 -1.074 2.422 255 255 255
-0.307 -1.975 2.7 0 0 0
0.459 -0.937 2.424 0 0 0
-0.288 0.227 0.694 255 255 255
0 -0.018 0.545 0 0 0
-0.201 -0.028 0.593 255 255 255
-0.802 -1.371 2.444 255 255 255
-0.14 0.058 0.617 255 255 255
-0.664 -0.104 0.949 255 255 255
-0.833 -0.657 2.696 0 0 0
0.061 0.18 0.491 255 255 255
-0.475 -0.028 0.815 255 255 255
0.168 0.174 0.429 255 255 255
-0.049 -0.07 0.568 0 0 0
-0.568 -1.879 2.665 255 255 255
0.324 -1.491 2.479 255 255 255
0.218 0.008 0.594 255 255 255
-1.077 -0.657 2.19 255 255 255
-0.006 0.334 0.639 255 255 255
0.07 -0.337 1.237 255 255 255
0.224 0.053 0.487 255 255 255
-0.439 0.014 0.771 255 255 255
-0.014 -0.024 0.549 255 255 255
-0.925 -0.774 2.505 255 255 255
-0.247 0.33 0.612 255 255 255
0.234 0.036 0.527 255 255 255
0.115 0.122 0.483 255 255 255
-0.231 0.312 0.609 255 255 255
-0.059 0.147 0.552 255 255 255
-0.181 -0.239 1.143 255 255 255
-0.299 0.181 0.688 0 0 0
-0.098 0.241 0.643 255 255 255
0.286 0.029 0.56 0 0 0
-0.048 -0.06 0.537 255 255 255
0.095 0.157 0.465 255 255 255
-0.171 0.015 0.607 255 255 255
0.038 0.1 0.522 255 255 255
-0.237 0.225 0.673 255 255 255
-0.144 0.196 0.649 255 255 255
0.623 -0.253 1.182 255 255 255
0.163 -0.019 0.624 255 255 255
-0.143 0.142 0.61 255 255 255
-0.043 -0.037 0.553 255 255 255
0.413 -0.48 1.626 255 255 255
-0.505 0.182 0.858 0 0 0
0.303 0.046 0.468 255 255 255
-0.06 0.037 0.544 255 255 255
-0.307 0.198 0.68 0 0 0
0.142 0.018 0.545 255 255 255
-0.032 0.329 0.648 255 255 255
-0.086 -0.151 0.799 0 0 0
0.458 -0.806 2.393 255 255 255
-0.461 -1.852 2.673 255 255 255
-0.905 -0.64 2.606 0 0 0
0.064 0.099 0.511 255 255 255
-0.329 0.091 0.711 255 255 255
1.197 -0.862 1.935 255 255 255
0.071 0.008 0.546 255 255 255
0.907 -0.896 2.113 0 0 0
0.48 -1.684 2.279 0 0 0
0.87 -0.959 2.109 255 255 255
-0.025 -0.06 0.55 255 255 255
0.803 -0.271 1.318 255 255 255
0.234 -0.048 0.691 255 255 255
-0.025 0.145 0.527 255 255 255
-0.328 0.257 0.696 255 255 255
0.347 -0.029 0.571 255 255 255
-0.075 0.099 0.57 255 255 255
-0.312 0.066 0.686 255 255 255
0.185 0.076 0.468 255 255 255
0.15 -0.079 0.753 0 0 0
0.25 0.042 0.523 255 255 255
-0.662 -1.886 2.489 0 0 0
0.22 0.068 0.453 0 0 0
0.105 0.166 0.456 255 255 255
-0.267 -1.637 2.805 255 255 255
-0.241 0.331 0.602 255 255 255
-0.08 0.016 0.578 255 255 255
0.027 0.016 0.562 0 0 0
0.021 0.146 0.499 255 255 255
0.374 -1.73 2.325 0 0 0
-0.646 0.009 0.896 0 0 0
0.244 -0.013 0.633 0 0 0
-0.703 -0.093 0.964 255 255 255
-0.977 -1.553 2.022 0 0 0
-0.549 -0.077 0.839 255 255 255
0.106 -0.038 0.663 255 255 255
0.173 0.015 0.564 255 255 255
-0.181 0.329 0.648 255 255 255
-0.013 0.071 0.555 255 255 255
0.03 0.271 0.566 255 255 255
0.488 -1.532 2.331 255 255 255
-0.172 -1.05 2.954 0 0 0
0.072 0.22 0.497 255 255 255
-0.047 -0.048 0.521 255 255 255
-0.267 -1.729 2.768 255 255 255
-0.201 0.12 0.634 255 255 255
-0.444 0.11 0.804 255 255 255
0.103 0.135 0.482 255 255 255
1.194 -0.742 1.99 255 255 255
0.151 0.149 0.452 255 255 255
0.046 0.251 0.54 0 0 0
-1.059 -1.095 2.044 255 255 255
0.403 -0.166 0.946 0 0 0
-0.402 0.136 0.792 255 255 255
0.02 0.087 0.54 255 255 255
0.065 0.077 0.548 0 0 0
-0.828 -1.593 2.299 255 255 255
0.868 -1.222 1.969 255 255 255
-1.161 -0.668 2.035 255 255 255
1.083 -0.816 2.032 0 0 0
0.087 0.144 0.478 0 0 0
0.427 -0.033 0.771 255 255 255
0.028 -1.021 2.736 255 255 255
0.454 -0.102 0.841 0 0 0
-0.055 0.08 0.585 0 0 0
-0.033 -0.151 0.818 0 0 0
0.356 -0.234 1.072 0 0 0
-0.048 -0.037 0.524 255 255 255
0.205 -0.002 0.585 255 255 255
-1.015 -0.578 2.328 255 255 255
0.035 -0.311 1.159 255 255 255
0.039 0.229 0.529 255 255 255
0.028 0.057 0.565 0 0 0
0.205 0.029 0.531 255 255 255
0.248 0.073 0.441 255 255 255
0.019 0.313 0.596 255 255 255
0.228 0.048 0.5 255 255 255
0.174 -0.13 0.87 255 255 255
0.207 -0.333 1.352 255 255 255
-0.173 0.194 0.664 255 255 255
-0.068 -0.04 0.533 0 0 0
0.198 0.04 0.582 0 0 0
-0.89 -0.92 2.506 255 255 255
-0.132 0.159 0.61 255 255 255
0.094 0.048 0.538 255 255 255
-0.007 -1.304 2.764 255 255 255
1.051 -0.503 1.606 255 255 255
-0.93 -1.588 2.148 0 0 0
-0.769 -0.841 2.732 255 255 255
-0.211 -0.133 0.803 255 255 255
0.236 0.065 0.44 0 0 0
0.215 -0.145 0.854 0 0 0
-0.202 0.297 0.711 255 255 255
-0.327 -0.151 0.719 255 255 255
-0.194 -0.101 0.753 255 255 255
0.134 0.151 0.455 255 255 255
-0.462 -0.115 0.939 0 0 0
0.293 0.03 0.508 255 255 255
0.302 -0.283 1.139 0 0 0
0.153 0.034 0.554 255 255 255
-0.244 0.284 0.665 255 255 255
-0.888 -1.688 2.164 255 255 255
-0.219 -0.121 0.779 255 255 255
0.223 0.065 0.464 0 0 0
1.019 -0.485 1.625 255 255 255
-0.05 0.115 0.552 255 255 255
-0.3 -0.149 0.734 255 255 255
-0.263 -0.02 0.654 0 0 0
0.271 -0.155 0.899 255 255 255
-0.164 -0.004 0.663 255 255 255
0.046 -1.635 2.613 255 255 255
-0.102 0.186 0.602 255 255 255
1.052 -0.509 1.614 255 255 255
0.402 -0.023 0.694 255 255 255
0.213 0.109 0.468 255 255 255
-0.905 -0.735 2.556 255 255 255
0.512 -0.257 1.13 255 255 255
0.738 -0.919 2.215 0 0 0
-0.087 0.023 0.58 255 255 255
-0.009 0.094 0.557 255 255 255
-0.061 -0.022 0.486 255 255 255
-0.501 0.165 0.852 255 255 255
-0.262 -0.133 0.753 255 255 255
0.214 0.127 0.447 255 255 255
0.266 -0.006 0.585 255 255 255
0.642 -0.732 2.244 255 255 255
-0.137 0.046 0.596 255 255 255
1.045 -1.103 1.927 255 255 255
-0.006 -0.057 0.55 255 255 255
-0.309 0.018 0.656 255 255 255
0.125 0.244 0.478 255 255 255
1.105 -1.063 1.911 255 255 255
-0.041 -0.185 0.923 0 0 0
0.137 -0.218 1.079 0 0 0
-0.979 -1.201 2.174 255 255 255
0.015 0.125 0.518 255 255 255
-0.386 -1.771 2.813 255 255 255
-0.978 -1.331 2.092 255 255 255
0.137 -0.064 0.724 0 0 0
-0.006 0.057 0.549 0 0 0
-0.094 0.151 0.583 255 255 255
-0.024 -0.05 0.549 255 255 255
0.003 0.142 0.509 255 255 255
0.376 -0.08 0.765 255 255 255
0.973 -1.461 2.041 0 0 0
-1.068 -0.515 2.255 255 255 255
1.13 -0.879 1.967 255 255 255
-1.09 -0.805 2.103 255 255 255
0.142 0.236 0.464 255 255 255
-0.317 0.045 0.697 255 255 255
0.056 -0.29 1.163 255 255 255
0.148 0.145 0.454 255 255 255
-0.122 0.143 0.595 255 255 255
-0.841 -1.571 2.294 255 255 255
-0.102 0.029 0.57 255 255 255
-0.049 0.152 0.548 255 255 255
0.653 -1.673 2.167 255 255 255
0.967 -0.724 2.029 255 255 255
0.142 -1.317 2.664 255 255 255
0.253 0.038 0.534 255 255 255
-0.821 -1.681 2.274 0 0 0
0.038 0.026 0.526 255 255 255
0.13 -0.01 0.627 0 0 0
-0.013 0.053 0.541 0 0 0
-0.06 -0.006 0.493 255 255 255
-0.624 -1.167 2.851 255 255 255
0.149 0.004 0.556 255 255 255
-0.739 -1.514 2.485 255 255 255
0.181 -1.275 2.656 255 255 255
0.304 0.015 0.512 255 255 255
0.045 -0.002 0.58 255 255 255
0.107 0.183 0.46 255 255 255
-1.147 -0.738 2.045 255 255 255
-0.02 -0.107 0.693 255 255 255
-0.195 -0.015 0.668 0 0 0
0.297 0.047 0.499 0 0 0
0.165 0.219 0.446 255 255 255
1.008 -1.135 1.939 255 255 255
-0.987 -1.406 2.04 255 255 255
0.944 -0.901 2.088 0 0 0
-0.277 0.082 0.666 255 255 255
-0.226 0.255 0.67 255 255 255
-0.064 0.014 0.522 255 255 255
0.319 -1.544 2.465 255 255 255
-0.744 -1.463 2.502 255 255 255
0.14 -0.155 0.903 255 255 255
0.065 0.072 0.553 0 0 0
0.042 -0.033 0.611 255 255 255
0.192 -0.029 0.628 255 255 255
-1.138 -0.786 2.027 255 255 255
0.173 0.011 0.562 255 255 255
-0.007 0.026 0.542 255 255 255
0.245 0.015 0.575 0 0 0
0.143 -0.137 0.898 255 255 255
-0.46 0.07 0.791 255 255 255
0.204 -0.124 0.864 255 255 255
-0.977 -1.174 2.24 255 255 255
0.171 0.199 0.434 0 0 0
0.012 0.167 0.518 255 255 255
0.97 -1.504 2.029 0 0 0
0.2 0.073 0.46 255 255 255
-0.127 -1.914 2.592 0 0 0
-1.184 -0.461 2.084 255 255 255
-0.654 -1.363 2.723 255 255 255
0.322 -0.094 0.799 255 255 255
-0.196 -1.184 2.918 255 255 255
-0.018 0.255 0.591 255 255 255
0.56 -1.03 2.307 255 255 255
-0.024 0.138 0.524 255 255 255
-0.763 -1.785 2.319 0 0 0
-0.222 -0.049 0.61 255 255 255
0.899 -0.794 2.082 255 255 255
-0.952 -0.996 2.364 255 255 255
-1.189 -0.677 1.985 255 255 255
-0.003 0.169 0.526 255 255 255
-1.045 -0.86 2.172 255 255 255
0.958 -0.379 1.655 0 0 0
0.575 -0.048 0.808 255 255 255
0.078 -0.994 2.713 0 0 0
0.061 0.038 0.527 255 255 255
0.094 0.09 0.515 255 255 255
-0.266 -0.01 0.694 0 0 0
-0.025 -0.267 1.109 0 0 0
0.054 0.212 0.508 255 255 255
0.043 -0.244 1.124 255 255 255
-0.015 0.079 0.537 255 255 255
-0.726 -1.495 2.514 255 255 255
0.182 0.184 0.426 255 255 255
-0.005 -0.133 0.831 255 255 255
-1.001 -0.572 2.349 255 255 255
0.324 -1.419 2.506 255 255 255
-0.495 0.045 0.806 255 255 255
-0.153 -0.023 0.68 0 0 0
-0.274 0.302 0.662 255 255 255
0.565 -1.502 2.292 255 255 255
-0.289 0.079 0.673 255 255 255
0.2 0.13 0.451 255 255 255
-0.041 0.184 0.562 255 255 255
0.169 0.047 0.515 255 255 255
-0.009 -0.135 0.832 255 255 255
-0.761 -1.502 2.459 255 255 255
0.303 0.01 0.475 255 255 255
-0.003 0.173 0.529 255 255 255
-0.043 0.087 0.575 0 0 0
0.55 -1.347 2.361 255 255 255
0.088 0.124 0.491 255 255 255
0.019 0.065 0.57 255 255 255
0.906 -1.513 2.062 0 0 0
0.051 0.26 0.54 255 255 255
-0.972 -1.389 2.175 255 255 255
0.139 0.161 0.446 255 255 255
-0.915 -0.641 2.584 255 255 255
-0.328 -0.117 0.701 255 255 255
-0.195 0.315 0.62 255 255 255
0.617 -1.514 2.251 255 255 255
0.165 0.118 0.467 255 255 255
0.026 0.162 0.505 0 0 0
0.546 -0.452 1.587 0 0 0
0.302 0.015 0.474 255 255 255
-0.018 -0.051 0.55 0 0 0
0.299 0.028 0.538 0 0 0
0.929 -0.956 2.073 255 255 255
0.301 0.02 0.528 255 255 255
0.011 -1.497 2.683 255 255 255
-0.15 0.103 0.597 255 255 255
-0.64 -1.15 2.839 255 255 255
-0.134 -0.001 0.619 255 255 255
0.052 0.086 0.54 255 255 255
-0.138 -0.039 0.665 255 255 255
0.672 -0.42 1.511 255 255 255
0.254 -0.023 0.653 0 0 0
0.063 0.057 0.557 0 0 0
-0.141 0.346 0.626 255 255 255
-0.19 0.022 0.618 255 255 255
-0.319 -1.498 2.888 255 255 255
-0.183 0.005 0.635 255 255 255
0.209 0.054 0.48 255 255 255
0.312 -0.021 0.664 255 255 255
0.299 0.014 0.57 0 0 0
0.122 0.268 0.492 255 255 255
-0.988 -0.731 2.416 255 255 255
0.294 -1.244 2.599 255 255 255
-0.039 -0.243 1.065 255 255 255
0.306 0.005 0.474 255 255 255
0.251 -0.043 0.696 255 255 255
-1.192 -0.694 1.977 255 255 255
-0.059 0.326 0.622 255 255 255
-0.08 0.1 0.572 255 255 255
0.224 0.115 0.458 255 255 255
-0.01 0.043 0.528 0 0 0
0.94 -0.855 2.103 0 0 0
0.588 -0.194 1.037 255 255 255
-0.456 -1.33 2.548 255 255 255
1.002 -1.524 2 255 255 255
0.416 -0.95 2.447 255 255 255
-0.746 -1.014 2.699 255 255 255
0.16 0.078 0.493 255 255 255
0.424 -0.031 0.766 255 255 255
0.714 -0.415 1.506 255 255 255
-0.271 -0.155 0.756 255 255 255
-0.02 0.279 0.612 0 0 0
1.023 -0.953 2.011 255 255 255
0.535 -1.15 2.275 255 255 255
-0.089 0.132 0.563 255 255 255
0.079 -0.033 0.686 0 0 0
0.373 -1.358 2.475 255 255 255
-0.652 -0.946 2.89 255 255 255
-0.775 -1.16 2.586 255 255 255
0.877 -0.834 2.148 0 0 0
-0.146 -0.012 0.68 0 0 0
0.038 -0.281 1.119 255 255 255
-0.087 0.308 0.667 0 0 0
-0.213 0.296 0.628 255 255 255
0.121 0.161 0.453 255 255 255
1.057 -0.928 2.001 255 255 255
0.082 0.251 0.508 255 255 255
-0.211 -0.1 0.757 255 255 255
0.12 0.162 0.453 255 255 255
0.643 -0.279 1.198 255 255 255
0.345 -1.617 2.413 255 255 255
-1.318 -0.484 1.835 255 255 255
0.103 0.165 0.458 255 255 255
0.011 0.186 0.528 255 255 255
0.051 -0.012 0.637 255 255 255
-0.332 0.102 0.72 255 255 255
-0.212 0.291 0.637 255 255 255
0.289 0.079 0.466 255 255 255
0.019 0.117 0.517 0 0 0
-1.272 -0.56 1.896 255 255 255
-0.427 -1.689 2.816 255 255 255
0.805 -0.909 2.172 255 255 255
-0.847 -1.138 2.476 255 255 255
0.295 0.048 0.53 0 0 0
0.635 -0.967 2.275 255 255 255
-0.062 -0.096 0.705 0 0 0
-0.037 0.005 0.523 255 255 255
0.134 0.202 0.455 255 255 255
-0.025 0.335 0.64 255 255 255
-0.196 0.315 0.72 255 255 255
0.328 -0.041 0.7 255 255 255
0.752 -0.872 2.225 0 0 0
-0.374 -1.565 2.899 255 255 255
-0.591 -0.011 0.86 255 255 255
-0.146 0 0.626 255 255 255
-0.039 0.203 0.568 255 255 255
-0.803 -1.323 2.464 255 255 255
-0.042 0.253 0.607 255 255 255
-0.529 0.034 0.829 255 255 255
0.585 -0.824 2.271 255 255 255
-0.226 0.251 0.671 255 255 255
-0.544 -1.9 2.662 255 255 255
-0.013 -0.175 0.931 255 255 255
-1.071 -1.088 2.025 255 255 255
0.16 0.265 0.47 255 255 255
-0.248 0.208 0.686 255 255 255
-0.033 -0.038 0.55 255 255 255
-0.599 -1.47 2.789 255 255 255
-0.057 -0.031 0.492 255 255 255
-0.206 0.067 0.639 255 255 255
-0.315 0.056 0.693 255 255 255
-0.125 -0.077 0.629 255 255 255
0.008 0.323 0.614 255 255 255
-0.298 0.027 0.654 255 255 255
1.086 -1.044 1.935 255 255 255
0.003 0.053 0.545 0 0 0
-0.045 0.022 0.513 0 0 0
0.081 -0.08 0.816 0 0 0
0.45 -0.248 1.105 255 255 255
0.135 0.195 0.453 255 255 255
0.707 -1.512 2.199 255 255 255
-0.944 -0.89 2.435 255 255 255
0.373 -1.603 2.379 255 255 255
-0.704 -1.65 2.481 255 255 255
-0.975 -1.575 2.036 0 0 0
-0.136 -0.452 1.62 0 0 0
0.649 -1.64 2.19 0 0 0
0.945 -1.051 2.019 255 255 255
-0.277 -0.12 0.729 255 255 255
-0.366 0.087 0.736 255 255 255
-0.369 0.212 0.71 255 255 255
-0.131 -0.087 0.633 255 255 255
0.176 -1.244 2.675 255 255 255
-0.104 0.174 0.597 255 255 255
0.224 0.081 0.453 255 255 255
-0.978 -1.085 2.198 255 255 255
-0.702 -1.458 2.576 255 255 255
-0.843 -1.629 2.254 0 0 0
0.243 0.051 0.456 255 255 255
-0.137 -0.077 0.621 255 255 255
0.024 0.161 0.505 0 0 0
0.904 -1.111 2.012 255 255 255
0.049 0.212 0.512 255 255 255
-0.217 0.32 0.606 255 255 255
-0.099 0.04 0.568 255 255 255
-0.256 0.134 0.684 255 255 255
1.097 -0.521 1.615 255 255 255
-0.331 -0.088 0.7 255 255 255
0.306 -0.113 0.915 0 0 0
-0.644 0.021 0.909 0 0 0
-0.21 -1.989 2.644 0 0 0
-0.323 0.002 0.643 255 255 255
-0.114 0.177 0.607 255 255 255
0.487 -0.108 0.798 0 0 0
-0.273 -0.09 0.699 255 255 255
0.242 0.019 0.566 255 255 255
0.561 -1.102 2.267 255 255 255
-0.854 -0.774 2.627 255 255 255
-0.322 0.106 0.716 255 255 255
-0.434 0.189 0.849 255 255 255
0.093 0.121 0.492 255 255 255
-0.236 0.117 0.66 255 255 255
-0.165 -0.488 1.608 255 255 255
0.072 -0.007 0.647 255 255 255
0.313 0.006 0.476 255 255 255
-0.035 -0.062 0.55 255 255 255
0.221 0.064 0.466 0 0 0
-0.007 -0.453 1.51 0 0 0
-0.223 0.243 0.677 255 255 255
-0.17 -0.012 0.659 255 255 255
-0.269 0.155 0.704 255 255 255
0.151 0.06 0.498 255 255 255
-0.208 -1.559 2.789 255 255 255
-1.354 -0.37 1.822 255 255 255
-0.163 0.218 0.67 255 255 255
-1.095 -0.565 2.199 255 255 255
-0.314 -1.935 2.724 255 255 255
-0.137 0.109 0.587 255 255 255
0.679 -0.487 1.515 255 255 255
-0.529 -1.105 2.966 255 255 255
0.054 -0.428 1.384 255 255 255
0.062 0.057 0.556 0 0 0
-0.432 -1.916 2.71 255 255 255
0.02 -0.036 0.559 255 255 255
0.619 -1.12 2.223 255 255 255
-0.675 -0.763 2.915 0 0 0
1.217 -0.818 1.942 255 255 255
0.201 -0.404 1.443 0 0 0
1.031 -0.501 1.626 255 255 255
-1.166 -0.835 1.954 255 255 255
-0.099 0.315 0.65 255 255 255
0.002 -0.198 0.978 255 255 255
-0.647 -0.022 0.897 255 255 255
0.165 0.052 0.501 255 255 255
0.54 -0.101 0.835 0 0 0
-0.253 0.239 0.661 255 255 255
-0.206 0.241 0.717 255 255 255
0.233 -0.086 0.851 255 255 255
0.594 -0.793 2.253 255 255 255
0.029 -0.071 0.605 255 255 255
-0.03 -0.277 1.124 255 255 255
-0.053 0.088 0.562 255 255 255
-0.176 -1.619 2.742 255 255 255
0.038 0.051 0.551 255 255 255
0.016 -0.072 0.591 255 255 255
-0.005 -0.077 0.577 255 255 255
0.538 -0.46 1.594 0 0 0
0.808 -1.178 2.062 255 255 255
-1.075 -0.558 2.239 255 255 255
0.152 0.067 0.493 255 255 255
-0.681 -1.865 2.445 0 0 0
-0.216 -0.368 1.469 255 255 255
-1.187 -0.741 1.957 255 255 255
0.147 0.162 0.443 255 255 255
0.236 -0.207 0.899 0 0 0
0.616 -0.826 2.257 255 255 255
-0.031 0.237 0.589 255 255 255
0.256 0.052 0.442 255 255 255
0.234 0.073 0.45 0 0 0
-0.136 0.009 0.601 255 255 255
-0.33 0.063 0.697 255 255 255
-0.355 0.21 0.705 255 255 255
-0.863 -0.756 2.621 255 255 255
-0.063 -0.109 0.716 255 255 255
-0.656 -1.899 2.485 0 0 0
-0.639 -1.627 2.646 255 255 255
-0.191 -0.156 0.893 0 0 0
-0.065 0.212 0.597 255 255 255
0.13 0.095 0.502 255 255 255
-0.451 0.184 0.858 255 255 255
-0.24 -0.049 0.624 0 0 0
0.496 -0.261 1.131 255 255 255
-0.022 0.131 0.527 255 255 255
0.122 0.233 0.473 255 255 255
0.172 0.168 0.432 255 255 255
0.116 -0.011 0.633 0 0 0
0.563 -0.394 1.531 255 255 255
0.153 0.047 0.512 255 255 255
0.047 -0.048 0.6 255 255 255
0.062 0.082 0.54 255 255 255
0.282 0.062 0.447 255 255 255
-0.961 -1.538 2.126 0 0 0
0.363 -0.199 1.015 255 255 255
0.313 -0.86 2.52 0 0 0
-1.135 -0.678 2.079 255 255 255
0.285 -0.201 0.941 255 255 255
-0.517 -1.842 2.676 255 255 255
-0.73 -1.524 2.491 255 255 255
-0.114 0.01 0.605 255 255 255
0.377 -0.479 1.64 255 255 255
0.002 0.126 0.523 255 255 255
0.226 -0.067 0.789 255 255 255
0.042 0.144 0.494 255 255 255
0.78 -1.489 2.158 255 255 255
0.437 -1.467 2.383 255 255 255
-0.162 -0.044 0.641 0 0 0
0.088 0.205 0.48 255 255 255
-0.297 0.092 0.687 255 255 255
0.854 -0.858 2.163 0 0 0
0.898 -1.013 2.068 255 255 255
0.79 -0.86 2.2 0 0 0
0.127 0.074 0.52 255 255 255
0.993 -0.969 2.022 255 255 255
-0.279 -0.031 0.596 255 255 255
0.046 -0.248 1.139 255 255 255
-0.953 -1.316 2.23 255 255 255
0.366 -0.914 2.476 255 255 255
-0.127 -1.84 2.623 255 255 255
0.752 -1.149 2.106 255 255 255
-0.441 0.009 0.774 255 255 255
-0.054 0.334 0.625 255 255 255
-0.397 -1.326 2.535 255 255 255
0.261 -1.558 2.493 255 255 255
0.193 -0.168 0.869 0 0 0
0.011 -0.995 2.751 0 0 0
-0.514 -0.022 0.823 255 255 255
0.257 0.05 0.463 255 255 255
0.705 -0.761 2.228 0 0 0
0.233 -0.013 0.636 255 255 255
0.124 -0.245 1.113 255 255 255
0.246 0.052 0.445 255 255 255
0.293 0.039 0.547 255 255 255
-0.505 -1.942 2.634 0 0 0
0.248 -1.148 2.544 0 0 0
0.423 -0.048 0.771 255 255 255
-0.28 -1.827 2.736 255 255 255
-0.675 -0.947 2.851 255 255 255
-0.233 0.315 0.607 255 255 255
0.97 -0.437 1.77 255 255 255
0.319 -0.99 2.501 255 255 255
0.352 -0.268 1.118 255 255 255
-0.254 0.217 0.668 255 255 255
0.613 -0.545 1.56 255 255 255
-0.065 0.006 0.514 0 0 0
-0.289 -0.12 0.721 255 255 255
-0.198 0.306 0.623 255 255 255
-0.148 -0.112 0.719 0 0 0
-0.326 0.089 0.707 255 255 255
0.647 -0.123 0.949 255 255 255
-0.03 -0.005 0.548 255 255 255
-0.195 0.307 0.721 255 255 255
0.218 -0.158 0.857 255 255 255
0.125 -0.04 0.669 255 255 255
-0.178 -0.068 0.596 255 255 255
-0.103 0.206 0.625 255 255 255
-0.112 0.271 0.668 255 255 255
0.634 -1.214 2.169 255 255 255
-1.162 -0.857 1.949 255 255 255
0.623 -0.966 2.287 255 255 255
-0.187 0.056 0.637 255 255 255
-0.104 0.318 0.621 255 255 255
-0.231 0.113 0.65 255 255 255
0.162 -0.002 0.587 0 0 0
-0.208 0.31 0.616 255 255 255
0.104 0.04 0.551 255 255 255
-0.941 -1.006 2.378 255 255 255
0.165 0.186 0.433 255 255 255
1.152 -0.952 1.925 255 255 255
0.367 0.005 0.51 0 0 0
-0.331 -0.095 0.695 255 255 255
0.015 -0.207 1.055 255 255 255
0.135 0.152 0.454 255 255 255
0.262 0.11 0.469 255 255 255
-0.394 0.072 0.747 255 255 255
0.365 -0.146 0.919 255 255 255
0.218 0.104 0.479 255 255 255
0.169 -0.167 0.94 0 0 0
0.639 -1.263 2.151 0 0 0
0.588 -1.674 2.219 0 0 0
-0.145 -0.075 0.615 255 255 255
0.5 -0.829 2.343 255 255 255
0.075 0.21 0.491 255 255 255
-0.315 -0.094 0.694 255 255 255
0.026 -0.179 1.078 0 0 0
0.614 -0.717 2.251 255 255 255
0.907 -0.784 2.065 255 255 255
0.082 -0.21 1.111 255 255 255
0.12 -1.283 2.689 255 255 255
-0.121 0.051 0.6 255 255 255
-0.144 0.138 0.608 255 255 255
-0.311 0.214 0.686 255 255 255
-0.194 0.267 0.728 255 255 255
-0.122 0.101 0.585 255 255 255
0.761 -1.425 2.194 255 255 255
0.869 -1.086 2.049 255 255 255
0.168 -0.093 0.825 255 255 255
0.012 -0.021 0.546 255 255 255
-0.279 -0.484 1.791 255 255 255
-0.777 -1.39 2.472 255 255 255
-0.196 0.206 0.685 255 255 255
-0.013 -1.566 2.679 255 255 255
-0.496 -1.159 2.543 255 255 255
0.373 -1.336 2.481 255 255 255
0.157 -0.002 0.599 0 0 0
0.028 0.251 0.552 0 0 0
0.899 -0.244 1.255 255 255 255
-1.376 -0.294 1.822 255 255 255
0.177 0.045 0.548 0 0 0
-0.038 0.335 0.643 255 255 255
0.086 0.245 0.502 255 255 255
-0.333 -1.858 2.754 255 255 255
0.183 -0.189 0.98 255 255 255
0.044 0.222 0.523 255 255 255
-0.468 0.228 0.863 0 0 0
0.043 0.091 0.531 255 255 255
-0.973 -1.519 2.041 0 0 0
-0.048 0.185 0.567 255 255 255
-1.367 -0.339 1.812 255 255 255
0.112 0.019 0.539 255 255 255
1 -1.45 2.015 0 0 0
-0.018 -1.221 2.802 255 255 255
0.001 0.306 0.605 255 255 255
-1.134 -0.911 1.996 255 255 255
0.23 -0.006 0.612 0 0 0
-0.132 0.3 0.689 255 255 255
