ply
format ascii 1.0
comment Created by Open3D
element vertex 1611
property double x
property double y
property double z
property uchar red
property uchar green
property uchar blue
end_header
0.029 0.021 0.545 255 255 255
-0.235 -0.073 0.697 255 255 255
0.009 0.265 0.62 255 255 255
-0.546 -0.176 1.093 255 255 255
0.053 -0.213 0.979 255 255 255
-0.135 0.354 0.745 255 255 255
-1.172 -0.591 1.896 255 255 255
-0.422 -1.116 2.916 255 255 255
0.284 0.038 0.52 255 255 255
-0.058 0.075 0.6 255 255 255
-1.224 -0.298 1.929 255 255 255
-0.002 0.319 0.648 255 255 255
-0.964 -1.018 2.047 255 255 255
0.831 -1.116 2.122 255 255 255
-0.239 0.016 0.703 0 0 0
-0.263 0.202 0.707 0 0 0
-0.46 -1.675 2.652 255 255 255
-0.378 0.188 0.881 255 255 255
-0.58 -1.776 2.392 0 0 0
0.156 0.274 0.492 255 255 255
0.643 -1.71 2.229 255 255 255
0.585 -0.265 1.122 255 255 255
0.06 -0.289 1.14 255 255 255
0.177 0.144 0.455 255 255 255
-0.237 0.013 0.706 0 0 0
0.499 -0.024 0.71 255 255 255
-0.754 -0.985 2.472 255 255 255
-0.397 -1.162 2.952 255 255 255
0.671 -1.622 2.249 0 0 0
-0.146 0.003 0.669 255 255 255
0.677 -0.832 2.292 255 255 255
-0.247 -0.077 0.694 255 255 255
-0.467 0.051 0.87 255 255 255
-0.974 -1.162 1.971 255 255 255
0.355 0.021 0.525 255 255 255
-0.066 -0.086 0.641 255 255 255
0.071 0.058 0.555 0 0 0
0.291 -0.035 0.671 255 255 255
-0.275 0.047 0.722 255 255 255
-0.077 -0.296 1.312 255 255 255
0.067 -0.188 0.953 255 255 255
-0.81 -1.495 2.18 255 255 255
0.697 -0.482 1.515 0 0 0
-1.067 -0.631 2.038 255 255 255
-0.258 0.175 0.721 0 0 0
-0.515 -0.072 0.885 255 255 255
0.115 0.26 0.519 255 255 255
0.47 -0.159 0.936 0 0 0
-1.123 -0.847 1.869 255 255 255
-0.115 0.058 0.639 255 255 255
0.222 0.136 0.44 255 255 255
-1.249 -0.35 1.877 255 255 255
-1.223 -0.406 1.888 255 255 255
-0.113 -1.55 2.871 255 255 255
0.334 -1.632 2.515 255 255 255
0.449 -0.862 2.512 0 0 0
0.018 -1.11 2.938 255 255 255
-0.235 0.023 0.69 0 0 0
0.674 -0.207 1.039 255 255 255
0.037 0.24 0.574 255 255 255
-0.313 -1.641 2.771 255 255 255
0.844 -0.829 2.2 255 255 255
-0.066 0.049 0.597 255 255 255
0.298 0.049 0.501 255 255 255
0.004 0.119 0.549 255 255 255
-0.004 -0.051 0.54 0 0 0
0.015 -0.615 1.86 255 255 255
-0.072 0.006 0.609 255 255 255
-0.129 0.345 0.741 255 255 255
-0.027 0.307 0.672 0 0 0
-0.062 -0.063 0.656 0 0 0
-0.562 0.113 0.956 255 255 255
-0.462 -0.112 0.933 255 255 255
0.082 0.017 0.555 0 0 0
-0.677 -0.049 0.997 0 0 0
-0.256 -1.704 2.804 255 255 255
0.613 -1.67 2.268 0 0 0
-0.743 -0.147 1.028 0 0 0
-0.076 0.268 0.688 255 255 255
-1.134 -0.792 1.857 255 255 255
-0.84 -0.718 2.366 255 255 255
-0.056 0.086 0.595 255 255 255
-0.029 0.154 0.575 255 255 255
-0.46 -1.014 2.906 255 255 255
0.063 0.193 0.525 255 255 255
0.165 0.052 0.515 0 0 0
0.951 -1.175 2.016 255 255 255
0.134 0.184 0.467 255 255 255
-0.824 -1.368 2.135 255 255 255
0.152 0.236 0.471 255 255 255
0.631 -1.336 2.386 255 255 255
0.026 -0.254 1.096 255 255 255
-0.025 0.164 0.577 255 255 255
-0.35 0.091 0.793 255 255 255
0.285 -0.977 2.691 255 255 255
-0.838 -0.638 2.405 255 255 255
-0.195 -0.117 0.755 255 255 255
0.107 0.059 0.561 0 0 0
0.432 -0.115 0.79 255 255 255
-0.129 0.272 0.733 255 255 255
0.205 0.114 0.464 255 255 255
0.796 -0.458 1.471 255 255 255
0.18 -0.032 0.654 255 255 255
1.102 -0.95 1.988 255 255 255
1.189 -0.646 2.013 255 255 255
-0.296 -1.32 2.583 255 255 255
-0.599 0.08 0.932 255 255 255
-0.004 0.114 0.557 255 255 255
0.06 0.011 0.538 255 255 255
0.326 0.019 0.542 0 0 0
0.362 -1.172 2.674 255 255 255
-0.933 -0.884 2.155 255 255 255
0.258 0.024 0.54 0 0 0
-0.512 -0.86 2.877 255 255 255
-0.104 -0.009 0.685 0 0 0
-0.256 0.302 0.662 255 255 255
0.172 -0.032 0.652 255 255 255
0.074 -0.069 0.593 255 255 255
-0.14 0.034 0.639 255 255 255
0.352 -0.015 0.643 255 255 255
0.174 0.18 0.438 255 255 255
-1.173 -0.711 1.835 255 255 255
0.015 -0.018 0.549 255 255 255
0.334 0.053 0.517 255 255 255
-0.992 -0.768 2.098 255 255 255
0.212 -0.141 0.888 255 255 255
-0.806 -1.068 2.361 255 255 255
0.34 -1.473 2.576 255 255 255
-1.026 -1.02 1.948 255 255 255
-0.182 -0.155 0.792 255 255 255
-0.127 0.128 0.635 255 255 255
0.64 -1.48 2.319 255 255 255
0.453 -0.151 0.951 255 255 255
0.114 0.028 0.523 255 255 255
-0.02 -0.014 0.492 255 255 255
-0.444 0.179 0.884 0 0 0
-0.693 -0.652 2.701 0 0 0
0.166 0.12 0.472 255 255 255
0.143 -0.032 0.677 0 0 0
-0.781 -1.01 2.424 255 255 255
0.161 -0.149 0.999 0 0 0
-1.053 -0.546 2.102 255 255 255
0.242 -0.049 0.687 255 255 255
-0.213 0.202 0.694 255 255 255
0.203 -0.546 1.643 255 255 255
-0.869 -1.177 2.132 255 255 255
-0.612 -0.049 0.958 255 255 255
0.073 -0.319 1.198 255 255 255
-0.11 0.344 0.633 255 255 255
0.022 0.051 0.547 255 255 255
-1.06 -0.711 2.019 255 255 255
0.122 0.232 0.494 0 0 0
0.259 0.098 0.48 0 0 0
0.54 -0.122 0.816 255 255 255
0.729 -0.428 1.513 255 255 255
-0.423 0.178 0.896 0 0 0
0.129 0.049 0.542 255 255 255
0.022 0.206 0.561 255 255 255
-0.625 -0.675 2.785 0 0 0
-1.029 -0.982 1.955 255 255 255
0.179 0.257 0.47 255 255 255
0.713 -0.77 2.238 255 255 255
0.217 -0.276 1.165 255 255 255
-0.777 -1.613 2.184 0 0 0
-0.489 -0.987 2.861 255 255 255
0.155 0.232 0.467 255 255 255
-0.722 -0.872 2.57 255 255 255
-0.144 0.203 0.695 255 255 255
0.059 -1.521 2.739 255 255 255
1.231 -0.67 2.014 0 0 0
0.206 -0.137 0.898 255 255 255
-0.513 -1.367 2.681 255 255 255
0.093 0.117 0.512 255 255 255
0.855 -0.936 2.19 255 255 255
-0.858 -1.008 2.219 255 255 255
0.107 -0.449 1.505 0 0 0
-0.228 0.193 0.694 255 255 255
-0.052 0.064 0.622 0 0 0
-1.116 -0.5 2.023 255 255 255
0.214 -0.221 1.097 0 0 0
-0.542 -1.306 2.661 255 255 255
0.029 -0.01 0.549 255 255 255
0.935 -1.471 2.119 255 255 255
-0.024 0.194 0.589 255 255 255
-0.194 0.078 0.669 255 255 255
-0.512 -1.787 2.504 255 255 255
0.088 0.16 0.486 255 255 255
-0.165 0.185 0.698 255 255 255
-0.112 0.269 0.722 255 255 255
0.226 -1.509 2.649 255 255 255
-0.12 0.064 0.64 255 255 255
0.179 -0.125 0.923 255 255 255
0.499 -1.371 2.497 255 255 255
0.885 -1.459 2.156 255 255 255
-0.971 -0.489 2.251 255 255 255
-0.226 0.321 0.654 255 255 255
-0.007 0.311 0.645 255 255 255
-0.23 -0.092 0.713 0 0 0
-0.156 0.319 0.618 255 255 255
-0.157 0.242 0.722 0 0 0
-0.232 0.268 0.718 255 255 255
0.422 -1.174 2.531 0 0 0
-0.186 -0.218 1.023 255 255 255
-0.198 0.039 0.702 0 0 0
0.339 0.045 0.53 255 255 255
0.085 0.006 0.561 0 0 0
-0.203 0.215 0.678 255 255 255
0.164 -0.331 1.238 255 255 255
0.104 0.165 0.478 255 255 255
-0.502 0.145 0.949 255 255 255
-0.229 -0.017 0.694 0 0 0
0.11 -0.222 1.07 255 255 255
0.686 -0.899 2.329 0 0 0
-0.503 -0.003 0.879 255 255 255
0.296 -0.005 0.615 0 0 0
-0.202 -0.201 0.979 255 255 255
0.184 0.262 0.471 255 255 255
-0.861 -1.559 1.996 255 255 255
-0.824 -1.369 2.223 255 255 255
0.078 0.06 0.563 0 0 0
0.104 0.112 0.505 255 255 255
-0.117 -0.019 0.648 255 255 255
0.136 0.077 0.521 255 255 255
-0.025 -1.886 2.679 255 255 255
-0.704 -0.045 1.001 255 255 255
1.208 -0.66 2.024 255 255 255
0.228 0.049 0.551 0 0 0
0.04 0.015 0.546 0 0 0
0.213 -0.075 0.755 0 0 0
0.013 0.132 0.532 255 255 255
-0.13 0.357 0.744 255 255 255
0.205 -1.266 2.764 255 255 255
0.166 0.151 0.452 255 255 255
0.215 -0.048 0.694 0 0 0
0.206 0.014 0.541 255 255 255
-0.05 -1.56 2.822 255 255 255
-0.467 0.077 0.887 255 255 255
-1.04 -0.46 2.155 255 255 255
0.14 0.085 0.522 0 0 0
0.314 -1.178 2.707 255 255 255
-0.17 0.299 0.663 255 255 255
0.176 0.119 0.471 255 255 255
0.355 -0.036 0.68 255 255 255
0.769 -1.678 2.149 255 255 255
0.12 -1.943 2.587 0 0 0
-0.126 -0.045 0.6 255 255 255
0.15 0.088 0.517 255 255 255
0.079 0.144 0.494 255 255 255
-0.163 -0.092 0.749 255 255 255
0.092 -0.468 1.559 255 255 255
-0.047 0.199 0.615 255 255 255
-0.134 0.234 0.713 255 255 255
0.079 0.077 0.552 255 255 255
-0.249 0.332 0.658 255 255 255
-0.306 0.088 0.758 255 255 255
-0.098 0.338 0.73 255 255 255
-0.104 -0.254 1.189 255 255 255
0.038 0.043 0.525 0 0 0
-0.551 0.005 0.923 255 255 255
0.528 -0.098 0.825 0 0 0
0.112 0.195 0.485 255 255 255
0.163 0.113 0.48 255 255 255
-1.2 -0.562 1.86 255 255 255
0.422 -0.097 0.769 255 255 255
0 0.015 0.512 255 255 255
0.353 -0.106 0.908 0 0 0
-0.091 0.106 0.599 255 255 255
0.021 0.118 0.542 255 255 255
0.711 -1.342 2.325 255 255 255
-0.001 0.192 0.574 255 255 255
-0.997 -0.563 2.174 255 255 255
-0.134 0.328 0.667 255 255 255
-0.252 0.363 0.643 255 255 255
0.174 0.172 0.438 255 255 255
0.26 -1.194 2.747 255 255 255
0.057 0.072 0.562 255 255 255
-0.481 -0.051 0.868 255 255 255
-0.105 -0.023 0.687 0 0 0
0.079 0.03 0.532 0 0 0
0.005 0.062 0.562 0 0 0
-1.119 -0.7 1.929 255 255 255
0.365 0.009 0.536 0 0 0
-0.296 0.095 0.754 255 255 255
0.663 -0.914 2.358 0 0 0
0.145 0.103 0.501 255 255 255
0.236 -0.516 1.659 0 0 0
0.61 -0.468 1.578 0 0 0
-0.262 -0.008 0.626 255 255 255
0.802 -1.195 2.118 255 255 255
-0.411 0.053 0.821 255 255 255
0.334 -0.153 0.879 255 255 255
-0.056 -0.473 1.609 255 255 255
-0.493 -0.06 0.868 255 255 255
0.154 -0.349 1.236 255 255 255
-0.615 -0.042 0.955 255 255 255
0.184 0.132 0.456 255 255 255
-0.17 0.113 0.657 255 255 255
-0.565 -0.079 0.945 255 255 255
0.251 0.084 0.45 255 255 255
0.092 0.085 0.543 255 255 255
-0.103 -0.056 0.623 255 255 255
0.98 -1.552 2.049 0 0 0
0.743 -0.934 2.28 0 0 0
-0.081 0.144 0.609 255 255 255
-0.838 -1.402 2.095 255 255 255
0.048 0.139 0.512 255 255 255
0.852 -0.374 1.489 255 255 255
0.586 -0.993 2.39 255 255 255
-0.445 0.213 0.821 255 255 255
-0.18 -0.113 0.761 255 255 255
0.284 -0.081 0.823 255 255 255
0.258 -0.024 0.612 0 0 0
-1.157 -0.359 2.01 255 255 255
-1.03 -1.068 1.927 255 255 255
-0.12 0.132 0.634 255 255 255
-0.378 -1.972 2.655 0 0 0
-0.263 0.122 0.741 255 255 255
0.184 -0.067 0.736 255 255 255
-0.415 -0.007 0.826 255 255 255
-0.05 0.051 0.591 255 255 255
-0.078 0.177 0.622 255 255 255
0.625 -0.504 1.551 255 255 255
0.434 -1.42 2.533 255 255 255
0.35 -0.247 1.147 255 255 255
0.036 -1.041 2.949 0 0 0
0.271 -0.525 1.687 255 255 255
-0.219 0.146 0.719 255 255 255
-0.071 -0.026 0.695 0 0 0
-0.25 0.25 0.727 255 255 255
-0.104 0.276 0.72 255 255 255
0.228 0.058 0.459 255 255 255
0.779 -0.486 1.477 255 255 255
1.137 -0.404 1.573 255 255 255
-0.378 -1.945 2.663 0 0 0
0.002 0.09 0.562 255 255 255
-0.663 -0.103 1.027 255 255 255
-0.457 -0.014 0.853 255 255 255
-1.262 -0.546 1.782 255 255 255
-0.625 -0.988 2.666 0 0 0
-0.86 -0.858 2.281 255 255 255
0.005 0.188 0.568 255 255 255
-0.508 -0.693 2.959 0 0 0
0.258 -0.536 1.665 255 255 255
0.135 0.112 0.491 255 255 255
0.152 -0.035 0.666 0 0 0
-1.301 -0.322 1.809 255 255 255
-0.569 -0.963 2.742 255 255 255
-0.022 -0.271 1.21 255 255 255
-0.109 0.249 0.707 255 255 255
0.606 -1.362 2.391 255 255 255
-0.359 -1.556 2.827 255 255 255
-0.159 0.156 0.676 255 255 255
0.509 -0.165 0.92 255 255 255
-0.214 0.186 0.723 0 0 0
0.103 0.221 0.505 255 255 255
0.317 0.036 0.539 0 0 0
-0.1 -0.048 0.636 0 0 0
0.743 -0.404 1.506 0 0 0
0.99 -1.62 2.028 255 255 255
0.804 -1.34 2.244 255 255 255
0.156 0.193 0.453 255 255 255
-1.011 -1.005 1.978 255 255 255
-0.517 -0.054 0.881 255 255 255
0.477 -0.247 1.069 255 255 255
-1.042 -0.791 2.016 255 255 255
-0.324 -1.263 2.595 255 255 255
-0.342 -0.083 0.85 255 255 255
0.177 0.096 0.501 255 255 255
0.276 -1.863 2.462 0 0 0
-1.066 -0.645 2.035 255 255 255
-0.991 -1.272 1.89 255 255 255
-1.043 -0.695 2.053 255 255 255
0.169 0.08 0.513 255 255 255
0.312 -1.461 2.595 255 255 255
-0.355 -0.068 0.834 255 255 255
-0.686 -0.909 2.601 255 255 255
0.137 0.143 0.469 255 255 255
-0.314 0.277 0.699 255 255 255
-0.002 -0.023 0.495 255 255 255
0.172 -0.088 0.826 255 255 255
0.082 0.013 0.559 0 0 0
-0.053 0.034 0.575 255 255 255
-0.016 -0.001 0.505 255 255 255
0.161 0.247 0.473 255 255 255
-0.05 0.129 0.571 255 255 255
-0.079 -0.044 0.666 255 255 255
0.12 0.208 0.483 255 255 255
-0.196 0.076 0.672 255 255 255
-0.008 0.137 0.545 255 255 255
-0.006 -0.019 0.492 255 255 255
-0.079 0.137 0.6 255 255 255
-0.127 -0.065 0.601 255 255 255
-0.714 -1.377 2.365 255 255 255
0.155 0.173 0.446 255 255 255
-0.988 -1.124 1.968 255 255 255
-0.022 0.048 0.571 255 255 255
-0.081 -0.046 0.665 0 0 0
-0.044 -0.003 0.567 255 255 255
-0.525 -0.143 1.023 255 255 255
0.113 0.02 0.532 255 255 255
-1.05 -1.026 1.907 255 255 255
-1.089 -0.523 2.05 255 255 255
-0.78 -1.594 2.185 0 0 0
0.35 -1.641 2.504 255 255 255
0.078 -1.899 2.628 0 0 0
0.264 -0.141 0.845 255 255 255
-0.088 -1.264 2.964 255 255 255
0.084 0.14 0.496 255 255 255
0.243 0.05 0.476 255 255 255
-0.151 -0.043 0.603 255 255 255
0.231 -0.005 0.596 0 0 0
0.073 -0.061 0.581 255 255 255
-0.717 -1.245 2.426 255 255 255
-0.104 0.07 0.631 255 255 255
0.123 0.207 0.479 255 255 255
0.367 -1.16 2.674 255 255 255
-0.428 -0.001 0.831 255 255 255
-0.804 -1.59 2.154 0 0 0
-0.464 -1.797 2.581 255 255 255
-0.216 -0.014 0.713 0 0 0
0.184 0.23 0.455 255 255 255
-0.455 -1.737 2.63 255 255 255
-0.11 -0.014 0.66 255 255 255
0.231 0.101 0.472 255 255 255
0.157 0.019 0.533 255 255 255
0.863 -1.264 2.026 0 0 0
-0.818 -1.627 2.125 0 0 0
0.043 -0.047 0.548 0 0 0
-0.068 0.089 0.602 255 255 255
0.548 -1.034 2.399 255 255 255
-0.009 0.004 0.503 255 255 255
-0.152 0.062 0.658 255 255 255
0.136 0.067 0.543 0 0 0
-0.427 0.175 0.878 0 0 0
-0.299 0.212 0.724 255 255 255
0.156 -0.036 0.66 0 0 0
0.14 0.259 0.495 255 255 255
-0.255 0.055 0.71 255 255 255
0.083 0.003 0.568 0 0 0
0.064 0.343 0.626 255 255 255
-0.041 0.109 0.576 255 255 255
-0.275 0.184 0.72 255 255 255
0.237 -0.13 0.862 255 255 255
-0.694 -0.72 2.671 255 255 255
-0.399 0.22 0.905 255 255 255
-0.405 0.019 0.806 255 255 255
0.233 0.046 0.542 255 255 255
-0.15 -0.065 0.607 255 255 255
-1.065 -1.072 1.866 255 255 255
-0.345 0.213 0.763 0 0 0
0.217 0.093 0.492 255 255 255
0.415 -0.228 1.05 0 0 0
-0.62 -0.008 0.963 0 0 0
-0.211 -0.786 2.711 0 0 0
0.613 -1.379 2.387 255 255 255
-0.911 -0.695 2.266 255 255 255
0.097 0.074 0.553 255 255 255
0.536 -0.127 0.819 0 0 0
-0.95 -0.773 2.173 255 255 255
0.08 0.316 0.586 255 255 255
-0.498 -1.438 2.673 255 255 255
0.297 0.013 0.569 0 0 0
0.055 0.04 0.518 255 255 255
-0.163 -0.062 0.621 0 0 0
-0.238 0.073 0.693 255 255 255
-0.927 -1.214 2.032 255 255 255
-0.097 -0.035 0.672 255 255 255
-1.034 -0.768 2.039 255 255 255
-0.224 0.173 0.736 255 255 255
-0.126 0.004 0.654 0 0 0
0.076 -1.077 2.835 255 255 255
-0.539 0.163 0.889 255 255 255
0.106 0.194 0.49 255 255 255
0.177 0.084 0.504 0 0 0
-0.251 0.263 0.72 255 255 255
-0.764 -0.74 2.563 255 255 255
0.109 0.166 0.474 255 255 255
-0.04 0.305 0.675 0 0 0
0.005 -1.905 2.648 255 255 255
-0.43 0.199 0.881 255 255 255
0.189 -0.029 0.653 255 255 255
0.087 0.041 0.518 255 255 255
-0.722 -1.185 2.442 255 255 255
0.834 -1.214 2.08 255 255 255
0.11 0.163 0.472 255 255 255
-0.589 -1.08 2.668 255 255 255
0.044 0.104 0.54 255 255 255
0.041 -1.694 2.695 255 255 255
0.192 0.138 0.451 255 255 255
0.423 -1.613 2.454 255 255 255
-0.664 -1.76 2.274 255 255 255
-0.028 -0.004 0.548 0 0 0
-0.464 0.055 0.87 255 255 255
0.346 0.047 0.529 255 255 255
0.047 0.238 0.565 255 255 255
-0.263 -0.142 0.73 255 255 255
0.651 -0.229 1.092 255 255 255
0.329 -0.036 0.682 0 0 0
-1.118 -0.356 2.067 255 255 255
-0.358 -0.008 0.793 255 255 255
-0.023 0.065 0.601 255 255 255
0.161 0.006 0.566 255 255 255
0.46 -0.228 1.099 0 0 0
-0.495 0.157 0.876 255 255 255
-0.526 -0.183 1.096 255 255 255
0.792 -0.859 2.255 255 255 255
-1.198 -0.485 1.896 255 255 255
0.396 -0.117 0.879 0 0 0
-0.151 0.28 0.706 255 255 255
-0.07 0.02 0.592 255 255 255
-0.249 0.3 0.661 255 255 255
0.012 0.042 0.515 0 0 0
-0.022 -0.238 1.086 255 255 255
0.159 0.068 0.526 0 0 0
-0.474 -0.998 2.877 255 255 255
-0.552 -1.159 2.696 255 255 255
0.239 -0.055 0.689 255 255 255
-0.19 0.051 0.691 255 255 255
-0.917 -1.45 1.961 0 0 0
0.18 -0.178 1 255 255 255
-0.68 -1.658 2.291 0 0 0
-0.87 -0.818 2.272 255 255 255
-0.117 0.118 0.624 0 0 0
-1.227 -0.273 1.936 255 255 255
0.455 -0.899 2.538 0 0 0
0.72 -0.748 2.231 255 255 255
0.237 0.097 0.486 0 0 0
-0.084 0.059 0.622 255 255 255
0.05 0.283 0.597 255 255 255
0.164 -0.264 1.23 0 0 0
0.118 0.227 0.494 0 0 0
-1.114 -0.591 1.993 0 0 0
-0.248 0.133 0.735 255 255 255
-0.366 -1.973 2.658 0 0 0
-0.271 -0.12 0.717 255 255 255
-0.219 0.029 0.669 255 255 255
-0.036 0.166 0.585 255 255 255
-0.18 -0.149 0.784 255 255 255
-0.401 0.222 0.906 0 0 0
-0.172 0.003 0.689 0 0 0
0.273 -0.025 0.623 255 255 255
0.31 0.015 0.547 0 0 0
0.17 -0.211 1.109 255 255 255
-0.211 -0.023 0.597 255 255 255
0.02 -0.07 0.547 255 255 255
0.118 0.192 0.48 255 255 255
0.041 -0.012 0.548 0 0 0
0.825 -1.031 2.165 255 255 255
0.235 0.101 0.474 255 255 255
0.544 -0.924 2.436 255 255 255
0.392 -0.518 1.697 255 255 255
0.15 0.09 0.515 255 255 255
-0.112 0.339 0.644 255 255 255
0.706 -1.381 2.315 255 255 255
-0.013 0.049 0.579 255 255 255
0.025 0.335 0.644 255 255 255
-0.027 -0.027 0.501 255 255 255
-0.924 -0.822 2.189 255 255 255
-0.705 -0.763 2.637 255 255 255
-0.31 -1.986 2.646 0 0 0
-0.221 -1.931 2.748 255 255 255
0.107 -0.441 1.5 0 0 0
-0.509 -1.014 2.825 255 255 255
0.215 -1.444 2.683 255 255 255
0.205 -1.278 2.76 255 255 255
0.197 0.099 0.49 255 255 255
0.161 0.077 0.518 255 255 255
-0.646 0.061 0.943 255 255 255
-0.271 0.145 0.762 255 255 255
0.048 -1.946 2.592 0 0 0
-0.466 -0.922 2.921 255 255 255
0.797 -0.995 2.216 255 255 255
-1.182 -0.388 1.956 255 255 255
0.187 0.196 0.438 0 0 0
-0.945 -0.92 2.122 255 255 255
1.151 -0.913 1.967 255 255 255
0.23 0.12 0.451 255 255 255
-0.89 -0.927 2.212 255 255 255
-0.158 0.295 0.637 255 255 255
0.658 -1.056 2.298 255 255 255
-0.036 0.084 0.583 255 255 255
0.274 0.043 0.503 255 255 255
0.664 -1.433 2.324 255 255 255
0.673 -0.972 2.32 255 255 255
0.053 -1.381 2.796 255 255 255
-0.007 0.14 0.545 255 255 255
-0.435 -1.818 2.626 255 255 255
1.071 -0.722 1.987 255 255 255
0.043 -0.065 0.557 255 255 255
-0.711 0.001 0.974 255 255 255
0.226 -0.137 0.872 255 255 255
-0.724 -1.499 2.312 255 255 255
0.13 -0.038 0.676 255 255 255
-0.402 -1.139 2.944 255 255 255
-0.898 -1.523 1.962 255 255 255
-0.244 0.073 0.697 255 255 255
-0.098 -0.377 1.501 255 255 255
0.096 0.124 0.499 255 255 255
0.103 -1.153 2.927 255 255 255
0.049 -0.255 1.097 255 255 255
-0.266 0.316 0.658 255 255 255
-0.151 0.286 0.71 255 255 255
-0.358 -0.048 0.796 255 255 255
-0.906 -0.836 2.22 255 255 255
0.002 0.245 0.606 255 255 255
1.112 -1.047 1.943 255 255 255
0.314 -0.05 0.681 255 255 255
-0.085 -0.082 0.628 255 255 255
0.362 0.019 0.511 255 255 255
0.203 -0.53 1.639 255 255 255
-0.17 -0.349 1.524 255 255 255
0.115 -0.232 1.073 255 255 255
-0.075 0.01 0.608 255 255 255
0.162 0.025 0.527 255 255 255
-0.111 0.119 0.62 255 255 255
-0.543 0.158 0.893 255 255 255
-0.053 0.321 0.643 255 255 255
-0.211 0.188 0.718 0 0 0
-1.012 -0.795 2.053 255 255 255
-0.819 -1.314 2.248 255 255 255
-1.145 -0.321 2.031 255 255 255
-0.083 -0.085 0.634 255 255 255
0.046 -0.076 0.574 255 255 255
-0.127 -0.071 0.617 255 255 255
0.379 -0.004 0.628 0 0 0
0.206 0.077 0.481 255 255 255
-0.265 0.286 0.688 255 255 255
-0.473 -0.074 0.873 255 255 255
-0.299 0.214 0.724 255 255 255
-0.349 -0.011 0.791 255 255 255
-0.284 0.104 0.749 255 255 255
-0.042 0.024 0.579 255 255 255
0.153 -0.002 0.629 0 0 0
0.362 -0.153 0.873 255 255 255
0.094 0.17 0.488 255 255 255
0.114 0.151 0.475 255 255 255
-0.181 -0.096 0.739 255 255 255
-0.013 -0.088 0.693 255 255 255
-0.115 0.01 0.621 255 255 255
0.501 -0.487 1.62 255 255 255
-0.717 -1.265 2.417 255 255 255
-0.382 -0.133 0.946 255 255 255
-0.823 -1.204 2.246 255 255 255
0.446 -0.237 1.052 255 255 255
0.189 0.017 0.537 255 255 255
-0.225 0.142 0.721 255 255 255
-0.723 -1.117 2.467 255 255 255
0.041 -1.521 2.753 255 255 255
-0.096 0.298 0.705 255 255 255
0.107 0.154 0.476 255 255 255
-0.243 -0.164 0.745 255 255 255
0.239 0.09 0.492 0 0 0
0.244 -0.182 0.968 255 255 255
0.026 0.078 0.534 255 255 255
-0.004 0.291 0.641 0 0 0
-0.351 0.245 0.749 255 255 255
-0.115 -0.048 0.605 255 255 255
-0.49 0.109 0.929 255 255 255
0.249 0.115 0.458 255 255 255
-1.091 -0.449 2.076 255 255 255
-0.258 0.017 0.649 255 255 255
0.063 0.132 0.51 255 255 255
0.215 0.106 0.47 255 255 255
0.574 -1.266 2.456 255 255 255
0.087 -0.017 0.603 255 255 255
0.229 0.053 0.476 0 0 0
0.187 -0.107 0.899 255 255 255
-0.182 0.224 0.683 255 255 255
-0.283 -0.13 0.718 255 255 255
-0.903 -0.77 2.242 255 255 255
-0.183 -0.311 1.408 255 255 255
-0.049 0.102 0.583 255 255 255
0.015 0.154 0.539 255 255 255
0.395 -0.02 0.662 255 255 255
0.001 0.291 0.637 0 0 0
-0.085 -0.483 1.656 255 255 255
0.129 0.156 0.464 255 255 255
-0.064 0.107 0.583 255 255 255
0.09 0.132 0.499 0 0 0
0.22 0.064 0.484 255 255 255
0.172 0.066 0.518 0 0 0
-0.134 0.01 0.631 255 255 255
-0.69 -1.614 2.307 255 255 255
0.491 -0.16 0.904 255 255 255
-0.016 0.102 0.567 255 255 255
0.057 0.26 0.571 0 0 0
0.2 0.099 0.487 255 255 255
0.149 0.198 0.457 255 255 255
-0.285 0.162 0.785 255 255 255
0.713 -0.537 1.53 255 255 255
1.043 -1.139 1.957 255 255 255
0.248 -0.023 0.612 255 255 255
0.227 -0.539 1.641 255 255 255
0.003 0.113 0.554 255 255 255
0.077 0.087 0.549 255 255 255
0.044 0.278 0.598 0 0 0
0.074 -0.004 0.587 255 255 255
0.056 0.095 0.54 0 0 0
0.471 -0.45 1.621 255 255 255
0.309 0.003 0.556 255 255 255
0.243 -0.133 0.853 255 255 255
0.617 -1.011 2.359 255 255 255
-0.432 0.206 0.874 255 255 255
0.535 -0.069 0.783 255 255 255
-0.075 -0.1 0.675 0 0 0
-0.03 -0.453 1.626 0 0 0
0.188 -0.222 1.12 255 255 255
-0.162 0.16 0.682 255 255 255
0.347 -1.212 2.679 255 255 255
0.536 -0.131 0.819 0 0 0
0.339 -1.534 2.55 255 255 255
0.442 -1.51 2.477 255 255 255
0.227 -0.205 1.038 0 0 0
-0.561 -1.634 2.48 255 255 255
0.097 0.317 0.575 255 255 255
-0.023 0.057 0.59 255 255 255
-0.217 -0.092 0.711 255 255 255
0.229 -0.505 1.66 255 255 255
0.063 0.022 0.541 255 255 255
0.366 -1.805 2.418 0 0 0
0.579 -0.457 1.586 255 255 255
-0.794 -1.647 2.149 0 0 0
-1.243 -0.363 1.883 255 255 255
-0.311 0.262 0.712 255 255 255
0.15 0.268 0.491 255 255 255
-0.229 -0.159 0.755 255 255 255
-0.093 0.069 0.626 255 255 255
-0.26 -1.87 2.705 255 255 255
0.76 -0.417 1.483 0 0 0
-0.15 0.262 0.699 255 255 255
-0.242 0.178 0.704 0 0 0
-0.744 -0.053 0.993 255 255 255
0.166 0.262 0.478 255 255 255
0.083 0.176 0.5 255 255 255
0.186 -0.145 0.919 255 255 255
0.094 0.076 0.553 0 0 0
-0.09 0.002 0.631 255 255 255
-0.012 0.121 0.552 255 255 255
0.251 0.09 0.466 255 255 255
0.026 0.081 0.539 255 255 255
1.069 -0.868 2.055 0 0 0
0.436 -0.013 0.634 255 255 255
-0.204 0.259 0.667 255 255 255
0.319 -0.089 0.857 0 0 0
-0.081 0.033 0.593 255 255 255
0.069 0.03 0.547 255 255 255
-1.042 -0.86 1.987 255 255 255
-0.915 -0.98 2.135 255 255 255
-0.197 0.176 0.718 255 255 255
-0.055 -0.06 0.656 0 0 0
0.182 -0.122 0.92 255 255 255
-0.833 -1.24 2.163 255 255 255
0.129 0.095 0.512 255 255 255
-0.368 0.22 0.868 255 255 255
-0.53 -1.804 2.46 0 0 0
0.202 0.064 0.486 255 255 255
0.198 0.089 0.489 255 255 255
-0.523 0.155 0.923 255 255 255
0.148 0.141 0.471 255 255 255
-1.136 -0.496 1.992 255 255 255
-0.161 0.003 0.681 0 0 0
-0.29 0.213 0.724 255 255 255
0.141 0.193 0.463 255 255 255
-0.69 -1.203 2.488 255 255 255
0.311 0.051 0.506 255 255 255
0.813 -1.534 2.178 255 255 255
0.17 0.06 0.519 0 0 0
0.261 -0.122 0.852 255 255 255
0.924 -0.852 2.17 0 0 0
-1.179 -0.322 1.996 255 255 255
-0.101 0.331 0.729 0 0 0
-0.114 0.346 0.63 255 255 255
0.071 0.215 0.529 255 255 255
-0.792 -1.194 2.33 255 255 255
-0.353 -1.863 2.701 255 255 255
-0.078 0.334 0.668 255 255 255
-0.454 0.045 0.855 255 255 255
0.092 0.3 0.571 255 255 255
0.107 -0.021 0.621 255 255 255
-0.419 -0.038 0.845 255 255 255
0.017 0.192 0.559 255 255 255
-0.672 -0.035 0.985 255 255 255
0.233 -0.063 0.701 255 255 255
0.241 0.086 0.464 255 255 255
0.171 0.222 0.455 255 255 255
0.044 0.304 0.609 255 255 255
0.044 0.321 0.622 255 255 255
0.161 0.045 0.551 255 255 255
0.587 -1.441 2.374 255 255 255
0.471 -1.285 2.559 255 255 255
1.282 -0.633 1.983 0 0 0
0.979 -1.155 2 255 255 255
0.227 0.005 0.55 255 255 255
0.249 0.035 0.521 0 0 0
0.095 -0.041 0.59 255 255 255
-0.97 -0.607 2.203 255 255 255
0.186 -0.917 2.663 255 255 255
-0.885 -1.453 2.005 0 0 0
0.11 0.057 0.558 0 0 0
-0.141 0.161 0.665 255 255 255
0.646 -1.118 2.274 255 255 255
-0.116 0.075 0.63 255 255 255
0.231 -0.044 0.687 0 0 0
-0.577 -1.37 2.572 255 255 255
0.835 -1.064 2.152 255 255 255
-0.863 -1.193 2.142 255 255 255
0.084 0.039 0.517 255 255 255
0.039 -0.076 0.568 255 255 255
0.089 -0.195 1.033 255 255 255
-0.04 -0.074 0.661 255 255 255
0.23 0.126 0.451 255 255 255
-0.86 -1.063 2.193 255 255 255
0.1 0.061 0.565 0 0 0
-0.24 0.272 0.715 255 255 255
0.058 -0.031 0.545 0 0 0
0.029 -1.827 2.651 255 255 255
-0.081 -1.357 2.92 255 255 255
-0.936 -1.183 2.025 255 255 255
0.121 0.107 0.499 255 255 255
-0.068 0.087 0.602 255 255 255
-0.202 -0.077 0.703 255 255 255
0.183 0.184 0.436 255 255 255
0.351 -0.104 0.909 0 0 0
-0.301 0.178 0.811 255 255 255
-0.183 -0.146 0.779 255 255 255
0.112 0.013 0.538 255 255 255
0.125 0.056 0.547 0 0 0
0.342 -0.17 0.878 255 255 255
-0.619 -0.731 2.774 255 255 255
-0.347 0.259 0.723 255 255 255
-0.522 -0.994 2.803 255 255 255
-0.076 -0.078 0.631 255 255 255
-0.565 -1.236 2.65 255 255 255
-0.035 -0.015 0.536 0 0 0
0.382 -1.732 2.44 255 255 255
0.04 0.186 0.539 255 255 255
0.489 -1.489 2.458 255 255 255
0.032 0.165 0.533 255 255 255
-0.546 -1.268 2.664 255 255 255
-0.194 -0.147 0.775 255 255 255
0.386 -0.091 0.79 255 255 255
-0.138 0.065 0.648 255 255 255
0.112 0.197 0.485 255 255 255
-0.246 0.012 0.696 255 255 255
0.041 -1.856 2.624 255 255 255
-0.053 0.035 0.574 255 255 255
0.092 0.261 0.541 255 255 255
-1.148 -0.526 1.96 255 255 255
0.347 -0.021 0.652 255 255 255
-0.036 0.083 0.584 255 255 255
0.237 -1.017 2.718 255 255 255
-0.944 -0.536 2.269 255 255 255
-0.145 0.335 0.626 255 255 255
0.419 -0.106 0.787 0 0 0
0.636 -0.974 2.361 255 255 255
-0.141 -0.045 0.609 0 0 0
-0.299 0.287 0.686 255 255 255
0.615 -0.749 2.372 255 255 255
-1.045 -0.588 2.1 255 255 255
0.606 -0.463 1.589 0 0 0
0.076 0.243 0.544 0 0 0
0.259 0.079 0.445 255 255 255
0.051 0.342 0.633 255 255 255
0.064 0.251 0.557 0 0 0
-0.716 -0.845 2.596 255 255 255
-0.089 -0.051 0.641 255 255 255
-0.098 0.118 0.605 255 255 255
-0.59 -0.025 0.941 255 255 255
-0.243 0.294 0.678 255 255 255
-0.522 -0.822 2.874 255 255 255
-0.747 -0.119 1.036 0 0 0
0.273 -0.18 0.877 255 255 255
-0.697 -1.52 2.331 255 255 255
0.038 0.106 0.534 255 255 255
-1.081 -0.667 2.007 255 255 255
0.096 -1.245 2.856 255 255 255
-0.297 0.288 0.683 255 255 255
-0.65 -0.1 1.02 255 255 255
0.035 -0.324 1.238 255 255 255
0.192 0.122 0.462 255 255 255
0.081 -0.04 0.57 255 255 255
0.107 0.03 0.521 255 255 255
0.088 -0.027 0.602 255 255 255
-0.496 -0.076 0.876 0 0 0
0.099 0.261 0.534 255 255 255
-0.238 0.022 0.693 0 0 0
-0.124 0.238 0.711 255 255 255
0.037 0.167 0.53 255 255 255
0.205 0.058 0.489 255 255 255
0.738 -0.176 1.028 255 255 255
-0.874 -0.853 2.262 255 255 255
-1.273 -0.439 1.802 255 255 255
0.142 0.088 0.517 255 255 255
-0.109 -0.067 0.606 255 255 255
-1.096 -0.78 1.936 255 255 255
0.1 0.082 0.544 255 255 255
-0.579 -0.808 2.796 255 255 255
-0.135 -0.093 0.733 255 255 255
0.234 0.046 0.542 255 255 255
0.167 0.054 0.515 0 0 0
-0.1 0.37 0.721 255 255 255
0.082 0.152 0.488 255 255 255
0.138 -0.014 0.651 0 0 0
-0.388 0.066 0.81 255 255 255
0.061 0.177 0.515 255 255 255
-1.038 -0.8 2.016 255 255 255
-0.167 0.279 0.688 255 255 255
0.145 0.111 0.489 255 255 255
0.128 0.066 0.54 255 255 255
0.669 -0.929 2.338 0 0 0
1.097 -0.739 1.972 255 255 255
0.158 0.27 0.487 255 255 255
-0.786 -0.687 2.55 255 255 255
-0.202 -0.208 0.99 255 255 255
-0.022 0.278 0.65 255 255 255
-0.009 -0.033 0.497 255 255 255
0.017 0.042 0.527 255 255 255
-0.64 -1.283 2.519 255 255 255
-0.081 0.225 0.662 255 255 255
0.222 -0.209 1.057 0 0 0
-0.065 0.216 0.641 255 255 255
0.262 0.041 0.5 255 255 255
0.096 0.116 0.509 255 255 255
0.122 -0.166 1.048 0 0 0
0.163 0.056 0.519 0 0 0
-0.68 -1.632 2.304 255 255 255
0.149 -0.384 1.304 0 0 0
-1.004 -1.097 1.952 255 255 255
-0.909 -0.927 2.178 255 255 255
0.412 -0.014 0.646 255 255 255
-0.663 -0.734 2.71 255 255 255
0.234 0.112 0.458 255 255 255
-0.333 0.034 0.757 255 255 255
0.001 0.06 0.576 0 0 0
0.07 -0.234 1.015 255 255 255
-0.058 0.283 0.683 255 255 255
0.175 0.074 0.511 0 0 0
-0.719 -1.119 2.472 255 255 255
-0.034 0.198 0.601 255 255 255
-0.045 0.145 0.583 0 0 0
-0.367 0.049 0.784 255 255 255
-0.079 0.16 0.615 255 255 255
-0.667 -1.423 2.409 255 255 255
0.186 0.007 0.55 255 255 255
0.206 0.096 0.49 0 0 0
-0.821 -0.575 2.433 255 255 255
0.392 -0.535 1.715 255 255 255
0.159 -0.025 0.645 255 255 255
-0.205 0.272 0.672 255 255 255
-0.055 0.207 0.636 255 255 255
-0.225 -0.136 0.752 255 255 255
-0.18 -0.021 0.607 255 255 255
-0.583 -0.016 0.938 255 255 255
-0.782 -0.953 2.442 255 255 255
-0.155 0.024 0.65 255 255 255
0.966 -0.766 2.1 255 255 255
0.061 -0.068 0.578 255 255 255
-0.552 0.141 0.918 255 255 255
0.071 0.2 0.522 255 255 255
0.238 -0.023 0.615 255 255 255
-0.844 -1.376 2.091 255 255 255
0.016 0.122 0.542 255 255 255
-0.08 0.12 0.589 255 255 255
0.799 -1.593 2.159 0 0 0
-0.913 -0.79 2.222 255 255 255
-0.068 0.328 0.656 255 255 255
0.104 0.016 0.534 255 255 255
-0.646 -0.055 0.981 0 0 0
-0.156 0.202 0.704 255 255 255
-0.525 0.074 0.933 255 255 255
-0.995 -1.245 1.912 255 255 255
0.195 -0.053 0.708 0 0 0
-0.212 0.352 0.628 255 255 255
-0.209 -1.705 2.846 255 255 255
-0.224 -0.125 0.739 255 255 255
0.088 -0.572 1.727 255 255 255
0.448 -0.23 1.063 255 255 255
-0.132 -0.037 0.616 0 0 0
-0.199 0.32 0.65 255 255 255
0.131 0.084 0.527 255 255 255
-0.01 0.324 0.632 255 255 255
-0.47 -1.56 2.679 255 255 255
0.018 0.227 0.582 255 255 255
-1.016 -0.668 2.103 255 255 255
0.967 -0.989 2.079 255 255 255
0.057 0.001 0.538 0 0 0
0.375 0.01 0.601 255 255 255
0.11 0.112 0.502 255 255 255
0.059 0.207 0.534 255 255 255
0.103 0.149 0.481 255 255 255
0.224 0.07 0.469 255 255 255
-0.018 0.104 0.568 255 255 255
0.545 -0.239 1.079 255 255 255
0.072 0.286 0.577 255 255 255
1.058 -0.974 2.012 255 255 255
-0.119 0.145 0.638 255 255 255
0.035 0.059 0.548 255 255 255
-0.081 0.204 0.654 255 255 255
0.24 0.041 0.564 0 0 0
-0.724 -1.102 2.474 255 255 255
0.626 -1.433 2.353 255 255 255
-0.009 0.158 0.561 255 255 255
-0.001 -0.025 0.495 255 255 255
-0.22 0.264 0.697 255 255 255
-0.282 -0.141 0.727 255 255 255
-0.047 -0.48 1.61 255 255 255
-0.59 -1.58 2.469 255 255 255
-1.088 -0.634 2.007 255 255 255
0.378 -0.068 0.752 0 0 0
-0.165 -0.013 0.668 0 0 0
-0.46 -1.47 2.726 255 255 255
0.392 -0.437 1.548 255 255 255
-0.225 0.179 0.733 0 0 0
0.724 -1.095 2.22 255 255 255
0.214 0.119 0.455 255 255 255
0.111 0.212 0.495 255 255 255
-1.189 -0.434 1.934 255 255 255
-0.32 0.243 0.757 255 255 255
0.317 0.04 0.531 255 255 255
-0.361 0.241 0.75 255 255 255
-0.095 -0.038 0.666 255 255 255
0.302 -0.022 0.666 255 255 255
-0.243 -1.176 2.736 255 255 255
0.076 -1.094 2.844 255 255 255
0.041 -0.036 0.549 0 0 0
-0.18 0.312 0.619 255 255 255
-0.465 -1.648 2.656 255 255 255
-0.089 0.016 0.61 255 255 255
0.547 -0.946 2.419 255 255 255
-0.065 0.084 0.602 255 255 255
-1.139 -0.848 1.84 255 255 255
-0.823 -1.423 2.197 255 255 255
0.187 0.146 0.448 255 255 255
0.533 -0.459 1.578 255 255 255
0.479 -0.518 1.706 255 255 255
0.111 0.147 0.48 255 255 255
0.052 0.078 0.544 255 255 255
0.661 -1.098 2.277 255 255 255
-0.042 0.042 0.57 255 255 255
-0.711 -1.155 2.473 255 255 255
-0.881 -0.776 2.269 255 255 255
0.063 0.043 0.518 255 255 255
0.092 0.128 0.498 0 0 0
0.14 0.152 0.463 255 255 255
0.386 -0.114 0.886 0 0 0
-0.214 0.277 0.684 255 255 255
0.262 0.107 0.473 255 255 255
0.215 -1.014 2.729 255 255 255
-0.06 0.327 0.668 255 255 255
-0.186 0.094 0.661 255 255 255
-0.247 -0.158 0.743 255 255 255
-0.959 -1.249 1.962 255 255 255
-0.318 0.245 0.753 0 0 0
0.022 0.028 0.534 255 255 255
0.38 -0.011 0.532 255 255 255
0.154 0.135 0.474 255 255 255
-0.408 0.021 0.807 255 255 255
0.558 -1.385 2.417 255 255 255
-0.176 -0.212 1.026 255 255 255
0.116 -0.027 0.626 255 255 255
-0.091 -0.073 0.619 255 255 255
-0.098 0.008 0.616 255 255 255
0.144 -0.371 1.278 255 255 255
-0.822 -0.592 2.465 255 255 255
0.062 -0.044 0.552 255 255 255
-1 -0.409 2.266 255 255 255
0.072 -0.192 0.963 255 255 255
-1.096 -0.631 1.992 255 255 255
0.005 0.161 0.55 255 255 255
-0.589 -1.751 2.388 0 0 0
-0.025 -0.056 0.661 0 0 0
-0.439 -1.573 2.718 255 255 255
0.165 0.096 0.501 255 255 255
0.368 -0.144 0.873 255 255 255
0.941 -1.25 2 255 255 255
0.139 0.261 0.496 255 255 255
0.413 -1.451 2.53 255 255 255
0.662 -1.672 2.233 0 0 0
0.228 0.057 0.464 255 255 255
-0.092 0.109 0.597 255 255 255
-0.803 -0.915 2.428 255 255 255
-1.051 -0.388 2.177 255 255 255
0.048 0.306 0.605 255 255 255
0.179 0.047 0.532 0 0 0
0.108 0.012 0.539 255 255 255
-0.157 0.333 0.609 255 255 255
-0.699 -0.894 2.588 255 255 255
-1.068 -0.874 1.949 255 255 255
0.389 -0.114 0.886 0 0 0
-1.107 -0.523 2.023 255 255 255
0.242 -0.113 0.878 255 255 255
0.246 0.011 0.566 255 255 255
-0.773 -0.722 2.557 255 255 255
-0.415 -1.589 2.763 255 255 255
0.433 -1.543 2.476 255 255 255
-0.121 0.361 0.714 255 255 255
0.005 -1.651 2.748 255 255 255
-0.305 0.042 0.738 255 255 255
0.17 -1.355 2.753 255 255 255
-0.009 0.173 0.571 255 255 255
-0.305 0.086 0.756 255 255 255
0.167 0.188 0.445 255 255 255
-0.233 0.356 0.636 255 255 255
0.343 -0.005 0.609 255 255 255
-0.644 -0.91 2.666 255 255 255
0.007 -0.601 1.855 255 255 255
0.142 0.064 0.54 0 0 0
-0.913 -1.143 2.075 255 255 255
-0.669 -1.727 2.288 0 0 0
-0.951 -0.841 2.132 255 255 255
1.076 -0.928 2.02 255 255 255
-0.057 0.338 0.635 255 255 255
-0.821 -1.096 2.328 255 255 255
0.365 -1.568 2.511 255 255 255
0.037 0.327 0.637 255 255 255
-0.844 -1.18 2.168 255 255 255
-0.024 -0.447 1.631 0 0 0
-0.497 -0.12 0.96 0 0 0
-0.333 -1.71 2.757 255 255 255
0.017 -1.551 2.767 255 255 255
-0.256 0.01 0.669 255 255 255
0.851 -0.767 2.15 255 255 255
-0.197 -1.798 2.819 255 255 255
0.128 0.108 0.497 255 255 255
0.129 0.078 0.539 0 0 0
-0.227 0.209 0.686 255 255 255
-1.182 -0.596 1.876 255 255 255
-1.17 -0.68 1.856 255 255 255
0.387 -0.123 0.882 255 255 255
0.274 0.103 0.476 255 255 255
0.243 0.036 0.574 255 255 255
-0.037 0.092 0.58 255 255 255
0.56 -0.839 2.48 0 0 0
1.27 -0.572 2.013 0 0 0
-0.232 0.085 0.695 255 255 255
-0.426 -0.075 0.862 255 255 255
-0.002 0.155 0.552 255 255 255
-1.172 -0.587 1.897 255 255 255
-0.115 0.054 0.64 255 255 255
-0.705 -1.45 2.345 255 255 255
0.262 0.02 0.546 0 0 0
0.003 0.123 0.544 255 255 255
-0.804 -0.78 2.498 255 255 255
-0.035 0.106 0.574 255 255 255
0.368 -0.491 1.644 255 255 255
0.139 0.229 0.479 255 255 255
-1.164 -0.535 1.931 255 255 255
-0.118 0.184 0.666 255 255 255
-0.231 0.289 0.685 255 255 255
-1.004 -0.668 2.123 255 255 255
-0.229 -0.075 0.702 255 255 255
0.097 -0.024 0.608 255 255 255
-0.062 -1.695 2.783 255 255 255
0.395 -0.117 0.863 0 0 0
-0.283 0.183 0.728 255 255 255
-0.425 0.238 0.845 255 255 255
-0.046 0.314 0.627 255 255 255
-0.757 -0.081 1.004 255 255 255
-0.124 -0.183 0.987 0 0 0
0.517 -0.141 0.856 0 0 0
0.484 -1.547 2.442 255 255 255
-1.127 -0.43 2.035 255 255 255
0.776 -0.517 1.489 255 255 255
-0.577 -1.031 2.707 255 255 255
-0.745 -0.08 1.019 255 255 255
-0.36 -1.945 2.676 0 0 0
-0.656 -0.017 0.979 255 255 255
-0.477 -0.132 1.002 255 255 255
0.788 -1.308 2.222 0 0 0
0.138 0.017 0.531 255 255 255
-0.397 0.236 0.863 0 0 0
0.765 -1.161 2.161 255 255 255
0.095 0.1 0.515 255 255 255
0.341 -0.103 0.903 255 255 255
0.009 0.104 0.555 0 0 0
-1.15 -0.458 1.984 255 255 255
-0.09 0.011 0.609 255 255 255
-0.049 0.047 0.583 255 255 255
-0.397 0.072 0.82 255 255 255
-0.922 -0.552 2.306 255 255 255
-0.095 0.067 0.627 255 255 255
0.368 -0.074 0.773 0 0 0
-0.141 0.299 0.649 255 255 255
0.207 0.164 0.434 255 255 255
0.037 -0.181 0.921 255 255 255
-0.074 0.099 0.595 255 255 255
-0.12 0.003 0.654 255 255 255
-0.662 -1.233 2.504 255 255 255
-0.155 0.004 0.673 255 255 255
-0.434 -1.443 2.772 255 255 255
-0.002 0.098 0.562 255 255 255
0.18 0.264 0.473 255 255 255
0.074 0.112 0.524 255 255 255
-0.158 0.149 0.672 255 255 255
-0.132 0.012 0.627 255 255 255
0.689 -0.224 1.066 255 255 255
0.08 0.15 0.489 255 255 255
-0.1 0.341 0.646 255 255 255
-0.152 -1.459 2.937 255 255 255
0.368 -0.257 1.13 255 255 255
0.079 -0.032 0.575 255 255 255
-0.01 0.19 0.579 255 255 255
0.533 -1.55 2.395 255 255 255
-0.05 0.268 0.667 255 255 255
-0.025 -1.175 2.949 255 255 255
-0.241 -0.157 0.747 255 255 255
0.237 0.117 0.453 255 255 255
-0.1 0.067 0.63 255 255 255
0.156 0.033 0.524 255 255 255
-0.621 0.013 0.96 255 255 255
-0.123 0.229 0.703 255 255 255
-0.151 0.284 0.65 255 255 255
0.505 -0.994 2.433 255 255 255
-1.063 -0.71 2.014 255 255 255
0.023 0.019 0.546 255 255 255
-0.027 -0.047 0.645 255 255 255
-0.095 0.271 0.71 255 255 255
0.183 0.246 0.464 255 255 255
0.475 -0.862 2.508 0 0 0
-0.292 0.25 0.721 255 255 255
0.842 -1.657 2.102 255 255 255
-0.147 0.269 0.712 255 255 255
0.478 -0.04 0.743 255 255 255
-0.2 0.275 0.678 255 255 255
0.226 -1.013 2.726 255 255 255
0.23 0.059 0.484 0 0 0
-0.335 -1.23 2.937 255 255 255
-0.226 0.063 0.693 255 255 255
0.507 -0.17 0.937 255 255 255
0.145 0.03 0.523 255 255 255
0.847 -0.368 1.495 255 255 255
-1.274 -0.358 1.838 255 255 255
0.278 0.071 0.451 255 255 255
0.754 -0.968 2.254 255 255 255
-0.221 0.322 0.653 255 255 255
0.077 0.026 0.552 0 0 0
0.11 0.088 0.532 255 255 255
0.417 -0.094 0.772 0 0 0
0.201 0.096 0.503 0 0 0
1.239 -0.717 1.988 0 0 0
-0.933 -0.472 2.306 255 255 255
-0.161 -0.193 1.016 255 255 255
0.185 -0.048 0.701 0 0 0
-0.765 -1.631 2.193 0 0 0
0.484 -1.553 2.44 255 255 255
-0.785 -1.193 2.343 255 255 255
0.995 -0.933 2.087 255 255 255
0.629 -1.103 2.294 255 255 255
0.905 -1.435 2.143 255 255 255
0.285 -0.039 0.674 255 255 255
-0.075 0.244 0.677 255 255 255
0.87 -1.616 2.105 255 255 255
-0.104 0.342 0.636 255 255 255
-0.191 0.187 0.719 255 255 255
-0.133 -2.025 2.707 0 0 0
0.218 0.155 0.435 255 255 255
-0.148 0.268 0.707 255 255 255
0.714 -0.424 1.514 255 255 255
1.068 -0.775 2.001 255 255 255
-0.426 -1.832 2.648 255 255 255
0.159 0.038 0.53 255 255 255
-0.205 0.187 0.728 255 255 255
0.079 0.28 0.568 255 255 255
0.23 0.128 0.448 255 255 255
0.661 -1.147 2.259 255 255 255
-0.891 -1.091 2.134 255 255 255
0.079 0.089 0.539 255 255 255
-0.052 -0.051 0.662 0 0 0
-0.101 0.085 0.616 255 255 255
-1.001 -1.113 1.953 255 255 255
-0.007 0.146 0.55 255 255 255
0.119 0.265 0.519 255 255 255
-0.214 0.134 0.709 255 255 255
0.969 -1.062 2.049 255 255 255
-0.182 -0.009 0.682 0 0 0
-0.118 -0.034 0.63 255 255 255
1.015 -0.773 2.044 255 255 255
0.101 -1.42 2.788 255 255 255
0.147 0.161 0.454 255 255 255
-1.179 -0.627 1.874 255 255 255
0.337 -0.501 1.66 255 255 255
0.142 -0.028 0.677 0 0 0
-0.406 -0.023 0.833 255 255 255
0.458 -1.597 2.435 255 255 255
-0.137 0.089 0.632 255 255 255
0.486 -0.152 0.905 0 0 0
-0.119 -0.002 0.671 255 255 255
0.443 -1.546 2.468 255 255 255
-0.446 0.159 0.878 255 255 255
0.108 0.156 0.472 255 255 255
-0.018 0.326 0.638 255 255 255
-0.127 0.023 0.617 255 255 255
-0.586 0.087 0.944 255 255 255
-0.339 -1.599 2.8 255 255 255
-0.248 0.044 0.708 255 255 255
0.651 -1.561 2.286 255 255 255
-0.242 0.187 0.695 0 0 0
-0.249 0.009 0.695 255 255 255
-0.033 -0.322 1.327 255 255 255
0.085 0.309 0.587 255 255 255
-0.907 -1.325 2.018 255 255 255
0.144 -0.03 0.675 0 0 0
0.645 -0.526 1.56 255 255 255
0.057 0.12 0.522 0 0 0
-0.797 -1.544 2.188 255 255 255
0.15 -0.009 0.635 0 0 0
-0.019 -1.169 2.951 255 255 255
-0.372 0.23 0.791 255 255 255
-0.83 -1.386 2.112 255 255 255
-0.904 -1.241 2.058 255 255 255
-0.076 0.301 0.693 255 255 255
0.289 0.033 0.534 255 255 255
0.251 -0.044 0.683 255 255 255
0.172 0.181 0.44 255 255 255
-1.014 -1.112 1.935 255 255 255
-0.312 -0.066 0.788 255 255 255
0.602 -0.982 2.372 255 255 255
-1.255 -0.515 1.802 255 255 255
0.136 0.197 0.468 255 255 255
-0.101 -1.969 2.701 0 0 0
-0.03 0.314 0.597 255 255 255
-0.54 -0.162 1.077 255 255 255
0.199 -0.259 1.134 255 255 255
0.262 0.111 0.467 255 255 255
-1.107 -0.423 2.059 255 255 255
-0.521 0.143 0.925 255 255 255
0.99 -1.11 2.005 255 255 255
-0.154 0.191 0.695 255 255 255
-0.094 0.14 0.618 255 255 255
-0.631 -1.336 2.509 255 255 255
0.04 0.33 0.637 255 255 255
0.069 0.116 0.512 255 255 255
0.021 0.005 0.549 255 255 255
0.003 0.044 0.523 0 0 0
0.34 0.005 0.571 0 0 0
-0.065 0.331 0.656 255 255 255
-0.158 -0.208 1.04 255 255 255
-1.138 -0.528 1.971 255 255 255
-0.22 -0.137 0.756 255 255 255
1.116 -0.456 1.575 255 255 255
-1.206 -0.402 1.922 255 255 255
-0.265 0.259 0.694 255 255 255
0.768 -1.113 2.189 255 255 255
-0.011 0.103 0.564 255 255 255
-0.124 -0.011 0.677 0 0 0
0.099 0.004 0.557 255 255 255
-0.204 0.309 0.668 255 255 255
0.84 -1.332 2.153 0 0 0
-0.155 0.19 0.695 255 255 255
0.224 0.062 0.49 0 0 0
-0.212 0.354 0.628 255 255 255
0.352 -0.048 0.68 255 255 255
0.482 -0.045 0.745 255 255 255
0.031 0.266 0.598 0 0 0
-1.253 -0.535 1.795 255 255 255
0.075 0.057 0.551 0 0 0
0.225 0.063 0.488 0 0 0
-0.345 0.229 0.738 255 255 255
0.182 -0.164 0.955 255 255 255
0.8 -0.989 2.213 255 255 255
-0.934 -0.598 2.261 255 255 255
-0.115 -0.314 1.376 255 255 255
0.187 -1.49 2.693 255 255 255
1.176 -0.944 1.932 255 255 255
0.059 -0.275 1.123 255 255 255
-0.288 0.155 0.783 255 255 255
0.022 -0.064 0.548 255 255 255
0.121 0.288 0.533 255 255 255
-0.105 -0.071 0.612 255 255 255
-1.172 -0.467 1.947 255 255 255
-0.129 0.117 0.631 0 0 0
0.814 -1.281 2.091 0 0 0
-0.236 -0.093 0.713 255 255 255
-0.214 0.34 0.633 255 255 255
0.136 0.218 0.475 0 0 0
-0.24 0.075 0.694 255 255 255
-0.157 -0.08 0.691 255 255 255
-0.499 0.087 0.92 255 255 255
-0.351 0.01 0.778 255 255 255
0.577 -0.897 2.449 0 0 0
-0.725 -0.701 2.638 255 255 255
0.203 -0.242 1.147 0 0 0
-0.61 -0.875 2.731 255 255 255
-0.374 -0.018 0.808 255 255 255
0.821 -1.652 2.129 255 255 255
-0.006 0.023 0.518 0 0 0
0.101 -1.485 2.764 255 255 255
0.24 -0.054 0.688 255 255 255
-0.092 0.076 0.624 255 255 255
0.27 -0.177 0.895 0 0 0
0.041 -1.419 2.801 255 255 255
0.249 -1.269 2.724 255 255 255
-0.06 0.105 0.586 255 255 255
-0.346 -1.772 2.731 255 255 255
-0.826 -0.614 2.44 255 255 255
-0.402 0.009 0.811 255 255 255
0.22 0.093 0.493 255 255 255
-0.046 0.312 0.611 255 255 255
0.113 -1.631 2.702 255 255 255
-0.046 -0.084 0.649 255 255 255
-0.886 -0.865 2.232 255 255 255
0.033 0.302 0.618 255 255 255
-0.063 -0.048 0.666 0 0 0
0.176 0.068 0.512 0 0 0
-0.211 0.039 0.696 255 255 255
-0.824 -0.822 2.394 255 255 255
-0.171 -0.024 0.59 255 255 255
0.193 -0.069 0.74 255 255 255
0.235 0.073 0.449 255 255 255
-0.686 -1.682 2.282 0 0 0
-0.158 0.301 0.631 255 255 255
0.289 0.009 0.572 255 255 255
-0.296 -1.905 2.672 255 255 255
-1.103 -0.816 1.91 255 255 255
0.039 -0.549 1.764 255 255 255
0.099 0.164 0.48 255 255 255
-0.445 -1.409 2.773 255 255 255
0.261 0.029 0.564 0 0 0
-0.044 -0.031 0.623 255 255 255
-0.172 0.312 0.618 255 255 255
-0.081 -0.442 1.65 255 255 255
0.028 -0.062 0.549 255 255 255
0.503 -0.969 2.457 255 255 255
0.641 -0.455 1.575 0 0 0
-0.154 0.292 0.642 255 255 255
-0.239 0.288 0.693 255 255 255
0.539 -0.112 0.864 0 0 0
-0.111 0.039 0.617 255 255 255
-0.423 0.241 0.837 255 255 255
0.138 0.175 0.459 255 255 255
-1.05 -0.904 1.956 255 255 255
-0.526 0.134 0.921 255 255 255
0.366 -1.453 2.564 255 255 255
0.268 -0.019 0.605 255 255 255
0.094 0.062 0.565 0 0 0
1.288 -0.705 1.958 255 255 255
-0.233 0.093 0.7 255 255 255
-0.64 -0.085 1 255 255 255
0.074 0.127 0.509 0 0 0
0.27 0.052 0.484 255 255 255
-1.123 -0.691 1.929 255 255 255
-0.562 -0.097 0.956 255 255 255
0.014 -0.539 1.784 0 0 0
0.264 -0.203 1.011 255 255 255
0.836 -0.383 1.472 255 255 255
0.056 0.006 0.537 0 0 0
0 -0.041 0.516 255 255 255
0.372 -0.095 0.904 0 0 0
-0.74 -0.144 1.07 0 0 0
0.057 0.034 0.534 255 255 255
0.151 0.051 0.526 255 255 255
-1.288 -0.287 1.811 255 255 255
0.782 -1.048 2.202 255 255 255
-0.06 0.327 0.665 255 255 255
-0.916 -1.352 2.001 255 255 255
-0.675 0.014 0.965 255 255 255
-1.09 -0.84 1.928 255 255 255
0.997 -0.936 2.08 255 255 255
-0.309 0.282 0.691 255 255 255
-0.255 -1.624 2.823 255 255 255
0.105 0.055 0.559 0 0 0
0.83 -1.093 2.143 255 255 255
0.362 -0.072 0.776 0 0 0
0.363 -0.005 0.627 255 255 255
-0.899 -0.657 2.3 255 255 255
-0.154 -0.103 0.776 255 255 255
0.002 0.121 0.547 255 255 255
0.519 -0.158 0.895 0 0 0
0.696 -1.199 2.216 0 0 0
-0.283 -0.101 0.735 255 255 255
0.043 0.139 0.513 255 255 255
-0.115 0.12 0.622 0 0 0
-0.199 0.042 0.701 255 255 255
0.098 0.084 0.54 255 255 255
0.451 -0.038 0.72 255 255 255
0.105 0.103 0.507 255 255 255
0.791 -1.114 2.162 255 255 255
0.778 -0.374 1.481 255 255 255
1.24 -0.651 2.013 0 0 0
-0.893 -1.485 1.983 0 0 0
-0.06 0.014 0.61 255 255 255
-0.965 -0.823 2.119 255 255 255
-0.128 -0.261 1.209 255 255 255
-1.295 -0.37 1.795 255 255 255
-0.428 0.151 0.897 255 255 255
-0.151 -0.065 0.609 255 255 255
0.274 -0.084 0.819 255 255 255
0.216 -0.015 0.612 255 255 255
0.4 -0.076 0.752 0 0 0
-0.02 0.09 0.574 255 255 255
-0.269 0.085 0.725 255 255 255
0.876 -0.371 1.518 255 255 255
0.757 -0.705 2.215 255 255 255
0.159 -1.605 2.668 255 255 255
0.389 -0.007 0.635 255 255 255
0.061 0.263 0.571 0 0 0
-0.551 0.15 0.891 255 255 255
0.083 0.289 0.568 255 255 255
0.097 0.288 0.556 255 255 255
-0.756 -0.168 1.014 0 0 0
-0.635 0.035 0.964 255 255 255
-0.567 -1.442 2.557 255 255 255
0.935 -1.056 2.07 255 255 255
0.073 0.143 0.498 255 255 255
0.28 0.027 0.541 255 255 255
0.663 -1.442 2.318 255 255 255
-0.299 -0.685 2.767 0 0 0
-0.689 -1.558 2.328 255 255 255
-0.139 0.245 0.724 255 255 255
-1.134 -0.512 1.986 255 255 255
0.014 0.118 0.546 255 255 255
0.137 0.159 0.459 255 255 255
-0.489 -0.055 0.866 255 255 255
-0.011 0.139 0.548 255 255 255
-0.997 -1.059 1.975 255 255 255
0.213 0.001 0.581 0 0 0
-0.414 -1.61 2.747 255 255 255
-0.19 0.326 0.616 255 255 255
1.331 -0.633 1.941 255 255 255
-0.152 -0.037 0.6 255 255 255
-0.029 0.122 0.557 255 255 255
0.184 0.123 0.463 255 255 255
-0.205 -0.129 0.762 255 255 255
0.179 0.111 0.482 255 255 255
0.126 0.151 0.47 255 255 255
0.754 -1.559 2.21 255 255 255
0.045 -0.164 0.899 255 255 255
-0.681 -0.974 2.585 255 255 255
0.204 -1.62 2.62 255 255 255
0.357 -1.237 2.662 255 255 255
-0.753 -1.036 2.453 255 255 255
0.023 -0.01 0.549 255 255 255
0.175 -0.059 0.731 0 0 0
-0.272 0.104 0.739 255 255 255
-0.143 0.29 0.72 255 255 255
-0.612 -1.798 2.334 0 0 0
-0.954 -1.036 2.056 255 255 255
0.242 0.046 0.516 0 0 0
0.682 -1.517 2.274 255 255 255
0.095 0.136 0.495 0 0 0
-0.124 0.204 0.681 255 255 255
-0.193 -0.162 0.784 255 255 255
-0.007 -0.102 0.702 255 255 255
0.303 -0.028 0.676 255 255 255
0.113 0.281 0.535 255 255 255
0.091 0.274 0.55 255 255 255
0.192 0.136 0.45 0 0 0
0.28 -0.388 1.465 0 0 0
-0.253 -0.046 0.68 255 255 255
0.356 0.02 0.522 255 255 255
-0.252 0.361 0.643 255 255 255
-0.873 -1.355 2.059 255 255 255
-0.675 -0.789 2.673 255 255 255
1.106 -0.42 1.71 0 0 0
0.148 -0.377 1.288 255 255 255
-0.004 -0.539 1.784 255 255 255
-0.031 0.136 0.561 255 255 255
-0.405 -0.03 0.838 255 255 255
-0.224 0.194 0.694 255 255 255
0.173 -0.307 1.268 255 255 255
-0.226 -0.007 0.711 0 0 0
-0.943 -0.955 2.106 255 255 255
0.052 -0.087 0.615 255 255 255
1.115 -0.467 1.609 255 255 255
0.495 -1.507 2.454 255 255 255
-0.82 -1.166 2.302 255 255 255
0.136 -0.535 1.659 255 255 255
-1.195 -0.633 1.855 255 255 255
0.722 -1.501 2.263 255 255 255
0.227 -0.195 1.02 0 0 0
-0.101 0.256 0.704 255 255 255
0.714 -0.495 1.507 255 255 255
0.277 0.003 0.593 255 255 255
-0.257 -1.999 2.689 0 0 0
0.076 -0.177 0.967 255 255 255
-0.048 -0.079 0.652 255 255 255
0.942 -1.425 2.126 255 255 255
0.131 -0.01 0.658 255 255 255
-1.019 -0.58 2.138 255 255 255
-0.036 -0.081 0.666 255 255 255
0.18 -0.098 0.872 0 0 0
0.441 -1.278 2.549 255 255 255
-0.07 0.312 0.686 0 0 0
-0.018 0.199 0.587 255 255 255
-0.24 0.069 0.695 255 255 255
0.071 -1.546 2.745 255 255 255
-0.915 -0.49 2.325 255 255 255
-0.007 -1.538 2.784 255 255 255
0.183 0.144 0.451 255 255 255
0.726 -0.233 1.069 255 255 255
-0.097 -0.43 1.643 255 255 255
-0.016 -0.042 0.559 255 255 255
0.003 0.035 0.519 255 255 255
0.185 0.063 0.508 0 0 0
-0.088 0.009 0.61 255 255 255
-0.145 -0.058 0.614 0 0 0
-0.733 -1.041 2.484 255 255 255
0.215 -1.677 2.592 255 255 255
0.032 0.268 0.6 0 0 0
-1.224 -0.589 1.815 255 255 255
-0.139 -1.85 2.777 255 255 255
-0.478 -0.032 0.866 255 255 255
-0.019 -1.34 2.869 255 255 255
-0.139 0.093 0.631 255 255 255
-0.211 0.348 0.629 255 255 255
-0.507 -1.454 2.65 255 255 255
-0.22 0.248 0.686 255 255 255
0.165 0.075 0.517 255 255 255
-0.007 0.266 0.633 255 255 255
-0.584 0.046 0.969 255 255 255
-0.343 0.229 0.738 255 255 255
