ply
format ascii 1.0
comment Created by Open3D
element vertex 1602
property double x
property double y
property double z
property uchar red
property uchar green
property uchar blue
end_header
0.819 -1.096 2.238 255 255 255
0 0.197 0.627 255 255 255
-0.108 -0.144 0.787 255 255 255
-0.749 -1.471 1.991 0 0 0
-0.495 0.201 0.9 255 255 255
0 0.314 0.685 0 0 0
-0.681 -0.177 1.025 0 0 0
-0.068 0.151 0.657 255 255 255
0.385 -0.206 1.024 255 255 255
-0.09 0.266 0.702 255 255 255
-0.08 0.004 0.677 255 255 255
-0.188 0.294 0.69 255 255 255
0.108 -0.151 0.813 0 0 0
0.293 -0.12 0.881 255 255 255
-0.651 -0.134 1.081 0 0 0
1.152 -1.003 1.985 255 255 255
0.099 0.029 0.536 255 255 255
-0.18 0.028 0.674 255 255 255
0.185 0.215 0.464 0 0 0
0.115 0.321 0.598 255 255 255
-0.056 0.14 0.644 255 255 255
-0.9 -1.093 1.923 255 255 255
-0.932 -0.437 2.139 255 255 255
0.042 0.049 0.57 255 255 255
0.316 -0.211 1.104 0 0 0
0.664 -0.479 1.591 255 255 255
-0.074 0.285 0.733 255 255 255
-0.044 0.061 0.643 255 255 255
0.056 -1.684 2.868 255 255 255
0.785 -0.477 1.508 255 255 255
0.9 -1.32 2.276 255 255 255
0.04 -0.008 0.491 255 255 255
0.145 0.139 0.487 255 255 255
-0.071 0.268 0.745 0 0 0
0.214 0.085 0.5 255 255 255
0.192 0.056 0.525 0 0 0
0.25 0.074 0.472 255 255 255
0.571 -0.131 0.846 0 0 0
1.034 -1.545 2.093 0 0 0
0.43 -0.113 0.865 255 255 255
-0.371 0.337 0.799 255 255 255
-0.667 -1.313 2.159 255 255 255
0.516 -1.239 2.678 255 255 255
-0.715 -1.003 2.214 255 255 255
0.396 -0.122 0.842 255 255 255
-0.687 -0.204 1.045 0 0 0
0.627 -1.447 2.483 255 255 255
-0.545 -0.104 1.05 255 255 255
0.114 0.134 0.508 255 255 255
0.367 -1.42 2.733 255 255 255
0.147 0.245 0.516 255 255 255
-0.585 -1.35 2.338 255 255 255
-0.111 -0.153 0.791 255 255 255
-0.031 0.086 0.619 255 255 255
0.162 0.183 0.471 255 255 255
-0.23 0.184 0.837 255 255 255
-0.851 -0.683 2.15 255 255 255
-0.016 0.139 0.602 255 255 255
0.002 0.079 0.603 255 255 255
0.172 0.109 0.491 255 255 255
-0.712 -0.188 0.927 255 255 255
-0.22 0.293 0.702 255 255 255
0.042 0.091 0.571 255 255 255
-0.24 -1.6 2.705 255 255 255
-0.715 -1.456 2.042 255 255 255
0.207 -1.271 2.897 255 255 255
0.156 0.019 0.526 0 0 0
0.074 -0.044 0.544 255 255 255
0.141 0.055 0.527 255 255 255
0.224 0.154 0.45 255 255 255
-0.631 0.011 0.918 255 255 255
-0.169 0.314 0.685 255 255 255
0.008 -0.086 0.646 255 255 255
0.155 -1.222 2.978 255 255 255
0.28 -0.114 0.895 255 255 255
-0.08 -0.024 0.612 255 255 255
-0.171 -0.158 0.757 255 255 255
-0.312 0.255 0.753 255 255 255
0.175 0.071 0.528 255 255 255
0.642 -1.705 2.366 0 0 0
0.316 0.012 0.55 255 255 255
0.201 0.091 0.508 255 255 255
0.159 0.119 0.492 255 255 255
0.305 -0.241 1.148 0 0 0
-0.464 -1.738 2.325 0 0 0
0.025 -0.046 0.665 0 0 0
-0.53 0.043 0.989 255 255 255
-0.511 0.141 1.001 255 255 255
-0.729 -1.479 2.027 0 0 0
0.24 -0.576 1.732 255 255 255
0.303 -0.236 1.104 0 0 0
-0.175 -0.136 0.749 255 255 255
0.075 0.349 0.636 255 255 255
-0.042 0.102 0.611 255 255 255
-0.59 -0.93 2.494 255 255 255
0.797 -0.495 1.504 255 255 255
-0.301 0.292 0.735 255 255 255
-0.207 0.12 0.771 255 255 255
-0.351 0.227 0.87 255 255 255
-0.396 -0.789 2.794 255 255 255
-0.573 0.038 0.991 255 255 255
-0.073 0.321 0.68 255 255 255
0.121 0.117 0.512 255 255 255
-0.151 0.295 0.694 255 255 255
1.01 -1.189 2.025 255 255 255
0.136 -0.027 0.556 255 255 255
-0.007 -0.035 0.679 255 255 255
-0.649 -0.951 2.329 255 255 255
0.463 -0.257 1.108 255 255 255
-1.119 -0.633 1.823 255 255 255
0.447 -0.149 0.848 255 255 255
0.457 -0.515 1.65 255 255 255
-0.501 -1.44 2.407 255 255 255
0.064 0.074 0.58 255 255 255
-0.059 0.093 0.627 255 255 255
-0.533 -0.058 1.004 255 255 255
0.263 -0.486 1.571 255 255 255
-0.134 0.046 0.707 255 255 255
0.183 -0.614 1.851 255 255 255
-0.337 -1.572 2.556 255 255 255
-0.145 -0.073 0.712 255 255 255
-0.075 -1.939 2.672 0 0 0
0.511 -0.967 2.656 255 255 255
-1.104 -0.377 1.942 255 255 255
-0.205 0.306 0.68 255 255 255
-0.734 -0.489 2.389 255 255 255
0.277 -0.131 0.897 255 255 255
1.006 -0.404 1.421 255 255 255
0.276 -0.266 1.227 0 0 0
0.096 0.307 0.608 255 255 255
-0.541 -0.987 2.53 255 255 255
-0.019 0.049 0.606 255 255 255
-0.048 0.13 0.626 255 255 255
-0.088 -0.048 0.618 255 255 255
-0.045 0.044 0.623 255 255 255
-0.044 0.339 0.742 255 255 255
-0.067 -0.106 0.796 255 255 255
-0.258 -0.046 0.811 255 255 255
-0.044 0.113 0.61 255 255 255
0.077 -0.068 0.542 255 255 255
-0.171 0.003 0.709 255 255 255
-0.867 -1.258 1.905 255 255 255
0.28 -0.155 0.917 255 255 255
0.784 -1.004 2.309 255 255 255
-0.887 -1.371 1.839 0 0 0
-0.583 -1.512 2.264 255 255 255
-0.053 -0.061 0.6 255 255 255
0.223 0.002 0.613 255 255 255
-0.389 -0.062 0.904 255 255 255
-1.086 -0.655 1.85 255 255 255
-0.571 -0.703 2.606 255 255 255
0.306 0.047 0.48 255 255 255
-0.367 -0.029 0.879 255 255 255
-0.178 -0.011 0.7 0 0 0
-0.029 -0.007 0.693 0 0 0
0.131 0.202 0.51 255 255 255
-0.134 0.318 0.667 255 255 255
-0.148 -0.163 0.771 255 255 255
-0.366 -1.01 2.74 0 0 0
0.205 0.004 0.618 0 0 0
0.157 0.143 0.477 255 255 255
-0.332 -0.946 2.81 255 255 255
-0.09 0.043 0.66 255 255 255
-1.14 -0.543 1.824 255 255 255
0.215 -0.027 0.662 0 0 0
-0.051 0.189 0.676 255 255 255
0.172 0.06 0.543 0 0 0
0.06 0.203 0.571 255 255 255
0.166 0.045 0.51 255 255 255
0.121 0.161 0.491 0 0 0
0.718 -1.764 2.289 255 255 255
-0.567 -0.035 1.023 0 0 0
-0.32 0.257 0.756 255 255 255
0.682 -0.391 1.471 255 255 255
-0.801 -1.101 2.064 255 255 255
0.012 -0.05 0.662 0 0 0
0.032 -0.254 1.228 255 255 255
0 0.34 0.635 255 255 255
0.151 0.128 0.489 255 255 255
-0.919 -1.186 1.86 255 255 255
0.325 -0.042 0.664 255 255 255
-0.665 -0.857 2.335 255 255 255
-1.107 -0.38 1.937 255 255 255
-0.522 0.026 0.993 0 0 0
0.652 -1.203 2.55 255 255 255
-0.75 -1.535 1.964 255 255 255
-0.263 0.109 0.82 255 255 255
-0.093 0.039 0.662 255 255 255
0.129 0.076 0.551 0 0 0
0.051 0.001 0.499 255 255 255
0.337 -0.098 0.851 255 255 255
-0.536 -1.324 2.403 255 255 255
-0.266 -1.349 2.75 255 255 255
-0.541 -1.391 2.374 255 255 255
-0.65 -0.153 1.145 0 0 0
0.183 0.091 0.513 255 255 255
0.419 -0.032 0.659 255 255 255
-0.768 -0.593 2.299 255 255 255
0.312 0.029 0.563 255 255 255
0.022 0.077 0.591 255 255 255
-0.349 0.228 0.875 255 255 255
0.053 -0.084 0.682 255 255 255
-0.004 0.138 0.596 0 0 0
-0.239 -1.61 2.686 255 255 255
0.344 -0.12 0.828 255 255 255
-0.286 0.043 0.798 255 255 255
0.087 -0.29 1.269 255 255 255
-0.572 -0.662 2.62 255 255 255
0.842 -0.469 1.445 255 255 255
0.447 -0.013 0.634 255 255 255
0.056 0.276 0.634 255 255 255
-0.055 -0.058 0.599 255 255 255
0.01 0.296 0.689 255 255 255
-0.382 -0.133 1.015 255 255 255
0.134 0.119 0.512 255 255 255
0.41 -1.595 2.634 255 255 255
-0.221 -0.964 2.969 255 255 255
0.154 0.114 0.497 255 255 255
0.171 0.005 0.574 255 255 255
0.889 -1.069 2.186 255 255 255
0.105 0.215 0.54 255 255 255
-0.623 0.101 0.973 255 255 255
-0.143 -1.765 2.757 255 255 255
0.081 -1.481 2.923 255 255 255
0.156 0.218 0.491 0 0 0
-0.179 0.066 0.714 255 255 255
-0.503 -1.145 2.524 255 255 255
0.032 0.016 0.599 0 0 0
-0.034 -0.024 0.689 0 0 0
-0.652 -0.073 0.947 255 255 255
0.19 0.266 0.492 255 255 255
-0.182 -0.018 0.688 0 0 0
-0.638 0.04 0.908 255 255 255
-0.641 -0.69 2.44 255 255 255
-0.052 0.185 0.672 255 255 255
0.448 -0.113 0.858 255 255 255
0.108 -0.589 1.893 255 255 255
0.046 -0.345 1.446 255 255 255
0.002 0.025 0.583 255 255 255
-0.084 0.24 0.734 0 0 0
-0.369 -0.089 0.889 255 255 255
-0.421 0.189 0.873 255 255 255
-0.029 0.029 0.607 255 255 255
-0.173 -1.846 2.699 255 255 255
0.052 0.048 0.573 255 255 255
-0.515 0.046 0.999 0 0 0
0.355 0.037 0.521 255 255 255
-0.124 0.261 0.686 255 255 255
-1.064 -0.398 1.979 255 255 255
-0.822 -0.516 2.256 255 255 255
-0.01 0.139 0.602 255 255 255
-0.354 0.102 0.903 255 255 255
0.186 -0.603 1.841 255 255 255
0.29 0.004 0.563 0 0 0
-0.449 -1.453 2.46 255 255 255
-0.672 -0.076 0.918 255 255 255
-0.085 0.071 0.653 255 255 255
-0.284 0.251 0.752 255 255 255
-0.193 -0.005 0.696 0 0 0
-0.371 0.129 0.939 255 255 255
0.195 0.198 0.453 255 255 255
-0.092 0.187 0.701 255 255 255
-0.649 -0.055 0.939 255 255 255
0.781 -0.43 1.516 0 0 0
-0.147 -0.123 0.753 255 255 255
0.107 0.314 0.6 255 255 255
-0.601 -1.511 2.248 255 255 255
0.814 -0.433 1.473 255 255 255
0.801 -1.527 2.276 255 255 255
0.139 0.219 0.508 255 255 255
-0.455 -0.984 2.643 255 255 255
0.249 -0.069 0.751 255 255 255
-0.735 -1.286 2.078 255 255 255
-0.049 0.342 0.641 255 255 255
0.419 -0.108 0.869 255 255 255
-0.453 0.208 0.868 255 255 255
0.203 0.144 0.463 255 255 255
-0.892 -1.399 1.826 0 0 0
-0.26 0.233 0.767 0 0 0
0.231 0.121 0.468 255 255 255
-0.348 0.044 0.862 255 255 255
-0.174 0.019 0.703 255 255 255
-0.922 -0.778 2.015 255 255 255
0.06 0.042 0.518 0 0 0
0.447 -1.736 2.538 255 255 255
-0.439 0.064 0.967 255 255 255
-0.047 0.102 0.616 255 255 255
0.163 0.141 0.475 0 0 0
0.091 0.159 0.52 255 255 255
-0.353 0.245 0.774 255 255 255
-0.298 0.026 0.807 255 255 255
-0.024 -0.976 2.766 255 255 255
0.167 0.217 0.48 0 0 0
0.005 -0.027 0.691 0 0 0
-0.092 -0.218 1.032 255 255 255
-0.256 0.343 0.73 255 255 255
-0.168 0.028 0.679 255 255 255
0.13 0.095 0.524 255 255 255
-0.434 0.178 0.906 255 255 255
0.79 -1.079 2.271 255 255 255
0.227 0.116 0.473 255 255 255
0.253 0.087 0.467 255 255 255
-0.243 0.341 0.722 255 255 255
-0.155 -1.691 2.775 255 255 255
0.12 -0.133 0.804 0 0 0
0.253 0.114 0.461 255 255 255
0.232 -0.009 0.625 255 255 255
0.172 -0.237 1.02 255 255 255
1.037 -0.855 2.145 0 0 0
0.061 0.096 0.555 255 255 255
0.177 0.136 0.473 255 255 255
0.226 0.076 0.501 0 0 0
0.294 0.013 0.536 255 255 255
-0.599 0.042 0.977 255 255 255
-0.187 -0.01 0.701 0 0 0
0.831 -0.715 2.249 255 255 255
0.481 -0.113 0.798 255 255 255
-0.366 0.181 0.906 255 255 255
-0.702 -0.219 0.958 0 0 0
-0.282 -1.695 2.594 255 255 255
-0.251 0.243 0.774 0 0 0
-0.788 -0.58 2.282 255 255 255
0.207 0.175 0.438 255 255 255
0.159 0.213 0.487 255 255 255
0.076 -0.096 0.718 255 255 255
-0.025 0.18 0.633 255 255 255
0.338 -0.154 0.901 0 0 0
-0.874 -1.307 1.889 255 255 255
-0.055 -0.334 1.493 255 255 255
-0.374 -1.27 2.634 255 255 255
0.072 -0.333 1.373 255 255 255
-0.139 0.297 0.693 255 255 255
0.285 0.065 0.484 255 255 255
-0.223 0.22 0.748 255 255 255
0.188 0.074 0.515 255 255 255
0.075 -1.629 2.878 255 255 255
-0.113 -0.085 0.73 255 255 255
-0.065 0.201 0.69 255 255 255
-0.201 -1.762 2.69 255 255 255
1.034 -1.174 2.01 255 255 255
0.725 -1.625 2.338 255 255 255
-0.248 0.033 0.767 255 255 255
-0.491 0.168 0.921 255 255 255
-0.229 0.024 0.755 255 255 255
0.089 0.029 0.537 255 255 255
0.613 -1.745 2.375 0 0 0
-0.541 -1.306 2.404 255 255 255
0.17 0.131 0.483 255 255 255
0.761 -1.698 2.239 0 0 0
-1.057 -0.473 1.956 255 255 255
-0.104 -0.207 1.008 255 255 255
0.111 -0.027 0.539 0 0 0
-0.051 0.154 0.646 255 255 255
0.995 -1.44 2.158 255 255 255
0.193 0.102 0.494 255 255 255
-0.478 -0.172 1.116 255 255 255
-0.268 0.278 0.729 255 255 255
-0.138 -0.114 0.746 255 255 255
-0.104 -0.02 0.607 255 255 255
-0.471 -0.006 0.965 255 255 255
0.007 0.334 0.632 255 255 255
-0.556 -0.749 2.608 255 255 255
-0.116 0.114 0.679 255 255 255
0.282 0.072 0.465 255 255 255
-0.776 -0.532 2.315 255 255 255
-0.211 0.09 0.757 255 255 255
0.118 0.27 0.569 255 255 255
-0.095 0.188 0.705 255 255 255
-0.235 0.261 0.722 255 255 255
0.301 -1.943 2.588 0 0 0
0.132 0.087 0.545 255 255 255
0.193 -0.273 1.096 0 0 0
-0.123 0.305 0.684 255 255 255
0.046 -0.051 0.664 0 0 0
-0.659 -0.821 2.359 255 255 255
-0.662 -0.105 0.935 255 255 255
0.179 0.106 0.5 255 255 255
-0.208 0.291 0.699 255 255 255
-0.242 0.047 0.76 255 255 255
-0.022 -0.15 0.904 0 0 0
0.04 0.105 0.567 255 255 255
0.439 -0.064 0.748 0 0 0
-0.498 0.15 0.94 255 255 255
-0.914 -0.506 2.135 255 255 255
-0.546 -0.139 1.08 255 255 255
-0.119 0.31 0.629 255 255 255
0.73 -1.22 2.489 255 255 255
0.243 0.062 0.483 255 255 255
-0.054 0.34 0.745 255 255 255
0.853 -0.409 1.462 255 255 255
-1.077 -0.836 1.794 255 255 255
-0.042 0.1 0.612 255 255 255
0.147 -0.15 0.888 255 255 255
0.166 0.293 0.532 255 255 255
0.167 0.239 0.493 255 255 255
0.452 -0.09 0.889 0 0 0
0.493 -1.002 2.673 0 0 0
0.308 0.016 0.546 255 255 255
0.149 -0.542 1.777 255 255 255
-0.114 0.135 0.693 255 255 255
-0.929 -1.298 1.811 255 255 255
0.025 0.096 0.58 255 255 255
-0.303 0.353 0.746 255 255 255
-0.068 -0.044 0.615 0 0 0
-0.217 0.2 0.736 255 255 255
0.056 -0.095 0.699 255 255 255
-0.092 0.336 0.616 255 255 255
-0.161 0.059 0.709 255 255 255
0.373 0.01 0.534 255 255 255
-0.03 0.107 0.603 255 255 255
0.278 -0.025 0.643 255 255 255
-0.996 -0.834 1.906 255 255 255
-0.267 -1.288 2.778 255 255 255
-0.297 -0.863 2.887 255 255 255
0.286 -0.117 0.89 255 255 255
0.179 0.094 0.511 255 255 255
-0.544 -0.902 2.569 255 255 255
-0.064 0.009 0.642 255 255 255
-0.623 -0.706 2.543 255 255 255
0.089 -0.284 1.258 255 255 255
-0.217 0.198 0.735 255 255 255
-0.788 -1.276 2.006 255 255 255
0.128 0.242 0.535 0 0 0
0.83 -0.746 2.269 255 255 255
-0.545 -1.007 2.519 255 255 255
0.707 -1.073 2.341 255 255 255
0.733 -1.731 2.25 255 255 255
0.005 -0.022 0.698 0 0 0
1.008 -0.421 1.434 255 255 255
0.534 -0.931 2.636 255 255 255
-0.042 0.369 0.726 255 255 255
-0.07 0.11 0.634 255 255 255
-0.074 -1.682 2.761 255 255 255
-0.094 -0.06 0.643 0 0 0
-0.328 0.236 0.89 255 255 255
-1.185 -0.438 1.75 255 255 255
0.168 0.171 0.459 0 0 0
0.065 0.003 0.505 255 255 255
-0.014 0.339 0.664 255 255 255
0.16 0.137 0.479 0 0 0
-0.053 0.309 0.737 255 255 255
-0.023 0.192 0.647 255 255 255
-0.084 0.284 0.716 255 255 255
-0.256 0.304 0.706 255 255 255
0.535 -0.165 0.939 0 0 0
-0.663 -0.123 1.034 255 255 255
0.23 0.037 0.513 255 255 255
0.639 -1.333 2.502 0 0 0
0.064 0.15 0.537 255 255 255
0.315 -0.01 0.574 0 0 0
0.276 -1.825 2.627 255 255 255
-1.165 -0.636 1.752 255 255 255
0.117 0.174 0.506 255 255 255
0.276 -0.001 0.593 255 255 255
-0.931 -1.127 1.876 255 255 255
0.508 -0.105 0.745 255 255 255
-0.406 -1.062 2.676 255 255 255
0.092 0.181 0.532 255 255 255
-0.947 -0.746 1.999 255 255 255
-0.318 0.046 0.835 255 255 255
-0.333 0.195 0.929 0 0 0
0.602 -0.415 1.595 0 0 0
-0.475 -0.735 2.718 255 255 255
0.032 0.095 0.575 255 255 255
0.021 -0.032 0.678 255 255 255
0.154 0.112 0.498 255 255 255
0.29 -0.253 1.197 0 0 0
-0.826 -1.123 2.013 255 255 255
0.135 0.016 0.557 255 255 255
-0.34 -0.058 0.88 255 255 255
0.106 -0.361 1.376 255 255 255
-0.202 0.331 0.659 255 255 255
0.186 0.088 0.518 255 255 255
-0.334 0.152 0.918 255 255 255
-0.068 -0.013 0.671 0 0 0
-0.622 -0.132 1.097 0 0 0
0.5 -0.07 0.719 0 0 0
-0.085 -0.017 0.617 255 255 255
0.053 -0.104 0.686 255 255 255
0.252 -0.007 0.608 0 0 0
0.149 -1.3 2.95 255 255 255
-0.144 0.259 0.685 255 255 255
0.792 -0.41 1.502 255 255 255
-0.561 0.054 0.98 255 255 255
0.696 -0.232 1.051 255 255 255
-0.726 -0.5 2.395 255 255 255
-0.272 -1.722 2.612 255 255 255
-0.168 0.33 0.662 255 255 255
0.208 0.163 0.445 255 255 255
-0.558 -1.403 2.346 255 255 255
-0.258 0.324 0.706 255 255 255
-0.626 0.026 0.951 255 255 255
0.005 -1.286 2.591 255 255 255
0.259 0.014 0.527 255 255 255
0.145 -0.026 0.578 255 255 255
-0.066 0.04 0.642 255 255 255
-0.15 -0.14 0.767 255 255 255
0.29 -0.089 0.833 255 255 255
-0.606 -0.081 1.067 0 0 0
-0.297 -1.64 2.587 255 255 255
0.305 -0.015 0.593 255 255 255
-0.25 0.343 0.728 255 255 255
0.151 -0.255 1.094 255 255 255
-0.347 0.264 0.766 255 255 255
1.036 -0.799 2.119 255 255 255
0.045 -0.103 0.676 255 255 255
0.163 0.143 0.475 0 0 0
0.005 -1.156 2.555 255 255 255
-0.23 -1.014 2.922 255 255 255
-0.669 -1.104 2.24 255 255 255
-0.247 0.365 0.698 255 255 255
0.12 0.324 0.596 255 255 255
0.173 0.18 0.458 255 255 255
0.038 0.006 0.575 0 0 0
-0.153 0.348 0.643 255 255 255
-0.746 -1.129 2.123 255 255 255
-0.265 0.288 0.716 255 255 255
-0.273 0.237 0.772 255 255 255
-0.632 -1.379 2.249 255 255 255
0.172 0.138 0.47 255 255 255
-0.177 0.326 0.671 255 255 255
0.71 -1.008 2.655 255 255 255
-0.222 0.114 0.783 255 255 255
0.184 0.154 0.457 255 255 255
-0.214 0.343 0.653 255 255 255
0.112 -1.502 2.893 255 255 255
0.832 -1.352 2.317 255 255 255
-1.127 -0.695 1.787 255 255 255
-1.101 -0.625 1.848 255 255 255
0.181 0.055 0.534 255 255 255
0.35 -1.574 2.69 255 255 255
0.99 -0.922 2.17 0 0 0
0.222 -0.022 0.635 0 0 0
0.435 -0.511 1.667 255 255 255
-0.392 -1.341 2.577 255 255 255
0.857 -0.526 1.467 255 255 255
-0.375 0.257 0.764 255 255 255
0.104 0.106 0.54 255 255 255
-0.652 -0.059 1.034 255 255 255
0.234 0.03 0.514 255 255 255
0.466 -0.061 0.716 0 0 0
0.34 -1.672 2.671 255 255 255
1.055 -0.898 2.113 255 255 255
0.148 0.031 0.514 255 255 255
0.041 -0.062 0.662 0 0 0
0.047 0.281 0.643 255 255 255
-0.269 -0.033 0.799 255 255 255
0.254 -0.473 1.541 255 255 255
-0.353 -1.403 2.609 255 255 255
-1.052 -0.555 1.942 0 0 0
-0.037 -0.121 0.789 0 0 0
0.363 -0.108 0.828 0 0 0
0.33 -0.986 2.798 255 255 255
-0.008 0.038 0.59 255 255 255
-0.032 0.285 0.722 255 255 255
-0.743 -1.127 2.13 255 255 255
0.486 -0.059 0.706 0 0 0
0.092 -0.292 1.27 255 255 255
-0.941 -0.811 1.979 255 255 255
0.032 -0.008 0.539 0 0 0
-0.023 0.25 0.693 255 255 255
-0.372 0.205 0.88 255 255 255
-0.332 -0.13 1.022 255 255 255
0.501 -0.056 0.706 255 255 255
-0.39 -0.087 0.895 255 255 255
0.058 0.12 0.549 255 255 255
-0.008 -0.038 0.672 255 255 255
0.021 0.048 0.576 255 255 255
0.102 0.024 0.537 255 255 255
-0.323 0.03 0.828 255 255 255
-0.49 0.046 1.004 255 255 255
0.27 -0.162 0.953 255 255 255
0.056 0.079 0.583 255 255 255
-0.028 0.017 0.615 255 255 255
-0.536 -1.048 2.52 255 255 255
-0.236 -0.039 0.771 255 255 255
0.045 0.127 0.546 255 255 255
-0.511 -0.062 0.995 255 255 255
0.197 0.208 0.455 0 0 0
0.855 -0.874 2.298 255 255 255
0.112 0.027 0.534 0 0 0
0.149 -0.015 0.595 255 255 255
-0.676 -0.055 0.913 255 255 255
-1.042 -0.597 1.934 255 255 255
-0.348 0.232 0.792 255 255 255
0.066 -0.063 0.541 0 0 0
-0.03 0.066 0.632 255 255 255
-0.286 -1.575 2.624 255 255 255
-0.22 0.161 0.813 255 255 255
-0.357 0.205 0.894 255 255 255
-0.488 0.087 0.978 255 255 255
-0.129 0.316 0.671 255 255 255
-0.064 0.055 0.654 255 255 255
-1.19 -0.421 1.767 255 255 255
0.072 0.156 0.534 255 255 255
0.11 -0.065 0.561 255 255 255
0.095 0.129 0.523 255 255 255
0.31 -0.223 1.07 255 255 255
-0.893 -1.308 1.857 255 255 255
-0.117 0.056 0.692 255 255 255
0.18 0.152 0.46 255 255 255
-0.385 0.008 0.881 255 255 255
0.59 -1.454 2.526 255 255 255
0.151 0.004 0.569 255 255 255
-0.201 -1.851 2.647 255 255 255
-0.176 0.047 0.721 255 255 255
-0.228 0.279 0.707 255 255 255
-0.373 -0.042 0.886 255 255 255
-0.765 -0.773 2.237 255 255 255
-0.031 0.3 0.709 255 255 255
0.658 -1.647 2.384 255 255 255
0.32 0.039 0.543 0 0 0
0.042 0.064 0.599 255 255 255
0.131 0.118 0.511 255 255 255
-1.126 -0.636 1.798 255 255 255
-0.206 -1.579 2.747 255 255 255
-0.62 -0.66 2.56 255 255 255
-0.38 -0.043 0.888 255 255 255
-0.488 0.113 1.011 255 255 255
-0.529 -0.772 2.633 255 255 255
0.062 0.096 0.554 255 255 255
-0.883 -1.105 1.94 255 255 255
-0.955 -1.049 1.868 255 255 255
-1.058 -0.299 2.03 255 255 255
0.124 0.192 0.507 255 255 255
-0.062 -0.05 0.598 255 255 255
-0.19 0.048 0.729 255 255 255
-0.892 -0.4 2.21 255 255 255
-0.92 -1.117 1.891 255 255 255
0.609 -1.721 2.395 0 0 0
-0.001 0.113 0.582 255 255 255
-0.028 0.023 0.612 255 255 255
-0.505 -0.152 1.084 255 255 255
-0.322 -1.646 2.549 255 255 255
-1.116 -0.741 1.781 255 255 255
-0.652 -0.031 0.912 255 255 255
-0.245 -1.409 2.762 255 255 255
0.153 0.177 0.474 255 255 255
-0.227 0.153 0.817 255 255 255
0.468 -0.373 1.411 255 255 255
0.276 -0.254 1.204 0 0 0
0.108 0.216 0.536 255 255 255
-0.046 -0.041 0.653 255 255 255
0.793 -1.606 2.252 255 255 255
-0.318 -0.026 0.851 255 255 255
-0.011 -0.207 1.087 255 255 255
0.078 0.132 0.526 255 255 255
-0.359 0.218 0.813 255 255 255
0.08 0.131 0.526 255 255 255
0.034 -0.119 0.777 0 0 0
-0.242 0.276 0.711 255 255 255
-0.68 -1.583 2.047 0 0 0
0.118 0.197 0.518 255 255 255
0.346 -0.999 2.781 255 255 255
-0.063 0.039 0.641 255 255 255
-0.008 0.116 0.585 255 255 255
0.363 -0.028 0.652 255 255 255
-0.016 0.043 0.597 255 255 255
-0.292 -0.087 0.878 255 255 255
-0.643 -0.105 1.085 255 255 255
-0.476 0.135 0.98 255 255 255
-0.129 -0.143 0.777 255 255 255
0.116 -0.04 0.542 255 255 255
0.727 -1.016 2.35 255 255 255
-0.185 0.301 0.673 255 255 255
0.245 0.029 0.516 255 255 255
0.788 -1.687 2.217 0 0 0
-0.184 0.345 0.662 255 255 255
-0.155 0.18 0.741 0 0 0
-0.219 0.092 0.768 255 255 255
0.116 0.08 0.535 0 0 0
-0.261 0.283 0.717 255 255 255
0.31 -0.047 0.669 255 255 255
0.513 -1.51 2.562 255 255 255
-0.445 -1.518 2.444 255 255 255
0.062 0.02 0.509 255 255 255
-0.134 0.09 0.681 255 255 255
0.198 0.054 0.524 0 0 0
-0.203 0.06 0.729 255 255 255
-0.88 -0.64 2.128 255 255 255
-0.019 0.089 0.613 255 255 255
0.524 -1.527 2.554 255 255 255
1.043 -1.497 2.109 255 255 255
0.226 0.032 0.512 255 255 255
0.582 -1.668 2.429 255 255 255
0.247 -1.689 2.705 255 255 255
0.771 -0.908 2.366 255 255 255
0.958 -0.832 2.195 255 255 255
-0.128 0.021 0.682 255 255 255
0.028 0.323 0.593 255 255 255
-0.101 -0.062 0.629 0 0 0
0.058 0.33 0.621 255 255 255
0.291 -0.007 0.591 255 255 255
-0.306 0.252 0.762 255 255 255
-1.006 -0.608 1.972 255 255 255
-0.405 0.209 0.825 255 255 255
-0.982 -1.027 1.845 255 255 255
0.18 0.236 0.479 255 255 255
-0.68 -0.059 0.914 255 255 255
0.976 -0.353 1.437 255 255 255
-0.118 -0.101 0.743 255 255 255
-0.311 0.253 0.76 255 255 255
0.282 -0.051 0.686 255 255 255
-0.644 -1.206 2.23 255 255 255
0.177 -0.208 0.992 255 255 255
-0.261 0.369 0.722 255 255 255
-0.027 0.213 0.663 255 255 255
0.193 0.193 0.455 255 255 255
-0.272 0.295 0.719 255 255 255
-0.65 -0.053 0.944 255 255 255
-0.518 -0.073 1.008 255 255 255
0.974 -0.777 2.13 255 255 255
0.058 0.212 0.575 255 255 255
0.879 -0.361 1.433 255 255 255
0.628 -1.39 2.513 255 255 255
-1.07 -0.638 1.89 255 255 255
0.32 0.03 0.559 0 0 0
-0.079 0.313 0.646 255 255 255
0 0.117 0.579 255 255 255
-0.366 0.21 0.843 255 255 255
-0.056 -0.068 0.612 255 255 255
-0.369 0.165 0.908 255 255 255
-0.632 -1.584 2.182 0 0 0
0.001 -0.034 0.684 0 0 0
0.149 0.22 0.498 255 255 255
-0.341 0.178 0.918 0 0 0
-0.703 -0.218 1.054 0 0 0
0.849 -0.838 2.273 255 255 255
-0.359 0.11 0.916 255 255 255
0.952 -1.604 2.125 0 0 0
-0.078 0.201 0.701 255 255 255
-0.131 -1.574 2.833 255 255 255
0.18 0.073 0.522 255 255 255
0.389 -0.546 1.632 255 255 255
0.057 -0.017 0.493 255 255 255
-0.987 -0.998 1.856 255 255 255
0.32 -0.298 1.18 255 255 255
0.095 -0.04 0.544 0 0 0
0.112 -0.029 0.539 0 0 0
0.064 0.19 0.562 255 255 255
-0.09 0.035 0.659 255 255 255
-0.609 0.073 0.911 255 255 255
-0.447 0.11 0.971 0 0 0
0.158 -0.007 0.604 255 255 255
-0.262 0.171 0.867 255 255 255
0.315 -0.153 0.899 255 255 255
0.148 -0.002 0.595 255 255 255
0.092 0.209 0.549 255 255 255
-0.799 -0.47 2.3 255 255 255
-0.161 0.161 0.749 255 255 255
0.046 0.185 0.575 255 255 255
0.191 0.088 0.517 0 0 0
0.254 0.099 0.485 255 255 255
0.097 0.192 0.534 255 255 255
0.8 -1.445 2.306 255 255 255
-0.838 -1.402 1.902 0 0 0
-0.358 -0.089 0.889 255 255 255
0.056 -0.065 0.669 0 0 0
-0.072 -0.134 0.816 255 255 255
0.137 0.147 0.485 255 255 255
0.438 -0.089 0.887 255 255 255
0.24 0.1 0.488 255 255 255
0.061 0.105 0.554 255 255 255
-0.29 0.243 0.77 255 255 255
-1.131 -0.657 1.794 255 255 255
0.726 -1.336 2.455 255 255 255
0.336 -0.122 0.828 255 255 255
0.201 0.156 0.451 255 255 255
0.497 -1.028 2.659 255 255 255
0.786 -0.53 1.53 255 255 255
-0.435 -1.663 2.388 255 255 255
0.037 -0.332 1.417 255 255 255
-0.615 0.033 0.985 255 255 255
0.686 -1.586 2.383 255 255 255
-0.403 0.116 0.966 255 255 255
0.043 0.083 0.588 255 255 255
0.483 -1.857 2.444 0 0 0
-0.055 -0.099 0.778 255 255 255
-0.018 0.028 0.596 255 255 255
-0.282 0.362 0.731 255 255 255
-0.834 -0.859 2.102 255 255 255
0.13 0.037 0.531 0 0 0
-0.665 -0.085 1.031 255 255 255
-0.785 -1.455 1.949 0 0 0
-0.96 -0.574 2.053 255 255 255
0.884 -0.42 1.424 255 255 255
-0.013 -1.78 2.782 255 255 255
0.184 -1.352 2.892 255 255 255
-0.026 0.048 0.609 255 255 255
-0.363 0.235 0.773 255 255 255
0.227 -0.064 0.772 0 0 0
-0.113 0.089 0.663 255 255 255
-0.954 -0.749 1.99 255 255 255
-0.377 -1.466 2.549 255 255 255
0.77 -0.836 2.398 0 0 0
-0.992 -0.689 1.966 255 255 255
0.13 -1.762 2.777 255 255 255
-0.314 -1.28 2.716 255 255 255
0.207 0.037 0.51 255 255 255
-0.665 -0.112 0.947 255 255 255
-0.178 -0.095 0.723 255 255 255
0.16 -1.835 2.73 255 255 255
-0.545 0.011 1.007 255 255 255
0.288 -0.006 0.591 255 255 255
-0.056 0.309 0.742 0 0 0
-0.829 -0.91 2.09 255 255 255
0.178 0.179 0.454 255 255 255
0.313 -0.294 1.173 255 255 255
0.175 0.023 0.521 255 255 255
-0.275 0.015 0.796 255 255 255
-0.45 0.091 0.995 255 255 255
-0.802 -0.691 2.21 255 255 255
-0.272 -1.384 2.737 255 255 255
-1.082 -0.362 1.97 255 255 255
0.059 -0.353 1.455 255 255 255
0.852 -1.145 2.177 255 255 255
-0.37 0.165 0.907 255 255 255
-0.093 -0.039 0.609 255 255 255
-0.858 -0.69 2.14 255 255 255
-0.527 -1.552 2.324 255 255 255
-0.413 -1.241 2.596 255 255 255
0.426 -0.162 0.851 255 255 255
-0.162 0.096 0.713 255 255 255
-0.016 0.249 0.685 255 255 255
0.319 -0.962 2.803 255 255 255
0.178 0.211 0.467 0 0 0
-0.515 0.102 0.973 255 255 255
-0.232 0.236 0.771 255 255 255
0.38 0.011 0.535 255 255 255
0.467 -0.246 1.102 255 255 255
-0.649 -0.022 1.013 255 255 255
0.094 0.205 0.545 255 255 255
-0.912 -1.118 1.906 255 255 255
-0.775 -0.45 2.357 0 0 0
-0.334 0.262 0.765 255 255 255
-0.252 0.36 0.697 255 255 255
0.026 0.051 0.574 255 255 255
-0.295 0.206 0.905 255 255 255
0.39 -1.218 2.792 255 255 255
-0.123 -0.124 0.77 255 255 255
-0.007 0.333 0.647 255 255 255
0.039 0.096 0.572 255 255 255
0.642 -1.639 2.396 255 255 255
0.654 -0.396 1.516 0 0 0
-0.161 0.306 0.687 255 255 255
-1.059 -0.336 2.008 255 255 255
-0.399 0.19 0.856 255 255 255
-0.088 0.233 0.732 255 255 255
-0.229 -1.602 2.723 255 255 255
0.059 0.221 0.589 255 255 255
0.07 -0.021 0.539 255 255 255
0.145 0.177 0.483 255 255 255
-0.394 -1.262 2.614 255 255 255
-0.697 -0.217 1.016 0 0 0
-0.432 0.136 0.967 0 0 0
-0.773 -0.587 2.297 255 255 255
0.197 0.277 0.495 255 255 255
0.158 -0.024 0.598 255 255 255
0.104 0.275 0.585 0 0 0
-0.035 0.317 0.721 255 255 255
-0.556 0.106 0.959 255 255 255
-0.039 0.015 0.615 255 255 255
0.005 0.136 0.583 255 255 255
0.105 0.081 0.546 255 255 255
0.105 0.193 0.527 255 255 255
-0.357 0.312 0.777 255 255 255
-1.033 -0.348 2.037 255 255 255
-0.188 -0.004 0.701 0 0 0
-0.049 -0.074 0.628 255 255 255
0.04 0.209 0.593 255 255 255
-0.436 -1.78 2.345 0 0 0
-0.691 -0.078 0.913 255 255 255
-0.855 -0.416 2.26 255 255 255
0.103 -0.012 0.54 0 0 0
0.146 0.027 0.522 0 0 0
0.17 -0.035 0.594 255 255 255
0.238 0.137 0.447 255 255 255
-0.373 -1.576 2.513 255 255 255
0.564 -1.749 2.421 0 0 0
-0.68 -0.777 2.351 255 255 255
0.574 -1.479 2.524 255 255 255
-0.691 -1.458 2.07 255 255 255
0.105 -0.027 0.542 0 0 0
-0.161 -0.096 0.727 255 255 255
0.936 -0.72 2.152 255 255 255
-0.241 0.239 0.776 255 255 255
-0.123 0.077 0.677 255 255 255
-0.491 -1.427 2.421 255 255 255
0.051 -0.363 1.482 255 255 255
0.079 0.236 0.58 255 255 255
0.868 -1.698 2.153 255 255 255
-0.189 0.079 0.73 255 255 255
0.1 0.039 0.518 255 255 255
0.136 0.268 0.543 255 255 255
0.645 -0.961 2.538 255 255 255
0.051 0.162 0.558 255 255 255
0.099 0.033 0.536 255 255 255
-0.963 -1.139 1.828 255 255 255
-0.596 0.063 0.933 255 255 255
-0.839 -0.712 2.152 255 255 255
0.707 -0.856 2.438 0 0 0
0.337 -0.032 0.655 255 255 255
0.123 -0.054 0.558 255 255 255
0.057 0.148 0.541 255 255 255
-0.201 -1.71 2.717 255 255 255
0.047 0.035 0.548 255 255 255
0.549 -1.342 2.598 255 255 255
-0.209 0.158 0.798 255 255 255
0.257 -0.031 0.649 255 255 255
-0.632 -1.157 2.285 255 255 255
0.019 -0.086 0.647 255 255 255
0.131 -0.351 1.315 255 255 255
0.969 -1.478 2.164 255 255 255
0.113 0.092 0.539 0 0 0
-0.35 0.172 0.903 0 0 0
0.107 0.074 0.553 255 255 255
-0.434 -0.19 1.136 255 255 255
0.528 -1.835 2.408 0 0 0
0.259 -0.195 1.085 255 255 255
0.49 -0.121 0.828 0 0 0
-0.693 -0.151 0.929 255 255 255
-0.196 0.367 0.659 255 255 255
0.681 -1.745 2.311 0 0 0
0.169 0.104 0.502 255 255 255
0.518 -1.788 2.439 0 0 0
-0.109 0.192 0.721 255 255 255
0.256 -0.139 0.932 0 0 0
-0.504 0.17 0.917 255 255 255
-0.107 -0.203 0.997 255 255 255
1.072 -1.118 1.994 255 255 255
-0.25 -1.791 2.602 255 255 255
-0.118 -0.149 0.784 255 255 255
0.499 -0.086 0.732 0 0 0
0.146 0.184 0.486 255 255 255
-0.388 0.201 0.812 255 255 255
0.269 -1.271 2.831 255 255 255
0.716 -1.486 2.405 255 255 255
-0.087 0.321 0.628 255 255 255
-0.004 0.039 0.586 255 255 255
-0.412 0.102 0.965 255 255 255
0.95 -0.978 2.174 255 255 255
-0.259 0.311 0.706 255 255 255
-0.058 0.171 0.66 255 255 255
0.268 0.038 0.525 255 255 255
0.196 -1.791 2.722 255 255 255
0.299 -0.315 1.286 255 255 255
-0.006 0.109 0.587 255 255 255
-0.836 -0.76 2.134 255 255 255
-0.14 0.174 0.737 255 255 255
0.038 0.143 0.556 255 255 255
0.023 -0.24 1.182 255 255 255
0.1 0.03 0.535 255 255 255
0.109 0.147 0.499 255 255 255
0.044 -2.016 2.743 0 0 0
0.9 -0.744 2.176 255 255 255
0.163 0.283 0.527 255 255 255
-0.991 -0.414 2.068 255 255 255
-0.959 -0.962 1.896 255 255 255
-0.308 0.227 0.905 0 0 0
0.23 0.089 0.491 255 255 255
-0.32 -1.148 2.756 255 255 255
-0.244 0.216 0.745 255 255 255
0.262 -0.015 0.621 255 255 255
0.217 0.145 0.456 255 255 255
0.764 -0.425 1.531 255 255 255
0.5 -0.107 0.804 255 255 255
0.795 -1.452 2.308 255 255 255
-0.954 -0.736 1.994 255 255 255
-0.296 0.227 0.764 255 255 255
0.161 0.153 0.468 255 255 255
0.827 -1.501 2.261 255 255 255
-0.08 -0.03 0.612 255 255 255
-0.132 0.096 0.686 255 255 255
0.737 -1.689 2.261 0 0 0
1.011 -1.014 2.1 255 255 255
1.178 -0.856 2.025 255 255 255
0.245 -0.032 0.647 255 255 255
-0.727 -0.73 2.306 255 255 255
-0.976 -0.408 2.092 255 255 255
0.179 0.047 0.516 255 255 255
-1.041 -0.938 1.8 255 255 255
-0.065 0.149 0.657 255 255 255
-0.64 -0.02 1.021 255 255 255
0.094 -2.012 2.714 0 0 0
0.013 0.093 0.588 255 255 255
-0.98 -0.969 1.872 255 255 255
-0.688 -0.189 0.98 255 255 255
-0.025 0.224 0.669 255 255 255
-1.095 -0.59 1.871 255 255 255
-0.01 -0.182 0.987 0 0 0
0.105 0.132 0.516 255 255 255
-0.087 -1.854 2.701 255 255 255
0.204 0.171 0.438 255 255 255
-0.394 0.104 0.949 255 255 255
-0.2 0.004 0.665 255 255 255
-0.605 -0.002 1.014 255 255 255
0.434 -0.134 0.853 255 255 255
0.623 -1.402 2.511 255 255 255
0.956 -1.225 2.078 0 0 0
0.036 0.14 0.556 255 255 255
-0.833 -1.211 1.97 255 255 255
-0.854 -1.445 1.853 255 255 255
0.08 -0.024 0.545 255 255 255
-0.741 -0.973 2.189 255 255 255
0.476 -0.043 0.668 255 255 255
0.076 0.005 0.539 255 255 255
0.149 -0.235 1.036 0 0 0
0.786 -0.896 2.362 255 255 255
-0.368 0.015 0.867 255 255 255
-0.597 -0.853 2.516 255 255 255
0.33 -0.094 0.848 255 255 255
-0.175 0.028 0.672 255 255 255
-0.191 -1.083 2.951 255 255 255
-0.03 0.063 0.633 255 255 255
-1.1 -0.339 1.957 255 255 255
0.158 0.218 0.487 0 0 0
-0.149 -1.587 2.816 255 255 255
0.205 0.187 0.442 255 255 255
0.466 -0.088 0.765 255 255 255
-0.001 0.039 0.583 255 255 255
-0.284 -1.153 2.804 255 255 255
0.184 0.086 0.522 0 0 0
-0.482 -0.117 1.014 255 255 255
0.787 -1.066 2.282 255 255 255
-1.194 -0.535 1.729 255 255 255
0.11 0.048 0.514 0 0 0
-0.003 -0.016 0.691 0 0 0
0.209 -0.005 0.627 0 0 0
0.195 0.106 0.492 255 255 255
-0.032 0.221 0.674 255 255 255
-0.652 -1.222 2.213 255 255 255
-0.672 -0.135 1.011 255 255 255
-0.607 -1.149 2.385 255 255 255
-0.411 -0.028 0.911 255 255 255
0.27 -1.233 2.853 255 255 255
-0.013 0.181 0.623 255 255 255
-1.016 -1.022 1.801 255 255 255
-0.336 0.234 0.889 255 255 255
0.093 0.323 0.629 255 255 255
0.867 -0.357 1.433 255 255 255
-0.106 0.313 0.63 255 255 255
-0.419 -0.144 1.038 255 255 255
-0.483 0.203 0.904 255 255 255
-1.113 -0.584 1.841 255 255 255
-0.194 0.222 0.73 255 255 255
-0.852 -0.532 2.207 255 255 255
-0.261 -0.119 0.922 0 0 0
0.137 0.181 0.491 255 255 255
0.51 -1.273 2.666 255 255 255
0.751 -0.468 1.51 255 255 255
-0.115 0.022 0.684 255 255 255
0.085 0.119 0.535 255 255 255
0.411 -0.125 0.86 255 255 255
0.202 0.14 0.464 255 255 255
-1.02 -0.856 1.855 255 255 255
-0.176 0.193 0.704 255 255 255
0.082 -0.007 0.545 255 255 255
0.061 0.163 0.548 255 255 255
-1.127 -0.315 1.926 255 255 255
-0.247 0.144 0.83 255 255 255
0.161 0.04 0.507 255 255 255
0.966 -0.97 2.164 255 255 255
-0.155 -1.792 2.737 255 255 255
-0.167 0.053 0.716 255 255 255
0.002 0.172 0.606 255 255 255
0.953 -0.414 1.41 255 255 255
0.818 -0.486 1.477 0 0 0
-0.659 -0.847 2.354 255 255 255
-0.126 0.064 0.685 255 255 255
1.045 -0.891 2.128 255 255 255
0.312 -0.3 1.188 0 0 0
-0.107 0.045 0.691 255 255 255
-0.399 0.209 0.813 255 255 255
-1.005 -0.516 2.007 255 255 255
0.556 -0.135 0.902 255 255 255
0.674 -1.32 2.509 255 255 255
0.71 -1.017 2.631 255 255 255
-0.899 -0.964 1.978 0 0 0
0.303 0.046 0.494 0 0 0
0.266 -1.049 2.927 0 0 0
-0.035 0.037 0.611 255 255 255
0.192 0.083 0.514 0 0 0
0.82 -1.053 2.255 255 255 255
-0.086 -1.681 2.76 255 255 255
-0.328 0.257 0.762 255 255 255
-0.012 -0.036 0.675 255 255 255
0.109 0.118 0.518 0 0 0
0.051 0.328 0.625 255 255 255
-0.272 0.246 0.767 255 255 255
0.254 0.021 0.521 255 255 255
-1.066 -0.587 1.904 255 255 255
0.853 -1.627 2.196 0 0 0
0.457 -0.029 0.651 255 255 255
0.035 0.129 0.552 255 255 255
-0.66 -0.082 0.925 255 255 255
-0.645 -0.09 1.074 255 255 255
0.172 0.067 0.521 255 255 255
0.086 -0.022 0.545 255 255 255
-0.94 -0.518 2.098 255 255 255
0.765 -0.492 1.503 255 255 255
-0.458 -1.601 2.387 255 255 255
0.232 0.103 0.481 255 255 255
-0.12 0.31 0.677 255 255 255
0.199 0.122 0.47 255 255 255
-0.885 -1.005 1.982 255 255 255
-0.684 -0.167 0.985 255 255 255
0.076 -0.06 0.54 255 255 255
0.088 -0.022 0.545 255 255 255
0.977 -0.788 2.134 255 255 255
0.367 -0.988 2.766 255 255 255
0.875 -1.544 2.211 255 255 255
0.099 0.068 0.55 255 255 255
-0.779 -0.425 2.39 255 255 255
0.057 -0.05 0.62 0 0 0
0.226 -0.04 0.682 255 255 255
-0.134 0.253 0.676 255 255 255
-0.122 0.055 0.694 255 255 255
-0.26 -1.535 2.679 255 255 255
-0.258 0.343 0.726 255 255 255
0.937 -1.675 2.112 255 255 255
-0.059 0.319 0.753 255 255 255
0.093 -1.455 2.93 255 255 255
0.373 -0.309 1.284 255 255 255
0.455 -0.087 0.811 0 0 0
0.243 0.101 0.487 255 255 255
-0.37 -0.189 1.112 255 255 255
-0.222 0.255 0.725 255 255 255
0.101 0.078 0.551 255 255 255
-0.622 -1.318 2.297 255 255 255
-0.779 -0.909 2.165 255 255 255
-0.137 -1.641 2.805 255 255 255
0.198 0.208 0.454 0 0 0
0.053 -0.13 0.781 255 255 255
0.411 -0.023 0.644 255 255 255
-0.643 -0.152 1.076 0 0 0
-0.948 -1.016 1.897 255 255 255
-0.055 -1.205 2.566 255 255 255
-1.018 -0.32 2.072 255 255 255
-1.146 -0.595 1.799 255 255 255
-0.066 0.34 0.751 255 255 255
0.517 -0.258 1.075 255 255 255
0.027 -0.027 0.55 0 0 0
-0.147 -0.041 0.656 255 255 255
0.446 -1.517 2.619 255 255 255
0.231 0.064 0.499 0 0 0
-0.392 -1.4 2.551 255 255 255
-0.426 -1.005 2.67 255 255 255
-0.202 -0.065 0.786 0 0 0
-0.513 -0.082 1.008 255 255 255
0.097 0.159 0.513 255 255 255
0.032 0.311 0.667 0 0 0
-0.606 0.077 0.914 255 255 255
0.134 0.107 0.514 255 255 255
0.422 -0.118 0.865 255 255 255
-0.144 0.242 0.688 255 255 255
0.696 -1.457 2.429 255 255 255
-0.276 -0.115 0.955 0 0 0
0.921 -1.566 2.169 0 0 0
0.217 0.132 0.459 255 255 255
-0.004 0.19 0.622 255 255 255
0.076 0.074 0.528 0 0 0
-1.075 -0.796 1.812 255 255 255
0.838 -0.433 1.452 255 255 255
0.377 -0.322 1.317 255 255 255
-0.553 -1.429 2.337 255 255 255
0.377 0.008 0.54 255 255 255
-0.227 0.354 0.659 255 255 255
-0.831 -1.073 2.03 255 255 255
0.411 -1.199 2.778 255 255 255
0.227 0.112 0.477 255 255 255
0.173 0.102 0.509 255 255 255
-0.398 -0.923 2.735 255 255 255
0.447 -0.037 0.653 255 255 255
-0.244 -1.448 2.741 255 255 255
0.002 0.146 0.593 255 255 255
0.461 -1.644 2.555 255 255 255
0.014 0.258 0.662 255 255 255
0.469 -1.304 2.695 255 255 255
1.005 -1.189 2.038 255 255 255
-0.176 0.006 0.707 255 255 255
-0.526 -0.097 1.028 255 255 255
0.235 0.102 0.482 255 255 255
0.041 0.099 0.569 255 255 255
0.185 0.256 0.489 255 255 255
-0.104 -0.07 0.664 255 255 255
-1.124 -0.373 1.913 255 255 255
0.212 0.038 0.511 255 255 255
-0.169 0.29 0.695 255 255 255
-0.88 -0.41 2.217 255 255 255
-0.497 -0.673 2.721 255 255 255
0.792 -1.057 2.285 255 255 255
0.796 -1.23 2.392 255 255 255
0.081 -0.079 0.587 255 255 255
0.32 -0.173 0.945 255 255 255
0.148 0.239 0.51 0 0 0
0.241 -1.508 2.775 255 255 255
-1.028 -0.705 1.902 255 255 255
0.37 -0.161 0.828 255 255 255
0.19 0.087 0.519 0 0 0
-0.867 -0.87 2.054 255 255 255
0.848 -0.381 1.458 255 255 255
-0.131 0.061 0.688 255 255 255
0.186 -0.25 1.048 255 255 255
-0.103 0.095 0.654 255 255 255
0.28 -0.138 0.892 255 255 255
0.246 0 0.604 0 0 0
-0.506 -0.088 1.005 255 255 255
0.3 -0.175 0.961 255 255 255
0.202 -0.199 1.094 0 0 0
-0.653 -0.087 1.058 255 255 255
-1.216 -0.45 1.692 255 255 255
-0.196 -0.001 0.69 255 255 255
-0.139 -0.1 0.73 255 255 255
0.196 0.22 0.458 255 255 255
-0.405 -1.161 2.644 255 255 255
0.269 0.059 0.477 255 255 255
-0.051 0.31 0.736 255 255 255
-0.847 -1.232 1.944 255 255 255
-0.075 0.305 0.72 255 255 255
-0.303 0.254 0.753 255 255 255
0.644 -0.397 1.535 0 0 0
-0.693 -1.297 2.126 255 255 255
0.124 0.036 0.535 0 0 0
-0.041 -0.121 0.785 0 0 0
0.29 -0.221 1.112 255 255 255
-0.233 0.268 0.719 255 255 255
0.142 0.099 0.516 255 255 255
-0.223 0.083 0.764 255 255 255
0.081 -0.068 0.542 255 255 255
0.265 -1.234 2.856 255 255 255
0.799 -0.234 1.094 255 255 255
0.979 -0.39 1.416 255 255 255
-0.365 0.115 0.926 255 255 255
-0.455 0.167 0.919 255 255 255
-0.13 -0.111 0.747 255 255 255
0.054 0.053 0.579 255 255 255
-0.346 0.143 0.922 255 255 255
0.21 0.115 0.477 255 255 255
-0.769 -0.734 2.241 255 255 255
-0.847 -1.316 1.922 255 255 255
0.298 -1.492 2.741 255 255 255
-0.466 0.036 0.979 255 255 255
-0.165 0.051 0.715 255 255 255
0.114 0.148 0.495 255 255 255
0.716 -1.667 2.328 255 255 255
-0.035 0.34 0.734 255 255 255
-0.097 -0.009 0.681 0 0 0
-0.551 0.06 0.976 255 255 255
0.627 -0.498 1.63 255 255 255
-0.313 0.115 0.875 255 255 255
0.451 -0.067 0.741 255 255 255
-0.05 0.309 0.733 255 255 255
-0.88 -0.819 2.061 255 255 255
0.18 0.015 0.533 255 255 255
0.018 -1.668 2.854 255 255 255
-0.729 -1.001 2.193 255 255 255
1.116 -1.068 2.001 255 255 255
-0.134 0.331 0.633 255 255 255
0.263 -0.057 0.703 0 0 0
0.039 0.068 0.599 255 255 255
-0.129 -0.021 0.652 0 0 0
0.346 -1.192 2.895 255 255 255
-0.882 -0.428 2.207 255 255 255
0.066 0.055 0.52 0 0 0
-0.583 0.126 0.955 255 255 255
-0.089 -0.157 0.861 255 255 255
0.227 -0.025 0.637 255 255 255
-0.112 -0.162 0.801 255 255 255
-0.596 -0.795 2.549 255 255 255
-1.117 -0.523 1.859 255 255 255
-1.07 -0.454 1.945 255 255 255
0.307 -0.347 1.303 255 255 255
-0.205 0.335 0.656 255 255 255
-0.099 0.337 0.615 255 255 255
0.027 -0.021 0.505 255 255 255
-0.092 -0.063 0.62 0 0 0
-0.17 -0.065 0.695 255 255 255
0.689 -1.328 2.496 255 255 255
-0.344 0.242 0.79 255 255 255
0.796 -0.881 2.348 0 0 0
0.886 -0.447 1.422 255 255 255
-0.148 0.338 0.648 255 255 255
-0.33 -1.143 2.743 255 255 255
0.076 0.276 0.616 0 0 0
0.646 -0.422 1.538 255 255 255
0.496 -0.051 0.697 255 255 255
-0.437 -1.303 2.548 255 255 255
-0.172 -0.153 0.757 255 255 255
-0.219 0.359 0.649 255 255 255
-0.371 -0.042 0.886 255 255 255
-0.039 -1.21 2.564 255 255 255
0.025 -0.04 0.669 0 0 0
-0.196 0.031 0.711 255 255 255
0.133 -0.023 0.554 255 255 255
-0.347 0.267 0.765 255 255 255
-0.018 0.227 0.666 255 255 255
-0.673 -0.152 1.002 255 255 255
-0.452 -0.114 0.997 255 255 255
0.741 -1.29 2.463 255 255 255
1.211 -0.725 1.927 255 255 255
-0.691 -0.177 0.936 255 255 255
-0.946 -0.413 2.129 255 255 255
-0.265 -0.08 0.867 255 255 255
-0.616 -1.626 2.186 0 0 0
0.017 0.183 0.598 255 255 255
0.105 -0.014 0.54 0 0 0
-0.094 -1.221 2.586 255 255 255
0.478 -0.488 1.628 255 255 255
-0.114 0.287 0.691 255 255 255
0.034 0.054 0.575 255 255 255
-0.024 -1.016 2.773 255 255 255
-0.254 0.356 0.677 255 255 255
-0.565 0.076 0.954 255 255 255
0.116 0.112 0.526 255 255 255
0.172 0.297 0.529 255 255 255
0.24 0.056 0.488 255 255 255
-0.098 0.042 0.678 255 255 255
-0.071 -0.006 0.682 0 0 0
-0.628 0.058 0.9 255 255 255
-0.332 0.205 0.901 255 255 255
0.195 0.245 0.476 255 255 255
0.261 -0.128 0.91 255 255 255
-0.106 0.019 0.676 255 255 255
-0.821 -0.82 2.135 255 255 255
-0.258 0.297 0.709 255 255 255
0.361 0.033 0.529 255 255 255
-0.869 -1.288 1.897 255 255 255
-1.046 -0.85 1.829 255 255 255
0.322 -0.118 0.845 255 255 255
0.074 0.143 0.523 255 255 255
-0.12 -0.187 0.907 255 255 255
-0.039 -0.039 0.665 0 0 0
-0.041 0.095 0.614 255 255 255
-0.182 -0.16 0.751 255 255 255
-0.35 0.197 0.905 255 255 255
-0.13 0.242 0.681 255 255 255
-0.13 0.338 0.619 255 255 255
-0.242 0.124 0.808 255 255 255
0.836 -0.782 2.265 255 255 255
0.854 -0.505 1.458 255 255 255
0.448 -0.075 0.756 255 255 255
-0.222 0.273 0.71 255 255 255
-0.049 -0.051 0.607 255 255 255
0.213 0.07 0.519 0 0 0
0.311 0.052 0.539 255 255 255
0.207 0.131 0.464 0 0 0
-0.663 -0.135 1.061 255 255 255
-1.014 -0.995 1.818 255 255 255
0.913 -0.497 1.415 255 255 255
0.418 -0.36 1.359 0 0 0
0.583 -0.14 0.841 0 0 0
0.261 -0.151 0.935 255 255 255
-0.073 0.036 0.647 255 255 255
-0.203 0.324 0.664 255 255 255
-0.115 -0.022 0.608 255 255 255
0.033 0.218 0.615 255 255 255
1.072 -1.02 2.041 255 255 255
0.21 0.104 0.484 255 255 255
0.142 -1.318 2.942 255 255 255
0.206 -0.286 1.117 0 0 0
-0.137 -0.698 2.805 0 0 0
-0.731 -1.211 2.11 255 255 255
-0.653 -0.166 1.082 0 0 0
0.648 -1.401 2.493 255 255 255
-0.563 -1.453 2.321 255 255 255
-0.123 0.308 0.678 255 255 255
0.002 0.089 0.598 255 255 255
0.007 0.108 0.585 255 255 255
0.187 0.095 0.506 255 255 255
0.127 -0.202 0.968 255 255 255
0.033 -0.018 0.488 255 255 255
0.045 -0.293 1.32 255 255 255
-0.091 -0.022 0.605 255 255 255
0.493 -0.049 0.692 0 0 0
0.617 -0.403 1.57 0 0 0
0.794 -0.94 2.342 255 255 255
0.189 0.054 0.529 255 255 255
0.081 -1.828 2.794 255 255 255
-0.291 0.122 0.86 255 255 255
-0.153 0.181 0.735 0 0 0
-0.171 0.329 0.663 255 255 255
-0.157 0.332 0.654 255 255 255
-0.074 -1.648 2.781 255 255 255
0.336 -0.038 0.659 255 255 255
-0.722 -0.928 2.24 255 255 255
-0.009 -0.005 0.664 255 255 255
-0.578 -1.242 2.394 255 255 255
-0.465 0.079 1.002 255 255 255
-0.878 -0.772 2.082 255 255 255
0.101 0.131 0.518 255 255 255
0.081 0.037 0.525 255 255 255
0.623 -1.446 2.493 255 255 255
-0.054 0.363 0.74 255 255 255
-0.696 -0.172 0.931 255 255 255
-0.283 -0.038 0.816 255 255 255
0.207 0.094 0.502 255 255 255
-0.296 -0.008 0.822 255 255 255
-0.642 -0.655 2.45 255 255 255
0.21 -0.004 0.625 0 0 0
-0.971 -1.104 1.827 255 255 255
-0.563 0.007 1.003 255 255 255
0.194 0.107 0.493 255 255 255
-0.03 0.177 0.636 255 255 255
-0.582 -0.639 2.616 255 255 255
-0.701 -0.846 2.299 255 255 255
0.34 -1.747 2.634 255 255 255
-0.658 -0.949 2.323 255 255 255
0.056 -0.117 0.731 255 255 255
0.167 0.108 0.493 255 255 255
0.305 -0.009 0.587 255 255 255
-0.302 0.218 0.913 255 255 255
-0.094 -0.131 0.788 255 255 255
-0.911 -0.445 2.163 255 255 255
0.462 -1.45 2.636 255 255 255
0.593 -0.135 0.824 0 0 0
0.011 0.235 0.644 255 255 255
0.323 -0.045 0.668 255 255 255
-1.01 -0.719 1.923 255 255 255
0.11 0.037 0.53 255 255 255
0.533 -1.68 2.476 255 255 255
0.218 -0.027 0.654 0 0 0
0.999 -1.175 2.056 255 255 255
-0.268 0.102 0.82 255 255 255
-0.661 -0.568 2.457 255 255 255
-0.732 -0.687 2.316 255 255 255
0.401 -1.208 2.785 255 255 255
0.777 -0.792 2.412 0 0 0
-0.966 -0.794 1.95 255 255 255
-0.11 0.113 0.67 255 255 255
0.323 -0.123 0.839 255 255 255
-0.398 -0.968 2.725 255 255 255
0.79 -0.485 1.508 255 255 255
-0.587 -1.129 2.423 255 255 255
-0.023 0.069 0.626 255 255 255
0.075 0.052 0.526 255 255 255
-0.256 0.361 0.738 255 255 255
0.211 0.077 0.514 255 255 255
-0.102 -0.046 0.621 255 255 255
0.071 0.136 0.526 255 255 255
-0.033 0.363 0.694 255 255 255
-0.04 0.223 0.686 255 255 255
0.195 0.124 0.472 0 0 0
-0.47 -0.12 1.01 255 255 255
-0.171 0.208 0.703 255 255 255
-0.188 0.084 0.732 255 255 255
-0.961 -1.038 1.863 255 255 255
0.118 0.186 0.509 255 255 255
0.072 0.092 0.572 0 0 0
-0.158 0.317 0.671 255 255 255
-0.013 0.044 0.595 255 255 255
0.075 0.22 0.568 255 255 255
0.323 -0.036 0.662 255 255 255
0.498 -1.737 2.488 255 255 255
0.142 -0.2 0.957 255 255 255
0.004 -0.013 0.677 0 0 0
0.119 0.28 0.574 255 255 255
1.187 -0.917 1.993 255 255 255
0.795 -1.069 2.273 255 255 255
0.62 -0.188 0.987 0 0 0
-0.012 0.006 0.618 255 255 255
0.013 -0.056 0.658 0 0 0
-0.666 -0.113 1.03 255 255 255
1.22 -0.863 1.986 255 255 255
0.116 0.073 0.555 255 255 255
0.245 -0.142 0.984 0 0 0
-0.425 -0.819 2.746 255 255 255
0.012 0.228 0.633 255 255 255
-0.619 0.068 0.899 255 255 255
-0.184 -1.901 2.661 255 255 255
-0.798 -1.094 2.072 255 255 255
-0.139 -0.114 0.744 255 255 255
0.472 -0.07 0.728 255 255 255
0.395 -0.107 0.837 255 255 255
0.904 -0.932 2.237 0 0 0
0.312 -0.133 0.849 255 255 255
-0.813 -1.037 2.062 255 255 255
0.77 -0.466 1.51 255 255 255
-0.973 -0.993 1.871 255 255 255
-0.099 -0.012 0.683 0 0 0
-0.224 -1.198 2.867 255 255 255
-0.357 -1.781 2.438 0 0 0
-0.431 -0.983 2.677 0 0 0
0.021 0.131 0.561 255 255 255
-0.586 -0.781 2.559 255 255 255
-0.611 -0.117 1.099 0 0 0
0.244 -0.129 0.975 0 0 0
-1.03 -0.917 1.825 255 255 255
0.062 0.076 0.578 255 255 255
0.279 -0.121 0.896 255 255 255
-0.313 -1.402 2.662 255 255 255
-0.639 -0.004 0.946 255 255 255
-0.268 0.077 0.805 255 255 255
-0.851 -0.986 2.031 0 0 0
-0.213 0.177 0.768 255 255 255
0.841 -0.763 2.252 255 255 255
0.384 -0.179 0.835 255 255 255
0.224 0.144 0.452 255 255 255
-0.151 -0.155 0.769 255 255 255
-0.087 -0.014 0.645 0 0 0
0.85 -0.824 2.263 255 255 255
0.124 0.333 0.605 255 255 255
-0.138 0.083 0.681 255 255 255
-0.543 -1.121 2.478 255 255 255
0.105 0.143 0.505 255 255 255
-0.701 -0.856 2.295 255 255 255
-0.318 -1.594 2.581 255 255 255
0.153 -0.023 0.595 255 255 255
-1.028 -0.83 1.858 255 255 255
0.389 -0.004 0.604 0 0 0
0.234 -0.346 1.238 255 255 255
0.117 -0.015 0.534 0 0 0
0.018 0.049 0.578 255 255 255
0.175 0.194 0.463 255 255 255
-0.2 -1.601 2.748 255 255 255
-0.007 -0.025 0.696 0 0 0
-0.111 0.307 0.677 255 255 255
-0.148 0.261 0.695 255 255 255
-0.033 -1.196 2.561 255 255 255
-0.099 0.02 0.666 255 255 255
-1.026 -0.719 1.904 255 255 255
0.144 -0.046 0.564 255 255 255
0.062 0.123 0.545 255 255 255
0.892 -1.043 2.188 255 255 255
0.001 0.091 0.598 255 255 255
-0.733 -0.799 2.277 255 255 255
0.776 -0.958 2.35 255 255 255
-0.308 0.218 0.919 0 0 0
0.088 0.024 0.54 255 255 255
-0.292 0.284 0.73 255 255 255
-0.454 -0.82 2.709 255 255 255
0.571 -0.279 1.086 255 255 255
0.021 -0.072 0.66 255 255 255
-0.606 0.089 0.959 255 255 255
-0.721 -1.059 2.18 255 255 255
-0.626 -0.022 1.025 255 255 255
0.682 -1.523 2.416 255 255 255
-1.106 -0.421 1.921 255 255 255
0.185 0.084 0.528 0 0 0
0.793 -0.743 2.317 0 0 0
0.168 0.256 0.503 255 255 255
0.008 0.325 0.634 255 255 255
0.055 0.056 0.58 255 255 255
-1.001 -0.547 2.004 255 255 255
-0.291 -0.067 0.865 255 255 255
-0.255 0.272 0.721 255 255 255
-1.197 -0.451 1.703 255 255 255
0.296 0.005 0.541 255 255 255
-0.39 -0.183 1.084 255 255 255
-0.278 0.281 0.73 255 255 255
0.458 -0.083 0.857 0 0 0
0.263 -0.009 0.604 255 255 255
0.034 0.298 0.666 0 0 0
0.176 0.142 0.467 0 0 0
0.287 -0.546 1.647 255 255 255
0.178 0.154 0.46 255 255 255
-0.679 -0.612 2.418 255 255 255
-0.063 0.345 0.641 255 255 255
0.845 -0.477 1.448 255 255 255
0.717 -1.384 2.448 255 255 255
0.343 -0.091 0.837 255 255 255
-0.701 -1.526 2.036 0 0 0
0.222 0.136 0.457 255 255 255
-0.081 0.099 0.637 255 255 255
-0.405 0.241 0.769 255 255 255
-0.852 -0.58 2.186 255 255 255
0.633 -0.484 1.618 0 0 0
-0.013 -1.202 2.804 255 255 255
0.295 0.002 0.563 0 0 0
-0.963 -0.543 2.055 255 255 255
0.565 -0.514 1.69 255 255 255
-1.014 -0.67 1.943 0 0 0
-0.415 -0.077 0.909 255 255 255
-0.795 -0.568 2.274 255 255 255
0.259 0.008 0.585 0 0 0
-0.07 0.041 0.644 255 255 255
0.361 0.005 0.544 0 0 0
-0.036 0.087 0.618 255 255 255
-1.159 -0.428 1.841 255 255 255
0.263 -0.101 0.886 0 0 0
0.127 0.165 0.49 0 0 0
-0.145 0.076 0.69 255 255 255
-0.607 0.119 0.964 255 255 255
-0.112 0.076 0.67 255 255 255
0.132 0.268 0.548 255 255 255
-0.871 -1.135 1.951 255 255 255
0.02 -0.351 1.459 255 255 255
0.674 -1.331 2.505 255 255 255
0.167 -0.33 1.244 255 255 255
-0.469 -1.763 2.308 0 0 0
0.991 -1.005 2.122 255 255 255
0.014 -0.026 0.691 0 0 0
-0.598 -1.168 2.388 255 255 255
-0.356 0.028 0.862 255 255 255
0.207 -0.243 1.054 255 255 255
-0.644 -0.029 0.924 255 255 255
-1.085 -0.769 1.81 255 255 255
-0.242 0.199 0.747 255 255 255
-0.625 -0.686 2.532 255 255 255
-0.638 0.038 0.9 255 255 255
-0.406 -0.049 0.894 255 255 255
0.264 -0.034 0.655 255 255 255
1.167 -0.821 2.046 0 0 0
