ply
format ascii 1.0
comment Created by Open3D
element vertex 1596
property double x
property double y
property double z
property uchar red
property uchar green
property uchar blue
end_header
-0.646 -0.548 2.2 255 255 255
-0.03 -0.65 2.908 0 0 0
-0.347 0.224 0.903 255 255 255
0.237 -0.252 1.265 255 255 255
0.043 0.174 0.646 255 255 255
-0.606 -1.186 2.019 255 255 255
-0.067 0.099 0.727 255 255 255
0.177 0.031 0.526 255 255 255
0.9 -1.374 2.479 255 255 255
0.528 -1.553 2.792 255 255 255
-1.113 -0.451 1.682 255 255 255
0.193 0.207 0.501 255 255 255
0.235 -1.195 2.96 255 255 255
-0.61 -0.243 1.013 0 0 0
0.69 -1.42 2.706 255 255 255
-0.579 -0.107 0.972 255 255 255
-0.308 0.157 1.001 0 0 0
0.077 -0.06 0.624 255 255 255
-0.024 0.317 0.687 255 255 255
0.682 -0.197 0.958 255 255 255
0.04 0.167 0.645 255 255 255
-0.009 -0.091 0.753 255 255 255
0.216 0.052 0.519 255 255 255
-0.885 -1.054 1.778 255 255 255
-0.037 -0.022 0.617 255 255 255
-0.347 -0.06 1.017 255 255 255
0.587 -1.859 2.609 255 255 255
-0.048 0.291 0.695 255 255 255
0.133 0.279 0.622 0 0 0
0.58 -0.222 1.124 255 255 255
-0.118 0.119 0.798 255 255 255
-0.201 0.359 0.765 255 255 255
0.282 -0.015 0.598 255 255 255
0.904 -1.125 2.39 0 0 0
-0.63 -0.508 2.235 255 255 255
-0.473 -1.102 2.197 255 255 255
-0.119 -0.728 2.783 255 255 255
0.148 0.198 0.542 255 255 255
0.068 0.184 0.627 255 255 255
-0.023 -0.018 0.607 255 255 255
-0.703 -1.092 1.942 255 255 255
0.191 0.016 0.522 0 0 0
-0.586 0.472 1.263 255 255 255
0.026 -0.059 0.657 255 255 255
0.638 -0.231 1.029 255 255 255
-0.024 -0.657 2.911 255 255 255
-0.358 -1.2 2.282 255 255 255
0.146 0.204 0.548 255 255 255
-0.001 -0.685 2.926 255 255 255
-0.33 -0.052 0.987 255 255 255
-0.051 0.117 0.718 255 255 255
0.384 -0.03 0.656 255 255 255
0.544 -0.13 0.803 255 255 255
-0.404 0.268 0.925 255 255 255
-0.424 0.038 1.043 255 255 255
-0.346 -0.087 1.035 255 255 255
0.384 -0.059 0.787 255 255 255
0.21 -0.175 1.005 255 255 255
1.151 -1.28 2.22 255 255 255
0.23 0.138 0.482 255 255 255
-0.018 0.041 0.688 255 255 255
-0.26 0.126 0.979 255 255 255
0.166 0.001 0.532 255 255 255
0.297 0.035 0.504 255 255 255
-0.096 -1.129 2.662 255 255 255
-0.136 0.155 0.851 255 255 255
-0.524 0.035 0.942 255 255 255
-0.426 0.198 0.963 255 255 255
-0.631 -0.592 2.206 255 255 255
0.06 -0.018 0.674 0 0 0
0.848 -1.696 2.398 255 255 255
1.089 -1.183 2.319 255 255 255
0.441 -0.168 1.049 0 0 0
-0.6 -0.881 2.132 255 255 255
0.435 -0.329 1.219 255 255 255
-0.093 0.123 0.771 255 255 255
0.144 0.009 0.484 255 255 255
0.668 -0.235 1.025 255 255 255
0.038 0.311 0.734 255 255 255
0.189 0.204 0.502 255 255 255
-0.35 -1.106 2.326 255 255 255
0.073 0.2 0.625 255 255 255
0.059 -0.893 2.914 255 255 255
0.309 -0.264 1.122 255 255 255
-0.333 -0.792 2.479 255 255 255
0.335 0.037 0.493 255 255 255
-0.913 -0.446 1.958 255 255 255
-0.133 0.138 0.831 255 255 255
0.525 -1.253 2.908 255 255 255
-0.662 -0.592 2.18 255 255 255
0.32 -0.268 1.126 255 255 255
-0.638 -0.627 2.189 255 255 255
0.17 0.115 0.537 255 255 255
0.138 0.109 0.552 255 255 255
-0.601 -0.168 0.975 255 255 255
-0.479 -0.874 2.268 255 255 255
-0.07 -0.121 0.757 255 255 255
-0.125 0.341 0.699 255 255 255
-0.527 -0.164 1.096 0 0 0
0.519 -0.058 0.791 255 255 255
1.203 -0.979 2.081 255 255 255
-0.263 -0.754 2.617 255 255 255
0.494 -0.143 0.788 255 255 255
-0.525 -1.122 2.13 255 255 255
-0.276 0.218 0.814 255 255 255
0.209 0.038 0.515 255 255 255
-0.56 -1.039 2.121 255 255 255
-0.215 -1.39 2.439 255 255 255
-0.307 0.075 1.003 255 255 255
0.27 0.051 0.484 255 255 255
-0.012 -1.656 2.554 255 255 255
-0.045 0.257 0.689 255 255 255
0.072 0.215 0.65 255 255 255
-0.215 -1.443 2.418 255 255 255
0.054 0.162 0.624 255 255 255
0.477 -1.854 2.711 255 255 255
0.157 0.217 0.544 255 255 255
-0.724 -0.308 2.2 255 255 255
0.005 0.328 0.636 255 255 255
-0.678 -1.372 1.871 0 0 0
-0.022 0.23 0.703 255 255 255
-0.195 -0.09 0.934 255 255 255
-0.34 -0.759 2.46 255 255 255
-0.363 -1.475 2.177 255 255 255
0.182 0.146 0.502 255 255 255
0.843 -0.805 2.46 255 255 255
-0.939 -0.487 1.916 255 255 255
-0.251 -0.932 2.567 255 255 255
0.179 0.202 0.512 255 255 255
0.16 0.22 0.541 255 255 255
-0.654 -0.661 2.154 255 255 255
0.004 0.085 0.661 255 255 255
-0.558 -0.154 0.991 255 255 255
-0.404 -0.661 2.427 255 255 255
-0.653 -0.177 0.99 0 0 0
-0.219 -0.167 1.102 255 255 255
0.97 -0.969 2.301 255 255 255
0.003 0.276 0.7 255 255 255
0.023 0.045 0.641 255 255 255
-0.697 -0.356 2.218 255 255 255
0.14 -0.099 0.781 0 0 0
-0.133 -1.57 2.452 255 255 255
-0.862 -0.772 1.894 255 255 255
-0.173 0.228 0.797 255 255 255
-0.174 0.007 0.837 255 255 255
0.233 -0.245 1.26 255 255 255
0.153 0.098 0.565 255 255 255
-0.004 -0.011 0.606 255 255 255
0.82 -0.902 2.608 255 255 255
0.492 -0.195 1.003 255 255 255
0.63 -0.229 1.032 255 255 255
0.268 0.043 0.49 255 255 255
0.416 -0.138 0.916 255 255 255
-0.164 0.278 0.758 255 255 255
-0.517 -1.027 2.17 255 255 255
0.216 0.055 0.488 255 255 255
0.212 0.123 0.496 255 255 255
-0.032 -0.039 0.674 255 255 255
-0.429 0.143 0.971 255 255 255
-0.304 -1.671 2.242 0 0 0
-0.35 -1.017 2.355 255 255 255
-0.2 -1.484 2.42 255 255 255
-0.286 0.032 0.958 255 255 255
-1.215 -0.318 1.616 255 255 255
-0.285 0.272 0.781 255 255 255
-0.18 -0.103 1.005 255 255 255
0.923 -1.367 2.459 255 255 255
-0.112 -0.98 2.691 255 255 255
1.075 -0.699 2.253 0 0 0
0.987 -1.298 2.422 255 255 255
-1.207 -0.344 1.616 255 255 255
0.106 0.114 0.575 255 255 255
-0.736 -0.939 1.964 255 255 255
0.177 0.241 0.533 0 0 0
0.321 -0.459 1.64 255 255 255
0.312 -0.292 1.21 255 255 255
-0.277 -0.837 2.573 255 255 255
-0.975 -0.921 1.72 255 255 255
0.234 0.056 0.484 255 255 255
-0.305 0.33 0.792 255 255 255
0.524 -1.92 2.658 0 0 0
0.186 0.04 0.521 255 255 255
0.089 0.253 0.655 255 255 255
0.345 0.027 0.565 0 0 0
-0.155 -0.904 2.678 255 255 255
-0.4 -0.818 2.371 255 255 255
-0.757 -1.066 1.898 255 255 255
0.218 -0.413 1.65 255 255 255
-0.888 -1.119 1.748 255 255 255
-0.141 0.176 0.875 255 255 255
-0.302 0.107 1.016 255 255 255
-0.08 -0.91 2.751 255 255 255
-0.132 -1.415 2.51 255 255 255
-0.067 0.028 0.725 0 0 0
-0.608 -0.811 2.145 255 255 255
0.393 -0.164 1.062 0 0 0
0.868 -1.763 2.35 0 0 0
-0.659 -0.565 2.189 255 255 255
-0.313 0.106 1.028 255 255 255
-0.515 0.077 0.927 255 255 255
-0.016 -0.062 0.723 255 255 255
-0.093 -0.005 0.642 255 255 255
1.078 -1.415 2.236 255 255 255
0.411 -0.095 0.854 255 255 255
0.103 0.064 0.576 255 255 255
0.548 -0.087 0.816 255 255 255
-0.635 -1.002 2.049 255 255 255
-0.144 -0.028 0.824 255 255 255
-0.234 0.284 0.785 255 255 255
-0.531 -1.383 2.033 255 255 255
-0.35 -1.317 2.256 255 255 255
0.224 -0.049 0.563 255 255 255
0.069 0.384 0.722 255 255 255
0.083 0.102 0.603 255 255 255
0.193 0.031 0.517 0 0 0
0.007 -0.089 0.762 255 255 255
0.02 0.264 0.733 0 0 0
0.629 -0.229 1.035 255 255 255
-0.529 -1.032 2.156 255 255 255
-0.259 0.309 0.784 255 255 255
0.205 -0.046 0.545 255 255 255
-0.518 0.153 0.955 255 255 255
0.088 -0.009 0.689 0 0 0
-0.508 -0.113 1.135 255 255 255
-1.211 -0.34 1.614 255 255 255
-0.973 -0.79 1.711 255 255 255
0.064 -0.036 0.634 255 255 255
0.133 0.031 0.59 0 0 0
-0.88 -1.07 1.772 255 255 255
-0.274 0.167 0.919 255 255 255
-0.716 -1.206 1.894 255 255 255
-0.621 -0.134 0.967 255 255 255
0.215 0.207 0.478 255 255 255
-0.13 0.279 0.737 255 255 255
0.29 -0.243 1.091 255 255 255
-0.013 -0.048 0.657 255 255 255
0.127 0.249 0.6 255 255 255
0.141 0.061 0.51 0 0 0
0.389 -0.028 0.65 255 255 255
0.083 0.176 0.604 255 255 255
-0.033 -0.061 0.721 255 255 255
-0.168 0.261 0.77 255 255 255
0.189 0.282 0.554 255 255 255
0.631 -1.784 2.608 255 255 255
-0.5 0.195 1.039 255 255 255
0.437 -0.322 1.21 255 255 255
0.194 0.004 0.523 0 0 0
0.437 -0.489 1.707 255 255 255
-0.587 0.062 0.922 255 255 255
0.051 0.258 0.705 255 255 255
1.102 -0.963 2.173 255 255 255
-0.006 0.02 0.694 255 255 255
-0.643 -0.955 2.057 255 255 255
0.153 -0.083 0.672 255 255 255
-0.532 -0.807 2.231 255 255 255
-0.254 0.268 0.791 255 255 255
-0.584 -0.093 0.962 255 255 255
-0.89 -0.713 1.887 255 255 255
0.932 -0.414 1.45 255 255 255
0.14 0.242 0.585 255 255 255
-0.082 0.301 0.702 255 255 255
0.108 0.247 0.619 255 255 255
0.451 -1.912 2.726 255 255 255
-0.819 -0.473 2.052 255 255 255
-0.751 -0.74 2.021 255 255 255
-0.128 0.091 0.793 255 255 255
0.444 -0.325 1.22 255 255 255
-0.195 0.294 0.75 255 255 255
1.138 -1.471 2.154 255 255 255
0.188 0.01 0.525 0 0 0
-0.499 0.022 0.983 255 255 255
-0.753 -0.601 2.07 255 255 255
0.179 0.092 0.532 255 255 255
1.102 -0.729 2.185 255 255 255
0.241 0.145 0.474 255 255 255
1.03 -0.852 2.299 255 255 255
-0.685 -0.607 2.141 255 255 255
0.157 0.201 0.534 255 255 255
0.72 -1.793 2.525 255 255 255
0.089 -0.021 0.668 255 255 255
-0.497 0.322 0.974 255 255 255
0.508 -0.103 0.789 255 255 255
0.097 0.281 0.663 255 255 255
0.176 0.162 0.491 255 255 255
0.063 -0.018 0.674 0 0 0
-0.469 0.633 1.268 255 255 255
0.482 -0.295 1.261 0 0 0
-0.983 -0.432 1.819 255 255 255
0.396 -0.021 0.64 255 255 255
0.024 0.137 0.638 255 255 255
0.145 0.039 0.496 255 255 255
0.194 0.215 0.504 255 255 255
-0.497 0.103 0.965 255 255 255
-0.784 -1.039 1.877 255 255 255
-0.512 -0.099 1.115 255 255 255
-0.108 0.017 0.698 255 255 255
-0.059 -0.129 0.766 255 255 255
-0.266 -0.03 0.922 255 255 255
-0.982 -0.744 1.713 255 255 255
-0.366 -0.795 2.417 255 255 255
0.085 -0.054 0.626 255 255 255
-0.652 -0.002 0.977 255 255 255
0.207 0.23 0.498 0 0 0
0.396 -1.524 2.904 255 255 255
0.198 0.269 0.536 255 255 255
0.167 0.211 0.529 255 255 255
-0.57 -0.223 1.161 255 255 255
0.244 -0.047 0.578 255 255 255
0.43 -0.142 0.912 255 255 255
0.582 -0.467 1.594 0 0 0
-0.157 -0.1 0.997 255 255 255
-0.253 0.053 0.917 255 255 255
-0.373 0.053 1.06 255 255 255
0.015 -0.033 0.617 255 255 255
0.03 0.105 0.63 255 255 255
0.336 -1.3 2.604 255 255 255
-0.125 0.166 0.842 255 255 255
-0.404 0.468 0.989 255 255 255
0.1 0.311 0.684 0 0 0
0.203 -1.803 2.74 255 255 255
0.135 0.059 0.555 255 255 255
-0.093 0.213 0.731 0 0 0
0.33 -1.941 2.708 255 255 255
1.037 -1.491 2.255 255 255 255
0.31 -0.955 2.782 0 0 0
-0.02 -0.089 0.745 255 255 255
0.366 0.019 0.562 255 255 255
-0.866 -1.263 1.713 0 0 0
0.039 0.056 0.632 255 255 255
0.239 0.068 0.491 255 255 255
1.179 -0.905 2.136 255 255 255
1.045 -1.525 2.23 255 255 255
-0.089 -0.089 0.734 255 255 255
0.417 -0.12 0.846 255 255 255
-0.916 -0.716 1.859 255 255 255
0.176 0.075 0.519 255 255 255
-0.221 0.318 0.772 255 255 255
-0.032 0.285 0.7 255 255 255
0.114 0.288 0.645 0 0 0
-0.484 0.244 0.968 255 255 255
0.228 -0.01 0.538 255 255 255
-0.092 -0.799 2.782 255 255 255
-0.153 0.015 0.818 255 255 255
0.129 0.063 0.556 255 255 255
-0.103 0.19 0.805 255 255 255
0.524 -1.313 2.887 255 255 255
-0.8 -0.31 2.125 255 255 255
0.071 0.202 0.63 255 255 255
-0.175 0.32 0.734 255 255 255
0.191 0.239 0.519 0 0 0
-0.31 0.06 0.999 255 255 255
-1.192 -0.316 1.641 255 255 255
-0.986 -0.589 1.76 255 255 255
-0.004 -0.043 0.661 0 0 0
-0.244 -0.084 0.92 255 255 255
0.306 0.044 0.487 255 255 255
0.101 0.085 0.599 255 255 255
0.129 0.025 0.593 255 255 255
0.095 -0.196 1.074 255 255 255
-0.087 0.098 0.747 255 255 255
-0.523 -0.172 1.103 0 0 0
0.074 0.252 0.674 255 255 255
-0.161 -0.919 2.67 255 255 255
-0.121 0.085 0.78 255 255 255
0.066 0.098 0.618 255 255 255
-0.05 0.106 0.71 255 255 255
1.007 -1.164 2.455 255 255 255
-0.504 -0.015 1.077 255 255 255
0.274 0 0.592 255 255 255
-0.105 0.058 0.756 255 255 255
-1.235 0.044 1.706 255 255 255
-0.858 -0.99 1.817 255 255 255
-0.896 -1.135 1.728 255 255 255
-0.469 0.162 0.978 255 255 255
-0.76 -0.529 2.091 255 255 255
-0.4 0.22 0.934 255 255 255
-0.82 -0.737 1.951 255 255 255
0.144 0.056 0.504 255 255 255
0.495 -0.139 0.786 255 255 255
-0.36 -0.943 2.377 255 255 255
-0.035 0.009 0.731 0 0 0
0.136 0.04 0.561 255 255 255
-0.07 0.007 0.715 0 0 0
-0.739 -0.928 1.962 255 255 255
-0.037 0.124 0.709 255 255 255
-0.685 -0.446 2.199 255 255 255
0.313 0.038 0.496 255 255 255
-0.794 -1.313 1.779 0 0 0
0.185 -1.952 2.686 0 0 0
0.327 0.035 0.498 255 255 255
-0.363 -1.484 2.172 255 255 255
-1.148 -0.462 1.643 255 255 255
0.592 -0.209 1.082 255 255 255
0.136 0.171 0.538 255 255 255
-0.375 0.174 0.956 255 255 255
-0.275 -0.643 2.643 255 255 255
-0.587 -1.158 2.052 255 255 255
0.088 0.013 0.642 255 255 255
-0.526 0.137 0.957 255 255 255
0.419 -0.097 0.839 255 255 255
-0.031 0.298 0.693 255 255 255
-0.499 -0.008 1.019 255 255 255
0.483 -0.124 0.782 255 255 255
0.007 0.158 0.678 255 255 255
0.067 0.07 0.623 255 255 255
1.199 -0.879 2.114 255 255 255
-0.58 -0.065 0.953 255 255 255
0.097 0.009 0.639 255 255 255
0.453 -0.081 0.809 255 255 255
-0.258 -0.039 0.924 255 255 255
-0.023 0.257 0.686 255 255 255
-0.552 -0.121 0.987 255 255 255
-0.609 -0.156 0.967 255 255 255
-0.971 -0.609 1.839 255 255 255
-0.504 -1.062 2.167 255 255 255
-0.739 -0.798 2.013 255 255 255
1.189 -0.819 2.144 0 0 0
0.14 -1.013 2.961 255 255 255
-0.331 0.301 0.802 255 255 255
0.096 -0.95 2.93 255 255 255
-0.175 0.377 0.693 255 255 255
0.985 -0.445 1.428 255 255 255
0.242 0.14 0.473 255 255 255
0.242 0.138 0.472 255 255 255
1.266 -0.83 2.068 0 0 0
-0.092 0 0.694 0 0 0
-0.308 0.354 0.803 255 255 255
1.116 -1.283 2.249 255 255 255
-0.354 -1.298 2.254 255 255 255
-0.719 -0.936 1.985 255 255 255
0.496 -0.162 0.927 255 255 255
0.378 0.003 0.59 255 255 255
0.063 0.258 0.691 255 255 255
0.151 0.193 0.536 255 255 255
1.133 -1.352 2.207 255 255 255
-0.256 0.243 0.798 255 255 255
0.587 -1.075 2.914 255 255 255
0.192 0.181 0.485 255 255 255
0.114 -0.029 0.662 0 0 0
0.209 0.06 0.488 255 255 255
-0.172 0.228 0.772 255 255 255
0.871 -1.55 2.434 255 255 255
0.04 -1.414 2.698 255 255 255
-0.399 0.188 0.948 255 255 255
-0.26 0.33 0.813 255 255 255
0.459 -0.074 0.809 0 0 0
-0.373 -0.966 2.351 255 255 255
0.565 -1.616 2.727 255 255 255
0.633 -1.243 2.789 255 255 255
-0.064 0.172 0.764 255 255 255
-0.553 0.023 0.935 255 255 255
-0.802 -1.15 1.82 255 255 255
1.209 -0.962 2.076 255 255 255
1.313 -0.737 2.01 255 255 255
-0.5 0.317 0.972 255 255 255
-0.086 -0.028 0.702 255 255 255
-0.319 -0.954 2.497 255 255 255
-0.546 -0.156 1.026 255 255 255
0.01 0.309 0.656 255 255 255
-0.346 -0.047 1.009 255 255 255
-0.734 -1.216 1.87 255 255 255
-0.178 0.249 0.79 255 255 255
-0.883 -0.675 1.912 255 255 255
-0.891 -0.526 1.95 255 255 255
-0.056 0.211 0.711 255 255 255
-0.624 -1.02 2.056 255 255 255
-0.558 -0.894 2.173 255 255 255
-0.046 -1.49 2.573 255 255 255
-0.522 0.282 0.976 255 255 255
0.972 -0.47 1.436 255 255 255
-0.214 -0.012 0.886 255 255 255
0.47 -0.076 0.801 255 255 255
0.005 -0.012 0.608 255 255 255
-0.012 0.201 0.723 255 255 255
-0.847 -0.389 2.048 255 255 255
0.194 0.128 0.505 255 255 255
0.126 -0.175 1.048 255 255 255
0.214 0.194 0.475 255 255 255
0.091 0.101 0.594 255 255 255
0.422 -0.007 0.617 255 255 255
0.308 -0.006 0.636 255 255 255
-0.8 -0.704 1.983 255 255 255
-0.056 0.102 0.717 255 255 255
0.375 -0.3 1.179 255 255 255
-0.138 0.02 0.808 255 255 255
-0.069 -0.126 0.76 255 255 255
0.056 0.07 0.636 255 255 255
-0.363 -1.1 2.312 255 255 255
0.01 -0.085 0.761 255 255 255
-1.152 -0.454 1.642 255 255 255
0.025 0.252 0.724 255 255 255
-0.571 -0.774 2.201 255 255 255
0.563 -0.989 2.977 255 255 255
0.128 0.041 0.57 255 255 255
-0.518 -0.632 2.32 255 255 255
-0.623 -0.69 2.177 255 255 255
-0.744 -0.574 2.093 0 0 0
-0.16 0.16 0.884 255 255 255
0.043 -0.207 1.031 255 255 255
-0.009 0.199 0.719 255 255 255
-0.057 -1.237 2.663 255 255 255
0.126 -1.502 2.768 255 255 255
0.124 0.123 0.559 255 255 255
1.223 -0.673 2.028 255 255 255
-0.555 0.179 0.972 255 255 255
-0.973 -0.845 1.693 255 255 255
-0.87 -1.161 1.745 255 255 255
0.872 -0.35 1.395 255 255 255
0.16 -0.059 0.664 255 255 255
0.051 0.042 0.631 0 0 0
0.123 0.03 0.606 0 0 0
0.754 -0.905 2.668 255 255 255
-0.449 0.081 0.994 255 255 255
-0.437 -0.075 1.098 0 0 0
0.174 -0.272 1.345 255 255 255
-0.289 -1.592 2.288 255 255 255
-0.524 -0.091 1.095 255 255 255
-0.289 0.052 0.966 255 255 255
0.16 0.153 0.506 255 255 255
0.015 0.318 0.658 255 255 255
0.564 -1.885 2.604 0 0 0
-0.45 0.286 0.998 255 255 255
0.173 0.078 0.528 255 255 255
-0.308 -0.023 0.966 255 255 255
-1.038 -0.506 1.741 255 255 255
-0.159 0.227 0.892 255 255 255
0.679 -1.5 2.685 255 255 255
0.822 -1.507 2.516 255 255 255
-0.157 0.041 0.804 255 255 255
-0.78 -0.346 2.131 255 255 255
0.103 0.048 0.568 255 255 255
-0.416 0.672 1.196 255 255 255
-0.433 -0.545 2.436 255 255 255
0.981 -0.837 2.349 0 0 0
-0.08 -1.069 2.698 255 255 255
-0.639 -0.669 2.167 255 255 255
-0.199 0.184 0.935 255 255 255
0.967 -1.456 2.377 255 255 255
-0.028 -0.112 0.769 255 255 255
-0.62 0.445 1.254 255 255 255
-0.113 -0.821 2.756 255 255 255
-0.385 0.121 1.012 255 255 255
1.067 -1.462 2.219 255 255 255
-0.226 0.418 0.786 255 255 255
0.612 -1.914 2.547 0 0 0
-0.255 -1.552 2.344 255 255 255
-0.455 -0.537 2.417 255 255 255
-0.503 -0.856 2.244 255 255 255
-0.486 0.273 0.972 255 255 255
-0.722 -0.358 2.189 255 255 255
-0.223 -0.802 2.646 255 255 255
0.143 0.006 0.484 255 255 255
-0.003 0.198 0.712 255 255 255
0.992 -0.378 1.386 255 255 255
0.444 -0.111 0.813 255 255 255
-0.673 -0.055 0.986 0 0 0
-0.187 0.041 0.831 255 255 255
-0.132 0.357 0.675 255 255 255
-0.408 -1.495 2.125 255 255 255
0.1 0.317 0.68 0 0 0
-1.084 -0.571 1.674 255 255 255
0.166 -0.055 0.55 0 0 0
-0.247 0.194 0.93 255 255 255
0.02 -0.085 0.767 255 255 255
0.323 -0.016 0.64 0 0 0
-0.663 -0.024 0.976 0 0 0
0.144 -0.003 0.486 255 255 255
-0.207 -0.932 2.618 255 255 255
0.083 0.302 0.7 255 255 255
0.196 -0.04 0.53 255 255 255
0.575 -1.676 2.687 255 255 255
1.229 -0.781 2.108 255 255 255
-0.642 0.064 0.969 255 255 255
-0.579 -0.554 2.275 255 255 255
0.141 0.259 0.592 255 255 255
-0.067 -0.038 0.695 255 255 255
0.027 0.273 0.738 0 0 0
0.258 -1.555 2.819 255 255 255
-0.45 -0.006 1.064 255 255 255
-0.07 0.074 0.723 255 255 255
0.388 -0.098 0.876 255 255 255
0.37 0.027 0.553 255 255 255
1.095 -0.664 2.231 255 255 255
-0.33 0.357 0.827 255 255 255
0.032 0.124 0.621 255 255 255
0.173 0.111 0.551 0 0 0
0.087 0.227 0.634 255 255 255
-0.968 -0.521 1.85 0 0 0
-0.487 0.163 0.964 255 255 255
1.112 -1.315 2.241 255 255 255
-0.03 -0.144 0.782 255 255 255
1.03 -1.009 2.229 255 255 255
-1.05 -0.584 1.704 255 255 255
0.013 0.301 0.711 255 255 255
0.08 -0.141 0.904 0 0 0
0.246 0.084 0.516 0 0 0
-0.479 0.255 0.97 255 255 255
-0.605 -0.714 2.193 255 255 255
-0.331 -0.034 0.99 255 255 255
0.317 0.009 0.598 255 255 255
0.095 0.275 0.664 255 255 255
-0.962 -0.472 1.838 255 255 255
-0.759 -0.609 2.061 255 255 255
0.024 -0.035 0.619 0 0 0
-0.244 0.271 0.791 255 255 255
0.141 0.012 0.483 255 255 255
-0.023 -0.011 0.608 255 255 255
-0.525 -0.102 1.085 255 255 255
-0.571 -0.152 0.986 255 255 255
-0.615 -0.52 2.249 255 255 255
1.04 -1.294 2.372 255 255 255
0.126 -0.011 0.677 0 0 0
0.399 -0.021 0.637 255 255 255
-0.481 -0.063 1.113 255 255 255
-0.509 -1.091 2.159 255 255 255
1.056 -1.474 2.231 255 255 255
0.179 0.214 0.515 255 255 255
-0.819 -1.295 1.752 0 0 0
0.081 -0.009 0.689 0 0 0
-0.161 0.363 0.74 255 255 255
0.817 -1.422 2.551 255 255 255
-0.393 0.11 1.004 255 255 255
0.023 0.178 0.671 255 255 255
0.544 -1.54 2.778 255 255 255
-0.117 -1.24 2.599 255 255 255
0.661 -0.205 0.987 255 255 255
-0.07 0.018 0.719 255 255 255
0.164 0.316 0.605 255 255 255
0.113 0.035 0.577 255 255 255
-1.123 -0.527 1.644 255 255 255
0.1 0.12 0.578 255 255 255
0.013 -0.006 0.615 255 255 255
0.744 -1.692 2.516 255 255 255
0.51 -0.164 0.811 0 0 0
-0.95 -1.005 1.718 255 255 255
-0.438 -0.97 2.286 255 255 255
-0.141 -0.022 0.813 255 255 255
-0.048 -0.095 0.747 255 255 255
0.38 -0.409 1.545 255 255 255
-0.553 -0.052 0.957 255 255 255
0.34 -0.201 1.007 255 255 255
-0.109 0.043 0.766 255 255 255
-0.455 0.072 0.997 255 255 255
0.083 0.217 0.638 255 255 255
-0.697 -1.391 1.843 0 0 0
0.217 0.105 0.525 255 255 255
-0.646 -1.205 1.965 255 255 255
0.106 0.031 0.608 255 255 255
0.223 -0.084 0.679 255 255 255
0.2 0.316 0.576 255 255 255
0.944 -0.405 1.437 255 255 255
-0.015 -0.081 0.742 255 255 255
-0.485 -0.629 2.352 255 255 255
-1.095 -0.573 1.66 255 255 255
-0.506 0.21 1.057 255 255 255
-0.041 -0.079 0.732 0 0 0
0.082 -0.068 0.633 255 255 255
0.205 0.144 0.486 0 0 0
0.005 0.299 0.66 255 255 255
0.596 -0.21 1.075 255 255 255
-0.184 0.071 0.848 255 255 255
0.613 -0.496 1.602 255 255 255
0.19 0.269 0.542 255 255 255
-0.163 0.312 0.725 255 255 255
-0.082 -0.104 0.744 255 255 255
0.376 -0.018 0.646 0 0 0
0.601 -0.345 1.349 0 0 0
-0.146 0.364 0.74 255 255 255
0.137 -0.085 0.672 255 255 255
-0.081 0.343 0.669 255 255 255
0.089 0.04 0.579 255 255 255
-1.035 -0.483 1.748 255 255 255
0.664 -1.28 2.777 255 255 255
-0.673 -0.903 2.047 255 255 255
0.248 0.095 0.519 255 255 255
0.212 0.069 0.497 255 255 255
0.022 0.188 0.684 255 255 255
-0.109 0.08 0.762 255 255 255
1.011 -0.356 1.381 255 255 255
0.427 -0.189 1.098 0 0 0
0.289 0.096 0.495 255 255 255
0.488 -0.143 0.883 255 255 255
0.134 0.011 0.482 255 255 255
0.076 -0.091 0.797 255 255 255
-1.182 -0.39 1.624 255 255 255
0.452 -0.089 0.799 255 255 255
0.19 -1.478 2.844 255 255 255
0.225 0.128 0.484 255 255 255
0.178 0.132 0.515 0 0 0
-0.075 -0.884 2.766 255 255 255
-0.035 0.136 0.712 255 255 255
1.211 -0.81 2.122 0 0 0
-0.026 -0.004 0.714 0 0 0
-0.573 0.027 0.934 255 255 255
0.005 -1.48 2.628 255 255 255
-0.569 -0.233 1.093 0 0 0
0.053 0.111 0.61 255 255 255
0.975 -1.09 2.507 0 0 0
-0.613 -0.394 2.295 255 255 255
-0.191 0.258 0.785 255 255 255
0.063 -0.055 0.615 255 255 255
-0.405 0.167 0.96 255 255 255
0.101 0.323 0.674 255 255 255
-0.659 -1.45 1.867 0 0 0
-0.527 -0.073 1.032 255 255 255
0.338 -0.244 1.068 0 0 0
-0.391 -0.679 2.437 255 255 255
-0.651 0.087 0.982 255 255 255
0.231 -0.137 0.814 0 0 0
0.582 -1.733 2.668 255 255 255
-0.163 0.326 0.722 255 255 255
-0.449 0.134 0.999 255 255 255
0.412 -0.12 0.85 255 255 255
0.02 0.022 0.67 255 255 255
0.61 -1.153 2.851 255 255 255
-0.5 -0.439 2.403 255 255 255
-0.25 -0.664 2.663 255 255 255
0.138 -0.216 1.139 255 255 255
1.218 -0.718 2.05 255 255 255
0.014 0.203 0.698 255 255 255
-0.377 0.194 0.941 255 255 255
-0.255 0.228 0.821 255 255 255
-0.01 0.122 0.672 255 255 255
-0.082 -0.143 0.754 255 255 255
0.066 0.064 0.611 255 255 255
-0.397 -1.085 2.277 255 255 255
-0.589 -1.434 1.945 0 0 0
0.659 -1.64 2.653 255 255 255
0.517 -0.112 0.792 255 255 255
0.099 -0.095 0.75 0 0 0
-0.944 -0.401 1.938 255 255 255
-0.537 0.065 0.923 255 255 255
-0.527 0.088 0.926 255 255 255
0.161 0.269 0.574 0 0 0
-0.167 0.147 0.883 255 255 255
-0.147 0.33 0.721 255 255 255
-0.012 -1.851 2.477 0 0 0
0.042 -0.019 0.619 255 255 255
-0.706 -1.312 1.861 255 255 255
0.182 0.077 0.518 255 255 255
0.1 -0.031 0.66 0 0 0
-0.742 -1.048 1.917 255 255 255
0.758 -1.86 2.446 0 0 0
0.413 -0.002 0.601 255 255 255
-0.524 0.282 1.12 255 255 255
-0.143 -1.31 2.546 255 255 255
0.451 -0.211 1.125 255 255 255
-0.059 -0.62 2.906 0 0 0
-0.444 0.142 0.973 255 255 255
-0.151 0.338 0.731 255 255 255
-1.258 -0.092 1.65 255 255 255
0.169 0.307 0.601 255 255 255
-0.655 -0.548 2.195 255 255 255
0.18 -0.323 1.507 255 255 255
-0.733 -0.775 2.029 255 255 255
0.1 0.342 0.645 255 255 255
0.235 0.116 0.494 255 255 255
-0.209 -0.732 2.683 255 255 255
0.405 -0.011 0.629 0 0 0
-0.568 -0.228 1.039 0 0 0
-0.318 -0.084 1.005 255 255 255
0.096 0.248 0.639 255 255 255
0.194 0.277 0.545 255 255 255
-0.474 0.646 1.26 255 255 255
1.05 -1.21 2.378 255 255 255
0.113 -0.019 0.674 0 0 0
-0.542 -0.061 0.972 255 255 255
-0.055 0.34 0.665 255 255 255
0.08 -0.132 0.889 0 0 0
0.239 0.01 0.569 255 255 255
-0.663 -0.013 0.977 255 255 255
-0.531 -0.553 2.324 255 255 255
0.597 -0.28 1.263 255 255 255
0.023 -0.863 2.876 255 255 255
0.046 0.218 0.674 255 255 255
-0.113 0.057 0.761 255 255 255
0.197 -0.221 1.204 255 255 255
-0.562 -0.866 2.178 255 255 255
-0.077 0.347 0.667 255 255 255
0.456 -0.168 0.982 0 0 0
0.81 -1.108 2.67 255 255 255
-0.427 0.106 1 255 255 255
0.06 0.168 0.624 255 255 255
-0.299 0.128 1.004 0 0 0
-0.183 0.089 0.854 255 255 255
-0.203 0.241 0.92 255 255 255
0.42 -0.152 0.987 255 255 255
0.209 0.149 0.481 0 0 0
-0.453 -0.004 1.065 255 255 255
-0.027 0.005 0.722 0 0 0
-0.001 0.109 0.652 255 255 255
0.634 -0.992 2.799 0 0 0
0.412 -1.204 2.97 255 255 255
0.569 -0.074 0.819 0 0 0
-0.35 -1.14 2.314 255 255 255
-0.446 -1.426 2.112 255 255 255
0.149 -0.655 2.847 0 0 0
-0.358 -1.136 2.305 255 255 255
0.027 0.066 0.656 255 255 255
-0.057 0.036 0.712 0 0 0
0.021 0.111 0.632 255 255 255
0.072 0.375 0.722 255 255 255
-0.101 -1.738 2.415 255 255 255
-0.369 0.294 0.881 255 255 255
-0.208 -0.112 1.028 255 255 255
-0.912 -1.125 1.713 255 255 255
0.214 0.322 0.567 255 255 255
-1.215 -0.337 1.613 255 255 255
0.641 -1.605 2.672 255 255 255
-0.428 0.17 0.955 255 255 255
0.274 0.021 0.586 255 255 255
-0.335 -1.513 2.267 255 255 255
0.329 -0.012 0.62 255 255 255
-0.576 0.487 1.266 255 255 255
0.149 0.151 0.515 255 255 255
-0.346 -1.264 2.282 255 255 255
-0.01 0.309 0.666 255 255 255
0.253 0.098 0.516 0 0 0
0.207 -0.063 0.579 255 255 255
0.042 0.09 0.634 255 255 255
0.232 0.117 0.49 255 255 255
0.186 -0.029 0.528 0 0 0
-0.16 -1.143 2.592 255 255 255
-0.47 0.167 0.98 255 255 255
-0.993 -0.539 1.774 255 255 255
-0.199 0.248 0.915 0 0 0
-0.354 -0.735 2.452 255 255 255
-0.598 -1.395 1.958 255 255 255
-0.812 -1.09 1.831 255 255 255
0.222 -1.117 2.572 255 255 255
-0.599 -0.135 0.962 255 255 255
0.182 0.216 0.514 255 255 255
0.174 0.125 0.518 0 0 0
1.086 -1.401 2.232 255 255 255
-0.473 -0.656 2.359 255 255 255
0.133 0.11 0.557 255 255 255
-0.087 0.007 0.712 0 0 0
-0.917 -1.005 1.749 255 255 255
-1.062 -0.514 1.715 255 255 255
-0.341 -1.046 2.358 255 255 255
0.734 -0.824 2.526 255 255 255
0.253 -0.003 0.576 255 255 255
0.158 0.34 0.627 255 255 255
-0.074 -0.131 0.761 255 255 255
-0.17 0.372 0.726 255 255 255
0.207 0.214 0.492 255 255 255
0.103 0.113 0.578 255 255 255
0.938 -1.473 2.392 255 255 255
-0.373 0.542 1.086 255 255 255
-0.121 0.259 0.764 255 255 255
0.425 -0.004 0.605 255 255 255
0.145 -0.005 0.491 255 255 255
0.264 -0.17 0.931 255 255 255
-0.087 0.32 0.679 255 255 255
0.066 0.01 0.69 0 0 0
-0.111 0.196 0.837 255 255 255
0.038 0.244 0.707 255 255 255
0.024 -0.196 1.006 255 255 255
0.238 0.086 0.512 0 0 0
1.153 -0.952 2.127 255 255 255
0.557 -1.003 2.978 255 255 255
0.3 0.087 0.491 255 255 255
-0.384 0.124 1.021 255 255 255
0.776 -0.467 1.625 255 255 255
0.178 0.037 0.524 255 255 255
0.226 -0.097 0.755 0 0 0
-0.171 0.302 0.735 255 255 255
0.193 0.138 0.498 0 0 0
-0.423 0.169 0.954 255 255 255
-1.192 -0.371 1.619 255 255 255
0.166 0.102 0.551 0 0 0
0.222 0.11 0.512 255 255 255
0.262 0.092 0.508 0 0 0
0.062 0.191 0.631 255 255 255
0.139 0.054 0.507 255 255 255
0.737 -1.62 2.568 255 255 255
0.187 0.012 0.526 255 255 255
-0.198 -0.777 2.68 255 255 255
-0.697 -0.374 2.213 255 255 255
0.071 -0.02 0.67 0 0 0
0.095 -1.054 2.895 255 255 255
-0.088 0.31 0.688 255 255 255
0.145 0.226 0.557 255 255 255
-0.248 0.333 0.799 255 255 255
0.744 -0.954 2.687 255 255 255
0.01 -0.006 0.613 255 255 255
-0.474 -0.051 1.102 255 255 255
0.592 -0.324 1.324 0 0 0
0.039 -0.038 0.601 255 255 255
0.263 0.127 0.479 255 255 255
0.154 0.021 0.499 255 255 255
-0.531 -0.747 2.264 255 255 255
-0.14 0.205 0.781 255 255 255
-0.216 0.215 0.921 255 255 255
-0.023 0.322 0.683 255 255 255
-0.027 -0.151 0.785 255 255 255
0.097 0.023 0.606 255 255 255
-0.746 -0.948 1.949 255 255 255
1.05 -0.912 2.276 255 255 255
-0.03 0.063 0.71 255 255 255
0.136 -0.009 0.482 255 255 255
-0.492 0.146 0.996 255 255 255
0.062 0.358 0.725 255 255 255
0.636 -0.19 0.96 255 255 255
0.126 0.14 0.54 255 255 255
-0.313 0.215 0.889 255 255 255
-0.455 -0.532 2.419 255 255 255
-0.337 -0.707 2.485 255 255 255
0.985 -0.887 2.334 255 255 255
-0.111 -0.09 0.907 0 0 0
-0.481 0.027 1.05 255 255 255
-0.535 -0.193 1.108 0 0 0
0.082 0.134 0.576 255 255 255
-0.117 -1.152 2.628 255 255 255
-0.761 -0.997 1.921 255 255 255
-0.279 -1.133 2.467 255 255 255
0.602 -0.332 1.316 0 0 0
0.012 0.009 0.689 0 0 0
-0.474 -0.412 2.453 255 255 255
0.747 -1.781 2.49 255 255 255
-0.338 -0.618 2.512 255 255 255
-0.157 0.039 0.805 255 255 255
0.179 0.071 0.511 0 0 0
-0.497 0.159 0.957 255 255 255
0.849 -1.179 2.617 255 255 255
0.114 0.068 0.57 255 255 255
-0.153 0.269 0.769 255 255 255
0.126 -1.606 2.733 255 255 255
-0.297 0.289 0.78 255 255 255
-0.969 -0.701 1.745 255 255 255
0.427 -0.212 1.151 0 0 0
-0.187 0.273 0.756 255 255 255
0.242 -0.254 1.25 255 255 255
-0.376 -1.388 2.198 255 255 255
0.329 -0.553 1.88 255 255 255
-0.057 -0.068 0.727 255 255 255
-0.279 0.27 0.783 255 255 255
0.518 -0.147 0.79 255 255 255
-0.361 -0.815 2.415 255 255 255
-0.164 -1.584 2.419 255 255 255
1.059 -0.836 2.291 0 0 0
-0.444 -0.467 2.454 255 255 255
-0.129 0.034 0.792 255 255 255
1.243 -0.923 2.043 255 255 255
-0.452 -0.79 2.328 255 255 255
0.317 -0.016 0.644 0 0 0
-0.238 -0.06 0.93 255 255 255
1.073 -1.304 2.281 255 255 255
0.252 0.041 0.495 255 255 255
0.196 0.325 0.576 255 255 255
0.891 -1.731 2.341 0 0 0
-0.164 0.222 0.794 0 0 0
0.59 -1.656 2.677 0 0 0
-0.137 0.034 0.794 255 255 255
0.479 -0.146 0.826 255 255 255
0.234 -0.026 0.543 255 255 255
0.141 0.208 0.555 255 255 255
1.057 -0.833 2.299 0 0 0
-0.637 -0.034 0.963 255 255 255
0.185 0.286 0.561 255 255 255
-0.719 -0.376 2.192 255 255 255
0.072 0.11 0.598 255 255 255
0.891 -1.099 2.597 255 255 255
-0.147 0.274 0.744 255 255 255
-0.022 0.02 0.701 255 255 255
0.425 -0.056 0.763 255 255 255
0.263 -0.303 1.327 255 255 255
0.025 -0.016 0.622 255 255 255
1.085 -0.668 2.232 255 255 255
0.293 -0.28 1.195 255 255 255
-0.805 -0.782 1.952 255 255 255
-0.098 0.014 0.68 255 255 255
-0.1 0.36 0.677 255 255 255
0.14 0.291 0.624 0 0 0
0.131 0.272 0.621 255 255 255
-0.698 0.214 1.151 255 255 255
1.06 -0.869 2.258 255 255 255
0.054 0.14 0.618 0 0 0
-0.472 -0.118 1.152 0 0 0
0.4 -0.16 1.049 255 255 255
0.689 -1.598 2.638 255 255 255
0.371 -0.008 0.619 255 255 255
0.673 -1.062 2.848 255 255 255
-0.497 -1.53 2.017 0 0 0
-0.528 -0.535 2.333 255 255 255
-0.911 -0.523 1.931 255 255 255
0.816 -1.839 2.393 255 255 255
0.499 -0.155 0.911 255 255 255
-0.212 -0.029 0.893 255 255 255
-0.019 0.243 0.695 255 255 255
-0.087 0.07 0.737 255 255 255
1.117 -1.315 2.239 255 255 255
-0.117 0.331 0.69 255 255 255
0.122 0.08 0.595 255 255 255
0.102 -1.052 2.905 255 255 255
-1.242 -0.003 1.701 255 255 255
0.073 0.077 0.621 255 255 255
-0.749 -0.539 2.1 255 255 255
0.121 0.018 0.556 255 255 255
-0.567 -0.203 1.001 0 0 0
-0.682 -0.841 2.062 255 255 255
-0.025 0.151 0.711 255 255 255
0.226 0.143 0.477 255 255 255
-0.557 0.218 0.98 255 255 255
-0.866 -0.906 1.841 255 255 255
-0.057 0.17 0.755 255 255 255
0.126 -1.557 2.75 255 255 255
-0.386 0.208 0.941 255 255 255
0.246 0.042 0.494 255 255 255
-0.035 0.284 0.698 255 255 255
0.018 0.126 0.645 0 0 0
0.066 -0.055 0.617 255 255 255
-0.275 0.34 0.792 255 255 255
0.22 -0.655 2.794 0 0 0
0.266 -1.151 2.563 255 255 255
-0.399 0.159 0.973 255 255 255
0.173 -0.059 0.643 0 0 0
-0.252 -0.099 0.981 255 255 255
-0.03 -0.154 0.783 255 255 255
0.646 -0.469 1.613 255 255 255
-0.421 0.177 0.954 255 255 255
-1.026 -0.673 1.691 255 255 255
-0.131 0.362 0.663 255 255 255
-0.6 -0.419 2.299 255 255 255
-0.166 0.09 0.836 255 255 255
-0.805 -0.748 1.96 255 255 255
-0.435 -0.809 2.342 255 255 255
-0.08 0.015 0.716 0 0 0
-0.169 0.046 0.812 255 255 255
-0.257 0.189 0.914 255 255 255
0.883 -1.615 2.387 255 255 255
0.015 0.319 0.657 255 255 255
-0.741 -0.874 1.985 255 255 255
0.156 0.213 0.543 255 255 255
-0.534 -0.594 2.309 255 255 255
-0.254 -1.267 2.444 255 255 255
-0.19 0.255 0.787 255 255 255
-0.399 0.276 0.923 255 255 255
-0.634 0.456 1.275 255 255 255
0.425 -0.201 1.132 0 0 0
-0.378 0.104 1.013 255 255 255
0.146 0.165 0.523 255 255 255
0.044 0.126 0.61 255 255 255
-0.73 -0.864 1.997 255 255 255
0.126 0.139 0.541 255 255 255
1.081 -1.391 2.239 255 255 255
-0.485 0.311 0.978 255 255 255
-0.237 0.248 0.812 255 255 255
-0.542 -0.13 0.997 255 255 255
-0.442 0.058 1.016 255 255 255
-0.27 -0.629 2.654 255 255 255
-0.388 -0.578 2.471 255 255 255
-0.047 -0.027 0.656 255 255 255
0.185 0.198 0.501 255 255 255
0.138 0.152 0.525 255 255 255
-0.629 -1.052 2.045 255 255 255
0.065 0.354 0.728 255 255 255
0.144 0.007 0.484 255 255 255
-0.281 -0.591 2.658 255 255 255
0.098 0.351 0.637 255 255 255
-0.163 -0.018 0.843 255 255 255
0.098 0.057 0.571 255 255 255
-0.053 0.16 0.746 255 255 255
0.215 -1.429 2.874 255 255 255
0.2 0.098 0.523 255 255 255
-0.176 -0.058 0.9 255 255 255
-0.039 0.179 0.741 255 255 255
-0.056 0.26 0.701 255 255 255
-0.541 0.248 0.98 255 255 255
0.187 0.05 0.518 255 255 255
-0.171 -0.162 1.101 255 255 255
-0.111 0.225 0.759 255 255 255
0.222 -0.451 1.82 255 255 255
-0.298 -1.048 2.474 255 255 255
-0.1 0.074 0.745 255 255 255
0.564 -0.097 0.8 255 255 255
-0.538 -0.114 1.04 255 255 255
0.053 0.03 0.616 255 255 255
0.219 0.105 0.523 255 255 255
0.504 -0.186 1.003 255 255 255
0.24 0.117 0.493 255 255 255
0.059 0.166 0.621 255 255 255
-0.559 -1.163 2.075 255 255 255
0.252 0.114 0.493 255 255 255
0.131 0.213 0.566 255 255 255
-0.06 0.029 0.729 0 0 0
-0.256 -0.919 2.564 255 255 255
-0.45 -0.552 2.418 255 255 255
0.535 -0.477 1.579 255 255 255
1.092 -1.244 2.292 255 255 255
-0.006 -1.397 2.653 255 255 255
-0.146 -0.125 1.023 255 255 255
0.209 0.23 0.497 0 0 0
-0.007 0.107 0.656 255 255 255
-0.781 -0.929 1.92 255 255 255
0.037 -0.194 1.017 255 255 255
0.013 0.077 0.667 255 255 255
0.213 0.126 0.494 255 255 255
0.162 0.033 0.513 255 255 255
0.171 0.048 0.513 255 255 255
0.856 -1.365 2.537 255 255 255
0.111 0.023 0.592 255 255 255
-0.031 0.173 0.73 255 255 255
0.082 0.085 0.61 255 255 255
-0.063 -1.455 2.572 255 255 255
0.432 -0.199 1.104 255 255 255
0.336 -1.883 2.731 255 255 255
-0.583 0.1 0.922 255 255 255
-0.108 0.275 0.713 255 255 255
0.144 0.246 0.58 255 255 255
0.435 -0.13 0.874 255 255 255
0.069 0.386 0.719 255 255 255
-0.564 0.121 0.954 255 255 255
-0.52 0.231 0.968 255 255 255
0.252 0.003 0.575 255 255 255
-0.715 -0.841 2.029 255 255 255
0.161 0.068 0.511 255 255 255
1.18 -1.277 2.192 255 255 255
-0.923 -0.814 1.815 255 255 255
1.162 -0.809 2.172 0 0 0
0.403 -0.106 0.862 255 255 255
0.787 -1.637 2.49 255 255 255
-0.179 -1.55 2.408 255 255 255
0.044 0.079 0.643 255 255 255
-0.067 0.288 0.74 255 255 255
0.248 0.028 0.517 255 255 255
-0.006 -1.776 2.512 255 255 255
-0.074 -1.415 2.573 255 255 255
0.14 0.331 0.622 255 255 255
-0.602 0.605 1.345 255 255 255
-0.205 0.152 0.933 255 255 255
0.291 -1.249 2.57 255 255 255
-0.475 -0.542 2.392 255 255 255
0.074 0.067 0.609 255 255 255
1.288 -0.783 2.057 0 0 0
-0.542 -1.38 2.018 255 255 255
-0.759 -0.367 2.152 255 255 255
1.104 -1.298 2.259 255 255 255
0.844 -1.295 2.585 255 255 255
0.817 -1.542 2.505 255 255 255
1.076 -1.16 2.325 255 255 255
-0.164 -1.649 2.39 255 255 255
-0.139 -0.608 2.85 0 0 0
-0.619 -0.958 2.092 255 255 255
0.064 -1.719 2.616 255 255 255
0.264 0.105 0.499 255 255 255
0.014 -0.132 0.794 255 255 255
-0.566 0.025 0.936 255 255 255
0.458 -0.179 1.07 0 0 0
-0.514 0.125 0.95 255 255 255
-0.074 0.287 0.734 255 255 255
0.094 -0.102 0.783 0 0 0
-0.543 -0.135 1.044 255 255 255
0.505 -0.144 0.787 255 255 255
0.749 -1.27 2.694 255 255 255
0.141 0.238 0.582 255 255 255
-0.555 -0.544 2.3 255 255 255
-0.009 0.252 0.698 255 255 255
-1.127 -0.505 1.648 255 255 255
-0.024 -0.148 0.786 255 255 255
-0.574 0.429 1.245 255 255 255
0.085 -0.088 0.757 0 0 0
0.261 -0.274 1.267 255 255 255
0.206 0.142 0.485 0 0 0
0.851 -0.402 1.475 255 255 255
0.385 -0.03 0.655 255 255 255
-0.582 -0.152 0.981 255 255 255
0.22 -0.194 1.027 255 255 255
0.028 -1.501 2.653 255 255 255
0.056 0.335 0.729 255 255 255
0.057 0.004 0.67 255 255 255
-0.656 -0.424 2.236 255 255 255
0.066 -0.187 1.036 255 255 255
-0.457 -0.027 1.081 255 255 255
-0.212 -0.924 2.612 255 255 255
0.199 0.214 0.499 255 255 255
0.26 0.055 0.482 255 255 255
0.083 0.318 0.687 0 0 0
0.25 -0.268 1.265 255 255 255
-0.046 -1.041 2.74 255 255 255
-0.193 0.096 0.871 255 255 255
0.004 -0.083 0.756 255 255 255
0.765 -1.162 2.716 255 255 255
-0.022 0.327 0.628 255 255 255
-0.069 0.056 0.73 255 255 255
0.022 0.07 0.66 255 255 255
0.372 -0.061 0.795 255 255 255
-0.049 -0.031 0.679 0 0 0
0.039 -0.135 0.853 255 255 255
0.25 -1.462 2.837 255 255 255
0.024 0.094 0.64 255 255 255
0.566 -0.083 0.811 255 255 255
-0.277 0.211 0.835 255 255 255
-0.335 -1.125 2.368 255 255 255
0.106 0.133 0.558 255 255 255
-0.174 -1.594 2.402 255 255 255
0.215 -0.285 1.34 255 255 255
0.204 -1.184 2.968 255 255 255
0.154 0.079 0.565 255 255 255
0.08 0.333 0.69 255 255 255
-0.351 -0.673 2.478 255 255 255
0.633 -1.235 2.788 255 255 255
0.168 0.31 0.602 255 255 255
0.186 0.162 0.484 255 255 255
0.087 0.135 0.573 255 255 255
-0.542 -0.63 2.291 255 255 255
-0.608 -0.052 0.944 255 255 255
-0.19 -1.547 2.403 255 255 255
-0.115 0.247 0.78 0 0 0
-0.611 -0.525 2.251 255 255 255
-0.32 0.237 0.872 255 255 255
0.478 -1.801 2.739 255 255 255
0.081 0.213 0.635 255 255 255
-0.223 0.238 0.912 255 255 255
0.272 -0.213 1.058 255 255 255
-0.259 -1.438 2.374 255 255 255
0.121 0.049 0.573 255 255 255
0.08 0.077 0.617 255 255 255
0.004 0.025 0.691 255 255 255
-0.386 0.103 1.004 255 255 255
-0.55 0.072 0.924 255 255 255
0.59 -0.274 1.262 255 255 255
1.228 -0.967 2.067 255 255 255
0.201 -0.004 0.521 0 0 0
-0.224 0.081 0.896 255 255 255
-0.347 -0.111 1.065 255 255 255
0.241 -0.245 1.232 255 255 255
-0.385 0.182 0.952 255 255 255
0.07 0.18 0.623 255 255 255
0.065 -0.173 1.017 255 255 255
-0.472 0.005 1.064 255 255 255
0.394 -0.012 0.634 255 255 255
0.219 0.154 0.473 255 255 255
-0.777 -0.351 2.136 255 255 255
-0.157 0.286 0.735 255 255 255
0.08 0.224 0.642 255 255 255
0.231 0.061 0.484 255 255 255
-0.046 0.21 0.717 255 255 255
0.092 0.026 0.605 255 255 255
-0.499 0.165 0.959 255 255 255
-0.409 -1.577 2.093 0 0 0
-0.342 0.303 0.82 255 255 255
-0.449 -1.113 2.223 255 255 255
0.711 -0.377 1.458 255 255 255
0.164 -1.504 2.811 255 255 255
-0.044 -0.138 0.775 255 255 255
0.272 -0.188 0.963 255 255 255
-0.243 0.39 0.804 255 255 255
0.491 -1.306 2.921 255 255 255
-0.899 -0.57 1.928 255 255 255
-0.235 -1.208 2.488 255 255 255
-0.465 0.06 0.993 255 255 255
0.225 0.05 0.508 0 0 0
-0.391 0.286 0.918 255 255 255
0.167 0.264 0.565 0 0 0
-0.654 -1.076 2.005 255 255 255
0.408 -0.138 1.016 0 0 0
1.192 -0.722 2.074 255 255 255
-0.853 -0.296 2.074 255 255 255
-0.556 -0.83 2.205 255 255 255
0.19 0.155 0.487 255 255 255
-0.347 0.058 1.04 255 255 255
-0.029 -0.009 0.638 255 255 255
0.145 0.058 0.503 0 0 0
-0.236 -1.681 2.309 0 0 0
-0.191 0.234 0.939 0 0 0
0.363 -0.378 1.491 255 255 255
-0.042 0.142 0.724 255 255 255
0.877 -1.233 2.571 255 255 255
0.174 0.135 0.517 0 0 0
-0.133 -1.276 2.568 255 255 255
0.245 0.087 0.505 255 255 255
-0.343 -1.572 2.215 255 255 255
0.09 0.132 0.572 255 255 255
0.46 -0.188 1.086 0 0 0
0.212 -0.013 0.522 255 255 255
-0.021 -0.143 0.786 255 255 255
-0.249 0.273 0.786 255 255 255
0.97 -1.452 2.37 255 255 255
0.193 0.034 0.518 0 0 0
0.161 -0.081 0.682 255 255 255
-0.164 0.384 0.74 255 255 255
0.04 0.165 0.644 255 255 255
0.112 -0.006 0.496 255 255 255
0.376 0.022 0.554 255 255 255
0.082 0.057 0.586 255 255 255
-0.515 -0.585 2.334 255 255 255
0.166 0.061 0.51 255 255 255
-0.261 0.203 0.913 255 255 255
0.196 -1.691 2.772 255 255 255
-0.265 0.222 0.812 255 255 255
-0.807 -0.728 1.97 255 255 255
0.175 -0.005 0.53 255 255 255
1.145 -0.826 2.18 0 0 0
0.097 0.342 0.659 255 255 255
0.171 -0.119 0.793 255 255 255
0.212 -0.41 1.744 255 255 255
-0.066 -0.072 0.727 255 255 255
-0.144 0.324 0.713 255 255 255
-0.004 0.076 0.678 255 255 255
0.675 -0.453 1.584 255 255 255
-0.497 -0.141 1.133 0 0 0
0.209 0.165 0.468 255 255 255
0.257 0.019 0.585 255 255 255
-0.836 -0.906 1.872 255 255 255
0.156 0.198 0.533 255 255 255
0.204 0.29 0.549 255 255 255
-0.582 -0.553 2.27 255 255 255
0.053 -0.948 2.885 255 255 255
0.33 0.009 0.597 255 255 255
-0.642 -0.483 2.229 255 255 255
0.189 -0.007 0.527 0 0 0
0.011 0.196 0.697 255 255 255
0.01 0.297 0.71 255 255 255
-0.969 -0.694 1.748 255 255 255
0.478 -0.082 0.788 255 255 255
-0.938 -0.447 1.93 255 255 255
-0.061 -0.115 0.756 255 255 255
0.396 -1.518 2.906 255 255 255
0.018 0.283 0.712 255 255 255
-0.518 -1 2.181 0 0 0
0.223 0.138 0.488 255 255 255
0.214 0.301 0.551 255 255 255
0.9 -1.102 2.586 255 255 255
-0.655 0.009 0.974 255 255 255
0.027 -0.148 0.862 255 255 255
0.831 -1.672 2.433 255 255 255
0.22 0.161 0.467 255 255 255
-0.539 -0.865 2.206 255 255 255
0.193 -0.078 0.729 255 255 255
-0.024 -0.036 0.668 0 0 0
0.026 0.117 0.625 255 255 255
-0.59 -0.787 2.177 255 255 255
-0.193 0.298 0.747 255 255 255
0.741 -1.885 2.44 255 255 255
0.145 -1.838 2.676 255 255 255
-0.359 -0.066 1.034 255 255 255
-0.326 0.112 1.042 0 0 0
0.152 -0.093 0.696 255 255 255
-0.914 -0.462 1.949 255 255 255
0.342 0.018 0.574 0 0 0
0.115 0.112 0.569 255 255 255
0.541 -1.019 2.989 255 255 255
-0.098 0.344 0.677 255 255 255
0.331 0.017 0.582 0 0 0
0.167 0.171 0.505 255 255 255
-0.13 0.258 0.785 0 0 0
-0.246 0.3 0.787 255 255 255
-0.134 0.362 0.68 255 255 255
0.149 0.106 0.555 255 255 255
-0.622 -0.5 2.243 255 255 255
0.454 -0.114 0.819 255 255 255
0.013 0.148 0.67 255 255 255
-0.164 0.28 0.755 255 255 255
-0.859 -0.999 1.816 255 255 255
0.102 0.293 0.661 0 0 0
-0.419 -0.636 2.428 255 255 255
-0.335 0.218 0.894 255 255 255
0.39 -0.014 0.637 0 0 0
-0.283 -1.388 2.364 255 255 255
0.191 -1.191 2.951 255 255 255
0.113 -0.065 0.636 255 255 255
-0.232 -0.048 0.912 255 255 255
-0.125 0.287 0.711 255 255 255
0.064 -1.295 2.774 255 255 255
0.407 -0.049 0.721 255 255 255
0.108 0.096 0.582 255 255 255
-0.953 -0.771 1.8 255 255 255
0.058 -1.64 2.645 255 255 255
0.186 0.156 0.49 255 255 255
0.305 -0.253 1.102 255 255 255
0.162 0.032 0.514 255 255 255
-0.264 0.207 0.887 255 255 255
-0.531 -0.096 1.076 255 255 255
0.184 -0.005 0.528 255 255 255
0.392 -0.187 1.127 0 0 0
-0.401 -0.032 1.053 0 0 0
-0.697 0.171 1.119 255 255 255
0.137 0.194 0.552 255 255 255
0.113 0.302 0.659 0 0 0
-0.205 -1.615 2.358 255 255 255
-0.052 -1.084 2.722 255 255 255
-0.304 0.121 1.013 0 0 0
-0.094 0.069 0.741 255 255 255
0.08 0.305 0.702 255 255 255
0.422 -0.002 0.598 255 255 255
-0.218 -0.893 2.625 255 255 255
-0.077 -0.122 0.753 255 255 255
-0.03 -0.049 0.708 255 255 255
-0.294 -1.11 2.468 255 255 255
-1.095 -0.554 1.665 255 255 255
-0.729 -0.754 2.038 255 255 255
-0.174 0.381 0.719 255 255 255
0.046 0.051 0.625 255 255 255
-0.151 -0.816 2.718 255 255 255
-0.504 -0.797 2.265 255 255 255
1.031 -1.605 2.22 0 0 0
-0.382 0.134 0.997 255 255 255
-0.65 -0.209 1.004 0 0 0
-0.095 -1.324 2.587 255 255 255
-0.318 -1.018 2.469 255 255 255
-0.078 0.09 0.73 255 255 255
-0.581 -1.058 2.1 255 255 255
-0.404 -0.095 1.097 255 255 255
1.088 -0.669 2.215 255 255 255
-0.773 -0.676 2.019 255 255 255
0.461 -1.535 2.861 255 255 255
0.263 0.057 0.482 255 255 255
-0.699 -0.443 2.182 255 255 255
-0.12 0.195 0.79 255 255 255
-0.045 0.167 0.741 255 255 255
-0.158 -0.666 2.767 255 255 255
0.76 -1.704 2.498 255 255 255
0.221 -0.041 0.55 255 255 255
-0.273 -1.389 2.377 255 255 255
0.134 -0.03 0.654 0 0 0
-0.398 -0.729 2.407 255 255 255
-0.141 0.29 0.722 255 255 255
-0.822 -0.948 1.873 255 255 255
-0.337 0.06 1.029 255 255 255
-0.361 -0.628 2.487 255 255 255
-0.019 -0.04 0.659 0 0 0
-1.199 -0.393 1.611 255 255 255
0.483 -1.61 2.806 255 255 255
0.3 0.011 0.609 0 0 0
0.16 0.221 0.541 255 255 255
0.145 -1.787 2.695 255 255 255
0.297 0.066 0.496 255 255 255
-0.106 0.085 0.763 255 255 255
0.231 -0.018 0.538 255 255 255
0.904 -1.412 2.46 255 255 255
-1.183 -0.32 1.649 255 255 255
0.011 -0.099 0.778 255 255 255
1.209 -0.811 2.128 0 0 0
1.139 -0.779 2.167 255 255 255
0.682 -0.23 1.016 255 255 255
0.119 0.112 0.565 255 255 255
-0.971 -0.696 1.769 0 0 0
-0.706 -0.894 2.017 255 255 255
0.117 -0.008 0.478 255 255 255
-0.3 -0.11 1.037 255 255 255
0.082 -1.594 2.69 255 255 255
0.004 0.305 0.654 255 255 255
-0.083 0.362 0.662 255 255 255
0.079 0.212 0.637 255 255 255
-0.711 -0.615 2.114 255 255 255
-0.119 0.196 0.764 255 255 255
0.928 -1.399 2.443 255 255 255
0.011 -1.622 2.592 255 255 255
-0.725 -0.612 2.099 255 255 255
-0.802 -0.843 1.926 255 255 255
-0.51 -1.306 2.085 255 255 255
0.01 0.179 0.688 255 255 255
-0.039 -0.032 0.68 0 0 0
-0.969 -0.621 1.775 255 255 255
0.012 0.066 0.671 255 255 255
0.029 -0.033 0.616 0 0 0
-0.416 -0.584 2.448 255 255 255
-0.544 0.033 0.933 255 255 255
-0.312 -1.3 2.373 255 255 255
-0.003 -0.067 0.734 255 255 255
0.759 -1.891 2.434 255 255 255
-0.407 0.21 0.942 255 255 255
0.133 -0.006 0.48 255 255 255
0.207 0.307 0.557 255 255 255
0.817 -0.421 1.543 0 0 0
-0.389 0.078 1.008 255 255 255
-0.803 -0.976 1.887 255 255 255
-0.078 0.341 0.671 255 255 255
-0.108 0.347 0.671 255 255 255
0.113 -1.26 2.843 255 255 255
-0.438 -0.52 2.439 255 255 255
-0.149 0.207 0.898 255 255 255
-0.518 -0.062 1 255 255 255
0.034 -1.204 2.778 255 255 255
-0.315 0.011 0.983 255 255 255
-0.76 -0.516 2.094 255 255 255
-0.07 0.34 0.67 255 255 255
0.186 0.176 0.487 255 255 255
0.354 -0.024 0.672 0 0 0
0.093 0.326 0.677 255 255 255
0.303 0.013 0.6 0 0 0
0.726 -0.965 2.707 255 255 255
0.963 -1.155 2.488 0 0 0
-0.164 0.004 0.833 255 255 255
-0.296 -0.859 2.553 255 255 255
-0.153 0.232 0.766 0 0 0
-0.611 -0.96 2.099 255 255 255
0.685 -0.2 0.963 255 255 255
0.024 0.159 0.663 255 255 255
0.297 0.072 0.497 0 0 0
-0.342 0.31 0.819 255 255 255
0.136 0.129 0.546 255 255 255
0.27 -1.622 2.792 255 255 255
-0.555 -1.021 2.127 255 255 255
-0.44 0.097 0.987 255 255 255
-0.767 -0.586 2.061 255 255 255
-0.744 -1.168 1.878 255 255 255
-0.237 0.022 0.881 255 255 255
1.085 -1.217 2.314 255 255 255
-0.219 0.056 0.877 255 255 255
0.384 -0.034 0.659 0 0 0
-0.656 0.062 0.973 255 255 255
0.18 0.132 0.512 0 0 0
0.171 0.154 0.499 255 255 255
-0.898 -0.456 1.968 255 255 255
0.188 0.245 0.525 0 0 0
-0.074 0.3 0.711 255 255 255
-0.596 0.57 1.325 255 255 255
-0.519 -0.034 1.07 255 255 255
-0.325 0.113 1.011 0 0 0
0.267 0.099 0.508 0 0 0
-0.46 -1.176 2.179 255 255 255
0.015 0.334 0.652 255 255 255
0.071 -0.844 2.94 255 255 255
0.299 0.074 0.484 255 255 255
-0.416 0.205 0.948 255 255 255
-0.081 0.32 0.687 255 255 255
0.56 -1.528 2.767 255 255 255
-0.552 0.103 0.952 255 255 255
-0.074 -1.131 2.682 255 255 255
-0.434 -0.654 2.397 255 255 255
0.038 0.053 0.635 255 255 255
0.059 -0.912 2.911 255 255 255
0.135 -0.007 0.481 255 255 255
-0.744 -0.502 2.118 255 255 255
-0.529 -0.106 1.077 255 255 255
-0.397 0.255 0.926 255 255 255
0.413 -0.033 0.653 255 255 255
-0.32 0.141 0.985 255 255 255
-0.315 0.253 0.807 255 255 255
0.132 -1.707 2.703 255 255 255
-0.159 -1.538 2.444 255 255 255
-0.024 -0.077 0.734 255 255 255
0.078 0.15 0.597 0 0 0
0.364 -1.871 2.759 255 255 255
0.118 0.332 0.628 255 255 255
0.076 0.147 0.595 0 0 0
-0.138 -0.079 0.925 255 255 255
0.199 0.166 0.471 255 255 255
1.028 -1.514 2.286 255 255 255
-0.08 0.007 0.714 0 0 0
-0.012 -1.42 2.631 255 255 255
-0.165 -0.959 2.648 255 255 255
-0.937 -0.919 1.762 255 255 255
-0.521 -1.17 2.117 255 255 255
-0.966 -0.504 1.811 255 255 255
0.113 0.197 0.579 255 255 255
0.352 0.004 0.599 255 255 255
-0.517 -1.148 2.129 255 255 255
0.13 0.339 0.623 255 255 255
0.149 0.307 0.618 255 255 255
-0.531 -0.148 1.06 255 255 255
-0.702 0.195 1.161 255 255 255
1.168 -1.27 2.207 255 255 255
-0.915 -0.639 1.885 255 255 255
-0.576 -0.21 1.001 0 0 0
1.072 -1.482 2.207 255 255 255
0.181 -0.085 0.706 255 255 255
0.053 0.383 0.721 255 255 255
-0.684 -1.192 1.935 255 255 255
0.085 0.292 0.687 255 255 255
-0.442 0.081 0.999 255 255 255
-0.262 0.061 0.935 255 255 255
-0.051 0.234 0.71 255 255 255
0.056 0.04 0.626 0 0 0
0.431 -0.057 0.766 255 255 255
-0.365 0.287 0.878 255 255 255
0.254 0.128 0.47 255 255 255
0.59 -1.578 2.708 255 255 255
-0.249 -0.026 0.913 255 255 255
-0.483 -0.138 1.156 0 0 0
-0.213 0.421 0.775 255 255 255
0.594 -0.128 0.826 255 255 255
0.063 0.017 0.66 255 255 255
0.001 0.161 0.687 255 255 255
-0.67 -1.302 1.907 255 255 255
-0.095 0.31 0.687 255 255 255
0.298 -0.928 2.778 255 255 255
-0.01 -0.054 0.685 255 255 255
-0.161 0.298 0.727 255 255 255
0.149 0.072 0.554 255 255 255
0.253 -0.409 1.633 255 255 255
-0.179 0.266 0.758 255 255 255
0.217 0.204 0.475 255 255 255
-0.484 0.319 0.984 255 255 255
-0.63 -1.348 1.933 255 255 255
-0.637 -0.875 2.096 255 255 255
-0.334 -0.649 2.509 255 255 255
0.44 -1.944 2.726 255 255 255
-0.506 0.642 1.257 255 255 255
-1.248 -0.038 1.68 255 255 255
-0.011 0.322 0.635 255 255 255
-0.749 -0.57 2.093 0 0 0
-0.589 -0.154 0.979 255 255 255
0.2 -0.042 0.535 255 255 255
