ply
format ascii 1.0
comment Created by Open3D
element vertex 1569
property double x
property double y
property double z
property uchar red
property uchar green
property uchar blue
end_header
0.023 0.005 1.957 255 255 255
0.047 0.582 1.779 255 255 255
-1.01 -0.247 2.521 255 255 255
-0.455 -0.261 2.116 255 255 255
0.54 0.057 1.044 255 255 255
-0.245 -0.169 1.974 255 255 255
-0.673 0.143 2.582 255 255 255
-0.004 -0.353 1.935 255 255 255
-0.08 -1.196 1.75 255 255 255
-0.554 0.401 1.956 255 255 255
-0.283 0.888 2.089 255 255 255
0.463 0.218 1.205 255 255 255
-0.526 0.501 1.754 255 255 255
0.048 -0.567 1.81 0 0 0
-0.199 0.009 2.072 255 255 255
0.311 -0.172 1.395 255 255 255
-1.123 -0.501 2.352 255 255 255
-1 -0.399 2.469 255 255 255
-0.567 -0.947 2.264 255 255 255
-1.177 -1.066 2.128 255 255 255
-1.15 -0.778 2.248 255 255 255
0.125 0.248 0.456 255 255 255
-0.131 0.711 1.297 255 255 255
-0.377 -0.305 1.833 255 255 255
-0.883 -1.476 2.174 255 255 255
0.465 0.367 1.225 255 255 255
0.464 0.173 1.191 255 255 255
0.512 -0.456 1.142 255 255 255
0.267 -0.121 1.477 255 255 255
-0.282 0.925 2.104 255 255 255
0.25 -0.168 1.499 255 255 255
-0.008 -0.542 1.903 255 255 255
-0.34 -0.572 1.756 255 255 255
-0.271 -0.091 1.99 255 255 255
0.514 0.34 1.152 255 255 255
-0.547 0.066 0.833 255 255 255
-0.735 0.544 1.691 255 255 255
0.091 -0.6 1.765 255 255 255
0.457 0.209 1.212 255 255 255
0.559 0.263 1.054 255 255 255
-1.382 -0.487 2.209 255 255 255
-0.417 0.58 1.646 255 255 255
-1.033 0.434 1.886 255 255 255
-0.355 0.779 2.06 255 255 255
-0.365 -0.758 1.724 255 255 255
-0.776 -1.549 2.21 255 255 255
-0.817 -1.507 2.198 255 255 255
0.258 -0.108 1.496 255 255 255
0.011 -1.182 1.738 255 255 255
0.076 -0.53 1.779 255 255 255
-0.195 -0.202 1.985 255 255 255
-1.046 -0.948 2.254 255 255 255
-1.207 0.121 2.436 255 255 255
-0.719 -1.695 2.203 255 255 255
0.153 0.193 0.453 255 255 255
0.092 0.203 0.455 255 255 255
0.077 -0.963 1.677 0 0 0
-0.556 0.04 0.79 255 255 255
-0.11 0.48 1.796 255 255 255
-0.607 0.604 1.516 255 255 255
-1.094 -1.227 2.131 255 255 255
-0.065 -0.864 1.889 0 0 0
-0.168 0.455 1.788 255 255 255
0.612 -0.004 0.911 255 255 255
-0.947 -0.181 2.575 255 255 255
-0.5 0.592 1.579 255 255 255
0.473 0.088 1.163 255 255 255
-0.015 0.7 1.385 255 255 255
0.187 -0.698 1.755 255 255 255
0.003 -0.228 1.947 255 255 255
-0.502 0.652 1.386 255 255 255
0.056 0.031 1.897 255 255 255
0.385 0.084 1.317 255 255 255
0.553 -0.032 1.005 255 255 255
-0.856 -0.125 1.183 255 255 255
0.304 -0.077 1.422 255 255 255
-0.502 0.68 1.297 255 255 255
-0.317 0.428 2.105 255 255 255
0.41 -0.119 1.234 255 255 255
-1.37 -0.318 2.282 255 255 255
0.316 0.378 1.493 255 255 255
0.562 -0.133 1.001 255 255 255
0.151 0.336 1.788 255 255 255
-0.75 -0.904 2.438 255 255 255
-0.559 0.501 1.747 255 255 255
0.191 -0.683 1.759 255 255 255
0.265 0.161 1.534 255 255 255
0.556 -0.485 1.123 255 255 255
-0.215 -0.072 2.029 255 255 255
-0.989 -0.047 2.597 255 255 255
0.519 -0.451 1.133 255 255 255
0.308 0.368 1.502 255 255 255
-0.437 -1.075 1.762 255 255 255
-0.808 -1.489 2.213 255 255 255
-0.517 0.659 1.358 255 255 255
-0.835 -0.346 2.59 255 255 255
0.143 0.578 1.787 255 255 255
-0.064 -1.17 1.772 255 255 255
-0.488 0.622 1.479 255 255 255
-0.753 -0.203 2.552 255 255 255
0.124 -0.099 1.734 255 255 255
-0.902 -0.546 2.478 255 255 255
0.024 0.48 2.023 255 255 255
0.121 0.147 1.794 255 255 255
0.074 0.493 1.941 255 255 255
-0.995 0.222 2.164 255 255 255
-1.114 -0.218 2.463 255 255 255
-0.129 0.451 1.804 255 255 255
-1.398 0.169 2.372 255 255 255
-0.347 -0.776 1.702 255 255 255
-1.219 -0.945 2.143 255 255 255
-1.345 -0.637 1.969 255 255 255
-0.732 -1.507 2.249 255 255 255
-0.655 0.399 2.017 255 255 255
0.097 -0.341 1.731 0 0 0
0.442 0.215 1.238 255 255 255
-0.898 -1.145 2.277 255 255 255
-0.489 -0.637 2.117 255 255 255
0.413 0.223 1.295 255 255 255
0.474 0.28 1.196 255 255 255
0.008 0.126 2.027 255 255 255
-1.313 -0.159 2.367 255 255 255
-0.334 -0.199 1.905 255 255 255
0.261 -0.228 1.47 255 255 255
-0.033 -0.211 2.006 255 255 255
-0.51 -1.198 2.282 255 255 255
-1.336 0.078 2.344 255 255 255
-0.896 0.271 2.299 255 255 255
-0.085 0.575 1.79 255 255 255
-0.335 0.764 2.075 255 255 255
-1.238 -0.865 2.168 255 255 255
-0.401 0.581 1.642 255 255 255
0.095 0.649 1.576 255 255 255
-0.769 0.198 2.393 255 255 255
-0.327 -0.746 1.701 255 255 255
-1.054 -1.328 2.119 255 255 255
-1.004 -1.309 2.156 255 255 255
-0.677 -0.881 2.297 255 255 255
-1.201 0.059 2.437 255 255 255
-0.33 -0.218 1.904 255 255 255
-0.963 0.494 1.797 255 255 255
0.135 0.063 1.745 255 255 255
-1.048 -1.056 2.214 255 255 255
-0.161 0.559 1.824 255 255 255
0.187 0.267 1.699 255 255 255
0.435 0.033 1.222 255 255 255
0.015 -1.097 1.753 255 255 255
-0.016 -0.39 1.943 255 255 255
-0.608 0.584 1.574 255 255 255
-0.309 0.703 1.282 255 255 255
-0.515 0.67 1.33 255 255 255
0.203 0.039 1.618 255 255 255
-0.208 -0.923 1.735 255 255 255
-0.123 0.036 2.203 255 255 255
0.186 -0.205 1.602 255 255 255
-1.059 -1.137 2.173 255 255 255
-0.336 0.703 1.271 255 255 255
-0.055 0.114 2.115 255 255 255
-1.093 -0.588 2.35 255 255 255
-1.048 -0.629 2.359 255 255 255
-0.481 0.598 1.56 255 255 255
-1.23 -0.897 2.155 255 255 255
0.579 0.21 1.018 255 255 255
0.089 -0.206 1.79 255 255 255
-0.653 0.001 0.913 255 255 255
0.144 -0.254 1.674 255 255 255
-0.164 -0.907 1.76 255 255 255
-0.379 0.429 2.041 0 0 0
-0.38 -0.103 1.904 255 255 255
-1.185 -0.915 2.178 255 255 255
-0.193 -0.514 1.883 255 255 255
0.487 0.278 1.173 255 255 255
0.255 -0.48 1.87 255 255 255
0.007 -0.35 1.918 255 255 255
-1.179 -0.409 1.683 255 255 255
0.548 0.07 1.032 255 255 255
0.504 -0.272 1.194 255 255 255
-1.092 -1.065 2.181 255 255 255
-0.161 0.561 1.819 255 255 255
-0.074 -0.61 1.99 0 0 0
-0.881 -0.832 2.395 255 255 255
0.562 0.095 1.009 255 255 255
-1.228 -0.19 2.402 255 255 255
0.398 0.46 1.366 0 0 0
-0.645 0.568 1.618 255 255 255
-0.236 -0.888 1.725 255 255 255
-0.546 0.615 1.492 255 255 255
0.504 0.224 1.135 255 255 255
-0.844 -1.002 2.36 255 255 255
0.525 -0.129 0.972 255 255 255
0.043 0.65 1.599 255 255 255
0.598 -0.063 0.904 255 255 255
0.308 0.173 1.464 255 255 255
-0.342 0.033 2 255 255 255
-1.062 -1.23 2.147 255 255 255
0.161 -0.204 1.649 255 255 255
-0.353 -0.292 1.85 255 255 255
0.289 0.486 1.573 255 255 255
0.568 -0.075 0.955 255 255 255
0.421 0.408 1.31 255 255 255
-0.772 -0.074 1.074 255 255 255
0.428 0.418 1.302 255 255 255
-0.074 0.32 2.153 255 255 255
0.122 0.221 1.808 255 255 255
-0.008 -0.777 1.853 255 255 255
-0.044 -0.394 1.982 255 255 255
-0.212 0.141 2.12 255 255 255
0.367 -0.175 1.298 255 255 255
0.079 -0.577 1.767 255 255 255
-0.093 -0.89 1.791 255 255 255
0.446 0.42 1.259 255 255 255
-0.622 0.403 1.954 0 0 0
-0.334 -0.291 1.873 255 255 255
0.377 0.088 1.331 255 255 255
-0.34 -0.294 1.865 255 255 255
-0.691 -0.55 2.394 255 255 255
-0.118 0.442 1.812 255 255 255
0.545 -0.196 1.142 255 255 255
-0.121 -0.136 2.086 255 255 255
0.262 -0.172 1.477 255 255 255
-0.971 0.262 2.34 255 255 255
-1.305 -0.601 2.217 255 255 255
-0.1 -1.014 1.734 0 0 0
-0.293 0.516 1.904 255 255 255
0.169 0.65 1.585 255 255 255
-1.304 -0.259 2.334 255 255 255
-0.267 -0.273 1.918 255 255 255
-0.19 -0.777 1.796 255 255 255
-0.951 -0.342 2.526 255 255 255
-0.587 0.05 0.911 255 255 255
0.416 0.217 1.289 255 255 255
-0.522 0.677 1.3 255 255 255
0.444 -0.115 1.177 255 255 255
-0.171 -0.685 1.82 255 255 255
0.23 0.407 1.66 255 255 255
0.511 -0.293 1.181 255 255 255
-0.867 0.392 1.97 255 255 255
-0.64 0.007 0.947 255 255 255
-0.915 -1.09 2.279 255 255 255
-1.076 -0.944 2.233 255 255 255
-0.539 0.611 1.504 255 255 255
0.067 -1.173 1.637 255 255 255
-0.219 0.698 1.317 255 255 255
-0.98 -0.481 2.452 255 255 255
-0.282 0.564 1.696 255 255 255
-1.117 -1.325 2.08 255 255 255
0.1 0.532 1.887 255 255 255
-1.198 -0.697 2.245 255 255 255
-1.241 -0.335 2.346 255 255 255
0.649 -0.174 0.986 255 255 255
0.111 -0.271 1.735 255 255 255
-0.923 0.445 1.938 255 255 255
0.131 0.307 1.817 255 255 255
0.532 0.267 1.093 255 255 255
-1.027 -0.787 2.316 255 255 255
0.41 0.225 1.304 255 255 255
-0.678 -0.814 2.317 255 255 255
0.608 -0.022 0.916 255 255 255
-0.874 -1.214 2.265 255 255 255
-0.29 0.321 2.116 255 255 255
-0.45 0.635 1.449 0 0 0
-0.088 -0.384 2.061 255 255 255
-0.772 -1.355 2.278 255 255 255
0.273 0.517 1.586 255 255 255
-1.014 -0.804 2.322 255 255 255
0.176 0.071 1.672 255 255 255
0.061 -0.581 1.769 255 255 255
-0.718 -1.517 2.257 255 255 255
0.459 -0.152 1.094 0 0 0
0.497 0.19 1.142 255 255 255
0.203 0.369 1.698 255 255 255
0.041 -0.634 1.809 0 0 0
0.497 -0.244 1.215 255 255 255
-1.028 -0.773 2.323 255 255 255
-0.139 -0.121 2.039 255 255 255
0.448 -0.137 1.152 0 0 0
-0.384 0.029 1.965 255 255 255
0.189 -0.233 1.596 255 255 255
-1.096 -0.508 2.369 255 255 255
-0.192 -1.488 2.011 0 0 0
-0.037 -1.088 1.828 255 255 255
-0.649 -0.746 2.358 255 255 255
-0.988 0.413 2.051 255 255 255
-0.746 0.389 2.058 255 255 255
-1.012 -1.025 2.245 255 255 255
0.454 0.378 1.248 255 255 255
-0.359 0.021 1.985 255 255 255
-0.306 -0.278 1.892 255 255 255
0.568 0.048 0.993 255 255 255
-0.613 0.011 2.436 255 255 255
-0.228 -0.58 1.843 255 255 255
0.507 0.16 1.118 255 255 255
0.042 0.031 1.928 255 255 255
0.472 0.02 1.157 255 255 255
-0.701 -0.605 2.384 255 255 255
0.338 0.063 1.392 255 255 255
-0.201 0.456 1.789 255 255 255
0.103 -0.035 1.789 255 255 255
-1.283 -0.18 2.379 255 255 255
-1.32 -0.234 2.331 255 255 255
-0.645 -0.379 2.48 255 255 255
0.134 0.588 1.758 255 255 255
0.277 -0.334 1.564 255 255 255
0.124 -1.079 1.618 255 255 255
-0.988 -1.56 2.08 0 0 0
0.235 0.593 1.664 255 255 255
-1.098 -0.986 2.206 255 255 255
0.178 -0.197 1.618 255 255 255
-0.741 -0.059 1.095 255 255 255
0.141 0.206 1.77 255 255 255
-1.223 -0.84 2.18 255 255 255
-0.641 0.384 2.077 255 255 255
0.354 0.147 1.381 255 255 255
-0.591 -1.498 2.335 255 255 255
-0.012 -0.807 1.853 255 255 255
0.454 0.41 1.25 255 255 255
-0.965 -0.882 2.324 255 255 255
0.241 -0.112 1.522 255 255 255
0.106 0.217 0.434 255 255 255
0.086 -0.796 1.694 255 255 255
-0.037 -1.173 1.81 0 0 0
-0.729 0.547 1.677 255 255 255
-1.283 -1.001 2.091 255 255 255
-1.018 0.248 2.143 255 255 255
-0.581 0.571 1.63 255 255 255
-1.292 -0.274 2.334 255 255 255
-0.032 -0.571 1.931 255 255 255
0.166 -0.712 1.763 255 255 255
0.538 0.227 1.073 255 255 255
-0.455 -0.568 2.141 255 255 255
0.114 0.48 1.87 255 255 255
-0.291 0.681 1.347 255 255 255
0.388 -0.211 1.218 255 255 255
-0.324 0.508 1.9 255 255 255
-0.32 0.669 1.375 255 255 255
0.049 -1.077 1.698 0 0 0
-0.335 -0.846 1.673 255 255 255
-1.359 -0.362 2.27 255 255 255
0.575 0.09 0.99 255 255 255
0.258 0.586 1.631 255 255 255
-0.858 0.261 2.313 255 255 255
0.436 0.11 1.231 255 255 255
-0.597 0.601 1.519 255 255 255
-0.228 -0.342 1.913 255 255 255
-0.97 0.422 1.889 255 255 255
-0.662 -0.621 2.393 255 255 255
0.044 0.628 1.647 255 255 255
-0.95 -0.154 1.241 255 255 255
-1.153 -0.248 2.43 255 255 255
-0.332 -0.484 1.816 255 255 255
-0.479 0.468 1.817 255 255 255
0.483 -0.22 1.235 255 255 255
-0.566 0.049 2.387 255 255 255
-0.074 0.16 2.157 255 255 255
-0.393 -0.022 1.932 255 255 255
-0.66 0.491 1.822 0 0 0
-1.017 -1.035 2.242 255 255 255
-1.313 -0.03 2.405 255 255 255
0.406 -0.066 1.25 255 255 255
-1.161 -0.709 2.262 255 255 255
0.579 0.046 0.976 255 255 255
0.111 -0.156 1.748 255 255 255
-1.128 -0.917 2.216 255 255 255
-0.284 0.953 2.076 255 255 255
-0.606 -1.141 2.244 255 255 255
-0.805 -0.114 2.672 255 255 255
0.055 -0.506 1.802 0 0 0
0.533 -0.002 1.046 255 255 255
0.055 -0.137 1.869 255 255 255
0.28 0.228 1.52 255 255 255
0.496 -0.229 1.223 255 255 255
0.135 0.06 1.744 255 255 255
-0.828 -1.544 2.181 255 255 255
0.146 0.283 1.778 255 255 255
0.083 0.243 1.894 255 255 255
-0.607 -1.187 2.233 255 255 255
0.343 0.231 1.412 255 255 255
0.148 -0.542 1.814 255 255 255
-1.134 -0.575 2.327 255 255 255
-0.215 0.585 1.731 255 255 255
-0.008 -0.631 1.884 255 255 255
0.513 -0.256 1.191 255 255 255
0.547 0.056 1.032 255 255 255
-0.122 0.585 1.727 255 255 255
-1.373 -0.473 2.218 255 255 255
0.652 -0.126 0.96 255 255 255
-0.193 -0.45 1.899 255 255 255
-1.349 -0.798 2.115 255 255 255
-0.752 -0.692 2.49 255 255 255
-1.279 -0.359 2.314 255 255 255
-0.792 -0.836 2.446 255 255 255
0.26 0.134 1.54 255 255 255
-0.729 -1.709 2.191 255 255 255
0.338 -0.307 1.474 255 255 255
0.369 0.257 1.372 255 255 255
-0.342 0.468 2.066 255 255 255
-0.318 0.947 2.061 255 255 255
-0.1 -0.707 1.847 255 255 255
0.524 -0.628 1.089 255 255 255
-0.049 -0.605 1.959 255 255 255
0.662 -0.158 0.947 255 255 255
-0.994 -0.717 2.363 255 255 255
-0.258 -0.218 1.946 255 255 255
-0.126 -0.161 2.032 255 255 255
-0.862 0.051 2.708 255 255 255
-0.884 0.386 1.955 255 255 255
-1.108 -1.096 2.168 255 255 255
-0.546 -0.973 2.279 255 255 255
0.586 0.041 0.961 255 255 255
0.135 -1.104 1.613 255 255 255
-0.285 0.916 2.094 255 255 255
-0.384 0.668 1.37 255 255 255
-1.262 -0.22 2.373 255 255 255
-1.227 -0.445 2.32 255 255 255
-0.489 0.573 1.647 255 255 255
-0.798 0.559 1.617 255 255 255
-0.327 -0.276 1.88 255 255 255
-1.155 -0.385 1.674 255 255 255
-0.045 -0.069 2.056 255 255 255
-0.494 -0.177 2.197 255 255 255
-1.186 -0.337 2.38 255 255 255
-1.3 -0.644 2.201 255 255 255
0.456 0.04 1.185 255 255 255
0.086 -0.926 1.658 255 255 255
-0.072 0.694 1.393 255 255 255
-0.232 -0.959 1.701 255 255 255
-0.115 0.657 1.508 255 255 255
0.119 0.004 1.764 255 255 255
0.102 0.206 0.441 255 255 255
0.458 0.035 1.183 255 255 255
-0.452 0.428 1.945 255 255 255
0.343 0.228 1.411 255 255 255
0.211 -0.132 1.572 255 255 255
-0.225 -0.223 1.963 255 255 255
-0.584 0.047 0.89 255 255 255
0.122 -0.062 1.751 255 255 255
-0.047 0.126 2.102 255 255 255
0.123 0.47 1.848 255 255 255
-0.304 -0.102 1.967 255 255 255
0.446 -0.167 1.09 0 0 0
0.382 -0.594 2.014 255 255 255
0.109 -0.059 1.776 255 255 255
0.392 -0.129 1.263 255 255 255
0.098 0.608 1.694 255 255 255
-0.448 0.42 1.966 255 255 255
-1.159 -0.767 2.244 255 255 255
-1.394 -0.446 2.235 255 255 255
-0.5 -0.56 2.138 255 255 255
-1.237 -0.165 2.409 255 255 255
0.244 0.281 1.593 255 255 255
0.079 -0.212 1.806 255 255 255
-0.083 0.585 1.75 255 255 255
-0.5 0.586 1.605 255 255 255
-0.66 -0.673 2.375 255 255 255
-0.066 -0.544 1.999 0 0 0
-0.368 0.207 2.047 255 255 255
0.527 -0.664 1.076 255 255 255
0.562 0.144 1.023 255 255 255
0.242 0.386 1.629 255 255 255
-0.315 0.091 2.039 255 255 255
0.298 0.397 1.531 255 255 255
-1.062 0.162 2.454 255 255 255
-1.204 -0.236 2.401 255 255 255
0.136 -0.418 1.816 255 255 255
-0.475 0.599 1.562 255 255 255
0.623 0.029 0.899 255 255 255
0.669 -0.12 0.932 255 255 255
-0.106 0.286 2.19 255 255 255
-0.013 -1.153 1.787 255 255 255
0.378 0.046 1.323 255 255 255
0.123 -0.763 1.719 255 255 255
-0.708 0.161 2.611 255 255 255
-1.166 -0.176 2.448 255 255 255
-1.36 -0.784 2.116 255 255 255
0.396 0.149 1.312 255 255 255
0.069 0.303 1.932 255 255 255
0.13 0.149 1.774 255 255 255
-0.057 -0.46 2 255 255 255
0.39 -0.189 1.225 0 0 0
0.491 0.201 1.152 255 255 255
-0.119 -0.897 1.778 255 255 255
0.605 0.026 0.928 255 255 255
-0.392 0.539 1.814 255 255 255
-1.349 -0.803 2.114 255 255 255
0.627 0.033 0.893 255 255 255
0.282 0.013 1.479 255 255 255
-0.649 0.003 0.893 255 255 255
-0.759 0.206 2.377 255 255 255
-1.365 -0.502 2.211 255 255 255
-1.119 -1.192 2.122 255 255 255
-0.135 0.683 1.396 255 255 255
0.21 -0.144 1.569 255 255 255
0.298 0.429 1.54 255 255 255
0.487 -0.124 1.082 255 255 255
0.428 0.114 1.247 255 255 255
-0.029 -0.139 2.015 255 255 255
0.108 -0.32 1.733 255 255 255
-0.033 -1.066 1.832 255 255 255
-1.16 0.08 2.452 255 255 255
0.132 0.05 1.75 255 255 255
0.187 0.158 1.671 255 255 255
0.469 -0.081 1.141 255 255 255
0.162 -0.759 1.746 255 255 255
0.285 0.418 1.561 255 255 255
0.34 0.55 1.481 255 255 255
0.166 -0.734 1.756 255 255 255
-0.058 0.68 1.421 255 255 255
0.425 0.008 1.234 255 255 255
0.344 -0.305 1.461 255 255 255
-0.085 -0.81 1.818 255 255 255
-0.948 -1.265 2.204 255 255 255
-1.2 -0.871 2.184 255 255 255
-0.089 -0.698 1.857 255 255 255
0.522 -0.282 1.174 255 255 255
-1.034 -1.414 2.102 255 255 255
-0.123 -0.961 1.753 255 255 255
-0.173 0.225 2.159 255 255 255
-0.249 -0.846 1.727 255 255 255
-0.411 0.67 1.354 255 255 255
0.363 0.072 1.353 255 255 255
0.36 0.039 1.352 255 255 255
-0.486 0.508 1.746 255 255 255
-0.795 -1.257 2.297 255 255 255
0.241 0.487 1.652 255 255 255
0.511 0.031 1.092 255 255 255
-0.684 0.255 2.051 255 255 255
-0.323 -0.644 1.749 255 255 255
-1.107 -0.261 1.582 0 0 0
-1.175 0.19 2.454 255 255 255
0.458 0.398 1.248 255 255 255
-0.596 -0.868 2.219 255 255 255
-0.83 -1.452 2.211 255 255 255
-0.649 -0.32 2.502 255 255 255
-1.067 -0.281 2.472 255 255 255
-0.271 -0.368 1.88 255 255 255
0.38 0.296 1.362 255 255 255
-0.134 -0.348 1.953 255 255 255
-0.701 -1.604 2.238 255 255 255
-0.636 0.145 2.523 255 255 255
0.512 -0.052 1.077 255 255 255
-0.867 -0.798 2.413 255 255 255
-0.955 -0.79 2.363 255 255 255
0.127 -0.873 1.687 255 255 255
0.094 -0.687 1.734 255 255 255
-1.023 -0.935 2.271 255 255 255
-0.743 -0.99 2.411 255 255 255
0.08 -0.933 1.672 0 0 0
0.105 -1.027 1.625 255 255 255
-1.02 -1.372 2.13 255 255 255
-1.338 -0.851 2.103 255 255 255
-0.299 -0.132 1.956 255 255 255
0.385 -0.112 1.278 255 255 255
0.457 0.272 1.225 255 255 255
-0.081 0.001 2.132 255 255 255
-1.137 0.259 2.072 255 255 255
-1.339 -0.025 2.395 255 255 255
-0.112 -0.051 2.164 255 255 255
0.307 0.389 1.511 255 255 255
-1.031 0.314 2.11 255 255 255
-0.571 0.659 1.344 255 255 255
-0.315 0.692 1.312 255 255 255
-0.108 -0.334 1.984 255 255 255
0.118 0.224 0.417 255 255 255
-0.548 0.496 1.762 255 255 255
0.374 -0.255 1.367 255 255 255
0.489 -0.009 1.121 255 255 255
-0.077 0.103 2.144 255 255 255
-1.001 0.32 2.09 255 255 255
-0.625 -0.882 2.294 255 255 255
-0.305 -0.953 1.658 255 255 255
-0.911 -1.491 2.149 255 255 255
-0.101 -0.613 1.876 255 255 255
-0.953 0.246 2.184 255 255 255
-0.548 -0.902 2.195 255 255 255
-0.552 -0.77 2.402 255 255 255
-1.299 -0.538 2.238 255 255 255
0.537 -0.008 1.039 255 255 255
0.003 -0.842 1.823 255 255 255
-1.03 -0.988 2.246 255 255 255
0.321 -0.216 1.347 0 0 0
-0.004 0.538 1.91 255 255 255
-0.237 -0.521 1.86 255 255 255
-0.506 0.65 1.389 255 255 255
0.5 -0.134 0.986 0 0 0
-0.35 0.692 1.299 255 255 255
0.063 0.02 1.879 255 255 255
-1.104 -0.522 2.359 255 255 255
-1.34 -0.313 2.295 255 255 255
-1.042 -1.16 2.179 255 255 255
-0.704 -1.516 2.269 255 255 255
-0.748 -1.182 2.353 255 255 255
0.015 -0.835 1.806 255 255 255
0.53 -0.362 1.146 255 255 255
-0.105 -1.396 1.874 0 0 0
0.246 0.58 1.647 255 255 255
0.567 0.091 1.003 255 255 255
0.309 0.732 1.317 255 255 255
-0.277 0.164 2.093 255 255 255
-0.517 0.072 0.773 255 255 255
0.524 -0.361 1.152 255 255 255
0.053 -1.121 1.676 255 255 255
-0.973 0.301 2.167 255 255 255
0.107 0.272 1.853 255 255 255
0.236 -0.162 1.526 255 255 255
-0.262 -0.676 1.787 0 0 0
-0.204 -0.407 1.9 255 255 255
0.54 -0.381 1.145 255 255 255
-1.316 -0.777 2.147 255 255 255
-0.334 0.305 2.094 255 255 255
-0.163 -0.84 1.776 255 255 255
0.22 0.609 1.68 255 255 255
-0.025 -0.067 2.023 255 255 255
-1.108 -0.942 2.216 255 255 255
0.471 -0.139 1.104 0 0 0
0.135 0.039 1.742 255 255 255
-0.624 -1.058 2.258 255 255 255
0.102 -0.172 1.764 255 255 255
-0.232 -0.571 1.841 255 255 255
-0.898 -1.604 2.11 255 255 255
-1.365 -0.288 2.287 255 255 255
-0.803 -0.059 2.686 255 255 255
-0.309 0.041 2.024 255 255 255
0.52 -0.224 1.184 255 255 255
0.528 0.127 1.074 255 255 255
0.454 0.337 1.24 255 255 255
0.213 0.284 1.651 255 255 255
0.032 0.493 2.006 255 255 255
-0.093 0.482 1.82 255 255 255
-0.274 -0.909 1.694 255 255 255
0.048 -0.245 1.865 255 255 255
-0.024 -0.35 1.965 255 255 255
0.391 -0.049 1.281 255 255 255
0.626 -0.195 1.029 255 255 255
0.071 0.596 1.727 255 255 255
-0.775 -1.532 2.215 255 255 255
-1.006 -1.175 2.197 255 255 255
0.312 0.356 1.494 255 255 255
-0.417 0.569 1.682 255 255 255
0.437 0.051 1.221 255 255 255
0.469 0.19 1.187 255 255 255
-0.358 -0.104 1.934 255 255 255
-0.07 0.653 1.502 255 255 255
-0.201 0.427 1.794 255 255 255
0.097 -0.703 1.732 255 255 255
0.509 -0.415 1.159 255 255 255
-0.059 0.005 2.095 255 255 255
-0.205 0.446 1.795 255 255 255
-0.598 0.621 1.457 255 255 255
0.044 -0.272 1.866 255 255 255
-0.988 0.012 2.593 255 255 255
-0.97 0.414 1.941 255 255 255
0.321 -0.103 1.39 255 255 255
-1.209 -0.522 2.296 255 255 255
-0.577 -1.529 2.334 255 255 255
-0.559 0.589 1.569 255 255 255
0.347 0.177 1.398 255 255 255
0.297 0.081 0.479 255 255 255
0.398 0.388 1.349 255 255 255
-1.1 -0.28 1.732 255 255 255
-0.474 -0.481 2.158 255 255 255
-0.695 0.059 2.586 255 255 255
0.586 -0.074 0.922 255 255 255
0.304 0.292 1.491 255 255 255
0.436 0.105 1.231 255 255 255
0.506 -0.106 1.063 255 255 255
-0.364 0.445 2.076 0 0 0
-0.201 -0.451 1.901 255 255 255
0.225 0.49 1.665 255 255 255
-0.476 0.538 1.73 255 255 255
0.034 -1.199 1.688 255 255 255
0.245 -0.157 1.507 255 255 255
-0.348 -0.271 1.866 255 255 255
-0.397 0.323 2.061 255 255 255
-1.112 -0.274 2.443 255 255 255
-0.782 -0.553 2.542 255 255 255
0.414 0.14 1.28 255 255 255
-1.328 -0.78 2.135 255 255 255
-0.957 -0.562 2.439 255 255 255
-0.225 -1.012 1.682 0 0 0
0.425 0.406 1.304 255 255 255
-0.795 0.363 2.079 255 255 255
-0.745 0.451 1.994 255 255 255
-1.01 -0.922 2.284 255 255 255
0.264 -0.195 1.469 255 255 255
0.161 0.282 1.749 255 255 255
-1.371 -0.502 2.21 255 255 255
0.537 -0.412 1.132 255 255 255
-0.964 -1.133 2.232 255 255 255
-0.171 -0.757 1.8 255 255 255
-1.24 -0.472 2.295 255 255 255
-0.988 -1.072 2.243 255 255 255
-0.305 -0.322 1.88 255 255 255
-0.243 -0.955 1.7 255 255 255
-1.046 -0.883 2.271 255 255 255
0.364 -0.16 1.309 255 255 255
-0.541 0.493 1.764 255 255 255
0.567 0.248 1.036 255 255 255
-0.483 0.624 1.476 255 255 255
0.401 -1.013 1.31 255 255 255
-0.735 0.571 1.59 255 255 255
0.267 0.199 1.54 255 255 255
0.339 -0.134 1.355 255 255 255
0.099 -0.081 1.788 255 255 255
-0.786 -1.197 2.325 255 255 255
-0.02 -0.816 1.862 255 255 255
-0.016 -0.585 1.907 255 255 255
-0.703 -0.542 2.401 255 255 255
-0.935 -0.592 2.436 255 255 255
0.449 0.233 1.233 255 255 255
-0.349 0.668 1.369 255 255 255
0.332 -0.132 1.365 255 255 255
0.011 -0.501 1.885 0 0 0
-0.714 -1.535 2.255 255 255 255
-1.174 -1.138 2.111 255 255 255
0.147 -1.185 1.588 0 0 0
0.105 -0.308 1.744 255 255 255
-0.218 -0.903 1.731 255 255 255
0.62 0.139 1.001 255 255 255
-0.815 -0.693 2.48 255 255 255
-0.669 -0.647 2.375 255 255 255
0.291 0.213 1.499 255 255 255
0.548 -0.008 1.019 255 255 255
0.528 -0.575 1.096 255 255 255
-0.271 0.39 2.094 255 255 255
-0.269 -0.059 2.007 255 255 255
0.104 0.617 1.676 255 255 255
0.427 0.244 1.273 255 255 255
0.182 -0.284 1.585 0 0 0
0.325 0.299 1.458 255 255 255
-0.591 0.175 2.445 255 255 255
0.472 -0.047 1.143 255 255 255
-0.561 -0.993 2.271 255 255 255
0.377 0.163 1.345 255 255 255
0.555 0.195 1.045 255 255 255
-0.342 0.863 2.07 255 255 255
-0.914 0.476 1.843 255 255 255
0.193 0.174 1.664 255 255 255
-0.449 0.578 1.645 255 255 255
0.242 -0.194 1.507 255 255 255
0.556 0.023 1.01 255 255 255
-0.274 0.113 2.073 255 255 255
-0.351 0.33 2.086 255 255 255
-1.137 -0.511 2.344 255 255 255
-0.332 0.115 2.038 255 255 255
0.438 -0.152 1.159 0 0 0
0.383 0.454 1.391 255 255 255
-0.904 -0.769 2.397 255 255 255
-0.108 -0.933 1.77 255 255 255
0.43 -0.131 1.197 255 255 255
-0.872 0.251 2.308 255 255 255
0.395 0.291 1.334 255 255 255
-0.684 0.585 1.557 255 255 255
0.382 0.36 1.371 255 255 255
-0.19 -1.068 1.693 255 255 255
0.375 0.405 1.394 255 255 255
-0.711 0.516 1.784 255 255 255
-0.31 -1.084 1.668 255 255 255
0.506 -0.25 1.203 255 255 255
-0.6 0.294 2.135 255 255 255
0.028 0.384 2.008 255 255 255
-1.028 -1.529 2.05 0 0 0
0.242 -0.45 1.861 255 255 255
0.522 0.148 1.092 255 255 255
0.384 -0.171 1.261 0 0 0
0.151 0.244 1.76 255 255 255
0.465 0.057 1.172 255 255 255
0.299 0.592 1.564 0 0 0
-0.905 -0.928 2.345 255 255 255
-0.383 -0.118 1.899 255 255 255
0.019 -0.986 1.767 255 255 255
-0.249 0.005 2.044 255 255 255
0.464 0.357 1.23 255 255 255
0.595 -0.012 0.941 255 255 255
0.027 0.167 1.991 255 255 255
-0.866 -0.442 2.536 255 255 255
0.423 -0.062 1.221 255 255 255
0.323 0.534 1.514 0 0 0
0.293 0.147 1.482 255 255 255
-0.894 0.073 2.697 255 255 255
-1.17 -0.703 2.258 255 255 255
-1.192 -1.007 2.142 255 255 255
-0.987 0.263 2.155 255 255 255
-0.234 0.943 2.114 255 255 255
-0.679 0.175 2.584 255 255 255
0.519 0.089 1.085 255 255 255
-0.328 -0.128 1.942 255 255 255
-0.227 0.7 1.312 255 255 255
-0.446 0.664 1.357 255 255 255
-0.962 0.089 2.652 255 255 255
-1.35 -0.576 1.997 255 255 255
-0.237 -0.015 2.039 255 255 255
0.444 0.421 1.27 255 255 255
-0.117 0.684 1.399 255 255 255
0.103 0.621 1.666 255 255 255
-0.079 -0.733 1.871 0 0 0
-0.171 -0.83 1.782 255 255 255
-0.419 0.476 1.842 255 255 255
-0.651 0.268 2.091 255 255 255
-1.009 -0.215 2.522 255 255 255
0.379 0.432 1.392 255 255 255
-0.296 0.526 1.866 255 255 255
-0.612 0.156 2.47 255 255 255
-0.882 -0.097 2.642 255 255 255
-0.995 0.054 2.55 255 255 255
-0.331 0.691 1.306 255 255 255
-0.92 -0.163 1.291 255 255 255
-0.729 0.424 2.017 255 255 255
0.203 0.155 1.642 255 255 255
-0.181 0.567 1.785 255 255 255
0.486 0.374 1.196 255 255 255
0.096 0.476 1.903 255 255 255
-0.382 0.34 2.066 255 255 255
-1.051 -1.238 2.144 255 255 255
-1.114 -0.528 2.355 255 255 255
-0.529 -0.537 2.132 255 255 255
-0.08 -1.122 1.777 255 255 255
-1.327 -0.672 2.179 255 255 255
-0.127 0.677 1.412 255 255 255
0.311 0.021 1.431 255 255 255
0.071 -0.394 1.761 0 0 0
0.526 -0.435 1.133 255 255 255
0.278 0.301 1.541 255 255 255
0.271 -0.047 1.485 255 255 255
-0.863 -0.355 2.569 255 255 255
0.242 0.438 1.645 255 255 255
0.237 0.212 1.592 255 255 255
0.154 -1.138 1.605 255 255 255
0.57 0.199 1.023 255 255 255
-0.514 -1.19 2.278 255 255 255
0.56 0.091 1.014 255 255 255
-0.326 -0.035 1.981 255 255 255
0.319 0.229 1.455 255 255 255
0.617 -0.063 0.866 255 255 255
-0.417 0.363 2.047 255 255 255
-0.336 0.496 1.901 255 255 255
-1.027 -0.782 2.318 255 255 255
0.129 0.597 1.737 255 255 255
-0.162 0.598 1.696 255 255 255
0.501 0.071 1.111 255 255 255
-0.141 -1.259 1.947 0 0 0
-0.191 -0.349 1.933 255 255 255
0.281 -0.014 1.473 255 255 255
0.484 0.327 1.191 255 255 255
-1.118 -0.239 2.457 255 255 255
-0.062 -1.017 1.763 0 0 0
-0.738 0.517 1.779 255 255 255
-0.68 0.509 1.794 0 0 0
-0.291 -0.849 1.703 255 255 255
0.293 0.075 0.473 255 255 255
-0.786 -1.285 2.295 255 255 255
-0.913 -1.385 2.184 255 255 255
-0.66 -0.01 0.928 255 255 255
0.439 -0.139 1.177 0 0 0
-0.146 0.142 2.152 255 255 255
-0.212 0.431 1.793 255 255 255
-0.342 -0.019 1.98 255 255 255
-0.155 -0.28 1.977 255 255 255
-0.975 0.5 1.783 255 255 255
-0.544 -0.28 2.303 255 255 255
-1.063 -0.491 2.4 255 255 255
-0.058 -0.122 2.061 255 255 255
0.565 -0.199 1.109 255 255 255
-0.028 -0.641 1.914 255 255 255
-0.85 0.46 1.889 255 255 255
0.446 0.068 1.208 255 255 255
-0.238 0.026 2.055 255 255 255
-0.651 -0.296 2.51 255 255 255
0.395 -0.159 1.252 255 255 255
0.107 0.572 1.806 255 255 255
0.595 0.009 0.942 255 255 255
-0.291 -1.083 1.639 255 255 255
0.553 -0.416 1.147 255 255 255
0.589 0.043 0.961 255 255 255
-0.373 0.436 2.055 0 0 0
0.261 0.172 1.544 255 255 255
0.518 -0.332 1.164 255 255 255
0.202 -0.892 1.694 255 255 255
-0.358 -0.649 1.735 255 255 255
-0.556 0.486 1.765 255 255 255
0.146 0.661 1.542 255 255 255
-0.646 -0.395 2.482 255 255 255
-0.656 0.552 1.673 255 255 255
-0.552 -1.145 2.275 255 255 255
-0.316 -0.09 1.967 255 255 255
-0.954 0.029 2.645 255 255 255
0.621 -0.01 0.896 255 255 255
0.494 -0.23 1.24 255 255 255
-0.901 -0.909 2.354 255 255 255
-0.347 0.506 1.875 255 255 255
-0.637 -1.012 2.265 255 255 255
-1.29 -0.668 2.199 255 255 255
0.298 0.358 1.517 255 255 255
-0.672 -1.018 2.259 0 0 0
-0.782 -1.427 2.246 255 255 255
-0.521 -0.066 2.219 255 255 255
-0.25 -0.83 1.738 255 255 255
-1.023 -0.71 2.35 255 255 255
-0.448 0.685 1.293 255 255 255
-0.919 0.518 1.725 255 255 255
-0.063 0.692 1.39 255 255 255
-0.558 0.525 1.711 255 255 255
-0.423 0.427 1.946 255 255 255
-0.241 -0.267 1.933 255 255 255
-1.271 -0.78 2.174 255 255 255
-0.739 -0.082 2.547 255 255 255
-0.769 -0.731 2.486 255 255 255
0.593 -0.025 0.942 255 255 255
0.112 -0.775 1.71 255 255 255
-0.148 -0.461 1.916 255 255 255
-0.046 -1.304 1.804 0 0 0
-0.343 0.676 1.351 255 255 255
0.216 0.643 1.609 255 255 255
-0.241 -1.018 1.66 0 0 0
0.533 -0.647 1.076 255 255 255
-0.342 0.684 1.332 255 255 255
0.099 0.182 1.849 255 255 255
0.47 -0.143 1.037 0 0 0
-0.349 -0.217 1.896 255 255 255
0.214 -0.869 1.716 255 255 255
-1.235 -0.492 2.293 255 255 255
-0.359 -0.19 1.892 255 255 255
-0.32 -0.901 1.657 255 255 255
-0.362 -0.543 1.759 255 255 255
-1.173 0.333 2.1 255 255 255
-0.073 -1.02 1.744 0 0 0
-0.834 -0.429 2.56 255 255 255
0.43 -0.106 1.2 255 255 255
0.073 -0.446 1.808 255 255 255
-0.321 -0.96 1.638 255 255 255
0.086 -0.682 1.731 255 255 255
0.439 -0.017 1.205 255 255 255
-0.597 0.61 1.487 255 255 255
-0.127 -0.733 1.826 255 255 255
-1.252 0.179 2.425 255 255 255
-0.233 -0.761 1.774 255 255 255
0.416 0.285 1.298 255 255 255
0.527 -0.726 1.07 255 255 255
-0.095 0.64 1.546 255 255 255
0.298 0.321 1.508 255 255 255
-0.487 -0.582 2.137 255 255 255
0.472 0.056 1.157 255 255 255
0.435 0.087 1.23 255 255 255
0.008 0.138 2.025 255 255 255
-0.622 0.019 0.928 255 255 255
0.369 0.471 1.418 255 255 255
-0.028 -0.397 1.958 255 255 255
-0.127 -0.666 1.848 255 255 255
-0.861 -1.284 2.252 255 255 255
-0.736 0.563 1.613 255 255 255
-0.682 -0.072 2.556 255 255 255
-0.231 -0.387 1.897 255 255 255
0.58 -0.063 0.954 255 255 255
-0.367 0.471 2.038 255 255 255
-0.692 -0.025 1.019 255 255 255
0.161 -1.021 1.642 0 0 0
-0.138 -0.02 2.087 255 255 255
-1.287 -0.21 2.362 255 255 255
-0.028 -0.546 1.931 255 255 255
-0.328 0.521 1.875 255 255 255
0.562 -0.156 1.074 255 255 255
0.124 0.262 0.476 255 255 255
0.513 0.194 1.115 255 255 255
-1.316 -0.363 2.291 255 255 255
-0.518 0.598 1.552 255 255 255
0.08 -0.028 1.837 255 255 255
-0.186 -0.966 1.734 255 255 255
-0.593 0.385 2.068 255 255 255
-0.547 -1.091 2.245 255 255 255
0.181 -0.928 1.697 255 255 255
-0.828 -1.288 2.267 255 255 255
0.543 0.29 1.084 255 255 255
-0.944 -0.357 2.523 255 255 255
-0.35 0.309 2.087 255 255 255
0.113 -0.645 1.757 255 255 255
-0.975 -0.872 2.323 255 255 255
0.365 0.533 1.439 255 255 255
-0.315 -1.541 2.261 255 255 255
0.368 0.006 1.33 255 255 255
0.093 0.248 1.873 255 255 255
-0.876 -0.682 2.445 255 255 255
0.157 -0.809 1.718 255 255 255
0.323 0.072 1.416 255 255 255
0.185 0.439 1.753 255 255 255
-0.887 0.237 2.306 255 255 255
-0.115 -1.011 1.727 0 0 0
0.5 -0.085 1.091 255 255 255
-0.125 0.263 2.225 255 255 255
-0.03 0.331 2.111 255 255 255
-0.087 -0.607 1.912 0 0 0
-0.487 0.341 2.111 255 255 255
0.382 0.228 1.347 255 255 255
-0.308 0.415 2.109 255 255 255
0.567 0.197 1.027 255 255 255
-0.168 -0.4 1.927 255 255 255
-0.862 -0.973 2.355 255 255 255
0.179 0.507 1.754 255 255 255
0.5 0.036 1.109 255 255 255
-0.602 0.442 1.923 0 0 0
0.484 0.005 1.134 255 255 255
-0.289 -0.546 1.816 255 255 255
-0.874 0.302 2.323 255 255 255
-1.101 0.125 2.439 255 255 255
0.508 0.2 1.123 255 255 255
-1.286 0.053 2.39 255 255 255
0.341 0.149 1.401 255 255 255
0.297 0.53 1.548 255 255 255
0.217 0.573 1.696 255 255 255
-0.145 -0.18 2.012 255 255 255
-1.072 -0.225 2.489 255 255 255
-0.127 -0.146 2.042 255 255 255
-0.758 -1.093 2.377 255 255 255
-0.099 0.364 2.13 255 255 255
-0.613 0.575 1.612 255 255 255
-0.261 0.497 1.899 255 255 255
-1.034 -0.753 2.327 255 255 255
0.613 -0.038 0.904 255 255 255
0.636 -0.172 0.993 255 255 255
-1.145 -0.609 2.308 255 255 255
0.106 0.407 1.882 255 255 255
-0.83 -0.812 2.432 255 255 255
0.214 -0.088 1.576 255 255 255
-0.176 -0.527 1.871 255 255 255
0.173 -0.612 1.785 255 255 255
-0.673 -0.33 2.491 255 255 255
0.336 0.164 1.413 255 255 255
-1.246 -1.012 2.107 255 255 255
-0.868 -0.778 2.42 255 255 255
0.033 -0.3 1.879 255 255 255
-0.079 -0.423 2.041 255 255 255
-0.434 0.682 1.31 255 255 255
-0.84 -1.465 2.199 255 255 255
0.388 0.033 1.302 255 255 255
0.027 0.06 1.968 255 255 255
-0.728 -1.526 2.248 255 255 255
-0.25 -0.826 1.738 255 255 255
-0.279 0.491 1.918 255 255 255
-0.491 -0.042 2.11 255 255 255
0.109 -0.668 1.746 255 255 255
-0.06 0.515 1.962 255 255 255
0.045 -1.055 1.709 0 0 0
-0.269 -0.141 1.972 255 255 255
0.118 -0.027 1.756 255 255 255
-0.409 0.622 1.503 255 255 255
-0.272 0.071 2.059 255 255 255
-0.451 0.368 2.046 255 255 255
-1.12 -0.581 2.333 255 255 255
0.089 -0.185 1.791 255 255 255
0.388 -0.191 1.17 0 0 0
-0.639 -0.501 2.441 255 255 255
-1.372 -0.426 2.242 255 255 255
-0.345 0.221 2.064 255 255 255
-0.692 0.479 1.867 0 0 0
-1.309 -0.087 2.386 255 255 255
0.199 0.197 1.657 255 255 255
-0.324 0.456 2.091 255 255 255
-0.209 0.08 2.095 255 255 255
-1.246 -0.661 2.229 255 255 255
-0.875 -0.553 2.496 255 255 255
0.064 0.169 1.916 255 255 255
-0.236 -0.776 1.761 255 255 255
-0.925 -1.015 2.301 255 255 255
0.421 -0.083 1.22 255 255 255
0.567 0.218 1.03 255 255 255
-1.023 0.431 1.896 255 255 255
0.522 -0.655 1.089 255 255 255
-0.171 0.711 1.301 255 255 255
-0.747 0.15 2.609 255 255 255
-0.079 -0.39 2.049 255 255 255
0.132 -0.277 1.69 255 255 255
0.468 0.204 1.191 255 255 255
-0.587 0.648 1.372 255 255 255
0.273 0.243 1.535 255 255 255
-0.391 0.85 2.044 255 255 255
0.1 0.208 0.443 255 255 255
-0.175 0.15 2.134 255 255 255
-0.795 -1.072 2.36 255 255 255
0.282 0.222 1.517 255 255 255
-0.418 -0.051 1.973 255 255 255
-0.732 -1.655 2.204 0 0 0
-0.356 0.554 1.764 255 255 255
-0.485 0.688 1.282 255 255 255
-0.352 0.065 2.01 255 255 255
-0.178 0.257 2.167 255 255 255
-0.531 0.129 2.344 255 255 255
-0.762 -1.673 2.183 255 255 255
-0.385 0.69 1.295 255 255 255
-0.269 -0.328 1.897 255 255 255
0.373 -0.604 2.006 255 255 255
0.251 0.453 1.632 255 255 255
0.631 0.003 0.883 255 255 255
0.327 0.053 0.525 255 255 255
0.648 -0.157 0.977 255 255 255
-0.612 0.609 1.498 255 255 255
-0.067 -0.115 2.077 255 255 255
0.27 0.092 1.514 255 255 255
0.152 0.454 1.784 255 255 255
-0.649 0.005 0.973 255 255 255
-1.282 -0.496 2.268 255 255 255
-0.885 -0.14 1.254 255 255 255
0.653 -0.105 0.918 255 255 255
0.138 0.683 1.478 255 255 255
-0.407 -1.748 2.346 0 0 0
-0.239 -0.897 1.718 255 255 255
0.387 0.2 1.328 255 255 255
0.661 -0.162 0.954 255 255 255
-1.372 -0.128 2.341 255 255 255
-0.858 -0.679 2.458 255 255 255
-1.365 0.058 2.341 255 255 255
-0.19 -0.024 2.063 255 255 255
-1.347 -0.484 2.234 255 255 255
-1.183 -1.117 2.112 255 255 255
-0.34 -0.176 1.915 255 255 255
0.403 0.427 1.348 255 255 255
-0.025 0.029 2.05 255 255 255
-0.576 0.041 0.856 255 255 255
0.575 -0.047 0.969 255 255 255
-0.386 0.952 2.041 255 255 255
0.327 -0.544 1.997 255 255 255
-0.732 -1.524 2.244 255 255 255
-0.34 -0.424 1.823 255 255 255
0.336 -0.22 1.28 0 0 0
0.433 -0.089 1.201 255 255 255
-0.6 -1.183 2.227 255 255 255
-1.024 -0.02 2.58 255 255 255
0.309 0.416 1.515 255 255 255
-1.117 -1.309 2.085 255 255 255
0.496 -0.016 1.112 255 255 255
-0.651 0.356 2.069 255 255 255
0.012 0.174 2.02 255 255 255
-1.226 -0.773 2.202 255 255 255
0.383 0.254 1.348 255 255 255
0.046 0.55 1.879 255 255 255
-1.264 -0.675 2.217 255 255 255
-0.777 0.378 2.04 255 255 255
-0.846 -0.854 2.403 255 255 255
0.147 -0.283 1.663 255 255 255
0.484 0.056 1.139 255 255 255
0.54 -0.204 1.15 255 255 255
-0.291 -0.402 1.853 255 255 255
-0.326 -0.429 1.832 255 255 255
0.329 0.516 1.512 255 255 255
-0.327 0.667 1.384 255 255 255
0 0.582 1.778 255 255 255
0.437 -0.138 1.185 255 255 255
0.132 -0.254 1.695 255 255 255
0.106 -0.352 1.649 0 0 0
-0.569 0.603 1.522 255 255 255
-0.23 0.957 2.113 255 255 255
-0.664 0.326 2.041 255 255 255
-0.254 -0.337 1.902 255 255 255
-1.411 -0.455 2.221 0 0 0
-0.352 -0.435 1.804 255 255 255
0.047 0.306 1.978 255 255 255
-0.366 0.295 2.078 255 255 255
-0.482 0.558 1.719 0 0 0
-0.381 0.632 1.48 255 255 255
0.436 0.193 1.248 255 255 255
-0.258 -0.237 1.941 255 255 255
0.442 0.36 1.267 255 255 255
0.387 0.346 1.359 255 255 255
-0.685 -0.014 0.903 255 255 255
0.299 -1.105 1.537 255 255 255
-1.123 -0.79 2.261 255 255 255
0.522 -0.101 1.027 255 255 255
-0.13 -0.904 1.765 255 255 255
0.194 0.294 1.695 255 255 255
0.514 0.259 1.122 255 255 255
-0.321 0.852 2.079 255 255 255
-0.277 0.678 1.357 255 255 255
-1.369 -0.646 2.121 255 255 255
-0.13 -0.818 1.795 255 255 255
-0.476 -0.607 2.145 0 0 0
0.204 0.41 1.706 255 255 255
-0.49 0.565 1.679 255 255 255
-0.077 -0.659 1.966 0 0 0
-0.484 -1.649 2.351 255 255 255
-0.218 -0.784 1.77 255 255 255
-1.066 -1.223 2.145 255 255 255
0.302 0.207 1.478 255 255 255
-0.543 -0.203 2.287 255 255 255
0.547 0.16 1.049 255 255 255
-0.035 0.718 1.334 255 255 255
-0.339 -0.621 1.738 255 255 255
-0.948 -0.178 1.366 255 255 255
0.617 -0.059 0.87 255 255 255
0.34 -0.217 1.247 0 0 0
0.201 0.173 1.649 255 255 255
0.23 -0.034 1.558 255 255 255
-1.082 0.125 2.449 255 255 255
-0.915 -0.419 2.515 255 255 255
-0.349 -0.202 1.9 255 255 255
-0.671 -0.977 2.266 0 0 0
-0.172 0.051 2.094 255 255 255
-0.183 0.119 2.123 255 255 255
-1.222 -0.488 2.303 255 255 255
-0.061 0.605 1.122 255 255 255
0.549 -0.709 1.054 255 255 255
-0.737 0.447 1.998 255 255 255
0.393 0.027 1.291 255 255 255
0.6 -0.185 1.053 255 255 255
-0.906 -0.281 2.566 255 255 255
-0.406 0.843 2.06 255 255 255
-0.533 -1.53 2.363 255 255 255
0.336 0.06 0.573 255 255 255
-1.086 -0.246 1.56 255 255 255
-0.603 -0.018 2.416 255 255 255
-1.347 -0.493 2.035 0 0 0
-0.468 -0.546 2.141 255 255 255
0.465 -0.11 1.142 255 255 255
0.288 0.252 1.513 255 255 255
-1.06 -0.703 2.333 255 255 255
-0.037 -0.942 1.869 255 255 255
0.541 -0.641 1.069 255 255 255
0.455 0.018 1.182 255 255 255
-1.184 -0.713 2.248 255 255 255
-0.338 0.013 2.001 255 255 255
-0.053 -0.846 1.91 0 0 0
0.451 0.139 1.209 255 255 255
0.312 -0.161 1.399 255 255 255
0.616 0.021 0.912 255 255 255
-0.425 0.703 1.259 255 255 255
0.611 -0.204 1.061 255 255 255
-0.879 -1.642 2.12 255 255 255
-0.815 -1.348 2.256 255 255 255
-0.101 -0.308 2.086 255 255 255
0.059 -0.283 1.841 255 255 255
-0.658 0.168 2.566 255 255 255
0.136 0.458 1.815 255 255 255
0.198 0.066 1.631 255 255 255
0.381 0.419 1.389 255 255 255
0.091 0.206 0.453 255 255 255
-0.101 -0.251 2.103 255 255 255
0.599 -0.075 0.877 255 255 255
-0.928 -0.021 2.64 255 255 255
-0.008 0.594 1.756 255 255 255
0.418 0.081 1.261 255 255 255
0.463 -0.149 1.108 0 0 0
0.533 0.048 1.055 255 255 255
0.075 0.151 1.887 255 255 255
0.533 -0.133 0.986 255 255 255
-0.546 -0.968 2.28 255 255 255
0.485 0.104 1.146 255 255 255
0.203 0.241 1.662 255 255 255
0.4 -0.018 1.267 255 255 255
-0.434 0.355 2.047 255 255 255
-0.498 0.575 1.639 255 255 255
-0.081 -1.301 1.846 255 255 255
-0.654 0.368 2.062 255 255 255
0.252 0.275 1.578 255 255 255
-0.128 -0.289 1.983 255 255 255
0.434 0.001 1.22 255 255 255
0.132 -1.142 1.598 255 255 255
0.309 -0.569 1.982 255 255 255
-1.073 -0.22 2.492 255 255 255
-0.85 0.233 2.322 255 255 255
-0.519 0.541 1.72 255 255 255
-0.004 -0.117 1.978 255 255 255
-1.036 -0.153 2.533 255 255 255
-0.969 -0.452 2.472 255 255 255
0.078 0.597 1.729 255 255 255
-0.48 0.664 1.363 255 255 255
-0.106 -0.472 1.928 255 255 255
0.213 0.101 1.613 255 255 255
-1.375 -0.612 2.167 255 255 255
-0.311 -0.844 1.689 255 255 255
-0.017 0.195 2.078 255 255 255
-0.7 -0.028 0.966 255 255 255
-0.901 -1.23 2.242 255 255 255
-0.84 -0.408 2.565 255 255 255
0.015 -0.207 1.931 255 255 255
0.277 0.493 1.597 255 255 255
-0.763 0.14 2.411 255 255 255
-0.917 0.051 2.677 255 255 255
0.486 -0.009 1.126 255 255 255
-0.017 -1.138 1.795 255 255 255
-0.569 -0.311 2.325 255 255 255
-0.706 -1.347 2.323 255 255 255
-0.876 0.241 2.304 255 255 255
0.089 0.67 1.506 255 255 255
-0.27 -0.295 1.909 255 255 255
-0.783 -1.371 2.27 255 255 255
0.023 -0.061 1.944 255 255 255
0.373 -0.248 1.344 255 255 255
-0.337 -0.759 1.691 255 255 255
0.558 -0.231 1.096 255 255 255
-0.51 0.426 1.945 255 255 255
0.469 0.076 1.168 255 255 255
-0.209 -1.526 2.035 0 0 0
-1.031 -0.21 2.517 255 255 255
-0.564 -1.184 2.246 255 255 255
-0.913 0.506 1.779 255 255 255
-0.587 0.634 1.413 0 0 0
-0.138 -0.731 1.822 255 255 255
-0.537 0.221 2.364 255 255 255
0.011 -0.7 1.841 255 255 255
-1.379 -0.198 2.307 255 255 255
0.358 -0.048 1.336 255 255 255
-0.607 0.443 1.928 0 0 0
-0.533 -1.152 2.28 0 0 0
-0.539 0.149 2.353 255 255 255
-0.032 -0.802 1.891 255 255 255
0.398 0.453 1.366 255 255 255
-0.417 0.63 1.476 255 255 255
-1.115 -0.325 1.712 255 255 255
0.109 0.686 1.462 255 255 255
-1.225 -0.996 2.129 255 255 255
0.089 -0.245 1.782 255 255 255
0.155 0.198 0.483 255 255 255
0.087 -0.511 1.792 255 255 255
-0.243 0.676 1.371 255 255 255
-0.488 0.564 1.687 255 255 255
-1.09 -0.298 1.722 255 255 255
0.279 -0.102 1.461 255 255 255
-0.108 -0.276 2.068 255 255 255
-0.589 0.189 2.438 255 255 255
-0.649 -0.419 2.47 255 255 255
0.206 0.059 1.617 255 255 255
0.565 -0.025 0.989 255 255 255
-0.443 -0.25 2.101 255 255 255
-0.834 -0.037 2.692 255 255 255
-0.791 0.529 1.719 255 255 255
-0.874 -0.784 2.418 255 255 255
-0.815 0.501 1.791 0 0 0
0.286 0.402 1.553 255 255 255
-0.286 -0.027 2.009 255 255 255
-1.217 0.147 2.431 255 255 255
0 -0.214 1.958 255 255 255
-0.311 -0.876 1.677 255 255 255
-1.256 -0.794 2.175 255 255 255
-0.922 -0.688 2.416 255 255 255
0.25 0.135 1.556 255 255 255
0.59 0.154 1.005 255 255 255
0.451 0.318 1.242 255 255 255
-0.1 -0.351 2.061 255 255 255
0.443 0.167 1.23 255 255 255
0.136 0.092 1.752 255 255 255
0.416 0.276 1.297 255 255 255
0.451 0.08 1.199 255 255 255
-0.584 -0.776 2.382 255 255 255
0.508 0.056 1.097 255 255 255
0.314 0.421 1.508 255 255 255
-0.4 0.656 1.402 255 255 255
-1.041 -0.488 2.417 255 255 255
-0.385 0.525 1.839 255 255 255
-0.242 -0.566 1.836 255 255 255
-1.129 0.349 2.131 255 255 255
0.424 0.389 1.304 255 255 255
-0.094 -0.578 1.898 255 255 255
0.321 0.128 1.432 255 255 255
0.584 -0.062 0.939 255 255 255
-0.073 -1.329 1.839 0 0 0
0.444 0.156 1.227 255 255 255
-0.72 0.437 2.016 0 0 0
-0.263 0.878 2.114 255 255 255
-0.168 -0.407 1.923 255 255 255
-0.008 0.593 1.763 255 255 255
0.645 -0.139 0.975 255 255 255
-0.152 0.712 1.311 255 255 255
-1.184 -0.809 2.215 255 255 255
-0.891 -0.786 2.403 255 255 255
-1.049 0.371 2.142 255 255 255
-0.736 0.401 2.029 255 255 255
-1.033 -0.916 2.274 255 255 255
0.226 0.656 1.575 0 0 0
-0.19 0.106 2.116 255 255 255
-0.032 0.526 1.955 255 255 255
-0.057 -0.363 2.014 255 255 255
-0.62 0.022 0.946 255 255 255
-1.164 -1.033 2.148 255 255 255
0.227 -0.071 1.556 255 255 255
-0.137 -0.416 1.929 255 255 255
0.132 -0.526 1.8 255 255 255
-0.378 0.349 2.071 255 255 255
-1.395 -0.03 2.37 255 255 255
0.143 0.31 1.789 255 255 255
-1.271 -0.549 2.252 255 255 255
-0.052 0.453 1.978 255 255 255
0.187 -0.868 1.707 255 255 255
-1.135 -0.394 2.391 255 255 255
0.336 -0.058 1.372 255 255 255
0.155 -0.66 1.775 255 255 255
0.548 0.036 1.028 255 255 255
0.522 -0.178 1.126 255 255 255
0.05 0.635 1.626 255 255 255
-0.045 0.453 1.999 255 255 255
0.1 0.2 0.458 255 255 255
-1.173 -0.767 2.238 255 255 255
0.412 -0.255 1.345 255 255 255
-0.64 -0.395 2.481 255 255 255
-0.025 -1.168 1.801 255 255 255
-0.59 -0.161 2.283 255 255 255
-0.893 -0.389 2.536 255 255 255
-1.152 -1.12 2.131 255 255 255
-0.744 -1.285 2.281 0 0 0
0.604 0.019 0.93 255 255 255
-1.074 -0.396 2.424 255 255 255
-0.146 -0.333 1.958 255 255 255
-0.174 0.239 2.164 255 255 255
-0.645 -1.488 2.31 255 255 255
-0.373 -0.069 1.929 255 255 255
-0.582 0.4 1.948 0 0 0
-0.242 -0.903 1.712 255 255 255
-1.048 -1.02 2.224 255 255 255
-0.022 0.467 2.078 255 255 255
-0.647 0.494 1.808 0 0 0
0.357 0.064 1.361 255 255 255
-0.543 0.554 1.706 255 255 255
-0.511 -0.178 2.212 255 255 255
0.381 0.03 1.314 255 255 255
-0.7 0.566 1.62 255 255 255
-0.779 -0.751 2.477 255 255 255
0.368 -0.119 1.306 255 255 255
0.22 0.318 1.653 255 255 255
-0.665 -0.796 2.329 255 255 255
-0.045 -0.772 1.916 0 0 0
0.355 0.481 1.45 255 255 255
-0.383 0.438 1.925 255 255 255
0.486 0.087 1.142 255 255 255
-0.249 -0.169 1.972 255 255 255
-0.181 -1.022 1.695 255 255 255
0.265 -0.321 1.551 255 255 255
-0.529 -1.622 2.335 255 255 255
-0.774 -0.067 1.032 255 255 255
-0.028 -0.8 1.886 255 255 255
0.405 0.128 1.289 255 255 255
-1.215 -0.807 2.196 255 255 255
0.016 0.257 2.033 255 255 255
-0.822 -1.302 2.261 255 255 255
-0.264 0.001 2.029 255 255 255
-0.966 -0.714 2.378 255 255 255
-0.225 -1.006 1.688 255 255 255
0.509 -0.331 1.175 255 255 255
-0.065 -0.745 1.948 0 0 0
-0.561 0.655 1.355 255 255 255
-0.368 -0.269 1.85 255 255 255
0.302 0.027 1.443 255 255 255
0.464 0.112 1.182 255 255 255
-0.225 -0.838 1.749 255 255 255
-0.526 -0.174 2.217 255 255 255
0.123 -0.924 1.669 255 255 255
-1.3 -0.826 2.139 255 255 255
0.52 0.31 1.121 255 255 255
0.201 -0.252 1.566 255 255 255
-0.606 0.446 1.924 255 255 255
-0.55 0.203 2.377 255 255 255
0.164 -0.288 1.63 255 255 255
0.225 0.309 1.641 255 255 255
0.538 0.117 1.057 255 255 255
0.51 -0.128 0.972 0 0 0
0.323 -0.284 1.452 255 255 255
-0.743 0.468 1.936 255 255 255
-0.309 -1.062 1.664 0 0 0
-0.828 -0.748 2.456 255 255 255
-0.305 -0.685 1.744 255 255 255
0.35 -0.143 1.332 255 255 255
-0.142 -0.16 2.021 255 255 255
-0.482 -0.055 2.128 255 255 255
-0.342 -0.382 1.822 255 255 255
0.211 -1.1 1.63 255 255 255
-0.453 0.631 1.463 255 255 255
-0.387 -0.192 1.874 255 255 255
0.443 0.411 1.277 255 255 255
0.51 -0.484 1.142 255 255 255
-0.625 0.451 1.943 0 0 0
-0.286 0.357 2.052 255 255 255
-0.88 -0.329 2.57 255 255 255
-0.174 0.385 2.048 255 255 255
0.458 -0.053 1.162 255 255 255
0.426 0.104 1.25 255 255 255
0.336 0.407 1.465 255 255 255
-0.351 0.67 1.365 255 255 255
0.592 0.026 0.95 255 255 255
0.268 0.475 1.608 255 255 255
-0.633 0.621 1.447 255 255 255
-0.696 -0.028 0.953 255 255 255
-0.233 -0.808 1.757 255 255 255
0.333 -0.195 1.35 255 255 255
-0.095 0.035 2.162 255 255 255
-0.194 -1.367 2.03 255 255 255
-0.049 -0.457 1.987 255 255 255
-0.016 -1.012 1.823 255 255 255
-0.66 0.282 2.059 255 255 255
-0.14 0.584 1.735 255 255 255
-0.624 -1.162 2.226 255 255 255
-0.795 0.473 1.886 255 255 255
-0.925 -1.485 2.145 255 255 255
-0.396 0.052 1.964 255 255 255
0.126 0.214 0.385 255 255 255
-0.839 -0.114 1.16 255 255 255
-0.533 0.061 0.79 255 255 255
-0.99 -0.47 2.451 255 255 255
0.269 0.598 1.612 255 255 255
0.141 0.201 0.425 0 0 0
0.142 -0.128 1.694 255 255 255
0.11 0.204 0.437 255 255 255
-0.168 -0.582 1.855 255 255 255
0.295 0.747 1.353 255 255 255
0.562 -0.193 1.115 255 255 255
-0.953 0.222 2.224 255 255 255
-0.881 -0.021 2.676 255 255 255
-0.607 0.636 1.412 0 0 0
-1.173 -0.627 2.289 255 255 255
-0.06 0.39 2.128 255 255 255
-0.071 0.701 1.359 255 255 255
-1.226 0.174 2.435 255 255 255
0.345 0.175 1.4 255 255 255
-0.637 0.508 1.787 255 255 255
-1.195 -0.237 2.407 255 255 255
-0.487 -0.171 2.185 255 255 255
0.227 -0.449 1.86 255 255 255
0.399 -0.281 1.392 255 255 255
-0.577 0.648 1.374 255 255 255
-0.323 0.658 1.411 255 255 255
-0.916 -1.138 2.268 255 255 255
-0.269 -0.302 1.905 255 255 255
0.505 -0.208 1.198 0 0 0
0.389 -0.109 1.273 255 255 255
-0.988 -0.59 2.412 255 255 255
-0.207 -0.838 1.759 255 255 255
0.461 0.189 1.201 255 255 255
-1.115 -0.151 2.482 255 255 255
0.252 0.289 1.58 255 255 255
0.327 0.346 1.463 255 255 255
0.538 -0.491 1.107 255 255 255
0.558 -0.27 1.181 255 255 255
-0.102 0.689 1.388 255 255 255
-1.069 -0.318 1.709 255 255 255
0.088 0.675 1.493 255 255 255
-0.078 0.32 2.154 255 255 255
-0.37 -0.038 1.955 255 255 255
-0.151 -1.207 1.926 255 255 255
-0.169 -0.176 2.009 255 255 255
0.524 -0.114 0.976 0 0 0
-0.743 -1.24 2.335 255 255 255
0.131 -0.749 1.726 0 0 0
-0.993 -1.122 2.225 255 255 255
-1.099 -0.44 2.396 255 255 255
-1.051 -1.39 2.098 255 255 255
-0.096 -0.804 1.814 255 255 255
-1.21 -0.426 2.336 255 255 255
0.322 0.55 1.503 255 255 255
0.257 0.205 1.557 255 255 255
0.547 0.116 1.043 255 255 255
0.003 -0.011 1.991 255 255 255
-0.471 0.64 1.43 0 0 0
0.105 -0.112 1.765 255 255 255
-0.931 -0.16 2.594 255 255 255
-0.894 0.47 1.862 255 255 255
-0.054 -0.146 2.05 255 255 255
-1.192 -0.47 2.33 255 255 255
-1.291 -0.334 2.316 255 255 255
-1.214 0.007 2.478 255 255 255
-1.075 -1.373 2.094 255 255 255
-0.047 0.29 2.123 255 255 255
-0.784 0.382 2.035 255 255 255
0.334 0.566 1.479 255 255 255
-0.633 0.529 1.735 0 0 0
-0.333 0.879 2.062 255 255 255
-0.597 0.482 1.82 255 255 255
-0.166 -0.485 1.896 255 255 255
-0.115 -0.768 1.82 255 255 255
0.204 0.648 1.595 255 255 255
0.325 0.064 0.505 255 255 255
-0.154 -0.117 2.033 255 255 255
0.514 -0.025 1.077 255 255 255
0.542 0.217 1.071 255 255 255
0.189 -0.003 1.636 255 255 255
0.409 -0.043 1.251 255 255 255
0.207 0.192 1.643 255 255 255
