ply
format ascii 1.0
comment Created by Open3D
element vertex 1596
property double x
property double y
property double z
property uchar red
property uchar green
property uchar blue
end_header
0.222 0.291 0.594 255 255 255
-0.812 -0.481 1.927 255 255 255
-0.4 0.141 1.012 255 255 255
0.128 -1.301 2.619 255 255 255
-0.14 0.108 0.943 255 255 255
0.032 0.216 0.717 255 255 255
0.121 0.093 0.621 255 255 255
0 -0.007 0.722 0 0 0
-0.427 -0.736 2.229 255 255 255
-0.303 0.064 1.036 255 255 255
0.978 -0.401 1.419 255 255 255
0.153 -0.038 0.653 255 255 255
-1.165 0.109 1.784 255 255 255
-0.542 -1.011 2.009 255 255 255
0.255 -1.384 2.698 255 255 255
0.054 -1.411 2.494 255 255 255
0.035 0.104 0.7 255 255 255
-0.73 -1.21 1.772 255 255 255
-0.807 -0.96 1.79 255 255 255
-0.069 -1.456 2.369 255 255 255
-0.314 -0.11 1.128 255 255 255
-0.203 -0.138 1.069 255 255 255
0.039 -0.159 0.783 255 255 255
-0.919 -0.581 1.758 255 255 255
-0.622 -1.267 1.846 255 255 255
-0.022 -1.315 2.461 255 255 255
-0.071 -0.676 2.65 255 255 255
-0.029 0.243 0.777 0 0 0
-0.124 0.235 0.936 255 255 255
-0.847 -0.916 1.704 255 255 255
-0.008 0.32 0.691 255 255 255
-0.515 -0.008 0.966 255 255 255
-0.748 -1.145 1.772 255 255 255
-0.67 -0.821 1.964 255 255 255
0.733 -0.261 1.156 255 255 255
0.223 -0.775 2.888 255 255 255
0.054 -0.005 0.712 0 0 0
0.238 0.095 0.519 255 255 255
-0.466 -1.268 1.992 255 255 255
0.025 0.142 0.735 255 255 255
0.034 0.174 0.741 255 255 255
0.137 0.367 0.718 255 255 255
1.167 -0.851 2.269 255 255 255
0.977 -0.987 2.592 255 255 255
-0.19 0.058 0.983 255 255 255
-1.093 -0.231 1.726 255 255 255
0.003 0.102 0.738 255 255 255
0.113 0.142 0.616 255 255 255
-0.091 -0.131 1.057 255 255 255
0.032 0.022 0.713 255 255 255
-0.384 -0.478 2.362 255 255 255
0.955 -0.937 2.63 0 0 0
0.193 0.143 0.523 255 255 255
0.168 0.221 0.609 255 255 255
0.128 0.299 0.719 255 255 255
0.003 0.336 0.671 255 255 255
-0.17 0.365 0.815 255 255 255
1.1 -1.189 2.502 255 255 255
0.122 -0.106 0.799 255 255 255
-0.455 -0.588 2.254 255 255 255
0.014 0.275 0.701 255 255 255
0.027 0.322 0.681 255 255 255
-0.34 -0.004 1.084 255 255 255
1.041 -1.171 2.583 255 255 255
0.212 -1.579 2.587 255 255 255
-0.017 -0.667 2.705 255 255 255
1.299 -1.167 2.212 255 255 255
-0.709 -0.446 2.078 255 255 255
0.196 -0.01 0.481 255 255 255
1.344 -0.723 2.016 255 255 255
0.249 0.159 0.481 255 255 255
0.397 0.017 0.563 255 255 255
-0.279 -1.264 2.171 255 255 255
-0.384 0.643 1.261 255 255 255
-0.738 -0.791 1.917 255 255 255
0.096 0.215 0.696 255 255 255
0.252 0.056 0.493 255 255 255
0.18 -0.018 0.5 0 0 0
0.148 0.334 0.684 255 255 255
-0.089 0.086 0.853 255 255 255
-0.474 -0.175 1.024 255 255 255
0.021 0.089 0.701 255 255 255
-0.58 0.605 1.376 0 0 0
0.25 -0.188 1.074 255 255 255
-0.481 -1.189 2.007 255 255 255
0.542 -0.065 0.774 0 0 0
0.379 -0.013 0.621 0 0 0
0.693 -0.263 1.199 0 0 0
0.234 0.038 0.514 255 255 255
-0.019 0.067 0.744 255 255 255
0.178 0.004 0.623 255 255 255
-0.568 -0.199 1.033 0 0 0
0.03 -0.077 0.732 255 255 255
0.07 0.255 0.708 255 255 255
-0.085 -1.226 2.443 255 255 255
-0.225 -1.266 2.22 255 255 255
0.498 -1.107 2.977 255 255 255
0.665 -1.946 2.687 0 0 0
-0.688 -1.357 1.746 0 0 0
-0.016 0.177 0.76 0 0 0
0.087 0.297 0.728 255 255 255
-0.253 -1.195 2.227 255 255 255
-0.166 -1.611 2.161 0 0 0
-0.671 -0.332 2.149 255 255 255
-1.214 -0.011 1.698 255 255 255
-0.124 0.278 0.768 255 255 255
0.09 0.23 0.717 255 255 255
-0.36 -1.193 2.119 255 255 255
-0.166 0.234 0.839 255 255 255
0.015 0.147 0.75 255 255 255
0.989 -1.586 2.467 255 255 255
-0.186 -0.737 2.45 255 255 255
0.195 0.071 0.562 255 255 255
0.092 0.262 0.74 0 0 0
0.203 0.289 0.612 255 255 255
-0.419 -0.9 2.168 255 255 255
-1.061 -0.338 1.717 255 255 255
-1.063 -0.191 1.768 255 255 255
0.236 -0.772 2.9 255 255 255
0.232 -0.004 0.523 255 255 255
-0.316 0.132 0.999 255 255 255
-0.42 0.087 1.063 255 255 255
0.087 0.311 0.708 255 255 255
1.112 -1.456 2.373 255 255 255
-1.152 0.202 1.831 255 255 255
0.149 0.261 0.666 255 255 255
-0.406 0.135 0.998 255 255 255
-1.183 0.222 1.812 255 255 255
1.171 -0.829 2.283 0 0 0
-0.638 -0.535 2.106 255 255 255
-0.651 0.104 1.088 255 255 255
0.15 0.087 0.598 255 255 255
-0.753 -0.888 1.865 255 255 255
-0.447 0.132 1.002 255 255 255
-0.388 -0.6 2.309 255 255 255
0.109 -0.008 0.68 0 0 0
-0.054 0.192 0.773 255 255 255
0.069 0.229 0.737 255 255 255
0.33 0.03 0.515 255 255 255
0.094 -1.268 2.591 255 255 255
-0.462 -1.201 2.021 255 255 255
0.006 -0.13 0.764 255 255 255
0.207 -0.194 1.062 255 255 255
0.046 -0.148 0.786 255 255 255
-0.294 0.141 1.008 255 255 255
-0.062 0.04 0.794 255 255 255
-1.001 -0.452 1.735 255 255 255
0.203 -0.029 0.501 255 255 255
-1.029 -0.479 1.698 255 255 255
0.808 -1.621 2.656 255 255 255
0.227 -0.017 0.525 255 255 255
-0.541 -0.88 2.065 255 255 255
-0.46 0.271 1.018 255 255 255
-0.266 -1.164 2.222 255 255 255
-0.603 0.148 1.109 255 255 255
0.121 0.208 0.665 255 255 255
-0.411 -0.152 1.163 0 0 0
-0.002 0.284 0.744 255 255 255
0.542 -0.067 0.774 0 0 0
-0.241 0.169 0.972 255 255 255
-0.26 -0.121 1.085 255 255 255
0.025 0.198 0.731 0 0 0
-0.049 -0.826 2.619 0 0 0
-0.445 0.645 1.265 255 255 255
-0.267 -1.485 2.107 255 255 255
0.261 0.13 0.501 255 255 255
0.08 0.149 0.673 255 255 255
0.094 0.095 0.633 255 255 255
-0.822 -0.841 1.777 0 0 0
0.107 0.329 0.752 255 255 255
0.451 -0.02 0.626 0 0 0
0.082 -1.189 2.613 255 255 255
0.552 -1.965 2.649 0 0 0
-0.532 -0.053 0.987 255 255 255
-0.989 -0.572 1.699 255 255 255
-0.595 0.137 1.122 255 255 255
-0.426 -1.274 2.025 255 255 255
-0.397 -0.764 2.243 0 0 0
-1.097 -0.179 1.744 255 255 255
-0.099 0.287 0.748 255 255 255
-0.525 -0.182 1.013 255 255 255
-0.496 -0.378 2.298 255 255 255
-0.473 -1.178 2.017 255 255 255
0.443 -1.712 2.75 255 255 255
0.198 0.199 0.545 255 255 255
-0.475 0.094 0.991 255 255 255
0.275 0.051 0.508 0 0 0
0.066 -0.977 2.665 255 255 255
-0.908 -0.592 1.77 255 255 255
0.021 -1.048 2.602 255 255 255
-0.27 0.077 1.052 255 255 255
-0.031 0.131 0.803 255 255 255
0.015 -0.122 0.762 255 255 255
0.287 0.06 0.475 255 255 255
1.102 -1.489 2.351 255 255 255
0.192 0.119 0.546 255 255 255
-0.073 0.039 0.806 255 255 255
-0.356 0.066 1.03 255 255 255
0.925 -0.383 1.485 0 0 0
-0.418 -1.339 2.011 255 255 255
-0.174 0.231 0.833 255 255 255
0.207 0.253 0.572 0 0 0
-0.492 -0.123 1.01 255 255 255
1.042 -1.354 2.509 255 255 255
0.026 -1.306 2.516 255 255 255
0.656 -1.424 2.878 255 255 255
-0.774 -1.148 1.753 255 255 255
0.595 -0.532 1.64 255 255 255
1.052 -1.385 2.475 255 255 255
0.018 0.184 0.764 0 0 0
0.16 -0.052 0.629 255 255 255
-0.028 0.198 0.747 0 0 0
-0.757 -0.689 1.933 255 255 255
0.086 0.019 0.662 255 255 255
-0.213 -1.593 2.115 0 0 0
-0.523 -0.156 1.002 255 255 255
-0.804 0.491 1.661 255 255 255
-0.064 -0.102 0.991 255 255 255
-0.43 -0.747 2.218 255 255 255
-0.42 0.203 1.111 255 255 255
0.236 0.156 0.489 255 255 255
0.289 -0.722 2.967 0 0 0
-0.668 -0.756 1.99 255 255 255
0.027 -0.825 2.692 255 255 255
-0.191 0.081 0.997 255 255 255
-0.565 0.009 1.015 255 255 255
-0.12 0.245 0.808 255 255 255
-0.532 -0.051 0.988 255 255 255
0.272 -0.077 0.616 255 255 255
-0.136 0.359 0.783 255 255 255
0.208 0.073 0.563 255 255 255
0.112 0.257 0.716 255 255 255
-0.74 -1.173 1.777 255 255 255
0.307 0.054 0.476 255 255 255
0.172 -0.001 0.485 0 0 0
-0.412 -1.482 1.964 0 0 0
-0.998 -0.605 1.682 255 255 255
0.11 0.111 0.611 255 255 255
0.17 -1.666 2.511 255 255 255
-0.012 0.19 0.729 0 0 0
-0.593 0.137 1.123 255 255 255
-0.377 -1.066 2.148 255 255 255
-0.234 -0.46 2.517 255 255 255
0.205 0.027 0.587 0 0 0
-1.072 -0.389 1.689 255 255 255
0.758 -0.29 1.245 255 255 255
-0.039 0.087 0.787 255 255 255
-0.438 -0.641 2.257 255 255 255
0.061 -0.014 0.609 255 255 255
-0.513 -0.056 0.975 255 255 255
-0.545 0.539 1.388 255 255 255
-0.827 -1.061 1.689 0 0 0
-0.221 -1.094 2.289 255 255 255
0.461 -1.128 2.98 255 255 255
-1.198 0.105 1.755 255 255 255
0.068 0.244 0.72 0 0 0
-0.033 -1.617 2.337 255 255 255
1.065 -1.059 2.286 0 0 0
-0.811 -0.838 1.829 255 255 255
0.466 -0.422 1.583 0 0 0
-1.11 -0.415 1.645 255 255 255
-0.085 -0.908 2.556 255 255 255
-0.79 -1.154 1.731 255 255 255
-0.465 -0.042 0.994 255 255 255
-0.098 0.097 0.874 255 255 255
0.262 0.03 0.503 255 255 255
-0.583 -0.026 1.023 0 0 0
-0.239 0.277 0.805 255 255 255
-1.175 0.073 1.768 255 255 255
0.281 0.048 0.484 0 0 0
-0.386 -1.371 2.028 255 255 255
0.217 0.127 0.522 255 255 255
-0.075 0.104 0.848 255 255 255
-0.658 -0.883 1.955 255 255 255
0.153 0.047 0.569 255 255 255
0.146 0.344 0.638 255 255 255
-0.035 0.057 0.763 255 255 255
-0.111 0.223 0.804 255 255 255
-0.027 0.027 0.718 255 255 255
-0.406 -0.461 2.348 255 255 255
-0.309 -0.527 2.41 255 255 255
0.18 0.127 0.553 255 255 255
-1.048 -0.485 1.681 255 255 255
0.233 0.138 0.504 255 255 255
-1.203 -0.174 1.642 255 255 255
-0.954 -0.802 1.65 255 255 255
0.68 -0.211 1.063 255 255 255
0.073 0 0.688 0 0 0
-0.017 0.202 0.728 0 0 0
-0.146 -0.113 0.994 255 255 255
-0.104 0.079 0.868 255 255 255
0.263 0.014 0.506 255 255 255
-0.098 0.231 0.796 255 255 255
0.502 -0.065 0.785 255 255 255
0.134 -1.317 2.612 255 255 255
0.514 -0.174 1.02 255 255 255
1.063 -1.658 2.34 255 255 255
0.579 -0.166 0.924 255 255 255
0.173 0.001 0.485 0 0 0
0.713 -1.163 2.951 255 255 255
-0.138 0.357 0.783 255 255 255
-0.683 -0.499 2.077 255 255 255
0.096 0.01 0.687 0 0 0
-0.245 0.227 0.894 255 255 255
0.219 0.245 0.554 255 255 255
-0.416 0.277 1.139 255 255 255
-0.515 -0.857 2.098 255 255 255
-0.547 -1.158 1.959 255 255 255
1.37 -0.642 1.999 255 255 255
-0.032 0.307 0.695 255 255 255
-0.225 0.017 1.01 255 255 255
-0.849 -0.749 1.761 255 255 255
-0.264 0.118 1.09 255 255 255
0.093 0.316 0.731 255 255 255
0.074 -0.046 0.648 0 0 0
0.083 -0.08 0.756 255 255 255
-0.165 0.195 0.94 255 255 255
-0.15 0.38 0.803 255 255 255
-0.369 0.657 1.232 255 255 255
1.023 -1.217 2.589 255 255 255
0.146 -1.318 2.625 255 255 255
-0.195 -0.494 2.533 255 255 255
0.478 -0.13 0.961 0 0 0
-0.786 -0.608 1.94 255 255 255
0.094 0.192 0.687 255 255 255
0.078 0.049 0.654 255 255 255
-0.374 -0.534 2.348 255 255 255
0.019 0.203 0.725 255 255 255
-0.073 -0.113 1.013 255 255 255
-0.989 -0.771 1.621 255 255 255
0.755 -1.91 2.608 0 0 0
1.286 -0.746 2.104 255 255 255
0.003 -0.066 0.721 255 255 255
-0.4 -0.62 2.29 255 255 255
-0.014 -0.101 0.747 255 255 255
0.622 -1.859 2.735 255 255 255
0.275 -1.301 2.748 255 255 255
0.112 0.207 0.67 255 255 255
-1.179 0.081 1.766 255 255 255
-0.136 0.006 0.88 255 255 255
-0.768 -0.993 1.81 255 255 255
0.178 -0.825 2.828 255 255 255
0.012 0.35 0.641 255 255 255
0.15 0.168 0.588 255 255 255
-0.634 -0.433 2.142 255 255 255
-0.385 -0.131 1.181 0 0 0
-1.02 -0.583 1.668 255 255 255
0.267 0.112 0.5 255 255 255
0.173 0.237 0.606 255 255 255
0.091 0.027 0.636 255 255 255
-0.181 -0.762 2.446 255 255 255
0.056 0.314 0.642 255 255 255
0.294 0.106 0.503 255 255 255
-0.799 0.489 1.669 255 255 255
0.196 0.121 0.542 255 255 255
0.503 -1.197 2.826 255 255 255
-0.685 -0.39 2.114 255 255 255
-1.167 -0.341 1.617 255 255 255
-0.404 -0.426 2.367 0 0 0
-0.508 0.628 1.313 255 255 255
0.816 -1.032 2.849 0 0 0
1.062 -0.903 2.497 255 255 255
-0.102 -0.129 1.059 255 255 255
1.052 -0.882 2.508 255 255 255
0.204 0.251 0.573 255 255 255
0.291 -0.194 1.016 255 255 255
-0.286 0.04 1.091 0 0 0
0.066 -0.027 0.614 255 255 255
-0.054 0.271 0.745 255 255 255
-0.207 0.294 0.808 255 255 255
0.059 0.288 0.692 255 255 255
0.27 0.049 0.51 255 255 255
-0.824 -1.207 1.688 255 255 255
0.103 0.214 0.685 255 255 255
0.031 -0.02 0.612 255 255 255
-0.012 0.079 0.74 255 255 255
0.224 -0.221 1.122 255 255 255
-0.116 0.007 0.864 255 255 255
-0.611 -0.376 2.182 255 255 255
0.054 0.215 0.741 0 0 0
0.187 0.197 0.558 255 255 255
0.119 0.068 0.636 255 255 255
0.185 0.108 0.556 255 255 255
-0.765 -0.966 1.824 255 255 255
-0.578 -0.952 2.006 255 255 255
-0.484 -0.569 2.235 255 255 255
-0.891 0.467 1.74 255 255 255
0.124 0.09 0.624 255 255 255
0.612 -2.038 2.671 0 0 0
0.128 0.044 0.595 255 255 255
-0.037 0.039 0.779 255 255 255
0.056 0.061 0.703 255 255 255
-0.471 -1.351 1.959 255 255 255
0.124 -0.073 0.686 255 255 255
-0.926 -0.664 1.724 255 255 255
0.663 -0.292 1.247 255 255 255
1.142 -1.4 2.346 255 255 255
0.915 -1.212 2.727 255 255 255
-0.599 0.173 1.094 255 255 255
-0.956 0.435 1.832 255 255 255
0.132 -0.089 0.794 255 255 255
-0.084 -1.544 2.319 255 255 255
0.193 0.035 0.492 255 255 255
0.078 0.133 0.657 255 255 255
-0.609 -0.139 1.054 0 0 0
-0.69 -0.481 2.074 255 255 255
0.384 -0.005 0.594 0 0 0
-0.245 -1.554 2.105 0 0 0
-0.889 -0.64 1.768 255 255 255
0.121 0.114 0.6 255 255 255
-0.179 0.318 0.821 255 255 255
-1.127 -0.363 1.649 255 255 255
-0.273 0.312 0.859 255 255 255
-0.176 0.365 0.822 255 255 255
0.085 0.14 0.657 255 255 255
-0.162 0.142 0.987 255 255 255
-0.38 0.066 1.009 255 255 255
-0.09 -0.027 0.865 255 255 255
-0.837 -0.764 1.771 255 255 255
-0.463 -0.116 1.017 255 255 255
-0.919 -0.859 1.662 255 255 255
0.035 0.109 0.697 255 255 255
0.257 0.029 0.501 0 0 0
-0.641 0.084 1.083 255 255 255
-0.006 0.105 0.757 255 255 255
0.798 -0.41 1.47 255 255 255
-0.56 0.575 1.402 255 255 255
-0.797 -0.745 1.877 255 255 255
-0.773 -0.449 2.009 255 255 255
0.92 -1.644 2.546 255 255 255
-0.653 -1.369 1.779 0 0 0
-0.401 0.022 1.015 255 255 255
-0.063 0.273 0.754 255 255 255
0.78 -0.96 2.979 255 255 255
-0.661 0.239 1.219 255 255 255
-0.497 0.038 0.965 255 255 255
0.171 0.111 0.567 255 255 255
-0.396 -1.467 1.988 0 0 0
0.044 -0.16 0.786 255 255 255
0.374 -1.418 2.798 255 255 255
1.152 -0.988 2.238 255 255 255
-0.663 -1.065 1.88 255 255 255
-0.426 -0.17 1.131 0 0 0
-1.107 -0.301 1.686 255 255 255
-0.424 0.113 0.989 255 255 255
0.176 0.277 0.643 255 255 255
0.3 -0.135 0.787 0 0 0
-0.341 -1.434 2.054 255 255 255
0.194 0.043 0.561 255 255 255
0.208 0.176 0.517 255 255 255
-0.639 -0.783 2.008 255 255 255
1.1 -1.615 2.306 255 255 255
-0.747 -0.703 1.939 255 255 255
0.935 -1.009 2.646 255 255 255
-0.372 -0.145 1.248 0 0 0
0 0.071 0.728 255 255 255
0.147 0.052 0.577 255 255 255
0.114 0.367 0.738 255 255 255
0.251 0.104 0.51 255 255 255
0.06 0.197 0.725 255 255 255
-0.091 0.351 0.763 255 255 255
-0.061 0.335 0.714 255 255 255
-0.277 0.251 0.89 255 255 255
-0.405 -1.258 2.05 255 255 255
-0.026 0.062 0.753 255 255 255
0.236 0.096 0.516 255 255 255
-1.157 -0.191 1.683 255 255 255
-0.39 -1.38 2.022 255 255 255
0.366 -0.404 1.734 255 255 255
0.094 -0.012 0.634 255 255 255
-0.684 -0.343 2.129 255 255 255
-0.488 0.224 1.027 255 255 255
0.22 0.163 0.493 255 255 255
-0.952 -0.746 1.672 255 255 255
-0.808 -0.62 1.912 255 255 255
-0.575 0.614 1.351 255 255 255
0.155 0.117 0.579 255 255 255
0.718 -1.794 2.694 255 255 255
-0.098 -0.097 0.935 255 255 255
-0.091 0.03 0.828 255 255 255
-0.657 -0.689 2.03 255 255 255
-0.633 -1.276 1.831 255 255 255
0.253 -0.021 0.516 255 255 255
-0.278 -0.11 1.09 255 255 255
0.211 0.133 0.525 255 255 255
-1.12 0.017 1.795 255 255 255
0.073 0.283 0.711 255 255 255
-0.645 0.213 1.13 255 255 255
-0.434 -1.161 2.061 255 255 255
0.2 0.312 0.625 255 255 255
-0.354 -0.677 2.323 255 255 255
0.244 0.091 0.525 255 255 255
0.15 -0.03 0.662 255 255 255
-0.017 -0.7 2.697 255 255 255
-0.015 0.056 0.75 255 255 255
0.308 0.082 0.517 0 0 0
-0.756 -1.24 1.727 255 255 255
-0.01 0.002 0.724 0 0 0
0.763 -1.329 2.839 255 255 255
-0.115 -0.136 1.079 255 255 255
-1.121 -0.352 1.656 255 255 255
0.96 -1.565 2.524 255 255 255
-0.083 -0.533 2.711 255 255 255
0.236 0.174 0.484 255 255 255
0.133 -0.052 0.617 255 255 255
-0.094 -0.033 0.872 255 255 255
-0.188 -1.466 2.178 255 255 255
-0.872 -1.054 1.626 255 255 255
0.011 -0.149 0.772 255 255 255
-0.187 0.145 0.962 255 255 255
-0.82 -0.686 1.814 255 255 255
0.309 -0.105 0.756 255 255 255
1.018 -1.433 2.485 255 255 255
-1.193 0.109 1.763 255 255 255
-0.043 -1.259 2.461 255 255 255
-0.422 -0.127 1.131 255 255 255
0.095 0.124 0.628 0 0 0
-0.625 0.18 1.082 255 255 255
0.182 -0.005 0.473 255 255 255
0.06 0.256 0.703 255 255 255
0.551 -0.063 0.764 0 0 0
-0.084 0.115 0.869 255 255 255
0.35 -0.29 1.316 255 255 255
0.252 0.087 0.524 255 255 255
1.279 -0.667 2.078 255 255 255
-1.146 -0.173 1.698 255 255 255
1.328 -0.677 2.02 255 255 255
0.228 0.189 0.503 255 255 255
0.869 -0.943 2.725 255 255 255
0.041 0.127 0.711 255 255 255
0.13 0.363 0.657 255 255 255
-0.373 0.662 1.222 255 255 255
0.724 -1.453 2.823 255 255 255
0.517 -0.909 2.736 0 0 0
-0.399 -0.055 1.12 255 255 255
-0.513 -0.916 2.072 255 255 255
0.183 0.024 0.495 0 0 0
0.01 -1.317 2.488 255 255 255
-0.141 0.327 0.782 255 255 255
0.104 0.346 0.75 255 255 255
0.148 0.168 0.59 255 255 255
0.187 0.037 0.511 255 255 255
0.149 0.049 0.573 255 255 255
-0.118 0.113 0.917 255 255 255
-0.036 -0.008 0.692 255 255 255
-0.73 -0.396 2.066 255 255 255
0.23 0.166 0.486 255 255 255
0.741 -1.303 2.864 255 255 255
-0.262 -0.129 1.099 255 255 255
-0.025 0.176 0.768 255 255 255
0.195 0.302 0.626 255 255 255
-0.822 -0.975 1.767 255 255 255
0.72 -0.353 1.321 0 0 0
-0.017 -0.704 2.692 255 255 255
1.081 -1.272 2.491 255 255 255
-0.059 -1.627 2.31 255 255 255
0.473 -0.054 0.741 0 0 0
0.309 0.043 0.484 255 255 255
0.538 -0.074 0.777 0 0 0
-0.158 0.156 0.95 255 255 255
-0.687 -0.817 1.949 255 255 255
0.269 0.072 0.492 255 255 255
0.037 0.101 0.691 0 0 0
-0.725 -0.698 1.969 255 255 255
0.083 0.029 0.652 255 255 255
0.922 -0.956 2.657 255 255 255
-0.139 -1.284 2.355 255 255 255
-0.042 0.101 0.801 255 255 255
0.845 -1.695 2.573 255 255 255
0.069 -0.001 0.692 0 0 0
-0.43 0.247 1.01 255 255 255
-0.038 0.275 0.729 255 255 255
-0.457 0.303 1.01 0 0 0
0.54 -0.104 0.755 255 255 255
1.185 -1.053 2.415 255 255 255
-0.376 0.037 1.05 255 255 255
0.15 0.11 0.586 255 255 255
0.532 -1.29 2.55 255 255 255
-1.165 -0.276 1.643 255 255 255
-0.513 -0.273 1.068 0 0 0
0.227 0.124 0.511 0 0 0
-0.821 -0.492 1.88 255 255 255
0.151 0.116 0.582 255 255 255
0.242 -0.023 0.52 0 0 0
0.19 -0.186 1.042 255 255 255
-0.431 -1.391 1.98 255 255 255
0.275 0.015 0.521 255 255 255
-0.381 -0.773 2.255 0 0 0
0.216 0.138 0.518 255 255 255
-1.002 -0.586 1.686 255 255 255
0.411 -0.318 1.268 255 255 255
-0.398 -0.013 1.098 255 255 255
0.165 0.003 0.667 0 0 0
0.73 -0.473 1.549 0 0 0
0.148 0.26 0.667 255 255 255
1.041 -1.663 2.365 255 255 255
0.94 -1.651 2.504 255 255 255
-0.664 0.552 1.496 255 255 255
0.276 0.038 0.517 255 255 255
0.076 -0.042 0.627 0 0 0
-0.485 -1.151 2.016 255 255 255
-0.578 0.121 1.09 255 255 255
-0.299 0.044 1.061 255 255 255
0.166 0.062 0.57 255 255 255
-0.413 0.667 1.217 255 255 255
0.026 0.239 0.697 255 255 255
-0.192 -0.057 0.95 255 255 255
-0.786 -1.121 1.746 255 255 255
-0.11 -1.451 2.338 255 255 255
0.443 -1.683 2.765 255 255 255
-0.609 0.245 1.24 255 255 255
-0.139 -1.53 2.266 255 255 255
-0.051 0.026 0.799 255 255 255
-0.717 -0.596 2.007 255 255 255
-0.343 -0.745 2.298 255 255 255
0.099 0.173 0.656 255 255 255
-1.191 0.117 1.767 255 255 255
0.169 -0.198 1.041 255 255 255
-0.175 0.126 1.005 255 255 255
0.73 -0.355 1.313 255 255 255
-0.564 -0.974 2.001 255 255 255
-1.047 -0.391 1.71 255 255 255
1.218 -1.168 2.356 255 255 255
-0.848 -0.692 1.784 255 255 255
-0.097 0.248 0.798 255 255 255
0.057 -0.055 0.655 0 0 0
-0.298 0.139 1.007 255 255 255
0.788 -1.113 2.895 255 255 255
0.367 0.008 0.591 0 0 0
-0.125 -1.266 2.39 255 255 255
-0.024 0.111 0.78 255 255 255
0.188 0.189 0.552 255 255 255
0.057 -0.018 0.609 255 255 255
-0.142 -0.02 0.908 255 255 255
0.25 0.136 0.491 255 255 255
0.911 -1.008 2.685 255 255 255
0.634 -1.637 2.821 255 255 255
0.173 0.052 0.563 255 255 255
0.304 0.098 0.509 255 255 255
0.748 -1.796 2.654 255 255 255
1.178 -1.308 2.346 255 255 255
0.266 -0.919 2.885 255 255 255
0.675 -1.5 2.851 255 255 255
-0.266 0.078 1.056 0 0 0
0.772 -0.373 1.349 255 255 255
-0.295 0.125 1.093 255 255 255
0.151 0.077 0.607 255 255 255
-0.837 -0.716 1.783 255 255 255
-0.42 -0.03 1.029 255 255 255
0.033 0.2 0.733 0 0 0
0.029 0.182 0.752 255 255 255
0.622 -1.829 2.752 255 255 255
-0.011 -1.495 2.412 255 255 255
-0.272 -0.848 2.333 255 255 255
-0.508 -1.21 1.972 255 255 255
-0.909 -0.689 1.73 255 255 255
-0.002 0.162 0.785 255 255 255
-0.483 -0.967 2.09 255 255 255
0.171 0.129 0.556 255 255 255
0.265 -0.967 2.86 255 255 255
1.331 -0.842 2.096 255 255 255
-0.615 -0.453 2.153 255 255 255
0.083 -0.187 0.92 255 255 255
0.073 -0.171 0.843 255 255 255
0.019 0.231 0.701 255 255 255
0.374 -0.011 0.619 255 255 255
0.132 -0.15 0.895 255 255 255
-0.226 0.255 0.803 255 255 255
0.022 0.207 0.723 255 255 255
0.241 -0.824 2.885 255 255 255
-0.022 0.106 0.777 255 255 255
0.135 0.172 0.61 255 255 255
0.252 -0.998 2.84 255 255 255
-0.254 0.017 1.042 255 255 255
0.191 0.024 0.487 255 255 255
-0.19 -0.1 0.98 255 255 255
0.161 0.105 0.579 255 255 255
-0.606 -1.41 1.807 255 255 255
0.217 -1.536 2.599 255 255 255
0.471 -0.108 0.851 255 255 255
0.854 -1.48 2.668 0 0 0
0.251 0.072 0.496 0 0 0
0.14 0.17 0.603 255 255 255
0.027 -1.609 2.407 255 255 255
0.193 0.046 0.499 255 255 255
1.036 -1.635 2.381 255 255 255
-0.085 -0.169 1.113 255 255 255
0.088 0.026 0.647 255 255 255
0.234 0.337 0.609 255 255 255
-0.162 0.011 0.908 255 255 255
-0.472 -0.451 2.288 255 255 255
-0.462 -0.245 1.121 0 0 0
-0.313 -0.521 2.408 255 255 255
0.571 -0.42 1.409 255 255 255
-0.601 0.174 1.086 255 255 255
-0.046 -0.143 1.04 255 255 255
-1.074 -0.236 1.741 255 255 255
0.308 -1.292 2.784 255 255 255
0.065 0.336 0.637 255 255 255
0.538 -1.577 2.767 255 255 255
0.047 0.278 0.706 255 255 255
0.939 -1.168 2.778 255 255 255
0.294 -0.102 0.75 0 0 0
0.111 -1.105 2.664 255 255 255
-0.421 -0.028 1.054 255 255 255
0.234 0.204 0.512 255 255 255
0.005 -1.526 2.407 255 255 255
-0.909 -0.969 1.63 255 255 255
0.302 -1.754 2.612 255 255 255
-0.506 -0.903 2.089 255 255 255
0.052 -0.014 0.61 255 255 255
0.073 0.222 0.728 255 255 255
0.147 0.006 0.689 0 0 0
-1.137 -0.173 1.706 255 255 255
-1.189 -0.264 1.629 255 255 255
-0.183 -0.024 0.944 255 255 255
0.23 0.232 0.53 255 255 255
-0.245 0.272 0.814 255 255 255
0.233 0.007 0.521 255 255 255
0.255 0.134 0.486 255 255 255
-0.47 -1.09 2.055 255 255 255
-0.562 0.088 1.036 255 255 255
0.016 -1.542 2.41 255 255 255
1.135 -1.008 2.235 255 255 255
-0.446 0.009 0.984 255 255 255
0.792 -0.941 2.979 255 255 255
0.046 -0.003 0.723 0 0 0
-0.066 0.254 0.774 255 255 255
-0.178 0.336 0.82 255 255 255
-0.236 0.284 0.806 255 255 255
-1.035 -0.518 1.676 255 255 255
-0.013 -0.079 0.883 0 0 0
-0.417 -0.63 2.273 255 255 255
-0.666 0.162 1.094 255 255 255
-0.219 0.073 1.031 255 255 255
0.511 -0.908 2.77 0 0 0
-1.152 -0.409 1.613 255 255 255
0.055 -0.124 0.783 255 255 255
-0.276 -0.44 2.489 255 255 255
-0.481 -0.978 2.08 0 0 0
-0.698 -0.409 2.094 255 255 255
-0.43 0.013 0.985 255 255 255
-0.297 0.255 0.931 255 255 255
0.101 0.352 0.642 255 255 255
-1.102 -0.467 1.631 255 255 255
0.198 0.153 0.515 255 255 255
0.699 -0.494 1.534 255 255 255
-0.562 -0.955 2.015 255 255 255
0.032 -1.501 2.454 255 255 255
-0.507 0.561 1.377 255 255 255
1.061 -1.555 2.381 255 255 255
-0.45 0.222 1.014 255 255 255
0.181 0.165 0.543 255 255 255
0.111 -1.055 2.677 255 255 255
-0.359 -0.861 2.248 255 255 255
0.133 -0.02 0.676 0 0 0
-0.276 0.123 1.091 255 255 255
0.178 0.102 0.565 255 255 255
0.065 -1.466 2.485 255 255 255
-0.25 0.297 0.819 255 255 255
-0.273 0.144 0.987 255 255 255
0.295 0.084 0.521 0 0 0
0.498 -0.335 1.282 255 255 255
-0.14 -0.009 0.896 255 255 255
-0.892 -0.949 1.651 255 255 255
0.978 -1.28 2.623 255 255 255
-1.157 -0.332 1.632 255 255 255
-0.326 0.657 1.228 255 255 255
0.004 -0.016 0.638 255 255 255
0.052 0.322 0.635 255 255 255
-0.184 0.452 0.855 255 255 255
-1.246 -0.076 1.642 255 255 255
-0.364 -0.052 1.118 255 255 255
0.953 -0.417 1.456 255 255 255
0.359 0.013 0.592 0 0 0
-0.055 -0.033 0.804 255 255 255
0.81 -1.823 2.552 255 255 255
-0.056 0.262 0.749 255 255 255
0.099 -1.732 2.417 255 255 255
0.022 -0.606 2.813 255 255 255
-0.596 -0.066 1.041 0 0 0
-0.361 -0.931 2.214 255 255 255
-0.425 -0.039 1.059 255 255 255
-0.795 -1.105 1.742 255 255 255
-0.118 -0.187 1.151 255 255 255
0.091 -0.004 0.649 255 255 255
0.153 0.318 0.682 0 0 0
-0.191 0.22 0.824 255 255 255
-0.691 -0.833 1.941 255 255 255
1.017 -1.28 2.57 255 255 255
-0.071 0.111 0.847 255 255 255
-0.171 -0.478 2.563 255 255 255
-0.228 -0.509 2.503 255 255 255
0.206 0.234 0.558 255 255 255
0.013 -0.064 0.722 255 255 255
-0.315 -1.485 2.058 255 255 255
0.116 0.154 0.622 255 255 255
0.075 0.11 0.641 255 255 255
0.758 -1.607 2.719 255 255 255
0.262 -1.603 2.624 255 255 255
0.008 0.347 0.653 255 255 255
-0.675 -1.089 1.864 255 255 255
-0.033 0.003 0.679 255 255 255
0.059 0.048 0.707 255 255 255
1.309 -0.845 2.13 255 255 255
0.185 0.267 0.62 255 255 255
0.972 -0.904 2.598 255 255 255
-0.305 0.096 1.033 255 255 255
-0.286 0.007 1.057 0 0 0
0.941 -0.349 1.429 0 0 0
-0.206 -0.455 2.55 255 255 255
0.233 0.137 0.505 255 255 255
-0.44 -0.851 2.17 255 255 255
-0.371 -0.852 2.235 255 255 255
0.308 -1.359 2.768 255 255 255
-0.405 -0.123 1.171 255 255 255
0.053 0.075 0.682 255 255 255
-0.076 0.247 0.801 0 0 0
-0.048 -1.618 2.327 255 255 255
0.243 0.162 0.479 255 255 255
-0.04 0.261 0.733 255 255 255
0.279 0.092 0.526 0 0 0
0.169 0.091 0.578 255 255 255
-0.017 0.264 0.759 255 255 255
0.032 0.006 0.736 0 0 0
-0.13 -0.825 2.509 255 255 255
-0.42 0.36 1.182 255 255 255
0.188 0.012 0.479 255 255 255
0.28 -0.269 1.306 255 255 255
-0.087 0.363 0.734 255 255 255
-0.306 -0.639 2.372 255 255 255
0.182 0.117 0.557 255 255 255
0.233 0.149 0.495 255 255 255
0.452 -0.044 0.699 255 255 255
0.245 0.149 0.489 255 255 255
0.045 0.061 0.708 255 255 255
0.427 -0.017 0.629 255 255 255
-0.432 0.029 0.978 255 255 255
-0.809 -0.995 1.772 255 255 255
0.128 0.377 0.728 255 255 255
0.278 -0.073 0.601 255 255 255
0.445 -0.307 1.202 255 255 255
-0.106 0.249 0.799 255 255 255
-0.152 0.311 0.791 255 255 255
0.222 -0.814 2.871 255 255 255
-0.194 0.149 0.953 255 255 255
0.236 0.004 0.52 255 255 255
-0.264 0.311 0.846 255 255 255
-0.079 0.077 0.837 255 255 255
-0.04 0.207 0.759 255 255 255
0.076 -1.433 2.509 255 255 255
-0.479 0.264 1.023 255 255 255
-0.233 -0.01 1.011 255 255 255
-1.12 -0.182 1.725 255 255 255
0.522 -0.168 1.02 255 255 255
-0.813 -0.503 1.892 255 255 255
0.409 -0.288 1.172 255 255 255
0.176 0.094 0.572 255 255 255
-0.345 -0.951 2.225 255 255 255
-0.837 -1.194 1.646 0 0 0
0.425 -1.847 2.694 255 255 255
0.848 -1.16 2.796 0 0 0
0.133 0.065 0.611 255 255 255
0.201 0.254 0.578 255 255 255
-0.474 0.102 0.994 255 255 255
0.025 0.008 0.74 0 0 0
-0.53 0.65 1.268 255 255 255
0.06 -0.098 0.754 255 255 255
1.134 -1.436 2.342 255 255 255
-0.435 -0.937 2.144 255 255 255
-0.236 -0.13 1.077 255 255 255
-1.174 0.069 1.767 255 255 255
0.236 0.202 0.507 255 255 255
0.083 -0.992 2.674 255 255 255
-0.221 -1.046 2.304 255 255 255
0.848 -1.88 2.5 0 0 0
-0.203 0.294 0.808 255 255 255
0.29 0.087 0.524 0 0 0
-0.133 0.395 0.778 255 255 255
-0.432 -0.189 1.13 0 0 0
-0.375 0.636 1.274 255 255 255
0.135 0.093 0.614 255 255 255
-0.231 -1.589 2.1 0 0 0
0.824 -1.892 2.5 0 0 0
0.051 0.011 0.701 255 255 255
-0.279 -0.984 2.272 255 255 255
-0.229 0.267 0.805 255 255 255
-0.133 0.014 0.873 255 255 255
0.181 -0.017 0.481 255 255 255
-0.027 -1.247 2.487 255 255 255
-0.477 -1.037 2.064 255 255 255
-1.192 -0.099 1.68 255 255 255
0.139 0.247 0.67 255 255 255
0.049 -0.014 0.611 255 255 255
0.021 -1.115 2.572 255 255 255
0.1 0.046 0.64 255 255 255
1.274 -0.634 2.066 255 255 255
-0.039 -0.046 0.807 255 255 255
-0.463 -0.152 1.025 255 255 255
1.105 -1.282 2.451 255 255 255
-0.398 0.271 1.009 255 255 255
-0.583 0.598 1.385 255 255 255
-0.083 0.246 0.807 0 0 0
-0.297 0.654 1.226 255 255 255
0.312 -0.23 1.208 255 255 255
0.226 0.156 0.493 255 255 255
-0.407 0.296 1.014 255 255 255
0.45 -1.467 2.845 255 255 255
0.18 -0.001 0.675 0 0 0
0.945 -0.352 1.428 0 0 0
-0.811 -0.458 1.882 255 255 255
-0.487 0.638 1.283 255 255 255
0.094 0.169 0.661 255 255 255
0.78 -1.431 2.768 255 255 255
0.029 0.03 0.703 0 0 0
-0.818 -0.525 1.877 255 255 255
0.048 0.073 0.689 255 255 255
0.453 -0.032 0.634 255 255 255
-0.587 0.059 1.029 255 255 255
-0.844 -0.712 1.78 255 255 255
-0.293 -1.353 2.131 255 255 255
-0.151 -1.214 2.324 255 255 255
-0.085 -0.85 2.571 255 255 255
0.438 -0.047 0.715 255 255 255
-0.89 0.418 1.831 255 255 255
-0.134 0.201 0.941 0 0 0
0.96 -1.153 2.787 255 255 255
-0.666 -0.818 1.969 255 255 255
-0.297 0.256 0.93 255 255 255
-0.07 -0.108 1.003 255 255 255
-0.43 -0.605 2.27 255 255 255
-0.869 -1.039 1.635 255 255 255
0 0.077 0.724 255 255 255
-0.429 0.185 0.999 255 255 255
-0.938 -0.797 1.665 255 255 255
0.147 -0.018 0.68 0 0 0
-0.119 0.149 0.948 255 255 255
-0.594 -1.382 1.827 0 0 0
-0.234 -1.425 2.152 255 255 255
0.532 -0.126 0.839 255 255 255
0.3 -0.857 2.932 255 255 255
-0.14 0.288 0.786 255 255 255
-0.646 -0.495 2.11 255 255 255
0.198 0.017 0.48 255 255 255
0.053 0.305 0.653 255 255 255
-0.457 -0.193 1.057 255 255 255
0.067 0.07 0.682 255 255 255
0.181 -0.019 0.497 0 0 0
0.468 -1.528 2.82 255 255 255
0.06 0.34 0.629 255 255 255
-0.543 -1.123 1.974 255 255 255
0.602 -0.506 1.6 0 0 0
0.066 0.323 0.643 255 255 255
0.987 -1.218 2.631 255 255 255
0.918 -1.497 2.619 255 255 255
0.527 -0.733 2.638 0 0 0
0.172 0.033 0.573 255 255 255
-0.375 0.058 1.021 255 255 255
-0.593 -0.865 2.019 255 255 255
0.032 -1.631 2.397 255 255 255
-0.178 -0.642 2.491 255 255 255
-0.127 0.291 0.767 255 255 255
-0.16 0.196 0.945 255 255 255
0.255 -1.557 2.632 255 255 255
0.272 -1.006 2.86 255 255 255
0.026 -1.345 2.493 255 255 255
0.18 -0.023 0.671 0 0 0
0.417 -0.033 0.683 0 0 0
-0.389 -1.243 2.074 255 255 255
-0.416 -0.089 1.137 255 255 255
-0.549 -1.096 1.972 255 255 255
0.193 0.005 0.476 255 255 255
0.718 -1.714 2.729 255 255 255
0.075 0.167 0.685 255 255 255
-0.288 0.14 1.015 255 255 255
-0.064 0.133 0.856 255 255 255
0.015 0.303 0.702 255 255 255
-0.377 -0.002 1.093 255 255 255
-1.114 -0.452 1.63 255 255 255
0.306 -0.869 2.929 255 255 255
-1.132 -0.078 1.749 255 255 255
1.211 -0.895 2.203 255 255 255
0.091 -0.041 0.613 0 0 0
-0.119 -0.021 0.889 255 255 255
-0.968 -0.724 1.664 255 255 255
0.033 -0.103 0.752 255 255 255
-0.158 0.213 0.93 255 255 255
0.162 -0.05 0.634 255 255 255
-0.472 -0.394 2.317 255 255 255
0.103 0.349 0.646 255 255 255
-0.67 0.157 1.096 255 255 255
0.201 -0.077 0.646 255 255 255
0.062 0.2 0.725 255 255 255
-0.75 -0.835 1.886 255 255 255
0.386 -1.957 2.634 0 0 0
-0.176 -0.045 0.94 255 255 255
0.015 -0.134 0.771 255 255 255
0.072 0.296 0.694 255 255 255
-1.175 -0.377 1.595 255 255 255
0.062 0.243 0.711 255 255 255
0.05 -0.041 0.662 0 0 0
0.111 -1.263 2.608 255 255 255
0.034 0.205 0.727 0 0 0
-1.176 -0.253 1.64 255 255 255
0.196 -0.037 0.648 0 0 0
-0.818 -0.599 1.896 0 0 0
0.25 0.016 0.509 0 0 0
-0.675 -1.131 1.847 255 255 255
1.204 -1.247 2.342 255 255 255
0.097 -0.019 0.63 255 255 255
-0.383 -0.136 1.18 0 0 0
0.8 -1.015 2.918 255 255 255
0.152 -0.2 1.032 255 255 255
0.23 -0.031 0.524 255 255 255
0.06 0.218 0.738 255 255 255
0.669 -1.544 2.838 255 255 255
-0.03 0.15 0.818 255 255 255
0.492 -0.276 1.1 255 255 255
0.037 0.045 0.722 255 255 255
0.713 -1.194 2.94 255 255 255
-0.297 0.068 1.038 255 255 255
-1.037 -0.571 1.66 255 255 255
-0.829 -1.044 1.711 0 0 0
0.242 0.161 0.48 255 255 255
-1.143 -0.173 1.701 255 255 255
-0.271 0.035 1.075 255 255 255
-0.128 0.235 0.798 255 255 255
-0.501 -1.102 2.021 255 255 255
-0.199 -0.892 2.384 255 255 255
0.036 0.238 0.693 255 255 255
-0.674 -0.542 2.07 255 255 255
0.274 0.004 0.518 255 255 255
0.21 0.087 0.562 255 255 255
-0.041 0.091 0.794 255 255 255
0.491 -0.072 0.811 255 255 255
-1.109 0.069 1.808 255 255 255
-0.68 -0.997 1.899 255 255 255
-0.497 0.628 1.308 255 255 255
-0.45 0.63 1.296 255 255 255
-0.097 0.047 0.838 255 255 255
-0.348 0.106 1.039 255 255 255
-1.031 0.419 1.876 255 255 255
0.158 0.032 0.594 255 255 255
-0.219 0.197 0.903 255 255 255
-0.234 0.152 0.981 255 255 255
0.217 -0.003 0.514 255 255 255
0.107 0.291 0.731 255 255 255
0.246 -0.116 0.78 255 255 255
-0.297 -1.501 2.064 0 0 0
0.222 0.146 0.503 255 255 255
-0.096 0.175 0.93 255 255 255
-0.775 -0.669 1.924 255 255 255
-0.585 -0.176 1.041 0 0 0
0.209 -0.03 0.507 255 255 255
0.353 -0.926 2.963 255 255 255
0.174 0.181 0.563 255 255 255
-0.074 0.273 0.744 255 255 255
-0.394 0.664 1.215 255 255 255
0.41 -0.413 1.625 255 255 255
-0.369 -0.768 2.273 255 255 255
0.016 0.131 0.74 255 255 255
-0.389 -1.145 2.109 255 255 255
0.396 -1.665 2.74 255 255 255
-0.379 -0.107 1.163 0 0 0
-0.189 -1.146 2.304 255 255 255
0.217 0.283 0.591 255 255 255
-0.817 -0.63 1.899 0 0 0
-0.652 -0.541 2.09 255 255 255
0.245 0.139 0.495 255 255 255
-1.206 -0.106 1.663 255 255 255
-0.145 -0.065 0.936 255 255 255
-0.485 -1.031 2.061 255 255 255
-0.121 -0.866 2.531 255 255 255
0.433 -0.266 1.091 255 255 255
0.468 -1.453 2.843 255 255 255
0.066 -0.002 0.696 0 0 0
-0.468 -0.199 1.036 255 255 255
-1.102 -0.386 1.66 255 255 255
0.396 -1.739 2.712 255 255 255
-0.853 0.496 1.648 255 255 255
0.15 -0.045 0.634 255 255 255
0.106 0.138 0.62 255 255 255
-0.235 -1.502 2.125 255 255 255
-1.09 -0.209 1.739 255 255 255
-0.169 -0.078 0.954 255 255 255
-0.491 -1.402 1.917 0 0 0
-0.217 0.252 0.807 255 255 255
-1.003 0.429 1.85 255 255 255
-0.673 -0.799 1.967 255 255 255
-0.945 -0.812 1.656 255 255 255
0.2 0.083 0.576 255 255 255
0.264 -0.021 0.516 255 255 255
-0.174 0.376 0.825 255 255 255
0.767 -1.589 2.713 255 255 255
0.302 -0.042 0.556 255 255 255
-0.123 0.216 0.974 0 0 0
1.352 -0.713 2.013 255 255 255
-0.086 -0.674 2.639 255 255 255
-0.819 -0.968 1.772 255 255 255
0.154 0.144 0.561 255 255 255
-0.019 -0.143 0.76 255 255 255
-0.672 0.094 1.103 255 255 255
-0.632 -1.351 1.809 0 0 0
0.238 0.335 0.602 255 255 255
-0.16 -1.376 2.245 255 255 255
-0.299 0.016 1.062 255 255 255
0.037 -1.685 2.373 255 255 255
0.034 0.239 0.692 255 255 255
0.199 -0.011 0.621 255 255 255
-1.121 -0.29 1.68 255 255 255
0.146 0.031 0.592 255 255 255
0.043 0.232 0.703 255 255 255
-0.174 -0.143 1.077 255 255 255
-0.182 0.338 0.822 255 255 255
-0.784 -1.308 1.682 0 0 0
0.228 0.128 0.51 0 0 0
-0.436 -0.129 1.107 255 255 255
-0.796 -0.881 1.825 255 255 255
-0.283 -1.307 2.153 255 255 255
1.005 -1.337 2.553 255 255 255
-0.709 -0.37 2.102 255 255 255
0.189 0.34 0.615 255 255 255
0.294 0.036 0.493 0 0 0
0.257 -1.88 2.517 0 0 0
-0.229 -1.23 2.229 255 255 255
0.102 0.072 0.646 255 255 255
-0.396 -0.15 1.172 0 0 0
1.256 -0.853 2.175 255 255 255
0.177 0.311 0.666 0 0 0
-0.373 0.665 1.21 255 255 255
0.809 -0.969 2.938 255 255 255
-1.057 -0.184 1.774 255 255 255
0.09 0.128 0.639 255 255 255
-0.923 0.481 1.705 255 255 255
-0.053 0.305 0.715 255 255 255
-0.425 -0.052 1.103 255 255 255
-0.785 -0.947 1.809 255 255 255
0.018 -0.157 0.773 255 255 255
0.227 0.081 0.523 255 255 255
-0.055 0.235 0.79 255 255 255
0.981 -0.434 1.457 255 255 255
0.23 0.147 0.499 255 255 255
-0.858 0.464 1.738 255 255 255
0.246 -0.013 0.518 0 0 0
-0.496 -0.031 0.982 255 255 255
-0.21 -0.007 0.973 255 255 255
0.24 0.032 0.515 255 255 255
0.247 0.04 0.507 0 0 0
-0.485 0.18 1.016 255 255 255
0.113 -0.037 0.616 255 255 255
0.687 -1.159 2.98 255 255 255
-0.302 -0.098 1.103 255 255 255
-0.413 0.134 0.993 255 255 255
0.003 -0.119 0.757 255 255 255
0.249 0.121 0.515 255 255 255
-0.792 -1.077 1.756 255 255 255
0.15 0.341 0.67 255 255 255
0.195 0.292 0.624 0 0 0
-0.704 -1.325 1.753 0 0 0
-0.64 -0.028 1.088 255 255 255
-0.129 -0.019 0.897 255 255 255
-0.276 0.296 0.857 255 255 255
-0.338 -0.063 1.105 0 0 0
0.304 0.048 0.48 255 255 255
-1.044 -0.395 1.712 255 255 255
0.113 -0.041 0.609 255 255 255
0.039 -0.069 0.726 255 255 255
-0.562 -0.447 2.204 255 255 255
0.476 -0.092 0.845 255 255 255
0.271 0.061 0.476 255 255 255
-0.961 -0.821 1.64 255 255 255
-0.813 -0.478 1.895 255 255 255
0.151 -0.07 0.63 255 255 255
-0.526 0.634 1.3 255 255 255
0.218 -1.75 2.522 255 255 255
0.502 -0.083 0.817 255 255 255
1.228 -0.819 2.232 0 0 0
-0.335 -1.133 2.166 255 255 255
-0.215 0.256 0.806 255 255 255
0.295 0.076 0.503 255 255 255
0.547 -0.082 0.76 255 255 255
0.782 -1.163 2.885 255 255 255
-0.17 -1.104 2.336 255 255 255
-0.165 0.349 0.802 255 255 255
-0.493 0.549 1.376 255 255 255
0.33 -1.122 2.87 255 255 255
-0.179 0.208 0.882 255 255 255
0.01 0.057 0.731 255 255 255
0.168 0.239 0.611 255 255 255
1.035 -1.28 2.551 255 255 255
-0.643 -0.728 2.022 255 255 255
0.151 0.041 0.573 255 255 255
0.185 -0.06 0.643 255 255 255
-0.405 -0.647 2.282 255 255 255
-0.118 0.34 0.767 255 255 255
-1.021 -0.413 1.728 255 255 255
-0.51 -0.401 2.269 255 255 255
-0.795 -0.944 1.8 255 255 255
-0.532 -1.297 1.919 255 255 255
0.1 -1.035 2.674 255 255 255
-0.035 0.052 0.766 255 255 255
1.243 -1.22 2.284 255 255 255
0.674 -0.485 1.547 255 255 255
-0.391 -1.397 2.02 255 255 255
-0.673 -0.603 2.043 255 255 255
-0.206 -0.68 2.456 255 255 255
0.809 -0.483 1.547 255 255 255
0.028 -0.076 0.732 255 255 255
1.039 -1.402 2.484 255 255 255
0.233 -0.036 0.643 0 0 0
-0.458 -0.027 0.989 255 255 255
-0.43 -1.199 2.051 255 255 255
-0.368 0.662 1.223 255 255 255
-0.005 0.177 0.78 0 0 0
-0.301 0.155 0.984 255 255 255
-0.461 -0.242 1.145 0 0 0
-0.274 -1.23 2.184 255 255 255
0.932 -1.577 2.552 255 255 255
1.152 -1.271 2.357 0 0 0
-0.195 0.151 0.949 255 255 255
-0.1 0.374 0.68 255 255 255
-0.466 -1.025 2.083 255 255 255
0.202 0.007 0.482 255 255 255
-0.673 -1.065 1.868 255 255 255
-0.33 -0.786 2.298 255 255 255
-0.647 0.567 1.46 255 255 255
0.15 -0.082 0.686 0 0 0
0.014 0.035 0.702 255 255 255
-0.644 -0.66 2.057 255 255 255
0.228 0.031 0.519 255 255 255
1.289 -0.88 2.129 255 255 255
0.412 -0.02 0.649 0 0 0
0.441 -0.235 1.022 255 255 255
1.194 -1.062 2.167 0 0 0
-0.688 -1.037 1.868 255 255 255
0.424 -0.043 0.695 0 0 0
0.543 -0.213 1.041 0 0 0
0.241 0.094 0.522 255 255 255
0.213 0.017 0.499 255 255 255
1.152 -1.04 2.224 255 255 255
-0.068 0.134 0.863 255 255 255
0.022 -0.625 2.769 0 0 0
-0.255 -0.513 2.469 255 255 255
0.708 -1.826 2.696 255 255 255
-1.006 -0.515 1.708 255 255 255
-0.107 0.175 0.941 255 255 255
-0.737 -0.478 2.032 255 255 255
-0.341 0.18 0.992 255 255 255
-0.796 -0.766 1.871 255 255 255
0.213 0.089 0.503 0 0 0
-0.206 0.271 0.811 255 255 255
0.015 0.182 0.767 255 255 255
-0.669 -1.258 1.804 255 255 255
-0.054 -1.517 2.36 255 255 255
0.405 -0.698 2.762 0 0 0
-0.071 0.145 0.879 255 255 255
-0.535 -1.072 1.998 255 255 255
-0.115 0.108 0.907 255 255 255
0.065 0.024 0.694 255 255 255
0.133 -0.07 0.632 255 255 255
-0.41 0.106 1 255 255 255
0.133 0.234 0.662 255 255 255
-1.081 -0.571 1.614 255 255 255
-0.063 0.147 0.867 255 255 255
-0.323 -0.974 2.233 255 255 255
0.171 0.136 0.545 255 255 255
-0.773 -0.637 1.936 255 255 255
-0.815 -0.573 1.916 255 255 255
0.083 0.117 0.636 255 255 255
-0.202 0.111 1.031 255 255 255
-0.682 0.558 1.485 255 255 255
-0.337 -0.084 1.119 0 0 0
0.088 0.103 0.635 255 255 255
-0.04 0.258 0.748 255 255 255
0.429 -0.004 0.596 255 255 255
-0.331 -1.402 2.071 255 255 255
-0.104 0.22 0.789 255 255 255
1.058 -1.131 2.573 255 255 255
-0.024 0.303 0.704 255 255 255
1.263 -1.204 2.254 255 255 255
-0.889 0.474 1.718 255 255 255
-1.131 -0.311 1.662 255 255 255
-0.663 -0.337 2.153 255 255 255
0.334 -1.698 2.664 255 255 255
-0.254 -0.049 1.024 255 255 255
-0.652 -0.895 1.961 255 255 255
-0.41 0.353 1.161 255 255 255
0.334 0.017 0.582 255 255 255
-0.633 0.218 1.221 255 255 255
0.162 -0.126 0.841 0 0 0
0.228 0.069 0.504 255 255 255
-0.012 -0.909 2.627 255 255 255
-0.439 -0.19 1.116 0 0 0
0.245 -0.022 0.519 0 0 0
-0.472 0.116 0.998 255 255 255
-0.697 -1.176 1.812 255 255 255
-0.418 0.275 1.01 255 255 255
0.878 -1.647 2.598 255 255 255
0.231 0.301 0.594 255 255 255
0.224 0.156 0.494 255 255 255
-1.194 0.085 1.75 255 255 255
-0.639 -1.091 1.895 255 255 255
-0.749 -1.205 1.75 255 255 255
0.245 0.025 0.512 0 0 0
-0.212 -1.021 2.324 255 255 255
0.811 -1.755 2.59 255 255 255
0.285 0.088 0.525 0 0 0
0.171 -0.067 0.631 255 255 255
0.731 -0.239 1.006 255 255 255
-0.485 -0.087 1.003 255 255 255
-0.464 0.638 1.281 255 255 255
-0.234 -0.026 0.995 255 255 255
-0.96 -0.629 1.709 255 255 255
-0.387 -0.87 2.213 255 255 255
0.536 -0.322 1.174 255 255 255
-1.23 0.024 1.699 255 255 255
-0.043 0.136 0.827 255 255 255
-0.635 -1.105 1.893 255 255 255
-0.745 0.515 1.598 255 255 255
-0.109 0.261 0.775 255 255 255
-0.427 0.656 1.232 255 255 255
-0.102 0.078 0.865 255 255 255
-0.876 -1.023 1.637 255 255 255
0.089 -0.132 0.793 255 255 255
0.084 0.109 0.633 255 255 255
-0.786 -1.259 1.698 0 0 0
-0.03 0.154 0.822 255 255 255
-1.219 -0.247 1.602 255 255 255
0.192 0.24 0.585 255 255 255
-0.429 0.636 1.285 255 255 255
0.06 -0.046 0.67 0 0 0
-0.646 -0.752 2.011 255 255 255
0.205 -0.016 0.66 0 0 0
-0.6 -0.734 2.062 255 255 255
-0.205 0.296 0.808 255 255 255
-0.941 -0.624 1.727 255 255 255
0.557 -0.34 1.206 255 255 255
0.047 0.052 0.719 255 255 255
0.583 -0.278 1.214 0 0 0
-0.069 0.287 0.728 255 255 255
0.027 0.156 0.742 255 255 255
0.016 -1.036 2.6 255 255 255
-0.136 -0.043 0.913 255 255 255
0.18 0.248 0.604 255 255 255
0.258 0.028 0.501 0 0 0
0.182 0.01 0.51 0 0 0
-0.151 0.211 0.939 255 255 255
0.205 0.166 0.513 0 0 0
0.22 -0.006 0.522 255 255 255
0.206 0.102 0.559 255 255 255
-1.062 -0.315 1.721 255 255 255
0.906 -0.894 2.658 255 255 255
-0.381 -0.075 1.14 255 255 255
-1.029 -0.494 1.695 255 255 255
0.082 0.309 0.688 255 255 255
-0.754 -0.702 1.932 255 255 255
0.02 0.336 0.629 255 255 255
0.152 0.15 0.574 0 0 0
-1.094 -0.314 1.696 255 255 255
-0.064 0.305 0.724 255 255 255
0.341 -1.475 2.759 255 255 255
0.156 0.135 0.559 255 255 255
1.247 -0.77 2.223 0 0 0
0.133 0.374 0.697 255 255 255
-0.063 0.341 0.715 255 255 255
0.301 -0.051 0.569 255 255 255
0.218 0.309 0.605 255 255 255
-0.53 -1.386 1.887 0 0 0
-0.455 0.669 1.212 255 255 255
-0.01 0.075 0.736 255 255 255
-0.123 -0.001 0.876 255 255 255
0.227 0.152 0.497 255 255 255
0.382 0.007 0.583 255 255 255
-0.305 -1.027 2.233 255 255 255
-0.166 -1.554 2.184 255 255 255
0.03 -0.074 0.73 255 255 255
-1.083 -0.247 1.731 255 255 255
0.111 0.212 0.672 255 255 255
-0.576 -0.196 1.038 0 0 0
0.147 0.14 0.568 255 255 255
0.193 -0.198 1.06 255 255 255
0.054 0.21 0.74 255 255 255
0.311 -0.994 2.898 255 255 255
0.024 0.194 0.739 0 0 0
0.176 -0.007 0.472 255 255 255
1.154 -0.951 2.241 255 255 255
0.186 0.241 0.591 255 255 255
0.244 -1.176 2.766 255 255 255
0.162 0.042 0.567 255 255 255
0.316 -0.291 1.327 255 255 255
0.311 -0.97 2.903 255 255 255
-0.982 -0.559 1.714 255 255 255
-0.342 0.475 1.044 255 255 255
0.211 -0.031 0.563 0 0 0
-0.562 -1.217 1.919 255 255 255
-0.422 -0.406 2.361 255 255 255
0.09 -0.12 0.788 255 255 255
0.205 -1.454 2.614 255 255 255
-0.104 0.194 0.947 255 255 255
0.101 0.128 0.628 0 0 0
0.043 -1.401 2.487 255 255 255
0.159 -0.028 0.662 255 255 255
0.631 -0.18 0.988 255 255 255
-0.91 -0.465 1.789 0 0 0
0.376 -0.303 1.284 255 255 255
0.22 -0.036 0.651 0 0 0
0.175 0.33 0.654 255 255 255
-0.843 -0.582 1.828 255 255 255
0.132 0.017 0.625 255 255 255
-0.827 -0.979 1.753 255 255 255
-0.366 0.046 1.041 255 255 255
0.236 -1.462 2.651 255 255 255
-0.419 0.15 0.996 255 255 255
0.134 0.022 0.608 255 255 255
-0.169 -0.011 0.921 255 255 255
-0.028 -0.826 2.637 255 255 255
-0.773 -0.742 1.9 255 255 255
-0.061 0.026 0.808 255 255 255
-0.208 -0.909 2.371 255 255 255
0.121 -0.215 1.015 255 255 255
-0.174 -0.089 0.949 255 255 255
0.369 -0.196 0.951 255 255 255
0.249 0.084 0.522 255 255 255
-0.434 0.084 0.986 255 255 255
0.067 -0.143 0.791 255 255 255
-0.021 -0.071 0.856 0 0 0
-0.005 0.176 0.79 255 255 255
0.173 0.25 0.617 255 255 255
0.221 0.339 0.623 255 255 255
0.529 -1.246 2.552 255 255 255
0.689 -0.276 1.225 255 255 255
0.158 -0.141 0.886 0 0 0
-0.267 0.011 1.052 0 0 0
-0.034 0.048 0.769 255 255 255
0.172 0.252 0.623 255 255 255
-0.431 0.667 1.22 255 255 255
-0.125 0.362 0.775 255 255 255
-0.032 0.04 0.773 255 255 255
-0.121 0.263 0.776 255 255 255
-0.488 0.044 0.966 255 255 255
0.275 -0.089 0.727 255 255 255
-0.072 0.339 0.729 255 255 255
-0.198 -1.487 2.162 255 255 255
0.255 -0.017 0.516 0 0 0
-0.248 -0.138 1.098 255 255 255
-0.226 -1.54 2.124 0 0 0
0.037 0.019 0.715 255 255 255
0.444 -0.012 0.619 255 255 255
0.473 -0.13 0.896 255 255 255
-0.506 -0.131 0.997 255 255 255
0.202 0.289 0.613 255 255 255
-0.485 -1.004 2.069 255 255 255
0.505 -1.04 2.997 255 255 255
-0.219 0.314 0.809 255 255 255
0.044 -0.707 2.748 255 255 255
0.154 0.05 0.568 255 255 255
-0.36 -1.198 2.117 255 255 255
0.196 0.026 0.486 255 255 255
0.185 0.025 0.601 0 0 0
0.101 0.308 0.741 0 0 0
-0.21 -0.162 1.152 255 255 255
0.015 0.177 0.766 255 255 255
0.139 0.319 0.691 0 0 0
-1.084 -0.337 1.699 255 255 255
-1.081 -0.106 1.785 255 255 255
0.121 -0.214 1.017 255 255 255
-0.348 -0.525 2.375 255 255 255
0.51 -1.032 2.992 255 255 255
0.44 -0.399 1.607 255 255 255
-0.391 -0.676 2.28 255 255 255
-0.422 0.277 1.148 255 255 255
-1.109 -0.147 1.741 255 255 255
0.424 -1.814 2.704 255 255 255
-0.626 0.183 1.176 255 255 255
0.138 0.007 0.691 0 0 0
-0.175 0.275 0.812 255 255 255
0.342 -1.267 2.833 255 255 255
-0.311 -0.073 1.087 0 0 0
0.557 -0.233 1.066 255 255 255
0.352 -0.43 1.752 255 255 255
-1.045 -0.51 1.67 255 255 255
0.071 -0.027 0.614 255 255 255
0.073 -0.007 0.636 255 255 255
0.079 0.08 0.655 255 255 255
0.195 0.041 0.565 255 255 255
0.321 -0.758 2.985 0 0 0
0.226 0.239 0.537 0 0 0
-0.246 0.13 1.007 255 255 255
0.131 0.369 0.681 255 255 255
-0.456 -0.121 1.018 255 255 255
-0.99 -0.764 1.625 255 255 255
-0.516 0.1 0.999 255 255 255
-0.1 0.228 0.943 0 0 0
-0.335 0.255 0.967 255 255 255
-0.003 0.077 0.727 255 255 255
-0.593 -0.731 2.071 255 255 255
1.084 -1.53 2.368 255 255 255
1.255 -1.169 2.274 255 255 255
0.069 0.088 0.66 255 255 255
0.543 -0.07 0.772 255 255 255
-0.572 -0.197 1.035 0 0 0
0.214 0.215 0.536 255 255 255
0.23 0.187 0.5 255 255 255
0.038 -1.752 2.354 0 0 0
-0.3 -1.051 2.225 255 255 255
0.084 0.036 0.67 255 255 255
-0.266 0.275 0.862 255 255 255
-0.34 -0.692 2.325 255 255 255
-0.289 -0.94 2.282 255 255 255
-0.152 -1.286 2.302 255 255 255
0.182 0.155 0.535 255 255 255
0.256 -1.802 2.54 255 255 255
-0.203 -0.984 2.341 255 255 255
0.166 0.142 0.549 255 255 255
0.236 0.269 0.557 255 255 255
-0.155 -1.237 2.301 255 255 255
0.14 -1.652 2.491 255 255 255
-0.389 -1.265 2.063 255 255 255
-0.042 -0.088 0.945 255 255 255
-0.448 -0.226 1.141 0 0 0
-0.561 -0.798 2.075 255 255 255
-0.055 0.219 0.771 255 255 255
-0.989 -0.464 1.738 255 255 255
0.18 0.191 0.565 255 255 255
-0.611 -0.631 2.091 255 255 255
0.213 0.304 0.608 255 255 255
-0.099 0.371 0.769 255 255 255
-0.418 0.189 0.999 255 255 255
-0.042 0.358 0.684 255 255 255
0.13 -0.054 0.615 255 255 255
0.169 -0.086 0.682 0 0 0
0.201 0.134 0.531 255 255 255
0.804 -1.746 2.614 255 255 255
-0.444 -0.926 2.142 255 255 255
-0.14 0.152 0.962 255 255 255
0.23 -0.036 0.523 255 255 255
-0.272 0.266 0.876 255 255 255
-0.404 -0.034 1.112 255 255 255
0.931 -0.468 1.546 255 255 255
0.188 0.066 0.557 255 255 255
-0.197 -1.287 2.237 255 255 255
-0.621 -1.036 1.932 255 255 255
0.285 0.034 0.515 0 0 0
-0.523 0.59 1.387 255 255 255
0.063 0.236 0.729 0 0 0
0.083 0.167 0.678 255 255 255
-0.017 0.118 0.776 255 255 255
-1.144 0.029 1.777 255 255 255
-0.183 0.018 0.947 255 255 255
0.835 -1.218 2.776 255 255 255
0.189 0.143 0.528 255 255 255
-0.462 -0.218 1.054 0 0 0
0.134 -0.207 1.023 255 255 255
-0.397 -0.414 2.387 255 255 255
0.595 -0.3 1.223 0 0 0
0.152 -1.176 2.682 255 255 255
-0.021 0.323 0.701 255 255 255
-0.731 -1.287 1.739 0 0 0
-0.417 -0.505 2.32 255 255 255
0.086 0.029 0.652 255 255 255
0.622 -0.49 1.576 255 255 255
-0.124 -0.014 0.886 255 255 255
-0.168 0.273 0.811 255 255 255
0.501 -0.562 1.843 255 255 255
0.063 0.024 0.7 0 0 0
1.166 -0.907 2.254 255 255 255
-0.548 -0.163 1.025 255 255 255
-0.807 -0.866 1.821 255 255 255
0.754 -0.496 1.562 255 255 255
-0.447 0.263 1.018 255 255 255
-0.119 0.088 0.895 255 255 255
1.042 -0.836 2.492 255 255 255
-0.461 -0.152 1.026 255 255 255
-0.227 0.248 0.814 255 255 255
-0.415 -0.154 1.16 0 0 0
0.083 0.09 0.646 255 255 255
-0.022 -1.117 2.535 255 255 255
-0.461 -0.136 1.021 255 255 255
-0.742 -1.302 1.726 0 0 0
-0.433 0.354 1.206 255 255 255
0.468 -0.118 0.932 0 0 0
-0.793 -0.658 1.912 255 255 255
-0.194 -1.018 2.343 255 255 255
0.602 -0.489 1.593 255 255 255
-0.02 0.189 0.737 0 0 0
-0.193 -0.62 2.488 255 255 255
-0.925 0.445 1.795 255 255 255
0.284 -0.028 0.528 255 255 255
-0.845 -0.68 1.789 255 255 255
0.79 -1.367 2.779 255 255 255
-1.171 -0.096 1.702 255 255 255
0.926 -1.605 2.564 255 255 255
-0.028 -0.12 0.941 255 255 255
0.121 0.132 0.598 255 255 255
0.676 -1.915 2.688 255 255 255
-0.148 0.408 0.798 255 255 255
