ply
format ascii 1.0
comment Created by Open3D
element vertex 1585
property double x
property double y
property double z
property uchar red
property uchar green
property uchar blue
end_header
1.142 -1.141 2.728 255 255 255
-1.041 -0.088 1.751 255 255 255
-0.035 0.26 0.816 255 255 255
0.287 0.096 0.542 255 255 255
-0.259 0.079 1.044 255 255 255
-0.48 0.675 1.298 255 255 255
0.975 -0.442 1.509 255 255 255
-0.453 0.126 1.124 255 255 255
-0.406 -0.395 2.194 255 255 255
-1.076 -0.091 1.723 255 255 255
0.133 0.024 0.737 0 0 0
-0.295 -0.855 2.12 255 255 255
-0.015 -1.321 2.18 255 255 255
0.093 0.089 0.737 255 255 255
-1.181 -0.276 1.581 255 255 255
0.19 -0.013 0.595 255 255 255
0.218 0.251 0.626 255 255 255
-0.495 -0.177 1.144 0 0 0
0.082 0.161 0.785 255 255 255
-0.356 0.116 1.029 255 255 255
-1.05 -0.022 1.768 255 255 255
-0.47 0.181 1.27 255 255 255
-0.23 -0.65 2.24 255 255 255
0.082 0.041 0.707 255 255 255
0.015 0.323 0.72 255 255 255
0.149 0.039 0.691 0 0 0
0.067 0.126 0.793 255 255 255
0.053 -1.246 2.255 255 255 255
-0.255 0.131 1.071 255 255 255
0.619 -1.469 2.675 255 255 255
-0.513 -0.554 2.06 255 255 255
0.104 0.352 0.645 255 255 255
0.247 0.039 0.6 255 255 255
-0.031 0.264 0.937 255 255 255
-0.086 -1.36 2.106 255 255 255
0.039 0.222 0.913 255 255 255
-0.01 0.163 0.955 255 255 255
0.144 -0.078 0.751 255 255 255
0.393 -1.063 2.634 255 255 255
0.366 -1.768 2.378 0 0 0
0.123 0.267 0.682 255 255 255
0.215 0.122 0.6 255 255 255
0.823 -1.682 2.694 255 255 255
0.223 0.324 0.687 255 255 255
0.286 0.12 0.545 255 255 255
0.06 0.041 0.812 255 255 255
0.075 -0.119 1.07 255 255 255
-1.022 -0.269 1.708 255 255 255
0.207 0.347 0.698 255 255 255
-0.614 -0.466 1.946 255 255 255
0.225 0.156 0.554 255 255 255
0.255 0.058 0.582 255 255 255
0.061 0.14 0.807 255 255 255
0.173 0.336 0.692 255 255 255
0.058 0.284 0.754 255 255 255
0.065 0.051 0.793 255 255 255
-0.335 -0.624 2.171 255 255 255
0.187 -0.016 0.593 255 255 255
0.168 0.178 0.66 255 255 255
0.166 0.213 0.688 255 255 255
-0.473 -0.511 2.109 255 255 255
-0.54 -0.76 1.965 255 255 255
-0.68 -1.136 1.673 255 255 255
0.589 -0.085 0.847 255 255 255
0.047 0.366 0.685 255 255 255
-0.364 -1.296 1.916 255 255 255
0.058 0.32 0.707 255 255 255
0.113 -0.393 2.589 255 255 255
0.174 0.326 0.708 255 255 255
0.435 -0.538 2.867 0 0 0
-0.775 -0.931 1.671 255 255 255
-0.614 -1.149 1.718 255 255 255
-0.323 -0.106 1.061 255 255 255
0.093 0.098 0.727 255 255 255
0.024 -0.608 2.445 255 255 255
-0.119 0.217 0.928 255 255 255
-0.257 0.145 1.041 255 255 255
0.261 0.047 0.557 255 255 255
0.263 0.147 0.536 255 255 255
-0.59 -0.913 1.876 255 255 255
0.046 0.29 0.73 255 255 255
-0.451 -0.694 2.053 255 255 255
1.359 -1.087 2.463 255 255 255
0.21 0.137 0.584 255 255 255
-0.315 0.11 1.021 255 255 255
0.347 -0.089 0.766 255 255 255
-0.757 -1.086 1.633 255 255 255
0.561 -0.201 1.03 255 255 255
0.18 0.061 0.645 255 255 255
-0.878 -0.706 1.669 255 255 255
0.148 -1.253 2.375 255 255 255
0.123 0.079 0.713 255 255 255
0.385 -0.053 0.728 255 255 255
1.062 -1.759 2.626 255 255 255
0.564 -1.874 2.498 0 0 0
-0.519 -0.985 1.899 255 255 255
0.036 0.321 0.722 255 255 255
1.261 -0.819 2.53 255 255 255
0.014 -0.021 0.884 255 255 255
0.197 0.048 0.614 255 255 255
-0.097 0.221 0.882 255 255 255
-0.962 -0.766 1.588 255 255 255
0.162 0.16 0.656 255 255 255
-0.596 -0.737 1.902 0 0 0
-1.161 0.213 1.771 255 255 255
0.274 0.054 0.467 255 255 255
0.253 0.32 0.638 255 255 255
1.238 -1.178 2.625 255 255 255
-0.539 0.612 1.449 255 255 255
0.571 -1.516 2.627 255 255 255
0.256 0.143 0.544 255 255 255
-0.928 -0.373 1.741 255 255 255
0.09 0.046 0.715 255 255 255
-1.081 0.17 1.816 255 255 255
0.06 -0.098 1.009 255 255 255
-0.731 -0.436 1.874 255 255 255
-0.77 -1 1.655 255 255 255
-0.053 0.174 0.97 255 255 255
-0.155 0.139 1.115 255 255 255
-0.162 0.272 0.886 255 255 255
-0.149 -1.357 2.062 255 255 255
0.047 0.283 0.756 255 255 255
-0.135 -0.008 1.055 255 255 255
-0.437 0.66 1.327 255 255 255
0.672 -0.352 1.539 0 0 0
0.28 -0.033 0.627 255 255 255
0.167 0.353 0.661 255 255 255
-0.452 0.698 1.238 255 255 255
0.219 -0.658 2.638 255 255 255
-0.072 -0.103 1.084 255 255 255
-0.006 0.189 0.956 255 255 255
0.31 0.034 0.497 255 255 255
-0.137 0.37 0.845 255 255 255
0.556 -1.448 2.632 255 255 255
0.616 -1.149 2.79 255 255 255
0.216 0.22 0.604 255 255 255
-1.095 -0.232 1.66 255 255 255
-0.332 -1.186 1.983 255 255 255
-0.002 0.127 0.905 255 255 255
-0.396 -0.447 2.182 255 255 255
-1.106 -0.406 1.596 255 255 255
-0.274 0.669 1.291 255 255 255
0.102 0.194 0.773 255 255 255
-0.687 -0.551 1.865 255 255 255
-0.785 -0.783 1.712 255 255 255
1.356 -0.761 2.245 255 255 255
0.134 0.33 0.647 255 255 255
0.3 -0.768 2.665 255 255 255
-0.919 -0.719 1.632 255 255 255
-0.378 -0.997 2.005 255 255 255
0.201 0.253 0.659 255 255 255
-0.6 0.643 1.372 255 255 255
-0.117 -1.069 2.183 255 255 255
-0.384 -0.44 2.192 255 255 255
0.259 0.171 0.517 255 255 255
0.464 -1.607 2.506 255 255 255
-0.334 -1.061 2.015 255 255 255
-0.857 -0.258 1.839 255 255 255
-0.113 -0.845 2.262 255 255 255
0.024 -1.026 2.304 255 255 255
-0.463 0.228 1.248 255 255 255
-0.404 -0.226 1.099 0 0 0
0.696 -0.172 1.097 0 0 0
0.419 -1.601 2.479 255 255 255
-0.482 0.163 1.126 255 255 255
-0.538 0.572 1.554 255 255 255
-0.37 -0.234 1.091 0 0 0
-0.028 -0.011 0.927 255 255 255
-0.384 0.622 1.412 255 255 255
0.364 -0.916 2.663 255 255 255
0.201 0.285 0.694 255 255 255
-0.128 0.248 0.84 255 255 255
0.258 0.043 0.46 0 0 0
0.331 -1.349 2.497 255 255 255
0.146 -0.088 0.764 255 255 255
-0.008 0.386 0.713 255 255 255
0.251 0.364 0.641 255 255 255
-0.357 0.646 1.357 255 255 255
-0.162 -1.302 2.068 255 255 255
-0.031 -0.364 2.501 255 255 255
0.229 -1.704 2.292 0 0 0
-0.763 -0.614 1.789 255 255 255
0.261 0.016 0.671 0 0 0
1.32 -1.319 2.447 255 255 255
0.145 0.316 0.657 255 255 255
-0.154 -1.325 2.068 255 255 255
-0.085 -0.345 2.47 255 255 255
-0.473 0.674 1.298 255 255 255
-0.893 -0.865 1.605 255 255 255
0.243 0.174 0.533 255 255 255
-0.089 0.098 1.035 255 255 255
0.251 0.245 0.578 255 255 255
-0.475 -0.922 1.958 255 255 255
0.127 0.251 0.698 255 255 255
1.307 -1.186 2.506 255 255 255
-0.253 -1.297 2 255 255 255
0.331 -0.01 0.497 255 255 255
-0.31 -0.937 2.078 255 255 255
-1.046 -0.438 1.63 255 255 255
0.123 0.063 0.696 255 255 255
0.273 0.1 0.551 255 255 255
0.041 0.349 0.68 255 255 255
0.713 -0.489 1.809 255 255 255
0.114 -0.067 0.749 255 255 255
-0.386 -0.175 1.062 255 255 255
-0.325 0.141 1.036 255 255 255
-0.231 -1.122 2.071 255 255 255
-0.899 0.05 1.911 255 255 255
-0.874 -0.333 1.799 255 255 255
0.325 -0.006 0.614 0 0 0
-0.893 -0.774 1.634 255 255 255
-0.189 -1.401 2.01 255 255 255
0.248 0.026 0.457 0 0 0
-0.266 -0.121 1.203 0 0 0
0.169 0.287 0.705 0 0 0
0.024 -1.149 2.269 255 255 255
0.062 -0.094 1.006 255 255 255
-0.546 -0.557 2.032 255 255 255
-0.199 0.201 0.995 255 255 255
-0.064 -0.458 2.43 255 255 255
0.355 -1.266 2.534 255 255 255
0.24 0.127 0.566 255 255 255
-0.303 0.095 1.025 255 255 255
-0.253 0.09 1.045 255 255 255
0.6 -1.099 2.783 255 255 255
-0.213 0.279 0.981 255 255 255
-0.093 0.38 0.843 255 255 255
-0.291 -1.236 1.998 255 255 255
-0.303 -1.217 1.992 255 255 255
-0.015 -1.409 2.155 255 255 255
-0.029 0.274 0.81 255 255 255
-0.36 -1.333 1.904 255 255 255
-0.311 -0.091 1.06 255 255 255
-0.964 0.09 1.879 255 255 255
0.275 -0.826 2.627 255 255 255
0.301 0.007 0.637 255 255 255
-0.387 0.069 1.002 255 255 255
0.158 -0.067 0.744 255 255 255
1.127 -1.699 2.546 255 255 255
-0.204 0.177 1.01 255 255 255
0.482 -1.504 2.555 255 255 255
0.217 0.061 0.592 255 255 255
0.109 0.005 0.617 255 255 255
-0.041 0.06 0.932 255 255 255
-0.922 -0.835 1.594 255 255 255
-0.629 0.593 1.509 255 255 255
0.295 0.067 0.483 255 255 255
-0.552 -1.248 1.788 255 255 255
-0.963 -0.345 1.725 255 255 255
0.21 0.307 0.697 255 255 255
-0.302 -1.148 2.014 255 255 255
1.161 -1.59 2.555 255 255 255
0.784 -1.462 2.802 255 255 255
-0.131 0.156 1.03 255 255 255
-0.42 -0.708 2.071 255 255 255
-0.199 0.095 1.071 255 255 255
0.17 0.286 0.706 0 0 0
0.219 0.045 0.603 255 255 255
-0.333 -0.385 2.251 255 255 255
-0.955 -0.557 1.657 255 255 255
0.07 0.09 0.757 255 255 255
-0.581 -0.5 2.025 255 255 255
0.04 0.173 0.873 255 255 255
-0.156 0.554 1.135 255 255 255
-0.389 0.467 1.361 255 255 255
-1.032 -0.038 1.779 255 255 255
0.092 0.304 0.761 255 255 255
-1.081 -0.14 1.706 255 255 255
0.187 0.018 0.632 255 255 255
0.12 -0.012 0.688 0 0 0
-0.28 0.298 1.041 255 255 255
-0.342 0.256 1.054 255 255 255
0.292 -0.866 2.627 255 255 255
-0.515 0.569 1.562 255 255 255
-0.786 -0.407 1.84 255 255 255
1.099 -1.239 2.766 255 255 255
-0.064 0.171 0.999 0 0 0
0.249 0.022 0.479 255 255 255
-0.694 -0.577 1.854 255 255 255
0.203 0.096 0.628 255 255 255
0.637 -1.666 2.625 255 255 255
0.175 -0.625 2.621 255 255 255
0.073 0.35 0.679 255 255 255
0.151 0.127 0.65 255 255 255
-1.072 -0.35 1.641 255 255 255
0.127 -0.047 0.73 255 255 255
-0.129 -0.527 2.356 255 255 255
-0.164 0.351 0.873 255 255 255
0.026 0.274 0.795 0 0 0
-0.343 -0.201 1.081 0 0 0
0.056 0.086 0.777 255 255 255
0.306 -0.517 2.762 0 0 0
0.589 -0.185 0.991 255 255 255
0.091 -0.582 2.507 255 255 255
-0.468 -1.111 1.9 255 255 255
-0.806 -0.361 1.843 255 255 255
0.194 0.399 0.716 255 255 255
0.275 0.043 0.461 255 255 255
0.246 -0.017 0.624 255 255 255
0.016 -0.028 0.881 255 255 255
0.207 0.148 0.578 255 255 255
-0.148 0.109 1.065 255 255 255
-0.314 -1.125 2.011 255 255 255
0.184 0.15 0.61 255 255 255
0.142 -1.17 2.377 255 255 255
-0.148 0.236 0.914 255 255 255
0.323 -0.001 0.633 0 0 0
0.267 -0.62 2.69 255 255 255
0.689 -1.6 2.694 255 255 255
0.509 -0.913 2.786 255 255 255
-0.43 -0.042 1.064 255 255 255
0.214 0.079 0.584 255 255 255
0.059 0.317 0.717 255 255 255
0.956 -0.391 1.515 255 255 255
0.132 -0.026 0.714 255 255 255
0.383 -0.026 0.55 255 255 255
0.175 0.029 0.683 0 0 0
-0.041 0.298 0.79 255 255 255
-0.196 0.332 0.943 255 255 255
0.123 0.232 0.717 0 0 0
-1.148 -0.26 1.613 255 255 255
-0.538 -0.862 1.929 255 255 255
-0.652 -0.686 1.844 255 255 255
-0.483 -0.93 1.953 255 255 255
0.019 -0.743 2.405 255 255 255
0.136 0.109 0.68 255 255 255
0.122 0.156 0.721 255 255 255
-1.11 0.19 1.804 255 255 255
-0.645 -0.877 1.784 255 255 255
-0.734 -0.833 1.733 255 255 255
1.141 -1.067 2.781 255 255 255
-0.837 -0.752 1.682 255 255 255
-0.518 0.59 1.508 255 255 255
0.22 0.017 0.663 255 255 255
0.212 0.11 0.613 255 255 255
-0.022 0.059 0.894 255 255 255
0.368 -1.568 2.444 255 255 255
1.135 -1.11 2.754 255 255 255
0.326 0.023 0.495 255 255 255
0.443 -0.244 1.41 255 255 255
-0.581 -0.733 1.944 255 255 255
0.125 0.013 0.701 255 255 255
-1.136 -0.368 1.583 255 255 255
0.026 0.183 0.914 255 255 255
0.204 0.174 0.596 255 255 255
-0.88 -0.524 1.725 255 255 255
-1.002 -0.046 1.8 255 255 255
0.454 -0.241 1.349 255 255 255
0.169 -0.116 0.788 255 255 255
-0.045 0.325 0.789 255 255 255
-0.346 -1.084 1.999 255 255 255
-0.265 -1.156 2.041 255 255 255
0.169 -0.054 0.741 255 255 255
-0.709 -0.875 1.744 255 255 255
0.006 0.241 0.784 255 255 255
0.268 -0.034 0.617 255 255 255
-0.215 -1.311 2.024 255 255 255
-0.137 -1.467 2.036 255 255 255
0.066 0.139 0.799 255 255 255
0.194 0.194 0.625 255 255 255
0.06 0.005 0.792 255 255 255
-0.389 0.651 1.347 255 255 255
0.92 -1.628 2.739 255 255 255
0.241 0.157 0.537 255 255 255
-0.377 -1.317 1.903 255 255 255
-0.176 -1.27 2.08 255 255 255
0.475 -0.173 1.012 255 255 255
-0.22 -0.456 2.313 255 255 255
-0.172 0.151 1.048 255 255 255
1.126 -1.347 2.675 255 255 255
-0.817 -0.212 1.863 0 0 0
-0.457 0.073 1.073 255 255 255
0.274 0.042 0.46 255 255 255
-1.097 -0.08 1.717 255 255 255
0.235 0.136 0.568 255 255 255
0 0.244 0.787 255 255 255
-1.027 -0.308 1.687 255 255 255
0.064 0.139 0.801 255 255 255
-0.494 -0.851 1.968 0 0 0
0.153 0.171 0.681 255 255 255
-0.907 -0.187 1.825 255 255 255
0.68 -0.158 1.049 255 255 255
0.229 0.174 0.556 255 255 255
0.403 -0.16 1.099 255 255 255
0.239 0.099 0.598 255 255 255
0.792 -1.986 2.591 0 0 0
-0.374 -0.359 2.227 255 255 255
0.147 0.133 0.656 255 255 255
0.247 0.231 0.565 255 255 255
-0.729 0.569 1.575 255 255 255
-0.754 -0.573 1.808 255 255 255
-1.133 0.201 1.783 255 255 255
0.215 0.065 0.585 255 255 255
0.28 0.082 0.474 255 255 255
0.227 0.177 0.568 0 0 0
0.196 0.275 0.695 255 255 255
-0.077 -1.536 2.054 0 0 0
-0.053 -1.305 2.153 255 255 255
-0.429 -0.149 1.079 255 255 255
-0.731 -0.682 1.789 255 255 255
-0.48 0.668 1.312 255 255 255
-0.066 0.182 0.958 255 255 255
-0.607 0.578 1.544 255 255 255
-0.785 -0.463 1.819 255 255 255
-0.626 -1.119 1.716 255 255 255
-0.023 0.264 0.938 255 255 255
-0.437 -0.181 1.091 0 0 0
0.369 -0.007 0.514 255 255 255
-0.876 -0.41 1.766 255 255 255
-0.05 0.327 0.795 255 255 255
-0.357 -0.012 1.029 255 255 255
-0.561 -1.044 1.853 255 255 255
0.265 0.063 0.476 255 255 255
-0.307 0.296 1.038 255 255 255
-1.124 -0.172 1.658 255 255 255
-0.519 -0.969 1.905 255 255 255
-0.002 0.402 0.769 255 255 255
-0.825 -0.926 1.636 255 255 255
0.163 0.072 0.668 255 255 255
0.207 0.176 0.592 255 255 255
1.35 -0.71 2.258 0 0 0
-0.216 -1.36 2.018 255 255 255
0.179 0.122 0.625 255 255 255
-0.835 0.504 1.796 255 255 255
0.186 -0.596 2.638 255 255 255
0.314 -1.578 2.399 255 255 255
0.207 0.129 0.595 255 255 255
-0.028 0.104 0.928 255 255 255
-0.816 -0.891 1.659 255 255 255
-0.482 0.238 1.267 255 255 255
-0.43 0.15 1.158 255 255 255
0.244 0.059 0.572 255 255 255
-0.767 -0.734 1.746 255 255 255
0.146 0.223 0.72 255 255 255
1.239 -1.173 2.627 255 255 255
0.17 0.045 0.687 0 0 0
-0.099 0.058 1.034 255 255 255
-0.49 0.185 1.13 255 255 255
-0.14 0.496 1.058 255 255 255
-0.085 -1.206 2.161 255 255 255
-0.651 -1.081 1.713 255 255 255
-1.072 -0.259 1.674 255 255 255
0.208 -0.027 0.6 255 255 255
0.189 -1.671 2.279 0 0 0
-0.593 -0.888 1.881 255 255 255
-0.655 -0.605 1.872 255 255 255
0.3 0.133 0.54 255 255 255
-0.815 -0.733 1.706 255 255 255
-0.347 0.083 0.991 255 255 255
-1.131 0.227 1.803 255 255 255
1.186 -1.143 2.686 255 255 255
-0.516 -0.938 1.923 255 255 255
0.747 -1.15 2.554 255 255 255
-0.328 -0.226 1.143 0 0 0
-0.992 -0.097 1.789 255 255 255
-0.962 0.238 1.933 255 255 255
0.618 -0.569 2.978 0 0 0
0.1 -0.021 0.708 0 0 0
-0.347 -0.919 2.056 255 255 255
1.05 -1.679 2.663 255 255 255
-0.354 0.136 1.034 255 255 255
-0.018 0.068 0.895 255 255 255
0.315 -0.165 1.046 255 255 255
-0.005 -1.389 2.162 255 255 255
-0.437 -0.293 2.199 255 255 255
-0.128 0.374 0.845 255 255 255
0.275 -0.074 0.785 0 0 0
-0.681 -0.994 1.722 255 255 255
0.11 -1.506 2.212 255 255 255
0.325 -1.229 2.526 255 255 255
-0.63 -1.122 1.711 255 255 255
-0.661 0.466 1.853 255 255 255
0.528 -1.327 2.652 255 255 255
-0.326 -0.118 1.064 255 255 255
-0.569 -1.151 1.808 255 255 255
0.323 0.017 0.497 255 255 255
0.058 0.26 0.782 0 0 0
1.093 -1.324 2.741 255 255 255
-0.4 0.589 1.411 255 255 255
0.188 -0.005 0.605 0 0 0
-0.046 0.408 0.795 255 255 255
-0.237 0.397 1.069 255 255 255
-0.769 0.528 1.707 255 255 255
-0.81 -0.827 1.676 255 255 255
-0.452 -1.004 1.948 255 255 255
-0.015 0.297 0.774 255 255 255
0.229 -0.112 0.844 255 255 255
-0.11 0.298 0.82 255 255 255
0.219 0.138 0.576 255 255 255
-0.169 -0.681 2.282 255 255 255
1.032 -1.528 2.749 255 255 255
0.231 0.007 0.661 0 0 0
1.185 -1.381 2.61 255 255 255
-0.033 0.254 0.938 255 255 255
0.016 -0.032 0.904 255 255 255
-0.092 0.124 1.061 255 255 255
0.05 -0.147 1.139 255 255 255
0.097 -0.099 0.759 255 255 255
0.054 -0.147 1.138 255 255 255
-0.556 0.656 1.341 255 255 255
0.67 -0.12 0.983 0 0 0
0.314 -0.64 2.722 255 255 255
-0.895 -0.446 1.744 255 255 255
0.239 -0.1 0.833 255 255 255
-0.008 0.305 0.76 255 255 255
0.243 0.04 0.608 255 255 255
0.226 0.182 0.567 255 255 255
0.029 -1.424 2.177 255 255 255
0.02 0.078 0.832 255 255 255
0.258 0.07 0.55 255 255 255
-0.62 -1.147 1.713 255 255 255
0.169 0.1 0.658 255 255 255
1.014 -1.958 2.598 0 0 0
0.021 -0.008 0.882 255 255 255
0.089 0.327 0.698 255 255 255
0.27 0.054 0.583 255 255 255
-0.483 -1.039 1.914 255 255 255
-0.371 -0.056 1.016 255 255 255
-0.018 0.161 0.965 255 255 255
0.074 -0.979 2.36 255 255 255
-0.697 0.516 1.726 255 255 255
0.064 0.04 0.806 255 255 255
0.009 -0.449 2.491 255 255 255
-1.069 0.303 1.879 255 255 255
0.335 -0.07 0.703 255 255 255
1.135 -1.464 2.624 255 255 255
0.029 -1.34 2.2 255 255 255
-0.083 0.378 0.834 255 255 255
-0.756 -0.711 1.757 255 255 255
0.143 -0.008 0.616 255 255 255
-0.852 -0.312 1.823 255 255 255
-0.657 -0.829 1.794 255 255 255
1.253 -1.357 2.538 255 255 255
-0.332 -0.567 2.187 255 255 255
-0.282 -1.132 2.035 255 255 255
0.01 -0.003 0.891 255 255 255
0.303 -0.915 2.614 255 255 255
-1.072 0.212 1.839 255 255 255
0.241 0.182 0.548 255 255 255
-0.116 0.153 1.026 255 255 255
1.34 -1.242 2.444 255 255 255
-0.072 -0.983 2.244 255 255 255
-0.582 -1.227 1.775 255 255 255
0.474 -1.799 2.45 0 0 0
0.05 0.165 0.852 255 255 255
-0.302 -0.643 2.191 255 255 255
0.527 -0.207 1.053 255 255 255
0.254 0.039 0.579 255 255 255
-0.566 0.617 1.438 255 255 255
-0.808 -0.821 1.683 255 255 255
-0.48 0.202 1.227 255 255 255
0.46 -0.904 2.744 0 0 0
0.077 0.262 0.741 255 255 255
0.223 0.212 0.59 255 255 255
-0.173 0.049 1.09 255 255 255
0.24 -0.463 2.719 255 255 255
-0.29 -0.842 2.125 255 255 255
-0.14 -0.006 1.061 255 255 255
0.12 0.147 0.721 255 255 255
0.359 -0.156 1.062 255 255 255
-0.773 0.556 1.615 255 255 255
1.159 -1.849 2.456 0 0 0
0.192 0.31 0.721 255 255 255
-0.123 0.156 1.019 255 255 255
0.124 0.169 0.725 255 255 255
0.132 0.291 0.683 255 255 255
1.189 -1.361 2.626 255 255 255
0.112 0.005 0.614 255 255 255
0.022 0.032 0.845 255 255 255
-0.482 -0.626 2.065 255 255 255
0.144 0.315 0.687 255 255 255
0.262 0.059 0.552 0 0 0
0.034 -0.631 2.451 255 255 255
-0.395 -0.464 2.175 255 255 255
0.054 -0.941 2.361 255 255 255
0.14 0.222 0.729 255 255 255
0.269 0.122 0.552 255 255 255
-0.163 -0.864 2.217 255 255 255
0.238 0.099 0.599 255 255 255
0.624 -1.782 2.571 255 255 255
-0.444 0.631 1.406 0 0 0
-0.206 0.202 0.998 255 255 255
0.198 0.067 0.625 255 255 255
-0.377 -0.13 1.048 255 255 255
-1.036 -0.442 1.636 255 255 255
-0.183 0.233 0.98 255 255 255
-0.04 -0.101 1.056 255 255 255
-0.189 -1.027 2.149 255 255 255
-1.044 -0.326 1.668 255 255 255
-0.516 -1.287 1.804 255 255 255
-0.771 -0.885 1.689 255 255 255
-0.438 -0.787 2.029 255 255 255
-0.992 -0.038 1.809 255 255 255
-0.121 0.101 1.095 255 255 255
-0.224 -1.378 1.992 255 255 255
-0.315 0.181 1.028 255 255 255
-0.044 -0.04 0.966 255 255 255
-1.095 -0.121 1.698 255 255 255
-0.357 0.162 1.039 255 255 255
1.149 -1.184 2.716 255 255 255
0.196 0.169 0.602 255 255 255
-0.988 -0.395 1.689 255 255 255
-0.643 -1.062 1.724 255 255 255
0.212 0.139 0.581 255 255 255
1.155 -1.099 2.737 255 255 255
-1.164 0.205 1.769 255 255 255
-0.084 -0.036 0.975 255 255 255
0.901 -0.411 1.482 255 255 255
0.074 0.239 0.729 0 0 0
0.186 -0.006 0.615 0 0 0
-0.052 0.274 0.81 255 255 255
0.146 0.341 0.631 255 255 255
0.13 0.266 0.687 255 255 255
0.329 0.002 0.627 0 0 0
0.129 0.178 0.719 255 255 255
0.034 -1.334 2.21 255 255 255
0.169 0.186 0.66 255 255 255
0.278 -1.304 2.466 255 255 255
1.236 -1.123 2.651 255 255 255
0.214 0.331 0.689 255 255 255
0.157 -0.114 0.784 255 255 255
-0.67 -0.976 1.734 255 255 255
0.129 0.184 0.724 255 255 255
-0.968 -0.369 1.706 255 255 255
-0.026 -0.389 2.497 255 255 255
-0.332 0.239 1.048 255 255 255
-0.125 0.177 0.994 255 255 255
-0.091 0.207 0.935 255 255 255
-0.951 -0.601 1.647 255 255 255
0.196 0.092 0.634 255 255 255
-0.133 0.215 0.935 255 255 255
0.186 0.163 0.613 255 255 255
0.038 0.101 0.823 255 255 255
-0.469 -0.618 2.071 255 255 255
-0.128 0.289 0.819 255 255 255
-0.781 -0.498 1.813 255 255 255
-0.783 -0.611 1.774 255 255 255
-0.332 -0.247 2.292 255 255 255
1.138 -0.985 2.81 255 255 255
1.136 -1.153 2.743 255 255 255
-0.971 0.308 1.945 255 255 255
-0.175 -0.108 1.179 255 255 255
0.282 0.133 0.53 255 255 255
-0.338 -1.086 2.004 255 255 255
0.124 -0.054 0.736 255 255 255
0.341 -0.842 2.675 255 255 255
-0.746 -1.23 1.595 0 0 0
-0.66 0.518 1.703 255 255 255
0.772 -0.557 2.646 0 0 0
-0.912 -0.802 1.611 0 0 0
0.047 0.12 0.821 255 255 255
-0.465 0.232 1.252 255 255 255
1.364 -1.184 2.403 255 255 255
-0.038 0.036 0.907 255 255 255
0.533 -0.943 2.782 255 255 255
0.875 -0.42 1.485 255 255 255
-0.247 -0.404 2.31 255 255 255
1.361 -1.146 2.436 255 255 255
0.206 -0.091 0.785 255 255 255
0.247 0.337 0.664 255 255 255
0.294 0.002 0.635 0 0 0
-0.208 0.239 0.984 255 255 255
-0.599 -0.872 1.876 0 0 0
0.206 0.11 0.619 255 255 255
-0.566 0.226 1.176 0 0 0
0.115 -0.942 2.404 255 255 255
-0.836 -0.831 1.655 0 0 0
-0.368 0.644 1.364 255 255 255
-0.059 -0.637 2.378 255 255 255
0.099 0.082 0.737 255 255 255
-0.116 0.351 0.826 255 255 255
-0.113 0.205 0.944 255 255 255
0.57 -1.536 2.612 255 255 255
-0.118 0.305 0.815 255 255 255
-0.628 -1.169 1.699 255 255 255
-0.697 -0.892 1.743 255 255 255
1.367 -1.163 2.429 255 255 255
0.287 -0.015 0.498 0 0 0
0.029 -1.408 2.181 255 255 255
-0.162 -1.05 2.154 255 255 255
1.211 -1.449 2.584 255 255 255
0.099 0.086 0.734 255 255 255
0.227 -1.606 2.323 255 255 255
0.18 0.105 0.645 255 255 255
0.014 -1.118 2.264 255 255 255
0.105 0.072 0.725 255 255 255
0.17 0.334 0.685 255 255 255
0.029 0.183 0.906 255 255 255
-0.175 0.595 1.169 255 255 255
-0.008 0.402 0.761 255 255 255
0.349 -1.475 2.461 255 255 255
0.208 0.298 0.693 255 255 255
-0.287 0.654 1.321 255 255 255
0.239 0.133 0.565 255 255 255
-0.26 0.132 1.074 255 255 255
0.43 -0.183 1.155 255 255 255
0.025 0.243 0.874 255 255 255
-0.36 -0.093 1.049 255 255 255
0.211 0.383 0.701 255 255 255
-0.319 -0.91 2.083 255 255 255
-0.035 0.211 0.957 0 0 0
0.028 -0.113 1.096 255 255 255
0.153 0.124 0.65 255 255 255
1.204 -0.853 2.627 255 255 255
-0.435 -0.188 1.091 0 0 0
-0.349 0.315 1.049 0 0 0
-0.213 -0.636 2.259 255 255 255
0.119 0.23 0.717 255 255 255
0.331 -1.076 2.582 255 255 255
0.403 -1.768 2.405 0 0 0
0.102 0.131 0.735 255 255 255
-0.06 0.43 0.809 255 255 255
-0.886 -0.331 1.787 255 255 255
0.003 0.139 0.91 255 255 255
0.272 0.056 0.469 255 255 255
-0.114 0.356 0.827 255 255 255
0.72 -1.092 2.885 255 255 255
0.744 -0.493 1.769 255 255 255
0.243 0.343 0.663 255 255 255
-1.054 0.41 1.911 255 255 255
-0.541 -1.256 1.794 255 255 255
0.138 0.32 0.653 255 255 255
0.337 -1.339 2.502 255 255 255
-0.279 -0.037 1.157 255 255 255
-0.269 -1.136 2.045 255 255 255
0.78 -1.826 2.671 255 255 255
-0.152 0.155 1.11 255 255 255
-0.109 -1.339 2.101 255 255 255
-0.864 -0.934 1.603 255 255 255
0.2 -0.097 0.785 255 255 255
-0.49 0.031 1.121 0 0 0
0.228 0.111 0.592 255 255 255
0.28 -0.001 0.506 0 0 0
-0.412 -0.774 2.059 255 255 255
-0.701 -1.017 1.697 255 255 255
0.726 -1.282 2.833 255 255 255
-0.244 -1.144 2.061 255 255 255
0.12 -0.129 0.773 255 255 255
-0.827 -0.441 1.798 255 255 255
-0.445 0.673 1.296 255 255 255
0.063 0.268 0.786 255 255 255
1.116 -1.503 2.649 255 255 255
0.244 -1.586 2.343 255 255 255
-1.186 -0.233 1.593 255 255 255
0.819 -0.962 2.978 255 255 255
-0.179 -0.594 2.306 255 255 255
-0.309 0.139 1.022 255 255 255
0.474 -0.902 2.757 255 255 255
0.019 -0.803 2.38 255 255 255
-0.039 0.002 0.933 255 255 255
-0.323 0.028 1.02 255 255 255
-0.005 -0.845 2.349 255 255 255
0.326 -0.02 0.612 0 0 0
0.251 0.04 0.585 255 255 255
-0.064 -0.537 2.403 255 255 255
0.278 0.061 0.544 255 255 255
0.071 -0.123 1.083 255 255 255
-0.506 -0.669 2.024 255 255 255
-0.578 -0.505 2.027 255 255 255
-0.239 -0.658 2.232 255 255 255
0.259 -0.749 2.641 255 255 255
0.117 0.051 0.722 0 0 0
-0.123 0.247 0.864 255 255 255
-0.084 0.111 1.044 255 255 255
-1.091 -0.129 1.699 255 255 255
-0.175 -0.494 2.333 255 255 255
0.232 0.186 0.561 255 255 255
-0.172 0.077 1.084 255 255 255
0.327 -0.053 0.656 255 255 255
-0.568 0.562 1.583 255 255 255
0.02 0.315 0.72 255 255 255
0.341 -0.038 0.668 255 255 255
-0.258 0.126 1.082 255 255 255
-0.291 -0.553 2.229 255 255 255
-0.286 0.105 1.095 255 255 255
0.202 -0.029 0.602 255 255 255
0.052 0.02 0.84 255 255 255
0.256 0.041 0.461 0 0 0
-0.035 0.002 0.93 255 255 255
-0.195 0.29 0.957 255 255 255
-0.532 -0.649 2.011 255 255 255
0.721 -0.434 1.691 255 255 255
0.172 0.035 0.689 0 0 0
0.017 -0.03 0.888 255 255 255
-0.402 -1.108 1.95 255 255 255
0.332 -0.98 2.612 255 255 255
-0.887 -0.667 1.672 255 255 255
-0.121 0.246 0.862 255 255 255
-0.053 0.267 0.854 255 255 255
0.677 -0.172 1.011 255 255 255
-0.486 -1.349 1.802 0 0 0
-0.939 0.494 1.844 255 255 255
0.228 0.123 0.587 255 255 255
0.501 -0.257 1.367 255 255 255
0.24 -0.041 0.616 255 255 255
-1.087 -0.474 1.584 255 255 255
0.252 -0.018 0.624 255 255 255
-0.131 0.313 0.82 255 255 255
-1.009 -0.119 1.769 255 255 255
-1.022 0.248 1.889 255 255 255
0.257 0.177 0.519 255 255 255
0.249 0.148 0.546 255 255 255
-0.505 0.258 1.284 0 0 0
0.284 0.089 0.475 255 255 255
-1.086 -0.026 1.74 255 255 255
-0.283 -0.14 1.168 0 0 0
-0.876 -0.848 1.612 255 255 255
-0.286 0.057 1.023 255 255 255
0.055 0.353 0.69 255 255 255
0.05 -0.591 2.48 255 255 255
-0.709 -1.067 1.673 255 255 255
-0.455 0.628 1.413 0 0 0
0.845 -1.098 2.824 255 255 255
-0.588 -1.215 1.772 255 255 255
-1.125 -0.362 1.596 255 255 255
-0.037 0.02 0.918 255 255 255
0.237 0.145 0.558 255 255 255
0.823 -1.215 2.515 255 255 255
0.185 0.182 0.632 255 255 255
-0.708 0.467 1.866 255 255 255
-0.493 0.645 1.371 255 255 255
0 0.331 0.734 255 255 255
1.254 -1.06 2.633 255 255 255
0.17 0.073 0.646 255 255 255
-0.032 0.409 0.77 255 255 255
0.43 -0.831 2.746 255 255 255
0.12 0.217 0.752 255 255 255
-0.377 0.11 1.034 255 255 255
0.102 0.177 0.764 255 255 255
0.842 -0.219 1.166 255 255 255
0.278 0.115 0.555 255 255 255
-0.003 0.296 0.771 255 255 255
0.206 0.067 0.6 255 255 255
0.165 0.07 0.661 255 255 255
0.719 -1.131 2.589 255 255 255
0.003 0.152 0.925 255 255 255
0.326 -0.005 0.633 0 0 0
-1.122 -0.235 1.642 255 255 255
-0.373 -1.31 1.91 255 255 255
0.024 0.354 0.711 255 255 255
-0.068 0.293 0.82 255 255 255
0.039 -0.563 2.473 255 255 255
0.142 -0.1 0.775 255 255 255
0.029 -0.69 2.422 255 255 255
-0.212 -0.43 2.329 255 255 255
-0.452 -0.326 2.18 255 255 255
0.244 0.12 0.566 255 255 255
0.034 0.045 0.824 255 255 255
-1.072 0.25 1.854 255 255 255
-1.08 -0.152 1.703 255 255 255
-0.513 -0.626 2.029 255 255 255
0.711 -0.6 2.672 0 0 0
-0.3 -0.064 1.125 255 255 255
0.23 0.371 0.674 255 255 255
-0.769 -0.779 1.728 255 255 255
-0.097 -0.49 2.392 255 255 255
-0.821 -0.382 1.824 255 255 255
-0.122 -1.169 2.143 255 255 255
-0.002 0.212 0.961 255 255 255
-0.46 -1.135 1.897 255 255 255
-0.539 -1.139 1.836 255 255 255
0.053 0.254 0.779 0 0 0
1.167 -1.637 2.518 255 255 255
-0.739 -0.449 1.86 255 255 255
-0.827 -0.489 1.78 255 255 255
1.191 -1.866 2.424 255 255 255
0.368 -1.44 2.493 255 255 255
-0.799 -0.541 1.785 255 255 255
-0.015 -1.312 2.184 255 255 255
1.109 -1.679 2.581 255 255 255
0.741 -0.589 2.614 255 255 255
0.106 0.308 0.684 255 255 255
-0.54 0.207 1.147 0 0 0
0.15 -1.57 2.285 255 255 255
0.222 0.039 0.665 0 0 0
-1.203 0.001 1.641 255 255 255
-0.032 0.179 0.976 255 255 255
0.511 -1.171 2.7 255 255 255
0.13 0.333 0.632 255 255 255
0.052 0.09 0.788 255 255 255
-0.15 -0.737 2.272 255 255 255
-0.488 -0.499 2.096 255 255 255
-0.121 -0.089 1.097 255 255 255
0.668 -0.837 2.933 255 255 255
-0.731 -0.439 1.873 255 255 255
0.443 -1.38 2.569 255 255 255
-0.029 0.017 0.915 255 255 255
0.219 0.154 0.562 255 255 255
-0.042 0.033 0.913 255 255 255
0.224 0.129 0.586 255 255 255
-0.277 -1.012 2.079 0 0 0
-0.798 -0.831 1.688 255 255 255
-0.074 0.22 0.927 255 255 255
1.172 -1.433 2.592 255 255 255
-0.381 0.654 1.339 255 255 255
-0.847 -0.393 1.792 255 255 255
0 0.209 0.958 255 255 255
-0.123 -1.451 2.049 255 255 255
0.555 -0.274 1.304 255 255 255
0.277 -0.136 0.981 255 255 255
-0.663 0.539 1.653 255 255 255
0.594 -1.177 2.765 255 255 255
-0.519 0.027 1.151 255 255 255
0.131 0.159 0.706 255 255 255
-1.147 -0.407 1.564 255 255 255
0.252 0.134 0.549 255 255 255
-1.02 0.13 1.848 255 255 255
0.262 0.027 0.455 255 255 255
0.164 0.117 0.645 255 255 255
-0.886 0.45 1.951 255 255 255
0.297 -0.626 2.714 255 255 255
-0.444 -0.327 2.185 255 255 255
0.132 -0.003 0.612 255 255 255
0.166 -0.002 0.609 255 255 255
-0.625 -0.866 1.805 255 255 255
-0.159 -0.062 1.116 255 255 255
-0.024 0.178 0.97 255 255 255
-0.505 -0.97 1.921 255 255 255
-0.752 0.562 1.603 255 255 255
-0.611 -1.191 1.72 255 255 255
-0.078 0.166 1.045 255 255 255
0.207 0.312 0.705 0 0 0
-0.541 -1.01 1.876 255 255 255
0.264 0.327 0.631 255 255 255
0.021 -0.012 0.878 0 0 0
0.019 -0.436 2.503 255 255 255
0.159 0.109 0.654 255 255 255
-0.104 -1.302 2.118 255 255 255
-0.124 0.175 1.005 255 255 255
-0.315 -1.172 1.998 255 255 255
-0.286 0.244 1.14 255 255 255
0.788 -1.143 2.515 255 255 255
-0.307 -0.869 2.105 255 255 255
-0.808 -0.544 1.777 255 255 255
-0.627 -0.602 1.895 255 255 255
-0.828 -1.044 1.597 255 255 255
0.177 -0.014 0.615 0 0 0
-0.696 -1.278 1.616 255 255 255
-0.912 -0.035 1.871 255 255 255
-0.589 -0.468 1.978 255 255 255
0.261 -1.05 2.538 255 255 255
0.223 0.384 0.697 255 255 255
-1.052 -0.115 1.738 255 255 255
0.189 0.196 0.634 255 255 255
-0.47 0.661 1.322 255 255 255
0.647 -0.354 1.56 0 0 0
-0.888 -0.283 1.806 255 255 255
-1.081 -0.41 1.608 255 255 255
0.96 -1.487 2.815 255 255 255
-1.037 -0.388 1.654 255 255 255
1.33 -0.856 2.45 255 255 255
0.336 0.021 0.489 255 255 255
-0.394 0.573 1.416 255 255 255
-0.549 0.575 1.542 255 255 255
-0.161 -0.074 1.128 255 255 255
0.061 0.361 0.675 255 255 255
0.237 0.044 0.597 255 255 255
-0.33 -1.054 2.022 255 255 255
-0.034 -1.138 2.224 255 255 255
-1.085 -0.136 1.704 255 255 255
-0.209 0.151 1.028 255 255 255
-0.287 0.142 1.029 255 255 255
1.232 -1.213 2.631 255 255 255
0.176 0.15 0.628 0 0 0
-0.404 -0.749 2.069 255 255 255
0.278 -0.039 0.619 255 255 255
-0.408 -0.313 2.216 255 255 255
0.187 -1.404 2.365 255 255 255
0.209 0.12 0.606 255 255 255
-0.308 0.207 1.031 255 255 255
0.657 -0.111 0.936 0 0 0
-0.631 0.562 1.581 255 255 255
-0.283 0.148 1.063 255 255 255
0.174 0.195 0.662 255 255 255
0.217 0.069 0.577 255 255 255
-0.972 0.501 1.842 255 255 255
0.204 -0.019 0.599 255 255 255
1.234 -1.015 2.755 255 255 255
-0.796 -1.182 1.576 0 0 0
0.266 -0.641 2.681 255 255 255
0.232 0.042 0.606 255 255 255
-0.335 0.671 1.292 255 255 255
-0.13 0.034 1.064 0 0 0
-0.298 -0.077 1.091 255 255 255
-0.824 -0.378 1.821 255 255 255
-0.725 -0.538 1.84 255 255 255
0.058 -1.144 2.293 255 255 255
0.342 0.014 0.491 255 255 255
-0.568 0.544 1.631 255 255 255
-1.105 -0.437 1.582 255 255 255
0.138 -0.022 0.691 255 255 255
0.341 -0.781 2.687 255 255 255
0.035 0.226 0.772 255 255 255
1.341 -0.707 2.252 0 0 0
-0.116 0.186 0.988 255 255 255
0.089 0.08 0.746 255 255 255
0.302 0.013 0.64 255 255 255
-0.366 -0.09 1.038 255 255 255
0.796 -1.413 2.817 255 255 255
0.255 0.223 0.559 255 255 255
-0.656 -1.114 1.701 255 255 255
0.168 0.126 0.634 255 255 255
-0.078 -0.002 0.981 255 255 255
0.279 0.122 0.556 255 255 255
-0.048 0.236 0.938 255 255 255
0.326 0.027 0.493 255 255 255
0.32 -0.053 0.653 255 255 255
0.071 0.096 0.757 255 255 255
1.231 -1.23 2.623 255 255 255
0.691 -1.073 2.873 255 255 255
0.605 -0.361 1.572 255 255 255
0.049 0.126 0.817 255 255 255
-0.879 -0.302 1.804 255 255 255
0.5 -0.163 0.983 255 255 255
-0.585 -0.592 1.991 255 255 255
0.272 -1.037 2.549 255 255 255
0.281 -0.02 0.631 255 255 255
-0.149 -1.281 2.091 255 255 255
-1.004 -0.357 1.689 255 255 255
0.573 -0.05 0.815 0 0 0
-0.361 -0.083 1.039 255 255 255
0.784 -0.214 1.138 255 255 255
0.258 -0.046 0.625 255 255 255
-0.896 -0.491 1.729 255 255 255
0.169 0.151 0.638 0 0 0
0.396 -1.723 2.415 255 255 255
-0.477 0.2 1.249 255 255 255
0.294 -0.772 2.659 255 255 255
-0.948 0.061 1.877 255 255 255
0.714 -0.22 1.076 0 0 0
0.227 -1.573 2.336 255 255 255
-0.046 0.25 0.93 255 255 255
0.203 -1.234 2.43 255 255 255
-0.934 -0.802 1.593 255 255 255
-0.259 0.162 1.039 255 255 255
0.07 0.054 0.77 255 255 255
0.291 -0.157 1.02 255 255 255
-0.211 -0.053 1.164 0 0 0
0.046 0.232 0.877 255 255 255
-0.131 0.183 0.995 255 255 255
-0.516 -1.004 1.898 255 255 255
-1.065 0.453 1.907 255 255 255
0.216 -0.078 0.784 255 255 255
0.305 -0.013 0.5 255 255 255
-0.341 -1.333 1.923 255 255 255
-0.565 -0.659 1.981 255 255 255
0.074 -0.974 2.363 255 255 255
-0.356 0.151 1.038 255 255 255
0.176 0.189 0.649 255 255 255
-0.664 -0.742 1.817 255 255 255
-0.419 -0.596 2.111 255 255 255
-0.42 -0.223 1.107 0 0 0
-0.971 -0.447 1.682 255 255 255
-0.625 -1.195 1.691 255 255 255
0.108 0.13 0.721 255 255 255
-0.303 -1.256 1.975 255 255 255
-0.277 0.005 1.099 255 255 255
0.033 0.309 0.722 255 255 255
-0.659 -0.569 1.879 255 255 255
0.159 0.129 0.641 255 255 255
-0.945 -0.51 1.68 255 255 255
-0.84 -0.425 1.791 255 255 255
0.171 0.128 0.628 255 255 255
-0.363 0.122 1.029 255 255 255
-0.354 -0.107 1.058 255 255 255
-0.865 -0.13 1.874 255 255 255
0.16 -0.975 2.488 255 255 255
-0.222 -0.113 1.224 0 0 0
-0.363 -0.088 1.042 255 255 255
0.088 0.007 0.632 255 255 255
0.265 0.06 0.548 255 255 255
0.196 -0.664 2.618 255 255 255
0.534 -0.252 1.263 255 255 255
-0.587 -0.841 1.903 255 255 255
-0.002 0.293 0.774 255 255 255
-1.106 -0.007 1.733 255 255 255
0.21 -0.927 2.541 255 255 255
0.182 -1.18 2.433 255 255 255
0.086 0.207 0.742 0 0 0
0.572 -1.23 2.724 255 255 255
-0.428 -1.38 1.83 0 0 0
-0.229 0.351 1.033 255 255 255
-0.332 0.086 0.991 255 255 255
-0.084 0.038 0.998 255 255 255
-1.035 -0.201 1.719 255 255 255
-0.914 -0.21 1.81 255 255 255
-0.565 0.575 1.548 255 255 255
1.142 -1.332 2.652 0 0 0
0.183 -0.881 2.54 255 255 255
-0.23 -0.11 1.215 0 0 0
-0.334 -0.665 2.153 255 255 255
-0.166 -0.495 2.34 255 255 255
-0.814 -0.333 1.844 255 255 255
0.303 -0.134 1.003 255 255 255
-0.038 -0.038 0.957 255 255 255
0.223 0.17 0.56 255 255 255
-0.154 0.033 1.085 0 0 0
-0.115 -0.01 1.028 255 255 255
0.621 -1.261 2.755 255 255 255
-0.311 -0.066 1.056 255 255 255
0.213 0.126 0.595 255 255 255
0.248 0.233 0.566 255 255 255
-1.07 -0.476 1.602 255 255 255
0.142 -1.05 2.408 255 255 255
0.228 0.235 0.603 255 255 255
0.231 -1.226 2.45 255 255 255
-0.214 0.154 1.021 255 255 255
-1.096 -0.262 1.652 255 255 255
0.056 -0.387 2.552 255 255 255
-0.34 -0.402 2.239 255 255 255
-0.377 -0.234 1.09 0 0 0
0.278 0.125 0.551 255 255 255
0.266 0.1 0.558 255 255 255
0.248 0.009 0.659 255 255 255
-0.687 -1.135 1.669 255 255 255
0.064 -1.547 2.159 255 255 255
0.146 0.013 0.613 255 255 255
0.221 0.132 0.582 255 255 255
0.052 0.123 0.814 255 255 255
-0.02 -0.626 2.414 255 255 255
0.044 0.085 0.796 255 255 255
-0.433 -0.882 2.004 255 255 255
0.015 0.31 0.737 255 255 255
-0.861 -0.742 1.67 255 255 255
-0.093 0.071 1.038 255 255 255
-0.4 -0.047 1.03 255 255 255
-0.185 0.154 1.027 255 255 255
-0.004 -0.06 0.946 255 255 255
-0.358 -0.061 1.031 255 255 255
0.223 0.109 0.598 255 255 255
-1.166 -0.369 1.555 255 255 255
-1.099 -0.471 1.581 255 255 255
-0.474 0.576 1.539 255 255 255
-0.904 -0.353 1.766 255 255 255
1.096 -1.485 2.675 255 255 255
-0.365 -0.234 1.092 0 0 0
-0.45 0.07 1.069 255 255 255
-0.08 0.238 0.864 255 255 255
-0.189 0.464 1.027 255 255 255
0.219 0.387 0.693 255 255 255
0.009 0.168 0.927 255 255 255
-0.612 -0.525 1.93 255 255 255
-1.013 -0.627 1.589 255 255 255
-0.061 0.256 0.854 255 255 255
0.099 0.167 0.762 255 255 255
0.135 0.105 0.686 255 255 255
0.06 0.214 0.876 255 255 255
0.047 0.105 0.808 255 255 255
-0.082 -0.651 2.354 255 255 255
0.096 -0.121 1.051 255 255 255
-0.033 0.335 0.779 255 255 255
-0.28 0.189 1.032 255 255 255
-0.341 -0.384 2.243 255 255 255
0.301 0.013 0.641 255 255 255
0.1 0.096 0.723 255 255 255
-0.208 0.443 1.023 255 255 255
1.252 -1.145 2.619 255 255 255
-0.51 -0.631 2.031 255 255 255
-0.436 -0.096 1.071 0 0 0
-0.079 -0.143 1.193 255 255 255
-0.295 -0.846 2.123 255 255 255
-0.771 -0.528 1.806 255 255 255
-0.163 -0.115 1.175 255 255 255
-0.072 -1.404 2.109 255 255 255
-0.889 -0.519 1.719 255 255 255
0.222 0.134 0.578 255 255 255
-0.099 -1.078 2.192 255 255 255
0.19 0.084 0.628 255 255 255
0.105 -0.013 0.688 255 255 255
-0.894 -0.45 1.742 255 255 255
-0.199 0.087 1.074 255 255 255
0.069 -1.534 2.169 255 255 255
1.307 -1.129 2.524 255 255 255
0.059 -0.021 0.824 255 255 255
-0.348 0.45 1.335 255 255 255
-0.482 -0.886 1.962 255 255 255
-0.807 -0.585 1.764 255 255 255
0.057 0.323 0.706 255 255 255
0.116 0.232 0.717 255 255 255
-0.024 0.093 0.914 255 255 255
0.039 -0.607 2.46 255 255 255
-0.298 -0.957 2.078 255 255 255
-0.648 0.566 1.576 255 255 255
0.386 -1.468 2.492 255 255 255
-0.051 0.194 0.96 255 255 255
-0.263 -0.126 1.202 0 0 0
1.083 -1.736 2.596 255 255 255
-0.295 0.125 1.027 255 255 255
-0.356 -0.082 1.045 255 255 255
-0.61 -1.188 1.733 255 255 255
0.174 0.084 0.654 255 255 255
-0.993 -0.685 1.579 255 255 255
0.212 0.167 0.583 0 0 0
-0.988 0.135 1.869 255 255 255
0.182 0.055 0.623 255 255 255
-0.462 -1.298 1.838 255 255 255
-0.974 -0.636 1.607 255 255 255
-0.857 -0.326 1.811 255 255 255
-0.1 -1.482 2.059 255 255 255
-0.265 -1.148 2.046 255 255 255
0.117 -0.596 2.521 255 255 255
-0.125 0.212 0.931 255 255 255
0.084 0.029 0.724 0 0 0
-0.714 0.565 1.588 255 255 255
0.55 -1.418 2.641 255 255 255
0.732 -1.41 2.791 255 255 255
-0.886 -0.395 1.769 255 255 255
0.055 0.008 0.799 255 255 255
-1.128 -0.372 1.591 255 255 255
0.567 -0.738 2.881 255 255 255
-0.186 -0.663 2.271 255 255 255
0.016 -0.036 0.92 255 255 255
-0.307 0.172 1.026 255 255 255
0.248 0.139 0.552 255 255 255
-0.294 0.43 1.239 255 255 255
-0.864 -0.375 1.792 255 255 255
-0.465 0.097 1.092 255 255 255
0.261 -1.434 2.411 255 255 255
-0.836 -0.708 1.701 255 255 255
-0.384 -0.217 1.084 0 0 0
-0.406 -0.515 2.155 255 255 255
-0.726 -0.504 1.85 255 255 255
0.667 -1.1 2.843 255 255 255
-0.076 0.171 1.021 255 255 255
0.145 0.214 0.717 255 255 255
-0.874 0.512 1.782 255 255 255
-0.06 -0.052 0.97 255 255 255
-0.148 0.026 1.074 0 0 0
0.122 0.341 0.678 255 255 255
0.602 -0.239 1.087 255 255 255
-0.877 -0.374 1.783 255 255 255
1.232 -1.56 2.477 255 255 255
0.189 -0.075 0.771 255 255 255
1.076 -1.924 2.532 0 0 0
0.396 -0.164 1.098 255 255 255
0.192 0.012 0.63 255 255 255
-0.06 -0.034 0.966 255 255 255
-0.432 -0.096 1.068 0 0 0
0.157 -0.031 0.663 255 255 255
0.227 0.236 0.606 255 255 255
-0.629 0.575 1.552 255 255 255
0.235 -0.172 0.994 255 255 255
1.084 -1.88 2.536 0 0 0
0.283 0.001 0.522 0 0 0
0.32 0.018 0.498 255 255 255
0.072 0.354 0.675 255 255 255
-0.14 0.333 0.83 255 255 255
0.088 0.226 0.716 255 255 255
0.07 0.296 0.744 255 255 255
0.256 0.13 0.547 255 255 255
-0.374 -0.186 1.067 255 255 255
-0.276 -0.685 2.192 255 255 255
0.069 0.224 0.736 0 0 0
-0.327 0.106 1.03 255 255 255
1.2 -1.569 2.544 255 255 255
0.163 -0.03 0.623 255 255 255
0.234 0.199 0.565 255 255 255
0.357 -0.031 0.538 255 255 255
1.274 -0.997 2.726 255 255 255
0.101 -0.043 0.724 255 255 255
1.083 -1.076 2.859 255 255 255
-0.131 -1.033 2.187 255 255 255
-0.732 -0.781 1.754 255 255 255
-0.794 0.53 1.706 255 255 255
0.187 0.218 0.663 255 255 255
0.928 -1.531 2.779 255 255 255
-0.255 0.157 1.04 255 255 255
-0.049 -0.724 2.36 255 255 255
0.275 0.05 0.464 255 255 255
0.292 0.056 0.56 0 0 0
-0.633 -0.767 1.832 255 255 255
0.201 0.108 0.625 255 255 255
-0.271 -1.452 1.931 0 0 0
1.15 -0.991 2.786 255 255 255
0.163 0.1 0.661 255 255 255
-0.343 0.109 1.032 255 255 255
-0.007 0.063 0.869 255 255 255
0.004 -0.789 2.371 255 255 255
-0.931 -0.618 1.656 255 255 255
0.214 0.03 0.668 0 0 0
0.143 0.063 0.687 255 255 255
-0.339 0.666 1.309 255 255 255
1.064 -1.28 2.807 255 255 255
0.037 0.252 0.779 0 0 0
0.044 0.112 0.822 255 255 255
-0.629 -0.62 1.883 255 255 255
0.014 -0.517 2.475 255 255 255
0.096 0.051 0.717 255 255 255
0.217 0.102 0.609 255 255 255
-0.214 -0.587 2.275 0 0 0
0.176 0.196 0.659 255 255 255
-0.901 0.514 1.78 255 255 255
-0.329 0.492 1.33 255 255 255
0.443 -0.235 1.351 255 255 255
0.099 -0.094 0.757 255 255 255
-0.722 -0.849 1.742 255 255 255
0.637 -1.606 2.649 255 255 255
0.237 0.221 0.574 255 255 255
-0.059 -0.09 1.061 255 255 255
-0.393 -0.233 1.101 0 0 0
0.712 -1.595 2.72 255 255 255
-0.845 -0.572 1.736 255 255 255
0.45 -0.803 2.772 255 255 255
-0.956 -0.393 1.713 255 255 255
-0.31 0.163 1.023 255 255 255
-0.538 -0.675 1.995 255 255 255
-0.4 0.655 1.339 255 255 255
0.193 -0.002 0.603 255 255 255
-0.304 -0.01 1.039 255 255 255
-0.109 0.116 1.089 255 255 255
-0.613 -0.595 1.905 255 255 255
-0.957 -0.193 1.78 255 255 255
0.053 0.139 0.822 255 255 255
0.839 -0.844 2.687 255 255 255
-0.589 -0.472 1.977 255 255 255
-1.118 0.335 1.846 255 255 255
1.011 -1.372 2.822 255 255 255
0.47 -0.253 1.368 255 255 255
0.296 -1.502 2.411 255 255 255
-0.513 0.087 1.136 255 255 255
0.304 0.116 0.533 255 255 255
-0.316 -0.78 2.127 255 255 255
-0.385 -0.004 1.011 255 255 255
-0.015 -1.106 2.25 255 255 255
-0.837 -0.547 1.751 255 255 255
0.203 0.114 0.616 255 255 255
-0.291 0.208 1.027 255 255 255
0.207 0.157 0.575 255 255 255
0.043 0.064 0.8 255 255 255
0.15 0.11 0.664 255 255 255
0.087 0.3 0.757 255 255 255
-0.955 -0.518 1.673 255 255 255
-0.81 -0.961 1.639 255 255 255
0.851 -1.611 2.708 255 255 255
0.287 0.055 0.473 255 255 255
-0.221 0.15 1.026 255 255 255
-0.697 -0.565 1.853 255 255 255
0.607 -1.208 2.76 255 255 255
0.229 0.364 0.668 255 255 255
-0.354 0.562 1.395 255 255 255
0.19 -0.114 0.791 255 255 255
1.371 -0.842 2.253 255 255 255
-0.27 -1.357 1.966 255 255 255
-0.278 -0.369 2.299 255 255 255
-1.148 -0.252 1.614 255 255 255
-1.196 -0.033 1.645 255 255 255
0.34 -1.673 2.391 255 255 255
-1.016 -0.023 1.8 255 255 255
-0.351 0.118 1.032 255 255 255
0.142 -1.042 2.414 255 255 255
-0.257 -0.009 1.143 255 255 255
-0.199 -0.015 1.126 255 255 255
-0.28 -1.399 1.948 255 255 255
0.964 -1.838 2.689 255 255 255
0.074 0.141 0.787 255 255 255
-0.825 -0.205 1.871 0 0 0
-0.823 -0.657 1.725 255 255 255
0.14 0.164 0.696 255 255 255
-0.094 0.458 0.86 255 255 255
-0.932 0.473 1.902 255 255 255
-0.043 0.422 0.783 255 255 255
0.981 -1.716 2.731 255 255 255
-0.4 0.65 1.356 255 255 255
-0.358 -0.109 1.056 255 255 255
-0.137 0.053 1.088 255 255 255
0.863 -0.267 1.233 0 0 0
0.096 -0.072 0.748 255 255 255
0.093 -0.005 0.644 255 255 255
0.76 -1.817 2.672 255 255 255
-0.05 0.423 0.793 255 255 255
-0.461 -1.158 1.891 255 255 255
-0.637 -1.124 1.705 255 255 255
-0.16 0.245 0.916 255 255 255
0.914 -1.748 2.694 255 255 255
-0.449 0.057 1.068 255 255 255
-0.889 -0.238 1.823 255 255 255
0.119 0.228 0.72 0 0 0
-1.055 0.23 1.86 255 255 255
0.094 -1.102 2.334 255 255 255
-1.159 0.189 1.769 255 255 255
0.143 -0.072 0.746 255 255 255
1.125 -1.968 2.474 255 255 255
-0.331 0.003 1.025 255 255 255
0.138 0.328 0.678 255 255 255
0.662 -0.146 1.036 0 0 0
0.123 0.043 0.732 0 0 0
0.807 -1.503 2.777 255 255 255
0.585 -1.91 2.501 0 0 0
0.054 -0.663 2.454 255 255 255
0.142 -1.163 2.375 255 255 255
0.051 0.245 0.773 0 0 0
-0.446 -0.049 1.073 0 0 0
-0.724 -0.672 1.797 255 255 255
-0.308 0.046 1.014 255 255 255
-0.491 -1.192 1.855 255 255 255
0.053 0.069 0.786 255 255 255
0.132 -0.062 0.74 0 0 0
0.259 0.102 0.572 255 255 255
-0.374 0.077 0.998 255 255 255
-0.216 -0.736 2.219 255 255 255
0.119 0.272 0.683 255 255 255
-0.076 -1.308 2.137 255 255 255
-0.09 -1.326 2.118 255 255 255
0.004 0.223 0.956 255 255 255
-0.157 0.237 0.933 255 255 255
0.875 -1.786 2.651 255 255 255
0.191 0.049 0.62 255 255 255
-0.174 0.134 1.054 255 255 255
-0.146 0.097 1.118 0 0 0
0.187 -0.109 0.787 255 255 255
0.079 0.054 0.694 255 255 255
-0.877 -0.269 1.822 255 255 255
0.09 0.201 0.795 255 255 255
-1.156 -0.23 1.614 255 255 255
-0.173 0.355 0.888 255 255 255
-0.947 0.463 1.935 255 255 255
0.178 0.27 0.712 255 255 255
-0.457 -0.004 1.075 0 0 0
-0.086 -0.043 0.982 255 255 255
-0.081 0.232 0.883 255 255 255
0.45 -0.593 2.842 255 255 255
0.106 0.351 0.647 255 255 255
1.208 -1.624 2.508 255 255 255
-0.419 -0.785 2.049 255 255 255
0.401 -0.157 1.093 255 255 255
-0.456 -1.058 1.926 255 255 255
-0.902 -0.606 1.68 255 255 255
-0.14 0.055 1.09 255 255 255
0.246 0.31 0.639 255 255 255
-0.354 -0.691 2.129 255 255 255
-1.145 -0.131 1.655 255 255 255
-0.678 -1.199 1.652 0 0 0
1.06 -1.27 2.819 255 255 255
-1.134 0.313 1.833 255 255 255
0 0.265 0.81 255 255 255
-0.187 0.311 0.925 255 255 255
0.233 -1.632 2.32 255 255 255
-1.178 -0.347 1.554 255 255 255
0.062 0.215 0.756 255 255 255
0.242 0.125 0.564 255 255 255
0.239 -1.512 2.377 255 255 255
0.235 0.044 0.598 255 255 255
0.174 0.079 0.641 255 255 255
0.002 0.191 0.948 255 255 255
0.085 0.342 0.683 255 255 255
-0.284 0.261 1.149 255 255 255
0.89 -0.277 1.227 255 255 255
-0.072 0.002 0.97 255 255 255
0.135 0.084 0.706 255 255 255
-0.707 -0.717 1.797 255 255 255
0.165 -1.296 2.386 255 255 255
1.274 -1.11 2.604 255 255 255
0.064 0.061 0.786 255 255 255
0.1 0.215 0.731 0 0 0
0.239 0.173 0.539 255 255 255
-0.685 -0.766 1.795 255 255 255
0.105 -0.838 2.434 255 255 255
0.089 0.043 0.717 255 255 255
0.349 -0.737 2.715 255 255 255
0.007 0.2 0.944 255 255 255
-0.372 -0.6 2.148 255 255 255
0.716 -0.771 2.99 255 255 255
0.69 -0.134 0.998 0 0 0
-0.604 0.541 1.639 255 255 255
1.121 -1.736 2.533 255 255 255
0.102 -0.426 2.565 255 255 255
0.025 0.151 0.882 255 255 255
-0.27 -0.561 2.246 255 255 255
-1.092 -0.155 1.691 255 255 255
1.113 -0.926 2.882 255 255 255
0.779 -0.542 2.652 0 0 0
-0.211 -0.453 2.32 255 255 255
0.059 0.117 0.798 255 255 255
-0.68 -0.494 1.891 255 255 255
-0.856 -0.087 1.897 255 255 255
0.688 -0.335 1.454 255 255 255
-1.125 -0.231 1.64 255 255 255
-0.943 0.4 1.967 255 255 255
-0.422 -0.196 1.089 0 0 0
1.021 -1.575 2.741 255 255 255
-0.503 0.225 1.254 255 255 255
0.029 -1.017 2.309 255 255 255
0.286 0.011 0.649 255 255 255
0.02 0.172 0.91 255 255 255
0.066 -0.05 0.9 255 255 255
-0.174 0.023 1.1 255 255 255
-0.628 -1.173 1.697 255 255 255
-0.603 -0.874 1.827 255 255 255
0.215 0.201 0.598 255 255 255
0.056 -0.366 2.588 255 255 255
-0.315 0.107 1.02 255 255 255
0.161 -0.662 2.57 255 255 255
0.216 0.391 0.698 255 255 255
0.071 0.098 0.759 255 255 255
-1.006 0.009 1.816 255 255 255
0.051 0.215 0.806 255 255 255
-0.828 -0.785 1.682 255 255 255
0.736 -1.079 2.534 255 255 255
-0.418 0.582 1.433 255 255 255
-0.35 0.636 1.381 255 255 255
-0.852 -0.454 1.773 255 255 255
-1.097 0.044 1.757 255 255 255
0.143 -0.626 2.536 255 255 255
-0.323 0.665 1.304 255 255 255
-1.068 0.408 1.899 255 255 255
0.054 -0.624 2.465 255 255 255
0.049 0.238 0.768 255 255 255
0 0.384 0.723 255 255 255
0.128 -0.077 0.752 255 255 255
-0.966 0.295 1.947 255 255 255
0.811 -1.01 2.962 255 255 255
0.115 -1.393 2.255 255 255 255
-0.727 -1.041 1.674 255 255 255
-0.095 -0.776 2.298 255 255 255
-0.878 -0.79 1.636 255 255 255
-0.383 -0.048 1.017 255 255 255
0.273 0.038 0.459 255 255 255
0.259 -0.08 0.796 0 0 0
-0.521 -0.784 1.97 255 255 255
0.679 -0.981 2.895 255 255 255
0.408 -0.955 2.685 255 255 255
0.596 -0.232 1.076 255 255 255
-0.01 -0.8 2.357 255 255 255
0.254 0.271 0.593 0 0 0
1.064 -1.286 2.806 255 255 255
1.105 -1.049 2.834 255 255 255
0.078 0.342 0.688 255 255 255
0.735 -0.396 1.599 0 0 0
-0.321 -0.127 1.07 255 255 255
-0.409 0.568 1.425 255 255 255
-0.356 0.665 1.305 255 255 255
-0.862 -0.837 1.652 255 255 255
0.199 -0.046 0.752 255 255 255
0.514 -1.428 2.601 255 255 255
0.891 -0.432 1.483 255 255 255
-0.03 -1.415 2.135 255 255 255
-0.738 -0.876 1.717 255 255 255
-0.048 0.318 0.794 255 255 255
-0.514 -1.339 1.791 0 0 0
-1.116 0.318 1.844 255 255 255
-0.46 -0.999 1.947 255 255 255
0.215 0.036 0.667 0 0 0
-0.607 -1.098 1.778 0 0 0
-1.106 -0.113 1.693 255 255 255
0.16 0.065 0.669 255 255 255
0.165 0.047 0.697 0 0 0
-0.227 -0.042 1.162 255 255 255
1.045 -1.219 2.849 255 255 255
-0.249 -0.077 1.198 255 255 255
-0.626 0.534 1.66 255 255 255
0.249 0.139 0.551 255 255 255
1.082 -1.485 2.694 255 255 255
-0.233 0.335 1.033 255 255 255
-0.288 -0.063 1.162 255 255 255
-1.196 0.035 1.666 255 255 255
0.099 -0.07 0.748 255 255 255
0.723 -0.347 1.391 255 255 255
0.168 0.16 0.644 255 255 255
-0.347 -0.651 2.151 0 0 0
0.054 0.343 0.684 255 255 255
0.083 0.032 0.722 0 0 0
0.104 -1.214 2.303 255 255 255
0.072 0.352 0.677 255 255 255
-0.362 -0.081 1.034 255 255 255
0.152 0.055 0.69 255 255 255
-0.234 -0.084 1.194 0 0 0
-1.106 0.327 1.852 255 255 255
0.254 0.299 0.626 255 255 255
-1.084 0.411 1.883 255 255 255
-1.017 0.227 1.89 255 255 255
0.097 0.361 0.66 255 255 255
-0.582 -0.877 1.891 255 255 255
-0.209 0.016 1.116 255 255 255
-0.51 -0.004 1.149 255 255 255
1.027 -1.468 2.776 255 255 255
0.312 0.007 0.635 0 0 0
1.219 -0.909 2.604 255 255 255
0.316 -0.571 2.745 255 255 255
0.45 -1.526 2.526 255 255 255
-0.294 -0.191 1.187 0 0 0
0.047 0.229 0.902 255 255 255
-0.087 0.102 1.037 255 255 255
-0.685 -0.758 1.797 255 255 255
0.238 -0.081 0.794 255 255 255
0.208 0.378 0.717 255 255 255
