ply
format ascii 1.0
comment Created by Open3D
element vertex 1587
property double x
property double y
property double z
property uchar red
property uchar green
property uchar blue
end_header
0.177 0.075 0.708 0 0 0
-0.445 0.154 1.189 255 255 255
0.27 0.093 0.575 255 255 255
1.198 -1.623 2.701 255 255 255
-0.121 0.271 0.997 255 255 255
-0.069 -0.876 2.186 255 255 255
-0.892 0.333 1.97 255 255 255
0.939 -1.644 2.682 255 255 255
-0.486 -0.841 1.858 255 255 255
0.444 -0.454 2.712 255 255 255
-0.021 -0.024 1.031 255 255 255
0.209 0.021 0.603 255 255 255
-0.145 -1.301 2.004 255 255 255
0.386 0.009 0.622 0 0 0
0.35 -0.067 0.822 0 0 0
-0.264 0.616 1.425 255 255 255
0.19 0.356 0.677 255 255 255
0.069 0.402 0.766 255 255 255
0.182 -0.01 0.712 255 255 255
-0.519 -0.741 1.869 255 255 255
0.257 0.239 0.63 255 255 255
0.072 0 0.931 255 255 255
0.31 0.041 0.665 0 0 0
1.364 -1.184 2.616 255 255 255
0.544 -0.999 2.609 255 255 255
-1.101 -0.436 1.562 255 255 255
0.407 -0.077 0.887 0 0 0
0.31 0.054 0.662 0 0 0
-0.119 -1.467 1.961 0 0 0
0.071 -0.847 2.284 255 255 255
0.389 -0.035 0.64 255 255 255
-0.112 0.116 1.091 255 255 255
0.122 0.072 0.812 255 255 255
0.19 0.301 0.675 255 255 255
-0.712 0.463 2.017 255 255 255
-1.047 0.295 1.857 255 255 255
0.261 0.255 0.638 255 255 255
-0.133 0.243 1.003 255 255 255
-0.002 0.108 1.042 255 255 255
0.13 0.11 0.766 255 255 255
-0.332 -0.046 1.088 255 255 255
0.13 -0.014 0.881 255 255 255
-0.514 -0.504 1.948 255 255 255
0.105 -0.864 2.301 255 255 255
0.159 -0.954 2.31 255 255 255
0.039 0.249 0.957 255 255 255
0.283 0.021 0.646 255 255 255
-0.292 -0.135 1.089 255 255 255
0.375 -0.121 1.004 255 255 255
0.188 0.193 0.724 255 255 255
0.511 -1.12 2.551 255 255 255
0.795 -0.302 1.466 0 0 0
-0.776 0.609 1.6 255 255 255
-0.561 -1.071 1.742 255 255 255
0.197 0.058 0.728 0 0 0
-0.067 0.12 1.11 0 0 0
0.196 -0.825 2.377 255 255 255
0.146 0.342 0.695 255 255 255
0.303 0.022 0.644 255 255 255
-0.47 -0.638 1.931 255 255 255
0.328 -1.494 2.31 255 255 255
-0.026 0.336 0.822 255 255 255
-0.645 -1.228 1.642 0 0 0
0.259 -0.862 2.403 255 255 255
-0.101 -0.594 2.251 255 255 255
0.08 0.01 0.918 0 0 0
0.258 -1.084 2.336 255 255 255
-0.069 0.306 0.83 255 255 255
0.766 -1.59 2.574 255 255 255
-0.784 -0.003 1.929 255 255 255
-0.998 0.104 1.818 255 255 255
0.394 -0.068 0.759 0 0 0
0.201 0.336 0.672 255 255 255
0.611 -0.197 1.258 255 255 255
-1.001 -0.27 1.695 255 255 255
-0.391 -0.449 2.103 255 255 255
0.482 -1.71 2.356 0 0 0
-0.776 0.563 1.758 255 255 255
-0.127 0.69 1.302 255 255 255
0.408 -1.681 2.313 0 0 0
-0.556 0.634 1.494 255 255 255
0.089 0.054 0.86 255 255 255
-0.771 -0.411 1.803 255 255 255
-0.282 0.06 1.039 255 255 255
0.733 -1.131 2.693 255 255 255
0.262 0.085 0.603 255 255 255
0.557 -0.116 0.897 0 0 0
0.206 0.277 0.699 255 255 255
0.004 -1.41 2.064 255 255 255
-0.581 -1.18 1.694 255 255 255
0.251 0.189 0.602 255 255 255
0.038 -0.319 2.431 255 255 255
-1.029 0.185 1.826 255 255 255
-0.608 -0.351 1.93 255 255 255
0.463 -0.92 2.581 255 255 255
0.622 -0.774 2.733 255 255 255
0.922 -1.599 2.685 255 255 255
-0.115 0.089 1.105 255 255 255
0.421 -0.054 0.729 0 0 0
0.417 -0.113 1.017 255 255 255
0.867 -1.113 2.808 255 255 255
0.136 0.313 0.745 255 255 255
-0.585 0.652 1.441 0 0 0
0.214 0.321 0.679 255 255 255
-0.13 0.348 0.99 255 255 255
-0.564 0.67 1.395 255 255 255
-1.049 -0.224 1.678 255 255 255
-0.911 -0.011 1.841 255 255 255
1.011 -1.633 2.685 255 255 255
0.091 0.258 0.775 255 255 255
1.875 -0.985 2.832 255 255 255
-0.98 0.461 1.934 255 255 255
-0.113 -0.908 2.141 255 255 255
-0.091 -0.051 1.172 255 255 255
0.071 -1.425 2.104 255 255 255
-0.733 -0.293 1.864 255 255 255
-0.122 -0.73 2.19 255 255 255
0.178 0.018 0.614 255 255 255
-0.745 -0.154 1.905 255 255 255
0.191 0.196 0.719 255 255 255
-0.815 -0.221 1.837 255 255 255
-0.233 -0.747 2.109 255 255 255
-0.285 -0.185 1.105 0 0 0
0.138 0.021 0.644 255 255 255
0.028 0.268 0.937 255 255 255
-0.291 -0.452 2.172 255 255 255
0.855 -1.266 2.742 255 255 255
-0.534 -0.711 1.867 255 255 255
-0.203 0.36 1.211 255 255 255
-0.943 -0.265 1.739 255 255 255
-0.598 -0.687 1.835 255 255 255
0.551 -1.047 2.605 255 255 255
0.577 -0.92 2.651 255 255 255
-0.984 -0.167 1.738 255 255 255
1.237 -1.403 2.736 255 255 255
0.276 0.33 0.684 255 255 255
0.044 -0.034 0.973 0 0 0
-0.56 -0.598 1.883 255 255 255
-0.772 -0.079 1.911 255 255 255
-0.914 -0.778 1.604 255 255 255
-0.344 0.018 1.096 255 255 255
-0.76 -0.356 1.828 255 255 255
0.229 0.23 0.676 255 255 255
-0.297 -0.927 2.013 0 0 0
0.273 0.214 0.587 255 255 255
-0.452 0.278 1.256 0 0 0
-0.043 0.304 0.827 255 255 255
0.425 -0.441 2.702 255 255 255
0.02 0.189 1.033 255 255 255
0.686 -1.063 2.69 255 255 255
1.288 -1.027 2.816 255 255 255
-0.342 -0.015 1.097 255 255 255
-0.511 -0.829 1.846 255 255 255
-1.038 -0.32 1.658 255 255 255
-0.251 -0.16 1.109 255 255 255
0.727 -0.756 2.805 255 255 255
-0.265 -1.079 1.989 255 255 255
-0.453 0.599 1.587 255 255 255
-0.516 -0.913 1.82 255 255 255
-0.385 -1.183 1.874 255 255 255
-0.318 -0.512 2.132 255 255 255
-0.677 0.596 1.625 255 255 255
0.27 0.269 0.633 255 255 255
-0.43 -0.948 1.918 255 255 255
-0.932 -0.246 1.746 255 255 255
-0.95 0.381 1.933 255 255 255
0.365 -1.662 2.282 0 0 0
0.202 0.091 0.711 255 255 255
-0.691 -0.527 1.821 255 255 255
-0.128 -1.454 1.959 0 0 0
-0.96 -0.141 1.763 255 255 255
0.116 0.007 0.855 255 255 255
0.013 -0.092 1.135 255 255 255
0.853 -1.67 2.616 255 255 255
-0.297 -0.06 1.063 255 255 255
1.04 -1.001 2.887 255 255 255
-1.01 -0.302 1.676 255 255 255
-0.495 -0.674 1.904 255 255 255
-0.106 0.063 1.123 255 255 255
-0.787 0.455 2.045 255 255 255
0.078 -0.304 2.467 255 255 255
0.15 0.222 0.784 255 255 255
-0.64 -0.457 1.881 255 255 255
0.239 0.257 0.671 255 255 255
0.762 -0.24 1.143 0 0 0
-0.546 -0.596 1.894 255 255 255
0.276 -1.396 2.251 255 255 255
1.385 -1.283 2.587 255 255 255
-0.932 -0.528 1.661 255 255 255
0.344 0.006 0.508 255 255 255
-1.053 0.123 1.787 255 255 255
-0.198 0.156 1.099 255 255 255
-0.779 0.48 2.02 255 255 255
-0.021 0.252 0.86 255 255 255
-0.232 -1.057 2.017 255 255 255
-0.292 -0.149 1.089 255 255 255
-0.647 -0.653 1.811 255 255 255
0.194 0.197 0.716 255 255 255
1.036 -0.375 1.452 255 255 255
-0.66 0.466 2.024 255 255 255
0.01 0.175 1.05 255 255 255
-0.615 -1.102 1.698 255 255 255
-1.024 0.165 1.826 255 255 255
-0.701 -1.155 1.625 255 255 255
0.04 -0.067 1.064 255 255 255
0.367 -0.013 0.627 255 255 255
0.07 0.312 0.774 255 255 255
1.369 -0.775 2.598 255 255 255
-0.569 -0.867 1.799 255 255 255
-0.032 0.146 1.067 0 0 0
0.201 -0.092 0.778 255 255 255
0.081 0.265 0.969 255 255 255
1.497 -1.016 2.512 255 255 255
0.274 0.259 0.629 255 255 255
-0.337 -0.174 1.127 0 0 0
0.117 -0.09 1.108 255 255 255
-0.418 -0.884 1.945 255 255 255
-0.001 -1.51 2.029 0 0 0
0.576 -0.953 2.641 255 255 255
0.066 0.316 0.763 255 255 255
0.82 -0.754 2.877 255 255 255
-0.477 -0.637 1.926 255 255 255
0.088 0.017 0.9 255 255 255
-0.08 0.576 1.122 255 255 255
0.35 -0.046 0.756 0 0 0
0.1 -0.102 1.139 255 255 255
-0.089 0.667 1.231 255 255 255
0.99 -1.583 2.722 255 255 255
0.275 -0.073 0.782 255 255 255
-0.082 0.183 1.067 255 255 255
-1.021 -0.637 1.568 255 255 255
0.263 0.162 0.573 255 255 255
0.162 0.162 0.754 255 255 255
0.13 0.238 0.751 255 255 255
1.002 -1.651 2.693 255 255 255
-0.502 -1.021 1.794 255 255 255
0.076 0.256 0.789 0 0 0
0.273 0.015 0.626 255 255 255
-0.17 0.053 1.142 255 255 255
0.015 0.201 0.968 255 255 255
-0.289 -0.027 1.052 255 255 255
-0.313 0.595 1.494 255 255 255
0.058 0.254 0.959 0 0 0
-0.136 -0.631 2.213 255 255 255
-0.778 -0.126 1.891 255 255 255
0.094 -0.024 0.942 255 255 255
0.186 -0.048 0.924 0 0 0
0.328 0.086 0.541 255 255 255
-0.353 -0.843 2.002 255 255 255
-0.845 -0.117 1.851 255 255 255
1.232 -0.837 2.961 255 255 255
-0.667 -0.689 1.788 255 255 255
-0.355 0.037 1.098 255 255 255
-0.475 -0.571 1.95 255 255 255
-0.902 0.407 1.971 255 255 255
-0.39 0.679 1.369 255 255 255
1.439 -1.219 2.544 255 255 255
0.311 0.098 0.528 255 255 255
0.892 -1.054 2.821 0 0 0
1.212 -1.481 2.754 255 255 255
-0.791 -0.346 1.81 255 255 255
0.074 -0.281 2.482 255 255 255
1.255 -0.721 2.967 255 255 255
-0.118 -0.861 2.159 255 255 255
-0.764 -0.416 1.808 255 255 255
-0.042 -1.24 2.083 255 255 255
-0.731 -0.47 1.812 255 255 255
-0.114 -1.297 2.025 255 255 255
0.694 -0.313 1.562 255 255 255
0.585 -0.651 2.742 255 255 255
-0.205 -0.633 2.167 255 255 255
0.095 0.233 0.936 255 255 255
-0.042 -0.8 2.224 255 255 255
-0.958 -0.545 1.64 255 255 255
0.154 -1.044 2.28 255 255 255
-0.567 -0.669 1.863 255 255 255
-0.64 0.65 1.456 0 0 0
-0.697 -1.028 1.666 255 255 255
0.984 -0.553 2.549 0 0 0
-0.424 -0.678 2.008 255 255 255
0.184 -0.003 0.697 255 255 255
-0.917 -0.595 1.651 255 255 255
-0.78 0.129 1.974 255 255 255
-1.002 -0.636 1.584 255 255 255
0.284 0.098 0.554 255 255 255
0.112 0.323 0.721 255 255 255
-0.433 -0.948 1.916 255 255 255
0.098 0.278 0.79 255 255 255
-0.598 -0.498 1.89 255 255 255
-0.52 -1.196 1.731 255 255 255
0.024 -0.12 1.213 255 255 255
-1.055 0.299 1.854 255 255 255
0.09 -1.197 2.186 255 255 255
-0.813 -0.278 1.818 255 255 255
-0.284 0.204 1.079 255 255 255
0.076 -0.06 1.008 255 255 255
-0.199 -0.164 1.199 0 0 0
0.771 -1.273 2.683 255 255 255
-0.19 0.4 1.203 255 255 255
-0.354 0.643 1.459 0 0 0
-0.215 0.009 1.065 255 255 255
0.161 -0.051 0.982 255 255 255
-0.93 -0.434 1.692 255 255 255
-0.428 -1.142 1.86 255 255 255
0.978 -1.127 2.506 255 255 255
0.222 -0.802 2.401 255 255 255
0.696 -0.453 2.896 0 0 0
1.338 -1.054 2.702 255 255 255
-0.218 -0.195 1.209 0 0 0
0.196 -0.368 2.521 255 255 255
-0.037 -1.251 2.083 255 255 255
0.277 0.117 0.598 255 255 255
-0.603 -0.398 1.92 255 255 255
0.224 -0.721 2.432 255 255 255
0.326 -1.656 2.267 0 0 0
-1.065 0.368 1.864 255 255 255
1.188 -1.376 2.801 255 255 255
-0.028 0.112 1.079 255 255 255
-0.034 0.032 1.057 255 255 255
0.269 0.341 0.698 255 255 255
-0.717 -0.589 1.787 255 255 255
0.543 -0.548 2.749 255 255 255
0.165 0.34 0.707 255 255 255
-0.047 0.35 0.827 255 255 255
0.183 -0.033 0.911 0 0 0
0.199 -0.534 2.473 255 255 255
-0.322 0.129 1.081 255 255 255
-0.43 -0.441 2.082 255 255 255
0.259 -0.018 0.631 255 255 255
0.194 0.057 0.732 0 0 0
0.138 0.203 0.834 255 255 255
-1.016 0.064 1.792 255 255 255
0.79 -0.261 1.279 0 0 0
0.873 -0.532 2.733 0 0 0
0.326 0.054 0.509 255 255 255
0.13 0.035 0.832 255 255 255
0.255 0.392 0.713 255 255 255
-0.009 0.133 1.068 255 255 255
0.144 -1.104 2.254 255 255 255
0.052 0.086 0.911 255 255 255
0.675 -0.852 2.743 255 255 255
-0.439 -1.108 1.863 255 255 255
-0.617 -1.019 1.722 255 255 255
0.081 0.037 0.883 255 255 255
-0.749 0.05 1.965 255 255 255
0.836 -0.309 1.361 255 255 255
0.099 -0.037 0.94 255 255 255
0.075 -0.118 1.184 255 255 255
-0.533 0.654 1.441 0 0 0
-0.519 0.678 1.378 255 255 255
-0.361 -0.16 1.142 0 0 0
-0.05 0.178 1.119 255 255 255
-0.923 -0.755 1.595 255 255 255
-0.748 -0.277 1.861 255 255 255
0.084 0.25 0.788 0 0 0
0.043 -0.455 2.391 255 255 255
-0.103 0.266 0.985 255 255 255
0.741 -0.309 1.566 255 255 255
0.161 0.311 0.719 255 255 255
0.136 0.249 0.726 0 0 0
0.225 0.263 0.705 255 255 255
-0.702 -1.111 1.634 255 255 255
0.185 -0.079 0.989 0 0 0
0.179 0.094 0.72 255 255 255
-0.548 -0.761 1.846 255 255 255
0.218 -1.516 2.174 255 255 255
-0.285 -1.038 1.987 255 255 255
-0.673 0.592 1.637 255 255 255
-0.411 -0.758 1.99 255 255 255
1.053 -0.757 2.975 255 255 255
1.021 -0.934 2.66 0 0 0
0.023 -1.008 2.204 255 255 255
-0.455 -0.887 1.914 0 0 0
-0.01 -1.313 2.089 255 255 255
-0.471 0.544 1.753 0 0 0
1.387 -0.977 2.69 255 255 255
1.324 -1.056 2.731 255 255 255
-0.212 -0.037 1.085 255 255 255
-0.351 -1.215 1.887 255 255 255
0.743 -0.359 1.537 255 255 255
0.158 0.222 0.784 255 255 255
0.279 0.01 0.625 255 255 255
-1.086 0.299 1.812 255 255 255
0.179 0.108 0.714 255 255 255
0.176 -1.457 2.166 255 255 255
0.405 -0.087 0.896 0 0 0
0.183 0.291 0.675 255 255 255
0.277 -0.023 0.75 255 255 255
0.301 0.083 0.54 255 255 255
-0.066 0.314 0.828 255 255 255
0.202 0.218 0.715 255 255 255
-0.052 0.377 0.835 255 255 255
-0.538 0.603 1.582 255 255 255
-0.396 -0.522 2.073 255 255 255
0.715 -1.756 2.493 255 255 255
-0.055 0.29 0.829 255 255 255
0.25 0.339 0.707 255 255 255
0.155 0.108 0.737 255 255 255
0.196 0.339 0.639 255 255 255
-0.919 -0.258 1.754 255 255 255
-2.192 -0.08 2.913 255 255 255
0.828 -0.417 1.758 255 255 255
-0.184 -0.283 2.293 255 255 255
0.337 -1.673 2.27 0 0 0
0.23 0.248 0.68 255 255 255
0.149 -0.99 2.293 255 255 255
0.026 0.298 0.796 255 255 255
0.837 -0.734 2.897 255 255 255
-0.878 -0.727 1.636 255 255 255
0.618 -1.613 2.461 255 255 255
-0.346 0.107 1.107 255 255 255
-0.966 -0.182 1.746 255 255 255
0.097 0.362 0.688 255 255 255
-0.024 -0.863 2.219 255 255 255
-0.175 -1.326 1.97 255 255 255
0.611 -0.182 1.19 255 255 255
-0.104 -0.938 2.14 255 255 255
0.362 0.052 0.635 0 0 0
0.23 -0.071 0.776 255 255 255
-0.113 -1.108 2.082 255 255 255
0.461 -1.126 2.515 255 255 255
-0.401 -0.665 2.027 255 255 255
0.071 0.315 0.752 255 255 255
-0.32 -0.45 2.157 255 255 255
0.098 0.342 0.714 255 255 255
-0.673 -0.907 1.716 255 255 255
-0.867 0.432 1.998 255 255 255
-0.361 0.613 1.544 255 255 255
-0.052 -0.083 1.171 255 255 255
-0.039 -0.248 2.401 255 255 255
-1.029 0.287 1.862 255 255 255
0.153 0.088 0.751 255 255 255
0.108 0.038 0.858 255 255 255
0.009 0.279 0.857 255 255 255
0.397 -1.463 2.37 255 255 255
0.577 -0.384 2.884 255 255 255
-0.068 0.073 1.097 0 0 0
0.092 0.002 0.889 255 255 255
0.474 -1.342 2.457 255 255 255
-0.458 0.638 1.479 255 255 255
0.266 0.338 0.7 255 255 255
-0.083 -0.851 2.185 255 255 255
-0.056 -0.841 2.201 255 255 255
0.209 0.043 0.721 0 0 0
-0.666 -0.742 1.772 255 255 255
0.023 -0.642 2.323 255 255 255
0.336 -0.807 2.509 255 255 255
-0.461 0.55 1.76 0 0 0
-0.046 -1.127 2.118 255 255 255
0.872 -1.485 2.688 255 255 255
-0.931 -0.235 1.753 255 255 255
-0.215 0.035 1.057 255 255 255
0.916 -0.44 1.674 255 255 255
-0.571 -0.649 1.867 255 255 255
-0.696 -0.152 1.938 255 255 255
-0.198 -0.958 2.066 255 255 255
-0.462 0.586 1.623 255 255 255
0.07 0.279 0.951 0 0 0
-0.167 -0.061 1.224 255 255 255
-0.303 0.051 1.037 255 255 255
0.042 -0.048 0.967 255 255 255
0.782 -0.48 2.939 0 0 0
-0.572 -1.193 1.7 255 255 255
-2.195 -0.046 2.918 255 255 255
-0.822 -0.696 1.682 255 255 255
-0.03 0.273 0.839 255 255 255
-1.058 0.028 1.75 255 255 255
-0.078 -1.226 2.068 0 0 0
-0.256 0.288 1.076 255 255 255
-0.711 0.622 1.547 255 255 255
-0.189 -0.234 2.304 255 255 255
-0.253 0.698 1.312 255 255 255
0.071 -0.793 2.304 255 255 255
0.422 -0.121 1.03 255 255 255
0.197 0.033 0.707 0 0 0
0.836 -0.29 1.273 0 0 0
-0.272 -0.176 1.107 255 255 255
-0.015 -0.297 2.409 255 255 255
0.271 0.169 0.561 255 255 255
-0.763 -0.063 1.922 255 255 255
0.448 -0.697 2.639 255 255 255
-0.039 0.137 1.07 0 0 0
-0.285 0.049 1.043 255 255 255
-0.339 0.648 1.448 0 0 0
-0.931 -0.755 1.593 255 255 255
-0.61 0.506 1.897 255 255 255
0.198 0.008 0.639 0 0 0
-0.511 -0.884 1.827 255 255 255
-0.153 0.372 1.063 255 255 255
-1.066 -0.482 1.58 255 255 255
0.172 0.189 0.751 255 255 255
-0.753 -0.888 1.673 255 255 255
0.433 -0.111 1.016 255 255 255
0.208 -0.355 2.54 0 0 0
-0.259 -0.154 1.104 255 255 255
0.396 -0.39 2.698 255 255 255
-1.134 0.063 1.73 255 255 255
-0.014 -0.815 2.238 255 255 255
0.381 0.025 0.622 0 0 0
-0.814 -0.423 1.771 255 255 255
0.13 0.227 0.873 255 255 255
-0.808 -0.885 1.621 255 255 255
-0.141 -0.578 2.227 255 255 255
-0.628 -1.042 1.709 255 255 255
-0.177 0.126 1.111 255 255 255
0 0.327 0.815 255 255 255
0.631 -0.951 2.681 255 255 255
-0.966 0.365 1.929 255 255 255
-0.004 0.445 0.819 255 255 255
-0.042 0.328 0.826 255 255 255
0.217 -0.047 0.743 255 255 255
0.168 0.302 0.673 255 255 255
-0.759 -1.133 1.581 255 255 255
0.074 0.006 0.928 255 255 255
0.927 -1.537 2.705 255 255 255
0.352 -0.002 0.51 255 255 255
0.137 -0.05 1.009 255 255 255
0.467 -1.278 2.469 255 255 255
0.128 0.191 0.842 255 255 255
0.383 -1.212 2.433 255 255 255
0.366 -0.355 2.686 0 0 0
-0.092 -0.701 2.223 255 255 255
-0.961 0.289 1.907 255 255 255
0.061 -1.447 2.09 255 255 255
0.234 0.379 0.667 255 255 255
0.483 -0.138 1.09 255 255 255
-1.029 -0.381 1.642 255 255 255
0.135 0.201 0.839 255 255 255
-0.201 0.257 1.051 255 255 255
0.224 0.236 0.683 255 255 255
0.004 0.193 0.998 0 0 0
-2.115 -0.556 2.741 255 255 255
-0.013 0.382 0.837 255 255 255
-0.951 -0.765 1.577 255 255 255
-0.579 -1.104 1.718 255 255 255
-0.2 0.007 1.132 255 255 255
-1.04 -0.439 1.621 255 255 255
0.14 0.339 0.704 255 255 255
-1.069 -0.289 1.643 255 255 255
-0.374 -1.178 1.884 255 255 255
-0.592 0.644 1.472 0 0 0
0.656 -0.615 2.804 255 255 255
0.36 -1.28 2.4 255 255 255
-0.199 -1.201 1.993 255 255 255
-0.288 0.663 1.405 255 255 255
-0.892 -0.381 1.731 255 255 255
-0.265 -0.51 2.168 255 255 255
0.235 0.213 0.651 255 255 255
1.233 -1.643 2.657 255 255 255
-0.593 0.549 1.757 255 255 255
0.736 -1.431 2.611 255 255 255
0.17 -0.056 0.961 255 255 255
0.14 0.248 0.72 255 255 255
-0.919 -0.602 1.646 255 255 255
-0.797 -0.267 1.833 255 255 255
-0.132 -0.603 2.229 255 255 255
0.08 0.379 0.721 255 255 255
-0.045 -0.019 1.083 255 255 255
-0.403 0.633 1.487 255 255 255
-0.461 -1.253 1.805 255 255 255
-0.032 0.07 1.065 255 255 255
0.201 -0.86 2.372 255 255 255
0.388 -0.009 0.593 255 255 255
-0.214 -0.132 1.152 255 255 255
-0.683 -0.478 1.841 255 255 255
-0.822 0.575 1.731 255 255 255
0.233 0.26 0.686 255 255 255
-0.287 0.524 1.388 255 255 255
0.679 -0.315 1.561 255 255 255
-0.576 -0.977 1.758 255 255 255
0.194 0.067 0.71 0 0 0
0.752 -0.585 2.881 255 255 255
-0.183 -0.737 2.151 255 255 255
-0.568 0.568 1.685 255 255 255
-0.739 -0.844 1.696 255 255 255
-1.053 -0.514 1.589 255 255 255
0.234 0.162 0.609 255 255 255
-0.445 -0.44 2.01 255 255 255
0.219 0.165 0.647 255 255 255
0.458 -1.739 2.328 0 0 0
-0.4 0.593 1.6 255 255 255
0.201 -1.222 2.258 255 255 255
-1.094 -0.041 1.691 255 255 255
-0.067 0.346 0.836 255 255 255
0.12 0.227 0.895 255 255 255
-0.429 -0.981 1.906 255 255 255
-0.966 0.471 1.943 255 255 255
0.181 -0.033 0.911 255 255 255
-0.949 -0.636 1.617 255 255 255
-0.12 0.211 1.018 255 255 255
0.783 -1.683 2.554 255 255 255
-0.597 -0.595 1.865 255 255 255
0.217 0.155 0.634 255 255 255
0.047 -0.786 2.286 255 255 255
-0.372 0.7 1.31 255 255 255
-0.127 -1.287 2.019 255 255 255
-0.918 -0.21 1.773 255 255 255
0.125 0.009 0.831 255 255 255
0.204 -0.05 0.748 0 0 0
0.191 0.051 0.74 0 0 0
-0.289 -0.01 1.052 255 255 255
0.177 -1.476 2.165 255 255 255
1.022 -1.613 2.687 255 255 255
0.373 -0.831 2.545 255 255 255
-0.346 0.052 1.093 255 255 255
-0.191 0.674 1.339 255 255 255
-1.093 0.086 1.735 255 255 255
-0.514 -0.612 1.91 255 255 255
-0.38 -0.838 1.986 255 255 255
-0.06 -0.796 2.212 255 255 255
-1.096 -0.101 1.67 255 255 255
0.147 0.223 0.833 255 255 255
0.404 -0.054 0.757 255 255 255
-0.058 0.269 0.849 255 255 255
-0.701 -1.162 1.621 255 255 255
1.432 -1.04 2.61 255 255 255
0.115 -1.384 2.143 255 255 255
0.412 -0.466 2.686 255 255 255
1.059 -1.346 2.752 255 255 255
-0.246 0.557 1.388 255 255 255
1.248 -0.869 2.924 255 255 255
-0.011 -0.046 1.061 255 255 255
-0.974 -0.271 1.712 255 255 255
-0.166 -1.192 2.025 255 255 255
0.277 -1.52 2.214 255 255 255
0.03 0.296 0.809 255 255 255
-0.112 0.161 1.053 255 255 255
-0.222 -1.396 1.916 0 0 0
0.003 0.26 0.889 255 255 255
-0.109 0.273 0.981 255 255 255
-0.433 -0.823 1.954 255 255 255
0.069 0.419 0.772 255 255 255
-1.097 -0.372 1.582 255 255 255
-0.601 -0.733 1.819 255 255 255
-0.11 0.01 1.144 255 255 255
-0.186 0.428 1.206 255 255 255
1.204 -1.279 2.818 255 255 255
0.256 -0.086 0.786 255 255 255
0.234 0.233 0.672 255 255 255
-1.11 0.063 1.723 255 255 255
-0.736 -0.964 1.658 255 255 255
-0.358 -0.494 2.111 255 255 255
0.153 0.096 0.751 255 255 255
0.338 0.013 0.478 255 255 255
0.021 0.225 0.966 255 255 255
-0.342 -0.699 2.055 255 255 255
-0.903 -0.599 1.658 255 255 255
0.157 0.334 0.73 255 255 255
1.054 -1.774 2.615 255 255 255
-2.163 -0.319 2.852 255 255 255
-0.007 0.447 0.827 255 255 255
0.212 0.087 0.693 255 255 255
-0.092 -1.283 2.041 255 255 255
0.043 -0.343 2.427 255 255 255
-0.132 -1.439 1.964 0 0 0
-0.033 -0.586 2.297 255 255 255
0.543 -0.559 2.747 255 255 255
-0.022 0.105 1.071 255 255 255
-0.788 -0.469 1.774 255 255 255
0.189 0.35 0.625 255 255 255
-0.095 0.211 1.014 255 255 255
-0.723 -0.779 1.72 0 0 0
-1.072 -0.461 1.586 255 255 255
-0.275 -0.145 1.097 255 255 255
0.171 0.311 0.678 255 255 255
0.274 -1.153 2.324 255 255 255
0.086 0.03 0.884 255 255 255
0.632 -0.208 1.216 255 255 255
0.161 0.278 0.726 255 255 255
-0.232 0.635 1.457 255 255 255
-0.118 -1.175 2.055 255 255 255
-0.273 0.116 1.029 255 255 255
0.202 0.326 0.685 255 255 255
1.251 -1.919 2.547 0 0 0
0.22 0.102 0.682 255 255 255
0.542 -0.763 2.681 255 255 255
1.441 -0.94 2.696 255 255 255
0.125 -1.33 2.172 255 255 255
-0.476 -1.054 1.797 255 255 255
-0.269 -0.195 1.114 0 0 0
-0.023 0.184 1.04 255 255 255
0.032 -1.296 2.118 255 255 255
-0.188 0.195 1.065 255 255 255
-0.958 -0.522 1.645 255 255 255
-0.969 -0.515 1.641 255 255 255
0.152 -0.065 0.768 0 0 0
0.023 -1.139 2.163 255 255 255
-0.871 -0.305 1.77 255 255 255
1.281 -1.397 2.692 255 255 255
0.114 0.351 0.682 255 255 255
1.422 -1.361 2.55 255 255 255
-0.188 -1.294 1.973 255 255 255
-0.742 0.087 1.982 255 255 255
0.071 -1.421 2.106 255 255 255
0.244 0.035 0.623 255 255 255
0.145 0.011 0.681 255 255 255
0.023 -0.572 2.338 255 255 255
0.265 0.061 0.656 0 0 0
-0.874 -0.419 1.733 255 255 255
0.191 0.036 0.722 0 0 0
-0.371 -1.223 1.872 255 255 255
0.833 -1.761 2.571 255 255 255
0.245 0.232 0.648 255 255 255
0.258 -0.045 0.758 255 255 255
-0.185 0.143 1.106 255 255 255
0.237 -1.205 2.279 255 255 255
-0.16 -0.423 2.267 255 255 255
-0.657 -0.896 1.733 255 255 255
0.131 0.054 0.83 255 255 255
0.205 0.332 0.667 255 255 255
0.018 0.347 0.798 255 255 255
0.61 -0.459 2.831 255 255 255
-0.725 -0.636 1.764 255 255 255
0.213 0.063 0.682 255 255 255
0.187 -0.343 2.528 255 255 255
-0.903 0.193 1.912 255 255 255
-0.128 0.525 1.061 255 255 255
-0.778 -1.001 1.619 255 255 255
-0.2 0.684 1.337 255 255 255
-0.343 0.685 1.348 255 255 255
-0.149 0.037 1.148 255 255 255
-0.839 -1 1.58 255 255 255
-0.868 0.294 1.973 255 255 255
0.322 0.122 0.565 255 255 255
0.322 0.076 0.554 0 0 0
0.559 -0.884 2.654 255 255 255
-0.142 -0.522 2.247 255 255 255
-0.039 -0.262 2.396 255 255 255
0.093 0.102 0.834 255 255 255
0.16 -0.049 0.748 255 255 255
0.872 -1.75 2.606 255 255 255
-0.9 -0.417 1.715 255 255 255
-0.907 -0.614 1.653 255 255 255
0.016 0.194 0.981 255 255 255
0.955 -0.387 1.479 255 255 255
0.819 -0.985 2.804 255 255 255
-0.293 -0.073 1.065 255 255 255
0.303 -0.004 0.61 255 255 255
-0.275 0.24 1.076 255 255 255
0.103 0.074 0.822 255 255 255
0.192 0.308 0.675 255 255 255
-0.192 0.005 1.141 255 255 255
-0.084 -0.409 2.321 255 255 255
0.185 -0.089 0.773 255 255 255
1.11 -1.751 2.652 255 255 255
-1.015 -0.121 1.73 255 255 255
-0.981 0.166 1.853 255 255 255
0.128 0.021 0.802 255 255 255
-0.885 -0.312 1.761 255 255 255
0.136 -0.595 2.41 255 255 255
0.283 0.14 0.581 255 255 255
-0.457 -1.275 1.797 255 255 255
0.606 -1.796 2.405 0 0 0
-0.745 -1.143 1.61 255 255 255
-0.075 -0.5 2.3 255 255 255
0.195 -0.105 1.087 255 255 255
0.087 0.256 0.951 255 255 255
-2.004 0.17 2.963 0 0 0
0.269 0.021 0.626 255 255 255
0.452 -1.513 2.39 255 255 255
-0.071 -0.342 2.351 255 255 255
-0.158 -1.337 1.979 255 255 255
-0.717 -1.028 1.652 255 255 255
-0.049 0.268 0.882 255 255 255
-0.194 0.241 1.052 255 255 255
0.489 -1.368 2.468 255 255 255
-1.065 0.319 1.843 255 255 255
-0.266 -0.772 2.084 255 255 255
0.284 -0.002 0.605 255 255 255
-0.882 -0.252 1.779 255 255 255
-0.172 0.154 1.09 255 255 255
-0.726 -0.774 1.718 255 255 255
-0.628 -1.069 1.697 255 255 255
-0.19 -0.473 2.233 255 255 255
-1.12 -0.376 1.572 255 255 255
-0.931 0.568 1.804 255 255 255
0.28 0.075 0.574 255 255 255
-0.152 0.493 1.08 255 255 255
-0.479 -1.182 1.758 255 255 255
-0.676 -0.347 1.89 255 255 255
0.242 0.068 0.619 255 255 255
1.414 -0.929 2.714 255 255 255
-0.844 0.34 2 255 255 255
-0.488 -0.619 1.924 255 255 255
-0.213 0.181 1.047 255 255 255
-0.272 0.202 1.067 255 255 255
-0.662 -0.746 1.771 255 255 255
0.691 -0.3 1.565 255 255 255
0.89 -0.362 1.536 255 255 255
0.878 -1.846 2.584 255 255 255
-0.465 -0.545 1.966 255 255 255
0.172 0.196 0.753 255 255 255
0.184 -0.113 1.106 255 255 255
-0.782 -0.447 1.784 255 255 255
-0.339 0.706 1.296 255 255 255
-0.096 -0.775 2.196 255 255 255
-0.225 0.682 1.345 255 255 255
-0.258 0.163 1.063 255 255 255
0.097 0.367 0.684 255 255 255
0.253 0.283 0.674 255 255 255
-0.975 -0.593 1.611 255 255 255
-0.213 -1.259 1.969 255 255 255
-0.115 -0.578 2.245 255 255 255
-0.567 -1.088 1.727 255 255 255
0.196 -0.105 1.069 255 255 255
-0.356 -0.183 1.156 0 0 0
0.918 -0.531 2.596 255 255 255
0.179 -0.487 2.471 255 255 255
-0.287 -0.607 2.117 255 255 255
-0.384 -1.342 1.824 0 0 0
0.044 0.251 0.955 255 255 255
-0.848 -0.201 1.823 255 255 255
-0.08 0.192 1.021 255 255 255
0.262 0.38 0.713 255 255 255
0.275 0.213 0.585 255 255 255
-0.219 0.155 1.046 255 255 255
0.166 0.206 0.774 255 255 255
0.199 -0.003 0.707 255 255 255
-0.372 -0.977 1.945 255 255 255
0.114 -1.066 2.245 255 255 255
-0.124 0.261 0.996 255 255 255
0.472 -0.753 2.636 255 255 255
-0.699 -0.628 1.785 255 255 255
1.045 -1.671 2.65 255 255 255
-0.015 0.065 1.045 255 255 255
0.19 -1.296 2.222 255 255 255
0.846 -0.541 2.957 0 0 0
0.623 -1.693 2.449 255 255 255
0.27 0.28 0.645 255 255 255
-0.905 -0.445 1.701 255 255 255
0.168 0.342 0.695 255 255 255
0.278 0.233 0.595 255 255 255
0.154 0.016 0.789 255 255 255
-0.006 0.202 0.963 255 255 255
-0.639 -0.723 1.795 255 255 255
1.315 -1.04 2.747 255 255 255
-0.393 -0.708 2.019 255 255 255
-0.721 -0.673 1.754 255 255 255
-0.03 0.077 1.071 255 255 255
-0.765 -1.016 1.625 255 255 255
0.023 -1.397 2.08 255 255 255
-0.259 0.31 1.073 255 255 255
-0.914 -0.554 1.663 255 255 255
-0.145 -1.35 1.982 255 255 255
-0.88 -0.245 1.784 255 255 255
-1.083 0.232 1.789 255 255 255
-0.262 0.125 1.054 255 255 255
-0.764 -0.181 1.885 255 255 255
-0.442 0.195 1.177 255 255 255
0.238 0.226 0.653 255 255 255
-0.39 -0.102 1.157 0 0 0
0.205 -0.302 2.568 255 255 255
-0.396 0.16 1.163 255 255 255
0.885 -0.386 1.624 255 255 255
-0.14 -1.258 2.017 255 255 255
-0.361 0.699 1.318 255 255 255
0.846 -1.394 2.693 255 255 255
0.537 -1.124 2.57 255 255 255
0.371 -0.106 0.978 255 255 255
-0.908 -0.221 1.771 255 255 255
0.27 0.362 0.681 255 255 255
0.299 0.083 0.541 255 255 255
-0.297 -0.114 1.076 255 255 255
0.633 -0.678 2.772 255 255 255
-1.061 -0.128 1.697 255 255 255
-0.302 -0.114 1.077 255 255 255
-0.096 0.289 0.928 255 255 255
-0.782 -0.822 1.673 255 255 255
-0.331 0.713 1.284 255 255 255
-0.355 0.048 1.098 255 255 255
-0.966 0.498 1.949 255 255 255
0.063 0.313 0.774 255 255 255
-0.038 -1.505 2.005 0 0 0
-0.154 0.415 1.081 255 255 255
0.083 -0.328 2.457 0 0 0
0.536 -1.663 2.395 255 255 255
0.115 0.069 0.821 255 255 255
-0.822 -0.463 1.754 255 255 255
0.662 -0.226 1.217 255 255 255
0.063 0.399 0.764 255 255 255
-0.446 -0.79 1.961 255 255 255
0.418 -0.071 0.761 255 255 255
-0.637 0.484 1.975 255 255 255
-0.83 -0.961 1.595 255 255 255
-0.016 0.033 1.017 255 255 255
-0.929 -0.31 1.733 255 255 255
-0.239 0.024 1.053 255 255 255
-0.313 -0.378 2.182 255 255 255
0.32 -0.031 0.627 0 0 0
0.487 -0.893 2.601 255 255 255
-1.052 -0.026 1.74 255 255 255
0.245 0.266 0.669 255 255 255
0.295 0.021 0.645 0 0 0
-0.516 0.673 1.391 255 255 255
-0.013 0.419 0.841 255 255 255
-0.845 -0.742 1.654 255 255 255
0.62 -0.63 2.773 255 255 255
-0.197 0.694 1.311 255 255 255
-1.007 -0.269 1.689 255 255 255
-0.258 -0.22 1.146 0 0 0
-1.014 -0.03 1.763 255 255 255
0.187 0.233 0.746 255 255 255
1.215 -0.823 2.99 255 255 255
0.22 -0.088 0.781 255 255 255
-0.482 0.623 1.52 255 255 255
-0.843 -0.105 1.856 255 255 255
-0.672 0.603 1.601 255 255 255
0.189 -0.102 1.082 255 255 255
0.235 0.147 0.615 255 255 255
0.201 0.335 0.675 255 255 255
0.287 -0.766 2.452 255 255 255
-0.969 0.25 1.888 255 255 255
0.004 -0.747 2.273 255 255 255
0.2 0.351 0.624 255 255 255
0.066 0.047 0.895 255 255 255
-0.23 0.292 1.061 255 255 255
-0.583 -0.774 1.817 255 255 255
0.222 0.243 0.689 255 255 255
1.001 -1.587 2.714 255 255 255
0.165 -0.053 0.957 255 255 255
-0.854 -0.774 1.635 0 0 0
-0.639 -0.758 1.785 255 255 255
0.206 -0.007 0.715 255 255 255
-0.684 -0.273 1.907 255 255 255
-0.417 -1.18 1.856 255 255 255
0.433 -0.427 2.717 255 255 255
-0.262 -0.726 2.099 255 255 255
0.544 -1.143 2.571 255 255 255
0.241 0.148 0.608 255 255 255
0.297 -0.014 0.606 255 255 255
-0.993 -0.144 1.74 255 255 255
-0.218 -0.623 2.164 255 255 255
1.313 -1.08 2.748 255 255 255
1.094 -1.65 2.667 255 255 255
-0.452 -0.633 1.947 255 255 255
0.181 -0.098 1.062 255 255 255
0.455 -0.032 0.717 255 255 255
0.074 0.14 0.901 255 255 255
0.701 -0.096 1.005 255 255 255
-0.177 0.078 1.098 255 255 255
0.115 -0.065 1.052 255 255 255
0.292 0.12 0.588 255 255 255
0.755 -1.324 2.651 255 255 255
-0.583 -0.987 1.749 255 255 255
1.13 -2.012 2.572 255 255 255
0.274 0.114 0.602 255 255 255
-1.06 -0.322 1.64 255 255 255
-0.74 -1.07 1.627 255 255 255
0.178 -1.562 2.139 0 0 0
-0.842 -0.473 1.739 255 255 255
-0.894 0.523 1.926 255 255 255
-0.285 0.043 1.044 255 255 255
-0.643 -0.719 1.795 255 255 255
-0.526 -0.843 1.834 255 255 255
-0.376 -0.868 1.98 255 255 255
-0.948 -0.545 1.646 255 255 255
-0.711 -1.108 1.626 255 255 255
0.314 0.095 0.542 255 255 255
-0.888 0.55 1.845 255 255 255
-1.051 -0.413 1.62 255 255 255
0.21 0.311 0.679 255 255 255
0.206 0.045 0.727 0 0 0
0.129 0.094 0.775 255 255 255
-0.174 -0.139 1.217 0 0 0
1.075 -0.357 1.471 255 255 255
0.311 0.099 0.528 255 255 255
-0.195 -1.062 2.039 255 255 255
0.89 -0.398 1.624 255 255 255
-0.69 -0.781 1.744 255 255 255
-0.258 0.076 1.031 255 255 255
-0.839 -0.488 1.738 255 255 255
-0.467 -1.339 1.775 0 0 0
0.167 -0.043 0.746 255 255 255
-2.013 0.061 2.915 0 0 0
-0.15 0.456 1.072 255 255 255
1.383 -0.779 2.585 255 255 255
0.355 -1.333 2.384 255 255 255
-0.897 -0.326 1.747 255 255 255
-0.686 -1.112 1.649 255 255 255
0.072 0.14 0.904 255 255 255
-0.978 0.377 1.921 255 255 255
-0.072 0.211 1.013 255 255 255
0.297 0.087 0.54 255 255 255
0.295 0.145 0.561 255 255 255
-0.261 -0.152 1.104 255 255 255
0.333 -0.453 2.587 255 255 255
-0.113 -1.099 2.084 255 255 255
0.136 0.365 0.675 255 255 255
-1.058 -0.471 1.599 255 255 255
-0.808 -0.293 1.815 255 255 255
-0.561 -0.568 1.894 255 255 255
0.355 -1.353 2.374 255 255 255
0.24 -0.077 0.781 255 255 255
1.046 -0.807 2.966 255 255 255
-0.872 0.185 1.928 255 255 255
-0.465 -0.702 1.915 255 255 255
0.355 -1.278 2.398 255 255 255
0.131 0.027 0.795 255 255 255
-1.154 -0.387 1.577 255 255 255
-0.993 0.451 1.922 255 255 255
-0.418 -0.577 2.044 255 255 255
-0.072 0.031 1.097 0 0 0
-0.452 0.648 1.453 0 0 0
0.134 0.317 0.741 255 255 255
0.633 -0.667 2.776 255 255 255
0.2 0.054 0.731 0 0 0
1.033 -1.103 2.495 255 255 255
0.241 0.078 0.639 255 255 255
0.209 -0.098 0.78 255 255 255
-0.001 -0.529 2.342 255 255 255
-0.131 0.081 1.112 255 255 255
-0.091 -0.878 2.166 255 255 255
-0.46 -1.003 1.84 0 0 0
-0.291 0.011 1.049 255 255 255
0.046 -1.168 2.165 255 255 255
0.048 0.374 0.747 255 255 255
-0.187 0.058 1.097 255 255 255
0.939 -0.772 2.952 255 255 255
-1.014 -0.382 1.649 255 255 255
0.065 0.264 0.815 255 255 255
1.219 -1.01 2.91 255 255 255
0.255 -0.706 2.449 255 255 255
-0.137 0.702 1.28 255 255 255
-0.229 0.132 1.044 255 255 255
-0.792 -0.848 1.658 255 255 255
-0.119 -0.065 1.216 0 0 0
0.044 0.325 0.772 255 255 255
0.263 0.108 0.611 255 255 255
0.304 0.038 0.493 255 255 255
-1.094 -0.404 1.572 255 255 255
0.385 -1.729 2.283 0 0 0
-0.198 -0.047 1.186 255 255 255
-0.197 0.214 1.051 255 255 255
-0.773 0.595 1.643 255 255 255
0.614 -0.81 2.714 255 255 255
0.677 -0.23 1.186 255 255 255
0.033 -0.109 1.195 255 255 255
-0.85 -0.635 1.674 255 255 255
-0.852 -0.197 1.822 255 255 255
0.341 -1.607 2.286 255 255 255
0.169 -0.021 0.739 0 0 0
0.103 0.253 0.767 0 0 0
0.11 0.086 0.805 255 255 255
0.795 -0.633 2.897 255 255 255
-1.07 -0.041 1.707 255 255 255
0.266 -1.477 2.218 255 255 255
0.018 -0.888 2.242 255 255 255
0.036 0.378 0.775 255 255 255
-2.018 -0.366 2.784 0 0 0
0.036 0.197 0.995 255 255 255
-0.205 -0.295 2.273 255 255 255
0.236 0.311 0.702 0 0 0
0.853 -1.348 2.711 255 255 255
0.629 -0.261 1.466 0 0 0
0.119 -1.149 2.222 255 255 255
-0.959 0.096 1.841 255 255 255
-0.694 -0.72 1.761 255 255 255
0.366 -1.308 2.394 255 255 255
-0.893 0.061 1.878 255 255 255
0.379 -0.124 1.011 255 255 255
-0.48 -1.087 1.785 255 255 255
0.364 -0.034 0.625 255 255 255
0.109 0.37 0.682 255 255 255
0.696 -0.082 0.964 255 255 255
-0.741 0.49 1.978 255 255 255
-0.399 -0.512 2.069 0 0 0
-0.226 -0.092 1.096 255 255 255
0.176 0.282 0.682 255 255 255
0.251 0.111 0.634 255 255 255
-0.812 0.589 1.687 255 255 255
0.622 -0.238 1.398 255 255 255
-0.043 0.312 0.828 255 255 255
-0.266 -0.129 1.096 255 255 255
0.269 -1.151 2.32 255 255 255
-1.038 0.471 1.9 255 255 255
-0.277 0.134 1.052 255 255 255
-0.547 -1.136 1.729 255 255 255
0.874 -0.446 1.748 255 255 255
-0.275 -0.635 2.12 255 255 255
0.198 0.14 0.663 255 255 255
0.543 -1.102 2.576 255 255 255
-0.944 -0.172 1.765 255 255 255
0.294 0.061 0.59 255 255 255
0.229 0.101 0.665 255 255 255
0.274 -0.058 0.778 255 255 255
-0.542 0.527 1.818 255 255 255
0.098 0.056 0.845 255 255 255
0.306 -0.032 0.78 255 255 255
0.28 0.304 0.657 0 0 0
0.558 -0.1 0.86 255 255 255
-1.005 -0.61 1.588 255 255 255
0.148 0.183 0.79 255 255 255
1.218 -0.925 2.943 255 255 255
-0.403 -0.904 1.95 255 255 255
0.288 0.093 0.546 255 255 255
0.176 0.286 0.681 255 255 255
0.037 -1.485 2.064 255 255 255
0.27 0.15 0.577 255 255 255
0.288 -0.085 0.806 255 255 255
0.178 0.069 0.732 0 0 0
-0.435 -0.408 2.065 255 255 255
0.261 -0.064 0.776 255 255 255
-0.62 0.62 1.537 255 255 255
0.018 0.328 0.802 255 255 255
-0.538 0.494 1.912 255 255 255
-0.146 0.262 1.016 255 255 255
0.084 0.076 0.845 255 255 255
-0.439 -0.513 2.049 0 0 0
-0.294 -0.745 2.071 255 255 255
0.257 -1.63 2.162 0 0 0
-0.237 0.67 1.374 255 255 255
0.397 -0.889 2.547 255 255 255
-0.868 -0.408 1.74 255 255 255
1.199 -1.819 2.622 255 255 255
0.799 -1.292 2.689 255 255 255
-0.987 0.359 1.913 255 255 255
-1.041 -0.574 1.572 255 255 255
0.135 -0.797 2.345 255 255 255
0.349 -1.386 2.354 255 255 255
-0.092 -0.745 2.207 255 255 255
0.247 0.013 0.613 0 0 0
-0.218 0.035 1.057 255 255 255
0.2 0.031 0.651 255 255 255
1.346 -0.755 2.829 255 255 255
-0.134 0.235 1.011 255 255 255
0.306 0.055 0.516 255 255 255
0.231 -1.011 2.338 255 255 255
0.321 0.029 0.514 0 0 0
0.265 -1.393 2.246 255 255 255
0 0.286 0.839 255 255 255
1.294 -0.718 2.941 255 255 255
-0.493 -1.284 1.717 0 0 0
-0.169 0.087 1.076 255 255 255
-0.898 -0.722 1.625 255 255 255
-0.399 -1.001 1.921 255 255 255
-0.48 -1.091 1.783 255 255 255
-0.152 0.419 1.079 255 255 255
-0.398 -0.629 2.04 255 255 255
-0.36 -0.854 1.992 255 255 255
-0.107 -0.456 2.292 255 255 255
0.953 -0.478 2.636 0 0 0
-0.857 -0.635 1.671 255 255 255
-0.01 -0.816 2.242 255 255 255
-0.131 0.24 1.005 255 255 255
-0.159 -0.031 1.202 255 255 255
-0.069 -1.287 2.056 255 255 255
0.305 0.056 0.54 255 255 255
-0.013 0.165 1.051 0 0 0
-0.306 -1.186 1.923 255 255 255
0.214 -0.058 0.753 255 255 255
0.226 0.31 0.685 255 255 255
-0.036 0.244 0.929 255 255 255
-0.824 -0.732 1.667 255 255 255
0.047 -0.699 2.314 255 255 255
0.24 0.175 0.611 255 255 255
-0.59 -0.624 1.864 255 255 255
-0.859 0.156 1.932 255 255 255
-0.601 -0.529 1.88 255 255 255
-0.195 -0.035 1.182 255 255 255
-0.84 0.561 1.794 255 255 255
-0.448 -1.362 1.778 0 0 0
1.325 -1.173 2.687 255 255 255
0.489 -1.538 2.405 255 255 255
0.349 -1.11 2.449 255 255 255
-0.036 -0.057 1.11 255 255 255
0.468 -0.946 2.57 255 255 255
0.285 0.083 0.553 255 255 255
0.221 0.116 0.669 255 255 255
0.168 0.246 0.715 255 255 255
0.396 -1.709 2.294 0 0 0
-0.403 -1.073 1.896 255 255 255
0.204 0.123 0.672 255 255 255
0.037 0.047 0.927 255 255 255
0.12 -0.888 2.306 255 255 255
0.503 -0.056 0.751 0 0 0
-0.775 0.025 1.941 255 255 255
0.24 -0.67 2.455 255 255 255
-0.316 -1.29 1.887 255 255 255
-0.761 -1 1.632 255 255 255
-0.899 -0.621 1.653 255 255 255
0.604 -0.131 0.908 255 255 255
-0.435 -1.071 1.879 255 255 255
1.213 -1.884 2.593 0 0 0
0.068 0.356 0.736 255 255 255
0.091 0.045 0.863 255 255 255
0.109 -0.288 2.501 255 255 255
-1.026 -0.064 1.743 255 255 255
0.739 -0.376 1.775 0 0 0
-0.371 -1.259 1.86 255 255 255
-0.795 -0.297 1.824 255 255 255
-1.031 0.449 1.899 255 255 255
0.646 -0.146 0.945 255 255 255
-0.114 -0.684 2.214 255 255 255
0.268 0.141 0.594 255 255 255
-0.315 0.51 1.41 0 0 0
0.09 0.283 0.802 255 255 255
-1.082 0.182 1.775 255 255 255
0.329 -0.735 2.507 255 255 255
-0.607 -0.903 1.761 255 255 255
-0.094 -0.036 1.152 0 0 0
-0.722 -0.606 1.774 255 255 255
0.536 -1.613 2.417 255 255 255
-0.497 0.649 1.447 0 0 0
-0.407 -0.937 1.938 255 255 255
0.143 0.156 0.783 255 255 255
-0.29 -0.204 1.122 0 0 0
-0.247 0.026 1.051 255 255 255
-0.306 -0.117 1.082 255 255 255
-0.058 0.283 0.851 255 255 255
-0.984 -0.129 1.748 255 255 255
-0.625 -0.584 1.85 255 255 255
0.807 -0.295 1.419 255 255 255
1.004 -1.803 2.635 255 255 255
0.487 -0.678 2.673 255 255 255
-0.266 -0.225 1.149 0 0 0
-0.247 0.223 1.066 255 255 255
0.215 0.145 0.64 255 255 255
-0.08 -0.058 1.172 255 255 255
0.245 0.123 0.636 255 255 255
-0.829 -0.392 1.772 255 255 255
-0.991 -0.647 1.585 255 255 255
-0.254 0.522 1.372 255 255 255
0.021 0.302 0.796 255 255 255
-0.365 -1.029 1.94 255 255 255
-0.074 -0.852 2.189 255 255 255
0.261 0.172 0.571 255 255 255
0.009 -1.13 2.155 255 255 255
-0.735 -0.718 1.734 255 255 255
-0.396 0.203 1.16 255 255 255
-2.093 -0.268 2.834 0 0 0
-0.259 -1.294 1.925 255 255 255
-0.087 0.265 0.944 255 255 255
-1.12 0.118 1.744 255 255 255
-0.304 -1.25 1.912 255 255 255
0.077 0.053 0.876 255 255 255
-0.225 0.104 1.026 255 255 255
-0.07 0.186 1.049 255 255 255
-0.391 0.209 1.241 255 255 255
-0.44 -0.631 2.012 0 0 0
0.174 -0.981 2.31 255 255 255
-0.495 -1.093 1.775 255 255 255
-0.273 0.119 1.037 255 255 255
0.121 0.245 0.9 255 255 255
-0.942 -0.142 1.78 255 255 255
-0.412 0.217 1.166 255 255 255
0.196 0.331 0.692 255 255 255
0.247 -1.607 2.169 0 0 0
0.095 0.074 0.833 255 255 255
-0.248 -0.898 2.051 255 255 255
0.544 -1.457 2.465 255 255 255
-0.717 -0.023 1.963 255 255 255
-1.085 -0.387 1.589 255 255 255
-0.213 0.28 1.053 255 255 255
0.529 -0.416 2.783 0 0 0
-0.419 0.275 1.306 0 0 0
1.323 -1.412 2.605 255 255 255
0.832 -1.336 2.705 255 255 255
0.135 0.362 0.68 255 255 255
0.136 0.242 0.725 0 0 0
-1.044 -0.22 1.678 255 255 255
1.188 -1.558 2.738 255 255 255
-0.388 -0.975 1.938 255 255 255
0.558 -0.112 0.875 255 255 255
0.918 -0.419 1.577 255 255 255
1.256 -0.935 2.895 255 255 255
-0.119 0.063 1.124 255 255 255
0.081 0.333 0.72 255 255 255
-0.195 -0.876 2.096 255 255 255
-0.906 -0.176 1.788 255 255 255
-0.873 -0.196 1.802 255 255 255
0.27 0.123 0.604 255 255 255
0.799 -1.287 2.693 255 255 255
-0.277 -0.145 1.096 255 255 255
0.88 -0.38 1.633 0 0 0
-0.795 -0.604 1.723 255 255 255
0.257 -0.031 0.751 255 255 255
-0.635 -0.403 1.899 255 255 255
-0.263 -1.32 1.912 255 255 255
-0.314 -0.517 2.135 255 255 255
1.287 -1.799 2.549 255 255 255
0.299 0.063 0.584 255 255 255
-0.679 -1.106 1.657 255 255 255
-0.07 -0.609 2.272 255 255 255
-0.333 -0.877 2.006 255 255 255
-0.499 0.698 1.32 255 255 255
-0.781 -0.662 1.715 255 255 255
-0.45 -1.319 1.789 0 0 0
0.297 0.03 0.468 255 255 255
0.105 -0.86 2.303 255 255 255
0.004 -0.965 2.203 255 255 255
0.269 0.138 0.599 255 255 255
-0.518 0.6 1.588 255 255 255
0.199 0.037 0.729 0 0 0
-0.503 -1.104 1.767 255 255 255
-0.705 0.568 1.715 255 255 255
-0.102 0.01 1.14 255 255 255
-2.101 0.063 2.965 255 255 255
-0.731 -0.163 1.915 255 255 255
0.211 -1.299 2.236 255 255 255
-0.791 -0.48 1.768 255 255 255
0.049 0.176 0.984 255 255 255
-0.335 -0.682 2.071 255 255 255
0.283 0.2 0.563 255 255 255
-0.954 0.255 1.897 255 255 255
-0.728 -0.872 1.692 255 255 255
0.82 -1.867 2.421 255 255 255
0.053 -0.293 2.456 255 255 255
-0.203 0.016 1.108 255 255 255
-0.726 -0.293 1.869 255 255 255
0.181 0.028 0.647 255 255 255
0.567 -0.783 2.688 255 255 255
-0.356 -1.246 1.883 255 255 255
-0.203 -0.975 2.06 255 255 255
1.336 -1.063 2.709 255 255 255
-0.181 -0.081 1.203 255 255 255
-0.331 -0.472 2.136 255 255 255
-0.304 -0.403 2.174 255 255 255
-0.007 0.307 0.826 255 255 255
-0.272 -0.01 1.063 255 255 255
0.103 0.351 0.689 255 255 255
0.188 0.181 0.716 255 255 255
0.179 0.024 0.614 255 255 255
-0.372 -1.013 1.937 255 255 255
0.458 -1.752 2.325 0 0 0
0.187 -0.044 0.919 0 0 0
-0.407 -0.844 1.964 255 255 255
-0.996 -0.114 1.746 255 255 255
0.11 0.071 0.819 255 255 255
0.988 -1.048 2.88 255 255 255
-0.087 0.248 0.997 255 255 255
-0.581 -0.355 1.938 0 0 0
-0.546 0.598 1.597 255 255 255
0.074 0.337 0.728 255 255 255
0.55 -1.696 2.399 255 255 255
-0.456 -0.417 2.003 255 255 255
-0.196 0.241 1.051 255 255 255
-0.077 0.268 0.868 255 255 255
-1.021 -0.381 1.645 255 255 255
-0.158 0.684 1.321 255 255 255
0.642 -0.233 1.383 0 0 0
-0.2 0.147 1.101 255 255 255
0.536 -1.215 2.538 255 255 255
0.08 -0.907 2.277 255 255 255
1.207 -1.886 2.597 0 0 0
0.707 -1.016 2.714 255 255 255
0.339 -0.511 2.582 255 255 255
0.882 -1.009 2.573 255 255 255
0.154 0.05 0.725 0 0 0
-0.134 0.041 1.136 255 255 255
0.229 0.296 0.712 0 0 0
0.319 -1.68 2.243 0 0 0
0.339 -0.054 0.784 0 0 0
-0.271 0.325 1.071 0 0 0
0.585 -1.533 2.472 255 255 255
0.796 -1.096 2.758 255 255 255
-0.352 -1.263 1.877 255 255 255
0.159 0.178 0.768 255 255 255
-0.061 -0.525 2.306 255 255 255
-0.139 -0.345 2.304 255 255 255
-0.93 0.4 1.949 255 255 255
0 0.05 1.005 255 255 255
0.115 0.354 0.681 255 255 255
1.399 -1.524 2.516 255 255 255
0.226 0.255 0.692 255 255 255
0.33 0.05 0.64 0 0 0
-0.659 0.611 1.573 255 255 255
0.264 -0.002 0.596 255 255 255
0.121 0.374 0.681 255 255 255
-0.729 -0.096 1.936 255 255 255
-0.164 -0.119 1.219 0 0 0
0.03 0.006 0.961 255 255 255
-0.571 -1.204 1.694 255 255 255
1.479 -0.733 2.41 0 0 0
-0.01 -0.649 2.293 0 0 0
0.406 -0.035 0.653 255 255 255
1.384 -1.156 2.622 255 255 255
0.311 -1.585 2.257 255 255 255
0.261 0.339 0.701 255 255 255
1.279 -0.967 2.841 255 255 255
1.032 -0.779 2.989 255 255 255
-0.284 0.685 1.343 255 255 255
-0.647 -0.992 1.708 255 255 255
-0.77 0.541 1.832 255 255 255
0.111 -0.52 2.415 255 255 255
-0.672 -0.957 1.706 255 255 255
0.097 0.194 0.909 255 255 255
-0.24 -0.01 1.07 255 255 255
0.244 0.063 0.652 255 255 255
-0.204 -0.4 2.241 255 255 255
0.039 0.325 0.773 255 255 255
-0.82 0.362 2.009 255 255 255
0.556 -1.432 2.479 255 255 255
-0.431 0.278 1.29 0 0 0
0.282 -0.436 2.554 255 255 255
-0.822 -0.945 1.603 255 255 255
-0.94 -0.668 1.609 255 255 255
-0.058 0.267 0.85 255 255 255
-0.906 -0.595 1.656 255 255 255
-0.18 0.054 1.122 255 255 255
-0.318 -0.2 1.135 0 0 0
-0.676 -1.237 1.616 0 0 0
-1.095 -0.315 1.601 255 255 255
1.116 -1.369 2.772 0 0 0
-0.023 0.044 1.049 255 255 255
0.277 -0.095 0.807 255 255 255
-0.806 -0.274 1.822 255 255 255
0.308 0.031 0.656 0 0 0
0.041 -0.031 0.978 0 0 0
0.881 -1.628 2.641 255 255 255
-0.403 0.707 1.299 255 255 255
1.375 -1.368 2.567 255 255 255
0.585 -0.641 2.746 255 255 255
-0.715 -0.66 1.764 255 255 255
0.942 -0.916 2.911 255 255 255
-2.022 -0.168 2.838 0 0 0
-0.316 -1.272 1.894 255 255 255
-0.923 -0.213 1.765 255 255 255
0.355 -0.06 0.791 0 0 0
0.479 -0.702 2.655 255 255 255
-0.079 0.11 1.093 255 255 255
-0.649 0.552 1.756 255 255 255
-0.845 0.573 1.745 255 255 255
1.031 -0.822 2.978 255 255 255
0.789 -0.247 1.126 255 255 255
0.168 -0.074 0.761 255 255 255
-0.011 0.45 0.843 255 255 255
-0.244 -0.305 2.243 255 255 255
-0.761 -0.687 1.722 255 255 255
1.335 -1.298 2.64 255 255 255
-0.539 0.692 1.335 255 255 255
-0.484 -0.547 1.956 255 255 255
-1.134 -0.412 1.559 255 255 255
0.496 -1.525 2.416 255 255 255
-0.962 -0.038 1.796 255 255 255
0.085 0.387 0.709 255 255 255
-0.198 0.133 1.116 255 255 255
0.98 -1.027 2.761 255 255 255
0.085 -0.971 2.253 255 255 255
-1.005 -0.214 1.708 255 255 255
0.31 0.036 0.665 0 0 0
1.364 -1.387 2.567 255 255 255
1.325 -1.318 2.642 255 255 255
0.275 -0.87 2.41 255 255 255
0.348 0.019 0.487 255 255 255
-0.454 -0.836 1.905 0 0 0
-0.938 -0.32 1.723 255 255 255
1.348 -1.053 2.677 255 255 255
0.293 0.111 0.573 255 255 255
0.017 -0.035 0.982 255 255 255
0.555 -1.626 2.423 255 255 255
0.023 -1.091 2.176 255 255 255
-0.161 0.062 1.134 255 255 255
0.044 -0.001 0.958 255 255 255
-0.929 0.077 1.856 255 255 255
-0.643 0.574 1.686 255 255 255
0.123 0.238 0.82 255 255 255
0.767 -0.309 1.539 0 0 0
-0.371 0.651 1.442 0 0 0
0.281 0.083 0.556 255 255 255
0.282 -0.716 2.465 255 255 255
-0.849 0.434 2.012 255 255 255
0.096 0.301 0.763 255 255 255
-0.807 0.261 1.999 255 255 255
-0.951 -0.746 1.582 255 255 255
-0.172 -0.083 1.222 255 255 255
0.889 -0.393 1.622 255 255 255
0.262 0.204 0.594 255 255 255
0.527 -1.483 2.454 255 255 255
-0.005 -1.202 2.124 255 255 255
-0.337 -0.353 2.166 255 255 255
0.267 0.203 0.589 255 255 255
-0.065 -0.849 2.194 255 255 255
0.047 0.38 0.751 255 255 255
0.112 0.252 0.764 255 255 255
-0.335 -1.255 1.883 255 255 255
-0.62 -1.262 1.644 0 0 0
-0.321 0.087 1.057 255 255 255
-0.832 -0.532 1.724 255 255 255
0.124 0.141 0.81 255 255 255
-0.178 -0.737 2.152 255 255 255
0.256 0.274 0.661 255 255 255
-0.511 0.687 1.353 255 255 255
1.051 -0.812 2.959 255 255 255
0.285 0.162 0.561 255 255 255
0.242 -1.024 2.342 255 255 255
0.193 -0.595 2.45 255 255 255
-0.797 -0.947 1.623 0 0 0
-0.06 0.126 1.099 0 0 0
0.026 0.329 0.783 255 255 255
0.186 0.184 0.723 255 255 255
1.278 -0.979 2.837 255 255 255
0.248 0.277 0.68 255 255 255
0.105 0.096 0.807 255 255 255
0.29 0.011 0.624 0 0 0
-0.374 0.644 1.458 0 0 0
0.699 -0.216 1.118 255 255 255
0.369 -0.026 0.636 255 255 255
-0.288 0.159 1.074 255 255 255
-0.382 0.659 1.419 255 255 255
-0.244 0.086 1.027 255 255 255
0.321 -0.745 2.487 255 255 255
-0.84 0.51 1.943 255 255 255
0.159 0.261 0.706 255 255 255
0.403 -0.048 0.745 255 255 255
-0.474 -0.464 1.983 255 255 255
0.498 -1.295 2.486 255 255 255
0.183 -1.539 2.153 255 255 255
-0.838 -0.295 1.794 255 255 255
-1.099 -0.29 1.609 255 255 255
-0.717 0.572 1.712 255 255 255
-0.721 -0.678 1.754 255 255 255
0.455 -1.259 2.47 255 255 255
-0.189 -0.511 2.219 255 255 255
0.121 0.237 0.897 255 255 255
-0.367 0.711 1.286 255 255 255
-0.818 0.504 1.959 255 255 255
0.233 0.148 0.619 255 255 255
-0.031 0.285 0.835 255 255 255
-0.65 -1.091 1.679 255 255 255
0.057 -0.429 2.405 255 255 255
1.059 -1.438 2.721 255 255 255
0.352 0.003 0.621 255 255 255
-0.184 0.668 1.327 255 255 255
-0.22 -0.157 1.143 0 0 0
-1.044 -0.113 1.717 255 255 255
0.599 -0.142 0.946 0 0 0
-0.546 0.688 1.347 255 255 255
0.095 0.291 0.804 0 0 0
-0.343 -0.183 1.14 0 0 0
0.256 0.397 0.708 255 255 255
1.154 -1.635 2.708 255 255 255
0.067 0.414 0.775 255 255 255
1.828 -1.004 2.818 255 255 255
0.212 0.03 0.603 255 255 255
-0.054 0.089 1.114 255 255 255
0.629 -0.424 2.868 0 0 0
-0.264 0.451 1.333 255 255 255
-0.724 -0.194 1.906 255 255 255
0.215 0.107 0.69 255 255 255
-0.026 -0.092 1.166 255 255 255
-0.695 -0.273 1.903 255 255 255
0.131 0.015 0.807 255 255 255
-0.759 -0.826 1.689 255 255 255
0.073 0.308 0.779 255 255 255
0.024 0.417 0.794 255 255 255
0.486 -1.187 2.511 255 255 255
-0.224 0.049 1.048 255 255 255
-0.639 -0.33 1.92 0 0 0
0.96 -0.39 1.473 255 255 255
-0.074 0.374 0.85 255 255 255
-0.267 0.148 1.062 255 255 255
-0.209 0.347 1.068 255 255 255
-0.493 -0.455 1.974 255 255 255
-0.741 -0.493 1.802 255 255 255
-0.993 -0.668 1.575 255 255 255
-0.059 0.291 0.836 255 255 255
-0.847 -0.733 1.652 255 255 255
-0.274 -0.732 2.088 255 255 255
0.249 -1.442 2.215 255 255 255
0.054 0.051 0.903 255 255 255
0.176 0.234 0.741 0 0 0
-0.338 -0.336 2.171 255 255 255
0.043 0.01 0.949 255 255 255
-0.776 0.539 1.838 255 255 255
-0.933 -0.221 1.759 255 255 255
1.361 -1.103 2.648 255 255 255
0.09 -0.106 1.157 255 255 255
-0.027 0.226 0.952 255 255 255
-0.808 -0.537 1.738 255 255 255
0.466 -1.185 2.496 255 255 255
0.342 0.024 0.635 0 0 0
-0.885 -0.831 1.6 255 255 255
0.252 0.214 0.616 255 255 255
0.208 0.263 0.722 0 0 0
0.169 0.299 0.677 255 255 255
-0.819 -0.09 1.875 255 255 255
0.134 0.042 0.836 255 255 255
0.04 0.139 0.965 255 255 255
1.019 -1.833 2.604 255 255 255
0.781 -0.938 2.785 255 255 255
-0.998 0.496 1.925 255 255 255
1.294 -1.637 2.585 255 255 255
-0.232 -0.191 1.152 0 0 0
-0.605 -0.729 1.819 255 255 255
0.305 -0.068 0.794 255 255 255
0.662 -1.837 2.432 0 0 0
-0.054 -0.042 1.115 255 255 255
