ply
format ascii 1.0
comment Created by Open3D
element vertex 1582
property double x
property double y
property double z
property uchar red
property uchar green
property uchar blue
end_header
-0.608 -0.579 1.823 255 255 255
-0.085 -0.608 2.181 255 255 255
-0.024 0.265 0.978 255 255 255
0.217 0.066 0.724 255 255 255
0.512 -1.27 2.386 255 255 255
-0.204 0.013 1.076 255 255 255
0.432 -0.073 0.872 0 0 0
0.243 -0.031 0.953 0 0 0
-1.865 -0.918 2.71 255 255 255
0.083 0.332 0.792 255 255 255
-0.309 0.635 1.515 255 255 255
-0.619 -1.046 1.676 255 255 255
-0.835 -0.823 1.617 0 0 0
-0.918 0.412 1.944 255 255 255
1.054 -0.419 2.751 0 0 0
-0.074 0.702 1.303 255 255 255
0.657 -0.911 2.577 255 255 255
-0.786 -0.593 1.715 255 255 255
0.199 -0.047 1.018 255 255 255
-0.673 0.614 1.589 255 255 255
0.896 -0.364 1.682 255 255 255
0.08 -0.007 0.988 255 255 255
0.173 0.253 0.76 255 255 255
1.051 -0.505 2.666 0 0 0
0.141 0.331 0.724 255 255 255
-0.641 0.454 2.096 255 255 255
-0.206 -0.761 2.058 255 255 255
0.418 0.058 0.637 255 255 255
0.091 -1.1 2.129 255 255 255
0.363 0.073 0.576 255 255 255
0.129 -0.99 2.185 255 255 255
0.159 0.352 0.703 255 255 255
0.019 0.297 0.838 255 255 255
1.012 -0.772 2.834 255 255 255
-0.822 -0.693 1.664 255 255 255
-0.332 0.135 1.194 255 255 255
0.665 -0.136 1.148 255 255 255
-0.761 0.257 2.01 255 255 255
-0.63 0.067 2.02 255 255 255
0.192 0.326 0.739 255 255 255
0.997 -0.34 1.546 255 255 255
-0.861 -0.61 1.667 255 255 255
-0.443 0.648 1.482 0 0 0
0.03 0.471 0.867 255 255 255
-2.039 -0.627 2.846 255 255 255
-0.236 -0.159 1.142 255 255 255
1.042 -0.489 2.677 0 0 0
-0.279 -0.654 2.047 255 255 255
-0.14 0.19 1.066 255 255 255
-0.173 0.257 1.085 255 255 255
0.75 -1.406 2.483 255 255 255
0.295 0.147 0.61 255 255 255
1.521 -0.616 2.27 255 255 255
0.291 0.017 0.607 255 255 255
-0.166 0.268 1.083 255 255 255
0.452 -1.141 2.328 255 255 255
0.278 0.072 0.687 255 255 255
0.205 -0.067 1.086 255 255 255
0.512 -0.894 2.498 255 255 255
1.355 -1.713 2.634 255 255 255
0.022 0.107 1.14 255 255 255
-0.041 0.195 1.054 255 255 255
0.702 -1.371 2.463 255 255 255
0.143 -0.013 0.954 255 255 255
-0.394 -1.286 1.729 0 0 0
-0.609 -0.727 1.779 255 255 255
-0.089 -1.188 1.994 255 255 255
-0.022 0.353 0.863 255 255 255
1.224 -1.327 2.728 255 255 255
-2.131 -0.281 2.898 255 255 255
0.534 -1.2 2.415 255 255 255
0.98 -0.345 1.628 255 255 255
1.508 -1.299 2.616 255 255 255
0.924 -1.162 2.668 255 255 255
0.478 -0.86 2.436 255 255 255
-0.036 0.293 0.958 255 255 255
0.811 -0.439 2.821 255 255 255
-0.47 0.647 1.482 0 0 0
-0.572 -0.488 1.873 255 255 255
-0.191 0.024 1.077 255 255 255
-0.034 0.692 1.303 255 255 255
0.334 0.064 0.654 255 255 255
0.494 -1.598 2.275 255 255 255
-0.313 0.236 1.307 255 255 255
-0.454 0.498 1.942 255 255 255
-2.098 -0.347 2.897 255 255 255
0.949 -1.593 2.539 255 255 255
-0.861 0.397 1.977 255 255 255
-0.17 0.095 1.044 255 255 255
0.054 -0.946 2.159 255 255 255
-0.858 -0.786 1.613 255 255 255
0.417 -0.042 0.757 0 0 0
0.819 -1.147 2.606 255 255 255
0.298 0.01 0.585 255 255 255
-0.817 -0.348 1.769 255 255 255
0.276 -0.135 1.238 255 255 255
0.114 0.412 0.771 255 255 255
-0.976 0.048 1.787 255 255 255
0.253 -0.986 2.266 255 255 255
0.428 -0.137 1.002 255 255 255
0.264 0.221 0.697 255 255 255
-0.55 0.542 1.814 255 255 255
-0.375 0.652 1.46 0 0 0
-1.042 -0.377 1.657 255 255 255
-0.313 0.259 1.327 255 255 255
1.24 -1.319 2.719 255 255 255
0.036 -1.098 2.095 255 255 255
0.637 -0.842 2.582 255 255 255
1.589 -1.018 2.562 255 255 255
-0.146 0.159 1.066 255 255 255
0.739 -0.437 2.777 0 0 0
-0.129 0.104 1.057 255 255 255
0.193 0.118 0.767 255 255 255
0.17 -0.634 2.327 255 255 255
-0.619 0.523 1.911 255 255 255
-0.373 -0.658 1.941 255 255 255
0.222 -0.041 0.75 255 255 255
0.195 0.25 0.722 0 0 0
0.673 -1.598 2.372 255 255 255
0.273 0.163 0.625 255 255 255
0.326 0.104 0.57 255 255 255
0.131 0.087 0.883 255 255 255
0.293 0.051 0.671 0 0 0
0.693 -1.048 2.554 255 255 255
-0.767 -0.89 1.634 255 255 255
0.175 0.04 0.863 255 255 255
-0.191 0.073 1.056 255 255 255
-0.114 0.066 1.093 255 255 255
-0.515 0.667 1.433 255 255 255
0.415 0.04 0.624 255 255 255
0.672 -0.671 2.664 255 255 255
-0.966 0.4 1.914 255 255 255
0.323 -0.298 2.524 255 255 255
-0.998 -0.636 1.561 255 255 255
-0.235 -0.149 1.138 255 255 255
-0.129 -0.135 1.17 0 0 0
0.117 0.289 0.949 255 255 255
-0.126 -0.344 2.238 255 255 255
0.264 0.122 0.674 255 255 255
0.679 -0.137 0.986 255 255 255
0.281 0.126 0.654 255 255 255
-0.73 -0.694 1.716 255 255 255
0.195 0.224 0.869 255 255 255
0.31 0.102 0.594 255 255 255
-0.604 -1.112 1.669 255 255 255
0.069 0.101 1.049 255 255 255
0.373 -0.001 0.601 255 255 255
-0.238 -0.002 1.082 255 255 255
-0.961 0.392 1.914 255 255 255
-0.179 0.587 1.437 255 255 255
-0.097 -1.023 2.039 255 255 255
0.366 0.064 0.645 0 0 0
0.044 0.185 1.046 255 255 255
-0.464 -0.39 1.967 255 255 255
0.31 -0.345 2.496 255 255 255
0.919 -0.736 2.788 255 255 255
-1.531 0.251 2.489 255 255 255
-0.442 -0.961 1.808 255 255 255
-0.144 0.118 1.069 255 255 255
0.275 -1.321 2.168 255 255 255
-0.267 -0.068 1.134 0 0 0
-0.124 0.261 1.069 255 255 255
-0.329 -0.932 1.878 255 255 255
-0.865 0.332 1.972 255 255 255
-0.181 0.261 1.092 255 255 255
-0.525 -0.331 1.951 255 255 255
0.038 0.241 0.949 255 255 255
1.144 -1.211 2.787 0 0 0
-0.9 -0.832 1.576 255 255 255
-0.676 0.26 2.056 255 255 255
0.629 -1.301 2.442 255 255 255
0.14 -0.656 2.298 255 255 255
0.538 -0.618 2.603 255 255 255
-0.08 -0.68 2.157 255 255 255
0.317 0.126 0.614 255 255 255
-0.436 -1.073 1.777 255 255 255
0.889 -0.691 2.781 255 255 255
0.861 -1.739 2.45 255 255 255
0.316 -1.171 2.242 255 255 255
0.236 0.125 0.706 255 255 255
-0.633 -1.078 1.654 255 255 255
0.8 -0.571 2.766 255 255 255
0.165 -0.106 1.18 255 255 255
0.256 0.074 0.705 255 255 255
0.286 0.273 0.691 255 255 255
-0.198 0.077 1.057 255 255 255
-0.338 0.655 1.456 0 0 0
-0.517 -0.543 1.889 255 255 255
-0.769 0.217 1.987 255 255 255
-0.531 -0.912 1.766 255 255 255
-0.914 0.458 1.96 255 255 255
0.419 -1.131 2.312 255 255 255
1.194 -1.066 2.462 255 255 255
0.09 0.327 0.782 255 255 255
1.115 -0.788 2.898 255 255 255
0.231 0.253 0.718 255 255 255
-0.877 -0.284 1.757 255 255 255
-0.841 -0.746 1.634 255 255 255
-0.216 0.102 1.048 255 255 255
0.124 -0.076 1.092 255 255 255
-0.722 0.629 1.543 255 255 255
-0.2 0.284 1.096 255 255 255
1.516 -1.017 2.669 255 255 255
0.206 0.062 0.714 255 255 255
1.501 -1.152 2.66 255 255 255
0.342 -0.029 0.762 255 255 255
0.076 0.11 1.035 255 255 255
1.524 -0.966 2.669 255 255 255
-0.957 0.227 1.867 255 255 255
-0.973 -0.26 1.688 255 255 255
0.213 0.348 0.703 255 255 255
-0.106 -0.824 2.103 255 255 255
0.675 -1.094 2.536 255 255 255
-0.096 0.447 1.111 255 255 255
-0.417 -1.223 1.743 255 255 255
0.295 0.078 0.606 255 255 255
0.112 -0.574 2.307 255 255 255
0.782 -0.507 2.774 255 255 255
-0.329 -0.916 1.883 255 255 255
-0.488 -0.848 1.811 255 255 255
-1.222 0.437 2.2 0 0 0
-0.482 -0.768 1.843 255 255 255
-0.49 -1.188 1.709 255 255 255
0.14 0.357 0.72 255 255 255
1.108 -0.456 2.63 0 0 0
-0.767 -0.465 1.764 255 255 255
-0.243 -1.15 1.913 255 255 255
1.539 -1.23 2.585 255 255 255
0.055 -0.482 2.306 255 255 255
0.283 0.116 0.657 255 255 255
0.218 0.093 0.739 255 255 255
-0.058 -0.896 2.102 255 255 255
0.219 0.243 0.725 0 0 0
0.322 -0.767 2.367 255 255 255
-0.962 -0.483 1.643 255 255 255
-0.906 -0.16 1.78 255 255 255
-0.732 -0.764 1.692 0 0 0
-0.175 0.31 1.09 255 255 255
0.048 0.259 0.871 255 255 255
0.168 0.068 0.84 255 255 255
-0.315 0.582 1.656 255 255 255
0.187 0.261 0.74 0 0 0
0.149 0.254 0.96 255 255 255
-0.169 -0.91 2.039 255 255 255
-0.585 -0.63 1.82 255 255 255
-0.937 0.141 1.861 255 255 255
-0.692 -0.099 1.93 255 255 255
0.004 0.12 1.108 255 255 255
0.397 -0.14 0.984 255 255 255
0.289 0.139 0.624 255 255 255
-0.033 -0.009 1.171 255 255 255
-0.585 0.562 1.752 255 255 255
-0.887 -0.408 1.715 255 255 255
0.476 -0.05 0.753 255 255 255
0.059 0.234 0.945 255 255 255
0.316 0.06 0.661 0 0 0
0.639 -1.499 2.384 255 255 255
-0.732 -0.712 1.708 255 255 255
0.226 0.018 0.797 255 255 255
-0.278 -0.561 2.084 255 255 255
-2.172 -0.2 2.895 255 255 255
-0.883 -0.547 1.674 255 255 255
-0.077 -0.422 2.241 255 255 255
-0.461 -0.496 1.94 255 255 255
-0.027 0.09 1.119 255 255 255
-0.286 -0.881 1.975 255 255 255
0.129 0.03 0.934 255 255 255
-0.419 -0.749 1.883 255 255 255
0.215 -1.453 2.093 255 255 255
-0.245 0.051 1.08 255 255 255
0.625 -0.386 2.721 255 255 255
-0.756 -0.019 1.915 255 255 255
1.205 -1.68 2.622 255 255 255
-0.575 -0.161 1.976 255 255 255
0.235 -0.058 0.993 255 255 255
0.486 -0.553 2.536 255 255 255
-0.621 0.051 2.019 255 255 255
-0.249 -0.194 1.166 0 0 0
-0.603 -1.274 1.62 255 255 255
-0.872 -0.157 1.803 255 255 255
0.272 -0.603 2.395 255 255 255
-0.841 -0.779 1.623 0 0 0
-0.418 -1.16 1.757 255 255 255
-0.203 -0.671 2.093 255 255 255
0.176 -0.011 0.934 255 255 255
0.022 -0.645 2.23 255 255 255
1.329 -1.806 2.6 255 255 255
0.242 0.181 0.715 255 255 255
0.146 0.367 0.696 255 255 255
0.568 -1.417 2.369 255 255 255
0.245 -0.022 0.934 0 0 0
-0.674 0.565 1.766 255 255 255
0.986 -0.564 2.884 255 255 255
1.574 -0.93 2.636 255 255 255
-0.308 0.566 1.7 255 255 255
-0.001 -0.972 2.115 255 255 255
-0.126 0.139 1.099 255 255 255
0.15 0.292 0.947 0 0 0
1.182 -0.945 2.882 255 255 255
0.616 -1.017 2.519 255 255 255
-0.644 -0.317 1.886 255 255 255
0.276 0.082 0.658 255 255 255
-0.262 0.262 1.31 255 255 255
-0.386 -0.954 1.839 255 255 255
-0.872 0.163 1.909 255 255 255
-0.426 -0.802 1.859 255 255 255
0.093 0.294 0.871 255 255 255
-0.794 -0.684 1.681 255 255 255
-0.269 -1.276 1.864 255 255 255
-0.227 -0.166 1.14 0 0 0
0.306 -0.029 0.746 255 255 255
0.139 -1.229 2.12 0 0 0
-0.179 -0.578 2.137 255 255 255
-0.113 -0.301 2.256 255 255 255
-0.794 0.443 2.029 255 255 255
-0.054 -0.707 2.166 255 255 255
-0.814 0.583 1.721 255 255 255
-0.882 -0.791 1.597 255 255 255
0.206 0.022 0.808 255 255 255
-0.027 0.21 1.031 255 255 255
0.506 -0.046 0.717 0 0 0
0.27 0.174 0.642 255 255 255
0.122 0.188 0.989 255 255 255
0.204 0.35 0.694 255 255 255
-0.013 0.627 1.176 255 255 255
0.877 -0.537 2.823 255 255 255
0.355 0.028 0.635 0 0 0
0.233 0.342 0.678 255 255 255
-0.724 0.307 2.044 255 255 255
-0.27 -0.133 1.153 255 255 255
-0.637 -0.823 1.735 255 255 255
0.344 -1.252 2.238 255 255 255
0.044 0.141 1.115 0 0 0
-0.045 -0.933 2.106 255 255 255
-0.4 0.568 1.704 255 255 255
0.803 -0.421 2.815 255 255 255
0.104 0.247 0.969 255 255 255
1.109 -1.893 2.442 255 255 255
0.69 -0.99 2.577 255 255 255
-0.296 0.256 1.315 255 255 255
0.23 -0.02 0.917 255 255 255
-0.099 0.079 1.121 255 255 255
0.784 -1.102 2.597 255 255 255
0.08 0.385 0.795 255 255 255
0.154 0.115 0.858 255 255 255
0.149 0.045 0.885 255 255 255
-0.637 -1.132 1.63 255 255 255
0.991 -0.403 1.67 255 255 255
0.767 -0.539 2.759 255 255 255
-0.555 -0.84 1.772 255 255 255
0.124 0.297 0.812 255 255 255
0.908 -1.139 2.662 255 255 255
-0.161 -1.21 1.948 255 255 255
-0.202 -0.158 1.123 255 255 255
0.618 -0.514 2.679 255 255 255
-0.015 0.251 1.006 255 255 255
0.281 0.013 0.61 255 255 255
0.317 0.155 0.584 255 255 255
-0.659 0.286 2.058 255 255 255
0.211 0.131 0.737 255 255 255
0.249 0.159 0.683 255 255 255
-0.422 -0.779 1.869 255 255 255
-0.326 0.221 1.19 255 255 255
0.259 0.142 0.659 255 255 255
0.218 0.09 0.718 255 255 255
-0.002 0.123 1.095 255 255 255
-0.911 -0.658 1.625 255 255 255
0.083 0.026 0.994 255 255 255
0.315 0.087 0.602 255 255 255
-0.035 0.023 1.155 255 255 255
0.132 0.387 0.729 255 255 255
0.388 -0.122 0.952 255 255 255
0.428 -1.476 2.21 255 255 255
0.899 -1.354 2.586 255 255 255
0.101 -0.878 2.204 255 255 255
0.288 -0.367 2.476 255 255 255
-0.132 -0.596 2.153 255 255 255
1.095 -0.608 2.927 255 255 255
1.042 -0.738 2.87 255 255 255
0.534 -0.708 2.564 255 255 255
-0.485 -0.708 1.857 255 255 255
1.178 -0.914 2.423 255 255 255
0.041 -0.592 2.263 255 255 255
-1.02 -0.562 1.578 255 255 255
-0.547 -0.334 1.939 255 255 255
0.711 -0.526 2.729 255 255 255
-0.596 -1.117 1.67 255 255 255
0.256 0.23 0.718 255 255 255
0.3 -0.023 0.739 255 255 255
0.244 0.111 0.711 255 255 255
-0.754 -1.085 1.576 255 255 255
-0.675 0.531 1.895 255 255 255
0.538 -0.325 2.692 255 255 255
0.14 -0.664 2.294 255 255 255
-0.234 0.093 1.061 255 255 255
-0.865 0.089 1.887 255 255 255
-0.566 0.633 1.526 255 255 255
0.098 0.076 0.964 255 255 255
-0.152 -0.167 1.14 0 0 0
0.671 -1.477 2.41 255 255 255
-0.044 0.313 0.961 255 255 255
-0.575 -0.153 1.979 255 255 255
-0.494 -0.465 1.927 255 255 255
0.789 -0.361 2.858 255 255 255
0.143 0.124 0.885 255 255 255
0.279 0.128 0.645 255 255 255
1.102 -0.994 2.728 255 255 255
0.167 0.35 0.704 255 255 255
-0.709 -0.343 1.839 255 255 255
0.029 0.181 1.128 255 255 255
-1.868 -0.091 2.978 0 0 0
-0.612 -1.203 1.628 0 0 0
-0.149 0.279 1.074 255 255 255
0.549 -1.314 2.394 255 255 255
0.042 0.423 0.849 255 255 255
0.987 -1.01 2.746 255 255 255
0.982 -0.916 2.772 255 255 255
0.622 -0.117 0.963 255 255 255
0.351 -1.434 2.184 255 255 255
0.375 -1.11 2.297 255 255 255
-0.308 -1.237 1.85 255 255 255
-0.045 -0.974 2.086 255 255 255
1.393 -1.304 2.754 255 255 255
-0.555 -0.478 1.886 255 255 255
-0.028 0.137 1.082 255 255 255
0.321 -1.119 2.262 255 255 255
-0.052 0.682 1.329 255 255 255
0.643 -1.748 2.322 0 0 0
0.601 -0.469 2.684 255 255 255
-0.894 -0.156 1.784 255 255 255
0.102 0.016 0.965 255 255 255
-0.654 0.126 2.025 255 255 255
-0.981 -0.608 1.578 255 255 255
-0.976 -0.632 1.594 255 255 255
-1.029 -0.393 1.641 255 255 255
1.152 -1.053 2.455 255 255 255
-0.177 0.195 1.091 255 255 255
0.226 0.26 0.711 255 255 255
0.465 -0.036 0.736 255 255 255
-0.646 0.541 1.847 255 255 255
0.441 -0.065 0.869 0 0 0
-0.887 0.4 1.96 255 255 255
0.529 -1.256 2.394 255 255 255
-0.222 -0.931 1.996 255 255 255
-0.011 0.208 1.029 255 255 255
0.211 0.021 0.637 255 255 255
0.633 -0.627 2.653 255 255 255
0.27 0.131 0.657 255 255 255
-0.167 0.091 1.049 255 255 255
0.784 -0.607 2.745 255 255 255
-0.067 -0.834 2.118 255 255 255
1.418 -1.687 2.608 255 255 255
0.226 0.096 0.723 255 255 255
-0.164 -0.925 2.03 255 255 255
0.958 -0.392 1.728 255 255 255
-0.639 -0.822 1.741 255 255 255
-0.521 -0.981 1.751 255 255 255
0.237 0.361 0.643 255 255 255
-0.922 0.145 1.868 255 255 255
-0.752 -0.855 1.649 255 255 255
-0.184 -0.01 1.088 255 255 255
-0.068 -0.502 2.223 255 255 255
-0.798 -0.856 1.627 255 255 255
-0.793 -0.38 1.779 255 255 255
-0.762 -0.974 1.6 255 255 255
0.422 0.021 0.614 255 255 255
-0.606 -0.562 1.834 255 255 255
0.233 0.228 0.763 255 255 255
0.408 -0.448 2.523 255 255 255
-0.836 -0.381 1.75 255 255 255
0.225 0.111 0.732 255 255 255
-0.558 -1.004 1.725 255 255 255
-0.806 -1.057 1.569 255 255 255
0.276 0.177 0.631 255 255 255
0.149 0.068 0.864 255 255 255
-0.575 -1.112 1.683 255 255 255
0.107 0.285 0.816 255 255 255
0.088 0.273 0.938 255 255 255
-0.668 -0.166 1.92 255 255 255
0.933 -0.82 2.777 255 255 255
-0.746 -0.95 1.645 0 0 0
-0.484 0.61 1.592 255 255 255
-0.659 -0.243 1.9 255 255 255
-0.333 0.692 1.356 255 255 255
0.749 -1.32 2.508 255 255 255
0.129 0.298 0.8 255 255 255
0.095 0.12 0.995 255 255 255
0.219 0.323 0.726 255 255 255
-0.776 -0.182 1.85 255 255 255
0.336 -0.42 2.488 255 255 255
-0.957 -0.657 1.594 255 255 255
1.05 -1.838 2.53 0 0 0
0.161 0.106 0.83 255 255 255
-0.343 0.703 1.329 255 255 255
-2.006 -0.229 2.989 255 255 255
0.033 0.304 0.842 255 255 255
-0.338 0.242 1.221 255 255 255
-1.898 -0.599 2.818 0 0 0
-0.112 -0.126 1.191 0 0 0
-0.596 -0.501 1.853 255 255 255
-0.048 -0.014 1.195 255 255 255
0.228 0.347 0.676 255 255 255
0.261 0.174 0.656 255 255 255
0.269 -0.013 0.724 255 255 255
0.058 0.082 1.05 255 255 255
0.26 0.156 0.647 255 255 255
-0.951 0.211 1.875 255 255 255
0.283 0.124 0.655 255 255 255
-0.239 -0.736 2.049 255 255 255
-0.176 -0.481 2.165 255 255 255
0.224 0.142 0.717 255 255 255
-2.093 -0.248 2.934 255 255 255
0.333 0.133 0.593 255 255 255
1.06 -0.385 1.492 255 255 255
-0.217 0.538 1.436 255 255 255
0.175 -1.482 2.064 255 255 255
0.097 0.367 0.771 255 255 255
-0.037 0.143 1.081 255 255 255
-0.283 -0.686 2.035 255 255 255
-0.835 -0.05 1.861 255 255 255
-0.279 -0.762 2.018 255 255 255
-0.114 -0.903 2.07 255 255 255
0.769 -1.052 2.599 255 255 255
-0.131 0.155 1.068 255 255 255
-0.778 -0.806 1.657 255 255 255
0.797 -0.272 1.699 0 0 0
-0.026 0.629 1.209 255 255 255
0.558 -1.546 2.321 255 255 255
0.145 0.021 0.93 255 255 255
-0.191 0.701 1.325 255 255 255
-0.936 0.211 1.882 255 255 255
-0.157 -0.626 2.128 255 255 255
0.117 -1.484 2.026 0 0 0
0.458 -1.144 2.333 255 255 255
0.55 -1.654 2.287 0 0 0
0.203 0.223 0.839 255 255 255
-0.415 0.496 1.938 255 255 255
0.275 -1.369 2.157 255 255 255
1.053 -1.546 2.624 255 255 255
-0.411 -0.892 1.842 255 255 255
-0.807 0.057 1.91 255 255 255
0.087 -0.013 0.99 255 255 255
0.447 -1.13 2.331 255 255 255
-0.187 0.317 1.091 255 255 255
-0.298 -0.891 1.964 255 255 255
-0.302 -1.055 1.912 255 255 255
0.194 0.178 0.816 255 255 255
1.41 -0.726 2.943 255 255 255
0.18 0.135 0.814 255 255 255
1.07 -0.82 2.859 255 255 255
-0.619 0.118 2.04 255 255 255
-0.197 -0.109 1.112 255 255 255
-1.997 -0.44 2.934 255 255 255
-0.212 0.003 1.073 255 255 255
0.855 -0.646 2.777 255 255 255
0.265 0.332 0.679 255 255 255
-0.829 -0.88 1.603 255 255 255
0.797 -1.167 2.584 255 255 255
1.013 -1.155 2.728 255 255 255
-0.976 0.338 1.893 255 255 255
-0.369 -1.291 1.747 0 0 0
0.866 -0.888 2.707 255 255 255
0.145 -0.086 1.135 255 255 255
-0.068 -0.072 1.255 0 0 0
0.151 0.358 0.694 255 255 255
0.32 0.104 0.578 255 255 255
-0.665 -0.958 1.674 0 0 0
1.554 -0.694 2.487 255 255 255
-0.257 -0.546 2.094 255 255 255
-0.348 0.642 1.491 255 255 255
0.139 -0.876 2.235 255 255 255
0.99 -1.612 2.561 255 255 255
0.258 0.257 0.729 0 0 0
0.249 0.257 0.721 0 0 0
-2.112 -0.281 2.909 255 255 255
0.362 -0.729 2.412 255 255 255
-0.201 -0.079 1.098 255 255 255
-0.132 -0.587 2.155 255 255 255
0.528 -0.528 2.62 255 255 255
-0.761 0.292 2.02 255 255 255
-0.001 -1.098 2.074 255 255 255
-0.924 0.025 1.829 255 255 255
1.393 -1.461 2.686 255 255 255
-0.959 -0.266 1.711 255 255 255
0.8 -1.516 2.475 255 255 255
0.995 -1.575 2.572 255 255 255
-0.322 0.592 1.63 255 255 255
-0.728 0.405 2.057 255 255 255
-0.115 -0.641 2.15 255 255 255
0.187 0.105 0.778 255 255 255
-0.667 0.104 2.01 255 255 255
-0.371 0.619 1.558 255 255 255
0.084 0.067 0.988 255 255 255
0.657 -0.143 1.047 255 255 255
0.264 0.053 0.728 0 0 0
-0.134 -0.404 2.214 255 255 255
0.3 -0.335 2.496 255 255 255
0.184 0.371 0.679 255 255 255
-0.841 0.597 1.692 255 255 255
0.459 -0.091 0.979 255 255 255
0.59 -0.425 2.689 255 255 255
0.292 0.094 0.623 255 255 255
1.161 -1.555 2.682 255 255 255
0.329 0.082 0.582 255 255 255
-0.251 -1.136 1.916 255 255 255
1.524 -0.877 2.717 255 255 255
0.443 -1.606 2.184 0 0 0
0.761 -1.193 2.549 255 255 255
0.127 -0.445 2.358 255 255 255
0.085 0.298 0.819 255 255 255
0.337 -1.221 2.235 255 255 255
-0.398 -1.1 1.785 255 255 255
-0.697 -0.57 1.771 255 255 255
0.93 -0.297 1.446 255 255 255
0.052 0.234 0.95 255 255 255
0.042 0.021 1.055 255 255 255
0.074 0.061 1.011 255 255 255
0.266 0.219 0.689 255 255 255
-0.236 0.639 1.482 255 255 255
-0.463 -0.553 1.919 255 255 255
0.431 -0.03 0.635 0 0 0
0.424 -0.048 0.772 0 0 0
0.052 0.437 0.83 255 255 255
0.495 -0.856 2.472 255 255 255
0.84 -1.317 2.563 255 255 255
-0.079 0.276 1.042 255 255 255
1.418 -0.906 2.864 255 255 255
-0.761 -0.156 1.869 255 255 255
-0.816 0.335 2.002 255 255 255
-0.045 0.705 1.291 255 255 255
-1.013 -0.551 1.584 255 255 255
-0.222 0.124 1.074 255 255 255
0.184 0.341 0.721 255 255 255
0.272 0.23 0.687 255 255 255
-0.907 -0.436 1.691 255 255 255
0.042 0.279 0.847 255 255 255
0.073 0.044 0.996 255 255 255
0.296 0.057 0.674 0 0 0
-0.749 -0.341 1.812 255 255 255
-0.162 -0.112 1.117 255 255 255
1.038 -0.373 1.475 255 255 255
-0.424 -1.025 1.797 255 255 255
1.603 -0.684 2.397 255 255 255
0.071 0.312 0.813 255 255 255
1.142 -1.74 2.612 255 255 255
-0.455 -0.778 1.851 255 255 255
-1.002 -0.487 1.61 255 255 255
-0.26 -0.052 1.126 255 255 255
-0.48 0.637 1.509 255 255 255
-0.097 -0.897 2.08 255 255 255
-0.191 -0.211 1.146 0 0 0
0.032 0.462 0.861 255 255 255
0.233 -0.433 2.421 255 255 255
-0.083 0.694 1.319 255 255 255
-0.39 -0.654 1.926 255 255 255
-0.769 0.496 2.015 255 255 255
0.128 0.317 0.768 255 255 255
-0.053 -0.014 1.197 255 255 255
0.268 0.251 0.703 255 255 255
-0.737 -0.89 1.653 255 255 255
-0.864 0.31 1.963 255 255 255
-0.57 0.612 1.588 255 255 255
-0.059 0.223 1.03 255 255 255
-0.525 0.682 1.386 255 255 255
-0.122 -0.296 2.254 255 255 255
-0.334 0.219 1.19 255 255 255
-0.01 -0.89 2.134 255 255 255
0.144 -1.346 2.082 255 255 255
0.359 -1.034 2.317 0 0 0
0.208 0.178 0.783 255 255 255
-0.241 -0.195 1.16 0 0 0
0.833 -0.248 1.464 0 0 0
-0.35 0.248 1.235 255 255 255
-0.935 -0.049 1.796 255 255 255
-0.106 -0.617 2.162 255 255 255
-0.32 -1.011 1.902 0 0 0
-0.446 0.716 1.294 255 255 255
0.518 -0.947 2.488 255 255 255
0.387 -0.045 0.782 255 255 255
-0.308 -0.505 2.033 255 255 255
0.279 -0.024 0.73 255 255 255
0.843 -1.463 2.519 255 255 255
-0.426 -0.573 1.935 255 255 255
-0.975 -0.471 1.62 255 255 255
0.465 -1.025 2.375 255 255 255
-0.471 0.7 1.345 255 255 255
0.32 -0.063 0.778 255 255 255
-0.891 0.4 1.958 255 255 255
-0.773 -0.663 1.697 255 255 255
0.29 0.175 0.608 255 255 255
0.172 0.132 0.832 255 255 255
0.156 0.108 0.842 255 255 255
-1.004 -0.026 1.754 255 255 255
-0.371 -1.226 1.769 255 255 255
0.161 0.141 0.857 255 255 255
-0.01 -0.219 2.346 255 255 255
0.826 -1.335 2.549 255 255 255
-0.154 0.57 1.406 255 255 255
-0.178 0.623 1.45 255 255 255
-0.083 0.432 1.099 255 255 255
1.551 -1.098 2.565 255 255 255
-0.142 -0.429 2.2 255 255 255
-0.72 0.628 1.55 255 255 255
1.455 -0.723 2.883 255 255 255
-0.817 -0.112 1.849 255 255 255
-0.054 -0.997 2.07 255 255 255
0.181 -0.52 2.366 255 255 255
1.264 -1.342 2.702 255 255 255
0.254 0.009 0.679 255 255 255
0.278 0.082 0.655 255 255 255
-0.267 -1.149 1.901 255 255 255
0.203 0.093 0.773 255 255 255
-0.84 0.005 1.873 255 255 255
0.198 0.16 0.796 255 255 255
-0.05 -0.447 2.248 255 255 255
-0.626 -0.064 1.978 255 255 255
0.174 0.08 0.821 255 255 255
0.191 0.193 0.839 255 255 255
0.305 0.122 0.628 255 255 255
-0.882 0.252 1.935 255 255 255
-0.028 0.157 1.07 255 255 255
-0.239 -1.174 1.909 255 255 255
-0.468 0.59 1.644 255 255 255
0.046 0.145 1.111 0 0 0
-0.954 -0.181 1.741 255 255 255
-0.113 0.707 1.297 255 255 255
1.346 -1.357 2.744 255 255 255
-0.102 -1.217 1.979 255 255 255
-0.778 -1.057 1.585 255 255 255
-0.035 0.242 1.013 255 255 255
-0.094 0.408 1.102 255 255 255
0.022 -0.649 2.228 255 255 255
-0.01 -0.815 2.159 255 255 255
0.586 -0.514 2.658 255 255 255
-0.556 -0.173 1.984 255 255 255
0.207 0.332 0.744 255 255 255
0.304 0.071 0.645 255 255 255
-0.161 -0.689 2.107 255 255 255
0.537 -0.847 2.525 255 255 255
0.261 0.12 0.679 255 255 255
-0.883 0.309 1.951 255 255 255
-0.09 0.172 1.067 255 255 255
0.225 -0.026 0.745 0 0 0
-0.695 0.566 1.766 255 255 255
0.158 0.362 0.688 255 255 255
0.17 0.221 0.922 255 255 255
0.057 0.42 0.825 255 255 255
-0.663 0.256 2.059 255 255 255
0.231 0.214 0.756 255 255 255
1.213 -1.347 2.728 255 255 255
-2.142 -0.039 2.971 255 255 255
0.322 -1.334 2.196 255 255 255
0.043 0.151 1.073 0 0 0
1.571 -1.064 2.571 255 255 255
-0.482 0.694 1.36 255 255 255
0.174 0.231 0.915 255 255 255
0.258 0.309 0.676 255 255 255
-0.266 -0.106 1.138 255 255 255
0.486 -1.612 2.255 255 255 255
-0.264 0.012 1.125 255 255 255
-0.591 -0.608 1.828 255 255 255
-0.005 -0.913 2.129 255 255 255
-0.514 -1.019 1.743 255 255 255
-0.318 -0.893 1.926 0 0 0
0.065 -0.342 2.349 255 255 255
0.059 0.145 1.097 255 255 255
0.748 -0.393 2.793 0 0 0
0.29 -0.895 2.316 255 255 255
-0.505 0.614 1.578 255 255 255
-2.087 -0.413 2.888 255 255 255
0.108 -0.493 2.332 255 255 255
1.513 -0.917 2.702 255 255 255
-0.718 -0.962 1.633 255 255 255
-0.943 -0.739 1.577 255 255 255
0.058 0.337 0.819 255 255 255
0.252 0.162 0.678 255 255 255
0.347 -1.072 2.29 255 255 255
-0.032 0.326 0.892 255 255 255
0.11 0.324 0.778 255 255 255
0.656 -0.97 2.559 255 255 255
0.597 -1.375 2.394 255 255 255
-0.652 -0.527 1.817 255 255 255
1.47 -0.898 2.792 255 255 255
-0.896 -0.473 1.688 255 255 255
1.167 -1.265 2.778 255 255 255
-0.661 -0.103 1.94 255 255 255
-0.633 -0.558 1.816 255 255 255
0.433 -0.036 0.726 0 0 0
-0.362 0.518 1.843 0 0 0
0.604 -0.75 2.604 255 255 255
0.132 0.141 0.921 255 255 255
0.299 0.061 0.677 0 0 0
0.085 -0.219 2.4 255 255 255
0.31 0.107 0.599 255 255 255
-0.17 0.511 1.383 255 255 255
-0.992 -0.165 1.713 255 255 255
-0.591 0.463 2.065 255 255 255
0.213 0.362 0.673 255 255 255
0.741 -0.491 2.757 255 255 255
-0.693 -1.232 1.575 255 255 255
0.146 -0.04 0.963 255 255 255
0.199 0.113 0.756 255 255 255
0.184 0.05 0.681 255 255 255
-0.77 0.403 2.032 255 255 255
0.621 -1.173 2.474 255 255 255
-0.367 -0.999 1.836 255 255 255
-0.525 0.521 1.89 255 255 255
-0.535 0.631 1.529 255 255 255
-0.184 0.209 1.093 255 255 255
-0.735 0.578 1.726 255 255 255
0.328 0.12 0.6 255 255 255
0.212 0.361 0.675 255 255 255
-0.165 0.465 1.368 255 255 255
0.739 -1.529 2.438 255 255 255
-0.627 -0.514 1.833 255 255 255
-0.07 0.16 1.09 255 255 255
0.008 0.22 1.025 255 255 255
1.198 -1.518 2.685 255 255 255
0.27 0.11 0.696 255 255 255
-0.085 0.698 1.307 255 255 255
-0.552 0.544 1.806 255 255 255
-0.148 -0.061 1.103 255 255 255
-0.607 -1.149 1.663 255 255 255
-0.164 0.018 1.076 255 255 255
0.181 0.117 0.795 255 255 255
0.256 0.312 0.674 255 255 255
0.226 0.206 0.763 255 255 255
0.817 -0.299 1.522 255 255 255
0.228 -0.998 2.245 255 255 255
0.157 -0.038 0.956 255 255 255
0.562 -1.681 2.283 0 0 0
-1.003 -0.26 1.676 255 255 255
-0.075 -0.029 1.218 255 255 255
-0.245 -0.074 1.11 255 255 255
-0.608 -0.269 1.924 255 255 255
-0.05 -0.72 2.163 255 255 255
0.07 0.414 0.809 255 255 255
0.399 -0.084 0.884 255 255 255
0.225 0.12 0.722 255 255 255
0.176 0.037 0.859 255 255 255
-0.142 0.144 1.068 255 255 255
-0.223 0.065 1.059 255 255 255
-0.195 -0.636 2.112 255 255 255
-0.245 -0.568 2.096 255 255 255
-0.653 -1.147 1.61 255 255 255
-0.664 0.641 1.51 255 255 255
-0.481 -1.267 1.688 0 0 0
-0.715 -0.683 1.725 255 255 255
-0.399 -0.374 1.979 0 0 0
-0.281 -0.569 2.079 255 255 255
-0.152 0.009 1.082 255 255 255
-0.924 -0.671 1.611 255 255 255
-0.252 -0.511 2.133 0 0 0
0.073 0.2 1.065 0 0 0
-0.771 -0.194 1.849 255 255 255
0.867 -0.722 2.764 255 255 255
-0.098 -1.287 1.958 255 255 255
0.017 0.234 0.969 255 255 255
-0.073 0.259 1.025 255 255 255
-0.311 -1.128 1.887 255 255 255
-0.323 0.078 1.192 255 255 255
-0.709 0.411 2.07 255 255 255
-0.195 0.115 1.049 255 255 255
0.864 -0.345 1.689 255 255 255
-0.513 0.48 2.019 255 255 255
-0.866 -0.819 1.599 255 255 255
-0.352 -1.245 1.769 255 255 255
-2.113 -0.053 2.995 255 255 255
0.306 -1.233 2.217 255 255 255
-0.049 -0.982 2.082 255 255 255
-0.529 -0.508 1.893 255 255 255
-0.471 -1 1.778 255 255 255
1.049 -1.276 2.704 255 255 255
-0.358 -0.632 1.955 255 255 255
0.252 0.184 0.694 255 255 255
-0.295 0.638 1.506 255 255 255
0.221 0.374 0.664 255 255 255
-0.78 -0.83 1.643 255 255 255
-0.424 0.689 1.363 255 255 255
0.173 -1.01 2.205 255 255 255
-0.103 -0.002 1.195 255 255 255
-0.468 0.464 2.05 255 255 255
0.273 0.053 0.704 0 0 0
0.391 -1.079 2.314 255 255 255
-0.962 -0.31 1.695 255 255 255
-0.342 0.118 1.2 255 255 255
-0.972 -0.06 1.754 255 255 255
0.147 -0.065 1.048 255 255 255
-0.077 -0.383 2.254 255 255 255
0.253 0.033 0.603 255 255 255
0.185 0.243 0.899 255 255 255
-1.008 -0.497 1.602 255 255 255
0.569 -1.467 2.353 255 255 255
-0.555 -0.852 1.769 255 255 255
-0.629 0.516 1.931 255 255 255
0.325 -0.019 0.749 255 255 255
-0.574 -0.294 1.934 255 255 255
-0.175 -0.554 2.148 255 255 255
0.077 -0.823 2.206 255 255 255
0.112 0.299 0.813 255 255 255
0.607 -1.548 2.348 255 255 255
-0.194 -1.037 1.981 255 255 255
-0.065 0.2 1.041 255 255 255
0.719 -0.64 2.696 255 255 255
-0.285 0.014 1.132 255 255 255
-0.637 -1.068 1.66 255 255 255
0.092 0.243 0.969 255 255 255
-0.729 0.57 1.756 255 255 255
0.95 -1.753 2.496 255 255 255
0.215 0.088 0.713 255 255 255
0.155 -1.41 2.069 255 255 255
-0.885 0.46 1.98 255 255 255
-0.064 0.003 1.186 255 255 255
1.028 -0.36 1.508 0 0 0
0.803 -0.286 1.666 255 255 255
-0.321 -1.256 1.844 255 255 255
0.164 0.092 0.821 255 255 255
0.629 -0.11 0.957 255 255 255
1.054 -0.43 1.662 255 255 255
-0.902 0.572 1.799 255 255 255
-0.559 -0.318 1.937 255 255 255
-0.599 -0.036 2.006 255 255 255
-2.096 -0.529 2.839 255 255 255
-0.836 -0.622 1.676 255 255 255
0.081 0.422 0.796 255 255 255
-0.237 0.677 1.389 255 255 255
-0.52 -1.225 1.681 0 0 0
-0.527 0.472 2.039 255 255 255
-1.244 0.429 2.198 0 0 0
0.043 0.251 0.891 255 255 255
0.282 0.187 0.632 255 255 255
1.014 -1.067 2.755 255 255 255
-0.983 -0.525 1.601 255 255 255
0.039 0.164 1.09 0 0 0
-0.225 -0.034 1.083 255 255 255
-0.591 -0.895 1.737 255 255 255
-0.909 0.192 1.897 255 255 255
0.22 0.014 0.754 0 0 0
-0.664 -0.071 1.951 255 255 255
0.263 -0.868 2.301 255 255 255
-0.385 -0.86 1.865 255 255 255
-0.658 0.05 1.997 255 255 255
0.289 0.078 0.632 255 255 255
-0.63 -0.092 1.964 255 255 255
-0.023 -0.437 2.271 255 255 255
0.324 0.126 0.605 255 255 255
-0.794 -0.522 1.728 255 255 255
-0.387 0.619 1.554 255 255 255
1.188 -1.007 2.45 255 255 255
-2.173 0.002 2.963 255 255 255
-0.142 0.096 1.056 255 255 255
0.307 -0.717 2.377 255 255 255
-0.407 0.614 1.568 255 255 255
0.317 0.148 0.599 255 255 255
-0.662 -1.152 1.608 255 255 255
-0.295 0.223 1.313 255 255 255
-0.52 -0.132 1.979 0 0 0
0.144 -1.102 2.162 255 255 255
0.127 0.211 0.979 255 255 255
0.186 0.032 0.651 255 255 255
0.079 -0.457 2.322 255 255 255
0.454 -1.551 2.211 255 255 255
-0.036 -1.002 2.081 255 255 255
0.05 0.261 0.871 255 255 255
-0.688 -0.626 1.756 255 255 255
0.026 0.221 1.004 255 255 255
-0.101 -1.023 2.038 255 255 255
-0.515 0.716 1.304 255 255 255
-0.019 -0.643 2.207 255 255 255
-0.218 0.708 1.31 255 255 255
1.04 -1.843 2.517 0 0 0
0.308 0.206 0.607 255 255 255
-0.132 0.258 1.065 255 255 255
-0.589 -0.407 1.888 255 255 255
0.209 0.324 0.766 255 255 255
-0.063 -1.364 1.954 255 255 255
0.938 -0.843 2.769 255 255 255
-0.654 -0.38 1.859 255 255 255
0.069 0.388 0.806 255 255 255
-0.812 -0.058 1.868 255 255 255
0.292 0.004 0.644 0 0 0
-0.613 -0.292 1.912 255 255 255
0.709 -0.769 2.658 255 255 255
0.162 0.09 0.826 255 255 255
-2.068 -0.148 2.98 255 255 255
0.284 0.11 0.664 255 255 255
-0.901 -0.367 1.715 255 255 255
0.555 -0.977 2.501 255 255 255
0.279 0.1 0.687 255 255 255
0.751 -0.217 1.296 0 0 0
0.035 -0.017 1.096 255 255 255
0.136 0.017 0.935 255 255 255
0.304 0.191 0.595 255 255 255
-2.179 -0.3 2.863 255 255 255
-0.197 0.251 1.097 255 255 255
-0.194 0.221 1.095 255 255 255
0.113 -0.411 2.361 255 255 255
0.988 -1.082 2.731 255 255 255
0.193 0.333 0.733 255 255 255
0.059 -0.673 2.243 255 255 255
0.205 0.078 0.773 255 255 255
0.215 0.23 0.805 255 255 255
0.591 -0.42 2.693 255 255 255
-0.176 0.016 1.072 255 255 255
0.082 0.335 0.793 255 255 255
-0.517 0.582 1.678 255 255 255
-2.153 -0.24 2.892 255 255 255
-0.467 -0.908 1.808 255 255 255
-0.849 0.355 1.988 255 255 255
-0.904 -0.084 1.806 255 255 255
1.158 -1.274 2.769 255 255 255
-0.321 0.173 1.187 255 255 255
0.12 -1.132 2.136 255 255 255
-0.342 0.675 1.407 255 255 255
0.311 0.097 0.602 255 255 255
0.414 -0.625 2.469 255 255 255
-0.059 -0.425 2.253 255 255 255
-0.409 -1.215 1.748 255 255 255
0.139 -0.117 1.219 255 255 255
0.143 0.376 0.686 255 255 255
-0.991 -0.282 1.676 255 255 255
0.914 -1.202 2.642 255 255 255
0.127 0.404 0.736 255 255 255
0.166 0.087 0.823 255 255 255
1.106 -0.928 2.845 255 255 255
0.86 -0.33 1.509 255 255 255
0.314 -0.085 0.785 255 255 255
-0.081 -0.53 2.204 255 255 255
0.722 -1.294 2.5 255 255 255
0.597 -1.113 2.48 255 255 255
-0.31 -0.033 1.193 0 0 0
0.286 -0.103 0.785 255 255 255
0.434 0.02 0.615 255 255 255
-0.452 0.656 1.463 0 0 0
-0.585 -0.846 1.759 255 255 255
-0.331 0.224 1.19 255 255 255
0.134 0.006 0.945 255 255 255
0.146 0.31 0.768 255 255 255
0.865 -0.985 2.683 255 255 255
-0.117 -0.109 1.187 255 255 255
-0.462 0.56 1.731 255 255 255
-0.119 -0.08 1.192 255 255 255
1.517 -0.806 2.718 0 0 0
0.846 -1.817 2.4 0 0 0
0.079 -0.375 2.348 255 255 255
-0.765 0.552 1.841 255 255 255
0.984 -0.575 2.876 255 255 255
-0.957 -0.534 1.631 255 255 255
-0.563 0.681 1.398 255 255 255
0.215 0.086 0.697 255 255 255
1.255 -1.321 2.704 255 255 255
-0.96 -0.018 1.776 255 255 255
0.017 0.266 0.853 255 255 255
-0.035 -0.002 1.167 255 255 255
-0.423 -0.401 1.989 255 255 255
-0.163 0.009 1.081 255 255 255
-0.689 0.168 2.019 255 255 255
0.199 -0.049 1.029 255 255 255
-0.07 0.08 1.135 255 255 255
0.187 -0.015 0.929 255 255 255
-0.164 -0.857 2.051 255 255 255
0.111 -1.287 2.084 255 255 255
0.116 0.069 0.906 255 255 255
1.425 -1.224 2.736 255 255 255
-0.058 0.162 1.075 255 255 255
-0.321 -1.03 1.9 0 0 0
0.175 -0.272 2.445 255 255 255
0.37 0.053 0.652 0 0 0
-0.136 -0.062 1.11 255 255 255
0.094 0.345 0.778 255 255 255
-0.613 -0.715 1.78 255 255 255
-0.089 -1.197 1.992 255 255 255
-0.013 0.639 1.192 255 255 255
-0.933 -0.699 1.596 255 255 255
-0.78 0.537 1.893 255 255 255
0.486 -0.532 2.539 255 255 255
-0.492 -0.832 1.815 255 255 255
0.318 0.151 0.59 255 255 255
-0.707 -0.518 1.784 255 255 255
0.017 0.046 1.098 0 0 0
0.074 -0.582 2.282 255 255 255
-0.928 -0.156 1.763 255 255 255
-0.992 -0.307 1.668 255 255 255
-0.716 -0.926 1.651 0 0 0
-2.019 -0.767 2.807 255 255 255
-0.608 -0.33 1.903 255 255 255
0.799 -1.683 2.423 255 255 255
0.35 -0.017 0.62 0 0 0
0.179 0.246 0.757 0 0 0
-0.18 0.339 1.085 0 0 0
0.142 0.369 0.707 255 255 255
-0.197 -0.495 2.149 255 255 255
0.299 0.053 0.669 0 0 0
-0.666 0.199 2.043 255 255 255
-0.566 -0.747 1.796 255 255 255
-0.202 -1.067 1.971 255 255 255
1.007 -0.514 2.913 0 0 0
0.095 0.218 0.977 255 255 255
-0.656 -0.83 1.715 255 255 255
0.95 -0.501 2.88 255 255 255
-0.404 -0.866 1.855 255 255 255
0.267 0.085 0.677 255 255 255
-0.131 -0.847 2.076 255 255 255
-0.846 -0.146 1.822 255 255 255
-0.323 -1.184 1.857 0 0 0
-1.227 0.232 2.039 255 255 255
-0.145 0.208 1.066 255 255 255
0.137 0.032 0.924 255 255 255
0.601 -0.616 2.635 255 255 255
-0.55 -1.233 1.663 0 0 0
0.196 0.086 0.791 255 255 255
1.386 -1.247 2.772 255 255 255
-0.29 0.681 1.376 255 255 255
0.04 -0.909 2.157 255 255 255
0.464 -0.469 2.544 255 255 255
1.162 -1.927 2.464 255 255 255
-0.904 -0.026 1.826 255 255 255
0.098 -0.496 2.325 255 255 255
-1.13 0.47 2.065 0 0 0
0.631 -0.83 2.581 255 255 255
0.148 0.231 0.956 255 255 255
-0.168 -0.217 1.169 0 0 0
0.105 -0.114 1.221 255 255 255
-0.448 -0.438 1.964 255 255 255
0.137 0.241 0.976 255 255 255
0.06 -0.392 2.334 255 255 255
-0.074 -0.255 2.295 255 255 255
-0.637 -1.155 1.634 255 255 255
0.354 -0.002 0.599 255 255 255
-0.959 -0.233 1.721 255 255 255
0.663 -1.004 2.556 255 255 255
-0.943 -0.665 1.599 255 255 255
-0.842 -0.461 1.723 255 255 255
-0.928 -0.388 1.695 255 255 255
0.285 0.226 0.654 255 255 255
0.205 0.081 0.757 255 255 255
0.101 -0.948 2.186 255 255 255
-0.128 -0.049 1.123 255 255 255
-0.424 0.717 1.293 255 255 255
0.061 0.368 0.806 255 255 255
-2.008 -0.821 2.806 255 255 255
0.269 0.042 0.69 0 0 0
0.859 -0.579 2.8 255 255 255
0.064 0.009 1.038 255 255 255
-0.142 -0.053 1.105 255 255 255
-0.194 -0.063 1.098 255 255 255
-0.727 -1.18 1.563 0 0 0
1.098 -0.665 2.925 255 255 255
-0.55 -0.942 1.75 255 255 255
0.405 -1.461 2.2 255 255 255
0.744 -1.493 2.447 255 255 255
0.1 0.156 1.018 255 255 255
-0.924 0.448 1.951 255 255 255
1.094 -1.063 2.781 255 255 255
0.478 -0.921 2.422 255 255 255
0.191 0.323 0.743 255 255 255
-2.184 -0.107 2.915 255 255 255
0.4 -0.015 0.605 255 255 255
-0.371 -0.516 1.983 255 255 255
0.539 -0.587 2.611 255 255 255
0.304 0.246 0.648 255 255 255
-0.989 0.356 1.897 255 255 255
0.045 -0.884 2.169 255 255 255
0.34 0.025 0.626 255 255 255
0.25 -0.089 1.072 255 255 255
-0.45 0.683 1.389 255 255 255
0.19 0.151 0.808 255 255 255
0.32 -0.065 0.778 255 255 255
-0.133 0.268 1.067 255 255 255
-0.621 -0.577 1.814 255 255 255
-0.238 -0.47 2.131 255 255 255
0 -0.006 1.127 0 0 0
-0.772 0.479 2.039 255 255 255
0.632 -0.11 0.957 255 255 255
0.12 0.165 0.975 255 255 255
-0.079 0.271 1.04 255 255 255
-0.571 0.537 1.847 255 255 255
0.276 0.076 0.69 255 255 255
-0.571 0.622 1.564 255 255 255
0.229 -0.072 0.764 255 255 255
-0.365 -1.091 1.809 255 255 255
-0.266 0.688 1.359 255 255 255
0.059 0.433 0.823 255 255 255
0.241 -0.656 2.365 255 255 255
-0.011 0.327 0.843 255 255 255
0.013 0.113 1.149 0 0 0
-0.945 0.183 1.874 255 255 255
-0.467 -0.845 1.829 255 255 255
0.117 -0.038 0.966 255 255 255
1.428 -1.458 2.652 255 255 255
-0.041 -0.844 2.132 0 0 0
0.224 -1.37 2.124 255 255 255
-0.138 0.076 1.072 255 255 255
-1.234 0.256 2.049 255 255 255
-0.169 0.669 1.407 255 255 255
0.634 -1.064 2.514 255 255 255
0.103 0.004 0.974 255 255 255
-0.195 0.247 1.098 255 255 255
-0.723 -0.695 1.72 255 255 255
-0.921 -0.627 1.625 255 255 255
0.015 0.069 1.104 0 0 0
-0.542 0.655 1.467 0 0 0
-0.636 -0.588 1.806 255 255 255
-0.287 0.058 1.129 255 255 255
-0.347 0.712 1.305 255 255 255
-0.222 -1.033 1.963 255 255 255
0.514 -0.723 2.543 255 255 255
0.229 0.022 0.621 255 255 255
-0.708 0.167 2.008 255 255 255
-0.545 -0.57 1.863 255 255 255
0.739 -0.442 2.776 0 0 0
0.528 -1.261 2.391 255 255 255
-0.142 -0.455 2.195 255 255 255
1.209 -1.639 2.63 255 255 255
0.107 -1.503 2.017 0 0 0
0.916 -0.289 1.485 0 0 0
0.05 -0.073 1.154 255 255 255
-2.135 -0.599 2.797 255 255 255
0.296 0.04 0.614 255 255 255
0.564 -1.522 2.335 255 255 255
0.642 -1.025 2.534 255 255 255
-0.954 0.231 1.871 255 255 255
0.489 -0.648 2.508 255 255 255
-0.348 0.275 1.317 0 0 0
0.384 -0.048 0.784 255 255 255
-0.318 -1.305 1.828 255 255 255
0.145 0.282 0.798 255 255 255
-0.922 0.141 1.868 255 255 255
-0.202 -0.008 1.081 255 255 255
0.108 0.328 0.775 255 255 255
0.258 0.176 0.672 255 255 255
-0.132 -0.698 2.123 255 255 255
0.592 -0.099 0.951 255 255 255
-0.195 0.683 1.37 255 255 255
0.262 0.106 0.71 255 255 255
0.334 -0.042 0.769 255 255 255
-0.745 -1.057 1.588 255 255 255
-0.423 -0.884 1.842 255 255 255
0.403 0.009 0.613 255 255 255
-1.898 -0.722 2.773 255 255 255
0.286 0.108 0.646 255 255 255
0.102 -0.546 2.31 255 255 255
-0.385 0.55 1.76 255 255 255
-0.645 0.515 1.941 255 255 255
0.198 -1.301 2.131 255 255 255
-2.014 -0.719 2.807 255 255 255
0.315 0.113 0.602 255 255 255
-0.361 0.277 1.312 0 0 0
-0.279 -0.696 2.036 255 255 255
-0.375 0.194 1.218 255 255 255
-0.397 0.238 1.242 255 255 255
-0.078 0.124 1.087 255 255 255
-0.522 -1.01 1.743 255 255 255
0.34 0.004 0.597 255 255 255
0.054 0.252 0.909 255 255 255
-0.111 -1.336 1.937 255 255 255
-0.226 -0.039 1.086 255 255 255
1.547 -0.954 2.62 255 255 255
-0.685 -0.46 1.815 255 255 255
0.86 -1.76 2.436 0 0 0
0.324 0.095 0.572 255 255 255
0.372 0.062 0.619 255 255 255
0.305 0.029 0.608 0 0 0
-0.337 -0.834 1.904 255 255 255
1.439 -1.612 2.603 255 255 255
-0.102 0.178 1.079 255 255 255
0.173 -1.167 2.158 255 255 255
0.05 -1.355 2.027 255 255 255
0.173 0.018 0.854 255 255 255
0.14 0.21 0.962 255 255 255
-1.002 -0.387 1.642 255 255 255
-0.127 -0.91 2.064 255 255 255
-0.202 -0.088 1.102 255 255 255
-0.61 -1.198 1.637 0 0 0
-0.265 0.258 1.314 255 255 255
0.453 -0.131 1.017 255 255 255
0.299 0.122 0.633 255 255 255
1.156 -1.581 2.676 255 255 255
-0.74 0.271 2.027 255 255 255
0.205 -0.593 2.356 255 255 255
0.375 -0.947 2.344 255 255 255
0.208 0.093 0.766 255 255 255
-0.735 0.405 2.052 255 255 255
-0.201 -0.107 1.109 255 255 255
-1.027 -0.464 1.617 255 255 255
0.594 -0.637 2.629 255 255 255
-0.47 -0.752 1.85 255 255 255
-0.014 -0.322 2.309 255 255 255
-0.455 -1.262 1.708 0 0 0
-0.839 -0.3 1.776 255 255 255
0.304 0.151 0.599 255 255 255
0.959 -1.646 2.527 255 255 255
0.278 0.042 0.607 255 255 255
-0.14 0.153 1.066 255 255 255
0.493 -0.555 2.547 255 255 255
-0.14 0.702 1.312 255 255 255
0.851 -0.333 1.507 255 255 255
0.201 -0.298 2.453 255 255 255
-0.882 0.105 1.882 255 255 255
-1.516 0.178 2.585 0 0 0
-0.37 0.159 1.221 255 255 255
0.344 0.073 0.585 255 255 255
0.547 -0.4 2.673 255 255 255
-0.311 -1.179 1.867 255 255 255
-0.188 0.192 1.089 255 255 255
-0.239 -0.394 2.152 255 255 255
-0.648 0.649 1.487 0 0 0
0.092 -0.103 1.211 255 255 255
-0.914 -0.738 1.598 255 255 255
-0.565 -0.607 1.841 255 255 255
0.098 0.203 0.991 255 255 255
0.133 0.124 0.904 255 255 255
0.303 -0.058 0.773 255 255 255
-0.099 0.088 1.098 255 255 255
-0.638 -0.302 1.896 255 255 255
0.303 0.136 0.622 255 255 255
0.37 -1.1 2.299 255 255 255
-0.699 0.611 1.608 255 255 255
-0.205 0.223 1.095 255 255 255
0.296 -1.355 2.172 255 255 255
1.419 -1.219 2.741 255 255 255
-2.079 -0.34 2.908 255 255 255
0.457 -0.025 0.637 255 255 255
-0.823 -0.608 1.688 255 255 255
-0.301 -0.575 2.067 0 0 0
0.09 0.142 1.025 255 255 255
0.338 0.086 0.566 255 255 255
-0.831 0.307 1.983 255 255 255
0.592 -0.092 0.942 0 0 0
0.213 -1.21 2.172 255 255 255
0.081 -0.068 1.108 255 255 255
0.062 -0.04 1.075 255 255 255
-0.729 -0.346 1.825 255 255 255
-0.053 0.331 0.976 255 255 255
-0.762 0.239 2.003 255 255 255
0.69 -0.865 2.609 255 255 255
0.243 -0.056 0.991 255 255 255
-0.299 0.665 1.43 255 255 255
0.325 0.07 0.635 255 255 255
0.591 -0.531 2.657 255 255 255
-0.032 -0.797 2.148 255 255 255
0.068 0.132 1.064 255 255 255
0.829 -0.31 1.499 255 255 255
-0.183 0.188 1.09 255 255 255
0.618 -1.648 2.328 255 255 255
0.48 -0.095 0.997 255 255 255
1.072 -1.035 2.781 0 0 0
-0.905 -0.536 1.658 255 255 255
-0.005 -0.35 2.305 255 255 255
0.375 0.031 0.631 255 255 255
0.194 0.031 0.644 255 255 255
-0.555 0.667 1.44 0 0 0
0.279 0.124 0.661 255 255 255
0.527 -0.381 2.657 255 255 255
-0.862 -0.225 1.785 255 255 255
-0.76 0.532 1.911 255 255 255
-0.949 0.479 1.948 255 255 255
-0.45 0.687 1.375 255 255 255
0.139 -0.984 2.196 0 0 0
0.24 -0.003 0.711 255 255 255
-0.935 -0.103 1.777 255 255 255
-0.472 0.563 1.725 255 255 255
0.261 0.244 0.716 255 255 255
0.243 0.278 0.688 255 255 255
0.344 0.088 0.554 255 255 255
0.294 0.078 0.619 255 255 255
0.611 -0.906 2.551 255 255 255
0.184 0.127 0.799 255 255 255
0.216 0.167 0.761 255 255 255
-0.074 0.15 1.113 255 255 255
0.333 -1.297 2.213 255 255 255
-0.318 0.601 1.606 255 255 255
0.159 0.08 0.839 255 255 255
0.912 -1.241 2.625 255 255 255
0.02 0.225 0.993 255 255 255
0.163 -1.053 2.183 255 255 255
-0.479 -0.474 1.932 255 255 255
0.068 -1.085 2.12 255 255 255
0.234 0.021 0.62 255 255 255
0.139 0.087 0.865 255 255 255
1.176 -0.8 2.931 255 255 255
0.147 0.047 0.886 255 255 255
0.706 -0.179 1.187 255 255 255
-0.072 -0.553 2.203 255 255 255
0.079 -0.412 2.338 255 255 255
0.946 -0.312 1.532 255 255 255
-0.161 -0.098 1.115 255 255 255
-0.839 -0.046 1.859 255 255 255
-0.749 -0.168 1.872 255 255 255
0.768 -1.185 2.558 255 255 255
-0.634 0.644 1.499 255 255 255
-0.194 0.608 1.453 255 255 255
0.254 0.132 0.68 255 255 255
-0.861 -0.173 1.805 255 255 255
-0.109 0.167 1.104 255 255 255
0.041 0.079 1.092 255 255 255
0.326 0.083 0.586 255 255 255
-0.841 -0.226 1.798 255 255 255
-0.596 -0.215 1.946 255 255 255
0.366 0 0.601 255 255 255
-0.952 0.052 1.812 255 255 255
-0.279 -1.103 1.909 255 255 255
-0.278 -0.974 1.949 255 255 255
0.463 -0.003 0.643 255 255 255
-0.051 0.36 0.937 255 255 255
-0.035 0.25 1.008 255 255 255
-0.043 0.509 1.064 255 255 255
0.306 0.117 0.628 255 255 255
0.365 -0.004 0.601 255 255 255
0.194 0.194 0.835 255 255 255
-0.847 -0.96 1.563 255 255 255
0.157 0.305 0.758 255 255 255
0.023 0.24 0.954 255 255 255
-0.084 0.673 1.343 255 255 255
0.282 0.219 0.659 255 255 255
1.531 -1.087 2.597 255 255 255
-0.478 0.619 1.567 255 255 255
-0.302 -0.474 2.085 0 0 0
-0.182 -1.163 1.949 255 255 255
0.298 0.257 0.662 255 255 255
-0.683 -0.254 1.882 255 255 255
1.603 -0.99 2.568 255 255 255
-1.039 -0.355 1.662 255 255 255
0.254 0.017 0.613 255 255 255
0.223 0.162 0.743 255 255 255
-0.046 0.242 1.02 255 255 255
0.454 -1.555 2.207 255 255 255
-0.289 0.678 1.391 255 255 255
-0.794 -0.767 1.658 255 255 255
1.441 -1.123 2.754 255 255 255
-0.714 -0.856 1.67 255 255 255
-2.127 -0.625 2.795 255 255 255
0.302 0.139 0.616 255 255 255
-0.037 -0.48 2.25 255 255 255
0.257 0.34 0.677 255 255 255
-0.353 0.694 1.351 255 255 255
-0.88 -0.674 1.636 255 255 255
-0.55 -0.552 1.87 255 255 255
-0.484 0.632 1.522 255 255 255
-0.441 0.688 1.365 255 255 255
-0.175 0.225 1.086 255 255 255
-1.005 -0.053 1.747 255 255 255
1.003 -1.56 2.582 255 255 255
0.75 -1.082 2.584 255 255 255
-0.828 -0.473 1.727 255 255 255
0.433 -0.131 1.004 255 255 255
-0.749 0.468 2.055 255 255 255
0.221 0.371 0.665 255 255 255
0.295 0.009 0.585 255 255 255
0.542 -0.91 2.508 255 255 255
0.211 0.125 0.732 255 255 255
-0.876 0.069 1.872 255 255 255
0.333 0.152 0.592 255 255 255
-0.61 -0.076 1.983 255 255 255
-0.308 0.708 1.317 255 255 255
1.1 -1.831 2.567 255 255 255
-0.168 0.328 1.082 255 255 255
-0.401 0.56 1.726 255 255 255
-0.246 -0.49 2.12 255 255 255
0.295 0.317 0.707 255 255 255
0.199 0.356 0.69 255 255 255
0.135 0.305 0.792 255 255 255
-0.598 -0.003 2.017 255 255 255
0.022 -0.006 1.105 255 255 255
-0.761 -0.594 1.725 0 0 0
0.033 0.421 0.854 255 255 255
1.514 -0.847 2.731 255 255 255
0.458 -0.677 2.478 255 255 255
-1.851 -0.451 2.865 0 0 0
0.137 0.264 0.788 0 0 0
-1.845 -0.786 2.782 0 0 0
-0.134 -0.119 1.169 255 255 255
-0.508 -0.648 1.863 255 255 255
-0.504 -1.021 1.75 255 255 255
1.411 -1.266 2.741 255 255 255
-0.177 -1.074 1.976 255 255 255
-1.036 -0.594 1.574 255 255 255
0.878 -0.52 2.83 255 255 255
-0.563 -0.569 1.854 255 255 255
0.017 -1.145 2.072 255 255 255
0.154 0.268 0.778 255 255 255
0.121 -0.622 2.302 255 255 255
-0.876 -0.528 1.68 255 255 255
-0.624 -0.14 1.956 255 255 255
0.249 -1.344 2.148 255 255 255
0.149 0.071 0.862 255 255 255
-0.859 0.143 1.91 255 255 255
-0.015 0.309 0.884 255 255 255
-0.185 -0.084 1.107 255 255 255
0.005 0.313 0.837 255 255 255
0.052 0.274 0.853 255 255 255
-0.373 0.633 1.518 255 255 255
0.296 0.084 0.63 255 255 255
0.312 0.127 0.619 255 255 255
-0.805 -0.751 1.657 255 255 255
0.112 -0.621 2.297 255 255 255
-0.842 -0.351 1.757 255 255 255
-0.106 -1.075 2.019 255 255 255
-0.317 -0.791 1.947 0 0 0
0.232 0.299 0.673 255 255 255
-0.636 -0.328 1.886 255 255 255
-1.216 0.312 2.099 255 255 255
0.165 -1.436 2.071 255 255 255
1.4 -1.255 2.752 255 255 255
0.175 0.348 0.706 255 255 255
0.007 0.189 1.132 255 255 255
-0.734 0.333 2.043 255 255 255
0.236 -0.022 0.736 255 255 255
1.157 -1.323 2.752 255 255 255
0.292 -0.032 0.74 255 255 255
0.856 -1.695 2.451 255 255 255
-0.137 0.658 1.43 255 255 255
-0.477 0.631 1.523 255 255 255
-0.383 0.663 1.435 255 255 255
0.895 -1.068 2.68 255 255 255
-0.215 0.261 1.117 255 255 255
0.109 0.151 0.986 255 255 255
0.15 0.274 0.784 255 255 255
-0.662 0.652 1.465 0 0 0
-0.342 -1.023 1.849 255 255 255
-0.586 0.629 1.541 255 255 255
0.25 -0.023 0.833 0 0 0
0.353 -1.556 2.145 0 0 0
0.203 0.12 0.746 255 255 255
0.39 -0.035 0.781 255 255 255
0.703 -0.719 2.666 255 255 255
-0.549 -0.781 1.798 255 255 255
-0.538 -0.134 2.001 0 0 0
1.083 -0.463 2.965 0 0 0
-0.19 0.145 1.083 255 255 255
0.287 0.074 0.685 0 0 0
0.244 0.221 0.734 255 255 255
0.299 0.099 0.624 255 255 255
-0.507 -0.745 1.835 255 255 255
0.505 -0.057 0.74 0 0 0
-0.227 -0.173 1.142 0 0 0
0.133 0.368 0.732 255 255 255
-0.618 -0.402 1.875 255 255 255
-0.555 -0.856 1.767 255 255 255
0.04 -1.213 2.065 255 255 255
-0.967 -0.322 1.677 255 255 255
-0.783 0.208 1.976 255 255 255
0.141 0.289 0.813 0 0 0
-0.014 0.039 1.131 255 255 255
-0.466 0.498 1.942 255 255 255
0.218 0.176 0.762 255 255 255
-0.428 -1.042 1.791 255 255 255
-0.407 -1.15 1.768 255 255 255
-0.394 -1.228 1.753 255 255 255
0.174 -0.113 1.175 255 255 255
-0.684 -0.656 1.749 255 255 255
-0.467 -1.162 1.729 255 255 255
0.235 0.016 0.677 255 255 255
-0.326 -0.703 1.949 255 255 255
0.236 0.1 0.722 255 255 255
0.388 0.02 0.616 0 0 0
0.275 -0.004 0.634 255 255 255
0.726 -1.506 2.438 255 255 255
0.082 0.402 0.792 255 255 255
0.709 -0.764 2.659 255 255 255
-0.095 -0.085 1.219 255 255 255
-0.852 0.527 1.937 255 255 255
-0.11 -0.148 1.214 0 0 0
-2.137 -0.181 2.923 255 255 255
0.03 -0.067 1.168 255 255 255
0.161 0.116 0.839 255 255 255
1.181 -1.814 2.593 255 255 255
-0.903 0.37 1.957 255 255 255
0.601 -0.831 2.571 255 255 255
0.385 -0.132 0.971 255 255 255
0.356 -0.156 1.344 255 255 255
-0.529 -0.093 2 0 0 0
-0.273 -0.032 1.13 255 255 255
0.107 -1.518 2.012 0 0 0
0.273 -0.932 2.288 255 255 255
0.176 0.002 0.874 255 255 255
0.363 -0.018 0.765 255 255 255
0.113 0.377 0.748 255 255 255
-0.579 -1.016 1.708 255 255 255
-0.826 0.061 1.902 255 255 255
0.754 -1.602 2.418 255 255 255
-0.124 0.161 1.097 255 255 255
