ply
format ascii 1.0
comment Created by Open3D
element vertex 1586
property double x
property double y
property double z
property uchar red
property uchar green
property uchar blue
end_header
0.331 -0.403 2.383 255 255 255
0.348 0.108 0.635 255 255 255
1.644 -1.002 2.719 255 255 255
-2.103 -0.57 2.843 255 255 255
-0.152 -0.051 1.119 255 255 255
-0.673 -0.129 1.898 255 255 255
-0.549 0.05 2.025 255 255 255
-0.664 -0.3 1.85 255 255 255
-0.807 -0.872 1.603 255 255 255
-0.755 -0.131 1.855 255 255 255
-0.468 -1.063 1.72 255 255 255
0.324 -0.769 2.265 255 255 255
-0.062 -0.136 1.143 255 255 255
-0.594 -0.035 1.972 255 255 255
0.184 0.412 0.766 255 255 255
0.327 -0.025 0.938 255 255 255
-1.908 -0.658 2.928 255 255 255
-0.895 -0.096 1.806 255 255 255
0.286 0.135 0.718 255 255 255
0.134 0.318 0.822 255 255 255
-0.488 -1.106 1.683 0 0 0
0.053 -0.408 2.237 255 255 255
-0.216 0.554 1.778 255 255 255
-0.42 0.69 1.394 255 255 255
0.298 -0.009 0.735 0 0 0
-0.724 -0.519 1.752 255 255 255
0.587 -0.095 1.01 255 255 255
-0.744 -0.809 1.654 255 255 255
-0.128 0.694 1.376 255 255 255
0.501 -0.028 0.72 0 0 0
-0.422 -1.125 1.725 0 0 0
-0.664 -0.023 1.938 255 255 255
-0.104 0.234 1.112 255 255 255
0.244 0.319 0.75 255 255 255
0.141 -0.068 1.175 255 255 255
-0.323 0.68 1.421 255 255 255
0.093 -1.131 2.036 255 255 255
0.026 -1.209 1.977 255 255 255
-0.6 -0.64 1.772 255 255 255
1.39 -1.612 2.605 255 255 255
-0.176 0.176 1.248 255 255 255
-0.523 -0.69 1.8 255 255 255
0.058 -0.477 2.217 255 255 255
0.15 -0.514 2.255 255 255 255
0.27 -0.049 1.065 255 255 255
0.492 -0.023 0.735 0 0 0
-0.015 0.685 1.363 255 255 255
-0.893 0.252 1.928 255 255 255
-0.041 0.194 1.08 255 255 255
0.208 0.294 0.954 255 255 255
0.648 -1.543 2.207 255 255 255
-0.601 -0.614 1.78 255 255 255
0.343 0.092 0.646 255 255 255
-0.103 0.697 1.364 255 255 255
0.295 -0.018 0.741 0 0 0
0.191 0.394 0.734 255 255 255
0.331 0.149 0.649 255 255 255
0.009 0.167 1.11 255 255 255
-0.651 0.025 1.963 255 255 255
-0.159 -0.785 1.99 0 0 0
-0.521 -0.473 1.869 255 255 255
-2.024 -0.381 2.94 255 255 255
-0.465 0.009 2.052 255 255 255
-0.49 0.699 1.376 255 255 255
0.106 0.078 1.108 0 0 0
0.208 0.316 0.788 255 255 255
0.734 -0.924 2.482 255 255 255
-0.523 -0.537 1.849 255 255 255
0.008 0.334 1.019 255 255 255
-1.228 0.374 2.272 255 255 255
-0.197 0.042 1.154 255 255 255
-0.459 -0.298 1.958 255 255 255
1.095 -1.388 2.522 255 255 255
0.03 -0.757 2.119 255 255 255
-0.834 0.359 1.963 255 255 255
-0.191 -0.491 2.035 255 255 255
0.578 -1.296 2.232 255 255 255
0.787 -0.141 1.145 255 255 255
0.947 -1.614 2.381 255 255 255
-2.066 -0.355 2.927 255 255 255
-0.495 0.426 2.119 255 255 255
0.093 0.235 0.999 255 255 255
0.084 -0.679 2.167 255 255 255
-0.806 0.045 1.887 255 255 255
0.309 -0.013 0.941 255 255 255
-0.107 -1.181 1.92 255 255 255
1.632 -1.043 2.727 255 255 255
-0.081 0.215 1.088 255 255 255
0.134 -0.913 2.127 255 255 255
0.795 -0.805 2.544 255 255 255
0.589 -1.277 2.239 255 255 255
0.252 0.286 0.742 255 255 255
-0.728 -0.093 1.886 255 255 255
-0.404 -0.935 1.79 255 255 255
-0.09 -0.969 1.991 255 255 255
0.048 -0.787 2.121 255 255 255
-0.549 -0.032 1.996 255 255 255
0.412 -0.023 0.758 255 255 255
-0.407 -0.218 2.01 255 255 255
-0.124 0.099 1.066 255 255 255
1.278 -0.419 2.601 0 0 0
-0.293 -0.704 1.918 255 255 255
-0.142 -0.457 2.121 255 255 255
0.924 -0.246 1.597 255 255 255
-0.162 -0.623 2.015 255 255 255
-0.556 -0.979 1.697 255 255 255
-0.908 -0.251 1.76 255 255 255
-0.238 0.5 1.942 0 0 0
0.351 0.13 0.647 255 255 255
0.336 0.123 0.686 255 255 255
-0.589 -0.865 1.712 255 255 255
-0.439 0.546 1.833 255 255 255
0.347 -0.032 0.923 0 0 0
0.36 0.091 0.603 255 255 255
-0.687 0.128 1.977 255 255 255
1.155 -1.124 2.645 255 255 255
-0.81 -0.273 1.782 255 255 255
0.575 -0.08 0.986 255 255 255
0.035 -0.522 2.192 255 255 255
-0.991 0.509 1.989 255 255 255
-1.919 -0.96 2.824 255 255 255
-0.813 -1.035 1.553 255 255 255
0.312 -0.06 0.763 255 255 255
0.329 0.082 0.682 0 0 0
0.841 -0.835 2.558 255 255 255
0.185 -1.065 2.098 255 255 255
-0.682 -0.823 1.684 255 255 255
0.336 -1.381 2.085 255 255 255
1.651 -0.66 2.824 255 255 255
-0.303 -1.234 1.751 255 255 255
1.2 -1.736 2.473 255 255 255
0.087 -0.27 2.298 255 255 255
1.11 -1.386 2.529 255 255 255
-0.665 -1.193 1.585 255 255 255
-0.582 -1.239 1.605 255 255 255
-1.141 0.405 2.18 255 255 255
-0.465 -1.18 1.694 0 0 0
-0.875 0.342 1.951 255 255 255
-0.297 -0.625 1.94 255 255 255
1.078 -0.326 1.582 255 255 255
-0.389 -0.102 2.056 255 255 255
0.729 -1.05 2.449 255 255 255
-0.347 -1.282 1.715 0 0 0
-0.738 -1.13 1.559 0 0 0
-0.788 -0.475 1.732 255 255 255
-0.639 -0.252 1.878 255 255 255
-0.172 0.046 1.14 255 255 255
-0.559 0.571 1.772 255 255 255
-0.536 -1.223 1.645 0 0 0
0.972 -1.184 2.524 255 255 255
0.144 0.234 0.971 255 255 255
-0.038 -0.161 1.189 0 0 0
0.051 0.181 1.071 255 255 255
0.531 -0.378 2.492 255 255 255
0.204 -0.203 2.378 255 255 255
0.031 0.678 1.342 255 255 255
-0.218 0.583 1.69 255 255 255
1.095 -1.065 2.624 255 255 255
-0.014 0.17 1.111 255 255 255
0.95 -1.774 2.237 255 255 255
-0.229 0.474 1.936 0 0 0
-0.746 -0.932 1.618 255 255 255
0.2 0.277 0.786 0 0 0
0.154 0.087 1.028 255 255 255
-0.405 -0.09 2.051 255 255 255
-1.724 -0.755 2.907 255 255 255
0.232 0.102 0.827 255 255 255
0.19 0.262 0.963 255 255 255
-0.491 -0.988 1.726 0 0 0
-0.202 -0.091 1.195 0 0 0
-0.066 -0.004 1.104 255 255 255
0.538 -1.219 2.239 255 255 255
-0.749 0.255 1.991 255 255 255
-0.112 -1.275 1.888 255 255 255
-0.664 -0.9 1.666 255 255 255
1.01 -1.077 2.576 255 255 255
1.323 -1.051 2.427 255 255 255
0.293 -0.055 0.759 255 255 255
-0.65 0.062 1.973 255 255 255
-0.348 -0.817 1.854 255 255 255
-0.554 -0.229 1.931 255 255 255
-0.894 0.433 1.995 255 255 255
-0.782 -0.054 1.87 255 255 255
0.221 0.014 0.943 255 255 255
0.277 -1.124 2.133 255 255 255
-0.109 0.035 1.089 255 255 255
1.726 -0.689 2.65 255 255 255
-0.286 -1.101 1.802 255 255 255
-0.175 0.238 1.35 255 255 255
-0.789 0.049 1.899 255 255 255
-0.34 -0.53 1.945 255 255 255
0.305 -0.405 2.369 255 255 255
-0.308 0.606 1.63 255 255 255
0.257 0.129 0.774 255 255 255
-0.315 -0.935 1.837 255 255 255
0.266 0.077 0.823 255 255 255
0.133 0.241 0.958 255 255 255
-0.058 0.7 1.344 255 255 255
1.165 -1.696 2.468 255 255 255
-0.726 0.161 1.971 255 255 255
-0.161 -1.158 1.897 255 255 255
-2.043 -0.349 2.945 255 255 255
1.269 -0.67 2.843 255 255 255
0.601 -1.629 2.145 0 0 0
-0.25 0.69 1.392 255 255 255
-1.117 0.419 2.186 255 255 255
1.047 -1.769 2.391 0 0 0
-0.632 0.467 2.095 255 255 255
0.312 -0.047 1.045 255 255 255
-1.654 -0.436 2.981 0 0 0
0.87 -1.477 2.38 255 255 255
1.428 -0.738 2.871 255 255 255
0.311 -0.608 2.313 255 255 255
-0.355 0.703 1.355 255 255 255
0.291 -0.577 2.306 255 255 255
0.854 -0.594 2.643 255 255 255
-0.707 -1.06 1.596 0 0 0
-0.655 -0.221 1.878 255 255 255
-0.247 -1.031 1.838 255 255 255
-0.473 -1.251 1.66 0 0 0
-0.459 0.731 1.292 255 255 255
-0.813 -0.042 1.852 255 255 255
-0.403 -0.301 1.985 255 255 255
-0.707 -0.586 1.739 255 255 255
-0.386 -0.962 1.791 255 255 255
0.693 -1.427 2.308 255 255 255
0.404 -0.466 2.399 255 255 255
-0.411 -0.843 1.813 255 255 255
0.22 -1.303 2.048 255 255 255
0.471 -0.436 2.443 255 255 255
-0.77 -0.932 1.603 255 255 255
0.328 0.139 0.66 255 255 255
-0.784 -0.161 1.831 255 255 255
-0.855 -0.754 1.597 255 255 255
-0.006 0.701 1.334 255 255 255
0.097 -0.822 2.135 255 255 255
0.288 -1.252 2.1 255 255 255
-0.136 -0.113 1.132 255 255 255
-0.72 -0.166 1.864 255 255 255
-0.852 0.04 1.849 255 255 255
-0.319 0.494 1.996 255 255 255
0.044 -0.655 2.153 255 255 255
-0.878 -0.03 1.818 255 255 255
1.303 -1.314 2.656 255 255 255
-2.012 -0.336 2.965 255 255 255
-0.14 -0.669 2.061 255 255 255
0.921 -0.532 2.692 255 255 255
0 0.134 1.115 255 255 255
0.306 0.04 0.597 255 255 255
0.417 -0.834 2.294 255 255 255
-1.824 -0.9 2.899 255 255 255
0.002 0.31 1.059 255 255 255
0.245 0.028 0.891 255 255 255
-0.692 0.195 1.999 255 255 255
-0.28 0.533 1.864 255 255 255
-0.542 -0.713 1.789 255 255 255
-0.222 0.559 1.759 255 255 255
0.703 -0.089 1.067 255 255 255
0.402 -0.789 2.3 255 255 255
-0.729 -0.679 1.698 255 255 255
0.069 0.174 1.083 255 255 255
-0.678 0.555 1.874 255 255 255
-0.489 -0.464 1.889 255 255 255
-0.776 0.444 2.017 255 255 255
0.196 0.273 0.792 255 255 255
-0.33 0.634 1.554 255 255 255
-0.744 -0.686 1.69 255 255 255
0.744 -1.513 2.299 255 255 255
1.616 -1.338 2.67 255 255 255
-0.417 -0.596 1.885 255 255 255
-0.263 0.698 1.371 255 255 255
0.728 -1.551 2.287 255 255 255
-0.307 -0.764 1.89 255 255 255
-1.201 0.398 2.24 255 255 255
-0.176 -0.888 1.917 255 255 255
0.087 0.23 1.03 255 255 255
0.151 0.165 1.089 255 255 255
-0.696 0.17 1.988 255 255 255
0.176 -1.126 2.081 255 255 255
0.239 0.218 0.926 255 255 255
-0.528 0.544 1.881 255 255 255
-2.003 -0.415 2.946 255 255 255
-0.629 -0.428 1.827 255 255 255
0.488 -0.576 2.407 255 255 255
0.312 -1.065 2.164 255 255 255
-0.738 0.144 1.958 255 255 255
-0.057 -0.193 1.175 0 0 0
1.242 -0.771 2.795 255 255 255
0.075 0.296 0.849 255 255 255
0.199 0.332 0.743 255 255 255
0.348 0.147 0.63 255 255 255
-0.605 0.255 2.061 255 255 255
0.146 0.088 1.043 255 255 255
0.222 0.219 0.958 255 255 255
-0.852 -0.623 1.637 255 255 255
-0.281 -0.446 2.001 255 255 255
0.086 0.014 1.144 0 0 0
-0.102 -0.984 1.981 255 255 255
-0.481 -0.692 1.824 255 255 255
0.172 -0.746 2.193 255 255 255
-1.747 -0.92 2.874 255 255 255
-0.187 -0.119 1.191 0 0 0
0.288 -0.855 2.225 255 255 255
-0.077 -0.193 1.161 0 0 0
0.186 0.228 0.967 0 0 0
-0.964 0.541 1.907 255 255 255
-0.807 -0.999 1.564 255 255 255
0.934 -0.217 1.435 255 255 255
-0.501 -0.565 1.852 255 255 255
1.279 -0.4 2.914 0 0 0
-0.806 -0.738 1.644 255 255 255
-1.978 -0.772 2.847 255 255 255
0.144 -1.351 1.992 255 255 255
0.443 -0.979 2.267 255 255 255
-0.276 -0.482 1.992 255 255 255
-0.636 0.175 2.021 255 255 255
-0.23 0.611 1.611 255 255 255
0.053 -1.341 1.946 255 255 255
-0.27 -1.304 1.746 0 0 0
-2.061 -0.59 2.857 255 255 255
0.341 0.129 0.665 255 255 255
0.223 0.313 0.757 255 255 255
0.52 -0.913 2.321 255 255 255
-0.369 -1.062 1.775 255 255 255
-0.413 -0.007 2.07 255 255 255
-0.936 0.532 1.931 255 255 255
0.749 -0.818 2.521 255 255 255
0.345 0.097 0.64 255 255 255
0.207 0.237 0.978 0 0 0
-0.537 -0.662 1.799 255 255 255
1.215 -1.41 2.575 255 255 255
-1.752 -0.591 2.995 255 255 255
-0.182 0.14 1.173 255 255 255
-0.586 -1.005 1.678 0 0 0
-0.807 -0.876 1.602 255 255 255
0.412 -1.226 2.172 255 255 255
1.724 -1.058 2.631 255 255 255
0.28 0.1 0.759 255 255 255
0.416 -1.1 2.212 255 255 255
1.106 -0.298 1.558 0 0 0
-0.026 -0.047 1.196 255 255 255
0.206 0.183 0.965 255 255 255
0.218 -1.009 2.132 255 255 255
-0.753 0.114 1.94 255 255 255
0.27 0.355 0.717 255 255 255
0.408 -0.056 0.769 255 255 255
0.242 0.376 0.687 255 255 255
0.264 0.271 0.709 255 255 255
-0.51 -0.62 1.829 255 255 255
0.097 0.195 1.05 255 255 255
0.123 0.24 0.963 255 255 255
-0.081 0.576 1.431 255 255 255
1.28 -0.467 2.472 0 0 0
-0.87 -0.674 1.616 255 255 255
-0.005 -1.306 1.929 255 255 255
-0.569 -1.24 1.617 255 255 255
-0.136 0.134 1.106 255 255 255
-1.886 -0.587 2.958 255 255 255
-0.308 -0.631 1.93 255 255 255
-0.592 -0.579 1.799 255 255 255
0.295 -0.394 2.364 255 255 255
-0.48 0.063 2.062 255 255 255
-0.622 -0.753 1.733 255 255 255
0.336 0.044 0.593 255 255 255
-0.451 0.599 1.663 255 255 255
0.213 0.135 0.893 255 255 255
-0.088 0.005 1.097 255 255 255
0.137 0.314 0.843 255 255 255
-1.315 0.391 2.33 255 255 255
-0.636 -1.22 1.587 255 255 255
-0.417 0.565 1.766 255 255 255
0.308 0.012 0.829 255 255 255
-0.788 -0.925 1.6 255 255 255
-0.518 -0.159 1.97 255 255 255
1.003 -0.318 1.633 255 255 255
-0.091 0.189 1.104 255 255 255
-0.358 -1.058 1.779 255 255 255
0.125 0.132 1.135 255 255 255
-0.28 -0.766 1.899 255 255 255
-0.236 0.657 1.476 0 0 0
-0.434 0.497 2.028 255 255 255
0.178 0.37 0.744 255 255 255
-0.746 -0.587 1.72 255 255 255
-0.672 0.324 2.051 255 255 255
-0.414 0.677 1.437 255 255 255
0.279 0.362 0.692 255 255 255
-0.723 -0.729 1.689 255 255 255
-0.164 -0.182 1.195 0 0 0
-0.633 0.576 1.773 255 255 255
0.547 -0.415 2.492 255 255 255
0.445 -1.577 2.079 0 0 0
-0.091 -0.587 2.107 255 255 255
0.366 -1.354 2.106 255 255 255
0.957 -0.261 1.487 255 255 255
0.335 0.059 0.711 0 0 0
-0.392 -1.276 1.693 0 0 0
-0.005 0.24 1.077 255 255 255
0.136 0.19 1.055 255 255 255
-0.83 0.06 1.869 255 255 255
-0.019 -0.109 1.199 255 255 255
-0.022 -0.131 1.199 0 0 0
-0.084 -0.119 1.133 255 255 255
1.696 -0.874 2.665 255 255 255
-0.49 0.192 2.099 255 255 255
-0.842 0.587 1.765 255 255 255
1.334 -1.4 2.651 255 255 255
-0.663 -0.043 1.934 255 255 255
0.364 0.068 0.662 0 0 0
1.188 -1.506 2.537 255 255 255
1.031 -0.704 2.701 255 255 255
-0.569 -0.232 1.922 255 255 255
0.782 -1.461 2.338 255 255 255
0.319 -0.051 1.009 255 255 255
0.272 0.065 0.763 255 255 255
0.118 0.26 0.897 255 255 255
0.103 0.135 1.124 0 0 0
0.264 -0.663 2.266 255 255 255
0.855 -1.572 2.348 255 255 255
-0.032 0.466 1.283 255 255 255
-0.247 0.69 1.392 255 255 255
-0.67 -0.175 1.887 255 255 255
0.586 -0.333 2.532 255 255 255
0.889 -0.599 2.658 255 255 255
-0.086 -1.048 1.97 255 255 255
-0.761 -0.561 1.722 255 255 255
0.241 0.25 0.77 255 255 255
-0.452 -0.684 1.841 255 255 255
0.157 -0.832 2.159 255 255 255
0.085 0.059 1.129 255 255 255
0.516 -0.26 2.53 255 255 255
-0.192 -0.902 1.906 255 255 255
0.194 -0.105 1.226 255 255 255
-2.108 -0.525 2.856 255 255 255
1.444 -0.692 2.865 255 255 255
0.336 -0.014 0.726 255 255 255
-0.876 -0.007 1.825 255 255 255
-0.467 0.729 1.299 255 255 255
-0.55 0.42 2.123 255 255 255
-0.096 -0.411 2.156 255 255 255
1.464 -0.628 2.857 255 255 255
-1.219 0.449 2.182 255 255 255
-0.531 0.72 1.322 255 255 255
-0.558 0.034 2.014 255 255 255
0.203 0.355 0.721 255 255 255
-0.607 0.511 2.005 255 255 255
-0.173 -0.958 1.905 255 255 255
0.421 -1 2.245 255 255 255
1.477 -1.353 2.624 255 255 255
0.298 -0.028 0.746 255 255 255
-0.66 -1.176 1.577 0 0 0
-2.169 -0.472 2.834 255 255 255
-0.476 -0.549 1.871 255 255 255
-0.005 0.343 1.091 255 255 255
0.586 -0.605 2.45 255 255 255
0.192 0.071 0.915 255 255 255
0.712 -1.471 2.301 255 255 255
-0.402 -0.664 1.877 255 255 255
-0.127 0.02 1.091 255 255 255
0.322 0.012 0.708 255 255 255
0.111 -0.222 2.328 255 255 255
0.504 -0.647 2.4 255 255 255
0.518 -0.417 2.476 255 255 255
-0.09 -0.691 2.075 255 255 255
-0.606 -1.009 1.663 0 0 0
-0.302 -0.574 1.953 255 255 255
-0.001 -1.257 1.948 255 255 255
-2.118 -0.506 2.86 255 255 255
-0.036 0.153 1.124 255 255 255
-0.143 0.08 1.077 255 255 255
0.39 -0.084 0.785 255 255 255
-0.357 -0.594 1.915 255 255 255
-0.005 -0.002 1.212 255 255 255
-0.689 -0.25 1.853 255 255 255
0.867 -0.937 2.542 255 255 255
-0.359 -0.831 1.843 255 255 255
-0.323 -0.699 1.902 255 255 255
-0.532 0.308 2.116 255 255 255
0.709 -0.396 2.624 255 255 255
-2.128 -0.249 2.932 255 255 255
-0.626 0.142 2.018 255 255 255
-0.088 -0.096 1.128 255 255 255
0.353 0.012 0.582 255 255 255
-0.08 -0.008 1.107 255 255 255
-0.396 0.473 2.08 255 255 255
1.347 -1.091 2.41 255 255 255
0.094 0.189 1.144 255 255 255
-0.009 -0.64 2.133 255 255 255
-1.878 -1.058 2.816 255 255 255
0.361 -0.022 0.734 255 255 255
0.39 -0.847 2.277 255 255 255
-0.616 -0.796 1.717 0 0 0
0.664 -0.115 1.081 255 255 255
-0.23 -0.455 2.024 255 255 255
-0.273 0.51 1.929 255 255 255
-0.831 0.36 1.968 255 255 255
-0.542 -0.389 1.886 255 255 255
-0.615 0.643 1.539 255 255 255
0.483 -0.566 2.41 255 255 255
1.125 -1.199 2.596 255 255 255
-0.526 -0.036 2.005 255 255 255
0.27 0.071 0.831 255 255 255
0.16 0.363 0.777 255 255 255
0.277 0.105 0.76 255 255 255
0.775 -0.129 1.138 255 255 255
0.004 0.172 1.1 255 255 255
0.614 -0.376 2.534 255 255 255
0.953 -0.591 2.691 255 255 255
-0.712 -0.468 1.774 255 255 255
0.328 -0.009 0.727 255 255 255
-0.037 0.653 1.462 255 255 255
-0.158 -0.655 2.016 255 255 255
0.15 -0.489 2.266 0 0 0
0.045 0.203 1.062 255 255 255
0.004 0.307 1.042 255 255 255
1.308 -1.717 2.534 255 255 255
0.882 -0.996 2.537 255 255 255
0.03 -0.864 2.083 255 255 255
0.958 -0.543 2.711 255 255 255
0.298 0.215 0.741 255 255 255
-0.735 -0.496 1.754 255 255 255
0.658 -0.095 1.048 255 255 255
0.191 0.212 0.997 255 255 255
-0.022 -0.949 2.033 255 255 255
-0.071 -0.037 1.115 255 255 255
-0.676 -1.179 1.576 0 0 0
0.131 -0.04 1.131 255 255 255
1.421 -1.567 2.58 255 255 255
-0.561 0.541 1.896 255 255 255
0.79 -1.136 2.442 255 255 255
-0.629 -0.628 1.764 255 255 255
-0.534 0.644 1.533 255 255 255
-0.739 0.017 1.917 255 255 255
-0.187 0.044 1.149 255 255 255
1.418 -1.522 2.607 255 255 255
0.102 0.21 1.028 255 255 255
-0.409 -0.991 1.772 255 255 255
0.192 0.38 0.735 255 255 255
-0.682 -0.718 1.715 255 255 255
-0.344 -0.526 1.944 255 255 255
-1.994 -0.269 2.995 255 255 255
-0.846 -0.926 1.565 255 255 255
0.265 0.083 0.813 255 255 255
0.238 0.169 0.863 255 255 255
0.053 0.047 1.159 255 255 255
-0.765 -1.153 1.541 0 0 0
-0.082 -0.201 1.164 0 0 0
1.144 -0.397 1.657 255 255 255
0.578 -0.082 0.99 255 255 255
-0.611 0.556 1.851 255 255 255
-0.628 0.658 1.498 0 0 0
0.002 0.293 1.055 255 255 255
-0.569 -0.54 1.824 255 255 255
-0.759 -0.865 1.631 255 255 255
-0.208 -0.122 1.216 0 0 0
0.284 0.277 0.69 255 255 255
1.367 -1.298 2.697 255 255 255
-0.67 0.074 1.967 255 255 255
-0.498 -1.101 1.674 0 0 0
-0.826 0.572 1.823 255 255 255
0.311 0.118 0.702 255 255 255
0.543 -1.061 2.291 255 255 255
1.705 -0.86 2.658 255 255 255
-0.227 0.693 1.38 255 255 255
0.834 -1.428 2.373 255 255 255
-0.806 -1.04 1.555 255 255 255
-0.199 -1.321 1.775 0 0 0
0.967 -0.933 2.596 255 255 255
-0.838 0.233 1.92 255 255 255
-0.662 0.103 1.982 255 255 255
0.117 0.04 1.089 255 255 255
0.319 0.172 0.665 255 255 255
-0.218 0.251 1.341 255 255 255
0.346 0.148 0.63 255 255 255
-1.646 -0.715 2.902 0 0 0
0.231 0.04 0.897 255 255 255
0.192 0.309 0.795 255 255 255
-0.402 -0.464 1.936 255 255 255
-0.408 -0.723 1.851 255 255 255
-0.155 -0.101 1.155 255 255 255
1.012 -0.622 2.714 255 255 255
-0.111 -0.982 1.976 255 255 255
-0.888 -0.011 1.831 255 255 255
0.617 -1.452 2.204 255 255 255
0.268 0.051 0.821 255 255 255
0.28 0.004 0.88 255 255 255
-0.78 -0.924 1.601 255 255 255
0.291 -0.034 0.751 0 0 0
-1.627 -0.789 2.911 0 0 0
-0.999 0.447 2.16 0 0 0
-0.239 0.128 1.218 255 255 255
-1.637 -1.205 2.777 0 0 0
-0.641 -0.881 1.678 255 255 255
0.728 -1.595 2.27 255 255 255
0.392 -0.698 2.32 255 255 255
-0.694 0.575 1.783 255 255 255
-0.942 0.519 1.968 255 255 255
-0.883 -0.58 1.64 255 255 255
-2.104 -0.454 2.883 255 255 255
0.1 0.081 1.118 0 0 0
1.332 -0.911 2.379 255 255 255
-0.828 -0.597 1.674 255 255 255
-0.036 -0.125 1.187 255 255 255
-0.212 -0.965 1.879 255 255 255
-0.116 0.273 1.116 255 255 255
0.345 0.091 0.64 255 255 255
-0.415 -0.045 2.059 255 255 255
-0.339 0.713 1.335 255 255 255
0.037 0.353 0.889 255 255 255
-0.422 -0.401 1.945 255 255 255
-0.835 0.341 1.956 255 255 255
0.035 -1.166 1.995 255 255 255
0.357 0.103 0.633 255 255 255
-0.608 -0.618 1.776 255 255 255
-0.52 -1.093 1.688 0 0 0
-1.741 -1.063 2.818 255 255 255
-0.656 -0.152 1.899 255 255 255
0.371 0.015 0.577 255 255 255
-0.607 0.615 1.631 255 255 255
0.163 0.303 0.82 255 255 255
-0.061 -0.725 2.08 255 255 255
-0.831 0.28 1.942 255 255 255
0.79 -0.789 2.549 255 255 255
1.017 -0.325 1.603 255 255 255
0.262 0.256 0.717 255 255 255
0.319 0.208 0.691 255 255 255
0.201 0.314 0.944 255 255 255
-0.349 -0.456 1.963 255 255 255
-0.894 -0.019 1.833 255 255 255
1.151 -0.798 2.73 255 255 255
0.274 0.118 0.751 255 255 255
0.334 -0.059 0.765 255 255 255
-0.537 -0.438 1.874 255 255 255
0.074 0.352 0.84 255 255 255
0.372 0.087 0.604 255 255 255
-0.254 0.618 1.59 255 255 255
-0.962 0.484 2.072 0 0 0
-0.673 -0.337 1.835 255 255 255
0.252 0.357 0.699 255 255 255
-0.815 -0.918 1.586 255 255 255
-0.404 -0.845 1.818 255 255 255
0.06 0.23 1.031 255 255 255
0.267 0.081 0.691 255 255 255
-0.717 -0.007 1.917 255 255 255
-1.382 0.351 2.444 255 255 255
-0.052 -0.186 1.178 0 0 0
-0.735 0.053 1.93 255 255 255
-0.661 -0.648 1.745 255 255 255
0.271 0.217 0.827 255 255 255
-0.416 -0.599 1.884 255 255 255
0.255 0.273 0.91 255 255 255
0.09 0.335 0.841 255 255 255
-0.805 0.029 1.883 255 255 255
-0.514 0.192 2.089 255 255 255
-0.007 0.478 1.1 255 255 255
-0.687 -0.094 1.904 255 255 255
0.294 0.101 0.689 255 255 255
0.247 0.214 0.889 255 255 255
0.106 -1.003 2.08 255 255 255
-0.437 0.723 1.315 255 255 255
-0.786 0.31 1.987 255 255 255
-0.169 -0.7 1.979 255 255 255
-0.49 0.34 2.049 0 0 0
-0.208 -0.799 1.93 255 255 255
0.064 0.309 0.86 255 255 255
-0.225 -1.234 1.789 255 255 255
-0.776 -0.621 1.693 255 255 255
0.309 0.198 0.703 255 255 255
-0.637 -0.51 1.801 255 255 255
0.024 0.475 1.057 255 255 255
-1.045 0.521 1.964 255 255 255
-0.639 0.272 2.052 255 255 255
-0.605 -1.121 1.612 255 255 255
0.968 -0.306 1.692 0 0 0
0.345 0.006 0.632 255 255 255
0.065 -1.06 2.041 255 255 255
0.951 -0.799 2.63 255 255 255
-1.08 0.274 2.148 255 255 255
0.028 0.317 0.988 255 255 255
-0.425 -1.225 1.698 0 0 0
0.492 -0.023 0.741 0 0 0
-0.561 -0.563 1.82 255 255 255
-0.817 -0.649 1.665 255 255 255
0.85 -0.189 1.234 255 255 255
0.118 0.09 1.115 255 255 255
0.255 0.08 0.829 255 255 255
-0.367 0.54 1.849 255 255 255
0.172 0.142 1.015 255 255 255
0.131 -1.408 1.972 255 255 255
0.269 0.363 0.692 255 255 255
1.638 -0.694 2.838 255 255 255
-2.038 -0.649 2.854 255 255 255
0.338 -0.938 2.221 255 255 255
-0.12 -1.326 1.864 255 255 255
-0.778 -0.195 1.823 255 255 255
0.143 0.085 1.052 255 255 255
0.358 0.02 0.6 0 0 0
0.059 0.051 1.15 255 255 255
-2.119 -0.108 2.976 255 255 255
1.316 -1.51 2.603 255 255 255
-0.463 0.647 1.52 255 255 255
0.36 0.078 0.673 255 255 255
-0.367 -0.933 1.809 255 255 255
0.277 0.17 0.767 255 255 255
0.381 -0.076 0.779 255 255 255
-0.086 -1.004 1.981 255 255 255
-1.103 0.465 2.151 255 255 255
-0.504 -0.921 1.736 255 255 255
-1.917 -0.442 2.983 255 255 255
0.153 -1.226 2.037 255 255 255
-0.306 0.494 1.995 255 255 255
0.765 -0.918 2.493 255 255 255
-0.416 0.475 2.069 255 255 255
-0.62 -0.883 1.688 255 255 255
-0.009 0.707 1.325 255 255 255
-0.005 -0.058 1.228 255 255 255
0.29 0.044 0.637 255 255 255
0.109 0.35 0.837 255 255 255
0.105 0.22 1.016 255 255 255
0.163 0.281 0.939 255 255 255
-0.193 -1.053 1.864 255 255 255
-0.789 -0.862 1.615 255 255 255
-0.674 -0.397 1.817 255 255 255
0.627 -1.555 2.18 255 255 255
-0.376 0.602 1.65 255 255 255
0.185 -0.924 2.15 255 255 255
-1.02 0.532 1.942 255 255 255
0.046 -0.039 1.238 0 0 0
-0.635 -0.716 1.734 255 255 255
1.318 -1.548 2.592 255 255 255
0.127 -0.029 1.12 255 255 255
0.356 -0.65 2.317 255 255 255
-0.031 -0.774 2.086 255 255 255
0.152 -0.053 1.123 255 255 255
0.017 -1.284 1.946 255 255 255
0.919 -0.373 2.742 255 255 255
-0.072 0.336 1.091 255 255 255
-0.031 0.671 1.418 255 255 255
0.321 0.009 0.712 255 255 255
-0.678 -0.429 1.802 255 255 255
0.004 -0.672 2.131 255 255 255
0.858 -1.243 2.445 255 255 255
-0.378 0.604 1.646 255 255 255
0.961 -0.243 1.502 255 255 255
-0.557 0.619 1.601 255 255 255
-0.357 -0.637 1.904 255 255 255
0.227 0.076 0.864 255 255 255
-0.773 -0.447 1.751 255 255 255
-2.111 -0.189 2.963 255 255 255
0.87 -0.537 2.666 255 255 255
0.257 0.022 0.861 255 255 255
0.267 -0.964 2.178 255 255 255
-0.152 -0.789 2.013 0 0 0
0.962 -0.899 2.605 255 255 255
-0.775 0.604 1.694 255 255 255
-0.2 -0.684 1.97 255 255 255
0.217 0.232 0.962 255 255 255
-0.294 0.674 1.435 255 255 255
-0.436 -0.024 2.059 255 255 255
0.536 -1.374 2.193 255 255 255
0.084 -1.276 1.984 255 255 255
-0.821 -0.495 1.707 255 255 255
0.206 -0.021 0.965 255 255 255
-0.082 0.245 1.09 255 255 255
-0.196 0.718 1.312 255 255 255
-0.712 -1.016 1.607 0 0 0
0.17 -0.068 1.133 255 255 255
1.693 -0.722 2.729 255 255 255
0.247 0.355 0.703 255 255 255
0.026 -1.052 2.027 255 255 255
-1.821 -0.809 2.926 255 255 255
-0.018 0.211 1.101 255 255 255
-0.214 -0.476 2.027 255 255 255
1.238 -1.78 2.483 0 0 0
0.29 0.337 0.679 255 255 255
0.184 -0.188 2.374 255 255 255
0.964 -0.264 1.477 255 255 255
-0.746 -0.961 1.606 255 255 255
-0.71 0.358 2.039 255 255 255
0.338 0.216 0.657 255 255 255
-0.631 -1.24 1.588 255 255 255
-0.101 0.118 1.068 255 255 255
0.189 0.411 0.741 255 255 255
-0.048 -0.903 2.038 255 255 255
0.682 -1.527 2.269 255 255 255
-0.113 0.605 1.486 255 255 255
0.278 0.358 0.711 255 255 255
-0.868 -0.038 1.816 255 255 255
0.57 -1.151 2.271 255 255 255
0.144 0.374 0.799 255 255 255
0.248 -1.136 2.116 255 255 255
0.221 0.313 0.792 255 255 255
0.131 0.343 0.817 255 255 255
-0.766 -1.057 1.565 255 255 255
0.304 0.262 0.718 0 0 0
-0.57 -0.212 1.927 255 255 255
0.12 0.224 1.004 255 255 255
1.166 -1.264 2.598 255 255 255
0.973 -1.246 2.506 255 255 255
-0.568 -0.443 1.853 255 255 255
0.41 -1.462 2.095 255 255 255
1.141 -1.652 2.476 255 255 255
-0.498 -0.335 1.927 255 255 255
-0.211 0.131 1.2 255 255 255
-0.478 -0.923 1.744 255 255 255
-0.561 0.021 2.007 255 255 255
0.065 -1.038 2.048 255 255 255
0.22 -1.328 2.041 255 255 255
-0.795 0.526 1.968 255 255 255
-2.03 -0.229 2.985 255 255 255
0.257 0.173 0.813 255 255 255
0.977 -1.346 2.483 255 255 255
0.143 0.188 1.056 0 0 0
-0.469 -0.317 1.944 255 255 255
0.172 0.36 0.751 255 255 255
0.125 -1.149 2.047 255 255 255
-0.367 -0.826 1.841 255 255 255
0.297 -0.974 2.185 255 255 255
-0.651 -0.051 1.937 255 255 255
0.222 0.313 0.759 255 255 255
-0.492 0.547 1.854 255 255 255
0.637 -0.687 2.452 255 255 255
-0.057 -1.253 1.924 255 255 255
-0.481 0.526 1.931 255 255 255
-0.862 -0.087 1.802 255 255 255
-0.522 -0.751 1.782 255 255 255
0.079 0.279 0.939 255 255 255
-0.269 0.624 1.574 255 255 255
0.28 -1.357 2.063 255 255 255
-0.123 0.559 1.471 0 0 0
-0.058 -0.147 1.151 255 255 255
1.194 -1.435 2.562 255 255 255
0.089 0.072 1.118 255 255 255
-0.322 0.542 1.835 255 255 255
0.16 0.202 1.071 0 0 0
-0.352 -1.144 1.758 255 255 255
-0.162 -1.302 1.853 255 255 255
1.152 -0.437 2.85 255 255 255
1.36 -0.895 2.374 255 255 255
1.644 -1.047 2.693 255 255 255
0.278 0.304 0.703 255 255 255
0.132 -0.022 1.106 255 255 255
0.102 0.277 0.854 255 255 255
-0.881 0.439 1.986 255 255 255
-0.306 0.722 1.304 255 255 255
0.22 0.115 0.863 255 255 255
0.329 -0.041 0.753 255 255 255
-0.665 -1.079 1.6 255 255 255
0.16 0.337 0.781 255 255 255
-0.605 0.394 2.092 255 255 255
-0.324 0.634 1.555 255 255 255
0.625 -1.239 2.274 255 255 255
0.435 -0.028 0.771 255 255 255
0.268 -0.489 2.327 255 255 255
0.106 -1.011 2.076 255 255 255
-0.083 -0.551 2.125 255 255 255
-0.452 -0.653 1.85 255 255 255
0.159 -0.046 1.104 255 255 255
-0.517 0.522 1.959 255 255 255
1.068 -0.935 2.651 255 255 255
-0.85 -0.573 1.653 255 255 255
0.148 -0.023 1.077 255 255 255
-0.653 0.433 2.078 255 255 255
-0.051 -0.042 1.119 255 255 255
0.299 0.022 0.814 255 255 255
0.337 0.104 0.663 255 255 255
-0.229 -1.219 1.791 255 255 255
0.013 0.118 1.11 255 255 255
-1.357 0.401 2.349 255 255 255
-1.017 0.453 2.164 0 0 0
0.149 0.292 0.878 255 255 255
0.445 -0.749 2.331 255 255 255
1.263 -1.759 2.504 255 255 255
-0.466 0.649 1.515 255 255 255
0.76 -1.035 2.464 255 255 255
-0.247 0.2 1.214 255 255 255
-0.568 0.257 2.085 255 255 255
0.246 0.226 0.913 255 255 255
0.047 0.293 0.957 255 255 255
0.11 0.37 0.851 255 255 255
-0.866 -0.233 1.756 255 255 255
0.24 0.348 0.718 255 255 255
0.304 0.198 0.714 255 255 255
0.004 0.203 1.06 255 255 255
-0.833 0.174 1.902 255 255 255
-0.076 -0.204 1.172 0 0 0
-0.005 0.184 1.078 255 255 255
-0.632 0.614 1.634 255 255 255
-0.454 0.554 1.828 255 255 255
0.023 0.045 1.177 255 255 255
0.334 -1.184 2.147 255 255 255
-0.719 0.561 1.843 255 255 255
0.168 0.392 0.745 255 255 255
-0.472 -0.56 1.87 255 255 255
-0.518 -0.112 1.987 255 255 255
0.918 -0.912 2.58 255 255 255
-0.017 -0.072 1.213 255 255 255
1.209 -1.734 2.48 255 255 255
-0.669 -0.277 1.854 255 255 255
-0.891 0.025 1.845 255 255 255
-1.442 0.383 2.42 255 255 255
-0.239 0.716 1.329 255 255 255
0.242 0.293 0.924 255 255 255
0.294 0.156 0.701 0 0 0
-0.238 -1.324 1.753 0 0 0
-0.249 -0.489 2.005 255 255 255
-0.545 -1.111 1.664 255 255 255
0.266 -0.542 2.306 255 255 255
0.206 0.278 0.834 0 0 0
0.04 0.198 1.059 255 255 255
-0.558 0.605 1.658 255 255 255
-0.856 -0.339 1.724 255 255 255
-0.159 -0.147 1.165 255 255 255
0.241 0.085 0.829 255 255 255
1.056 -1.118 2.588 255 255 255
0.066 -0.62 2.176 255 255 255
1.181 -1.685 2.481 255 255 255
0.244 0.249 0.763 255 255 255
0.01 0.198 1.057 255 255 255
0.32 -0.65 2.301 255 255 255
1.274 -1.563 2.564 255 255 255
1.017 -0.388 2.79 255 255 255
0.039 -0.823 2.102 255 255 255
0.457 -1.576 2.086 0 0 0
-0.611 -0.651 1.765 255 255 255
0.303 -1.221 2.114 255 255 255
-0.11 0.525 1.425 255 255 255
0.119 0.454 0.825 255 255 255
0.059 -0.24 2.285 255 255 255
1.273 -0.438 2.576 0 0 0
-0.529 0.504 2.026 255 255 255
0.316 -0.237 2.427 255 255 255
-0.074 0.203 1.081 255 255 255
0.185 -0.983 2.123 255 255 255
-0.418 -0.757 1.836 255 255 255
0.749 -0.166 1.366 255 255 255
0.406 0.006 0.588 255 255 255
-0.109 0.321 1.109 255 255 255
0.503 -0.67 2.388 255 255 255
-0.888 0.39 1.975 255 255 255
0.64 -1.657 2.166 0 0 0
-0.136 0.061 1.08 255 255 255
-0.52 -1.159 1.675 255 255 255
-0.482 -1.064 1.711 255 255 255
-0.424 -1.215 1.699 255 255 255
-0.742 0.021 1.914 255 255 255
-0.377 0.691 1.39 255 255 255
0.394 -1.14 2.183 255 255 255
0.252 -0.036 0.988 255 255 255
-0.692 0.52 1.987 255 255 255
-0.056 -0.06 1.121 255 255 255
-0.669 -1.208 1.577 255 255 255
-0.562 -0.694 1.779 255 255 255
0.181 -0.029 0.994 255 255 255
0.287 -0.065 0.767 255 255 255
-0.073 -0.865 2.028 255 255 255
1.209 -0.519 2.851 0 0 0
0.583 -0.882 2.36 255 255 255
0.319 -0.036 0.751 255 255 255
-0.733 -0.193 1.851 255 255 255
0.052 -0.688 2.151 255 255 255
-0.162 -0.826 1.966 0 0 0
0.312 -0.095 1.141 255 255 255
-0.073 -0.989 1.991 255 255 255
-0.052 -0.802 2.06 255 255 255
-0.393 0.705 1.358 255 255 255
0.158 0.374 0.78 255 255 255
1.137 -0.383 1.648 255 255 255
0.292 0.163 0.715 255 255 255
0.272 -1.097 2.133 255 255 255
1.053 -1.447 2.49 255 255 255
0.745 -0.369 2.656 0 0 0
0.357 0.13 0.64 255 255 255
-0.138 -0.483 2.116 255 255 255
-0.761 -0.831 1.639 255 255 255
0.311 0.188 0.7 255 255 255
0.659 -0.268 2.594 255 255 255
0.393 -0.643 2.34 255 255 255
0.033 0.134 1.095 255 255 255
-2.055 -0.195 2.984 255 255 255
0.301 0.295 0.679 255 255 255
0.627 -0.07 0.915 255 255 255
0.87 -1.729 2.247 255 255 255
0.008 -0.542 2.177 255 255 255
0.267 -0.538 2.308 255 255 255
0.619 -0.905 2.372 255 255 255
0.41 -1.155 2.189 255 255 255
0.168 0.382 0.747 255 255 255
0.22 0.137 0.877 255 255 255
-0.254 -1.268 1.766 255 255 255
0.273 0.368 0.682 255 255 255
-0.565 -0.658 1.784 255 255 255
1.331 -0.383 2.48 0 0 0
1.149 -1.3 2.578 255 255 255
0.933 -1.444 2.425 255 255 255
0.485 -1.573 2.105 0 0 0
0.287 -0.522 2.323 255 255 255
0.04 0.106 1.125 255 255 255
-1.058 0.477 2.102 255 255 255
-0.128 -0.193 1.175 0 0 0
-0.763 -0.112 1.856 255 255 255
0.04 0.017 1.191 255 255 255
0.395 0.002 0.724 255 255 255
0.354 -0.09 0.775 255 255 255
-0.478 0.026 2.052 255 255 255
-2.029 -0.754 2.837 255 255 255
0.217 0.309 0.797 255 255 255
-0.889 -0.66 1.615 255 255 255
0.288 -0.096 1.133 255 255 255
-0.902 -0.007 1.84 255 255 255
-1.89 -0.995 2.837 255 255 255
-0.141 0.7 1.36 255 255 255
-0.641 0.645 1.537 255 255 255
0.004 -1.168 1.98 255 255 255
0.2 0.14 0.929 255 255 255
0.282 -1.081 2.144 255 255 255
0.314 0.079 0.73 0 0 0
0.996 -0.285 1.471 255 255 255
0.12 0.265 0.887 255 255 255
0.04 0.695 1.328 255 255 255
-0.479 0.508 1.996 255 255 255
0.422 -0.057 0.777 255 255 255
-0.227 -0.979 1.867 255 255 255
-0.418 -0.546 1.902 255 255 255
0.267 0.354 0.721 255 255 255
0.1 0.301 0.847 255 255 255
1.123 -0.788 2.725 0 0 0
0.355 0.104 0.624 255 255 255
-0.746 0.053 1.924 255 255 255
-0.793 0.619 1.637 255 255 255
0.388 -0.036 0.761 255 255 255
-0.512 0.513 1.992 255 255 255
-0.098 0.024 1.093 255 255 255
-0.334 -0.749 1.882 255 255 255
-0.254 -0.676 1.942 255 255 255
0.23 -0.052 1.048 255 255 255
-0.429 -0.016 2.064 255 255 255
-0.597 -0.235 1.906 255 255 255
-0.8 -0.795 1.633 255 255 255
-0.809 -0.554 1.697 255 255 255
1.655 -0.641 2.822 255 255 255
-0.808 -0.408 1.741 255 255 255
-0.081 0.11 1.059 255 255 255
0.361 0.042 0.6 255 255 255
0.198 0.197 0.992 255 255 255
1.224 -1.306 2.616 255 255 255
0.299 0.151 0.685 255 255 255
0.341 0.068 0.681 0 0 0
-0.618 -1.225 1.592 255 255 255
-0.368 0.552 1.809 255 255 255
0.126 0.245 0.951 255 255 255
-0.18 -0.096 1.176 0 0 0
0.336 0.068 0.698 0 0 0
-0.511 0.699 1.38 255 255 255
-0.114 0.011 1.095 255 255 255
1.186 -1.462 2.548 255 255 255
0.135 -1.33 1.995 255 255 255
0.595 -1.189 2.274 255 255 255
0.36 0.081 0.663 255 255 255
-0.651 -0.524 1.789 255 255 255
-0.669 -0.137 1.9 255 255 255
0.286 0.239 0.796 255 255 255
-0.7 -1.047 1.607 255 255 255
0.319 0.065 0.73 0 0 0
-0.828 -0.298 1.763 255 255 255
0.196 0.101 0.923 255 255 255
0.3 0.162 0.699 255 255 255
0.192 0.081 0.908 255 255 255
-0.448 -0.494 1.901 255 255 255
0.029 0.12 1.114 255 255 255
-0.343 -1.106 1.771 255 255 255
-2.117 -0.236 2.943 255 255 255
-0.736 0.273 2.004 255 255 255
-0.271 -0.388 2.025 255 255 255
-0.837 -0.007 1.836 255 255 255
-0.065 0.309 1.087 255 255 255
-0.049 0.531 1.359 255 255 255
0.193 -0.083 1.19 255 255 255
-0.551 -1.217 1.64 0 0 0
-0.607 -0.78 1.732 0 0 0
0.21 0.364 0.697 255 255 255
-0.787 0.583 1.77 255 255 255
0.96 -0.931 2.593 255 255 255
0.009 0.063 1.169 255 255 255
-0.176 0.658 1.474 0 0 0
-0.325 0.515 1.928 255 255 255
-0.754 0.098 1.932 255 255 255
-0.758 -1.008 1.587 255 255 255
0.079 0.258 0.996 255 255 255
-0.048 -0.844 2.048 255 255 255
0.155 0.3 0.822 255 255 255
1.278 -1.391 2.619 255 255 255
0.012 -0.021 1.226 255 255 255
0.002 0.237 1.075 255 255 255
1.431 -1.558 2.573 255 255 255
0.034 -0.973 2.052 255 255 255
0.185 -0.952 2.133 255 255 255
0.048 0.342 0.86 255 255 255
0.033 0.117 1.123 255 255 255
-0.239 0.099 1.219 255 255 255
-0.313 0.68 1.415 255 255 255
0.172 -1.186 2.063 0 0 0
-0.403 -0.551 1.906 255 255 255
0.597 -0.096 1.017 255 255 255
-0.315 -0.728 1.9 255 255 255
-1.079 0.412 2.306 0 0 0
0.246 0.357 0.701 255 255 255
-0.418 -0.787 1.824 255 255 255
-0.875 -0.129 1.783 255 255 255
-0.701 -0.105 1.894 255 255 255
0.251 0.245 0.763 0 0 0
0.931 -0.249 1.617 255 255 255
1.322 -1.358 2.655 255 255 255
1.175 -0.509 2.835 255 255 255
1.722 -0.691 2.571 255 255 255
-0.115 0.18 1.099 255 255 255
0.138 0.279 0.882 255 255 255
0.342 -0.057 1.032 255 255 255
0.207 0.36 0.708 255 255 255
-0.528 -0.473 1.867 255 255 255
0.314 -0.092 1.134 255 255 255
0.618 -1.126 2.307 255 255 255
-0.808 0.479 2.009 255 255 255
0.107 0.044 1.094 0 0 0
-0.516 -0.076 1.998 255 255 255
0.223 0.124 0.866 255 255 255
0.022 -0.044 1.251 255 255 255
0.294 0.196 0.739 255 255 255
-0.656 -0.468 1.803 255 255 255
0.091 0.083 1.119 255 255 255
0.247 0.381 0.669 255 255 255
1.143 -0.505 2.821 255 255 255
1.411 -1.539 2.6 255 255 255
0.457 -1.568 2.093 0 0 0
0.269 -0.22 2.407 255 255 255
-0.098 0.338 1.105 255 255 255
-0.386 -1.002 1.777 255 255 255
0.183 -0.221 2.363 255 255 255
-0.669 0.017 1.952 255 255 255
-0.205 0.118 1.171 255 255 255
0.111 -1.224 2.017 255 255 255
-0.69 -0.82 1.684 0 0 0
-0.098 -0.233 1.207 0 0 0
0.156 0.123 1.05 255 255 255
-0.558 0.639 1.543 255 255 255
0.336 0.073 0.687 0 0 0
-0.59 -0.763 1.746 255 255 255
-0.79 0.143 1.93 255 255 255
0.941 -1.754 2.296 0 0 0
-0.561 -0.917 1.708 0 0 0
0.582 -1.055 2.309 255 255 255
0.358 0.079 0.673 0 0 0
-0.059 -0.106 1.138 255 255 255
-0.636 -0.145 1.915 255 255 255
-0.005 0.063 1.165 255 255 255
-0.229 -0.514 2.005 255 255 255
0.169 -0.053 1.109 255 255 255
-0.28 0.588 1.678 255 255 255
-0.649 -1.17 1.585 0 0 0
-0.211 -0.024 1.205 0 0 0
0.345 -0.053 0.922 0 0 0
1.311 -0.408 2.429 0 0 0
0.076 -0.009 1.168 0 0 0
0.138 0.31 0.857 255 255 255
0.007 -0.061 1.238 255 255 255
-0.128 0.133 1.098 255 255 255
0.258 0.244 0.89 255 255 255
0.262 0.38 0.669 255 255 255
0.078 0.201 1.057 255 255 255
0.589 -1.63 2.138 0 0 0
-0.05 0.154 1.079 255 255 255
-0.142 -0.024 1.106 255 255 255
0.603 -0.617 2.453 255 255 255
0.284 0.237 0.802 255 255 255
0.372 -0.04 0.76 255 255 255
-0.238 -1.294 1.765 0 0 0
-1.707 -0.951 2.826 255 255 255
-0.646 -0.11 1.921 255 255 255
0.954 -0.487 2.725 255 255 255
-0.043 -0.122 1.177 255 255 255
-0.868 0.58 1.793 255 255 255
-0.661 0.503 2.034 255 255 255
-0.843 -0.734 1.623 255 255 255
1.258 -0.447 2.532 0 0 0
-0.89 -0.118 1.796 255 255 255
0.093 0.475 0.871 255 255 255
-1.668 -1.264 2.716 255 255 255
-0.131 0.022 1.088 255 255 255
-1.118 0.302 2.168 255 255 255
-0.383 -0.231 2.016 255 255 255
-0.858 -0.429 1.697 255 255 255
0.209 -0.982 2.14 255 255 255
1.614 -1.261 2.691 255 255 255
0.183 0.289 0.808 255 255 255
0.23 0.264 0.764 255 255 255
0.299 0.164 0.703 255 255 255
0.268 0.193 0.805 255 255 255
0.291 -0.605 2.303 255 255 255
-0.85 -0.849 1.584 255 255 255
0.075 -0.773 2.135 255 255 255
0.182 0.307 0.806 255 255 255
0.29 0.063 0.717 0 0 0
-0.255 0.709 1.339 255 255 255
0.64 -0.751 2.431 255 255 255
-0.796 0.516 1.997 0 0 0
0.093 -0.66 2.183 255 255 255
1.282 -1.081 2.723 255 255 255
0.056 0.372 0.86 255 255 255
-0.43 -0.958 1.768 0 0 0
0.109 0.274 0.855 255 255 255
0.999 -1.49 2.443 255 255 255
0.131 0.439 0.812 255 255 255
1.081 -1.641 2.438 255 255 255
-0.449 -0.113 2.018 255 255 255
-0.882 -0.609 1.631 255 255 255
0.159 0.166 1.069 255 255 255
1.277 -1.378 2.622 255 255 255
-0.115 -1.071 1.945 255 255 255
-0.044 -0.972 2.018 255 255 255
0.228 -0.438 2.318 255 255 255
-0.806 -0.708 1.653 255 255 255
1.167 -1.248 2.607 255 255 255
0.035 0.314 0.958 255 255 255
-0.72 -0.082 1.89 255 255 255
-0.263 0.629 1.559 255 255 255
-0.523 -0.768 1.781 255 255 255
-0.669 -0.187 1.884 255 255 255
-0.602 -0.071 1.956 255 255 255
0.885 -0.436 2.704 255 255 255
-0.812 -1.023 1.556 255 255 255
-0.96 0.543 1.899 255 255 255
-0.035 -0.642 2.123 255 255 255
0.097 0.319 0.844 255 255 255
0.277 0.248 0.819 255 255 255
0.793 -1.355 2.379 255 255 255
-0.79 -0.007 1.879 255 255 255
0.537 -1.148 2.26 255 255 255
0.801 -1.591 2.313 255 255 255
-0.608 -0.295 1.883 255 255 255
-0.035 -0.856 2.053 255 255 255
-0.691 -0.667 1.721 255 255 255
-0.528 -0.068 1.996 255 255 255
-0.711 0.571 1.807 255 255 255
-2.229 -0.039 2.938 255 255 255
-0.024 -0.128 1.193 0 0 0
0.257 -0.015 0.937 255 255 255
-0.522 -1.194 1.65 0 0 0
-0.911 -0.691 1.616 255 255 255
0.149 0.067 1.037 255 255 255
-0.687 -0.055 1.917 255 255 255
0.027 0.257 1.021 255 255 255
-0.768 0.293 1.99 255 255 255
-0.756 -0.3 1.802 255 255 255
-0.333 -0.348 2.003 255 255 255
-0.352 0.685 1.405 255 255 255
-0.622 -1.063 1.639 255 255 255
-0.056 -1.138 1.956 255 255 255
0.287 0.096 0.687 255 255 255
-0.162 -0.578 2.024 255 255 255
-1.36 0.251 2.555 0 0 0
0.344 0.071 0.672 0 0 0
-0.37 0.701 1.368 255 255 255
0.472 -0.291 2.493 255 255 255
0.289 -0.057 0.762 255 255 255
0.316 -0.359 2.384 255 255 255
0.258 -0.953 2.177 255 255 255
1.297 -1.018 2.726 255 255 255
0.336 0.064 0.705 0 0 0
0.786 -0.887 2.515 255 255 255
-0.947 0.461 2.078 0 0 0
0.022 0.339 0.988 255 255 255
-0.516 -0.136 1.98 255 255 255
1.624 -0.785 2.81 255 255 255
-0.671 0.614 1.645 255 255 255
-0.234 0.574 1.709 255 255 255
0.551 -1.33 2.21 255 255 255
-0.67 0.636 1.566 255 255 255
0.264 0.035 0.808 255 255 255
-0.538 -0.088 1.987 255 255 255
0.155 0.365 0.785 255 255 255
-0.685 0.14 1.983 255 255 255
0.455 -0.027 0.77 255 255 255
-0.299 -0.496 1.978 255 255 255
-0.306 0.564 1.754 255 255 255
0.253 -0.944 2.181 255 255 255
0.337 0.038 0.595 255 255 255
0.306 -1.421 2.057 255 255 255
-0.364 0.639 1.536 255 255 255
-0.551 0.514 1.991 255 255 255
0.468 -0.716 2.354 255 255 255
0.726 -1.67 2.247 0 0 0
0.082 0.518 1.07 255 255 255
-0.583 0.021 1.995 255 255 255
0.199 -0.189 2.381 255 255 255
-0.281 -0.893 1.869 255 255 255
-0.559 -0.406 1.87 255 255 255
0.294 -1.336 2.075 255 255 255
0.112 0.139 1.118 0 0 0
0.41 -0.006 0.745 255 255 255
0.232 0.025 0.917 0 0 0
0.72 -1.309 2.354 0 0 0
0.527 -0.877 2.339 255 255 255
-0.565 -0.232 1.923 255 255 255
1.021 -1.708 2.396 255 255 255
0.258 0.116 0.773 255 255 255
-0.405 -0.635 1.879 255 255 255
-0.03 0.524 1.303 255 255 255
0.142 -0.01 1.079 255 255 255
-0.787 0.249 1.971 255 255 255
0.276 0.051 0.69 255 255 255
-0.596 -0.998 1.672 0 0 0
1.037 -1.721 2.401 0 0 0
0.248 -1.024 2.149 255 255 255
0.285 -1.402 2.049 255 255 255
0.157 0.211 1.048 255 255 255
-0.721 0.365 2.028 255 255 255
-0.509 -0.191 1.966 255 255 255
-0.631 -0.473 1.813 255 255 255
1.222 -1.054 2.7 255 255 255
-2.139 -0.466 2.856 255 255 255
1.39 -0.731 2.608 0 0 0
-1.651 -0.91 2.845 0 0 0
-0.642 -0.735 1.727 255 255 255
0.238 -1.23 2.077 255 255 255
-0.136 0.063 1.08 255 255 255
-0.351 0.687 1.401 255 255 255
0.182 0.115 0.959 255 255 255
-0.438 -1.177 1.701 255 255 255
-0.282 -1.298 1.744 0 0 0
-0.665 0.608 1.664 255 255 255
-0.353 -0.656 1.898 255 255 255
0.185 -0.885 2.154 255 255 255
0.246 0.366 0.685 255 255 255
-0.094 0.569 1.44 255 255 255
0.561 -1.307 2.221 255 255 255
-0.005 -0.981 2.026 255 255 255
0.897 -1.37 2.432 255 255 255
0.209 -1.077 2.11 255 255 255
-1.122 0.467 2.155 255 255 255
-0.026 -0.827 2.064 255 255 255
-0.618 -0.541 1.8 255 255 255
1.075 -1.775 2.301 255 255 255
0.13 0.186 1.081 0 0 0
-0.48 0.692 1.387 255 255 255
0.279 0.14 0.728 255 255 255
0.237 -0.965 2.158 255 255 255
-0.796 -0.077 1.851 255 255 255
0.203 0.267 0.963 0 0 0
1.334 -1.406 2.65 255 255 255
0.3 0.044 0.624 255 255 255
-0.213 -1.179 1.811 255 255 255
0.365 -0.796 2.281 255 255 255
0.273 -0.796 2.23 255 255 255
-0.072 -0.087 1.129 255 255 255
0.129 -0.994 2.093 255 255 255
-0.593 0.357 2.086 255 255 255
0.297 -0.02 0.74 255 255 255
0.267 0.084 0.81 255 255 255
0.271 0.08 0.816 255 255 255
-0.124 -0.126 1.127 255 255 255
0.084 0.199 1.047 255 255 255
1.11 -1.08 2.625 255 255 255
0.263 0.239 0.76 255 255 255
0.589 -1.259 2.249 255 255 255
-0.64 -0.297 1.864 255 255 255
0.222 0.262 0.775 255 255 255
-1.011 0.502 2.032 255 255 255
-1.361 0.221 2.61 0 0 0
0.166 -0.937 2.134 255 255 255
0.248 0.021 0.861 255 255 255
-0.399 -0.301 1.987 255 255 255
-0.514 0.471 2.114 255 255 255
-0.429 -0.875 1.792 255 255 255
-0.016 0.153 1.138 255 255 255
-0.382 -0.903 1.81 255 255 255
0.873 -1.282 2.443 255 255 255
0.268 -1.226 2.097 255 255 255
-0.385 -0.82 1.834 255 255 255
1.209 -1.202 2.644 255 255 255
-0.556 -1.097 1.664 255 255 255
-0.632 -0.763 1.724 0 0 0
-0.069 -0.719 2.077 255 255 255
1.186 -0.744 2.777 255 255 255
-0.178 -1.147 1.845 255 255 255
-0.436 -0.028 2.057 255 255 255
0.196 0.014 0.967 255 255 255
0.804 -1.211 2.428 255 255 255
-0.001 -0.902 2.059 255 255 255
0.701 -1.093 2.414 255 255 255
-0.23 -1.296 1.769 0 0 0
-0.127 0.018 1.091 255 255 255
-1.887 -0.885 2.87 255 255 255
0.757 -0.783 2.535 255 255 255
-0.334 -0.477 1.966 255 255 255
-0.123 -0.198 1.172 0 0 0
-0.68 -0.182 1.879 255 255 255
0.031 0.153 1.103 255 255 255
0.288 0.062 0.716 0 0 0
-1.064 0.24 2.14 0 0 0
0.266 0.248 0.874 255 255 255
0.918 -0.745 2.632 255 255 255
-0.533 -0.646 1.804 255 255 255
0.27 0.124 0.748 255 255 255
-0.858 -0.71 1.608 255 255 255
-0.243 0.22 1.215 255 255 255
-0.257 0.721 1.309 255 255 255
0.322 0.014 0.804 255 255 255
-0.582 0.586 1.725 255 255 255
-0.753 0.021 1.907 255 255 255
0.93 -1.018 2.553 255 255 255
0.272 -0.106 1.17 255 255 255
0.213 0.238 0.971 255 255 255
-0.783 0.065 1.906 255 255 255
-0.301 -1.106 1.792 255 255 255
-0.864 0.56 1.86 255 255 255
0.047 0.364 0.871 255 255 255
1.081 -1 2.637 255 255 255
-0.594 0.287 2.08 255 255 255
0.822 -1.736 2.279 0 0 0
0.266 0.13 0.751 255 255 255
1.022 -0.423 2.784 0 0 0
-0.211 0.658 1.479 0 0 0
0.12 -0.78 2.152 255 255 255
-0.719 -0.027 1.91 255 255 255
-0.195 0.575 1.714 255 255 255
0.365 0.124 0.619 255 255 255
-0.092 0.069 1.071 255 255 255
0.097 -0.885 2.11 255 255 255
-0.633 -0.831 1.694 255 255 255
0.045 0.199 1.062 255 255 255
-0.086 0.487 1.383 255 255 255
-0.683 -1.136 1.577 0 0 0
-0.395 -1.096 1.747 255 255 255
0.157 -0.048 1.108 255 255 255
0.323 -0.079 1.107 255 255 255
-0.262 0.642 1.521 255 255 255
0.215 0.161 0.915 255 255 255
-0.802 -0.486 1.723 255 255 255
1.699 -0.984 2.659 255 255 255
-0.47 0.145 2.09 255 255 255
-0.109 -0.131 1.131 255 255 255
-0.07 -0.607 2.113 255 255 255
-0.096 0.606 1.465 255 255 255
0.573 -0.054 0.859 0 0 0
-0.324 -0.419 1.989 255 255 255
-0.619 -0.226 1.897 255 255 255
-0.752 -0.444 1.762 255 255 255
0.024 0.32 0.996 255 255 255
-0.36 -1.213 1.729 255 255 255
-0.066 0.713 1.317 255 255 255
1.638 -0.852 2.782 255 255 255
0.417 -1.291 2.152 255 255 255
-0.057 -1.216 1.935 255 255 255
-0.608 -0.515 1.811 255 255 255
-0.163 0.145 1.138 255 255 255
0.148 -1.14 2.059 255 255 255
-0.036 0.298 1.091 255 255 255
1.302 -1.581 2.576 255 255 255
-0.061 0.035 1.092 255 255 255
0.041 0.33 0.909 255 255 255
-0.009 0.131 1.128 255 255 255
0.3 -0.085 0.757 255 255 255
-0.723 -0.777 1.674 255 255 255
0.183 0.357 0.74 255 255 255
-0.679 -0.975 1.634 255 255 255
-0.782 -0.986 1.581 255 255 255
-1.078 0.265 2.145 255 255 255
-0.579 -0.944 1.704 0 0 0
0.305 -0.01 0.732 255 255 255
1.289 -1.536 2.577 255 255 255
-0.736 -0.143 1.862 255 255 255
0.143 -0.004 1.035 255 255 255
-0.331 -1.022 1.804 255 255 255
-0.726 -0.328 1.81 255 255 255
-0.159 -0.876 1.973 0 0 0
-0.579 -0.36 1.875 255 255 255
0.066 0.381 0.851 255 255 255
0.519 -1.617 2.104 0 0 0
-0.615 -1.151 1.618 255 255 255
-0.711 0.078 1.947 255 255 255
0.202 0.299 0.813 255 255 255
0.465 -0.958 2.28 255 255 255
-0.39 0.711 1.343 255 255 255
0.292 -0.536 2.321 255 255 255
-1.67 -0.563 2.939 0 0 0
0.121 -0.59 2.218 255 255 255
0.292 -0.913 2.203 255 255 255
0.157 0.072 1.017 255 255 255
0.129 -0.998 2.092 255 255 255
-0.204 -1.019 1.864 255 255 255
-0.283 -0.536 1.972 255 255 255
0.36 0.025 0.598 0 0 0
0.478 -0.046 0.817 0 0 0
-1.049 0.523 1.951 255 255 255
0.031 -0.319 2.252 255 255 255
-0.829 -0.201 1.792 255 255 255
0.236 0.191 0.897 255 255 255
-0.773 -0.359 1.775 255 255 255
0.07 0.086 1.134 255 255 255
-0.853 -0.196 1.769 255 255 255
0.25 0.013 0.876 255 255 255
0.929 -0.208 1.39 0 0 0
-0.272 -1.232 1.766 255 255 255
0.039 -0.883 2.082 255 255 255
-0.135 -0.918 1.984 255 255 255
-1.785 -0.673 2.984 255 255 255
0.231 0.357 0.699 255 255 255
-1.387 0.376 2.427 0 0 0
1.158 -0.767 2.753 255 255 255
0.144 -0.699 2.197 255 255 255
0.307 0.302 0.677 255 255 255
0.287 0.194 0.756 255 255 255
0.314 -0.036 0.751 255 255 255
-0.182 -0.546 2.018 255 255 255
0.069 0.36 0.845 255 255 255
0.087 -0.243 2.305 255 255 255
-0.571 -0.135 1.951 255 255 255
1.423 -0.72 2.879 255 255 255
0.693 -1.135 2.391 255 255 255
0.317 -1.139 2.147 255 255 255
1.16 -0.847 2.726 255 255 255
0.048 0.221 1.04 255 255 255
-2.074 -0.505 2.873 255 255 255
0.308 0.13 0.698 255 255 255
0.262 0.264 0.892 255 255 255
-0.618 -0.529 1.802 255 255 255
0.363 -0.569 2.347 255 255 255
0.098 -0.013 1.148 255 255 255
-0.567 -0.095 1.967 255 255 255
1.041 -1.549 2.451 255 255 255
0.273 -0.737 2.249 255 255 255
-0.023 -0.341 2.222 255 255 255
0.207 0.368 0.686 255 255 255
-0.019 0.149 1.14 255 255 255
-0.11 -0.152 1.137 255 255 255
1.409 -0.763 2.871 255 255 255
-0.77 -1.027 1.577 255 255 255
-0.838 0.211 1.912 255 255 255
-0.123 -0.895 1.996 255 255 255
0.192 0.23 0.967 0 0 0
-0.102 0.322 1.107 255 255 255
1.675 -1.227 2.687 255 255 255
-0.092 0.67 1.436 255 255 255
0.325 0.256 0.708 255 255 255
-0.263 -1.08 1.818 255 255 255
-0.552 -0.267 1.918 255 255 255
0.158 0.381 0.779 255 255 255
0.713 -1.179 2.391 255 255 255
-0.304 0.488 2.007 255 255 255
0.303 -0.797 2.244 255 255 255
-0.539 -0.576 1.828 255 255 255
0.018 0.39 0.977 255 255 255
0.007 -0.144 1.251 0 0 0
-0.372 -0.654 1.891 255 255 255
0.549 -1.177 2.258 255 255 255
0.256 0.095 0.808 255 255 255
0.02 0.335 1.002 255 255 255
0.208 -0.011 0.974 255 255 255
1.177 -1.359 2.58 255 255 255
1.215 -0.573 2.842 255 255 255
0.335 -0.058 0.763 255 255 255
-0.052 0.344 1.093 255 255 255
-0.849 -0.367 1.715 255 255 255
0.252 -0.105 1.213 255 255 255
0.188 0.117 0.941 255 255 255
0.297 0.056 0.714 0 0 0
-0.577 0.645 1.534 255 255 255
-0.119 -1.048 1.95 255 255 255
-1.842 -0.729 2.933 0 0 0
-0.136 -0.706 2.049 255 255 255
1.307 -0.913 2.379 255 255 255
-0.459 -0.959 1.755 0 0 0
-0.085 0.456 1.365 255 255 255
-0.49 0.693 1.387 255 255 255
0.147 -0.03 1.087 255 255 255
0 -0.1 1.231 0 0 0
-0.799 -0.537 1.708 255 255 255
0.313 0.211 0.705 255 255 255
-0.592 -1.064 1.648 255 255 255
-1.206 0.405 2.185 255 255 255
-1.808 -0.965 2.887 255 255 255
1.154 -0.57 2.806 255 255 255
-0.066 -0.197 1.172 0 0 0
0.221 -0.011 0.959 255 255 255
-0.768 -0.229 1.818 255 255 255
-0.007 0.362 1.106 255 255 255
1.443 -1.374 2.635 255 255 255
