ply
format ascii 1.0
comment Created by Open3D
element vertex 1586
property double x
property double y
property double z
property uchar red
property uchar green
property uchar blue
end_header
1.316 -1.379 2.462 255 255 255
0.524 -1.472 2.039 0 0 0
-0.007 0.11 1.074 255 255 255
1.31 -0.945 2.593 255 255 255
0.094 -0.788 2.061 255 255 255
-0.628 -0.731 1.72 255 255 255
0.801 -0.125 1.108 0 0 0
0.328 0.065 0.84 255 255 255
-0.003 -0.13 1.145 255 255 255
-0.596 0.671 1.476 0 0 0
-0.755 -0.382 1.779 255 255 255
-0.631 -1.226 1.568 255 255 255
-0.434 -1 1.716 255 255 255
0.355 0.088 0.689 255 255 255
0.351 0.241 0.843 255 255 255
0.297 -1.26 2.009 255 255 255
0.172 -0.029 1.211 0 0 0
-0.581 -0.225 1.894 255 255 255
0.617 -1.582 2.049 0 0 0
-0.009 -1.098 1.896 0 0 0
-0.027 0.167 1.122 255 255 255
-0.328 -0.118 2.038 255 255 255
-0.169 0.139 1.274 255 255 255
0.248 -0.008 1.005 255 255 255
0.304 -1.024 2.079 255 255 255
0.395 0.025 0.662 0 0 0
-0.137 -0.671 1.949 255 255 255
-0.543 0.021 1.989 255 255 255
-0.693 -0.115 1.861 255 255 255
0.426 -0.022 0.715 255 255 255
1.013 -0.845 2.493 255 255 255
0.046 -0.741 2.059 255 255 255
-0.056 0.633 1.548 255 255 255
0.188 0.589 1.073 255 255 255
-0.611 0.657 1.511 0 0 0
0.86 -0.416 2.509 255 255 255
0.316 0.012 0.912 255 255 255
-0.554 0.658 1.516 0 0 0
0.036 -0.06 1.13 255 255 255
0.038 -0.069 1.131 255 255 255
-0.154 0.101 1.259 255 255 255
-0.203 0.697 1.377 255 255 255
0.839 -1.276 2.242 255 255 255
-1.17 0.209 2.658 255 255 255
-0.436 -0.096 1.998 255 255 255
-0.198 0.639 1.538 255 255 255
-1.409 -1.758 2.727 255 255 255
0.065 0.074 1.093 255 255 255
-0.788 0.518 1.989 255 255 255
-0.29 -1.158 1.747 255 255 255
0.308 -0.054 1.064 255 255 255
1.258 -0.436 2.726 255 255 255
-0.038 -0.033 1.119 255 255 255
1.167 -1.418 2.386 255 255 255
0.069 -1.335 1.887 255 255 255
-0.352 -0.271 1.979 255 255 255
0.17 0.582 1.12 255 255 255
-0.701 -0.644 1.709 255 255 255
-0.147 -1.251 1.773 255 255 255
0.236 0.174 1.065 0 0 0
0.322 0.147 0.827 255 255 255
-0.637 -0.549 1.769 255 255 255
-1.143 0.462 2.197 255 255 255
-0.444 -1.145 1.668 255 255 255
0.651 -0.392 2.426 255 255 255
0.188 0.271 0.854 255 255 255
-0.564 0.392 2.091 255 255 255
-0.494 0.025 2.014 255 255 255
0.188 0.065 1.116 255 255 255
-0.497 0.579 1.76 255 255 255
-0.693 -0.262 1.818 255 255 255
0.202 0.431 0.82 255 255 255
-1.732 -1.172 2.874 255 255 255
0.373 0.006 0.819 255 255 255
0.728 -0.531 2.421 255 255 255
-0.291 -0.183 2.038 255 255 255
0.263 0.358 0.718 255 255 255
1.535 -0.876 2.71 255 255 255
-0.487 0.739 1.3 255 255 255
0.263 0.157 1.038 255 255 255
-0.642 0.568 1.827 255 255 255
-0.158 -1.14 1.802 255 255 255
0.356 0.105 0.741 255 255 255
-0.045 -0.807 1.947 255 255 255
0.167 -0.511 2.179 255 255 255
0.47 -1.425 2.033 255 255 255
0.205 0.144 1.092 255 255 255
-0.392 -0.068 2.027 255 255 255
-0.637 -0.254 1.861 255 255 255
0.923 -0.705 2.5 255 255 255
-0.218 -0.241 2.046 255 255 255
-0.247 0.514 1.948 255 255 255
0.131 0.678 1.358 255 255 255
1.426 -1.158 2.579 255 255 255
-0.499 -0.817 1.749 255 255 255
-0.027 -0.089 1.125 255 255 255
0.295 0.294 0.945 255 255 255
0.169 -0.026 1.213 0 0 0
-0.677 0.405 2.042 255 255 255
0.348 0.237 0.856 255 255 255
-1.026 0.412 2.261 255 255 255
-0.77 -0.435 1.768 255 255 255
0.355 0.02 0.683 255 255 255
0.766 -1.422 2.156 255 255 255
0.714 -1.353 2.166 255 255 255
-0.597 -0.482 1.809 255 255 255
1.253 -0.8 2.615 255 255 255
0.346 0.054 0.688 255 255 255
1.185 -0.665 2.619 255 255 255
-0.747 -0.779 1.641 255 255 255
-0.289 -1.136 1.745 255 255 255
0.47 -1.224 2.09 255 255 255
-0.488 -1.109 1.665 255 255 255
0.049 -0.024 1.12 255 255 255
-0.271 -0.783 1.854 255 255 255
-0.551 -0.18 1.922 255 255 255
-0.764 0.594 1.743 255 255 255
-1.704 -0.826 2.988 255 255 255
-1.447 -1.29 2.826 0 0 0
0.36 -0.683 2.207 255 255 255
-0.953 0.533 1.948 255 255 255
1.481 -0.392 2.832 0 0 0
0.74 -0.804 2.338 255 255 255
-0.63 0.305 2.049 255 255 255
0.796 -1.187 2.24 255 255 255
0.358 0.126 0.717 255 255 255
-0.461 -0.578 1.835 255 255 255
-0.378 0.705 1.375 255 255 255
-0.476 -0.9 1.726 255 255 255
0.11 0.218 1.053 255 255 255
-0.031 -0.144 1.166 255 255 255
0.008 -0.623 2.045 255 255 255
0.258 0.076 0.983 255 255 255
-1.021 0.447 2.235 255 255 255
1.007 -1.458 2.299 255 255 255
0.042 -0.182 1.167 0 0 0
-0.452 -0.729 1.794 255 255 255
0.268 -0.368 2.265 255 255 255
-0.559 -0.42 1.841 255 255 255
-1.931 -0.94 2.848 255 255 255
0.331 0.073 0.678 255 255 255
0.226 -0.59 2.179 255 255 255
-0.495 -0.912 1.72 255 255 255
0.19 -0.028 1.171 0 0 0
-2.194 -0.298 2.92 255 255 255
0.006 -0.083 1.136 255 255 255
0.174 -0.893 2.067 255 255 255
0.253 -0.027 1.042 255 255 255
0.575 -1.366 2.094 255 255 255
-0.447 0.699 1.385 255 255 255
-0.229 -0.28 2.03 255 255 255
-1.596 -1.44 2.855 255 255 255
-1.584 -1.381 2.88 255 255 255
-0.419 -1.226 1.664 0 0 0
-0.129 0.181 1.23 255 255 255
-0.825 0.559 1.866 255 255 255
-0.74 -0.042 1.887 255 255 255
0.162 0.095 1.126 255 255 255
-0.389 -0.899 1.764 255 255 255
0.313 0.284 0.958 255 255 255
1.167 -0.993 2.522 255 255 255
0.06 0.278 1.103 255 255 255
-0.443 0.514 2.008 255 255 255
1.141 -1.079 2.48 255 255 255
-1.623 -1.128 2.936 255 255 255
-0.104 0.071 1.181 255 255 255
-0.134 -0.534 1.992 255 255 255
0.529 -0.788 2.251 255 255 255
-0.571 -1.076 1.641 0 0 0
-0.978 0.544 1.915 255 255 255
-0.328 -0.943 1.788 255 255 255
-0.006 0.505 1.473 255 255 255
-0.553 -0.661 1.77 255 255 255
-0.047 -0.152 1.176 255 255 255
-0.14 0.652 1.497 255 255 255
0.18 0.35 0.839 255 255 255
-0.211 -0.169 2.069 255 255 255
0.525 -1.339 2.079 255 255 255
0.269 -0.012 0.989 255 255 255
1.414 -1.189 2.56 255 255 255
-0.497 0.526 1.979 255 255 255
-0.526 0.698 1.404 255 255 255
0.081 0.178 1.093 255 255 255
-0.514 -0.071 1.974 255 255 255
0.108 -0.602 2.125 255 255 255
0.218 -1.432 1.916 0 0 0
-0.761 -0.737 1.656 255 255 255
-0.301 -0.782 1.84 255 255 255
-0.703 -0.538 1.727 255 255 255
-0.514 -0.385 1.871 255 255 255
-0.316 0.133 2.128 255 255 255
0.957 -0.601 2.546 255 255 255
-0.22 0.612 1.615 255 255 255
0.099 0.045 1.188 255 255 255
-0.544 -1.248 1.597 255 255 255
0.413 -0.028 0.835 0 0 0
0.128 0.081 1.149 255 255 255
-0.493 0.551 1.871 255 255 255
-0.549 -0.702 1.76 255 255 255
1.073 -1.023 2.465 255 255 255
1.232 -1.106 2.507 255 255 255
-0.098 0.562 1.752 255 255 255
0.151 -0.81 2.078 0 0 0
0.934 -0.409 2.59 255 255 255
-0.556 0.641 1.56 255 255 255
0.046 -0.823 2.031 255 255 255
-0.502 -0.945 1.704 0 0 0
0.13 -0.698 2.107 255 255 255
-0.26 -0.033 2.097 255 255 255
0.368 0.133 0.699 255 255 255
-0.532 -0.739 1.761 255 255 255
1.495 -1.361 2.555 255 255 255
0.907 -1.701 2.187 255 255 255
-0.176 -0.366 2.025 255 255 255
1.827 -0.786 2.73 255 255 255
0.279 -0.589 2.203 255 255 255
-1.419 -1.768 2.712 255 255 255
-0.121 0.558 1.773 255 255 255
1.033 -0.43 2.629 255 255 255
0.919 -1.265 2.321 255 255 255
-0.286 0.625 1.576 255 255 255
-0.348 0.687 1.416 255 255 255
1.066 -1.005 2.467 255 255 255
0.052 0.692 1.362 255 255 255
-0.34 -1.247 1.69 0 0 0
-0.41 -0.417 1.907 255 255 255
-0.021 0.196 1.12 255 255 255
-0.005 -1.074 1.916 0 0 0
0.782 -0.338 2.496 255 255 255
0.551 -0.448 2.364 255 255 255
0.11 0.468 1.067 255 255 255
0.279 0.131 0.93 255 255 255
-0.303 0.474 2.097 255 255 255
-0.133 -0.977 1.861 255 255 255
-0.03 -0.113 1.135 255 255 255
-0.222 -0.02 2.098 0 0 0
0.086 -0.67 2.096 255 255 255
0.064 0.054 1.114 255 255 255
-0.086 -1.059 1.854 255 255 255
0.244 -0.674 2.159 255 255 255
0.988 -1.211 2.371 255 255 255
-2.186 -0.412 2.9 255 255 255
0.184 0.366 0.853 255 255 255
0.129 -0.803 2.073 255 255 255
0.475 -1.453 2.019 0 0 0
1.082 -0.559 2.612 255 255 255
-0.678 -0.038 1.904 255 255 255
0.09 -0.784 2.062 255 255 255
1.105 -0.442 2.654 255 255 255
-0.731 -0.407 1.758 255 255 255
-0.407 -0.908 1.753 255 255 255
0.002 0.011 1.107 255 255 255
0.076 -0.773 2.059 255 255 255
-0.528 -1.108 1.648 0 0 0
-0.261 -0.396 1.979 255 255 255
-0.562 -0.427 1.836 255 255 255
-1.852 -0.76 2.945 255 255 255
-0.029 -0.404 2.055 0 0 0
-0.412 -0.965 1.74 0 0 0
-0.552 0.683 1.437 255 255 255
-0.334 0.689 1.408 255 255 255
0.337 0.196 0.829 255 255 255
0.108 0.369 0.941 255 255 255
-0.379 0.03 2.069 255 255 255
-0.574 0.55 1.881 255 255 255
-0.377 -0.157 2.008 255 255 255
0.149 0.029 1.168 255 255 255
-0.46 -0.297 1.924 255 255 255
0.492 -0.543 2.308 255 255 255
-0.211 0.712 1.343 255 255 255
0.01 0.11 1.08 255 255 255
-0.007 0.055 1.089 255 255 255
-0.625 -0.902 1.671 255 255 255
-0.473 -0.056 1.994 255 255 255
0.487 -0.204 2.419 255 255 255
0.41 -0.004 0.704 255 255 255
0.018 0.594 1.487 255 255 255
-0.631 -0.847 1.682 255 255 255
-0.464 -0.903 1.724 255 255 255
0.145 0.256 1.018 255 255 255
0.931 -1.637 2.223 0 0 0
-0.065 -0.933 1.897 255 255 255
0.743 -1.208 2.212 255 255 255
0.135 0.131 1.104 255 255 255
0.355 0.043 0.625 255 255 255
-0.699 0.005 1.902 255 255 255
0.378 0.112 0.697 255 255 255
-2.06 -0.325 2.984 255 255 255
0.1 -0.454 2.168 255 255 255
-0.46 -1.018 1.702 0 0 0
0.418 -1.158 2.088 255 255 255
-2.031 -0.405 2.974 255 255 255
-0.544 -1.243 1.598 255 255 255
0.222 -1.361 1.942 255 255 255
-2.21 -0.391 2.884 255 255 255
-1.461 -1.175 2.857 0 0 0
-0.017 -0.847 1.944 255 255 255
0.151 0.151 1.087 255 255 255
0.302 0.149 0.881 255 255 255
-0.058 -0.614 2.001 255 255 255
-0.552 -0.841 1.716 0 0 0
0.035 0.687 1.386 255 255 255
1.123 -1.471 2.348 255 255 255
0.587 -1.058 2.192 255 255 255
-0.722 -0.28 1.804 255 255 255
0.712 -0.363 2.46 255 255 255
0.21 -0.989 2.047 255 255 255
1.5 -0.694 2.761 255 255 255
-0.275 -0.893 1.822 255 255 255
0.828 -0.949 2.329 255 255 255
0.363 -0.226 2.352 255 255 255
-0.476 0.712 1.356 255 255 255
0.07 0.252 1.154 255 255 255
0.922 -1.535 2.238 255 255 255
-0.323 -0.812 1.825 255 255 255
0.996 -0.904 2.466 255 255 255
-1.803 -0.839 2.945 255 255 255
-0.041 -0.085 1.128 255 255 255
-0.005 -0.017 1.117 255 255 255
-0.644 -0.449 1.795 255 255 255
-0.664 -0.238 1.854 255 255 255
-0.036 0.561 1.749 255 255 255
0.016 -0.797 2.025 0 0 0
-0.143 -0.455 2.013 255 255 255
-0.418 -1.236 1.656 0 0 0
0.837 -0.709 2.411 255 255 255
0.382 0.096 0.664 0 0 0
-0.346 0.528 1.929 255 255 255
0.338 0.088 0.797 255 255 255
-0.087 -0.37 2.051 255 255 255
0.191 -0.048 1.207 0 0 0
-0.08 0.718 1.313 255 255 255
0.354 0.042 0.616 255 255 255
0.183 0.268 0.933 255 255 255
0.174 -0.827 2.083 255 255 255
0.141 -0.08 1.263 0 0 0
-0.225 0.682 1.414 255 255 255
0.375 0.032 0.766 255 255 255
-0.456 -0.076 1.995 255 255 255
0.814 -0.501 2.46 255 255 255
0.06 0.153 1.123 255 255 255
-0.544 -1.206 1.619 0 0 0
0.344 -0.079 1.136 255 255 255
0.311 0.155 0.86 255 255 255
0.23 -0.071 1.192 255 255 255
0.408 0.009 0.609 255 255 255
-1.105 0.486 2.109 255 255 255
-0.253 -0.984 1.803 255 255 255
-0.102 -1.082 1.841 255 255 255
0.31 0.293 0.947 0 0 0
-0.184 -0.713 1.916 255 255 255
-1.625 -1.298 2.879 255 255 255
-0.104 0.057 1.187 255 255 255
-0.234 -1.014 1.807 255 255 255
-0.046 -0.643 1.996 255 255 255
0.464 -0.937 2.178 255 255 255
0.793 -0.299 2.517 255 255 255
0.347 0.071 0.821 255 255 255
0.206 0.353 0.813 255 255 255
0.747 -1.148 2.231 255 255 255
0.119 0.706 1.308 255 255 255
0.157 -1.255 1.949 255 255 255
-0.166 -1.236 1.766 255 255 255
-1.454 -0.829 2.968 255 255 255
-0.443 -1.157 1.656 255 255 255
0.07 0.532 1.354 255 255 255
-0.256 0.7 1.37 255 255 255
0.03 -0.51 2.123 255 255 255
-0.685 -0.089 1.876 255 255 255
-0.005 -0.454 2.07 255 255 255
0.114 0.291 1.013 255 255 255
-0.038 -0.543 2.028 255 255 255
-0.077 0.696 1.369 255 255 255
0.902 -0.437 2.563 255 255 255
0.283 -1.302 1.986 255 255 255
-0.029 -0.087 1.124 255 255 255
-0.013 0.02 1.105 255 255 255
-1.915 -0.915 2.867 255 255 255
-0.854 0.444 2.213 0 0 0
0.382 -0.009 0.717 255 255 255
-0.718 -0.335 1.787 255 255 255
-0.146 -0.569 1.977 255 255 255
-1.775 -1.19 2.846 255 255 255
1.437 -0.816 2.686 255 255 255
0.06 -0.004 1.124 255 255 255
-0.533 0.291 2.087 255 255 255
-0.007 0.207 1.12 255 255 255
0.319 0.249 0.747 0 0 0
-0.087 -0.018 1.172 255 255 255
0.193 0.223 1.018 255 255 255
-0.18 -0.39 2.019 255 255 255
0.263 0.227 0.971 255 255 255
0.265 0.144 1.006 255 255 255
-0.648 -1.131 1.587 255 255 255
0.126 -1.235 1.946 255 255 255
0.263 0.077 0.964 255 255 255
0.331 -1.279 2.017 255 255 255
-0.424 -1.179 1.669 255 255 255
-0.291 0.518 1.942 255 255 255
0.405 -1.309 2.038 255 255 255
1.084 -1.466 2.327 255 255 255
0.506 -1.063 2.157 255 255 255
0.145 0.242 1.022 255 255 255
0.122 0.383 0.905 255 255 255
-0.066 -0.105 1.174 255 255 255
0.203 -1.351 1.937 255 255 255
0.033 -0.817 2.028 255 255 255
0.859 -0.522 2.475 255 255 255
0.362 -0.879 2.149 255 255 255
0.887 -0.166 1.337 255 255 255
-0.512 0.287 2.092 255 255 255
0.233 0.045 1.042 255 255 255
-0.34 -1.067 1.738 255 255 255
0.066 -0.015 1.141 255 255 255
-1.091 0.294 2.513 0 0 0
-0.534 0.176 2.049 255 255 255
0.379 0.032 0.588 255 255 255
0.45 -0.746 2.226 255 255 255
-0.593 -1.092 1.623 255 255 255
0.48 -0.956 2.183 255 255 255
0.972 -1.168 2.373 255 255 255
0.196 0.395 0.815 255 255 255
-0.171 0.602 1.642 255 255 255
0.52 -1.333 2.08 255 255 255
-0.732 0.316 2.015 255 255 255
0.461 -0.375 2.348 255 255 255
-0.379 -0.168 2.001 255 255 255
-0.396 -0.011 2.046 255 255 255
0.922 -0.72 2.494 255 255 255
0.609 -0.392 2.405 255 255 255
0.598 -0.942 2.232 255 255 255
0.038 0.334 1.101 255 255 255
-0.012 0.212 1.122 255 255 255
-0.933 0.325 2.256 255 255 255
0.331 0.28 0.904 255 255 255
0.343 0.028 0.638 255 255 255
0.385 -0.033 1 255 255 255
0.192 0.13 1.108 255 255 255
-0.421 -0.871 1.758 255 255 255
0.671 -0.557 2.383 255 255 255
0.337 0.043 0.636 255 255 255
1.672 -0.668 2.754 255 255 255
0.241 -0.016 1.039 255 255 255
-0.707 0.534 1.95 255 255 255
1.253 -1.4 2.429 255 255 255
0.845 -0.282 2.542 255 255 255
0.215 0.319 0.809 255 255 255
0.297 -0.064 1.09 255 255 255
0.647 -1.377 2.118 255 255 255
-0.162 0.227 1.248 255 255 255
0.085 0.175 1.086 255 255 255
-0.381 0.544 1.876 255 255 255
0.043 0.643 1.487 255 255 255
-1.693 -0.951 2.959 255 255 255
0.842 -0.958 2.336 255 255 255
-0.681 0.172 1.971 255 255 255
-0.659 -0.376 1.813 255 255 255
-0.368 0.548 1.848 255 255 255
0.111 0.001 1.212 255 255 255
0.196 -0.947 2.053 255 255 255
-0.232 -0.292 2.024 255 255 255
-2.01 -0.412 2.982 255 255 255
-0.017 -0.855 1.941 255 255 255
1.179 -0.571 2.648 255 255 255
-0.129 0.097 1.237 255 255 255
0.08 0.053 1.149 255 255 255
0.368 0.174 0.716 255 255 255
-0.442 -1.261 1.642 255 255 255
-0.228 0.677 1.433 255 255 255
0.046 -0.988 1.98 255 255 255
-0.007 0.665 1.458 255 255 255
-1.62 -1.372 2.862 255 255 255
-0.414 -0.409 1.906 255 255 255
-0.527 -0.142 1.944 255 255 255
0.302 0.297 0.941 0 0 0
-0.095 -0.515 2.017 255 255 255
-2.057 -0.378 2.963 255 255 255
-0.675 0.033 1.933 255 255 255
-0.26 -0.971 1.804 0 0 0
1.211 -0.962 2.543 255 255 255
-0.012 -0.156 1.149 255 255 255
0.051 -0.55 2.119 255 255 255
0.302 0.274 0.974 0 0 0
-0.05 -0.072 1.139 255 255 255
0.239 -1.148 2.02 255 255 255
1.372 -0.418 2.783 255 255 255
-0.625 -0.518 1.787 255 255 255
-0.268 -0.155 2.055 255 255 255
1.042 -0.575 2.586 255 255 255
0.959 -1.175 2.366 255 255 255
-0.475 0.581 1.746 255 255 255
-0.041 -0.83 1.936 255 255 255
0.152 0.204 1.045 255 255 255
-0.118 -1.183 1.806 255 255 255
-0.37 -1.151 1.696 255 255 255
0.503 -0.406 2.356 255 255 255
-0.647 0.583 1.778 255 255 255
0.926 -1.209 2.343 255 255 255
-0.618 -0.503 1.794 255 255 255
-0.185 -1.121 1.793 255 255 255
0.537 -0.976 2.196 0 0 0
0.913 -1.597 2.22 0 0 0
-0.527 -0.374 1.875 255 255 255
-0.364 0.56 1.808 255 255 255
0.155 0.707 1.294 255 255 255
-0.427 0.606 1.654 255 255 255
-1.344 0.254 2.82 255 255 255
0.4 -0.498 2.289 255 255 255
0.077 0.178 1.103 255 255 255
0.229 0.385 0.779 255 255 255
-0.667 -0.789 1.687 255 255 255
1.066 -1.475 2.324 255 255 255
-0.751 -1.014 1.567 255 255 255
0.842 -0.724 2.406 255 255 255
0.384 0.027 0.594 255 255 255
0.233 0.401 0.75 255 255 255
0.224 -0.826 2.103 255 255 255
0.05 0.265 1.089 255 255 255
-0.369 -0.247 1.982 255 255 255
0.373 0.053 0.695 0 0 0
0.297 0.09 0.849 255 255 255
-0.145 0.093 1.252 255 255 255
-0.22 0.701 1.369 255 255 255
-0.851 0.585 1.785 255 255 255
-0.495 0.56 1.831 255 255 255
0.331 0.157 0.805 255 255 255
-0.652 -0.147 1.887 255 255 255
-0.309 -0.956 1.789 255 255 255
0.216 -0.018 1.122 255 255 255
-1.838 -0.93 2.903 255 255 255
-0.77 -0.411 1.782 0 0 0
0.085 -1.163 1.943 255 255 255
0.333 0.072 0.681 255 255 255
0.236 0.03 1.035 255 255 255
-1.438 -1.171 2.872 0 0 0
0.349 0.227 0.825 255 255 255
0.243 -0.414 2.239 255 255 255
0.84 -1.042 2.305 255 255 255
0.013 0.035 1.098 255 255 255
1.084 -0.277 1.576 255 255 255
0.225 0.052 1.074 255 255 255
-0.569 0.171 2.031 255 255 255
0.777 -0.62 2.409 255 255 255
0.217 0.102 1.121 255 255 255
0.444 -1.455 2.009 0 0 0
-0.649 0.666 1.504 0 0 0
0.18 -1.331 1.934 255 255 255
-0.044 0.201 1.371 255 255 255
-0.15 0.703 1.359 255 255 255
0.312 0.09 0.826 255 255 255
0.269 0.309 0.932 255 255 255
-0.232 -1.135 1.772 255 255 255
0.113 0.253 1.027 255 255 255
-0.017 -1.03 1.89 255 255 255
0.25 0.146 1.069 255 255 255
-0.187 0.642 1.529 255 255 255
-0.146 0.669 1.454 0 0 0
0.018 0.654 1.48 255 255 255
-0.357 -0.965 1.764 0 0 0
0.381 0.091 0.688 255 255 255
0.562 -1.282 2.115 255 255 255
0.38 -1.235 2.052 255 255 255
0.286 0.292 0.942 255 255 255
-0.304 0.232 2.127 0 0 0
0.057 -0.081 1.143 255 255 255
0.287 -1.297 1.988 255 255 255
0.297 0.042 0.92 255 255 255
0.615 -0.966 2.236 255 255 255
1.28 -1.153 2.514 255 255 255
0.73 -0.921 2.292 255 255 255
-1.63 -0.933 2.994 255 255 255
0.319 0.021 0.908 255 255 255
0.267 0.091 0.968 255 255 255
-0.234 -1.296 1.724 0 0 0
0.185 0.259 0.867 255 255 255
-0.276 0.569 1.748 255 255 255
-0.679 0.54 1.932 255 255 255
0.194 -0.035 1.179 0 0 0
0.16 0.26 0.965 255 255 255
0.262 0.181 1.05 255 255 255
0.101 0.194 1.066 255 255 255
0.156 -0.953 2.038 255 255 255
-0.674 0.156 1.975 255 255 255
-1.604 -1.461 2.848 255 255 255
0.37 0.167 0.695 255 255 255
-0.628 0.621 1.634 255 255 255
-0.459 0.682 1.432 255 255 255
-0.354 0.579 1.732 255 255 255
-0.37 0.675 1.448 0 0 0
-0.213 -0.037 2.087 0 0 0
0.171 0.354 0.84 255 255 255
-0.429 -0.431 1.896 255 255 255
-0.14 0.553 1.783 255 255 255
-0.725 -0.582 1.71 255 255 255
0.191 -0.035 1.179 0 0 0
-0.337 0.655 1.499 0 0 0
0.004 -0.146 1.149 255 255 255
0.44 -0.05 0.961 0 0 0
-0.603 -0.221 1.885 255 255 255
0.334 -0.723 2.185 255 255 255
-0.162 0.155 1.26 255 255 255
0.29 0.01 0.959 255 255 255
-0.729 0.562 1.857 255 255 255
-0.297 -0.783 1.841 255 255 255
-0.071 -0.086 1.175 255 255 255
0.145 0.265 0.986 255 255 255
-0.433 0.334 2.129 255 255 255
-0.249 0.489 2.032 255 255 255
0.145 0.292 0.877 255 255 255
0.216 -1.181 1.994 255 255 255
-0.57 0.298 2.074 255 255 255
0.214 0.244 0.945 255 255 255
1.152 -0.37 2.699 255 255 255
0.177 0.229 1.01 255 255 255
-0.364 0.65 1.518 255 255 255
0.238 0.09 1.05 255 255 255
-1.608 -1.207 2.917 255 255 255
-0.615 -0.4 1.826 255 255 255
0.409 0.084 0.661 255 255 255
0.713 -0.924 2.288 255 255 255
0.797 -0.603 2.423 255 255 255
0.145 0.15 1.092 255 255 255
-0.107 -0.446 2.031 255 255 255
-0.399 0.561 1.807 255 255 255
-1.495 -0.977 2.945 255 255 255
-0.001 -1.236 1.882 255 255 255
-0.469 -0.452 1.874 255 255 255
0.32 -0.681 2.19 255 255 255
-0.61 0.183 2.02 255 255 255
0.237 0.207 1.066 255 255 255
-2.193 -0.426 2.896 255 255 255
0.097 0.113 1.106 255 255 255
0.554 -0.486 2.354 255 255 255
1.394 -1.404 2.489 255 255 255
-0.025 -0.745 1.973 255 255 255
-0.526 -1.176 1.623 0 0 0
-0.556 -1.076 1.644 0 0 0
0.972 -1.474 2.278 255 255 255
0.828 -0.736 2.395 255 255 255
-0.221 -0.476 1.972 255 255 255
0.366 -0.049 0.747 0 0 0
-0.131 0.273 1.375 0 0 0
0.015 0.04 1.097 255 255 255
0.073 0.206 1.11 255 255 255
1.391 -0.432 2.792 255 255 255
-1.438 -1.552 2.77 0 0 0
0.195 0.362 0.836 255 255 255
-0.387 0.669 1.465 0 0 0
0.067 0.03 1.13 255 255 255
0.279 0.016 0.964 255 255 255
0.29 0.16 0.93 255 255 255
-0.381 -0.296 1.957 255 255 255
0.212 -1.291 1.958 255 255 255
-0.105 0.628 1.561 255 255 255
-0.397 -0.635 1.841 255 255 255
0.315 -0.711 2.179 255 255 255
0.401 0.018 0.803 255 255 255
-0.602 -0.224 1.883 255 255 255
0.195 0.12 1.139 255 255 255
0.298 0.061 0.886 255 255 255
0.941 -0.186 1.392 255 255 255
-0.049 0.007 1.105 255 255 255
-1.987 -0.537 2.947 255 255 255
-0.487 0.649 1.528 255 255 255
0.255 -1.362 1.957 255 255 255
0.357 0.066 0.816 255 255 255
0.434 -0.276 2.365 255 255 255
-0.723 -1.079 1.552 255 255 255
0.334 0.219 0.866 255 255 255
-0.303 0.657 1.492 0 0 0
0.058 -0.115 1.162 255 255 255
0.739 -1.589 2.098 0 0 0
1.032 -1.285 2.369 255 255 255
0.072 -0.163 1.201 0 0 0
0.302 -0.617 2.201 255 255 255
-0.478 0.508 2.03 255 255 255
-0.712 0.519 1.994 255 255 255
0.114 0.336 0.95 255 255 255
-0.438 -0.464 1.88 255 255 255
0.357 -1.39 1.988 255 255 255
-0.395 0.691 1.41 255 255 255
1.541 -0.717 2.766 255 255 255
0.198 -1.29 1.949 255 255 255
-0.174 0.643 1.524 255 255 255
0.727 -0.89 2.31 255 255 255
-0.446 0.204 2.097 255 255 255
-0.094 0.485 2.007 255 255 255
0.171 0.276 0.899 255 255 255
0.392 -0.015 0.723 255 255 255
0.25 0.106 1.037 255 255 255
0.2 0.411 0.81 255 255 255
0.908 -0.17 1.253 0 0 0
-0.978 0.536 1.937 255 255 255
0.165 0.582 1.122 255 255 255
0.225 0.103 1.106 255 255 255
0.252 0.333 0.752 255 255 255
0.231 0.087 1.071 255 255 255
0.149 -1.404 1.899 0 0 0
-0.35 -0.678 1.852 255 255 255
1.649 -0.921 2.691 255 255 255
-1.657 -1.149 2.92 255 255 255
-0.684 0.085 1.933 255 255 255
0.004 0.177 1.118 255 255 255
0.631 -0.713 2.319 255 255 255
-0.208 0.63 1.568 255 255 255
0.269 -1.351 1.965 255 255 255
0.554 -0.364 2.389 255 255 255
-0.537 -0.467 1.84 255 255 255
0.404 -0.036 0.734 255 255 255
-0.386 0.08 2.082 255 255 255
1.164 -1.391 2.387 255 255 255
-0.066 -0.995 1.879 255 255 255
1.649 -0.751 2.765 255 255 255
-1.454 -1.355 2.805 0 0 0
0.637 -1.148 2.184 255 255 255
0.09 0.054 1.166 255 255 255
-0.077 0.197 1.364 255 255 255
-0.442 -0.068 2.006 255 255 255
-0.279 -0.96 1.8 255 255 255
-0.478 0.113 2.051 255 255 255
-0.203 0.576 1.717 255 255 255
0.355 -0.493 2.271 255 255 255
-0.261 0.624 1.586 255 255 255
-0.02 -0.073 1.121 255 255 255
-1.42 -1.553 2.779 0 0 0
0.414 -0.092 0.755 0 0 0
-0.239 -0.552 1.942 255 255 255
-0.207 -0.205 2.062 255 255 255
0.233 -0.082 1.206 255 255 255
-0.282 -0.927 1.807 255 255 255
0.363 0.043 0.608 255 255 255
-0.701 -0.509 1.737 255 255 255
0.002 0.113 1.082 255 255 255
0.338 0.261 0.7 255 255 255
0.754 -0.495 2.441 255 255 255
0.23 0.054 1.066 255 255 255
-0.74 -0.746 1.653 255 255 255
-0.093 0.073 1.167 255 255 255
0.088 -0.164 1.226 0 0 0
-0.202 0.679 1.425 255 255 255
0.041 0.085 1.086 255 255 255
-0.49 0.655 1.515 255 255 255
-0.259 -0.322 2.005 255 255 255
0.064 -1.141 1.942 255 255 255
-0.007 0.33 1.12 255 255 255
-0.442 0.554 1.845 255 255 255
-0.455 -0.71 1.798 255 255 255
0.418 -0.018 0.952 0 0 0
0.33 0.045 0.643 255 255 255
0.313 -1.422 1.961 0 0 0
0.265 -0.031 1.027 255 255 255
0.241 0.079 1.046 255 255 255
-0.55 0.517 2.004 255 255 255
-0.603 -0.684 1.744 255 255 255
1.139 -0.418 2.677 255 255 255
0.374 0.017 0.683 0 0 0
1.331 -0.801 2.641 255 255 255
0.254 0.354 0.732 255 255 255
-0.113 0.494 1.976 255 255 255
-0.193 -0.261 2.045 0 0 0
-0.703 0.013 1.903 255 255 255
-0.443 -0.332 1.92 255 255 255
-0.456 -0.385 1.899 255 255 255
-0.288 -0.382 1.971 255 255 255
0.116 -0.69 2.1 255 255 255
-0.328 0.653 1.504 255 255 255
0.676 -0.091 0.973 255 255 255
-0.543 0.704 1.382 255 255 255
-0.524 -0.648 1.786 255 255 255
-0.317 0.001 2.083 255 255 255
-0.411 -0.21 1.972 255 255 255
-0.021 0.23 1.126 255 255 255
0.245 0.233 0.964 255 255 255
-1.436 -1.292 2.835 0 0 0
0.025 -0.712 2.057 255 255 255
-0.566 -0.229 1.899 255 255 255
0.204 0.438 0.812 255 255 255
0.969 -0.36 2.626 255 255 255
-0.36 0.265 2.15 255 255 255
-0.727 -0.495 1.734 255 255 255
-0.249 0.634 1.548 255 255 255
-0.39 -0.18 1.992 255 255 255
0.444 -0.192 2.403 255 255 255
-0.604 -0.109 1.921 255 255 255
-0.029 0.653 1.487 0 0 0
0.078 0.021 1.157 255 255 255
0.331 0.093 0.803 255 255 255
1.434 -0.541 2.766 255 255 255
0.287 0.162 0.94 255 255 255
-0.351 0.674 1.45 0 0 0
0.522 -0.889 2.217 255 255 255
-0.109 0.684 1.407 255 255 255
-0.599 0.128 2.001 255 255 255
0.262 0.392 0.73 255 255 255
-0.422 -0.869 1.762 255 255 255
-0.492 -0.665 1.794 255 255 255
0.245 0.009 1.01 255 255 255
-0.417 -0.57 1.856 255 255 255
0.227 -1.402 1.932 0 0 0
0.918 -0.559 2.541 255 255 255
-0.312 -0.813 1.828 255 255 255
0.089 0.267 1.077 255 255 255
0.388 0.025 0.666 0 0 0
0.439 -0.05 0.954 255 255 255
0.198 0.258 0.952 255 255 255
0.29 -0.004 0.973 255 255 255
-0.168 0.616 1.601 255 255 255
0.159 -0.052 1.242 0 0 0
1.398 -0.479 2.773 255 255 255
-0.281 0.486 2.057 255 255 255
-0.273 0.594 1.674 255 255 255
-0.305 -0.667 1.875 255 255 255
0.241 0.181 1.055 0 0 0
1.474 -0.718 2.735 255 255 255
1.278 -1.013 2.563 255 255 255
-0.188 0.493 2.001 255 255 255
0.261 0.397 0.726 255 255 255
0.797 -0.563 2.432 255 255 255
1.434 -0.424 2.807 0 0 0
-0.202 0.498 1.985 255 255 255
-0.047 -0.128 1.171 255 255 255
0.98 -0.645 2.538 255 255 255
0.662 -0.257 2.479 255 255 255
-0.225 0.566 1.754 255 255 255
-0.441 -0.677 1.812 255 255 255
0.059 -0.65 2.09 255 255 255
0.412 -0.43 2.311 255 255 255
-0.363 -0.121 2.026 255 255 255
0.647 -1.362 2.123 255 255 255
1.03 -0.986 2.456 255 255 255
0.128 0.681 1.357 255 255 255
-0.032 0.645 1.509 255 255 255
0.303 0.128 0.863 255 255 255
0.407 -1.397 2.009 255 255 255
0.097 -0.104 1.215 0 0 0
-0.671 -0.621 1.733 255 255 255
-0.277 -0.235 2.023 255 255 255
0.428 -0.015 0.712 255 255 255
0.483 -1.356 2.055 255 255 255
-0.332 0.12 2.119 255 255 255
-0.727 0.489 2.056 255 255 255
-0.621 -0.62 1.754 255 255 255
0.19 -1.381 1.922 255 255 255
-1.395 -1.308 2.87 255 255 255
0.691 -0.25 2.508 255 255 255
-0.312 0.06 2.105 255 255 255
0.219 -0.896 2.083 255 255 255
0.13 -1.272 1.933 255 255 255
0.422 0.069 0.653 0 0 0
0.246 -0.018 1.014 255 255 255
0.539 -1.431 2.058 255 255 255
-0.258 0.679 1.428 255 255 255
0.029 0.267 1.098 255 255 255
-0.233 -0.772 1.874 255 255 255
0.117 0.319 0.964 255 255 255
-0.383 -0.168 1.999 255 255 255
0.365 0.146 0.686 255 255 255
0.423 0.059 0.633 0 0 0
-0.314 -0.09 2.057 255 255 255
-0.622 0.082 1.979 255 255 255
-0.426 -0.518 1.871 255 255 255
-0.427 -0.132 1.993 255 255 255
0.229 -1.201 1.99 255 255 255
-0.342 0.172 2.127 255 255 255
0.574 -1.499 2.051 0 0 0
0.482 -1.504 2.01 0 0 0
-0.355 0.504 2.014 255 255 255
-0.616 0.525 1.986 255 255 255
-0.618 0.192 2.019 255 255 255
0.339 0.193 0.815 255 255 255
0.218 0.358 0.8 255 255 255
-0.072 0.088 1.159 255 255 255
0.278 -0.387 2.265 255 255 255
0.244 0.08 1.038 255 255 255
-0.158 0.092 1.27 255 255 255
0.446 -0.52 2.298 255 255 255
1.699 -0.923 2.583 255 255 255
-0.222 0.504 1.976 255 255 255
0.663 -0.1 0.979 255 255 255
0.123 -0.422 2.187 255 255 255
0.509 -0.055 0.763 255 255 255
-0.014 -0.134 1.144 255 255 255
1.86 -0.844 2.708 255 255 255
0.34 0.263 0.7 255 255 255
-0.56 -0.891 1.699 0 0 0
-0.184 -0.989 1.835 255 255 255
-0.405 0.698 1.385 255 255 255
0.144 0.26 1.01 255 255 255
0.251 -0.927 2.084 0 0 0
-0.074 0.692 1.376 255 255 255
-0.391 -0.164 1.997 255 255 255
-0.003 -0.125 1.144 255 255 255
1.405 -1.163 2.564 255 255 255
1.461 -0.923 2.371 255 255 255
0.171 0.093 1.121 255 255 255
-0.287 -1.27 1.705 0 0 0
-0.24 0.668 1.459 0 0 0
-0.146 -0.509 1.993 255 255 255
1.513 -0.478 2.385 0 0 0
-0.422 -0.401 1.906 255 255 255
0.407 -0.003 0.703 255 255 255
0.334 -0.04 0.988 255 255 255
0.967 -1.275 2.34 255 255 255
-0.752 -0.876 1.61 255 255 255
-0.081 0.667 1.453 0 0 0
-0.206 0.706 1.352 255 255 255
-0.479 -0.357 1.898 255 255 255
-1.901 -0.663 2.957 255 255 255
0.28 0.167 0.986 255 255 255
-0.156 0.141 1.255 255 255 255
-0.398 -0.574 1.859 255 255 255
-0.088 0.583 1.689 255 255 255
0.024 -0.033 1.122 255 255 255
0.152 0.202 1.059 255 255 255
-0.021 -0.498 2.053 255 255 255
0.378 0.163 0.67 255 255 255
-0.71 -0.928 1.622 255 255 255
-0.606 -0.684 1.742 255 255 255
-0.013 -1.35 1.829 0 0 0
0.159 0.283 0.862 255 255 255
-1.394 -1.411 2.837 255 255 255
0.627 -0.419 2.409 255 255 255
0.354 -0.726 2.191 255 255 255
0.329 -0.015 0.943 255 255 255
0.102 -0.955 2.013 255 255 255
-0.122 -0.678 1.955 255 255 255
-0.592 0.565 1.827 255 255 255
-0.555 -0.558 1.803 255 255 255
0.271 0.282 0.826 255 255 255
-0.168 -0.75 1.912 255 255 255
-0.624 0.14 1.998 255 255 255
0.723 -0.772 2.341 255 255 255
0.198 -0.629 2.152 255 255 255
0.854 -1.353 2.243 255 255 255
0.821 -0.497 2.465 255 255 255
-0.445 0.092 2.06 255 255 255
-0.582 0.066 1.989 255 255 255
0.4 -1.501 1.974 0 0 0
-0.931 0.2 2.196 255 255 255
-0.657 0.065 1.956 255 255 255
-0.844 0.603 1.735 255 255 255
0.196 0.447 0.831 255 255 255
0.313 0.19 0.907 255 255 255
-0.477 0.495 2.068 255 255 255
0.327 0.266 0.714 0 0 0
0.151 -0.042 1.242 0 0 0
0.292 0.308 0.938 255 255 255
0.257 0.34 0.737 255 255 255
-2.191 -0.446 2.891 255 255 255
-0.119 0.156 1.23 255 255 255
0.527 -0.277 2.411 0 0 0
1.86 -0.771 2.709 255 255 255
-0.139 0.641 1.53 255 255 255
0.367 -0.555 2.25 255 255 255
-0.221 -0.292 2.029 255 255 255
-0.268 -1.274 1.713 0 0 0
0.16 0.187 1.071 255 255 255
-0.406 -0.333 1.933 255 255 255
-0.318 0.53 1.907 255 255 255
0.058 0.309 1.106 255 255 255
0.318 0.197 0.902 255 255 255
0.296 0.09 0.851 255 255 255
-0.744 0.625 1.635 255 255 255
-0.056 0.704 1.346 255 255 255
0.246 0.224 0.969 255 255 255
-0.868 0.524 1.974 255 255 255
-0.593 0.021 1.971 255 255 255
1.274 -1.039 2.548 255 255 255
0.253 -0.059 1.127 255 255 255
-0.603 -1.158 1.602 0 0 0
-0.345 0.068 2.093 255 255 255
0.096 -0.453 2.167 255 255 255
-0.126 -0.602 1.974 255 255 255
-0.387 0.554 1.826 255 255 255
-0.417 0.322 2.14 255 255 255
-0.095 -0.531 2.012 255 255 255
-1.499 0.38 2.506 255 255 255
0.06 -0.491 2.136 255 255 255
-0.268 0.516 1.952 255 255 255
-0.084 0.077 1.163 255 255 255
-0.553 0.25 2.066 255 255 255
-0.489 0.646 1.539 255 255 255
-0.426 0.205 2.106 255 255 255
0.447 -0.009 0.714 255 255 255
-1.814 -1.15 2.839 255 255 255
0.38 0.092 0.683 255 255 255
-0.914 0.274 2.239 255 255 255
0.398 0.051 0.655 255 255 255
-0.777 -0.521 1.747 255 255 255
0.086 0.404 1.191 255 255 255
0.468 -0.078 0.761 255 255 255
0.325 0.244 0.761 255 255 255
1.609 -0.794 2.768 0 0 0
-0.315 -0.534 1.916 255 255 255
0.022 0.648 1.484 255 255 255
-0.694 -0.842 1.655 255 255 255
1.83 -0.689 2.765 255 255 255
-0.071 0.247 1.346 255 255 255
0.264 0.018 0.975 255 255 255
-0.536 0.322 2.096 255 255 255
0.376 0.171 0.676 255 255 255
-1.83 -0.942 2.9 255 255 255
-0.518 0.083 2.021 255 255 255
0.141 0.254 1.02 255 255 255
-0.042 0.037 1.095 255 255 255
-0.553 0.402 2.098 255 255 255
-0.696 0.21 1.973 255 255 255
-0.636 -0.484 1.791 255 255 255
0.055 -0.85 2.028 255 255 255
-0.646 -0.877 1.668 255 255 255
0.773 -0.383 2.482 255 255 255
0.029 -0.022 1.124 255 255 255
-0.694 -1.185 1.551 0 0 0
0.319 0.158 0.843 255 255 255
0.034 -0.452 2.139 255 255 255
0.155 0.16 1.084 255 255 255
-0.45 -0.015 2.023 255 255 255
0.414 -0.534 2.278 255 255 255
0.347 0.244 0.731 0 0 0
0.976 -0.408 2.607 255 255 255
0.342 0.102 0.775 255 255 255
0.215 -0.817 2.106 255 255 255
0.993 -1.141 2.39 255 255 255
-0.947 0.518 2.001 255 255 255
0.016 -0.196 1.167 0 0 0
0.313 -0.205 2.334 255 255 255
0.614 -0.676 2.32 255 255 255
1.194 -1.221 2.459 255 255 255
0.323 -1.114 2.058 255 255 255
0.393 0.024 0.654 0 0 0
-0.672 0.622 1.635 255 255 255
-0.199 -0.928 1.844 255 255 255
0.342 -0.084 1.152 255 255 255
-0.93 0.249 2.217 255 255 255
-0.395 0.709 1.365 255 255 255
-0.219 0.627 1.577 255 255 255
1.35 -1.081 2.571 255 255 255
0.204 0.391 0.809 255 255 255
0.38 0.215 0.717 255 255 255
0.899 -1.675 2.193 0 0 0
-0.177 -0.651 1.938 255 255 255
0.823 -1.236 2.238 255 255 255
0.732 -0.677 2.375 255 255 255
0.103 0.005 1.212 255 255 255
0.251 -0.301 2.279 255 255 255
-0.54 0.07 2.009 255 255 255
-0.118 -1.211 1.793 255 255 255
1.261 -0.396 2.737 255 255 255
0.511 -0.015 0.744 255 255 255
-0.057 0.689 1.384 255 255 255
0.187 -0.873 2.077 255 255 255
-0.559 -0.157 1.924 255 255 255
-0.06 0.542 1.824 0 0 0
0.016 -0.109 1.143 255 255 255
0.976 -0.35 2.629 255 255 255
0.264 0.255 0.964 255 255 255
0.217 -0.624 2.166 255 255 255
-0.532 0.029 1.996 255 255 255
0.034 0.05 1.092 255 255 255
0.033 -0.033 1.121 255 255 255
-0.43 -0.727 1.802 255 255 255
0.394 0.003 0.703 255 255 255
-0.71 -0.541 1.723 255 255 255
0.1 -0.53 2.149 0 0 0
0.238 0.354 0.752 255 255 255
-0.091 -0.004 1.174 255 255 255
-0.722 -0.232 1.82 255 255 255
0.066 0.422 1.281 255 255 255
0.493 -0.695 2.263 255 255 255
-0.607 -0.609 1.763 255 255 255
0.678 -0.336 2.454 255 255 255
-0.146 -1.125 1.81 255 255 255
-0.607 -0.632 1.757 255 255 255
0.135 0.371 0.862 255 255 255
0.885 -1.685 2.18 255 255 255
0.015 0.602 1.489 255 255 255
-0.584 0.508 2.032 0 0 0
0.174 -0.021 1.191 0 0 0
-0.157 -0.728 1.924 255 255 255
0.367 0.181 0.727 255 255 255
-0.543 -0.473 1.831 255 255 255
0.161 0.358 0.841 255 255 255
0.292 -1.163 2.042 255 255 255
-0.54 -0.592 1.798 255 255 255
0.149 -0.021 1.222 255 255 255
-0.06 0.254 1.354 255 255 255
0.265 0.06 0.941 255 255 255
-1.59 -1.481 2.845 255 255 255
-0.562 0.303 2.078 255 255 255
-0.044 -0.2 1.203 0 0 0
-0.082 -0.867 1.916 255 255 255
-0.453 -0.068 1.999 255 255 255
0.186 0.289 0.846 255 255 255
0.402 -0.043 0.74 255 255 255
-0.087 0.709 1.34 255 255 255
-0.313 -0.454 1.939 255 255 255
-1.257 0.308 2.606 255 255 255
-0.44 0.561 1.815 255 255 255
0.247 0.335 0.763 255 255 255
0.256 -0.986 2.069 255 255 255
-0.293 0.673 1.448 0 0 0
0.238 0.337 0.774 255 255 255
0.569 -1.029 2.191 255 255 255
0.091 -0.167 1.23 0 0 0
0.432 -0.613 2.262 255 255 255
0.361 0.039 0.787 255 255 255
-1.751 -0.813 2.973 255 255 255
-0.756 0.503 2.03 255 255 255
-0.011 0.131 1.107 255 255 255
0.071 0.683 1.384 255 255 255
-0.572 -1.126 1.621 255 255 255
0.082 0.005 1.181 255 255 255
0.477 -0.041 0.747 255 255 255
0.443 -0.049 0.75 255 255 255
0.092 0.374 1.118 255 255 255
0.128 0.229 1.035 255 255 255
0.739 -1.319 2.177 255 255 255
-1.683 -0.892 2.981 255 255 255
-0.79 0.55 1.893 255 255 255
0.157 -1.248 1.955 255 255 255
0.254 0.191 1.061 0 0 0
-0.749 0.408 2.064 255 255 255
-0.248 0.667 1.465 0 0 0
0.266 0.056 0.944 255 255 255
1.008 -1.216 2.376 255 255 255
-0.227 0.697 1.38 255 255 255
0.688 -1.063 2.232 255 255 255
0.335 0.278 0.705 255 255 255
0.383 -0.045 1.036 255 255 255
0.49 -0.47 2.331 255 255 255
0.32 0.203 0.902 255 255 255
1.552 -1.094 2.648 255 255 255
-0.723 -1.027 1.574 255 255 255
1.03 -0.541 2.591 255 255 255
0.744 -0.708 2.373 255 255 255
0.926 -1.104 2.376 255 255 255
1.621 -0.887 2.743 255 255 255
-0.556 -0.826 1.72 0 0 0
-0.863 0.435 2.238 0 0 0
0.042 -0.004 1.11 255 255 255
-0.521 -0.404 1.865 255 255 255
-0.291 0.563 1.775 255 255 255
0.358 -0.793 2.172 255 255 255
0.202 0.112 1.154 0 0 0
1.178 -1.605 2.335 255 255 255
0.065 0.656 1.468 255 255 255
0.253 -0.667 2.166 255 255 255
-0.226 -0.817 1.865 255 255 255
0.133 0.281 0.913 255 255 255
-0.305 -0.94 1.794 255 255 255
-0.367 -0.903 1.775 255 255 255
0.321 0.277 0.931 255 255 255
0.561 -1.213 2.137 255 255 255
0.29 0.22 0.971 255 255 255
0.255 0.075 0.989 255 255 255
-0.305 0.536 1.872 255 255 255
0.324 0.273 0.926 255 255 255
0.69 -0.337 2.46 255 255 255
0.496 -0.81 2.229 255 255 255
-0.815 0.618 1.677 255 255 255
0.469 -0.449 2.328 255 255 255
-0.15 0.477 2.045 255 255 255
-0.043 0.679 1.42 255 255 255
0.391 0.142 0.662 255 255 255
-0.121 -0.744 1.933 255 255 255
-0.557 0.223 2.049 255 255 255
-0.648 -0.841 1.675 255 255 255
0.28 0.149 0.951 255 255 255
0.184 -0.322 2.241 255 255 255
-0.747 -0.83 1.623 255 255 255
1.181 -0.9 2.548 255 255 255
-0.743 0.549 1.899 255 255 255
-0.467 0.582 1.748 255 255 255
-1.672 -1.278 2.867 255 255 255
0.262 -1.139 2.031 255 255 255
-1.167 0.26 2.664 0 0 0
-0.304 0.598 1.67 255 255 255
-0.432 0.731 1.305 255 255 255
-0.283 -0.674 1.883 255 255 255
0.133 0.125 1.112 255 255 255
0.332 -0.033 0.958 255 255 255
0.339 -0.306 2.315 255 255 255
-0.582 0.343 2.082 255 255 255
0.042 -0.02 1.119 255 255 255
-0.325 0.239 2.153 255 255 255
0.541 -0.55 2.329 255 255 255
0.22 -0.814 2.11 255 255 255
-0.296 0.164 2.14 255 255 255
0.225 -0.74 2.131 255 255 255
-0.505 -0.554 1.826 255 255 255
-0.568 -0.589 1.785 255 255 255
-0.312 0.596 1.675 255 255 255
-1.592 -1.103 2.959 255 255 255
-0.037 0.04 1.096 255 255 255
0.177 -1.398 1.913 0 0 0
0.332 0.247 0.743 255 255 255
-0.316 -1.169 1.722 255 255 255
-0.228 -1.182 1.758 255 255 255
-0.654 -0.339 1.827 255 255 255
0.444 -0.197 2.399 255 255 255
-0.429 -0.428 1.898 255 255 255
-1.623 -0.966 2.988 255 255 255
-0.199 -0.714 1.907 255 255 255
0.252 0.166 1.068 255 255 255
-0.457 -1.05 1.693 255 255 255
-0.212 -0.574 1.946 255 255 255
-0.321 -0.819 1.81 255 255 255
0.218 0.221 0.977 255 255 255
0.294 -1.03 2.071 255 255 255
-0.293 0.703 1.37 255 255 255
-0.596 -0.628 1.76 255 255 255
-0.47 -0.637 1.811 0 0 0
0.04 0.503 1.394 255 255 255
0.255 -0.542 2.207 255 255 255
0.133 0.305 0.906 255 255 255
-0.603 -1.095 1.617 255 255 255
0.41 -0.025 0.721 0 0 0
0.848 -1.58 2.179 0 0 0
0.361 -1.354 2.005 255 255 255
-0.294 -0.926 1.804 255 255 255
-0.564 0.205 2.044 255 255 255
-0.81 0.468 2.13 255 255 255
0.122 -0.069 1.247 255 255 255
-0.628 -0.653 1.743 255 255 255
0.54 -0.739 2.268 255 255 255
-0.47 -0.75 1.78 255 255 255
-1.281 0.438 2.275 255 255 255
0.486 -0.58 2.298 255 255 255
-1.394 -1.282 2.877 255 255 255
-0.066 -1.155 1.829 255 255 255
0.148 -0.098 1.258 0 0 0
0.385 -1.294 2.036 255 255 255
-0.746 -0.255 1.815 255 255 255
1.157 -1.611 2.328 255 255 255
0.271 -0.068 1.124 255 255 255
-0.345 -0.356 1.954 255 255 255
-0.665 -1.101 1.588 255 255 255
0.178 -0.026 1.186 0 0 0
-0.367 -0.518 1.896 255 255 255
-0.683 -0.734 1.692 255 255 255
-0.589 -0.345 1.854 255 255 255
1.151 -0.529 2.647 255 255 255
-0.095 -0.511 2.019 255 255 255
-0.747 0.637 1.601 255 255 255
0.598 -1.124 2.176 255 255 255
-0.652 -0.893 1.656 255 255 255
-0.619 0.029 1.959 255 255 255
0.33 0.032 0.838 255 255 255
0.23 -1.221 1.987 255 255 255
0.411 -1.364 2.022 255 255 255
-0.179 0.682 1.412 255 255 255
0.111 -0.871 2.041 255 255 255
1.151 -1.406 2.382 255 255 255
-0.078 -0.759 1.949 255 255 255
-0.583 -0.563 1.787 255 255 255
-0.571 -0.342 1.862 255 255 255
0.333 0.231 0.893 255 255 255
-0.195 -0.896 1.854 255 255 255
0.409 -0.035 1.008 255 255 255
-0.503 0.668 1.482 0 0 0
0.31 -1.166 2.045 255 255 255
1.354 -1.44 2.463 255 255 255
0.061 0.431 1.297 255 255 255
-1.897 -0.979 2.852 255 255 255
-0.72 -0.483 1.738 255 255 255
0.653 -1.325 2.142 255 255 255
-0.451 0.713 1.348 255 255 255
0.357 -1.41 1.982 255 255 255
-0.033 -0.984 1.895 255 255 255
-0.714 -0.742 1.661 255 255 255
0.509 -0.678 2.273 255 255 255
-0.574 -0.156 1.918 255 255 255
0.009 -0.159 1.154 255 255 255
0.198 0.426 0.823 255 255 255
0.613 -0.578 2.353 255 255 255
-0.532 -0.138 1.945 255 255 255
0.204 0.081 1.113 0 0 0
-1.8 -0.884 2.931 255 255 255
0.051 -0.458 2.147 255 255 255
-0.229 -0.437 1.981 255 255 255
-2.029 -0.623 2.908 255 255 255
1.261 -0.952 2.571 255 255 255
-0.379 0.725 1.318 255 255 255
0.373 0.1 0.67 255 255 255
0.004 -0.193 1.162 0 0 0
0.225 0.376 0.787 255 255 255
-0.619 -0.102 1.917 255 255 255
-1.76 -0.781 2.981 255 255 255
-0.094 -1.013 1.866 255 255 255
-0.063 0.715 1.315 255 255 255
-0.924 0.536 1.936 255 255 255
-0.11 0.466 2.074 255 255 255
-0.03 0.207 1.145 255 255 255
0.325 0.279 0.923 255 255 255
0.579 -0.703 2.296 255 255 255
-0.107 0.281 1.388 0 0 0
-0.129 0.604 1.629 255 255 255
-0.743 -0.24 1.818 255 255 255
0.763 -0.911 2.317 255 255 255
-1.27 0.296 2.703 255 255 255
0.344 0.26 0.836 255 255 255
-0.9 0.571 1.826 255 255 255
0.346 0.153 0.75 255 255 255
0.214 0.081 1.109 0 0 0
-0.825 0.478 2.104 255 255 255
-0.62 -0.765 1.713 255 255 255
-0.371 0.163 2.116 255 255 255
-0.255 -1.15 1.755 255 255 255
-0.129 -0.77 1.92 255 255 255
0.695 -0.963 2.267 255 255 255
-0.747 -0.834 1.623 255 255 255
0.42 -0.036 0.947 255 255 255
-0.228 0.476 2.074 255 255 255
0.729 -0.315 2.485 255 255 255
0.206 0.049 1.091 0 0 0
0.878 -0.763 2.44 255 255 255
-0.349 0.137 2.117 255 255 255
-0.282 -0.094 2.067 255 255 255
0.173 0.086 1.125 255 255 255
0.323 0.079 0.822 255 255 255
-1.889 -0.688 2.948 255 255 255
0.341 -1.376 1.986 255 255 255
0.107 0.388 0.945 255 255 255
-0.725 -0.038 1.88 255 255 255
-0.37 0.018 2.067 255 255 255
0.269 -0.588 2.2 255 255 255
-0.143 0.619 1.592 255 255 255
0.357 0.141 0.701 255 255 255
0.025 -0.654 2.074 255 255 255
0.457 -1.338 2.049 255 255 255
-0.536 -0.81 1.727 255 255 255
-0.723 -0.494 1.734 255 255 255
0.392 -0.166 2.384 255 255 255
-0.018 -0.078 1.122 255 255 255
-0.355 0.685 1.418 255 255 255
-1.373 0.424 2.352 255 255 255
-0.547 0.692 1.418 255 255 255
0.569 -0.313 2.413 255 255 255
-0.029 0.061 1.093 255 255 255
-0.183 -0.44 2 255 255 255
-1.706 -0.814 2.994 255 255 255
0.099 0.416 1.076 255 255 255
0.063 -0.134 1.183 255 255 255
0.328 0.032 0.882 255 255 255
-0.507 0.348 2.1 255 255 255
-0.756 0.593 1.743 255 255 255
-0.389 0.429 2.169 255 255 255
0.287 -0.012 0.983 255 255 255
-0.685 0.543 1.923 255 255 255
-0.488 0.23 2.086 255 255 255
1.311 -0.674 2.677 0 0 0
0.321 -0.399 2.278 255 255 255
-0.157 0.513 1.92 255 255 255
1.322 -0.39 2.767 255 255 255
1.314 -1.077 2.553 255 255 255
0.084 0.478 1.111 255 255 255
0.078 -0.518 2.153 0 0 0
-0.353 -0.788 1.817 0 0 0
0.465 -0.554 2.293 255 255 255
0.071 -0.196 1.225 0 0 0
0.485 -1.423 2.037 255 255 255
0.038 -0.478 2.136 255 255 255
0.492 -0.13 1.275 255 255 255
-0.592 0.603 1.691 255 255 255
0.161 -0.693 2.12 255 255 255
-0.176 -0.769 1.904 255 255 255
0.428 0.014 0.613 0 0 0
0.125 -0.1 1.254 0 0 0
-0.329 -0.178 2.019 255 255 255
-2.13 -0.643 2.858 255 255 255
-0.647 -1.096 1.6 255 255 255
-0.54 0.075 2.01 255 255 255
-0.539 0.009 1.989 255 255 255
-0.263 -0.334 2 255 255 255
-1.914 -0.609 2.958 255 255 255
-0.134 -1.14 1.811 255 255 255
-1.45 -1.706 2.704 255 255 255
-0.106 -1.179 1.808 255 255 255
-0.563 -0.515 1.808 255 255 255
-0.434 0.657 1.497 0 0 0
0.299 0.179 0.935 255 255 255
0.379 -0.758 2.196 255 255 255
-0.938 0.381 2.275 255 255 255
-0.326 -0.272 1.99 255 255 255
-0.294 0.677 1.434 255 255 255
-0.287 -0.07 2.076 255 255 255
-1.742 -1.055 2.907 255 255 255
0.481 -1.181 2.112 255 255 255
-0.371 -0.196 1.997 255 255 255
0.261 -0.048 1.093 255 255 255
-0.287 -0.658 1.886 255 255 255
-0.658 -1.111 1.59 255 255 255
1.201 -0.496 2.679 255 255 255
-0.739 -0.978 1.581 255 255 255
-2.192 -0.093 2.925 255 255 255
0.284 0.146 0.93 255 255 255
-0.093 -0.912 1.892 255 255 255
-0.565 0.695 1.411 255 255 255
0.893 -0.698 2.481 255 255 255
0.778 -1.637 2.099 255 255 255
0.159 0.117 1.117 255 255 255
0.347 -0.993 2.108 255 255 255
-1.705 -0.95 2.952 255 255 255
-0.37 0.688 1.415 255 255 255
0.305 0.062 0.874 255 255 255
-0.257 0.649 1.512 255 255 255
-0.491 0.391 2.122 255 255 255
-2.137 -0.345 2.939 255 255 255
0.448 -0.051 0.751 255 255 255
-0.393 0.567 1.776 255 255 255
-0.54 -0.972 1.687 255 255 255
-0.088 -0.148 1.222 0 0 0
0.87 -0.264 2.567 255 255 255
-1.436 -1.183 2.866 0 0 0
1.136 -1.644 2.307 255 255 255
0.209 -0.022 1.144 255 255 255
-0.644 -0.997 1.632 255 255 255
-0.652 0.513 2.02 255 255 255
-0.378 -0.793 1.805 0 0 0
0.285 0.029 0.941 255 255 255
-0.173 0.66 1.479 0 0 0
-0.038 -0.06 1.123 255 255 255
0.447 -0.651 2.257 255 255 255
0.227 0.181 1.084 0 0 0
-1.504 -0.898 2.982 255 255 255
-0.652 0.438 2.061 255 255 255
-0.629 -1.176 1.584 0 0 0
-0.476 -0.33 1.905 255 255 255
-0.296 0.06 2.11 255 255 255
-0.336 -1.021 1.758 255 255 255
0.031 -0.062 1.131 255 255 255
0.284 0.086 0.88 255 255 255
0.106 0.401 0.995 255 255 255
0.749 -0.927 2.303 255 255 255
-0.756 0.514 2.001 255 255 255
0.127 -1.392 1.892 0 0 0
0.368 0.194 0.732 255 255 255
0.138 -0.027 1.234 255 255 255
0.745 -1.28 2.192 255 255 255
-0.377 0.215 2.126 255 255 255
-0.04 0.68 1.416 255 255 255
0.355 0.079 0.785 255 255 255
0.257 0.104 0.996 255 255 255
0.03 -1.367 1.86 0 0 0
0.309 -0.762 2.158 255 255 255
1.41 -0.374 2.807 0 0 0
-0.646 -0.272 1.849 255 255 255
-0.062 0.023 1.142 255 255 255
0.74 -0.669 2.383 255 255 255
0.637 -1.114 2.195 255 255 255
-0.357 -0.661 1.851 255 255 255
-0.644 -0.302 1.84 255 255 255
-0.106 -0.557 1.997 255 255 255
-1.391 -1.356 2.864 255 255 255
0.202 0.001 1.119 255 255 255
-1.885 -0.682 2.956 255 255 255
-0.126 -0.697 1.947 255 255 255
-0.071 0.178 1.303 255 255 255
-0.357 -0.681 1.847 255 255 255
-0.511 0.463 2.123 255 255 255
0.357 0.023 0.707 0 0 0
0.396 -0.088 0.758 255 255 255
-0.51 -0.698 1.779 255 255 255
0.056 0.678 1.397 255 255 255
-0.106 -0.601 1.985 255 255 255
-0.653 0.498 2.053 255 255 255
0.388 0.091 0.671 255 255 255
-0.751 -0.608 1.697 255 255 255
0.146 0.365 0.851 255 255 255
-0.612 -0.459 1.808 255 255 255
-0.005 -0.419 2.065 255 255 255
-0.733 0.646 1.566 255 255 255
0.182 0.123 1.105 255 255 255
0.627 -0.533 2.376 255 255 255
0.964 -1.373 2.311 255 255 255
-0.484 -0.692 1.79 255 255 255
0.492 -0.289 2.386 255 255 255
0.376 0.25 0.74 255 255 255
-0.617 -0.848 1.689 255 255 255
1.581 -0.698 2.496 0 0 0
0.05 0.645 1.491 255 255 255
0.259 -0.608 2.188 255 255 255
-0.982 0.391 2.264 255 255 255
0.291 0.19 0.977 255 255 255
0.341 -1.351 1.994 255 255 255
-0.654 0.648 1.552 255 255 255
-0.7 -0.265 1.813 255 255 255
-0.031 0.675 1.434 255 255 255
-0.605 -0.094 1.925 255 255 255
-0.627 0.389 2.059 255 255 255
0.394 -1.446 1.994 0 0 0
-0.609 -0.007 1.952 255 255 255
0.072 0.358 1.215 255 255 255
0.377 0.13 0.693 255 255 255
0.171 -1.251 1.959 255 255 255
-0.511 -0.239 1.922 255 255 255
-1.471 -1.081 2.886 255 255 255
0.121 0.203 1.055 255 255 255
-0.759 -1.04 1.554 255 255 255
-0.523 -0.039 1.979 255 255 255
1.626 -0.759 2.778 255 255 255
0.288 0.327 0.72 255 255 255
0.386 -0.075 0.756 255 255 255
-0.658 -0.398 1.807 255 255 255
-1.549 0.313 2.669 255 255 255
0.449 -1.121 2.117 255 255 255
0.105 0.25 1.034 255 255 255
1.013 -0.676 2.541 255 255 255
0.051 -1.082 1.957 255 255 255
0.323 -0.577 2.227 255 255 255
0.502 -0.035 0.746 255 255 255
1.552 -1.281 2.607 255 255 255
-0.26 -0.887 1.83 255 255 255
0.18 0.413 0.883 255 255 255
-1.02 0.397 2.262 255 255 255
0.152 0.089 1.137 255 255 255
0.125 -1.086 1.991 255 255 255
0.751 -0.372 2.481 255 255 255
-0.604 -0.341 1.85 255 255 255
-0.312 -0.531 1.918 255 255 255
-0.355 -0.121 2.028 255 255 255
-1.895 -0.657 2.963 255 255 255
-0.094 -0.007 1.179 255 255 255
-0.946 0.363 2.352 0 0 0
-0.331 -0.745 1.841 255 255 255
-1.656 -1.141 2.92 255 255 255
0.102 0.306 1.021 255 255 255
1.004 -0.906 2.469 255 255 255
0.164 0.078 1.14 255 255 255
0.044 -0.16 1.16 0 0 0
0.116 0.489 1.069 255 255 255
0.753 -0.327 2.493 255 255 255
-1.043 0.481 2.126 255 255 255
-0.29 -0.859 1.824 255 255 255
-0.057 -0.893 1.912 255 255 255
-0.277 0.473 2.096 255 255 255
-0.109 0.649 1.508 255 255 255
0.276 -0.271 2.298 255 255 255
-0.204 0.61 1.622 255 255 255
1.153 -0.829 2.556 255 255 255
0.358 -1.462 1.969 0 0 0
0.275 -0.089 1.191 255 255 255
0.135 0.001 1.207 255 255 255
0.058 -0.033 1.125 255 255 255
0.211 0.214 1.005 255 255 255
0.182 0.32 0.838 255 255 255
-0.655 0.178 1.996 255 255 255
0.043 0.504 1.389 255 255 255
0.223 0.232 0.968 255 255 255
-0.483 -1.139 1.644 255 255 255
-0.734 -0.32 1.787 255 255 255
-0.604 -1.171 1.598 0 0 0
-0.013 -1.065 1.892 255 255 255
0.054 0.068 1.098 255 255 255
1.615 -1.173 2.62 255 255 255
0.445 -0.082 1.058 255 255 255
-1.721 -1.094 2.904 255 255 255
1.183 -0.862 2.56 255 255 255
0.369 0.248 0.742 255 255 255
-0.252 -0.497 1.954 255 255 255
-0.849 0.423 2.258 0 0 0
-1.666 -1.371 2.843 255 255 255
-0.608 -0.573 1.774 255 255 255
0.282 0.031 0.946 255 255 255
0.267 0.322 0.763 255 255 255
-0.277 -0.356 1.983 255 255 255
-1.425 0.363 2.532 255 255 255
-1.998 -0.726 2.885 255 255 255
0.887 -1.168 2.343 255 255 255
1.104 -1.373 2.369 255 255 255
-0.439 -0.572 1.845 255 255 255
-1.867 -0.968 2.874 255 255 255
0.338 -0.767 2.17 255 255 255
0.165 -0.724 2.114 255 255 255
1.013 -0.342 2.648 255 255 255
0.431 0.016 0.625 0 0 0
-1.077 0.461 2.187 255 255 255
0.532 -1.049 2.169 255 255 255
-0.544 -1.135 1.633 0 0 0
1.528 -1.023 2.427 255 255 255
-0.299 0.568 1.754 255 255 255
-0.381 -1.1 1.708 0 0 0
-0.713 0.319 2.01 255 255 255
0.201 0.357 0.814 255 255 255
-0.345 0.706 1.368 255 255 255
0.374 0.036 0.586 255 255 255
