ply
format ascii 1.0
comment Created by Open3D
element vertex 1586
property double x
property double y
property double z
property uchar red
property uchar green
property uchar blue
end_header
0.188 0.343 0.915 255 255 255
-0.276 -0.946 1.782 255 255 255
-0.648 -1.225 1.555 255 255 255
-2.045 -0.724 2.89 255 255 255
0.347 0.073 0.921 255 255 255
0.309 0.238 0.954 255 255 255
-0.409 0.375 2.119 255 255 255
-0.292 -0.211 1.988 255 255 255
-0.539 0.748 1.355 255 255 255
0.395 0.228 0.861 255 255 255
1.097 -1.442 2.244 255 255 255
-0.715 0.669 1.623 255 255 255
-0.001 -1.013 1.868 255 255 255
1.151 -1.144 2.351 255 255 255
0.817 -0.723 2.298 255 255 255
-0.641 -0.789 1.683 255 255 255
-0.632 -0.381 1.807 255 255 255
-0.253 -0.737 1.849 255 255 255
0.855 -1.25 2.165 255 255 255
-0.44 0.488 2.123 255 255 255
1.181 -1.121 2.372 255 255 255
0.213 -0.077 1.251 0 0 0
0.303 0.374 0.731 255 255 255
-0.005 -0.967 1.882 255 255 255
-0.191 0.687 1.49 0 0 0
0.448 -1.384 1.976 255 255 255
0.169 0.346 1.064 255 255 255
1.215 -0.565 2.545 255 255 255
-1.282 -1.985 2.718 0 0 0
-0.063 0.213 1.244 255 255 255
0.418 0.274 0.857 255 255 255
0.32 0.005 1.056 255 255 255
-0.478 -1.041 1.682 255 255 255
0.369 -0.617 2.161 255 255 255
0.061 0.251 1.125 255 255 255
0.211 0.26 1.017 255 255 255
-0.164 -0.159 2.051 255 255 255
-1.27 -1.852 2.764 0 0 0
1.64 -0.785 2.639 255 255 255
-0.506 -0.221 1.904 255 255 255
-0.462 -0.391 1.873 255 255 255
1.137 -0.465 2.538 255 255 255
-0.248 -0.436 1.937 255 255 255
-0.269 0.534 2.058 255 255 255
0.3 0.259 0.948 255 255 255
0.484 0.004 0.884 255 255 255
0.559 -0.512 2.264 255 255 255
0.371 -0.33 2.246 255 255 255
-1.511 -1.174 2.982 255 255 255
0.26 -0.365 2.19 255 255 255
-0.44 -1.16 1.661 255 255 255
1.577 -0.956 2.57 255 255 255
0.217 0.297 0.86 255 255 255
-0.152 0.035 2.113 255 255 255
0.193 -0.101 1.237 0 0 0
-1.342 0.36 2.737 255 255 255
0.036 -1.038 1.878 255 255 255
-1.825 -0.973 2.913 255 255 255
0.016 -0.706 1.963 255 255 255
0.365 0.122 0.832 255 255 255
-0.369 -0.304 1.932 255 255 255
0.553 -1.444 2.002 0 0 0
0.919 -0.281 2.466 255 255 255
-0.142 0.155 2.153 255 255 255
0.016 -0.006 1.168 255 255 255
0.04 -1.097 1.86 255 255 255
-0.005 -0.615 1.978 255 255 255
0.365 0.011 0.966 255 255 255
-0.321 -0.893 1.761 255 255 255
-1.825 -0.87 2.949 255 255 255
0.371 0.172 0.859 255 255 255
-0.136 -0.595 1.937 255 255 255
-0.324 -0.068 2.019 255 255 255
-0.506 0.714 1.444 255 255 255
-0.31 -1.147 1.721 255 255 255
-0.071 0.608 1.717 255 255 255
-0.676 0.563 1.987 255 255 255
-0.219 0.54 2.017 255 255 255
0.21 -1.388 1.89 0 0 0
0.047 0.631 1.637 255 255 255
-0.141 0.577 1.845 255 255 255
0.098 0.553 1.432 255 255 255
0.046 -0.015 1.118 255 255 255
0.036 -1.013 1.877 255 255 255
-0.253 0.721 1.397 255 255 255
0.144 -0.103 1.178 255 255 255
-0.165 -0.355 1.99 255 255 255
0.487 -1.357 2 255 255 255
0.287 -0.878 2.059 255 255 255
0.371 0.117 0.814 255 255 255
-0.626 -1.234 1.558 255 255 255
0.291 -0.051 1.209 255 255 255
-0.008 -0.102 1.229 0 0 0
0.356 0.3 0.757 255 255 255
0.371 0.23 0.939 255 255 255
-0.287 -0.778 1.83 0 0 0
-0.025 0.227 1.241 255 255 255
0.369 0.16 0.851 255 255 255
1.647 -0.693 2.669 255 255 255
0.882 -1.035 2.237 255 255 255
-0.132 -1.021 1.818 255 255 255
-0.457 -0.623 1.808 255 255 255
0.216 -0.07 1.254 0 0 0
-0.781 0.086 1.138 255 255 255
-0.542 -0.939 1.692 255 255 255
0.352 0.207 0.994 255 255 255
0.193 -0.525 2.122 255 255 255
0.202 0.54 1.072 255 255 255
0.704 -0.785 2.239 255 255 255
-0.355 0.541 2.057 255 255 255
1.586 -0.999 2.562 255 255 255
-1.213 0.442 2.461 255 255 255
-0.801 0.242 2.228 255 255 255
-1.868 -0.855 2.926 255 255 255
0.266 0.028 1.145 0 0 0
-1.266 -1.703 2.816 0 0 0
1.258 -1.18 2.386 255 255 255
-0.538 -0.54 1.801 255 255 255
-0.405 0.646 1.643 255 255 255
1.229 -0.808 2.478 255 255 255
-0.274 -0.472 1.916 255 255 255
-0.54 -0.852 1.713 255 255 255
0.326 -0.375 2.216 255 255 255
-0.542 0.695 1.511 0 0 0
-0.431 0.05 2.013 255 255 255
-0.524 -0.947 1.695 255 255 255
-1.232 0.286 2.938 255 255 255
-0.498 -0.148 1.926 255 255 255
0.19 0.34 0.913 255 255 255
0.875 -0.661 2.341 255 255 255
0.728 -0.914 2.216 255 255 255
0.709 -1.249 2.111 255 255 255
-0.453 -0.74 1.779 0 0 0
-0.428 -0.419 1.878 255 255 255
0.5 -0.024 0.722 255 255 255
-0.054 -0.282 2.053 255 255 255
-0.3 -0.493 1.9 255 255 255
-0.239 0.524 2.087 255 255 255
0.851 -1.423 2.116 255 255 255
0.254 0.263 0.947 255 255 255
-0.711 0.58 1.927 255 255 255
-0.042 -0.188 2.064 0 0 0
0.232 -0.085 1.254 0 0 0
-0.138 -1.271 1.748 0 0 0
-1.721 -0.895 2.978 255 255 255
0.255 -0.014 1.207 0 0 0
1.006 -1.643 2.096 255 255 255
0.194 0.112 1.135 255 255 255
0.88 -0.559 2.37 255 255 255
-0.332 0.689 1.494 0 0 0
0.247 -1.41 1.9 0 0 0
0.335 0.279 0.945 255 255 255
-0.125 -1.112 1.798 255 255 255
0.613 -0.375 2.322 255 255 255
0.306 -0.679 2.123 255 255 255
0.369 -0.4 2.227 255 255 255
0.885 -0.378 2.424 255 255 255
0.322 0.146 1.036 255 255 255
-1.888 -0.811 2.94 255 255 255
0.294 0.125 1.111 255 255 255
-0.046 -0.193 2.07 0 0 0
-0.209 -1.106 1.752 255 255 255
0.314 0.138 1.064 255 255 255
0.337 0.147 0.983 255 255 255
-0.213 -1.075 1.765 0 0 0
-0.545 -0.944 1.685 255 255 255
-0.643 -0.925 1.642 255 255 255
-0.178 0.317 2.157 0 0 0
-1.068 0.421 2.504 255 255 255
1.108 -1.144 2.336 255 255 255
-0.603 0.719 1.44 255 255 255
0.757 -0.81 2.256 255 255 255
0.383 -1.095 2.035 255 255 255
0.347 0.229 0.991 255 255 255
0.81 -1.34 2.122 255 255 255
-0.128 0.731 1.36 255 255 255
-1.336 -1.674 2.8 255 255 255
-0.51 0.637 1.693 255 255 255
1.612 -0.903 2.592 0 0 0
0.068 0.686 1.472 255 255 255
-0.138 0.168 2.152 255 255 255
-0.227 0.543 2.013 255 255 255
0.643 -0.476 2.31 255 255 255
0.161 0.45 1.112 255 255 255
0.937 -0.654 2.36 255 255 255
0.348 0.249 0.946 0 0 0
1.129 -1.549 2.233 255 255 255
0.236 0.322 0.832 255 255 255
0.851 -0.89 2.267 255 255 255
-0.475 -0.845 1.74 255 255 255
0.32 0.271 0.949 255 255 255
-0.064 0.608 1.717 255 255 255
0.402 0.121 0.759 255 255 255
0.378 0.117 0.799 255 255 255
0.62 -1.016 2.141 255 255 255
-0.48 0.416 2.09 255 255 255
-0.166 -0.293 2.01 255 255 255
-0.069 0.695 1.452 255 255 255
0.519 -1.37 2.007 255 255 255
0.23 0.256 1.027 255 255 255
0.147 0.061 1.116 255 255 255
-0.524 -0.5 1.818 255 255 255
-0.756 0.599 1.876 255 255 255
-0.436 -0.191 1.938 255 255 255
-1.943 -0.956 2.877 255 255 255
-0.28 -0.891 1.799 255 255 255
-0.103 -0.204 2.059 255 255 255
-0.595 -0.743 1.715 255 255 255
0.384 0.029 0.905 255 255 255
-0.546 -0.167 1.905 255 255 255
-0.983 0.442 2.366 255 255 255
0.607 -1.461 2.016 0 0 0
0.613 -0.678 2.238 255 255 255
-0.61 -1.156 1.597 0 0 0
0.216 0.086 1.154 255 255 255
-0.614 0.527 2.088 0 0 0
-0.519 0.569 1.974 255 255 255
0.103 0.501 1.387 255 255 255
-0.493 -0.886 1.72 255 255 255
-0.568 0.565 1.982 255 255 255
1.066 -0.955 2.375 255 255 255
-0.239 0.608 1.74 255 255 255
-0.511 0.268 2.051 255 255 255
1.029 -1.243 2.282 255 255 255
0.087 -1.196 1.844 255 255 255
0.227 -0.374 2.169 255 255 255
0.495 -0.183 2.336 255 255 255
-0.291 -0.403 1.933 255 255 255
-0.325 0.461 2.158 255 255 255
0.971 -1.645 2.059 255 255 255
-0.38 0.662 1.589 255 255 255
-1.257 -1.653 2.829 0 0 0
-0.358 -0.599 1.852 255 255 255
0.185 -1.23 1.925 255 255 255
-0.608 -0.232 1.848 255 255 255
0.446 0.042 0.649 255 255 255
1.138 -1.068 2.374 255 255 255
-2.034 -0.614 2.853 255 255 255
-0.536 -0.132 1.916 255 255 255
-0.476 0.086 2.008 255 255 255
0.479 -0.01 0.983 255 255 255
0.459 -1.415 1.975 255 255 255
0.705 -0.325 2.368 255 255 255
-0.898 0.418 2.334 255 255 255
-0.661 -0.648 1.744 255 255 255
-0.305 -0.268 1.966 255 255 255
0.849 -1.467 2.106 255 255 255
0.345 0.285 0.765 0 0 0
0.406 0.215 0.81 255 255 255
-0.496 -0.063 1.955 255 255 255
1.048 -0.874 2.395 255 255 255
-0.038 0.631 1.637 255 255 255
0.282 0.332 0.789 255 255 255
0.976 -0.874 2.313 255 255 255
1.331 -0.48 2.609 255 255 255
-0.039 0.613 1.699 255 255 255
-0.1 -0.14 2.079 255 255 255
-0.211 -1.186 1.743 0 0 0
0.546 -0.978 2.127 255 255 255
0.187 -0.024 1.233 255 255 255
-0.471 -0.622 1.803 255 255 255
-1.27 -1.261 2.917 0 0 0
-0.357 -0.095 1.996 255 255 255
0.261 -0.012 1.197 0 0 0
1.48 -0.689 2.604 255 255 255
0.885 -0.554 2.372 255 255 255
-0.236 -1.043 1.774 255 255 255
0.195 0.329 0.922 255 255 255
0.059 -0.086 1.137 255 255 255
0.404 0.077 0.684 255 255 255
-0.753 0.507 2.173 255 255 255
1.616 -0.365 2.451 0 0 0
0.496 -0.16 2.341 255 255 255
1.107 -1.641 2.198 0 0 0
-0.205 -0.961 1.808 255 255 255
0.519 -0.142 2.358 255 255 255
1.324 -0.926 2.488 255 255 255
0.002 0.105 1.167 255 255 255
0.872 -0.465 2.393 255 255 255
0.108 -0.457 2.063 255 255 255
0.094 0.312 1.104 255 255 255
0.313 0.069 1.012 255 255 255
1.662 -0.992 2.594 255 255 255
-0.358 0.146 2.07 255 255 255
0.024 -1.33 1.787 0 0 0
1.579 -1.122 2.529 255 255 255
0.323 -0.013 1.076 255 255 255
0.457 -0.153 2.318 255 255 255
-0.518 -0.675 1.77 255 255 255
-0.321 0.627 1.696 255 255 255
-0.224 0.648 1.613 255 255 255
-0.306 0.55 2.014 255 255 255
0.027 0.702 1.431 255 255 255
-0.194 0.602 1.761 255 255 255
-1.261 -1.2 2.947 0 0 0
-0.916 0.401 2.382 255 255 255
0.158 -0.551 2.105 0 0 0
-0.336 0.658 1.595 255 255 255
-0.449 -0.964 1.723 0 0 0
0.27 0.06 1.131 0 0 0
0.386 -0.746 2.131 255 255 255
0.385 0.047 0.622 255 255 255
0.055 0.018 1.111 255 255 255
0.135 -0.16 1.179 0 0 0
-0.313 0.705 1.445 255 255 255
-0.005 0.094 1.169 255 255 255
-0.383 -1.061 1.714 255 255 255
0.572 -0.627 2.239 255 255 255
-0.012 0.045 1.181 255 255 255
-0.335 -0.607 1.852 255 255 255
-0.317 -0.77 1.819 0 0 0
-0.517 0.546 2.039 255 255 255
1.3 -1.31 2.364 255 255 255
-0.477 -0.198 1.919 255 255 255
-0.365 -0.602 1.847 255 255 255
-0.283 -0.25 1.98 255 255 255
-0.219 -0.941 1.804 0 0 0
-1.247 -1.498 2.876 0 0 0
0.24 0.359 0.822 255 255 255
0.172 -0.169 1.261 0 0 0
0.361 0.128 0.86 255 255 255
0.163 -0.465 2.133 0 0 0
0.369 0.139 0.847 255 255 255
0.101 0.332 1.101 255 255 255
-0.408 0.443 2.125 255 255 255
0.028 -0.877 1.918 255 255 255
-0.167 -1.004 1.812 255 255 255
-0.383 -0.902 1.754 0 0 0
0.756 -0.658 2.301 255 255 255
0.389 0.014 0.928 255 255 255
0.334 0.128 0.964 255 255 255
0.33 -0.006 1.046 255 255 255
-0.109 0.716 1.4 255 255 255
0.032 -1.235 1.815 255 255 255
0.215 0.384 0.837 255 255 255
-0.531 0.664 1.604 255 255 255
-0.19 0.203 2.156 255 255 255
-0.361 0.63 1.699 255 255 255
-1.485 -1.784 2.809 255 255 255
0.415 -0.933 2.09 255 255 255
-0.606 -1.148 1.601 255 255 255
0.366 0.316 0.926 255 255 255
-0.26 0.696 1.471 255 255 255
-0.379 0.728 1.386 255 255 255
1.214 -0.322 2.612 0 0 0
-1.224 -1.554 2.873 0 0 0
0.446 -0.68 2.172 255 255 255
-0.837 0.618 1.817 255 255 255
0.307 0.304 0.795 255 255 255
0.482 0.011 0.686 255 255 255
-0.458 0.449 2.107 255 255 255
-0.427 0.095 2.031 255 255 255
0.509 -0.918 2.126 255 255 255
-1.485 -1.833 2.807 255 255 255
0.168 0.332 1.085 255 255 255
0.25 0.245 1.021 255 255 255
-0.199 0.696 1.469 255 255 255
-0.388 -0.944 1.746 255 255 255
0.069 -0.695 1.981 255 255 255
0.078 0.205 1.118 255 255 255
-0.037 -0.664 1.956 255 255 255
-0.461 -1.096 1.673 255 255 255
1.33 -1.307 2.36 255 255 255
0.2 0.185 1.084 255 255 255
-1.246 -1.511 2.871 0 0 0
0.124 -0.532 2.047 255 255 255
-0.31 -0.56 1.876 255 255 255
-0.39 -1.198 1.672 255 255 255
0.342 -1.434 1.924 0 0 0
0.012 -0.698 1.965 255 255 255
-1.045 0.496 2.256 255 255 255
-0.43 -1.018 1.707 255 255 255
0.179 -0.658 2.083 255 255 255
-2.027 -0.229 2.994 255 255 255
1.075 -1.532 2.211 255 255 255
0.385 0.096 0.815 255 255 255
0.183 -1 1.988 255 255 255
1.204 -0.965 2.427 255 255 255
0.389 0.004 0.938 255 255 255
-0.193 -0.605 1.912 255 255 255
-0.102 0.102 2.116 0 0 0
-0.281 -0.183 1.999 255 255 255
-0.01 -0.06 1.218 0 0 0
-1.261 0.324 2.814 255 255 255
0.282 -0.982 2.027 255 255 255
0.108 -0.361 2.074 255 255 255
0.298 0.227 1.043 255 255 255
-0.503 -0.98 1.693 255 255 255
0.261 -0.014 1.199 0 0 0
0.292 0.049 1.072 255 255 255
-0.24 -0.109 2.035 255 255 255
-0.118 -0.311 2.023 255 255 255
-0.554 -1.117 1.633 255 255 255
0.023 0.727 1.357 255 255 255
0.878 -1.377 2.136 255 255 255
-0.104 -0.586 1.951 255 255 255
-0.362 -0.392 1.908 255 255 255
-0.105 -0.095 2.091 255 255 255
1.373 -0.983 2.479 255 255 255
0.223 -1.037 1.989 255 255 255
-0.116 -0.503 1.969 255 255 255
0.086 0.344 1.107 255 255 255
-0.595 -1.215 1.59 0 0 0
-0.353 -0.453 1.895 255 255 255
0.82 -0.421 2.387 255 255 255
0.037 -0.091 1.176 255 255 255
-0.158 -0.878 1.847 255 255 255
-0.092 -0.807 1.891 255 255 255
-0.204 -0.158 2.037 255 255 255
-0.758 0.646 1.704 255 255 255
0.145 0.711 1.374 255 255 255
0.482 -0.021 0.989 255 255 255
0.046 0.648 1.585 255 255 255
0.516 -0.064 0.743 255 255 255
-0.365 -0.666 1.828 255 255 255
-0.31 -0.695 1.845 255 255 255
-0.182 -0.497 1.944 255 255 255
-1.365 -1.561 2.877 255 255 255
0.701 -1.363 2.074 255 255 255
1.193 -0.764 2.477 255 255 255
0.159 0.438 1.135 255 255 255
0.929 -0.677 2.351 255 255 255
-0.212 -0.657 1.889 255 255 255
0.153 -1.086 1.953 255 255 255
-0.341 0.57 1.943 255 255 255
0.325 -0.769 2.109 255 255 255
-0.015 0.726 1.361 255 255 255
-0.112 -0.686 1.918 255 255 255
0.971 -0.62 2.384 255 255 255
-1.078 0.535 2.122 255 255 255
-0.381 -0.407 1.901 255 255 255
0.202 -1.137 1.956 255 255 255
0.481 0.002 0.899 255 255 255
-0.644 -0.457 1.793 255 255 255
0.88 -0.363 2.426 255 255 255
0.243 -0.042 1.259 0 0 0
-0.501 0.3 2.064 255 255 255
-0.227 0.48 2.19 255 255 255
1.054 -1.364 2.255 255 255 255
-1.285 -1.786 2.773 0 0 0
0.286 0.216 1.104 255 255 255
0.459 -0.909 2.112 255 255 255
0.289 0.101 1.099 0 0 0
0.471 -0.074 1.109 255 255 255
0.102 -0.139 1.159 255 255 255
-0.045 0.625 1.659 255 255 255
0.088 0.106 1.074 255 255 255
-1.525 -1.442 2.901 255 255 255
-0.492 -0.714 1.769 255 255 255
-0.12 -1.059 1.817 255 255 255
0.29 0.281 0.902 255 255 255
0.247 0.413 0.85 255 255 255
0.634 -0.68 2.241 255 255 255
-0.147 -0.797 1.877 255 255 255
0.437 -1.113 2.053 255 255 255
-0.726 0.63 1.766 255 255 255
-0.36 0.7 1.466 255 255 255
-0.033 0.656 1.559 255 255 255
-0.025 0.235 1.242 255 255 255
-0.349 -0.032 2.02 255 255 255
-0.181 -0.851 1.845 255 255 255
0.007 0.598 1.733 255 255 255
-0.408 -0.476 1.868 255 255 255
-0.756 0.583 1.928 255 255 255
0.219 -0.731 2.077 255 255 255
-0.535 0.689 1.525 0 0 0
0.337 -0.004 0.985 255 255 255
-0.208 -0.904 1.823 255 255 255
-1.521 0.416 2.6 255 255 255
-0.168 -0.418 1.975 255 255 255
0.31 -1.331 1.941 255 255 255
0.625 -1.221 2.088 255 255 255
0.207 0.102 1.146 255 255 255
-0.648 -0.418 1.811 255 255 255
0.445 -0.003 0.711 255 255 255
-0.559 -1.159 1.62 255 255 255
0.123 -0.068 1.14 255 255 255
0.159 0.024 1.175 255 255 255
1.167 -0.962 2.414 255 255 255
0.43 -0.502 2.219 255 255 255
0.186 0.719 1.339 255 255 255
0.417 0.077 0.811 0 0 0
-0.179 0.674 1.528 0 0 0
-1.269 -1.778 2.792 0 0 0
0.402 0.092 0.802 255 255 255
-0.508 0.094 2 255 255 255
0.04 -0.604 1.998 255 255 255
0.354 -1.098 2.024 255 255 255
1.179 -0.702 2.485 255 255 255
0.841 -1.335 2.137 255 255 255
-0.526 -0.34 1.862 255 255 255
-0.105 -1.199 1.776 255 255 255
0.944 -0.537 2.398 255 255 255
-0.247 0.175 2.124 255 255 255
-0.461 -1.213 1.638 0 0 0
-0.637 -0.47 1.783 255 255 255
-0.891 0.522 2.14 255 255 255
0.778 -0.393 2.378 255 255 255
-0.353 0.19 2.089 255 255 255
-0.882 0.541 2.064 255 255 255
0.378 0.212 0.9 255 255 255
-0.921 0.439 2.305 255 255 255
0.604 -0.158 2.38 255 255 255
-0.057 0.647 1.591 255 255 255
0.696 -0.537 2.311 255 255 255
-0.419 0.56 2.005 255 255 255
1.331 -0.622 2.564 255 255 255
-0.049 -0.627 1.96 255 255 255
0.021 -0.077 1.177 255 255 255
0.318 0.172 1.081 255 255 255
-0.462 0.458 2.107 255 255 255
-0.386 -0.342 1.914 255 255 255
0.247 0.705 1.276 255 255 255
-0.612 -0.621 1.737 255 255 255
0.217 0.384 0.837 255 255 255
0.879 -0.289 2.446 255 255 255
0.552 -1.279 2.043 255 255 255
-0.483 0.124 2.017 255 255 255
0.149 0.686 1.453 255 255 255
0.302 -1.407 1.915 0 0 0
0.672 -0.7 2.25 255 255 255
0.418 0.111 0.736 255 255 255
0.18 0.183 1.115 255 255 255
-0.1 -0.613 1.943 255 255 255
-0.569 -0.992 1.666 255 255 255
-0.301 -0.276 1.965 255 255 255
0.321 0.117 1.007 255 255 255
-0.438 0.533 2.084 0 0 0
0.274 -1.017 2.016 255 255 255
0.466 -1.319 2 255 255 255
-0.092 -0.847 1.88 255 255 255
0.392 -0.002 0.939 255 255 255
-0.049 0.708 1.415 255 255 255
-0.129 -0.373 1.998 255 255 255
0.419 -1.281 1.992 255 255 255
-1.384 -1.689 2.86 255 255 255
0.427 -0.656 2.175 255 255 255
-0.3 0.618 1.729 255 255 255
1.401 -0.628 2.595 255 255 255
-0.592 0.265 2.013 255 255 255
0.048 -0.888 1.921 255 255 255
0.144 0.037 1.127 255 255 255
0.209 0.303 0.867 255 255 255
-0.241 -0.425 1.945 255 255 255
0.395 -1.421 1.95 0 0 0
0.22 0.108 1.136 255 255 255
-0.041 -1.136 1.823 255 255 255
1.648 -0.321 2.439 0 0 0
-0.771 0.452 2.359 0 0 0
0.21 0.13 1.122 255 255 255
-0.571 -0.248 1.86 255 255 255
-0.017 0.656 1.56 255 255 255
-0.416 -0.442 1.873 255 255 255
-0.612 0.708 1.479 255 255 255
0.656 -0.11 1.279 255 255 255
-1.273 -1.341 2.9 0 0 0
-0.16 0.026 2.11 255 255 255
-0.098 -0.364 2.018 255 255 255
0.951 -1.518 2.128 255 255 255
-0.302 0.717 1.412 255 255 255
0.195 0.135 1.114 255 255 255
0.868 -0.548 2.371 255 255 255
0.885 -0.584 2.365 255 255 255
-0.448 0.017 1.996 255 255 255
0.294 0.133 1.116 255 255 255
0.045 -1.177 1.84 255 255 255
-0.494 0.695 1.503 0 0 0
0.07 0.272 1.125 255 255 255
0.466 -0.072 0.741 255 255 255
0.265 -1.024 2.011 255 255 255
0.14 0.047 1.117 255 255 255
-1.154 0.497 2.249 255 255 255
-0.453 -0.451 1.857 255 255 255
-0.416 0.62 1.731 255 255 255
1.197 -0.849 2.452 255 255 255
-0.501 -0.303 1.88 255 255 255
-0.382 -0.977 1.741 255 255 255
-1.339 -1.317 2.928 255 255 255
0.392 0.127 0.758 255 255 255
-0.263 0.742 1.341 255 255 255
-0.306 0.54 2.044 255 255 255
-0.413 -0.416 1.883 255 255 255
-1.073 0.555 2.044 255 255 255
-0.244 -0.436 1.938 255 255 255
0.304 0.128 1.095 255 255 255
-1.404 0.375 2.694 255 255 255
-0.147 -1.059 1.799 255 255 255
-0.089 -1.131 1.807 255 255 255
0.118 0.672 1.47 255 255 255
0.964 -0.902 2.303 255 255 255
0.251 0.285 0.924 255 255 255
-0.259 0.705 1.445 255 255 255
0.248 0.249 1.02 255 255 255
-0.35 -1.124 1.703 255 255 255
0.365 0.277 0.952 0 0 0
0.612 -0.296 2.346 255 255 255
0.016 -1.025 1.872 255 255 255
0.453 -0.624 2.194 255 255 255
0.072 0.577 1.514 0 0 0
0.19 0.339 0.934 255 255 255
0.348 -0.054 1.148 255 255 255
0.411 -1.082 2.047 255 255 255
0.323 -0.055 1.193 255 255 255
-0.166 -0.879 1.848 255 255 255
-0.492 -0.759 1.755 255 255 255
0.232 -0.078 1.253 0 0 0
1.798 -0.677 2.716 255 255 255
-0.604 -0.479 1.779 255 255 255
-0.264 0.661 1.576 255 255 255
-0.22 -0.786 1.856 255 255 255
0.204 -0.455 2.148 0 0 0
-0.633 0.695 1.532 0 0 0
0.214 -0.882 2.028 255 255 255
-0.896 0.48 2.29 255 255 255
-0.884 0.558 2.019 255 255 255
-0.263 -1.165 1.714 255 255 255
1.009 -0.374 2.47 255 255 255
-0.253 0.127 2.109 255 255 255
0.159 0.082 1.133 255 255 255
0.045 -1.203 1.831 255 255 255
0.488 0.024 0.677 255 255 255
-0.406 0.535 2.08 255 255 255
-0.097 -0.033 2.114 255 255 255
-0.794 0.039 1.111 255 255 255
-0.471 0.124 2.022 255 255 255
-1.3 -1.096 2.963 255 255 255
-0.234 -0.72 1.863 255 255 255
-0.408 -0.948 1.743 255 255 255
0.077 -0.934 1.919 255 255 255
0.259 0.047 1.144 255 255 255
-0.004 0.692 1.462 255 255 255
-0.128 -0.565 1.952 255 255 255
0.016 -1.063 1.861 255 255 255
0.538 -0.359 2.298 255 255 255
-0.357 0.323 2.126 255 255 255
0.336 -1.162 1.997 255 255 255
0.664 -0.856 2.202 255 255 255
0.426 -0.682 2.166 255 255 255
-0.7 0.586 1.907 255 255 255
-0.182 -0.536 1.935 255 255 255
0.238 -1.116 1.973 255 255 255
-0.14 -1.028 1.814 255 255 255
0.138 -0.605 2.056 255 255 255
-0.602 -1.149 1.603 255 255 255
0.353 -0.302 2.248 255 255 255
0.027 0.232 1.375 255 255 255
-0.47 -0.121 1.947 255 255 255
-0.509 0.021 1.974 255 255 255
0.633 -0.087 1.181 255 255 255
0.082 -0.661 1.997 255 255 255
0.641 -0.293 2.358 255 255 255
-0.748 0.643 1.711 255 255 255
-1.435 -1.715 2.863 255 255 255
-0.176 0.172 2.148 255 255 255
0.152 0.643 1.474 255 255 255
0.034 0.154 1.127 255 255 255
-0.617 0.037 1.939 255 255 255
1.2 -0.993 2.409 255 255 255
-0.458 0.551 2.032 255 255 255
-0.63 0.652 1.665 255 255 255
0.376 0.083 0.846 255 255 255
-1.454 -1.411 2.942 255 255 255
1.418 -0.506 2.632 255 255 255
-0.059 -0.19 2.079 255 255 255
-0.571 0.717 1.452 255 255 255
-1.905 -0.633 2.982 255 255 255
0.377 0.006 0.94 255 255 255
0.31 -0.948 2.047 255 255 255
0.053 0.689 1.464 255 255 255
-0.108 -0.539 1.963 255 255 255
0.439 -0.001 0.71 255 255 255
-0.027 0.042 1.235 0 0 0
-1.162 0.501 2.241 255 255 255
0.28 0.413 0.781 255 255 255
-0.221 -0.491 1.932 255 255 255
-2.084 -0.595 2.839 255 255 255
1.199 -1.448 2.282 255 255 255
-0.116 -0.693 1.914 255 255 255
0.161 -0.832 2.025 255 255 255
-1.465 -1.867 2.8 255 255 255
0.122 0.359 1.101 255 255 255
0.394 0.088 0.822 255 255 255
-0.11 0.709 1.414 255 255 255
0.247 0.114 1.119 255 255 255
0.19 -0.027 1.236 255 255 255
-0.634 -0.003 1.939 255 255 255
-1.058 0.427 2.479 255 255 255
0.536 -0.123 2.368 255 255 255
-1.822 -0.737 2.981 255 255 255
-0.578 -0.015 1.921 255 255 255
0.252 0.262 0.946 255 255 255
-0.327 0.079 2.061 255 255 255
0.424 0.09 0.692 255 255 255
0.649 -1.533 2.011 0 0 0
-0.453 -0.32 1.895 255 255 255
0.172 0.484 1.075 255 255 255
0.092 0.535 1.428 255 255 255
0.37 0.059 0.905 255 255 255
0.558 -0.567 2.252 255 255 255
1.519 -1.068 2.527 255 255 255
-1.096 0.498 2.247 255 255 255
-0.621 0.67 1.6 255 255 255
0.117 -0.438 2.073 255 255 255
0.368 -1.355 1.952 255 255 255
1.424 -1.183 2.443 255 255 255
0.53 -0.585 2.231 255 255 255
0.48 -0.027 0.723 255 255 255
-0.077 -0.515 1.983 255 255 255
-0.505 0.34 2.076 255 255 255
0.08 0.158 1.108 255 255 255
-0.546 -0.399 1.839 255 255 255
-0.536 -0.374 1.849 255 255 255
-0.619 -0.867 1.664 255 255 255
-0.214 0.724 1.387 255 255 255
0.414 -1.232 2.005 255 255 255
0.405 0.025 0.893 255 255 255
1.475 -1.204 2.442 255 255 255
-0.346 -1.034 1.739 255 255 255
1.144 -0.967 2.401 255 255 255
0.327 0.273 0.949 255 255 255
-0.19 0.581 1.844 255 255 255
0.012 -1.263 1.801 255 255 255
-0.425 -0.947 1.729 255 255 255
0.257 0.274 0.879 255 255 255
0.053 0.16 1.107 255 255 255
0.785 -1.113 2.174 255 255 255
-0.013 0.685 1.479 255 255 255
0.062 0.151 1.106 255 255 255
0.242 0.449 0.867 255 255 255
-0.167 0.544 1.987 255 255 255
-0.588 0.665 1.605 255 255 255
0.68 -0.622 2.275 255 255 255
-0.558 -0.661 1.759 255 255 255
0.408 0.269 0.873 255 255 255
0.372 0.064 0.889 255 255 255
-0.391 0.581 1.902 255 255 255
0.993 -0.804 2.345 255 255 255
0.641 -0.521 2.294 255 255 255
-1.123 0.537 2.115 255 255 255
0.907 -0.817 2.306 255 255 255
-0.359 -1.185 1.687 255 255 255
0.24 0.474 0.85 255 255 255
-0.159 -0.996 1.815 255 255 255
-0.768 0.647 1.707 255 255 255
-0.29 0.65 1.611 255 255 255
-0.256 0.304 2.157 255 255 255
0.514 -0.605 2.219 255 255 255
0.032 -0.491 2.026 255 255 255
0.044 -0.937 1.906 255 255 255
1.24 -1.146 2.385 255 255 255
-0.514 -0.679 1.77 255 255 255
0.265 -1.132 1.98 255 255 255
-0.162 -0.053 2.082 255 255 255
-0.092 -0.784 1.9 255 255 255
0.295 0.132 1.111 255 255 255
-1.461 -1.545 2.896 255 255 255
0.299 -0.558 2.154 255 255 255
-0.293 0.708 1.439 255 255 255
0.409 -1.399 1.96 255 255 255
-0.092 0.664 1.551 255 255 255
0.616 -0.464 2.303 255 255 255
1.02 -0.483 2.455 255 255 255
-0.799 0.398 2.325 255 255 255
-0.564 -0.291 1.86 255 255 255
0.764 -1.363 2.099 255 255 255
0.648 -0.868 2.196 255 255 255
-0.335 -0.076 2.009 255 255 255
-0.027 0.166 1.236 255 255 255
-0.417 0.702 1.468 255 255 255
-0.207 -0.384 1.967 255 255 255
0.405 0.046 0.594 255 255 255
-0.586 0.714 1.456 255 255 255
-0.258 -0.907 1.805 255 255 255
0.114 -0.161 1.167 0 0 0
-0.186 -0.069 2.069 255 255 255
-0.971 0.476 2.304 255 255 255
-0.176 -0.174 2.041 255 255 255
-0.049 -1.242 1.787 255 255 255
-0.263 0.175 2.118 255 255 255
1.649 -0.327 2.396 0 0 0
0.332 -0.002 0.996 255 255 255
-0.429 -0.118 1.962 255 255 255
1.168 -0.801 2.454 255 255 255
-0.768 0.439 2.401 0 0 0
0.587 -0.628 2.241 255 255 255
1.145 -0.257 2.602 255 255 255
-2.047 -0.445 2.891 255 255 255
-0.405 -0.731 1.796 255 255 255
0.024 -1.217 1.82 255 255 255
-0.611 -0.15 1.876 255 255 255
0.387 0.058 0.871 255 255 255
0.499 -0.001 0.885 255 255 255
0.283 0.421 0.776 255 255 255
-0.515 0.584 1.921 255 255 255
0.437 0.017 0.689 255 255 255
0.124 -0.096 1.149 255 255 255
0.551 -0.138 2.37 255 255 255
-0.207 0.698 1.459 255 255 255
-0.463 -0.248 1.91 255 255 255
0.048 -0.917 1.913 255 255 255
-0.201 -0.623 1.904 255 255 255
-0.013 -0.774 1.931 255 255 255
-0.069 -0.503 1.988 255 255 255
0.432 -1.135 2.044 255 255 255
-0.332 -0.967 1.754 255 255 255
0.249 0.412 0.837 255 255 255
0.426 -0.05 0.745 255 255 255
-0.352 0.583 1.887 255 255 255
-1.22 -1.393 2.916 0 0 0
-0.626 -0.725 1.704 255 255 255
-0.582 -0.221 1.858 255 255 255
-0.523 -0.243 1.89 255 255 255
-0.543 0.357 2.065 255 255 255
-0.098 -1.265 1.765 255 255 255
-0.444 -1.12 1.675 0 0 0
0.14 -1.124 1.937 255 255 255
0.508 -1.479 1.979 0 0 0
1.13 -0.711 2.468 255 255 255
0.288 0.073 1.072 0 0 0
0.384 0.159 0.811 255 255 255
0.016 0.108 1.144 255 255 255
-0.242 0.731 1.364 255 255 255
0.626 -1.056 2.133 255 255 255
0.318 0.274 0.947 255 255 255
-0.212 0.655 1.593 255 255 255
0.199 0.316 0.945 255 255 255
-0.211 -0.851 1.833 255 255 255
-0.415 0.731 1.385 255 255 255
-0.192 0.472 2.199 255 255 255
0.125 -0.167 1.177 0 0 0
-0.561 -0.495 1.805 255 255 255
-0.35 0.389 2.129 255 255 255
0.002 0.128 1.181 255 255 255
0.386 -1.029 2.049 255 255 255
-0.059 0.588 1.783 255 255 255
0.061 0.722 1.359 255 255 255
0.183 0.409 0.898 255 255 255
0.465 0.016 0.685 255 255 255
-0.25 -0.939 1.797 255 255 255
-0.33 -0.499 1.891 255 255 255
0.394 0.045 0.833 255 255 255
0.431 -0.001 0.71 0 0 0
-0.174 0.677 1.518 0 0 0
-0.47 -0.491 1.839 255 255 255
-0.313 0.537 2.062 255 255 255
0.306 0.1 1.06 255 255 255
-0.652 -0.972 1.627 255 255 255
0.291 0.325 0.792 255 255 255
-0.124 -1.045 1.818 255 255 255
0.016 -0.097 1.191 255 255 255
-0.363 0.282 2.111 255 255 255
-1.359 0.487 2.353 255 255 255
-0.1 -0.103 2.09 255 255 255
0.274 -1.361 1.92 255 255 255
0.243 0.231 1.031 255 255 255
0.47 -1.438 1.972 0 0 0
0.024 -0.622 1.987 255 255 255
0.389 0.188 0.819 255 255 255
1.633 -0.356 2.413 0 0 0
0.112 0.318 1.093 255 255 255
1.112 -0.893 2.416 255 255 255
-1.292 -1.425 2.867 255 255 255
0.169 0.698 1.409 255 255 255
-0.196 0.27 2.168 255 255 255
0.344 -0.012 1.046 255 255 255
-0.263 -0.78 1.827 255 255 255
-1.917 -0.818 2.93 255 255 255
-0.138 -1.259 1.754 255 255 255
0.179 0.404 0.914 255 255 255
-0.312 -0.903 1.773 0 0 0
0.174 0.442 1.09 255 255 255
0.299 0.229 0.97 255 255 255
-2.053 -0.3 2.925 255 255 255
0.022 0.078 1.11 255 255 255
0.233 0.329 0.833 255 255 255
0.189 -0.002 1.227 255 255 255
0.476 -1.333 2.002 255 255 255
0.415 0.095 0.746 255 255 255
-0.439 0.659 1.601 255 255 255
-0.63 0.286 2.035 255 255 255
-0.166 -0.094 2.072 255 255 255
-1.262 -1.311 2.919 0 0 0
-0.387 -0.115 1.98 255 255 255
0.793 -0.22 2.437 255 255 255
0.342 0.16 0.966 255 255 255
0.128 -0.577 2.039 255 255 255
-0.405 -0.678 1.81 255 255 255
-1.604 -1.394 2.886 255 255 255
-1.219 0.516 2.194 255 255 255
-0.457 0.741 1.36 255 255 255
-0.831 0.593 1.895 255 255 255
0.209 0.293 0.951 255 255 255
0.045 0.667 1.525 255 255 255
0.528 -1.115 2.083 255 255 255
1.396 -0.272 2.69 0 0 0
-0.437 0.582 1.887 255 255 255
-0.818 0.395 2.303 255 255 255
-0.1 -0.148 2.077 255 255 255
1.324 -0.463 2.611 255 255 255
0.298 0.209 1.039 255 255 255
-0.929 0.45 2.31 255 255 255
-0.995 0.556 2.032 255 255 255
0.224 0.224 1.052 255 255 255
0.207 0.146 1.104 255 255 255
0.328 0.081 0.949 255 255 255
0.525 -0.935 2.127 255 255 255
-0.344 -0.378 1.921 255 255 255
0.283 -0.741 2.102 255 255 255
0.446 0.032 0.795 255 255 255
0.277 0.354 0.797 255 255 255
-0.925 0.6 1.894 255 255 255
1.309 -0.62 2.558 255 255 255
0.43 0.043 0.631 0 0 0
0.733 -0.39 2.366 255 255 255
0.412 0.078 0.815 255 255 255
0.309 0.335 0.765 255 255 255
-0.178 -0.937 1.826 0 0 0
0.662 -0.407 2.331 255 255 255
-0.772 -0.207 1.044 0 0 0
-0.819 0.497 2.222 255 255 255
-0.5 0.14 2.016 255 255 255
0.242 -1.024 2.003 255 255 255
-0.408 0.673 1.556 255 255 255
0.647 -1.218 2.098 255 255 255
-0.581 -0.115 1.888 255 255 255
-0.101 0.245 1.277 0 0 0
0.187 -0.862 2.027 255 255 255
0.958 -0.228 2.496 255 255 255
0.875 -1.602 2.074 255 255 255
1.341 -0.375 2.641 255 255 255
1.058 -0.762 2.429 255 255 255
0.383 0.29 0.926 255 255 255
0.639 -0.666 2.244 255 255 255
0.068 -0.105 1.145 255 255 255
0.206 0.297 0.966 255 255 255
0.35 -0.386 2.225 255 255 255
0.135 -0.977 1.975 0 0 0
-0.819 -0.022 1.102 255 255 255
1.524 -1.098 2.501 255 255 255
-0.264 -1.151 1.732 0 0 0
0.269 0.355 0.801 255 255 255
-0.001 -0.975 1.879 255 255 255
0.204 -0.391 2.163 255 255 255
-1.233 -1.439 2.899 0 0 0
-0.43 -0.083 1.972 255 255 255
-0.081 -0.534 1.975 255 255 255
0.273 0.309 0.834 255 255 255
-0.605 0.662 1.624 255 255 255
0.307 0.096 1.064 255 255 255
0.254 0.062 1.133 255 255 255
-0.509 -0.928 1.705 255 255 255
-0.197 0.181 2.143 255 255 255
-0.258 -1.018 1.77 255 255 255
1.053 -1.062 2.341 255 255 255
0.21 0.381 0.84 255 255 255
1.355 -0.904 2.502 255 255 255
0.379 -1.398 1.945 255 255 255
0.296 -0.875 2.061 255 255 255
0.232 0.288 0.854 255 255 255
-0.811 0.401 2.439 0 0 0
0.493 -0.325 2.292 255 255 255
1.376 -0.907 2.504 255 255 255
0.382 -0.759 2.129 255 255 255
-1.224 -1.774 2.811 255 255 255
0.393 0.178 0.794 255 255 255
-0.204 -0.154 2.038 255 255 255
0.11 -0.011 1.125 255 255 255
0.079 -0.374 2.074 255 255 255
1.208 -1.256 2.347 255 255 255
-0.054 0.682 1.495 0 0 0
-0.184 0.026 2.097 255 255 255
-0.547 0.736 1.394 255 255 255
-0.449 0.037 2.001 255 255 255
-1.253 0.442 2.479 255 255 255
1.488 -0.629 2.628 255 255 255
-0.301 -1.073 1.745 255 255 255
0.02 0.644 1.593 255 255 255
0.894 -1.107 2.219 255 255 255
0.336 -1.181 1.993 255 255 255
0.207 -1.223 1.931 255 255 255
-0.794 0.044 1.115 255 255 255
0.076 0.172 1.113 255 255 255
-0.244 -0.007 2.071 255 255 255
-0.01 0.036 1.181 255 255 255
-0.436 0.231 2.07 255 255 255
-0.781 0.625 1.788 255 255 255
-0.158 -0.748 1.885 255 255 255
0.323 0.057 0.988 255 255 255
0.289 0.335 0.781 255 255 255
0.065 -0.587 2.013 255 255 255
0.668 -1.558 2.015 255 255 255
-0.406 -0.192 1.95 255 255 255
0.754 -0.247 2.414 255 255 255
0.102 -0.049 1.137 255 255 255
-0.053 -0.492 1.995 255 255 255
0.229 -1.114 1.97 255 255 255
-1.314 -1.376 2.883 255 255 255
0.598 -0.346 2.324 255 255 255
-0.066 -1.308 1.764 0 0 0
0.233 -0.712 2.088 255 255 255
0.185 -1.234 1.923 255 255 255
-0.172 0.612 1.722 255 255 255
-0.381 0.573 1.936 255 255 255
-1.643 -1.407 2.866 255 255 255
0.426 -0.516 2.216 255 255 255
0.882 -1.33 2.15 255 255 255
-0.317 -0.398 1.923 255 255 255
0.644 -1.052 2.144 255 255 255
-0.638 -1.03 1.612 255 255 255
0.02 -0.843 1.924 255 255 255
0.394 0.05 0.87 255 255 255
0.028 -0.579 2.001 255 255 255
-0.257 0.127 2.107 255 255 255
-1.918 -0.745 2.944 255 255 255
0.106 -0.033 1.133 255 255 255
-0.807 -0.047 1.086 255 255 255
0.08 0.6 1.536 0 0 0
0.086 -0.585 2.02 255 255 255
0.419 0.288 0.865 255 255 255
-0.296 0.009 2.052 255 255 255
0.184 0.247 1.048 255 255 255
0.758 -0.572 2.322 255 255 255
0.112 -0.158 1.165 0 0 0
0.28 0.21 1.038 255 255 255
-0.456 -1.181 1.651 255 255 255
-1.777 -1.013 2.921 255 255 255
0.403 0.255 0.874 255 255 255
-1.474 -1.451 2.922 255 255 255
0.206 -1.093 1.97 255 255 255
-0.087 0.718 1.391 255 255 255
1.106 -0.26 2.584 255 255 255
0.16 0.438 1.143 255 255 255
0.057 0.25 1.365 255 255 255
-0.166 -0.921 1.831 255 255 255
-0.837 0.441 2.309 255 255 255
-0.113 -0.066 2.099 255 255 255
-0.684 0.587 1.912 255 255 255
-0.499 0.754 1.341 255 255 255
0.335 0.338 0.746 255 255 255
-0.497 -0.24 1.902 255 255 255
-0.482 -0.844 1.737 255 255 255
0.307 -0.588 2.146 255 255 255
0.095 0.532 1.429 255 255 255
-0.04 0.063 1.25 0 0 0
-0.127 0.555 1.938 255 255 255
0.321 -0.685 2.127 255 255 255
0.057 0.669 1.515 0 0 0
-1.34 -1.737 2.784 255 255 255
1.047 -1.351 2.257 255 255 255
-0.23 -0.065 2.053 255 255 255
0.223 -0.875 2.034 255 255 255
-0.045 0.061 1.256 0 0 0
-0.427 0.21 2.067 255 255 255
-0.591 -0.003 1.921 255 255 255
-1.942 -0.665 2.954 255 255 255
0.358 0.236 0.962 255 255 255
-0.451 -0.141 1.95 255 255 255
-0.645 -0.602 1.743 255 255 255
-0.112 -0.132 2.079 255 255 255
-0.246 -0.888 1.815 255 255 255
0.141 -0.185 1.215 0 0 0
-0.588 -0.571 1.761 255 255 255
-0.955 0.483 2.29 255 255 255
-0.776 -0.045 1.104 0 0 0
0.931 -1.627 2.065 255 255 255
-1.782 -1.199 2.87 255 255 255
1.082 -0.923 2.394 255 255 255
-0.586 -0.622 1.756 255 255 255
-0.442 0.643 1.66 255 255 255
0.195 0.336 0.862 255 255 255
-1.749 -0.962 2.955 255 255 255
-0.241 -0.408 1.944 255 255 255
-0.208 -0.698 1.875 255 255 255
1.185 -0.985 2.407 255 255 255
0.237 -1.339 1.917 255 255 255
0.531 -0.975 2.122 255 255 255
1.605 -0.457 2.718 255 255 255
0.167 -0.048 1.212 255 255 255
-0.127 0.043 2.126 255 255 255
0.294 0.324 0.785 255 255 255
0.551 -0.946 2.137 255 255 255
0.081 0.733 1.34 255 255 255
0.103 -0.634 2.009 255 255 255
-0.152 0.204 2.161 255 255 255
-0.572 -0.964 1.674 255 255 255
-0.642 -1.206 1.559 255 255 255
-0.609 -0.461 1.785 255 255 255
0.299 0.316 0.83 255 255 255
-0.253 -0.869 1.811 255 255 255
-0.38 -1.259 1.657 255 255 255
-0.587 -0.833 1.7 255 255 255
1.055 -0.277 2.547 255 255 255
-0.305 -0.06 2.026 255 255 255
-1.26 -1.775 2.789 0 0 0
-0.337 -1.015 1.74 255 255 255
-0.474 -0.746 1.767 255 255 255
0.158 -0.148 1.214 0 0 0
-1.511 -1.381 2.924 255 255 255
0.493 -1.195 2.045 255 255 255
0.162 0.058 1.142 255 255 255
0.454 -1.263 2.013 255 255 255
1.574 -0.391 2.494 0 0 0
-0.235 -0.94 1.801 0 0 0
-0.394 -0.212 1.948 255 255 255
0.605 -0.846 2.186 255 255 255
-0.424 -0.055 1.982 255 255 255
-0.983 0.577 1.972 255 255 255
0.474 -1.24 2.028 255 255 255
-0.334 0.139 2.08 255 255 255
0.069 -0.791 1.95 255 255 255
-0.511 -0.471 1.831 255 255 255
-0.85 0.608 1.85 255 255 255
0.199 0.316 0.907 255 255 255
0.287 0.323 0.843 255 255 255
-0.46 0.422 2.1 255 255 255
1.349 -0.926 2.498 255 255 255
-0.137 -0.135 2.069 255 255 255
-0.208 0.684 1.498 0 0 0
-0.09 0.697 1.449 255 255 255
-0.618 -0.803 1.682 255 255 255
0.28 0.325 0.796 255 255 255
-0.488 0.082 2.003 255 255 255
-0.518 0.119 2.003 255 255 255
1.255 -0.947 2.446 255 255 255
-0.38 0.541 2.055 255 255 255
0.1 0.605 1.494 255 255 255
0.366 0.048 0.918 255 255 255
-0.594 -1.19 1.599 0 0 0
0.621 -0.877 2.183 255 255 255
-0.681 -1.064 1.617 255 255 255
-0.243 -1.221 1.723 255 255 255
-0.603 -0.417 1.798 255 255 255
-0.622 -0.721 1.706 255 255 255
0.401 0.01 0.925 255 255 255
0.354 0.331 0.771 255 255 255
0.321 0.083 1 255 255 255
0.796 -0.634 2.315 255 255 255
0.028 0.031 1.111 255 255 255
0.032 -0.918 1.905 255 255 255
0.464 -1.405 1.977 255 255 255
-0.3 -1.125 1.742 255 255 255
0.053 0.556 1.873 255 255 255
0.475 -0.006 0.698 0 0 0
0.426 -1.045 2.065 255 255 255
-1.388 0.486 2.337 255 255 255
0.077 -0.859 1.938 255 255 255
-0.097 -0.41 1.999 255 255 255
0.381 0.111 0.797 255 255 255
0.79 -0.886 2.241 255 255 255
0.222 0.214 1.057 255 255 255
-0.511 0.649 1.652 255 255 255
-0.462 -1.243 1.629 255 255 255
-0.413 0.129 2.046 255 255 255
-0.219 0.665 1.563 255 255 255
0.845 -1.066 2.215 255 255 255
-0.647 -1.059 1.603 255 255 255
0.032 -1.006 1.883 255 255 255
0.069 0.365 1.115 255 255 255
-0.022 0.686 1.48 255 255 255
-0.025 0.686 1.473 255 255 255
0.447 0.093 0.697 255 255 255
0.295 0.01 1.11 255 255 255
-0.3 -0.088 2.021 255 255 255
-0.323 -0.007 2.039 255 255 255
-0.296 -1.217 1.705 255 255 255
0.42 0.118 0.728 255 255 255
-0.063 0.139 1.261 255 255 255
0.471 -1.337 1.999 255 255 255
-0.284 -1.002 1.765 0 0 0
0.094 0.13 1.075 255 255 255
0.071 0.307 1.122 255 255 255
0.381 0.14 0.791 255 255 255
-0.522 -0.186 1.906 255 255 255
-0.058 -0.37 2.027 255 255 255
0.229 0.041 1.185 255 255 255
0.136 0.014 1.118 255 255 255
-0.573 -0.647 1.761 255 255 255
-0.64 -0.074 1.917 255 255 255
0.98 -0.502 2.425 255 255 255
-0.348 -1.104 1.727 255 255 255
0.257 0.259 0.949 255 255 255
0.137 0.269 1.091 255 255 255
-1.376 -1.3 2.987 255 255 255
0.094 0.127 1.07 255 255 255
-0.812 0.35 2.293 255 255 255
-1.334 0.398 2.621 255 255 255
-0.074 0.18 1.264 255 255 255
1.303 -0.422 2.612 255 255 255
-0.32 -0.658 1.846 255 255 255
0.487 -1.499 1.959 0 0 0
0.177 0.306 1.021 255 255 255
-0.101 -1.033 1.832 255 255 255
-0.454 -0.537 1.832 255 255 255
-1.37 0.361 2.737 255 255 255
0.321 0.063 0.981 255 255 255
0.283 -0.849 2.07 255 255 255
1.36 -1.117 2.442 255 255 255
1.113 -1.439 2.256 255 255 255
0.928 -1.203 2.204 255 255 255
-0.397 -0.166 1.964 255 255 255
0.07 0.227 1.122 255 255 255
0.431 -0.334 2.267 255 255 255
0.662 -0.694 2.249 255 255 255
0.053 -0.042 1.123 255 255 255
0.199 -0.087 1.242 0 0 0
0.279 0.373 0.785 255 255 255
-0.174 0.665 1.55 255 255 255
-0.838 0.631 1.776 255 255 255
-1.531 -1.308 2.939 255 255 255
0.223 -1.006 1.997 255 255 255
0.839 -1.404 2.119 255 255 255
-0.396 -0.189 1.957 255 255 255
0.529 -0.468 2.268 255 255 255
0.364 -0.431 2.221 255 255 255
-0.825 0.607 1.855 255 255 255
-0.157 -0.328 2 255 255 255
0.302 -1.134 1.99 255 255 255
0.005 0.236 1.363 255 255 255
1.011 -1.558 2.184 255 255 255
-0.766 0.584 1.93 255 255 255
0.048 0.622 1.661 255 255 255
-1.731 -1.347 2.853 255 255 255
0.58 -0.755 2.204 255 255 255
-1.347 0.416 2.579 255 255 255
0.289 0.304 0.855 255 255 255
0.367 0.316 0.925 0 0 0
-0.464 -0.789 1.761 255 255 255
-0.573 0.702 1.493 255 255 255
0.52 -0.069 1.089 255 255 255
-0.131 0.198 2.102 0 0 0
-0.102 0.7 1.439 255 255 255
-0.504 -0.668 1.778 255 255 255
0.82 -0.903 2.251 255 255 255
0.084 0.682 1.477 255 255 255
0.202 0.243 1.031 255 255 255
-1.146 0.37 2.592 255 255 255
0.32 0.227 0.984 0 0 0
0.25 0.069 1.137 255 255 255
0.424 -0.933 2.091 255 255 255
0.37 0.056 0.91 255 255 255
-1.312 -1.465 2.851 255 255 255
1.289 -1.199 2.391 255 255 255
-0.009 -1.207 1.814 255 255 255
0.353 -0.068 1.201 255 255 255
-0.753 0.595 1.893 255 255 255
-0.594 0.138 1.97 255 255 255
0.517 -0.686 2.199 255 255 255
0.472 -0.016 0.711 255 255 255
0.422 0.082 0.801 255 255 255
0.199 0.399 0.856 255 255 255
0.264 -0.392 2.19 255 255 255
0.325 0.046 1.008 255 255 255
0.187 0.122 1.12 255 255 255
-0.35 -0.194 1.972 255 255 255
0.031 -0.031 1.131 255 255 255
-0.038 0.572 1.833 255 255 255
0.43 -0.064 1.15 255 255 255
0.44 -0.055 0.74 255 255 255
-0.632 -0.062 1.919 255 255 255
-0.32 -0.592 1.859 255 255 255
1.088 -0.465 2.522 255 255 255
-0.653 0.667 1.615 255 255 255
0.31 0.098 1.053 255 255 255
0.099 0.111 1.082 255 255 255
-0.435 -0.878 1.743 255 255 255
-0.532 -0.738 1.748 255 255 255
0.469 -0.021 1.019 255 255 255
1.19 -0.821 2.458 255 255 255
0.077 -0.643 1.998 255 255 255
-0.367 0.58 1.904 255 255 255
0.237 -0.078 1.254 0 0 0
-0.295 -0.688 1.851 255 255 255
0.23 0.203 1.065 255 255 255
0.379 0.049 0.626 255 255 255
0.065 -0.698 1.977 255 255 255
-0.073 -0.531 1.98 255 255 255
-0.25 0.399 2.17 255 255 255
-1.507 -1.283 2.96 255 255 255
-0.143 0.64 1.627 255 255 255
0.847 -0.292 2.434 255 255 255
-0.649 0.57 1.97 255 255 255
-0.212 -1.004 1.791 255 255 255
0.584 -1.308 2.046 255 255 255
0.202 0.327 0.887 255 255 255
0.044 -0.766 1.956 255 255 255
0.851 -0.41 2.402 255 255 255
-0.013 -0.878 1.901 255 255 255
0.099 0.097 1.078 255 255 255
0.008 -1.142 1.833 255 255 255
0.17 0.186 1.109 255 255 255
0.153 -1.007 1.975 255 255 255
-0.247 -0.181 2.016 255 255 255
-0.555 -0.565 1.787 255 255 255
1.176 -0.792 2.459 255 255 255
-0.06 0.191 1.249 255 255 255
0.223 -0.048 1.263 0 0 0
0.403 0.028 0.857 255 255 255
0.067 0.525 1.953 0 0 0
-0.265 0.318 2.158 255 255 255
1.563 -0.736 2.618 255 255 255
0.373 0.273 0.77 255 255 255
-0.032 0.127 1.22 255 255 255
0.6 -0.916 2.167 0 0 0
-0.162 -0.848 1.851 255 255 255
0.036 -0.836 1.929 255 255 255
0.492 0.014 0.86 255 255 255
-0.273 0.724 1.387 255 255 255
-0.401 0.53 2.097 255 255 255
0.393 0.27 0.904 255 255 255
0.246 -0.738 2.081 255 255 255
-1.314 -1.344 2.894 255 255 255
-0.321 0.266 2.122 255 255 255
-0.499 -0.973 1.697 255 255 255
-0.563 0.274 2.02 255 255 255
-0.27 -0.8 1.813 255 255 255
0.382 0.01 0.937 255 255 255
0.074 -1.236 1.832 255 255 255
0.185 0.295 1.021 255 255 255
-1.011 0.268 2.726 255 255 255
0.184 0.456 1.032 255 255 255
-0.08 -0.812 1.894 255 255 255
-0.602 0.176 1.981 255 255 255
0.174 0.218 1.06 255 255 255
0.185 0.383 0.909 255 255 255
0.507 -0.539 2.243 255 255 255
0.396 0.05 0.595 255 255 255
1.135 -0.406 2.553 255 255 255
0.487 -1.351 2 255 255 255
0.003 0.538 1.955 255 255 255
-0.323 0.687 1.499 0 0 0
0.047 0.127 1.077 255 255 255
0.384 0.249 0.913 255 255 255
0.057 0.273 1.13 255 255 255
-0.213 -0.109 2.049 255 255 255
-0.4 0.722 1.407 255 255 255
0.288 -1.126 1.986 255 255 255
-0.666 0.636 1.725 255 255 255
-0.074 -1.294 1.767 0 0 0
0.54 -0.631 2.224 255 255 255
-0.576 -0.285 1.846 255 255 255
0.213 0.286 0.992 255 255 255
0.975 -0.735 2.357 255 255 255
-2.039 -0.633 2.883 255 255 255
0.228 -0.05 1.263 0 0 0
0.074 -1.172 1.847 255 255 255
-1.251 -1.164 2.968 0 0 0
1.537 -0.572 2.661 255 255 255
1.081 -0.875 2.404 255 255 255
-2.025 -0.328 2.946 255 255 255
-0.208 0.128 2.125 255 255 255
0.662 -1.187 2.111 255 255 255
-0.453 0.564 1.984 255 255 255
0.197 0.314 0.966 255 255 255
0.365 0.096 0.851 255 255 255
-0.534 0.344 2.068 255 255 255
0.896 -1.159 2.206 255 255 255
-0.903 0.418 2.333 255 255 255
-1.813 -0.712 2.998 255 255 255
-0.193 0.693 1.479 255 255 255
0.676 -0.195 2.401 255 255 255
-0.06 0.195 1.247 255 255 255
-0.546 -0.396 1.84 255 255 255
-0.359 -0.534 1.866 255 255 255
0.338 -1.289 1.961 255 255 255
0.882 -1.074 2.225 255 255 255
-1.283 -1.573 2.832 0 0 0
1.434 -1.078 2.48 255 255 255
0.59 -0.748 2.209 255 255 255
-0.19 -1.097 1.77 255 255 255
0.263 0.283 0.921 255 255 255
0.144 0.112 1.089 255 255 255
-0.009 -0.638 1.969 255 255 255
-0.14 -1.107 1.79 0 0 0
-0.028 0.689 1.464 255 255 255
-1.272 -1.432 2.871 0 0 0
0.248 0.385 0.839 255 255 255
0.288 0.04 1.09 255 255 255
-0.396 -0.185 1.957 255 255 255
0.316 0.249 0.953 255 255 255
-0.785 0.047 1.122 255 255 255
0.405 -0.548 2.197 255 255 255
0.274 0.263 0.93 255 255 255
-0.423 -0.083 1.974 255 255 255
1.506 -0.378 2.706 255 255 255
-1.228 -1.698 2.832 0 0 0
-0.182 0.094 2.122 255 255 255
-0.2 -0.732 1.873 255 255 255
1.77 -0.76 2.695 255 255 255
-0.479 -0.938 1.711 255 255 255
0.391 0.085 0.691 255 255 255
0.637 -0.861 2.192 255 255 255
1.023 -0.448 2.467 255 255 255
0.365 0.058 0.915 255 255 255
-0.504 -0.809 1.74 255 255 255
0.293 0.161 1.102 0 0 0
-0.572 -0.755 1.729 255 255 255
0.34 -0.06 1.191 255 255 255
-0.249 0.132 2.11 255 255 255
0.148 0.332 1.146 255 255 255
0.149 0.135 1.096 255 255 255
0.096 0.283 1.101 255 255 255
1.045 -0.661 2.447 255 255 255
0.065 -0.857 1.934 255 255 255
0.611 -0.31 2.341 255 255 255
-0.03 0.518 2.04 255 255 255
-0.215 0.723 1.392 255 255 255
1.579 -0.416 2.465 0 0 0
-0.277 -0.183 1.999 255 255 255
-0.275 0.17 2.11 255 255 255
0.193 0.34 0.852 255 255 255
-0.017 -0.827 1.918 255 255 255
0.692 -1.067 2.154 255 255 255
0.929 -1.24 2.195 255 255 255
-0.242 -0.887 1.812 255 255 255
-0.357 -1.075 1.718 0 0 0
0.46 0.034 0.797 0 0 0
-0.14 -1.126 1.788 0 0 0
0.126 0.34 1.094 255 255 255
-0.291 0.516 2.125 255 255 255
1.132 -1.514 2.242 255 255 255
0.458 0.038 0.764 255 255 255
-0.383 0.025 2.024 255 255 255
0.204 0.226 1.044 255 255 255
0.489 -1.401 1.986 255 255 255
-0.24 0.097 2.102 255 255 255
1.638 -0.971 2.596 255 255 255
1.659 -0.404 2.301 255 255 255
-0.221 -0.275 1.995 255 255 255
-0.752 0.634 1.757 255 255 255
-1.251 -1.34 2.92 0 0 0
0.294 0.383 0.76 255 255 255
-0.305 -1.076 1.742 255 255 255
0.285 0.228 1.037 255 255 255
-0.569 -0.812 1.714 255 255 255
1.219 -0.586 2.537 255 255 255
0.206 0.298 0.954 255 255 255
-1.796 -0.738 2.994 255 255 255
-1.009 0.507 2.198 255 255 255
-0.398 0.61 1.773 255 255 255
-0.029 -0.836 1.908 255 255 255
0.526 -0.024 0.916 0 0 0
0.199 0.254 1.032 255 255 255
1.543 -0.637 2.649 255 255 255
-0.311 0.625 1.704 255 255 255
0.088 0.133 1.082 255 255 255
-0.904 0.398 2.395 255 255 255
-0.338 -1.244 1.678 0 0 0
0.437 -1.157 2.034 255 255 255
-1.81 -1.226 2.854 255 255 255
1.076 -0.275 2.57 255 255 255
-0.412 -0.479 1.865 255 255 255
0.817 -0.193 2.479 255 255 255
-0.574 0.701 1.498 255 255 255
0.372 -1.05 2.041 255 255 255
-0.523 -0.593 1.794 255 255 255
0.083 -0.006 1.127 255 255 255
1.575 -0.653 2.653 255 255 255
-0.43 0.262 2.08 255 255 255
-0.382 0.556 2.013 255 255 255
-0.687 -1.192 1.578 0 0 0
-0.442 -1.207 1.647 0 0 0
1.078 -0.652 2.47 255 255 255
0.266 0.191 1.125 255 255 255
0.123 0.322 1.09 255 255 255
-1.922 -0.693 2.96 255 255 255
0.667 -0.723 2.245 255 255 255
0.313 0.018 1.057 255 255 255
0.101 0.711 1.378 255 255 255
-0.485 -0.776 1.756 255 255 255
0.419 -0.58 2.193 255 255 255
0.671 -0.798 2.225 255 255 255
-0.279 -0.7 1.85 255 255 255
-0.009 -0.655 1.967 255 255 255
-0.218 -0.418 1.954 255 255 255
-0.069 -0.986 1.854 255 255 255
1.427 -0.687 2.583 255 255 255
0.338 -0.502 2.187 255 255 255
0.233 -0.656 2.102 255 255 255
1.25 -0.346 2.618 255 255 255
0.213 -0.004 1.236 255 255 255
0 0.649 1.579 255 255 255
0.411 -0.351 2.257 255 255 255
0.561 -0.071 1.116 255 255 255
0.368 0.157 0.854 255 255 255
0.507 -0.027 0.961 255 255 255
0.405 0.057 0.612 255 255 255
-1.454 -1.877 2.807 255 255 255
0.049 -1.039 1.88 255 255 255
0.036 -0.02 1.129 255 255 255
0.31 -0.865 2.072 255 255 255
1.55 -0.85 2.584 255 255 255
0.357 -0.047 1.108 255 255 255
0.17 -0.758 2.051 255 255 255
-0.075 -0.144 2.087 255 255 255
-0.425 0.611 1.773 255 255 255
0.407 0.059 0.77 255 255 255
-0.217 -0.101 2.047 255 255 255
-0.073 0.232 1.249 255 255 255
0.242 0.437 0.843 255 255 255
-0.435 -1.138 1.666 0 0 0
-0.961 0.538 2.085 255 255 255
0.464 0.028 0.797 0 0 0
-0.185 0.585 1.83 255 255 255
0.193 -1.089 1.965 255 255 255
-0.265 -0.358 1.953 255 255 255
-0.135 -0.769 1.884 0 0 0
-0.077 0.276 1.311 0 0 0
0.22 0.163 1.086 255 255 255
0.242 0.013 1.203 255 255 255
-2.046 -0.742 2.837 255 255 255
0.077 -0.326 2.042 0 0 0
-0.073 -1.109 1.82 255 255 255
0.111 0.702 1.401 255 255 255
-1.851 -1.047 2.885 255 255 255
0.101 0.343 1.096 255 255 255
0.109 -0.086 1.144 255 255 255
-0.08 0.654 1.581 255 255 255
-0.159 0.618 1.698 255 255 255
0.632 -1.058 2.135 255 255 255
1.24 -1.31 2.344 255 255 255
0.063 -0.083 1.138 255 255 255
-0.023 0.309 1.387 0 0 0
-0.233 -1.153 1.737 255 255 255
1.183 -0.831 2.454 255 255 255
0.52 -0.066 0.746 255 255 255
0.445 0.014 0.692 255 255 255
0.165 0.448 1.108 255 255 255
0.229 0.329 0.832 255 255 255
-0.507 0.754 1.346 255 255 255
-0.622 -1.223 1.566 255 255 255
-0.429 -0.951 1.727 255 255 255
-0.375 -0.138 1.977 255 255 255
0.202 0.386 0.848 255 255 255
-0.139 0.686 1.484 0 0 0
1.824 -0.607 2.706 255 255 255
0.221 -0.075 1.253 0 0 0
0.378 0.175 0.84 255 255 255
-0.598 -0.779 1.701 255 255 255
0.102 -0.723 1.984 255 255 255
1.811 -0.731 2.691 255 255 255
-0.112 -0.111 2.083 255 255 255
1.794 -0.828 2.671 255 255 255
0.427 0.032 0.673 0 0 0
-0.385 0.486 2.141 255 255 255
-0.361 -0.636 1.837 255 255 255
0.008 0.518 2.024 255 255 255
0.894 -0.215 2.477 255 255 255
0.237 0.554 1.09 255 255 255
0.768 -0.563 2.323 255 255 255
0.446 -0.344 2.271 255 255 255
-1.986 -0.823 2.89 255 255 255
0.434 0.092 0.698 255 255 255
0.009 0.033 1.168 255 255 255
0.402 0.244 0.87 255 255 255
0.27 0.391 0.787 255 255 255
0.676 -0.869 2.205 255 255 255
0.35 -1.198 1.993 255 255 255
-0.484 -0.198 1.916 255 255 255
-0.092 -0.148 2.079 255 255 255
-0.614 -0.803 1.683 255 255 255
0.306 -0.722 2.112 255 255 255
0.171 0.557 1.082 255 255 255
0.147 -0.116 1.185 255 255 255
-0.308 -0.791 1.809 255 255 255
-0.271 -1.149 1.728 0 0 0
-1.764 -1.269 2.847 255 255 255
-0.409 -0.739 1.793 255 255 255
0.257 -0.029 1.229 0 0 0
-0.507 -1.138 1.645 255 255 255
1.777 -0.804 2.686 255 255 255
0.028 0.594 1.734 255 255 255
0.392 0.318 0.919 255 255 255
0.031 0.686 1.473 255 255 255
-0.112 -0.88 1.864 255 255 255
-0.219 0.215 2.145 255 255 255
1.609 -0.384 2.332 255 255 255
0.031 0.681 1.485 255 255 255
0.255 0.153 1.089 255 255 255
0.27 -0.723 2.105 255 255 255
0.092 0.095 1.076 255 255 255
1.383 -0.507 2.616 255 255 255
-1.207 -1.159 2.987 0 0 0
0.372 -0.877 2.093 255 255 255
0.07 -1.221 1.833 255 255 255
0.153 -1.171 1.927 255 255 255
0.112 0.619 1.479 255 255 255
