ply
format ascii 1.0
comment Created by Open3D
element vertex 1586
property double x
property double y
property double z
property uchar red
property uchar green
property uchar blue
end_header
0.183 0.635 1.414 255 255 255
0.016 -0.304 2.035 255 255 255
-0.415 -0.649 1.808 255 255 255
0.507 0 0.722 255 255 255
-0.382 -1.042 1.715 255 255 255
0.078 0.038 1.186 255 255 255
-0.511 -0.705 1.753 255 255 255
1.37 -0.807 2.426 255 255 255
-0.485 -0.552 1.795 255 255 255
0.425 -0.29 2.214 255 255 255
-0.885 0.498 2.39 0 0 0
0.243 -0.385 2.082 255 255 255
0.765 -1.381 2.039 255 255 255
-0.286 -0.289 1.942 255 255 255
-0.534 0.723 1.533 255 255 255
-0.147 -1.137 1.766 0 0 0
0.946 -0.234 2.392 255 255 255
0.053 -0.013 1.348 255 255 255
-0.308 -0.176 1.962 255 255 255
1.812 -0.238 2.713 255 255 255
-0.754 0.621 1.939 255 255 255
0.072 -0.082 1.25 0 0 0
0.275 0.327 0.849 255 255 255
0.345 -0.971 2.007 255 255 255
-1.035 -2.127 2.811 0 0 0
-0.013 -0.539 1.964 255 255 255
0.07 -0.029 1.223 0 0 0
0.291 0.241 1.058 255 255 255
0.677 -0.013 2.374 255 255 255
0.059 0.671 1.659 255 255 255
-0.382 -0.666 1.815 255 255 255
1.543 -0.924 2.456 255 255 255
0.147 0.1 1.1 255 255 255
0.027 0.741 1.437 255 255 255
-0.305 0.293 2.1 255 255 255
-0.711 0.395 2.324 255 255 255
1.376 -0.889 2.406 255 255 255
1.248 -0.486 2.468 255 255 255
0.493 0.029 0.705 255 255 255
-0.085 -1.164 1.778 255 255 255
-0.307 0.257 2.088 255 255 255
-0.709 0.535 2.264 255 255 255
0.411 0.283 0.946 255 255 255
0.246 0.546 1.041 255 255 255
0.365 0.031 1.155 255 255 255
1.019 -1.528 2.061 0 0 0
0.324 0.09 1.149 255 255 255
-0.849 0.272 2.94 0 0 0
0.065 -0.331 2.042 255 255 255
-0.184 -0.007 2.052 255 255 255
-0.515 -0.792 1.728 255 255 255
0.331 0.302 0.917 255 255 255
0.37 0.267 1.037 255 255 255
-0.577 0.586 2.06 255 255 255
-0.42 0.458 2.092 255 255 255
0.507 -0.009 1.126 255 255 255
-0.034 0.009 2.104 255 255 255
0.636 -0.717 2.168 0 0 0
0.838 -0.607 2.26 255 255 255
-0.499 -0.467 1.817 255 255 255
-0.733 -0.032 1.128 255 255 255
0.479 -1.355 1.954 255 255 255
-0.528 -1.216 1.614 0 0 0
0.048 0.038 1.27 255 255 255
-1.229 -1.96 2.9 255 255 255
-0.699 0.121 1.189 255 255 255
-0.036 -0.776 1.894 255 255 255
-1.671 -1.359 2.905 255 255 255
0.209 -0.35 2.079 255 255 255
0.683 -0.018 2.375 255 255 255
-0.3 0.473 2.134 255 255 255
0.222 0.734 1.427 255 255 255
-0.871 0.572 2.118 255 255 255
0.233 0.12 1.141 255 255 255
1.285 -0.883 2.381 255 255 255
0.83 -1.351 2.063 255 255 255
1.056 -0.88 2.259 255 255 255
0.085 0.654 1.716 255 255 255
-0.031 0.199 2.156 255 255 255
0.003 -0.583 1.958 255 255 255
-0.313 -0.443 1.892 255 255 255
-0.332 -1.14 1.707 0 0 0
-0.347 0.653 1.777 255 255 255
0.465 -0.411 2.195 255 255 255
-0.256 -0.567 1.878 255 255 255
-0.496 -0.674 1.761 255 255 255
0.562 -0.777 2.126 255 255 255
-1.184 0.516 2.367 255 255 255
0.201 0.065 1.113 255 255 255
0.289 -0.05 1.245 0 0 0
-0.277 -1.108 1.725 0 0 0
1.255 -0.988 2.343 255 255 255
-0.652 0.636 1.882 255 255 255
-0.276 -0.434 1.908 255 255 255
0.296 0.478 0.868 255 255 255
0.434 0.341 0.938 255 255 255
0.197 0.186 1.092 255 255 255
-0.231 0.634 1.853 255 255 255
0.3 -0.826 2.036 255 255 255
-0.365 -1.12 1.703 255 255 255
-0.259 -0.335 1.938 255 255 255
-0.556 -1.102 1.663 255 255 255
0.642 -1.503 1.935 255 255 255
-0.171 0.688 1.622 255 255 255
0.509 -1.242 1.989 255 255 255
0.36 0.179 1.122 255 255 255
0.336 -0.681 2.082 255 255 255
1.407 -1.132 2.336 255 255 255
0.852 -1.493 2.036 0 0 0
0.592 -1.383 1.986 255 255 255
1.202 -1.409 2.219 255 255 255
1.097 -1.066 2.222 255 255 255
0.394 0.257 1.033 0 0 0
1.477 -0.228 2.613 255 255 255
-0.78 0.691 1.675 255 255 255
0.9 -0.251 2.373 255 255 255
0.253 -0.341 2.096 255 255 255
-0.064 -0.461 1.967 255 255 255
0.453 -0.752 2.1 255 255 255
0.016 -0.427 2.003 255 255 255
-0.129 0.596 2.02 255 255 255
-0.078 0.739 1.447 255 255 255
0.241 0.433 0.885 255 255 255
-0.154 0.429 2.168 255 255 255
-0.024 -0.589 1.948 255 255 255
-0.092 -0.482 1.952 255 255 255
-0.921 0.586 2.065 255 255 255
0.004 -0.119 2.079 255 255 255
1.739 -0.213 2.461 0 0 0
0.227 0.25 1.075 255 255 255
0.256 0.124 1.171 255 255 255
1.061 -0.24 2.424 255 255 255
0.449 -0.264 2.223 255 255 255
-0.511 0.061 1.962 255 255 255
0.236 -0.886 1.948 255 255 255
-0.295 0.757 1.414 255 255 255
1.585 -0.966 2.456 255 255 255
-1.887 -0.731 2.925 0 0 0
-0.041 -1.238 1.773 255 255 255
1.213 -1.371 2.217 255 255 255
0.288 0.377 0.815 255 255 255
-0.423 -0.36 1.88 255 255 255
0.46 0.094 0.768 255 255 255
-0.48 0.429 2.069 255 255 255
-0.206 0.038 2.062 255 255 255
1.002 -1.075 2.194 255 255 255
1.063 -0.169 2.446 255 255 255
0.364 0.248 1.11 255 255 255
-0.203 -0.715 1.863 0 0 0
0.176 -0.166 1.217 0 0 0
-0.316 0.025 2.019 255 255 255
-0.46 -0.116 1.922 255 255 255
0.12 -0.011 1.137 255 255 255
0.198 -0.508 2.035 255 255 255
-0.041 -0.219 2.04 255 255 255
-0.289 0.037 2.029 255 255 255
-0.09 0.68 1.644 255 255 255
-0.469 0.508 2.087 255 255 255
-0.08 0.102 2.114 255 255 255
0.449 -0.735 2.105 255 255 255
0.312 0.41 0.789 255 255 255
0.548 0.042 0.89 255 255 255
1.442 -0.414 2.548 255 255 255
0.486 0.036 0.922 255 255 255
0.104 -0.056 1.188 255 255 255
-0.415 -0.368 1.879 255 255 255
-0.819 -0.03 1.217 255 255 255
0.369 0.089 1.042 255 255 255
-0.116 0.013 2.08 255 255 255
-0.169 -0.925 1.821 255 255 255
0.598 -0.006 0.986 255 255 255
0.478 -0.907 2.068 255 255 255
-0.032 -0.843 1.882 255 255 255
0.227 0.333 1.159 255 255 255
0.135 -1.025 1.887 255 255 255
-0.327 0.248 2.08 255 255 255
0.479 0.001 1.08 255 255 255
0.197 -1.3 1.831 255 255 255
-1.665 -1.507 2.861 255 255 255
0.141 0.1 1.103 255 255 255
0.155 0.25 1.094 255 255 255
-0.012 -0.891 1.87 0 0 0
0.737 -0.75 2.188 255 255 255
1.201 -1.258 2.247 255 255 255
-0.533 -1.048 1.658 255 255 255
-0.012 -0.573 1.953 255 255 255
0.904 -0.198 2.385 255 255 255
0.54 0.012 1.054 255 255 255
0.237 0.293 1.062 255 255 255
-0.142 -0.94 1.817 0 0 0
0.753 -1.077 2.115 255 255 255
-0.116 -0.028 2.067 255 255 255
-0.074 -0.146 2.047 255 255 255
-0.442 -0.924 1.725 255 255 255
-0.501 -0.397 1.835 255 255 255
0.465 -0.379 2.2 255 255 255
0.127 0.012 1.12 255 255 255
-1.081 -1.334 2.986 0 0 0
0.106 -0.035 1.184 255 255 255
0.393 0.098 0.972 255 255 255
0.003 -0.876 1.885 255 255 255
-0.127 -1.118 1.769 0 0 0
0.143 -0.931 1.91 255 255 255
0.552 0.044 0.939 0 0 0
1.658 -0.341 2.633 255 255 255
0.091 -0.219 2.077 255 255 255
-1.033 -1.646 2.933 0 0 0
0.749 -0.512 2.254 255 255 255
0.6 -0.222 2.285 255 255 255
-0.389 0.733 1.484 255 255 255
-0.369 0.622 1.93 255 255 255
0.412 -0.57 2.136 255 255 255
1.372 -1.012 2.367 255 255 255
0.231 -0.868 1.952 255 255 255
0.229 -1.099 1.897 255 255 255
1.215 -0.457 2.467 255 255 255
0.692 -0.212 2.315 255 255 255
0.307 0.421 0.822 255 255 255
0.086 0.194 1.191 255 255 255
0.293 0.173 1.111 255 255 255
-0.15 -0.505 1.927 255 255 255
1.291 -0.969 2.358 255 255 255
0.317 -1.222 1.937 255 255 255
0.741 -1.529 1.957 255 255 255
0.578 -0.722 2.148 255 255 255
0.046 0.657 1.713 255 255 255
0.113 0.073 1.108 255 255 255
-1.367 -1.601 2.945 255 255 255
0.331 0.366 0.817 255 255 255
0.796 -1.5 1.985 0 0 0
0.407 -1.374 1.932 255 255 255
0.332 -1.244 1.935 255 255 255
0.341 0.081 1.126 0 0 0
-0.199 0.727 1.49 255 255 255
-0.189 -0.876 1.841 0 0 0
0.172 0.611 1.86 0 0 0
-0.087 -0.661 1.907 255 255 255
-0.423 0.356 2.079 255 255 255
-0.634 0.587 2.052 255 255 255
0.504 -0.409 2.204 255 255 255
0.331 -0.015 1.256 0 0 0
-0.257 0.133 2.071 255 255 255
-0.405 -1.073 1.699 255 255 255
0.872 -0.162 2.388 255 255 255
0.593 -0.815 2.13 0 0 0
-0.477 0.762 1.397 255 255 255
-1.618 -1.467 2.892 255 255 255
0.82 -1.43 2.045 255 255 255
0.749 -0.954 2.141 255 255 255
-0.337 -0.102 1.974 255 255 255
-0.716 0.183 1.191 255 255 255
-0.236 0.668 1.7 255 255 255
1.371 -0.145 2.597 0 0 0
0.607 -1.461 1.971 0 0 0
1.435 -0.577 2.502 255 255 255
-0.078 -0.134 2.048 255 255 255
0.361 0.256 1.102 255 255 255
-0.165 -0.156 2.015 255 255 255
0.13 0.281 1.121 255 255 255
0.291 0.372 0.814 255 255 255
1.053 -0.548 2.347 255 255 255
1.314 -0.36 2.525 255 255 255
0.285 0.018 1.248 255 255 255
-0.203 -0.463 1.921 255 255 255
0.257 0.054 1.215 255 255 255
-0.378 -0.715 1.801 255 255 255
-0.311 -0.582 1.855 255 255 255
-1.288 0.453 2.615 255 255 255
0.176 -1.299 1.824 255 255 255
-1.185 -0.267 1.595 255 255 255
1.264 -0.609 2.443 255 255 255
0.352 0.118 1.074 0 0 0
0.533 -0.026 1.134 255 255 255
0.096 0.571 2.056 255 255 255
-0.817 0.665 1.769 255 255 255
0.116 0.238 1.129 255 255 255
1.157 -0.152 2.485 255 255 255
-0.164 0.302 2.146 255 255 255
0.203 -0.476 2.047 255 255 255
1.13 -0.299 2.43 255 255 255
-1.837 -0.784 2.999 255 255 255
0.246 0.372 0.899 255 255 255
0.127 0.047 1.116 255 255 255
-0.293 -0.535 1.875 255 255 255
-0.137 -0.816 1.85 255 255 255
-0.143 -0.363 1.966 255 255 255
0.403 -1.012 2.022 255 255 255
1.334 -1.149 2.328 255 255 255
-0.336 -0.287 1.928 255 255 255
-0.318 -0.09 1.982 255 255 255
-0.665 0.687 1.676 255 255 255
-0.53 -1.246 1.605 255 255 255
-0.477 0.707 1.579 0 0 0
-0.238 0.146 2.081 255 255 255
-1.279 -2.119 2.843 255 255 255
-0.192 -0.969 1.798 0 0 0
-0.713 0.143 1.184 255 255 255
0.221 0.478 1.103 255 255 255
1.456 -1.066 2.385 255 255 255
0.502 -0.737 2.118 255 255 255
-0.133 -0.83 1.841 255 255 255
1.082 -0.596 2.34 255 255 255
0.441 0.28 0.91 255 255 255
0.599 0.007 0.932 255 255 255
0.349 0.238 1.122 255 255 255
-1.134 0.533 2.284 255 255 255
-0.919 0.564 2.151 255 255 255
-0.353 0.427 2.118 255 255 255
-0.29 -0.891 1.788 255 255 255
0.208 -0.131 1.19 0 0 0
-0.317 -0.141 1.969 255 255 255
0.147 0.174 1.089 255 255 255
-0.794 0.635 1.885 255 255 255
-0.193 -1.045 1.781 255 255 255
0.387 0.017 1.132 255 255 255
-0.669 0.23 2.388 0 0 0
0.425 -0.727 2.098 255 255 255
0.745 -0.034 1.189 255 255 255
-0.702 0.364 2.313 255 255 255
-1.076 0.513 2.361 255 255 255
0.527 0.005 1.088 255 255 255
-0.233 0.602 2.021 255 255 255
0.528 -1.447 1.949 0 0 0
-1.238 0.423 2.708 255 255 255
0.081 0.686 1.603 255 255 255
0.447 0.201 0.8 255 255 255
-1.701 -1.194 2.931 255 255 255
0.054 0.202 1.241 255 255 255
-0.046 -0.142 2.055 255 255 255
-0.123 -0.411 1.963 255 255 255
0.328 0.328 0.841 255 255 255
0.092 0.065 1.162 255 255 255
-0.065 0.713 1.53 0 0 0
0.55 0.03 0.966 255 255 255
0.64 -0.763 2.155 255 255 255
-0.743 0.67 1.757 255 255 255
1.151 -0.769 2.329 255 255 255
0.342 -0.579 2.111 255 255 255
0.091 -0.123 1.266 0 0 0
-0.593 0.597 2.016 255 255 255
-1.252 0.532 2.32 255 255 255
0.206 -0.919 1.93 255 255 255
0.634 -0.527 2.214 255 255 255
-0.457 0.252 2.026 255 255 255
0.337 0.035 1.191 0 0 0
0.956 -0.425 2.344 255 255 255
0.161 0.224 1.09 255 255 255
-0.157 -0.569 1.905 255 255 255
0.159 0.385 1.093 255 255 255
-0.455 0.752 1.433 255 255 255
0.22 0.536 1.068 255 255 255
-0.139 -0.101 2.04 255 255 255
0.102 0.265 1.369 255 255 255
-0.727 -0.278 1.067 255 255 255
0.032 0.158 1.25 255 255 255
-0.382 0.766 1.382 255 255 255
-0.222 -0.92 1.799 255 255 255
0.444 -0.808 2.083 255 255 255
-0.309 -0.921 1.774 255 255 255
-0.084 -1.138 1.785 0 0 0
0.507 -0.8 2.105 255 255 255
0.42 0.202 0.87 255 255 255
0.489 -1.009 2.046 255 255 255
0.438 0.193 0.816 255 255 255
0.347 -1.292 1.929 255 255 255
0.155 -0.088 1.16 255 255 255
0.689 -1.21 2.055 255 255 255
-0.181 0.624 1.9 255 255 255
-0.075 -0.732 1.891 255 255 255
0.028 -0.562 1.971 255 255 255
-0.523 -0.766 1.735 255 255 255
0.481 -0.014 1.165 255 255 255
-0.232 -0.64 1.864 255 255 255
0.2 0.108 1.093 255 255 255
-0.487 -1.11 1.659 255 255 255
-0.198 -0.619 1.878 255 255 255
-0.97 0.496 2.411 255 255 255
-0.42 -0.228 1.915 255 255 255
0.441 0.239 0.861 255 255 255
-0.286 -0.474 1.89 255 255 255
0.006 0.679 1.642 255 255 255
-1.113 0.474 2.52 255 255 255
0.742 -0.163 2.346 255 255 255
0.758 -0.366 2.302 255 255 255
0.944 -1.333 2.106 255 255 255
0.273 0.108 1.174 255 255 255
0.011 -0.787 1.908 255 255 255
0.304 0.271 1.02 255 255 255
0.476 0.129 0.792 255 255 255
0.027 0.208 1.244 255 255 255
-0.118 -0.595 1.912 255 255 255
1.131 -1.388 2.158 255 255 255
0.02 0.206 1.251 255 255 255
-0.468 -0.375 1.849 255 255 255
-1.894 -0.981 2.861 255 255 255
-0.721 -0.017 1.134 255 255 255
-1.169 -1.506 2.98 255 255 255
0.477 -1.182 1.995 255 255 255
-0.187 -0.273 1.977 255 255 255
0.239 -1.135 1.889 255 255 255
0.686 -1.264 2.039 255 255 255
-0.399 0.577 2.106 255 255 255
0.368 0.175 1.089 255 255 255
-0.515 0.355 2.061 255 255 255
-0.284 0.297 2.105 255 255 255
-0.468 -0.428 1.841 255 255 255
0.851 -1.401 2.059 255 255 255
0.6 -1.242 2.019 255 255 255
0.09 -1.192 1.83 255 255 255
-1.299 -1.759 2.926 255 255 255
0.522 0.07 0.785 255 255 255
0.698 -0.877 2.141 255 255 255
-0.351 0.669 1.712 255 255 255
0.911 -0.702 2.254 255 255 255
-0.694 0.476 2.343 255 255 255
-0.958 0.544 2.223 255 255 255
-0.065 -1.094 1.812 0 0 0
-0.543 0.578 2.088 255 255 255
0.703 -0.028 2.375 255 255 255
-0.496 -0.607 1.777 255 255 255
0.17 -0.127 1.177 0 0 0
-1.877 -1.125 2.896 255 255 255
0.644 -1.27 2.029 255 255 255
-0.48 -0.969 1.701 255 255 255
0.016 -0.62 1.953 255 255 255
0.526 0.064 0.802 255 255 255
0.024 -1.106 1.833 255 255 255
0.221 0.276 1.1 255 255 255
-0.692 0.703 1.615 0 0 0
0.263 0.331 0.994 255 255 255
0.393 0.019 1.119 255 255 255
1.43 -0.943 2.408 255 255 255
0.287 -1.02 1.981 255 255 255
-0.706 0.149 1.193 255 255 255
-0.46 0.29 2.034 255 255 255
0.223 -0.596 2.022 255 255 255
0.176 0.245 1.083 255 255 255
-0.483 0.663 1.762 255 255 255
0.137 0.2 1.098 255 255 255
1.323 -0.442 2.508 255 255 255
0.106 -1.01 1.879 255 255 255
1.004 -1.182 2.164 255 255 255
0.291 0.369 0.815 255 255 255
0.875 -0.97 2.175 255 255 255
0.142 0.149 1.074 255 255 255
1.349 -1.001 2.362 255 255 255
-0.49 -1.132 1.646 255 255 255
0.072 -0.968 1.882 255 255 255
0.264 0.168 1.109 255 255 255
0.345 -0.819 2.048 255 255 255
-1.544 -1.656 2.87 255 255 255
-0.1 0.74 1.448 255 255 255
0.018 0.632 1.808 255 255 255
0.323 -1.261 1.927 255 255 255
-0.17 -0.335 1.965 255 255 255
-0.423 -0.066 1.959 255 255 255
-0.064 -0.695 1.907 255 255 255
-0.196 0.23 2.122 255 255 255
-0.005 -0.143 2.073 255 255 255
-0.312 -0.18 1.961 255 255 255
1.511 -1.075 2.407 255 255 255
-0.141 -0.554 1.91 255 255 255
-0.3 -0.66 1.842 255 255 255
0.075 0.628 1.819 255 255 255
0.206 0.43 1.159 255 255 255
-1.052 -1.815 2.885 0 0 0
0.324 0.369 0.803 255 255 255
-0.815 -0.307 1.134 255 255 255
0.281 -0.776 2.041 255 255 255
-0.214 -1.057 1.751 255 255 255
0.845 -1.304 2.081 255 255 255
-0.556 0.674 1.71 255 255 255
-0.647 0.688 1.682 255 255 255
-0.556 0.698 1.626 255 255 255
-1.292 -1.526 2.99 255 255 255
-0.472 -0.58 1.798 255 255 255
0.086 0.744 1.427 255 255 255
-0.525 -1.179 1.62 0 0 0
0.405 -0.506 2.157 255 255 255
0.892 -1.08 2.159 255 255 255
-0.041 -1.095 1.814 0 0 0
-0.158 0.723 1.499 255 255 255
-0.288 -0.372 1.919 255 255 255
-1.049 -1.888 2.869 0 0 0
-0.136 -0.29 1.989 255 255 255
0.333 0.36 0.808 255 255 255
-0.105 0.656 1.73 255 255 255
0.998 -0.775 2.267 255 255 255
-0.433 -0.633 1.805 255 255 255
-0.161 -0.164 2.015 255 255 255
-0.492 0.728 1.51 255 255 255
0.317 0.035 1.229 0 0 0
-0.433 -0.595 1.814 255 255 255
0.424 -0.007 1.148 255 255 255
-0.251 -0.174 1.983 255 255 255
0.294 -0.773 2.044 255 255 255
-0.489 0.667 1.738 255 255 255
-0.444 -0.746 1.773 255 255 255
0.418 0.246 0.942 255 255 255
-0.34 0.623 1.924 255 255 255
0.602 -1.107 2.055 255 255 255
1.503 -0.183 2.626 255 255 255
-0.464 -0.027 1.941 255 255 255
-0.41 0.702 1.599 0 0 0
-0.589 0.538 2.219 0 0 0
-0.68 0.695 1.649 255 255 255
-0.421 -0.9 1.744 255 255 255
-0.828 0.524 2.302 255 255 255
0.048 -0.575 1.974 255 255 255
0.078 -0.218 2.073 255 255 255
-0.248 0.689 1.627 255 255 255
0.717 -0.721 2.195 255 255 255
0.257 0.732 1.404 255 255 255
0.479 0.135 0.778 255 255 255
0.385 0.175 1.026 255 255 255
-0.111 0.735 1.466 255 255 255
0.905 -1.463 2.064 255 255 255
-0.398 -0.335 1.896 255 255 255
0.323 -1.034 1.984 255 255 255
-0.072 -1.081 1.807 255 255 255
0.35 -0.653 2.094 255 255 255
0.404 0.223 0.998 255 255 255
-0.554 -0.908 1.717 255 255 255
1.35 -0.172 2.582 255 255 255
0.406 -0.41 2.174 255 255 255
-0.032 -0.607 1.938 255 255 255
0.852 -0.842 2.206 0 0 0
-1.062 -2.073 2.805 0 0 0
-0.446 -1.043 1.698 255 255 255
0.972 -0.398 2.361 255 255 255
0.811 -1.49 2.023 0 0 0
-0.036 -0.552 1.951 255 255 255
-0.47 0.671 1.72 255 255 255
-1.373 0.415 2.738 255 255 255
-0.798 -0.072 1.185 255 255 255
0.257 0.139 1.155 255 255 255
-0.292 -0.368 1.918 255 255 255
1.433 -0.152 2.613 0 0 0
-0.442 0.529 2.104 255 255 255
-0.133 -0.188 2.018 255 255 255
0.108 0.025 1.135 255 255 255
-1.58 -1.302 2.946 255 255 255
-0.595 0.591 2.041 255 255 255
0.041 0.335 1.374 0 0 0
-0.368 -0.094 1.967 255 255 255
-0.155 0.126 2.1 255 255 255
0.214 0.014 1.136 255 255 255
-1.503 -1.676 2.875 255 255 255
0.425 0.018 1.071 255 255 255
0.042 0.056 1.266 255 255 255
0.131 0.245 1.115 255 255 255
-0.46 -0.097 1.924 255 255 255
-0.044 0.739 1.44 255 255 255
0.12 -0.26 2.075 255 255 255
0.421 0.22 0.888 255 255 255
0.558 -1.206 2.014 255 255 255
0.707 -1.488 1.962 0 0 0
-0.183 -0.767 1.845 255 255 255
-0.101 0.76 1.395 255 255 255
0.204 -0.395 2.065 255 255 255
0.728 -1.441 2.008 0 0 0
-0.154 -0.91 1.829 255 255 255
0.111 -0.11 1.206 0 0 0
-0.059 0.005 2.095 255 255 255
1.032 -1.252 2.153 255 255 255
0.184 -0.722 1.978 255 255 255
0.255 0.128 1.165 255 255 255
-0.126 -0.848 1.842 255 255 255
-0.406 -0.312 1.897 255 255 255
-0.369 -0.979 1.737 255 255 255
-0.439 -0.472 1.848 255 255 255
-1.527 -1.342 2.953 255 255 255
0.198 -1.035 1.902 255 255 255
0.151 -0.561 2.011 255 255 255
0.923 -0.441 2.329 255 255 255
-0.307 0.686 1.641 255 255 255
-0.138 0.554 2.18 255 255 255
1.329 -0.815 2.408 255 255 255
-0.046 0.674 1.659 255 255 255
-0.302 -0.023 2.009 255 255 255
0.445 -1.227 1.974 255 255 255
1.418 -1.053 2.38 255 255 255
0.517 -0.758 2.119 255 255 255
-0.531 0.571 2.113 0 0 0
-1.362 -1.657 2.931 255 255 255
0.022 0.344 1.376 0 0 0
1.089 -0.307 2.417 255 255 255
0.042 0.271 1.242 255 255 255
0.262 -1.208 1.919 0 0 0
-0.719 0.674 1.737 255 255 255
0.915 -1.443 2.07 255 255 255
0.105 0.307 1.366 255 255 255
1.355 -0.314 2.544 255 255 255
1.075 -0.933 2.249 255 255 255
0.55 -0.567 2.177 255 255 255
0.504 -0.606 2.154 255 255 255
-0.425 -0.969 1.72 255 255 255
-0.374 -0.719 1.801 255 255 255
0.127 0.117 1.098 255 255 255
1.098 -1.061 2.225 255 255 255
-0.516 -0.854 1.713 255 255 255
-0.817 -0.277 1.147 255 255 255
-1.152 0.477 2.524 255 255 255
-1.239 -1.554 2.999 255 255 255
-0.562 0.58 2.073 255 255 255
0.307 0.361 0.812 255 255 255
-0.474 -0.263 1.871 255 255 255
-0.037 -0.134 2.058 255 255 255
1.394 -0.491 2.513 255 255 255
-0.024 -0.958 1.855 255 255 255
-0.466 -0.062 1.93 255 255 255
-1.418 -1.72 2.895 255 255 255
0.284 0.146 1.134 255 255 255
-0.169 -0.007 2.059 255 255 255
-0.352 0.273 2.077 255 255 255
0.469 -0.69 2.124 255 255 255
-0.381 -0.425 1.876 255 255 255
1.071 -0.351 2.399 255 255 255
0.403 -0.643 2.118 255 255 255
-0.477 0.053 1.96 255 255 255
0.398 0.04 0.997 255 255 255
-0.183 -0.799 1.837 255 255 255
-0.586 0.675 1.716 255 255 255
0.817 -0.797 2.204 255 255 255
0.394 0.117 0.933 255 255 255
0.292 0.33 0.92 255 255 255
1.044 -0.379 2.386 255 255 255
0.075 0.034 2.103 0 0 0
0.589 -0.947 2.095 255 255 255
0.413 0.318 0.926 0 0 0
0.451 0.094 0.864 255 255 255
1.298 -0.273 2.539 255 255 255
-1.839 -1.109 2.907 255 255 255
0.139 0.276 1.12 255 255 255
0.248 0.368 0.933 255 255 255
-0.189 -1.077 1.762 0 0 0
1.627 -0.465 2.595 255 255 255
0.883 -0.409 2.325 255 255 255
0.688 -0.956 2.121 255 255 255
0.807 -1.207 2.096 255 255 255
-0.608 0.608 1.989 255 255 255
-0.388 0.544 2.12 255 255 255
-0.703 0.505 2.335 255 255 255
0.256 0.338 0.907 255 255 255
0.157 -0.083 1.158 255 255 255
0.855 -1.524 1.995 0 0 0
0.412 -1.236 1.965 255 255 255
0.34 -1.19 1.952 255 255 255
-0.411 -1.012 1.716 255 255 255
0.314 -1.242 1.934 255 255 255
0.086 -0.222 2.074 255 255 255
0.293 0.316 0.977 255 255 255
0.869 -0.998 2.165 255 255 255
-1.007 -1.97 2.86 255 255 255
0.145 0.323 1.108 255 255 255
-0.05 -0.045 2.084 255 255 255
-0.04 0.707 1.557 0 0 0
-0.465 -0.422 1.847 255 255 255
-1.321 -2.026 2.853 255 255 255
0.457 -1.294 1.962 255 255 255
0.427 0.202 0.847 255 255 255
0.851 -0.181 2.374 255 255 255
0.31 -0.53 2.114 255 255 255
0.636 -0.252 2.29 255 255 255
-0.782 0.557 2.178 255 255 255
0.036 -0.878 1.891 255 255 255
0.477 0.075 0.805 255 255 255
0.381 0.332 0.916 255 255 255
0.216 0.039 1.134 255 255 255
1.446 -0.13 2.625 0 0 0
0.151 -0.67 1.982 255 255 255
0.955 -0.444 2.34 255 255 255
0.008 -0.966 1.861 255 255 255
-0.214 0.711 1.54 0 0 0
-0.506 -1.07 1.653 255 255 255
-0.281 -0.813 1.802 255 255 255
-0.037 -0.27 2.027 255 255 255
0.653 -1.347 2.01 255 255 255
-0.411 -0.247 1.912 255 255 255
-0.031 0.279 2.172 255 255 255
-0.135 -0.437 1.949 255 255 255
0.538 -1.201 2.009 255 255 255
-1.217 -2.004 2.89 255 255 255
-0.122 -0.685 1.891 255 255 255
0.209 0.212 1.12 255 255 255
-0.293 -0.55 1.872 255 255 255
-0.099 -0.532 1.938 255 255 255
-0.411 0.065 1.997 255 255 255
-0.246 0.372 2.14 255 255 255
0.342 0.016 1.225 0 0 0
0.471 -1.408 1.938 0 0 0
1.122 -1.157 2.211 255 255 255
1.202 -0.834 2.361 255 255 255
0.171 -0.002 1.141 255 255 255
0.256 0.351 0.943 255 255 255
0.01 0.131 1.305 255 255 255
-0.495 -1.168 1.632 255 255 255
0.016 -0.403 2.009 255 255 255
1.081 -0.175 2.447 255 255 255
0.646 -0.507 2.227 255 255 255
-0.186 -0.751 1.846 255 255 255
-0.409 -0.908 1.744 255 255 255
0.565 -0.46 2.218 0 0 0
0.31 0.373 0.811 255 255 255
1.505 -0.57 2.531 255 255 255
0.085 -0.063 1.225 0 0 0
0.312 0.307 0.93 255 255 255
-0.488 -0.304 1.861 255 255 255
0.305 -0.584 2.099 255 255 255
0.205 0.107 1.096 255 255 255
-0.087 -0.89 1.846 0 0 0
-0.467 -0.305 1.869 255 255 255
-0.493 -0.868 1.711 255 255 255
0.317 0.047 1.211 255 255 255
1.031 -0.751 2.284 255 255 255
0.403 0.134 0.884 255 255 255
0.408 -1.291 1.946 255 255 255
-0.512 0.499 2.101 255 255 255
-0.146 -0.509 1.926 255 255 255
-0.387 -0.917 1.747 255 255 255
-0.724 -0.176 1.095 255 255 255
-0.838 0.532 2.269 255 255 255
-0.48 -0.977 1.7 255 255 255
-0.255 -0.854 1.799 0 0 0
0.542 0.005 1.053 255 255 255
0.042 0.242 1.239 255 255 255
-0.097 -1.177 1.774 255 255 255
-0.765 0.507 2.334 255 255 255
1.253 -0.981 2.34 255 255 255
-0.477 -0.858 1.729 255 255 255
-0.341 -0.853 1.777 255 255 255
1.43 -0.877 2.424 255 255 255
-0.057 -0.38 1.993 255 255 255
-0.416 -1.188 1.668 255 255 255
0.851 -0.851 2.201 255 255 255
0.111 -1.201 1.834 255 255 255
-0.09 -0.129 2.046 255 255 255
0.578 0.009 0.993 255 255 255
-0.787 0.646 1.853 255 255 255
0.13 -0.942 1.904 255 255 255
1.084 -1.063 2.219 255 255 255
1.896 -0.61 2.657 255 255 255
1.323 -0.982 2.368 255 255 255
0.473 0.009 1.038 255 255 255
0.378 -0.404 2.17 0 0 0
-0.335 0.652 1.775 255 255 255
0.231 -0.815 1.967 255 255 255
0.337 -1.422 1.892 0 0 0
-0.235 0.071 2.057 255 255 255
1.494 -0.855 2.447 255 255 255
-0.234 -1.235 1.714 255 255 255
0.315 0.146 1.125 255 255 255
0.503 -1.208 1.998 255 255 255
-0.2 -0.448 1.925 255 255 255
-0.241 -1.16 1.732 0 0 0
-0.005 0.208 2.164 255 255 255
0.433 0.036 0.941 255 255 255
-1.236 -1.868 2.916 255 255 255
0.314 0.311 0.857 255 255 255
-0.484 -0.015 1.938 255 255 255
-0.732 -0.328 1.051 255 255 255
0.318 -0.628 2.092 255 255 255
0.16 0.215 1.101 255 255 255
0.832 -1.377 2.056 255 255 255
0.17 0.554 2.09 255 255 255
0.419 -1.12 1.999 255 255 255
0.407 0.039 0.97 255 255 255
1.248 -0.817 2.384 255 255 255
1.277 -0.448 2.493 255 255 255
-0.413 -0.495 1.848 255 255 255
-0.259 -0.548 1.881 255 255 255
0.33 0.12 1.12 255 255 255
0.867 -1.558 1.984 255 255 255
0.435 -0.985 2.035 255 255 255
0.197 -0.1 1.166 0 0 0
0.741 -1.059 2.116 255 255 255
-0.721 -0.137 1.105 255 255 255
0.763 -1.255 2.068 255 255 255
0.687 -0.019 1.132 255 255 255
-0.545 -0.463 1.839 255 255 255
-0.234 -1.181 1.733 255 255 255
1.596 -0.152 2.664 0 0 0
-0.029 -1.066 1.824 255 255 255
0.599 -1.202 2.029 255 255 255
0.224 0.55 1.057 255 255 255
1.448 -0.875 2.432 255 255 255
-0.517 0.374 2.068 255 255 255
-0.416 0.025 1.984 255 255 255
-0.525 -0.34 1.859 255 255 255
0.397 -0.449 2.167 255 255 255
-1.375 0.476 2.551 255 255 255
0.655 -1.149 2.062 255 255 255
0.274 0.136 1.152 255 255 255
-1.386 -2.12 2.799 255 255 255
-0.238 0.619 1.921 255 255 255
-0.16 -0.254 1.991 255 255 255
1.005 -0.772 2.271 255 255 255
0.335 0.378 0.778 255 255 255
-0.801 0.081 1.236 255 255 255
0.494 -1.24 1.987 255 255 255
0.082 0.577 2.033 255 255 255
0.32 0.416 0.782 255 255 255
-1.217 0.033 1.74 255 255 255
1.592 -0.711 2.523 255 255 255
0.27 -0.074 1.237 0 0 0
-0.242 -0.947 1.788 0 0 0
0.406 0.124 0.895 255 255 255
1.505 -0.302 2.597 255 255 255
-1.788 -1.259 2.893 255 255 255
0.354 -1.371 1.91 255 255 255
0.79 -1.256 2.073 255 255 255
-0.285 -0.795 1.81 255 255 255
0.375 0.26 1.033 0 0 0
1.529 -0.127 2.648 0 0 0
-0.31 0.31 2.102 255 255 255
0.594 0.005 0.997 255 255 255
-0.079 -0.657 1.909 255 255 255
-0.195 -0.88 1.812 0 0 0
0.984 -1.167 2.161 255 255 255
0.475 -1.061 2.027 255 255 255
-0.341 0.144 2.043 255 255 255
-0.409 -0.039 1.969 255 255 255
-0.368 0.719 1.531 255 255 255
0.164 0.048 1.121 255 255 255
0.433 0.026 1.026 255 255 255
-0.265 -0.992 1.773 255 255 255
1.111 -0.544 2.361 255 255 255
-0.051 0.081 2.118 255 255 255
0.313 0.419 0.784 255 255 255
-0.013 -0.236 2.047 255 255 255
-0.406 -0.432 1.866 255 255 255
-0.282 0.705 1.57 0 0 0
-0.384 -1.118 1.697 255 255 255
-0.048 -0.415 1.983 255 255 255
0.156 0.563 2.074 255 255 255
1.683 -0.442 2.616 255 255 255
-1.259 -0.168 1.683 255 255 255
0.255 0.302 1.021 255 255 255
1.271 -0.394 2.499 255 255 255
-0.492 0.632 1.902 255 255 255
0.883 -0.728 2.245 255 255 255
-0.111 -0.093 2.05 255 255 255
1.54 -0.956 2.442 255 255 255
0.906 -1.485 2.058 0 0 0
-1.046 -1.691 2.911 0 0 0
0.673 -1.422 2 255 255 255
-0.701 0.276 1.227 255 255 255
-0.493 -0.389 1.837 255 255 255
-0.329 0.221 2.07 255 255 255
1.202 -0.865 2.353 255 255 255
0.187 -0.002 1.139 255 255 255
-0.816 -0.321 1.133 255 255 255
0.278 0.398 0.814 255 255 255
0.091 -0.227 2.075 255 255 255
0.115 -0.313 2.061 255 255 255
0.228 0.364 1.017 255 255 255
0.079 0.702 1.555 0 0 0
-0.009 0.014 2.115 255 255 255
0.16 -1.028 1.891 255 255 255
0.346 0.15 1.096 0 0 0
0.311 0.419 0.782 255 255 255
0.694 -1.022 2.104 255 255 255
-1.113 -1.372 2.963 255 255 255
1.742 -0.275 2.526 255 255 255
0.451 -1.097 2.01 255 255 255
0.311 0.114 1.139 255 255 255
-0.476 -0.947 1.712 255 255 255
-0.198 -0.1 2.021 255 255 255
-0.342 -0.329 1.916 255 255 255
0.599 -0.803 2.137 255 255 255
-0.391 0.512 2.117 255 255 255
0.327 -0.718 2.069 255 255 255
-0.272 -1.062 1.738 0 0 0
-0.085 -0.296 2.003 255 255 255
-0.859 0.542 2.24 255 255 255
-0.08 0.749 1.417 255 255 255
0.905 -0.378 2.344 255 255 255
0.848 -0.665 2.247 255 255 255
0.099 0.314 1.356 255 255 255
-0.503 0.743 1.459 255 255 255
-1.613 -1.644 2.853 255 255 255
1.352 -1.112 2.336 255 255 255
0.497 0.024 0.989 255 255 255
-0.262 -1.04 1.759 0 0 0
-0.202 -0.698 1.862 0 0 0
0.483 -0.793 2.103 255 255 255
0.313 0.297 0.953 255 255 255
-1.475 -1.778 2.861 255 255 255
-1.469 -1.656 2.894 255 255 255
1.205 -1.109 2.292 255 255 255
0.249 -0.819 1.977 255 255 255
0.182 0.209 1.083 255 255 255
0.037 -1.335 1.778 0 0 0
0.285 0.318 0.957 255 255 255
-0.676 0.66 1.783 255 255 255
-0.041 -0.286 2.021 255 255 255
-0.327 -0.164 1.959 255 255 255
-1.104 0.495 2.454 255 255 255
-0.546 -1.221 1.617 0 0 0
0.26 -0.541 2.058 255 255 255
0.345 0.039 1.165 0 0 0
1.227 -1.3 2.248 255 255 255
1.054 -0.194 2.437 255 255 255
-0.422 -1 1.717 255 255 255
0.124 0.196 1.105 255 255 255
0.287 0.574 1.051 255 255 255
0.049 -0.111 2.094 255 255 255
-0.515 -0.173 1.895 255 255 255
1.217 -0.273 2.515 255 255 255
-0.016 0.314 1.322 0 0 0
-0.349 -0.58 1.845 255 255 255
-0.524 -0.571 1.787 255 255 255
-1.59 -1.277 2.957 255 255 255
-0.201 0.257 2.129 255 255 255
0.491 -1.278 1.977 255 255 255
-1.222 0.064 1.723 255 255 255
-0.709 0.679 1.721 255 255 255
-0.707 -0.33 1.06 255 255 255
-0.281 0.579 2.108 255 255 255
0.627 -0.205 2.296 255 255 255
0.179 -0.345 2.073 255 255 255
-0.281 -1.237 1.698 0 0 0
0.369 -1.369 1.922 255 255 255
0.249 0.313 1.011 255 255 255
0.357 -1.142 1.969 255 255 255
1.104 -1.312 2.165 255 255 255
0.266 0.33 0.971 255 255 255
1.091 -0.437 2.383 255 255 255
-0.278 0.465 2.14 255 255 255
0.744 -0.494 2.259 255 255 255
0.189 0.636 1.409 255 255 255
-0.152 0.17 2.114 255 255 255
-0.257 -0.247 1.962 255 255 255
-0.076 -0.452 1.965 255 255 255
-0.149 -0.668 1.888 255 255 255
-0.1 -0.007 2.08 255 255 255
0.33 0.303 0.932 255 255 255
0.822 -0.242 2.348 255 255 255
0.438 0.099 0.878 255 255 255
-1.12 -1.34 2.972 255 255 255
0.824 -0.68 2.236 255 255 255
0.226 0.335 1.066 255 255 255
-0.061 -0.273 2.016 255 255 255
-0.029 0.717 1.516 255 255 255
0.271 -0.614 2.066 0 0 0
0.252 0.373 0.828 255 255 255
-0.938 0.544 2.227 255 255 255
-1.062 0.586 2.08 255 255 255
0.014 0.635 1.794 255 255 255
1.492 -0.801 2.466 255 255 255
-0.22 0.238 2.111 255 255 255
-1.264 -0.038 1.702 255 255 255
0.299 0.389 0.809 255 255 255
-1.103 0.465 2.569 255 255 255
-0.037 -1.065 1.822 255 255 255
0.223 0.377 1.091 255 255 255
0.887 -0.187 2.385 255 255 255
1.539 -0.813 2.473 255 255 255
1.702 -0.315 2.658 255 255 255
0.391 0.019 1.121 255 255 255
-0.239 0.599 2.038 255 255 255
-1.438 -1.591 2.917 255 255 255
-0.099 -0.695 1.896 255 255 255
0.003 -0.639 1.944 255 255 255
-0.819 0.524 2.304 255 255 255
0.217 0.578 1.065 255 255 255
-0.532 0.013 1.965 255 255 255
0.382 0.204 1.068 255 255 255
0.208 -1.094 1.89 255 255 255
0.256 -0.298 2.093 255 255 255
-0.157 0.001 2.064 255 255 255
-0.798 0.5 2.341 255 255 255
-0.233 -0.707 1.85 255 255 255
-0.524 -0.446 1.824 255 255 255
0.352 -1.104 1.977 255 255 255
0.15 0.124 1.083 255 255 255
0.189 0.248 1.081 255 255 255
0.303 0.261 1.026 255 255 255
1.056 -0.235 2.426 255 255 255
0.06 -0.514 1.996 255 255 255
-0.476 -0.943 1.713 255 255 255
-0.223 -0.951 1.796 0 0 0
-0.285 -0.799 1.808 255 255 255
0.41 -0.004 1.162 255 255 255
-0.397 0.663 1.754 255 255 255
0.105 -0.009 1.154 255 255 255
-0.122 -0.145 2.03 255 255 255
-0.312 -0.775 1.811 0 0 0
0.335 0.365 0.776 255 255 255
0.573 -1.15 2.039 255 255 255
-0.307 -0.711 1.82 255 255 255
0.39 0.369 0.886 255 255 255
0.28 -1.199 1.93 255 255 255
-0.073 0.759 1.395 255 255 255
-0.087 0.296 2.167 255 255 255
-0.278 -0.312 1.938 255 255 255
-0.386 -0.236 1.923 255 255 255
0.407 -0.678 2.109 255 255 255
-0.178 -0.14 2.017 255 255 255
0.256 0.243 1.053 255 255 255
-1.392 -1.77 2.888 255 255 255
-0.066 0.709 1.546 0 0 0
-0.172 -0.277 1.984 255 255 255
0.535 -0.269 2.251 255 255 255
0.022 0.174 1.255 255 255 255
0.081 0.105 1.166 255 255 255
-0.985 0.395 2.784 255 255 255
0.253 -1.033 1.94 255 255 255
-0.036 -0.846 1.88 255 255 255
0.006 0.684 1.618 255 255 255
0.357 0.06 1.113 255 255 255
-1.098 0.591 2.065 255 255 255
-0.208 0.521 2.172 255 255 255
0.29 0.333 0.904 255 255 255
-0.41 0.406 2.095 255 255 255
0.374 0.003 1.201 255 255 255
0.443 0.149 0.784 255 255 255
0.632 -0.595 2.198 255 255 255
0.45 0.33 0.905 255 255 255
-0.581 0.618 1.952 255 255 255
0.407 0.209 0.928 255 255 255
0.279 0.357 0.822 255 255 255
-0.423 -1.165 1.671 255 255 255
0.328 0.325 0.848 255 255 255
1.663 -0.154 2.688 255 255 255
-0.262 -1.276 1.694 0 0 0
0.43 -0.412 2.183 255 255 255
-1.691 -1.271 2.922 255 255 255
0.092 0.172 1.124 255 255 255
-1.22 0.487 2.496 255 255 255
-0.169 0.572 2.123 255 255 255
0.215 0.525 1.095 255 255 255
-0.176 -1.062 1.763 255 255 255
0.222 0.56 1.06 255 255 255
0.254 0.426 0.835 255 255 255
0.43 0.066 0.937 255 255 255
0.24 0.664 1.341 255 255 255
-1.085 0.496 2.438 255 255 255
-0.091 -0.725 1.884 255 255 255
1.329 -1.069 2.342 255 255 255
-0.544 -0.642 1.788 255 255 255
-0.125 0.594 2.028 255 255 255
0.786 -1.112 2.112 255 255 255
-0.08 -0.942 1.84 255 255 255
-0.527 -0.503 1.812 255 255 255
1.29 -0.565 2.464 255 255 255
1.171 -0.988 2.307 255 255 255
-0.316 -1.107 1.72 0 0 0
-0.282 -0.804 1.811 255 255 255
-0.453 -0.509 1.832 255 255 255
1.809 -0.519 2.635 255 255 255
0.163 0.091 1.102 255 255 255
0.815 -0.361 2.318 255 255 255
0.78 -0.264 2.332 255 255 255
-0.146 -0.505 1.928 255 255 255
0.236 -0.654 2.01 255 255 255
0.182 0.569 1.377 255 255 255
-0.499 -0.456 1.819 255 255 255
0.121 0.13 1.096 255 255 255
1.136 -0.628 2.35 255 255 255
-0.473 0.264 2.021 255 255 255
1.763 -0.566 2.606 255 255 255
-0.726 -0.258 1.073 255 255 255
0.216 0.634 1.41 255 255 255
0.255 0.314 1.008 255 255 255
0.432 0.154 0.794 255 255 255
1.526 -0.767 2.484 255 255 255
-0.505 0.7 1.604 0 0 0
-0.091 -1.035 1.803 0 0 0
0.098 0.197 1.136 255 255 255
0.336 0.304 0.906 255 255 255
-1.505 -1.842 2.832 255 255 255
0.308 -1.196 1.94 255 255 255
-0.354 -0.464 1.874 255 255 255
-0.388 0.393 2.097 255 255 255
-0.47 -0.763 1.76 255 255 255
0.055 0.221 1.25 255 255 255
-0.482 0.758 1.404 255 255 255
-0.301 0.133 2.055 255 255 255
0.185 -0.949 1.915 255 255 255
0.191 0.749 1.39 255 255 255
-0.375 -0.5 1.857 255 255 255
0.387 0.032 1.096 255 255 255
-1.81 -0.909 2.972 255 255 255
-0.818 -0.046 1.21 255 255 255
0.931 -0.194 2.4 255 255 255
0.192 0.143 1.083 255 255 255
0.969 -0.126 2.429 255 255 255
-0.725 -0.07 1.119 255 255 255
0.197 -0.938 1.922 255 255 255
0.131 -0.399 2.046 255 255 255
-0.19 0.337 2.147 255 255 255
0.314 0.298 0.936 255 255 255
-0.011 0.684 1.619 255 255 255
-0.135 -1.017 1.802 0 0 0
0.405 0.205 0.939 255 255 255
0.056 0.737 1.45 255 255 255
0.972 -0.368 2.363 255 255 255
1.11 -0.212 2.446 255 255 255
-1.83 -0.818 2.995 255 255 255
0.309 0.028 1.242 255 255 255
-0.032 -0.808 1.885 255 255 255
0.149 0.043 1.128 255 255 255
-1.213 -1.796 2.943 255 255 255
0.154 0.061 1.12 255 255 255
-0.34 -0.149 1.963 255 255 255
-1.374 -2.129 2.761 255 255 255
0.459 -1.06 2.018 255 255 255
-0.39 0.412 2.106 255 255 255
0.735 -0.626 2.223 255 255 255
0.042 0.75 1.413 255 255 255
0.57 -1.095 2.048 255 255 255
0.231 0.498 1.064 255 255 255
-0.3 -1.104 1.724 0 0 0
-0.63 0.613 1.971 255 255 255
-0.405 0.325 2.079 255 255 255
-0.327 0.187 2.06 255 255 255
0.394 -0.529 2.141 255 255 255
0.381 0.269 0.953 255 255 255
0.439 -0.641 2.122 255 255 255
0.095 -0.259 2.069 255 255 255
0.212 0.656 1.42 255 255 255
0.178 0.178 1.087 255 255 255
-0.12 -0.392 1.969 255 255 255
-0.131 -1.056 1.787 255 255 255
0.141 0.269 1.118 255 255 255
-0.932 0.505 2.383 255 255 255
-1.508 -1.866 2.829 255 255 255
-0.04 0.711 1.535 0 0 0
0.421 0.15 0.822 255 255 255
-0.27 0.666 1.713 255 255 255
-0.521 -1.178 1.62 0 0 0
-0.117 0.276 2.152 255 255 255
1.095 -1.47 2.122 255 255 255
0.04 0.742 1.426 255 255 255
0.201 -1.233 1.854 255 255 255
0.897 -1.557 1.994 255 255 255
-0.166 -0.423 1.943 255 255 255
0.703 -0.458 2.259 255 255 255
0.678 -1.175 2.064 255 255 255
1.013 -1.052 2.202 255 255 255
0.287 -0.62 2.084 255 255 255
0.036 -1.124 1.829 255 255 255
0.089 -0.44 2.024 255 255 255
0.192 0.221 1.085 255 255 255
0.089 -0.881 1.906 255 255 255
-0.079 0.328 2.177 255 255 255
0.35 0.342 0.85 255 255 255
0.481 -1.398 1.947 255 255 255
0.114 0.601 1.925 255 255 255
0.428 0.201 0.842 255 255 255
-0.519 -0.754 1.737 255 255 255
0.151 0.139 1.075 255 255 255
-1.163 0.461 2.593 255 255 255
-0.137 -0.228 2.007 255 255 255
1.12 -0.641 2.34 255 255 255
-0.426 -0.382 1.872 255 255 255
0.142 -1.308 1.815 255 255 255
-0.468 0.294 2.032 255 255 255
0.394 0.129 0.933 255 255 255
1.003 -1.549 2.037 0 0 0
-1.687 -1.401 2.891 255 255 255
-0.504 0.033 1.953 255 255 255
0.455 0.286 0.891 255 255 255
0.371 0.359 0.84 255 255 255
0.798 -0.131 2.378 0 0 0
1.023 -0.823 2.261 255 255 255
0.329 -1.154 1.956 255 255 255
1.556 -0.582 2.545 0 0 0
0.068 0.154 1.179 255 255 255
0.258 0.344 0.93 255 255 255
-0.36 0.739 1.455 255 255 255
-1.881 -0.965 2.912 255 255 255
0.104 0.651 1.728 255 255 255
0.948 -1.055 2.175 255 255 255
0.206 0.134 1.086 255 255 255
-0.438 -0.36 1.876 255 255 255
-1.219 0.009 1.728 255 255 255
0.374 -0.625 2.108 255 255 255
0.431 0.232 0.878 255 255 255
1.656 -0.48 2.603 255 255 255
-0.285 -0.365 1.922 255 255 255
0.064 0.24 1.279 255 255 255
-0.16 0.148 2.101 255 255 255
-0.244 0.206 2.094 255 255 255
0.16 0.131 1.078 255 255 255
-0.384 0.75 1.428 255 255 255
-1.124 -1.581 2.906 255 255 255
0.412 0.168 0.875 255 255 255
0.087 -0.068 1.224 0 0 0
0.076 0.597 1.966 255 255 255
-0.256 -0.502 1.893 255 255 255
-0.511 0.704 1.585 0 0 0
0.225 -1.079 1.899 255 255 255
0.167 0.669 1.484 255 255 255
0.176 -0.932 1.92 255 255 255
1.101 -0.994 2.24 255 255 255
1.21 -0.644 2.417 255 255 255
0.351 -0.329 2.179 255 255 255
-0.141 0.645 1.784 255 255 255
0.307 0.428 0.814 255 255 255
0.186 0.638 1.413 255 255 255
1.518 -0.727 2.491 255 255 255
0.35 0.269 1.028 255 255 255
-0.336 0.739 1.466 255 255 255
1.315 -0.664 2.447 255 255 255
-0.601 0.506 2.312 0 0 0
1.485 -1.015 2.403 255 255 255
0.357 0.275 0.947 0 0 0
-0.714 -0.162 1.106 255 255 255
-0.239 0.663 1.729 255 255 255
-0.189 0.583 2.097 255 255 255
0.401 0.141 0.907 255 255 255
-0.11 -0.714 1.888 0 0 0
0.238 -1.131 1.89 255 255 255
-0.23 0.728 1.481 255 255 255
-0.029 0.244 1.316 255 255 255
-0.314 -1.184 1.7 255 255 255
1.765 -0.503 2.63 255 255 255
0.254 0.325 1.005 255 255 255
0.124 0.703 1.547 255 255 255
-1.49 -1.806 2.848 255 255 255
0.204 0.664 1.431 255 255 255
1.338 -0.763 2.424 255 255 255
0.057 -0.218 2.07 255 255 255
-0.049 -0.29 2.019 255 255 255
0.138 -0.868 1.925 255 255 255
0.433 -0.468 2.166 255 255 255
-0.172 -1.222 1.737 255 255 255
0.58 -0.363 2.25 255 255 255
-0.018 0.186 2.158 255 255 255
0.558 0.038 0.894 255 255 255
0.613 -1.162 2.044 255 255 255
0.364 -0.676 2.093 255 255 255
-0.426 -0.82 1.759 255 255 255
0.775 -0.264 2.331 255 255 255
-0.804 0.583 2.084 255 255 255
-0.251 -0.715 1.838 255 255 255
-0.409 0.392 2.091 255 255 255
-0.14 0.665 1.71 255 255 255
0.085 -0.935 1.892 255 255 255
0.127 0.054 1.116 255 255 255
-0.223 -0.977 1.785 255 255 255
0.27 0.325 0.93 255 255 255
-0.191 0.723 1.505 255 255 255
0.296 -0.055 1.249 0 0 0
-0.722 0.2 1.189 255 255 255
-0.283 -0.007 2.019 255 255 255
0.576 -0.285 2.262 255 255 255
-0.315 0.005 2.011 255 255 255
0.86 -0.6 2.264 255 255 255
-0.705 0.209 1.208 255 255 255
1.289 -1.245 2.281 255 255 255
0.243 0.374 0.954 255 255 255
0.459 0.044 0.927 255 255 255
-0.192 0.134 2.091 255 255 255
0.078 0.161 1.179 255 255 255
-0.488 -0.069 1.922 255 255 255
0.168 0.586 1.402 255 255 255
0.23 0.024 1.17 255 255 255
-0.328 -0.303 1.927 255 255 255
-1.591 -1.648 2.854 255 255 255
-0.111 -0.073 2.056 255 255 255
-0.251 0.741 1.445 255 255 255
0.281 0.052 1.221 255 255 255
0.281 -1.41 1.881 0 0 0
-1.084 -1.871 2.847 0 0 0
-0.433 0.437 2.094 255 255 255
0.29 0.036 1.239 255 255 255
1.298 -1.189 2.292 255 255 255
0.469 0.121 0.803 255 255 255
0.114 0.333 1.135 255 255 255
0.473 -0.297 2.226 255 255 255
0.115 0.051 1.11 255 255 255
1.039 -0.673 2.305 255 255 255
-0.171 0.235 2.127 255 255 255
0.084 -0.783 1.931 255 255 255
0.269 -1.293 1.905 255 255 255
0.457 0.069 0.853 255 255 255
0.27 -1.093 1.956 255 255 255
0.97 -1.192 2.158 255 255 255
-0.425 0.763 1.403 255 255 255
-0.383 -0.031 1.982 255 255 255
-0.099 -0.943 1.833 255 255 255
-0.275 0.593 2.061 255 255 255
-0.187 -0.819 1.834 255 255 255
0.887 -0.785 2.229 255 255 255
1.767 -0.455 2.638 255 255 255
0.03 0.694 1.588 255 255 255
0.812 -1.514 1.982 0 0 0
0.489 -1.219 1.991 255 255 255
-0.119 -0.924 1.83 255 255 255
0.122 0.566 2.071 255 255 255
-1.092 -1.602 2.91 0 0 0
0.118 -0.489 2.016 255 255 255
-0.386 -0.346 1.895 255 255 255
0.019 0.607 1.92 255 255 255
0.247 0.498 0.995 255 255 255
0.771 -0.159 2.356 255 255 255
0.02 -0.148 2.076 255 255 255
0.234 0.46 0.895 255 255 255
0.171 0.593 1.938 255 255 255
-0.456 -1.14 1.666 255 255 255
0.891 -1.385 2.074 255 255 255
0.095 0.321 1.351 255 255 255
-0.029 -0.42 1.99 255 255 255
-0.224 -0.89 1.793 255 255 255
0.392 0.175 1.001 255 255 255
-1.83 -1.011 2.943 255 255 255
0.252 0.228 1.098 255 255 255
0.328 0.202 1.07 255 255 255
0.164 -0.915 1.924 255 255 255
0.648 -0.316 2.275 255 255 255
1.729 -0.638 2.578 255 255 255
0.475 0.105 0.753 255 255 255
-0.731 -0.244 1.073 255 255 255
-0.685 0.362 2.308 255 255 255
-0.629 0.719 1.555 0 0 0
-0.531 0.668 1.732 255 255 255
0.382 -0.734 2.083 255 255 255
1.784 -0.569 2.614 255 255 255
0.222 0.003 1.153 255 255 255
0.633 -0.201 2.3 255 255 255
0.422 0.194 0.856 255 255 255
-1.367 -2.088 2.824 255 255 255
1.374 -0.86 2.409 255 255 255
0.049 0.23 1.239 255 255 255
1.831 -0.468 2.662 255 255 255
0.489 0.034 0.702 255 255 255
0.49 -0.381 2.208 255 255 255
-0.277 0.641 1.821 255 255 255
-0.183 -1.161 1.753 0 0 0
0.452 0.08 0.872 0 0 0
-0.884 0.554 2.181 255 255 255
-0.064 0.581 2.076 255 255 255
0.24 0.384 0.852 255 255 255
0.265 0.578 1.063 255 255 255
0.852 -1.198 2.11 255 255 255
1.46 -0.41 2.556 255 255 255
0.177 -1.011 1.905 255 255 255
0.8 -0.397 2.302 255 255 255
0.119 -0.337 2.056 255 255 255
-0.342 -0.207 1.949 255 255 255
1.932 -0.638 2.656 255 255 255
0.709 -0.039 1.206 255 255 255
0.421 -0.619 2.127 255 255 255
0.71 -1.149 2.082 255 255 255
0.541 0.02 1.026 255 255 255
0.119 0.277 1.124 255 255 255
0.275 -1.122 1.952 255 255 255
1.124 -1.042 2.239 255 255 255
-0.263 -0.689 1.845 255 255 255
0.019 0.72 1.506 255 255 255
-0.452 0.73 1.491 255 255 255
-1.426 -1.558 2.935 255 255 255
1.736 -0.228 2.692 255 255 255
0.259 0.101 1.187 255 255 255
-0.296 0.188 2.073 255 255 255
0.379 0.245 1.034 0 0 0
0.139 -0.915 1.917 255 255 255
0.423 0.088 0.916 255 255 255
0.114 -0.974 1.892 255 255 255
0.397 -0.951 2.033 255 255 255
0.14 -0.055 1.149 255 255 255
-0.771 0.594 2.03 255 255 255
0.015 0.119 1.297 255 255 255
0.368 0.077 1.061 255 255 255
0.052 0.155 1.186 255 255 255
-0.671 0.252 2.357 255 255 255
-0.916 0.536 2.266 255 255 255
-0.222 -0.908 1.802 255 255 255
0.081 -1.119 1.844 255 255 255
-1.025 0.356 2.741 255 255 255
-0.49 0.439 2.073 255 255 255
-1.151 -2.062 2.792 255 255 255
-0.146 -1.031 1.794 255 255 255
-0.488 -0.43 1.827 255 255 255
0.235 0.329 1.023 255 255 255
0.108 0.01 1.136 255 255 255
0.888 -0.428 2.322 255 255 255
0.576 -0.828 2.115 255 255 255
-0.342 0.629 1.888 255 255 255
-0.04 -1.038 1.826 255 255 255
-0.354 -1.105 1.711 255 255 255
0.637 -1.035 2.085 255 255 255
-0.484 -1.123 1.657 255 255 255
0.972 -0.878 2.231 255 255 255
1.03 -0.451 2.359 255 255 255
0.016 0.711 1.534 255 255 255
-1.215 0.384 2.827 255 255 255
-1.1 0.544 2.248 255 255 255
-0.438 -0.231 1.906 255 255 255
1.228 -0.162 2.543 255 255 255
0.273 0.183 1.104 255 255 255
-0.875 0.562 2.155 255 255 255
-0.47 -0.791 1.754 255 255 255
0.186 0.295 1.079 255 255 255
0.011 -0.682 1.933 255 255 255
-1.875 -0.558 2.998 255 255 255
0.261 0.338 0.951 255 255 255
0.13 -0.769 1.95 255 255 255
-0.317 -0.276 1.936 255 255 255
0.273 0.365 0.819 255 255 255
-1.812 -0.809 2.995 255 255 255
0.215 -0.64 2.009 255 255 255
0.782 -0.092 2.378 255 255 255
0.037 0.14 1.247 255 255 255
0.028 -0.225 2.059 255 255 255
0.326 0.1 1.13 255 255 255
0.019 -0.631 1.947 255 255 255
0.291 -1.247 1.926 255 255 255
0.304 0.355 0.817 255 255 255
-0.275 -0.487 1.894 255 255 255
0.224 -0.572 2.028 255 255 255
-0.164 -1.246 1.735 255 255 255
0.151 0.233 1.114 255 255 255
-0.091 -0.575 1.93 255 255 255
1.672 -0.232 2.676 255 255 255
-1.198 0.523 2.346 255 255 255
0.239 -1.172 1.88 255 255 255
0.221 -1.136 1.882 255 255 255
-0.264 0.713 1.54 0 0 0
-0.27 -0.589 1.867 255 255 255
1.593 -0.57 2.561 255 255 255
-1.236 -1.64 2.981 255 255 255
-0.503 0.213 2.008 255 255 255
0.328 0.023 1.222 0 0 0
-0.185 -1.047 1.777 255 255 255
-0.211 0.731 1.481 255 255 255
-0.365 -1.265 1.66 0 0 0
0.296 0.295 1.019 255 255 255
0.703 -1.07 2.101 255 255 255
-0.024 -0.545 1.956 255 255 255
0.78 -1.358 2.048 255 255 255
0.476 -1.044 2.036 255 255 255
-0.405 -0.323 1.895 255 255 255
-0.394 0.686 1.648 255 255 255
0.218 0.589 1.064 255 255 255
0.116 0.327 1.132 255 255 255
0.147 -0.113 1.185 0 0 0
0.267 -0.072 1.235 0 0 0
0.093 -0.603 1.981 255 255 255
1.433 -0.773 2.452 255 255 255
-0.524 0.073 1.98 255 255 255
-0.099 -0.832 1.858 255 255 255
0.428 0.029 0.961 255 255 255
-0.518 0.245 2.031 255 255 255
0.395 0.087 0.988 0 0 0
-0.854 0.262 2.893 0 0 0
0.727 -0.917 2.145 255 255 255
-0.262 0.054 2.044 255 255 255
-1.003 0.484 2.48 255 255 255
0.101 -0.888 1.91 255 255 255
1.644 -0.159 2.682 255 255 255
0.14 0.382 1.107 255 255 255
0.146 -0.672 1.977 255 255 255
1.251 -0.728 2.408 255 255 255
-1.194 -1.8 2.926 255 255 255
0.418 0.126 0.871 255 255 255
0.401 0.25 1.014 255 255 255
0.233 0.421 0.984 255 255 255
0.912 -1.208 2.126 255 255 255
-0.219 0.615 1.963 255 255 255
0.525 -1.375 1.968 255 255 255
-0.234 -0.488 1.905 255 255 255
0.242 0.197 1.133 255 255 255
-0.479 -0.73 1.759 255 255 255
0.433 0.352 0.935 255 255 255
0.068 -0.545 1.986 255 255 255
0.416 -0.402 2.181 255 255 255
0.286 -0.914 2.007 255 255 255
-1.18 0.457 2.604 255 255 255
0.347 -0.403 2.169 255 255 255
0.198 0.104 1.096 255 255 255
-0.711 0.06 1.164 255 255 255
0.438 0.001 1.092 255 255 255
0.265 0.358 0.86 255 255 255
-1.215 -1.981 2.895 255 255 255
0.716 -1.197 2.066 255 255 255
0.108 0.379 1.118 255 255 255
0.127 -1.044 1.877 255 255 255
-0.056 0.22 2.156 255 255 255
1.703 -0.6 2.58 255 255 255
0.036 -1.237 1.803 255 255 255
0.015 0.628 1.821 255 255 255
0.174 0.246 1.084 255 255 255
1.239 -1.232 2.271 255 255 255
0.327 0.093 1.136 255 255 255
-0.319 0.183 2.061 255 255 255
0.211 -0.104 1.179 0 0 0
-0.419 -0.163 1.933 255 255 255
-0.23 0.7 1.592 0 0 0
-0.256 -0.115 1.999 255 255 255
-0.125 0.678 1.655 255 255 255
0.418 0.27 0.944 255 255 255
0.074 -0.126 1.291 0 0 0
0.139 -1.056 1.88 255 255 255
0.02 -0.136 2.079 255 255 255
0.396 0.096 0.972 255 255 255
0.742 -0.322 2.303 255 255 255
1.461 -0.215 2.61 255 255 255
0.509 -0.598 2.157 255 255 255
0.653 -1.362 2.006 255 255 255
0.283 0.341 0.821 255 255 255
-0.093 0.131 2.116 255 255 255
0.444 -0.282 2.221 255 255 255
-0.95 0.404 2.649 255 255 255
0.541 0.055 0.874 255 255 255
-0.125 0.022 2.081 255 255 255
0.45 0.073 0.856 255 255 255
0.569 -1.006 2.071 255 255 255
-0.435 0.609 1.99 255 255 255
-0.107 -0.469 1.949 255 255 255
-0.253 -0.937 1.793 255 255 255
-0.093 0.465 2.192 255 255 255
-0.215 -1.258 1.711 0 0 0
-0.864 0.586 2.061 255 255 255
1.77 -0.391 2.662 255 255 255
0.428 -0.022 1.203 255 255 255
1.228 -1.211 2.268 255 255 255
-0.005 -0.152 2.072 255 255 255
1.593 -0.984 2.453 255 255 255
1.162 -0.764 2.343 255 255 255
0.216 0.734 1.428 255 255 255
0.369 0.146 1.064 255 255 255
0.391 0.368 0.905 255 255 255
1.036 -0.741 2.285 255 255 255
0.652 -0.977 2.105 255 255 255
1.198 -1.097 2.294 255 255 255
-1.875 -1.05 2.911 255 255 255
0.515 -0.004 1.113 255 255 255
-0.366 -0.252 1.924 255 255 255
0.089 0.146 1.12 255 255 255
-1.252 -0.279 1.628 255 255 255
0.404 -1.449 1.903 0 0 0
0.224 0.349 1.064 255 255 255
-0.561 0.729 1.505 255 255 255
-0.533 -0.086 1.937 255 255 255
1.789 -0.517 2.629 255 255 255
0.43 0.251 0.906 255 255 255
-0.553 -0.776 1.754 255 255 255
-0.725 -0.072 1.119 255 255 255
0.425 0.17 0.819 255 255 255
1.495 -0.313 2.591 255 255 255
0.107 0.121 1.098 255 255 255
1.64 -0.409 2.609 255 255 255
0.26 0.254 1.049 255 255 255
-0.301 -0.474 1.888 255 255 255
-0.985 0.543 2.236 255 255 255
0.09 -0.336 2.047 255 255 255
-0.511 -0.966 1.682 255 255 255
-1.617 -1.432 2.901 255 255 255
0.471 0.082 0.821 255 255 255
0.101 -0.875 1.912 255 255 255
0.447 0.136 0.801 255 255 255
-0.776 -0.117 1.124 0 0 0
0.053 -0.282 2.052 255 255 255
-0.251 -0.628 1.863 255 255 255
-0.444 0.151 2.012 255 255 255
0.981 -0.748 2.271 255 255 255
-0.403 0.42 2.102 255 255 255
0.476 0.088 0.77 255 255 255
0.053 -1.263 1.801 255 255 255
-0.151 -0.301 1.981 255 255 255
-0.343 -0.256 1.93 255 255 255
-0.025 -1.22 1.786 255 255 255
1.226 -1.268 2.258 255 255 255
1.136 -1.089 2.237 255 255 255
0 0.662 1.697 255 255 255
-0.696 0.454 2.443 0 0 0
-0.177 0.513 2.178 255 255 255
0.332 0.381 0.782 255 255 255
-0.119 0.404 2.181 255 255 255
0.709 -0.792 2.169 255 255 255
0.549 -0.63 2.164 255 255 255
0.424 0.318 0.937 0 0 0
0.325 0.303 0.899 255 255 255
-0.213 -0.754 1.842 0 0 0
0.68 -0.628 2.204 255 255 255
-1.393 -1.993 2.835 255 255 255
0.032 0.224 1.239 255 255 255
0.203 -1.076 1.895 255 255 255
0.624 -0.833 2.132 255 255 255
0.127 0.158 1.071 255 255 255
0.638 -0.07 2.34 255 255 255
-0.08 0.651 1.738 255 255 255
