ply
format ascii 1.0
comment Created by Open3D
element vertex 1582
property double x
property double y
property double z
property uchar red
property uchar green
property uchar blue
end_header
0.216 -1.122 1.876 255 255 255
-0.146 -1.244 1.763 255 255 255
0.248 0.384 1.072 255 255 255
-0.098 -0.689 1.88 255 255 255
1.265 -1.116 2.173 255 255 255
0.669 -0.542 2.15 255 255 255
1.039 -0.439 2.253 255 255 255
-1.197 -0.082 1.739 255 255 255
0.049 -1.216 1.818 255 255 255
0.762 -1.189 2.041 255 255 255
0.485 -0.601 2.088 255 255 255
-0.017 0.291 2.104 255 255 255
-0.584 0.724 1.99 255 255 255
-0.077 -0.019 2.022 255 255 255
-0.024 -0.661 1.908 255 255 255
-0.699 -0.048 1.166 255 255 255
-0.386 -0.939 1.755 255 255 255
0.54 -1.058 2.011 255 255 255
-0.288 -0.483 1.877 255 255 255
-0.561 0.67 2.261 255 255 255
-1.101 -0.487 1.687 255 255 255
-0.393 0.406 2.074 0 0 0
-1.156 -0.417 1.693 255 255 255
0.764 -1.12 2.055 255 255 255
1.465 0.001 2.493 255 255 255
0.415 -0.774 2.009 255 255 255
0.576 -0.362 2.162 255 255 255
-0.191 0.423 2.093 255 255 255
-0.399 -1.066 1.737 255 255 255
0.437 0.184 1.061 0 0 0
0.105 -0.99 1.877 0 0 0
0.219 0.216 1.077 255 255 255
0.511 0.162 0.889 255 255 255
0.052 -0.06 2.047 255 255 255
1.543 -0.598 2.393 255 255 255
-1.273 -2.107 2.854 0 0 0
0.473 0.237 0.951 255 255 255
0.157 -0.528 1.981 255 255 255
-0.046 0.116 2.062 255 255 255
-0.343 -0.485 1.851 255 255 255
0.543 -1.216 1.986 255 255 255
-0.621 -0.027 1.176 255 255 255
0.146 0.802 1.543 255 255 255
0.079 -0.562 1.955 255 255 255
0.148 0.37 1.27 255 255 255
-0.696 0.777 1.739 0 0 0
0.342 0.013 1.198 0 0 0
0.916 -0.386 2.236 255 255 255
0.518 -0.148 2.168 255 255 255
0.109 0.456 2.168 255 255 255
0.106 -1.119 1.852 255 255 255
-0.979 0.561 2.82 255 255 255
1.261 -0.834 2.234 255 255 255
-0.646 0.79 1.671 255 255 255
-0.627 -0.273 1.122 255 255 255
0.422 0.337 1.023 255 255 255
0.223 0.04 1.145 255 255 255
0.262 0.045 1.148 255 255 255
1.854 0.061 2.607 255 255 255
1.067 -0.596 2.232 255 255 255
0.558 -0.663 2.099 255 255 255
-0.192 -1.174 1.765 255 255 255
1.159 -0.969 2.183 255 255 255
-0.347 0.148 1.982 255 255 255
0.916 -0.61 2.19 255 255 255
1.791 0.049 2.584 255 255 255
-0.195 0.566 2.116 255 255 255
1.685 -0.757 2.398 255 255 255
1.003 -1.368 2.032 255 255 255
0.389 -0.761 1.989 255 255 255
-0.336 0.826 1.488 255 255 255
1.237 -1.104 2.169 255 255 255
0.883 -0.075 2.293 255 255 255
0.265 -0.223 2.067 255 255 255
-0.354 0.028 1.955 255 255 255
-0.175 -0.658 1.872 0 0 0
-0.009 -1.045 1.838 0 0 0
-1.095 -0.034 1.762 255 255 255
0.297 -0.137 2.09 255 255 255
0.168 0.752 1.773 255 255 255
0.702 0.07 1.056 255 255 255
0.07 0.364 1.272 255 255 255
1.547 -0.115 2.491 255 255 255
0.403 -0.165 2.107 255 255 255
0.019 -0.851 1.881 0 0 0
1.609 -0.585 2.412 255 255 255
1.544 0.029 2.522 255 255 255
-0.218 0.364 2.072 255 255 255
0.244 0.263 1.089 255 255 255
0.344 0.027 1.197 0 0 0
0.2 -1.149 1.872 255 255 255
-1.394 -1.816 2.975 255 255 255
1.403 -0.576 2.364 255 255 255
0.434 0.181 1.071 0 0 0
0.131 0.804 1.519 255 255 255
-0.105 0.56 2.133 255 255 255
-0.329 -0.656 1.829 255 255 255
0.897 -0.417 2.225 255 255 255
0.088 -0.336 2.001 255 255 255
-0.455 0.685 2.165 255 255 255
0.268 0.229 1.067 255 255 255
0.969 -0.405 2.246 255 255 255
-0.169 -1.169 1.774 255 255 255
0.15 -0.9 1.903 0 0 0
-1.098 -0.374 1.749 255 255 255
-1.221 -0.431 1.673 255 255 255
0.024 -0.104 2.032 255 255 255
0.317 0.456 0.903 255 255 255
-0.631 -0.337 1.107 255 255 255
1.574 -0.472 2.428 255 255 255
-0.421 0.684 2.18 0 0 0
-0.318 -0.15 1.93 255 255 255
-0.053 -0.035 2.027 255 255 255
0.329 0.096 1.168 255 255 255
0.293 -0.763 1.969 255 255 255
-0.009 0.71 2.086 255 255 255
0.313 0.027 1.166 255 255 255
0.462 0.106 1.17 255 255 255
0.883 -0.761 2.154 255 255 255
0.723 -0.587 2.147 255 255 255
-1.219 -0.083 1.633 255 255 255
0.234 0.45 1.078 255 255 255
-0.142 0.476 2.116 255 255 255
0.358 -0.812 1.971 255 255 255
0.47 -1.232 1.96 255 255 255
-0.21 0.741 1.926 255 255 255
0.29 -0.228 2.07 255 255 255
0.208 -0.322 2.035 255 255 255
-0.315 -0.409 1.884 255 255 255
1.731 -0.245 2.513 255 255 255
1.465 -0.21 2.453 255 255 255
0.514 -0.749 2.068 255 255 255
-0.216 0.192 2.036 255 255 255
0.794 -0.517 2.178 255 255 255
0.393 0.336 1.036 255 255 255
-0.024 0.741 1.911 255 255 255
0.253 0.339 1.066 255 255 255
-1.082 0.076 1.796 255 255 255
0.233 0.272 1.093 255 255 255
0.51 -0.483 2.121 255 255 255
0.145 0.262 2.137 255 255 255
1.216 -0.825 2.22 255 255 255
0.848 -1.368 1.997 255 255 255
-0.119 0.738 1.958 255 255 255
0.192 0.415 1.332 255 255 255
0.391 -0.929 1.953 255 255 255
0.46 -1.072 1.991 255 255 255
-1.666 -1.497 2.965 255 255 255
1.183 -0.33 2.319 255 255 255
1.086 -0.69 2.217 255 255 255
-0.221 -0.386 1.912 255 255 255
0.525 -0.273 2.172 0 0 0
-0.528 0.82 1.532 255 255 255
1.119 0.088 2.392 255 255 255
0.343 0.3 1.098 255 255 255
0.162 -0.801 1.928 255 255 255
0.985 -0.999 2.135 255 255 255
0.882 -0.023 2.304 255 255 255
0.274 0.229 1.065 255 255 255
1.127 -0.481 2.27 255 255 255
-0.159 -1.074 1.792 255 255 255
0.215 -0.572 1.986 255 255 255
-0.347 0.512 2.065 255 255 255
0.385 -1.412 1.856 0 0 0
-0.353 0.104 1.971 255 255 255
0.016 -1.179 1.818 255 255 255
0.143 0.388 2.164 255 255 255
0.16 0.17 2.121 255 255 255
0.271 -0.076 1.222 0 0 0
0.429 0.145 1.135 0 0 0
-0.5 0.729 1.968 255 255 255
0.505 -1.261 1.964 255 255 255
0.443 -0.589 2.085 0 0 0
-1.219 0.085 1.749 255 255 255
0.609 -0.227 2.193 255 255 255
0.464 -0.346 2.135 255 255 255
0.58 -1.065 2.018 255 255 255
-1.136 0.146 1.8 255 255 255
-1.146 -0.027 1.764 255 255 255
-0.377 -0.584 1.828 255 255 255
-0.613 0.342 1.252 255 255 255
-0.017 -1.252 1.794 255 255 255
0.448 -0.784 2.044 255 255 255
0.313 0.368 1.064 255 255 255
-0.075 -0.602 1.907 255 255 255
0.206 0.339 1.12 255 255 255
0.974 -1.27 2.081 255 255 255
-0.364 0.169 1.986 255 255 255
-0.318 0.302 2.019 255 255 255
-1.156 -0.183 1.727 255 255 255
0.636 -1.483 1.9 255 255 255
-0.556 0.784 1.707 0 0 0
-1.188 -2.178 2.86 255 255 255
0.484 0.229 0.918 255 255 255
-0.166 0.09 2.025 255 255 255
0.644 -1.143 2.021 255 255 255
0.14 -0.61 1.957 255 255 255
0.531 -0.333 2.152 255 255 255
-0.124 0.422 2.109 255 255 255
0.318 0.419 1.125 255 255 255
0.172 0.777 1.646 255 255 255
-0.041 -1.12 1.814 255 255 255
-0.366 0.766 1.788 255 255 255
-1.225 -0.042 1.714 255 255 255
-0.771 0.659 2.329 255 255 255
-0.333 -1.171 1.731 255 255 255
0.448 -0.991 2.004 255 255 255
0.792 -1.419 1.958 0 0 0
-0.662 0.726 1.979 255 255 255
0.215 -0.576 1.985 255 255 255
1.604 -0.502 2.428 255 255 255
-0.634 -0.13 1.145 255 255 255
0.392 0.375 0.906 255 255 255
-0.719 0.391 1.358 255 255 255
-0.204 -0.218 1.951 255 255 255
0.159 0.315 2.15 255 255 255
1.054 0.117 2.388 255 255 255
-0.169 0.053 2.017 255 255 255
-0.015 0.782 1.652 255 255 255
0.356 0.395 0.97 255 255 255
0.297 -1.35 1.854 0 0 0
0.185 -1.041 1.886 255 255 255
1.331 -0.577 2.315 255 255 255
1.067 -0.263 2.297 255 255 255
-0.025 -0.035 2.033 255 255 255
-1.133 0.599 2.668 255 255 255
-0.072 0.281 2.092 255 255 255
-1.535 -1.825 2.93 255 255 255
-0.68 0.612 2.364 255 255 255
-0.151 0.796 1.595 255 255 255
0.71 -0.977 2.07 255 255 255
0.899 -1.073 2.093 255 255 255
0.136 -0.585 1.959 0 0 0
0.174 -0.679 1.956 255 255 255
-0.176 -0.373 1.93 255 255 255
0.399 0.362 0.982 255 255 255
0.607 -1.018 2.033 255 255 255
0.858 -1.141 2.073 255 255 255
-1.229 -0.322 1.613 255 255 255
0.313 0.447 0.975 255 255 255
1.096 -0.875 2.185 255 255 255
0.091 0.352 1.247 255 255 255
-0.531 0.825 1.502 255 255 255
0.179 0.794 1.572 255 255 255
0.064 0.421 2.154 255 255 255
0.291 0.692 1.348 255 255 255
0.217 -0.868 1.93 255 255 255
1.396 -0.639 2.353 255 255 255
-0.409 -0.898 1.788 255 255 255
0.115 -1.207 1.835 255 255 255
0.565 -0.83 2.07 255 255 255
-0.255 0.15 2.018 255 255 255
0.172 0.267 1.179 255 255 255
-1.218 -0.091 1.74 255 255 255
-0.627 0.771 1.771 0 0 0
0.743 -0.151 2.242 255 255 255
0.292 -1.213 1.881 255 255 255
-0.378 0.727 2.004 255 255 255
-1.188 0.077 1.773 255 255 255
-0.367 -0.77 1.791 255 255 255
-0.126 -0.335 1.947 255 255 255
0.048 -0.076 2.044 255 255 255
-0.215 0.534 2.112 255 255 255
-0.993 -2.072 2.926 255 255 255
-1.105 -0.551 1.681 255 255 255
0.045 -1.338 1.79 0 0 0
1.1 -1.158 2.132 255 255 255
1.652 -0.435 2.454 255 255 255
-0.313 0.703 2.091 255 255 255
0.743 -1.013 2.073 255 255 255
0.508 -0.669 2.08 255 255 255
-0.044 -0.385 1.957 255 255 255
0.208 0.437 1.099 255 255 255
0.203 -0.446 2.007 255 255 255
0.408 -0.37 2.072 255 255 255
0.021 0.342 2.127 255 255 255
-0.197 0.51 2.107 255 255 255
0.507 0.079 1.168 255 255 255
0.314 0.457 0.922 255 255 255
-0.611 0.102 1.212 255 255 255
0.721 -1.22 2.024 255 255 255
-0.31 0.431 2.057 255 255 255
-1.226 -0.042 1.707 255 255 255
-0.113 0.811 1.533 255 255 255
0.343 -0.242 2.08 255 255 255
-1.091 0.132 1.792 255 255 255
0.186 0.008 1.238 0 0 0
-0.026 0.71 2.097 255 255 255
-0.048 -0.533 1.928 255 255 255
0.691 -1.054 2.048 255 255 255
0.068 -0.865 1.892 255 255 255
0.274 0.77 1.664 255 255 255
-0.185 0.79 1.628 255 255 255
-1.162 -2.045 2.885 255 255 255
-1.486 -1.824 2.945 255 255 255
-0.009 -0.993 1.849 0 0 0
0.157 -0.726 1.941 0 0 0
-0.505 0.793 1.643 255 255 255
0.256 0.392 1.067 255 255 255
1.387 -0.843 2.306 255 255 255
-1.136 -0.484 1.713 255 255 255
0.346 0.385 0.983 255 255 255
-0.029 -1.123 1.819 255 255 255
0.063 -0.552 1.952 255 255 255
0.578 -0.138 2.207 255 255 255
0.549 -1.229 1.987 255 255 255
0.407 -0.704 2.006 255 255 255
-0.086 -1.224 1.782 255 255 255
0.092 -0.603 1.952 255 255 255
0.599 -1.229 1.997 255 255 255
0.096 -0.345 2.003 255 255 255
1.05 -1.434 2.024 255 255 255
1.767 -0.429 2.483 255 255 255
-1.241 -1.946 2.99 255 255 255
0.143 0.178 2.119 255 255 255
-1.196 -0.451 1.664 255 255 255
0.276 0.4 1.059 255 255 255
-0.037 0.046 2.047 255 255 255
0.978 -1.117 2.105 255 255 255
0.008 0.017 2.055 255 255 255
1.353 -0.563 2.345 255 255 255
-1.041 0.608 2.623 255 255 255
0.249 0.19 1.08 255 255 255
0.234 0.28 1.096 255 255 255
-0.79 0.74 1.921 255 255 255
-0.255 0.272 2.044 255 255 255
1.575 -0.663 2.39 255 255 255
0.164 0.24 1.172 255 255 255
0.579 -1.316 1.957 255 255 255
0.303 -0.285 2.062 255 255 255
1.185 -0.185 2.345 255 255 255
0.02 -1.273 1.8 255 255 255
-0.001 -1.12 1.823 255 255 255
-0.21 0.515 2.108 255 255 255
-0.153 0.257 2.066 255 255 255
-1.136 -0.362 1.709 255 255 255
-0.178 -1.227 1.759 255 255 255
0.878 -0.151 2.277 255 255 255
0.162 -0.327 2.019 255 255 255
0.365 0.182 1.172 255 255 255
0.063 -0.481 1.964 255 255 255
0.371 -1.284 1.881 255 255 255
-0.225 -0.406 1.912 255 255 255
0.052 0.818 1.497 255 255 255
-0.28 0.191 2.019 255 255 255
0.192 0.228 2.145 255 255 255
0.723 -0.354 2.196 255 255 255
0.349 0.202 1.16 255 255 255
0.394 0.25 1.089 255 255 255
0.107 0.424 1.338 255 255 255
0.202 0.114 1.13 255 255 255
0.978 -0.967 2.139 255 255 255
-1.082 -2.063 2.906 255 255 255
0.498 -1.305 1.954 255 255 255
-1.525 -1.542 2.991 255 255 255
0.328 0.428 0.936 255 255 255
1.116 -0.064 2.351 255 255 255
0.253 -0.761 1.956 255 255 255
-0.315 -0.927 1.785 255 255 255
1.588 -0.539 2.419 255 255 255
-1.647 -1.575 2.95 255 255 255
0.481 0.254 0.946 255 255 255
-0.092 -0.107 2.001 255 255 255
0.279 -0.042 1.18 0 0 0
0.228 -0.103 2.08 255 255 255
-0.554 0.739 1.923 255 255 255
-0.304 -0.957 1.782 255 255 255
0.201 -0.164 2.063 255 255 255
0.5 -0.8 2.053 255 255 255
0.28 -0.341 2.044 255 255 255
0.247 -1.165 1.877 255 255 255
0.477 0.256 0.968 255 255 255
-0.402 0.704 2.096 255 255 255
-0.044 -0.976 1.843 0 0 0
0.518 0.142 0.907 255 255 255
0.084 -0.616 1.952 255 255 255
-0.16 -0.007 2.006 255 255 255
0.807 -1.375 1.98 255 255 255
0.306 0.093 1.129 255 255 255
1.824 -0.169 2.551 255 255 255
-1.259 -2.187 2.84 255 255 255
-0.613 -0.073 1.172 255 255 255
0.715 -1.257 2.022 255 255 255
-0.436 0.694 2.135 255 255 255
0.289 -1.111 1.895 255 255 255
-0.052 0.457 2.131 255 255 255
1.389 -0.749 2.33 255 255 255
0.348 -1.002 1.929 255 255 255
0.176 0.42 1.339 255 255 255
0.62 -1.469 1.901 255 255 255
0.099 -1.285 1.815 255 255 255
-1.099 -0.258 1.717 255 255 255
-0.602 0.704 2.093 255 255 255
1.356 -0.884 2.286 255 255 255
-0.24 -0.496 1.888 255 255 255
-0.914 0.692 2.191 255 255 255
0.226 0.457 1.084 255 255 255
0.688 -0.714 2.116 255 255 255
1.361 -1.023 2.256 255 255 255
0.395 -1.329 1.877 255 255 255
0.173 0.115 1.185 0 0 0
-0.104 -1.059 1.81 255 255 255
-0.62 0.792 1.653 255 255 255
1.279 -0.73 2.258 255 255 255
0.272 0.008 1.161 255 255 255
-0.092 0.569 2.133 255 255 255
0.467 0.238 0.99 255 255 255
0.294 0.033 1.15 255 255 255
-1.143 -0.113 1.749 255 255 255
0.393 -0.492 2.042 255 255 255
-0.33 -0.941 1.775 255 255 255
-0.075 -0.55 1.916 255 255 255
-0.685 0.802 1.61 255 255 255
-0.008 0.755 1.786 255 255 255
-1.211 -0.27 1.703 255 255 255
0.662 -0.558 2.14 255 255 255
0.802 0.057 1.182 255 255 255
-0.001 -0.504 1.945 255 255 255
1.046 -0.127 2.32 255 255 255
0.379 0.3 1.044 255 255 255
1.456 -0.423 2.409 255 255 255
-0.311 0.369 2.044 255 255 255
1.158 -0.367 2.299 255 255 255
0.033 0.714 2.057 255 255 255
0.428 -0.745 2.042 0 0 0
-0.621 0.724 1.994 255 255 255
0.232 0.435 1.086 255 255 255
-0.182 0.759 1.789 255 255 255
1.438 -0.342 2.419 255 255 255
0.04 -0.966 1.861 0 0 0
0.317 0.283 1.122 255 255 255
-1.305 -2.016 2.856 255 255 255
0.369 0.195 1.157 255 255 255
0.133 -0.338 2.011 255 255 255
-1.23 -2.205 2.835 255 255 255
0.116 -0.54 1.968 255 255 255
-0.193 -0.983 1.807 255 255 255
1.044 -0.349 2.276 255 255 255
-0.457 0.811 1.554 255 255 255
-1.614 -1.611 2.953 255 255 255
0.355 0.312 1.042 255 255 255
-0.616 0.295 1.24 255 255 255
0.788 -0.335 2.213 255 255 255
0.068 -0.217 2.019 255 255 255
-0.836 0.752 1.892 255 255 255
0.106 0.349 1.236 255 255 255
-1.222 -0.09 1.731 255 255 255
-0.251 -1.304 1.725 0 0 0
0.182 -1.091 1.879 255 255 255
-0.846 0.652 2.364 255 255 255
-0.362 -0.073 1.932 255 255 255
0.084 0.795 1.58 255 255 255
0.07 0.804 1.544 255 255 255
-0.328 0.08 1.967 255 255 255
-0.394 -0.086 1.951 0 0 0
-0.57 0.838 1.47 255 255 255
0.2 0.702 2.068 255 255 255
0.104 -0.822 1.906 255 255 255
-0.236 0.422 2.082 255 255 255
-0.056 -0.303 1.973 255 255 255
-0.119 -0.983 1.82 0 0 0
-0.245 -0.869 1.812 255 255 255
0.107 0.266 1.262 255 255 255
-0.241 -1.22 1.745 255 255 255
0.306 0.138 1.118 255 255 255
0.02 -1.051 1.849 0 0 0
-0.653 0.75 1.872 255 255 255
-0.103 0.764 1.737 0 0 0
0.568 0.113 0.898 255 255 255
0.302 0.59 1.058 255 255 255
-0.304 -0.372 1.897 255 255 255
0.192 -0.938 1.911 255 255 255
0.102 0.774 1.668 255 255 255
0.656 -1.285 1.994 255 255 255
1.157 -1.046 2.169 255 255 255
1.562 -0.193 2.478 255 255 255
0.076 -0.153 2.032 255 255 255
0.331 0.7 1.933 255 255 255
-1.1 -0.298 1.722 255 255 255
-0.196 -0.891 1.824 255 255 255
0.417 -0.582 2.044 255 255 255
0.336 0.413 0.966 255 255 255
0.314 -0.129 2.094 255 255 255
0.041 -1.269 1.802 255 255 255
0.237 -0.424 2.02 255 255 255
0.694 -0.783 2.103 255 255 255
0.224 -0.755 1.955 255 255 255
0.495 0.184 0.886 255 255 255
0.175 0.357 2.134 255 255 255
0.216 0.102 1.119 255 255 255
1.121 -0.683 2.235 255 255 255
0.356 0.234 1.121 255 255 255
-0.315 -0.131 1.937 255 255 255
0.752 -0.838 2.106 255 255 255
0.728 -0.61 2.144 255 255 255
0.733 -1.307 2.014 255 255 255
-0.025 0.209 2.087 255 255 255
0.246 -0.059 1.222 255 255 255
-0.509 0.604 2.56 0 0 0
0.494 0.107 1.059 255 255 255
1.333 -0.093 2.408 255 255 255
0.495 -0.756 2.063 255 255 255
0.012 0.017 2.056 255 255 255
0.224 0.086 1.121 255 255 255
1.805 0.031 2.583 255 255 255
1.447 -0.634 2.363 255 255 255
0.144 -0.623 1.958 255 255 255
0.478 0.197 0.893 255 255 255
0.812 -1.431 1.952 0 0 0
-0.259 -0.113 1.959 255 255 255
0.1 0.278 1.271 255 255 255
0.251 0.192 1.079 255 255 255
0.465 0.351 0.965 255 255 255
0.965 -0.067 2.313 255 255 255
-0.173 0.379 2.087 255 255 255
0.177 -0.63 1.965 255 255 255
0.087 0.47 2.17 255 255 255
0.27 -0.671 1.977 255 255 255
-0.185 -1.207 1.761 255 255 255
0.052 -0.24 2.013 255 255 255
-1.222 -2.148 2.861 255 255 255
0.27 -0.607 1.995 255 255 255
-1.139 0.025 1.776 255 255 255
-0.62 0.756 1.848 255 255 255
1.017 -0.394 2.259 255 255 255
-0.091 -0.356 1.952 255 255 255
0.329 -1.266 1.875 255 255 255
1.134 -0.507 2.269 255 255 255
-0.013 0.058 2.059 255 255 255
0.245 -0.682 1.973 255 255 255
-0.078 -1.271 1.773 255 255 255
1.166 -0.679 2.245 255 255 255
0.472 0.172 0.97 255 255 255
-0.127 0.358 2.094 255 255 255
-0.042 0.785 1.626 255 255 255
-0.028 -0.249 1.989 255 255 255
-0.129 -0.604 1.901 255 255 255
0.242 0.015 1.156 255 255 255
0.848 -1.339 2.009 0 0 0
-0.033 -1.122 1.817 255 255 255
0.133 0.425 1.348 255 255 255
0.144 0.247 1.184 255 255 255
-0.316 0.78 1.691 0 0 0
-0.442 0.799 1.616 255 255 255
0.483 -0.878 2.034 255 255 255
-0.509 0.414 2.33 255 255 255
1.054 -1.039 2.144 255 255 255
0.358 0.321 1.027 255 255 255
0.166 0.742 1.852 255 255 255
-0.595 0.726 1.994 255 255 255
0.396 0.222 1.113 255 255 255
-0.21 -0.738 1.846 255 255 255
-0.315 -0.911 1.789 255 255 255
-1.226 -0.16 1.653 255 255 255
-1.112 0.167 1.818 255 255 255
0.863 -0.103 2.28 255 255 255
-0.641 -0.312 1.107 255 255 255
0.787 -0.353 2.209 255 255 255
0.189 -1.275 1.844 255 255 255
-0.478 0.724 2.007 255 255 255
-0.631 -0.487 1.081 255 255 255
-0.074 -1.296 1.77 0 0 0
-0.853 -1.892 2.987 255 255 255
0.172 -0.163 2.054 255 255 255
-1.355 -2.026 2.843 255 255 255
-0.055 -0.729 1.885 255 255 255
-0.034 0.357 2.116 255 255 255
0.346 0.395 0.973 255 255 255
-0.401 -0.581 1.853 255 255 255
0.492 0.285 0.928 255 255 255
-1.122 -0.357 1.711 255 255 255
-0.639 -0.238 1.122 255 255 255
0.862 -0.117 2.278 255 255 255
-0.626 -0.229 1.132 255 255 255
1.231 -0.004 2.392 255 255 255
0.248 0.768 1.689 0 0 0
-0.136 -0.075 1.998 255 255 255
0.278 -0.182 2.077 255 255 255
0.366 -0.49 2.035 255 255 255
-0.083 -0.433 1.937 255 255 255
0.423 0.356 0.965 255 255 255
0.547 0.104 0.94 255 255 255
-0.04 -0.404 1.953 255 255 255
-0.238 -0.206 1.947 255 255 255
0.077 0.708 2.078 255 255 255
-0.186 -0.626 1.874 255 255 255
0.208 0.446 1.361 0 0 0
0.067 -0.576 1.947 0 0 0
-0.075 -0.31 1.964 255 255 255
-1.088 0.197 1.801 255 255 255
-1.094 -0.349 1.746 255 255 255
0.617 -0.772 2.088 255 255 255
0.263 -0.743 1.967 255 255 255
0.051 -0.798 1.902 255 255 255
0.115 0.001 2.076 255 255 255
0.159 0.294 1.243 255 255 255
-0.187 -1.108 1.78 255 255 255
-0.629 -0.216 1.133 255 255 255
0.685 -1.034 2.051 255 255 255
0.703 -0.109 2.241 255 255 255
-0.164 -0.391 1.924 255 255 255
-0.278 -0.442 1.89 255 255 255
0.314 0.241 1.084 255 255 255
0.347 -0.258 2.077 255 255 255
1.442 -1.001 2.293 255 255 255
0.186 0.244 1.088 255 255 255
0.466 0.204 0.984 255 255 255
-0.083 -0.719 1.881 255 255 255
0.453 0.171 1.029 255 255 255
0.095 0.289 1.274 255 255 255
0.18 -0.983 1.898 255 255 255
0.448 0.296 1.04 0 0 0
0.344 0.401 0.825 255 255 255
0.211 -1.302 1.841 255 255 255
0.436 -1.342 1.899 255 255 255
0.532 -0.65 2.09 255 255 255
0.284 0.033 1.15 255 255 255
0.401 -1.208 1.912 255 255 255
0.28 0.761 1.708 0 0 0
0.353 -1.017 1.929 255 255 255
-0.195 0.597 2.113 255 255 255
-1.089 0.232 1.824 255 255 255
-0.378 0.596 2.108 255 255 255
-1.539 -1.865 2.924 255 255 255
-1.099 -0.3 1.737 255 255 255
-0.333 -0.29 1.892 255 255 255
0.126 -0.13 2.051 255 255 255
-0.81 -2.243 2.93 255 255 255
1.054 -0.637 2.22 255 255 255
0.342 0.01 1.2 0 0 0
0.704 -1.192 2.028 255 255 255
0.581 -0.603 2.111 255 255 255
0.243 0.329 1.074 255 255 255
0.339 -0.546 2.019 255 255 255
1.254 -0.173 2.363 255 255 255
0.538 -0.965 2.032 255 255 255
-1.156 -0.137 1.738 255 255 255
0.54 0.106 0.919 255 255 255
-0.809 0.621 2.489 255 255 255
0.954 -0.811 2.162 255 255 255
-0.17 -0.998 1.801 0 0 0
1.193 -0.276 2.33 255 255 255
-0.354 0.801 1.576 255 255 255
1.749 -0.702 2.438 255 255 255
-0.306 -0.281 1.916 255 255 255
-0.012 -0.792 1.878 255 255 255
0.588 -0.53 2.134 255 255 255
-0.282 -0.381 1.901 255 255 255
0.991 0.06 2.348 255 255 255
-0.72 -0.266 1.204 255 255 255
1.722 0.065 2.573 255 255 255
0.254 0.42 1.062 255 255 255
-0.362 -1.064 1.73 255 255 255
0.543 -1.422 1.894 0 0 0
1.471 -0.366 2.428 255 255 255
0.121 0.221 1.259 255 255 255
-0.234 0.793 1.623 255 255 255
-1.083 0.165 1.811 255 255 255
0.443 0.321 1.092 255 255 255
-0.442 0.747 1.892 255 255 255
0.087 -0.522 1.963 255 255 255
0.794 -0.743 2.136 255 255 255
-0.275 -0.093 1.958 255 255 255
-0.153 0.219 2.061 255 255 255
-0.757 0.709 2.061 255 255 255
-0.133 -0.019 2.011 255 255 255
-0.358 0.551 2.077 255 255 255
-0.293 -0.789 1.815 255 255 255
0.361 -0.226 2.087 255 255 255
-1.069 0.199 1.785 255 255 255
0.674 -0.39 2.174 255 255 255
0.24 -1.05 1.899 255 255 255
0.417 -0.134 2.091 255 255 255
0.837 -0.679 2.157 255 255 255
0.495 0.335 0.979 255 255 255
-0.048 -0.825 1.873 0 0 0
0.388 0.398 0.882 255 255 255
0.094 0.359 2.148 255 255 255
0.2 -0.298 2.038 255 255 255
1.056 0.081 2.368 255 255 255
0.088 -0.775 1.912 255 255 255
1.003 -1.301 2.074 255 255 255
0.866 -1.368 1.991 255 255 255
-0.807 0.754 1.867 255 255 255
0.147 0.414 1.33 255 255 255
-1.139 -0.148 1.741 255 255 255
-0.048 -0.634 1.905 0 0 0
-0.024 -0.612 1.913 255 255 255
0.476 0.127 1.045 255 255 255
0.371 -0.429 2.049 255 255 255
0.087 0.604 2.159 255 255 255
-0.809 0.55 2.732 255 255 255
-0.273 -0.491 1.879 255 255 255
1.288 -0.25 2.354 255 255 255
0.146 0.725 1.957 255 255 255
0.243 0.169 2.103 255 255 255
-0.001 0.1 2.071 255 255 255
0.981 -0.875 2.16 255 255 255
-1.392 -1.679 2.999 255 255 255
0.243 -0.028 1.198 0 0 0
-0.542 0.509 2.334 255 255 255
0.396 0.254 1.086 255 255 255
0.569 -1.026 2.026 255 255 255
-0.061 -1.149 1.804 255 255 255
-0.332 -0.444 1.862 255 255 255
-0.153 -1.148 1.782 255 255 255
-0.632 -0.012 1.168 255 255 255
0.037 0.267 2.115 255 255 255
0.084 0.713 2.051 255 255 255
0.848 -0.381 2.221 255 255 255
0.11 0.773 1.674 0 0 0
0.186 -0.676 1.96 255 255 255
0.14 0.218 1.24 255 255 255
0.203 0.072 1.15 255 255 255
0.117 -0.851 1.908 255 255 255
0.02 -1.301 1.793 0 0 0
0.21 0.197 1.087 255 255 255
0.957 -0.705 2.182 255 255 255
-0.022 0.556 2.154 255 255 255
0.477 -0.85 2.037 255 255 255
0.343 -1.148 1.899 255 255 255
0.274 0.38 1.056 255 255 255
-0.273 -0.618 1.855 255 255 255
1.363 -0.32 2.392 255 255 255
0.383 -1.376 1.863 0 0 0
-0.236 0.537 2.104 255 255 255
0.592 -0.723 2.09 255 255 255
-1.125 -0.011 1.786 255 255 255
0.601 -0.742 2.087 255 255 255
0.011 -0.239 2 255 255 255
1.216 -0.406 2.306 255 255 255
-0.625 -0.365 1.106 255 255 255
0.916 -0.704 2.171 255 255 255
-0.247 0.619 2.108 255 255 255
-0.617 0.073 1.197 255 255 255
0.712 -1.058 2.051 255 255 255
-0.139 0.127 2.041 255 255 255
1.588 -0.467 2.429 255 255 255
-0.363 -0.142 1.916 255 255 255
0.364 -1.097 1.916 255 255 255
0.396 -0.248 2.091 255 255 255
-0.323 -0.321 1.895 255 255 255
0.833 -0.522 2.189 255 255 255
1.266 -1.142 2.167 255 255 255
0.117 0.759 1.744 255 255 255
0.144 0.28 1.23 255 255 255
0.137 0.435 1.361 255 255 255
0.225 -0.27 2.048 255 255 255
-0.221 0.346 2.067 255 255 255
0.584 -0.424 2.15 255 255 255
-0.401 0.808 1.557 255 255 255
0.348 -0.167 2.093 255 255 255
0.22 -0.782 1.945 255 255 255
0.129 -1.291 1.823 255 255 255
0.232 0.395 1.358 255 255 255
0.218 0.8 1.55 255 255 255
0.198 -1.294 1.839 255 255 255
0.279 0.166 1.093 255 255 255
0.056 -0.088 2.042 255 255 255
0.492 0.115 0.946 255 255 255
-0.198 -0.066 1.983 255 255 255
0.333 0.417 0.961 255 255 255
0.076 0.277 2.128 255 255 255
0.779 -0.43 2.193 255 255 255
-1.521 -1.951 2.883 255 255 255
-0.259 -0.121 1.958 255 255 255
0.126 0.415 2.164 255 255 255
-0.029 -1.32 1.781 0 0 0
1.653 -0.09 2.524 255 255 255
-0.129 0.801 1.566 255 255 255
0.784 -0.449 2.19 255 255 255
0.345 -1.237 1.88 255 255 255
0.538 -1.385 1.91 0 0 0
0.254 0.705 1.394 255 255 255
-1.077 -2.213 2.872 255 255 255
0.301 0.228 1.07 255 255 255
0.787 -1.319 2.021 255 255 255
-1.148 -0.175 1.731 255 255 255
0.027 -0.377 1.978 255 255 255
-0.024 -0.277 1.985 255 255 255
0.754 -0.388 2.196 255 255 255
0.236 0.151 1.11 255 255 255
-0.61 0.208 1.234 255 255 255
-0.091 0.786 1.627 255 255 255
0.642 -0.512 2.146 255 255 255
0.021 0.772 1.693 0 0 0
-0.088 0.263 2.084 255 255 255
0.877 -0.685 2.167 255 255 255
-0.959 0.583 2.721 255 255 255
0.367 -0.741 1.989 255 255 255
-0.208 0.611 2.114 255 255 255
-0.395 0.796 1.635 255 255 255
-1.561 -1.788 2.931 255 255 255
-0.714 0.04 1.271 255 255 255
0.636 -0.729 2.099 255 255 255
-0.603 0.384 1.271 255 255 255
-0.716 0.749 1.876 255 255 255
-0.261 0.796 1.609 255 255 255
-0.033 -0.096 2.021 255 255 255
-0.631 -0.307 1.112 255 255 255
-0.244 -1.027 1.779 255 255 255
1.168 0.037 2.386 255 255 255
0.037 0.756 1.778 255 255 255
-1.301 -1.948 2.962 255 255 255
-0.619 0.28 1.235 255 255 255
-0.267 -0.366 1.908 255 255 255
-0.192 -1.139 1.774 255 255 255
0.186 -0.393 2.012 255 255 255
-0.611 0.214 1.234 255 255 255
0.853 -0.169 2.266 255 255 255
0.165 -0.714 1.944 0 0 0
0.483 0.267 0.957 255 255 255
0.876 -0.61 2.181 255 255 255
0.182 -0.429 2.008 255 255 255
0.239 0.216 1.064 255 255 255
0.758 -0.461 2.185 255 255 255
0.266 0.225 1.07 255 255 255
-0.686 0.428 2.824 255 255 255
0.2 0.446 1.104 255 255 255
0.545 0.142 0.875 255 255 255
1.331 -0.259 2.374 255 255 255
0.207 0.294 1.108 255 255 255
0.462 0.339 1.004 0 0 0
-0.342 -1.109 1.735 255 255 255
1.033 -0.009 2.344 255 255 255
-0.205 0.802 1.579 255 255 255
-0.279 -1.185 1.743 255 255 255
0.596 -1.349 1.933 255 255 255
-0.085 -0.059 2.015 255 255 255
0.136 0.17 1.261 255 255 255
-0.122 0.728 2.029 255 255 255
-0.421 0.784 1.675 255 255 255
0.704 -0.523 2.159 255 255 255
-0.826 0.662 2.288 255 255 255
-0.243 0.711 2.092 255 255 255
0.279 0.123 1.116 255 255 255
-0.358 -0.44 1.859 255 255 255
-1.605 -1.755 2.916 255 255 255
0.861 -0.061 2.29 255 255 255
1.216 -0.775 2.231 255 255 255
-0.182 -0.106 1.98 255 255 255
0.178 0.185 1.16 255 255 255
-0.056 -0.785 1.872 255 255 255
0.177 0.756 1.753 255 255 255
-0.021 -1.095 1.823 255 255 255
0.304 0.515 1.146 255 255 255
-0.321 0.587 2.083 255 255 255
-0.125 0.262 2.074 255 255 255
0.075 -0.7 1.921 255 255 255
1.125 -0.986 2.167 255 255 255
0.132 -0.461 1.986 255 255 255
0.198 -0.49 1.997 255 255 255
-0.273 0.208 2.027 255 255 255
-0.895 0.524 2.942 255 255 255
-0.329 -0.43 1.869 255 255 255
1.381 -0.795 2.318 255 255 255
-0.356 0.169 1.986 255 255 255
0.265 0.419 1.059 255 255 255
0.219 0.06 1.137 255 255 255
-0.229 -0.355 1.917 255 255 255
0.246 -0.837 1.943 255 255 255
0.397 -1.005 1.939 255 255 255
-0.188 0.469 2.104 255 255 255
0.345 0.388 0.978 255 255 255
0.471 0.153 1.006 255 255 255
0.499 -0.962 2.02 255 255 255
1.136 -0.144 2.341 255 255 255
-0.335 0.785 1.673 255 255 255
0.031 -0.455 1.96 255 255 255
1.195 -0.869 2.214 255 255 255
0.897 -0.859 2.139 255 255 255
0.31 0.393 1.013 255 255 255
0.101 0.339 1.24 255 255 255
0.369 0.313 1.035 255 255 255
-0.621 0.07 1.193 255 255 255
0.553 0.099 0.997 255 255 255
-0.382 -0.292 1.898 255 255 255
0.089 0.291 2.133 255 255 255
-1.17 -2.007 2.879 255 255 255
0.095 -0.483 1.973 255 255 255
0.119 0.736 1.907 255 255 255
0.314 0.521 1.043 255 255 255
0.664 -0.537 2.149 255 255 255
-0.187 0.734 1.993 255 255 255
-0.221 -0.443 1.903 255 255 255
-0.695 0.777 1.748 0 0 0
0.169 -0.045 2.078 255 255 255
-0.301 -0.147 1.943 255 255 255
0.275 0.326 1.06 255 255 255
-0.233 0.44 2.088 255 255 255
-0.41 0.823 1.5 255 255 255
0.163 0.09 1.273 0 0 0
0.932 -0.661 2.193 255 255 255
0.444 -1.386 1.877 0 0 0
0.023 -0.223 2.006 255 255 255
0.244 0.745 1.811 255 255 255
0.202 0.44 1.102 255 255 255
-0.777 -1.968 2.998 0 0 0
0.406 -0.485 2.047 255 255 255
0.259 -0.016 1.168 255 255 255
0.159 0.386 1.313 255 255 255
0.425 -1.313 1.9 255 255 255
1.015 -0.27 2.28 255 255 255
0.315 0.326 1.053 255 255 255
-0.334 0.128 1.975 255 255 255
-0.381 0.631 2.12 255 255 255
0.209 -0.965 1.907 255 255 255
-0.872 -1.897 2.978 255 255 255
-0.642 -0.516 1.065 255 255 255
-0.07 0.161 2.066 255 255 255
-1.073 0.555 2.833 255 255 255
0.276 0.012 1.158 255 255 255
0.17 0.237 1.167 255 255 255
-0.133 -0.574 1.896 255 255 255
-0.208 0.722 2.045 255 255 255
0.127 0.217 2.127 255 255 255
-0.278 -0.434 1.892 255 255 255
-0.29 -0.354 1.904 255 255 255
0.819 -1.146 2.061 255 255 255
-0.815 0.707 2.087 255 255 255
0.38 0.399 0.885 255 255 255
-0.169 -0.855 1.836 0 0 0
0.739 -0.598 2.149 255 255 255
0.378 0.275 1.075 255 255 255
-0.47 0.796 1.638 255 255 255
1.497 -0.119 2.476 255 255 255
-1.096 -0.251 1.76 255 255 255
0.076 -0.34 1.998 255 255 255
1.286 -0.533 2.296 255 255 255
0.875 -0.113 2.284 255 255 255
-0.285 0.121 1.999 255 255 255
1.185 -0.591 2.264 255 255 255
-0.374 0.736 1.955 255 255 255
0.284 0.051 1.141 255 255 255
0.233 0.017 1.158 255 255 255
-0.641 0.722 1.999 255 255 255
-1.137 -0.37 1.709 255 255 255
-0.076 -0.091 2.007 255 255 255
-1.096 -0.293 1.772 255 255 255
1.354 -0.438 2.365 255 255 255
0.308 0.326 1.062 255 255 255
0.688 -0.095 2.242 255 255 255
0.202 0.375 1.118 255 255 255
1.142 -0.614 2.243 255 255 255
0.028 -1.031 1.848 0 0 0
0.519 -0.798 2.057 255 255 255
1.205 -0.136 2.363 255 255 255
0.219 0.211 1.077 255 255 255
-0.064 -0.295 1.973 255 255 255
-0.029 -1.236 1.794 255 255 255
0.867 -1.364 1.995 255 255 255
-0.012 -0.617 1.916 0 0 0
0.174 0.023 1.245 0 0 0
1.382 -0.88 2.299 255 255 255
-0.089 0.652 2.15 255 255 255
0.156 0.15 1.197 0 0 0
0.269 -0.93 1.929 255 255 255
0.498 -0.244 2.153 255 255 255
0.884 0.127 2.335 255 255 255
0.313 0.742 1.808 255 255 255
0.053 -1.245 1.814 255 255 255
1.339 -0.866 2.27 255 255 255
0.467 -0.786 2.047 255 255 255
1.125 -0.829 2.198 255 255 255
-0.769 0.781 1.75 0 0 0
-0.611 0.267 1.241 255 255 255
1.269 -0.43 2.312 255 255 255
0.383 -1.123 1.914 255 255 255
1.127 -0.845 2.197 255 255 255
-0.322 -0.493 1.867 255 255 255
0.591 -0.741 2.085 255 255 255
0.178 0.408 1.329 255 255 255
0.274 0.761 1.717 0 0 0
0.329 -0.291 2.067 255 255 255
-0.24 -0.378 1.911 255 255 255
0.452 0.111 1.177 255 255 255
1.257 -0.294 2.338 255 255 255
1.059 -0.421 2.263 255 255 255
1.369 -0.457 2.378 255 255 255
-0.196 0.747 1.908 255 255 255
-0.153 -0.327 1.942 255 255 255
0.201 0.42 1.336 255 255 255
-0.218 0.636 2.119 255 255 255
0.311 -0.876 1.95 255 255 255
0.75 -1.071 2.059 255 255 255
-0.291 -0.216 1.929 255 255 255
0.182 -1.121 1.877 255 255 255
1.316 -0.139 2.387 255 255 255
0.461 -1.436 1.869 0 0 0
-0.615 0.307 1.243 255 255 255
0.157 0.227 2.137 255 255 255
0.229 0.179 1.096 255 255 255
-0.333 0.752 1.874 255 255 255
0.547 -1.31 1.963 255 255 255
-0.115 0.753 1.81 255 255 255
0.287 -0.055 1.19 0 0 0
1.62 0.076 2.551 0 0 0
1.592 -0.376 2.457 255 255 255
0.911 -0.75 2.161 255 255 255
0.315 -1.075 1.911 255 255 255
0.235 0.107 1.121 255 255 255
0.449 -0.217 2.159 255 255 255
-1.193 -0.432 1.67 255 255 255
-0.153 0.041 2.017 255 255 255
0.719 -0.004 2.263 255 255 255
-0.001 -0.163 2.012 255 255 255
-0.112 0.496 2.127 255 255 255
-0.357 -0.5 1.845 255 255 255
0.248 -0.051 1.21 0 0 0
0.208 0.376 1.357 255 255 255
-0.622 0.612 2.357 255 255 255
-1.644 -1.386 2.987 255 255 255
0.165 -1.137 1.862 255 255 255
1.526 0.074 2.526 255 255 255
-0.005 0.121 2.075 255 255 255
0.322 -0.495 2.026 255 255 255
-0.205 0.78 1.684 0 0 0
-1.66 -1.546 2.953 255 255 255
1.072 -0.437 2.265 255 255 255
0.132 0.261 1.238 255 255 255
0.393 0.241 1.101 255 255 255
0.072 -0.201 2.024 255 255 255
0.226 0.427 1.093 255 255 255
-0.344 -0.331 1.882 255 255 255
0.3 0.07 1.136 255 255 255
0.29 -0.894 1.941 255 255 255
0.342 0.323 1.027 255 255 255
1.591 -0.808 2.363 255 255 255
-0.11 0.355 2.098 255 255 255
1.181 -1.01 2.182 255 255 255
0.02 0.795 1.582 255 255 255
0.324 0.287 1.129 255 255 255
-0.014 0.595 2.161 255 255 255
1.606 -0.508 2.43 255 255 255
-0.625 -0.298 1.119 255 255 255
-0.609 0.11 1.214 255 255 255
0.364 0.085 1.219 255 255 255
0.754 -0.298 2.221 255 255 255
0.245 0.748 1.787 255 255 255
-0.721 0.722 2.021 255 255 255
-0.326 -0.905 1.785 255 255 255
-1.057 0.617 2.583 255 255 255
0.327 0.327 1.038 255 255 255
0.226 0.395 1.359 255 255 255
-0.697 -0.133 1.213 255 255 255
0.153 -0.371 2.01 255 255 255
-0.378 -0.727 1.799 255 255 255
0.288 0.166 1.092 255 255 255
0.106 0.344 1.236 255 255 255
1.714 -0.564 2.443 255 255 255
-0.304 -0.151 1.94 255 255 255
0.236 0.768 1.682 0 0 0
1.355 -1.095 2.247 255 255 255
-0.095 0.817 1.501 255 255 255
0.474 -1.074 1.993 255 255 255
0.631 -0.582 2.128 255 255 255
0.008 0.705 2.11 255 255 255
1.283 -0.432 2.316 255 255 255
0.157 0.269 1.189 255 255 255
0.199 -0.751 1.947 255 255 255
-0.513 0.712 2.048 255 255 255
-0.194 0.759 1.798 255 255 255
0.963 -0.682 2.187 255 255 255
-0.874 -2.159 2.931 255 255 255
0.608 -0.426 2.154 255 255 255
0.657 -0.953 2.062 255 255 255
-0.21 -0.732 1.851 255 255 255
0.555 -1.03 2.025 255 255 255
0.862 -0.782 2.147 255 255 255
1.076 -1.397 2.036 255 255 255
0.343 0.307 1.072 255 255 255
0.739 -0.589 2.15 255 255 255
0.801 -0.107 2.267 255 255 255
-0.65 0.765 1.806 255 255 255
-0.239 -0.19 1.949 255 255 255
0.763 -0.106 2.257 255 255 255
-0.798 0.744 1.905 255 255 255
0.18 -0.961 1.902 255 255 255
-0.334 0.672 2.093 255 255 255
-0.083 -0.763 1.87 255 255 255
1.673 -0.186 2.507 255 255 255
0.264 0.73 1.881 255 255 255
-0.101 0.777 1.683 0 0 0
0.485 -0.667 2.077 255 255 255
0.981 -0.756 2.177 255 255 255
1.013 -0.346 2.268 255 255 255
0.026 0.627 2.175 255 255 255
0.279 0.623 1.325 255 255 255
0.314 0.465 0.965 255 255 255
-0.152 0.189 2.051 255 255 255
0.218 -0.184 2.061 255 255 255
0.288 0.358 1.069 255 255 255
0.371 0.343 1.025 255 255 255
-1.223 -0.094 1.638 255 255 255
0.228 0.037 1.147 255 255 255
0.377 0.342 1.022 255 255 255
0.256 -0.976 1.916 255 255 255
0.576 -1.315 1.966 255 255 255
0.458 0.192 1.016 255 255 255
0.509 0.081 1.158 255 255 255
0.371 -1.313 1.874 255 255 255
-0.354 0.412 2.043 255 255 255
0.028 -0.888 1.881 0 0 0
0.259 -0.859 1.939 255 255 255
0.262 -0.565 2 255 255 255
0.765 -0.294 2.224 255 255 255
-0.005 -0.108 2.022 255 255 255
-0.296 0.755 1.841 255 255 255
1.205 -0.968 2.194 255 255 255
0.105 -0.946 1.884 255 255 255
0.393 0.14 1.207 255 255 255
0.007 -0.764 1.895 255 255 255
0.304 0.732 1.859 255 255 255
0.241 -0.091 2.088 255 255 255
-0.028 -0.695 1.898 255 255 255
-0.823 -2.213 2.938 255 255 255
-0.482 0.738 1.945 255 255 255
-0.76 0.591 2.634 255 255 255
-1.118 -2.162 2.882 255 255 255
-0.146 -1.253 1.76 255 255 255
-0.087 0.182 2.069 255 255 255
1.505 -0.299 2.446 255 255 255
0.067 0.801 1.553 255 255 255
0.265 0.191 1.081 255 255 255
-1.223 -0.041 1.66 255 255 255
1.059 -1.122 2.128 255 255 255
0.252 0.047 2.11 255 255 255
-0.054 0.65 2.158 255 255 255
1.13 -0.761 2.213 255 255 255
-0.157 -0.258 1.957 255 255 255
-0.352 -0.351 1.88 255 255 255
0.129 0.755 1.753 255 255 255
-0.256 0.499 2.092 255 255 255
0.406 0.131 1.214 255 255 255
-0.272 -1.207 1.738 255 255 255
-0.924 -2.213 2.905 255 255 255
0.968 -0.428 2.241 255 255 255
0.043 -0.647 1.932 255 255 255
-0.241 -1.042 1.78 255 255 255
0.483 0.1 1.123 255 255 255
0.266 0.759 1.435 255 255 255
0.411 0.264 1.072 255 255 255
-0.016 0.745 1.875 255 255 255
0.084 -0.871 1.894 255 255 255
0.335 -0.505 2.027 255 255 255
0.138 0.348 1.23 255 255 255
-1.131 0.233 1.819 255 255 255
0.091 -0.578 1.953 255 255 255
0.91 -0.74 2.161 255 255 255
0.639 -0.361 2.169 255 255 255
0.42 0.332 0.999 255 255 255
0.724 -0.318 2.203 255 255 255
0.816 -0.149 2.263 255 255 255
0.087 0.804 1.55 255 255 255
0.718 -0.123 2.242 255 255 255
-0.11 0.35 2.098 255 255 255
-0.827 0.706 2.08 255 255 255
1.23 -0.967 2.198 255 255 255
1.131 -0.947 2.179 255 255 255
0.201 0.232 1.071 255 255 255
1.183 -1.197 2.149 255 255 255
1.091 0.051 2.371 255 255 255
-0.821 0.658 2.334 255 255 255
0.315 -1.238 1.876 255 255 255
0.272 0.291 1.067 255 255 255
-0.24 -0.647 1.859 255 255 255
0.107 -1.245 1.828 255 255 255
1.691 -0.022 2.549 255 255 255
-0.008 0.744 1.874 255 255 255
0.508 0.107 1.039 255 255 255
-0.283 -0.101 1.957 255 255 255
0.102 -0.085 2.054 255 255 255
-0.033 0.81 1.526 255 255 255
0.488 0.176 0.909 255 255 255
-0.028 -0.514 1.935 255 255 255
0.027 -0.419 1.966 255 255 255
-0.442 0.811 1.549 255 255 255
0.823 -0.485 2.195 255 255 255
-0.394 0.803 1.597 255 255 255
0.09 0.354 2.147 255 255 255
-0.289 -0.633 1.849 255 255 255
-0.375 0.82 1.515 255 255 255
0.616 -0.558 2.127 255 255 255
-0.189 -0.949 1.812 255 255 255
-1.125 0.614 2.601 255 255 255
0.605 0.103 1.008 255 255 255
-0.147 -0.102 1.99 255 255 255
0.221 -0.229 2.053 255 255 255
0.462 -0.613 2.084 255 255 255
-0.3 -0.528 1.867 255 255 255
-0.137 -0.692 1.875 255 255 255
-0.752 -2.024 2.994 255 255 255
-0.137 0.467 2.117 255 255 255
-0.225 0.724 2.038 255 255 255
0.257 0.334 1.064 255 255 255
0.099 -0.603 1.951 255 255 255
-0.183 -0.353 1.929 255 255 255
0.343 -0.946 1.944 255 255 255
1.035 -0.712 2.199 255 255 255
-0.418 0.736 1.962 255 255 255
1.036 -1.074 2.128 255 255 255
0.518 0.092 1.072 255 255 255
0.275 0.772 1.409 255 255 255
-1.527 -1.895 2.921 255 255 255
1.336 -0.791 2.282 255 255 255
-0.639 -0.538 1.063 255 255 255
0.262 -0.053 2.088 255 255 255
0.821 -0.955 2.101 255 255 255
-0.462 0.706 2.08 255 255 255
-0.138 0.065 2.026 255 255 255
0.283 -0.5 2.014 255 255 255
0.063 -0.374 1.986 255 255 255
0.355 0.362 0.987 255 255 255
1.064 -1.117 2.128 255 255 255
0.311 -1.392 1.845 0 0 0
0.181 0.708 2.034 255 255 255
0.1 0.105 2.096 255 255 255
1.334 -0.062 2.412 255 255 255
-1.133 -0.277 1.73 0 0 0
0.464 0.266 1.025 255 255 255
0.416 0.22 1.1 255 255 255
0.207 0.305 1.105 255 255 255
0.118 0.337 1.231 255 255 255
0.511 -1.281 1.96 255 255 255
-0.054 -1.318 1.771 0 0 0
0.223 0.74 1.834 255 255 255
-0.243 -0.936 1.801 255 255 255
0.775 -1.222 2.036 255 255 255
-0.919 0.587 2.693 255 255 255
0.339 0.407 0.975 255 255 255
0.437 -0.168 2.149 255 255 255
0.098 -0.032 2.066 255 255 255
0.385 0.271 1.08 255 255 255
-0.309 0.418 2.055 255 255 255
0.184 -0.984 1.899 255 255 255
-1.17 -0.222 1.714 255 255 255
-0.348 0.072 1.964 255 255 255
-0.053 -0.075 2.018 255 255 255
1.387 -0.989 2.279 255 255 255
0.517 -1.414 1.887 0 0 0
-1.219 -2.129 2.861 255 255 255
0.271 -0.03 1.176 0 0 0
0.103 0.347 1.238 255 255 255
0.043 -0.377 1.98 255 255 255
0.094 0.376 1.246 255 255 255
-0.051 -0.649 1.898 255 255 255
-0.194 0.785 1.644 255 255 255
0.257 0.236 1.059 255 255 255
1.202 0.1 2.429 255 255 255
0.514 0.137 0.927 255 255 255
0.217 -0.262 2.046 255 255 255
0.484 0.242 0.902 255 255 255
0.436 0.141 1.12 0 0 0
0.178 0.001 1.259 0 0 0
0.544 0.109 0.908 255 255 255
0.613 -1.399 1.925 0 0 0
-1.149 0.271 1.82 255 255 255
0.145 0.253 2.136 255 255 255
0.241 0.449 1.068 255 255 255
-0.355 0.822 1.499 255 255 255
-0.162 -0.911 1.831 0 0 0
-1.113 0.109 1.805 255 255 255
0.065 0.501 2.169 255 255 255
-0.638 -0.404 1.088 255 255 255
0.335 0.164 1.157 255 255 255
-0.225 -1.025 1.786 255 255 255
0.062 -1.344 1.798 0 0 0
0.59 -1.285 1.979 255 255 255
-0.024 -0.285 1.985 255 255 255
0.362 0.123 1.217 255 255 255
0.204 -0.024 2.09 255 255 255
-0.578 0.694 2.128 255 255 255
0.137 -0.774 1.928 255 255 255
1.107 0.093 2.392 255 255 255
-0.355 0.367 2.031 255 255 255
-0.796 -1.952 2.997 0 0 0
-0.333 0.796 1.617 255 255 255
-0.264 0.789 1.636 255 255 255
-1.548 -1.58 2.978 255 255 255
0.548 -0.736 2.08 255 255 255
0.297 -1.23 1.874 255 255 255
-0.119 0.635 2.139 255 255 255
0.316 -0.319 2.062 255 255 255
0.043 0.739 1.893 255 255 255
0.256 0.717 1.404 255 255 255
0.227 -0.148 2.074 255 255 255
0.484 -0.239 2.154 255 255 255
-0.905 0.655 2.361 255 255 255
-0.198 0.785 1.651 255 255 255
0.438 -0.67 2.065 0 0 0
0.65 -0.574 2.129 255 255 255
0.217 0.742 1.817 255 255 255
-0.04 -0.796 1.878 255 255 255
0.308 0.622 1.237 255 255 255
0.361 -0.672 1.998 255 255 255
-0.065 -1.06 1.821 255 255 255
-1.089 0.013 1.768 255 255 255
0.646 -1.342 1.948 255 255 255
0.457 0.239 1.053 255 255 255
0.421 -0.25 2.106 255 255 255
-0.218 -0.298 1.931 255 255 255
-0.856 0.701 2.12 255 255 255
-0.236 -0.589 1.872 255 255 255
-1.218 -0.118 1.731 255 255 255
0.193 0.099 1.172 255 255 255
0.252 0.089 2.105 255 255 255
0.266 -1.226 1.87 255 255 255
0.243 0.441 1.068 255 255 255
0.146 -0.953 1.896 0 0 0
1.531 -0.892 2.336 255 255 255
1.34 -1.077 2.236 255 255 255
0.223 0.235 1.059 255 255 255
-0.247 0.746 1.9 255 255 255
0.662 0.066 1.085 255 255 255
-0.183 -0.682 1.866 255 255 255
-0.144 -0.415 1.926 255 255 255
-0.301 -0.373 1.899 255 255 255
0.152 0.17 1.22 0 0 0
1.045 0.091 2.368 255 255 255
-0.927 0.561 2.797 255 255 255
0.277 0.71 1.993 255 255 255
0.871 -0.945 2.114 255 255 255
1.812 0.055 2.593 255 255 255
0.618 0.097 1.043 255 255 255
0.216 0.296 1.095 255 255 255
0.173 -1.088 1.874 255 255 255
0.433 0.177 1.09 0 0 0
0.852 -0.275 2.243 255 255 255
0.261 0.12 1.11 255 255 255
0.832 -0.73 2.148 255 255 255
0.688 -0.489 2.158 255 255 255
-0.882 0.651 2.373 255 255 255
0.608 -0.421 2.154 255 255 255
-0.269 0.121 2.006 255 255 255
0.428 0.107 1.224 0 0 0
0.207 -0.649 1.968 255 255 255
-0.635 -0.382 1.098 255 255 255
-0.539 0.54 2.34 255 255 255
-0.359 0.072 1.963 255 255 255
0.345 0.319 1.031 255 255 255
-0.059 0.208 2.082 255 255 255
-0.012 -0.34 1.977 255 255 255
-0.613 -0.012 1.184 255 255 255
-0.984 0.693 2.157 0 0 0
-0.58 0.67 2.26 255 255 255
0.626 -1.192 2.005 255 255 255
-0.021 0.054 2.055 255 255 255
0.004 0.197 2.09 255 255 255
-0.25 -0.213 1.944 255 255 255
1.545 -0.561 2.403 255 255 255
1.458 -0.926 2.306 255 255 255
-0.633 0.075 1.186 255 255 255
0.145 0.299 1.232 255 255 255
1.207 -0.371 2.315 255 255 255
0.342 -0.012 1.218 0 0 0
0.86 -0.678 2.164 255 255 255
0.216 0.739 1.842 255 255 255
-0.627 0.152 1.204 255 255 255
0.052 -0.14 2.03 255 255 255
0.728 -0.381 2.192 255 255 255
0.197 0.732 1.892 255 255 255
0.616 0.078 1.102 255 255 255
-0.659 0.742 1.922 255 255 255
0.292 -0.749 1.97 255 255 255
0.805 -1.506 1.945 255 255 255
0.951 -1.276 2.076 255 255 255
-0.196 0.469 2.101 255 255 255
0.905 -0.156 2.279 255 255 255
0.257 -0.041 2.084 255 255 255
-0.556 0.802 1.607 255 255 255
0.518 -0.939 2.032 255 255 255
0.622 0.075 1.101 255 255 255
0.472 0.353 0.991 255 255 255
-1.58 -1.419 2.995 255 255 255
-0.73 0.679 2.21 255 255 255
1.013 -1.337 2.07 255 255 255
-1.113 -0.503 1.681 255 255 255
0.886 -1.34 2.03 255 255 255
1.438 -0.374 2.416 255 255 255
-0.021 -1.238 1.797 255 255 255
0.028 -0.172 2.018 255 255 255
0.324 0.36 1.045 255 255 255
0.421 0.36 0.925 255 255 255
-0.314 -0.894 1.792 255 255 255
0.35 0.4 0.937 255 255 255
-1.455 -1.945 2.896 255 255 255
-0.634 0.057 1.183 255 255 255
0.535 -1.273 1.97 255 255 255
-0.155 -0.102 1.99 255 255 255
0.885 -0.467 2.214 255 255 255
1.607 -0.492 2.433 255 255 255
0.472 0.353 0.984 255 255 255
0.191 0.048 1.195 0 0 0
-0.151 0.79 1.632 255 255 255
-0.1 -0.996 1.826 0 0 0
-0.22 0.049 2.002 255 255 255
-0.299 -0.907 1.793 255 255 255
-0.61 -0.04 1.183 255 255 255
0.246 0.34 1.072 255 255 255
-0.79 0.73 1.974 255 255 255
-1.657 -1.359 2.99 255 255 255
-0.379 -0.821 1.779 255 255 255
-0.255 -0.561 1.872 255 255 255
0.208 -0.358 2.028 255 255 255
-0.635 -0.481 1.078 255 255 255
1.064 -0.864 2.178 255 255 255
0.987 -0.217 2.294 255 255 255
-0.229 -0.813 1.827 255 255 255
0.102 0.261 2.131 255 255 255
1.473 -0.794 2.341 255 255 255
-0.279 -0.787 1.822 255 255 255
0.312 0.423 1.131 255 255 255
0.816 -0.783 2.131 255 255 255
1.094 -0.118 2.339 255 255 255
0.156 0.197 1.173 255 255 255
-0.617 0.324 1.244 255 255 255
0.692 -1.333 1.96 255 255 255
1.243 -0.076 2.379 255 255 255
-0.574 0.817 1.539 255 255 255
-0.001 0.428 2.144 255 255 255
1.652 0.076 2.556 0 0 0
-0.509 0.796 1.63 255 255 255
-1.108 -0.129 1.757 255 255 255
1.01 -1.283 2.083 255 255 255
0.078 0.101 2.089 255 255 255
0.351 -1.365 1.86 0 0 0
1.772 0.048 2.58 255 255 255
0.394 0.395 0.894 255 255 255
-0.149 -0.833 1.846 0 0 0
1.084 -0.424 2.27 255 255 255
0.218 0.695 2.074 0 0 0
0.723 -0.041 2.259 255 255 255
0.073 0.805 1.545 255 255 255
0.346 0.316 1.042 255 255 255
0.324 0.436 0.925 255 255 255
0.966 -0.154 2.299 255 255 255
0.769 -0.175 2.243 255 255 255
1.591 -0.331 2.459 255 255 255
-0.187 -0.453 1.912 255 255 255
-0.72 0.514 2.714 255 255 255
-0.195 0.139 2.031 255 255 255
0.134 -1.33 1.815 0 0 0
0.516 -0.892 2.039 255 255 255
-0.151 -1.019 1.805 0 0 0
0.086 0.386 2.154 255 255 255
0.144 -1.121 1.862 255 255 255
0.811 -0.051 2.28 255 255 255
-0.045 -1.124 1.812 255 255 255
1.048 0.076 2.363 255 255 255
0.24 0.456 1.072 255 255 255
-1.221 -0.161 1.725 255 255 255
-1.138 -0.513 1.678 255 255 255
0.218 0.466 1.089 255 255 255
0.046 0.307 2.125 255 255 255
-0.029 -1.136 1.816 255 255 255
0.137 0.318 1.227 255 255 255
-0.567 0.582 2.366 255 255 255
-0.115 0.747 1.889 255 255 255
0.032 -0.068 2.041 255 255 255
0.618 -0.391 2.161 255 255 255
-0.156 -0.357 1.934 255 255 255
0.905 -0.683 2.173 255 255 255
0.918 -0.955 2.126 255 255 255
-1.172 -0.326 1.692 255 255 255
0.204 0.419 1.106 255 255 255
0.298 0.18 1.092 255 255 255
0.128 0.662 2.091 0 0 0
0.215 -1.073 1.888 255 255 255
0.247 -0.953 1.919 255 255 255
-0.295 -0.209 1.931 255 255 255
-1.613 -1.652 2.937 255 255 255
0.367 0.276 1.072 255 255 255
-0.258 -0.167 1.948 255 255 255
-0.077 -1.121 1.807 255 255 255
-0.291 0.174 2.011 255 255 255
0.422 -1.123 1.965 0 0 0
0.25 0.741 1.832 255 255 255
0.207 0.28 1.097 255 255 255
-1.229 -0.301 1.688 255 255 255
0.154 0.293 2.148 255 255 255
0.482 0.152 0.943 255 255 255
-0.619 0.238 1.229 255 255 255
0.358 -0.18 2.097 255 255 255
-0.324 0.407 2.041 255 255 255
0.198 -0.64 1.967 255 255 255
0.178 0.067 1.223 0 0 0
-0.525 0.492 2.329 255 255 255
0.819 -0.273 2.235 255 255 255
-1.627 -1.645 2.935 255 255 255
-0.367 0.477 2.063 255 255 255
0.622 -0.161 2.211 255 255 255
-0.113 0.783 1.645 255 255 255
-0.001 -0.092 2.028 255 255 255
0.476 0.205 0.905 255 255 255
1.654 -0.68 2.41 255 255 255
-0.205 0.774 1.717 0 0 0
-0.034 0.728 1.992 255 255 255
-0.365 -0.588 1.828 255 255 255
0.464 0.236 1.001 255 255 255
0.401 0.206 1.116 255 255 255
0.711 -0.434 2.178 255 255 255
0.562 0.127 0.879 255 255 255
1.049 -0.739 2.2 255 255 255
-0.072 -0.154 1.999 255 255 255
-0.13 -1.251 1.766 255 255 255
0.728 -1.166 2.036 255 255 255
-1.284 -1.958 2.953 255 255 255
-0.615 0.791 1.652 255 255 255
1.421 -0.707 2.35 255 255 255
-0.407 0.695 2.127 255 255 255
1.363 -0.931 2.287 255 255 255
0.141 0.231 1.228 255 255 255
1.292 -0.685 2.268 255 255 255
0.312 0.45 0.817 255 255 255
0.097 -1.022 1.866 255 255 255
-0.396 -0.218 1.935 0 0 0
1.296 -0.998 2.211 255 255 255
-0.699 0.756 1.851 255 255 255
-0.381 -0.322 1.89 255 255 255
0.756 -0.764 2.12 255 255 255
0.111 0.316 1.24 255 255 255
-0.074 0.566 2.139 255 255 255
0.313 0.052 1.156 255 255 255
0.311 0.701 2.028 255 255 255
0.517 -0.18 2.181 255 255 255
0.215 -0.506 1.994 255 255 255
1.187 -0.155 2.35 255 255 255
0.237 -0.789 1.949 255 255 255
-0.326 -0.362 1.884 255 255 255
-0.324 0.072 1.966 255 255 255
-0.284 0.602 2.092 255 255 255
0.039 -0.318 1.99 255 255 255
-0.494 0.694 2.125 255 255 255
-1.218 -0.175 1.593 255 255 255
1.578 -0.554 2.412 255 255 255
0.67 0.083 0.982 255 255 255
0.866 -0.572 2.187 255 255 255
-0.17 -1.027 1.801 0 0 0
-0.739 0.759 1.839 255 255 255
0.008 0.566 2.155 255 255 255
-0.009 -0.143 2.015 255 255 255
0.138 0.351 2.156 255 255 255
0.048 -0.032 2.05 255 255 255
0.578 -0.776 2.079 255 255 255
0.209 0.789 1.593 255 255 255
-0.369 0.819 1.521 255 255 255
0.244 0.11 1.127 255 255 255
-0.361 -0.508 1.842 255 255 255
-0.623 0.06 1.191 255 255 255
0.499 0.115 1.026 255 255 255
1.417 -0.822 2.318 255 255 255
0.219 -0.031 1.216 0 0 0
0.34 -1.34 1.859 0 0 0
1.545 -0.545 2.406 255 255 255
-0.338 0.302 2.016 255 255 255
1.41 0.056 2.49 255 255 255
-1.337 -2.22 2.785 255 255 255
1.09 -1.118 2.135 255 255 255
-0.055 -0.687 1.886 255 255 255
-0.066 0.078 2.05 255 255 255
0.742 -0.841 2.103 255 255 255
0.313 0.564 1.043 255 255 255
0.587 -0.617 2.112 255 255 255
-0.498 0.432 2.323 255 255 255
0.18 0.217 1.138 255 255 255
-0.179 -1.09 1.784 255 255 255
-0.211 0.427 2.087 255 255 255
0.554 -0.76 2.079 255 255 255
-1.095 0.652 2.408 255 255 255
-0.262 -0.568 1.867 255 255 255
1.113 -1.107 2.141 255 255 255
0.195 -0.004 1.234 0 0 0
1.034 -1.445 2.006 0 0 0
0.533 0.105 1.023 255 255 255
0.244 0.052 2.115 255 255 255
0.471 0.306 1.051 0 0 0
-0.047 0.326 2.108 255 255 255
0.388 -0.667 2.005 255 255 255
0.684 -0.651 2.131 255 255 255
-0.008 -0.512 1.941 255 255 255
-0.075 -0.884 1.844 255 255 255
0.12 -0.781 1.924 255 255 255
