ply
format ascii 1.0
comment Created by Open3D
element vertex 1583
property double x
property double y
property double z
property uchar red
property uchar green
property uchar blue
end_header
-0.052 0.037 2.004 255 255 255
0.84 -0.053 2.181 255 255 255
-0.095 0.126 0.235 255 255 255
0.28 -1.111 1.887 255 255 255
-0.116 0.393 2.052 255 255 255
0.305 0.098 1.234 0 0 0
-1.065 -0.011 1.827 255 255 255
1.342 0.225 2.308 255 255 255
0.319 0.062 1.257 0 0 0
-0.573 -0.582 1.223 255 255 255
-0.957 0.688 2.794 255 255 255
0.968 -1.108 2.043 255 255 255
-0.005 -1.11 1.839 255 255 255
1.057 -0.437 2.153 255 255 255
1.167 -0.138 2.221 255 255 255
0.33 0.869 1.734 255 255 255
-0.555 -2.076 2.826 255 255 255
0.519 -1.077 1.931 255 255 255
-0.217 -0.149 1.974 0 0 0
0.825 -0.254 2.145 255 255 255
-1.045 -2.066 2.721 255 255 255
0.407 -0.049 2.065 255 255 255
-0.205 -0.05 1.968 255 255 255
0.804 -1.355 1.93 255 255 255
-1.065 -0.209 1.745 255 255 255
0.902 -0.321 2.146 255 255 255
0.312 0.301 1.065 255 255 255
-0.493 -0.178 1.213 255 255 255
0.847 -0.742 2.075 255 255 255
-0.008 0.874 1.695 255 255 255
1.103 -0.032 2.23 255 255 255
1.709 0.073 2.383 255 255 255
-0.059 -0.491 1.924 255 255 255
0.922 -0.743 2.088 255 255 255
1.125 -0.386 2.174 255 255 255
-0.199 0.313 2.017 255 255 255
1.044 -0.814 2.098 255 255 255
0.346 0.097 2.081 255 255 255
-0.148 0.344 2.035 255 255 255
0.405 -1.056 1.919 255 255 255
0.392 -0.785 1.956 255 255 255
1.155 -1.081 2.079 255 255 255
-0.004 -0.851 1.881 255 255 255
0.291 0.312 1.064 255 255 255
-0.625 0.709 2.674 255 255 255
1.075 -0.401 2.16 255 255 255
-0.342 0.875 1.641 255 255 255
0.36 0.148 1.133 255 255 255
-1.069 0.219 1.75 255 255 255
0.207 -1.288 1.846 255 255 255
0.158 0.656 2.145 255 255 255
0.216 0.396 1.23 255 255 255
0.599 -0.586 2.012 255 255 255
-1.068 0.005 1.766 255 255 255
0.059 -0.493 1.947 255 255 255
-0.476 0.84 1.852 0 0 0
1.023 -0.425 2.15 255 255 255
-0.975 -0.219 1.284 255 255 255
0.511 -1.261 1.901 255 255 255
-0.137 -0.167 1.958 255 255 255
0.386 0.392 1.068 255 255 255
0.369 0.033 1.22 255 255 255
-1.051 0.005 1.661 255 255 255
0.27 0.874 1.682 255 255 255
0.448 0.358 1.046 255 255 255
0.791 -0.51 2.104 255 255 255
-0.509 0.029 1.231 255 255 255
-0.075 0.338 2.05 255 255 255
0.082 -1.21 1.841 255 255 255
1.453 -0.7 2.177 255 255 255
1.524 -0.717 2.193 255 255 255
-1.058 -0.379 1.659 255 255 255
-0.969 -0.642 1.761 255 255 255
0.129 -1.253 1.839 255 255 255
0.251 0.365 1.213 255 255 255
-0.476 -0.838 1.106 255 255 255
-0.198 0.828 2.042 255 255 255
0.107 0.287 2.072 255 255 255
-0.035 0.83 2.077 255 255 255
0.756 -0.579 2.089 255 255 255
0.395 0.332 2.123 255 255 255
0.247 -0.786 1.928 255 255 255
0.706 -1.357 1.913 255 255 255
0.99 -0.748 2.099 255 255 255
0.419 0.101 1.154 0 0 0
0.274 -0.024 2.05 255 255 255
0.047 -0.043 2.013 255 255 255
0.313 -0.645 1.962 255 255 255
0.74 -1.335 1.924 255 255 255
0.504 -0.822 1.964 255 255 255
0.704 -0.463 2.094 255 255 255
0.286 0.271 2.098 255 255 255
1.696 0.029 2.375 255 255 255
-0.149 -1.324 1.768 0 0 0
-0.564 0.682 2.715 255 255 255
-0.138 -0.109 1.97 255 255 255
1.393 -0.209 2.248 255 255 255
0.297 -1.109 1.891 255 255 255
-0.192 -0.066 1.959 255 255 255
0.035 -0.388 1.954 255 255 255
-0.083 -1.275 1.802 255 255 255
0.253 -0.297 2.002 255 255 255
-0.188 0.491 2.048 255 255 255
0.383 0.559 0.976 255 255 255
0.495 0.301 1.095 255 255 255
0.043 -0.499 1.939 255 255 255
0.529 -1.101 1.927 255 255 255
-1.008 -0.284 1.805 255 255 255
0.441 -1.272 1.886 255 255 255
0.168 -0.203 2.005 255 255 255
0.51 0.23 1.2 255 255 255
0.529 -0.02 2.09 255 255 255
0.22 -0.565 1.958 255 255 255
0.933 -0.55 2.117 255 255 255
-1.026 0.403 1.906 255 255 255
0.495 -1.237 1.901 255 255 255
0.204 -0.946 1.898 255 255 255
-1 0.193 1.879 255 255 255
-0.154 0.024 1.972 255 255 255
-0.029 0.093 2.02 255 255 255
0.286 0.258 2.096 255 255 255
0.442 0.323 1.089 255 255 255
0.542 0.255 1.048 255 255 255
0.774 -0.626 2.088 255 255 255
-0.198 0.565 2.063 255 255 255
1.223 0.104 2.263 255 255 255
1.184 -0.548 2.157 255 255 255
0.28 -1.12 1.885 255 255 255
1.29 -0.934 2.115 255 255 255
0.935 -1.407 1.946 0 0 0
0.576 -0.529 2.019 255 255 255
0.241 -1.1 1.881 255 255 255
-0.499 -0.167 1.207 255 255 255
-0.051 -0.598 1.908 255 255 255
-1.054 -0.501 1.647 255 255 255
0.392 -0.098 2.055 255 255 255
-0.126 -0.784 1.868 255 255 255
0.273 0.299 1.148 255 255 255
-0.559 0.794 2.125 255 255 255
1.469 -0.328 2.238 255 255 255
1.26 -1.071 2.096 255 255 255
1.261 -0.247 2.217 255 255 255
-0.024 -0.5 1.927 255 255 255
0.345 0.865 1.798 255 255 255
0.117 -0.986 1.879 255 255 255
0.87 -1.243 1.966 255 255 255
-0.204 -1.075 1.841 255 255 255
-0.132 0.06 1.997 255 255 255
0.839 -1.137 2.017 255 255 255
1.07 -0.536 2.142 255 255 255
-0.99 -0.012 1.391 255 255 255
0.156 0.42 2.1 255 255 255
1.323 -0.172 2.237 255 255 255
1.339 -0.123 2.255 255 255 255
-0.851 -2.053 2.697 255 255 255
1.376 0.031 2.277 255 255 255
0.134 -0.491 1.954 0 0 0
0.494 -0.489 2.013 255 255 255
0.278 0.331 1.083 255 255 255
0.966 -0.036 2.203 255 255 255
0.349 0.039 1.269 255 255 255
-0.082 -1.187 1.814 255 255 255
0.327 0.091 1.198 255 255 255
0.308 0.483 2.136 255 255 255
1.029 -0.444 2.149 255 255 255
1.579 -0.579 2.251 255 255 255
0.888 0.131 2.212 255 255 255
0.234 -1.153 1.875 255 255 255
0.404 0.306 1.06 255 255 255
0.649 0.173 1.154 255 255 255
0.347 0.039 1.273 255 255 255
-0.639 0.755 2.398 255 255 255
0.11 -1.076 1.865 255 255 255
0.311 0.442 2.13 255 255 255
0.424 -0.078 2.064 255 255 255
1.294 -0.048 2.253 255 255 255
0.897 -0.072 2.185 255 255 255
0.127 -0.214 1.995 255 255 255
0.417 -1.023 1.923 255 255 255
-0.518 0.266 1.263 255 255 255
0.269 -1.33 1.852 255 255 255
0.353 -1.318 1.867 255 255 255
1.264 -0.305 2.207 255 255 255
-0.197 0.044 1.976 255 255 255
0.155 -0.457 1.964 0 0 0
0.984 -0.422 2.145 255 255 255
-1.016 0.394 1.907 255 255 255
0.472 -0.133 2.065 255 255 255
-0.216 0.282 2.028 255 255 255
-0.075 -0.702 1.891 255 255 255
-0.5 0.286 1.284 255 255 255
-1.064 -0.214 1.719 255 255 255
0.481 0.28 1.137 255 255 255
0.346 -0.293 2.021 255 255 255
-0.476 -0.855 1.105 255 255 255
0.733 -1.258 1.932 255 255 255
0.831 -0.976 2.037 255 255 255
1.451 0.078 2.295 255 255 255
-0.998 0.093 1.437 255 255 255
0.872 -0.812 2.071 255 255 255
1.115 -0.372 2.178 255 255 255
-0.225 0.657 2.097 255 255 255
0.534 0.312 1.045 255 255 255
0.353 0.276 1.066 255 255 255
0.917 -0.865 2.068 255 255 255
0.315 0.871 1.731 255 255 255
0.951 -1.105 2.041 255 255 255
0.098 -0.584 1.931 255 255 255
0.164 -0.203 2.005 255 255 255
0.315 -1.275 1.866 255 255 255
0.044 0.815 2.126 255 255 255
0.395 0.231 1.088 255 255 255
0.767 0.015 2.184 255 255 255
-1.065 0.413 1.903 255 255 255
0.869 -0.458 2.122 255 255 255
0.777 -0.377 2.123 255 255 255
0.545 -0.624 2.002 255 255 255
0.207 0.663 2.15 255 255 255
0.884 -1.196 1.98 255 255 255
0.726 -0.272 2.126 255 255 255
1.449 -0.09 2.272 255 255 255
0.389 -0.421 2.009 255 255 255
0.983 -0.055 2.205 255 255 255
0.666 -0.631 2.063 255 255 255
0.476 0.187 1.199 255 255 255
1.053 -0.981 2.071 255 255 255
-1.064 -0.063 1.808 255 255 255
0.15 -1.204 1.853 255 255 255
-0.16 0.184 1.997 255 255 255
-0.981 0.007 1.321 255 255 255
0.103 0.27 2.068 255 255 255
0.938 -0.956 2.057 255 255 255
0.245 0.476 1.255 255 255 255
1 -0.961 2.065 255 255 255
0.583 -0.842 1.975 255 255 255
-0.265 0.86 1.758 255 255 255
1.15 -0.18 2.209 255 255 255
0.348 0.022 2.069 255 255 255
0.282 0.539 1.33 255 255 255
0.258 0.333 1.165 255 255 255
0.379 0.141 1.132 255 255 255
0.893 -1.358 1.938 255 255 255
0.548 -1.201 1.912 255 255 255
0.701 -0.913 2.028 255 255 255
0.715 -0.565 2.08 255 255 255
0.28 0.312 1.075 255 255 255
0.89 -0.972 2.048 255 255 255
-1.072 0.314 1.804 255 255 255
1.005 0.177 2.238 255 255 255
-0.016 -0.196 1.976 255 255 255
0.693 -0.008 2.164 255 255 255
0.213 0.075 2.058 255 255 255
0.587 -0.697 1.995 255 255 255
0.015 -0.318 1.963 255 255 255
0.624 -0.099 2.122 255 255 255
0.666 -0.152 2.136 255 255 255
0.099 0.585 2.123 255 255 255
-0.021 -0.974 1.858 255 255 255
0.272 0.529 1.329 255 255 255
0.363 0.227 1.088 255 255 255
0.706 -0.596 2.077 255 255 255
-0.04 -0.798 1.882 255 255 255
-0.556 -2.102 2.964 255 255 255
0.061 -1.136 1.848 255 255 255
0.094 0.206 2.057 255 255 255
0.245 0.309 1.23 0 0 0
0.281 0.329 1.077 255 255 255
0.776 -0.213 2.149 255 255 255
-1.025 -0.153 1.545 255 255 255
0.148 -0.782 1.915 0 0 0
-0.008 0.869 1.728 255 255 255
0.382 -1.359 1.864 0 0 0
0.992 -0.152 2.186 255 255 255
0.824 -0.818 2.061 255 255 255
-0.195 -1.268 1.802 255 255 255
0.381 0.218 1.093 255 255 255
-0.129 0.626 2.092 255 255 255
-0.371 0.597 2.351 255 255 255
1.596 0.179 2.381 255 255 255
1.263 -0.32 2.205 255 255 255
1.1 0.274 2.27 255 255 255
1.227 -1.011 2.096 255 255 255
0.38 -0.481 1.996 255 255 255
0.656 -0.425 2.093 0 0 0
0.128 -0.858 1.893 0 0 0
0.441 -0.954 1.937 255 255 255
0.049 0.367 2.075 255 255 255
-0.036 0.797 2.117 255 255 255
0.079 0.766 2.135 255 255 255
-0.986 -0.015 1.858 255 255 255
0.9 -1.395 1.939 0 0 0
0.389 0.218 1.093 255 255 255
-0.498 0.816 2.014 255 255 255
0.671 -0.334 2.107 255 255 255
0.35 0.154 1.127 255 255 255
0.036 -0.987 1.865 255 255 255
0.122 0.428 2.099 255 255 255
0.259 -0.768 1.928 0 0 0
-0.997 -0.229 1.817 255 255 255
0.227 -0.044 2.039 255 255 255
-0.208 0.331 2.025 255 255 255
0.286 0.84 2.03 255 255 255
1.223 -0.548 2.166 255 255 255
-0.076 -1.345 1.791 0 0 0
-0.222 0.593 2.083 255 255 255
0.253 -0.461 1.977 255 255 255
-1.015 -0.3 1.8 255 255 255
0.292 -0.226 2.02 255 255 255
0.74 -0.351 2.115 255 255 255
-0.008 -0.885 1.875 255 255 255
-0.499 -0.419 1.166 255 255 255
-0.158 0.263 2.011 255 255 255
-0.843 0.722 2.618 255 255 255
-0.928 -0.051 1.855 255 255 255
-0.186 -0.35 1.915 255 255 255
0.53 -1.279 1.9 255 255 255
-0.185 0.403 2.032 255 255 255
-0.319 0.843 1.89 0 0 0
0.121 0.866 1.773 255 255 255
1.104 -0.08 2.221 255 255 255
0.472 -0.087 2.07 255 255 255
-0.503 0.016 1.231 255 255 255
0.6 -1.323 1.902 255 255 255
1.14 0.078 2.248 255 255 255
0.901 -1.314 1.951 255 255 255
0.504 0.022 2.093 255 255 255
-0.675 0.703 2.714 0 0 0
-0.093 0.119 0.238 255 255 255
-0.718 0.739 2.498 255 255 255
-0.144 -0.769 1.852 255 255 255
1.074 -0.07 2.215 255 255 255
0.241 0.597 2.144 255 255 255
0.328 -0.485 1.983 255 255 255
0.757 -0.936 2.033 255 255 255
0.266 0.398 1.24 255 255 255
0.297 0.392 1.08 255 255 255
-1.067 -2.097 2.865 0 0 0
0.989 -1.362 1.955 255 255 255
0.258 -0.544 1.971 255 255 255
0.129 -0.883 1.898 0 0 0
-0.675 0.767 2.279 255 255 255
0.764 -0.129 2.161 255 255 255
0.271 0.279 1.154 255 255 255
1.53 -0.128 2.284 255 255 255
1.44 0.171 2.306 255 255 255
-0.554 -0.843 1.163 0 0 0
-0.998 0.416 1.917 255 255 255
0.392 0.042 1.183 0 0 0
1.624 -0.56 2.27 255 255 255
-1.006 0.68 2.827 255 255 255
0.33 0.233 1.099 255 255 255
0.945 -0.606 2.11 255 255 255
-0.656 0.745 2.47 255 255 255
0.033 -1.223 1.829 255 255 255
0.26 0.251 1.199 0 0 0
1.005 -1.262 1.97 255 255 255
0.315 0.266 1.082 255 255 255
0.163 -0.707 1.924 0 0 0
-1.07 0.181 1.763 255 255 255
0.299 0.524 1.07 255 255 255
1.24 -0.966 2.102 255 255 255
1.191 -0.772 2.125 255 255 255
0.581 0.202 1.117 255 255 255
-0.858 0.745 2.43 255 255 255
0.922 0.047 2.21 255 255 255
0.481 -1.055 1.925 255 255 255
0.739 -1.238 1.944 255 255 255
0.065 0.741 2.132 255 255 255
-0.929 -0.851 1.745 255 255 255
-0.033 -1.113 1.836 255 255 255
0.507 -0.423 2.024 255 255 255
0.015 -0.051 2.003 255 255 255
-0.062 -1.261 1.806 255 255 255
0.309 -0.932 1.918 255 255 255
0.54 -0.931 1.956 255 255 255
1.15 -0.91 2.099 255 255 255
-0.461 0.803 2.098 255 255 255
-0.071 0.796 2.113 255 255 255
-0.092 0.105 2.009 255 255 255
-0.219 0.827 2.039 255 255 255
-0.343 0.674 2.663 0 0 0
0.631 0.005 2.146 255 255 255
-0.459 0.826 1.951 255 255 255
-0.676 0.79 2.135 255 255 255
-0.5 -0.786 1.105 255 255 255
-0.586 -0.167 1.293 255 255 255
0.481 -0.811 1.963 255 255 255
0.229 -0.696 1.938 0 0 0
0.523 -1.377 1.885 0 0 0
0.795 -1.267 1.94 255 255 255
0.031 0.883 1.625 255 255 255
0.323 0.387 1.077 255 255 255
0.091 -1.206 1.843 255 255 255
0.323 0.535 2.143 255 255 255
0.729 -0.997 2.018 255 255 255
0.298 0.874 1.696 255 255 255
0.223 0.438 1.215 255 255 255
0.494 0.267 1.144 255 255 255
-0.509 -0.475 1.148 255 255 255
-0.025 -1.105 1.839 255 255 255
0.96 -0.978 2.053 255 255 255
0.266 -0.65 1.954 255 255 255
0.308 -0.011 2.055 255 255 255
0.694 -0.536 2.081 255 255 255
-0.115 0.098 0.244 255 255 255
0.357 -0.805 1.943 0 0 0
0.426 0.236 1.13 255 255 255
0.254 0.293 1.166 255 255 255
-0.499 0.135 1.26 255 255 255
0.024 0.315 2.066 255 255 255
0.043 -0.26 1.975 255 255 255
1.122 -1.164 2.052 255 255 255
-0.153 0.395 2.039 255 255 255
0.449 0.362 1.042 255 255 255
0.193 0.395 1.264 255 255 255
-0.159 -0.439 1.904 255 255 255
-1.053 -0.679 1.738 255 255 255
0.17 -0.834 1.92 255 255 255
0.448 -0.161 2.056 255 255 255
1.41 -0.25 2.243 255 255 255
1.498 -0.127 2.276 255 255 255
-0.489 -0.77 1.115 255 255 255
-0.733 -2.082 2.833 255 255 255
-0.009 0.491 2.087 255 255 255
0.999 -0.887 2.074 255 255 255
-0.186 0.45 2.038 255 255 255
0.812 -0.053 2.174 255 255 255
0.416 -0.242 2.039 255 255 255
0.917 -0.856 2.071 255 255 255
0.446 -0.387 2.023 255 255 255
-0.184 0.5 2.049 255 255 255
1.162 0.108 2.257 255 255 255
0.598 -1.241 1.914 255 255 255
-0.348 0.855 1.794 255 255 255
1.025 -0.402 2.156 255 255 255
1.211 -0.047 2.241 255 255 255
0.49 -1.048 1.93 255 255 255
0.003 0.021 2.013 255 255 255
-0.209 0.875 1.624 255 255 255
-0.971 -0.359 1.807 255 255 255
0.486 0.838 1.977 255 255 255
-0.986 0.354 1.912 255 255 255
0.369 0.303 1.051 255 255 255
-0.997 -0.381 1.379 255 255 255
-0.084 0.037 1.999 255 255 255
-0.612 0.537 1.414 255 255 255
1.123 -0.565 2.144 255 255 255
1.658 -0.09 2.351 255 255 255
0.257 -0.309 2.001 255 255 255
0.18 0.862 1.885 0 0 0
0.128 -0.135 2.009 255 255 255
0.326 0.164 2.088 255 255 255
1.287 -0.535 2.177 255 255 255
0.418 -0.933 1.938 255 255 255
-0.518 0.216 1.256 255 255 255
0.53 -0.329 2.041 255 255 255
0.064 0.545 2.109 255 255 255
0.4 0.009 2.076 255 255 255
0.598 -0.429 2.036 255 255 255
0.704 -0.441 2.097 255 255 255
0.406 0.435 0.999 255 255 255
0.292 -0.198 2.024 255 255 255
-0.196 0.18 1.995 255 255 255
-0.556 -0.85 1.167 0 0 0
-0.152 -0.717 1.86 255 255 255
0.96 -1.291 1.964 255 255 255
0.218 -0.124 2.026 255 255 255
0.45 0.104 1.18 0 0 0
-0.054 0.852 1.949 255 255 255
0.436 0.365 1.033 255 255 255
-1.067 -0.078 1.796 255 255 255
0.573 0.232 1.024 255 255 255
-0.784 0.678 2.865 255 255 255
0.86 -0.476 2.122 255 255 255
-0.503 -0.817 1.098 0 0 0
0.258 -0.952 1.907 255 255 255
0.156 0.402 2.098 255 255 255
-0.59 0.741 2.507 255 255 255
0.768 -1.193 1.964 255 255 255
0.821 -1.516 1.909 255 255 255
-1.039 0.386 1.905 255 255 255
0.343 0.259 2.104 255 255 255
-0.596 -2.108 2.995 255 255 255
-0.314 0.853 1.804 255 255 255
0.293 -0.98 1.911 255 255 255
-0.208 0.145 1.999 255 255 255
0.26 0.882 1.633 255 255 255
-0.993 -0.223 1.384 255 255 255
0.396 0.253 1.081 255 255 255
-0.42 0.836 1.905 0 0 0
0.325 0.319 1.041 255 255 255
-0.123 -0.865 1.859 255 255 255
0.089 -1.001 1.872 255 255 255
0.384 -0.396 2.01 255 255 255
0.193 0.409 1.247 0 0 0
-0.165 0.024 1.968 255 255 255
0.047 -0.545 1.941 0 0 0
0.597 -0.219 2.07 255 255 255
-0.045 0.187 2.031 255 255 255
0.065 0.277 2.064 255 255 255
0.149 0.001 2.031 255 255 255
0.51 0.319 1.071 255 255 255
0.082 -0.446 1.955 255 255 255
0.445 -1.06 1.922 255 255 255
0.31 0.509 1.32 255 255 255
0.39 0.579 1.022 255 255 255
1.443 0.073 2.293 255 255 255
-0.578 0.764 2.335 255 255 255
1.397 -0.583 2.191 255 255 255
1.67 -0.575 2.272 255 255 255
0.498 0.397 1.039 255 255 255
-0.61 0.843 1.802 255 255 255
1.195 -1.077 2.08 255 255 255
-0.076 -0.043 1.99 255 255 255
1.262 -0.808 2.131 255 255 255
0.841 -0.972 2.038 255 255 255
-0.009 -1.256 1.815 255 255 255
0.286 0.872 1.719 255 255 255
0.108 0.343 2.081 255 255 255
0.141 0.284 2.077 255 255 255
0.803 -0.668 2.079 255 255 255
-0.022 0.588 2.105 255 255 255
-0.458 0.881 1.577 255 255 255
0.314 0.078 1.237 0 0 0
0.149 0.855 1.902 0 0 0
-1.058 0.287 1.888 255 255 255
-0.021 0.339 2.058 255 255 255
1.417 -0.818 2.154 255 255 255
0.42 0.068 2.088 255 255 255
0.458 0.432 0.995 255 255 255
0.742 -1.164 1.968 0 0 0
0.51 -0.702 1.986 255 255 255
1.202 -0.268 2.204 255 255 255
-0.51 -0.045 1.22 255 255 255
-0.001 0.627 2.112 255 255 255
0.288 0.252 1.129 255 255 255
0.363 0.197 1.101 255 255 255
0.557 -0.418 2.033 255 255 255
0.063 0.494 2.102 255 255 255
0.893 -1.295 1.951 255 255 255
0.892 -0.692 2.088 255 255 255
0.349 0.408 1.038 255 255 255
0.963 -1.224 1.987 255 255 255
-0.523 0.526 1.305 255 255 255
0.318 0.265 1.085 255 255 255
-0.598 0.713 2.651 255 255 255
0.18 0.663 2.151 255 255 255
0.272 0.857 1.876 255 255 255
0.099 -0.281 1.982 255 255 255
0.197 -0.104 2.024 255 255 255
-0.075 0.752 2.109 255 255 255
0.512 0.279 1.09 255 255 255
0.155 0.136 2.056 255 255 255
0.265 -0.462 1.978 255 255 255
-0.489 0.369 1.281 255 255 255
-0.506 -0.129 1.207 255 255 255
1.625 -0.417 2.291 255 255 255
0.412 -0.23 2.041 255 255 255
0.995 -0.519 2.132 255 255 255
0.019 -0.541 1.926 255 255 255
-0.051 -0.559 1.917 255 255 255
-0.074 -1.156 1.823 255 255 255
0.202 0.492 2.125 255 255 255
0.095 -0.131 2.003 255 255 255
0.369 0.874 1.712 255 255 255
0.814 0.042 2.191 255 255 255
0.919 -0.386 2.142 255 255 255
0.225 0.247 2.083 255 255 255
0.304 -0.875 1.928 0 0 0
0.025 0.506 2.096 255 255 255
0.26 -1.173 1.872 255 255 255
1.417 -0.505 2.205 255 255 255
-0.344 -2.067 2.776 0 0 0
-0.573 0.156 1.312 255 255 255
-0.392 0.861 1.71 255 255 255
0.486 0.333 1.075 255 255 255
0.88 -1.27 1.952 255 255 255
0.479 -1.026 1.929 255 255 255
0.602 -1.293 1.908 255 255 255
-0.349 0.856 1.777 255 255 255
0.223 0.867 1.759 255 255 255
0.087 0.316 2.072 255 255 255
0.109 -1.305 1.827 255 255 255
-0.513 -0.142 1.202 255 255 255
-0.001 0.555 2.098 255 255 255
-0.972 -0.138 1.837 0 0 0
0.065 0.147 2.043 255 255 255
0.452 0.308 1.125 255 255 255
-0.158 0.474 2.051 255 255 255
0.932 -1.261 1.96 255 255 255
-1.233 -2.058 2.987 255 255 255
0.957 -0.48 2.136 255 255 255
-0.071 -0.223 1.965 255 255 255
-1.057 -0.763 1.688 255 255 255
-0.472 0.815 2.017 255 255 255
0.024 0.13 2.035 255 255 255
0.43 -0.177 2.05 255 255 255
1.458 -0.06 2.276 255 255 255
-0.143 0.025 1.985 255 255 255
-0.125 -0.218 1.953 255 255 255
1.322 -0.938 2.129 255 255 255
0.673 -0.716 2.052 255 255 255
-0.979 -0.202 1.829 255 255 255
0.163 -0.445 1.966 255 255 255
0.551 0.244 1.057 255 255 255
-0.04 -0.196 1.974 255 255 255
-0.157 -0.023 1.961 255 255 255
-0.107 -0.794 1.871 255 255 255
0.27 0.464 1.302 255 255 255
-0.512 -0.078 1.211 255 255 255
-0.52 0.609 2.732 255 255 255
0.032 0.135 2.038 255 255 255
-0.982 -0.055 1.85 255 255 255
0.067 -0.378 1.964 255 255 255
0.233 -0.558 1.964 0 0 0
0.192 -0.654 1.945 255 255 255
0.287 0.292 1.078 255 255 255
0.834 -0.071 2.178 255 255 255
0.187 -1.159 1.864 255 255 255
-0.068 -0.881 1.866 255 255 255
-1.042 0.009 1.847 255 255 255
-0.037 -0.999 1.851 255 255 255
1.696 -0.107 2.353 255 255 255
0.293 -0.752 1.941 255 255 255
0.394 0.521 1.041 255 255 255
0.501 0.228 1.206 255 255 255
0.381 0.08 2.084 255 255 255
0.37 0.358 2.125 255 255 255
0.727 -0.851 2.04 255 255 255
0.079 -0.786 1.906 255 255 255
-0.164 -0.79 1.849 255 255 255
-0.481 0.849 1.799 255 255 255
-1.037 -0.497 1.776 255 255 255
0.077 0.872 1.707 255 255 255
-0.071 -0.207 1.966 255 255 255
-0.23 0.874 1.645 255 255 255
0.142 -0.55 1.941 255 255 255
0.285 0.241 2.095 255 255 255
-0.148 0.531 2.069 255 255 255
-0.21 0.239 2.015 255 255 255
0.533 0.26 1.073 0 0 0
-0.359 0.854 1.79 255 255 255
0.043 -0.023 2.012 255 255 255
-0.008 -0.422 1.943 255 255 255
1.083 0.359 2.287 255 255 255
-1.058 -0.452 1.671 255 255 255
-0.5 0.226 1.275 255 255 255
0.248 0.875 1.686 255 255 255
1.113 -0.137 2.215 255 255 255
0.231 0.364 1.229 255 255 255
0.686 -1.243 1.927 255 255 255
0.43 0.24 2.109 255 255 255
0.75 -0.208 2.143 255 255 255
0.187 -0.354 1.981 255 255 255
0.553 0.197 1.211 0 0 0
-0.531 -0.783 1.136 255 255 255
0.511 -0.716 1.987 255 255 255
0.481 -0.24 2.045 255 255 255
0.712 -0.232 2.128 255 255 255
1.39 -0.367 2.219 255 255 255
-0.185 0.213 2.001 255 255 255
0.11 0.148 2.051 255 255 255
0.024 0.196 2.043 255 255 255
-0.504 -0.648 1.123 255 255 255
-0.072 -0.918 1.858 255 255 255
0.428 -0.823 1.955 255 255 255
0.817 -0.624 2.088 255 255 255
0.505 -1.395 1.879 0 0 0
1.623 0.088 2.372 255 255 255
0.203 0.387 2.104 255 255 255
0.172 -1.065 1.877 255 255 255
-0.145 0.573 2.077 255 255 255
0.352 -0.179 2.038 255 255 255
0.22 0.005 2.048 255 255 255
0.255 -1.01 1.897 255 255 255
-0.139 0.025 1.987 255 255 255
0.356 0.879 1.68 255 255 255
-0.137 -0.187 1.957 255 255 255
-1.019 -0.588 1.76 255 255 255
0.541 -0.705 1.987 255 255 255
0.012 -0.907 1.874 255 255 255
1.166 -0.565 2.153 255 255 255
0.366 -1.104 1.901 255 255 255
-0.094 0.124 0.236 255 255 255
0.178 0.815 2.147 255 255 255
-0.957 -0.874 1.737 255 255 255
0.367 -0.522 1.991 0 0 0
-0.028 -0.321 1.957 255 255 255
0.076 0.842 2.036 255 255 255
0.47 -0.024 2.079 255 255 255
1.471 -0.626 2.19 255 255 255
0.523 -1.055 1.937 255 255 255
-0.502 -0.132 1.211 255 255 255
0.225 0.243 2.081 255 255 255
1.528 0.006 2.304 255 255 255
-0.994 0.251 1.891 255 255 255
0.402 0.235 1.092 255 255 255
-1.044 -0.36 1.603 255 255 255
1.074 -0.857 2.094 255 255 255
-0.516 0.685 2.734 255 255 255
0.101 0.718 2.133 255 255 255
-0.144 0.541 2.073 255 255 255
-0.186 0.279 2.013 255 255 255
-0.71 0.716 2.665 255 255 255
0.112 -0.835 1.904 0 0 0
-0.098 -0.311 1.946 255 255 255
0.82 -0.96 2.039 255 255 255
0.789 -0.222 2.145 255 255 255
0.319 0.368 1.077 255 255 255
-0.03 0.436 2.077 255 255 255
0.514 0.289 1.079 255 255 255
-0.699 0.722 2.623 255 255 255
-0.071 0.847 1.969 255 255 255
0.272 0.675 2.092 255 255 255
-0.511 0.006 1.229 255 255 255
0.164 0.165 2.062 255 255 255
-0.164 0.364 2.026 255 255 255
-0.938 -2.052 2.665 255 255 255
0.423 -1.058 1.921 255 255 255
0.012 0.301 2.058 255 255 255
-0.022 0.739 2.114 255 255 255
0.365 0.549 1.05 255 255 255
0.602 -1.083 1.937 255 255 255
0.391 0.538 0.994 255 255 255
0.879 -1.498 1.922 255 255 255
1.433 -0.627 2.19 255 255 255
0.649 -1.223 1.938 255 255 255
1.103 -1.016 2.073 255 255 255
0.976 -0.275 2.167 255 255 255
1.439 0.255 2.32 255 255 255
0.485 -0.298 2.038 255 255 255
0.172 -0.771 1.919 255 255 255
-0.171 0.12 1.985 255 255 255
0.346 -0.236 2.026 255 255 255
-0.198 -0.294 1.931 255 255 255
0.416 0.047 1.185 0 0 0
0.407 0.096 1.149 255 255 255
1.18 -0.743 2.134 255 255 255
-0.966 0.565 1.947 255 255 255
-0.216 0.065 2 255 255 255
1.274 -0.607 2.164 255 255 255
1.418 -0.51 2.206 255 255 255
1.281 -1.033 2.103 255 255 255
0.858 -0.744 2.078 255 255 255
1.59 -0.105 2.334 255 255 255
-0.109 0.866 1.738 255 255 255
0.032 0.098 2.03 255 255 255
0.38 0.116 1.144 255 255 255
-0.129 -1.105 1.811 255 255 255
0.495 -0.237 2.05 255 255 255
0.126 -0.506 1.949 255 255 255
0.39 0.2 2.104 255 255 255
0.501 0.255 1.156 255 255 255
0.437 0.855 1.882 255 255 255
-0.499 0.074 1.249 255 255 255
0.641 -1.176 1.944 255 255 255
-1.014 0.606 1.936 255 255 255
-1.072 0.411 1.888 255 255 255
0.922 -0.213 2.165 255 255 255
0.37 0.018 2.071 255 255 255
-0.004 0.879 1.624 255 255 255
0.555 0.236 1.066 255 255 255
-0.105 -1.044 1.834 255 255 255
1.329 -0.338 2.213 255 255 255
0.443 -0.86 1.952 255 255 255
-0.293 0.836 1.974 255 255 255
-0.286 0.879 1.609 255 255 255
0.694 -0.444 2.094 255 255 255
-0.048 0.653 2.107 255 255 255
0.104 0.041 2.029 255 255 255
-0.517 -0.166 1.195 255 255 255
0.876 -1.438 1.927 0 0 0
-0.506 -0.149 1.206 255 255 255
0.521 -1.43 1.875 0 0 0
-0.997 -0.704 1.744 255 255 255
-0.114 -0.241 1.951 255 255 255
1.012 -1.256 1.978 255 255 255
0.479 -0.708 1.98 255 255 255
-0.045 0.208 2.034 255 255 255
0.508 0.267 1.113 255 255 255
-0.19 -0.537 1.892 255 255 255
-1.048 -0.534 1.607 255 255 255
0.499 -0.303 2.039 255 255 255
0.31 0.317 1.046 255 255 255
0.682 0.184 1.124 255 255 255
0.547 -1.158 1.922 255 255 255
0.241 -1.263 1.855 255 255 255
0.404 -0.193 2.045 255 255 255
-0.174 -0.396 1.91 255 255 255
0.413 -0.727 1.967 255 255 255
-0.435 -2.065 2.777 255 255 255
0.878 -0.58 2.101 255 255 255
-0.06 0.029 2.002 255 255 255
-0.983 0.613 1.954 255 255 255
-0.067 0.469 2.069 255 255 255
-0.129 -0.43 1.92 255 255 255
-0.626 0.823 1.924 255 255 255
0.633 -0.216 2.116 255 255 255
1.048 -0.302 2.171 255 255 255
-0.096 -1.299 1.796 0 0 0
0.771 -1.051 2.023 255 255 255
1.513 -0.214 2.264 255 255 255
0.31 -1.102 1.895 255 255 255
-0.509 0.372 1.286 255 255 255
1.041 -0.412 2.155 255 255 255
0.744 -0.89 2.036 255 255 255
-0.433 0.804 2.093 255 255 255
-1.057 0.232 1.882 255 255 255
0.036 0.164 2.043 255 255 255
0.976 -0.008 2.213 255 255 255
0.695 -0.162 2.138 255 255 255
0.36 0.077 1.162 0 0 0
0.027 -0.479 1.94 255 255 255
-0.859 0.752 2.397 0 0 0
-0.135 0.847 1.926 0 0 0
0.301 -1.221 1.876 255 255 255
0.479 0.208 1.203 255 255 255
0.107 -0.194 1.995 255 255 255
0.843 -1.277 1.945 255 255 255
0.1 -0.071 2.014 255 255 255
-0.967 -0.961 1.709 255 255 255
-0.071 -0.767 1.882 255 255 255
1.41 -0.534 2.199 255 255 255
0.292 0.233 1.118 255 255 255
0.731 -1.11 2.001 255 255 255
-0.914 -0.023 1.828 255 255 255
-0.165 -1.318 1.773 0 0 0
0.408 0.218 2.108 255 255 255
0.21 -1.082 1.878 255 255 255
0.858 -0.83 2.07 255 255 255
0.329 -1.375 1.853 0 0 0
-0.644 0.784 2.196 255 255 255
0.823 -0.46 2.117 255 255 255
0.159 -0.585 1.946 255 255 255
-0.144 0.108 1.997 255 255 255
-0.246 0.774 2.149 0 0 0
-0.963 -0.322 1.832 255 255 255
1.463 -0.156 2.261 255 255 255
-0.009 0.455 2.083 255 255 255
1.109 0.054 2.242 255 255 255
-0.499 0.712 2.383 255 255 255
1.066 0.174 2.252 255 255 255
0.342 0.104 1.151 255 255 255
0.434 0.263 1.128 255 255 255
-0.067 -0.3 1.951 255 255 255
0.455 -0.276 2.038 255 255 255
1.425 -0.34 2.229 255 255 255
0.331 0.847 1.951 255 255 255
0.598 -0.879 1.97 255 255 255
-0.147 0.663 2.093 255 255 255
0.327 -1.134 1.886 255 255 255
-0.169 0.441 2.036 255 255 255
0.549 -0.096 2.079 255 255 255
-0.119 -0.003 1.989 255 255 255
0.561 -1.091 1.931 255 255 255
0.072 -0.952 1.878 255 255 255
0.733 -1.434 1.905 0 0 0
1.339 -0.847 2.141 255 255 255
0.291 -0.024 2.054 255 255 255
0.339 0.081 1.194 255 255 255
0.351 0.374 1.045 255 255 255
0.329 -0.553 1.981 255 255 255
-0.892 -0.93 1.678 255 255 255
0.874 -0.837 2.07 255 255 255
-0.976 -0.221 1.297 255 255 255
-0.492 -0.235 1.209 255 255 255
0.754 -0.735 2.062 255 255 255
0.46 0.296 1.134 255 255 255
0.379 -0.786 1.95 255 255 255
0.274 -1.332 1.855 255 255 255
0.293 0.445 1.089 255 255 255
0.291 0.516 1.309 255 255 255
1.282 -0.199 2.226 255 255 255
0.279 0.329 1.126 255 255 255
-0.273 0.854 1.821 255 255 255
0.541 -0.959 1.952 255 255 255
0.155 0.542 2.129 255 255 255
-1.003 -0.099 1.836 255 255 255
0.356 0.27 1.069 255 255 255
0.056 0.631 2.125 255 255 255
-0.004 0.863 1.806 255 255 255
1.14 -1.115 2.06 255 255 255
-0.413 0.874 1.645 255 255 255
-0.985 -0.162 1.349 255 255 255
-0.175 0.487 2.047 255 255 255
1.058 -0.577 2.132 255 255 255
-0.14 0.865 1.752 255 255 255
0.198 -0.04 2.033 255 255 255
0.424 -0.279 2.034 255 255 255
0.277 0.849 1.952 255 255 255
-0.202 -0.781 1.876 255 255 255
0.494 0.326 1.076 255 255 255
1.298 -0.381 2.207 255 255 255
0.299 0.492 1.08 255 255 255
0.633 -0.408 2.081 255 255 255
-0.055 -0.246 1.96 255 255 255
-0.028 -0.18 1.977 255 255 255
0.908 -1.064 2.037 255 255 255
0.05 0.443 2.108 255 255 255
-0.582 -0.822 1.208 255 255 255
0.522 -0.246 2.053 255 255 255
0.356 0.874 1.706 255 255 255
1.383 0.006 2.279 255 255 255
0.849 -1.378 1.935 255 255 255
0.436 0.11 1.171 0 0 0
0.631 -1.27 1.919 255 255 255
0.712 -0.258 2.126 255 255 255
-0.634 0.722 2.634 255 255 255
0.947 -0.415 2.144 255 255 255
0.137 -1.24 1.844 255 255 255
-0.299 0.823 2.023 255 255 255
-0.001 -1.206 1.828 255 255 255
0.393 -0.466 2.003 255 255 255
1.529 0.012 2.305 255 255 255
1.216 -0.335 2.192 255 255 255
0.43 0.045 1.194 0 0 0
0.972 -0.275 2.169 255 255 255
0.124 0.301 2.079 255 255 255
-0.122 0.73 2.099 255 255 255
0.863 -0.449 2.122 255 255 255
-0.042 -1.338 1.797 0 0 0
-0.036 -0.806 1.881 255 255 255
0.024 0.139 2.037 255 255 255
-0.625 0.728 2.594 255 255 255
0.238 0.878 1.66 255 255 255
-0.051 -0.32 1.952 255 255 255
0.424 0.418 0.995 255 255 255
0.67 -0.89 2.027 255 255 255
-0.059 -0.406 1.939 255 255 255
0.32 -1.014 1.907 255 255 255
0.429 0.395 1.061 255 255 255
0.434 0.077 2.091 255 255 255
-1.004 -0.075 1.838 255 255 255
0.264 0.327 1.16 255 255 255
0.298 0.196 1.137 255 255 255
1.213 -0.653 2.149 255 255 255
0.292 0.253 1.089 255 255 255
0.353 -0.809 1.941 0 0 0
-0.209 -0.121 1.974 0 0 0
-0.958 -0.468 1.802 255 255 255
-0.504 -0.455 1.156 255 255 255
-1.046 -0.594 1.598 255 255 255
0.291 -1.2 1.878 255 255 255
-0.097 0.191 2.025 255 255 255
1.456 0.037 2.293 255 255 255
-0.063 -0.362 1.943 255 255 255
0.356 -0.654 1.969 0 0 0
0.262 0.353 1.17 255 255 255
0.44 0.213 2.096 255 255 255
0.298 0.384 1.125 255 255 255
-0.992 -0.002 1.388 255 255 255
-0.234 0.74 2.121 0 0 0
0.217 -1.324 1.848 255 255 255
-0.036 -0.192 1.977 255 255 255
1.051 -0.853 2.092 255 255 255
-1.073 0.305 1.859 255 255 255
0.916 -1.239 1.967 255 255 255
0.979 -0.106 2.194 255 255 255
1.313 -0.053 2.254 255 255 255
0.417 0.353 2.118 255 255 255
0.239 0.68 2.155 255 255 255
0.361 0.711 1.275 255 255 255
-0.124 0.117 2.007 255 255 255
0.76 -0.23 2.143 255 255 255
0.363 -1.242 1.877 255 255 255
-0.969 -0.7 1.755 255 255 255
0.917 -0.88 2.066 255 255 255
0.284 -1.251 1.865 255 255 255
0.285 0.539 1.069 255 255 255
0.346 0.425 2.133 255 255 255
0.196 -1.021 1.885 255 255 255
1.442 0.119 2.3 255 255 255
0.166 0.062 2.045 255 255 255
-1.052 0.654 2.964 255 255 255
-0.506 -0.653 1.12 255 255 255
0.85 -1.469 1.925 0 0 0
-0.152 -1.056 1.811 255 255 255
0.309 0.068 1.271 0 0 0
-1.077 0.441 1.883 255 255 255
-1.064 -0.364 1.703 255 255 255
-1.061 -0.325 1.68 255 255 255
0.381 0.13 1.137 255 255 255
-0.984 -0.185 1.334 255 255 255
-0.623 0.402 1.42 255 255 255
0.028 0.302 2.064 255 255 255
0.934 -0.754 2.088 255 255 255
-0.034 0.864 1.736 255 255 255
0.219 0.876 1.658 255 255 255
0.622 -0.591 2.028 255 255 255
-0.812 -2.062 2.729 255 255 255
-1.054 -0.633 1.617 255 255 255
0.039 0.659 2.127 255 255 255
0.328 0.545 1.034 255 255 255
0.623 -0.456 2.057 255 255 255
0.007 0.017 2.01 255 255 255
0.553 -0.914 1.959 255 255 255
0.776 -0.798 2.057 255 255 255
-0.503 0.492 1.318 255 255 255
0.26 0.255 1.222 0 0 0
0.918 -0.177 2.171 255 255 255
1.317 -0.847 2.134 255 255 255
0.533 0.248 1.087 0 0 0
0.485 0.274 1.141 255 255 255
-0.976 0.296 1.917 255 255 255
-0.507 0.129 1.25 255 255 255
0.622 -1.302 1.908 255 255 255
0.425 -0.041 2.071 255 255 255
0.639 -1.261 1.92 255 255 255
-1.007 0.024 1.464 255 255 255
-0.596 0.535 1.401 255 255 255
0.509 0.25 1.155 255 255 255
0.323 0.418 1.078 255 255 255
0.714 -1.063 2.007 255 255 255
-0.507 0.348 1.284 255 255 255
0.655 -1.113 1.984 0 0 0
0.253 0.159 2.075 255 255 255
0.153 -0.804 1.915 255 255 255
0.419 -0.571 1.99 255 255 255
-0.524 -0.022 1.219 255 255 255
-0.136 0.532 2.076 255 255 255
-0.913 0.709 2.691 255 255 255
-1.006 -0.407 1.786 255 255 255
-0.156 0.84 1.994 255 255 255
-0.498 -0.319 1.184 255 255 255
0.483 -1.112 1.917 255 255 255
0.312 0.522 1.062 255 255 255
-0.143 0.874 1.642 255 255 255
0.933 -0.849 2.075 255 255 255
-0.721 -2.067 2.777 255 255 255
0.231 -1.22 1.864 255 255 255
0.196 0.436 2.111 255 255 255
-0.071 -0.331 1.947 255 255 255
-0.592 0.675 2.884 255 255 255
0.11 -0.55 1.942 255 255 255
0.264 0.869 1.724 255 255 255
-0.212 -0.25 1.956 255 255 255
-0.417 0.746 2.367 255 255 255
0.391 -0.716 1.965 255 255 255
1.327 0.086 2.278 255 255 255
0.314 0.466 1.078 255 255 255
0.156 0.407 2.099 255 255 255
0.327 -0.739 1.95 255 255 255
-1.005 -0.367 1.79 255 255 255
0.181 -0.768 1.922 255 255 255
-0.999 -0.139 1.423 255 255 255
-0.603 0.435 1.391 255 255 255
0.067 0.88 1.625 255 255 255
0.24 0.869 1.744 255 255 255
1.204 -0.344 2.191 255 255 255
0.095 0.608 2.126 255 255 255
-1.013 -0.257 1.808 255 255 255
-0.736 0.752 2.423 255 255 255
0.269 0.232 1.177 0 0 0
-0.02 -0.773 1.887 255 255 255
-0.543 0.855 1.753 255 255 255
-0.057 -1.101 1.832 255 255 255
-1.064 -0.342 1.738 255 255 255
0.275 0.193 2.085 255 255 255
-0.049 -1.004 1.851 255 255 255
0.527 -0.267 2.053 255 255 255
-0.992 -0.018 1.37 255 255 255
0.29 -1.298 1.861 255 255 255
0.35 -0.325 2.016 255 255 255
0.384 0.318 1.041 255 255 255
0.028 -1.199 1.833 255 255 255
1.232 -0.371 2.196 255 255 255
-0.588 -0.465 1.255 255 255 255
-0.193 0.246 2.005 255 255 255
0.283 0.26 1.155 255 255 255
0.477 -0.481 2.016 255 255 255
-0.579 -0.796 1.209 255 255 255
0.35 0.087 1.17 255 255 255
-1.005 -0.24 1.43 255 255 255
-0.371 0.857 1.767 255 255 255
0.963 -0.179 2.179 255 255 255
0.748 -0.101 2.158 255 255 255
-0.949 -0.767 1.753 255 255 255
1.095 -0.685 2.121 255 255 255
-0.279 0.829 2.003 255 255 255
-0.925 -0.481 1.799 255 255 255
-0.953 -0.146 1.837 255 255 255
0.341 0.455 1.039 255 255 255
0.08 0.078 2.036 255 255 255
0.547 0.28 1.027 255 255 255
-0.603 0.663 2.94 255 255 255
0.003 -0.181 1.986 255 255 255
-0.974 -0.182 1.281 255 255 255
0.476 -0.459 2.017 255 255 255
-0.028 -0.348 1.953 255 255 255
0.234 0.447 1.216 255 255 255
0.786 -0.169 2.152 255 255 255
0.293 0.168 1.187 0 0 0
0.33 0.413 1.07 255 255 255
0.916 0.108 2.218 255 255 255
0.107 -1.17 1.852 255 255 255
0.047 -0.334 1.965 255 255 255
0.387 0.31 1.046 255 255 255
-0.924 -0.846 1.746 255 255 255
-0.183 0.477 2.044 255 255 255
0.51 -1.323 1.892 255 255 255
0.099 -0.32 1.975 255 255 255
-1.014 -0.387 1.786 255 255 255
-1.062 -0.341 1.71 255 255 255
-0.357 0.796 2.159 255 255 255
-0.218 0.158 2.017 255 255 255
0.918 -1.521 1.916 255 255 255
-0.467 0.762 2.363 255 255 255
-0.068 -0.868 1.867 255 255 255
-1.062 0.204 1.716 255 255 255
-0.202 0.088 1.984 255 255 255
0.295 0.142 2.077 255 255 255
-0.964 0.67 2.876 255 255 255
-1.065 0.131 1.85 255 255 255
1.297 -0.293 2.215 255 255 255
-0.013 -1.236 1.817 255 255 255
0.499 -0.108 2.073 255 255 255
-0.024 -0.795 1.885 255 255 255
-0.604 0.548 1.409 255 255 255
-0.116 0.355 2.048 255 255 255
0.11 0.438 2.105 255 255 255
-0.385 0.801 2.13 255 255 255
1.073 -1.224 2.006 255 255 255
0.183 0.778 2.152 255 255 255
-0.911 -0.889 1.744 255 255 255
-0.784 -2.097 2.91 255 255 255
-1.019 -0.368 1.79 255 255 255
-0.504 0.541 1.317 255 255 255
0.137 -0.003 2.029 255 255 255
-0.847 0.674 2.891 255 255 255
0.079 -0.541 1.94 255 255 255
0.167 0.672 2.149 255 255 255
1.257 -0.295 2.207 255 255 255
-0.997 0.114 1.869 255 255 255
0.513 0.237 1.18 255 255 255
0.164 -0.104 2.017 255 255 255
-1.072 0.312 1.787 255 255 255
0.688 -0.985 2.012 255 255 255
-1.048 -0.01 1.657 255 255 255
-0.19 -0.362 1.916 255 255 255
0.286 -1.026 1.905 255 255 255
-0.599 0.839 1.825 0 0 0
0.343 0.884 1.65 255 255 255
-0.527 0.254 1.258 255 255 255
-1.048 -0.151 1.827 255 255 255
0.284 0.488 1.309 255 255 255
0.294 0.091 1.277 0 0 0
-0.394 0.801 2.13 255 255 255
0.22 0.217 2.078 255 255 255
-0.181 0.674 2.082 255 255 255
-0.117 -0.369 1.934 255 255 255
-0.144 -1.082 1.805 255 255 255
0.114 -0.514 1.946 255 255 255
0.684 -0.998 2.008 255 255 255
0.576 -0.575 2.012 255 255 255
0.946 -0.351 2.151 255 255 255
-1.013 0.193 1.876 255 255 255
0.299 0.389 1.078 255 255 255
0.593 -0.87 1.971 255 255 255
0.131 0.859 1.87 0 0 0
0.387 0.211 1.097 255 255 255
-0.687 0.826 1.93 255 255 255
0.428 0.064 1.174 0 0 0
0.716 -0.293 2.121 255 255 255
-0.091 -0.05 1.985 255 255 255
0.039 -0.162 1.992 255 255 255
1.505 0.291 2.338 255 255 255
-0.999 -0.174 1.825 255 255 255
1.433 -0.346 2.23 255 255 255
0.34 0.273 1.068 255 255 255
0.271 0.315 1.151 255 255 255
0.848 -1.516 1.911 255 255 255
0.411 0.188 2.105 255 255 255
0.051 0.553 2.107 255 255 255
0.753 -0.124 2.158 255 255 255
-0.162 -0.416 1.907 255 255 255
-0.564 -0.007 1.25 255 255 255
0.154 0.054 2.042 255 255 255
0.339 0.374 1.055 255 255 255
0.42 0.205 2.106 255 255 255
0.056 -0.971 1.871 255 255 255
-0.577 0.735 2.525 255 255 255
-1.074 0.341 1.796 255 255 255
0.929 0.08 2.214 255 255 255
-0.02 -0.758 1.891 255 255 255
0.135 -0.27 1.987 255 255 255
0.369 -0.643 1.974 255 255 255
0.389 -0.585 1.981 255 255 255
0.379 0.444 2.092 255 255 255
0.202 -0.822 1.921 255 255 255
-0.485 0.62 2.867 255 255 255
-0.505 0.81 2.047 255 255 255
-0.135 -0.952 1.83 255 255 255
-0.996 -0.226 1.406 255 255 255
0.703 -0.729 2.055 255 255 255
1.157 -0.095 2.226 255 255 255
0.58 0.2 1.133 255 255 255
1.587 -0.152 2.328 255 255 255
0.863 -1.193 1.979 255 255 255
1.068 0.302 2.271 255 255 255
-0.088 0.761 2.109 255 255 255
-0.484 -2.078 2.85 0 0 0
0.672 -0.021 2.16 255 255 255
-0.462 0.636 2.946 255 255 255
0.68 -0.17 2.135 255 255 255
0.324 -0.316 2.011 255 255 255
-0.98 -0.097 1.323 255 255 255
-0.581 0.794 2.136 255 255 255
0.223 0.309 1.257 255 255 255
0.386 -1.257 1.879 255 255 255
-0.907 -2.059 2.645 255 255 255
0.272 -1.004 1.902 255 255 255
1.509 -0.695 2.195 255 255 255
0.317 0.165 1.128 255 255 255
-0.223 0.863 1.75 255 255 255
-1.013 -0.233 1.811 255 255 255
1.288 -0.682 2.152 255 255 255
0.516 -0.772 1.976 255 255 255
1.166 -1.15 2.066 255 255 255
0.048 -1.065 1.856 255 255 255
-0.088 0.424 2.06 255 255 255
0.544 0.248 1.059 255 255 255
0.177 -1.321 1.838 255 255 255
-0.11 0.274 2.035 255 255 255
0.324 0.479 1.337 255 255 255
-0.159 -0.246 1.931 255 255 255
0.494 -0.473 2.018 255 255 255
0.075 -0.712 1.918 0 0 0
-0.408 0.82 2.003 255 255 255
-0.471 0.854 1.755 255 255 255
-0.517 0.063 1.229 255 255 255
0.225 -0.181 2.016 255 255 255
0.416 -1.392 1.865 0 0 0
1.171 -0.584 2.147 255 255 255
0.534 -0.371 2.036 255 255 255
0.134 -1.286 1.839 255 255 255
-0.005 0.832 2.084 255 255 255
-0.044 0.049 2.009 255 255 255
1.135 -0.406 2.17 255 255 255
-0.291 0.831 1.997 255 255 255
0.351 -0.285 2.023 255 255 255
-0.064 -0.937 1.858 255 255 255
-0.99 -2.09 2.847 0 0 0
0.961 0.104 2.225 255 255 255
0.472 -0.931 1.946 255 255 255
1.298 0.323 2.331 255 255 255
-0.873 0.744 2.442 255 255 255
-0.513 0.236 1.264 255 255 255
0.418 -0.769 1.96 255 255 255
-0.948 -1.037 1.723 255 255 255
0.47 -0.17 2.054 255 255 255
1.06 -0.806 2.1 255 255 255
0.571 -0.604 2.005 255 255 255
0.404 0.481 1.09 255 255 255
-1.072 0.377 1.813 255 255 255
-1.049 -0.235 1.815 255 255 255
-1.066 0.096 1.802 255 255 255
1.361 -0.519 2.193 255 255 255
1.138 -0.922 2.093 255 255 255
0.266 0.23 1.183 0 0 0
-0.162 -1.193 1.788 255 255 255
-0.503 -0.639 1.124 255 255 255
1.317 -0.294 2.218 255 255 255
0.164 -0.183 2.006 255 255 255
0.846 -0.26 2.148 255 255 255
1.43 -0.21 2.247 255 255 255
1.211 -0.11 2.23 255 255 255
0.538 -1.336 1.89 255 255 255
-0.985 0.643 1.962 255 255 255
0.171 -0.337 1.98 255 255 255
-0.473 0.697 2.464 255 255 255
-0.133 -0.264 1.945 255 255 255
-0.028 -0.752 1.888 255 255 255
0.35 0.136 1.134 255 255 255
-0.169 0.835 2.005 255 255 255
0.213 0.364 1.25 255 255 255
0.154 0.827 2.115 255 255 255
-0.053 0.699 2.106 255 255 255
-0.975 -0.087 1.846 255 255 255
0.639 -0.6 2.056 255 255 255
-1.051 -0.1 1.835 255 255 255
-0.147 -1.251 1.78 255 255 255
-0.834 0.739 2.494 255 255 255
0.28 0.214 1.173 0 0 0
-0.998 0.066 1.432 255 255 255
0.704 0.171 1.136 255 255 255
0.323 0.878 1.666 255 255 255
1.247 -0.535 2.169 255 255 255
0.351 -0.879 1.932 0 0 0
1.173 -1.153 2.069 255 255 255
0.553 -0.523 2.017 255 255 255
0.094 -0.423 1.961 255 255 255
-0.04 -0.672 1.903 255 255 255
-0.496 -0.515 1.154 255 255 255
-0.218 -0.114 1.983 0 0 0
-0.675 0.747 2.457 255 255 255
0.016 0.037 2.019 255 255 255
1.259 -0.959 2.106 255 255 255
0.293 -1.132 1.887 255 255 255
1.083 -0.781 2.108 255 255 255
0.399 0.494 0.955 255 255 255
0.409 -1.032 1.922 255 255 255
0.008 0.397 2.072 255 255 255
1.001 -0.198 2.182 255 255 255
0.394 0.072 2.086 255 255 255
-0.177 -0.003 1.967 255 255 255
0.139 -0.218 1.997 255 255 255
-0.11 -1.173 1.808 255 255 255
0.38 0.594 1.094 255 255 255
-1.039 -0.68 1.748 255 255 255
-0.399 -2.09 2.925 255 255 255
0.505 0.391 1.032 255 255 255
0.748 -1.319 1.925 255 255 255
-0.166 -0.528 1.89 255 255 255
0.651 0.179 1.141 255 255 255
0.655 -0.909 2.017 0 0 0
0.104 -1.254 1.833 255 255 255
-0.127 -0.031 1.982 255 255 255
0.532 0.245 1.097 0 0 0
-0.152 -0.669 1.868 255 255 255
0.208 -0.515 1.963 0 0 0
-1.047 -0.546 1.611 255 255 255
-1.002 -0.091 1.443 255 255 255
-0.075 -0.428 1.933 255 255 255
-1.051 -0.115 1.667 255 255 255
0.283 -1.333 1.855 255 255 255
-0.493 -0.143 1.222 255 255 255
1.453 -0.227 2.251 255 255 255
0.869 -1.516 1.914 255 255 255
0.392 0.278 1.065 255 255 255
0.354 0.472 1.029 255 255 255
0.485 -0.431 2.021 255 255 255
1.347 -0.942 2.129 255 255 255
0.129 -0.9 1.894 0 0 0
1.436 -0.221 2.246 255 255 255
1.069 -0.823 2.102 255 255 255
1.419 -0.581 2.197 255 255 255
0.426 0.054 1.183 0 0 0
0.786 -0.728 2.075 255 255 255
-0.198 -0.379 1.921 255 255 255
0.529 0.238 1.122 0 0 0
0.848 -0.77 2.071 255 255 255
0.449 -1.137 1.912 255 255 255
0.043 0.829 2.1 255 255 255
0.72 -0.18 2.141 255 255 255
1.104 -0.535 2.146 255 255 255
0.056 -1.03 1.864 255 255 255
0.576 0.031 2.098 255 255 255
-0.485 -0.646 1.143 255 255 255
0.522 -0.596 2.001 255 255 255
-0.1 0.061 2.003 255 255 255
0.158 0.021 2.037 255 255 255
0.373 -0.643 1.975 255 255 255
-0.183 -0.131 1.947 255 255 255
-0.197 0.017 1.971 255 255 255
0.074 0.85 1.965 255 255 255
0.213 0.375 1.242 255 255 255
-0.04 -0.472 1.93 255 255 255
0.295 -1.027 1.907 255 255 255
-0.858 -2.056 2.639 255 255 255
-0.14 -0.432 1.912 255 255 255
-0.083 -0.689 1.89 255 255 255
0.676 -0.798 2.041 255 255 255
-0.168 -1.079 1.807 255 255 255
1.159 0.357 2.325 255 255 255
-1.003 -0.158 1.447 255 255 255
0.083 -0.075 2.011 255 255 255
-0.447 0.783 2.224 255 255 255
0.479 -0.886 1.952 255 255 255
0.993 -0.008 2.216 255 255 255
0.342 -0.615 1.971 0 0 0
0.172 0.45 1.256 255 255 255
0.209 0.823 2.14 255 255 255
1.358 -0.198 2.243 255 255 255
1.295 -0.799 2.139 255 255 255
0.791 -0.898 2.044 255 255 255
0.07 -1.197 1.838 255 255 255
1.156 -0.327 2.188 255 255 255
1.416 0.176 2.308 255 255 255
0.088 0.791 2.139 255 255 255
0.526 -0.92 1.956 255 255 255
-0.113 -1.03 1.835 255 255 255
0.284 0.23 1.167 255 255 255
-0.385 -2.055 2.744 255 255 255
0.374 0.861 1.852 255 255 255
0.4 0.489 0.959 255 255 255
-0.168 -0.12 1.951 255 255 255
0.328 0.542 1.033 255 255 255
0.332 0.402 2.129 255 255 255
1.53 -0.505 2.219 255 255 255
0.305 -0.757 1.941 255 255 255
-0.502 -0.746 1.111 255 255 255
0.806 -0.778 2.062 255 255 255
-0.489 0.79 2.168 255 255 255
-0.95 0.349 1.918 255 255 255
-0.153 -0.814 1.844 255 255 255
-0.748 0.805 2.024 255 255 255
-0.112 0.398 2.055 255 255 255
1.49 -0.127 2.273 255 255 255
0.618 0.198 1.029 255 255 255
-0.494 -0.251 1.199 255 255 255
-0.162 -0.466 1.899 255 255 255
-0.246 0.764 2.148 0 0 0
1.406 -0.569 2.197 255 255 255
0.055 -0.448 1.949 255 255 255
0.106 -0.533 1.94 255 255 255
0.963 -0.347 2.153 255 255 255
1.328 -0.813 2.14 255 255 255
1.113 0.17 2.257 255 255 255
0.211 -0.015 2.039 255 255 255
0.584 -0.16 2.074 255 255 255
0.345 0.464 1.035 255 255 255
0.108 0.33 2.08 255 255 255
0.083 -0.478 1.952 255 255 255
0.328 0.088 2.077 255 255 255
0.244 0.364 1.219 255 255 255
1.364 -0.208 2.242 255 255 255
0.32 0.055 1.283 0 0 0
0.653 0.185 1.071 255 255 255
-1.004 -0.256 1.427 255 255 255
0.287 0.475 1.329 255 255 255
0.011 -0.011 2.009 255 255 255
1.106 0.097 2.246 255 255 255
-0.032 -0.184 1.977 255 255 255
-0.197 0.524 2.055 255 255 255
1.08 -0.234 2.187 255 255 255
-0.071 -0.63 1.904 255 255 255
0.253 -0.04 2.044 255 255 255
-1.067 0.201 1.857 255 255 255
-0.294 0.825 2.017 255 255 255
0.277 0.544 1.074 255 255 255
0.373 0.177 1.117 255 255 255
0.538 0.221 1.156 0 0 0
0.419 -1.062 1.92 255 255 255
0.536 0.246 1.076 0 0 0
-0.106 0.108 0.24 0 0 0
0.867 -1.164 1.987 0 0 0
-0.942 -0.717 1.763 255 255 255
-1.06 0.463 1.914 255 255 255
-1.055 -0.67 1.642 255 255 255
-0.092 -0.866 1.862 255 255 255
0.317 0.314 1.049 255 255 255
0.024 -1.094 1.846 255 255 255
-0.959 0.449 1.923 255 255 255
-1.055 -0.644 1.666 255 255 255
1.07 -1.211 2.004 255 255 255
0.45 -1.066 1.922 255 255 255
0.007 -0.102 1.993 255 255 255
0.781 -1.211 1.964 255 255 255
0.21 -1.06 1.883 255 255 255
0.736 -1.16 1.982 0 0 0
0.934 -0.486 2.128 255 255 255
0.112 0.356 2.083 255 255 255
0.445 0.842 1.97 255 255 255
0.437 0.106 1.173 0 0 0
0.55 -0.824 1.972 255 255 255
-0.02 -0.803 1.884 255 255 255
-0.001 0.459 2.082 255 255 255
1.606 0.169 2.386 255 255 255
-0.57 0.848 1.78 255 255 255
0.151 0.882 1.617 255 255 255
0.015 -0.224 1.976 255 255 255
0.917 -0.967 2.052 255 255 255
1.26 -0.551 2.169 255 255 255
-1.014 -0.403 1.785 255 255 255
-0.457 0.774 2.303 255 255 255
0.404 -0.172 2.047 255 255 255
-0.203 -0.478 1.915 255 255 255
0.37 -0.756 1.954 0 0 0
0.258 0.246 1.242 255 255 255
-0.15 -0.928 1.828 255 255 255
0.363 0.283 1.056 255 255 255
0.524 -0.041 2.087 255 255 255
0.174 0.872 1.728 255 255 255
0.088 0.883 1.623 255 255 255
0.139 -1.085 1.87 255 255 255
-0.517 0.304 1.271 255 255 255
0.5 -0.32 2.042 255 255 255
0.119 0.194 2.059 255 255 255
0.338 0.395 1.046 255 255 255
1.002 0.23 2.252 255 255 255
-0.199 -0.575 1.897 255 255 255
0.995 -1.103 2.047 255 255 255
0.579 -0.185 2.071 255 255 255
0.946 -1.165 2.007 0 0 0
-0.04 -0.72 1.895 255 255 255
0.324 0.237 2.099 255 255 255
0.262 0.873 1.705 255 255 255
0.13 -0.384 1.97 255 255 255
1.24 -0.554 2.165 255 255 255
-0.23 0.845 1.894 0 0 0
0.495 0.296 1.103 255 255 255
0.055 -0.809 1.897 0 0 0
0.858 -1.242 1.959 255 255 255
-0.926 0.049 1.851 255 255 255
0.221 0.405 2.109 255 255 255
0.4 0.393 2.096 255 255 255
-1.012 0.363 1.904 255 255 255
-0.19 0.267 2.01 255 255 255
0.816 -1.244 1.954 255 255 255
-0.509 0.132 1.249 255 255 255
0.73 -0.783 2.052 255 255 255
-0.056 0.548 2.089 255 255 255
-1.063 -0.065 1.741 255 255 255
0.436 0.149 2.1 255 255 255
0.574 -1.074 1.935 255 255 255
-0.145 -0.077 1.964 255 255 255
-0.957 0.045 1.876 255 255 255
0.473 0.366 1.049 255 255 255
0.132 -0.079 2.018 255 255 255
0.015 -0.722 1.901 255 255 255
1.632 -0.509 2.289 255 255 255
0.003 -0.286 1.967 255 255 255
-0.076 -0.829 1.871 255 255 255
-0.216 0.085 2.003 255 255 255
0.954 -0.37 2.154 255 255 255
0.925 -0.004 2.204 255 255 255
0.154 -1.231 1.845 255 255 255
0.096 0.867 1.732 255 255 255
0.242 0.397 2.111 255 255 255
-1.061 -0.438 1.679 255 255 255
0.147 -0.617 1.94 255 255 255
-1.063 -0.254 1.698 255 255 255
0.618 0.185 1.124 255 255 255
0.184 0.481 2.117 255 255 255
0.396 0.857 1.842 255 255 255
-0.716 0.786 2.173 255 255 255
-1.059 -0.536 1.689 255 255 255
0.4 0.282 1.073 255 255 255
-0.172 0.549 2.055 255 255 255
-0.598 -2.104 2.962 255 255 255
0.965 -0.252 2.167 255 255 255
-0.099 -0.737 1.882 255 255 255
0.454 0.368 1.039 255 255 255
1.038 -0.181 2.194 255 255 255
-0.921 -0.295 1.827 255 255 255
0.815 -1.051 2.022 255 255 255
0.065 -1.132 1.85 255 255 255
-0.953 -0.767 1.752 255 255 255
-0.083 -0.669 1.894 255 255 255
-0.979 -0.754 1.742 255 255 255
-0.085 0.137 2.016 255 255 255
-0.34 -2.06 2.743 0 0 0
-0.221 0.852 1.85 0 0 0
0.83 -0.852 2.057 255 255 255
-0.694 0.79 2.13 255 255 255
0.386 -0.205 2.039 255 255 255
-0.35 0.837 1.936 255 255 255
1.416 -0.295 2.239 255 255 255
-0.029 0.221 2.04 255 255 255
0.389 0.159 1.123 255 255 255
-0.095 0.646 2.098 255 255 255
-0.509 -0.124 1.206 255 255 255
0.417 0.42 0.995 255 255 255
0.362 0.059 2.077 255 255 255
-0.994 -0.015 1.373 255 255 255
-0.028 -0.031 1.998 255 255 255
0.194 -0.06 2.033 255 255 255
-0.086 -0.265 1.954 255 255 255
0.53 -1.439 1.87 255 255 255
0.063 -0.507 1.939 255 255 255
0.641 -1.013 1.984 255 255 255
-0.055 0.847 1.982 255 255 255
1.232 -0.299 2.204 255 255 255
-1.072 0.217 1.805 255 255 255
-0.638 -2.075 2.801 255 255 255
0.616 -1.214 1.921 255 255 255
0.111 0.861 1.808 255 255 255
-0.977 0.545 1.954 255 255 255
0.342 0.845 1.969 255 255 255
0.755 0.015 2.18 255 255 255
0.85 0.024 2.194 255 255 255
0.311 0.454 1.326 255 255 255
0.322 0.503 2.142 255 255 255
-0.921 0.714 2.66 255 255 255
1.256 -0.792 2.134 255 255 255
-0.167 -1.189 1.79 255 255 255
0.838 -0.076 2.177 255 255 255
0.268 -1.148 1.881 255 255 255
1.319 0.122 2.284 255 255 255
0.011 -0.609 1.918 255 255 255
-1.058 0.058 1.718 255 255 255
0.955 -0.72 2.097 255 255 255
1.331 -0.192 2.238 255 255 255
