ply
format ascii 1.0
comment Created by Open3D
element vertex 1575
property double x
property double y
property double z
property uchar red
property uchar green
property uchar blue
end_header
-0.552 0.021 2.481 255 255 255
-0.707 -0.923 2.438 255 255 255
-0.238 -0.07 1.981 255 255 255
-0.268 0.501 1.928 255 255 255
-1.092 -0.339 2.419 255 255 255
-0.23 -0.39 1.858 255 255 255
0.173 0.2 0.466 255 255 255
-0.572 0.596 1.554 255 255 255
-0.755 -0.346 2.607 255 255 255
0.511 0.28 1.176 255 255 255
-0.591 0.365 2.078 255 255 255
-0.449 0.309 2.234 255 255 255
-0.324 -1.731 2.362 0 0 0
-0.452 0.338 2.156 255 255 255
0.416 -0.586 2.013 255 255 255
-0.209 -0.043 2.012 255 255 255
-0.516 0.659 1.367 255 255 255
-0.249 0.163 2.073 255 255 255
-0.486 -0.774 2.406 255 255 255
0.289 0.379 1.611 255 255 255
-0.077 0.609 1.678 255 255 255
0.036 -0.989 1.85 255 255 255
0.47 0.163 1.235 255 255 255
0.557 -0.006 1.051 255 255 255
-0.737 -0.13 2.677 255 255 255
-0.416 -1.028 2.258 255 255 255
0.308 -0.005 1.499 255 255 255
-0.223 -0.395 1.86 255 255 255
-0.504 0.621 1.489 255 255 255
-0.603 0.285 2.067 255 255 255
-0.41 -1.54 2.384 255 255 255
-0.651 0.544 1.715 255 255 255
-0.384 -1.061 1.788 255 255 255
0.186 -0.548 1.781 0 0 0
0.491 0.01 1.169 255 255 255
-1.216 -0.708 2.219 255 255 255
-0.168 0.025 2.057 255 255 255
0.13 -1.054 1.659 0 0 0
0.549 0.23 1.1 255 255 255
-0.326 0.667 1.392 255 255 255
-0.727 -0.054 2.704 255 255 255
-0.491 -1.476 2.369 255 255 255
-0.22 -0.606 1.799 255 255 255
0.136 0.25 1.89 255 255 255
0.076 -0.483 1.876 0 0 0
-0.053 0.673 1.467 255 255 255
-1.018 0.356 2.178 255 255 255
0.104 -0.334 1.85 255 255 255
-1.296 -0.736 2.03 255 255 255
-0.465 -0.821 2.21 255 255 255
0.191 0.588 1.779 255 255 255
0.012 -0.011 2.079 255 255 255
-0.114 -0.737 1.807 255 255 255
-0.197 -0.776 1.754 255 255 255
0.301 0.074 1.526 255 255 255
-1.109 -0.446 2.367 255 255 255
-0.985 -0.214 2.518 255 255 255
0.139 -0.421 1.811 255 255 255
0.423 0.25 1.335 255 255 255
-0.868 0.034 2.671 255 255 255
-0.901 -0.138 1.224 255 255 255
0.595 -0.469 1.105 255 255 255
0.515 0.268 1.168 255 255 255
-0.519 0.062 0.833 255 255 255
-0.217 -1.106 1.645 255 255 255
0.169 0.404 1.862 255 255 255
-0.089 -0.116 2.029 255 255 255
-1.004 -1.501 2.075 0 0 0
-0.074 -0.465 1.915 255 255 255
-0.903 0.516 1.757 255 255 255
0.135 -0.445 1.802 255 255 255
0.552 0.357 1.125 255 255 255
-0.338 0.641 1.473 255 255 255
0.202 -1.137 1.599 255 255 255
0.228 -1.078 1.623 255 255 255
-1.033 -0.063 2.542 255 255 255
-0.26 -0.526 1.807 255 255 255
0.237 -0.438 1.827 255 255 255
-0.383 0.517 1.796 0 0 0
0.633 -0.018 0.91 255 255 255
0.073 0.585 1.787 255 255 255
-0.745 0.481 1.88 255 255 255
-0.033 -0.416 2.011 255 255 255
0.134 -0.832 1.697 0 0 0
-0.594 -0.93 2.298 255 255 255
0.332 0.2 1.488 255 255 255
-0.963 -0.347 2.483 255 255 255
0.608 -0.027 0.953 255 255 255
-0.442 -0.807 2.214 255 255 255
0.028 -1.054 1.828 0 0 0
0.507 0.231 1.179 255 255 255
0.268 0.09 1.59 255 255 255
0.506 0.154 1.166 255 255 255
0.479 0.378 1.253 255 255 255
0.429 0.236 1.318 255 255 255
-1.105 -1.336 2.072 255 255 255
0.484 -0.046 1.173 255 255 255
0.389 0.107 1.371 255 255 255
0.604 -0.21 1.1 255 255 255
-0.684 -1.528 2.249 255 255 255
0.028 -1.13 1.822 0 0 0
-0.246 0.005 2.012 255 255 255
0.219 -0.822 1.707 255 255 255
0.582 -0.537 1.076 255 255 255
0.128 -1.206 1.624 0 0 0
0.442 0.431 1.335 255 255 255
0.031 -0.465 1.95 255 255 255
0.249 0.224 1.653 255 255 255
-0.009 -0.311 2.05 255 255 255
-0.163 0.101 2.091 255 255 255
-0.165 -0.415 1.888 255 255 255
0.486 -0.041 1.171 255 255 255
0.588 0.26 1.042 255 255 255
0.623 -0.176 1.06 255 255 255
0.063 0.061 2.009 255 255 255
0 0.588 1.784 255 255 255
-0.257 -0.505 1.816 255 255 255
-1.223 -1.098 2.081 255 255 255
0.016 0.46 2.012 255 255 255
-1.256 0.084 2.379 255 255 255
0.092 0.359 2.005 255 255 255
0.4 -0.189 1.277 0 0 0
0.219 -1.02 1.635 0 0 0
0.587 -0.054 0.985 255 255 255
0.6 0.003 0.975 255 255 255
-0.717 0.207 2.393 255 255 255
-0.834 -1.572 2.15 0 0 0
-0.044 -0.418 1.943 255 255 255
-1.048 -1.466 2.057 255 255 255
-0.151 -0.874 1.747 255 255 255
0.569 -0.099 0.905 0 0 0
-0.764 -0.09 1.143 255 255 255
-1.123 0.254 2.076 255 255 255
-0.721 -0.624 2.53 255 255 255
0.201 -1.091 1.61 255 255 255
-0.795 -1.3 2.263 255 255 255
-0.605 -0.627 2.389 255 255 255
-0.922 -0.405 2.489 255 255 255
-0.001 -0.716 1.954 0 0 0
-0.194 0.075 2.066 255 255 255
-1.077 0.1 2.478 255 255 255
0.465 0.4 1.283 255 255 255
-0.197 0.706 1.308 255 255 255
-0.395 -0.164 2.152 255 255 255
-0.82 0.242 2.325 255 255 255
-0.132 -1.402 2.058 255 255 255
0.353 0.041 1.428 255 255 255
-0.115 -0.271 1.97 255 255 255
-0.916 0.156 2.401 255 255 255
0.36 0.029 1.411 255 255 255
0.325 0.406 1.548 255 255 255
-0.14 -0.86 1.756 255 255 255
0.354 -0.172 1.39 255 255 255
-0.609 0.006 0.848 255 255 255
-0.37 0.231 2.036 255 255 255
-0.682 -0.02 2.601 255 255 255
-0.222 -0.727 1.755 255 255 255
0.237 0.171 1.666 255 255 255
-0.182 -0.307 1.918 255 255 255
0.658 -0.153 0.998 255 255 255
0.014 0.588 1.785 255 255 255
0.561 -0.513 1.106 255 255 255
-0.966 -1.28 2.17 255 255 255
0.567 -0.022 1.03 255 255 255
0.424 0.374 1.357 255 255 255
-0.3 -0.011 1.971 255 255 255
0.031 -0.827 1.887 255 255 255
-0.762 -0.571 2.526 255 255 255
-0.076 -0.249 1.984 255 255 255
-1.292 -0.502 2.242 255 255 255
-0.477 0.081 0.751 255 255 255
0.445 0.235 1.294 255 255 255
0.2 0.149 1.729 255 255 255
-0.985 0.401 2.09 255 255 255
-0.256 0.658 1.42 255 255 255
-0.067 0.228 2.236 255 255 255
0.313 -0.558 1.828 255 255 255
-0.725 -1.018 2.399 255 255 255
0.23 -0.009 1.643 255 255 255
-0.667 0.426 2.038 255 255 255
-1.226 -0.009 2.451 255 255 255
-1.146 -0.891 2.199 255 255 255
-0.252 -0.265 1.892 255 255 255
-0.809 0.459 1.934 255 255 255
-0.648 0.333 2.06 255 255 255
-0.826 -0.097 1.105 0 0 0
-0.329 0.648 1.443 0 0 0
0.261 -1.126 1.628 255 255 255
-0.142 -0.212 1.974 255 255 255
0.43 -0.078 1.264 255 255 255
-0.869 -1.416 2.173 255 255 255
0.285 -0.095 1.527 255 255 255
-0.809 -1.032 2.343 255 255 255
-0.062 -0.655 1.855 255 255 255
-0.436 0.499 1.778 255 255 255
-1.086 -1.328 2.086 255 255 255
-0.093 0.614 1.649 255 255 255
-0.252 0.936 2.075 255 255 255
0.269 0.43 1.664 255 255 255
0.502 -0.135 1.098 0 0 0
0.261 -0.6 1.801 255 255 255
0.526 0.091 1.117 255 255 255
-1.275 0.043 2.403 255 255 255
-0.969 -1.087 2.23 255 255 255
0.557 -0.214 1.173 255 255 255
-0.673 0.576 1.599 255 255 255
-0.504 -0.368 2.361 255 255 255
0.218 -0.588 1.792 255 255 255
0.37 -0.153 1.364 255 255 255
0.571 -0.216 1.148 255 255 255
0.56 0.134 1.062 255 255 255
0.425 -0.2 1.2 255 255 255
0.55 0.297 1.114 255 255 255
-0.656 0.592 1.542 255 255 255
0.204 -0.976 1.646 255 255 255
0.412 0.011 1.314 255 255 255
0.239 0.16 1.657 255 255 255
-0.382 0.667 1.375 255 255 255
-1.308 -0.229 2.333 255 255 255
-0.879 0.471 1.889 255 255 255
-0.565 -0.598 2.423 255 255 255
-0.991 0.111 2.495 255 255 255
0.314 -0.038 1.484 255 255 255
-0.215 -0.775 1.741 255 255 255
0.331 0.258 1.504 255 255 255
-0.181 0.68 1.379 255 255 255
-0.016 -0.714 1.867 255 255 255
-0.919 -1.632 2.056 255 255 255
-0.051 -0.58 1.879 255 255 255
-0.28 -0.427 1.828 255 255 255
-1.22 -0.793 2.185 255 255 255
0.466 0.26 1.261 255 255 255
0.091 -0.034 1.922 255 255 255
0.007 -0.998 1.815 0 0 0
0.488 0.236 1.21 255 255 255
-0.63 0.506 1.828 0 0 0
-0.441 0.413 1.975 255 255 255
-0.738 -1.215 2.323 255 255 255
-0.246 -0.732 1.734 255 255 255
-0.483 -1.041 2.268 255 255 255
-1.323 -0.051 2.389 255 255 255
-0.773 -0.092 1.131 255 255 255
-0.623 0.62 1.467 255 255 255
-0.718 0.565 1.635 255 255 255
0.606 0.007 0.963 255 255 255
-0.767 0.437 1.983 255 255 255
0.161 0.224 1.83 255 255 255
-0.148 0.118 2.108 255 255 255
-0.05 0.619 1.132 255 255 255
-1.248 -0.547 2.253 255 255 255
0.477 0.416 1.265 255 255 255
-0.472 -0.358 2.297 255 255 255
-0.468 0.617 1.507 255 255 255
0.597 -0.365 1.145 255 255 255
0.379 -0.102 1.356 255 255 255
0.336 0.24 1.489 255 255 255
-0.026 0.126 2.167 255 255 255
0.638 -0.139 1.022 0 0 0
0.493 0.431 1.217 255 255 255
-0.229 -0.526 1.824 255 255 255
0.097 -1.238 1.676 0 0 0
0.468 0.257 1.259 255 255 255
-0.674 -0.129 2.566 255 255 255
-1.287 -0.745 2.031 255 255 255
-0.569 0.405 1.977 255 255 255
0.375 0.406 1.454 255 255 255
-0.313 -0.046 1.947 255 255 255
-1.137 -0.473 2.336 255 255 255
-0.65 -0.89 2.433 255 255 255
-0.057 0.636 1.18 255 255 255
0.546 -0.254 1.182 255 255 255
-0.372 0.621 1.533 255 255 255
-0.13 0.251 2.16 255 255 255
0.371 0.052 1.395 255 255 255
-0.057 0.606 1.722 255 255 255
0.313 0.231 1.531 255 255 255
0.131 -0.116 1.827 255 255 255
-0.825 0.466 1.905 255 255 255
-0.39 0.63 1.49 255 255 255
-0.932 -0.608 2.411 255 255 255
-0.751 -1.651 2.174 255 255 255
0.282 -0.147 1.524 255 255 255
-0.311 -0.254 1.856 255 255 255
-0.065 0.651 1.531 255 255 255
-0.64 -1.668 2.231 0 0 0
-1.046 -0.772 2.297 255 255 255
-0.017 -0.322 2.065 255 255 255
0.303 -0.125 1.486 255 255 255
-0.189 0.05 2.057 255 255 255
0.08 -0.201 1.914 255 255 255
-0.577 -1.093 2.244 255 255 255
0.59 -0.05 0.984 255 255 255
0.646 0.017 0.897 255 255 255
-0.916 -0.138 2.586 255 255 255
-1.226 -0.804 2.183 255 255 255
-1.142 -1.194 2.095 255 255 255
0.031 -0.615 1.925 255 255 255
-0.049 -1.378 1.907 0 0 0
-0.938 -1.032 2.27 255 255 255
-0.542 -1.432 2.365 255 255 255
0.224 -0.299 1.56 0 0 0
0.555 -0.107 1.004 255 255 255
-0.265 -0.903 1.659 255 255 255
-0.283 -0.699 1.72 255 255 255
-0.031 0.078 2.164 255 255 255
0.058 0.453 2.053 255 255 255
-0.465 0.088 0.722 255 255 255
-1.072 -0.057 2.522 255 255 255
0.625 0.028 0.934 255 255 255
0.507 0.015 1.144 255 255 255
-0.543 -0.666 2.406 255 255 255
0.31 -0.08 1.481 255 255 255
-0.527 0.668 1.337 255 255 255
-1.043 -0.247 1.682 255 255 255
0.299 0.611 1.623 255 255 255
0.604 0.04 0.973 255 255 255
-0.683 -0.607 2.534 255 255 255
-0.242 -0.567 1.799 255 255 255
-0.735 -0.759 2.477 255 255 255
0.012 0.298 2.124 255 255 255
0.548 -0.018 1.064 255 255 255
-0.197 0.948 2.105 255 255 255
0.284 0.208 1.582 255 255 255
-0.297 0.501 1.908 255 255 255
-0.143 -0.837 1.762 255 255 255
-0.25 0.561 1.775 255 255 255
0.473 -0.019 1.199 255 255 255
0.193 -0.698 1.736 0 0 0
0.287 -1.164 1.608 0 0 0
-0.628 -1.568 2.27 255 255 255
-0.068 -0.299 1.97 255 255 255
-0.289 0.437 2.09 255 255 255
-0.797 0.343 2.249 255 255 255
0.059 0.572 1.82 255 255 255
-0.147 0.508 1.842 255 255 255
-0.181 0.431 1.811 255 255 255
0.24 0.395 1.715 255 255 255
0.135 -0.947 1.678 0 0 0
0.374 0.132 1.402 255 255 255
0.157 0.208 0.448 255 255 255
0.161 0.094 1.799 255 255 255
-1.307 -0.565 2.217 255 255 255
-0.594 0.084 2.574 255 255 255
0.283 -0.544 1.812 255 255 255
-0.56 -0.751 2.373 255 255 255
0.02 0.473 2.012 255 255 255
-1.186 -0.419 1.669 255 255 255
0.012 -0.744 1.934 0 0 0
-0.156 -0.619 1.832 255 255 255
0.087 -0.362 1.881 255 255 255
0.511 0.377 1.192 255 255 255
0.25 0.54 1.708 255 255 255
-0.099 0.617 1.636 255 255 255
-0.516 -1.674 2.3 0 0 0
-0.3 0.57 1.736 255 255 255
-0.562 -0.264 2.519 255 255 255
0.589 0.107 1.008 255 255 255
0.175 -0.147 1.725 255 255 255
-0.045 0.446 1.817 255 255 255
-0.336 0.511 1.852 255 255 255
0.091 -0.957 1.755 255 255 255
-0.109 0.607 1.692 255 255 255
-0.602 -1.013 2.287 0 0 0
-0.451 0.386 2.003 255 255 255
0.107 -0.137 1.867 255 255 255
0.372 -0.127 1.362 255 255 255
-0.211 -0.539 1.829 255 255 255
-0.957 0.222 2.172 255 255 255
-1.071 0.296 2.097 255 255 255
-0.838 0.034 2.687 255 255 255
0.399 -0.197 1.221 0 0 0
-0.44 0.37 2.032 0 0 0
0.481 0.441 1.262 255 255 255
-0.743 -0.3 2.628 255 255 255
-0.796 -0.108 1.16 255 255 255
-0.148 -0.705 1.808 255 255 255
-0.503 0.693 1.267 255 255 255
-0.02 -0.887 1.795 255 255 255
-0.806 -1.45 2.204 255 255 255
-0.978 -0.189 1.372 255 255 255
-0.005 -0.074 2.085 255 255 255
-0.443 0.081 2.341 255 255 255
-1.033 0.378 2.162 255 255 255
0.602 -0.061 0.947 255 255 255
-0.182 -1.466 2.151 255 255 255
-1.211 -0.149 2.418 255 255 255
-0.651 -0.395 2.481 255 255 255
0.638 -0.012 0.901 255 255 255
-0.919 -1.326 2.177 255 255 255
0.651 -0.221 1.078 255 255 255
-0.876 -1.637 2.075 255 255 255
-0.784 -0.182 2.64 255 255 255
-0.808 -0.496 2.522 255 255 255
0.328 -1.114 1.602 255 255 255
-0.737 -1.317 2.285 255 255 255
-0.782 -1.576 2.178 0 0 0
0.62 0.162 0.999 255 255 255
-0.001 -1.312 1.84 255 255 255
0.404 -0.212 1.234 255 255 255
-0.16 -0.284 1.944 255 255 255
-0.842 -0.332 2.56 255 255 255
0.508 0.309 1.19 255 255 255
-0.246 -0.696 1.746 255 255 255
-0.744 0.529 1.748 255 255 255
0.499 0.228 1.189 255 255 255
0.117 0.145 1.906 255 255 255
0.542 0.286 1.123 255 255 255
0.37 -0.213 1.267 0 0 0
0.117 0.202 0.448 0 0 0
-0.451 0.67 1.352 255 255 255
-0.438 -0.133 2.217 255 255 255
-0.133 -0.663 1.829 255 255 255
-0.056 0.706 1.349 255 255 255
-1.123 -0.266 1.472 0 0 0
0.288 0.264 1.582 255 255 255
0.092 -1.069 1.73 255 255 255
-0.169 -1.426 2.129 255 255 255
-0.42 -1.73 2.33 0 0 0
0.321 0.209 1.51 255 255 255
-0.222 0.698 1.322 255 255 255
-0.169 -0.821 1.753 255 255 255
-1.13 -1.182 2.099 255 255 255
-0.176 -0.758 1.773 255 255 255
0.142 0.052 1.833 255 255 255
-0.901 -0.138 2.592 255 255 255
0.47 -0.52 2.037 255 255 255
0.412 -0.042 1.304 255 255 255
-0.18 0.712 1.301 255 255 255
0.565 0.122 1.056 255 255 255
-0.402 0.707 1.259 255 255 255
-0.897 -1.321 2.196 255 255 255
-1.135 0.18 2.473 255 255 255
0.024 -1.07 1.823 0 0 0
0.538 -0.009 1.083 255 255 255
0.578 -0.232 1.165 255 255 255
0.404 -0.152 1.302 255 255 255
-0.498 -0.839 2.199 255 255 255
0.618 -0.146 1.055 255 255 255
-0.039 -1.077 1.753 255 255 255
0.267 0.497 1.661 255 255 255
-0.175 -0.015 2.036 255 255 255
0.085 -1.208 1.7 255 255 255
-0.338 0.619 1.544 255 255 255
0.418 0.202 1.334 255 255 255
0.197 0.143 1.736 255 255 255
-0.958 -0.941 2.289 255 255 255
-0.165 0.038 2.067 255 255 255
-0.035 -1.015 1.728 0 0 0
0.374 -0.072 1.371 255 255 255
-1.087 -1.263 2.099 255 255 255
-0.404 0.696 1.283 255 255 255
0.361 0.549 1.502 255 255 255
0.237 -0.045 1.624 255 255 255
-0.884 0.449 1.904 255 255 255
-0.441 -0.404 2.185 255 255 255
-0.69 0.518 1.795 255 255 255
-0.031 -1.343 1.883 255 255 255
0.608 0.011 0.958 255 255 255
0.633 -0.186 1.042 255 255 255
-0.722 0.561 1.647 255 255 255
0.361 -0.221 1.333 0 0 0
-0.931 -1.435 2.135 255 255 255
0.099 0.418 1.969 255 255 255
0.212 0.055 1.688 255 255 255
0.284 -0.262 1.472 0 0 0
0.483 -0.139 1.138 255 255 255
0.495 -0.12 1.137 255 255 255
-0.537 -1.501 2.338 255 255 255
0.053 0.253 2.066 255 255 255
0.31 0.148 1.522 255 255 255
0.047 -0.844 1.855 255 255 255
-0.551 -1.448 2.347 255 255 255
0.602 -0.164 1.086 255 255 255
0.343 0.562 1.524 255 255 255
-0.659 0.484 1.881 255 255 255
-0.335 0.529 1.842 255 255 255
-0.948 -1.293 2.176 255 255 255
-0.237 0.058 2.041 255 255 255
-0.226 -0.933 1.686 255 255 255
0.336 -0.209 1.412 255 255 255
0.305 -0.125 1.482 255 255 255
0.016 0.122 2.104 255 255 255
-0.889 -0.923 2.334 255 255 255
-1.411 -0.633 2.111 255 255 255
0.451 0.203 1.281 255 255 255
-0.756 -1.103 2.347 255 255 255
0.186 -0.291 1.685 255 255 255
-1.044 -0.015 1.808 255 255 255
0.274 -1.132 1.613 255 255 255
-0.095 -0.927 1.75 255 255 255
0.029 0.316 2.101 255 255 255
0.419 0.464 1.385 255 255 255
-0.582 -0.535 2.438 255 255 255
-0.854 -0.064 2.644 255 255 255
-0.281 0.635 1.501 255 255 255
0.523 0.017 1.114 255 255 255
-0.653 -0.92 2.438 255 255 255
0.607 -0.564 1.082 255 255 255
-0.039 -0.791 1.815 255 255 255
0.333 -0.147 1.43 255 255 255
-0.267 0.398 2.093 255 255 255
0.028 -1.075 1.83 0 0 0
-1.118 -0.441 2.363 255 255 255
-0.701 -0.985 2.42 255 255 255
0.128 0.375 1.936 255 255 255
-0.762 -0.843 2.438 255 255 255
-0.191 0.554 1.82 255 255 255
0.555 -0.002 1.053 255 255 255
-0.772 -1.366 2.252 255 255 255
0.386 0.18 1.388 255 255 255
-0.299 -0.368 1.815 255 255 255
0.47 -0.158 1.138 0 0 0
-1.022 0.243 2.129 255 255 255
-0.212 -0.388 1.866 255 255 255
-0.074 -0.55 1.885 255 255 255
0.048 -1.199 1.778 255 255 255
-0.4 0.428 1.972 255 255 255
0.564 0.053 1.044 255 255 255
0.639 -0.01 0.902 255 255 255
-0.071 0.696 1.376 255 255 255
-0.81 -1.258 2.273 255 255 255
-0.445 0.372 2.019 255 255 255
0.066 -0.974 1.795 255 255 255
-1.174 -1.191 2.078 255 255 255
0.446 0.394 1.319 255 255 255
-0.224 -0.37 1.873 255 255 255
-0.969 -1.263 2.17 255 255 255
0.249 -0.783 1.719 255 255 255
-0.786 -0.779 2.441 255 255 255
-1.071 -0.004 2.534 255 255 255
0.253 -0.723 1.743 255 255 255
0.227 0.467 1.74 255 255 255
0.309 0.414 1.584 255 255 255
-1.08 -0.339 1.686 255 255 255
0.234 0.437 1.74 255 255 255
-0.717 -0.72 2.498 255 255 255
-0.573 -0.295 2.52 255 255 255
-0.171 0.192 2.13 255 255 255
0.1 -1.13 1.704 255 255 255
-0.588 -0.601 2.411 255 255 255
-1.202 0.121 2.426 255 255 255
-0.716 0.567 1.63 255 255 255
0.498 0.067 1.165 255 255 255
0.203 -0.758 1.714 0 0 0
-0.263 -0.015 1.991 255 255 255
-0.403 0.395 2.037 0 0 0
-0.125 0.229 2.155 255 255 255
-0.076 0.643 1.562 255 255 255
0.123 -0.985 1.699 0 0 0
0.52 0.179 1.144 255 255 255
-0.296 -0.372 1.817 255 255 255
0.267 -0.544 1.801 255 255 255
0.348 0.434 1.515 255 255 255
-0.131 0.702 1.345 255 255 255
-0.067 0.315 2.212 255 255 255
-0.191 -1.125 1.676 255 255 255
-0.216 -0.479 1.854 255 255 255
-0.08 0.705 1.301 255 255 255
-0.196 -0.195 1.957 255 255 255
-1.007 -1.24 2.161 255 255 255
-0.46 -1.678 2.324 0 0 0
-0.695 -1.16 2.367 255 255 255
-1.233 -0.082 2.428 255 255 255
0.581 0.21 1.046 255 255 255
-0.18 -0.659 1.804 255 255 255
0.249 -1.125 1.627 255 255 255
-0.257 0.671 1.381 255 255 255
0.096 -0.38 1.832 255 255 255
-1.207 -0.703 2.225 255 255 255
-0.905 -0.51 2.461 255 255 255
-0.626 0.609 1.496 255 255 255
-0.994 0.391 1.972 255 255 255
-1.028 -0.29 1.748 255 255 255
-1.083 -0.135 2.491 255 255 255
-1.052 -0.673 2.32 255 255 255
-0.111 -1.399 2.019 255 255 255
0.143 -1.091 1.621 0 0 0
0.456 0.483 1.312 255 255 255
0.312 -0.083 1.476 255 255 255
-0.651 -0.012 0.895 255 255 255
0.012 0.165 2.118 255 255 255
-0.656 -1.221 2.363 255 255 255
-1.052 -1.259 2.125 255 255 255
0.135 -0.885 1.694 0 0 0
0.155 0.426 1.877 255 255 255
-0.771 -1.067 2.354 255 255 255
-0.263 -0.953 1.647 255 255 255
0.004 0.093 2.111 255 255 255
-0.987 -0.556 2.401 255 255 255
-0.31 -0.027 1.956 255 255 255
0.49 -0.485 2.033 255 255 255
0.242 -0.752 1.734 255 255 255
0.151 -0.768 1.701 255 255 255
-0.755 -0.722 2.478 255 255 255
-0.765 -0.705 2.475 255 255 255
0.522 0.183 1.142 255 255 255
-1.231 -0.669 2.223 255 255 255
-0.416 -1.551 2.38 255 255 255
0.47 -0.532 1.997 255 255 255
-0.07 -0.081 2.054 255 255 255
-0.634 -0.035 2.582 255 255 255
-0.411 0.705 1.26 255 255 255
0.584 0.122 1.021 255 255 255
-0.333 -0.152 1.898 255 255 255
-0.365 0.597 1.618 255 255 255
-0.477 0.66 1.378 255 255 255
0.583 0.147 1.023 255 255 255
-1.08 -0.309 2.434 255 255 255
-0.005 -0.411 2.028 255 255 255
-0.106 0.48 1.783 255 255 255
0.148 -0.608 1.751 255 255 255
-1.217 -0.88 2.158 255 255 255
-0.528 0.666 1.341 255 255 255
-0.35 0.272 2.039 255 255 255
0.509 -0.517 2.018 255 255 255
0.067 0.604 1.726 255 255 255
-0.813 -0.198 2.622 255 255 255
-0.31 -0.275 1.846 255 255 255
0.067 0.081 2.007 255 255 255
-0.751 -1.196 2.319 255 255 255
0.48 0.305 1.238 255 255 255
-0.485 0.366 2.159 255 255 255
-0.081 0.693 1.391 255 255 255
-0.777 0.562 1.623 255 255 255
0.407 0.272 1.367 255 255 255
-0.062 -1.038 1.728 255 255 255
-0.123 0.569 1.807 255 255 255
0.559 0.128 1.065 255 255 255
0.228 -1.13 1.601 255 255 255
-1.286 -0.464 2.259 255 255 255
-0.046 -0.859 1.793 255 255 255
0.396 0.084 1.357 255 255 255
0.175 0.675 1.529 0 0 0
-0.173 -0.222 1.958 255 255 255
-0.207 -0.838 1.722 255 255 255
-0.998 0.363 2.17 255 255 255
0.296 0.206 1.561 255 255 255
-0.108 -0.206 1.997 255 255 255
-0.846 -0.281 2.577 255 255 255
-0.013 0.417 2.087 255 255 255
0.082 -1.246 1.701 0 0 0
0.263 0.315 1.648 255 255 255
-0.99 -0.948 2.27 255 255 255
0.604 0.117 0.986 255 255 255
-0.715 -0.086 2.683 255 255 255
-0.294 0.69 1.33 255 255 255
0.621 0.08 0.947 255 255 255
0.33 0.508 1.572 255 255 255
-0.15 -0.394 1.901 255 255 255
-0.897 -0.566 2.446 255 255 255
-0.917 -0.221 2.553 255 255 255
0.288 0.635 1.63 255 255 255
-1.069 -0.273 1.609 0 0 0
0.188 0.704 1.435 255 255 255
0.071 -1.226 1.733 255 255 255
-0.227 0.703 1.311 255 255 255
-0.323 0.561 1.767 255 255 255
-0.185 -1.044 1.685 255 255 255
0.549 -0.072 1.055 255 255 255
0.543 0.222 1.111 255 255 255
-0.773 -0.066 1.026 255 255 255
0.424 0.321 1.347 255 255 255
-1.307 -0.454 2.254 255 255 255
0.573 -0.361 1.128 255 255 255
0.517 -0.068 1.11 255 255 255
-0.883 -1.553 2.119 0 0 0
-0.204 -0.858 1.721 255 255 255
0.239 -0.899 1.696 255 255 255
-0.926 -1.384 2.158 255 255 255
-0.507 -0.78 2.214 255 255 255
-1.047 -0.363 1.706 255 255 255
0.24 -0.29 1.479 0 0 0
0.152 0.207 0.455 255 255 255
0.37 -0.175 1.36 255 255 255
-1.294 -0.488 2.248 255 255 255
-1.108 -0.777 2.257 255 255 255
-0.295 0.499 1.917 255 255 255
-0.058 0.634 1.159 255 255 255
-0.662 0.086 2.606 255 255 255
-0.295 0.225 2.067 255 255 255
-0.293 -1.736 2.32 0 0 0
-0.679 -0.87 2.468 255 255 255
-0.643 0.234 2.485 255 255 255
0.17 0.69 1.475 255 255 255
-0.86 -0.823 2.387 255 255 255
-0.675 0.574 1.605 255 255 255
-0.72 -0.538 2.56 255 255 255
0.228 -0.825 1.72 255 255 255
-0.871 -0.642 2.437 255 255 255
-0.049 -1.268 1.938 255 255 255
0.54 -0.113 0.959 0 0 0
-0.179 -0.271 1.936 255 255 255
-0.08 -1 1.733 255 255 255
-0.494 -1.624 2.323 255 255 255
0.478 0.123 1.215 255 255 255
0.167 -0.643 1.749 255 255 255
0.087 -0.838 1.785 255 255 255
-1.152 -0.58 2.292 255 255 255
-0.926 -0.49 2.458 255 255 255
0.073 0.361 2.038 255 255 255
-0.851 -0.147 1.281 255 255 255
0.303 0.077 1.522 255 255 255
0.578 0.1 1.027 255 255 255
-0.999 -0.511 2.41 255 255 255
-0.339 0.882 2.045 255 255 255
0.262 -0.479 1.836 255 255 255
0.072 0.628 1.667 255 255 255
0.637 -0.115 0.965 255 255 255
-0.746 0.369 1.995 255 255 255
0.6 0.044 0.98 255 255 255
-0.845 0.462 1.92 255 255 255
0.399 0.095 1.354 255 255 255
0.314 0.498 1.597 255 255 255
0.058 -0.97 1.805 255 255 255
0.366 -0.15 1.37 255 255 255
-0.047 -0.101 2.144 255 255 255
-0.669 0.595 1.526 255 255 255
-0.218 0.684 1.362 255 255 255
0.252 0.294 1.666 255 255 255
0.405 -0.048 1.318 255 255 255
0.572 -0.093 0.984 255 255 255
-0.794 -0.267 2.611 255 255 255
-0.779 -0.9 2.406 255 255 255
-1.058 0.324 2.143 255 255 255
-1.109 -0.878 2.222 255 255 255
-0.35 0.66 1.403 255 255 255
-0.644 -1.458 2.293 255 255 255
-0.44 -1.489 2.386 255 255 255
0.393 0.33 1.405 255 255 255
0.595 0.038 0.984 255 255 255
-1.099 0.19 2.484 255 255 255
0.496 -0.024 1.156 255 255 255
-0.179 0.703 1.324 255 255 255
-1.182 -0.709 2.234 255 255 255
-0.009 0.19 2.153 255 255 255
0.152 0.205 0.451 255 255 255
0.137 -0.233 1.801 255 255 255
0.567 -0.004 1.03 255 255 255
0.181 -0.744 1.719 255 255 255
-0.841 -1.048 2.32 255 255 255
0.415 -0.269 1.404 255 255 255
-1.286 -0.138 2.376 255 255 255
0.399 -0.195 1.28 0 0 0
-0.506 0.668 1.343 255 255 255
-0.047 0.543 1.897 255 255 255
-0.67 0.331 2.073 255 255 255
0.423 -0.052 1.285 255 255 255
-0.565 0.436 1.944 255 255 255
-0.813 -1.041 2.336 255 255 255
-0.173 -0.641 1.812 255 255 255
0.401 0.053 1.343 255 255 255
-0.18 -0.385 1.89 255 255 255
0.312 0.077 1.505 255 255 255
-0.664 0.454 2.009 255 255 255
0.164 0.051 1.79 255 255 255
0.469 0.16 1.234 255 255 255
0.582 -0.172 1.117 255 255 255
0.363 -0.176 1.369 255 255 255
0.295 -0.066 1.512 255 255 255
-0.765 -0.696 2.479 255 255 255
-1.057 -0.339 1.726 255 255 255
0.098 0.221 1.969 255 255 255
-0.256 -0.766 1.717 255 255 255
0.41 -0.101 1.297 255 255 255
-0.699 0.178 2.406 255 255 255
0.464 0.263 1.263 255 255 255
-1.161 -0.691 2.254 255 255 255
0.557 -0.378 1.138 255 255 255
-1.242 -0.348 2.325 255 255 255
-0.054 -0.718 1.833 255 255 255
-0.593 0.469 1.849 255 255 255
0.245 -0.006 1.614 255 255 255
0.152 -0.077 1.782 255 255 255
0.38 0.163 1.398 255 255 255
0.443 0.333 1.309 255 255 255
0.122 -0.044 1.858 255 255 255
-0.125 -0.859 1.763 255 255 255
0.212 0.392 1.772 255 255 255
-0.137 0.042 2.081 255 255 255
-0.308 0.354 2.082 255 255 255
-0.762 -0.075 1.055 255 255 255
-1.029 0.106 2.502 255 255 255
0.405 0.094 1.338 255 255 255
0.232 0.344 1.711 255 255 255
-0.35 0.65 1.435 0 0 0
-0.497 0.466 1.872 255 255 255
-0.458 0.43 1.955 255 255 255
0.073 0.294 2.033 255 255 255
0.099 0.585 1.797 255 255 255
-0.232 -0.512 1.827 255 255 255
-0.176 -0.41 1.881 255 255 255
-0.426 0.434 1.958 255 255 255
0.607 0.007 0.961 255 255 255
-0.714 0.045 2.7 255 255 255
0.236 -1.041 1.645 255 255 255
-0.671 0.448 2.019 255 255 255
0.381 0.097 1.385 255 255 255
-0.321 0.527 1.853 255 255 255
0.302 0.627 1.616 255 255 255
-0.488 -0.997 2.28 255 255 255
-0.526 0.155 2.455 255 255 255
-1.003 -0.23 2.506 255 255 255
0.055 -1.009 1.808 255 255 255
-0.281 0.447 2.093 255 255 255
0.286 0.509 1.627 255 255 255
-0.458 0.114 0.773 255 255 255
-0.18 -0.674 1.799 255 255 255
-0.49 -0.1 2.266 255 255 255
-1.061 0.069 2.482 255 255 255
0.156 0.692 1.464 255 255 255
-0.752 -1.022 2.375 255 255 255
0.191 0.616 1.701 255 255 255
-0.771 -1.36 2.253 255 255 255
-0.094 0.42 1.784 255 255 255
0.198 0.445 1.803 255 255 255
0.66 -0.164 0.991 255 255 255
0.333 0.538 1.546 255 255 255
0.304 -0.075 1.495 255 255 255
0.65 -0.166 1.01 255 255 255
-0.194 -0.792 1.753 255 255 255
0.044 -1.315 1.759 0 0 0
0.016 0.109 2.098 255 255 255
-0.812 -1.173 2.293 255 255 255
-0.425 -1.711 2.334 0 0 0
0.436 0.069 1.282 255 255 255
0.554 0.095 1.068 255 255 255
-0.082 0.33 2.135 255 255 255
0.559 0.22 1.082 255 255 255
0.044 -1.094 1.813 255 255 255
-0.308 -0.329 1.828 255 255 255
0.306 -0.008 1.504 255 255 255
0.535 0.019 1.092 255 255 255
0.184 0.654 1.592 255 255 255
-0.971 -0.169 1.268 255 255 255
-0.16 -1.508 2.093 255 255 255
0.599 0.187 1.012 255 255 255
0.449 0.071 1.261 255 255 255
0.269 0.333 1.637 255 255 255
0.125 0.64 1.626 255 255 255
-0.657 0.615 1.473 255 255 255
-0.743 -0.694 2.498 255 255 255
0.087 0.565 1.862 255 255 255
0.492 0.349 1.223 255 255 255
-0.578 -0.778 2.355 255 255 255
-0.6 -0.613 2.393 255 255 255
-0.945 -0.902 2.308 255 255 255
-1.404 -0.737 2.098 255 255 255
-0.125 0.225 2.155 255 255 255
-0.756 0.379 1.998 255 255 255
0.372 -0.177 1.357 255 255 255
-0.32 0.672 1.374 255 255 255
-1.048 -0.611 2.347 255 255 255
0.086 -0.501 1.856 0 0 0
-0.214 -0.35 1.889 255 255 255
-0.935 -0.897 2.313 255 255 255
-0.85 -1.127 2.287 255 255 255
0.481 -0.068 1.177 255 255 255
0.024 -0.144 2.022 255 255 255
-0.901 -0.679 2.407 255 255 255
-0.887 -0.691 2.412 255 255 255
0.021 0.364 2.105 255 255 255
-0.037 0.686 1.427 255 255 255
-0.503 -0.923 2.253 255 255 255
0.216 -0.708 1.749 255 255 255
-0.913 0.234 2.376 255 255 255
-1.274 0.001 2.425 255 255 255
0.242 0.476 1.717 255 255 255
0.241 0.549 1.723 255 255 255
0.574 0.288 1.074 255 255 255
0.375 -0.033 1.375 255 255 255
-1.004 -0.6 2.38 255 255 255
0.595 0.173 1.012 255 255 255
0.653 -0.163 1.006 255 255 255
-0.563 -0.68 2.399 255 255 255
-0.05 -0.923 1.769 255 255 255
-0.506 0.579 1.628 255 255 255
-0.787 -0.14 2.651 255 255 255
-0.935 -0.903 2.312 255 255 255
0.136 -0.187 1.804 255 255 255
-0.288 -0.464 1.804 255 255 255
0.196 -0.04 1.7 255 255 255
-0.089 0.53 1.88 255 255 255
0.091 -0.917 1.765 255 255 255
-1.131 -0.483 2.335 255 255 255
0.611 0.085 0.969 255 255 255
-0.451 -0.315 2.295 255 255 255
-0.484 0.696 1.265 255 255 255
-0.849 -0.064 2.647 255 255 255
-1.182 -0.349 1.609 255 255 255
-1.146 -0.817 2.219 255 255 255
0.083 -0.716 1.817 255 255 255
0.588 -0.598 1.061 255 255 255
-1.286 0.198 2.384 255 255 255
0.478 0.449 1.26 255 255 255
-1.06 -0.237 1.497 255 255 255
0.269 0.681 1.518 0 0 0
-0.075 -0.032 2.07 255 255 255
0.577 0.003 1.014 255 255 255
-0.878 -0.712 2.413 255 255 255
0.471 -0.135 1.175 0 0 0
0.249 -0.79 1.716 255 255 255
-0.635 -1.032 2.379 255 255 255
0.269 0.287 1.625 255 255 255
-0.877 0.106 2.68 255 255 255
0.58 0.088 1.021 255 255 255
-0.908 -0.345 2.52 255 255 255
0.011 0.59 1.779 255 255 255
-0.178 0.57 1.797 255 255 255
0.191 -0.298 1.666 255 255 255
-0.77 -0.877 2.42 255 255 255
-0.836 -1.211 2.268 255 255 255
0.398 0.12 1.36 255 255 255
0.147 -0.684 1.724 255 255 255
0.174 0.147 1.784 255 255 255
0.49 0.429 1.24 255 255 255
0.071 -1.25 1.73 0 0 0
-0.64 -0.113 2.563 255 255 255
0.294 0.007 1.523 255 255 255
0.086 -0.49 1.857 0 0 0
-0.157 -0.412 1.89 255 255 255
-0.553 -0.666 2.405 255 255 255
-0.872 0.415 2.025 255 255 255
0.335 -0.236 1.378 0 0 0
-0.731 0.074 2.74 255 255 255
-0.368 0.654 1.417 255 255 255
-0.022 0.039 2.14 255 255 255
-0.209 -1.629 2.183 0 0 0
0.32 -0.038 1.472 255 255 255
-0.946 -0.548 2.428 255 255 255
-1.002 -0.834 2.3 255 255 255
0.365 0.574 1.486 255 255 255
0.194 -1.131 1.599 255 255 255
0.605 -0.01 0.962 255 255 255
0.09 -0.357 1.874 255 255 255
-0.665 -1.691 2.209 255 255 255
0.433 0.32 1.327 255 255 255
-0.005 -0.257 2.054 255 255 255
-0.021 0.704 1.379 255 255 255
0.256 -0.382 1.73 255 255 255
0.34 -0.232 1.339 0 0 0
-0.77 0.394 2.008 255 255 255
-0.302 0.934 2.045 255 255 255
0.17 0.524 1.855 255 255 255
-0.917 -0.629 2.414 255 255 255
-0.317 0.122 2.021 255 255 255
-0.005 0.389 2.124 255 255 255
-0.705 0.396 2.032 255 255 255
0.236 0.14 1.66 255 255 255
0.281 0.451 1.649 255 255 255
-0.416 -0.074 2.199 255 255 255
-0.664 0.57 1.618 255 255 255
0.544 -0.029 1.068 255 255 255
0.024 0.439 2.048 255 255 255
-0.73 -0.94 2.418 255 255 255
-0.245 -0.082 1.976 255 255 255
-0.348 0.585 1.661 255 255 255
-0.676 0.107 2.616 255 255 255
-0.883 -0.566 2.454 255 255 255
0.621 0.043 0.94 255 255 255
-0.583 0.447 1.931 255 255 255
-0.315 0.446 1.952 255 255 255
0.289 0.078 1.547 255 255 255
0.297 -0.165 1.489 255 255 255
0.104 -1.209 1.678 255 255 255
-1.215 -0.722 2.214 255 255 255
0.091 -0.037 1.921 255 255 255
-0.691 -1.134 2.377 255 255 255
-0.798 0.214 2.337 255 255 255
0.594 -0.056 0.973 255 255 255
0.218 0.542 1.767 255 255 255
-0.747 -1.111 2.352 255 255 255
0.288 -0.267 1.399 0 0 0
-1.101 0.337 2.119 255 255 255
-0.859 -1.202 2.257 255 255 255
-0.022 -0.121 2.109 255 255 255
-0.699 -0.838 2.47 255 255 255
-0.512 -1.064 2.253 255 255 255
0.36 0.149 1.429 255 255 255
0.19 0.676 1.522 0 0 0
0.114 0.686 1.494 255 255 255
-0.821 0.247 2.326 255 255 255
-0.132 0.971 2.138 255 255 255
0.14 -0.836 1.68 255 255 255
-1.045 -1.003 2.21 255 255 255
-0.285 0.501 1.991 255 255 255
0.294 0.627 1.628 255 255 255
0.08 0.523 1.99 255 255 255
-1.156 0.174 2.466 255 255 255
0.211 -0.263 1.64 255 255 255
-1.278 -0.59 2.224 255 255 255
-0.573 -1.726 2.253 255 255 255
0.562 0.156 1.068 255 255 255
-1.28 -0.543 2.052 0 0 0
-0.799 0.483 1.872 255 255 255
-0.874 -1.009 2.313 255 255 255
0.07 -1.055 1.772 255 255 255
-1.248 -0.249 2.356 255 255 255
-0.849 -1.096 2.295 255 255 255
-1.098 -0.13 2.485 255 255 255
-0.048 0.493 1.804 255 255 255
-0.45 0.466 1.86 255 255 255
-0.082 -0.068 2.049 255 255 255
-0.362 0.272 2.035 255 255 255
0.319 0.569 1.586 255 255 255
-1.102 0.267 2.076 255 255 255
-1.316 -0.45 2.259 255 255 255
-0.745 0.51 1.798 255 255 255
0.137 -0.756 1.704 255 255 255
0.609 0.081 0.97 255 255 255
0.362 0.137 1.425 255 255 255
-0.14 -0.007 2.057 255 255 255
-0.875 -0.771 2.393 255 255 255
0.307 0.046 1.51 255 255 255
0.148 0.442 1.877 255 255 255
-0.089 0.713 1.316 255 255 255
0.529 -0.194 1.202 255 255 255
-0.319 0.585 1.676 255 255 255
0.218 -0.983 1.642 0 0 0
0.4 -0.483 2.017 255 255 255
-0.698 -1.498 2.252 255 255 255
0.328 0.531 1.558 255 255 255
-1.202 -0.443 2.318 255 255 255
0.635 -0.174 1.041 255 255 255
-0.076 0.211 2.237 255 255 255
-0.585 0.379 2.088 255 255 255
-0.7 -1.272 2.324 255 255 255
-0.624 -0.333 2.486 255 255 255
-1.177 -0.522 2.304 255 255 255
-1.234 -0.942 2.128 255 255 255
0.233 -0.11 1.619 255 255 255
0.236 -0.963 1.676 255 255 255
-1.278 -0.839 2.139 255 255 255
-0.713 -1.668 2.187 255 255 255
-0.761 -1.093 2.348 255 255 255
-0.285 0.434 2.093 255 255 255
-0.414 -0.122 2.188 255 255 255
0.273 -1.096 1.618 255 255 255
0.068 0.182 2.025 255 255 255
-0.521 -1.683 2.291 0 0 0
-1.093 -0.318 2.422 255 255 255
-0.226 0.286 2.122 255 255 255
-0.157 0.954 2.11 255 255 255
0.579 0.009 1.013 255 255 255
-0.647 -0.035 2.572 255 255 255
-0.506 0.48 1.796 255 255 255
0.324 -0.178 1.441 255 255 255
0.275 0.183 1.591 255 255 255
-0.066 -0.065 2.071 255 255 255
-1.152 0.199 2.444 255 255 255
-0.198 -0.492 1.859 255 255 255
-0.296 0.11 2.023 255 255 255
-0.443 0.455 1.885 255 255 255
0.072 -0.774 1.825 255 255 255
-0.458 0.34 2.165 255 255 255
0.083 -0.254 1.901 255 255 255
0.464 -0.245 1.325 255 255 255
-0.624 0.003 0.892 255 255 255
-0.413 0.692 1.286 255 255 255
-0.958 -0.915 2.295 255 255 255
-0.943 0.409 1.967 255 255 255
0.365 -0.072 1.383 255 255 255
0.155 -0.942 1.645 255 255 255
-1.271 -0.552 2.24 255 255 255
-0.831 0.023 2.685 255 255 255
-0.6 -0.27 2.522 255 255 255
-0.091 -0.371 1.946 255 255 255
0.559 0.183 1.076 255 255 255
-0.911 -0.99 2.298 255 255 255
0.153 -0.514 1.787 255 255 255
-1.084 0.388 2.122 255 255 255
0.046 -0.371 1.945 255 255 255
-0.281 -0.976 1.663 255 255 255
-0.163 -0.011 2.043 255 255 255
0.205 0.581 1.778 255 255 255
0.313 0.167 1.519 255 255 255
0.418 0.407 1.372 255 255 255
0.491 -0.181 1.16 255 255 255
-1.079 -0.248 1.55 255 255 255
0.299 0.096 1.534 255 255 255
-0.247 -0.506 1.821 255 255 255
0.446 -0.209 1.242 255 255 255
-1.308 -0.539 2.041 0 0 0
0.514 0.269 1.171 255 255 255
-0.482 0.683 1.301 255 255 255
0.615 -0.187 1.075 255 255 255
-0.181 -0.637 1.81 255 255 255
-0.743 0.575 1.599 255 255 255
-0.088 -0.947 1.745 255 255 255
-0.626 0.253 2.478 255 255 255
-0.715 -0.512 2.566 255 255 255
0.469 -0.153 1.157 0 0 0
-0.455 0.578 1.655 255 255 255
0.091 0.321 1.995 255 255 255
0.307 0.117 1.522 255 255 255
-0.691 -0.339 2.6 255 255 255
-1.255 0.104 2.387 255 255 255
-0.268 -0.312 1.866 255 255 255
0.692 -0.239 1.064 255 255 255
-0.879 0.442 1.915 255 255 255
0.155 0.385 1.884 255 255 255
-0.679 0.543 1.715 255 255 255
-0.205 -0.273 1.92 255 255 255
-0.666 0.614 1.476 255 255 255
-0.294 0.127 2.032 255 255 255
-0.466 0.374 2.154 255 255 255
-0.773 -0.371 2.588 255 255 255
0.428 -0.088 1.267 255 255 255
0.196 0.574 1.796 255 255 255
0.514 0.337 1.18 255 255 255
-0.968 -1.167 2.203 255 255 255
0.023 -0.642 1.93 255 255 255
0.357 -0.011 1.408 255 255 255
0.232 0.33 1.714 255 255 255
-0.902 -0.127 2.596 255 255 255
-1.023 0.34 2.168 255 255 255
0.422 0.043 1.301 255 255 255
0.185 0.099 1.749 255 255 255
0.138 0.43 1.895 255 255 255
0.542 0.226 1.109 255 255 255
-0.974 0.275 2.147 255 255 255
-1.102 -1.114 2.148 255 255 255
-0.243 -0.888 1.691 255 255 255
0.599 0.154 1.002 255 255 255
0.592 0.047 0.992 255 255 255
-0.901 0.422 1.894 255 255 255
-0.498 -0.087 2.283 255 255 255
0.52 -0.125 1.068 0 0 0
-0.466 0.641 1.435 0 0 0
0.058 -0.475 1.907 255 255 255
0.023 -0.333 1.983 255 255 255
0.251 0.03 1.61 255 255 255
0.031 -0.3 1.979 255 255 255
0.029 0.411 2.103 255 255 255
-1.15 -0.658 2.273 255 255 255
-1.071 -0.109 2.505 255 255 255
0.285 0.579 1.651 255 255 255
0.151 0.048 1.813 255 255 255
-0.589 0.019 0.94 255 255 255
0.594 -0.551 1.077 255 255 255
0.555 0.279 1.099 255 255 255
0.116 -0.402 1.797 255 255 255
0.544 -0.235 1.193 255 255 255
0.437 0.512 1.339 255 255 255
0.349 0.115 1.447 255 255 255
-0.813 -1.556 2.162 255 255 255
-0.208 -0.388 1.869 255 255 255
-0.237 0.545 1.826 255 255 255
0.473 -0.132 1.174 255 255 255
-0.771 -1.539 2.196 255 255 255
0.393 0.121 1.365 255 255 255
-0.791 0.322 2.308 255 255 255
-0.972 -1.453 2.1 255 255 255
-0.3 0.363 2.086 255 255 255
0.529 0.236 1.139 255 255 255
-0.837 -0.032 2.665 255 255 255
0.246 0.397 1.706 255 255 255
0.401 -0.18 1.288 0 0 0
0.28 0.676 1.53 0 0 0
-0.499 0.355 2.203 255 255 255
-0.469 0.684 1.3 255 255 255
-0.18 -0.422 1.883 255 255 255
-1.095 -0.666 2.301 255 255 255
-0.801 0.523 1.753 255 255 255
0.148 0.646 1.612 255 255 255
0.027 -0.61 1.934 255 255 255
0.224 -0.818 1.716 255 255 255
-0.304 -0.196 1.884 255 255 255
0.173 0.236 1.806 255 255 255
0.08 -0.145 1.923 255 255 255
-0.269 -0.401 1.833 255 255 255
0.56 0.048 1.052 255 255 255
0.504 0.022 1.15 255 255 255
-0.279 0.069 2.016 255 255 255
-0.451 0.677 1.325 255 255 255
0.046 -0.545 1.912 255 255 255
0 0.57 1.839 255 255 255
-0.318 0.528 1.856 255 255 255
-0.693 0.587 1.559 255 255 255
0.117 -0.659 1.773 0 0 0
0.112 -0.854 1.744 0 0 0
0.207 -0.839 1.691 0 0 0
0.063 0.569 1.823 255 255 255
-0.049 0.648 1.549 255 255 255
-0.189 -0.571 1.83 255 255 255
0.635 -0.002 0.912 255 255 255
0.623 0.071 0.945 255 255 255
0.247 -0.434 1.844 255 255 255
-0.586 -1.713 2.243 255 255 255
-0.252 0.058 2.027 255 255 255
0.116 -0.366 1.801 255 255 255
-0.881 0.28 2.22 255 255 255
-0.573 -1.001 2.275 0 0 0
-0.29 0.199 2.061 255 255 255
0.079 0.184 2.001 255 255 255
0.448 0.323 1.299 255 255 255
0.609 -0.056 0.938 255 255 255
-0.406 0.591 1.615 255 255 255
-1.035 -1.509 2.047 0 0 0
0.023 0.54 1.933 255 255 255
0.314 -0.526 1.842 255 255 255
-0.187 0.005 2.04 255 255 255
0.106 -1.041 1.715 255 255 255
-0.777 0.234 2.351 255 255 255
0.363 -0.042 1.396 255 255 255
0.023 -0.523 1.952 255 255 255
-0.842 0.443 1.949 255 255 255
0.228 -0.772 1.734 255 255 255
0.085 0.509 2.004 255 255 255
0.184 0.043 1.744 255 255 255
0.38 0.439 1.456 255 255 255
0.48 -0.081 1.175 255 255 255
-0.534 0.048 0.854 255 255 255
-0.898 -0.35 2.522 255 255 255
0.095 -0.958 1.749 255 255 255
-1.292 -0.402 2.289 255 255 255
-1.097 0.033 2.512 255 255 255
-0.866 -0.787 2.394 255 255 255
-1.011 -0.471 2.417 255 255 255
-0.61 -0.158 2.527 255 255 255
-0.889 -0.754 2.389 255 255 255
-0.546 0.505 1.781 255 255 255
0.327 -0.217 1.423 0 0 0
-0.191 0.217 2.121 255 255 255
0.087 -0.332 1.884 255 255 255
0.394 0.357 1.405 255 255 255
-0.691 0.584 1.574 255 255 255
0.003 -0.953 1.81 0 0 0
0.382 0.383 1.436 255 255 255
0.21 0.667 1.552 255 255 255
0.268 -1.152 1.615 255 255 255
0.199 -0.05 1.692 255 255 255
-0.135 0.393 2.026 255 255 255
-0.984 -0.982 2.258 255 255 255
-0.676 0.413 2.039 255 255 255
-0.236 -0.68 1.759 255 255 255
-0.105 -0.454 1.902 255 255 255
0.047 -0.819 1.858 255 255 255
-0.116 0.017 2.078 255 255 255
0.592 -0.162 1.093 0 0 0
0.189 0.021 1.726 255 255 255
0.329 -0.241 1.328 0 0 0
-0.798 -0.603 2.494 255 255 255
-1.016 0.293 2.125 255 255 255
0.307 -0.47 1.855 255 255 255
0.086 -0.604 1.837 0 0 0
-0.183 -0.738 1.774 255 255 255
0.551 0.021 1.061 255 255 255
0.5 -0.562 1.992 255 255 255
0.024 -1.325 1.796 0 0 0
0.238 0.024 1.633 255 255 255
-0.151 -0.938 1.726 255 255 255
0.292 0.072 1.544 255 255 255
0.319 0.495 1.588 255 255 255
-1.134 -0.625 2.293 255 255 255
-0.887 -0.696 2.411 255 255 255
0.431 0.03 1.285 255 255 255
0.117 -0.593 1.778 0 0 0
-1.07 -0.444 2.396 255 255 255
0.328 -0.099 1.447 255 255 255
-1.334 -0.456 2.258 0 0 0
0.418 0.019 1.305 255 255 255
0.532 -0.097 1.079 255 255 255
0.241 -0.423 1.828 255 255 255
0.307 0.028 1.509 255 255 255
-0.364 0.443 1.912 255 255 255
-0.885 -0.745 2.396 255 255 255
0.109 -0.372 1.811 255 255 255
0.05 -0.784 1.86 255 255 255
0.393 0.235 1.387 255 255 255
-1.022 -1.548 2.04 255 255 255
0.444 -0.028 1.249 255 255 255
0.538 0.073 1.092 255 255 255
-0.526 -0.387 2.413 255 255 255
0.242 -0.041 1.613 255 255 255
-1.046 -0.115 2.515 255 255 255
0.494 0.338 1.222 255 255 255
0.45 -0.127 1.223 255 255 255
-0.181 0.687 1.372 255 255 255
-1.24 -0.636 2.234 255 255 255
-0.832 0.456 1.934 255 255 255
-0.634 0.525 1.789 255 255 255
-0.434 0.41 1.98 255 255 255
-0.197 -0.805 1.744 255 255 255
-0.819 -1.385 2.22 255 255 255
-0.088 0.473 1.787 255 255 255
0.187 -0.484 1.801 0 0 0
0.502 0.132 1.171 255 255 255
-0.765 -0.352 2.603 255 255 255
-0.934 -1.002 2.281 255 255 255
0.008 0.407 2.125 255 255 255
-0.439 -0.517 2.161 255 255 255
0.452 -0.283 1.405 255 255 255
-0.911 -0.516 2.459 255 255 255
-0.276 -0.713 1.715 255 255 255
0.458 0.104 1.247 255 255 255
-0.84 0.179 2.311 255 255 255
-0.666 -1.075 2.407 255 255 255
-0.698 0.391 2.08 255 255 255
-1.212 -0.529 2.278 255 255 255
-0.569 -0.76 2.365 255 255 255
-0.286 0.671 1.391 255 255 255
-0.959 -1.132 2.219 255 255 255
0.218 0.575 1.761 255 255 255
-0.273 -0.112 1.943 255 255 255
0.353 0.265 1.466 255 255 255
-0.076 -0.861 1.777 255 255 255
-1.191 -0.666 2.249 255 255 255
0.186 0.62 1.69 255 255 255
-0.127 -0.516 1.878 255 255 255
0.399 0.149 1.363 255 255 255
0.1 0.129 1.943 255 255 255
0.556 -0.02 1.049 255 255 255
0.392 0.211 1.384 255 255 255
-0.218 -0.11 1.979 255 255 255
-0.887 -1.543 2.122 0 0 0
0.469 0.087 1.224 255 255 255
0.402 0.188 1.359 255 255 255
-0.386 0.302 2.094 255 255 255
0.232 0.623 1.686 255 255 255
-0.822 -0.354 2.567 255 255 255
-0.427 -1.126 2.324 255 255 255
-0.342 0.146 2 255 255 255
0.057 0.377 2.057 255 255 255
-0.733 -1.381 2.265 255 255 255
0.104 0.552 1.901 255 255 255
-0.917 -1.299 2.196 255 255 255
0.136 0.53 1.909 255 255 255
-0.413 0.527 1.757 255 255 255
-0.491 0.215 2.406 255 255 255
0.393 0.436 1.433 255 255 255
0.492 0.306 1.216 255 255 255
0.575 0.246 1.062 255 255 255
-0.646 0.547 1.712 255 255 255
0.134 0.677 1.512 255 255 255
0.282 0.329 1.613 255 255 255
-0.207 -0.547 1.83 255 255 255
0.228 0.04 1.657 255 255 255
-0.177 -0.345 1.911 255 255 255
-0.311 0.664 1.41 255 255 255
0.134 -0.842 1.693 0 0 0
-0.411 0.692 1.287 255 255 255
0.465 0.3 1.267 255 255 255
-0.3 0.69 1.33 255 255 255
-0.176 -0.869 1.735 255 255 255
-0.356 -1.66 2.381 255 255 255
0.397 -0.081 1.328 255 255 255
-0.96 -1.244 2.183 255 255 255
0.418 0.145 1.328 255 255 255
-0.741 -0.258 2.645 255 255 255
0.272 -0.021 1.562 255 255 255
-0.402 0.347 2.107 255 255 255
0.329 0.348 1.528 255 255 255
-1.306 -0.636 2.191 255 255 255
0.208 -0.922 1.668 0 0 0
-0.904 0.175 2.383 255 255 255
0.469 0.298 1.256 255 255 255
0.364 0.54 1.506 255 255 255
0.651 -0.13 0.998 0 0 0
0.372 0.168 1.413 255 255 255
-0.547 0.313 2.122 255 255 255
-0.723 -1.262 2.311 255 255 255
-1.008 -1.495 2.074 0 0 0
-0.733 -1.143 2.348 255 255 255
0.443 0.371 1.321 255 255 255
0.218 -0.029 1.659 255 255 255
-1.258 -0.61 2.228 255 255 255
-0.016 -0.885 1.8 255 255 255
-1.154 -0.523 2.317 255 255 255
-1.259 -0.47 2.275 255 255 255
0.145 -0.59 1.757 255 255 255
-0.733 -0.679 2.506 255 255 255
0.401 0.143 1.36 255 255 255
0.224 0.284 1.716 255 255 255
-0.162 -0.192 1.974 255 255 255
-1.059 0.054 2.493 255 255 255
-0.475 0.283 2.32 255 255 255
0.555 0.133 1.073 255 255 255
0.461 -0.072 1.21 255 255 255
0.276 -0.413 1.814 255 255 255
-0.651 0.469 1.925 0 0 0
-0.49 0.451 1.913 255 255 255
0.545 0.299 1.121 255 255 255
0.247 0.221 1.659 255 255 255
-0.301 -0.326 1.832 255 255 255
0.564 -0.083 1.007 255 255 255
-0.162 -0.048 2.03 255 255 255
-1.175 -0.546 2.296 255 255 255
-1.186 -0.927 2.164 255 255 255
-0.891 -0.196 2.578 255 255 255
0.302 -0.158 1.482 255 255 255
-0.911 0.419 2.058 255 255 255
0.387 0.242 1.397 255 255 255
-0.919 -1.622 2.061 255 255 255
-0.419 0.529 1.748 255 255 255
0.057 0.235 2.056 255 255 255
-0.216 -0.269 1.918 255 255 255
-0.298 0.639 1.484 255 255 255
-0.855 -1.259 2.24 255 255 255
-0.295 -0.05 1.959 255 255 255
-0.273 0.592 1.679 255 255 255
-0.764 -0.968 2.393 255 255 255
0.125 0.223 0.423 255 255 255
-0.631 0.556 1.68 255 255 255
-0.591 -1.479 2.316 255 255 255
0.281 -0.067 1.54 255 255 255
0.594 -0.514 1.09 255 255 255
-0.221 -0.223 1.93 255 255 255
-0.673 0.474 1.939 255 255 255
-0.547 -0.853 2.315 255 255 255
0.382 0.395 1.437 255 255 255
0.207 0.272 1.75 255 255 255
0.372 0.397 1.459 255 255 255
-0.821 0.491 1.847 0 0 0
0.016 0.191 2.119 255 255 255
0.164 -1.085 1.603 255 255 255
-0.397 -1.625 2.368 255 255 255
0.534 0.278 1.133 255 255 255
0.117 -0.588 1.777 0 0 0
0.233 0.677 1.521 0 0 0
0.088 -0.994 1.755 255 255 255
0.144 -0.733 1.707 255 255 255
0.012 -0.498 1.983 255 255 255
-0.161 -0.257 1.952 255 255 255
-0.674 -0.034 1.1 255 255 255
-0.17 -1.105 1.669 255 255 255
-0.876 -0.558 2.465 255 255 255
-0.08 -0.736 1.816 255 255 255
0.555 -0.341 1.149 255 255 255
0.149 0.081 1.824 255 255 255
0.415 0.276 1.353 255 255 255
-0.325 0.662 1.405 255 255 255
0.094 -0.56 1.837 0 0 0
-0.832 0.544 1.675 255 255 255
0.228 0.69 1.485 255 255 255
-1.097 -0.486 2.36 255 255 255
-0.767 -1.13 2.339 255 255 255
0.224 -0.703 1.755 255 255 255
0.181 -0.099 1.717 255 255 255
0.058 -0.751 1.852 255 255 255
0.625 0.039 0.934 255 255 255
-1.305 -0.831 2.104 255 255 255
0.209 -1.071 1.622 255 255 255
-0.246 -0.784 1.721 255 255 255
0.574 0.249 1.064 255 255 255
-0.956 -0.989 2.27 255 255 255
0.542 -0.05 1.069 255 255 255
-0.499 0.226 2.42 255 255 255
-0.293 0.495 2.019 255 255 255
-0.614 -0.518 2.425 255 255 255
-1.069 0.301 2.103 255 255 255
-0.964 -1.585 2.064 255 255 255
-0.498 -1.548 2.343 255 255 255
0.284 -0.143 1.52 255 255 255
-1.119 -0.834 2.23 255 255 255
0.544 0.052 1.082 255 255 255
0.566 -0.538 1.09 255 255 255
0.137 -0.656 1.733 255 255 255
-0.303 0.49 1.947 255 255 255
-0.854 -1.561 2.129 0 0 0
-0.746 0.468 1.934 255 255 255
-0.441 0.445 1.913 255 255 255
0.363 0.458 1.491 255 255 255
-0.206 -0.586 1.814 255 255 255
-0.351 0.013 1.961 255 255 255
-1.249 -0.077 2.423 255 255 255
0.394 0.21 1.38 255 255 255
0.342 -0.534 1.911 255 255 255
-0.889 -0.948 2.326 255 255 255
0.539 -0.099 1.049 255 255 255
0.019 -0.375 1.988 255 255 255
0.551 0.315 1.114 255 255 255
-0.45 -0.111 2.231 255 255 255
-0.714 -0.037 0.953 255 255 255
-0.681 0.304 2.096 255 255 255
-0.133 -1.511 2.036 0 0 0
-0.387 -0.625 2.154 255 255 255
-1.106 -0.486 2.356 255 255 255
0.008 -0.951 1.86 0 0 0
0.114 -0.206 1.847 255 255 255
0.485 0.194 1.212 255 255 255
-0.301 0.462 2.082 0 0 0
0.233 -0.151 1.613 255 255 255
0.277 0.576 1.666 255 255 255
0.572 0.305 1.073 255 255 255
-1.016 0.188 2.469 255 255 255
-1.036 -1.516 2.047 0 0 0
-0.742 -0.699 2.495 255 255 255
0.291 -0.036 1.524 255 255 255
0.104 0.651 1.6 255 255 255
-0.872 0.512 1.768 255 255 255
0.5 -0.033 1.147 255 255 255
0.111 -0.11 1.863 255 255 255
-0.705 -1.304 2.312 255 255 255
-0.373 0.382 2.04 255 255 255
0.557 0.003 1.051 255 255 255
-0.298 0.652 1.447 255 255 255
0.217 0.673 1.531 0 0 0
-0.691 -1.125 2.382 255 255 255
-0.274 0.677 1.376 255 255 255
-0.471 0.49 1.781 255 255 255
0.612 -0.008 0.948 255 255 255
0.154 -0.465 1.804 255 255 255
-0.923 0.081 2.574 255 255 255
-0.664 -0.025 0.941 255 255 255
-0.103 -0.267 1.973 255 255 255
-0.06 0.359 2.123 255 255 255
-0.618 0.001 0.919 255 255 255
-0.17 -0.658 1.814 255 255 255
-0.515 0.391 2.022 0 0 0
-0.043 -0.81 1.809 0 0 0
-0.955 -0.852 2.319 255 255 255
-0.72 -0.42 2.596 255 255 255
0.251 -0.127 1.585 255 255 255
-0.141 -0.669 1.823 255 255 255
-0.921 -1.616 2.052 255 255 255
0.501 0.155 1.175 255 255 255
-0.043 -0.666 1.852 255 255 255
0.16 0.201 0.461 255 255 255
-0.956 -1.065 2.248 255 255 255
-1.291 -0.343 2.304 255 255 255
0.349 0.651 1.212 255 255 255
-0.491 0.261 2.378 255 255 255
0.094 -0.244 1.883 255 255 255
-0.117 0.601 1.706 255 255 255
0.35 -0.048 1.417 255 255 255
-0.157 -0.514 1.87 255 255 255
0.167 -1.053 1.611 255 255 255
-0.04 0.083 2.183 255 255 255
-0.144 -0.658 1.826 255 255 255
-0.339 0.864 2.047 255 255 255
0.216 -0.216 1.632 255 255 255
-0.663 0.58 1.591 255 255 255
-0.901 0.425 2.046 255 255 255
-0.391 -0.443 2.182 255 255 255
-0.17 -0.581 1.836 255 255 255
0.243 -0.577 1.782 255 255 255
-0.158 0.579 1.776 255 255 255
0.475 -0.155 1.131 0 0 0
-1.139 -0.406 1.684 255 255 255
-0.164 -0.517 1.864 255 255 255
0.612 -0.089 0.861 255 255 255
0.57 0.186 1.059 255 255 255
-0.467 -0.781 2.413 255 255 255
-0.849 -1.445 2.185 255 255 255
-0.732 -0.404 2.598 255 255 255
-0.622 -0.289 2.503 255 255 255
-1.289 -0.378 2.297 255 255 255
0.153 -1.109 1.604 255 255 255
0.493 0.05 1.175 255 255 255
-1.313 -0.841 2.083 255 255 255
0.492 -0.038 1.16 255 255 255
-0.101 0.085 2.104 255 255 255
0.123 0.125 1.884 255 255 255
0.563 0.293 1.091 255 255 255
0.421 0.117 1.32 255 255 255
-0.215 -0.283 1.91 255 255 255
-0.844 0.483 1.86 255 255 255
0.59 0.257 1.04 255 255 255
0.604 0.086 0.979 255 255 255
0.53 0.212 1.133 255 255 255
0.17 -0.1 1.742 255 255 255
0.487 -0.048 1.166 255 255 255
0.477 -0.088 1.18 255 255 255
-0.932 -1.628 2.046 255 255 255
0.222 0.436 1.765 255 255 255
0.372 0.074 1.396 255 255 255
-0.059 0.449 1.812 255 255 255
0.507 -0.05 1.131 255 255 255
-0.502 -1.497 2.358 255 255 255
0.645 0.06 0.922 255 255 255
-0.722 -0.069 1.095 255 255 255
0.016 0.199 2.118 255 255 255
-0.303 0.337 2.082 255 255 255
-0.499 -0.762 2.399 255 255 255
-0.943 -0.696 2.379 255 255 255
