ply
format ascii 1.0
comment Created by Open3D
element vertex 1586
property double x
property double y
property double z
property uchar red
property uchar green
property uchar blue
end_header
-0.393 0.027 1.269 255 255 255
0.322 0.185 2.032 255 255 255
-0.189 1.005 1.834 255 255 255
-0.76 -0.382 1.888 255 255 255
-0.097 0.122 0.246 255 255 255
0.348 0.619 1.264 255 255 255
0.594 -0.431 2.006 255 255 255
0.385 0.328 2.046 255 255 255
0.225 -1.011 1.921 255 255 255
-0.73 -0.971 1.813 255 255 255
0.33 0.592 1.222 255 255 255
1.498 -0.107 2.161 255 255 255
0.895 -0.303 2.084 255 255 255
-0.431 0.019 1.265 255 255 255
0.287 -0.454 1.96 0 0 0
0.778 -1.255 1.954 255 255 255
-0.392 -0.52 1.213 255 255 255
-0.078 0.876 2.048 255 255 255
0.776 -1.496 1.938 255 255 255
1.19 -0.582 2.088 255 255 255
0.25 -1.01 1.926 255 255 255
0.299 -0.211 1.989 255 255 255
0.979 -1.182 1.977 255 255 255
0.924 -0.951 2.037 255 255 255
0.394 -0.809 1.958 255 255 255
-0.072 0.775 2.034 255 255 255
1.423 0.109 2.172 255 255 255
-0.851 -0.285 1.29 255 255 255
-0.537 -1.851 2.723 255 255 255
-0.831 0.07 1.934 255 255 255
0.402 -0.312 2.003 255 255 255
-0.865 -0.213 1.407 255 255 255
-0.864 -0.163 1.378 255 255 255
-0.391 -0.715 1.205 255 255 255
-0.857 0.05 1.204 255 255 255
0.5 -0.716 1.974 255 255 255
0.341 0.466 1.133 255 255 255
0.231 -0.178 1.991 255 255 255
0.609 0.178 2.053 255 255 255
0.669 -0.175 2.03 255 255 255
0.625 -0.57 1.999 255 255 255
0.459 -0.614 1.969 255 255 255
0.339 0.013 2.016 255 255 255
-0.017 -0.897 1.921 255 255 255
0.487 0.146 2.039 255 255 255
-0.853 -0.608 1.857 255 255 255
0.394 -0.532 1.977 0 0 0
0.544 -0.049 2.029 255 255 255
-0.31 0.871 2.58 255 255 255
0.809 -0.826 2.006 255 255 255
1.123 -1.084 1.998 255 255 255
0.503 -0.544 1.99 255 255 255
0.685 -0.403 2.015 255 255 255
0.873 -1.183 1.969 255 255 255
1.097 0.07 2.132 255 255 255
0.835 -1.036 1.986 255 255 255
-0.889 -0.846 1.814 255 255 255
0.495 -0.114 2.019 255 255 255
0.666 -1.461 1.932 0 0 0
-0.734 -0.862 1.82 255 255 255
1.048 0.166 2.136 255 255 255
-0.901 0.568 1.944 255 255 255
-0.471 -0.396 1.335 255 255 255
-0.879 -0.877 1.677 255 255 255
0.947 -0.837 2.049 255 255 255
-0.339 0.954 2.118 0 0 0
-0.945 0.317 1.816 255 255 255
0.143 -1.141 1.904 255 255 255
0.629 0.278 2.038 255 255 255
0.023 -0.391 1.948 255 255 255
0.612 -0.07 2.037 255 255 255
0.244 0.713 2.07 255 255 255
0.528 0.448 2.07 255 255 255
-0.821 -1.165 1.814 255 255 255
1.228 0.44 2.181 255 255 255
0.264 -0.731 1.948 0 0 0
-0.731 -1.857 2.79 255 255 255
0.565 -0.664 1.984 255 255 255
0.016 0.327 2.011 255 255 255
-0.325 -1.837 2.748 255 255 255
-0.095 0.127 0.24 255 255 255
-0.897 0.268 1.924 255 255 255
0.169 0.194 2.017 255 255 255
0.579 0.089 2.045 255 255 255
0.401 0.216 1.206 0 0 0
-0.879 -0.977 1.704 255 255 255
-0.713 -1.191 1.771 255 255 255
0.498 0.29 2.054 255 255 255
0.383 0.257 1.306 255 255 255
0.465 0.412 1.013 255 255 255
0.542 -1.405 1.921 0 0 0
0.868 -0.417 2.075 255 255 255
-0.922 -0.2 1.783 255 255 255
0.755 -0.118 2.044 255 255 255
0.231 -0.166 1.992 255 255 255
1.329 -0.496 2.114 255 255 255
-0.904 -0.505 1.857 255 255 255
-0.42 0.379 1.291 255 255 255
-0.091 0.128 0.241 255 255 255
0.405 -1.161 1.931 255 255 255
-0.848 -0.591 1.86 255 255 255
-0.866 -0.11 1.379 255 255 255
0.411 0.479 1.008 255 255 255
1.491 -0.156 2.158 255 255 255
0.268 -0.019 2.009 255 255 255
0.594 -0.082 2.034 255 255 255
0.39 -0.957 1.942 255 255 255
-0.04 -0.015 1.971 255 255 255
-0.379 0.884 2.415 0 0 0
0.398 0.403 1.02 255 255 255
0.128 0.222 2.015 255 255 255
-0.802 -1.061 1.827 255 255 255
0.863 0.179 2.123 255 255 255
1.02 -1.284 1.973 255 255 255
1.225 0.186 2.157 255 255 255
0.558 -0.442 2.002 255 255 255
1.317 -0.809 2.08 255 255 255
0.554 -0.624 1.984 255 255 255
0.292 -1.326 1.902 255 255 255
0.319 -1.013 1.934 255 255 255
0.839 -1.446 1.95 0 0 0
-0.404 -0.356 1.225 255 255 255
0.543 -0.86 1.969 255 255 255
1.276 0.398 2.178 255 255 255
-0.86 -0.068 1.271 255 255 255
0.572 0.131 2.049 255 255 255
0.507 0.05 2.035 255 255 255
0.167 -0.461 1.965 255 255 255
-0.727 -1.034 1.833 255 255 255
1.203 0.062 2.143 255 255 255
0.754 -0.317 2.027 255 255 255
0.674 -0.175 2.03 255 255 255
1.095 -0.414 2.09 255 255 255
0.02 -1.141 1.882 255 255 255
0.831 -1.137 1.966 255 255 255
-0.296 0.8 2.895 255 255 255
0.369 0.358 1.099 255 255 255
-0.394 -0.272 1.235 255 255 255
0.462 0.717 2.085 255 255 255
-0.563 -1.851 2.807 255 255 255
0.533 -0.763 1.974 255 255 255
-0.843 -0.275 1.206 255 255 255
0.693 -1.086 1.963 255 255 255
0.412 1.026 1.895 255 255 255
-0.262 0.953 2.206 255 255 255
0.408 0.249 1.151 255 255 255
0.372 0.5 1.098 255 255 255
0.739 0.048 2.053 255 255 255
-0.889 -0.788 1.831 255 255 255
-0.097 0.131 0.241 255 255 255
-0.869 -0.614 1.86 255 255 255
0.53 -0.894 1.962 255 255 255
0.384 0.217 1.276 0 0 0
-0.293 0.859 2.906 255 255 255
0.275 0.818 2.083 255 255 255
-0.89 -0.671 1.695 255 255 255
-0.255 0.899 2.337 255 255 255
-0.232 0.95 2.291 255 255 255
-0.791 -0.175 1.898 255 255 255
0.592 -1.378 1.925 255 255 255
0.142 -1.117 1.908 255 255 255
0.822 -1.18 1.967 255 255 255
0.811 -1.178 1.966 255 255 255
0.389 0.285 1.105 255 255 255
-0.611 0.937 2.087 0 0 0
1.275 0.049 2.15 255 255 255
-0.26 0.954 2.185 255 255 255
-0.853 -0.516 1.865 255 255 255
0.447 -1.314 1.924 255 255 255
0.445 0.285 1.092 255 255 255
0.55 0.231 1.162 0 0 0
-0.946 0.372 1.906 255 255 255
-0.709 -1.222 1.771 255 255 255
1.312 -0.645 2.098 255 255 255
0.371 0.594 2.07 255 255 255
-0.217 -1.829 2.73 255 255 255
-0.473 -0.206 1.343 255 255 255
0.226 -0.246 1.984 255 255 255
-0.876 0.13 1.369 255 255 255
-0.386 -0.679 1.201 255 255 255
1.544 0.091 2.18 255 255 255
0.644 -0.045 2.039 255 255 255
1.37 0.04 2.159 255 255 255
0.003 0.06 1.985 255 255 255
0.559 -0.633 1.985 255 255 255
1.305 0.001 2.15 255 255 255
-0.301 0.887 2.543 0 0 0
0.327 0.037 2.018 255 255 255
-0.762 -1.236 1.832 255 255 255
0.553 0.055 2.044 255 255 255
1.068 -1.291 1.98 255 255 255
-0.093 0.118 0.249 255 255 255
-0.906 0.244 1.926 255 255 255
0.02 -1.112 1.886 255 255 255
0.679 -1.264 1.944 255 255 255
-0.894 -0.173 1.895 255 255 255
0.425 -0.56 1.98 0 0 0
0.144 1.022 1.894 255 255 255
-0.044 -0.326 1.962 255 255 255
0.211 -1.288 1.902 255 255 255
0.125 -0.806 1.931 255 255 255
0.541 -0.412 2.005 255 255 255
0.489 0.643 2.081 255 255 255
-0.854 0.48 1.96 255 255 255
-0.064 -0.059 1.994 255 255 255
0.579 -0.777 1.977 255 255 255
0.402 0.302 1.075 255 255 255
0.158 -0.428 1.964 255 255 255
0.163 -0.847 1.928 255 255 255
-0.953 0.481 1.836 255 255 255
0.404 -0.951 1.947 255 255 255
0.487 0.205 1.129 255 255 255
0.351 0.453 1.126 255 255 255
-0.396 0.04 1.268 255 255 255
0.422 0.351 1.046 255 255 255
-0.646 0.905 2.623 255 255 255
-0.399 -0.39 1.222 255 255 255
0.192 -0.585 1.958 255 255 255
0.52 -0.67 1.98 255 255 255
0.287 0.325 2.037 255 255 255
-0.83 -0.148 1.906 0 0 0
-0.397 -0.544 1.214 255 255 255
-0.863 -0.895 1.839 255 255 255
-0.877 0.026 1.424 255 255 255
-0.949 0.397 1.832 255 255 255
0.011 0.152 1.994 255 255 255
-0.747 -1.411 1.825 255 255 255
-0.036 -0.449 1.951 255 255 255
0.224 -1.278 1.903 255 255 255
-0.187 -1.838 2.869 255 255 255
0.446 -0.654 1.957 255 255 255
-0.88 -0.975 1.718 255 255 255
1.389 -0.467 2.117 255 255 255
-0.368 -0.792 1.197 255 255 255
-0.379 -0.51 1.22 255 255 255
0.39 0.267 1.157 255 255 255
-0.397 -0.464 1.217 255 255 255
0.537 0.369 2.063 255 255 255
0.641 -0.245 2.022 255 255 255
-0.846 -0.183 1.164 255 255 255
-0.04 -0.369 1.956 255 255 255
-0.759 0.863 2.932 255 255 255
0.202 0.447 2.039 255 255 255
0.02 0.373 2.016 255 255 255
0.065 0.404 2.022 255 255 255
1.016 -0.969 2.014 255 255 255
0.003 -0.445 1.935 255 255 255
-0.92 -0.278 1.816 255 255 255
-0.77 -0.003 1.875 255 255 255
-0.903 0.039 1.608 255 255 255
-0.834 -0.426 1.879 255 255 255
-0.322 0.946 2.274 255 255 255
0.311 -0.899 1.939 255 255 255
-0.289 -1.829 2.775 255 255 255
-0.943 0.401 1.926 255 255 255
0.904 -0.039 2.107 255 255 255
0.347 1.007 2.067 255 255 255
-0.87 -1.133 1.733 255 255 255
0.465 0.432 1.006 255 255 255
0.384 -0.1 2.01 255 255 255
0.307 0.969 2.087 255 255 255
-0.022 0.853 2.052 255 255 255
-0.872 -1.112 1.712 255 255 255
-0.396 -0.169 1.246 255 255 255
0.758 -0.484 2.015 255 255 255
0.076 0.337 2.017 255 255 255
-0.594 0.931 2.212 255 255 255
-0.842 -0.385 1.253 255 255 255
0.171 -0.853 1.931 255 255 255
0.253 -0.658 1.941 0 0 0
0.399 -1.123 1.931 255 255 255
0.347 0.551 2.064 255 255 255
-0.496 0.957 1.982 255 255 255
0.287 -0.199 1.99 255 255 255
0.072 -0.803 1.925 255 255 255
0.358 0.476 1.128 255 255 255
0.993 -0.774 2.054 255 255 255
0.607 0.233 2.057 255 255 255
0.162 -0.237 1.982 255 255 255
0.08 -1.172 1.897 255 255 255
0.696 -1.278 1.945 255 255 255
0.495 -0.405 1.996 255 255 255
1.031 -0.094 2.115 255 255 255
0.105 0.976 2.062 255 255 255
0.291 0.585 1.195 255 255 255
1.105 -0.485 2.089 255 255 255
0.372 0.711 2.079 255 255 255
0.334 0.519 1.191 255 255 255
1.355 -0.272 2.133 255 255 255
0.277 -0.485 1.971 255 255 255
0.446 0.178 1.178 0 0 0
-0.916 -0.325 1.841 255 255 255
0.158 0.587 2.047 255 255 255
-0.777 -0.106 1.888 255 255 255
1.021 -0.224 2.1 255 255 255
0.491 -1.082 1.945 255 255 255
0.313 -0.047 2.009 255 255 255
-0.08 0.132 0.25 255 255 255
1.272 -0.38 2.112 255 255 255
0.471 1.028 1.889 255 255 255
0.139 0.462 2.035 255 255 255
-0.272 -1.808 2.43 255 255 255
0.382 0.32 1.094 255 255 255
-0.817 -0.341 1.892 0 0 0
0.982 -0.759 2.056 255 255 255
-0.216 0.913 2.462 0 0 0
-0.005 0.966 2.052 0 0 0
-0.498 0.543 1.385 255 255 255
-0.894 -0.67 1.742 255 255 255
0.543 0.217 1.161 0 0 0
1.127 -0.459 2.095 255 255 255
0.455 -0.251 2.004 255 255 255
-0.391 -0.043 1.262 255 255 255
-0.548 -1.83 2.562 255 255 255
0.143 -0.501 1.959 255 255 255
0.413 -1.295 1.917 255 255 255
-0.786 -0.361 1.901 255 255 255
-0.801 -0.962 1.836 255 255 255
0.428 0.744 2.085 255 255 255
0.134 -0.335 1.969 255 255 255
0.415 0.459 1.012 255 255 255
-0.866 -0.532 1.495 255 255 255
-0.908 -0.173 1.895 255 255 255
-0.109 0.839 2.075 255 255 255
-0.511 0.329 1.392 255 255 255
1.011 -0.309 2.093 255 255 255
0.575 -0.709 1.981 255 255 255
1.333 -0.289 2.126 255 255 255
-0.432 0.608 1.371 0 0 0
1.348 -0.381 2.12 255 255 255
-0.881 0.151 1.4 255 255 255
0.937 -0.613 2.065 255 255 255
-0.809 -0.529 1.877 0 0 0
0.308 -0.215 1.992 255 255 255
1.284 -0.78 2.082 255 255 255
-0.076 0.134 0.251 255 255 255
0.095 0.088 2.002 255 255 255
-0.381 -0.043 1.258 255 255 255
0.409 -0.129 2.012 255 255 255
0.691 -0.48 2.01 255 255 255
-0.083 0.135 0.246 255 255 255
0.936 0.177 2.13 255 255 255
0.249 -0.53 1.969 255 255 255
0.142 0.799 2.069 255 255 255
0.987 -1.014 2.007 255 255 255
-0.84 -0.285 1.163 255 255 255
-0.828 -1.297 1.804 255 255 255
0.048 0.291 2.012 255 255 255
0.46 0.331 2.055 255 255 255
-0.438 0.574 1.303 0 0 0
-0.861 0.049 1.23 255 255 255
-0.398 0.079 1.312 255 255 255
-0.86 0.051 1.224 255 255 255
-0.888 -0.07 1.537 255 255 255
-0.016 0.243 1.988 255 255 255
-0.87 -0.351 1.486 255 255 255
0.519 0.444 2.07 255 255 255
1.2 -0.273 2.117 255 255 255
-0.455 0.971 1.886 255 255 255
0.732 -1.344 1.941 255 255 255
0.811 -0.187 2.089 0 0 0
0.342 0.37 1.143 255 255 255
0.355 0.34 2.044 255 255 255
0.721 -0.903 1.977 255 255 255
-0.092 0.126 0.241 255 255 255
0.249 0.073 2.016 255 255 255
0.574 -0.297 2.014 255 255 255
-0.559 -1.851 2.819 255 255 255
-0.891 -0.339 1.884 255 255 255
0.031 -0.4 1.953 255 255 255
-0.87 -0.012 1.382 255 255 255
0.439 -0.162 2.012 255 255 255
0.404 0.801 2.089 255 255 255
0.454 -0.495 1.988 255 255 255
0.464 -1.069 1.945 255 255 255
0.565 -0.21 2.019 255 255 255
0.54 -1.435 1.921 0 0 0
0.438 -0.198 2.005 255 255 255
1.418 -0.328 2.13 255 255 255
0.191 -0.466 1.969 0 0 0
-0.435 -0.792 1.284 255 255 255
0.507 -1.425 1.921 0 0 0
0.327 0.591 2.066 255 255 255
-0.807 -1.43 1.792 255 255 255
1.189 -0.874 2.073 255 255 255
-0.895 -0.683 1.741 255 255 255
0.109 -1.163 1.899 255 255 255
-0.897 -0.591 1.846 255 255 255
-0.889 -0.767 1.694 255 255 255
0.289 0.525 2.054 255 255 255
0.317 -0.667 1.96 255 255 255
0.186 0.816 2.073 255 255 255
0.132 0.243 2.016 255 255 255
1.204 -0.046 2.135 255 255 255
-0.307 0.838 2.875 255 255 255
-0.689 -1.848 2.647 255 255 255
0.927 0.249 2.128 255 255 255
0.184 0.757 2.068 255 255 255
0.858 -0.916 2.032 255 255 255
1.074 0.359 2.152 255 255 255
-0.375 -0.156 1.249 255 255 255
0.163 0.402 2.03 255 255 255
0.543 -0.151 2.021 255 255 255
-0.388 -0.069 1.261 255 255 255
0.041 1.01 1.941 255 255 255
0.275 -0.663 1.953 0 0 0
-0.3 0.969 1.992 255 255 255
0.802 -0.315 2.067 255 255 255
0.128 -1.262 1.894 255 255 255
-0.933 0.081 1.856 255 255 255
0.64 -0.819 1.977 255 255 255
0.388 0.161 2.032 255 255 255
0.259 -0.423 1.971 255 255 255
0.617 0.287 1.176 255 255 255
-0.496 -1.848 2.836 255 255 255
0.643 -1.109 1.958 255 255 255
0.815 0.147 2.115 255 255 255
0.227 -0.087 1.998 255 255 255
0.12 -1.015 1.915 255 255 255
-0.879 -1.015 1.733 255 255 255
0.4 0.289 1.099 255 255 255
0.488 -0.95 1.953 255 255 255
0.73 -0.64 2 255 255 255
0.252 -0.749 1.948 0 0 0
-0.008 -0.221 1.95 255 255 255
0.402 0.186 1.282 0 0 0
0.427 -1.434 1.912 0 0 0
0.228 -0.777 1.943 255 255 255
0.316 -1.167 1.917 255 255 255
0.275 0.505 1.236 255 255 255
0.334 -0.096 2.006 255 255 255
-0.378 0.919 2.364 255 255 255
-0.554 0.924 2.352 255 255 255
0.487 -1.307 1.924 255 255 255
0.614 -0.24 2.019 255 255 255
0.339 0.405 1.132 255 255 255
-0.016 0.28 1.991 255 255 255
-0.089 -1.815 2.565 255 255 255
0.362 0.962 2.089 255 255 255
-0.206 -1.833 2.861 255 255 255
0.301 -1.102 1.923 255 255 255
0.42 0.315 1.081 255 255 255
0.384 0.683 2.078 255 255 255
-0.108 0.11 0.247 0 0 0
-0.408 -1.842 2.81 255 255 255
-0.169 -1.823 2.642 255 255 255
0.509 0.117 2.041 255 255 255
0.335 0.387 2.046 255 255 255
1.394 -0.419 2.122 255 255 255
-0.941 0.683 1.955 255 255 255
-0.326 0.933 2.347 255 255 255
1.204 -0.217 2.119 255 255 255
-0.379 -0.691 1.201 255 255 255
0.984 -0.012 2.117 255 255 255
0.316 0.482 1.186 255 255 255
-0.363 -0.581 1.242 0 0 0
-0.941 0.333 1.789 255 255 255
1.043 -0.067 2.119 255 255 255
1.058 0.231 2.142 255 255 255
0.442 0.215 1.128 255 255 255
-0.306 0.987 1.808 255 255 255
0.414 -0.356 1.996 255 255 255
0.88 -0.206 2.09 255 255 255
0.73 -0.729 1.993 255 255 255
-0.957 0.724 1.948 255 255 255
-0.704 0.897 2.698 255 255 255
0.414 0.179 1.268 0 0 0
0.116 -0.733 1.938 255 255 255
0.52 -1.036 1.951 255 255 255
0.595 1.032 1.826 255 255 255
0.386 -0.426 1.974 255 255 255
0.113 1.019 1.936 255 255 255
1.291 -0.368 2.116 255 255 255
0.118 -0.22 1.976 255 255 255
-0.851 -0.46 1.357 255 255 255
0.624 -0.111 2.032 255 255 255
0.111 0.097 2.003 255 255 255
0.675 0.196 2.06 255 255 255
-0.357 -0.643 1.223 0 0 0
0.142 0.595 2.047 255 255 255
-0.86 -0.145 1.324 255 255 255
-0.447 0.442 1.291 255 255 255
-0.253 0.975 1.957 255 255 255
1.27 0.357 2.172 255 255 255
0.328 0.288 2.037 255 255 255
0.65 -0.952 1.97 255 255 255
1.111 -1.082 1.997 255 255 255
1.24 -0.769 2.079 255 255 255
-0.083 0.518 2.02 255 255 255
0.472 -0.496 1.991 255 255 255
0.355 -1.311 1.915 255 255 255
-0.844 -0.437 1.262 255 255 255
0.314 -0.003 2.012 255 255 255
0.915 -1.19 1.969 255 255 255
0.623 -0.328 2.014 255 255 255
0.082 -0.16 1.976 255 255 255
0.463 0.418 2.06 255 255 255
-0.425 0.582 1.31 0 0 0
0.295 -0.651 1.954 0 0 0
0.364 0.367 1.123 255 255 255
0.36 0.395 1.047 255 255 255
1.519 -0.048 2.164 255 255 255
0.071 -0.374 1.962 255 255 255
0.641 0.009 2.044 255 255 255
1.173 -0.953 2.052 255 255 255
0.503 -0.719 1.971 0 0 0
-0.821 -0.844 1.842 255 255 255
-0.032 0.131 1.98 255 255 255
-0.847 -0.084 1.906 255 255 255
-0.048 0.167 1.984 255 255 255
0.308 -1.286 1.907 255 255 255
-0.747 -0.637 1.855 255 255 255
0.352 0.41 1.049 255 255 255
0.439 0.311 1.072 255 255 255
-0.912 0.431 1.937 255 255 255
0.369 0.383 1.047 255 255 255
0.267 0.643 2.064 255 255 255
0.055 0.037 1.994 255 255 255
-0.55 -1.822 2.429 255 255 255
0.422 0.838 2.057 255 255 255
0.139 0.44 2.031 255 255 255
0.643 0.204 2.059 255 255 255
1.347 -0.343 2.124 255 255 255
0.291 -0.953 1.935 255 255 255
0.979 -0.232 2.098 255 255 255
1.053 -0.514 2.088 255 255 255
0.176 -0.613 1.952 255 255 255
0.301 0.711 2.073 255 255 255
-0.419 -0.18 1.247 255 255 255
0.451 -0.524 1.986 255 255 255
-0.385 -0.271 1.243 255 255 255
0.43 0.408 1.012 255 255 255
0.525 -0.777 1.975 255 255 255
-0.874 -1.034 1.771 255 255 255
-0.422 0.544 1.309 255 255 255
0.13 -0.102 1.988 255 255 255
-0.685 0.91 2.527 255 255 255
-0.853 -0.007 1.911 255 255 255
0.577 0.357 2.064 255 255 255
0.008 -0.902 1.902 255 255 255
-0.674 0.904 2.597 255 255 255
-0.778 -1.016 1.843 255 255 255
-0.902 -0.488 1.733 255 255 255
0.417 0.095 2.032 255 255 255
0.911 -0.026 2.111 255 255 255
0.211 -0.977 1.922 255 255 255
0.289 0.64 1.277 255 255 255
0.145 0.546 2.042 255 255 255
-0.861 -0.659 1.501 255 255 255
0.354 -0.904 1.946 255 255 255
0.611 -0.678 1.988 255 255 255
0.051 -0.314 1.964 255 255 255
0.713 -0.345 2.024 255 255 255
0.375 -0.302 1.994 255 255 255
0.433 -0.568 1.976 255 255 255
0.578 -0.214 2.018 255 255 255
0.335 -0.971 1.937 255 255 255
0.305 -0.433 1.976 255 255 255
0.073 0.412 2.023 255 255 255
0.082 -0.406 1.958 255 255 255
-0.244 0.945 2.317 255 255 255
-0.403 0.113 1.272 255 255 255
0.446 -0.817 1.96 255 255 255
0.451 0.071 2.033 255 255 255
0.114 -0.331 1.967 255 255 255
0.266 0.955 2.082 0 0 0
-0.94 0.231 1.833 255 255 255
-0.727 -0.994 1.833 255 255 255
1.167 0.4 2.167 255 255 255
-0.37 -0.786 1.197 255 255 255
-0.482 -1.857 2.929 255 255 255
-0.541 0.95 2.024 255 255 255
-0.84 -0.479 1.873 255 255 255
-0.843 -1.245 1.815 255 255 255
0.517 0.196 1.142 0 0 0
-0.068 -0.138 1.99 255 255 255
0.834 -0.802 2.04 0 0 0
-0.598 0.894 2.783 255 255 255
-0.431 0.586 1.309 0 0 0
-0.777 -1.325 1.81 0 0 0
0.058 1.01 1.949 255 255 255
0.596 -0.839 1.976 255 255 255
0.091 -0.638 1.941 255 255 255
1.423 -0.357 2.126 255 255 255
0.319 0.058 2.02 255 255 255
-0.387 -0.121 1.256 255 255 255
0.897 -0.136 2.1 255 255 255
0.219 -0.965 1.925 255 255 255
1.451 0.08 2.168 255 255 255
-0.849 -0.231 1.253 255 255 255
1.352 -0.779 2.085 255 255 255
-0.844 -0.246 1.196 255 255 255
0.07 -0.397 1.957 255 255 255
0.515 0.25 1.126 255 255 255
0.775 -0.893 1.985 255 255 255
-0.623 0.925 2.274 255 255 255
0.488 -0.862 1.96 255 255 255
0.263 0.53 1.263 255 255 255
0.872 0.032 2.112 255 255 255
-0.884 -0.128 1.897 255 255 255
-0.021 0.667 2.037 255 255 255
0.902 -1.087 1.973 255 255 255
1.501 -0.535 2.113 255 255 255
-0.901 0.118 1.571 255 255 255
-0.895 -0.727 1.747 255 255 255
0.218 0.219 2.022 255 255 255
0.609 0.285 2.06 255 255 255
0.055 0.001 1.992 255 255 255
-0.446 0.389 1.289 255 255 255
0.271 -0.387 1.974 255 255 255
0.475 -0.757 1.968 255 255 255
0.415 0.342 1.069 255 255 255
0.325 -0.312 1.989 0 0 0
-0.064 0.992 1.983 255 255 255
-0.382 -0.766 1.196 255 255 255
0.471 -0.672 1.97 0 0 0
1.045 -0.836 2.058 255 255 255
-0.417 -0.115 1.246 255 255 255
-0.894 -0.607 1.856 255 255 255
0.831 -0.393 2.072 255 255 255
0.939 -1.364 1.963 255 255 255
0.271 0.493 2.05 255 255 255
0.207 -0.754 1.943 0 0 0
-0.093 0.126 0.241 255 255 255
-0.453 -0.776 1.308 255 255 255
-0.887 -0.29 1.57 255 255 255
0.656 -0.538 2.003 255 255 255
0.418 0.107 2.033 255 255 255
-0.956 0.612 1.927 255 255 255
1.322 -0.775 2.086 255 255 255
-0.395 -0.314 1.231 255 255 255
0.143 0.009 2 255 255 255
1.013 0.184 2.14 255 255 255
-0.857 0.094 1.918 255 255 255
0.914 -1.435 1.948 0 0 0
1.34 0.175 2.164 255 255 255
-0.922 0.046 1.909 255 255 255
1.139 -0.206 2.113 255 255 255
0.032 0.286 2.01 255 255 255
0.215 0.249 2.026 255 255 255
-0.335 -1.81 2.428 255 255 255
0.586 0.288 2.058 255 255 255
-0.19 0.967 2.07 255 255 255
0.465 -0.739 1.969 255 255 255
0.252 -1.437 1.895 0 0 0
0.36 0.403 1.043 255 255 255
-0.859 -0.074 1.27 255 255 255
0.838 -1.358 1.955 255 255 255
0.07 -1.083 1.905 255 255 255
-0.273 0.868 2.959 0 0 0
1.338 0.097 2.164 255 255 255
0.398 0.506 1.032 255 255 255
-0.859 -0.376 1.415 255 255 255
1.159 -0.537 2.09 255 255 255
-0.36 -0.754 1.204 255 255 255
0.758 -0.236 2.034 255 255 255
0.447 -0.84 1.958 255 255 255
-0.085 0.752 2.034 255 255 255
0.564 -1.146 1.944 255 255 255
-0.383 -0.268 1.245 255 255 255
-0.905 -0.451 1.728 255 255 255
0.124 -0.715 1.938 255 255 255
0.361 0.583 2.065 255 255 255
1.502 0.13 2.174 255 255 255
0.945 -1.123 1.979 255 255 255
-0.046 0.671 2.022 255 255 255
0.837 -0.761 2.046 0 0 0
-0.401 0.971 1.894 255 255 255
0.376 1.027 1.911 255 255 255
-0.432 0.449 1.289 255 255 255
-0.406 -0.13 1.244 255 255 255
0.11 -0.208 1.977 255 255 255
0.183 -0.494 1.963 255 255 255
0.898 -0.897 2.038 255 255 255
0.36 0.382 1.122 255 255 255
1.014 -1.143 1.976 255 255 255
0.865 -0.928 2.035 255 255 255
1.328 -0.755 2.082 255 255 255
0.687 -0.314 2.02 255 255 255
-0.765 0.867 2.877 255 255 255
0.357 0.952 2.09 0 0 0
0.704 -0.459 2.01 255 255 255
0.336 0.497 2.058 255 255 255
0.872 0.05 2.113 255 255 255
1.063 0.292 2.147 255 255 255
0.124 0.563 2.042 255 255 255
-0.017 0.657 2.035 255 255 255
-0.02 0.239 1.986 255 255 255
-0.001 0.436 2.017 255 255 255
0.464 0.05 2.034 255 255 255
0.231 -0.27 1.984 255 255 255
1.049 -0.826 2.058 255 255 255
0.862 -0.426 2.073 255 255 255
0.125 0.317 2.022 255 255 255
-0.432 0.554 1.3 255 255 255
0.225 0.545 2.05 255 255 255
1.167 0.404 2.167 255 255 255
0.959 0.087 2.127 255 255 255
0.452 -1.464 1.908 255 255 255
0.423 0.662 2.079 255 255 255
0.476 1.028 1.869 255 255 255
0.076 0.217 2.009 255 255 255
0.483 0.711 2.079 255 255 255
0.976 0.042 2.12 255 255 255
0.161 -0.989 1.919 255 255 255
1.014 -1.282 1.971 255 255 255
-0.787 -0.047 1.893 255 255 255
0.963 0.014 2.116 255 255 255
0.567 -0.065 2.034 255 255 255
0.274 -0.194 1.987 0 0 0
0.344 -0.995 1.935 255 255 255
0.356 0.234 2.033 255 255 255
0.814 -0.016 2.102 255 255 255
1.155 -0.267 2.118 0 0 0
1.162 0.409 2.167 255 255 255
-0.81 -1.1 1.822 255 255 255
1.056 -0.185 2.109 255 255 255
1.466 -0.204 2.147 255 255 255
1.215 -0.861 2.072 255 255 255
-0.824 -0.479 1.878 255 255 255
1.136 -0.385 2.1 255 255 255
-0.917 0.372 1.936 255 255 255
0.213 0.828 2.077 255 255 255
0.263 -0.868 1.938 255 255 255
0.218 0.43 2.038 255 255 255
0.604 -0.803 1.98 255 255 255
0.418 -0.598 1.977 0 0 0
-0.362 -0.707 1.209 255 255 255
0.383 -0.181 2.004 255 255 255
0.231 0.464 2.04 255 255 255
-0.807 0.744 1.929 255 255 255
1.353 0.069 2.16 255 255 255
0.265 0.62 1.26 255 255 255
1.066 0.43 2.15 255 255 255
0.041 -1.073 1.888 255 255 255
-0.845 -0.26 1.216 255 255 255
-0.906 0.072 1.628 255 255 255
0.089 -0.827 1.928 255 255 255
0.514 -1.002 1.955 255 255 255
0.361 0.857 2.089 255 255 255
-0.12 0.94 2.091 0 0 0
0.326 -0.458 1.974 255 255 255
-0.012 -0.276 1.949 255 255 255
-0.095 0.128 0.24 255 255 255
0.134 0.376 2.027 255 255 255
0.308 0.9 2.079 255 255 255
0.064 0.229 2.008 255 255 255
-0.056 -0.356 1.974 255 255 255
-0.876 -0.277 1.508 255 255 255
0.392 -0.347 1.991 0 0 0
-0.243 0.835 2.336 255 255 255
0.106 -0.315 1.969 255 255 255
0.116 0.218 2.013 255 255 255
1.235 0.181 2.156 255 255 255
0.335 0.995 2.086 255 255 255
-0.255 0.982 1.932 255 255 255
1.134 -0.96 2.028 255 255 255
-0.377 -0.519 1.22 255 255 255
-0.899 0.659 1.952 255 255 255
1.074 0.143 2.137 255 255 255
0.357 -1.445 1.896 0 0 0
1.487 0.195 2.188 255 255 255
0.924 -1.13 1.977 255 255 255
0.008 -1.231 1.882 255 255 255
0.513 -1.22 1.932 255 255 255
0.247 0.212 2.023 255 255 255
0.547 -0.86 1.969 255 255 255
0.6 0.169 2.053 255 255 255
0.453 0.4 2.057 255 255 255
1.391 -0.629 2.102 255 255 255
0.033 0.637 2.041 255 255 255
-0.884 -0.94 1.773 255 255 255
-0.764 -0.726 1.868 255 255 255
-0.858 -0.146 1.292 255 255 255
1.314 0.381 2.183 255 255 255
0.439 -1.035 1.943 255 255 255
-0.911 -0.303 1.882 255 255 255
-0.422 0.381 1.288 255 255 255
0.405 0.873 2.074 255 255 255
0.368 0.534 1.065 255 255 255
0.352 0.366 2.049 255 255 255
0.363 0.415 1.028 255 255 255
-0.864 -0.718 1.531 255 255 255
-0.083 0.506 2.023 255 255 255
0.208 0.085 2.012 255 255 255
0.376 0.89 2.084 255 255 255
0.83 -1.308 1.952 255 255 255
0.745 -0.951 1.978 255 255 255
0.513 -0.085 2.025 255 255 255
0.15 -0.368 1.972 255 255 255
1.012 -0.584 2.078 255 255 255
-0.85 -0.53 1.379 255 255 255
-0.919 -0.215 1.75 255 255 255
1.288 -0.065 2.141 255 255 255
-0.278 0.832 2.946 0 0 0
0.301 0.612 2.063 255 255 255
0.482 0.578 2.079 255 255 255
1.339 0.327 2.18 255 255 255
-0.861 0.026 1.225 255 255 255
-0.394 -0.393 1.223 255 255 255
0.058 1.015 1.93 255 255 255
0.864 -0.611 2.059 255 255 255
1.268 -0.103 2.136 255 255 255
0.846 -1.322 1.951 255 255 255
0.317 -0.345 1.99 255 255 255
-0.68 0.898 2.65 255 255 255
0.323 0.386 2.046 255 255 255
-0.889 -0.642 1.858 255 255 255
0.373 0.521 1.035 255 255 255
-0.925 -0.145 1.837 255 255 255
-0.808 -0.943 1.835 255 255 255
1.059 0.236 2.143 255 255 255
-0.356 -0.674 1.216 0 0 0
-0.871 0.034 1.359 255 255 255
-0.375 -0.852 1.188 255 255 255
1.048 -0.969 2.016 255 255 255
0.239 -0.274 1.984 255 255 255
0.275 0.984 2.078 255 255 255
0.173 0.489 2.041 255 255 255
-0.939 0.177 1.862 255 255 255
0.341 -1.024 1.933 255 255 255
-0.913 0.665 1.95 255 255 255
-0.804 -0.897 1.84 255 255 255
0.98 -0.299 2.094 255 255 255
-0.001 0.076 1.983 255 255 255
-0.248 0.99 1.863 255 255 255
-0.906 0.064 1.619 255 255 255
1.083 -0.961 2.024 255 255 255
0.04 0.278 2.01 255 255 255
0.14 0.105 2.009 255 255 255
-0.9 -0.558 1.849 255 255 255
-0.246 0.949 2.286 255 255 255
1.252 0.234 2.161 255 255 255
1.542 0.086 2.177 255 255 255
-0.024 -0.433 1.938 255 255 255
-0.878 -1.018 1.719 255 255 255
1.225 -0.52 2.101 255 255 255
-0.882 -0.835 1.835 255 255 255
0.361 0.682 2.076 255 255 255
0.047 -0.542 1.945 255 255 255
-0.293 0.983 1.864 255 255 255
0.434 -0.552 1.981 255 255 255
0.365 -1.15 1.927 255 255 255
0.473 -0.811 1.965 255 255 255
0.722 -0.43 2.014 255 255 255
-0.398 0.135 1.28 255 255 255
0.334 0.758 2.083 255 255 255
1 -1.287 1.974 255 255 255
-0.001 0.241 2.002 255 255 255
0.194 -1.307 1.899 255 255 255
0.435 -1.428 1.911 0 0 0
1.091 0.408 2.158 255 255 255
0.764 -0.824 1.985 255 255 255
0.439 0.407 1.012 255 255 255
-0.378 0.942 2.259 255 255 255
0.155 -0.035 1.998 255 255 255
0.285 0.262 2.032 255 255 255
0.63 0.115 2.052 255 255 255
1.172 -0.476 2.094 255 255 255
-0.379 -0.488 1.224 255 255 255
-0.393 -0.433 1.218 255 255 255
0.572 -0.639 1.986 255 255 255
-0.352 -0.788 1.205 0 0 0
0.947 -1.391 1.956 255 255 255
-0.865 0.059 1.291 255 255 255
0.467 -1.213 1.928 255 255 255
-0.876 -0.054 1.441 255 255 255
0.424 -1.245 1.925 255 255 255
-0.072 0.687 2.028 255 255 255
-0.553 0.969 1.956 255 255 255
0.257 -1.111 1.916 255 255 255
0.732 0.232 2.063 255 255 255
0.288 0.381 2.041 255 255 255
1.015 0.332 2.144 255 255 255
0.911 -0.225 2.092 255 255 255
0.618 0.022 2.042 255 255 255
0.408 0.637 1.276 255 255 255
-0.8 0.178 1.91 255 255 255
0.039 0.904 2.057 0 0 0
0.353 0.44 1.118 255 255 255
0.011 -0.23 1.958 255 255 255
0.04 0.42 2.02 255 255 255
0.354 0.09 2.027 255 255 255
-0.928 -0.134 1.781 255 255 255
1.146 -0.881 2.064 255 255 255
-0.913 -0.406 1.815 255 255 255
-0.793 -1.239 1.811 255 255 255
-0.578 -1.86 2.897 255 255 255
1.408 -0.149 2.148 255 255 255
-0.048 -0.505 1.962 255 255 255
1.097 -0.564 2.083 255 255 255
0.625 -0.128 2.033 255 255 255
-0.88 -0.851 1.668 255 255 255
0.385 0.402 1.033 255 255 255
1.295 -0.065 2.143 255 255 255
-0.134 0.965 2.101 0 0 0
-0.869 -1.139 1.763 255 255 255
0.089 -0.843 1.924 255 255 255
0.674 -0.322 2.019 255 255 255
-0.093 0.664 2.04 255 255 255
0.216 -0.585 1.956 255 255 255
0.307 0.438 2.049 255 255 255
-0.385 -0.175 1.252 255 255 255
0.007 0.136 1.995 255 255 255
-0.186 0.949 2.264 255 255 255
1.08 -0.108 2.117 255 255 255
-0.879 0.042 1.447 255 255 255
0.966 -0.644 2.067 255 255 255
-0.469 0.564 1.327 255 255 255
-0.372 -0.489 1.228 255 255 255
-0.053 0.404 2 255 255 255
0.243 -0.37 1.976 255 255 255
-0.457 -0.808 1.312 255 255 255
-0.409 -0.002 1.258 255 255 255
0.431 0.488 1 255 255 255
0.672 -1.131 1.953 255 255 255
-0.43 0.063 1.263 255 255 255
0.599 0.001 2.038 255 255 255
-0.102 0.112 0.247 255 255 255
-0.933 0.105 1.782 255 255 255
0.559 0.535 2.073 255 255 255
-0.19 0.961 2.125 0 0 0
0.768 -0.364 2.022 255 255 255
0.287 -0.239 1.988 255 255 255
1.352 0.04 2.158 255 255 255
-0.763 -1.279 1.83 255 255 255
-0.832 -0.683 1.855 255 255 255
-0.02 -0.73 1.922 255 255 255
1.057 0.344 2.152 255 255 255
1.149 0.043 2.137 255 255 255
-0.632 -1.833 2.421 255 255 255
-0.1 0.114 0.25 255 255 255
-0.751 -1.351 1.821 255 255 255
1.375 -0.114 2.145 255 255 255
-0.059 0.639 2.019 255 255 255
-0.468 0.485 1.326 255 255 255
-0.472 0.087 1.306 255 255 255
1.065 -0.976 2.016 255 255 255
0.059 0.217 2.005 255 255 255
0.499 0.5 2.07 255 255 255
0.759 -1.064 1.966 255 255 255
-0.809 0.859 2.929 255 255 255
-0.816 -0.757 1.854 255 255 255
0.823 -1.106 1.969 255 255 255
-0.8 0.582 1.912 255 255 255
0.735 -0.725 1.994 255 255 255
-0.845 -0.535 1.343 255 255 255
0.504 -0.093 2.024 255 255 255
0.937 -0.199 2.097 255 255 255
-0.825 0.017 1.92 255 255 255
0.457 -1.201 1.929 255 255 255
0.607 -0.44 2.005 255 255 255
0.039 -0.349 1.959 255 255 255
0.202 -0.94 1.925 255 255 255
-0.886 -0.039 1.513 255 255 255
-0.411 0.204 1.279 255 255 255
0.219 1.014 1.999 255 255 255
1.164 0.483 2.172 255 255 255
0.728 -0.033 2.049 255 255 255
-0.409 0.089 1.264 0 0 0
0.783 -1.394 1.941 0 0 0
0.535 0.362 1.13 255 255 255
0.4 -0.157 2.008 255 255 255
-0.363 -0.527 1.228 0 0 0
0.435 0.205 1.159 255 255 255
1.341 0.078 2.16 255 255 255
-0.387 -0.686 1.202 255 255 255
0.31 -0.52 1.971 255 255 255
0.074 -0.999 1.915 255 255 255
-0.012 -0.206 1.954 255 255 255
-0.001 -0.8 1.908 255 255 255
-0.708 0.898 2.644 255 255 255
0.396 0.299 1.093 255 255 255
0.187 0.521 2.044 255 255 255
0.262 0.851 2.083 255 255 255
1.301 -0.488 2.107 255 255 255
1.355 0.011 2.154 255 255 255
0.239 -0.282 1.985 255 255 255
0.383 0.32 1.074 255 255 255
-0.445 0.429 1.287 255 255 255
0.409 0.715 2.086 255 255 255
0.338 0.385 1.142 255 255 255
-0.139 0.99 1.946 255 255 255
-0.013 -0.806 1.913 255 255 255
-0.878 0.009 1.906 255 255 255
1.227 -0.458 2.104 255 255 255
0.364 0.218 2.035 255 255 255
-0.39 -0.528 1.212 255 255 255
1.183 -0.53 2.096 255 255 255
0.241 -0.81 1.945 255 255 255
0.711 -0.13 2.036 255 255 255
0.252 -1.329 1.901 255 255 255
-0.526 0.91 2.62 255 255 255
0.483 -0.479 1.989 255 255 255
0.896 -0.637 2.059 255 255 255
0.202 -0.397 1.97 0 0 0
1.189 0.521 2.182 255 255 255
1.371 0.118 2.168 255 255 255
0.94 -0.939 2.041 255 255 255
-0.851 -0.037 1.165 255 255 255
1.288 -0.075 2.141 255 255 255
0.235 0.595 2.056 255 255 255
-0.845 -0.405 1.307 255 255 255
-0.875 -0.325 1.513 255 255 255
1.124 -0.719 2.073 255 255 255
0.687 -0.45 2.014 255 255 255
0.82 -0.017 2.104 255 255 255
0.548 0.2 1.18 0 0 0
0.333 -0.308 1.988 255 255 255
-0.859 0.046 1.915 255 255 255
0.769 -0.305 2.03 255 255 255
1.199 0.377 2.167 255 255 255
-0.85 -0.553 1.861 255 255 255
-0.764 -0.263 1.868 255 255 255
-0.929 0.181 1.728 255 255 255
0.974 -1.065 1.983 255 255 255
0.913 -0.876 2.043 255 255 255
0.123 -0.015 1.997 255 255 255
-0.88 0.03 1.449 255 255 255
-0.404 -0.118 1.247 255 255 255
0.297 1.029 1.887 255 255 255
0.478 -0.702 1.976 0 0 0
0.503 0.209 2.049 255 255 255
-0.848 -0.981 1.831 255 255 255
0.4 0.433 1.003 255 255 255
-0.742 -1.27 1.813 255 255 255
0.639 -0.857 1.977 255 255 255
0.15 -0.149 1.985 255 255 255
-0.89 0.12 1.503 255 255 255
1.16 0.483 2.175 255 255 255
0.105 -0.771 1.933 255 255 255
0.896 -0.72 2.053 255 255 255
0.087 0.98 2.06 255 255 255
-0.369 -0.479 1.231 0 0 0
-0.426 0.548 1.303 255 255 255
-0.396 0.961 2.017 255 255 255
0.164 0.821 2.074 255 255 255
0.395 -0.823 1.959 255 255 255
0.011 -0.766 1.913 255 255 255
-0.799 0.573 1.911 255 255 255
1.151 0.316 2.157 255 255 255
-0.814 -0.072 1.915 255 255 255
-0.824 0.586 1.937 255 255 255
0.532 -0.635 1.982 0 0 0
-0.87 0.09 1.32 255 255 255
-0.674 -1.844 2.54 0 0 0
0.352 1.008 2.068 255 255 255
-0.788 -1.303 1.808 0 0 0
0.411 0.478 1.016 255 255 255
0.16 -0.91 1.925 255 255 255
1.348 -0.826 2.087 255 255 255
-0.546 0.953 1.987 255 255 255
0.389 -0.04 2.018 255 255 255
0.365 0.579 2.067 255 255 255
-0.37 -0.733 1.206 255 255 255
-0.835 -0.796 1.844 255 255 255
0.073 0.81 2.062 255 255 255
1.336 -0.878 2.074 255 255 255
0.032 -1.04 1.891 255 255 255
0.889 -0.847 2.041 255 255 255
-0.844 -0.243 1.18 255 255 255
1.205 -0.714 2.079 255 255 255
0.985 -0.609 2.071 255 255 255
0.624 -0.199 2.026 255 255 255
0.307 -0.183 1.989 255 255 255
-0.001 -0.678 1.92 255 255 255
-0.383 -0.307 1.24 255 255 255
1.002 -0.138 2.107 255 255 255
0.986 -0.925 2.043 255 255 255
0.299 -0.343 1.977 0 0 0
0.058 0.561 2.036 255 255 255
0.442 -1.094 1.937 255 255 255
0.859 -0.461 2.071 255 255 255
0.37 0.373 1.052 255 255 255
0.041 1.017 1.906 255 255 255
-0.012 -0.015 1.966 255 255 255
0.393 0.24 1.197 0 0 0
1.246 0.201 2.163 255 255 255
0.075 -0.667 1.938 255 255 255
0.148 0.89 2.067 255 255 255
0.549 -0.733 1.977 255 255 255
0.221 0.122 2.015 255 255 255
0.568 -1.127 1.947 255 255 255
-0.63 0.926 2.26 255 255 255
0.242 -1.289 1.902 255 255 255
0.108 0.206 2.013 255 255 255
-0.442 0.954 2.027 255 255 255
-0.819 -0.752 1.851 255 255 255
0.723 -1.446 1.934 0 0 0
1.192 -0.822 2.071 255 255 255
0.424 -0.522 1.981 255 255 255
0.097 0.371 2.024 255 255 255
0.266 -0.808 1.947 255 255 255
-0.855 -0.502 1.41 255 255 255
0.215 -0.781 1.942 255 255 255
-0.809 0.767 1.927 255 255 255
0.228 1.023 1.91 255 255 255
0.421 0.393 1.02 255 255 255
-0.111 0.669 2.056 255 255 255
0.547 -1.222 1.939 255 255 255
1.27 -0.041 2.141 255 255 255
0.723 -0.452 2.013 255 255 255
0.343 -0.464 1.982 255 255 255
-0.931 0.07 1.78 255 255 255
1.183 -0.101 2.127 255 255 255
0.379 -0.594 1.971 255 255 255
-0.645 0.896 2.725 255 255 255
-0.013 -1.07 1.918 255 255 255
-0.434 -0.893 1.284 255 255 255
0.427 -0.056 2.019 255 255 255
0.663 -0.696 1.993 255 255 255
0.282 -0.768 1.95 255 255 255
0.169 0.252 2.021 255 255 255
-0.863 -0.089 1.327 255 255 255
0.191 0.335 2.027 255 255 255
0.099 0.851 2.068 255 255 255
0.563 -0.497 1.996 255 255 255
0.355 -1.221 1.921 255 255 255
0.432 0.19 1.176 0 0 0
0.629 -0.378 2.012 255 255 255
0.642 -0.32 2.018 255 255 255
-0.017 -0.814 1.919 255 255 255
0.436 -0.427 1.991 255 255 255
-0.894 -0.591 1.86 255 255 255
-0.445 0.42 1.288 255 255 255
0.414 0.36 1.055 255 255 255
-0.835 -0.687 1.851 255 255 255
0.386 0.211 1.273 0 0 0
-0.886 0.037 1.506 255 255 255
0.386 0.916 2.085 0 0 0
1.39 -0.158 2.147 255 255 255
1.054 0.07 2.13 255 255 255
-0.425 0.294 1.277 255 255 255
1.418 -0.347 2.129 255 255 255
0.866 -0.25 2.088 255 255 255
0.451 -1.318 1.92 255 255 255
0.074 0.503 2.031 255 255 255
-0.057 0.333 1.995 255 255 255
-0.843 -0.522 1.303 255 255 255
1.479 -0.268 2.143 255 255 255
0.528 0.362 1.122 255 255 255
-0.848 -0.395 1.29 255 255 255
0.092 -1.167 1.898 255 255 255
-0.568 0.898 2.722 255 255 255
1.106 -0.698 2.073 255 255 255
-0.39 -0.684 1.203 255 255 255
-0.904 0.177 1.565 255 255 255
0.959 -0.696 2.064 255 255 255
0.504 0.653 2.082 255 255 255
0.425 0.356 2.053 255 255 255
-0.077 0.105 2.011 0 0 0
-0.88 -0.928 1.812 255 255 255
1.161 -0.748 2.073 255 255 255
0.399 0.515 1.033 255 255 255
1.176 -0.543 2.09 255 255 255
-0.878 -0.156 1.892 255 255 255
0.629 0.204 2.058 255 255 255
0.336 0.404 1.188 255 255 255
0.355 0.328 1.235 0 0 0
0.223 -0.027 2.002 255 255 255
0.027 -0.187 1.969 255 255 255
0.353 0.394 1.12 255 255 255
-0.044 0.159 1.982 255 255 255
0.95 -1.291 1.967 255 255 255
-0.946 0.683 1.954 255 255 255
1.411 0.109 2.172 255 255 255
-0.229 -1.807 2.462 255 255 255
0.068 -0.743 1.931 255 255 255
-0.447 0.439 1.29 255 255 255
-0.324 0.791 2.817 255 255 255
-0.8 -1.417 1.793 255 255 255
-0.086 0.301 2.025 0 0 0
0.157 -0.971 1.922 255 255 255
-0.842 -0.234 1.178 255 255 255
0.389 -1.189 1.927 255 255 255
-0.06 0.001 1.983 255 255 255
0.463 -0.792 1.965 255 255 255
0.388 0.413 1.023 255 255 255
1.318 0.356 2.182 255 255 255
-0.133 0.93 2.16 255 255 255
-0.844 -1.177 1.819 255 255 255
-0.886 0.235 1.924 255 255 255
0.567 -1.295 1.935 255 255 255
0.412 0.546 2.069 255 255 255
0.282 -0.584 1.961 255 255 255
-0.025 0.538 2.016 255 255 255
0.487 -0.11 2.02 255 255 255
0.931 -0.044 2.112 255 255 255
1.254 0.312 2.168 255 255 255
0.146 -1.291 1.894 255 255 255
0.09 -0.434 1.958 255 255 255
1.365 -0.229 2.133 255 255 255
-0.386 0.984 1.828 255 255 255
-0.69 0.903 2.592 255 255 255
-0.141 0.974 2.056 255 255 255
0.332 -0.741 1.955 0 0 0
0.276 0.657 2.065 255 255 255
-0.073 0.137 0.251 255 255 255
0.143 -0.493 1.96 255 255 255
0.673 -0.613 1.998 255 255 255
1.127 -1.169 1.989 255 255 255
0.158 0.297 2.023 255 255 255
-0.379 -0.175 1.252 255 255 255
0.127 -0.533 1.955 255 255 255
1.294 -0.902 2.067 255 255 255
1.109 -1.009 2.017 255 255 255
1.03 -0.75 2.059 255 255 255
0.51 -0.493 1.991 255 255 255
0.384 -1.178 1.928 255 255 255
-0.797 -0.75 1.864 0 0 0
-0.165 0.977 2.019 255 255 255
0.337 0.661 1.292 255 255 255
0.047 0.048 1.992 255 255 255
-0.94 0.297 1.765 255 255 255
0.345 0.442 1.126 255 255 255
0.173 0.462 2.035 255 255 255
0.806 -0.125 2.091 0 0 0
0.334 0.152 2.03 255 255 255
-0.378 -0.276 1.245 0 0 0
0.621 0.097 2.05 255 255 255
0.412 0.193 1.217 0 0 0
0.285 -1.137 1.922 255 255 255
-0.852 -0.349 1.336 255 255 255
0.155 0.632 2.052 255 255 255
-0.85 -0.2 1.209 255 255 255
0.116 -0.673 1.942 255 255 255
-0.292 0.89 2.367 0 0 0
0.46 0.071 2.033 255 255 255
0.839 -0.487 2.066 255 255 255
-0.952 0.498 1.91 255 255 255
0.336 0.385 1.145 255 255 255
0.377 0.009 2.02 255 255 255
-0.671 0.917 2.405 255 255 255
1.036 0.287 2.147 255 255 255
0.101 -0.801 1.931 255 255 255
0.781 -0.706 1.996 255 255 255
0.414 -0.365 1.998 255 255 255
0.203 0.49 2.042 255 255 255
0.283 0.481 1.241 255 255 255
-0.864 0.755 1.986 255 255 255
0.386 -0.532 1.979 0 0 0
0.793 -0.12 2.082 255 255 255
0.925 -0.101 2.107 255 255 255
-0.86 -0.344 1.402 255 255 255
-0.746 -1.868 2.925 255 255 255
0.631 -0.814 1.978 255 255 255
-0.891 -0.003 1.536 255 255 255
-0.021 -0.968 1.93 255 255 255
0.28 -0.075 2.005 255 255 255
0.064 -0.86 1.921 255 255 255
-0.888 -0.829 1.806 255 255 255
0.549 0.221 1.167 0 0 0
1.217 -0.821 2.075 255 255 255
0.239 -0.131 1.994 255 255 255
0.304 0.473 1.202 255 255 255
-0.863 -1.251 1.712 0 0 0
0.438 -0.594 1.975 0 0 0
-0.868 -0.211 1.439 255 255 255
-0.398 0.097 1.274 0 0 0
0.518 0.129 2.042 255 255 255
0.088 -0.681 1.94 255 255 255
0.586 0.332 1.173 255 255 255
-0.412 0.476 1.302 0 0 0
-0.405 0.96 1.992 255 255 255
-0.108 -1.812 2.444 255 255 255
-0.133 0.974 2.067 255 255 255
-0.562 0.895 2.752 0 0 0
-0.821 -0.112 1.919 255 255 255
0.922 -0.493 2.075 255 255 255
-0.881 0.089 1.409 255 255 255
-0.857 -0.544 1.454 255 255 255
0.134 0.864 2.064 255 255 255
-0.252 0.979 1.946 255 255 255
-0.09 0.122 0.248 255 255 255
-0.408 -0.179 1.239 255 255 255
0.17 -0.389 1.971 255 255 255
0.256 -0.443 1.971 255 255 255
0.337 0.628 2.069 255 255 255
0.356 -1.046 1.936 255 255 255
0.366 -0.156 2 255 255 255
0.008 0.716 2.05 255 255 255
-0.434 0.418 1.283 255 255 255
0.651 -0.65 1.993 255 255 255
0.788 -0.937 1.981 255 255 255
-0.37 -0.233 1.241 0 0 0
1.099 -0.673 2.075 255 255 255
0.77 -1.076 1.966 255 255 255
0.436 -1.294 1.921 255 255 255
0.14 0.165 2.012 255 255 255
-0.518 0.909 2.634 255 255 255
0.567 -0.459 2 255 255 255
0.566 1.03 1.83 255 255 255
0.94 -0.28 2.097 255 255 255
0.549 0.384 1.119 255 255 255
-0.099 0.831 2.055 255 255 255
1.078 -1.185 1.983 255 255 255
0.932 -1.36 1.959 255 255 255
0.843 -0.452 2.071 255 255 255
0.808 0.229 2.103 255 255 255
0.663 -1.245 1.945 255 255 255
-0.712 -1.4 1.793 255 255 255
0.393 -0.769 1.962 255 255 255
-0.38 -0.743 1.198 255 255 255
1.392 -0.283 2.133 255 255 255
-0.166 0.947 2.327 0 0 0
0.605 -0.281 2.017 255 255 255
0.619 -0.526 1.999 255 255 255
-0.421 0.142 1.265 255 255 255
-0.876 -0.386 1.536 255 255 255
-0.801 -0.322 1.909 255 255 255
1.124 0.131 2.139 255 255 255
1.514 -0.413 2.131 255 255 255
-0.851 -1.208 1.814 255 255 255
0.222 -0.708 1.947 0 0 0
0.06 0.852 2.061 255 255 255
-0.804 -0.906 1.838 255 255 255
1.088 -0.691 2.072 255 255 255
-0.933 0.029 1.857 255 255 255
0.004 -1.027 1.894 255 255 255
-0.173 0.968 2.074 255 255 255
0.526 -0.378 2.004 255 255 255
-0.001 0.132 1.992 255 255 255
-0.867 -0.593 1.86 255 255 255
1.119 0.334 2.158 255 255 255
0.809 -0.46 2.056 255 255 255
0.277 1.032 1.894 255 255 255
0.489 0.017 2.031 255 255 255
0.347 -0.456 1.981 0 0 0
0.373 0.471 2.054 255 255 255
0.62 -0.141 2.03 255 255 255
1.033 -0.202 2.104 255 255 255
0.393 0.308 2.046 255 255 255
0.574 -0.321 2.011 255 255 255
0.616 -0.682 1.988 255 255 255
0.971 -0.659 2.065 255 255 255
0.457 -0.117 2.018 255 255 255
0.123 0.988 2.064 255 255 255
1.218 0.514 2.184 255 255 255
1.541 -0.356 2.139 255 255 255
0.279 0.554 1.186 255 255 255
-0.881 0.187 1.379 255 255 255
-0.856 0.017 1.177 255 255 255
0.179 -0.469 1.965 255 255 255
-0.383 -0.263 1.245 255 255 255
0.705 -0.93 1.975 255 255 255
0.444 -1.346 1.92 255 255 255
0.327 0.424 1.138 255 255 255
0.582 -0.911 1.968 255 255 255
0.739 -0.308 2.026 255 255 255
0.859 -0.475 2.069 255 255 255
-0.419 0.11 1.261 255 255 255
0.894 0.099 2.117 255 255 255
0.103 0.133 2.005 255 255 255
0.216 0.803 2.075 255 255 255
1.431 -0.746 2.101 255 255 255
0.739 -0.176 2.034 255 255 255
-0.181 -1.817 2.427 255 255 255
-0.832 0.307 1.952 255 255 255
0.007 -0.26 1.951 255 255 255
0.374 0.428 1.007 255 255 255
0.499 -0.598 1.981 255 255 255
0.398 0.264 1.107 255 255 255
0.267 -0.993 1.929 255 255 255
0.111 -0.991 1.916 255 255 255
-0.026 0.786 2.05 255 255 255
-0.851 0.323 1.941 0 0 0
0.058 -1.121 1.892 255 255 255
0.161 -1.177 1.903 255 255 255
-0.847 -0.33 1.289 255 255 255
0.145 0.555 2.043 255 255 255
0.657 -0.074 2.038 255 255 255
0.932 -0.221 2.095 255 255 255
0.703 0.18 2.064 255 255 255
-0.864 0.027 1.273 255 255 255
0.659 -1.201 1.946 255 255 255
1.011 -0.904 2.047 255 255 255
-0.38 -0.924 1.187 255 255 255
1.148 -0.664 2.078 255 255 255
-0.177 0.739 2.317 0 0 0
-0.794 -0.564 1.888 255 255 255
-0.879 -0.286 1.526 255 255 255
0.141 -1.263 1.894 255 255 255
0.498 -1.127 1.941 255 255 255
1.376 -0.109 2.147 255 255 255
-0.859 0.315 1.939 255 255 255
-0.862 -0.167 1.362 255 255 255
-0.5 0.933 2.26 255 255 255
1.206 0.256 2.159 255 255 255
0.469 -1.098 1.941 255 255 255
0.446 -0.914 1.954 255 255 255
-0.404 -0.261 1.232 255 255 255
-0.891 -0.04 1.543 255 255 255
0.246 0.567 1.233 255 255 255
0.43 1.013 1.974 255 255 255
-0.468 0.087 1.305 255 255 255
0.756 -1.084 1.965 255 255 255
-0.879 0.125 1.38 255 255 255
0.107 -0.976 1.916 255 255 255
-0.605 0.905 2.648 255 255 255
-0.833 -0.393 1.881 255 255 255
0.966 -0.272 2.099 255 255 255
1.46 -0.652 2.107 255 255 255
0.062 -1.118 1.895 255 255 255
-0.056 -1.814 2.69 0 0 0
0.039 -0.425 1.955 255 255 255
-0.296 0.817 2.889 255 255 255
0.836 -0.402 2.071 255 255 255
0.003 -0.019 1.975 255 255 255
1.412 -0.622 2.107 255 255 255
0.981 -0.744 2.057 255 255 255
-0.35 -0.918 1.191 255 255 255
0.39 0.391 1.036 255 255 255
-0.475 -0.15 1.346 255 255 255
0.828 -1.438 1.95 0 0 0
-0.729 -0.832 1.815 255 255 255
0.947 -0.886 2.048 255 255 255
-0.938 0.269 1.79 255 255 255
0.471 -0.866 1.961 255 255 255
-0.658 0.9 2.678 255 255 255
-0.929 -0.049 1.776 255 255 255
1.013 -1.04 1.998 255 255 255
0.215 -1.128 1.913 255 255 255
0.725 -0.644 1.999 255 255 255
1.395 -0.158 2.146 255 255 255
0.545 -0.612 1.989 255 255 255
-0.901 0.074 1.588 255 255 255
0.114 -0.094 1.987 255 255 255
-0.841 -0.321 1.886 255 255 255
-0.377 -0.728 1.202 255 255 255
1.038 -1.159 1.989 255 255 255
0.285 -1.35 1.903 255 255 255
0.392 0.503 2.06 255 255 255
0.335 0.491 1.184 255 255 255
0.529 0.457 2.071 255 255 255
0.413 0.423 1.004 255 255 255
0.778 -1.071 1.965 255 255 255
-0.687 0.916 2.382 255 255 255
0.789 -0.819 1.992 255 255 255
1.147 0.001 2.134 255 255 255
0.597 -0.182 2.027 255 255 255
0.21 -0.218 1.988 255 255 255
1.218 -0.873 2.075 255 255 255
1.133 -0.334 2.101 255 255 255
1.02 0.314 2.145 255 255 255
0.423 0.329 1.079 255 255 255
-0.176 0.716 2.375 255 255 255
0.414 0.398 2.054 255 255 255
-0.85 -0.041 1.115 255 255 255
-0.844 -0.298 1.204 255 255 255
0.563 -0.621 1.987 255 255 255
1.442 0.209 2.187 255 255 255
0.619 -1.234 1.945 255 255 255
0.353 0.41 1.044 255 255 255
0.581 0.147 2.049 255 255 255
0.348 0.382 1.132 255 255 255
0.705 -0.481 2.01 255 255 255
0.416 0.829 2.096 255 255 255
1.338 0.054 2.155 255 255 255
-0.769 -0.547 1.862 255 255 255
0.88 -1.051 1.982 0 0 0
-0.061 0.869 2.044 255 255 255
0.695 -0.789 1.986 255 255 255
0.094 -0.414 1.96 255 255 255
0.667 -1.431 1.933 0 0 0
0.406 -0.664 1.968 255 255 255
0.537 0.005 2.035 255 255 255
0.015 -0.504 1.929 255 255 255
-0.859 -0.125 1.295 255 255 255
0.023 0.076 1.994 255 255 255
0.535 -1.429 1.922 0 0 0
1.427 -0.465 2.119 255 255 255
-0.836 -0.229 1.092 255 255 255
-0.895 0.821 1.974 255 255 255
0.418 0.798 2.092 255 255 255
0.374 0.371 2.048 255 255 255
-0.051 -0.081 1.972 255 255 255
0.177 0.178 2.017 255 255 255
0.21 -0.118 1.994 255 255 255
0.725 -0.512 2.01 255 255 255
-0.841 -0.927 1.832 255 255 255
0.423 0.446 1.009 255 255 255
1.028 -0.963 2.02 0 0 0
0.861 -0.674 2.051 255 255 255
0.457 0.284 2.049 255 255 255
0.979 -0.91 2.045 255 255 255
0.906 -0.487 2.073 255 255 255
-0.866 -0.815 1.847 255 255 255
0.949 0.154 2.126 255 255 255
0.297 -1.129 1.917 255 255 255
1.256 0.498 2.191 255 255 255
0.101 -1.153 1.9 255 255 255
-0.294 0.944 2.323 255 255 255
-0.857 -0.5 1.427 255 255 255
0.647 -1.285 1.94 255 255 255
-0.043 0.761 2.034 255 255 255
0.288 1.012 2.029 255 255 255
1.175 0.231 2.156 255 255 255
0.02 0.463 2.022 255 255 255
0.015 -0.23 1.963 255 255 255
-0.212 0.912 2.476 0 0 0
-0.838 -0.31 1.167 255 255 255
-0.847 -0.351 1.302 255 255 255
0.89 0.139 2.119 255 255 255
1.229 -0.191 2.125 255 255 255
0.965 -0.964 2.019 0 0 0
-0.339 0.977 1.848 255 255 255
-0.933 0.009 1.865 255 255 255
-0.691 -1.879 2.992 255 255 255
0.44 0.187 1.174 0 0 0
0.516 -0.27 2.008 0 0 0
0.649 -1.358 1.935 255 255 255
-0.057 0.88 2.046 255 255 255
0.249 0.053 2.013 255 255 255
0.328 -1.406 1.903 0 0 0
0.896 -0.207 2.094 255 255 255
0.342 -0.232 1.998 255 255 255
-0.004 -0.1 1.959 255 255 255
0.334 0.504 1.188 255 255 255
0.641 -0.182 2.027 255 255 255
-0.737 0.895 2.688 255 255 255
0.568 0.281 1.162 0 0 0
0.325 0.965 2.088 0 0 0
0.254 0.55 1.255 255 255 255
-0.715 0.909 2.534 255 255 255
0.551 -0.944 1.961 255 255 255
-0.009 0.99 2.04 255 255 255
-0.871 -0.241 1.468 255 255 255
-0.818 -0.434 1.882 255 255 255
-0.133 -1.811 2.494 0 0 0
-0.891 -0.73 1.831 255 255 255
0.407 -1.186 1.928 255 255 255
0.147 -0.4 1.97 255 255 255
0.483 0.255 1.101 255 255 255
0.385 0.298 1.1 255 255 255
0.417 0.239 1.112 255 255 255
0.196 0.348 2.031 255 255 255
-0.191 -1.845 2.932 255 255 255
-0.401 -0.292 1.229 255 255 255
0.481 -0.228 2.009 255 255 255
0.958 -0.672 2.067 255 255 255
-0.511 0.579 1.405 255 255 255
0.538 -0.529 1.993 255 255 255
1.201 -0.385 2.107 255 255 255
0.618 1.017 1.918 255 255 255
1.41 0.099 2.172 255 255 255
0.624 -0.552 1.997 255 255 255
0.356 0.823 2.09 255 255 255
0.163 0.99 2.068 255 255 255
0.594 1.023 1.876 255 255 255
-0.594 0.951 2.017 255 255 255
-0.393 -0.033 1.261 255 255 255
-0.4 0.966 1.964 255 255 255
0.543 0.051 2.042 255 255 255
-0.849 -0.455 1.316 255 255 255
0.414 -0.963 1.95 255 255 255
0.316 0.761 2.08 255 255 255
-0.069 0.824 2.038 255 255 255
-0.017 -1.17 1.912 255 255 255
0.503 0.154 1.173 0 0 0
-0.392 -0.09 1.256 255 255 255
0.285 0.246 2.031 255 255 255
0.575 -0.115 2.029 255 255 255
0.425 -1.038 1.94 255 255 255
0.059 -1.276 1.875 255 255 255
-0.928 0.155 1.728 255 255 255
-0.417 0.931 2.32 255 255 255
0.325 0.139 2.028 255 255 255
0.348 0.399 1.122 255 255 255
-0.194 0.926 2.514 0 0 0
0.871 -0.821 2.042 255 255 255
0.559 -0.83 1.973 255 255 255
-0.221 -1.827 2.692 255 255 255
-0.404 -0.215 1.238 255 255 255
-0.386 -0.484 1.22 255 255 255
-0.832 -0.696 1.853 255 255 255
0.847 -0.135 2.096 255 255 255
-0.918 -0.32 1.78 255 255 255
-0.833 -1.183 1.814 255 255 255
0.425 0.054 2.029 255 255 255
0.042 0.703 2.051 255 255 255
0.332 0.929 2.085 0 0 0
0.047 1.003 1.994 255 255 255
0.861 -1.027 1.992 255 255 255
0.333 -1.223 1.919 255 255 255
0.394 -1.436 1.904 0 0 0
0.085 0.392 2.024 255 255 255
