ply
format ascii 1.0
comment Created by Open3D
element vertex 1584
property double x
property double y
property double z
property uchar red
property uchar green
property uchar blue
end_header
0.712 -0.738 2.022 255 255 255
1.529 -0.053 2.169 255 255 255
0.33 -0.096 2.01 255 255 255
0.414 0.685 1.227 255 255 255
0.787 -0.612 2.034 255 255 255
0.418 0.909 2.063 0 0 0
0.63 -0.095 2.037 255 255 255
-0.548 1.023 2.223 0 0 0
-0.947 0.531 1.925 255 255 255
-0.863 0.288 1.929 255 255 255
-0.807 -0.736 1.4 255 255 255
-0.04 0.072 1.984 255 255 255
0.191 -0.051 2.004 255 255 255
0.36 0.485 1.022 255 255 255
0.168 -0.441 1.986 255 255 255
0.277 -0.329 1.996 255 255 255
0.739 0.031 2.054 255 255 255
1.478 -0.552 2.134 255 255 255
0.825 -0.096 2.104 0 0 0
0.788 -1.194 2.011 255 255 255
0.064 -0.59 1.964 255 255 255
1.002 -0.728 2.095 255 255 255
0.983 -0.237 2.106 255 255 255
-0.929 0.196 1.899 255 255 255
1.431 -0.409 2.142 255 255 255
-0.351 -0.766 1.237 255 255 255
0.495 0.332 1.097 255 255 255
-0.646 -1.749 2.947 255 255 255
-0.751 -0.854 1.897 0 0 0
-0.832 -1.108 1.829 255 255 255
-0.894 0.054 1.621 255 255 255
0.22 0.557 2.032 255 255 255
0.353 -1.218 1.971 255 255 255
0.464 0.44 1.027 255 255 255
0.118 0.458 2.017 255 255 255
0.677 -0.974 2.011 255 255 255
0.511 -0.565 2.018 0 0 0
-0.802 0.119 1.939 255 255 255
0.426 0.48 1 255 255 255
0.227 0.535 2.03 255 255 255
-0.833 -0.625 1.893 255 255 255
-0.813 -0.75 1.884 255 255 255
0.131 -0.166 1.995 255 255 255
-0.793 -0.922 1.878 255 255 255
0.049 0.59 2.017 255 255 255
0.869 0.125 2.115 255 255 255
0.958 -0.612 2.091 255 255 255
0.196 0.799 2.04 255 255 255
1.147 -0.29 2.121 255 255 255
-0.784 -1.052 1.874 255 255 255
0.647 -0.95 2.01 255 255 255
-0.382 -0.418 1.251 255 255 255
0.296 0.52 1.25 255 255 255
-0.867 0.751 1.959 255 255 255
0.963 -1.321 2.016 255 255 255
-0.763 -0.019 1.901 255 255 255
0.485 0.03 2.035 255 255 255
-0.814 -1.256 1.851 255 255 255
0.027 -1.373 1.992 255 255 255
-0.69 -0.935 1.88 255 255 255
0.385 -0.222 2.008 0 0 0
0.147 -0.198 1.994 255 255 255
0.127 0.153 2.006 255 255 255
0.033 -1.051 1.957 255 255 255
0.242 0.861 2.051 255 255 255
0.462 0.372 1.072 255 255 255
-0.031 1.001 2.02 255 255 255
0.395 -0.669 1.997 255 255 255
-0.494 1.023 2.387 255 255 255
-0.31 0.995 2.367 255 255 255
0.716 -0.625 2.03 255 255 255
-0.852 0.059 1.227 255 255 255
0.313 -1.15 1.969 255 255 255
0.428 0.401 1.057 255 255 255
0.467 -0.719 2.002 255 255 255
-0.045 0.397 1.987 255 255 255
0.593 -0.614 2.019 255 255 255
1.107 -0.059 2.13 255 255 255
0.728 -0.105 2.046 255 255 255
-0.82 -0.81 1.885 255 255 255
0.367 0.961 2.063 255 255 255
0.071 0.769 2.028 255 255 255
-0.872 -0.613 1.795 255 255 255
-0.107 0.878 2.019 255 255 255
0.26 -1.018 1.969 255 255 255
0.189 0.499 2.026 255 255 255
0.729 -0.611 2.029 255 255 255
-0.786 -0.381 1.921 255 255 255
1.538 -0.372 2.152 255 255 255
0.99 -1.262 2.027 255 255 255
0.344 0.05 2.021 255 255 255
-0.807 -1.392 1.797 255 255 255
0.31 -0.432 2.012 255 255 255
-0.893 -0.011 1.918 255 255 255
0.322 -1.236 1.967 255 255 255
1.347 -0.301 2.137 255 255 255
0.368 -0.21 2.009 0 0 0
0.997 -0.452 2.102 255 255 255
1.313 0.073 2.153 255 255 255
-0.413 1.003 2.742 255 255 255
0.163 -0.69 1.976 255 255 255
0.464 -0.738 2.003 255 255 255
-0.366 -0.45 1.247 255 255 255
0.628 -1.031 2.002 255 255 255
0.326 0.497 1.126 255 255 255
0.156 -0.751 1.973 255 255 255
0.352 -0.315 2.005 255 255 255
-0.86 0.623 1.948 255 255 255
0.409 -0.615 1.992 0 0 0
1.548 -0.5 2.149 255 255 255
0.455 0.597 2.055 255 255 255
0.443 0.52 2.051 255 255 255
0.948 -1.568 2.014 255 255 255
0.788 -1.227 2.011 255 255 255
0.771 -0.593 2.033 255 255 255
-0.903 0.094 1.653 255 255 255
0.184 0.69 2.033 255 255 255
1.337 -0.879 2.075 255 255 255
-0.945 0.432 1.886 255 255 255
0.133 -1.16 1.955 255 255 255
-0.835 -0.143 1.209 255 255 255
0.402 0.419 1.057 255 255 255
-0.001 0.991 2.021 255 255 255
0.374 0.406 1.128 255 255 255
-0.849 -0.863 1.779 255 255 255
0.398 -0.158 2.018 255 255 255
0.381 -0.549 1.994 255 255 255
1.182 0.457 2.157 255 255 255
0.4 -1.171 1.977 255 255 255
-0.906 -0.024 1.916 255 255 255
0.456 0.124 2.032 255 255 255
0.759 0.331 2.079 255 255 255
0.129 -0.594 1.976 255 255 255
-0.214 1.056 2.061 255 255 255
-0.829 -0.687 1.535 255 255 255
-0.316 -0.799 1.252 0 0 0
-0.849 -0.168 1.411 255 255 255
0.633 -0.957 2.007 255 255 255
0.328 1.026 2.054 255 255 255
1.225 0.242 2.154 255 255 255
-0.429 -1.426 1.893 255 255 255
0.138 0.428 2.016 255 255 255
0.731 -1.401 2.002 255 255 255
0.385 0.299 1.267 0 0 0
-0.825 -0.134 1.082 255 255 255
-0.391 0.237 1.286 255 255 255
-0.814 -0.291 1.11 255 255 255
0.09 -0.837 1.962 255 255 255
0.3 -0.356 2.006 255 255 255
1.29 -0.775 2.114 255 255 255
-0.065 0.999 2.017 255 255 255
1.018 0.289 2.131 255 255 255
-0.851 -0.057 1.357 255 255 255
0.61 -0.673 2.017 255 255 255
0.133 0.651 2.026 255 255 255
0.043 -0.578 1.955 255 255 255
0.397 0.671 2.053 255 255 255
1.277 -0.146 2.14 255 255 255
-0.843 -0.142 1.322 255 255 255
1.267 -0.528 2.124 255 255 255
-0.866 0.471 1.935 0 0 0
1.306 0.183 2.157 255 255 255
0.043 -0.031 1.992 255 255 255
0.298 -1.394 1.957 255 255 255
-0.852 0.012 1.295 255 255 255
0.756 0.121 2.059 255 255 255
0.203 -0.999 1.966 255 255 255
0.42 0.046 2.028 255 255 255
-0.9 -0.274 1.822 255 255 255
0.214 0.996 2.045 255 255 255
0.809 0.253 2.117 255 255 255
1.444 -0.17 2.154 255 255 255
0.95 -0.815 2.087 255 255 255
0.33 -0.184 2.005 0 0 0
1.076 0.425 2.148 255 255 255
-0.789 0.349 1.911 255 255 255
0.709 -1.007 2.01 255 255 255
0.451 0.68 2.058 255 255 255
0.971 0.407 2.13 255 255 255
-0.075 0.646 2 255 255 255
0.501 -1.324 1.984 255 255 255
0.353 -0.95 1.982 255 255 255
-0.841 -0.052 1.207 255 255 255
-0.87 0.074 1.438 255 255 255
-0.862 0.065 1.368 255 255 255
-0.451 0.594 1.28 0 0 0
0.172 -0.368 1.992 255 255 255
0.882 -1.07 2.021 255 255 255
0.458 -0.253 2.017 255 255 255
0.85 -1.233 2.015 255 255 255
-0.204 0.998 2.567 0 0 0
0.9 -0.414 2.095 255 255 255
0.206 0.293 2.019 255 255 255
-0.518 1.014 2.612 255 255 255
1.518 -0.277 2.16 255 255 255
1.433 0.119 2.167 255 255 255
1.019 -0.912 2.052 255 255 255
0.606 0.064 2.047 255 255 255
0.619 -0.826 2.012 255 255 255
-0.423 0.515 1.289 255 255 255
-0.825 0.045 1.921 0 0 0
-0.821 -0.262 1.909 255 255 255
-0.09 0.442 2.022 255 255 255
1.208 -1.01 2.048 255 255 255
0.585 0.126 2.049 255 255 255
1.369 0.059 2.157 255 255 255
0.578 -0.573 2.02 255 255 255
0.632 0.319 2.058 255 255 255
0.269 0.661 1.197 255 255 255
0.578 0.018 2.042 255 255 255
1.386 -0.062 2.154 255 255 255
0.35 -0.567 2.001 255 255 255
-0.83 -0.239 1.275 255 255 255
0.544 -1.159 1.991 255 255 255
1.148 0.001 2.135 255 255 255
0.463 0.226 1.217 255 255 255
-0.822 -0.707 1.498 255 255 255
0.23 -0.729 1.981 255 255 255
0.381 0.485 1.005 255 255 255
-0.195 -1.709 2.934 255 255 255
-0.847 -0.037 1.287 255 255 255
0.199 0.372 2.022 255 255 255
0.561 -0.778 2.01 255 255 255
1.136 -1.092 2.047 255 255 255
-0.851 0.151 1.923 255 255 255
-0.823 0.248 1.947 255 255 255
0.488 -0.2 2.022 255 255 255
-0.406 0.142 1.27 0 0 0
-0.906 -0.136 1.763 255 255 255
-0.04 1.028 2.024 255 255 255
0.324 -1.084 1.973 255 255 255
0.868 -0.885 2.042 255 255 255
0.148 -1.437 1.944 0 0 0
-0.392 -0.351 1.261 255 255 255
1.127 0.201 2.141 255 255 255
0.577 0.325 2.052 255 255 255
0.988 0.105 2.123 255 255 255
-0.846 0.276 1.934 0 0 0
0.126 -0.666 1.972 255 255 255
-0.618 -1.74 2.827 255 255 255
0.584 -0.996 2.003 255 255 255
-0.859 -0.723 1.834 255 255 255
-0.36 1.047 2.041 255 255 255
0.38 -1.041 1.981 255 255 255
-0.396 -0.129 1.258 255 255 255
-0.733 -0.997 1.908 255 255 255
0.151 -0.019 2.002 255 255 255
0.02 0.581 2.015 255 255 255
0.366 -0.82 1.99 255 255 255
-0.695 0.988 2.845 255 255 255
0.726 -0.439 2.036 255 255 255
0.343 0.944 2.063 0 0 0
-0.787 -0.666 1.896 255 255 255
0.059 -1.127 1.937 255 255 255
-0.097 0.78 2.009 255 255 255
-0.607 1.016 2.352 255 255 255
0.622 -0.145 2.037 255 255 255
0.461 0.407 1.048 255 255 255
0.354 0.343 2.036 255 255 255
0.509 0.583 2.059 255 255 255
-0.897 0.836 1.949 255 255 255
1.373 -0.381 2.142 255 255 255
0.53 -1.386 1.984 255 255 255
0.264 0.871 2.049 255 255 255
-0.907 -0.133 1.839 255 255 255
0.943 0.341 2.132 255 255 255
0.454 0.75 2.06 255 255 255
1.146 0.548 2.159 255 255 255
0.434 0.245 1.244 0 0 0
0.217 1.07 2.048 255 255 255
-0.822 -0.444 1.344 255 255 255
0.706 0.009 2.05 255 255 255
0.797 0.23 2.112 0 0 0
0.281 -0.116 2.01 255 255 255
1.561 -0.178 2.163 255 255 255
0.131 -0.363 1.988 255 255 255
0.046 0.786 2.026 255 255 255
-0.292 1.061 1.928 255 255 255
0.115 -0.821 1.966 255 255 255
0.592 0.009 2.045 255 255 255
0.992 -0.152 2.118 255 255 255
0.161 -1.41 1.948 0 0 0
1.066 -0.085 2.122 255 255 255
0.666 -0.88 2.016 255 255 255
0.703 -0.355 2.036 255 255 255
0.6 -0.562 2.022 255 255 255
0.357 -0.357 2.005 255 255 255
0.385 0.561 1.021 255 255 255
0.511 -0.102 2.031 255 255 255
0.12 0.206 2.011 255 255 255
-0.719 -1.351 1.874 0 0 0
-0.268 0.912 2.958 255 255 255
-0.867 -0.537 1.894 255 255 255
-0.484 1.037 2.004 255 255 255
0.487 0.767 2.063 255 255 255
0.378 0.395 1.065 255 255 255
-0.744 -0.726 1.912 255 255 255
-0.86 0.001 1.371 255 255 255
0.701 -1.174 2.006 255 255 255
-0.787 0.005 1.916 255 255 255
0.526 -1.344 1.983 255 255 255
0.257 -0.301 2.001 255 255 255
0.093 -0.658 1.974 255 255 255
0.256 -0.22 2.001 255 255 255
0.299 -0.623 1.99 0 0 0
-0.582 1.025 2.036 255 255 255
1.226 -0.843 2.076 255 255 255
0.637 -1.33 1.995 255 255 255
-0.544 -1.73 2.656 255 255 255
0.816 0.023 2.107 255 255 255
-0.84 -0.929 1.714 255 255 255
0.986 0.187 2.127 255 255 255
0.508 0.055 2.038 255 255 255
-0.169 -1.7 2.573 255 255 255
-0.342 1.042 2.107 255 255 255
-0.932 0.23 1.827 255 255 255
0.051 -0.509 1.961 255 255 255
0.712 -1.528 2 255 255 255
1.321 -0.171 2.144 255 255 255
0.602 -1.278 1.993 255 255 255
1.363 0.078 2.156 255 255 255
0.565 -0.315 2.027 255 255 255
-0.818 -0.194 1.076 255 255 255
0.277 -0.184 2.005 255 255 255
-0.753 -0.994 1.886 255 255 255
0.343 -0.481 1.999 255 255 255
0.998 -1.206 2.028 255 255 255
-0.952 0.52 1.896 255 255 255
0.894 0.072 2.117 255 255 255
0.244 0.931 2.054 0 0 0
0.992 -0.42 2.105 255 255 255
0.923 0.345 2.133 255 255 255
-0.017 -0.453 1.987 255 255 255
0.912 -1.054 2.024 255 255 255
0.5 0.308 1.112 255 255 255
0.44 0.283 1.127 255 255 255
-0.032 0.044 1.98 255 255 255
0.533 -0.771 2.008 255 255 255
0.568 0.421 2.055 255 255 255
0.215 -0.975 1.967 255 255 255
-0.774 -1.315 1.866 255 255 255
0.515 0.322 1.12 255 255 255
0.351 0.464 1.053 255 255 255
-0.375 1.04 2.144 255 255 255
-0.443 0.504 1.28 255 255 255
0.218 -0.484 1.988 0 0 0
0.154 0.86 2.041 255 255 255
-0.398 1.019 2.67 255 255 255
0.682 -0.033 2.048 255 255 255
0.308 0.777 2.049 255 255 255
-0.954 0.515 1.871 255 255 255
0.381 0.708 2.054 255 255 255
-0.219 -1.729 2.697 255 255 255
0.914 -1.142 2.026 255 255 255
-0.405 0.063 1.263 255 255 255
0.39 -0.04 2.021 255 255 255
1.242 0.433 2.164 255 255 255
0.173 0.255 2.014 255 255 255
1.181 0.316 2.15 255 255 255
0.469 -1.095 1.983 255 255 255
0.705 -0.411 2.033 255 255 255
0.655 -0.205 2.039 255 255 255
1.229 -0.51 2.121 255 255 255
1.266 0.172 2.15 255 255 255
0.075 -1.421 1.924 0 0 0
0.174 -0.608 1.979 255 255 255
-0.351 -0.653 1.239 255 255 255
0.829 -1.427 2.009 255 255 255
0.475 -0.183 2.021 255 255 255
1.133 0.348 2.151 255 255 255
0.398 0.308 1.167 255 255 255
0.786 -0.055 2.066 255 255 255
-0.68 -1.744 2.81 0 0 0
-0.861 0.076 1.347 255 255 255
0.41 0.589 2.047 255 255 255
1.111 -0.653 2.105 255 255 255
-0.382 -0.059 1.269 255 255 255
-0.859 0.078 1.315 255 255 255
0.457 -1.513 1.973 255 255 255
-0.942 0.352 1.787 255 255 255
0.063 -0.285 1.983 255 255 255
-0.832 -0.177 1.911 255 255 255
-0.32 -1.722 2.741 0 0 0
-0.028 0.319 1.984 255 255 255
1.003 -0.297 2.11 255 255 255
0.56 -0.581 2.019 0 0 0
0.45 -0.841 1.995 255 255 255
0.966 -1.125 2.032 255 255 255
-0.172 -1.703 2.511 255 255 255
0.312 1.092 2.052 255 255 255
-0.835 -0.75 1.891 255 255 255
-0.941 0.342 1.824 255 255 255
-0.924 0.138 1.882 255 255 255
0.933 -0.86 2.048 255 255 255
1.077 -1.325 2.028 255 255 255
0.781 -0.693 2.028 255 255 255
0.1 0.682 2.027 255 255 255
-0.75 0.996 2.694 255 255 255
-0.86 -0.366 1.905 255 255 255
0.88 -0.762 2.08 255 255 255
1.244 -0.887 2.076 255 255 255
0.386 0.293 2.033 255 255 255
0.158 0.358 2.016 255 255 255
0.96 -0.057 2.119 255 255 255
-0.916 -0.042 1.805 255 255 255
0.581 -1.011 2.003 255 255 255
1.192 0.365 2.155 255 255 255
-0.372 -0.129 1.268 255 255 255
0.752 -0.809 2.025 255 255 255
0.107 0.005 1.999 255 255 255
0.257 0.918 2.056 0 0 0
-0.786 -0.169 1.93 255 255 255
0.591 -0.278 2.03 255 255 255
1.169 -0.064 2.133 255 255 255
-0.419 0.113 1.269 255 255 255
0.153 0.267 2.014 255 255 255
-0.828 -0.147 1.163 255 255 255
-0.244 1.058 2.044 255 255 255
0.767 -0.529 2.034 255 255 255
0.877 -1.194 2.019 255 255 255
-0.871 0.174 1.382 255 255 255
-0.424 0.995 2.826 255 255 255
-0.132 -1.702 2.819 255 255 255
1.25 0.321 2.161 255 255 255
0.187 0.005 2.006 255 255 255
0.521 -0.732 2.005 255 255 255
1.139 0.084 2.138 255 255 255
-0.426 -1.71 2.513 0 0 0
1.368 -0.429 2.137 255 255 255
0.816 -0.978 2.021 255 255 255
0.383 -1.106 1.978 255 255 255
0.408 0.411 1.061 255 255 255
-0.869 0.745 1.953 255 255 255
0.679 -0.875 2.014 255 255 255
0.574 0.546 2.06 255 255 255
1.199 -0.05 2.137 255 255 255
-0.698 0.986 2.916 255 255 255
0.585 -1.359 1.986 255 255 255
0.524 -0.053 2.035 255 255 255
0.203 0.77 2.037 255 255 255
0.101 -0.64 1.972 255 255 255
0.314 -0.837 1.981 255 255 255
0.445 -0.06 2.024 255 255 255
0.069 0.529 2.015 255 255 255
0.936 0.213 2.127 255 255 255
-0.788 0.189 1.901 255 255 255
0.147 -0.214 1.993 255 255 255
-0.325 -0.694 1.252 0 0 0
0.335 1.089 2.055 255 255 255
-0.839 -0.339 1.901 255 255 255
-0.107 -1.701 2.622 255 255 255
0.324 0.513 2.037 255 255 255
-0.873 0.895 1.97 0 0 0
0.39 -0.492 2.005 255 255 255
-0.865 0.139 1.333 255 255 255
0.262 -0.634 1.985 0 0 0
0.072 0.402 2.011 255 255 255
0.464 -0.336 2.016 255 255 255
0.265 -1.264 1.964 255 255 255
-0.838 -0.163 1.3 255 255 255
0.753 -0.999 2.016 255 255 255
-0.372 0.98 2.701 255 255 255
0.992 -0.675 2.098 255 255 255
-0.884 0.125 1.52 255 255 255
1.276 0.187 2.155 255 255 255
-0.413 0.134 1.267 255 255 255
0.269 -0.007 2.012 255 255 255
0.316 0.567 1.171 255 255 255
-0.856 0.078 1.918 255 255 255
0.376 0.398 1.112 255 255 255
-0.069 0.918 2.013 0 0 0
0.36 -0.503 2.001 255 255 255
0.244 0.339 2.025 255 255 255
0.404 0.346 1.1 255 255 255
0.116 -1.193 1.948 255 255 255
-0.026 0.756 2.019 255 255 255
0.096 -1.023 1.951 255 255 255
-0.02 -0.011 1.977 255 255 255
0.229 -1.377 1.956 255 255 255
0.188 0.827 2.042 255 255 255
0.212 -1.325 1.949 255 255 255
-0.869 0.441 1.935 255 255 255
0.627 -0.87 2.011 255 255 255
0.594 -1.388 1.993 255 255 255
0.007 -0.584 1.959 255 255 255
1.154 -0.314 2.121 255 255 255
0.388 0.478 2.044 255 255 255
0.492 -1.518 1.975 255 255 255
0.235 -0.465 1.996 255 255 255
-0.772 -1.264 1.867 255 255 255
0.891 -0.092 2.109 255 255 255
-0.733 -0.512 1.88 255 255 255
0.449 -0.158 2.021 255 255 255
0.023 -0.398 1.961 255 255 255
0.887 -1.421 2.013 255 255 255
-0.838 -0.11 1.259 255 255 255
1.446 -0.258 2.151 255 255 255
0.537 -0.766 2.007 255 255 255
-0.865 0.092 1.354 255 255 255
0.115 -0.118 1.994 255 255 255
0.25 -0.833 1.976 255 255 255
-0.28 1.046 2.133 255 255 255
0.371 -1.048 1.977 255 255 255
0.344 0.017 2.018 255 255 255
0.83 -0.109 2.104 255 255 255
0.426 0.279 1.17 255 255 255
0.333 0.499 1.123 255 255 255
0.098 -0.795 1.961 255 255 255
1.291 -0.26 2.136 255 255 255
-0.418 0.519 1.293 255 255 255
0.436 -0.068 2.024 255 255 255
1.074 0.473 2.148 255 255 255
0.278 -0.374 1.995 255 255 255
1.154 0.08 2.136 255 255 255
1.068 -1.001 2.037 255 255 255
-0.84 -0.524 1.541 255 255 255
0.409 0.32 2.04 255 255 255
0.26 -1.272 1.959 255 255 255
0.65 -0.087 2.043 255 255 255
0.265 -0.409 1.984 255 255 255
-0.925 0.505 1.933 255 255 255
0.279 0.2 2.022 255 255 255
-0.817 -0.243 1.106 255 255 255
0.368 -0.565 1.989 255 255 255
-0.317 0.978 2.569 0 0 0
0.276 -0.718 1.984 255 255 255
-0.824 -0.483 1.392 255 255 255
-0.222 1.059 2.047 255 255 255
0.504 0.356 1.092 255 255 255
1.121 -1.12 2.041 255 255 255
-0.351 -1.718 2.624 255 255 255
-0.4 -0.2 1.262 255 255 255
-0.817 -0.488 1.318 255 255 255
-0.888 -0.368 1.864 255 255 255
0.192 -0.332 1.993 255 255 255
-0.427 0.628 1.303 255 255 255
-0.327 -1.704 2.57 255 255 255
-0.821 -0.756 1.524 255 255 255
0.64 -0.425 2.028 255 255 255
-0.875 0.415 1.932 255 255 255
-0.816 -0.811 1.522 255 255 255
0.012 0.425 2.005 255 255 255
0.598 -0.929 2.006 255 255 255
0.06 0.46 2.012 255 255 255
0.221 -1.432 1.949 0 0 0
-0.843 -0.303 1.438 255 255 255
0.348 0.677 2.048 255 255 255
0.468 0.598 2.055 255 255 255
0.211 -0.589 1.983 255 255 255
-0.824 0.415 1.942 255 255 255
0.14 -1.044 1.959 255 255 255
0.091 -0.374 1.983 255 255 255
1.24 -0.717 2.111 255 255 255
1.382 -0.619 2.129 255 255 255
0.415 0.259 1.237 0 0 0
-0.199 0.8 2.342 255 255 255
1.055 -0.66 2.098 255 255 255
-0.76 -1.322 1.863 255 255 255
0.375 -1.355 1.969 255 255 255
-0.176 0.839 2.35 0 0 0
-0.85 0.127 1.922 255 255 255
-0.875 -0.477 1.744 255 255 255
-0.39 0.21 1.285 255 255 255
0.547 0.69 2.047 255 255 255
-0.786 -0.341 1.926 255 255 255
0.336 -1.332 1.966 255 255 255
-0.411 -0.699 1.333 255 255 255
-0.604 1.017 2.211 0 0 0
1.016 -1.366 2.024 255 255 255
0.664 0.191 2.055 255 255 255
-0.538 1.027 2.027 255 255 255
0.465 -0.51 2.015 255 255 255
-0.839 -0.104 1.255 255 255 255
1.323 -0.855 2.089 255 255 255
0.597 -0.342 2.027 255 255 255
-0.878 -0.35 1.905 255 255 255
0.064 -0.619 1.962 255 255 255
0.36 0.554 1.074 255 255 255
0.432 0.678 2.055 255 255 255
1.048 -0.704 2.097 255 255 255
-0.368 -0.245 1.264 255 255 255
-0.828 -0.231 1.256 255 255 255
-0.839 -1.012 1.808 255 255 255
0.805 -1.149 2.017 255 255 255
-0.829 -0.238 1.268 255 255 255
0.435 -1.061 1.983 255 255 255
0.933 -0.32 2.099 255 255 255
0.388 0.555 1.025 255 255 255
0.052 1.097 2.018 255 255 255
1.235 -0.046 2.141 255 255 255
0.038 0.863 2.03 255 255 255
0.223 0.523 2.032 255 255 255
0.325 0.176 2.028 255 255 255
0.956 -0.974 2.033 255 255 255
0.179 -0.87 1.969 255 255 255
1.185 -0.826 2.101 0 0 0
0.059 -0.074 1.989 255 255 255
0.689 -0.446 2.035 255 255 255
0.417 -0.384 2.009 255 255 255
0.274 0.102 2.016 255 255 255
0.301 0.574 2.039 255 255 255
-0.439 0.576 1.285 0 0 0
-0.742 -0.662 1.91 255 255 255
-0.84 -0.973 1.849 255 255 255
0.412 -0.273 2.016 0 0 0
-0.037 -0.319 1.996 255 255 255
0.501 -0.668 2.008 255 255 255
0.198 -0.998 1.964 255 255 255
-0.89 0.108 1.575 255 255 255
1.247 -0.187 2.136 255 255 255
0.799 -1.515 2.006 0 0 0
0.052 -0.603 1.954 255 255 255
-0.807 0.642 1.906 255 255 255
-0.884 0.075 1.543 255 255 255
-0.012 0.06 1.978 255 255 255
1.067 0.001 2.125 255 255 255
0.357 -0.931 1.984 255 255 255
-0.921 0.223 1.92 255 255 255
-0.573 -1.738 2.468 255 255 255
-0.856 0.001 1.335 255 255 255
0.954 -0.635 2.09 255 255 255
0.986 -0.944 2.038 255 255 255
0.591 0.418 2.058 255 255 255
-0.037 0.519 1.992 255 255 255
-0.808 -0.148 1.92 0 0 0
0.359 0.213 2.028 255 255 255
-0.617 1.015 2.307 0 0 0
-0.89 0.462 1.927 255 255 255
0.137 -0.573 1.977 255 255 255
-0.057 0.455 1.99 255 255 255
0.29 0.753 2.047 255 255 255
1.129 -0.082 2.13 255 255 255
0.901 -1.364 2.016 255 255 255
0.479 0.28 1.125 255 255 255
0.755 -0.569 2.033 255 255 255
0.441 0.426 1.037 255 255 255
0.419 -0.146 2.02 255 255 255
-0.872 0.191 1.364 255 255 255
-0.822 -0.729 1.887 255 255 255
0.295 -1.123 1.97 255 255 255
1.327 -0.547 2.122 255 255 255
1.004 -0.827 2.089 255 255 255
0.948 -0.607 2.092 255 255 255
0.202 -1.137 1.956 255 255 255
0.377 -1.075 1.979 255 255 255
-0.593 1.021 2.162 255 255 255
-0.64 1.013 2.496 255 255 255
0.143 -0.266 1.992 255 255 255
0.522 0.322 1.129 255 255 255
0.046 -1.014 1.944 255 255 255
1.128 -0.84 2.072 255 255 255
-0.945 0.418 1.879 255 255 255
0.297 -0.136 2.009 255 255 255
-0.013 0.615 2.013 255 255 255
0.509 0.217 1.201 255 255 255
-0.186 0.81 2.359 255 255 255
0.575 0.327 1.176 0 0 0
0.743 0.151 2.061 255 255 255
-0.383 -0.392 1.251 255 255 255
0.377 -1.167 1.973 255 255 255
0.299 0.515 1.215 255 255 255
0.399 0.3 1.198 0 0 0
0.032 0.38 2.005 255 255 255
1.017 -0.974 2.04 255 255 255
-0.871 0.683 1.949 255 255 255
0.025 -1.124 1.977 255 255 255
0.481 0.369 1.073 255 255 255
-0.06 0.224 1.998 255 255 255
-0.955 0.51 1.797 255 255 255
0.464 -0.579 1.997 255 255 255
0.319 0.506 1.136 255 255 255
0.274 -0.584 1.993 0 0 0
-0.829 -1.089 1.74 255 255 255
-0.83 -0.276 1.299 255 255 255
0.296 -1.149 1.969 255 255 255
0.978 -1.581 2.014 255 255 255
-0.374 -1.724 2.841 255 255 255
-0.856 -0.215 1.485 255 255 255
0.965 -0.21 2.112 255 255 255
-0.357 -0.831 1.249 255 255 255
0.067 -0.134 1.99 255 255 255
0.874 -0.591 2.087 255 255 255
-0.004 -0.39 1.963 255 255 255
-0.474 -1.719 2.521 255 255 255
0.436 0.281 1.153 0 0 0
0.725 -1.441 1.998 0 0 0
1.016 -0.652 2.096 255 255 255
0.042 0.874 2.032 255 255 255
0.187 -0.247 1.997 255 255 255
0.559 -0.194 2.03 255 255 255
0.461 0.313 2.045 255 255 255
0.479 0.43 2.052 255 255 255
-0.413 0.421 1.289 0 0 0
-0.894 0.078 1.919 255 255 255
0.321 -0.459 1.997 255 255 255
1.396 0.279 2.168 255 255 255
0.301 -0.661 1.996 0 0 0
-0.227 -1.417 1.903 255 255 255
0.729 -0.02 2.051 255 255 255
-0.814 -0.326 1.133 255 255 255
0.329 0.526 1.128 255 255 255
0.234 0.671 1.262 255 255 255
0.659 -0.927 2.011 255 255 255
0.207 -0.791 1.978 255 255 255
-0.823 -0.154 1.106 255 255 255
0.091 1.019 2.035 255 255 255
0.066 -0.984 1.942 255 255 255
-0.33 1.001 2.491 255 255 255
0.516 -0.607 2.01 0 0 0
0.883 -1.249 2.014 255 255 255
0.722 -0.352 2.038 255 255 255
1.229 -0.418 2.124 255 255 255
-0.852 -0.784 1.748 255 255 255
0.55 -0.227 2.028 255 255 255
1.407 0.167 2.164 255 255 255
0.474 0.256 1.142 0 0 0
0.377 -0.886 1.988 255 255 255
1.113 -0.984 2.045 255 255 255
0.189 0.271 2.015 255 255 255
0.616 -1.457 1.991 0 0 0
0.189 0.231 2.017 255 255 255
0.725 -1.071 2.009 255 255 255
-0.413 0.187 1.271 255 255 255
-0.333 -0.935 1.228 255 255 255
1.098 -0.9 2.063 255 255 255
0.477 -0.221 2.026 255 255 255
-0.837 -0.19 1.303 255 255 255
0.007 -0.366 1.963 255 255 255
-0.396 -0.11 1.257 255 255 255
0.136 -0.481 1.982 255 255 255
0.059 0.845 2.033 255 255 255
0.911 -0.248 2.103 255 255 255
0.789 -1.238 2.01 255 255 255
-0.176 0.831 2.359 0 0 0
-0.827 -1.195 1.791 255 255 255
0.135 -1.223 1.952 255 255 255
-0.946 0.393 1.836 255 255 255
0.481 0.258 2.042 255 255 255
-0.738 -0.963 1.907 255 255 255
0.806 -0.374 2.047 255 255 255
-0.838 -0.335 1.433 255 255 255
0.409 0.522 1.017 255 255 255
-0.952 0.588 1.923 255 255 255
0.134 0.72 2.031 255 255 255
0.368 0.398 1.288 0 0 0
-0.817 -0.733 1.886 255 255 255
0.086 -1.273 1.929 255 255 255
0.151 -0.146 1.996 255 255 255
-0.853 -0.765 1.744 255 255 255
0.532 0.155 2.044 255 255 255
0.226 0.215 2.018 255 255 255
0.723 -1.149 2.006 255 255 255
-0.404 -0.051 1.261 255 255 255
1.152 0.644 2.165 255 255 255
1.555 -0.293 2.155 255 255 255
-0.414 0.201 1.272 255 255 255
-0.395 -0.205 1.257 255 255 255
0.078 -0.838 1.953 255 255 255
0.358 0.355 2.034 255 255 255
1.212 0.49 2.166 255 255 255
1.065 0.515 2.146 255 255 255
1.271 0.371 2.162 255 255 255
0.041 0.734 2.022 255 255 255
0.026 -1.388 1.963 255 255 255
-0.822 -0.336 1.259 255 255 255
-0.771 -0.666 1.901 0 0 0
-0.245 -1.727 2.816 255 255 255
0.641 -0.037 2.046 255 255 255
0.028 0.616 2.016 255 255 255
-0.839 -0.099 1.266 255 255 255
0.427 0.912 2.012 0 0 0
0.79 -1.067 2.017 255 255 255
0.609 -1.195 1.994 255 255 255
1.041 -0.743 2.097 255 255 255
1.286 0.255 2.159 255 255 255
-0.226 1.031 2.432 255 255 255
0.914 0.059 2.117 255 255 255
0.564 -0.764 2.009 255 255 255
-0.747 -0.231 1.906 255 255 255
1.038 0.106 2.13 255 255 255
0.706 -0.441 2.032 255 255 255
0.231 0.322 2.021 255 255 255
0.015 -0.027 1.975 255 255 255
0.155 -0.234 1.992 255 255 255
0.19 -1.159 1.959 255 255 255
0.4 0.302 2.038 255 255 255
0.444 0.403 1.051 255 255 255
0.629 -1.397 1.991 255 255 255
-0.383 0.139 1.326 255 255 255
0.468 0.752 2.062 255 255 255
0.662 -1.144 1.999 255 255 255
0.071 -0.329 1.981 255 255 255
-0.869 -0.552 1.726 255 255 255
-0.001 0.66 2.016 255 255 255
1.468 -0.333 2.149 255 255 255
0.592 -0.47 2.024 255 255 255
0.335 0.456 1.204 0 0 0
0.473 0.267 2.043 255 255 255
-0.448 1.037 2.083 255 255 255
0.614 -1.493 1.989 0 0 0
-0.892 -0.327 1.858 255 255 255
1.269 0.186 2.153 255 255 255
-0.809 -0.603 1.307 255 255 255
-0.332 -0.679 1.248 255 255 255
0.483 0.518 2.054 255 255 255
0.043 1.089 2.023 255 255 255
1.287 0.182 2.155 255 255 255
0.511 0.624 2.062 255 255 255
0.253 0.361 2.027 255 255 255
1.018 -0.618 2.096 255 255 255
0.163 0.869 2.041 255 255 255
-0.516 0.648 1.39 0 0 0
-0.332 -0.724 1.245 255 255 255
0.854 -0.202 2.1 255 255 255
0.044 -1.39 1.949 255 255 255
0.963 -1.553 2.016 255 255 255
-0.43 0.639 1.298 255 255 255
0.921 -0.155 2.107 255 255 255
-0.432 1.041 1.969 255 255 255
-0.036 -0.251 1.999 0 0 0
0.079 0.136 2.003 255 255 255
1.147 -0.281 2.122 255 255 255
-0.469 1.026 2.482 255 255 255
-0.053 0.477 1.992 255 255 255
-0.956 0.565 1.817 255 255 255
0.525 0.415 1.116 255 255 255
-0.793 -0.031 1.929 255 255 255
0.633 0.208 2.054 255 255 255
0.16 0.097 2.009 255 255 255
0.594 -0.939 2.007 255 255 255
0.52 -0.119 2.032 255 255 255
0.431 0.445 2.047 255 255 255
1.045 -0.503 2.106 255 255 255
0.475 -0.077 2.027 255 255 255
0.488 0.434 2.051 255 255 255
0.885 -0.413 2.094 255 255 255
-0.812 -1.284 1.763 0 0 0
0.277 -1.141 1.966 255 255 255
1.297 -0.428 2.129 255 255 255
0.967 -0.656 2.092 255 255 255
-0.035 0.965 2.018 255 255 255
-0.832 -0.169 1.197 255 255 255
0.544 0.499 2.056 255 255 255
-0.823 -0.38 1.289 255 255 255
0.117 -0.589 1.976 255 255 255
0.338 0.733 2.052 255 255 255
0.353 0.586 1.172 255 255 255
-0.944 0.514 1.93 255 255 255
0.366 0.078 2.026 255 255 255
-0.06 0.001 2.005 255 255 255
-0.054 0.685 1.998 255 255 255
1.182 -0.045 2.137 255 255 255
-0.458 1.034 2.108 255 255 255
0.285 -0.436 2.01 255 255 255
0.319 0.567 1.171 255 255 255
0.019 -0.524 1.958 255 255 255
-0.31 1.045 2.266 255 255 255
-0.899 0.038 1.92 255 255 255
-0.812 0.561 1.912 255 255 255
-0.927 0.267 1.743 255 255 255
1.117 -0.858 2.068 255 255 255
-0.961 0.645 1.899 255 255 255
-0.836 0.272 1.943 255 255 255
-0.79 -0.451 1.91 0 0 0
0.585 -0.521 2.021 255 255 255
-0.915 -0.019 1.885 255 255 255
-0.473 -0.139 1.376 255 255 255
1.014 0.024 2.125 255 255 255
0.578 0.376 1.165 255 255 255
1.094 0.446 2.15 255 255 255
1.451 0.198 2.172 255 255 255
0.391 0.58 1.025 255 255 255
1.174 0.54 2.16 255 255 255
-0.39 -0.236 1.254 255 255 255
-0.374 -0.684 1.263 255 255 255
-0.719 -0.577 1.875 255 255 255
0.172 0.186 2.013 255 255 255
-0.804 0.082 1.934 255 255 255
0.14 0.23 2.013 255 255 255
1.37 -0.008 2.158 255 255 255
0.843 0.098 2.112 255 255 255
0.346 0.66 1.243 255 255 255
-0.419 0.531 1.293 255 255 255
-0.364 -0.526 1.241 255 255 255
0.624 0.246 2.054 255 255 255
1.399 -0.785 2.122 255 255 255
1.21 -0.74 2.114 255 255 255
0.112 0.274 2.01 255 255 255
-0.909 0.155 1.685 255 255 255
0.513 -0.91 2.001 255 255 255
-0.755 -0.862 1.893 0 0 0
0.462 -0.595 2.006 255 255 255
1.188 -0.199 2.132 255 255 255
-0.815 -0.824 1.523 255 255 255
0.914 -0.65 2.087 255 255 255
-0.362 -1.713 2.512 255 255 255
-0.851 -0.776 1.717 255 255 255
0.314 0.906 2.058 0 0 0
0.618 0.31 2.057 255 255 255
0.721 -0.643 2.028 255 255 255
0.439 0.116 2.033 255 255 255
0.702 -0.963 2.017 255 255 255
0.497 -0.094 2.028 255 255 255
-0.175 1.066 2.014 255 255 255
0.135 0.113 2.008 255 255 255
-0.434 1.035 2.136 255 255 255
0.068 0.282 2.007 255 255 255
0.917 -1.585 2.009 255 255 255
0.039 -0.582 1.954 255 255 255
0.343 0.514 1.117 255 255 255
0.977 0.051 2.122 255 255 255
-0.833 -0.352 1.341 255 255 255
-0.388 0.984 2.346 255 255 255
0.426 0.295 2.039 255 255 255
-0.837 -0.993 1.86 255 255 255
1.043 -0.176 2.115 255 255 255
0.342 0.381 2.035 255 255 255
1.347 -0.506 2.132 255 255 255
-0.849 -0.198 1.42 255 255 255
1.255 0.253 2.156 255 255 255
-0.383 0.15 1.277 255 255 255
0.956 0.2 2.127 255 255 255
-0.037 0.417 1.987 255 255 255
0.933 -0.62 2.091 255 255 255
0.369 -0.779 1.991 255 255 255
0.399 -1.302 1.973 255 255 255
0.224 0.869 2.048 255 255 255
0.601 -0.773 2.012 255 255 255
1.439 -0.549 2.134 255 255 255
0.912 -1.007 2.026 255 255 255
0.872 -1.13 2.014 255 255 255
0.841 0.187 2.117 255 255 255
-0.373 -1.727 2.833 255 255 255
-0.424 0.179 1.269 255 255 255
0.981 -1.327 2.02 255 255 255
1.103 0.275 2.143 255 255 255
-0.82 -0.203 1.064 255 255 255
0.023 0.092 1.993 255 255 255
-0.868 -0.304 1.908 255 255 255
0.253 0.613 1.214 255 255 255
0.995 -0.224 2.109 255 255 255
0.888 -1.47 2.01 0 0 0
-0.489 -1.737 2.932 255 255 255
0.229 -0.386 1.994 255 255 255
0.479 0.54 2.055 255 255 255
0.674 0.06 2.049 255 255 255
-0.248 1.012 2.346 255 255 255
-0.818 -0.257 1.156 255 255 255
0.105 -0.679 1.972 255 255 255
0.768 -0.05 2.056 255 255 255
1.175 -0.405 2.119 255 255 255
-0.596 1.009 2.634 255 255 255
0.34 0.021 2.02 255 255 255
0.257 -0.358 1.997 255 255 255
-0.394 -0.157 1.258 255 255 255
0.325 0.648 2.044 255 255 255
0.047 -0.153 1.985 255 255 255
-0.866 -0.165 1.544 255 255 255
0.119 0.077 2.004 255 255 255
0.277 0.628 2.042 255 255 255
0.051 -0.595 1.954 255 255 255
-0.295 1.027 2.313 0 0 0
0.666 0.356 2.061 255 255 255
0.305 -0.059 2.006 255 255 255
-0.333 1.054 1.978 255 255 255
1.235 -0.749 2.117 255 255 255
-0.767 0.987 2.811 255 255 255
0.913 -0.957 2.031 255 255 255
0.061 -0.847 1.944 255 255 255
-0.854 -0.026 1.344 255 255 255
-0.406 -0.728 1.329 255 255 255
0.131 -1.268 1.945 255 255 255
-0.798 -1.005 1.876 255 255 255
1.392 -0.801 2.126 255 255 255
-0.935 0.255 1.84 255 255 255
0.354 0.14 2.029 255 255 255
0.37 0.782 2.054 255 255 255
0.373 -0.161 2.014 255 255 255
1.13 -0.724 2.105 255 255 255
0.997 -0.545 2.098 255 255 255
-0.889 0.501 1.928 255 255 255
-0.779 -1.123 1.872 255 255 255
0.314 -0.686 1.99 255 255 255
0.025 0.922 2.032 0 0 0
0.273 0.494 2.033 255 255 255
0.016 0.313 2 255 255 255
0.806 -1 2.015 255 255 255
0.479 -0.192 2.019 255 255 255
-0.694 -1.461 1.866 255 255 255
1.049 -0.081 2.12 255 255 255
0.294 -0.883 1.98 255 255 255
-0.891 0.029 1.616 255 255 255
0.933 0.318 2.135 255 255 255
0.192 -0.901 1.965 255 255 255
1.309 0.101 2.155 255 255 255
0.939 -0.057 2.117 255 255 255
-0.398 -0.184 1.258 255 255 255
-0.83 -0.933 1.668 255 255 255
-0.813 -0.285 1.105 255 255 255
0.079 -0.281 1.984 255 255 255
-0.76 0.191 1.887 255 255 255
-0.877 -0.301 1.909 255 255 255
-0.687 1.009 2.51 255 255 255
0.249 -0.341 1.994 255 255 255
0.175 -0.643 1.978 255 255 255
-0.82 -0.197 1.093 255 255 255
0.706 -1.188 2.001 255 255 255
1.246 0.518 2.17 255 255 255
-0.361 -0.298 1.261 255 255 255
0.099 0.137 2.006 255 255 255
-0.034 0.801 2.017 255 255 255
0.267 -0.457 1.995 255 255 255
0.268 0.751 2.046 255 255 255
0.039 -0.169 1.982 255 255 255
1.094 -0.196 2.121 255 255 255
-0.867 0.343 1.932 255 255 255
-0.176 1.046 2.29 0 0 0
-0.5 1.027 2.11 255 255 255
0.756 -1.346 2.005 255 255 255
0.774 -0.429 2.042 255 255 255
-0.865 -0.117 1.494 255 255 255
0.63 -1.362 1.992 255 255 255
0.164 -1.172 1.956 255 255 255
-0.838 -0.103 1.232 255 255 255
0.29 0.985 2.048 255 255 255
0.169 -1.351 1.948 255 255 255
-0.698 -0.869 1.868 255 255 255
-0.842 -0.427 1.496 255 255 255
0.498 -0.59 2.013 0 0 0
-0.065 0.117 2.014 255 255 255
0.027 -0.211 1.972 255 255 255
0.391 -0.648 2.002 0 0 0
0.533 -0.859 2.002 255 255 255
-0.809 -0.052 1.935 255 255 255
1.051 -1.198 2.029 255 255 255
-0.001 -0.227 1.968 255 255 255
1.045 -0.244 2.114 255 255 255
1.207 0.391 2.158 255 255 255
1.015 -0.362 2.107 255 255 255
0.289 -0.192 2.002 255 255 255
0.823 -0.903 2.023 255 255 255
0.528 -0.152 2.029 0 0 0
-0.818 -0.221 1.116 255 255 255
1.159 -1.172 2.043 255 255 255
1.266 -0.753 2.119 255 255 255
-0.848 -0.158 1.365 255 255 255
0.386 0.421 1.051 255 255 255
-0.396 0.058 1.27 255 255 255
-0.822 -0.179 1.116 255 255 255
-0.93 0.187 1.882 255 255 255
-0.327 -0.856 1.236 255 255 255
0.044 -0.723 1.949 255 255 255
-0.729 -1.761 2.984 0 0 0
0.676 -0.891 2.017 255 255 255
1.572 -0.486 2.147 255 255 255
0.349 0.482 1.059 255 255 255
0.697 -0.278 2.039 255 255 255
-0.836 -0.293 1.362 255 255 255
0.322 0.671 1.207 255 255 255
0.35 -1.482 1.963 0 0 0
0.045 0.546 2.013 255 255 255
0.078 0.657 2.02 255 255 255
-0.747 -1.279 1.87 255 255 255
0.459 0.351 1.088 255 255 255
0.665 0.043 2.051 255 255 255
0.271 -0.416 1.996 255 255 255
0.868 -1.291 2.012 255 255 255
0.058 0.767 2.025 255 255 255
-0.473 -1.734 2.672 255 255 255
0.395 0.525 1.027 255 255 255
-0.738 -1.203 1.875 0 0 0
0.523 -1.249 1.988 255 255 255
0.032 -0.845 1.949 255 255 255
-0.885 0.173 1.463 255 255 255
-0.41 -0.083 1.27 255 255 255
0.749 -0.423 2.039 255 255 255
-0.867 0.033 1.446 255 255 255
-0.837 -0.123 1.234 255 255 255
1.207 -0.57 2.112 255 255 255
0.788 -0.451 2.038 255 255 255
-0.696 -0.855 1.88 255 255 255
0.265 -0.558 1.99 0 0 0
-0.77 0.178 1.869 255 255 255
0.285 0.597 2.042 255 255 255
-0.809 -1.207 1.871 255 255 255
-0.443 -0.382 1.355 255 255 255
0.285 -0.736 1.984 255 255 255
0.41 0.748 2.061 255 255 255
0.936 -0.498 2.095 255 255 255
-0.833 -0.138 1.185 255 255 255
-0.74 -0.268 1.919 255 255 255
0.389 0.686 1.267 255 255 255
0.665 -0.951 2.009 255 255 255
0.115 -0.262 1.989 255 255 255
0.656 -0.95 2.009 255 255 255
-0.927 0.137 1.859 255 255 255
0.253 0.813 2.048 255 255 255
0.808 -0.341 2.057 255 255 255
0.082 0.623 2.024 255 255 255
-0.319 -1.72 2.664 255 255 255
0.127 1.101 2.023 255 255 255
0.132 -0.403 1.986 255 255 255
0.242 -1.373 1.957 255 255 255
-0.925 0.328 1.927 255 255 255
-0.827 -0.13 1.123 255 255 255
1.049 -0.008 2.121 255 255 255
1.067 -0.181 2.121 255 255 255
-0.623 -1.741 2.712 0 0 0
0.52 -1.274 1.984 255 255 255
0.374 0.054 2.024 255 255 255
0.345 0.458 2.041 255 255 255
0.341 0.587 1.189 255 255 255
-0.943 0.641 1.936 255 255 255
1.233 -0.361 2.127 255 255 255
0.215 1.012 2.047 255 255 255
0.721 0.358 2.061 255 255 255
0.334 0.848 2.056 255 255 255
0.392 -0.924 1.985 255 255 255
0.662 0.376 2.03 255 255 255
0.297 0.43 2.034 255 255 255
-0.738 -1.05 1.891 0 0 0
-0.174 1.049 2.271 255 255 255
0.345 1.007 2.055 255 255 255
0.859 -1.097 2.018 255 255 255
0.881 -1.415 2.014 255 255 255
0.095 0.057 2.001 255 255 255
-0.001 -1.379 1.993 255 255 255
-0.872 -0.112 1.91 255 255 255
0.611 -0.484 2.027 255 255 255
0.452 0.424 2.048 255 255 255
-0.824 -0.881 1.886 255 255 255
0.764 -1.249 2.006 255 255 255
0.754 0.014 2.056 255 255 255
-0.909 0.626 1.927 255 255 255
0.021 1.039 2.025 255 255 255
-0.812 -0.597 1.328 255 255 255
0.401 0.363 1.082 255 255 255
0.32 -0.739 1.988 255 255 255
0.37 -0.677 1.997 255 255 255
0.386 0.264 2.036 255 255 255
-0.04 -0.118 2.001 255 255 255
1.307 -0.706 2.118 255 255 255
-0.416 1.035 2.197 255 255 255
1.192 0.356 2.156 255 255 255
-0.029 0.443 1.989 255 255 255
0.367 0.548 1.049 255 255 255
0.397 0.336 2.039 255 255 255
-0.569 1.022 2.145 255 255 255
-0.912 0.429 1.927 255 255 255
-0.915 0.332 1.926 255 255 255
0.658 -1.429 1.995 255 255 255
0.081 0.49 2.013 255 255 255
0.138 0.948 2.042 0 0 0
0.341 -1.254 1.968 255 255 255
-0.718 -1.184 1.893 255 255 255
0.718 0.103 2.056 255 255 255
0.039 -0.228 1.978 255 255 255
1.053 -1.428 2.034 255 255 255
0.141 0.849 2.039 255 255 255
0.588 -0.604 2.018 255 255 255
-0.896 -0.273 1.881 255 255 255
0.214 -0.455 1.991 0 0 0
0.34 0.013 2.019 255 255 255
0.336 0.11 2.022 255 255 255
0.258 -0.581 1.996 0 0 0
1.374 -0.777 2.123 255 255 255
0.115 -0.209 1.989 255 255 255
0.39 -1.36 1.975 255 255 255
0.211 -0.075 2.005 255 255 255
1.129 -0.415 2.114 255 255 255
0.257 0.598 1.241 255 255 255
1.058 -0.035 2.129 255 255 255
0.191 -1.323 1.956 255 255 255
-0.069 0.186 2.015 255 255 255
1.165 -1.059 2.049 255 255 255
-0.961 0.607 1.858 255 255 255
1.367 -0.312 2.139 255 255 255
1.345 -0.861 2.083 255 255 255
0.595 -0.182 2.035 255 255 255
-0.499 0.357 1.381 255 255 255
0.565 -0.269 2.029 255 255 255
0.533 -0.877 2 255 255 255
-0.027 -1.397 1.926 0 0 0
-0.822 0.789 1.908 255 255 255
0.3 0.507 1.223 255 255 255
0.899 -1.251 2.014 255 255 255
1.391 -0.358 2.144 255 255 255
-0.424 1.035 2.184 255 255 255
0.614 -0.174 2.038 255 255 255
0.316 -1.466 1.962 0 0 0
0.007 -0.358 1.964 255 255 255
0.283 0.555 2.036 255 255 255
-0.817 -0.493 1.324 255 255 255
-0.026 0.813 2.024 255 255 255
-0.377 -0.067 1.27 255 255 255
0.379 -1.184 1.975 255 255 255
-0.427 -1.411 1.948 0 0 0
0.177 0.915 2.044 0 0 0
-0.253 -1.712 2.843 255 255 255
-0.825 -0.524 1.435 255 255 255
0.446 -0.47 2.011 0 0 0
0.37 -0.724 1.991 255 255 255
-0.006 -1.701 2.523 0 0 0
0.438 0.27 2.038 255 255 255
-0.401 -0.074 1.259 255 255 255
1.249 -0.997 2.053 255 255 255
0.048 -0.741 1.95 255 255 255
0.056 1.097 2.017 255 255 255
1.423 0.182 2.169 255 255 255
0.385 -0.957 1.984 255 255 255
0.555 -0.016 2.037 255 255 255
-0.849 -0.851 1.772 255 255 255
1.002 -0.545 2.097 255 255 255
0.02 -0.816 1.958 255 255 255
0.345 0.428 1.26 255 255 255
0.524 0.538 2.058 255 255 255
0.475 0.421 1.041 255 255 255
-0.821 -0.298 1.213 255 255 255
0.633 -0.953 2.009 255 255 255
0.26 1.016 2.05 255 255 255
-0.031 0.985 2.018 255 255 255
-0.865 0.251 1.928 255 255 255
0.386 -1.076 1.979 255 255 255
0.532 -0.16 2.028 255 255 255
-0.361 -0.437 1.252 255 255 255
-0.593 0.986 2.893 255 255 255
1.201 0.237 2.152 255 255 255
0.14 -1.072 1.956 255 255 255
0.04 -0.83 1.948 255 255 255
0.623 -0.037 2.043 255 255 255
-0.815 0.128 1.947 255 255 255
-0.873 -0.568 1.798 255 255 255
0.464 -0.655 2.001 255 255 255
0.543 0.252 2.048 255 255 255
0.012 0.549 2.01 255 255 255
-0.813 -0.283 1.11 255 255 255
1.328 -0.43 2.131 255 255 255
0.465 -0.943 1.995 255 255 255
1.547 -0.489 2.149 255 255 255
0.698 0.214 2.06 255 255 255
-0.784 -0.14 1.926 255 255 255
0.192 0.972 2.048 255 255 255
0.965 0.01 2.12 255 255 255
0.412 0.8 2.059 255 255 255
0.423 -0.312 2.004 255 255 255
-0.008 0.091 1.981 255 255 255
-0.697 -1.374 1.887 0 0 0
0.988 -0.612 2.101 255 255 255
0.261 -0.301 2 255 255 255
0.496 0.6 2.057 255 255 255
0.119 -0.086 1.995 255 255 255
0.443 0.432 2.046 255 255 255
0.036 -0.596 1.957 255 255 255
0.287 -0.796 1.984 255 255 255
-0.531 1.022 2.287 0 0 0
-0.903 0.127 1.65 255 255 255
-0.33 -1.723 2.778 255 255 255
0.135 -1.049 1.959 255 255 255
-0.268 1.062 1.979 255 255 255
1.284 -0.579 2.124 255 255 255
1.232 -0.858 2.072 255 255 255
0.443 0.294 1.119 255 255 255
1.147 -0.953 2.046 255 255 255
0.609 -0.733 2.017 255 255 255
0.369 -0.894 1.986 255 255 255
0.407 0.256 2.036 255 255 255
0.358 0.438 1.119 255 255 255
0.004 0.425 2.003 255 255 255
0.776 -0.153 2.05 255 255 255
0.739 -0.186 2.048 255 255 255
-0.361 -0.507 1.245 255 255 255
0.833 0.102 2.111 255 255 255
0.228 -0.615 1.983 255 255 255
-0.434 0.523 1.284 255 255 255
0.144 -1.073 1.956 255 255 255
-0.3 1.007 2.318 255 255 255
-0.355 -0.49 1.25 255 255 255
-0.844 -0.088 1.91 255 255 255
-0.818 -0.195 1.081 255 255 255
0.031 -0.251 1.971 255 255 255
0.377 0.355 1.184 255 255 255
1.059 -0.369 2.109 255 255 255
0.223 0.548 2.03 255 255 255
0.034 -1.084 1.961 255 255 255
-0.482 1.016 2.499 255 255 255
-0.388 0.135 1.285 255 255 255
0.314 1.014 2.052 255 255 255
0.245 -0.398 1.993 255 255 255
-0.919 0.028 1.793 255 255 255
0.97 0.024 2.12 255 255 255
-0.883 -0.476 1.807 255 255 255
0.541 -0.444 2.017 255 255 255
-0.86 -0.75 1.797 255 255 255
0.755 0.299 2.071 255 255 255
0.393 0.504 2.044 255 255 255
0.38 0.499 2.043 255 255 255
1.073 -0.186 2.122 255 255 255
0.451 0.619 2.052 255 255 255
0.134 -0.658 1.973 255 255 255
0.427 0.169 2.034 255 255 255
0.953 0.305 2.136 255 255 255
0.538 -0.02 2.037 255 255 255
0.044 0.347 2.006 255 255 255
0.381 0.562 1.023 255 255 255
0.601 -0.045 2.043 255 255 255
-0.884 -0.369 1.895 255 255 255
0.356 -0.671 1.996 255 255 255
0.369 -0.348 2 255 255 255
0.542 -0.198 2.03 255 255 255
-0.875 0.849 1.964 0 0 0
0.039 0.1 1.996 255 255 255
0.188 -0.907 1.967 255 255 255
1.08 0.483 2.148 255 255 255
-0.864 0.071 1.377 255 255 255
0.339 -0.503 2.001 0 0 0
0.168 0.081 2.01 255 255 255
0.003 -0.378 1.962 255 255 255
0.619 0.353 2.056 255 255 255
0.777 -0.764 2.027 255 255 255
0.316 0.098 2.024 255 255 255
0.315 -1.277 1.963 255 255 255
0.282 0.545 1.232 0 0 0
0.289 1.066 2.055 255 255 255
-0.896 -0.288 1.842 255 255 255
-0.906 -0.059 1.732 255 255 255
0.081 0.487 2.015 255 255 255
0.199 0.389 2.023 255 255 255
0.482 -0.366 2.018 255 255 255
0.153 -1.278 1.95 255 255 255
-0.492 0.304 1.376 255 255 255
0.736 -1.535 1.994 255 255 255
-0.855 -0.749 1.884 255 255 255
0.84 -1.012 2.023 255 255 255
0.073 0.538 2.016 255 255 255
-0.337 -0.796 1.237 255 255 255
0.515 0.424 1.097 255 255 255
-0.82 -0.302 1.162 255 255 255
0.594 -0.376 2.029 255 255 255
-0.817 -0.526 1.336 255 255 255
-0.096 0.687 2.017 255 255 255
0.958 -1.232 2.025 255 255 255
0.426 -0.384 2.01 255 255 255
0.156 0.109 2.009 255 255 255
0.995 -0.098 2.117 255 255 255
1.073 0.25 2.139 255 255 255
1.304 -0.405 2.134 255 255 255
-0.821 -1.153 1.859 255 255 255
0.186 -1.174 1.958 255 255 255
0.905 0.23 2.125 255 255 255
0.424 0.236 2.036 255 255 255
0.266 -1.079 1.969 255 255 255
0.121 0.412 2.017 255 255 255
0.329 0.151 2.024 255 255 255
-0.824 -0.235 1.21 255 255 255
1.356 -0.566 2.127 255 255 255
-0.428 0.178 1.275 255 255 255
0.072 -1.167 1.933 255 255 255
0.299 0.513 1.218 255 255 255
0.436 0.362 1.088 255 255 255
0.306 0.287 2.029 255 255 255
-0.82 -0.23 1.158 255 255 255
1.154 0.047 2.136 255 255 255
-0.825 -0.182 1.165 255 255 255
0.709 -0.823 2.021 255 255 255
1.236 0.532 2.171 255 255 255
0.019 -0.374 1.961 255 255 255
-0.881 -0.471 1.863 255 255 255
-0.294 -1.434 1.896 255 255 255
0.388 0.318 1.2 0 0 0
0.816 0.041 2.108 255 255 255
0.813 0.098 2.11 255 255 255
0.879 -0.591 2.088 255 255 255
-0.005 0.353 1.996 255 255 255
-0.803 -1.413 1.804 255 255 255
0.562 -1.421 1.984 255 255 255
1.183 0.322 2.153 255 255 255
0.307 0.618 1.16 255 255 255
0.408 0.544 2.047 255 255 255
-0.818 -0.217 1.126 255 255 255
0.111 -0.003 1.999 255 255 255
-0.723 -0.648 1.897 255 255 255
-0.349 -0.457 1.256 255 255 255
0.157 -1.078 1.956 255 255 255
0.754 -0.319 2.04 255 255 255
0.076 -0.63 1.97 255 255 255
1.212 -0.238 2.131 255 255 255
0.665 0.329 2.061 255 255 255
0.314 0.279 2.03 255 255 255
1.303 0.13 2.155 255 255 255
0.157 0.222 2.015 255 255 255
-0.513 0.595 1.386 255 255 255
0.934 0.167 2.126 255 255 255
0.059 -0.349 1.979 255 255 255
1.019 0.019 2.124 255 255 255
0.531 0.29 2.048 255 255 255
0.051 -0.229 1.983 255 255 255
0.166 0.998 2.042 255 255 255
1.489 0.14 2.174 255 255 255
-0.522 0.59 1.396 255 255 255
0.979 -0.644 2.098 255 255 255
-0.031 0.925 2.029 0 0 0
0.306 -0.273 2 255 255 255
0.182 -1.21 1.954 255 255 255
0.731 -1.092 2.008 255 255 255
-0.886 -0.407 1.875 255 255 255
0.501 -0.094 2.028 255 255 255
0.82 -0.034 2.105 0 0 0
1.098 -0.583 2.103 255 255 255
-0.842 -0.019 1.199 255 255 255
0.543 0.468 2.056 255 255 255
-0.311 -1.428 1.894 255 255 255
0.541 0.184 2.044 255 255 255
0.87 -0.425 2.092 255 255 255
0.64 -0.609 2.024 255 255 255
0.673 -0.209 2.04 255 255 255
-0.823 -0.409 1.307 255 255 255
0.088 -1.092 1.938 255 255 255
0.609 0.207 2.051 255 255 255
0.039 1.089 2.022 255 255 255
0.398 -1.501 1.965 0 0 0
0.012 0.459 2.007 255 255 255
-0.82 -1.181 1.86 255 255 255
0.854 -0.105 2.104 255 255 255
-0.807 0.631 1.897 255 255 255
0.957 -1.591 1.996 255 255 255
0.825 -0.732 2.034 255 255 255
-0.849 -0.199 1.434 255 255 255
0.325 -1.458 1.967 0 0 0
0.284 -0.844 1.978 255 255 255
-0.42 1.016 2.447 255 255 255
0.332 -0.372 2.001 255 255 255
-0.916 0.013 1.897 255 255 255
-0.907 -0.018 1.727 255 255 255
1.115 -0.898 2.065 255 255 255
0.432 0.759 2.06 255 255 255
0.289 -0.059 2.007 255 255 255
0.437 0.346 1.093 255 255 255
0.417 0.095 2.03 255 255 255
-0.009 0.936 2.031 0 0 0
0.545 -0.073 2.032 255 255 255
1.155 0.475 2.157 255 255 255
0.351 -0.607 2.002 0 0 0
-0.838 -0.148 1.267 255 255 255
-0.458 1.009 2.62 255 255 255
0.259 -0.661 1.989 0 0 0
-0.731 -0.825 1.899 255 255 255
0.077 -0.779 1.954 255 255 255
-0.79 0.991 2.708 255 255 255
-0.867 -0.586 1.884 255 255 255
0.924 -0.723 2.085 255 255 255
-0.474 -1.741 2.634 255 255 255
-0.697 1.009 2.417 255 255 255
-0.865 -0.684 1.794 255 255 255
0.131 -0.771 1.968 255 255 255
0.562 -0.723 2.011 255 255 255
0.086 -0.868 1.958 255 255 255
1.204 -1.053 2.048 255 255 255
-0.385 0.071 1.277 255 255 255
-0.901 0.277 1.923 255 255 255
0.349 -0.389 1.999 255 255 255
-0.832 -0.384 1.386 255 255 255
-0.823 -0.408 1.302 255 255 255
-0.352 -0.425 1.254 255 255 255
-0.34 0.982 2.532 255 255 255
-0.821 0.053 1.92 0 0 0
0.072 0.87 2.034 255 255 255
0.402 -0.076 2.02 255 255 255
0.472 -0.27 2.019 255 255 255
0.102 0.875 2.033 255 255 255
0.184 0.073 2.01 255 255 255
-0.407 -0.005 1.262 255 255 255
-0.214 1.064 2.007 255 255 255
0.433 -0.726 2.002 255 255 255
0.046 0.834 2.029 255 255 255
0.32 0.735 2.048 255 255 255
1.221 -0.102 2.135 255 255 255
0.547 -0.277 2.028 255 255 255
0.743 0.362 2.005 255 255 255
1.364 0.19 2.163 255 255 255
0.066 -1.358 1.936 255 255 255
0.582 0.325 1.178 255 255 255
0.463 0.243 1.172 0 0 0
-0.803 -1.403 1.823 255 255 255
0.037 -1.018 1.951 255 255 255
0.501 0.614 2.059 255 255 255
-0.3 0.964 2.613 255 255 255
0.964 0.31 2.137 255 255 255
-0.388 -0.278 1.251 255 255 255
0.271 -0.652 1.987 0 0 0
0.493 0.192 2.041 255 255 255
-0.819 0.132 1.947 255 255 255
-0.372 -0.171 1.266 255 255 255
0.906 -0.846 2.072 0 0 0
0.214 0.683 2.037 255 255 255
0.498 0.642 2.061 255 255 255
0.485 0.658 2.058 255 255 255
0.148 0.093 2.009 255 255 255
-0.822 -0.713 1.496 255 255 255
0.097 -1.053 1.949 255 255 255
0.235 0.651 2.036 255 255 255
-0.902 -0.186 1.77 255 255 255
0.287 0.171 2.023 255 255 255
0.478 -1.013 1.993 255 255 255
-0.508 -1.732 2.469 255 255 255
-0.64 1.014 2.235 0 0 0
0.218 -0.542 1.985 255 255 255
0.433 -0.756 1.996 255 255 255
0.671 -0.757 2.02 255 255 255
0.243 0.224 2.022 255 255 255
0.47 -0.416 2.014 255 255 255
-0.337 -0.84 1.232 255 255 255
1.367 -0.307 2.14 255 255 255
-0.79 -0.71 1.893 255 255 255
-0.394 -1.726 2.68 255 255 255
0.492 0.175 2.04 255 255 255
-0.479 1.023 2.389 255 255 255
0.376 0.321 1.235 0 0 0
-0.852 0.015 1.312 255 255 255
1.573 -0.441 2.155 255 255 255
0.031 -0.566 1.955 255 255 255
1.045 0.347 2.139 255 255 255
-0.263 -1.437 1.895 255 255 255
0.389 -1.047 1.982 255 255 255
0.304 0.216 2.024 255 255 255
1.513 -0.401 2.15 255 255 255
0.659 -0.146 2.042 255 255 255
0.059 -0.341 1.979 255 255 255
0.966 -1.34 2.016 255 255 255
0.079 -0.023 1.995 255 255 255
1.526 -0.187 2.159 255 255 255
-0.388 -1.727 2.681 255 255 255
1.125 -1.27 2.043 255 255 255
1.053 -0.709 2.096 255 255 255
0.613 -0.638 2.021 255 255 255
-0.777 0.999 2.594 255 255 255
-0.815 -0.516 1.294 255 255 255
-0.831 -0.549 1.494 255 255 255
-0.078 0.594 1.999 255 255 255
-0.665 -1.463 1.866 255 255 255
-0.814 -0.526 1.296 255 255 255
1.185 -0.909 2.056 255 255 255
-0.925 0.208 1.77 255 255 255
-0.844 -0.455 1.896 255 255 255
-0.838 -0.155 1.302 255 255 255
0.668 -0.071 2.046 255 255 255
0.372 0.624 2.049 255 255 255
-0.26 0.963 2.994 0 0 0
-0.57 1.015 2.454 255 255 255
0.203 0.372 2.023 255 255 255
-0.793 -0.462 1.905 255 255 255
-0.729 -0.427 1.894 255 255 255
-0.949 0.447 1.816 255 255 255
0.021 -0.975 1.973 255 255 255
-0.915 -0.003 1.777 255 255 255
-0.401 1.028 2.318 0 0 0
0.883 -0.661 2.083 255 255 255
1.186 0.132 2.142 255 255 255
0.379 0.621 1.216 255 255 255
0.107 -0.178 1.99 255 255 255
0.225 -0.654 1.984 255 255 255
-0.046 0.741 2.003 255 255 255
0.335 0.44 2.035 255 255 255
-0.793 -0.158 1.937 255 255 255
0.613 -0.419 2.027 255 255 255
-0.374 -0.173 1.264 255 255 255
-0.881 0.686 1.939 0 0 0
0.319 -0.984 1.975 255 255 255
-0.889 -0.386 1.825 255 255 255
0.725 -0.54 2.032 255 255 255
0.916 -0.195 2.105 255 255 255
0.083 -0.027 1.994 255 255 255
0.091 -0.186 1.99 255 255 255
0.34 0.483 1.116 255 255 255
1.009 0.123 2.124 255 255 255
-0.8 -0.393 1.91 255 255 255
0.821 -0.807 2.029 255 255 255
-0.271 -1.412 1.942 0 0 0
0.205 0.469 2.026 255 255 255
-0.505 0.977 2.677 255 255 255
0.691 0.167 2.057 255 255 255
0.396 0.832 2.058 255 255 255
1.188 0.048 2.137 255 255 255
0.299 0.562 1.181 255 255 255
-0.069 0.129 2.011 0 0 0
