ply
format ascii 1.0
comment Created by Open3D
element vertex 1587
property double x
property double y
property double z
property uchar red
property uchar green
property uchar blue
end_header
0.919 0.758 2.127 255 255 255
0.842 0.679 2.115 255 255 255
0.128 0.113 2.018 255 255 255
0.391 0.498 1.076 255 255 255
-0.83 0.033 1.911 255 255 255
-1.009 0.352 1.809 255 255 255
0.044 -0.192 2.022 255 255 255
-0.038 0.796 1.969 255 255 255
0.507 -0.937 2.111 255 255 255
0.467 0.676 2.031 255 255 255
0.385 0.568 1.018 255 255 255
-0.518 0.573 1.227 0 0 0
-0.859 -0.584 1.803 255 255 255
-0.835 -0.335 1.386 255 255 255
-0.077 0.644 1.965 255 255 255
1.18 0.415 2.169 255 255 255
0.727 -0.081 2.097 255 255 255
1.181 0.243 2.177 255 255 255
-0.712 -1.158 1.542 255 255 255
1.193 -0.104 2.196 255 255 255
0.69 -0.789 2.122 255 255 255
-0.063 0.979 1.956 255 255 255
0.91 -0.929 2.155 255 255 255
0.759 0.405 2.123 255 255 255
0.465 0.146 2.055 255 255 255
0.369 -0.057 2.044 255 255 255
0.61 -0.649 2.106 255 255 255
0.268 -0.691 2.063 255 255 255
-0.727 1.206 2.388 255 255 255
-0.001 -0.031 2.004 255 255 255
-0.401 -0.784 1.459 255 255 255
-0.446 1.18 2.847 255 255 255
-0.794 -0.381 1.942 255 255 255
-0.297 -0.789 1.309 255 255 255
-0.329 -0.547 1.3 255 255 255
-0.135 1.019 1.945 255 255 255
0.736 -1.383 1.821 0 0 0
0.776 -0.258 2.106 255 255 255
1.021 0.334 2.155 255 255 255
-0.885 -0.147 1.528 255 255 255
0.972 -0.22 2.174 255 255 255
-0.12 0.485 1.957 255 255 255
-0.304 -1.522 2.031 0 0 0
0.604 -0.876 2.117 255 255 255
1.309 -0.278 2.216 255 255 255
1.222 -1.273 2.206 255 255 255
0.33 0.649 2.019 255 255 255
0.348 0.694 2.017 255 255 255
-0.824 -0.79 1.807 255 255 255
0.196 -0.525 2.051 255 255 255
-0.862 -0.086 1.28 255 255 255
-0.001 -0.235 2.002 255 255 255
0.202 0.244 2.022 0 0 0
0.782 0.48 2.124 255 255 255
-0.431 0.219 1.263 255 255 255
0.695 -0.989 2.135 255 255 255
-0.401 -0.112 1.273 255 255 255
0.297 0.009 2.035 255 255 255
0.148 0.974 1.982 255 255 255
-0.826 -0.259 1.199 255 255 255
0.936 -0.579 2.156 255 255 255
-0.332 -0.463 1.301 255 255 255
0.848 0.653 2.124 255 255 255
0.987 0.644 2.139 255 255 255
0.443 -0.489 2.079 255 255 255
-0.103 0.352 1.964 255 255 255
-0.222 1.023 1.928 255 255 255
0.65 0.382 2.064 255 255 255
-0.028 0.2 1.994 255 255 255
-0.915 -0.003 1.57 255 255 255
-0.076 0.048 1.99 255 255 255
-0.582 1.218 2.269 255 255 255
0.032 -0.366 2.01 255 255 255
1.091 0.568 2.157 255 255 255
0.954 -0.802 2.152 255 255 255
0.511 -0.016 2.069 255 255 255
0.14 -0.475 2.044 255 255 255
-0.726 -1.393 1.963 255 255 255
-0.728 -1.01 1.444 255 255 255
0.33 0.658 2.02 255 255 255
0.849 -0.465 2.161 0 0 0
-0.814 -0.183 1.943 255 255 255
-0.087 0.206 1.978 255 255 255
0.007 0.108 2.003 255 255 255
0.016 0.661 1.978 255 255 255
-0.106 0.726 1.962 255 255 255
0.573 -0.29 2.09 255 255 255
-0.797 -0.545 1.371 255 255 255
1.379 -0.833 2.203 255 255 255
0.273 -0.06 2.042 255 255 255
1.284 -0.953 2.202 255 255 255
0.786 -0.5 2.119 255 255 255
-0.284 -0.954 1.324 255 255 255
0.503 0.353 2.05 255 255 255
0.302 -0.504 2.063 255 255 255
1.024 -0.535 2.195 0 0 0
0.738 -0.16 2.098 255 255 255
0.084 0.31 2.003 255 255 255
-0.073 0.606 1.969 255 255 255
0.385 -0.19 2.058 0 0 0
0.711 0.318 2.09 255 255 255
0.766 -0.347 2.108 255 255 255
-0.686 -0.696 1.933 255 255 255
0.157 0.106 2.022 255 255 255
0.42 0.39 1.177 0 0 0
0.651 -1.4 1.866 0 0 0
0.766 -0.788 2.129 255 255 255
-0.733 -0.731 1.97 255 255 255
0.681 0.288 2.071 255 255 255
1.189 0.191 2.186 255 255 255
0.751 -0.553 2.119 255 255 255
0.628 0.107 2.074 255 255 255
0.91 0.155 2.152 255 255 255
0.699 -0.785 2.122 255 255 255
0.696 -1.039 2.141 255 255 255
0.277 -1.211 2.099 255 255 255
-0.393 -1.239 2.067 0 0 0
0.411 -0.988 2.101 255 255 255
0.812 -1.374 1.978 255 255 255
0.108 0.21 2.011 255 255 255
-0.809 -0.43 1.286 255 255 255
0.236 -0.602 2.057 255 255 255
0.73 -0.612 2.117 255 255 255
0.096 -0.193 2.026 255 255 255
-0.15 0.727 1.939 255 255 255
-0.875 0.026 1.219 255 255 255
0.943 0.846 2.125 255 255 255
-0.588 -1.457 2.015 0 0 0
0.212 -0.248 2.041 255 255 255
0.982 -0.745 2.155 255 255 255
0.744 -0.582 2.122 255 255 255
-0.754 -1.158 1.974 255 255 255
-0.828 -0.24 1.183 255 255 255
-0.144 0.584 1.951 255 255 255
-0.308 -1.495 2.643 255 255 255
0.797 -1.375 1.718 255 255 255
-0.316 -1.476 2.672 255 255 255
0.864 -1.367 1.924 255 255 255
-0.096 -1.45 2.739 255 255 255
0.319 0.732 2.014 255 255 255
-0.846 -0.182 1.283 255 255 255
-0.778 -0.849 1.949 255 255 255
0.702 0.637 2.101 255 255 255
-0.203 -1.469 2.839 0 0 0
-0.108 0.181 2.004 255 255 255
0.021 0.996 1.961 255 255 255
-1.003 1.176 2.726 255 255 255
1.229 -0.09 2.2 255 255 255
1.628 -0.381 2.26 255 255 255
1.189 0.02 2.19 255 255 255
0.158 -0.19 2.032 255 255 255
1.478 0.132 2.216 255 255 255
-0.756 -0.813 1.386 255 255 255
0.404 0.443 1.116 255 255 255
1.122 0.416 2.165 255 255 255
-0.956 0.468 1.873 255 255 255
1.221 0.537 2.174 255 255 255
-0.466 0.45 1.249 255 255 255
1.156 0.147 2.179 255 255 255
0.796 -0.233 2.122 255 255 255
0.011 -0.195 2.002 255 255 255
-0.768 -0.842 1.55 255 255 255
0.23 0.594 2.009 255 255 255
0.381 0.496 1.085 255 255 255
0.855 -1.24 2.168 255 255 255
0.488 0.524 1.132 255 255 255
0.378 0.19 2.044 255 255 255
0.122 0.558 1.995 255 255 255
0.238 -0.828 2.07 255 255 255
1.308 0.011 2.206 255 255 255
0.811 0.636 2.122 255 255 255
-0.005 -1.181 2.097 255 255 255
-0.217 -1.206 2.095 255 255 255
0.711 -0.848 2.128 255 255 255
0.344 -0.107 2.07 255 255 255
0.082 -1.18 2.095 255 255 255
0.088 -0.713 2.033 255 255 255
-0.981 0.423 1.873 255 255 255
-0.529 1.158 2.601 255 255 255
0.108 -1.465 2.043 255 255 255
0.679 -0.769 2.122 255 255 255
0.318 0.128 2.037 255 255 255
0.378 -1.38 2.116 255 255 255
-0.931 -0.141 1.897 255 255 255
-0.132 -1.447 2.772 255 255 255
0.942 0.712 2.131 255 255 255
0.536 0.118 2.061 255 255 255
0.544 -0.1 2.077 255 255 255
0.343 -0.546 2.069 255 255 255
0.267 -0.992 2.08 255 255 255
1.394 -0.569 2.199 255 255 255
0.295 0.449 2.021 255 255 255
1.079 -0.182 2.188 255 255 255
0.807 -0.625 2.127 255 255 255
1.161 -1.248 2.2 255 255 255
0.623 -0.609 2.109 255 255 255
1.006 -1.305 2.182 255 255 255
-0.828 1.184 2.269 255 255 255
1.416 -0.948 2.216 255 255 255
-0.907 0.065 1.44 255 255 255
0.96 0.788 2.131 255 255 255
0.563 -0.356 2.095 255 255 255
0.138 -0.309 2.035 255 255 255
1.319 -0.053 2.213 255 255 255
0.646 -0.245 2.096 255 255 255
0.378 0.128 2.045 255 255 255
0.08 -0.793 2.036 255 255 255
0.117 -1.356 2.089 255 255 255
1.121 -0.805 2.172 255 255 255
0.341 0.452 1.198 0 0 0
-0.695 1.219 2.527 255 255 255
1.03 0.057 2.17 255 255 255
-0.857 -0.367 1.573 255 255 255
-0.728 -1.392 1.952 255 255 255
1.122 -0.117 2.189 255 255 255
0.684 -0.102 2.092 255 255 255
-0.97 0.101 1.862 255 255 255
-0.79 -1.017 1.945 255 255 255
0.072 0.277 2.001 255 255 255
0.373 0.778 2.018 255 255 255
0.227 0.658 2.003 255 255 255
0.815 -0.474 2.121 255 255 255
-0.857 -0.238 1.451 255 255 255
0.887 -0.825 2.148 255 255 255
0.264 -0.919 2.075 255 255 255
0.354 -0.048 2.052 255 255 255
0.309 0.836 2.007 255 255 255
0.412 -0.274 2.06 255 255 255
1.057 -0.449 2.197 255 255 255
0.344 -1.441 1.976 0 0 0
-0.56 -1.503 2.963 255 255 255
1.202 -0.406 2.211 255 255 255
0.374 -0.282 2.062 255 255 255
0.417 0.108 2.051 255 255 255
-0.445 0.056 1.265 255 255 255
1.073 -0.528 2.196 0 0 0
1.17 -0.723 2.175 255 255 255
1.32 -0.859 2.202 255 255 255
1.077 -0.582 2.171 255 255 255
0.626 -0.724 2.115 255 255 255
-0.862 -0.076 1.247 255 255 255
1.319 -0.319 2.219 255 255 255
0.257 0.846 2.002 255 255 255
-0.071 0.907 1.957 0 0 0
-0.874 1.185 2.362 255 255 255
-0.747 -0.958 1.524 255 255 255
-0.767 -0.825 1.951 255 255 255
0.81 -0.557 2.121 255 255 255
0.663 -0.033 2.087 255 255 255
-0.389 -0.167 1.276 255 255 255
-0.915 0.651 1.872 255 255 255
-0.422 1.202 2.207 255 255 255
0.008 0.563 1.983 255 255 255
-0.156 0.835 1.939 255 255 255
0.413 0.207 2.045 255 255 255
-0.682 -1.128 1.985 0 0 0
-0.902 1.183 2.325 255 255 255
0.154 0.468 2.004 255 255 255
0.205 -0.039 2.026 255 255 255
0.598 -1.172 2.139 255 255 255
-0.959 0.088 1.73 255 255 255
0.711 -1.378 2.067 255 255 255
-0.322 -1.271 2.015 255 255 255
-0.752 -0.848 1.426 255 255 255
0.822 -0.008 2.148 255 255 255
1.28 -0.302 2.215 255 255 255
0.733 -0.445 2.111 255 255 255
0.166 0.996 1.986 255 255 255
-0.063 0.893 1.958 0 0 0
0.835 -1.167 2.167 255 255 255
0.621 0.618 2.051 255 255 255
0.901 -0.044 2.159 255 255 255
0.235 0.987 1.993 255 255 255
-0.848 -0.263 1.406 255 255 255
0.439 0.2 2.05 255 255 255
-0.696 -1.02 1.975 255 255 255
-0.866 -0.535 1.923 255 255 255
0.07 -1.426 2.734 0 0 0
1.077 -0.088 2.188 255 255 255
0.824 -0.098 2.152 255 255 255
-0.429 0.071 1.26 255 255 255
1.246 0.295 2.187 255 255 255
-0.044 0.235 1.986 255 255 255
0.02 0.665 1.979 255 255 255
0.377 0.552 1.031 255 255 255
-0.309 -0.781 1.313 255 255 255
0.386 -0.219 2.058 0 0 0
0.624 -0.708 2.11 255 255 255
-0.854 -0.165 1.308 255 255 255
0.056 0.552 1.99 255 255 255
-0.866 -0.03 1.201 255 255 255
-0.122 -1.43 2.998 255 255 255
0.04 -0.401 2.016 255 255 255
1.247 0.112 2.19 255 255 255
-0.748 1.174 2.094 255 255 255
0.547 -1.413 1.985 255 255 255
1.043 0.354 2.156 255 255 255
-0.048 0.076 1.983 255 255 255
0.366 0.701 2.022 255 255 255
0.798 -0.638 2.126 255 255 255
0.807 -1.36 2.104 255 255 255
-0.426 0.016 1.259 255 255 255
0.155 -1.468 1.969 0 0 0
-0.956 0.058 1.742 255 255 255
0.004 0.575 1.981 255 255 255
1.026 0.315 2.157 255 255 255
-0.146 -1.472 2.661 255 255 255
-0.093 0.593 1.967 255 255 255
-0.795 -0.492 1.247 255 255 255
0.124 -0.5 2.041 255 255 255
1.168 0.483 2.169 255 255 255
-0.67 -0.896 1.959 255 255 255
-0.256 -1.516 2.026 0 0 0
0.431 0.266 2.045 255 255 255
1.287 0.37 2.19 255 255 255
0.289 -0.634 2.068 255 255 255
0.443 -0.191 2.068 255 255 255
0.862 -1.365 1.949 255 255 255
0.867 0.416 2.134 255 255 255
0.819 -0.093 2.151 255 255 255
-0.834 -0.125 1.927 255 255 255
-0.511 0.432 1.253 255 255 255
-0.149 0.383 1.996 0 0 0
-0.8 -0.418 1.19 255 255 255
-0.104 0.897 1.955 0 0 0
-0.812 -0.372 1.237 255 255 255
0.631 0.376 2.063 255 255 255
0.366 0.542 2.026 255 255 255
0.965 -0.428 2.184 255 255 255
-0.13 -1.331 2.059 255 255 255
1.278 -0.934 2.196 255 255 255
-0.457 0.307 1.251 255 255 255
0.714 0.147 2.084 255 255 255
-0.784 -0.582 1.315 255 255 255
-0.561 1.225 2.196 255 255 255
1.007 -0.524 2.194 255 255 255
0.753 -0.374 2.111 255 255 255
0.025 -0.705 2.064 255 255 255
-0.077 -0.051 2.021 255 255 255
0.914 -1.179 2.172 255 255 255
0.411 0.498 1.076 255 255 255
0.602 -0.157 2.089 255 255 255
-0.14 0.482 1.961 255 255 255
-0.401 1.167 2.208 255 255 255
-0.82 -0.327 1.258 255 255 255
-0.843 -0.488 1.932 255 255 255
1.121 -0.538 2.178 255 255 255
-0.471 0.345 1.244 255 255 255
0.233 -0.233 2.047 255 255 255
-0.784 -0.966 1.958 255 255 255
-0.851 -0.086 1.168 255 255 255
1.177 0.348 2.171 255 255 255
0.877 -1.121 2.166 255 255 255
-0.688 -1.415 1.996 255 255 255
0.554 0.411 2.055 255 255 255
0.217 -0.241 2.045 255 255 255
0.312 1.052 1.996 255 255 255
1.174 -0.403 2.202 255 255 255
1.187 -0.626 2.171 255 255 255
1.416 -0.412 2.237 255 255 255
-0.715 -0.786 1.972 255 255 255
1.23 -1.219 2.205 255 255 255
0.436 -0.066 2.062 255 255 255
1.217 -0.056 2.2 255 255 255
0.32 0.534 1.07 255 255 255
0.104 0.009 2.02 255 255 255
-0.92 -0.206 1.77 255 255 255
-0.937 -0.116 1.808 255 255 255
0.247 0.63 1.176 255 255 255
-0.883 -0.014 1.348 255 255 255
0.825 0.242 2.135 255 255 255
-0.764 -0.493 1.954 255 255 255
0.422 -0.947 2.1 255 255 255
-0.846 1.183 2.275 255 255 255
0.141 0.356 2.006 255 255 255
0.302 0.753 2.01 255 255 255
-0.8 -0.668 1.94 255 255 255
0.292 -0.838 2.077 255 255 255
0.289 -0.882 2.079 255 255 255
0.242 -0.237 2.049 255 255 255
0.638 0.197 2.073 255 255 255
0.216 0.751 2 255 255 255
0.505 0.122 2.062 255 255 255
-0.842 -0.109 1.126 255 255 255
-0.824 -0.357 1.326 255 255 255
0.329 -0.213 2.051 0 0 0
1.085 -0.525 2.198 0 0 0
-0.819 0.092 1.884 255 255 255
0.55 0.573 2.048 255 255 255
1.033 0.52 2.157 255 255 255
0.894 0.499 2.141 255 255 255
1.47 -0.338 2.238 255 255 255
-0.062 0.732 1.967 255 255 255
0.561 -1.112 2.126 255 255 255
-0.53 1.193 2.358 255 255 255
-0.133 0.905 1.95 0 0 0
0.687 -0.072 2.089 255 255 255
0.393 -0.123 2.06 255 255 255
0.007 0.296 1.994 255 255 255
-0.919 0.397 1.887 255 255 255
1.294 0.405 2.187 255 255 255
0.461 0.167 2.054 255 255 255
1.122 -0.126 2.189 255 255 255
0.921 0.296 2.145 255 255 255
0.641 -1.154 2.139 255 255 255
-0.639 -1.293 2.011 255 255 255
-0.822 -0.415 1.41 255 255 255
0.159 0.569 1.999 255 255 255
-0.845 -0.108 1.144 255 255 255
-0.339 -1.322 2.021 255 255 255
0.971 -0.192 2.174 255 255 255
-0.025 0.528 1.98 255 255 255
0.56 -1.032 2.127 255 255 255
-0.699 1.188 2.629 255 255 255
0.052 0.358 1.996 255 255 255
0.455 0.427 2.042 255 255 255
-0.222 0.902 1.959 0 0 0
1.03 -0.413 2.19 255 255 255
1.07 0.729 2.151 255 255 255
0.535 -0.983 2.118 255 255 255
-0.711 -1.424 1.986 255 255 255
0.544 -0.474 2.093 255 255 255
0.614 0.255 2.064 255 255 255
0.357 0.182 2.042 255 255 255
-0.154 0.74 1.939 255 255 255
-0.98 1.182 2.616 0 0 0
0.331 -0.268 2.054 255 255 255
-0.715 -0.851 1.982 255 255 255
-0.821 -0.478 1.46 255 255 255
0.522 -0.826 2.105 255 255 255
1.229 0.304 2.187 255 255 255
-0.81 -0.407 1.255 255 255 255
-0.524 0.444 1.269 255 255 255
0.287 -0.399 2.061 0 0 0
-0.818 -0.469 1.427 255 255 255
0.287 0.461 2.022 255 255 255
1.233 -0.768 2.185 255 255 255
0.335 0.798 2.015 255 255 255
0.203 -0.194 2.036 255 255 255
1.293 -0.67 2.185 255 255 255
-0.883 -0.005 1.318 255 255 255
0.286 0.599 1.082 255 255 255
0.23 -1.216 2.092 255 255 255
-0.831 0.117 1.889 255 255 255
0.482 -1.229 2.127 255 255 255
0.203 0.733 2 255 255 255
0.188 1.032 1.986 255 255 255
-0.024 0.311 1.988 255 255 255
0.437 0.692 2.029 255 255 255
1.198 0.058 2.185 255 255 255
-0.033 0.49 1.979 255 255 255
-0.854 -0.12 1.26 255 255 255
0.26 0.607 1.182 255 255 255
-0.092 0.428 1.96 255 255 255
-0.746 -0.917 1.489 255 255 255
0.481 0.378 2.048 255 255 255
0.813 -0.507 2.124 255 255 255
0.424 0.402 1.146 0 0 0
1.407 -0.575 2.198 255 255 255
1.009 -0.831 2.161 255 255 255
-0.41 0.029 1.27 255 255 255
-0.748 -0.604 1.964 255 255 255
0.787 -1.296 2.167 255 255 255
-0.951 0.016 1.751 255 255 255
0.96 -0.067 2.164 255 255 255
0.409 -0.404 2.071 255 255 255
0.859 0.678 2.122 255 255 255
0.885 -0.985 2.156 255 255 255
0.294 0.589 1.079 255 255 255
-0.881 0.07 1.902 255 255 255
-0.11 0.73 1.96 255 255 255
0.449 -1.426 1.993 255 255 255
0.757 -1.366 2.107 255 255 255
0.259 0.232 2.024 255 255 255
0.147 -0.89 2.061 255 255 255
0.463 0.532 2.041 255 255 255
0.719 -1.229 2.157 255 255 255
0.806 0.282 2.132 255 255 255
-0.778 -0.816 1.573 255 255 255
-0.73 -0.835 1.962 0 0 0
0.29 0.34 2.025 255 255 255
0.665 -1 2.131 255 255 255
0.349 -1.288 2.116 255 255 255
0.306 -0.028 2.045 255 255 255
-0.599 1.211 2.186 255 255 255
0.077 -1.211 2.061 255 255 255
0.238 0.647 1.175 255 255 255
0.206 0.15 2.023 255 255 255
0.264 0.274 2.026 255 255 255
1.178 0.362 2.172 255 255 255
1.306 0.089 2.2 255 255 255
-0.958 0.176 1.892 255 255 255
0.382 -1.065 2.101 255 255 255
-0.788 -1.01 1.954 255 255 255
0.05 -1.167 2.121 0 0 0
-0.417 -0.159 1.286 255 255 255
-0.024 -0.174 1.998 255 255 255
0.111 -0.456 2.037 255 255 255
-0.369 -0.217 1.289 0 0 0
1.314 -0.84 2.197 255 255 255
-0.863 -0.574 1.92 255 255 255
0.544 -0.964 2.119 255 255 255
0.205 0.589 2.006 255 255 255
0.628 0.175 2.072 255 255 255
0.751 -0.012 2.098 255 255 255
0.112 0.013 2.02 255 255 255
-0.478 1.16 2.747 255 255 255
0.137 -1.235 2.071 255 255 255
-0.939 0.048 1.64 255 255 255
-0.772 -0.48 1.953 255 255 255
-0.422 0.008 1.263 255 255 255
0.782 0.321 2.13 255 255 255
-0.284 -0.892 1.315 255 255 255
0.297 -0.23 2.056 255 255 255
0.342 0.484 1.085 255 255 255
-0.033 0.454 1.983 255 255 255
0.884 0.633 2.129 255 255 255
-0.941 0.611 1.895 255 255 255
0.02 0.589 1.983 255 255 255
0.395 0.789 2.019 255 255 255
-0.95 1.188 2.488 255 255 255
-0.637 1.233 2.743 255 255 255
1.159 -0.299 2.196 255 255 255
0.382 0.886 2.016 0 0 0
-0.329 -0.449 1.314 0 0 0
-0.87 -0.037 1.281 255 255 255
-0.848 -0.108 1.178 255 255 255
0.387 -0.522 2.076 255 255 255
-0.415 -0.07 1.266 255 255 255
0.264 0.013 2.034 0 0 0
-0.258 -1.475 2.833 255 255 255
1.085 0.357 2.163 255 255 255
0.773 -1.068 2.151 255 255 255
0.033 0.917 1.969 0 0 0
-0.339 -1.474 2.971 255 255 255
0.75 -0.055 2.096 255 255 255
1.071 -0.857 2.171 255 255 255
-0.892 0.303 1.909 255 255 255
1.356 -0.71 2.192 255 255 255
1.143 -1.323 2.103 255 255 255
-0.398 -0.086 1.274 255 255 255
-0.029 -1.483 2.052 0 0 0
0.09 -0.528 2.036 255 255 255
0.297 0.542 2.019 255 255 255
0.457 -0.07 2.061 0 0 0
0.624 -0.562 2.107 255 255 255
-0.88 -0.062 1.403 255 255 255
0.084 0.318 2.002 255 255 255
0.425 0.527 1.053 255 255 255
0.876 -0.351 2.167 255 255 255
-0.509 1.165 2.679 255 255 255
-0.95 0.07 1.898 255 255 255
0.338 0.557 1.039 255 255 255
-0.745 -0.951 1.512 255 255 255
0.74 -1.356 2.145 255 255 255
1.433 -0.244 2.229 255 255 255
0.418 -0.405 2.077 255 255 255
0.267 -0.748 2.07 255 255 255
0.615 -1.097 2.131 255 255 255
-0.347 -1.415 2.035 255 255 255
0.663 -0.414 2.103 255 255 255
0.745 -0.025 2.097 255 255 255
0.389 0.944 2.012 0 0 0
0.707 -0.081 2.093 255 255 255
0.178 -1.043 2.075 255 255 255
1.047 0.69 2.145 255 255 255
-0.745 -0.925 1.464 255 255 255
-0.677 1.22 2.453 255 255 255
-0.693 -0.913 1.984 255 255 255
-0.016 0.064 2 255 255 255
-0.894 -0.392 1.834 255 255 255
-0.482 0.334 1.243 255 255 255
-0.966 0.087 1.811 255 255 255
-0.675 -1.539 2.005 255 255 255
0.692 -0.814 2.121 255 255 255
-0.874 -0.495 1.805 255 255 255
-0.506 0.539 1.23 0 0 0
1.231 -0.678 2.179 255 255 255
0.605 0.633 2.042 255 255 255
-0.559 0.383 1.349 255 255 255
0.666 -0.373 2.102 255 255 255
0.934 -0.677 2.143 255 255 255
0.276 -0.749 2.072 255 255 255
0.358 -0.795 2.085 255 255 255
0.922 -0.516 2.182 255 255 255
0.702 -0.229 2.098 255 255 255
-0.171 -1.201 2.099 255 255 255
0.774 -1.035 2.149 255 255 255
0.823 -0.08 2.151 255 255 255
0.39 0.502 1.072 255 255 255
0.064 0.489 1.992 255 255 255
0.978 0.097 2.159 255 255 255
0.092 -1.275 2.083 255 255 255
0.332 -0.323 2.059 255 255 255
0.151 -1.089 2.064 255 255 255
-0.057 -1.414 2.069 255 255 255
0.177 0.166 2.02 255 255 255
0.437 0.422 2.04 255 255 255
-0.894 -0.309 1.717 255 255 255
0.534 -0.852 2.106 255 255 255
0.544 -1.411 2.019 255 255 255
0.697 -0.229 2.098 255 255 255
0.978 -0.463 2.187 255 255 255
0.26 0.773 2.005 255 255 255
-0.902 0.055 1.412 255 255 255
0.872 -0.144 2.158 255 255 255
-0.375 -0.333 1.282 255 255 255
0.437 -0.145 2.063 255 255 255
0.121 -1.148 2.065 255 255 255
0.177 0.683 2 255 255 255
-0.349 1.268 2.432 255 255 255
0.713 0.607 2.11 255 255 255
0.032 0.468 1.99 255 255 255
1.51 -0.47 2.234 255 255 255
0.391 -0.989 2.094 255 255 255
0.361 0.535 1.057 255 255 255
-0.451 0.165 1.252 255 255 255
-0.341 -0.988 1.432 255 255 255
1.027 -1.301 2.18 255 255 255
0.307 -0.873 2.078 255 255 255
-0.136 1.043 1.944 255 255 255
0.439 -0.696 2.088 255 255 255
0.389 0.459 1.105 255 255 255
0.185 0.021 2.028 255 255 255
0.012 -0.313 2.007 255 255 255
0.723 -1.388 1.857 0 0 0
-0.852 -0.546 1.934 255 255 255
0.319 0.103 2.041 255 255 255
-0.1 0.498 1.958 255 255 255
1.128 0.596 2.16 255 255 255
-0.826 -0.274 1.236 255 255 255
0.256 -0.372 2.054 0 0 0
0.732 0.503 2.115 255 255 255
-0.822 -0.422 1.927 255 255 255
1.055 -0.055 2.177 255 255 255
0.007 0.001 2.006 255 255 255
-0.725 -1.423 1.927 0 0 0
0.2 -0.26 2.039 0 0 0
-0.828 -0.703 1.944 255 255 255
1.016 -0.703 2.158 255 255 255
0.289 0.058 2.039 0 0 0
0.487 -0.71 2.095 255 255 255
0.016 -0.354 2.009 255 255 255
1.258 -0.767 2.188 255 255 255
0.624 0.23 2.07 255 255 255
-0.525 1.15 2.612 255 255 255
0.02 -0.481 2.019 255 255 255
-0.376 -0.222 1.284 255 255 255
0.696 -1.395 1.823 255 255 255
0.246 -1.45 2.015 255 255 255
0.565 -1.149 2.133 255 255 255
-0.001 -0.409 2.016 255 255 255
0.788 -1.377 1.764 255 255 255
1.4 -0.344 2.229 255 255 255
0.184 0.562 2.006 255 255 255
-0.953 0.027 1.738 255 255 255
1.274 0.453 2.187 255 255 255
-0.868 -0.548 1.82 255 255 255
-0.088 0.972 1.952 255 255 255
1.032 -1.349 1.989 255 255 255
0.339 0.825 2.011 255 255 255
0.874 -0.512 2.178 255 255 255
-0.179 0.631 1.976 255 255 255
1.536 -0.019 2.236 255 255 255
0.382 -1.341 2.121 255 255 255
-0.814 -0.537 1.472 255 255 255
-0.52 0.229 1.273 255 255 255
0.214 -0.895 2.069 255 255 255
-0.133 0.668 1.945 255 255 255
-0.672 -1.402 1.998 255 255 255
0.116 0.299 2.008 255 255 255
0.973 0.179 2.156 255 255 255
0.591 -0.486 2.098 255 255 255
0.401 0.034 2.057 255 255 255
0.405 0.475 1.095 255 255 255
-0.784 -0.588 1.313 255 255 255
-0.928 0.29 1.889 255 255 255
0.888 -1.086 2.161 255 255 255
0.466 -0.062 2.063 255 255 255
-0.928 0.41 1.884 0 0 0
-0.318 -0.546 1.307 0 0 0
0.706 -0.381 2.11 255 255 255
0.781 -1.266 2.158 255 255 255
0.117 0.508 1.998 255 255 255
-0.859 -0.1 1.263 255 255 255
0.913 -0.131 2.162 255 255 255
0.077 -0.371 2.032 255 255 255
-0.82 -0.564 1.557 255 255 255
0.313 1.077 1.994 255 255 255
0.285 0.589 1.092 255 255 255
0.361 0.813 2.015 255 255 255
1.624 -0.323 2.26 255 255 255
0.266 -0.569 2.065 255 255 255
-0.683 -1.24 1.98 255 255 255
0.303 -0.657 2.069 255 255 255
0.573 -1.41 1.975 255 255 255
-0.1 0.469 1.958 255 255 255
-0.722 -1.029 1.966 255 255 255
-0.135 0.775 1.948 255 255 255
1.018 -0.349 2.183 255 255 255
0.221 0.666 1.212 255 255 255
0.723 -0.704 2.123 255 255 255
-0.795 -0.635 1.488 255 255 255
0.469 0.61 2.035 255 255 255
0.715 0.543 2.114 255 255 255
0.144 1.002 1.979 255 255 255
0.912 -0.771 2.146 255 255 255
1.209 0.297 2.182 255 255 255
0.35 0.601 2.021 255 255 255
0.816 -1.364 2.078 255 255 255
-0.711 -1.133 1.505 255 255 255
0.799 -0.982 2.146 255 255 255
0.553 -0.407 2.088 255 255 255
0.602 -0.845 2.117 255 255 255
0.6 -0.829 2.114 255 255 255
-0.122 0.683 1.952 255 255 255
0.254 -1.118 2.092 255 255 255
0.162 0.476 2.003 255 255 255
-0.824 -0.654 1.678 255 255 255
-0.056 0.19 1.977 255 255 255
0.427 0.493 1.079 255 255 255
-0.682 -0.992 1.985 255 255 255
-0.62 1.234 2.843 255 255 255
0.263 0.196 2.026 255 255 255
1.491 -0.486 2.213 255 255 255
0.003 0.256 1.997 255 255 255
0.07 -1.474 2.031 0 0 0
-0.401 -0.31 1.308 255 255 255
1.122 -1.326 2.093 255 255 255
0.367 0.452 1.147 255 255 255
0.307 -1.046 2.093 255 255 255
0.389 -1.394 2.118 255 255 255
0.023 0.273 1.999 255 255 255
0.965 -0.716 2.148 255 255 255
-0.296 -1.47 2.849 255 255 255
0.606 0.209 2.069 255 255 255
0.759 -0.302 2.108 255 255 255
0.081 -0.325 2.031 255 255 255
1.574 -0.076 2.242 255 255 255
-0.939 -0.102 1.839 255 255 255
-0.426 -1.499 2.691 0 0 0
0.555 0.136 2.067 255 255 255
0.599 -1.383 2.127 255 255 255
0.662 -0.914 2.126 255 255 255
0.312 0.486 1.189 0 0 0
0.277 -1.451 1.953 0 0 0
0.443 -0.918 2.099 255 255 255
0.343 0.013 2.042 0 0 0
0.381 -1.423 2.079 255 255 255
-0.817 -0.387 1.295 255 255 255
-0.83 1.196 2.477 255 255 255
0.259 -0.141 2.027 255 255 255
-0.884 -0.073 1.434 255 255 255
-0.846 -0.261 1.376 255 255 255
1.054 0.173 2.17 255 255 255
0.669 -0.786 2.118 255 255 255
0.907 -0.467 2.178 255 255 255
-0.99 0.524 1.864 255 255 255
-0.837 -0.304 1.369 255 255 255
-0.919 0.075 1.519 255 255 255
1.471 -0.195 2.232 255 255 255
-0.34 1.015 2.244 255 255 255
0.719 -0.287 2.103 255 255 255
0.98 0.452 2.144 255 255 255
0.903 0.517 2.135 255 255 255
-0.145 0.875 1.945 0 0 0
0.847 -0.294 2.162 255 255 255
0.369 -1.308 2.117 255 255 255
0.084 0.237 2.006 255 255 255
0.443 0.731 2.032 255 255 255
1.117 0.006 2.182 255 255 255
0.246 -0.492 2.057 255 255 255
0.557 -1.165 2.133 255 255 255
0.451 -0.174 2.066 255 255 255
0.558 -0.39 2.091 255 255 255
0.036 -0.204 2.02 255 255 255
-0.827 -0.215 1.927 0 0 0
-0.427 0.071 1.261 255 255 255
-0.991 0.25 1.77 255 255 255
0.932 0.051 2.161 255 255 255
0.418 0.429 1.124 255 255 255
0.181 0.89 1.988 0 0 0
1.34 0.026 2.208 255 255 255
0.106 -1.47 2.007 0 0 0
-0.66 -1.209 1.998 255 255 255
-0.748 -0.829 1.381 255 255 255
-0.133 -1.494 2.048 0 0 0
0.741 -0.888 2.134 255 255 255
0.823 -1.252 2.165 255 255 255
1.027 -0.602 2.166 255 255 255
0.182 -0.177 2.03 255 255 255
1.181 -0.35 2.201 255 255 255
0.752 0.477 2.121 255 255 255
0.493 0.476 1.151 0 0 0
-0.708 -1.335 1.979 255 255 255
0.621 0.511 2.056 255 255 255
1.219 0.035 2.193 255 255 255
-0.467 1.215 2.386 255 255 255
0.935 -0.541 2.184 0 0 0
0.496 -0.188 2.074 255 255 255
0.373 0.021 2.044 255 255 255
0.658 -0.175 2.093 255 255 255
0.496 0.422 2.05 255 255 255
-0.588 -1.428 2.008 255 255 255
0.065 -1.369 2.083 255 255 255
-0.076 0.969 1.956 255 255 255
-0.461 0.241 1.247 0 0 0
0.233 0.508 2.009 255 255 255
0.213 0.98 1.992 255 255 255
-0.227 1.014 1.931 255 255 255
0.097 0.562 1.994 255 255 255
-0.896 -0.138 1.584 255 255 255
0.418 0.316 2.042 255 255 255
0.781 -0.836 2.134 255 255 255
1.371 -0.414 2.235 255 255 255
0.347 -1.444 1.895 255 255 255
0.217 0.568 2.008 255 255 255
-0.067 0.87 1.959 0 0 0
0.439 -0.682 2.088 255 255 255
0.46 -1.423 2.031 255 255 255
0.811 -0.003 2.146 255 255 255
0.382 -0.916 2.09 255 255 255
-0.856 -0.626 1.829 255 255 255
-0.806 -0.58 1.485 255 255 255
0.248 0.388 2.019 255 255 255
0.05 -0.727 2.034 255 255 255
-0.8 -0.957 1.923 255 255 255
-0.557 0.341 1.35 255 255 255
0.663 -0.038 2.086 255 255 255
0.242 0.92 1.996 0 0 0
1.542 -0.065 2.234 255 255 255
0.329 -1.285 2.112 255 255 255
0.874 -0.766 2.141 255 255 255
-0.104 0.161 2.003 255 255 255
0.512 -0.494 2.089 255 255 255
-0.093 -1.438 2.867 255 255 255
0.236 -1.022 2.081 255 255 255
0.846 -1.299 2.169 255 255 255
0.801 0.426 2.128 255 255 255
0.04 0.702 1.983 255 255 255
0.872 -1.119 2.165 255 255 255
1.311 -0.471 2.229 255 255 255
-0.626 -1.161 1.96 255 255 255
-0.808 -0.893 1.84 255 255 255
-0.501 0.229 1.278 255 255 255
0.587 0.221 2.065 255 255 255
0.203 -0.976 2.073 255 255 255
-0.794 -0.6 1.94 255 255 255
1.338 0.143 2.202 255 255 255
0.27 -0.187 2.044 255 255 255
-0.142 0.731 1.938 255 255 255
-0.825 -0.188 1.087 255 255 255
0.515 0.662 2.034 255 255 255
0.393 -0.589 2.075 255 255 255
-0.82 -0.338 1.267 255 255 255
-0.852 -0.525 1.937 255 255 255
-0.897 0.038 1.392 255 255 255
1.458 -0.296 2.234 255 255 255
0.171 -1.462 2.01 0 0 0
0.105 0.922 1.978 0 0 0
-0.387 -0.27 1.278 255 255 255
-0.458 0.274 1.251 255 255 255
0.69 0.448 2.081 255 255 255
1.202 -0.287 2.203 255 255 255
-0.1 0.485 1.958 255 255 255
0.517 -1.117 2.121 255 255 255
-0.421 0.16 1.264 255 255 255
0.161 -1.392 2.097 255 255 255
1.31 0.337 2.192 255 255 255
1.389 0.318 2.203 255 255 255
0.396 0.552 2.029 255 255 255
0.971 0.485 2.143 255 255 255
0.337 0.575 2.023 255 255 255
-0.075 0.261 1.972 255 255 255
0.492 -0.343 2.081 0 0 0
0.004 0.55 1.984 255 255 255
0.88 -0.393 2.17 255 255 255
0.093 0.54 1.993 255 255 255
-0.794 -0.522 1.282 255 255 255
0.024 -0.35 2.009 255 255 255
-0.892 -0.375 1.785 255 255 255
1.112 0.071 2.181 255 255 255
0.368 -0.321 2.068 0 0 0
0.215 1.058 1.986 255 255 255
-0.361 -1.346 2.029 255 255 255
0.004 -1.188 2.091 255 255 255
-0.307 -0.67 1.312 255 255 255
0.98 0.858 2.135 255 255 255
0.065 -1.476 2.016 0 0 0
-0.549 0.51 1.295 255 255 255
-0.907 -0.013 1.542 255 255 255
-0.024 -1.458 2.07 255 255 255
0.769 0.005 2.122 0 0 0
-0.864 -0.235 1.916 255 255 255
-0.48 0.461 1.243 255 255 255
-0.803 -0.588 1.477 255 255 255
-0.987 0.241 1.73 255 255 255
-0.661 1.22 2.456 255 255 255
0.197 0.828 1.996 255 255 255
0.682 -0.033 2.089 255 255 255
0.823 -0.641 2.128 255 255 255
0.715 -1.025 2.14 255 255 255
-0.309 -0.75 1.308 255 255 255
-0.725 -1.424 1.946 0 0 0
0.846 -1.25 2.168 255 255 255
-0.953 0.549 1.872 255 255 255
-0.868 0.455 1.858 255 255 255
0.791 -0.486 2.12 255 255 255
-0.827 -0.78 1.828 255 255 255
0.111 -0.866 2.041 255 255 255
-0.249 -1.464 2.971 255 255 255
-0.492 0.498 1.235 255 255 255
-0.183 0.58 1.978 255 255 255
0.303 0.799 2.008 255 255 255
1.243 -1.185 2.205 255 255 255
0.943 0.549 2.139 255 255 255
-0.837 -0.328 1.397 255 255 255
0.439 0.487 2.039 255 255 255
0.211 -1.453 2.047 255 255 255
-0.88 -0.423 1.771 255 255 255
0.07 -0.569 2.028 255 255 255
1.001 -0.445 2.192 255 255 255
0.244 0.347 2.019 255 255 255
0.889 0.317 2.14 255 255 255
-0.761 -0.231 1.908 255 255 255
0.019 -0.019 2.009 255 255 255
0.869 -0.545 2.174 0 0 0
-0.848 -0.141 1.917 255 255 255
-0.318 -1.472 2.69 0 0 0
-0.574 0.56 1.313 255 255 255
-0.885 -0.328 1.922 255 255 255
-0.873 1.198 2.544 255 255 255
-0.862 -0.438 1.93 255 255 255
0.393 0.487 1.087 255 255 255
0.628 -1.171 2.141 255 255 255
-0.277 -0.925 1.317 255 255 255
0.207 -0.186 2.034 255 255 255
-0.337 -0.501 1.299 255 255 255
1.22 -1.137 2.199 255 255 255
0.26 -0.806 2.073 255 255 255
0.343 -0.769 2.081 255 255 255
0.842 0.292 2.136 255 255 255
0.312 0.523 1.3 0 0 0
0.112 0.097 2.018 255 255 255
0.685 0.035 2.084 255 255 255
0.404 0.493 2.034 255 255 255
-0.085 0.501 1.971 255 255 255
0.418 -1.225 2.119 255 255 255
0.12 0.158 2.016 255 255 255
1.112 -1.112 2.19 255 255 255
0.316 0.391 2.027 255 255 255
0.397 0.417 1.133 255 255 255
-0.987 0.213 1.843 255 255 255
0.024 0.718 1.979 255 255 255
1.403 -0.61 2.195 255 255 255
-0.712 1.222 2.573 255 255 255
0.534 -0.363 2.088 0 0 0
0.045 0.839 1.974 255 255 255
0.52 -0.02 2.07 255 255 255
-0.909 -0.009 1.53 255 255 255
0.661 -0.378 2.101 255 255 255
1.473 0.202 2.214 255 255 255
0.22 0.886 1.997 0 0 0
0.238 0.65 1.174 255 255 255
-0.854 -0.287 1.474 255 255 255
-0.672 -1.144 1.997 255 255 255
0.146 -1.458 2.059 255 255 255
0.403 0.458 2.033 255 255 255
-0.756 1.171 2.054 255 255 255
1.077 -0.367 2.191 255 255 255
0.312 -0.531 2.066 255 255 255
-1.01 0.358 1.819 255 255 255
0.779 -0.457 2.117 255 255 255
0.144 0.15 2.017 255 255 255
0.324 0.354 2.031 255 255 255
0.418 0.795 2.022 255 255 255
0.112 0.807 1.983 255 255 255
-0.85 -0.23 1.394 255 255 255
0.451 -1.208 2.124 255 255 255
-0.316 -0.821 1.336 255 255 255
0.953 -1.315 2.171 255 255 255
0.623 -0.974 2.127 255 255 255
0.373 0.643 2.025 255 255 255
-0.876 -0.45 1.769 255 255 255
-0.941 -0.095 1.861 255 255 255
0.694 -0.882 2.129 255 255 255
0.415 -1.433 1.922 0 0 0
-0.818 -0.255 1.131 255 255 255
1.173 0.497 2.166 255 255 255
-0.858 -0.119 1.289 255 255 255
-0.375 -0.181 1.284 0 0 0
-0.025 0.755 1.97 255 255 255
-0.037 -1.206 2.054 255 255 255
-0.883 -0.04 1.402 255 255 255
0.301 -0.597 2.066 255 255 255
-0.17 0.567 1.978 255 255 255
0.229 0.919 1.995 0 0 0
-0.108 0.173 2.006 255 255 255
0.47 -1.423 2.003 255 255 255
0.293 -1.055 2.091 255 255 255
-0.264 -0.873 1.335 255 255 255
-0.509 0.378 1.267 255 255 255
0.406 -0.335 2.068 0 0 0
0.225 0.56 2.009 255 255 255
0.391 -0.807 2.088 255 255 255
0.309 0.559 1.029 255 255 255
1.609 -0.295 2.26 255 255 255
0.637 -1.352 2.149 255 255 255
-0.504 0.36 1.265 255 255 255
1.086 -1.166 2.19 255 255 255
0.451 0.454 1.112 255 255 255
0.472 -0.519 2.086 255 255 255
0.242 -1.267 2.1 255 255 255
-0.032 0.256 1.992 255 255 255
-0.873 -0.131 1.413 255 255 255
0.528 0.043 2.068 255 255 255
-0.351 -0.445 1.289 255 255 255
-0.731 -0.956 1.396 255 255 255
0.205 0.593 2.006 255 255 255
0.152 -0.881 2.063 255 255 255
0.244 -0.559 2.06 255 255 255
0.105 0.917 1.978 0 0 0
0.289 0.546 1.148 255 255 255
-0.837 -0.339 1.402 255 255 255
-0.764 -0.848 1.52 255 255 255
-0.105 0.565 1.959 255 255 255
-0.859 -0.059 1.186 255 255 255
0.969 0.536 2.141 255 255 255
-0.873 -0.008 1.227 255 255 255
-0.085 -1.37 2.067 255 255 255
0.604 -1.405 1.962 255 255 255
0.515 -0.378 2.079 0 0 0
-0.024 -1.33 2.07 255 255 255
-0.348 -0.566 1.305 255 255 255
0.958 -1.336 2.129 255 255 255
0.782 -1.321 2.159 255 255 255
-0.878 -0.413 1.928 255 255 255
1.113 0.207 2.168 255 255 255
0.058 -0.653 2.028 255 255 255
0.795 -1.376 1.938 255 255 255
0.408 0.472 2.035 255 255 255
0.376 0.451 1.108 255 255 255
0.02 0.767 1.976 255 255 255
1.322 -0.962 2.212 255 255 255
-1.016 0.439 1.873 255 255 255
0.136 0.218 2.013 255 255 255
1.527 -0.151 2.239 255 255 255
0.703 -1.388 2.016 255 255 255
-0.984 0.563 1.865 255 255 255
0.609 -0.375 2.095 255 255 255
0.239 -0.121 2.035 255 255 255
-0.293 -1.462 2.045 255 255 255
0.137 0.389 2.006 255 255 255
-0.764 -0.896 1.949 255 255 255
0.848 -0.303 2.162 255 255 255
-0.52 0.597 1.225 255 255 255
-0.808 -0.594 1.517 255 255 255
-0.048 -1.441 2.748 255 255 255
-0.912 0.13 1.4 255 255 255
1.139 0.152 2.177 255 255 255
-0.132 0.567 1.951 255 255 255
0.276 -0.632 2.065 255 255 255
0.062 -0.984 2.096 255 255 255
-0.863 0.095 1.922 255 255 255
0.529 -1.298 2.138 255 255 255
1.251 0.426 2.181 255 255 255
0.092 0.189 2.009 255 255 255
1.577 -0.256 2.247 255 255 255
-0.691 -0.731 1.928 255 255 255
1.116 0.65 2.16 255 255 255
-0.475 0.429 1.244 255 255 255
0.319 0.501 1.17 255 255 255
0.033 -0.604 2.026 255 255 255
-0.549 0.368 1.341 255 255 255
0.076 0.355 2.002 255 255 255
0.434 0.743 2.028 255 255 255
0.944 -1.347 2.056 255 255 255
-0.028 -0.215 2.003 255 255 255
1.401 -0.128 2.225 255 255 255
0.676 0.512 2.07 255 255 255
0.347 0.552 1.045 255 255 255
-0.759 -0.83 1.459 255 255 255
0.648 -0.815 2.12 255 255 255
-0.688 -1.392 1.989 255 255 255
0.179 -1.221 2.084 255 255 255
1.304 -0.817 2.195 255 255 255
0.076 0.085 2.012 255 255 255
0.586 -1.259 2.142 255 255 255
0.994 -0.541 2.187 0 0 0
0.264 -0.795 2.07 255 255 255
-0.206 1.055 1.924 255 255 255
0.243 -0.011 2.031 255 255 255
0.424 0.94 2.01 0 0 0
0.193 0.653 2.001 255 255 255
0.209 -0.374 2.043 255 255 255
-0.192 -1.45 2.762 0 0 0
-0.044 0.275 1.987 255 255 255
-0.093 0.041 2.017 255 255 255
-0.339 -0.575 1.299 255 255 255
-0.342 -1.02 1.442 255 255 255
0.145 -1.352 2.092 255 255 255
-0.75 -0.719 1.957 0 0 0
0.74 -0.086 2.095 255 255 255
0.9 0.282 2.145 255 255 255
-0.817 -0.684 1.944 255 255 255
0.553 -1.412 1.837 255 255 255
0.158 1.019 1.983 255 255 255
-0.973 0.217 1.889 255 255 255
0.47 -0.47 2.085 255 255 255
-0.814 -0.426 1.34 255 255 255
1.452 0.252 2.219 255 255 255
0.715 -1.07 2.144 255 255 255
-0.066 -1.49 2.035 0 0 0
0.599 -0.929 2.123 255 255 255
-0.329 -0.556 1.3 255 255 255
0.512 -1.17 2.129 255 255 255
0.324 -0.159 2.049 255 255 255
0.145 -1.204 2.066 255 255 255
0.025 1.043 1.966 255 255 255
1.291 -0.744 2.188 255 255 255
-0.822 -0.435 1.413 255 255 255
0.905 -1.362 1.97 255 255 255
-0.092 0.861 1.959 0 0 0
0.358 0.001 2.051 0 0 0
0.219 -0.793 2.066 255 255 255
0.497 -0.356 2.081 0 0 0
-0.885 -0.447 1.906 255 255 255
0.039 -0.003 2.012 255 255 255
0.591 0.606 2.046 255 255 255
0.45 -0.535 2.084 255 255 255
0.488 0.214 2.055 255 255 255
0.59 -1.402 2.034 255 255 255
0.131 1.004 1.975 255 255 255
0.18 -0.319 2.041 255 255 255
1.473 -0.221 2.233 255 255 255
0.337 -1.443 1.954 0 0 0
0.655 -1.325 2.151 255 255 255
-0.537 1.177 2.241 255 255 255
-0.345 -0.409 1.295 255 255 255
-0.315 -0.583 1.307 255 255 255
1.026 0.385 2.15 255 255 255
0.284 0.746 2.005 255 255 255
-0.241 0.967 1.963 255 255 255
-0.02 -0.023 1.99 255 255 255
-0.308 -1.398 2.04 255 255 255
0.02 0.735 1.975 255 255 255
-0.93 0.249 1.887 255 255 255
-0.732 1.21 2.448 255 255 255
0.663 -0.197 2.094 255 255 255
1.151 -0.995 2.183 255 255 255
1.343 -0.599 2.191 255 255 255
-0.937 0.327 1.883 255 255 255
0.51 -1.425 1.846 255 255 255
1.023 -0.921 2.171 255 255 255
0.619 -1.229 2.145 255 255 255
0.187 -0.714 2.058 255 255 255
0.421 -0.274 2.059 255 255 255
0.484 -0.761 2.094 255 255 255
-0.946 0.07 1.9 255 255 255
0.452 0.622 2.033 255 255 255
-0.071 -1.466 2.677 255 255 255
1.465 0.051 2.217 255 255 255
0.78 0.451 2.121 255 255 255
0.277 0.569 1.214 255 255 255
0.142 -0.855 2.059 255 255 255
-0.02 0.372 1.987 255 255 255
1.178 -1.203 2.201 255 255 255
-0.298 1.055 2.376 0 0 0
0.378 0.456 1.105 255 255 255
0.16 0.945 1.984 255 255 255
1.011 -0.128 2.172 255 255 255
0.481 -0.61 2.089 255 255 255
0.716 -0.689 2.121 255 255 255
-0.234 -1.309 2.037 255 255 255
0.28 0.564 1.215 255 255 255
0.621 -0.209 2.091 255 255 255
1.378 -0.217 2.223 255 255 255
0.256 -0.052 2.036 255 255 255
0.243 0.082 2.032 255 255 255
0.13 0.878 1.984 0 0 0
0.993 0.268 2.159 255 255 255
-0.884 0.212 1.901 255 255 255
-0.762 -0.267 1.907 255 255 255
0.867 -0.355 2.167 255 255 255
-0.477 0.392 1.242 255 255 255
0.215 -0.787 2.065 255 255 255
1.301 -0.524 2.194 255 255 255
-0.509 0.227 1.276 255 255 255
0.092 0.395 1.999 255 255 255
-0.912 0.294 1.893 0 0 0
-0.179 -1.516 2.006 0 0 0
-0.225 -1.222 2.073 255 255 255
-0.012 0.3 1.992 255 255 255
-0.337 -0.619 1.305 255 255 255
0.881 -1.155 2.165 255 255 255
0.294 0.565 1.11 255 255 255
-0.781 -0.619 1.325 255 255 255
-0.005 -1.178 2.102 255 255 255
0.518 0.431 2.051 255 255 255
-0.864 -0.25 1.518 255 255 255
-0.805 0.017 1.894 255 255 255
-0.845 -0.169 1.919 255 255 255
0.571 -0.263 2.085 255 255 255
0.02 -0.171 2.012 255 255 255
1.285 -0.588 2.187 255 255 255
0.885 -0.861 2.148 255 255 255
0.248 0.609 2.012 255 255 255
0.331 1.078 1.994 255 255 255
0.074 -0.649 2.028 255 255 255
0.275 0.469 2.019 255 255 255
-0.806 -0.688 1.61 255 255 255
0.985 0.752 2.135 255 255 255
0.888 0.042 2.152 255 255 255
1.299 0.147 2.197 255 255 255
0.219 -0.409 2.049 0 0 0
0.189 0.855 1.995 255 255 255
0.048 0.501 1.989 255 255 255
0.503 -0.253 2.078 255 255 255
1.218 0.006 2.192 255 255 255
0.383 0.802 2.02 255 255 255
1.012 -0.732 2.154 255 255 255
-0.767 -0.746 1.393 255 255 255
-0.02 0.212 1.995 255 255 255
1.506 -0.596 2.208 255 255 255
0.422 0.415 1.137 0 0 0
-0.339 -0.651 1.317 255 255 255
1.303 0.351 2.189 255 255 255
0.28 -0.292 2.05 255 255 255
0.426 -0.028 2.056 255 255 255
0.359 0.572 1.012 255 255 255
-0.857 -0.256 1.919 255 255 255
0.828 -0.631 2.128 255 255 255
1.046 -0.073 2.18 255 255 255
1.093 0.001 2.178 255 255 255
0.25 -1.238 2.099 255 255 255
0.513 -0.675 2.1 255 255 255
0.74 -0.31 2.106 255 255 255
-0.811 -0.468 1.366 255 255 255
-0.872 -0.195 1.509 255 255 255
0.24 -0.616 2.058 255 255 255
-0.064 -1.235 2.046 255 255 255
0.897 -0.268 2.164 255 255 255
0.664 -0.21 2.097 255 255 255
1.052 -0.797 2.169 255 255 255
-0.349 1.018 2.203 255 255 255
0.983 0.595 2.14 255 255 255
0.665 -0.263 2.097 255 255 255
0.826 0.609 2.127 255 255 255
0.937 -1.118 2.169 255 255 255
1.141 -0.88 2.183 255 255 255
0.099 -0.936 2.045 255 255 255
-0.004 -0.138 1.997 255 255 255
0.068 -1.481 1.972 0 0 0
0.594 -0.08 2.081 255 255 255
0.764 0.392 2.125 255 255 255
0.68 -0.784 2.122 255 255 255
-0.175 0.755 1.942 255 255 255
0.484 -0.386 2.079 255 255 255
0.395 -1.313 2.122 255 255 255
-0.166 0.51 1.986 255 255 255
0.178 0.357 2.013 255 255 255
0.765 0.406 2.125 255 255 255
-0.062 0.844 1.962 255 255 255
-0.193 1.02 1.926 255 255 255
1.464 -0.472 2.234 0 0 0
0.003 0.24 1.994 255 255 255
0.556 -0.434 2.093 255 255 255
0.226 0.078 2.031 255 255 255
0.556 0.309 2.059 255 255 255
0.809 -0.062 2.151 255 255 255
-0.337 1.039 2.213 255 255 255
1.342 0.094 2.201 255 255 255
1.165 -0.285 2.197 255 255 255
0.198 -0.084 2.036 255 255 255
-0.835 -0.744 1.824 255 255 255
1.62 -0.476 2.226 255 255 255
-0.611 -1.54 2.011 255 255 255
0.455 0.411 2.044 255 255 255
-0.982 0.196 1.75 255 255 255
-0.715 -1.464 1.908 255 255 255
0.108 -0.95 2.043 255 255 255
1.353 -0.802 2.198 255 255 255
0.83 -0.928 2.148 255 255 255
0.672 -0.482 2.108 255 255 255
0.292 0.547 1.228 0 0 0
-0.476 0.438 1.245 255 255 255
0.71 0.413 2.105 0 0 0
0.313 1.057 1.996 255 255 255
-0.807 -0.445 1.318 255 255 255
0.07 -0.639 2.027 255 255 255
1.327 -0.909 2.203 255 255 255
0.1 0.848 1.981 255 255 255
1.293 0.263 2.19 255 255 255
0.358 0.585 2.024 255 255 255
0.082 0.699 1.987 255 255 255
-0.578 0.467 1.346 255 255 255
0.273 0.327 2.022 255 255 255
-0.171 0.755 1.942 255 255 255
-0.661 -1.328 1.988 255 255 255
1.027 0.833 2.138 255 255 255
-0.519 0.237 1.285 255 255 255
0.692 -0.029 2.09 255 255 255
-0.095 0.793 1.96 255 255 255
-0.826 -0.206 1.124 255 255 255
0.365 0.415 1.224 0 0 0
0.272 -1.113 2.091 255 255 255
0.854 -0.317 2.164 255 255 255
0.177 0.275 2.013 255 255 255
0.817 0.01 2.148 255 255 255
0.726 -0.336 2.104 255 255 255
0.323 0.107 2.042 255 255 255
1.139 -0.122 2.19 255 255 255
0.155 -0.845 2.058 255 255 255
-0.3 -0.684 1.315 255 255 255
-0.749 1.188 2.2 255 255 255
0.274 0.596 1.1 255 255 255
-0.974 0.172 1.886 255 255 255
-0.036 0.429 1.982 255 255 255
0.376 0.411 1.254 255 255 255
0.2 0.525 2.009 255 255 255
0.777 -0.979 2.143 255 255 255
0.848 -0.592 2.136 255 255 255
1.603 0.073 2.234 255 255 255
-0.457 0.263 1.249 255 255 255
0.319 0.017 2.047 0 0 0
-0.155 -1.258 2.034 255 255 255
1.266 -0.411 2.222 255 255 255
-0.41 -0.104 1.267 255 255 255
1.089 0.169 2.175 255 255 255
0.835 -0.924 2.15 255 255 255
0.952 -0.889 2.164 255 255 255
0.094 0.674 1.989 255 255 255
0.615 0.269 2.067 255 255 255
0.719 -1.192 2.153 255 255 255
-0.959 0.372 1.875 255 255 255
0.467 0.506 1.12 255 255 255
1.035 0.606 2.148 255 255 255
0.302 -0.616 2.068 255 255 255
0.377 -0.161 2.059 255 255 255
0.419 0.935 2.01 0 0 0
0.955 0.312 2.15 255 255 255
-0.815 -0.582 1.559 255 255 255
0.024 -0.499 2.021 255 255 255
0.35 -0.387 2.059 0 0 0
0.872 -1.368 1.83 0 0 0
0.125 -0.898 2.048 255 255 255
0.561 -0.229 2.083 255 255 255
0.806 -1.356 2.119 255 255 255
-0.123 0.421 1.963 255 255 255
-0.172 1.009 1.934 255 255 255
0.057 -0.599 2.026 255 255 255
-0.839 -0.278 1.326 255 255 255
0.611 -0.655 2.108 255 255 255
0.85 -0.915 2.15 255 255 255
1.485 -0.009 2.229 255 255 255
1.156 0.634 2.164 255 255 255
0.239 0.621 2.008 255 255 255
-0.78 -0.599 1.274 255 255 255
-0.823 -0.785 1.796 255 255 255
0.613 0.359 2.064 255 255 255
0.272 0.913 2 0 0 0
0.08 0.407 1.998 255 255 255
1.241 -0.602 2.179 255 255 255
0.227 0.297 2.021 255 255 255
-0.225 0.831 1.968 255 255 255
-0.808 -0.368 1.181 255 255 255
-0.276 -1.231 2.066 255 255 255
-0.133 -1.203 2.085 255 255 255
0.43 0.634 2.031 255 255 255
0.344 -1.393 2.112 255 255 255
0.82 -1.371 1.895 0 0 0
0.345 0.503 1.073 255 255 255
0.708 0.357 2.091 0 0 0
0.431 0.895 2.018 0 0 0
0.425 0.49 1.08 255 255 255
-0.778 1.192 2.298 255 255 255
0.412 -0.859 2.094 255 255 255
-0.783 -1.064 1.95 255 255 255
-0.843 -0.638 1.764 255 255 255
-0.952 0.196 1.888 255 255 255
0.45 0.36 2.046 255 255 255
0.389 -0.482 2.073 255 255 255
0.048 -0.348 2.023 255 255 255
0.978 0.59 2.142 255 255 255
-0.378 -1.484 2.693 0 0 0
0.953 -0.932 2.167 255 255 255
0.956 -1.359 1.883 0 0 0
1.413 0.209 2.209 255 255 255
-0.777 -0.772 1.501 255 255 255
0.544 0.541 2.048 255 255 255
-0.712 -0.866 1.983 255 255 255
0.226 0.211 2.02 255 255 255
0.333 -0.51 2.066 255 255 255
-0.835 -0.505 1.932 255 255 255
0.367 0.543 1.049 255 255 255
0.76 -0.615 2.12 255 255 255
0.409 0.009 2.056 255 255 255
-0.854 -0.132 1.27 255 255 255
0.554 0.377 2.058 255 255 255
0.538 -0.05 2.073 255 255 255
0.158 -0.982 2.067 255 255 255
0.859 -1.318 2.168 255 255 255
0.236 -0.77 2.066 255 255 255
-0.764 -0.738 1.335 255 255 255
-0.733 -0.533 1.948 255 255 255
1.172 0.343 2.172 255 255 255
1.105 -1.304 2.172 255 255 255
-0.132 0.543 1.954 255 255 255
0.285 0.766 2.009 255 255 255
-0.615 -1.228 1.964 255 255 255
1.088 -0.267 2.189 255 255 255
-0.887 -0.426 1.843 255 255 255
-0.883 -0.442 1.822 255 255 255
0.731 -0.85 2.128 255 255 255
1.19 -0.296 2.2 255 255 255
-0.8 -0.482 1.283 255 255 255
-0.819 -0.344 1.253 255 255 255
0.641 -0.513 2.107 255 255 255
1.284 -0.028 2.204 255 255 255
1.147 -0.735 2.171 255 255 255
0.586 -0.898 2.114 255 255 255
0.389 0.494 1.079 255 255 255
-0.873 -0.157 1.91 255 255 255
0.687 -1.187 2.15 255 255 255
0.27 0.587 1.13 255 255 255
-0.25 -1.451 2.991 255 255 255
0.175 -0.585 2.048 255 255 255
-0.784 1.211 2.651 255 255 255
0.859 -0.221 2.159 255 255 255
0.182 -0.181 2.03 255 255 255
-0.076 -0.003 2.005 255 255 255
0.894 -0.975 2.155 255 255 255
0.926 -0.359 2.176 255 255 255
0.559 -0.74 2.104 255 255 255
1.176 0.43 2.171 255 255 255
-0.802 -0.436 1.23 255 255 255
-0.883 0.23 1.918 255 255 255
0.665 -0.437 2.107 255 255 255
0.187 -0.265 2.04 255 255 255
-0.353 1.265 2.425 255 255 255
-0.88 1.182 2.277 255 255 255
0.497 0.068 2.063 255 255 255
-0.849 -0.126 1.204 255 255 255
0.903 -0.264 2.166 255 255 255
-0.342 -1.476 2.747 0 0 0
-0.774 -1.122 1.873 255 255 255
-0.129 0.642 1.946 255 255 255
-0.033 -1.181 2.107 255 255 255
-0.081 0.473 1.975 255 255 255
0.55 0.45 2.053 255 255 255
1.06 -0.05 2.177 255 255 255
-0.157 0.569 1.956 255 255 255
0.528 0.051 2.068 255 255 255
0.32 -0.869 2.079 255 255 255
-0.769 -0.802 1.491 255 255 255
0.239 0.24 2.021 255 255 255
0.448 -0.824 2.099 255 255 255
0.098 0.718 1.988 255 255 255
1.525 0.087 2.229 255 255 255
0.4 0.253 2.044 255 255 255
-0.79 -0.558 1.312 255 255 255
1.237 -0.642 2.175 255 255 255
0.709 0.13 2.084 255 255 255
-0.484 0.422 1.238 255 255 255
1.281 -0.669 2.186 255 255 255
-0.584 0.499 1.346 255 255 255
0.136 0.013 2.024 255 255 255
0.162 0.514 2.003 255 255 255
0.165 0.126 2.022 255 255 255
0.128 -0.79 2.052 255 255 255
-0.706 -0.579 1.902 255 255 255
-0.871 -0.207 1.52 255 255 255
0.698 0.4 2.084 0 0 0
-0.595 0.533 1.357 255 255 255
-0.038 0.975 1.959 255 255 255
1.073 0.36 2.161 255 255 255
0.274 -0.163 2.049 255 255 255
-0.935 -0.136 1.875 255 255 255
0.768 -1.077 2.148 255 255 255
1.121 0.193 2.173 255 255 255
0.614 -0.389 2.098 255 255 255
-0.813 -0.384 1.272 255 255 255
0.291 -0.362 2.064 0 0 0
0.511 -1.11 2.12 255 255 255
-0.785 1.171 2.069 255 255 255
-0.954 0.013 1.889 255 255 255
0.749 0.55 2.115 0 0 0
0.359 0.975 2.008 255 255 255
-0.828 -0.46 1.509 255 255 255
-0.735 -1.318 1.846 255 255 255
-0.807 -0.633 1.555 255 255 255
0.723 -0.818 2.126 255 255 255
0.826 -0.9 2.145 255 255 255
0.7 0.242 2.077 255 255 255
0.902 -1.307 2.17 255 255 255
0.436 -0.36 2.063 255 255 255
0.418 0.519 2.033 255 255 255
0.214 0.037 2.029 255 255 255
0.331 0.947 2.005 0 0 0
0.363 -1.212 2.112 255 255 255
0.407 0.401 1.17 0 0 0
-0.55 0.49 1.302 255 255 255
-0.596 -1.506 2.979 0 0 0
0.758 -0.988 2.144 255 255 255
-0.791 -0.68 1.491 255 255 255
-0.85 -0.318 1.499 255 255 255
-0.394 -0.162 1.274 255 255 255
-0.298 -0.655 1.318 0 0 0
0.544 -0.565 2.098 255 255 255
0.058 -0.713 2.032 255 255 255
1.261 0.242 2.187 255 255 255
-0.85 -0.372 1.923 255 255 255
0.311 0.279 2.032 255 255 255
0.257 -1.454 1.977 0 0 0
-0.827 -0.375 1.379 255 255 255
0.56 0.098 2.07 255 255 255
0.268 0.787 2.004 255 255 255
0.219 1.028 1.986 255 255 255
-0.029 0.401 1.986 255 255 255
0.117 -0.21 2.028 255 255 255
1.297 -0.955 2.203 255 255 255
1.255 -0.811 2.194 255 255 255
0.003 0.148 2 255 255 255
0.432 0.387 1.173 0 0 0
0.336 -0.036 2.049 255 255 255
-0.874 0.006 1.238 255 255 255
-0.032 -0.09 1.994 255 255 255
-0.37 -0.736 1.4 255 255 255
0.498 -1.122 2.123 255 255 255
-0.377 -0.404 1.3 255 255 255
0.228 0.703 2.002 255 255 255
0.355 0.772 2.017 255 255 255
1.123 -0.145 2.19 255 255 255
1.203 -0.099 2.195 255 255 255
0.494 0.387 2.048 255 255 255
0.745 -0.731 2.125 255 255 255
-0.111 0.797 1.959 255 255 255
-0.316 -1.246 2.049 255 255 255
-0.458 0.186 1.253 255 255 255
-0.869 -0.153 1.445 255 255 255
0.071 -1.043 2.101 255 255 255
-0.701 -0.815 1.964 255 255 255
1.285 -1.083 2.212 255 255 255
1.495 -0.402 2.241 255 255 255
0.382 1.008 2.002 255 255 255
1.353 -0.792 2.201 255 255 255
0.699 0.338 2.08 255 255 255
1.354 0.305 2.197 255 255 255
1.143 0.461 2.168 255 255 255
0.054 0.973 1.973 255 255 255
0.374 -1.411 2.108 255 255 255
0.48 -0.053 2.065 255 255 255
0.86 -0.685 2.137 255 255 255
0.397 0.521 1.058 255 255 255
0.374 0.411 1.217 0 0 0
0.561 0.343 2.057 255 255 255
-0.588 1.216 2.253 255 255 255
-0.701 -0.625 1.914 255 255 255
0.916 -1.037 2.167 255 255 255
0.88 -0.677 2.138 255 255 255
0.497 -1.163 2.127 255 255 255
1.192 0.134 2.184 255 255 255
0.963 -0.581 2.157 255 255 255
1.448 -0.68 2.204 255 255 255
-0.272 -0.873 1.323 255 255 255
-0.807 -0.368 1.207 255 255 255
-0.804 0.029 1.903 255 255 255
0.033 -0.725 2.054 255 255 255
1.621 -0.175 2.247 255 255 255
0.343 1.078 1.983 255 255 255
0.008 -0.392 2.013 255 255 255
-1.019 0.411 1.836 255 255 255
0.915 -0.924 2.155 255 255 255
0.652 0.197 2.075 255 255 255
0.85 0.517 2.128 255 255 255
0.637 0.141 2.073 255 255 255
0.808 0.367 2.13 255 255 255
-0.867 0.082 1.911 255 255 255
0.938 -0.373 2.178 255 255 255
0.403 -0.207 2.061 255 255 255
0.671 -1.399 1.818 255 255 255
0.72 0.07 2.091 255 255 255
0.092 -0.071 2.02 255 255 255
0.306 -1.133 2.095 255 255 255
1.2 -1.123 2.199 255 255 255
0.722 -0.354 2.106 255 255 255
0.186 -0.178 2.033 255 255 255
