ply
format ascii 1.0
comment Created by Open3D
element vertex 1588
property double x
property double y
property double z
property uchar red
property uchar green
property uchar blue
end_header
-0.431 -0.092 1.282 255 255 255
0.515 -1.307 1.902 255 255 255
0.559 0.665 2.067 255 255 255
0.383 0.493 1.144 0 0 0
0.331 -0.07 2.093 255 255 255
1.499 -0.208 2.335 255 255 255
0.066 -0.369 2.073 255 255 255
0.917 -0.163 2.231 255 255 255
0.363 0.326 2.063 255 255 255
1.095 0.226 2.23 255 255 255
1.288 0.076 2.273 255 255 255
0.218 -0.499 2.106 255 255 255
0.291 0.013 2.081 255 255 255
0.569 -0.596 2.175 255 255 255
-0.136 0.836 1.941 255 255 255
0.817 0.197 2.194 255 255 255
-0.422 -0.32 1.309 255 255 255
0.301 -0.3 2.109 255 255 255
0.267 0.591 1.066 255 255 255
0.629 -0.787 2.199 255 255 255
0.798 0.567 2.153 255 255 255
0.878 0.015 2.214 255 255 255
0.731 -0.899 2.232 255 255 255
1.326 0.156 2.273 255 255 255
1.296 0.344 2.25 255 255 255
-0.865 -0.356 1.382 255 255 255
0.982 -1.146 2.281 255 255 255
-0.411 -0.255 1.294 255 255 255
-0.823 -0.97 1.868 255 255 255
0.305 0.504 1.174 255 255 255
0.415 0.539 1.139 255 255 255
1.223 0.448 2.234 255 255 255
-0.09 -1.398 2.063 255 255 255
0.999 -1.038 2.283 255 255 255
1.324 0.331 2.258 255 255 255
0.357 0.607 2.04 255 255 255
0.13 0.524 2.01 255 255 255
0.455 0.309 2.077 255 255 255
0.419 -1.263 2.207 255 255 255
1.22 0.143 2.255 255 255 255
0.784 0.883 2.129 255 255 255
0.429 0.334 2.073 255 255 255
-0.846 -0.329 1.185 255 255 255
-0.062 -1.264 2.143 255 255 255
1.588 -0.068 2.332 255 255 255
0.994 0.283 2.207 255 255 255
0.587 -0.214 2.146 255 255 255
-0.211 0.96 1.92 255 255 255
-0.518 0.155 1.268 255 255 255
0.501 0.214 2.095 255 255 255
-0.957 0.004 1.493 255 255 255
-0.577 -1.466 2.076 255 255 255
1.09 0.369 2.218 255 255 255
-0.319 -1.348 2.111 255 255 255
0.655 -1.18 2.245 255 255 255
-0.317 -1.461 1.922 0 0 0
-0.456 0.066 1.264 255 255 255
-0.087 0.883 1.946 0 0 0
0.171 0.025 2.055 255 255 255
0.044 0.434 2.005 255 255 255
0.447 0.619 2.053 255 255 255
0.152 0.645 2.006 255 255 255
0.193 1.073 1.977 255 255 255
-0.318 -0.826 1.357 255 255 255
0.258 0.66 2.018 255 255 255
0.394 0.198 2.08 255 255 255
-0.727 -1.12 1.555 0 0 0
0.374 -0.033 2.097 255 255 255
-0.842 -0.562 1.95 255 255 255
-0.135 0.749 1.95 255 255 255
0.456 0.369 2.074 255 255 255
0.009 -1.318 2.154 255 255 255
1.163 0.156 2.246 255 255 255
0.863 0.573 2.165 255 255 255
-0.092 0.121 2.005 255 255 255
1.368 -0.141 2.304 255 255 255
0.187 0.303 2.034 255 255 255
-0.041 0.592 1.979 255 255 255
0.407 0.543 1.131 255 255 255
-0.603 -1.435 2.072 255 255 255
-0.791 -0.762 1.456 255 255 255
0.024 0.368 2.008 255 255 255
-0.549 0.432 1.213 255 255 255
0.349 -0.554 2.133 255 255 255
0.418 -1.009 2.193 255 255 255
0.882 -0.991 2.266 255 255 255
0.144 -0.519 2.1 255 255 255
0.2 -0.467 2.103 255 255 255
1.096 -0.651 2.26 255 255 255
0.928 0.854 2.153 255 255 255
0.991 0.718 2.171 255 255 255
-0.104 0.208 1.996 255 255 255
0.253 0.594 1.118 255 255 255
-0.932 -0.322 1.924 255 255 255
1.195 0.535 2.225 255 255 255
0.59 -1.117 2.233 255 255 255
0.535 0.758 2.003 255 255 255
0.485 0.09 2.106 255 255 255
1.047 0.817 2.176 255 255 255
0.171 0.834 1.991 255 255 255
0.22 0.701 2.011 255 255 255
1.058 -0.004 2.241 255 255 255
-0.153 0.586 1.957 255 255 255
0.804 0.861 2.135 255 255 255
0.841 -1.21 2.218 255 255 255
0.861 -1.237 1.928 255 255 255
0.38 0.264 2.072 255 255 255
-0.061 0.121 2.012 255 255 255
-0.998 -0.065 1.768 255 255 255
0.083 -0.784 2.112 255 255 255
0.907 -0.306 2.247 255 255 255
-0.009 -0.473 2.059 255 255 255
0.372 -0.325 2.119 255 255 255
-0.856 -0.622 1.951 255 255 255
1.128 0.744 2.2 255 255 255
0.086 -1.343 2.156 255 255 255
-0.925 -0.052 1.897 255 255 255
0.29 0.523 1.161 255 255 255
0.729 -0.223 2.165 255 255 255
1.367 -0.68 2.304 255 255 255
0.139 0.55 2.009 255 255 255
0.13 -0.416 2.089 255 255 255
0.941 -0.545 2.223 255 255 255
0.257 0.82 2.008 255 255 255
0.773 -0.933 2.242 255 255 255
0.352 0.868 2.022 255 255 255
0.459 0.55 2.06 255 255 255
0.466 -0.149 2.119 255 255 255
-0.842 1.3 2.548 255 255 255
-0.964 0.057 1.457 255 255 255
0.536 0.52 2.073 255 255 255
0.797 -1.243 1.987 255 255 255
1.584 -0.791 2.345 255 255 255
0.315 0.374 2.051 255 255 255
0.131 -0.464 2.094 255 255 255
-0.786 -0.798 1.468 255 255 255
-0.026 -0.531 2.064 255 255 255
0.447 0.229 2.085 255 255 255
0.321 0.001 2.088 255 255 255
-0.005 -1.398 1.862 0 0 0
-0.793 -0.691 1.342 255 255 255
-0.077 -1.382 2.122 255 255 255
0.24 1.038 1.984 255 255 255
0.96 0.243 2.204 255 255 255
0.47 -0.245 2.128 0 0 0
-0.374 -0.417 1.316 255 255 255
0.729 -0.232 2.164 255 255 255
0.119 -0.122 2.063 0 0 0
-0.372 -1.438 2.074 255 255 255
-0.187 0.472 1.95 255 255 255
0.102 0.56 2.002 255 255 255
0.288 1.003 1.992 255 255 255
-0.013 0.555 1.986 255 255 255
0.371 0.519 1.115 255 255 255
0.311 1.01 2.002 255 255 255
0.114 -0.052 2.055 255 255 255
0.04 0.049 2.037 255 255 255
-0.34 -1.394 2.104 255 255 255
0.086 -0.678 2.105 255 255 255
0.603 -0.88 2.209 255 255 255
0.329 0.495 1.168 0 0 0
0.812 0.725 2.147 255 255 255
0.78 -0.206 2.217 255 255 255
0.13 0.383 2.022 255 255 255
1.157 -0.915 2.296 255 255 255
-0.934 -0.433 1.903 255 255 255
0.224 0.623 1.165 255 255 255
1.465 -0.102 2.317 255 255 255
0.976 -1.14 2.282 255 255 255
0.777 -0.963 2.248 255 255 255
0.55 -0.532 2.167 255 255 255
0.763 -0.711 2.216 255 255 255
0.863 0.697 2.154 255 255 255
0.906 -1.119 2.28 255 255 255
1.102 -0.814 2.276 255 255 255
1.057 -1.182 2.184 255 255 255
-1.012 0.028 1.736 255 255 255
-0.325 -0.591 1.339 0 0 0
-0.782 -0.859 1.984 255 255 255
-0.168 0.791 1.942 255 255 255
0.375 -0.122 2.102 255 255 255
0.602 -1.287 1.89 255 255 255
0.732 -1.283 1.621 255 255 255
0.146 0.281 2.028 255 255 255
-0.915 0.298 1.86 255 255 255
0.661 0.731 2.12 255 255 255
0.1 -0.44 2.083 255 255 255
0.024 -0.007 2.038 255 255 255
0.942 0.944 2.151 0 0 0
0.516 0.18 2.103 255 255 255
0.299 0.496 1.224 0 0 0
0.461 -0.084 2.115 255 255 255
0.297 -0.634 2.131 255 255 255
1.574 -0.285 2.331 255 255 255
0.785 -0.072 2.208 255 255 255
0.087 0.856 1.98 255 255 255
-0.906 -0.17 1.912 255 255 255
1.699 -0.021 2.39 255 255 255
0.567 0.16 2.109 255 255 255
0.958 0.09 2.219 255 255 255
0.14 -0.135 2.068 255 255 255
0.861 -0.078 2.224 255 255 255
0.262 0.565 1.163 255 255 255
0.315 -0.599 2.134 255 255 255
-0.733 -1.07 1.503 255 255 255
0.972 -0.78 2.256 255 255 255
-0.353 -0.598 1.328 255 255 255
-0.049 0.638 1.974 255 255 255
0.653 -0.306 2.16 255 255 255
1.038 -1.052 2.292 255 255 255
0.081 0.459 2.006 255 255 255
0.223 -0.846 2.14 255 255 255
-0.182 0.955 1.923 255 255 255
-0.731 -1.435 2.036 255 255 255
0.534 0.617 2.065 255 255 255
0.716 -0.29 2.166 255 255 255
1.41 -0.106 2.311 255 255 255
1.013 -0.385 2.264 0 0 0
0.118 0.983 1.972 255 255 255
1.277 -1.129 2.257 255 255 255
0.543 -1.282 2.118 255 255 255
0.057 -0.326 2.067 255 255 255
0.772 0.492 2.163 255 255 255
0.211 1.071 1.982 255 255 255
0.169 -0.658 2.111 255 255 255
-0.08 -0.055 2.01 255 255 255
0.281 -0.409 2.11 255 255 255
0.561 -1.293 1.951 255 255 255
-0.081 0.507 1.978 255 255 255
0.273 0.575 1.077 255 255 255
0.973 0.343 2.201 255 255 255
0.598 0.761 2.107 255 255 255
0.086 -0.725 2.107 255 255 255
-0.285 0.985 1.897 255 255 255
0.108 -0.953 2.128 255 255 255
0.72 -1.259 2.004 255 255 255
0.419 -0.26 2.119 0 0 0
0.811 -0.091 2.211 255 255 255
1.512 0.09 2.308 255 255 255
-0.001 0.782 1.968 255 255 255
-0.506 -1.486 1.981 255 255 255
-0.263 0.586 1.963 255 255 255
0.947 -0.173 2.239 255 255 255
0.052 -1.321 2.16 255 255 255
-1.028 0.101 1.746 255 255 255
1.106 0.02 2.249 255 255 255
-0.893 -0.629 1.903 255 255 255
-0.335 -0.551 1.34 0 0 0
-0.115 -1.12 2.104 255 255 255
-0.458 -0.187 1.312 255 255 255
0.364 0.457 2.053 255 255 255
-0.752 -1.365 1.931 255 255 255
0.315 -1.337 1.941 255 255 255
0.768 -1.065 2.256 255 255 255
-0.887 -0.3 1.461 255 255 255
0.656 -0.27 2.157 255 255 255
0.647 0.231 2.114 255 255 255
1.067 -1.182 2.18 255 255 255
0.249 -0.103 2.079 255 255 255
0.926 -0.5 2.221 255 255 255
0.948 0.969 2.145 0 0 0
0.472 0.705 2.048 255 255 255
-0.084 0.001 2.006 255 255 255
0.727 -1.276 1.692 0 0 0
0.528 -0.309 2.141 255 255 255
0.168 -0.63 2.112 255 255 255
0.471 -0.263 2.131 255 255 255
-0.219 -1.228 2.113 255 255 255
-0.851 -0.372 1.312 255 255 255
0.38 -1.285 2.198 255 255 255
0.325 -0.032 2.085 255 255 255
-0.849 -0.417 1.37 255 255 255
0.819 0.641 2.157 255 255 255
-0.853 -0.633 1.654 255 255 255
0.487 -0.876 2.189 255 255 255
-0.941 -0.09 1.513 255 255 255
0.523 -0.496 2.156 255 255 255
0.944 -0.149 2.234 255 255 255
-0.786 -0.778 1.45 255 255 255
1.444 -0.787 2.327 255 255 255
-0.741 -1.426 2.02 255 255 255
1.419 -1.074 2.338 255 255 255
0.369 -1.315 2.08 255 255 255
-0.073 0.434 1.985 255 255 255
-0.789 -0.745 1.392 255 255 255
0.839 0.528 2.163 255 255 255
0.926 0.971 2.142 0 0 0
1.066 -0.522 2.241 255 255 255
-0.941 0.455 1.817 255 255 255
1.448 -0.76 2.329 255 255 255
0.638 0.733 2.119 255 255 255
0.134 0.16 2.042 255 255 255
-0.372 -0.42 1.318 255 255 255
-0.421 -0.207 1.286 255 255 255
0.929 -1.208 2.143 255 255 255
-0.278 -1.341 2.893 0 0 0
1.135 0.475 2.216 255 255 255
-0.128 0.045 1.998 255 255 255
1.122 0.562 2.21 255 255 255
0.269 0.573 1.118 255 255 255
-0.851 -0.333 1.242 255 255 255
0.105 -1.092 2.133 255 255 255
0.207 -0.396 2.096 255 255 255
0.773 0.263 2.177 255 255 255
-0.537 -1.488 2.014 0 0 0
-0.121 0.564 1.969 255 255 255
1.486 0.295 2.287 255 255 255
0.936 -0.097 2.23 255 255 255
-0.893 -0.579 1.789 255 255 255
-0.35 -1.345 2.808 0 0 0
-0.71 -1.157 2.023 255 255 255
1.316 -0.548 2.281 255 255 255
0.403 0.085 2.089 0 0 0
0.217 0.148 2.051 0 0 0
0.068 0.365 2.014 255 255 255
-0.245 0.625 1.939 255 255 255
-0.932 0.409 1.815 255 255 255
0.039 -0.883 2.105 255 255 255
0.716 0.777 2.131 255 255 255
0.753 0.141 2.184 255 255 255
0.395 -0.553 2.142 255 255 255
-0.882 1.32 2.472 255 255 255
0.372 0.674 2.038 255 255 255
0.348 0.987 1.992 255 255 255
-0.832 -0.685 1.959 255 255 255
0.405 0.026 2.098 255 255 255
0.056 -1.367 2.09 255 255 255
0.389 0.169 2.081 255 255 255
-0.261 -1.329 2.914 255 255 255
-0.951 0.476 1.814 255 255 255
0.905 -0.568 2.223 255 255 255
-0.073 0.653 1.969 255 255 255
0.057 0.621 1.991 255 255 255
-0.595 1.302 2.455 255 255 255
0.079 -1.366 2.069 255 255 255
1.438 0.037 2.307 255 255 255
0.447 0.292 2.08 255 255 255
0.179 0.233 2.04 255 255 255
-0.408 -0.328 1.299 255 255 255
0.331 0.809 2.019 255 255 255
-1.044 0.225 1.859 255 255 255
-0.871 -0.647 1.958 255 255 255
0.443 -1.32 1.824 0 0 0
-0.9 -0.207 1.915 255 255 255
0.871 0.476 2.176 255 255 255
-0.986 -0.102 1.738 255 255 255
0.263 0.569 1.129 255 255 255
1.039 0.626 2.188 255 255 255
0.653 -0.593 2.185 255 255 255
0.014 -1.289 2.155 255 255 255
0.251 0.93 1.997 0 0 0
-0.053 0.125 2.015 255 255 255
-0.329 -0.599 1.341 0 0 0
0.175 0.306 2.031 255 255 255
-0.094 0.695 1.961 255 255 255
0.603 0.014 2.128 255 255 255
1.578 -0.433 2.312 255 255 255
-0.273 -1.369 2.119 255 255 255
-0.092 0.212 2.001 255 255 255
0.847 -1.243 1.857 255 255 255
0.418 0.547 1.137 255 255 255
0.535 -0.346 2.148 255 255 255
1.104 -1.072 2.305 255 255 255
0.168 0.926 1.983 0 0 0
1.087 -0.421 2.253 255 255 255
0.477 -0.429 2.144 255 255 255
1.3 0.066 2.274 255 255 255
0.879 -1.231 1.923 255 255 255
0.346 -1.335 1.843 0 0 0
-0.843 -0.432 1.317 255 255 255
1.064 -1.187 2.131 255 255 255
-0.266 -1.426 2.076 255 255 255
-0.057 0.35 1.999 255 255 255
0.973 0.371 2.197 255 255 255
-0.482 -0.294 1.397 255 255 255
-0.319 -0.663 1.374 0 0 0
0.749 -0.067 2.202 255 255 255
0.997 0.434 2.197 255 255 255
-0.854 -0.291 1.209 255 255 255
0.997 -0.464 2.241 255 255 255
0.319 0.179 2.066 255 255 255
0.392 -0.595 2.146 255 255 255
-0.193 0.874 1.931 0 0 0
-0.414 -0.129 1.288 0 0 0
0.085 -1.376 1.97 255 255 255
0.648 0.449 2.14 255 255 255
-0.844 -0.449 1.367 255 255 255
0.817 -0.67 2.219 255 255 255
1.242 -0.488 2.265 255 255 255
1.33 -0.079 2.293 255 255 255
0.652 -0.995 2.233 255 255 255
-0.001 -0.044 2.04 255 255 255
0.138 0.062 2.049 255 255 255
0.771 0.033 2.197 255 255 255
-0.9 -0.235 1.463 255 255 255
-1.054 0.291 1.852 255 255 255
1.396 -0.413 2.286 255 255 255
1.474 -0.378 2.303 255 255 255
-1.015 0.097 1.669 255 255 255
0.22 -0.881 2.142 255 255 255
0.188 0.124 2.051 0 0 0
0.371 0.547 1.097 255 255 255
0.802 -0.725 2.223 255 255 255
-0.669 -1.064 1.997 255 255 255
0.319 -1.346 1.83 0 0 0
0.517 -0.238 2.138 255 255 255
1.364 0.193 2.274 255 255 255
0.344 0.541 1.102 255 255 255
1.317 0.325 2.256 255 255 255
1.135 -0.047 2.26 255 255 255
-0.805 -0.31 1.909 255 255 255
-0.749 -1.377 2.018 255 255 255
-0.515 0.31 1.228 255 255 255
-0.017 0.105 2.022 255 255 255
0.609 -0.932 2.219 255 255 255
-0.808 -0.261 1.911 255 255 255
-0.041 0.217 2.011 255 255 255
0.895 0.553 2.172 255 255 255
-0.315 -0.808 1.352 255 255 255
0.289 0.266 2.058 255 255 255
-0.711 1.313 2.614 255 255 255
1.001 -0.389 2.261 0 0 0
0.124 0.764 1.99 255 255 255
0.908 -1.202 2.195 255 255 255
0.319 -0.209 2.096 255 255 255
-0.812 -0.59 1.337 255 255 255
0.531 0.503 2.075 255 255 255
-0.394 -1.379 2.084 255 255 255
-0.258 0.754 1.92 255 255 255
-0.415 -0.282 1.293 255 255 255
0.116 0.764 1.991 255 255 255
-0.009 -0.117 2.041 255 255 255
0.489 0.197 2.098 255 255 255
0.774 -1.252 1.988 255 255 255
0.281 0.559 1.088 255 255 255
0.58 0.777 2.087 255 255 255
0.644 -0.242 2.149 255 255 255
-0.063 1.002 1.943 255 255 255
-0.862 -0.44 1.485 255 255 255
0.082 -0.306 2.071 255 255 255
-0.057 -1.252 2.142 255 255 255
-0.721 -1.134 1.533 255 255 255
0.407 0.324 2.071 255 255 255
1.142 0.05 2.253 255 255 255
1.088 -1.194 2.065 255 255 255
0.904 0.52 2.174 255 255 255
-0.179 0.357 1.965 255 255 255
0.196 0.258 2.039 255 255 255
1.505 -0.14 2.327 255 255 255
0.285 -1.077 2.179 255 255 255
-1.028 0.123 1.72 255 255 255
-0.105 -1.299 2.885 255 255 255
0.081 -1.002 2.122 255 255 255
-0.383 -0.332 1.311 0 0 0
0.016 0.182 2.023 255 255 255
-0.503 0.236 1.237 255 255 255
1.062 0.33 2.22 255 255 255
0.461 -0.982 2.198 255 255 255
1.41 -0.488 2.29 255 255 255
0.806 -1.018 2.256 255 255 255
-0.993 -0.124 1.851 255 255 255
0.434 0.342 2.074 255 255 255
1.526 -0.917 2.344 255 255 255
-0.878 -0.381 1.511 255 255 255
0.416 -0.856 2.173 255 255 255
0.72 0.528 2.147 255 255 255
1.621 -0.095 2.338 255 255 255
0.852 -1.243 1.764 255 255 255
1.052 -0.071 2.25 255 255 255
0.056 0.272 2.021 255 255 255
1.085 0.474 2.205 255 255 255
0.625 -0.61 2.185 255 255 255
0.318 -0.97 2.174 255 255 255
1.715 -0.181 2.398 255 255 255
0.432 -0.985 2.197 255 255 255
-0.532 0.447 1.221 255 255 255
0.81 0.174 2.191 255 255 255
0.343 0.485 1.154 0 0 0
-0.001 -0.68 2.083 255 255 255
0.659 -0.398 2.169 255 255 255
-0.17 -1.149 2.095 255 255 255
-0.879 -0.166 1.196 255 255 255
0.157 0.736 2 255 255 255
-0.139 0.151 1.988 255 255 255
0.397 0.821 2.018 0 0 0
-0.491 -1.478 1.981 255 255 255
-0.986 -0.126 1.893 255 255 255
-0.814 -0.526 1.97 255 255 255
1.641 -0.522 2.331 255 255 255
-0.468 0.016 1.259 255 255 255
0.419 0.56 2.054 255 255 255
0.775 -0.865 2.232 255 255 255
-0.041 0.447 1.989 255 255 255
0.829 0.537 2.162 255 255 255
-0.116 -0.011 2.006 255 255 255
1.382 0.062 2.288 255 255 255
-0.835 -0.544 1.428 255 255 255
0.907 -0.966 2.266 255 255 255
0.233 -0.25 2.084 0 0 0
0.833 -0.212 2.223 255 255 255
1.086 0.451 2.211 255 255 255
-0.314 -1.448 1.988 0 0 0
0.556 0.575 2.072 255 255 255
0.024 -0.313 2.061 255 255 255
-0.229 -1.357 2.123 255 255 255
0.574 -0.524 2.168 255 255 255
-0.465 -0.026 1.265 255 255 255
0.773 0.213 2.18 255 255 255
0.789 0.151 2.188 255 255 255
-0.766 -0.95 1.993 255 255 255
0.668 -0.113 2.145 255 255 255
-0.153 0.562 1.96 255 255 255
-0.286 0.865 1.912 0 0 0
-0.801 -0.838 1.976 255 255 255
0.009 -1.203 2.146 255 255 255
-0.878 -0.698 1.831 255 255 255
1.658 -0.75 2.359 255 255 255
-0.218 0.419 1.987 255 255 255
0.755 0.485 2.157 255 255 255
0.098 -1.164 2.155 255 255 255
-1.05 0.194 1.778 255 255 255
0.629 0.179 2.119 255 255 255
0.083 0.852 1.981 255 255 255
0.459 -0.008 2.109 255 255 255
0.305 -0.1 2.091 255 255 255
-0.064 -1.401 1.964 255 255 255
0.713 -0.235 2.159 255 255 255
0.668 -0.58 2.188 255 255 255
0.223 -1.341 2.07 255 255 255
-0.824 -0.626 1.485 255 255 255
-0.122 -0.092 2.038 255 255 255
-0.029 0.562 1.98 255 255 255
0.361 -0.616 2.141 255 255 255
0.64 0.767 2.104 255 255 255
0.963 -1.218 1.976 255 255 255
0.615 -0.475 2.171 255 255 255
1.064 -1.047 2.3 255 255 255
-0.929 -0.06 1.894 255 255 255
0.824 -1.247 1.805 255 255 255
-0.049 -0.156 2.024 255 255 255
0.061 0.781 1.978 255 255 255
0.629 0.348 2.105 255 255 255
1.234 -0.604 2.278 255 255 255
1.05 0.429 2.208 255 255 255
1.05 -1.091 2.297 255 255 255
0.028 0.504 2 255 255 255
0.45 -0.615 2.16 255 255 255
0.075 0.891 1.974 0 0 0
-0.9 -0.601 1.849 255 255 255
0.732 -1.269 1.77 0 0 0
-0.838 -0.66 1.597 255 255 255
1.173 -0.176 2.275 255 255 255
0.168 -0.098 2.069 0 0 0
-0.079 0.88 1.948 0 0 0
-0.069 -0.172 2.024 255 255 255
1.352 0.037 2.289 255 255 255
-1.035 0.437 1.835 255 255 255
0.933 0.21 2.205 255 255 255
0.292 -0.731 2.14 255 255 255
0.7 -1.089 2.249 255 255 255
0.265 0.562 2.03 255 255 255
1.139 -0.468 2.248 255 255 255
0.246 0.161 2.057 0 0 0
0.278 0.943 2.002 0 0 0
-0.424 -0.119 1.285 255 255 255
0.265 0.502 2.033 255 255 255
-0.843 -0.416 1.315 255 255 255
-0.071 -1.399 1.919 0 0 0
0.272 0.538 1.184 255 255 255
0.381 0.671 2.041 255 255 255
-0.106 -1.404 2.009 255 255 255
-0.542 -1.405 2.698 0 0 0
0.64 -0.246 2.152 255 255 255
0.152 -0.871 2.134 255 255 255
-0.559 -1.495 2.002 255 255 255
0.328 0.196 2.069 255 255 255
-0.813 -0.5 1.972 255 255 255
-0.844 -0.064 1.911 255 255 255
1.403 -0.07 2.301 255 255 255
0.657 -1.285 1.755 0 0 0
-0.971 0.142 1.872 255 255 255
1.408 0.357 2.27 255 255 255
0.159 0.43 2.022 255 255 255
0.11 -0.571 2.096 255 255 255
0.419 -1.297 2.162 255 255 255
0.281 0.906 2.006 0 0 0
0.542 -1.28 2.136 255 255 255
-0.842 -0.5 1.43 255 255 255
0.846 0.248 2.188 255 255 255
0.158 0.767 1.997 255 255 255
0.29 0.449 2.042 255 255 255
1.581 -0.036 2.331 255 255 255
0.791 0.479 2.162 255 255 255
0.327 -1.134 2.19 255 255 255
0.61 -1.045 2.23 255 255 255
-0.591 -1.504 1.964 255 255 255
-0.839 -0.667 1.956 255 255 255
1.235 0.055 2.265 255 255 255
0.849 0.079 2.205 255 255 255
0.024 0.218 2.02 255 255 255
-0.293 -0.869 1.362 255 255 255
0.285 0.344 2.048 255 255 255
1.571 0.059 2.316 255 255 255
0.332 -1.229 2.197 255 255 255
0.322 -1.335 1.962 255 255 255
0.568 0.625 2.072 255 255 255
0.096 -0.471 2.087 255 255 255
0.737 -0.91 2.233 255 255 255
0.551 -1.288 2.058 255 255 255
0.483 -0.232 2.128 255 255 255
-0.82 -0.537 1.318 255 255 255
-0.276 0.824 1.915 255 255 255
0.508 -0.389 2.146 255 255 255
0.805 -1.257 1.68 0 0 0
0.023 -1.174 2.145 255 255 255
0.822 0.133 2.197 255 255 255
0.215 -1.342 2.082 255 255 255
0.29 -0.235 2.096 0 0 0
-0.883 -0.516 1.662 255 255 255
-0.538 0.429 1.216 255 255 255
0.977 0.23 2.207 255 255 255
-0.156 0.839 1.938 255 255 255
-0.862 -0.258 1.231 255 255 255
0.548 -1.288 2.068 255 255 255
0.963 -1.177 2.265 255 255 255
0.381 -0.826 2.164 255 255 255
1.325 -1.065 2.334 255 255 255
-0.425 -1.191 2.057 255 255 255
-0.359 -0.528 1.324 255 255 255
0.915 -0.865 2.256 255 255 255
0.3 0.009 2.086 255 255 255
-0.877 -0.419 1.54 255 255 255
0.534 0.189 2.103 255 255 255
-0.159 0.42 1.958 255 255 255
-0.825 -0.212 1.901 255 255 255
0.237 -0.954 2.157 255 255 255
0.386 -0.308 2.122 255 255 255
0.791 -0.729 2.22 255 255 255
0.531 -1.15 2.229 255 255 255
0.123 -1.347 2.132 255 255 255
0.97 -0.441 2.232 255 255 255
-0.937 0.447 1.819 255 255 255
1.468 -0.615 2.313 255 255 255
-0.925 -0.399 1.929 255 255 255
1.021 0.628 2.183 255 255 255
0.686 0.353 2.153 255 255 255
0.366 -1.041 2.186 255 255 255
-0.871 -0.404 1.494 255 255 255
0.225 -1.363 1.823 0 0 0
0.422 0.026 2.099 0 0 0
1.319 -0.469 2.276 255 255 255
0.658 0.319 2.142 0 0 0
0.416 -1.32 1.929 255 255 255
0.403 0.497 1.149 0 0 0
0.882 -0.672 2.226 255 255 255
0.076 -1.374 1.985 255 255 255
1.158 0.671 2.207 255 255 255
1.04 -0.195 2.254 255 255 255
-0.116 0.227 1.986 255 255 255
0.659 -0.22 2.154 255 255 255
0.289 0.546 1.125 255 255 255
-0.906 -0.559 1.935 255 255 255
-0.252 -1.422 2.081 255 255 255
0.443 0.385 2.072 255 255 255
0.262 -0.892 2.153 255 255 255
0.269 -0.844 2.146 255 255 255
0.367 0.482 1.148 0 0 0
0.348 -1.328 1.985 255 255 255
1.37 -0.406 2.287 0 0 0
-0.851 -0.116 1.905 255 255 255
-0.196 -1.354 2.129 255 255 255
0.204 0.099 2.053 255 255 255
-0.186 0.353 1.964 255 255 255
0.117 0.228 2.034 255 255 255
0.336 0.213 2.068 255 255 255
0.162 0.245 2.036 255 255 255
1.041 -0.042 2.25 255 255 255
-0.363 -1.44 2.078 255 255 255
0.078 -0.197 2.064 255 255 255
0.38 -0.523 2.136 255 255 255
0.786 0.037 2.198 255 255 255
0.845 0.098 2.207 255 255 255
0.517 -0.694 2.176 255 255 255
-0.7 -1.49 2.05 0 0 0
-0.847 -0.498 1.446 255 255 255
-0.703 -1.265 2.027 255 255 255
0.072 1.023 1.964 255 255 255
0.896 0.38 2.186 255 255 255
0.791 0.056 2.197 255 255 255
1.117 -0.553 2.249 255 255 255
-1.028 0.102 1.855 255 255 255
-0.069 -1.092 2.134 255 255 255
-0.053 -0.226 2.032 255 255 255
0.225 -0.62 2.121 255 255 255
-0.875 -0.573 1.948 255 255 255
-0.839 -0.339 1.179 255 255 255
-0.117 0.317 1.995 255 255 255
0.004 -0.674 2.081 255 255 255
0.285 -0.545 2.122 255 255 255
-0.557 0.391 1.236 255 255 255
0.57 -1.294 1.829 255 255 255
-0.017 0.093 2.025 255 255 255
-0.77 -0.836 1.419 255 255 255
1.029 -0.047 2.247 255 255 255
0.126 -0.941 2.134 255 255 255
0.568 -0.43 2.161 255 255 255
0.036 -1.119 2.124 255 255 255
1.189 -0.276 2.288 255 255 255
0.628 -0.064 2.136 255 255 255
0.178 -1.356 2.015 255 255 255
0.992 -0.495 2.226 255 255 255
0.085 -0.957 2.115 255 255 255
-0.005 1.024 1.948 255 255 255
1.069 -0.255 2.266 255 255 255
-0.879 -0.362 1.927 255 255 255
-0.355 -0.635 1.337 255 255 255
0.571 0.164 2.11 255 255 255
0.838 -0.082 2.215 255 255 255
-0.211 0.438 1.962 255 255 255
0.155 -0.629 2.109 255 255 255
-0.937 -0.04 1.892 255 255 255
0.121 0.314 2.026 0 0 0
-0.242 0.532 1.968 255 255 255
1.233 0.208 2.255 255 255 255
-0.013 -0.442 2.053 255 255 255
0.032 0.657 1.981 255 255 255
0.679 0.058 2.136 255 255 255
0.471 -0.502 2.148 255 255 255
0.192 -0.53 2.107 255 255 255
-0.522 -1.487 1.989 255 255 255
0.751 -0.427 2.183 255 255 255
0.598 -0.152 2.142 255 255 255
0.089 0.427 2.011 255 255 255
0.277 -0.036 2.076 255 255 255
0.337 0.038 2.08 255 255 255
0.394 0.509 1.133 0 0 0
0.427 -0.631 2.154 255 255 255
0.099 -0.26 2.069 255 255 255
0.161 0.675 2.005 255 255 255
0.423 0.57 1.136 255 255 255
0.366 -1.341 1.77 0 0 0
0.608 -0.828 2.204 255 255 255
0.054 0.861 1.971 255 255 255
0.796 -0.627 2.21 255 255 255
-0.265 -1.159 2.086 255 255 255
-0.768 -1.245 2.017 255 255 255
0.122 -0.974 2.14 255 255 255
-0.312 -0.804 1.352 255 255 255
0.556 -0.542 2.168 255 255 255
0.198 -1.341 2.109 255 255 255
0.499 -1.291 2.091 255 255 255
-0.511 0.131 1.268 255 255 255
0.88 -0.595 2.221 255 255 255
1.3 -1.141 2.235 255 255 255
1.239 -0.556 2.272 255 255 255
-0.541 0.411 1.214 255 255 255
0.189 -0.752 2.125 255 255 255
0.428 -0.802 2.175 255 255 255
0.968 -0.907 2.27 255 255 255
0.341 0.388 2.055 255 255 255
0.561 0.323 2.094 255 255 255
0.264 -0.242 2.093 0 0 0
0.102 -0.847 2.125 255 255 255
0.635 -0.671 2.192 255 255 255
0.799 0.228 2.185 255 255 255
0.38 -0.269 2.12 0 0 0
0.185 0.569 2.014 255 255 255
0.469 0.331 2.078 255 255 255
0.824 -0.867 2.24 255 255 255
0.767 -0.613 2.202 255 255 255
0.502 -0.241 2.132 255 255 255
0.65 0.053 2.131 255 255 255
1.379 -0.98 2.34 255 255 255
0.827 0.431 2.172 255 255 255
-0.943 1.31 2.616 255 255 255
0.699 -1.217 2.24 255 255 255
0.439 0.512 1.223 255 255 255
0.791 0.397 2.174 255 255 255
0.929 0.159 2.209 255 255 255
0.949 -0.692 2.244 255 255 255
-0.005 0.93 1.956 255 255 255
0.296 -1.341 1.931 255 255 255
-0.009 0.759 1.968 255 255 255
1.025 0.304 2.214 255 255 255
0.215 -1.33 2.148 255 255 255
-0.096 0.273 1.998 255 255 255
1.057 0.736 2.18 255 255 255
-0.836 -0.826 1.76 255 255 255
0.314 -1.301 2.181 255 255 255
-0.372 -0.429 1.318 255 255 255
-0.071 -0.386 2.073 255 255 255
0.086 -0.147 2.059 255 255 255
1.553 -0.74 2.34 255 255 255
0.389 -1.286 2.198 255 255 255
0.322 -1.128 2.19 255 255 255
0.424 0.257 2.075 255 255 255
1.227 0.418 2.235 255 255 255
0.074 -0.284 2.068 255 255 255
-0.81 -0.668 1.452 255 255 255
0.494 -0.72 2.171 255 255 255
0.332 -1.323 2.042 255 255 255
1.165 -0.29 2.285 255 255 255
0.055 -0.646 2.093 255 255 255
0.684 -1.144 2.248 255 255 255
-0.886 -0.064 1.922 255 255 255
-0.941 -0.388 1.865 255 255 255
0.998 0.671 2.183 255 255 255
0.22 0.267 2.039 255 255 255
-0.216 -1.293 2.995 255 255 255
1.495 -0.405 2.301 255 255 255
-0.172 -1.325 2.761 255 255 255
1.383 -0.312 2.318 0 0 0
0.565 0.68 2.069 255 255 255
-0.307 -1.421 2.102 255 255 255
0.655 -0.682 2.193 255 255 255
-0.935 -0.267 1.915 255 255 255
0.374 -1.326 1.943 255 255 255
-0.247 0.838 1.908 0 0 0
0.666 -1.292 1.659 255 255 255
0.144 -0.16 2.067 255 255 255
-0.051 -1.134 2.112 255 255 255
0.055 -0.651 2.093 255 255 255
0.905 0.352 2.187 255 255 255
0.788 0.693 2.144 255 255 255
-0.822 -0.122 1.88 255 255 255
-0.842 -0.426 1.305 255 255 255
-0.764 -1.305 2.013 255 255 255
1.071 0.396 2.209 255 255 255
-0.854 -0.261 1.151 255 255 255
-0.556 0.127 1.341 255 255 255
1.267 -0.777 2.295 255 255 255
0.457 0.599 1.163 255 255 255
1.661 -0.332 2.331 255 255 255
-0.917 -0.325 1.921 255 255 255
0.131 0.596 2.004 255 255 255
0.234 0.763 2.006 255 255 255
-0.476 0.121 1.253 255 255 255
0.828 -0.436 2.215 255 255 255
0.886 -1.235 1.822 255 255 255
0.261 -0.007 2.076 255 255 255
1.107 -0.727 2.269 255 255 255
-0.195 0.57 1.941 255 255 255
1.168 -1.182 2.11 255 255 255
-0.272 0.84 1.91 0 0 0
0.288 -0.634 2.13 255 255 255
-0.716 -1.215 1.589 255 255 255
0.8 -0.211 2.217 255 255 255
0.69 0.26 2.162 255 255 255
-0.062 -1.293 2.142 255 255 255
0.935 0.913 2.155 255 255 255
0.484 0.196 2.095 255 255 255
1.106 0.492 2.213 255 255 255
0.754 -0.953 2.243 255 255 255
0.175 0.29 2.031 255 255 255
0.731 -1.234 2.198 255 255 255
-0.089 -0.116 2.018 255 255 255
1.448 -0.887 2.333 255 255 255
0.846 -1.242 1.827 255 255 255
0.866 -0.884 2.248 255 255 255
-1.014 0.083 1.683 255 255 255
0.644 -0.091 2.142 255 255 255
0.124 0.712 1.996 255 255 255
0.105 0.22 2.032 255 255 255
1.152 -0.526 2.255 255 255 255
0.353 -0.545 2.134 255 255 255
-0.656 -1.419 2.066 255 255 255
-0.899 -0.088 1.245 255 255 255
0.215 -0.567 2.11 255 255 255
-1.002 0.012 1.695 255 255 255
0.619 -0.077 2.136 255 255 255
-0.679 -1.379 2.055 255 255 255
-0.566 0.348 1.265 255 255 255
1.07 0.686 2.195 255 255 255
0.251 0.281 2.049 255 255 255
0.208 -0.789 2.134 255 255 255
1.13 -0.439 2.257 255 255 255
1.302 -0.16 2.296 255 255 255
0.32 0.446 2.047 255 255 255
0.073 -0.028 2.046 255 255 255
0.866 -1.091 2.268 255 255 255
-0.021 -0.301 2.041 255 255 255
-0.567 -1.47 2.074 255 255 255
0.675 0.001 2.138 255 255 255
0.242 0.721 2.015 255 255 255
0.449 -0.834 2.178 255 255 255
1.103 -1.181 2.117 255 255 255
0.133 -1.237 2.173 255 255 255
-0.275 -1.181 2.085 255 255 255
-1.006 0.066 1.878 255 255 255
0.548 0.631 2.064 255 255 255
0.774 -1.248 2.022 255 255 255
-0.941 0.451 1.817 255 255 255
0.445 0.595 1.153 255 255 255
-0.063 -1.375 2.13 255 255 255
0.085 0.534 2.002 255 255 255
0.179 -1.031 2.157 255 255 255
1.611 -0.121 2.343 255 255 255
1.497 0.084 2.306 255 255 255
0.196 0.81 1.997 255 255 255
0.543 0.151 2.105 255 255 255
-0.91 -0.132 1.366 255 255 255
0.594 -1.297 1.796 0 0 0
-0.8 -0.653 1.36 255 255 255
0.987 -0.179 2.247 255 255 255
1.32 -0.145 2.295 255 255 255
0.607 0.72 2.113 255 255 255
1.713 0.051 2.389 255 255 255
0.222 -1.162 2.178 255 255 255
0.328 0.696 2.027 255 255 255
-0.26 0.84 1.91 0 0 0
1.448 -0.546 2.301 255 255 255
0.103 -0.294 2.073 255 255 255
0.929 0.308 2.2 255 255 255
-0.616 1.307 2.702 255 255 255
-0.021 0.567 1.983 255 255 255
1.646 -0.358 2.327 0 0 0
0.378 0.462 1.21 255 255 255
-0.548 0.448 1.209 255 255 255
0.723 0.45 2.152 255 255 255
0.103 0.724 1.992 255 255 255
-0.033 0.698 1.971 255 255 255
-0.077 0.025 2.013 255 255 255
0.44 0.052 2.102 255 255 255
1.462 -0.762 2.33 255 255 255
-0.947 0.033 1.413 255 255 255
-0.452 -0.221 1.315 255 255 255
0.184 -1.352 2.035 255 255 255
0.432 -0.192 2.12 0 0 0
1.012 0.335 2.205 255 255 255
0.722 0.579 2.143 255 255 255
0.193 -1.343 2.112 255 255 255
0.204 -1.357 1.946 255 255 255
-1.023 0.433 1.841 255 255 255
0.383 0.469 1.255 255 255 255
-0.85 -0.306 1.212 255 255 255
-0.939 -0.055 1.451 255 255 255
0.939 -1.219 1.995 255 255 255
0.057 -0.288 2.067 255 255 255
-0.769 -1.171 2.016 255 255 255
0.239 0.488 2.031 255 255 255
-0.331 -0.765 1.351 255 255 255
0.332 -0.155 2.096 255 255 255
-0.179 -1.308 2.903 255 255 255
0.569 -0.734 2.186 255 255 255
1.311 -0.19 2.299 255 255 255
-0.094 -1.236 2.133 255 255 255
-0.407 -0.195 1.296 0 0 0
0.829 0.642 2.158 255 255 255
0.999 -0.094 2.24 255 255 255
0.22 -0.19 2.077 0 0 0
-0.009 0.768 1.968 255 255 255
-0.147 0.27 1.975 255 255 255
-0.321 0.881 1.894 0 0 0
1.037 -1.199 2.047 255 255 255
0.764 -0.623 2.205 255 255 255
-0.884 -0.303 1.923 255 255 255
0.277 0.514 1.229 0 0 0
1.193 -0.087 2.273 255 255 255
-0.842 -0.605 1.55 255 255 255
0.365 -0.364 2.123 255 255 255
-0.034 0.874 1.958 0 0 0
0.287 0.971 1.998 255 255 255
-0.057 -1.278 2.965 255 255 255
-0.088 0.995 1.938 255 255 255
1.121 0.581 2.206 255 255 255
0.449 0.712 2.044 255 255 255
0.042 -1.275 2.161 255 255 255
1.343 -0.074 2.294 255 255 255
0.489 -0.696 2.172 255 255 255
1.02 -0.357 2.27 255 255 255
0.642 0.444 2.137 0 0 0
0.787 -1.003 2.25 255 255 255
0.925 -1.144 2.279 255 255 255
-0.471 0.116 1.255 255 255 255
0.347 0.57 1.076 255 255 255
0.698 -0.893 2.224 255 255 255
1.407 -1.073 2.341 255 255 255
0.477 -0.02 2.11 255 255 255
0.093 0.264 2.026 255 255 255
1.286 -0.753 2.302 255 255 255
0.219 -1.22 2.179 255 255 255
0.326 0.575 2.04 255 255 255
-0.824 -0.609 1.466 255 255 255
0.651 -0.569 2.184 255 255 255
-0.852 -0.545 1.545 255 255 255
0.784 0.598 2.15 255 255 255
-0.033 -0.133 2.039 255 255 255
-0.525 0.185 1.269 255 255 255
-0.907 -0.208 1.457 255 255 255
0.277 0.067 2.069 0 0 0
0.349 0.962 2.004 255 255 255
0.792 -0.772 2.228 255 255 255
0.838 -0.451 2.214 255 255 255
0.479 0.243 2.09 255 255 255
1.026 -1.066 2.287 255 255 255
0.102 0.581 2.001 255 255 255
0.05 0.912 1.968 0 0 0
0.271 0.531 1.194 0 0 0
0.508 -1.306 1.868 255 255 255
1.114 -0.004 2.252 255 255 255
0.408 -1.322 1.959 255 255 255
-0.206 0.739 1.932 255 255 255
-0.005 -0.667 2.085 255 255 255
-0.148 -1.413 2.012 255 255 255
0.25 -0.813 2.142 255 255 255
-0.12 0.396 1.979 255 255 255
-0.999 0.445 1.848 255 255 255
-0.796 -0.908 1.982 255 255 255
1.111 0.477 2.212 255 255 255
-0.077 0.375 2 255 255 255
0.016 0.982 1.953 255 255 255
-0.089 0.589 1.968 255 255 255
1.101 -1.147 2.289 255 255 255
0.238 0.625 1.301 255 255 255
0.869 -0.18 2.227 255 255 255
0.341 0.492 1.137 255 255 255
0.144 -0.735 2.119 255 255 255
1.099 0.652 2.194 255 255 255
1.24 0.53 2.233 255 255 255
0.787 0.52 2.158 255 255 255
-0.753 -0.671 1.962 255 255 255
1.073 -0.285 2.272 255 255 255
1.068 -1.011 2.293 255 255 255
-0.71 -1.507 1.998 0 0 0
0.184 0.017 2.058 255 255 255
1.356 -0.146 2.304 255 255 255
0.41 -0.234 2.118 0 0 0
0.515 -0.595 2.162 255 255 255
0.645 -0.26 2.154 255 255 255
-0.376 -0.328 1.319 0 0 0
0.757 0.195 2.179 255 255 255
-0.919 -0.133 1.901 255 255 255
-0.873 -0.688 1.79 255 255 255
0.11 -0.837 2.123 255 255 255
0.931 -0.434 2.228 255 255 255
-0.889 -0.132 1.218 255 255 255
0.238 0.194 2.054 255 255 255
-0.546 0.281 1.25 255 255 255
0.573 -1.259 2.197 255 255 255
1.667 -0.413 2.321 255 255 255
0.032 0.062 2.038 255 255 255
-0.456 0.087 1.264 255 255 255
0.345 -0.435 2.125 255 255 255
-0.536 -1.364 2.936 255 255 255
1 0.072 2.23 255 255 255
-0.723 -1.154 1.578 255 255 255
-0.77 -1.287 1.991 255 255 255
0.987 0.49 2.191 255 255 255
-0.264 0.633 1.962 255 255 255
-0.041 -0.112 2.036 255 255 255
0.458 -0.81 2.179 255 255 255
0.14 -0.123 2.069 255 255 255
0.065 -0.179 2.058 255 255 255
-0.248 0.965 1.909 255 255 255
0.411 0.303 2.072 255 255 255
0.438 -0.368 2.134 255 255 255
-0.828 -0.518 1.337 255 255 255
-0.406 -1.135 2.129 255 255 255
1.042 -1.036 2.292 255 255 255
0.136 -0.189 2.07 0 0 0
-0.922 -0.084 1.899 255 255 255
0.779 -0.058 2.204 255 255 255
0.779 -1.071 2.256 255 255 255
0.7 -0.276 2.161 255 255 255
-0.848 -0.532 1.948 255 255 255
1.189 0.613 2.211 255 255 255
1.058 -0.047 2.252 255 255 255
0.94 0.053 2.226 255 255 255
0.078 -1.383 1.873 0 0 0
0.806 -0.286 2.226 255 255 255
0.504 0.518 2.068 255 255 255
-0.901 -0.257 1.476 255 255 255
0.564 -0.659 2.179 255 255 255
0.02 -0.304 2.063 255 255 255
-0.828 -0.686 1.587 255 255 255
0.319 -1.156 2.19 255 255 255
-0.032 -1.276 2.96 0 0 0
0.808 -1.072 2.263 255 255 255
0.276 0.571 1.08 255 255 255
0.659 -0.333 2.162 255 255 255
0.047 -0.69 2.085 255 255 255
-0.993 -0.105 1.792 255 255 255
0.277 -0.563 2.123 255 255 255
-0.869 -0.487 1.938 255 255 255
-0.318 -1.269 2.096 255 255 255
0.894 -1.132 2.275 255 255 255
1.123 0.045 2.249 255 255 255
1.431 -0.867 2.332 255 255 255
0.137 -0.311 2.079 255 255 255
-0.009 0.963 1.955 255 255 255
0.684 -0.334 2.164 255 255 255
0.416 0.287 2.077 255 255 255
0.032 0.519 1.994 255 255 255
0.371 -0.113 2.1 255 255 255
0.53 -1.277 2.153 255 255 255
0.931 0.094 2.217 255 255 255
1.461 -0.867 2.338 255 255 255
0.522 0.511 2.073 255 255 255
0.597 -1.27 2.119 255 255 255
-0.881 -0.652 1.957 255 255 255
1.114 -0.964 2.291 255 255 255
-0.826 -0.846 1.976 255 255 255
0.23 -0.776 2.136 255 255 255
1.51 0.022 2.316 255 255 255
0.432 -0.56 2.147 255 255 255
-0.916 -0.131 1.432 255 255 255
0.57 -0.547 2.169 255 255 255
0.142 0.302 2.028 255 255 255
1.183 0.649 2.214 255 255 255
-0.382 -0.493 1.318 255 255 255
0.082 0.788 1.983 255 255 255
-0.009 0.999 1.947 255 255 255
0.214 0.496 2.028 255 255 255
1.336 -0.664 2.297 255 255 255
-0.503 0.106 1.264 255 255 255
-0.401 -0.474 1.338 255 255 255
0.189 0.583 2.017 255 255 255
0.592 0.494 2.084 255 255 255
0.355 0.73 2.028 255 255 255
0.064 0.353 2.015 255 255 255
0.473 -1.289 2.132 255 255 255
-0.838 -0.906 1.954 255 255 255
-0.82 -0.507 1.964 255 255 255
0.008 -0.329 2.061 255 255 255
0.453 0.154 2.098 255 255 255
0.854 0.52 2.165 255 255 255
-0.576 0.278 1.25 255 255 255
1.133 -0.483 2.247 255 255 255
-0.638 1.319 2.493 255 255 255
-1.029 0.096 1.797 255 255 255
-0.182 -1.342 2.13 255 255 255
0.89 0.944 2.138 0 0 0
1.104 -1.169 2.205 255 255 255
0.204 0.255 2.042 255 255 255
-0.387 -0.38 1.307 255 255 255
0.064 0.365 2.014 255 255 255
0.06 -0.765 2.088 255 255 255
1.24 -0.344 2.29 0 0 0
-0.97 0.11 1.872 255 255 255
1.241 -0.483 2.265 255 255 255
-1.101 1.282 2.696 255 255 255
1.372 -0.852 2.323 255 255 255
-0.781 -0.843 1.496 255 255 255
1.22 -0.639 2.279 255 255 255
1.427 -0.39 2.298 255 255 255
-0.038 0.81 1.96 255 255 255
-0.381 -0.951 1.496 255 255 255
0.069 0.468 2.007 255 255 255
0.078 -1.381 1.902 0 0 0
0.21 -0.973 2.155 255 255 255
0.525 -0.811 2.185 255 255 255
0.413 0.043 2.096 0 0 0
1.441 -0.237 2.325 255 255 255
-0.947 -0.156 1.612 255 255 255
0.502 0.184 2.098 255 255 255
0.248 0.569 2.026 255 255 255
0.825 -0.59 2.212 255 255 255
-0.856 -0.233 1.147 255 255 255
0.245 -1.262 2.19 255 255 255
-1.035 0.233 1.86 255 255 255
-0.897 -0.23 1.431 255 255 255
-0.205 0.86 1.93 0 0 0
0.027 -1.025 2.162 0 0 0
1.468 -0.832 2.335 255 255 255
-0.827 -0.288 1.922 255 255 255
0.911 1.052 2.134 255 255 255
1.102 0.669 2.197 255 255 255
-0.081 0.462 1.984 255 255 255
-0.233 0.685 1.927 255 255 255
0.446 0.606 1.155 255 255 255
0.457 -0.4 2.139 255 255 255
-0.179 0.345 1.966 255 255 255
-0.933 0.433 1.832 255 255 255
-0.009 -0.487 2.06 255 255 255
0.65 -1.286 1.759 0 0 0
0.69 -1.28 1.731 0 0 0
0.133 0.866 1.98 255 255 255
-0.782 -0.752 1.351 255 255 255
-0.113 0.457 1.977 255 255 255
0.754 -0.528 2.191 255 255 255
0.278 -0.24 2.103 0 0 0
0.122 -0.118 2.058 0 0 0
0.769 -0.297 2.207 0 0 0
0.783 -0.164 2.214 255 255 255
0.158 0.298 2.028 255 255 255
0.308 -0.957 2.171 255 255 255
0.998 0.467 2.194 255 255 255
0.206 1.083 1.975 255 255 255
0.588 0.036 2.124 255 255 255
-0.274 -1.288 2.113 255 255 255
-0.955 -0.305 1.913 255 255 255
0.214 -1.208 2.179 255 255 255
0.097 1.02 1.968 255 255 255
1.029 -0.569 2.238 255 255 255
1.162 -0.19 2.275 255 255 255
-0.857 -0.329 1.28 255 255 255
0.901 0.029 2.22 255 255 255
0.642 -0.184 2.149 255 255 255
0.915 -1.206 2.167 255 255 255
0.387 0.729 2.034 255 255 255
0.716 -1.258 2.042 255 255 255
-0.805 -0.597 1.294 255 255 255
0.809 -0.013 2.206 255 255 255
-0.151 0.804 1.941 255 255 255
-0.053 0.141 2.016 255 255 255
0.184 -0.331 2.092 255 255 255
-0.828 -0.563 1.424 255 255 255
-0.339 -0.541 1.337 0 0 0
-0.192 0.807 1.934 255 255 255
0.136 -0.227 2.075 0 0 0
-0.034 -1.383 2.096 255 255 255
-0.709 -1.145 2.022 255 255 255
0.585 0.569 2.079 255 255 255
-0.081 0.129 2.01 255 255 255
-0.971 -0.24 1.847 255 255 255
-0.855 -0.275 1.197 255 255 255
1.188 -0.973 2.308 255 255 255
1.458 -0.335 2.302 255 255 255
0.45 0.759 2.034 255 255 255
1.069 -1.094 2.3 255 255 255
0.154 -1.142 2.164 255 255 255
0.748 -1.179 2.26 255 255 255
0.072 0.385 2.012 255 255 255
-0.029 0.807 1.963 255 255 255
0.824 0.32 2.178 255 255 255
-0.538 0.023 1.355 255 255 255
-0.87 -0.389 1.473 255 255 255
-0.088 -1.398 2.019 255 255 255
-1.036 0.133 1.832 255 255 255
-0.922 -0.17 1.906 255 255 255
0.898 -0.267 2.242 255 255 255
0.976 -1.114 2.29 255 255 255
0.568 -0.776 2.192 255 255 255
0.744 -0.596 2.196 255 255 255
0.557 0.383 2.087 255 255 255
0.922 0.381 2.188 255 255 255
0.19 -0.074 2.078 255 255 255
0.379 -1.334 1.829 0 0 0
1.655 -0.155 2.355 255 255 255
1.472 0.202 2.293 255 255 255
0.614 -0.541 2.174 255 255 255
0.223 0.83 2 255 255 255
0.961 0.206 2.209 255 255 255
0.58 -0.85 2.201 255 255 255
-0.791 -0.674 1.978 255 255 255
0.875 -1.029 2.266 255 255 255
0.704 0.481 2.148 255 255 255
0.196 0.788 2.001 255 255 255
0.723 0.473 2.15 255 255 255
0.207 -1.319 2.17 255 255 255
0.378 0.543 2.047 255 255 255
1.494 0.13 2.299 255 255 255
-0.99 0.142 1.863 255 255 255
0.489 -0.776 2.178 255 255 255
-0.849 -0.469 1.427 255 255 255
0.617 -0.255 2.154 255 255 255
-0.398 -1.187 2.064 255 255 255
1.417 -1.091 2.305 255 255 255
0.048 0.434 2.006 255 255 255
-0.796 -0.784 1.514 255 255 255
1.147 -1.176 2.141 255 255 255
-0.32 0.989 1.91 255 255 255
0.721 0.355 2.159 255 255 255
0.785 -1.267 1.605 255 255 255
0.075 0.864 1.976 255 255 255
0.386 0.548 1.103 255 255 255
-0.859 -0.206 1.125 255 255 255
0.878 -0.092 2.226 255 255 255
0.276 0.261 2.057 255 255 255
-0.88 -0.197 1.264 255 255 255
0.691 -1.264 1.97 255 255 255
0.029 -0.447 2.076 255 255 255
0.452 0.174 2.092 255 255 255
0.811 -1.237 2.033 255 255 255
0.908 -0.33 2.248 255 255 255
1.251 -0.432 2.267 0 0 0
0.264 0.739 2.013 255 255 255
0.473 -0.534 2.15 255 255 255
0.103 0.807 1.985 255 255 255
0.391 -0.224 2.109 0 0 0
0.294 -0.378 2.11 255 255 255
1.26 0.382 2.245 255 255 255
-1.023 0.049 1.838 255 255 255
0.416 0.136 2.089 255 255 255
1.471 0.006 2.308 255 255 255
-0.888 -0.019 1.908 255 255 255
0.664 -0.916 2.223 255 255 255
-0.885 -0.22 1.922 0 0 0
0.757 0.704 2.137 255 255 255
-0.017 -0.486 2.058 255 255 255
0.78 0.101 2.192 255 255 255
-0.958 -0.3 1.909 255 255 255
0.246 -1.356 1.827 0 0 0
0.03 -1.396 1.868 0 0 0
-0.804 -0.654 1.968 255 255 255
-0.954 -0.167 1.904 255 255 255
0.299 -1.312 2.17 255 255 255
0.367 -1.314 2.098 255 255 255
0.434 0.626 2.05 255 255 255
-0.23 0.904 1.921 0 0 0
0.121 0.168 2.039 255 255 255
-1.072 0.302 1.805 255 255 255
-1.072 0.313 1.77 255 255 255
0.17 -0.215 2.077 0 0 0
1.603 -0.057 2.333 255 255 255
0.815 0.406 2.17 255 255 255
0.384 -0.1 2.102 255 255 255
0.94 -0.581 2.228 255 255 255
-0.847 -0.823 1.975 255 255 255
-0.303 -0.742 1.36 0 0 0
0.144 -0.193 2.072 0 0 0
0.452 -0.4 2.137 255 255 255
0.812 -0.424 2.229 0 0 0
-0.933 -0.012 1.38 255 255 255
-1.049 0.215 1.842 255 255 255
0.435 0.622 1.141 255 255 255
0.468 0.559 2.061 255 255 255
0.194 -0.123 2.072 255 255 255
0.008 -0.056 2.039 255 255 255
-0.001 -0.142 2.047 255 255 255
-0.885 -0.222 1.321 255 255 255
-0.203 -1.184 2.096 255 255 255
-0.912 -0.549 1.876 255 255 255
0.119 -0.594 2.099 255 255 255
0.921 0.517 2.178 255 255 255
0.748 0.568 2.152 255 255 255
0.048 -0.841 2.1 255 255 255
0.889 -0.512 2.216 255 255 255
0.28 0.649 2.025 255 255 255
0.23 0.026 2.066 255 255 255
0.954 -0.562 2.226 255 255 255
-0.225 0.857 1.922 0 0 0
0.188 0.477 2.022 255 255 255
-0.851 -0.353 1.267 255 255 255
0.049 0.861 1.97 255 255 255
-0.743 1.33 2.384 255 255 255
-0.767 -0.519 1.92 255 255 255
0.163 0.042 2.059 255 255 255
0.577 -1.276 2.093 255 255 255
-0.868 -0.229 1.936 255 255 255
1.042 0.309 2.214 255 255 255
0.448 -1.327 1.754 0 0 0
0.938 0.173 2.207 255 255 255
0.791 0.065 2.198 255 255 255
0.389 -1.329 1.894 255 255 255
1.599 -0.365 2.32 0 0 0
0.667 -1.037 2.239 255 255 255
0.636 -1.095 2.239 255 255 255
0.691 0.59 2.137 255 255 255
-0.998 -0.061 1.768 255 255 255
-0.288 -1.173 2.08 255 255 255
0.506 -0.528 2.156 255 255 255
-0.741 1.349 2.628 255 255 255
-0.509 0.287 1.232 255 255 255
-0.876 -0.072 1.92 255 255 255
0.19 -1.354 1.994 255 255 255
0.248 0.606 1.118 255 255 255
0.44 0.63 1.145 255 255 255
0.944 0.285 2.2 255 255 255
0.105 0.078 2.046 255 255 255
0.503 0.091 2.108 255 255 255
-0.681 1.334 2.528 255 255 255
0.289 0.547 1.138 255 255 255
0.349 -0.742 2.154 255 255 255
0.728 -0.196 2.165 255 255 255
-0.732 -1.071 1.513 255 255 255
-0.89 -0.194 1.343 255 255 255
-0.033 0.443 1.99 255 255 255
1 -1.178 2.243 255 255 255
0.026 -0.88 2.122 255 255 255
-0.656 -1.258 2.036 255 255 255
-1.041 0.172 1.857 255 255 255
-0.364 -1.257 2.091 255 255 255
0.063 0.965 1.967 255 255 255
1.101 0.197 2.232 255 255 255
-0.359 -0.572 1.325 255 255 255
1.21 -0.356 2.276 255 255 255
0.216 0.908 1.994 0 0 0
0.636 -0.131 2.145 255 255 255
-0.889 0.254 1.812 255 255 255
-0.159 0.364 1.963 255 255 255
1.089 -1.026 2.298 255 255 255
0.363 -1.335 1.84 0 0 0
0.824 0.83 2.142 255 255 255
-1.025 0.097 1.733 255 255 255
-0.909 -0.054 1.244 255 255 255
-0.58 0.175 1.351 255 255 255
0.607 0.525 2.1 0 0 0
1.079 -0.627 2.251 255 255 255
-0.763 -0.935 1.533 255 255 255
0.048 0.013 2.041 255 255 255
0.338 -1.241 2.198 255 255 255
0.199 -0.032 2.043 255 255 255
0.109 -0.746 2.113 255 255 255
0.582 -0.505 2.166 255 255 255
0.517 0.039 2.112 255 255 255
0.631 -1.284 1.792 255 255 255
0.459 0.296 2.077 255 255 255
0.243 0.567 1.201 255 255 255
1.128 -1.132 2.301 255 255 255
-0.868 -0.252 1.263 255 255 255
0.164 0.898 1.986 0 0 0
-0.522 0.445 1.226 255 255 255
-0.771 -0.761 1.993 255 255 255
0.446 -0.976 2.198 255 255 255
1.136 0.281 2.23 255 255 255
0.787 -1.274 1.631 255 255 255
-0.785 -1.025 1.997 255 255 255
0.607 0.724 2.112 255 255 255
-1.068 0.373 1.841 255 255 255
0.977 0.779 2.175 255 255 255
0.363 -1.251 2.202 255 255 255
-0.03 -0.532 2.068 255 255 255
1.384 -0.428 2.286 255 255 255
1.198 -0.541 2.263 255 255 255
1.232 -0.441 2.263 255 255 255
-0.832 -0.48 1.32 255 255 255
0.76 -0.4 2.184 255 255 255
-0.895 -0.073 1.922 255 255 255
1.334 -0.615 2.291 255 255 255
-0.135 0.274 1.976 255 255 255
0.117 0.921 1.976 0 0 0
0.442 -0.934 2.187 255 255 255
0.492 -0.756 2.175 255 255 255
-0.033 -0.382 2.047 255 255 255
0.503 -1.138 2.22 255 255 255
-0.441 -0.488 1.411 255 255 255
0.028 0.561 1.991 255 255 255
1.073 -1.083 2.299 255 255 255
1.023 -0.268 2.26 255 255 255
-0.95 1.294 2.363 255 255 255
-0.54 -1.49 2.007 0 0 0
-0.065 -1.133 2.109 255 255 255
-0.793 -0.363 1.908 255 255 255
0.34 -0.163 2.094 255 255 255
-0.835 -0.609 1.519 255 255 255
0.742 -0.851 2.229 255 255 255
0.219 -0.558 2.11 255 255 255
-0.87 -0.568 1.669 255 255 255
-0.902 -0.1 1.293 255 255 255
1.086 -1.199 1.984 255 255 255
0.016 -0.233 2.058 255 255 255
0.31 0.258 2.061 255 255 255
-0.145 0.033 2.022 255 255 255
-0.263 0.687 1.942 255 255 255
0.149 -1.373 1.841 0 0 0
0.379 -1.315 2.08 255 255 255
0.754 -1.233 2.169 255 255 255
0.669 -0.957 2.231 255 255 255
-0.22 0.826 1.925 255 255 255
0.509 -1.135 2.225 255 255 255
-0.475 0.189 1.252 255 255 255
0.535 -0.341 2.148 255 255 255
0.206 0.592 2.017 255 255 255
0.361 -0.212 2.114 255 255 255
-0.581 -1.504 1.94 255 255 255
0.138 0.087 2.048 255 255 255
1.151 -1.014 2.307 255 255 255
1.493 -0.639 2.316 255 255 255
-0.896 -0.159 1.325 255 255 255
-0.92 -0.168 1.482 255 255 255
0.223 0.857 1.997 255 255 255
0.235 0.968 1.996 255 255 255
0.799 0.21 2.185 255 255 255
0.988 -1.185 2.224 255 255 255
0.456 0.242 2.085 255 255 255
0.008 -0.195 2.05 255 255 255
0.771 -1.276 1.584 255 255 255
1.51 -0.38 2.307 0 0 0
-0.794 -0.762 1.473 255 255 255
0.226 -1.297 2.182 255 255 255
0.141 -0.277 2.075 255 255 255
-0.916 -0.486 1.788 255 255 255
0.296 0.806 2.014 255 255 255
-0.861 -0.317 1.312 255 255 255
0.048 0.476 2.006 255 255 255
-0.749 -0.879 2.007 255 255 255
0.836 -1.213 2.202 255 255 255
-0.009 1.008 1.946 255 255 255
0.183 0.369 2.03 255 255 255
0.915 -1.2 2.201 255 255 255
-0.846 -0.339 1.949 255 255 255
0.122 0.196 2.039 255 255 255
0.237 0.905 1.997 0 0 0
-0.909 -0.064 1.282 255 255 255
0.453 -0.743 2.171 255 255 255
0.535 -1.257 2.212 255 255 255
1.335 -0.439 2.275 255 255 255
0.96 -0.46 2.232 255 255 255
-0.234 0.761 1.918 255 255 255
0.102 -1.367 2.061 255 255 255
0.845 -0.217 2.227 255 255 255
0.886 -0.43 2.22 255 255 255
0.097 -1.367 2.061 255 255 255
0.304 0.528 1.151 255 255 255
0.608 -0.598 2.178 255 255 255
0.578 -1.271 2.145 255 255 255
0.867 0.185 2.196 255 255 255
-0.821 -0.424 1.958 255 255 255
-0.363 -0.994 1.492 255 255 255
-0.037 0.302 2.005 255 255 255
-0.958 0.13 1.876 255 255 255
-0.029 0.855 1.957 255 255 255
0.004 -0.714 2.089 255 255 255
0.874 0.806 2.147 255 255 255
-0.061 0.438 1.988 255 255 255
1.007 0.908 2.162 255 255 255
0.547 -1.305 1.784 0 0 0
0.336 -0.457 2.124 255 255 255
0.384 -0.608 2.145 255 255 255
-0.695 -0.946 1.979 255 255 255
-0.034 0.879 1.957 0 0 0
1.065 -1.058 2.299 255 255 255
-0.354 -0.459 1.331 0 0 0
-0.863 -0.514 1.942 255 255 255
0.147 0.034 2.054 255 255 255
0.077 0.509 2.002 255 255 255
-0.449 -0.044 1.27 255 255 255
-0.075 0.909 1.95 0 0 0
0.217 0.358 2.038 255 255 255
0.087 -0.799 2.115 255 255 255
0.065 -1.366 2.07 255 255 255
0.062 -0.952 2.115 255 255 255
-0.919 -0.008 1.264 255 255 255
-0.151 0.325 1.969 255 255 255
-0.867 -0.409 1.935 255 255 255
0.179 0.054 2.053 255 255 255
-0.92 -0.504 1.903 255 255 255
-0.892 -0.616 1.83 255 255 255
1.287 -0.774 2.298 255 255 255
0.552 0.374 2.088 255 255 255
-0.471 0.1 1.257 255 255 255
1.304 -0.557 2.28 255 255 255
0.303 0.716 2.022 255 255 255
1.389 -0.297 2.318 255 255 255
1.113 -0.675 2.268 255 255 255
-0.913 -0.53 1.833 255 255 255
0.52 -0.864 2.193 255 255 255
0.423 -0.466 2.139 255 255 255
0.351 0.541 1.102 255 255 255
0.19 0.664 2.01 255 255 255
0.385 0.526 1.116 255 255 255
0.131 -1.368 1.983 255 255 255
0.165 0.689 2.004 255 255 255
0.168 0.563 2.011 255 255 255
1.024 0.365 2.206 255 255 255
0.401 -0.488 2.138 255 255 255
-0.927 -0.049 1.383 255 255 255
0.008 0.682 1.977 255 255 255
0.119 -0.197 2.069 255 255 255
0.738 -1.271 1.746 0 0 0
-0.366 -0.392 1.323 0 0 0
-0.11 -1.127 2.107 255 255 255
-0.493 -1.367 2.994 0 0 0
0.571 -1.032 2.221 255 255 255
-0.021 0.621 1.978 255 255 255
0.911 -1.223 2.001 255 255 255
-0.053 -0.088 2.027 255 255 255
0.768 -0.406 2.192 255 255 255
0.159 0.413 2.024 255 255 255
-0.137 0.529 1.966 255 255 255
-0.396 -0.297 1.303 255 255 255
0.323 -0.331 2.109 255 255 255
1.013 -1.201 2.081 255 255 255
0.282 1.073 1.989 255 255 255
0.336 0.363 2.054 255 255 255
1.526 0.116 2.309 255 255 255
0.908 0.948 2.144 0 0 0
0.943 -0.511 2.222 255 255 255
0.467 0.502 2.064 255 255 255
-0.146 1.007 1.922 255 255 255
0.454 -1.275 2.202 255 255 255
0.325 0.914 2.007 0 0 0
0.548 0.134 2.107 255 255 255
0.121 0.877 1.983 0 0 0
-0.321 1.015 1.904 255 255 255
0.394 -1.261 2.206 255 255 255
-0.932 -0.054 1.422 255 255 255
0.163 -1.33 2.16 255 255 255
1.155 -0.557 2.257 255 255 255
0.224 0.662 2.015 255 255 255
-0.177 -1.403 2.103 255 255 255
0.585 -1.169 2.236 255 255 255
-0.764 -1.146 2.011 255 255 255
-0.045 -0.197 2.027 255 255 255
1.141 -1.175 2.142 255 255 255
-0.134 -1.1 2.137 255 255 255
-0.582 -1.456 2.079 255 255 255
