ply
format ascii 1.0
comment Created by Open3D
element vertex 1590
property double x
property double y
property double z
property uchar red
property uchar green
property uchar blue
end_header
0.057 -1.346 1.92 255 255 255
0.874 -0.055 2.243 255 255 255
0.081 0.025 2.054 255 255 255
0.138 0.913 1.978 0 0 0
-0.037 0.222 2.016 255 255 255
0.63 -0.096 2.158 255 255 255
-0.893 -0.342 1.431 255 255 255
0.153 -1.202 2.203 255 255 255
-0.542 0.428 1.212 255 255 255
0.537 -1.223 2.235 255 255 255
0.941 -1.186 1.933 255 255 255
0.911 0.775 2.168 255 255 255
0.314 0.034 2.093 0 0 0
0.008 -0.138 2.06 255 255 255
-0.978 -0.13 1.896 255 255 255
-0.128 0.021 2.008 255 255 255
0.048 0.276 2.026 255 255 255
-0.941 -0.201 1.534 255 255 255
1.027 -0.809 2.301 255 255 255
1.087 -0.469 2.269 255 255 255
0.545 0.005 2.134 255 255 255
0.683 0.794 2.129 255 255 255
-1.038 0.059 1.748 255 255 255
0.23 0.982 1.984 255 255 255
0.181 -0.521 2.125 255 255 255
-0.438 -0.214 1.292 255 255 255
0.786 -0.815 2.265 255 255 255
0.551 0.47 2.086 255 255 255
1.243 -1.064 2.361 255 255 255
0.148 0.993 1.972 255 255 255
0.276 0.693 2.022 255 255 255
-0.193 -1.38 2.005 255 255 255
0.858 -0.489 2.234 255 255 255
0.659 0.202 2.172 0 0 0
0.677 -1.154 2.282 255 255 255
0.367 -0.964 2.216 255 255 255
0.235 0.36 2.047 255 255 255
1.167 -1.114 2.287 255 255 255
1.199 0.594 2.234 255 255 255
0.067 -0.47 2.102 255 255 255
-0.946 0.086 1.899 255 255 255
0.041 0.855 1.967 255 255 255
-0.541 0.483 1.212 255 255 255
0.944 0.859 2.164 255 255 255
0.579 -0.634 2.209 255 255 255
0.288 0.832 2.01 255 255 255
-0.9 -0.721 1.965 255 255 255
0.233 -0.032 2.093 0 0 0
0.106 -1.016 2.175 255 255 255
0.105 0.432 2.016 255 255 255
0.077 0.493 2.008 255 255 255
1.478 -0.962 2.392 255 255 255
0.623 -0.73 2.228 255 255 255
-0.109 0.177 2.011 255 255 255
-0.081 0.373 1.992 255 255 255
-0.739 -1.346 2.068 255 255 255
1.185 -0.382 2.294 255 255 255
0.139 0.193 2.05 0 0 0
0.949 -1.184 1.968 255 255 255
-1.007 -0.14 1.797 255 255 255
-0.46 -0.044 1.275 255 255 255
1.355 0.169 2.302 255 255 255
0.765 0.58 2.156 255 255 255
1.011 -0.77 2.3 255 255 255
0.618 -1.226 2.161 255 255 255
-0.871 -0.9 1.94 255 255 255
1.32 -0.229 2.335 255 255 255
0.252 0.415 2.046 255 255 255
-0.947 0.019 1.308 255 255 255
-0.116 0.92 1.933 0 0 0
-0.073 0.109 2.021 255 255 255
0.693 -0.414 2.201 255 255 255
0.142 -0.229 2.093 0 0 0
0.549 0.694 2.072 255 255 255
0.565 0.26 2.112 255 255 255
1.402 0.027 2.321 255 255 255
0.643 -0.666 2.225 255 255 255
-0.546 0.284 1.235 255 255 255
0.996 -0.909 2.313 255 255 255
0.105 0.478 2.013 255 255 255
0.67 0.148 2.179 0 0 0
1.288 -0.208 2.333 255 255 255
0.875 -0.481 2.239 255 255 255
1.162 -0.93 2.341 255 255 255
-0.123 -0.186 2.042 255 255 255
0.87 -0.201 2.254 255 255 255
0.252 0.295 2.061 255 255 255
0.028 0.251 2.023 255 255 255
-0.474 -0.039 1.267 255 255 255
0.591 -0.585 2.205 255 255 255
0.316 0.23 2.074 255 255 255
0.116 -0.822 2.149 255 255 255
0.012 0.898 1.958 0 0 0
0.381 0.009 2.111 255 255 255
0.45 -0.52 2.173 255 255 255
0.143 -0.003 2.057 255 255 255
-0.505 0.235 1.243 255 255 255
0.381 0.659 2.044 255 255 255
0.455 -0.076 2.131 255 255 255
0.097 0.507 2.01 255 255 255
0.826 -0.487 2.231 255 255 255
1.203 -0.969 2.355 255 255 255
-0.058 -0.375 2.058 255 255 255
1.025 -0.357 2.27 255 255 255
0.513 -0.871 2.225 255 255 255
0.395 0.3 2.079 255 255 255
-0.714 -0.925 1.973 255 255 255
0.535 -1.242 2.142 255 255 255
-0.46 -0.034 1.275 255 255 255
0.162 -0.141 2.088 255 255 255
0.846 -0.163 2.248 255 255 255
-1 0.397 1.858 255 255 255
0.157 -1.301 2.153 255 255 255
0.113 -0.911 2.16 255 255 255
0.841 -0.181 2.248 255 255 255
0.163 0.381 2.03 255 255 255
-0.167 -1.267 2.154 255 255 255
0.197 -0.476 2.123 255 255 255
0.982 0.148 2.237 255 255 255
-0.834 -0.551 1.313 255 255 255
0.298 -0.037 2.099 255 255 255
-0.404 -1.146 2.088 255 255 255
-0.117 -0.007 2.012 255 255 255
1.294 0.428 2.269 255 255 255
0.497 0.797 2.04 255 255 255
0.204 -0.091 2.089 255 255 255
-0.087 -1.308 2.166 255 255 255
0.017 -0.784 2.113 255 255 255
1.031 0.56 2.205 255 255 255
0.333 -0.393 2.138 255 255 255
0.938 0.146 2.231 255 255 255
0.046 -1.072 2.149 255 255 255
0.289 0.896 2.004 0 0 0
0.718 0.669 2.145 255 255 255
1.15 -1.117 2.287 255 255 255
0.256 -1.296 2.089 255 255 255
0.925 0.831 2.163 255 255 255
0.687 0.765 2.132 255 255 255
0.412 -1.277 2.033 255 255 255
0.419 0.446 2.073 255 255 255
0.307 0.371 2.058 255 255 255
0.366 -0.297 2.138 255 255 255
0.574 -1.278 1.708 0 0 0
0.79 -1.252 1.613 255 255 255
0.342 -0.612 2.164 255 255 255
-0.595 -1.334 2.846 255 255 255
0.519 0.486 2.081 255 255 255
0.978 -1.173 2.058 255 255 255
-1.025 0.167 1.855 255 255 255
-0.005 -0.293 2.072 255 255 255
-0.842 -0.525 1.3 255 255 255
0.494 -1.265 2 255 255 255
-0.239 -1.311 2.144 255 255 255
-0.931 -0.102 1.375 255 255 255
0.096 -0.369 2.095 255 255 255
-0.777 -0.645 1.96 255 255 255
0.924 1.026 2.147 0 0 0
0.757 -0.211 2.235 255 255 255
-0.796 -1.291 2.041 255 255 255
0.292 0.56 1.089 255 255 255
-0.829 1.324 2.493 255 255 255
0.803 -1.225 1.794 255 255 255
0.032 0.771 1.975 255 255 255
0.931 0.474 2.197 255 255 255
-0.855 -0.526 1.432 255 255 255
-1.003 -0.16 1.789 255 255 255
-0.939 -0.002 1.281 255 255 255
-1.047 0.084 1.786 255 255 255
1.551 0.191 2.333 255 255 255
0.012 0.64 1.983 255 255 255
0.844 -1.181 2.206 255 255 255
0.158 0.832 1.987 255 255 255
0.412 -0.614 2.177 255 255 255
-0.515 0.357 1.227 255 255 255
0.712 -0.531 2.215 255 255 255
0.626 0.354 2.142 255 255 255
0.426 0.001 2.117 255 255 255
-0.789 -0.885 1.461 255 255 255
-0.858 -0.256 1.922 255 255 255
0.432 0.586 1.169 255 255 255
-0.28 -0.993 1.405 255 255 255
0.395 0.637 1.121 255 255 255
-0.899 -0.366 1.484 255 255 255
0.87 0.867 2.148 255 255 255
0.029 -0.541 2.102 255 255 255
1.565 -0.533 2.362 255 255 255
0.169 -0.77 2.15 255 255 255
0.211 0.03 2.077 255 255 255
0.367 0.553 1.106 255 255 255
1.22 0.184 2.276 255 255 255
0.221 -0.335 2.116 255 255 255
0.361 -1.199 2.236 255 255 255
0.872 -1.139 2.307 255 255 255
-0.821 -0.812 1.569 255 255 255
0.834 -0.828 2.279 255 255 255
-0.295 -1.154 2.105 255 255 255
0.693 0.091 2.195 255 255 255
1.299 -1.116 2.204 255 255 255
0.085 0.535 2.005 255 255 255
1.444 -0.649 2.354 255 255 255
0.311 -1.216 2.228 255 255 255
0.825 0.391 2.186 255 255 255
-0.163 0.772 1.939 255 255 255
0.469 0.138 2.112 255 255 255
-0.437 -1.123 2.092 255 255 255
0.738 0.345 2.182 255 255 255
-0.194 0.341 1.965 255 255 255
-0.294 -1.069 2.161 255 255 255
1.204 0.512 2.233 255 255 255
-0.941 0.001 1.294 255 255 255
-0.248 -1.116 2.11 255 255 255
0.706 0.302 2.177 255 255 255
-0.855 -0.686 1.609 255 255 255
1.087 0.242 2.246 255 255 255
0.857 -0.135 2.251 255 255 255
0.325 0.364 2.064 255 255 255
-0.21 0.452 1.95 255 255 255
0.434 -1.295 1.789 0 0 0
-0.514 0.28 1.237 255 255 255
1.41 -0.004 2.323 255 255 255
1.24 -0.785 2.336 255 255 255
0.66 -1.243 1.915 255 255 255
-0.543 -0.118 1.389 255 255 255
-0.086 -1.344 2.128 255 255 255
1.517 0.252 2.318 255 255 255
0.187 -0.2 2.091 0 0 0
-0.96 0.058 1.882 255 255 255
1.002 -1.148 2.229 255 255 255
0.504 0.643 2.064 255 255 255
0.818 -0.674 2.251 255 255 255
1.424 -0.458 2.328 255 255 255
-0.284 -1.255 2.135 255 255 255
-0.162 -1.242 2.943 255 255 255
0.016 -0.081 2.056 255 255 255
1.706 -0.566 2.388 255 255 255
1.534 -0.067 2.353 255 255 255
0.02 0.074 2.041 255 255 255
-0.082 -0.219 2.039 255 255 255
0.85 -1.078 2.308 255 255 255
0.143 -1.01 2.182 255 255 255
1.219 -0.413 2.287 255 255 255
-0.442 -0.106 1.288 0 0 0
0.51 -0.173 2.151 255 255 255
-0.037 0.094 2.03 255 255 255
1.228 -0.104 2.305 255 255 255
1.27 0.34 2.269 255 255 255
-0.58 0.145 1.344 255 255 255
1.615 -0.773 2.398 255 255 255
0.361 0.396 2.069 255 255 255
0.326 0.519 1.131 255 255 255
-0.963 -0.016 1.444 255 255 255
0.332 0.511 1.144 0 0 0
-0.287 -1.004 1.401 255 255 255
0.88 1.102 2.132 255 255 255
0.528 0.725 2.056 255 255 255
0.426 -0.908 2.214 255 255 255
0.388 -0.511 2.161 255 255 255
0.053 -0.93 2.135 255 255 255
0.283 -1.288 2.122 255 255 255
0.081 0.506 2.008 255 255 255
0.987 0.082 2.249 0 0 0
1.443 -0.923 2.376 255 255 255
0.387 -1.289 1.955 255 255 255
0.179 -0.653 2.14 255 255 255
0.196 0.308 2.042 255 255 255
-0.569 0.367 1.24 255 255 255
0.319 -0.52 2.149 255 255 255
1.261 -0.987 2.355 255 255 255
0.496 -0.504 2.176 255 255 255
0.447 -0.376 2.157 255 255 255
-0.026 -0.646 2.093 255 255 255
1.725 -0.172 2.443 255 255 255
0.148 -1.34 1.828 0 0 0
-0.587 0.202 1.334 255 255 255
-0.052 -1.03 2.182 255 255 255
1.268 -0.383 2.305 255 255 255
-0.911 -0.266 1.444 255 255 255
0.685 -0.633 2.221 255 255 255
0.315 -1.301 1.955 255 255 255
0.914 -1.154 2.278 255 255 255
-0.026 -0.516 2.074 255 255 255
-0.674 -1.283 2.075 255 255 255
0.34 0.03 2.098 255 255 255
-0.98 0.045 1.874 255 255 255
0.018 -1.088 2.148 255 255 255
1.622 -0.21 2.387 255 255 255
0.25 0.892 1.999 0 0 0
-0.117 -0.303 2.077 255 255 255
-0.342 -0.725 1.362 255 255 255
0.069 0.119 2.051 255 255 255
-0.614 0.451 1.274 255 255 255
0.391 0.699 2.04 255 255 255
0.636 -0.239 2.172 255 255 255
0.79 0.517 2.168 255 255 255
1.247 -0.079 2.307 255 255 255
1.696 -0.454 2.368 255 255 255
0.038 -0.532 2.104 255 255 255
0.48 -1.283 1.805 255 255 255
0.899 0.579 2.179 255 255 255
-1.048 0.094 1.756 255 255 255
1.442 0.11 2.322 255 255 255
0.64 -0.208 2.17 255 255 255
1.111 0.18 2.254 255 255 255
-0.279 -1.052 2.161 255 255 255
-0.073 0.15 2.018 255 255 255
-0.169 0.607 1.954 255 255 255
0.579 0.412 2.099 255 255 255
0.555 0.346 2.102 255 255 255
0.102 -1.326 2.08 255 255 255
1.315 -0.767 2.342 255 255 255
1.339 -0.766 2.351 255 255 255
1.192 0.408 2.247 255 255 255
-0.318 -0.932 1.383 255 255 255
0.377 -0.739 2.185 255 255 255
1.318 -0.632 2.328 255 255 255
0.174 -0.939 2.175 255 255 255
0.873 -0.75 2.27 255 255 255
0.137 -0.528 2.118 255 255 255
0.729 0.827 2.129 255 255 255
0.154 -0.52 2.121 255 255 255
0.541 0.422 2.09 255 255 255
0.274 -0.377 2.129 255 255 255
0.441 -1.3 1.71 0 0 0
-0.362 -0.664 1.346 255 255 255
0.6 0.798 2.103 255 255 255
0.194 0.906 1.99 0 0 0
1.235 -0.029 2.298 255 255 255
0.727 -1.206 2.156 255 255 255
-0.837 1.328 2.498 255 255 255
1.181 0.236 2.264 255 255 255
0.008 1.016 1.943 255 255 255
0.276 0.654 2.027 255 255 255
1.569 -0.202 2.37 255 255 255
1.625 -0.614 2.378 255 255 255
1.056 -0.715 2.298 255 255 255
-0.873 -0.429 1.947 255 255 255
0.435 0.641 2.054 255 255 255
-0.461 -0.578 1.446 255 255 255
1.132 0.477 2.233 0 0 0
1.05 0.283 2.235 255 255 255
0.218 -0.579 2.139 255 255 255
0.942 0.825 2.169 255 255 255
1.226 -1.122 2.203 255 255 255
-0.175 0.18 1.989 255 255 255
0.351 0.722 2.032 255 255 255
-0.873 -0.579 1.955 255 255 255
1.088 0.367 2.237 255 255 255
0.336 0.562 1.096 255 255 255
1.103 -0.004 2.276 255 255 255
-0.533 0.396 1.22 255 255 255
-0.609 -1.373 2.708 0 0 0
0.146 -1.328 1.949 255 255 255
0.686 -1.251 1.73 0 0 0
-1.046 0.119 1.719 255 255 255
0.561 -1.216 2.23 255 255 255
-1.003 -0.142 1.765 255 255 255
0.575 0.429 2.097 255 255 255
0.628 -0.486 2.2 255 255 255
1.139 -0.048 2.281 255 255 255
0.008 0.134 2.034 255 255 255
0.87 -1.189 2.088 255 255 255
-0.005 0.961 1.951 255 255 255
0.779 -1.243 1.676 0 0 0
0.748 -1.218 1.984 255 255 255
-0.881 -0.612 1.956 255 255 255
1.076 -1.164 1.986 255 255 255
0.891 -1.183 2.138 255 255 255
-0.082 -1.367 1.844 0 0 0
0.921 -0.89 2.296 255 255 255
1.21 -0.874 2.342 255 255 255
1.582 -0.939 2.41 255 255 255
0.115 -0.771 2.142 255 255 255
0.627 0.005 2.15 255 255 255
-0.23 0.937 1.911 255 255 255
1.003 -0.448 2.259 0 0 0
0.427 -1.291 1.825 255 255 255
0.21 1.062 1.975 255 255 255
0.448 -1.06 2.24 255 255 255
-0.961 -0.388 1.812 255 255 255
-0.013 -0.469 2.08 255 255 255
0.548 0.549 2.079 255 255 255
-1.04 0.415 1.829 255 255 255
-0.959 0.054 1.353 255 255 255
0.253 -0.92 2.185 255 255 255
1.28 0.161 2.288 255 255 255
0.919 -0.834 2.29 255 255 255
0.301 0.546 1.103 255 255 255
-0.879 -0.375 1.356 255 255 255
0.23 0.306 2.051 255 255 255
0.302 0.532 1.134 255 255 255
0.719 -1.199 2.224 255 255 255
-0.394 -0.385 1.323 255 255 255
0.389 0.54 1.134 255 255 255
-0.171 -0.032 2.038 255 255 255
-0.912 -0.163 1.326 255 255 255
0.209 -1.136 2.204 255 255 255
-0.818 -0.71 1.415 255 255 255
-0.977 -0.273 1.759 255 255 255
-0.956 -0.2 1.904 255 255 255
0.264 -0.336 2.122 255 255 255
0.792 0.697 2.154 255 255 255
0.47 -0.559 2.177 255 255 255
0.223 -0.744 2.155 255 255 255
0.468 0.385 2.088 255 255 255
0.62 -0.298 2.178 255 255 255
0.339 0.504 2.05 255 255 255
-0.908 -0.261 1.414 255 255 255
0.533 -0.47 2.182 255 255 255
-0.022 -1.364 1.864 0 0 0
0.276 -1.282 2.152 255 255 255
0.701 -0.395 2.198 255 255 255
-0.045 -0.154 2.053 255 255 255
0.164 -0.354 2.106 255 255 255
0.139 0.185 2.05 255 255 255
-0.326 -1.121 2.101 255 255 255
-0.987 0.155 1.866 255 255 255
-0.675 -1.461 2.022 0 0 0
0.616 -0.207 2.168 255 255 255
0.895 -0.173 2.253 255 255 255
0.24 0.578 2.027 255 255 255
0.409 -1.154 2.242 255 255 255
-0.025 0.702 1.97 255 255 255
-0.479 -0.101 1.286 255 255 255
-0.092 -1.318 2.164 255 255 255
0.643 -1.252 1.834 255 255 255
0.644 -0.074 2.158 255 255 255
0.792 -0.091 2.227 255 255 255
0.037 0.924 1.963 0 0 0
-0.832 -0.602 1.342 255 255 255
0.178 -1.338 1.784 0 0 0
1.045 -0.686 2.291 255 255 255
0.683 -0.352 2.192 255 255 255
-0.055 -0.454 2.067 255 255 255
-1.033 0.065 1.7 255 255 255
-0.976 0.05 1.444 255 255 255
0.179 -0.803 2.159 255 255 255
0.614 0.571 2.135 255 255 255
0.047 -1.317 2.152 255 255 255
0.715 -0.235 2.197 255 255 255
0.258 -1.303 2.008 255 255 255
0.98 0.298 2.222 255 255 255
-0.223 0.58 1.933 255 255 255
0.792 -0.944 2.282 255 255 255
0.125 -0.262 2.09 0 0 0
0.146 0.364 2.028 255 255 255
1.005 0.504 2.206 255 255 255
0.381 -0.553 2.163 255 255 255
0.827 -1.007 2.291 255 255 255
0.421 0.014 2.115 255 255 255
0.86 1.116 2.13 255 255 255
-0.822 -0.761 1.498 255 255 255
0.521 0.766 2.054 255 255 255
0.061 0.017 2.055 0 0 0
0.307 -0.054 2.106 255 255 255
-0.782 -0.819 2.021 255 255 255
0.653 -1.265 1.702 0 0 0
0.212 -0.103 2.09 255 255 255
-0.929 -0.126 1.408 255 255 255
0.879 0.293 2.204 255 255 255
-0.025 -0.34 2.072 255 255 255
0.379 -1.079 2.23 255 255 255
-0.861 -0.428 1.317 255 255 255
0.882 -0.459 2.248 255 255 255
0.32 0.512 1.15 0 0 0
-0.962 -0.007 1.886 255 255 255
-0.865 -0.486 1.952 255 255 255
0.617 0.69 2.123 255 255 255
-0.474 -1.125 2.09 0 0 0
0.569 -0.126 2.153 255 255 255
-1.038 0.04 1.78 255 255 255
1.154 -0.773 2.322 255 255 255
0.294 -0.691 2.162 255 255 255
0.659 -1.249 1.809 255 255 255
-0.91 -0.313 1.927 255 255 255
1.093 -0.077 2.278 255 255 255
0.882 -0.455 2.249 255 255 255
0.206 -0.226 2.104 0 0 0
0.321 -0.134 2.111 255 255 255
1.052 0.197 2.244 255 255 255
-0.862 -0.721 1.669 255 255 255
-0.065 0.306 2.004 255 255 255
1.19 0.488 2.245 255 255 255
-0.11 -0.373 2.09 255 255 255
-0.858 -0.382 1.232 255 255 255
1.081 0.357 2.236 255 255 255
-0.875 -0.225 1.139 255 255 255
0.392 0.444 2.068 255 255 255
0.974 -0.248 2.274 255 255 255
-0.166 -1.252 2.901 255 255 255
-0.414 -0.411 1.316 255 255 255
0.069 -0.024 2.06 0 0 0
0.323 -0.007 2.101 255 255 255
0.986 -0.511 2.26 255 255 255
0.894 -0.903 2.294 255 255 255
-1.091 0.328 1.809 255 255 255
0.016 0.187 2.03 255 255 255
1.148 0.617 2.219 255 255 255
1.513 -0.099 2.351 255 255 255
-0.871 -0.242 1.142 255 255 255
-0.213 -1.388 1.857 0 0 0
1.051 0.097 2.258 0 0 0
0.613 -0.734 2.226 255 255 255
-0.019 -1.042 2.152 0 0 0
0.043 -0.658 2.117 255 255 255
-0.114 0.707 1.957 255 255 255
1.464 0.306 2.303 255 255 255
0.314 0.554 2.045 255 255 255
0.813 0.157 2.212 255 255 255
1.535 0.001 2.345 255 255 255
-0.045 0.102 2.029 255 255 255
-1.052 0.116 1.794 255 255 255
1.088 -1.019 2.34 255 255 255
0.735 0.105 2.203 255 255 255
0.27 -1.293 2.084 255 255 255
0.833 -1.207 1.903 255 255 255
1.43 -0.663 2.351 255 255 255
0.956 -0.919 2.307 255 255 255
0.295 0.518 1.174 0 0 0
-0.931 -0.126 1.907 255 255 255
0.526 0.027 2.131 255 255 255
0.487 -1.225 2.235 255 255 255
0.142 -1.33 1.96 255 255 255
0.118 0.52 2.013 255 255 255
0.568 -0.323 2.171 255 255 255
0.906 0.96 2.147 0 0 0
-0.891 -0.169 1.187 255 255 255
1.077 0.653 2.205 255 255 255
1.392 -0.492 2.324 255 255 255
0.257 -1.293 2.104 255 255 255
0.525 -0.776 2.215 255 255 255
0.567 -0.069 2.147 255 255 255
-0.67 -1.41 2.087 255 255 255
0.727 -0.132 2.224 0 0 0
0.193 0.05 2.067 255 255 255
0.382 0.325 2.077 255 255 255
-1.047 0.088 1.787 255 255 255
-0.089 0.536 1.975 255 255 255
-1.064 0.175 1.794 255 255 255
0.48 -1.142 2.255 255 255 255
-0.931 -0.019 1.243 255 255 255
0.216 -0.062 2.089 0 0 0
0.957 -1.007 2.316 255 255 255
0.045 -0.282 2.08 255 255 255
1.056 0.701 2.199 255 255 255
-0.373 -1.399 2.099 255 255 255
0.667 0.001 2.159 255 255 255
-0.245 -1.378 2.079 255 255 255
0.613 -0.162 2.161 255 255 255
-0.409 -0.551 1.359 255 255 255
0.232 -0.257 2.108 0 0 0
-0.979 -0.313 1.847 255 255 255
0.708 -0.892 2.262 255 255 255
1.72 -0.456 2.37 255 255 255
0.882 -0.901 2.291 255 255 255
-0.082 0.742 1.958 255 255 255
0.242 -0.301 2.117 255 255 255
0.224 1.069 1.978 255 255 255
0.6 -0.047 2.151 255 255 255
0.621 0.375 2.137 0 0 0
-0.288 0.674 1.951 255 255 255
0.701 -0.179 2.185 255 255 255
0.975 0.748 2.176 255 255 255
1.502 -0.508 2.341 255 255 255
0.537 0.371 2.098 255 255 255
0.202 -0.231 2.105 0 0 0
-0.017 0.837 1.958 255 255 255
0.641 -0.711 2.225 255 255 255
0.415 0.61 1.134 255 255 255
0.167 0.808 1.994 255 255 255
0.041 0.941 1.959 255 255 255
0.35 -1.181 2.236 255 255 255
1.249 -1.124 2.213 255 255 255
-0.095 0.85 1.944 255 255 255
-0.909 -0.329 1.5 255 255 255
-0.392 -0.944 1.497 255 255 255
0.71 -0.565 2.217 255 255 255
-0.83 -0.568 1.307 255 255 255
1.023 0.196 2.241 255 255 255
-0.373 -1.195 2.111 255 255 255
0.442 0.515 2.068 255 255 255
-0.436 -1.126 2.088 0 0 0
0.052 -0.771 2.13 255 255 255
0.605 -0.963 2.256 255 255 255
-0.888 -0.297 1.328 255 255 255
-0.862 -0.41 1.297 255 255 255
1.003 0.634 2.191 255 255 255
1.003 0.276 2.228 255 255 255
-0.965 -0.264 1.917 255 255 255
0.33 -0.304 2.132 255 255 255
0.344 0.072 2.095 255 255 255
1.536 0.107 2.335 255 255 255
1.033 0.779 2.191 255 255 255
0.538 0.776 2.067 255 255 255
-0.112 -1.234 2.943 255 255 255
-0.555 0.449 1.202 255 255 255
-0.891 0.021 1.875 255 255 255
0.77 -0.818 2.262 255 255 255
-0.706 -1.381 2.082 255 255 255
0.789 -1.236 1.694 0 0 0
-0.406 -0.47 1.325 255 255 255
-0.986 0.276 1.854 0 0 0
0.664 -1.264 1.666 0 0 0
0.304 -1.303 1.934 255 255 255
0.37 0.484 1.235 255 255 255
0.347 0.365 2.069 255 255 255
1.271 0.3 2.273 255 255 255
-0.987 0.093 1.446 255 255 255
0.313 -1.163 2.225 255 255 255
0.603 0.231 2.123 255 255 255
1.396 0.15 2.307 255 255 255
0.698 0.777 2.135 255 255 255
0.639 -1.277 1.63 255 255 255
1.593 -0.241 2.373 0 0 0
1.422 -0.842 2.368 255 255 255
0.237 1.085 1.977 255 255 255
0.589 -0.352 2.179 255 255 255
-0.176 -1.132 2.124 255 255 255
-0.913 -0.26 1.447 255 255 255
-0.588 0.149 1.349 255 255 255
-1.04 0.387 1.833 255 255 255
0.224 -0.9 2.175 255 255 255
-0.059 1.022 1.935 255 255 255
-0.69 -1.326 2.974 255 255 255
0.266 -1.098 2.213 255 255 255
-0.089 -0.059 2.023 255 255 255
0.688 0.845 2.117 255 255 255
-0.073 0.101 2.022 255 255 255
-0.215 0.476 1.949 255 255 255
0.525 -0.108 2.144 255 255 255
0.135 -0.424 2.109 255 255 255
-0.887 -0.252 1.279 255 255 255
-0.68 -1.466 2 0 0 0
0.165 -1.333 1.841 0 0 0
0.899 0.933 2.15 255 255 255
-1.059 0.294 1.844 255 255 255
0.845 -0.869 2.286 255 255 255
0.128 -1.181 2.196 255 255 255
0.137 -0.165 2.084 0 0 0
0.421 -0.421 2.158 255 255 255
0.798 -1.228 1.765 255 255 255
0.328 -0.388 2.138 255 255 255
0.832 0.157 2.21 255 255 255
0.442 -1.255 2.168 255 255 255
1.159 -0.662 2.306 255 255 255
-0.207 0.326 1.972 255 255 255
0.44 -0.766 2.198 255 255 255
1.327 -0.152 2.329 255 255 255
-0.214 -1.385 1.877 0 0 0
-0.458 -0.063 1.276 255 255 255
0.287 -0.181 2.113 255 255 255
0.34 -0.152 2.119 255 255 255
0.285 -0.681 2.162 255 255 255
-0.142 -0.068 2.027 255 255 255
-0.783 -0.839 2.021 255 255 255
0.733 -0.79 2.249 255 255 255
0.009 -1.137 2.17 255 255 255
-0.773 1.377 2.53 255 255 255
0.401 0.44 2.069 255 255 255
-0.804 -0.686 1.997 255 255 255
-0.005 -1.362 1.83 0 0 0
0.938 0.555 2.19 255 255 255
0.17 -0.816 2.157 255 255 255
1.397 -0.293 2.321 255 255 255
-0.955 0.038 1.342 255 255 255
0.274 0.523 1.253 0 0 0
0.741 0.625 2.151 255 255 255
-0.05 -1.227 2.91 0 0 0
-0.837 -0.644 1.458 255 255 255
-0.89 -0.475 1.561 255 255 255
0.752 -1.231 1.836 255 255 255
1.093 -0.638 2.294 255 255 255
0.042 -1.354 1.842 0 0 0
1.039 -0.521 2.268 255 255 255
-0.923 -0.112 1.334 255 255 255
0.123 -0.751 2.14 255 255 255
1.017 -1.157 2.192 255 255 255
-0.814 -0.748 1.452 255 255 255
-0.013 0.436 1.999 255 255 255
-0.029 0.621 1.978 255 255 255
-0.218 -1.379 2.029 255 255 255
0.872 -0.516 2.241 255 255 255
-0.569 0.346 1.244 255 255 255
-0.228 0.396 1.973 255 255 255
-1.002 0.388 1.853 255 255 255
-0.048 -0.665 2.122 255 255 255
-0.115 0.849 1.94 255 255 255
-1.08 0.258 1.807 255 255 255
-0.252 0.655 1.925 255 255 255
0.882 0.126 2.223 255 255 255
-0.831 -0.524 1.977 255 255 255
0.235 0.306 2.052 255 255 255
1.038 -0.795 2.304 255 255 255
0.308 0.426 2.054 255 255 255
-1.024 -0.044 1.876 255 255 255
-0.834 -0.907 1.993 255 255 255
1.18 -0.922 2.343 255 255 255
-0.125 0.534 1.968 255 255 255
0.159 0.132 2.056 0 0 0
0.292 -0.382 2.131 255 255 255
0.078 0.8 1.979 255 255 255
-0.041 0.174 2.02 255 255 255
0.223 0.005 2.08 255 255 255
0.322 -1.301 1.903 255 255 255
1.336 -0.004 2.316 255 255 255
1.416 0.155 2.309 255 255 255
0.76 0.9 2.127 255 255 255
0.697 -0.251 2.183 255 255 255
-0.233 -1.172 2.132 255 255 255
-0.816 -0.677 1.361 255 255 255
0.052 0.304 2.022 255 255 255
-0.537 0.483 1.215 255 255 255
0.084 -0.422 2.099 255 255 255
-0.101 0.089 2.017 255 255 255
-0.391 -0.365 1.326 0 0 0
-0.739 -1.086 2.048 255 255 255
0.517 -1.258 2.023 255 255 255
-0.176 -1.26 2.858 255 255 255
0.311 0.524 1.139 255 255 255
0.22 0.026 2.084 255 255 255
0.521 -1.295 1.674 255 255 255
1.696 0.134 2.403 255 255 255
0.102 -0.467 2.106 255 255 255
0.535 -1.251 2.066 255 255 255
0.101 -1.337 1.938 255 255 255
-0.236 0.456 1.965 255 255 255
-0.136 0.32 1.988 255 255 255
-0.992 -0.159 1.903 255 255 255
0.363 -1.065 2.226 255 255 255
1.6 -0.407 2.348 255 255 255
1.087 0.806 2.194 255 255 255
-0.105 0.017 2.013 255 255 255
0.311 0.657 2.034 255 255 255
0.333 0.209 2.075 255 255 255
0.498 0.52 2.08 255 255 255
1.02 0.073 2.251 255 255 255
0.143 0.217 2.046 255 255 255
-0.189 0.872 1.926 0 0 0
-0.171 1.037 1.912 255 255 255
-0.893 -0.156 1.176 255 255 255
0.353 -0.565 2.16 255 255 255
0.723 0.119 2.198 255 255 255
-0.425 -0.344 1.305 255 255 255
-0.102 0.719 1.954 255 255 255
0.154 -0.216 2.091 0 0 0
-0.99 -0.179 1.74 255 255 255
0.787 -0.189 2.236 255 255 255
0.397 -0.762 2.192 255 255 255
0.143 0.099 2.053 255 255 255
1.484 -0.926 2.388 255 255 255
0.592 -0.216 2.165 255 255 255
-0.534 0.459 1.221 255 255 255
1.265 -0.454 2.301 255 255 255
1.449 0.259 2.304 255 255 255
0.41 -0.132 2.125 0 0 0
0.852 0.802 2.156 255 255 255
0.151 -1.32 2.051 255 255 255
1.102 -0.815 2.314 255 255 255
0.558 -0.962 2.249 255 255 255
-0.68 -1.475 1.958 0 0 0
0.249 -0.702 2.157 255 255 255
0.886 1.075 2.13 255 255 255
-0.87 -0.542 1.516 255 255 255
0.63 0.08 2.142 255 255 255
1.596 -0.552 2.364 255 255 255
0.523 -0.008 2.134 255 255 255
1.158 -0.36 2.289 255 255 255
0.229 -0.666 2.149 255 255 255
0.065 0.538 2.001 255 255 255
-0.906 -0.128 1.236 255 255 255
1.529 -0.249 2.369 255 255 255
1.49 -0.518 2.342 255 255 255
0.783 -1.191 2.194 255 255 255
-0.077 -0.153 2.031 255 255 255
-0.896 -0.068 1.914 255 255 255
-0.465 -0.119 1.279 255 255 255
0.322 -0.78 2.181 255 255 255
1.269 -1.105 2.26 255 255 255
0.321 0.255 2.073 255 255 255
0.665 -0.678 2.228 255 255 255
0.513 0.683 2.059 255 255 255
-0.85 -0.463 1.297 255 255 255
1.239 -0.467 2.296 255 255 255
-0.314 -1.302 2.132 255 255 255
0.875 0.316 2.205 255 255 255
1.544 0.112 2.336 255 255 255
-0.479 0.114 1.262 255 255 255
0.151 0.414 2.03 255 255 255
-0.291 -1.399 1.964 255 255 255
0.704 -0.362 2.195 255 255 255
0.173 -1.329 1.89 255 255 255
0.447 -1.254 2.166 255 255 255
-0.077 -1.313 2.165 255 255 255
0.276 -0.569 2.146 255 255 255
-0.614 -1.361 2.709 0 0 0
0.784 0.01 2.219 255 255 255
0.897 -0.802 2.281 255 255 255
-1.077 0.238 1.811 255 255 255
0.538 -1.017 2.254 255 255 255
0.533 0.708 2.061 255 255 255
0.65 -1.211 2.215 255 255 255
0.84 1.002 2.125 0 0 0
0.863 -0.928 2.293 255 255 255
0.206 -1.055 2.196 255 255 255
-0.41 -0.902 1.5 255 255 255
-0.778 -0.712 1.985 255 255 255
-0.054 -0.299 2.051 255 255 255
0.545 -1.268 1.828 255 255 255
0.626 -0.312 2.18 255 255 255
-0.84 -0.563 1.969 0 0 0
0.874 -0.327 2.27 255 255 255
0.047 -0.606 2.109 255 255 255
1.121 -0.735 2.311 255 255 255
-0.189 -1.376 1.899 0 0 0
-0.483 0.179 1.252 255 255 255
-0.015 -1.338 2.083 255 255 255
-0.005 0.445 2 255 255 255
-0.198 0.722 1.935 255 255 255
0.192 -0.924 2.173 255 255 255
-1.053 0.147 1.854 255 255 255
0.71 -0.502 2.212 255 255 255
0.143 0.169 2.052 0 0 0
-0.015 -1.244 2.178 255 255 255
-0.937 -0.226 1.539 255 255 255
0.123 0.604 2.005 255 255 255
0.298 -0.432 2.137 255 255 255
0.335 -1.27 2.167 255 255 255
0.912 -0.778 2.283 255 255 255
1.081 -0.801 2.309 255 255 255
0.904 -0.222 2.261 255 255 255
-0.282 -1.039 1.401 0 0 0
-0.607 -1.465 1.924 255 255 255
-0.07 -0.581 2.118 255 255 255
0.788 0.347 2.185 255 255 255
-0.869 -0.34 1.949 255 255 255
0.742 -0.363 2.221 255 255 255
-0.679 1.329 2.571 255 255 255
-0.694 -1.104 2.02 255 255 255
0.9 0.968 2.143 0 0 0
1.193 0.281 2.262 255 255 255
0.999 0.446 2.212 255 255 255
0.282 -1.326 1.745 0 0 0
0.763 0.392 2.177 255 255 255
0.315 0.587 1.082 255 255 255
-0.174 0.049 2.03 255 255 255
0.554 -0.504 2.188 255 255 255
0.043 -1.278 2.186 255 255 255
-0.923 -0.031 1.227 255 255 255
-0.877 -0.415 1.432 255 255 255
0.352 0.488 2.057 255 255 255
-0.906 -0.166 1.294 255 255 255
-0.042 -1.057 2.14 255 255 255
0.398 0.031 2.109 0 0 0
-0.873 -0.413 1.385 255 255 255
0.343 0.517 2.049 255 255 255
0.941 -1.18 2.084 255 255 255
0.101 -0.414 2.102 255 255 255
-0.957 0.147 1.891 255 255 255
-0.99 -0.241 1.82 255 255 255
0.907 -0.046 2.248 255 255 255
-0.916 -0.28 1.491 255 255 255
0.762 0.722 2.147 255 255 255
0.654 -1.263 1.707 0 0 0
0.266 -0.425 2.129 255 255 255
0.949 -0.376 2.254 255 255 255
1.302 0.082 2.298 255 255 255
1.195 -0.772 2.322 255 255 255
-0.915 1.37 2.485 255 255 255
0.13 0.103 2.048 255 255 255
-0.4 -1.305 2.119 255 255 255
0.324 0.684 2.031 255 255 255
1.397 -0.169 2.34 255 255 255
1.426 -0.948 2.386 255 255 255
-0.873 -0.455 1.444 255 255 255
-0.033 -1.348 2.052 255 255 255
-0.489 0.163 1.254 255 255 255
0.261 0.534 1.238 0 0 0
-0.853 -0.812 1.982 255 255 255
1.004 0.252 2.231 255 255 255
0.721 -1.239 1.794 255 255 255
0.192 0.223 2.053 255 255 255
0.406 -0.267 2.141 255 255 255
0.27 -1.311 1.866 255 255 255
0.71 0.356 2.17 255 255 255
-0.069 -0.572 2.116 255 255 255
0.332 -0.489 2.15 255 255 255
-0.187 0.25 1.978 255 255 255
1.054 -0.388 2.27 255 255 255
0.681 -0.839 2.251 255 255 255
0.079 -1.323 2.085 255 255 255
0.285 -0.99 2.199 255 255 255
1.024 -1.096 2.332 255 255 255
0.008 0.029 2.045 255 255 255
0.655 0.76 2.123 255 255 255
0.24 0.576 1.183 255 255 255
0.325 0.381 2.061 255 255 255
-0.001 -0.011 2.046 255 255 255
-0.098 -1.143 2.148 255 255 255
0.671 0.399 2.161 255 255 255
0.514 0.696 2.057 255 255 255
-0.054 -0.401 2.061 255 255 255
1.008 -0.27 2.288 255 255 255
-0.058 -0.341 2.054 255 255 255
1.453 0.203 2.315 255 255 255
-0.356 -0.541 1.343 0 0 0
-0.433 -0.267 1.296 255 255 255
0.912 0.904 2.153 255 255 255
0.154 -1.055 2.188 255 255 255
0.763 -1.214 2.034 255 255 255
1.181 -0.514 2.292 255 255 255
0.644 0.722 2.127 255 255 255
-0.806 -0.84 1.516 255 255 255
1.172 -1.023 2.353 255 255 255
1.745 -0.111 2.442 255 255 255
0.358 0.604 2.043 255 255 255
-0.459 -0.612 1.454 255 255 255
0.252 0.113 2.075 0 0 0
-0.932 -0.113 1.389 255 255 255
0.666 -1.272 1.623 255 255 255
0.504 0.288 2.101 255 255 255
1.04 0.173 2.245 255 255 255
0.717 0.01 2.209 255 255 255
-0.047 -1.083 2.139 255 255 255
-1.092 0.363 1.824 255 255 255
-0.608 -1.349 2.742 0 0 0
-0.204 -1.151 2.127 255 255 255
0.529 0.735 2.058 255 255 255
-0.859 -0.476 1.374 255 255 255
0.852 0.65 2.164 255 255 255
0.292 0.03 2.089 255 255 255
1.337 -1.077 2.329 255 255 255
0.151 0.128 2.056 0 0 0
-0.35 -0.778 1.366 255 255 255
-0.611 -1.464 1.94 0 0 0
0.909 0.477 2.193 255 255 255
0.208 -0.537 2.132 255 255 255
0.969 0.98 2.154 0 0 0
0.539 0.553 2.078 255 255 255
-0.883 1.37 2.519 255 255 255
-0.126 -1.371 1.961 255 255 255
-0.273 0.695 1.925 255 255 255
-0.061 0.093 2.024 255 255 255
-0.937 -0.045 1.333 255 255 255
-0.146 0.708 1.946 255 255 255
0.528 -1.281 1.73 0 0 0
0.236 0.583 1.25 0 0 0
0.246 0.556 1.237 0 0 0
-0.552 -1.444 2.038 255 255 255
0.832 -1.17 2.257 255 255 255
1.247 -0.004 2.298 255 255 255
-0.566 0.416 1.214 255 255 255
-0.127 0.77 1.948 255 255 255
1.278 -1.018 2.369 255 255 255
0.677 -0.859 2.25 255 255 255
0.016 0.487 1.999 255 255 255
0.347 0.735 2.03 255 255 255
-0.844 -0.743 1.976 255 255 255
0.549 -0.768 2.217 255 255 255
1.006 -0.775 2.299 255 255 255
0.559 -1.234 2.166 255 255 255
0.769 -0.374 2.256 0 0 0
1.074 0.083 2.262 255 255 255
1.523 0.08 2.336 255 255 255
0.957 -0.691 2.277 255 255 255
0.815 0.281 2.197 255 255 255
-0.962 0.014 1.411 255 255 255
1.457 -0.605 2.351 255 255 255
1.077 0.458 2.225 255 255 255
0.15 -0.514 2.118 255 255 255
0.344 -0.84 2.192 255 255 255
0.574 -1.258 1.902 255 255 255
0.484 0.571 2.07 255 255 255
0.423 0.158 2.102 255 255 255
0.057 -0.02 2.055 255 255 255
0.524 -0.56 2.191 255 255 255
-0.005 -1.258 2.182 255 255 255
-0.128 0.473 1.973 255 255 255
0.555 -0.008 2.139 255 255 255
0.736 0.304 2.181 255 255 255
0.221 -1.282 2.186 255 255 255
0.546 -0.656 2.205 255 255 255
0.475 0.01 2.123 255 255 255
-0.125 0.974 1.925 255 255 255
-0.498 0.258 1.243 255 255 255
-0.109 -1.367 1.973 255 255 255
-0.845 -0.61 1.443 255 255 255
0.709 -1.147 2.285 255 255 255
0.431 -1.289 1.846 255 255 255
-0.001 0.086 2.037 255 255 255
1.011 -0.439 2.266 0 0 0
0.393 0.543 2.059 255 255 255
0.371 -0.31 2.139 255 255 255
1.235 -0.436 2.293 255 255 255
-0.054 -0.303 2.051 255 255 255
1.647 0.056 2.397 255 255 255
-0.153 0.645 1.952 255 255 255
-0.05 -0.286 2.052 255 255 255
0.231 0.489 2.036 255 255 255
0.352 -1.298 1.87 255 255 255
0.345 0.807 2.024 255 255 255
1.523 -0.843 2.392 255 255 255
0.424 -0.162 2.128 0 0 0
-0.577 0.202 1.318 255 255 255
0.612 0.433 2.132 0 0 0
0.235 -1.172 2.217 255 255 255
1.053 0.711 2.201 255 255 255
0.323 -0.629 2.159 255 255 255
0.06 0.317 2.021 255 255 255
-0.974 0.325 1.862 255 255 255
1.133 -0.692 2.307 255 255 255
0.302 -0.033 2.099 255 255 255
-0.04 -0.743 2.133 255 255 255
0.086 0.645 1.995 255 255 255
0.027 -1.003 2.148 255 255 255
0.74 -0.169 2.231 255 255 255
-0.874 -0.687 1.967 255 255 255
-0.899 -0.162 1.229 255 255 255
0.041 -1.338 2.028 255 255 255
0.391 -0.063 2.117 255 255 255
0.374 -1.084 2.23 255 255 255
-0.425 -1.324 2.118 255 255 255
0.211 -1.195 2.208 255 255 255
-0.387 -1.078 2.149 255 255 255
0.415 -1.242 2.222 255 255 255
0.235 0.988 1.986 255 255 255
-0.924 0.173 1.862 255 255 255
-0.912 -0.098 1.21 255 255 255
-0.971 -0.019 1.502 255 255 255
1.101 0.742 2.203 255 255 255
0.102 0.578 2.005 255 255 255
0.441 -1.04 2.235 255 255 255
0.659 -0.083 2.161 255 255 255
0.468 -0.199 2.145 255 255 255
-0.519 0.363 1.228 255 255 255
0.159 0.332 2.034 255 255 255
-0.306 0.927 1.893 255 255 255
-0.938 -0.536 1.884 255 255 255
0.968 -0.027 2.257 0 0 0
0.045 0.892 1.966 0 0 0
1.508 -0.31 2.341 255 255 255
-1.062 0.181 1.719 255 255 255
-0.869 -0.815 1.985 255 255 255
0.399 -0.329 2.143 255 255 255
-0.698 -1.065 2.014 255 255 255
0.934 0.621 2.181 255 255 255
0.348 0.123 2.095 255 255 255
0.044 0.613 1.991 255 255 255
1.251 -0.33 2.3 255 255 255
1.198 0.453 2.242 255 255 255
0.21 -0.218 2.102 0 0 0
0.754 -0.397 2.225 0 0 0
-1.006 0.167 1.856 255 255 255
1.349 -0.445 2.311 255 255 255
-0.029 0.638 1.977 255 255 255
-0.017 -0.023 2.044 255 255 255
0.514 -0.394 2.169 255 255 255
0.767 -0.359 2.254 0 0 0
-0.828 -0.671 1.433 255 255 255
1.291 0.186 2.285 255 255 255
0.301 0.507 1.215 0 0 0
-0.159 -1.377 1.985 255 255 255
0.265 -0.967 2.197 255 255 255
0.983 -0.264 2.282 255 255 255
0.492 -0.42 2.169 255 255 255
-0.411 -0.383 1.311 255 255 255
0.733 -1.199 2.198 255 255 255
-0.046 -1.355 2.026 255 255 255
0.631 0.26 2.136 255 255 255
-0.929 -0.115 1.377 255 255 255
-1.015 0.37 1.843 255 255 255
0.813 0.13 2.214 255 255 255
-0.88 -0.825 1.983 255 255 255
-0.543 0.317 1.223 255 255 255
0.281 -0.289 2.12 255 255 255
0.262 -1.259 2.216 255 255 255
0.099 -1.181 2.188 255 255 255
1.466 0.095 2.329 255 255 255
1.24 -1.138 2.152 255 255 255
0.256 0.154 2.069 255 255 255
0.07 -1.163 2.186 255 255 255
-0.315 -0.866 1.38 255 255 255
-0.52 0.143 1.252 255 255 255
-0.928 0.001 1.913 255 255 255
1.057 0.374 2.229 255 255 255
1.374 -0.364 2.32 255 255 255
-0.902 -0.45 1.934 255 255 255
1.164 0.481 2.24 255 255 255
-0.313 -1.094 2.123 255 255 255
-0.944 0.424 1.782 255 255 255
-0.081 -0.076 2.032 255 255 255
-0.171 0.992 1.92 255 255 255
0.191 -0.601 2.136 255 255 255
-0.588 0.391 1.258 255 255 255
1.572 -0.224 2.374 255 255 255
0.502 -1.086 2.254 255 255 255
0.265 0.524 2.036 255 255 255
0.253 -1.022 2.202 255 255 255
-0.121 0.481 1.975 255 255 255
-0.382 -0.589 1.338 255 255 255
0.752 -0.657 2.241 255 255 255
-0.013 -1.366 1.827 0 0 0
-0.917 0.005 1.91 255 255 255
-0.937 -0.126 1.446 255 255 255
0.515 -0.204 2.153 255 255 255
0.693 -0.846 2.255 255 255 255
1.443 -0.04 2.335 255 255 255
0.134 -0.276 2.097 0 0 0
-0.181 -1.245 2.949 255 255 255
-0.163 0.393 1.966 255 255 255
1.653 -0.468 2.366 255 255 255
0.155 0.348 2.031 255 255 255
-0.961 0.196 1.886 255 255 255
0.556 -0.373 2.173 255 255 255
-0.064 -0.504 2.08 255 255 255
1.452 -0.046 2.339 255 255 255
0.696 0.306 2.174 255 255 255
0.579 0.304 2.11 255 255 255
1.178 0.324 2.252 255 255 255
1.195 0.149 2.275 255 255 255
0.818 -1.206 2.006 255 255 255
-0.409 -1.238 2.112 255 255 255
0.547 -1.246 2.105 255 255 255
-0.89 -0.796 1.967 255 255 255
0.149 0.744 1.996 255 255 255
0.425 0.576 1.168 255 255 255
0.999 0.718 2.189 255 255 255
0.66 -1.028 2.272 255 255 255
0.204 -0.392 2.118 255 255 255
-0.547 -1.311 2.942 0 0 0
-1.044 0.061 1.84 255 255 255
-0.773 -0.719 1.981 255 255 255
0.42 -1.305 1.706 255 255 255
0.191 0.691 2.011 255 255 255
1.384 -0.323 2.319 255 255 255
-0.836 -0.585 1.361 255 255 255
1.687 -0.576 2.39 255 255 255
0.224 -0.647 2.147 255 255 255
-0.234 0.901 1.914 0 0 0
0.523 -1.09 2.258 255 255 255
0.939 0.964 2.149 0 0 0
0.376 0.597 2.05 255 255 255
0.11 0.046 2.057 255 255 255
0.557 0.122 2.126 255 255 255
-0.213 -1.249 2.974 255 255 255
-0.639 -1.396 2.091 255 255 255
-0.86 -0.359 1.211 255 255 255
1.413 -0.289 2.327 255 255 255
0.94 -0.975 2.31 255 255 255
0.089 0.436 2.017 255 255 255
-0.946 -0.449 1.936 255 255 255
-0.772 -0.652 1.956 255 255 255
0.102 0.05 2.059 255 255 255
1.131 0.37 2.245 0 0 0
-0.581 0.317 1.248 255 255 255
0.421 -1.275 2.001 255 255 255
0.707 0.452 2.163 255 255 255
1.569 -0.794 2.388 255 255 255
0.35 0.63 2.044 255 255 255
1.647 -0.548 2.378 255 255 255
-0.087 -0.337 2.053 255 255 255
1.675 -0.533 2.379 255 255 255
0.79 -0.568 2.233 255 255 255
0.511 -0.334 2.163 255 255 255
0.324 -1.3 1.919 255 255 255
0.26 0.27 2.061 255 255 255
0.724 0.666 2.148 255 255 255
0.102 -0.077 2.071 0 0 0
1.014 -1.128 2.311 255 255 255
0.316 0.592 1.075 255 255 255
1.329 -0.004 2.314 255 255 255
0.206 0.05 2.067 255 255 255
-0.217 0.888 1.919 0 0 0
0.514 -0.047 2.134 255 255 255
-0.061 -0.109 2.042 255 255 255
1.026 -0.556 2.27 255 255 255
0.676 0.422 2.159 255 255 255
0.544 -1.157 2.264 255 255 255
1.07 -1.122 2.308 255 255 255
0.081 -0.924 2.155 255 255 255
0.805 -1.203 2.045 255 255 255
0.296 0.815 2.013 255 255 255
-0.935 -0.272 1.574 255 255 255
-0.331 -0.922 1.39 255 255 255
-0.504 0.283 1.242 255 255 255
-0.005 0.323 2.011 255 255 255
0.496 -1.277 1.843 255 255 255
-0.451 -0.173 1.284 255 255 255
0.397 0.086 2.103 255 255 255
0.374 0.169 2.092 0 0 0
1.654 -0.706 2.394 255 255 255
0.718 0.132 2.197 255 255 255
0.298 0.525 1.164 255 255 255
1.212 -0.786 2.329 255 255 255
0.42 -1.032 2.23 255 255 255
-0.436 -1.194 2.09 255 255 255
1.005 -1.108 2.323 255 255 255
1.095 -0.346 2.277 255 255 255
0.239 -0.561 2.138 255 255 255
-0.883 -0.777 1.981 255 255 255
1.181 -0.208 2.311 255 255 255
-0.032 -0.791 2.145 255 255 255
-0.227 -1.071 2.149 255 255 255
0.02 0.726 1.975 255 255 255
0.69 -0.201 2.179 255 255 255
0.685 -1.19 2.259 255 255 255
0.447 -0.711 2.193 255 255 255
0.82 0.596 2.169 255 255 255
0.495 -0.375 2.167 255 255 255
1.005 -1.175 1.881 255 255 255
0.809 0.353 2.188 255 255 255
-0.938 -0.014 1.285 255 255 255
-0.4 -0.898 1.488 255 255 255
-0.482 -1.117 2.085 255 255 255
0.938 0.863 2.162 255 255 255
-0.109 -0.112 2.023 255 255 255
1.103 -1.147 2.143 255 255 255
0.228 -1 2.191 255 255 255
1.324 -0.611 2.33 255 255 255
0.15 -1.333 1.865 255 255 255
0.554 -0.486 2.189 255 255 255
0.182 -0.103 2.082 255 255 255
1.332 -0.05 2.319 255 255 255
0.077 -0.97 2.155 255 255 255
1.476 0.245 2.307 255 255 255
0.839 1.025 2.129 255 255 255
1.167 0.129 2.277 255 255 255
0.894 -0.657 2.261 255 255 255
0.195 -0.145 2.085 0 0 0
0.716 0.75 2.137 255 255 255
0.028 0.824 1.972 255 255 255
-0.82 -0.638 1.988 255 255 255
-0.077 0.045 2.027 255 255 255
0.994 0.527 2.201 255 255 255
1.156 -0.455 2.284 255 255 255
1.479 -0.258 2.363 255 255 255
0.674 -1.192 2.254 255 255 255
0.461 0.636 1.164 255 255 255
0.205 0.667 1.239 255 255 255
1.327 -0.314 2.308 255 255 255
1.011 -0.182 2.275 255 255 255
-0.874 -0.413 1.399 255 255 255
0.336 0.585 2.044 255 255 255
-0.307 0.94 1.892 255 255 255
-0.282 0.79 1.907 255 255 255
0.501 -1.274 1.871 255 255 255
-0.177 0.618 1.949 255 255 255
-0.076 -0.462 2.084 255 255 255
-0.2 -1.38 1.928 255 255 255
-0.231 0.658 1.922 255 255 255
-0.083 -1.071 2.134 255 255 255
1.016 0.645 2.193 255 255 255
0.266 0.18 2.078 255 255 255
-0.687 -1.272 2.073 255 255 255
0.048 -0.74 2.123 255 255 255
1.166 0.274 2.255 255 255 255
0.233 -1.328 1.79 0 0 0
0.871 -1.209 1.791 255 255 255
-0.297 -1.025 1.393 0 0 0
0.951 -0.86 2.296 255 255 255
0.149 -0.888 2.162 255 255 255
-0.676 -1.192 2.045 255 255 255
0.307 0.526 1.157 255 255 255
0.625 -1.016 2.262 255 255 255
-0.874 -0.522 1.521 255 255 255
0.627 0.472 2.146 255 255 255
1.332 0.294 2.285 255 255 255
0.897 0.038 2.236 255 255 255
1.177 0.551 2.232 255 255 255
0.214 0.087 2.066 255 255 255
-0.14 0.279 1.987 255 255 255
-0.894 -0.485 1.597 255 255 255
0.303 0.516 1.174 0 0 0
0.423 -0.796 2.2 255 255 255
1.317 0.298 2.28 255 255 255
-0.884 -0.28 1.937 255 255 255
-0.18 0.527 1.956 255 255 255
0.699 -1.162 2.282 255 255 255
-0.784 -0.97 2.012 0 0 0
-0.186 0.719 1.939 255 255 255
0.06 0.521 2.002 255 255 255
0.079 -1.323 2.095 255 255 255
0.752 0.332 2.182 255 255 255
0.185 -1.129 2.202 255 255 255
0.437 -0.353 2.153 255 255 255
-0.563 0.454 1.199 255 255 255
-0.021 0.677 1.974 255 255 255
0.811 -0.129 2.237 255 255 255
1.168 -0.088 2.292 255 255 255
0.947 -0.906 2.302 255 255 255
0.652 -0.803 2.244 255 255 255
1.174 -0.063 2.293 255 255 255
0.576 0.14 2.127 255 255 255
0.242 -0.34 2.118 255 255 255
-0.263 -1.251 2.96 255 255 255
0.692 -0.971 2.274 255 255 255
0.602 -0.408 2.186 255 255 255
-0.123 0.795 1.943 255 255 255
-0.062 -0.649 2.132 255 255 255
0.106 -0.44 2.105 255 255 255
1.543 0.012 2.347 255 255 255
0.392 -0.08 2.121 255 255 255
1.434 -0.373 2.322 255 255 255
-0.085 0.273 2.004 255 255 255
0.323 -0.502 2.147 255 255 255
1.221 -1.038 2.361 255 255 255
1.71 -0.554 2.384 255 255 255
0.648 -1.253 1.784 255 255 255
0.093 -0.44 2.104 255 255 255
0.128 -0.136 2.076 255 255 255
0.021 -1.354 1.866 0 0 0
0.998 0.28 2.228 255 255 255
-0.025 0.283 2.013 255 255 255
-0.025 -0.101 2.049 255 255 255
-0.452 -0.686 1.48 255 255 255
0.052 0.476 2.005 255 255 255
0.075 0.986 1.961 255 255 255
1.102 -0.513 2.284 255 255 255
1.267 -0.222 2.327 255 255 255
0.033 0.928 1.962 0 0 0
0.905 0.775 2.167 255 255 255
1.178 -0.951 2.346 255 255 255
-0.872 -0.395 1.948 0 0 0
0.491 0.21 2.106 255 255 255
-0.336 -1.395 2.07 255 255 255
1.258 -0.135 2.315 255 255 255
0.483 -1.267 1.988 255 255 255
0.682 0.208 2.184 255 255 255
-0.117 0.638 1.959 255 255 255
0.049 -0.968 2.139 255 255 255
-0.124 0.352 1.987 255 255 255
-0.427 -1.295 2.811 0 0 0
-0.049 -0.068 2.041 255 255 255
0.269 0.953 1.993 0 0 0
-0.838 -1.081 1.948 255 255 255
-0.417 -0.508 1.353 255 255 255
0.057 0.781 1.978 255 255 255
0.791 0.989 2.12 0 0 0
0.882 -0.65 2.257 255 255 255
1.201 -0.358 2.294 255 255 255
0.265 0.991 1.989 255 255 255
1.11 -0.446 2.274 255 255 255
0.211 0.632 2.019 255 255 255
0.449 -0.506 2.171 255 255 255
-0.5 0.24 1.245 255 255 255
-0.643 0.421 1.317 255 255 255
0.736 -1.234 1.827 255 255 255
0.255 -1.324 1.76 0 0 0
0.791 -1.222 1.828 255 255 255
0.993 -0.309 2.289 255 255 255
1.692 -0.299 2.367 255 255 255
0.426 0.044 2.117 255 255 255
1.157 -0.841 2.327 255 255 255
0.208 0.962 1.984 255 255 255
0.781 -0.417 2.227 255 255 255
-0.91 -0.694 1.893 255 255 255
0.353 0.485 1.201 0 0 0
1.292 0.514 2.264 255 255 255
0.954 -0.756 2.285 255 255 255
-0.265 0.726 1.916 255 255 255
-0.341 -1.351 2.132 255 255 255
1.505 0.163 2.326 255 255 255
1.388 0.144 2.306 255 255 255
-1.023 0.477 1.833 255 255 255
-0.421 -0.33 1.305 255 255 255
0.893 -0.013 2.239 255 255 255
-0.152 0.847 1.934 0 0 0
0.139 0.479 2.018 255 255 255
-0.824 -1.026 2.011 255 255 255
0.157 -1.314 2.078 255 255 255
-0.917 0.234 1.87 255 255 255
-0.966 0.017 1.423 255 255 255
0.326 0.492 1.21 0 0 0
-0.821 -0.806 1.988 255 255 255
-0.927 -0.037 1.264 255 255 255
0.109 0.241 2.037 255 255 255
0.666 0.211 2.179 0 0 0
0.921 -0.145 2.255 255 255 255
1.104 0.729 2.212 255 255 255
-0.926 -0.055 1.262 255 255 255
0.424 -0.272 2.143 255 255 255
-0.93 -0.558 1.873 255 255 255
0.225 0.643 1.285 255 255 255
0.981 -0.056 2.26 255 255 255
0.632 -0.021 2.151 255 255 255
1.459 -0.802 2.373 255 255 255
0.85 -0.559 2.243 255 255 255
1.433 -0.266 2.352 255 255 255
0.504 -1.285 1.717 0 0 0
0.862 0.682 2.169 255 255 255
-0.784 -0.515 1.931 255 255 255
-0.951 -0.478 1.891 255 255 255
0.037 -1.327 2.121 255 255 255
-0.772 -1.089 2.024 255 255 255
-0.101 0.265 2.002 255 255 255
-0.856 -0.952 1.896 255 255 255
0.315 0.849 2.014 255 255 255
0.673 0.82 2.121 255 255 255
0.877 0.517 2.186 255 255 255
-0.503 0.235 1.244 255 255 255
1.405 0.359 2.287 255 255 255
0.295 0.246 2.07 255 255 255
-0.035 -0.647 2.094 255 255 255
0.483 0.112 2.116 255 255 255
0.048 0.422 2.011 255 255 255
1.558 -0.009 2.349 255 255 255
0.341 -0.696 2.175 255 255 255
-0.589 0.428 1.244 255 255 255
1.003 -0.39 2.266 255 255 255
0.33 -0.94 2.202 255 255 255
0.565 -0.974 2.252 255 255 255
0.866 -1.164 2.262 255 255 255
0.901 0.266 2.211 255 255 255
1.56 -0.605 2.365 255 255 255
0.34 0.784 2.025 255 255 255
0.487 0.138 2.114 255 255 255
0.133 -0.537 2.118 255 255 255
0.226 0.627 1.24 255 255 255
0.723 -0.741 2.243 255 255 255
-1.021 0.155 1.857 255 255 255
1.657 -0.401 2.359 255 255 255
0.471 -0.569 2.179 255 255 255
-0.974 -0.083 1.573 255 255 255
0.804 -0.867 2.275 255 255 255
0.935 -1.161 2.238 255 255 255
0.908 0.834 2.161 255 255 255
-0.857 -0.611 1.538 255 255 255
0.529 0.522 2.081 255 255 255
0.884 -0.308 2.27 255 255 255
0.02 -0.069 2.057 255 255 255
1.439 -0.192 2.355 255 255 255
1.443 -0.983 2.396 255 255 255
0.269 -0.328 2.123 255 255 255
0.276 -0.02 2.095 255 255 255
-0.987 0.191 1.863 255 255 255
0.56 -1.105 2.261 255 255 255
0.261 -0.774 2.17 255 255 255
0.16 0.628 2.009 255 255 255
0.724 0.11 2.2 255 255 255
1.52 0.012 2.342 255 255 255
-0.037 0.485 1.991 255 255 255
-0.256 0.886 1.901 0 0 0
0.709 0.812 2.132 255 255 255
0.096 0.878 1.976 0 0 0
0.016 -0.332 2.079 255 255 255
-1.07 0.195 1.787 255 255 255
-0.081 -1.233 2.168 255 255 255
0.665 0.599 2.142 255 255 255
0.739 0.672 2.149 255 255 255
-0.185 0.593 1.951 255 255 255
0.43 -0.175 2.133 0 0 0
0.038 -0.601 2.108 255 255 255
1.067 -0.389 2.273 255 255 255
0.272 0.533 1.2 0 0 0
-0.503 0.173 1.245 255 255 255
0.387 0.577 1.122 255 255 255
0.619 -1.26 1.775 255 255 255
0.3 0.806 2.014 255 255 255
0.719 0.553 2.156 255 255 255
0.44 0.332 2.086 255 255 255
0.226 0.228 2.058 255 255 255
-0.301 0.818 1.919 255 255 255
0.02 0.98 1.95 255 255 255
0.702 -0.692 2.235 255 255 255
-0.141 -0.023 2.013 255 255 255
1.19 0.021 2.291 255 255 255
0.887 0.545 2.181 255 255 255
0.678 0.486 2.156 255 255 255
0.45 -0.427 2.164 255 255 255
1.544 0.091 2.337 255 255 255
0.146 0.887 1.983 0 0 0
0.866 0.887 2.146 255 255 255
0.321 0.172 2.084 255 255 255
-0.869 -0.492 1.481 255 255 255
0.714 -1.253 1.692 0 0 0
-0.049 -1.229 2.898 0 0 0
0.401 -0.119 2.124 255 255 255
1.187 0.447 2.243 255 255 255
1.44 -0.421 2.327 255 255 255
-0.361 -1.375 2.129 255 255 255
0.139 0.026 2.067 255 255 255
-0.183 0.247 1.979 255 255 255
-0.16 -1.374 1.998 255 255 255
0.765 -1.218 1.99 255 255 255
0.034 -0.742 2.116 255 255 255
0.83 -1.188 2.175 255 255 255
0.518 0.224 2.106 255 255 255
0.321 0.935 2 0 0 0
1.159 -0.385 2.287 255 255 255
0.195 -1.293 2.157 255 255 255
0.373 0.413 2.066 255 255 255
-0.001 0.424 2 255 255 255
-0.542 -1.457 1.892 255 255 255
-0.081 0.603 1.974 255 255 255
0.09 -0.888 2.153 255 255 255
-0.662 -1.468 1.988 0 0 0
0.578 -1.228 2.184 255 255 255
-0.04 -0.681 2.116 255 255 255
0.025 -0.532 2.101 255 255 255
0.456 -0.377 2.159 255 255 255
-0.943 -0.089 1.419 255 255 255
0.454 0.222 2.099 255 255 255
0.331 0.495 1.187 0 0 0
-0.131 0.762 1.949 255 255 255
-0.422 -1.11 2.121 255 255 255
1.093 -0.406 2.279 255 255 255
-0.995 0.365 1.871 255 255 255
-0.041 0.234 2.013 255 255 255
-0.926 -0.542 1.95 255 255 255
0.677 0.778 2.128 255 255 255
-0.788 -1.232 2.04 255 255 255
0.681 -0.514 2.21 255 255 255
0.219 -0.243 2.104 0 0 0
0.769 -1.221 1.878 255 255 255
1.23 -0.251 2.324 255 255 255
-0.877 0.044 1.836 255 255 255
-0.28 0.616 1.96 0 0 0
0.004 0.515 1.993 255 255 255
-0.044 -1.366 1.883 0 0 0
0.156 0.61 2.008 255 255 255
-0.009 0.733 1.971 255 255 255
1.676 0.155 2.405 255 255 255
-0.458 0.063 1.262 255 255 255
0.81 0.367 2.188 255 255 255
1.004 -0.177 2.272 255 255 255
-0.076 1.014 1.929 255 255 255
-0.952 -0.009 1.384 255 255 255
1.005 0.219 2.235 255 255 255
1.082 -0.091 2.279 255 255 255
-0.026 -0.689 2.099 255 255 255
0.888 -0.159 2.25 255 255 255
0.384 0.787 2.029 255 255 255
-0.61 -1.348 2.754 0 0 0
-1.042 0.067 1.762 255 255 255
0.721 -0.763 2.247 255 255 255
0.202 -1.314 2.047 255 255 255
1.725 -0.088 2.436 255 255 255
0.117 0.338 2.026 255 255 255
-0.009 -0.015 2.046 255 255 255
0.06 -0.66 2.121 255 255 255
0.399 -0.544 2.164 255 255 255
0.847 -0.177 2.249 255 255 255
0.965 0.364 2.216 255 255 255
0.502 -1.241 2.177 255 255 255
0.137 -0.551 2.121 255 255 255
-0.066 0.835 1.952 255 255 255
-0.421 -1.087 2.151 255 255 255
0.47 -0.359 2.159 255 255 255
-0.612 -1.465 1.924 255 255 255
-0.859 -0.422 1.959 255 255 255
1.695 0.007 2.415 255 255 255
0.786 -1.209 2.03 255 255 255
0.922 -0.897 2.298 255 255 255
-0.987 -0.015 1.879 255 255 255
-0.001 -1.192 2.178 255 255 255
0.061 0.127 2.045 0 0 0
0.343 0.49 1.172 0 0 0
0.049 0.802 1.973 255 255 255
-0.029 0.596 1.98 255 255 255
0.624 -0.052 2.155 255 255 255
-0.001 -0.899 2.144 255 255 255
0.77 -1.252 1.62 255 255 255
-0.421 -1.397 2.09 255 255 255
0.102 0.025 2.057 255 255 255
-1.029 0.313 1.84 255 255 255
0.343 -1.318 1.734 0 0 0
0.008 0.769 1.97 255 255 255
0.653 -1.232 2.06 255 255 255
-0.721 -1.278 2.067 255 255 255
0.369 0.88 1.992 0 0 0
0.34 -1.282 2.087 255 255 255
-0.321 -0.958 1.39 255 255 255
-0.203 0.548 1.939 255 255 255
1.539 -0.765 2.378 255 255 255
1.101 -0.809 2.314 255 255 255
0.889 -1.114 2.314 255 255 255
0.459 -0.055 2.127 255 255 255
-0.411 -0.371 1.312 255 255 255
0.912 -0.041 2.248 255 255 255
0.475 -1.234 2.222 255 255 255
1.234 -0.52 2.302 255 255 255
0.167 0.263 2.047 255 255 255
-0.356 -0.609 1.351 255 255 255
-0.792 1.358 2.476 255 255 255
0.159 0.169 2.056 0 0 0
1.005 0.815 2.182 255 255 255
0.952 0.619 2.186 255 255 255
0.379 0.524 1.132 0 0 0
-0.891 -0.469 1.548 255 255 255
1.08 -0.294 2.299 255 255 255
0.962 -1.168 2.146 255 255 255
-0.888 -0.206 1.216 255 255 255
