ply
format ascii 1.0
comment Created by Open3D
element vertex 1584
property double x
property double y
property double z
property uchar red
property uchar green
property uchar blue
end_header
0.702 0.508 2.186 255 255 255
0.883 0.823 2.195 255 255 255
-0.858 -1.034 1.952 255 255 255
0.418 -0.033 2.122 255 255 255
1.47 0.242 2.339 255 255 255
-0.446 -0.497 1.291 255 255 255
-1.108 0.161 1.803 255 255 255
0.019 -1.362 2.139 255 255 255
0.548 -1.308 2.205 255 255 255
1.639 -0.103 2.437 255 255 255
0.66 -1.329 1.761 0 0 0
-0.954 -0.119 1.249 255 255 255
0.408 -1.014 2.192 255 255 255
-1.054 -0.082 1.687 255 255 255
-0.929 -0.718 1.919 255 255 255
1.16 -0.088 2.31 255 255 255
0.02 0.42 2.02 255 255 255
0.634 -1.016 2.235 255 255 255
0.341 -0.954 2.171 255 255 255
-0.751 -1.264 1.986 255 255 255
-0.664 1.261 2.502 255 255 255
-0.039 -0.718 2.075 255 255 255
-0.34 0.96 1.909 255 255 255
0.696 0.633 2.176 255 255 255
-0.856 -1.05 1.954 255 255 255
-0.28 0.452 1.964 255 255 255
-0.055 -0.448 2.06 255 255 255
1.113 0.055 2.284 255 255 255
-0.054 -0.269 2.049 255 255 255
-0.927 -0.467 1.443 255 255 255
0.284 0.047 2.094 255 255 255
0.416 0.23 2.102 255 255 255
0.372 0.026 2.11 255 255 255
-1.016 -0.418 1.821 255 255 255
-0.166 0.871 1.957 0 0 0
0.721 -0.063 2.222 255 255 255
1.474 -0.205 2.369 255 255 255
0.232 -1.304 2.183 255 255 255
-0.584 -1.416 2.901 0 0 0
-0.013 0.937 1.981 255 255 255
1.013 0.689 2.227 255 255 255
0.295 -0.163 2.104 255 255 255
0.093 0.274 2.039 255 255 255
0.057 -0.896 2.112 255 255 255
0.549 0.407 2.124 255 255 255
-0.037 0.021 2.036 255 255 255
-0.767 -1.421 2.006 255 255 255
-0.001 0.134 2.034 255 255 255
1.422 0.006 2.344 255 255 255
0.085 0.091 2.052 255 255 255
-0.892 -0.245 1.885 255 255 255
-0.258 1.06 1.929 255 255 255
-0.267 0.386 1.964 255 255 255
0.813 -1.305 1.693 255 255 255
0.869 -0.154 2.255 255 255 255
-0.013 0.531 2.005 255 255 255
0.33 -0.499 2.135 255 255 255
1.361 0.17 2.323 255 255 255
-0.553 0.412 1.222 255 255 255
-0.995 -0.575 1.884 255 255 255
-0.073 -0.761 2.064 255 255 255
0.672 0.362 2.186 255 255 255
0.131 0.087 2.06 0 0 0
0.252 -1.197 2.178 255 255 255
-0.443 -0.497 1.291 255 255 255
0.207 0.965 2.022 255 255 255
-0.235 0.856 1.94 0 0 0
0.067 -0.551 2.09 255 255 255
1.536 -1.013 2.395 255 255 255
1.032 0.126 2.265 255 255 255
0.848 -0.144 2.254 255 255 255
-1.003 -0.476 1.788 255 255 255
0.06 -0.656 2.093 255 255 255
0.162 0.64 2.032 255 255 255
0.753 -0.329 2.243 255 255 255
-0.573 0.196 1.253 255 255 255
0.974 -0.79 2.271 255 255 255
0.899 -1.281 1.916 255 255 255
0.335 -0.621 2.145 255 255 255
0.291 -1.327 2.187 255 255 255
0.314 0.579 1.061 255 255 255
0.008 -0.313 2.064 255 255 255
1.437 -0.992 2.371 255 255 255
-0.165 0.467 1.982 255 255 255
0.221 0.507 1.228 0 0 0
-1.035 -0.312 1.816 255 255 255
-0.978 -0.191 1.458 255 255 255
0.581 -1.33 2.045 255 255 255
1.468 0.121 2.342 255 255 255
1.472 -0.416 2.348 255 255 255
0.737 -1.289 2.199 255 255 255
0.574 -0.148 2.154 255 255 255
-0.041 -0.064 2.037 255 255 255
0.477 -1.186 2.219 255 255 255
0.305 0.45 1.17 255 255 255
0.718 -0.36 2.24 255 255 255
-0.18 0.013 1.997 255 255 255
0.529 -0.209 2.153 255 255 255
0.806 -0.999 2.263 255 255 255
-0.196 1.038 1.959 255 255 255
1 -0.105 2.279 255 255 255
-0.557 -0.22 1.359 255 255 255
-0.013 -0.48 2.068 255 255 255
1.757 0.08 2.449 255 255 255
0.332 0.662 2.059 255 255 255
-0.329 1.011 1.905 255 255 255
-0.47 -0.515 1.326 255 255 255
0.995 0.015 2.269 255 255 255
0.237 -1.184 2.176 255 255 255
1.735 -0.117 2.459 255 255 255
-0.101 0.246 2.008 255 255 255
0.422 0.652 2.077 255 255 255
0.616 0.171 2.187 255 255 255
-0.314 -1.368 2.873 255 255 255
0.237 -0.283 2.115 255 255 255
0.825 -1.291 1.992 255 255 255
-0.383 -1.177 2.058 255 255 255
1.541 -0.004 2.375 255 255 255
0.297 -0.31 2.113 255 255 255
0.656 0.145 2.197 255 255 255
0.417 -0.589 2.155 255 255 255
0.129 -0.321 2.084 0 0 0
0.168 0.145 2.062 255 255 255
-0.562 0.219 1.232 255 255 255
0.36 -0.774 2.161 255 255 255
1.13 -0.419 2.32 255 255 255
-0.093 -0.653 2.054 255 255 255
0.797 0.407 2.203 255 255 255
0.352 -0.589 2.144 255 255 255
0.206 0.555 1.239 0 0 0
0.228 0.72 2.039 255 255 255
0.575 0.469 2.163 255 255 255
1.105 -0.077 2.292 255 255 255
0.92 -0.772 2.262 255 255 255
0.568 -1.215 2.237 255 255 255
0.301 0.009 2.097 0 0 0
0.869 0.221 2.237 255 255 255
0.646 -0.772 2.213 255 255 255
-0.336 -1.378 2.081 255 255 255
0.235 -0.439 2.113 255 255 255
1.096 0.569 2.249 255 255 255
0.245 0.325 2.067 255 255 255
0.133 1.023 2.002 255 255 255
-0.958 -0.476 1.897 255 255 255
0.981 -0.606 2.259 255 255 255
0.195 0.604 1.287 255 255 255
0.235 1.033 2.016 255 255 255
0.202 0.203 2.066 255 255 255
1.602 0.192 2.41 255 255 255
1.229 -0.603 2.303 255 255 255
0.381 -1.373 1.795 255 255 255
0.435 -1.104 2.207 255 255 255
-0.854 -1.314 1.974 255 255 255
0.542 -0.519 2.173 255 255 255
0.943 0.199 2.241 255 255 255
-0.475 -0.226 1.273 255 255 255
0.697 0.516 2.184 255 255 255
-0.536 1.077 2.153 255 255 255
0.854 -0.839 2.257 255 255 255
-0.073 0.376 2.004 255 255 255
0.673 0.015 2.207 255 255 255
0.695 -0.798 2.22 255 255 255
0.915 0.463 2.223 255 255 255
1.138 -1.23 2.222 255 255 255
0.025 -0.644 2.086 255 255 255
0.341 0.389 2.081 255 255 255
0.128 -0.554 2.1 255 255 255
0.387 -0.917 2.176 255 255 255
0.508 0.561 2.097 255 255 255
0.153 -0.768 2.12 255 255 255
-0.638 -1.516 1.989 255 255 255
0.793 0.937 2.173 255 255 255
0.526 0.213 2.124 255 255 255
0.337 -1.352 2.144 255 255 255
0.588 0.38 2.171 255 255 255
0.259 -0.937 2.153 255 255 255
0.418 -0.037 2.123 255 255 255
0.445 -1.248 2.218 255 255 255
1.62 -0.812 2.387 255 255 255
0.318 0.63 2.06 255 255 255
0.159 -0.365 2.094 0 0 0
-0.767 -1.343 2.007 255 255 255
-0.191 0.076 1.99 255 255 255
1.648 -0.299 2.451 255 255 255
1.053 0.248 2.268 255 255 255
0.23 1.065 1.999 255 255 255
0.086 -0.143 2.065 255 255 255
-0.959 -0.178 1.893 255 255 255
-0.737 1.308 2.505 255 255 255
-0.154 0.604 1.974 255 255 255
0.136 -1.172 2.159 255 255 255
0.319 -0.815 2.154 255 255 255
0.217 0.554 1.158 255 255 255
-0.905 -0.648 1.484 255 255 255
0.56 0.084 2.14 255 255 255
1.092 -0.716 2.289 255 255 255
1.01 -0.948 2.294 255 255 255
0.04 0.135 2.042 255 255 255
0.008 0.13 2.035 255 255 255
0.574 -0.628 2.187 255 255 255
0.583 -0.104 2.157 255 255 255
0.197 0.013 2.07 0 0 0
0.026 -1.417 1.904 0 0 0
0.193 0.598 1.139 255 255 255
0.495 -1.351 1.852 0 0 0
0.491 -0.008 2.134 255 255 255
0.853 -0.158 2.253 255 255 255
0.753 0.247 2.205 255 255 255
0.348 -0.824 2.162 255 255 255
-0.858 -1.408 1.943 0 0 0
1.201 0.612 2.268 255 255 255
-0.876 1.284 2.466 255 255 255
1.052 0.544 2.242 255 255 255
0.748 -1.317 1.681 255 255 255
0.287 -0.415 2.122 255 255 255
0.365 -1.368 1.896 0 0 0
-0.484 -0.739 1.421 255 255 255
-0.608 0.055 1.341 255 255 255
-0.94 -0.225 1.275 255 255 255
1.104 -0.004 2.291 255 255 255
1.1 -1.146 2.329 255 255 255
0.682 0.326 2.19 255 255 255
-0.348 -1.146 2.116 255 255 255
0.864 -0.429 2.273 255 255 255
-0.199 0.623 1.964 255 255 255
-0.663 -1.422 2.842 255 255 255
-0.793 -1.185 1.994 255 255 255
0.87 -0.579 2.238 0 0 0
0.565 0.205 2.133 255 255 255
-0.366 -0.915 1.337 255 255 255
-0.14 1.026 1.949 255 255 255
0.905 0.697 2.212 255 255 255
0.698 0.676 2.173 255 255 255
-0.061 -0.757 2.066 255 255 255
-0.148 0.185 2.003 255 255 255
0.4 -0.532 2.149 255 255 255
-0.167 -1.377 2.111 255 255 255
-0.094 0.662 1.98 255 255 255
-0.511 -1.408 2.806 255 255 255
1.106 0.337 2.266 255 255 255
0.339 0.48 1.142 255 255 255
-0.038 -0.32 2.056 255 255 255
0.685 -1.199 2.254 255 255 255
-0.961 -0.758 1.904 255 255 255
-0.454 -1.197 2.034 255 255 255
0.432 0.562 1.194 255 255 255
1.008 0.149 2.258 255 255 255
0.637 -0.008 2.2 0 0 0
-0.124 -1.175 2.085 255 255 255
-0.564 0.499 1.219 255 255 255
-0.092 -0.817 2.086 255 255 255
0.704 -1.227 2.259 255 255 255
1.139 0.055 2.292 255 255 255
-0.162 -0.217 2.016 255 255 255
0.587 0.344 2.171 0 0 0
0.079 -0.866 2.111 255 255 255
1.601 -0.223 2.418 255 255 255
0.228 -0.547 2.117 255 255 255
0.511 -1.33 2.135 255 255 255
0.554 0.609 2.148 255 255 255
0.574 0.105 2.137 255 255 255
0.735 -0.82 2.23 255 255 255
0.58 0.474 2.164 255 255 255
-0.915 -0.755 1.922 255 255 255
0.73 -0.59 2.214 255 255 255
0.768 0.248 2.208 255 255 255
0.263 -0.807 2.14 255 255 255
0.086 -0.085 2.064 255 255 255
0.777 -0.278 2.246 255 255 255
0.082 -0.714 2.102 255 255 255
-0.597 -1.443 2.823 0 0 0
-1.111 0.19 1.806 255 255 255
1.281 -1.028 2.347 255 255 255
0.346 -1.212 2.196 255 255 255
0.564 -0.126 2.152 255 255 255
1.498 -0.846 2.372 255 255 255
0.207 -0.749 2.128 255 255 255
0.104 0.715 2.017 255 255 255
-0.148 -1.389 2.111 255 255 255
-0.988 -0.015 1.871 0 0 0
1.006 0.655 2.232 255 255 255
-0.371 0.901 1.941 0 0 0
0.667 0.551 2.175 255 255 255
-0.983 -0.014 1.313 255 255 255
-0.728 -1.47 2.633 0 0 0
-1.025 -0.372 1.817 255 255 255
0.564 -0.888 2.209 255 255 255
-1.004 -0.393 1.894 255 255 255
0.568 0.307 2.136 255 255 255
-0.203 0.116 1.987 255 255 255
-0.47 -0.287 1.275 255 255 255
-0.405 -0.773 1.32 255 255 255
0.553 -0.025 2.147 255 255 255
-0.203 -1.342 2.978 0 0 0
0.555 0.3 2.122 255 255 255
-0.095 -0.448 2.039 255 255 255
0.233 -0.343 2.11 0 0 0
-0.005 -1.417 1.962 0 0 0
0.329 -0.826 2.157 255 255 255
0.382 0.46 2.084 255 255 255
0.124 -1.403 1.915 0 0 0
-0.282 0.335 1.992 0 0 0
-0.022 -0.826 2.086 255 255 255
-0.017 0.53 2.003 255 255 255
-0.994 0.091 1.881 255 255 255
-0.931 -0.96 1.901 255 255 255
0.405 0.457 2.088 255 255 255
1.196 -0.642 2.3 255 255 255
-1.001 -0.462 1.897 255 255 255
0.417 -1.357 1.941 255 255 255
-0.145 -0.003 2.016 255 255 255
0.044 -0.854 2.106 255 255 255
-0.29 0.444 1.98 255 255 255
0.15 -0.833 2.126 255 255 255
-0.026 -0.726 2.083 255 255 255
0.801 -0.677 2.231 255 255 255
-0.921 -0.341 1.265 255 255 255
0.633 -1.309 2.149 255 255 255
0.491 -1.35 1.902 255 255 255
0.816 -0.844 2.251 255 255 255
0.661 0.731 2.167 255 255 255
0.21 -0.024 2.074 255 255 255
0.573 -0.268 2.161 255 255 255
-0.959 -0.323 1.891 255 255 255
-0.953 -0.823 1.891 255 255 255
0.42 -0.831 2.173 255 255 255
0.032 -0.18 2.062 0 0 0
-0.242 0.389 1.958 255 255 255
-0.262 -1.434 2.079 255 255 255
0.216 0.569 1.135 255 255 255
1.198 -0.104 2.315 255 255 255
0.298 0.543 1.092 255 255 255
-0.215 0.406 1.964 255 255 255
0.163 -1.159 2.154 255 255 255
0.358 -0.825 2.165 255 255 255
0.586 -0.504 2.181 255 255 255
-0.907 -0.607 1.462 255 255 255
-0.373 0.935 1.942 255 255 255
1.299 0.234 2.307 255 255 255
-0.262 0.218 2.004 255 255 255
-0.519 1.08 2.162 255 255 255
1.396 -0.405 2.342 0 0 0
1.002 -1.251 2.207 255 255 255
0.232 0.483 1.27 0 0 0
0.032 0.025 2.049 255 255 255
0.02 0.309 2.025 255 255 255
-0.513 -0.515 1.388 255 255 255
-0.571 -0.225 1.37 255 255 255
0.892 -0.469 2.273 255 255 255
0.493 -1.349 1.934 255 255 255
0.948 -1.26 2.193 255 255 255
0.598 -1.332 1.951 255 255 255
0.509 0.598 2.097 255 255 255
0.781 -0.432 2.257 255 255 255
-1.05 -0.207 1.854 255 255 255
0.367 -1.367 1.91 255 255 255
0.421 0.201 2.108 255 255 255
0.689 -0.013 2.212 255 255 255
-0.979 -0.081 1.368 255 255 255
1.036 0.42 2.249 255 255 255
0.929 0.393 2.228 255 255 255
0.191 -0.107 2.087 255 255 255
1.005 -1.275 1.952 255 255 255
-0.383 -0.884 1.328 255 255 255
0.164 0.343 2.051 255 255 255
0.263 0.458 1.228 0 0 0
0.31 -0.267 2.115 255 255 255
-0.689 1.239 2.21 255 255 255
0.186 -1.266 2.171 255 255 255
0.06 -0.746 2.1 255 255 255
0.26 0.516 1.106 255 255 255
-0.864 -1.142 1.956 255 255 255
0.904 0.095 2.24 255 255 255
-0.043 -0.748 2.066 255 255 255
0.72 -0.922 2.24 255 255 255
0.693 -0.586 2.206 255 255 255
-1.042 -0.173 1.702 255 255 255
0.44 -1.358 1.973 255 255 255
0.22 0.379 2.059 255 255 255
1.02 -1.262 2.062 255 255 255
-0.183 0.116 1.985 255 255 255
1.426 0.162 2.335 255 255 255
0.318 0.581 1.058 255 255 255
0.02 0.358 2.023 255 255 255
1.203 0.384 2.282 255 255 255
0.576 0.506 2.162 255 255 255
0.036 -0.209 2.063 255 255 255
-0.397 -0.878 1.334 255 255 255
0.269 0.779 2.044 255 255 255
0.769 -1.118 2.261 255 255 255
0.989 -0.143 2.276 255 255 255
0.456 -0.709 2.171 255 255 255
-0.083 -0.383 2.052 255 255 255
0.664 0.467 2.178 255 255 255
0.846 0.062 2.237 255 255 255
0.931 0.029 2.256 255 255 255
-0.258 0.807 1.94 255 255 255
0.296 -1.322 2.187 255 255 255
0.462 -0.453 2.156 255 255 255
0.033 -0.54 2.081 255 255 255
0.098 0.523 2.025 255 255 255
0.274 -1.05 2.169 255 255 255
-0.219 0.136 1.985 255 255 255
0.39 0.001 2.114 255 255 255
1.211 -0.134 2.317 255 255 255
0.797 0.066 2.227 255 255 255
1.235 0.291 2.296 255 255 255
1.204 -0.81 2.319 255 255 255
-0.298 -1.283 2.084 255 255 255
-0.052 -0.829 2.07 255 255 255
-0.209 -1.432 2.071 255 255 255
-1.07 -0.061 1.752 255 255 255
0.49 0.121 2.125 255 255 255
0.744 0.529 2.19 255 255 255
0.413 -1.345 2.133 255 255 255
0.921 -0.541 2.253 255 255 255
0.884 0.081 2.241 255 255 255
0.164 -0.375 2.099 0 0 0
-0.102 1.044 1.956 255 255 255
0.145 0.947 2.008 0 0 0
1.572 -0.424 2.366 255 255 255
-0.425 -1.462 2.057 255 255 255
0.679 0.736 2.164 255 255 255
0.536 -1.333 2.039 255 255 255
0.577 -0.678 2.192 255 255 255
-0.884 -0.147 1.819 255 255 255
1.112 -0.341 2.313 255 255 255
1.338 -0.21 2.345 255 255 255
1.076 -0.822 2.293 255 255 255
0.67 -1.323 1.834 0 0 0
0.404 -0.617 2.156 255 255 255
-0.833 -1.438 1.996 0 0 0
1.063 -0.81 2.293 255 255 255
0.209 -1.393 1.872 0 0 0
0.008 -0.895 2.099 255 255 255
0.948 -0.35 2.28 255 255 255
0.552 -0.749 2.191 255 255 255
1.245 -0.632 2.306 255 255 255
-0.173 0.803 1.96 255 255 255
1.224 -0.014 2.311 255 255 255
-0.899 -1.171 1.918 255 255 255
0.98 -1.229 2.294 255 255 255
0.439 0.129 2.116 255 255 255
-1.021 0.053 1.852 255 255 255
0.7 -0.321 2.233 255 255 255
0.111 -1.395 2.049 255 255 255
-0.03 -0.665 2.079 255 255 255
-0.577 0.427 1.209 255 255 255
-0.945 -0.445 1.506 255 255 255
0.527 0.403 2.11 255 255 255
0.304 -0.172 2.109 255 255 255
0.71 -0.987 2.243 255 255 255
0.131 0.136 2.059 255 255 255
-0.117 0.403 1.995 255 255 255
-0.408 -0.607 1.316 0 0 0
1.161 0.331 2.274 255 255 255
1.483 0.2 2.341 255 255 255
0.658 0.71 2.164 255 255 255
0.368 0.471 1.162 0 0 0
0.366 -0.182 2.12 0 0 0
1.402 -0.878 2.36 255 255 255
0.605 0.517 2.162 255 255 255
0.999 -0.445 2.3 255 255 255
-0.879 -1.286 1.939 255 255 255
1.372 -0.571 2.322 255 255 255
-0.03 -0.651 2.078 255 255 255
-0.415 -0.567 1.309 255 255 255
1.725 0.046 2.447 255 255 255
0.194 0.1 2.074 255 255 255
-0.564 0.311 1.218 255 255 255
-0.904 -0.136 1.88 255 255 255
0.956 0.982 2.202 0 0 0
-0.981 -0.421 1.892 255 255 255
0.034 -0.731 2.097 255 255 255
-0.981 -0.633 1.843 255 255 255
0.325 0.828 2.033 0 0 0
0.564 -1.325 2.107 255 255 255
1.048 0.354 2.259 255 255 255
-0.005 -0.06 2.047 255 255 255
0.095 -1.296 2.156 255 255 255
0.114 -1.381 2.129 255 255 255
-0.147 0.651 1.973 255 255 255
0.462 -0.159 2.139 255 255 255
0.038 -0.549 2.082 255 255 255
0.28 0.585 1.051 255 255 255
1.321 -0.675 2.324 255 255 255
0.061 -0.135 2.063 255 255 255
0.417 -0.223 2.133 255 255 255
0.495 0.023 2.131 255 255 255
0.291 -1.361 2.124 255 255 255
-0.409 -1.29 2.064 255 255 255
-0.181 0.981 1.945 255 255 255
-0.906 -1.087 1.941 255 255 255
-0.177 0.503 1.975 255 255 255
0.691 0.213 2.198 255 255 255
0.282 0.502 1.12 255 255 255
0.874 -0.898 2.269 255 255 255
0.004 -1.127 2.108 255 255 255
0.877 1.083 2.176 255 255 255
1.085 -0.791 2.294 255 255 255
-0.187 0.187 1.981 255 255 255
0.238 0.971 2.023 255 255 255
-0.94 -0.328 1.372 255 255 255
-0.026 1.027 1.974 255 255 255
-0.264 0.875 1.937 0 0 0
0.085 0.107 2.052 255 255 255
0.853 -0.492 2.249 0 0 0
0.632 -1.278 2.245 255 255 255
0.417 -1.362 1.831 0 0 0
1.045 -0.067 2.282 255 255 255
0.588 -1.147 2.237 255 255 255
-0.497 1.056 2.23 255 255 255
0.315 -1.378 1.818 0 0 0
-0.847 1.276 2.51 255 255 255
-0.413 -0.992 1.401 255 255 255
0.213 -0.196 2.092 255 255 255
0.504 -1.355 1.76 255 255 255
1.097 -0.097 2.297 255 255 255
1.268 -0.607 2.307 255 255 255
-0.499 -0.068 1.257 255 255 255
1.126 0.06 2.289 255 255 255
-0.644 1.24 2.774 255 255 255
-0.548 0.359 1.227 255 255 255
-0.44 -0.362 1.294 0 0 0
-0.131 1.026 1.95 255 255 255
0.264 0.525 1.101 255 255 255
0.526 -0.981 2.21 255 255 255
-0.236 0.678 1.956 255 255 255
-0.919 -0.412 1.319 255 255 255
-0.346 -1.204 2.051 255 255 255
-0.962 -0.762 1.874 255 255 255
1.388 -0.446 2.334 255 255 255
1.085 0.634 2.25 255 255 255
1.059 -0.46 2.283 0 0 0
-0.744 -1.457 2.019 0 0 0
0.266 0.126 2.083 255 255 255
0.037 -0.247 2.067 255 255 255
-0.086 -1.329 2.124 255 255 255
-0.921 -0.303 1.243 255 255 255
1.011 -0.84 2.282 255 255 255
1.132 -0.737 2.296 255 255 255
0.111 -1.137 2.147 255 255 255
0.278 0.614 2.055 255 255 255
0.473 -0.381 2.152 255 255 255
-0.823 -1.475 1.997 0 0 0
-1.021 0.178 1.847 0 0 0
0.732 0.505 2.189 255 255 255
0.867 0.661 2.202 255 255 255
0.426 0.381 2.097 255 255 255
-1.069 -0.007 1.697 255 255 255
0.515 0.499 2.102 255 255 255
0.378 -0.02 2.116 255 255 255
1.331 -0.411 2.337 0 0 0
1.322 -0.188 2.34 255 255 255
-0.863 -0.775 1.956 255 255 255
0.728 -0.852 2.235 255 255 255
0.989 -1.091 2.302 255 255 255
1.193 -0.164 2.314 255 255 255
0.775 -1.314 1.669 255 255 255
0.744 -1.297 2.146 255 255 255
-0.98 -0.056 1.875 0 0 0
1.056 -0.433 2.306 255 255 255
-0.44 -0.5 1.292 255 255 255
0.182 -0.045 2.08 255 255 255
-0.609 -1.443 2.654 255 255 255
0.893 -0.055 2.253 255 255 255
0.174 0.874 2.018 255 255 255
-0.009 -0.06 2.048 255 255 255
0.041 -0.417 2.077 255 255 255
1.017 0.94 2.217 255 255 255
-1.088 0.059 1.751 255 255 255
0.407 0.247 2.103 255 255 255
-0.293 -1.376 2.776 255 255 255
-0.066 0.742 1.982 255 255 255
-0.427 -0.561 1.301 255 255 255
0.271 -0.629 2.132 255 255 255
0.707 0.205 2.204 255 255 255
-0.086 -0.129 2.036 255 255 255
0.618 0.458 2.169 255 255 255
0.775 -0.98 2.251 255 255 255
-0.784 -1.501 2.009 0 0 0
-0.399 -1.283 2.063 255 255 255
0.211 -0.879 2.138 255 255 255
-1.021 -0.124 1.59 255 255 255
-0.349 0.975 1.909 255 255 255
0.894 0.357 2.224 255 255 255
0.345 -0.37 2.132 255 255 255
0.633 -1.306 2.175 255 255 255
0.208 -1.383 2.044 255 255 255
0.136 -0.185 2.076 255 255 255
-1.009 -0.418 1.891 255 255 255
-0.521 0.126 1.243 255 255 255
-0.239 0.211 1.982 255 255 255
1.223 0.446 2.28 255 255 255
0.404 0.009 2.118 255 255 255
-0.934 1.282 2.616 255 255 255
0.118 0.304 2.042 255 255 255
1.085 -1.195 2.32 255 255 255
0.915 0.478 2.222 255 255 255
0.688 0.58 2.175 255 255 255
1.283 -0.07 2.329 255 255 255
0.465 -0.681 2.173 255 255 255
0.873 0.971 2.184 0 0 0
-0.961 -0.264 1.431 255 255 255
0.795 -1.053 2.261 255 255 255
0.041 -0.369 2.072 255 255 255
0.466 0.253 2.11 255 255 255
1.161 0.582 2.263 255 255 255
0.157 -0.454 2.104 255 255 255
0.689 -1.242 2.256 255 255 255
1.408 0.41 2.318 255 255 255
-0.134 -0.295 2.023 255 255 255
0.847 0.476 2.207 255 255 255
-0.176 -1.376 2.108 255 255 255
0.057 0.572 2.016 255 255 255
0.181 -0.982 2.142 255 255 255
1.083 -0.56 2.271 255 255 255
1.264 -0.8 2.32 255 255 255
0.968 -0.703 2.261 255 255 255
-0.899 -0.244 1.872 255 255 255
0.048 0.478 2.016 255 255 255
-0.068 -0.986 2.111 255 255 255
1.065 -0.379 2.306 255 255 255
-0.36 -0.987 1.341 0 0 0
-0.807 -1.113 1.989 255 255 255
-0.172 0.193 1.999 255 255 255
0.801 -1.18 2.274 255 255 255
0.697 0.114 2.205 255 255 255
0.334 -1.36 2.08 255 255 255
1.064 -0.905 2.299 255 255 255
1.602 0.127 2.413 255 255 255
-0.766 -1.378 2.005 255 255 255
-0.049 0.162 2.025 255 255 255
-0.977 -0.104 1.877 0 0 0
0.025 0.879 1.991 0 0 0
-0.929 -0.344 1.323 255 255 255
0.344 -1.369 1.942 255 255 255
-0.462 -0.18 1.273 0 0 0
0.122 0.806 2.016 255 255 255
0.188 -1.359 2.158 255 255 255
-0.119 0.67 1.977 255 255 255
0.93 -1.135 2.298 255 255 255
0.071 0.843 2.005 255 255 255
-0.221 0.782 1.949 255 255 255
0.766 -0.527 2.228 255 255 255
-0.95 -0.827 1.916 255 255 255
-0.263 0.712 1.937 255 255 255
0.907 -0.946 2.272 255 255 255
-0.936 -0.491 1.504 255 255 255
0.347 -0.592 2.141 255 255 255
0.4 -1.365 1.838 0 0 0
-0.549 0.26 1.225 255 255 255
0.752 -0.621 2.216 255 255 255
-0.149 -0.003 2.011 255 255 255
0.326 -0.851 2.157 255 255 255
-0.996 -0.035 1.868 255 255 255
0.467 -1.351 1.994 255 255 255
1.301 0.285 2.307 255 255 255
-0.712 -1.439 2.767 255 255 255
-0.017 0.564 2.002 255 255 255
-0.075 -0.366 2.053 255 255 255
-1.08 -0.019 1.819 255 255 255
-0.172 -0.103 2.006 255 255 255
-1.011 -0.377 1.731 255 255 255
0.073 -0.04 2.054 255 255 255
-0.957 -0.281 1.891 255 255 255
1.366 0.068 2.334 255 255 255
-0.327 0.702 1.952 255 255 255
0.135 0.437 2.038 255 255 255
0.346 0.457 2.076 255 255 255
-0.951 -0.221 1.336 255 255 255
-0.913 -0.208 1.874 255 255 255
0.888 0.291 2.228 255 255 255
0.947 -0.336 2.279 255 255 255
0.336 -0.658 2.145 255 255 255
1.117 -0.063 2.293 255 255 255
0.687 -1.07 2.247 255 255 255
0.481 0.01 2.13 255 255 255
0.004 0.296 2.024 255 255 255
-0.114 -0.193 2.03 255 255 255
0.336 -0.654 2.145 255 255 255
0.323 -0.003 2.101 0 0 0
0.688 0.404 2.186 255 255 255
-0.339 -1.142 2.12 255 255 255
0.238 -1.215 2.18 255 255 255
0.454 -0.754 2.174 255 255 255
-0.76 -1.426 2.959 255 255 255
-0.995 -0.541 1.815 255 255 255
0.673 -1.313 2.047 255 255 255
0.982 -0.617 2.26 255 255 255
0.752 -0.022 2.227 255 255 255
-0.121 -0.084 2.024 255 255 255
0.463 0.43 2.096 255 255 255
1.585 -0.609 2.371 255 255 255
0.167 -0.544 2.109 255 255 255
-0.607 0.032 1.345 255 255 255
-0.664 0.441 1.306 255 255 255
-0.38 -1.406 2.691 255 255 255
-1.074 -0.032 1.85 255 255 255
-0.217 0.485 1.968 255 255 255
-0.976 -0.14 1.397 255 255 255
0.538 -1.346 1.764 255 255 255
1.269 -0.059 2.327 255 255 255
1.551 -0.685 2.37 255 255 255
1.196 -1.195 2.327 255 255 255
0.565 0.258 2.131 255 255 255
1.546 -0.701 2.369 255 255 255
1.527 -1.026 2.4 255 255 255
0.876 0.998 2.184 0 0 0
0.033 -1.346 2.142 255 255 255
0.253 -0.606 2.132 255 255 255
0.31 -1 2.172 255 255 255
-0.299 0.444 1.98 0 0 0
-0.273 -1.19 2.063 255 255 255
0.081 0.123 2.049 255 255 255
0.986 0.254 2.251 255 255 255
0.042 0.9 1.993 0 0 0
-0.491 -0.286 1.283 255 255 255
0.187 0.848 2.022 255 255 255
-1.089 0.057 1.817 255 255 255
0.74 0.449 2.191 255 255 255
0.256 -0.431 2.116 255 255 255
0.078 0.523 2.024 255 255 255
0.859 -1.276 2.134 255 255 255
-0.093 0.412 2 255 255 255
-0.112 -0.699 2.083 255 255 255
-0.17 0.57 1.975 255 255 255
-0.285 0.643 1.937 255 255 255
1.307 0.199 2.313 255 255 255
1.431 -0.949 2.37 255 255 255
-0.548 0.302 1.231 255 255 255
-0.029 0.472 2.008 255 255 255
0.228 0.442 2.056 255 255 255
0.681 0.191 2.198 255 255 255
-0.651 -1.516 1.96 255 255 255
0.131 0.879 2.01 255 255 255
1.454 -0.739 2.354 255 255 255
0.136 -0.16 2.07 0 0 0
1.051 -0.814 2.29 255 255 255
-0.184 -0.011 1.997 255 255 255
-1.09 0.196 1.837 255 255 255
1.201 0.582 2.273 255 255 255
0.421 0.209 2.108 255 255 255
1.09 0.449 2.254 255 255 255
-0.17 0.545 1.976 255 255 255
0.21 -1.394 1.889 0 0 0
-0.641 0.376 1.299 255 255 255
0.276 -0.003 2.098 255 255 255
-0.033 0.381 2.01 255 255 255
-0.199 -1.432 2.072 255 255 255
-0.856 -1.423 1.947 0 0 0
-0.949 -0.58 1.615 255 255 255
0.227 0.187 2.073 255 255 255
0.761 0.884 2.166 255 255 255
1.02 -0.416 2.301 255 255 255
0.852 -0.591 2.231 255 255 255
0.294 -1.379 1.935 255 255 255
0.716 -0.327 2.236 255 255 255
-0.974 -0.21 1.444 255 255 255
-0.804 -1.512 2.001 255 255 255
-0.922 -0.96 1.939 255 255 255
-0.254 0.657 1.942 255 255 255
-0.073 0.396 2.002 255 255 255
0.02 0.643 2.006 255 255 255
0.307 -1.38 1.894 0 0 0
0.777 0.802 2.175 255 255 255
0.702 -0.631 2.212 255 255 255
0.049 -0.155 2.06 255 255 255
-0.133 0.349 1.994 255 255 255
-0.261 -1.361 2.907 255 255 255
1.016 0.635 2.232 255 255 255
-0.302 -1.465 1.953 0 0 0
0.746 -1.011 2.252 255 255 255
0.094 -0.982 2.123 255 255 255
0.942 -0.184 2.265 255 255 255
0.135 0.833 2.013 255 255 255
-0.936 -0.404 1.437 255 255 255
-0.065 0.307 2.01 255 255 255
-0.675 1.284 2.702 255 255 255
-0.458 -1.469 2.045 255 255 255
0.332 -0.564 2.139 255 255 255
1.125 0.557 2.254 255 255 255
0.71 -1.306 2.057 255 255 255
-1.026 -0.361 1.821 255 255 255
0.822 0.641 2.194 255 255 255
0.343 -0.807 2.158 255 255 255
-0.931 -0.733 1.92 255 255 255
1.424 0.312 2.323 255 255 255
0.22 0.966 2.024 255 255 255
0.085 0.969 1.996 255 255 255
0.182 0.503 2.043 255 255 255
-0.118 -0.324 2.024 255 255 255
1.242 0.647 2.272 255 255 255
0.17 -0.095 2.083 255 255 255
1.556 -0.772 2.372 255 255 255
0.611 0.313 2.175 255 255 255
0.476 0.091 2.124 255 255 255
-0.249 0.885 1.941 0 0 0
0.287 -0.198 2.11 0 0 0
0.824 0.551 2.202 255 255 255
-0.709 1.249 2.577 255 255 255
0.053 -0.032 2.053 255 255 255
-0.445 -0.365 1.291 255 255 255
0.237 -0.534 2.119 255 255 255
0.27 -1.353 2.162 255 255 255
-0.945 -0.844 1.814 255 255 255
1.24 0.351 2.289 255 255 255
-0.025 -0.371 2.059 255 255 255
1.132 -0.438 2.31 255 255 255
-0.945 -0.852 1.833 255 255 255
1.137 0.085 2.287 255 255 255
0.405 0.678 2.072 255 255 255
-0.013 0.394 2.013 255 255 255
0.008 0.963 1.985 255 255 255
0.215 0.362 2.059 255 255 255
-0.951 -0.286 1.388 255 255 255
0.443 -1.15 2.208 255 255 255
-0.188 -0.043 1.999 255 255 255
-0.487 -0.312 1.286 255 255 255
0.764 0.23 2.211 255 255 255
0.735 0.422 2.195 255 255 255
-1.025 0.122 1.848 255 255 255
1.238 -0.313 2.334 255 255 255
-0.184 -0.236 2.039 255 255 255
0.779 0.517 2.192 255 255 255
0.741 0.71 2.177 255 255 255
0.712 0.25 2.199 255 255 255
-0.048 -1.371 2.133 255 255 255
0.246 -1.356 2.159 255 255 255
-0.478 -0.094 1.269 255 255 255
1.199 0.16 2.293 255 255 255
-0.863 -0.455 1.908 255 255 255
0.143 0.058 2.06 0 0 0
0.882 0.309 2.225 255 255 255
0.329 -0.273 2.124 0 0 0
-0.139 0.975 1.955 255 255 255
0.012 -0.762 2.092 255 255 255
-0.02 -1.342 2.135 255 255 255
-0.288 0.572 1.943 255 255 255
1.18 0.317 2.279 255 255 255
0.742 -0.328 2.24 255 255 255
0.471 0.142 2.119 255 255 255
0.074 -0.156 2.075 255 255 255
0.614 -1.188 2.245 255 255 255
0.735 0.449 2.191 255 255 255
0.303 0.473 1.143 255 255 255
1.54 -0.664 2.356 255 255 255
0.566 0.28 2.133 255 255 255
0.258 -0.906 2.15 255 255 255
0.282 0.574 1.073 255 255 255
-0.122 -0.563 2.052 255 255 255
-0.605 0.366 1.245 255 255 255
0.008 -0.089 2.049 255 255 255
1.276 -0.855 2.332 255 255 255
-1.02 -0.278 1.688 255 255 255
-0.938 -0.195 1.222 255 255 255
0.712 0.764 2.168 255 255 255
0.362 -0.696 2.158 255 255 255
1.072 -1.219 2.31 255 255 255
0.029 -0.426 2.077 255 255 255
-0.841 -0.901 1.975 255 255 255
-0.968 -0.224 1.427 255 255 255
0.342 -0.592 2.142 255 255 255
0.349 0.098 2.1 255 255 255
-0.872 1.285 2.47 255 255 255
0.736 -1.303 2.097 255 255 255
-0.346 -1.396 2.079 255 255 255
1.055 -0.038 2.281 255 255 255
0.868 -0.897 2.267 255 255 255
0.22 0.446 2.055 255 255 255
0.399 0.615 1.16 255 255 255
0.784 -0.185 2.243 255 255 255
-0.555 -1.414 2.7 0 0 0
0.028 0.074 2.041 255 255 255
1.225 -0.185 2.318 255 255 255
-0.083 0.789 1.974 255 255 255
0.237 -0.952 2.152 255 255 255
-0.785 -1.444 2.007 255 255 255
-0.033 0.658 1.996 255 255 255
-0.21 0.223 1.977 255 255 255
0.55 0.318 2.121 255 255 255
0.18 0.707 2.032 255 255 255
-0.493 -0.182 1.262 255 255 255
0.162 -0.295 2.081 255 255 255
0.57 -1.312 2.187 255 255 255
-0.286 0.439 1.977 255 255 255
0.086 0.616 2.016 255 255 255
0.46 0.61 1.187 255 255 255
-0.261 0.642 1.938 255 255 255
-0.347 0.801 1.951 255 255 255
-0.037 0.19 2.022 255 255 255
1.749 -0.015 2.45 255 255 255
0.268 -0.658 2.136 255 255 255
0.509 0.018 2.132 255 255 255
0.073 0.225 2.039 255 255 255
-0.453 -0.378 1.285 255 255 255
0.899 -0.918 2.273 255 255 255
1.539 -0.245 2.385 255 255 255
-0.438 -1.386 2.962 255 255 255
-0.117 0.354 1.997 255 255 255
0.508 -0.745 2.186 255 255 255
0.1 0.701 2.017 255 255 255
0.759 0.845 2.172 255 255 255
0.515 -0.361 2.16 255 255 255
1.135 0.241 2.275 255 255 255
-0.042 -1.211 2.12 255 255 255
0.717 0.251 2.2 255 255 255
1.664 0.161 2.419 255 255 255
0.82 -1.307 1.685 255 255 255
-0.935 -0.304 1.331 255 255 255
0.081 0.115 2.05 255 255 255
0.468 -0.736 2.177 255 255 255
0.184 -0.263 2.095 255 255 255
-0.059 -1.431 1.931 0 0 0
1.179 -0.148 2.311 255 255 255
0.556 -0.484 2.178 255 255 255
0.284 0.468 1.184 255 255 255
-0.184 -0.019 2 255 255 255
0.17 0.571 2.037 255 255 255
0.588 -0.139 2.155 255 255 255
-0.604 0.379 1.24 255 255 255
1.269 -0.924 2.337 255 255 255
0.563 0.227 2.127 255 255 255
1.182 -1.197 2.321 255 255 255
0.776 -1.303 1.776 0 0 0
0.115 -0.122 2.066 255 255 255
-1.059 -0.083 1.718 255 255 255
-0.138 0.575 1.979 255 255 255
0.354 0.17 2.098 255 255 255
0.563 -0.553 2.177 255 255 255
-1.061 0.28 1.832 255 255 255
-0.347 -1.41 2.081 255 255 255
-0.564 -1.18 2.046 0 0 0
-0.054 -0.324 2.054 255 255 255
-0.892 -0.956 1.938 255 255 255
0.972 0.181 2.248 255 255 255
0.849 0.261 2.221 255 255 255
-1.124 0.285 1.811 255 255 255
-0.06 -0.672 2.06 255 255 255
1.484 0.169 2.344 255 255 255
0.792 -1.296 1.98 255 255 255
-0.429 -0.558 1.299 255 255 255
0.029 -0.64 2.087 255 255 255
0.656 0.298 2.185 255 255 255
0.904 -0.835 2.264 255 255 255
1.494 -0.412 2.352 255 255 255
0.93 -0.677 2.253 255 255 255
1.091 -1.226 2.28 255 255 255
-0.091 0.728 1.98 255 255 255
-0.196 -1.438 2.028 255 255 255
-0.494 -1.372 2.05 255 255 255
0.292 0.461 1.187 255 255 255
-0.984 -0.326 1.577 255 255 255
0.804 -0.745 2.238 255 255 255
0.061 -0.18 2.07 0 0 0
-0.026 0.936 1.979 255 255 255
-0.148 -1.435 2.009 255 255 255
0.245 -0.274 2.109 255 255 255
0.273 0.8 2.039 255 255 255
-0.74 -1.338 2.004 255 255 255
1.747 -0.145 2.454 255 255 255
-0.934 -0.398 1.422 255 255 255
0.885 0.39 2.222 255 255 255
-0.983 -0.227 1.88 255 255 255
-0.24 1.03 1.931 255 255 255
0.555 -0.395 2.169 255 255 255
0.205 0.611 1.111 255 255 255
0.354 0.432 2.076 255 255 255
0.108 -0.29 2.077 0 0 0
1.303 -0.08 2.333 255 255 255
0.286 -1.378 1.986 255 255 255
0.232 0.706 2.038 255 255 255
1.044 -1.08 2.314 255 255 255
-0.081 0.298 2.008 255 255 255
-0.045 0.471 2.005 255 255 255
0.274 -1.244 2.188 255 255 255
0.928 -0.463 2.284 255 255 255
-0.913 -0.15 1.85 255 255 255
-0.957 -0.283 1.429 255 255 255
-0.941 -0.87 1.929 255 255 255
0.821 0.947 2.178 255 255 255
1.489 -0.518 2.34 255 255 255
-0.215 -0.084 2.032 255 255 255
1.087 0.108 2.276 255 255 255
1.333 -0.178 2.339 255 255 255
0.396 0.465 1.215 0 0 0
-0.046 -1.108 2.114 255 255 255
-0.077 -0.076 2.032 255 255 255
1.183 0.075 2.299 255 255 255
0.766 -1.301 1.976 255 255 255
1.042 -0.618 2.271 255 255 255
0.999 -1.233 2.283 255 255 255
0.744 0.047 2.218 255 255 255
0.828 -0.05 2.243 255 255 255
-0.087 0.702 1.982 255 255 255
0.544 -0.832 2.2 255 255 255
0.256 -1.082 2.169 255 255 255
-1.002 -0.5 1.8 255 255 255
1.617 0.165 2.412 255 255 255
0.854 0.71 2.199 255 255 255
-0.861 -0.781 1.96 255 255 255
0.359 0.424 2.079 255 255 255
0.455 -0.508 2.158 255 255 255
-0.356 -1.214 2.048 255 255 255
0.145 0.634 2.028 255 255 255
0.342 -1.372 1.887 0 0 0
0.74 0.06 2.219 255 255 255
0.737 -1.317 1.733 0 0 0
0.187 0.604 1.186 255 255 255
-1.027 0.306 1.855 255 255 255
0.576 -1.339 1.778 0 0 0
0.853 0.463 2.211 255 255 255
-0.316 -1.359 2.962 255 255 255
0.665 -0.491 2.193 255 255 255
-0.118 -0.59 2.054 255 255 255
0.231 -1.044 2.16 255 255 255
0.666 -0.416 2.191 255 255 255
-0.866 -0.878 1.947 255 255 255
0.008 0.473 2.012 255 255 255
0.51 -1.34 2.026 255 255 255
-0.483 -1.39 2.875 255 255 255
0.54 0.312 2.117 255 255 255
-0.128 -0.465 2.038 255 255 255
-0.073 0.311 2.011 255 255 255
-0.021 0.041 2.037 255 255 255
0.971 -0.925 2.288 255 255 255
0.013 -1.007 2.112 255 255 255
0.935 -1.276 1.906 255 255 255
0.269 -1.142 2.178 255 255 255
0.745 -1.256 2.26 255 255 255
0.939 0.303 2.236 255 255 255
1.142 -1.238 2.174 255 255 255
-0.261 0.293 1.989 255 255 255
0.107 -0.077 2.07 255 255 255
1.401 0.022 2.341 255 255 255
0.521 -0.108 2.144 255 255 255
0.756 0.605 2.184 255 255 255
0.798 0.43 2.202 255 255 255
0.7 0.55 2.187 255 255 255
0.075 0.848 2.004 255 255 255
0.882 -1.142 2.286 255 255 255
-0.911 -0.564 1.451 255 255 255
-1.051 0.203 1.837 255 255 255
1.028 -0.296 2.294 255 255 255
-0.375 1.041 1.918 255 255 255
1.015 -0.216 2.283 255 255 255
0.45 -0.498 2.157 255 255 255
0.433 -0.419 2.148 255 255 255
0.585 -0.896 2.212 255 255 255
-0.93 -0.331 1.308 255 255 255
0.219 0.569 1.134 255 255 255
0.134 0.743 2.02 255 255 255
-0.527 1.286 2.483 255 255 255
-0.84 -1.198 1.965 255 255 255
1.086 -0.023 2.288 255 255 255
0.128 -0.168 2.072 0 0 0
0.27 -0.257 2.106 255 255 255
-0.549 0.093 1.247 255 255 255
1.061 0.825 2.231 255 255 255
0.536 0.699 2.134 255 255 255
-0.958 -0.762 1.784 255 255 255
-0.971 -0.314 1.886 255 255 255
-0.952 -0.142 1.272 255 255 255
1.183 -0.367 2.327 255 255 255
0.372 -0.222 2.125 0 0 0
-0.073 0.242 2.012 255 255 255
-0.143 -1.334 2.119 255 255 255
-0.053 -0.125 2.039 255 255 255
1.427 -1.009 2.372 255 255 255
1.158 -0.573 2.284 255 255 255
1.14 -1.258 2.07 255 255 255
-0.203 1.047 1.937 255 255 255
-0.924 -0.844 1.931 255 255 255
0.082 -0.27 2.057 0 0 0
0.213 0.593 1.121 255 255 255
0.905 -0.787 2.263 255 255 255
-1.073 1.266 2.604 255 255 255
0.298 0.453 1.318 0 0 0
-0.009 -0.779 2.088 255 255 255
0.252 -1.344 2.178 255 255 255
0.304 0.571 1.064 255 255 255
1.026 -1.23 2.294 255 255 255
-1.072 -0.08 1.846 255 255 255
0.099 -1.391 2.089 255 255 255
0.951 0.693 2.22 255 255 255
1.506 -0.292 2.382 255 255 255
-0.122 0.967 1.959 255 255 255
-0.839 -1.334 1.982 255 255 255
0.828 -1.293 1.835 255 255 255
1.443 -0.394 2.356 0 0 0
0.187 -1.159 2.163 255 255 255
-0.51 0.022 1.248 255 255 255
0.823 -0.387 2.264 255 255 255
1.382 -1.178 2.336 255 255 255
-0.583 0.344 1.221 255 255 255
-0.923 -0.572 1.522 255 255 255
0.28 -0.766 2.145 255 255 255
0.024 -0.117 2.052 0 0 0
1.032 0.212 2.261 255 255 255
-0.009 0.353 2.015 255 255 255
0.377 -0.411 2.137 255 255 255
0.038 0.984 1.987 255 255 255
0.615 -1.338 1.737 255 255 255
-0.556 0.373 1.222 255 255 255
-0.442 -1.223 2.032 255 255 255
0.369 -0.443 2.139 255 255 255
-0.487 -1.447 2.054 255 255 255
-0.172 -1.414 2.102 255 255 255
0.184 0.194 2.058 255 255 255
0.477 0.483 2.095 255 255 255
0.793 -0.443 2.26 255 255 255
0.284 -0.745 2.141 255 255 255
-0.958 -0.185 1.343 255 255 255
-1.032 1.272 2.613 255 255 255
0.112 1.07 1.995 255 255 255
0.124 0.988 2.002 255 255 255
0.177 0.756 2.026 255 255 255
0.326 -1.372 1.939 255 255 255
-0.359 -1.179 2.054 255 255 255
-0.042 -0.479 2.065 255 255 255
0.536 0.278 2.122 255 255 255
1.206 -0.179 2.317 255 255 255
-0.061 0.134 2.022 255 255 255
-0.491 -0.081 1.264 255 255 255
0.514 -0.7 2.181 255 255 255
0.945 -0.094 2.264 255 255 255
-0.881 -1.282 1.932 255 255 255
0.834 -1.296 1.757 0 0 0
-0.839 -1.355 1.988 255 255 255
0.447 -0.098 2.133 255 255 255
0.162 -0.236 2.084 255 255 255
0.628 -0.367 2.18 255 255 255
0.721 -0.477 2.251 255 255 255
0.227 -1.172 2.175 255 255 255
0.458 -0.949 2.194 255 255 255
-0.036 -0.938 2.083 255 255 255
0.081 -1.388 2.121 255 255 255
0.55 -0.64 2.185 255 255 255
0.057 -0.073 2.06 255 255 255
0.363 0.457 1.169 0 0 0
1.443 0.038 2.345 255 255 255
0.889 0.63 2.21 255 255 255
-0.983 0.307 1.845 255 255 255
0.84 -1.277 2.175 255 255 255
-0.113 -0.084 2.025 255 255 255
0.712 0.769 2.166 255 255 255
0.285 -0.883 2.154 255 255 255
0.793 -1.307 1.646 255 255 255
1.538 -0.776 2.375 255 255 255
0.008 -0.032 2.047 0 0 0
0.145 -1.404 1.899 0 0 0
0.315 0.426 2.074 255 255 255
0.848 0.926 2.186 255 255 255
0.163 0.636 1.215 255 255 255
0.061 -1.245 2.149 255 255 255
-0.181 1.005 1.945 255 255 255
-0.497 -0.052 1.259 255 255 255
0.334 0.738 2.054 255 255 255
-0.058 0.634 1.991 255 255 255
0.878 0.085 2.241 255 255 255
0.555 -0.126 2.151 255 255 255
0.258 0.238 2.077 255 255 255
0.258 -1.364 2.132 255 255 255
0.219 -1.233 2.173 255 255 255
0.041 0.563 2.014 255 255 255
0.391 -0.275 2.132 0 0 0
0.767 -1.25 2.266 255 255 255
0.772 -0.161 2.238 255 255 255
-0.351 0.788 1.951 255 255 255
0.506 -1.344 1.865 0 0 0
0.416 -0.985 2.187 255 255 255
0.734 -0.155 2.229 255 255 255
-0.956 0.217 1.811 255 255 255
1.6 -0.559 2.37 255 255 255
0.104 -0.735 2.109 255 255 255
0.839 -0.046 2.247 255 255 255
-0.037 0.365 2.012 255 255 255
0.066 -1.292 2.151 255 255 255
0.047 -1.255 2.147 255 255 255
0.543 -0.533 2.174 255 255 255
-0.036 -1.428 1.91 0 0 0
-0.504 1.045 2.17 255 255 255
0.422 0.052 2.12 255 255 255
0.526 -0.648 2.182 255 255 255
-0.493 -1.395 2.899 255 255 255
-0.292 0.767 1.927 255 255 255
0.205 -0.179 2.097 255 255 255
0.156 0.467 2.039 255 255 255
-0.545 0.121 1.238 255 255 255
0.896 -0.509 2.25 255 255 255
0.704 0.614 2.175 255 255 255
0.315 -1.301 2.191 255 255 255
-0.932 -0.308 1.915 255 255 255
0.512 0.246 2.116 255 255 255
0.004 0.518 2.007 255 255 255
-0.919 -0.486 1.413 255 255 255
0.17 -0.498 2.102 255 255 255
0.354 0.136 2.1 255 255 255
0.112 -0.958 2.126 255 255 255
0.531 0.269 2.12 255 255 255
1.558 -0.284 2.39 255 255 255
0.045 -0.314 2.069 255 255 255
-0.815 -1.541 1.938 255 255 255
-0.556 0.286 1.218 255 255 255
0.91 0.936 2.195 255 255 255
0.178 -0.103 2.086 255 255 255
0.044 0.355 2.026 255 255 255
0.528 -0.416 2.166 255 255 255
0.657 -0.597 2.2 255 255 255
0.264 -0.104 2.098 255 255 255
1.148 -1.168 2.336 255 255 255
1.721 -0.344 2.468 255 255 255
-0.133 0.113 2.01 255 255 255
1.321 0.184 2.317 255 255 255
1.658 -0.295 2.456 255 255 255
0.952 -0.813 2.265 255 255 255
-0.518 -0.201 1.295 255 255 255
-0.418 -1.283 2.061 255 255 255
-1.058 0.329 1.829 255 255 255
0.119 0.968 2.002 255 255 255
0.99 -1.274 1.955 255 255 255
1.49 -0.825 2.363 255 255 255
0.437 -0.115 2.13 255 255 255
0.319 0.341 2.079 255 255 255
-0.068 -1.389 2.124 255 255 255
0.985 -0.83 2.277 255 255 255
-0.978 -0.666 1.88 255 255 255
-0.829 -1.349 1.99 255 255 255
1.668 -0.515 2.372 255 255 255
-0.108 -0.487 2.041 255 255 255
0.13 0.824 2.013 255 255 255
-0.037 0.513 2.002 255 255 255
1.205 0.484 2.274 255 255 255
0.342 0.707 2.057 255 255 255
0.301 0.625 2.06 255 255 255
0.909 0.444 2.225 255 255 255
-1.051 0.058 1.844 255 255 255
0.933 0.862 2.205 255 255 255
0.482 0.479 2.098 255 255 255
-0.95 -0.29 1.895 0 0 0
0.823 0.232 2.221 255 255 255
1.35 0.369 2.309 255 255 255
0.187 -0.053 2.093 255 255 255
0.692 0.06 2.208 255 255 255
0.94 0.825 2.203 255 255 255
0.112 -1.195 2.151 255 255 255
-0.924 -0.449 1.401 255 255 255
-0.58 0.197 1.261 255 255 255
-0.584 -1.418 2.69 0 0 0
-0.087 -1.399 2.12 255 255 255
-0.913 -0.842 1.929 255 255 255
-1.036 -0.283 1.875 255 255 255
-0.054 0.712 1.987 255 255 255
-0.872 -0.699 1.948 255 255 255
0.616 0.162 2.188 255 255 255
0.575 0.075 2.142 255 255 255
0.288 -0.305 2.11 255 255 255
0.601 -0.845 2.212 255 255 255
-0.743 -1.44 2.822 255 255 255
-0.138 0.533 1.981 255 255 255
-0.706 1.278 2.556 255 255 255
-0.526 -1.429 2.665 255 255 255
-0.515 -0.062 1.252 255 255 255
1.653 -0.548 2.376 255 255 255
0.796 -1.285 2.167 255 255 255
-0.364 0.949 1.933 255 255 255
0.147 0.346 2.045 255 255 255
-0.997 -0.311 1.882 255 255 255
-0.911 -0.542 1.917 0 0 0
-0.24 1.025 1.931 255 255 255
1.16 -0.617 2.293 255 255 255
0.198 0.145 2.07 255 255 255
-0.457 -0.218 1.279 0 0 0
1.044 -0.013 2.281 255 255 255
1.256 0.428 2.288 255 255 255
-0.269 -1.368 2.846 255 255 255
-0.055 -1.122 2.11 255 255 255
-1.032 -0.146 1.868 255 255 255
-0.184 0.702 1.964 255 255 255
0.437 0.502 2.088 255 255 255
-0.4 -0.724 1.316 255 255 255
0.94 0.593 2.226 255 255 255
0.645 0.23 2.188 255 255 255
0.407 0.124 2.108 255 255 255
0.255 -0.949 2.156 255 255 255
-0.017 -0.027 2.041 255 255 255
0.486 -0.177 2.144 255 255 255
0.202 -0.541 2.113 255 255 255
0.813 0.768 2.185 255 255 255
-0.574 0.339 1.215 255 255 255
0.767 0.611 2.186 255 255 255
0.014 -1.362 2.138 255 255 255
0.695 -0.058 2.216 255 255 255
-0.135 0.965 1.955 255 255 255
0.31 0.014 2.099 255 255 255
0.323 -1.067 2.178 255 255 255
-0.021 0.68 1.995 255 255 255
0.953 -1.276 1.9 255 255 255
-0.376 -1.414 2.075 255 255 255
-0.86 -0.854 1.95 255 255 255
0.058 -0.991 2.122 255 255 255
0.16 -0.422 2.098 255 255 255
-0.056 -0.686 2.061 255 255 255
-0.974 -0.096 1.879 0 0 0
0.004 -0.229 2.058 255 255 255
0.455 0.66 2.082 255 255 255
-1.014 -0.325 1.885 255 255 255
0.238 0.539 1.099 255 255 255
0.523 0.399 2.11 255 255 255
1.166 -1.241 2.147 255 255 255
-0.25 0.109 2.01 255 255 255
0.105 -0.415 2.088 255 255 255
0.037 0.913 1.991 0 0 0
0.536 -1.049 2.215 255 255 255
-0.932 1.285 2.669 255 255 255
0.394 0.567 1.161 255 255 255
0.36 0.551 1.122 255 255 255
0.939 -0.795 2.264 255 255 255
-0.997 0.263 1.85 255 255 255
-0.097 -0.092 2.029 255 255 255
0.767 -0.583 2.22 255 255 255
-0.018 1.004 1.977 255 255 255
1.052 0.262 2.264 255 255 255
0.964 -0.377 2.29 255 255 255
-0.855 -1.404 1.89 0 0 0
0.035 -0.968 2.116 255 255 255
0.153 -0.165 2.084 0 0 0
0.55 0.14 2.133 255 255 255
0.66 -1.323 1.898 255 255 255
1.102 0.264 2.275 255 255 255
-0.154 -0.266 2.02 255 255 255
-0.128 -0.63 2.082 255 255 255
-0.497 -1.214 2.028 255 255 255
-0.629 -1.408 2.971 255 255 255
-0.597 0.009 1.344 255 255 255
-0.934 -0.437 1.902 255 255 255
1.243 -0.361 2.34 255 255 255
0.548 -1.341 1.87 255 255 255
0.361 0.541 2.074 255 255 255
0.541 -0.169 2.15 255 255 255
0.657 -0.373 2.182 255 255 255
0.193 0.588 1.213 255 255 255
0.065 -0.805 2.106 255 255 255
-0.917 -0.461 1.369 255 255 255
0.485 0.293 2.112 255 255 255
-0.069 0.462 2.002 255 255 255
-0.607 0.411 1.232 255 255 255
0.369 0.459 2.081 255 255 255
0.66 0.145 2.195 255 255 255
0.094 -1.252 2.15 255 255 255
0.159 -1.395 1.994 255 255 255
-0.067 -0.551 2.056 255 255 255
0.408 -1.093 2.198 255 255 255
-0.242 -1.126 2.139 255 255 255
0.886 -0.905 2.27 255 255 255
-0.448 -0.46 1.288 255 255 255
0.324 0.489 1.132 255 255 255
0.107 1.055 1.995 255 255 255
-0.892 -0.736 1.497 255 255 255
0.587 -1.072 2.233 255 255 255
0.844 0.089 2.232 255 255 255
0.502 0.538 2.096 255 255 255
-0.526 -1.401 2.862 255 255 255
0.797 0.102 2.226 255 255 255
0.175 -1.38 2.106 255 255 255
0.485 -0.914 2.194 255 255 255
1.193 0.484 2.274 255 255 255
0.143 -1.292 2.168 255 255 255
1.168 -1.124 2.341 255 255 255
1.633 -0.131 2.438 255 255 255
0.673 -0.427 2.197 255 255 255
-0.974 -0.241 1.48 255 255 255
0.279 0.26 2.078 255 255 255
0.23 0.575 2.048 255 255 255
-0.954 -0.392 1.502 255 255 255
-0.14 -0.401 2.034 255 255 255
0.687 -1.111 2.251 255 255 255
0.358 0.132 2.101 255 255 255
-0.951 -0.779 1.774 255 255 255
-0.171 0.013 1.996 255 255 255
0.272 0.001 2.098 255 255 255
0.793 -1.303 1.798 0 0 0
1.253 -0.201 2.325 255 255 255
0.636 0.692 2.156 255 255 255
-0.05 -1.033 2.102 255 255 255
-0.005 -0.728 2.089 255 255 255
-0.871 -1.089 1.954 255 255 255
0.004 -1.324 2.136 255 255 255
0.398 -0.467 2.145 255 255 255
-0.471 -0.167 1.275 0 0 0
0.291 0.582 1.055 255 255 255
0.257 0.865 2.035 255 255 255
0.28 -0.625 2.134 255 255 255
-0.581 0.419 1.207 255 255 255
-0.009 -0.897 2.092 255 255 255
1.242 0.427 2.285 255 255 255
-0.67 0.446 1.31 255 255 255
0.45 -0.904 2.187 255 255 255
1.652 0.15 2.423 255 255 255
0.198 0.001 2.072 255 255 255
-0.972 -0.17 1.882 0 0 0
0.935 1.075 2.192 255 255 255
-0.238 0.365 1.962 255 255 255
0.31 0.005 2.1 255 255 255
0.819 -0.238 2.252 255 255 255
0.235 0.658 2.043 255 255 255
-0.627 0.203 1.33 255 255 255
1.63 -0.736 2.385 255 255 255
0.885 -0.631 2.242 255 255 255
0.253 -0.304 2.106 0 0 0
0.379 -0.314 2.132 0 0 0
0.585 0.018 2.147 255 255 255
1.516 0.023 2.367 255 255 255
0.786 0.304 2.21 255 255 255
0.393 -1.239 2.208 255 255 255
0.317 -0.661 2.141 255 255 255
-0.971 -0.149 1.881 0 0 0
0.442 0.58 1.193 255 255 255
0.179 -0.721 2.12 255 255 255
0.283 0.632 2.056 255 255 255
-0.102 0.523 1.99 255 255 255
1 -0.404 2.295 255 255 255
-0.914 -0.578 1.474 255 255 255
-0.108 0.835 1.972 255 255 255
0.069 -0.011 2.055 255 255 255
1.151 0.601 2.263 255 255 255
0.8 0.134 2.219 255 255 255
0.316 -0.471 2.132 255 255 255
-0.071 -0.912 2.092 255 255 255
0.784 -1.296 2.053 255 255 255
0.564 0.695 2.133 255 255 255
1.102 -0.605 2.282 255 255 255
0.625 -0.986 2.23 255 255 255
1.123 -0.753 2.299 255 255 255
0.641 0.18 2.192 255 255 255
-0.464 -0.301 1.279 255 255 255
-0.922 -0.577 1.913 255 255 255
0.248 -0.6 2.129 255 255 255
-0.627 -1.421 2.922 0 0 0
-0.974 -0.344 1.889 255 255 255
0.663 0.015 2.207 255 255 255
0.344 0.165 2.094 255 255 255
0.957 0.515 2.228 255 255 255
0.329 -0.067 2.106 255 255 255
-0.391 -1.027 1.374 0 0 0
0.916 0.698 2.213 255 255 255
-0.906 -0.701 1.544 255 255 255
0.911 0.18 2.24 255 255 255
-0.993 0.328 1.843 255 255 255
0.252 1.018 2.015 255 255 255
0.661 -0.763 2.214 255 255 255
0.991 -1.27 1.999 255 255 255
0.271 -0.984 2.163 255 255 255
0.499 -0.151 2.145 255 255 255
0.024 0.333 2.022 255 255 255
1.345 0.052 2.33 255 255 255
1.651 -0.518 2.367 255 255 255
0.203 0.571 1.164 255 255 255
-0.953 -0.298 1.421 255 255 255
1.591 -0.086 2.418 255 255 255
1.594 -0.463 2.363 255 255 255
0.131 0.45 2.037 255 255 255
0.359 -1.374 1.823 0 0 0
-0.457 -1.317 2.054 255 255 255
0.466 -0.15 2.137 255 255 255
0.148 -0.119 2.075 255 255 255
0.433 0.555 1.192 0 0 0
-0.101 0.265 2.005 255 255 255
0.579 -0.484 2.178 255 255 255
-1.079 0.025 1.851 255 255 255
-0.171 0.084 1.994 255 255 255
0.437 -0.076 2.13 255 255 255
0.254 -1.257 2.181 255 255 255
-0.136 -1.264 2.111 255 255 255
0.661 0.271 2.188 255 255 255
-0.856 -0.842 1.957 255 255 255
0.731 -0.4 2.246 255 255 255
0.258 0.534 1.091 255 255 255
0.377 0.644 2.072 255 255 255
0.131 -0.118 2.061 255 255 255
-0.049 -0.007 2.036 255 255 255
-0.001 0.309 2.023 255 255 255
0.625 -0.316 2.175 255 255 255
-0.755 -1.365 2.007 255 255 255
1.522 -0.956 2.375 255 255 255
1.148 -1.216 2.292 255 255 255
-0.938 -0.88 1.931 255 255 255
0.674 -1.14 2.254 255 255 255
0.723 -0.699 2.219 255 255 255
1.581 0.132 2.412 255 255 255
-0.463 -0.958 1.45 255 255 255
-0.361 -1.357 2.969 255 255 255
0.33 -1.366 2.044 255 255 255
-0.219 0.393 1.962 255 255 255
0.85 0.748 2.193 255 255 255
0.993 -1.217 2.303 255 255 255
0.454 0.677 2.077 255 255 255
1.012 0.66 2.232 255 255 255
0.738 0.861 2.163 255 255 255
0.109 -0.398 2.086 255 255 255
1.005 0.649 2.231 255 255 255
-0.915 -0.759 1.62 255 255 255
0.378 -1.148 2.201 255 255 255
0.597 -1.312 2.171 255 255 255
-0.414 -1.386 2.729 0 0 0
1.042 -0.919 2.297 255 255 255
-0.059 -0.601 2.061 255 255 255
-0.966 -0.083 1.277 255 255 255
0.158 0.948 2.011 0 0 0
0.215 -0.257 2.11 255 255 255
-0.174 0.545 1.974 255 255 255
0.727 0.219 2.204 255 255 255
0.594 0.045 2.148 255 255 255
-0.881 1.283 2.423 255 255 255
0.257 -0.27 2.107 255 255 255
-0.99 -0.137 1.872 255 255 255
0.35 -0.944 2.171 255 255 255
-0.234 0.421 1.957 255 255 255
0.224 -0.561 2.119 255 255 255
-0.785 -1.432 2.92 255 255 255
-0.421 -0.62 1.304 255 255 255
0.084 -1.181 2.146 255 255 255
0.978 -0.283 2.281 255 255 255
-0.965 -0.345 1.507 255 255 255
0.968 -0.07 2.267 255 255 255
0.318 0.543 1.089 255 255 255
0.578 -0.929 2.216 255 255 255
-0.199 0.147 1.984 255 255 255
-0.523 -1.36 2.027 255 255 255
0.974 0.99 2.205 0 0 0
-0.512 -0.744 1.455 255 255 255
-0.063 0.923 1.971 0 0 0
-0.093 0.262 2.008 255 255 255
0.255 -1.381 1.993 255 255 255
0.41 0.61 1.172 255 255 255
-0.589 0.251 1.249 255 255 255
0.526 0.303 2.115 255 255 255
-1 -0.056 1.867 255 255 255
0.596 -1.124 2.235 255 255 255
0.878 0.551 2.21 255 255 255
0.641 0.315 2.182 255 255 255
1.545 -0.485 2.349 255 255 255
1.213 -0.276 2.324 255 255 255
-0.577 0.405 1.209 255 255 255
0.719 -0.704 2.222 255 255 255
-0.093 0.326 2.003 255 255 255
0.916 0.217 2.238 255 255 255
-0.921 -0.682 1.586 255 255 255
0.262 -1.378 2.023 255 255 255
1.065 -0.13 2.288 255 255 255
-0.387 -1.032 1.369 0 0 0
0.856 -0.674 2.241 255 255 255
1.013 -0.11 2.284 255 255 255
-0.878 -0.63 1.944 255 255 255
1.114 0.421 2.261 255 255 255
-0.234 0.033 2.021 255 255 255
0.034 1.067 1.982 255 255 255
0.069 -0.085 2.057 255 255 255
-0.268 -1.31 2.092 255 255 255
0.795 -1.307 1.734 0 0 0
0.261 -1.305 2.183 255 255 255
-0.041 0.328 2.015 255 255 255
0.566 -0.846 2.206 255 255 255
-0.975 -0.219 1.884 255 255 255
-0.956 -0.252 1.891 0 0 0
1.781 -0.325 2.48 255 255 255
0.251 0.476 1.226 0 0 0
1.003 0.8 2.218 255 255 255
0.107 -0.958 2.126 255 255 255
0.741 0.445 2.194 255 255 255
0.023 -1.194 2.13 255 255 255
0.256 -0.167 2.099 255 255 255
1.016 0.706 2.232 255 255 255
0.644 -1.012 2.237 255 255 255
1.296 -0.301 2.341 255 255 255
0.372 -1.325 2.196 255 255 255
0.853 -0.52 2.244 255 255 255
0.226 0.565 1.091 255 255 255
-0.939 -0.33 1.364 255 255 255
0.373 0.566 1.144 255 255 255
-1.085 0.216 1.835 255 255 255
-0.959 -0.783 1.882 255 255 255
-0.121 0.017 2.018 255 255 255
0.716 0.531 2.181 255 255 255
