ply
format ascii 1.0
comment Created by Open3D
element vertex 1583
property double x
property double y
property double z
property uchar red
property uchar green
property uchar blue
end_header
-1.069 -0.353 1.778 255 255 255
0.217 0.802 2.084 255 255 255
0.979 0.549 2.263 255 255 255
-0.262 -1.627 2.909 0 0 0
1.464 0.111 2.336 255 255 255
-0.121 -0.837 1.972 255 255 255
-0.769 1.069 2.421 0 0 0
0.44 -1.554 2.058 0 0 0
0.787 0.038 2.213 255 255 255
-0.932 1.048 2.263 255 255 255
-0.195 -0.3 1.974 255 255 255
0.182 0.32 2.067 255 255 255
0.77 -0.035 2.207 255 255 255
-1.093 0.237 1.839 255 255 255
0.017 -1.118 2.005 255 255 255
0.223 0.409 1.335 0 0 0
-1.122 0.268 1.843 255 255 255
0.716 0.119 2.206 255 255 255
0.867 0.353 2.235 255 255 255
0.998 -0.616 2.233 255 255 255
1.71 -0.249 2.418 255 255 255
-0.105 0.287 2.015 255 255 255
-1.072 -0.214 1.839 255 255 255
0.129 -0.634 2.035 255 255 255
-0.912 -1.163 1.839 255 255 255
-0.08 1.102 2.036 255 255 255
1.032 -1.392 2.185 255 255 255
1.264 -0.36 2.288 255 255 255
-1.015 -0.527 1.838 255 255 255
0.021 0.989 2.058 255 255 255
0.111 0.736 2.064 255 255 255
-0.085 0.077 2.015 255 255 255
0.112 -0.956 2.024 255 255 255
0.443 0.367 2.116 255 255 255
-0.476 -0.554 1.233 255 255 255
-0.188 -1.352 1.956 255 255 255
0.654 0.118 2.19 255 255 255
0.978 -1.479 2.174 255 255 255
-1.039 -0.08 1.84 255 255 255
0.215 0.658 1.215 255 255 255
0.809 0.575 2.227 255 255 255
-0.222 0.731 2.005 255 255 255
-0.397 -1.381 1.918 255 255 255
0.537 -0.21 2.114 255 255 255
-1.043 -0.199 1.576 255 255 255
-0.566 0.448 1.25 255 255 255
0.575 0.196 2.173 0 0 0
-0.084 0.7 2.029 255 255 255
-1.001 -0.629 1.837 255 255 255
0.462 0.245 2.114 255 255 255
0.331 -0.573 2.072 0 0 0
-0.186 -0.027 1.979 255 255 255
0.415 0.505 1.159 255 255 255
-0.272 0.548 1.978 255 255 255
0.271 0.385 1.133 255 255 255
0.39 -1.429 2.077 255 255 255
0.033 -0.623 2.019 255 255 255
-0.287 1.061 1.995 255 255 255
-0.328 1.014 1.989 255 255 255
1.037 0.549 2.27 255 255 255
0.178 0.535 1.215 255 255 255
-1.096 0.2 1.838 255 255 255
0.407 0.404 2.108 255 255 255
0.885 0.155 2.23 255 255 255
0.793 -0.437 2.202 255 255 255
0.125 0.498 2.059 255 255 255
-0.525 -0.604 1.287 255 255 255
0.562 -0.849 2.107 255 255 255
0.259 -1.463 2.05 255 255 255
0.329 0.284 1.226 0 0 0
0.985 -0.203 2.241 255 255 255
-0.029 0.495 2.034 255 255 255
0.504 0.423 2.123 255 255 255
0.097 -0.036 2.039 255 255 255
0.334 -0.158 2.082 255 255 255
-0.193 -1.348 1.958 255 255 255
0.922 -0.144 2.232 255 255 255
0.91 0.699 2.252 255 255 255
0.439 -0.66 2.093 255 255 255
-0.71 1.075 2.405 0 0 0
1.248 -0.699 2.275 255 255 255
0.956 0.704 2.259 255 255 255
-0.443 -0.68 1.247 0 0 0
-0.477 -0.532 1.232 255 255 255
0.871 -0.728 2.213 255 255 255
0.997 0.254 2.252 255 255 255
0.439 0.453 1.221 255 255 255
-0.013 0.017 2.027 255 255 255
-0.517 -1.656 2.712 255 255 255
0.465 0.163 2.11 255 255 255
1.302 -0.942 2.228 255 255 255
0.58 -1.05 2.105 255 255 255
0.165 -0.408 2.05 0 0 0
0.209 -0.086 2.064 255 255 255
1.196 -1.396 2.21 255 255 255
-0.196 0.184 1.995 255 255 255
0.096 -1.1 2.017 255 255 255
0.085 -0.161 2.038 255 255 255
-0.075 1.074 2.033 255 255 255
0.111 0.381 2.054 255 255 255
0.243 0.567 1.051 255 255 255
0.214 0.429 1.224 0 0 0
-0.126 -0.504 1.99 255 255 255
0.9 -0.237 2.222 255 255 255
-1.045 -0.504 1.712 255 255 255
-0.144 -0.327 1.99 255 255 255
-0.03 0.676 2.037 255 255 255
-0.189 -1.338 1.979 255 255 255
0.418 -0.435 2.094 255 255 255
0.3 0.122 2.085 255 255 255
0.26 -1.138 2.049 255 255 255
1.651 -0.428 2.4 255 255 255
0.008 -0.364 2.02 255 255 255
-0.465 -0.787 1.23 255 255 255
0.179 -1.186 2.033 255 255 255
1.32 -0.672 2.289 255 255 255
0.892 -0.359 2.218 255 255 255
0.713 -0.04 2.197 255 255 255
-0.115 -0.665 1.981 255 255 255
1.519 -0.676 2.32 255 255 255
-0.093 0.065 2.013 255 255 255
0.201 -0.221 2.058 255 255 255
-1.04 -0.411 1.84 255 255 255
1.029 -1.304 2.184 255 255 255
-0.536 0.055 1.239 255 255 255
0.012 -0.084 2.028 255 255 255
0.504 0.467 1.125 255 255 255
-0.297 1.092 1.995 255 255 255
1.092 0.001 2.265 255 255 255
-0.11 1.077 2.028 255 255 255
0.3 -1.409 2.057 255 255 255
-0.135 -1.334 1.984 255 255 255
1.202 0.365 2.294 255 255 255
0.415 0.5 1.168 255 255 255
1.647 0.029 2.419 255 255 255
0.037 0.425 2.042 255 255 255
0.298 0.339 1.162 255 255 255
-0.344 0.972 1.993 255 255 255
1.715 -0.398 2.401 255 255 255
0.793 -1.184 2.142 255 255 255
0.175 0.901 2.079 255 255 255
-0.042 -0.761 2.002 255 255 255
0.809 -1.491 2.144 255 255 255
0.451 0.328 2.116 255 255 255
0.533 -1.378 2.101 255 255 255
0.03 1.072 2.049 255 255 255
1.238 -1.012 2.225 255 255 255
-0.601 1.045 2.276 255 255 255
0.456 -0.294 2.103 255 255 255
-0.097 0.308 2.016 255 255 255
0.251 -0.053 2.067 255 255 255
-0.579 0.507 1.244 255 255 255
-0.062 -0.542 2.005 255 255 255
0.191 0.376 2.069 255 255 255
1.216 -0.922 2.218 255 255 255
-0.988 -0.224 1.336 255 255 255
0.818 -1.253 2.146 255 255 255
0.056 -0.275 2.027 255 255 255
-0.111 -0.704 1.98 255 255 255
0.163 -0.637 2.044 255 255 255
0.122 -0.044 2.048 255 255 255
-0.145 0.218 2.009 255 255 255
-1.106 0.359 1.84 255 255 255
1.071 0.767 2.281 255 255 255
-0.149 -0.916 1.99 255 255 255
1.033 0.518 2.267 255 255 255
0.076 -0.092 2.037 255 255 255
0.062 -1.255 2.015 255 255 255
-0.269 1.035 1.997 255 255 255
0.362 0.387 1.145 255 255 255
-0.773 1.065 1.991 255 255 255
-0.531 0.063 1.242 255 255 255
-0.733 1.078 2.199 255 255 255
0.232 0.355 1.297 0 0 0
1.023 -0.455 2.24 255 255 255
1.105 -0.115 2.266 255 255 255
1.186 -0.577 2.269 255 255 255
0.361 -0.163 2.089 255 255 255
0.488 0.466 1.172 0 0 0
-0.733 1.076 2.045 255 255 255
1.623 -0.414 2.392 255 255 255
-0.261 -1.63 2.585 255 255 255
-0.546 -0.86 1.355 255 255 255
1.351 -1.056 2.239 255 255 255
0.333 -0.912 2.064 255 255 255
0.242 0.35 1.248 0 0 0
0.918 -1.52 1.98 255 255 255
-0.251 0.645 1.988 255 255 255
1.58 0.175 2.399 255 255 255
-0.927 -0.178 1.802 255 255 255
0.276 0.31 1.242 255 255 255
-0.085 -0.236 2.008 255 255 255
-1.026 -0.082 1.453 255 255 255
0.215 0.443 1.179 255 255 255
0.508 -0.639 2.104 255 255 255
0.804 0.396 2.225 255 255 255
0.432 -1.319 2.08 255 255 255
0.303 -0.02 2.08 255 255 255
0.128 0.395 2.06 255 255 255
-0.557 0.278 1.242 255 255 255
-1.066 -0.379 1.794 255 255 255
1.141 -0.052 2.272 255 255 255
-0.042 -1.447 1.994 0 0 0
0.818 -0.897 2.152 255 255 255
0.969 0.774 2.263 255 255 255
-0.065 -0.47 2.007 255 255 255
0.217 -1.363 2.041 255 255 255
-0.626 -1.679 2.495 255 255 255
0.081 0.045 2.039 255 255 255
-0.308 0.766 1.982 255 255 255
-0.239 0.263 1.98 255 255 255
0.542 -0.634 2.113 255 255 255
-0.081 -0.264 2.005 255 255 255
0.226 -0.209 2.059 255 255 255
0.06 -0.044 2.035 255 255 255
0.645 0.203 2.189 255 255 255
-1.043 0.435 1.869 255 255 255
-0.654 0.278 1.336 255 255 255
-0.316 1.034 1.99 255 255 255
0.705 0.123 2.201 255 255 255
1.273 0.147 2.299 255 255 255
-0.093 -1.241 1.974 255 255 255
1.429 -0.2 2.318 255 255 255
0.198 0.752 2.079 255 255 255
0.858 -0.414 2.216 255 255 255
0.723 -1.187 2.131 255 255 255
-0.141 1.064 2.022 255 255 255
-0.864 -0.813 1.843 255 255 255
1.131 0.123 2.274 255 255 255
0.642 -0.088 2.182 255 255 255
-1.086 -0.158 1.735 255 255 255
-1.05 0.333 1.858 0 0 0
-0.113 -0.888 1.971 255 255 255
-0.126 0.406 2.012 255 255 255
-0.033 0.281 2.028 255 255 255
0.967 0.587 2.255 255 255 255
0.197 0.141 2.066 255 255 255
0.903 -0.483 2.217 255 255 255
-0.081 -0.403 2.005 255 255 255
0.221 -0.151 2.058 255 255 255
-1.041 0.045 1.844 255 255 255
-0.25 0.14 1.981 255 255 255
-0.237 -0.155 2.003 255 255 255
0.749 -1.021 2.137 255 255 255
0.061 -0.504 2.027 0 0 0
-1.075 0.192 1.838 255 255 255
0.035 -1.206 2.008 255 255 255
1.515 -0.453 2.327 255 255 255
0.863 0.286 2.229 255 255 255
-0.05 0.507 2.028 255 255 255
0.131 -1.054 2.027 255 255 255
-0.009 0.709 2.042 255 255 255
-0.941 -0.079 1.872 255 255 255
0.267 0.49 1.069 255 255 255
0.33 -0.961 2.062 255 255 255
-1.067 0.037 1.838 255 255 255
0.154 0.001 2.048 255 255 255
0.543 -0.773 2.105 255 255 255
-0.014 1.064 2.045 255 255 255
-0.212 0.958 2.017 255 255 255
1.116 -0.193 2.262 255 255 255
1.329 -0.462 2.295 255 255 255
0.28 -0.788 2.062 255 255 255
-0.14 0.025 2.003 255 255 255
1.432 -0.445 2.311 255 255 255
1.038 0.241 2.259 255 255 255
0.495 -1.105 2.091 255 255 255
0.065 -0.477 2.037 255 255 255
1.351 -0.09 2.308 255 255 255
-0.579 0.433 1.235 255 255 255
0.309 0.493 1.062 255 255 255
0.551 -0.398 2.114 255 255 255
1.196 -0.604 2.272 255 255 255
0.156 0.257 2.061 255 255 255
0.381 0.528 1.128 255 255 255
-0.444 -1.652 2.676 255 255 255
1.036 0.398 2.265 255 255 255
1.138 0.533 2.283 255 255 255
-0.471 -0.632 1.228 255 255 255
-0.659 0.259 1.342 255 255 255
1.274 -1.041 2.228 255 255 255
0.931 0.081 2.242 255 255 255
0.592 -0.356 2.121 255 255 255
0.255 -1.254 2.049 255 255 255
0.264 0.373 1.186 255 255 255
0.937 -0.715 2.223 255 255 255
-0.157 0.581 2.011 255 255 255
1.519 -0.405 2.329 255 255 255
0.215 -0.884 2.044 255 255 255
-0.529 -0.878 1.337 255 255 255
0.356 0.366 2.098 255 255 255
0.154 -1.277 2.028 255 255 255
0.177 0.567 2.07 255 255 255
0.911 -1.135 2.164 255 255 255
1.042 0.818 2.281 255 255 255
-0.984 -1.079 1.775 255 255 255
0.916 -0.022 2.233 255 255 255
1.654 0.144 2.415 255 255 255
0.795 -0.136 2.207 255 255 255
0.072 0.021 2.039 255 255 255
-0.481 -0.332 1.242 0 0 0
0.631 0.362 2.192 255 255 255
1.379 -0.792 2.247 255 255 255
1.195 0.742 2.303 255 255 255
1.196 0.678 2.306 255 255 255
-0.537 -0.289 1.256 255 255 255
0.94 0.381 2.244 255 255 255
0.523 -0.201 2.113 255 255 255
-0.574 0.51 1.246 255 255 255
-0.535 -0.749 1.325 255 255 255
1.096 -0.79 2.217 255 255 255
0.777 0.485 2.221 255 255 255
0.317 -0.3 2.076 255 255 255
0.266 0.651 2.09 255 255 255
0.475 -1.166 2.085 255 255 255
-0.822 -1.684 2.685 255 255 255
1.449 0.395 2.344 255 255 255
0.265 -1.477 2.051 255 255 255
0.858 -1.215 2.153 255 255 255
-1.074 0.349 1.846 255 255 255
1.695 -0.32 2.412 255 255 255
0.699 0.055 2.198 255 255 255
-0.047 -0.967 1.998 255 255 255
-0.447 1.111 2.125 255 255 255
0.858 -1.18 2.152 255 255 255
-0.175 0.065 1.996 255 255 255
0.985 -0.571 2.235 255 255 255
1.109 0.235 2.27 255 255 255
1.252 0.536 2.31 255 255 255
-0.6 1.09 1.956 255 255 255
0.723 -1.525 2.106 0 0 0
0.557 -1.294 2.106 255 255 255
0.471 0.467 1.211 0 0 0
0.385 0.434 2.106 255 255 255
-0.056 0.9 2.038 0 0 0
-1.029 0.074 1.849 0 0 0
-0.009 -0.031 2.026 255 255 255
0.706 -0.788 2.144 255 255 255
-0.993 -1.028 1.76 255 255 255
-1.092 0.312 1.839 255 255 255
0.211 0.477 1.161 255 255 255
0.406 0.54 1.111 255 255 255
-0.385 -1.636 2.861 255 255 255
-0.049 -0.236 2.013 255 255 255
-0.11 1.023 2.033 255 255 255
1.33 0.481 2.327 255 255 255
0.594 -1.022 2.112 255 255 255
-0.107 0.449 2.017 255 255 255
-1.023 0.463 1.845 255 255 255
-0.517 1.019 2.269 255 255 255
1.425 0.398 2.337 255 255 255
-1.027 -0.258 1.512 255 255 255
-0.156 -0.418 1.975 255 255 255
1.31 -0.87 2.226 255 255 255
0.416 -0.309 2.096 255 255 255
-0.077 -0.007 2.014 255 255 255
0.538 0.066 2.125 255 255 255
0.316 0.492 2.097 255 255 255
0.42 0.196 2.106 255 255 255
-0.517 -0.262 1.233 255 255 255
-0.615 1.093 2.232 255 255 255
-0.916 -0.768 1.866 255 255 255
-0.081 -0.288 2.005 255 255 255
-1.085 -0.187 1.756 255 255 255
0.615 -0.346 2.138 255 255 255
-0.136 -0.003 2.005 255 255 255
0.82 -0.829 2.161 255 255 255
0.879 -0.397 2.221 255 255 255
1.399 0.192 2.322 255 255 255
1.267 -0.309 2.288 255 255 255
0.635 0.451 2.177 255 255 255
-0.017 -0.112 2.023 255 255 255
0.129 -0.944 2.029 255 255 255
1.205 -0.152 2.282 255 255 255
-0.126 -0.574 1.981 255 255 255
-0.017 -0.59 2.009 255 255 255
0.239 0.328 1.312 0 0 0
0.008 0.687 2.044 255 255 255
0.183 0.559 1.148 255 255 255
-0.966 -0.504 1.849 0 0 0
-0.277 -1.359 1.942 255 255 255
0.157 0.904 2.076 255 255 255
-0.033 -0.576 2.007 255 255 255
-0.254 -1.429 1.951 0 0 0
-1.06 0.324 1.851 255 255 255
-1.032 0.045 1.846 0 0 0
-0.471 -0.711 1.229 255 255 255
0.395 0.574 1.055 255 255 255
0.715 -1.394 2.132 255 255 255
0.488 -0.312 2.106 255 255 255
0.251 -1.023 2.05 255 255 255
-0.525 -0.622 1.291 255 255 255
0.814 -1.53 2.015 0 0 0
0.065 -0.408 2.03 255 255 255
-0.124 0.093 2.007 255 255 255
0.05 -1.466 2.011 0 0 0
0.656 -0.16 2.181 255 255 255
0.482 -0.072 2.113 255 255 255
-0.999 -0.194 1.377 255 255 255
0.307 -0.652 2.068 255 255 255
0.065 0.316 2.046 255 255 255
0.106 0.123 2.049 255 255 255
-1.007 -0.875 1.753 255 255 255
-1.102 -0.042 1.758 255 255 255
-0.144 0.99 2.025 255 255 255
-0.23 -1.623 2.732 0 0 0
-1.11 0.108 1.707 255 255 255
0.065 -0.357 2.025 255 255 255
0.201 -0.139 2.057 255 255 255
0.235 0.398 1.217 255 255 255
0.357 -1.131 2.066 255 255 255
0.897 -1.076 2.161 255 255 255
0.164 -0.357 2.049 255 255 255
0.622 -0.017 2.181 255 255 255
-0.075 0.545 2.025 255 255 255
-0.157 -0.538 1.974 255 255 255
-0.909 -1.031 1.846 255 255 255
0.012 -0.76 2.013 255 255 255
0.816 -1.189 2.147 255 255 255
-0.018 -1.27 1.994 255 255 255
0.35 0.472 1.1 255 255 255
-0.223 -0.166 1.984 255 255 255
-0.406 1.102 2.112 255 255 255
0.502 -0.257 2.113 255 255 255
-0.297 0.407 2.004 255 255 255
-0.009 -0.683 2.012 255 255 255
0.905 -1.516 2.057 0 0 0
-0.579 -0.465 1.334 255 255 255
1.6 -0.069 2.401 255 255 255
0.184 0.021 2.057 255 255 255
-0.666 1.051 2.412 0 0 0
0.051 -1.508 2.009 0 0 0
-0.041 -0.551 2.007 255 255 255
-0.124 -0.219 2 255 255 255
-0.462 -1.646 2.858 255 255 255
-0.122 0.988 2.033 255 255 255
0.255 0.495 1.066 255 255 255
1.194 -1.183 2.218 255 255 255
-0.125 0.877 2.027 255 255 255
-0.041 -0.338 2.013 255 255 255
0.069 0.242 2.044 255 255 255
-0.129 0.214 2.01 255 255 255
0.126 -1.063 2.025 255 255 255
0.705 -0.686 2.18 255 255 255
0.936 -1.441 2.166 255 255 255
0.318 0.427 1.104 255 255 255
-0.029 0.001 2.022 255 255 255
-0.214 -0.133 1.976 255 255 255
0.735 -0.564 2.187 255 255 255
-0.15 0.36 2.004 255 255 255
-0.266 0.62 1.977 255 255 255
-1.012 -0.442 1.837 255 255 255
0.053 0.349 2.044 255 255 255
0.062 -0.744 2.019 255 255 255
0.19 -0.322 2.063 255 255 255
0.237 0.714 2.087 255 255 255
-1.108 0.077 1.69 255 255 255
0.547 -0.994 2.105 255 255 255
0.264 0.375 1.141 255 255 255
1.111 -0.801 2.212 255 255 255
-0.041 -0.24 2.014 255 255 255
0.895 -0.218 2.225 255 255 255
0.706 -1.072 2.128 255 255 255
0.114 0.111 2.05 255 255 255
1.372 -0.945 2.241 255 255 255
1.024 0.397 2.262 255 255 255
-1.016 -0.485 1.58 255 255 255
0.184 -0.816 2.044 255 255 255
-0.506 0.925 2.265 255 255 255
-0.469 -0.596 1.233 255 255 255
0.278 -0.248 2.067 255 255 255
0.4 -1.211 2.075 255 255 255
-0.585 1.047 2.271 255 255 255
0.675 -1.379 2.125 255 255 255
0.26 -0.061 2.069 255 255 255
1.487 -0.37 2.323 255 255 255
1.018 -1.475 2.177 255 255 255
-0.831 1.035 2.631 255 255 255
0.153 0.573 1.218 255 255 255
0.852 0.681 2.24 255 255 255
-0.107 -0.726 1.981 255 255 255
0.597 -1.118 2.11 255 255 255
0.942 -0.281 2.232 255 255 255
-0.013 0.41 2.033 255 255 255
-0.928 -0.743 1.857 255 255 255
-0.2 0.686 2.009 255 255 255
-1.024 -0.562 1.839 255 255 255
0.779 0.442 2.219 255 255 255
-0.552 -0.052 1.243 255 255 255
0.515 -0.287 2.11 255 255 255
-0.058 0.503 2.029 255 255 255
0.114 0.946 2.072 0 0 0
-1.03 -0.348 1.839 255 255 255
-0.565 0.204 1.234 255 255 255
0.817 -0.082 2.212 255 255 255
-0.181 -0.621 1.991 255 255 255
-0.046 -0.68 2.003 255 255 255
-0.113 0.222 2.013 255 255 255
1.054 -0.119 2.254 255 255 255
-0.44 -0.878 1.23 255 255 255
-0.097 1.036 2.029 255 255 255
0.673 0.295 2.196 255 255 255
-0.559 1.033 2.321 0 0 0
0.807 -0.382 2.206 255 255 255
0.19 0.498 1.168 255 255 255
1.173 -1.136 2.213 255 255 255
-0.117 0.287 2.014 255 255 255
-0.597 -1.381 1.919 255 255 255
0.639 -0.951 2.12 255 255 255
0.391 0.592 1.036 255 255 255
0.413 0.538 1.1 255 255 255
-0.085 -0.119 2.01 255 255 255
-1.045 0.013 1.843 255 255 255
0.148 -0.775 2.035 255 255 255
0.382 -0.738 2.081 255 255 255
0.315 0.349 1.158 255 255 255
-0.396 1.096 2.081 255 255 255
-0.505 -0.358 1.23 255 255 255
-1.087 -0.088 1.838 255 255 255
0.101 1.02 2.069 255 255 255
1.06 -1.216 2.193 255 255 255
0.526 0.453 1.148 255 255 255
0.245 -1.479 2.046 0 0 0
-1.016 -0.108 1.851 255 255 255
-1.02 -0.095 1.431 255 255 255
-0.037 0.485 2.028 255 255 255
-0.835 -1.44 1.842 255 255 255
-0.36 1.093 1.999 255 255 255
-0.057 0.142 2.02 255 255 255
0.19 -0.71 2.044 255 255 255
1.288 -0.734 2.251 255 255 255
0.226 0.4 1.224 0 0 0
-0.243 0.291 1.978 255 255 255
1.241 -0.717 2.246 255 255 255
-1.046 -0.416 1.657 255 255 255
-0.956 0.224 1.802 255 255 255
-0.671 1.088 2.083 255 255 255
0.41 -1.139 2.074 255 255 255
0.181 0.562 2.07 255 255 255
-1.098 -0.015 1.84 255 255 255
-0.123 0.827 2.021 255 255 255
0.117 -1.027 2.025 255 255 255
1.169 -1.272 2.21 255 255 255
-0.093 -0.312 2.004 255 255 255
1.47 -0.353 2.319 255 255 255
1.499 0.267 2.373 255 255 255
-0.127 -1.327 2 255 255 255
0.619 -0.821 2.116 255 255 255
0.401 0.128 2.102 255 255 255
-0.122 0.378 2.013 255 255 255
0.062 1.081 2.057 255 255 255
1.037 0.554 2.27 255 255 255
-0.265 0.041 2.006 0 0 0
-0.152 0.137 2.004 255 255 255
1.226 0.501 2.301 255 255 255
0.68 -0.378 2.18 255 255 255
-0.055 -0.893 1.995 255 255 255
-0.191 0.413 2.002 255 255 255
-0.747 1.074 2.381 0 0 0
0.441 -0.135 2.103 255 255 255
0.482 -0.786 2.096 255 255 255
0.539 -0.318 2.112 255 255 255
-0.552 -1.669 2.692 255 255 255
-0.915 -1.011 1.844 255 255 255
0.182 -1.311 2.035 255 255 255
0.546 -0.983 2.104 255 255 255
-0.519 -0.213 1.231 255 255 255
1.334 0.549 2.324 255 255 255
0.241 -0.369 2.061 255 255 255
0.951 -0.401 2.231 255 255 255
1.028 -0.475 2.238 255 255 255
0.814 0.576 2.227 255 255 255
0.984 -1.522 2.012 0 0 0
-1.061 0.208 1.846 255 255 255
0.046 -0.902 2.015 255 255 255
-0.873 -1.409 1.838 255 255 255
0.208 0.398 2.071 255 255 255
0.801 -0.086 2.209 255 255 255
0.151 -1.354 2.031 255 255 255
-0.107 -0.642 1.992 255 255 255
-0.957 -0.039 1.848 255 255 255
0.203 0.629 1.18 255 255 255
-1.071 -0.291 1.74 255 255 255
0.578 -0.96 2.105 255 255 255
1.146 -0.466 2.263 255 255 255
0.587 -1.457 2.109 255 255 255
-0.032 -1.261 1.998 255 255 255
1.417 0.439 2.329 255 255 255
0.375 0.372 2.104 255 255 255
0.261 0.423 1.102 255 255 255
-1.063 -0.15 1.632 255 255 255
0.223 0.142 2.072 255 255 255
0.353 -0.814 2.073 255 255 255
-1.034 -0.156 1.837 255 255 255
-0.995 -0.412 1.481 255 255 255
0.265 0.5 1.057 255 255 255
0.004 0.766 2.047 255 255 255
1.236 -0.877 2.222 255 255 255
0.895 -1.2 2.159 255 255 255
0.046 0.694 2.052 255 255 255
-0.017 0.256 2.031 255 255 255
0.355 0.483 1.106 255 255 255
-0.524 -0.235 1.233 255 255 255
0.052 0.168 2.043 255 255 255
-1.012 0.403 1.842 255 255 255
0.16 -1.326 2.032 255 255 255
-0.236 -0.123 1.999 255 255 255
0.157 -1.227 2.029 255 255 255
-0.253 0.005 2.004 255 255 255
-0.494 -0.254 1.242 0 0 0
1.267 -0.254 2.293 255 255 255
-0.297 0.37 2.005 0 0 0
1.196 -1.385 2.214 255 255 255
-0.883 -1.686 2.742 0 0 0
-0.334 0.968 1.986 255 255 255
1.068 0.587 2.271 255 255 255
0.99 -0.581 2.234 255 255 255
-0.12 -0.167 2.002 255 255 255
-0.032 -1.36 1.991 255 255 255
0.19 0.502 1.218 255 255 255
1.134 -1.396 2.206 255 255 255
0.7 -0.297 2.188 255 255 255
-0.051 0.744 2.037 255 255 255
-0.154 0.368 2.007 255 255 255
0.116 -1.241 2.017 255 255 255
0.241 -1.13 2.045 255 255 255
0.678 0.046 2.192 255 255 255
-0.482 -0.679 1.236 255 255 255
-0.555 -1.659 2.713 255 255 255
0.104 0.572 2.059 255 255 255
-0.219 0.921 2.011 0 0 0
0.828 -1.102 2.151 255 255 255
-0.227 0.462 1.991 255 255 255
0.204 -1.403 2.038 255 255 255
0.247 0.373 1.203 255 255 255
1.119 0.516 2.283 255 255 255
1.3 -1.045 2.23 255 255 255
-0.197 0.575 2.003 255 255 255
-0.121 0.198 2.013 255 255 255
0.718 -0.139 2.196 255 255 255
0.119 0.704 2.066 255 255 255
0.735 -0.555 2.188 255 255 255
-0.544 1.103 2.182 255 255 255
0.949 -0.717 2.224 255 255 255
-0.212 0.686 2.007 255 255 255
-1.079 -0.256 1.805 255 255 255
0.59 -1.515 2.099 0 0 0
0.985 -0.936 2.181 255 255 255
0.934 0.598 2.25 255 255 255
0.194 0.174 2.068 255 255 255
0.354 0.367 1.148 255 255 255
0.208 0.608 1.15 255 255 255
-0.526 1.096 2.01 255 255 255
0.724 0.01 2.201 255 255 255
0.188 -0.097 2.056 255 255 255
1.057 -0.73 2.219 255 255 255
0.094 0.267 2.05 255 255 255
0.521 -1.056 2.096 255 255 255
1.003 -0.419 2.237 255 255 255
0.117 -1.032 2.025 255 255 255
0.322 0.143 2.091 255 255 255
0.375 -0.26 2.09 255 255 255
0.919 -0.618 2.222 255 255 255
1.017 -0.798 2.2 255 255 255
-0.933 -0.367 1.842 255 255 255
-0.589 -1.379 1.927 255 255 255
-0.462 -0.669 1.233 255 255 255
1.187 0.08 2.284 255 255 255
-0.898 -1.162 1.842 255 255 255
0.344 -1.406 2.066 255 255 255
1.013 -0.194 2.244 255 255 255
0.346 0.312 1.186 255 255 255
0.885 -1.108 2.161 255 255 255
1.288 0.309 2.304 255 255 255
0.329 -0.053 2.083 255 255 255
0.213 0.633 2.079 255 255 255
0.411 0.192 2.105 255 255 255
0.561 -0.224 2.118 255 255 255
0.393 0.5 1.167 255 255 255
1.204 -0.048 2.284 255 255 255
-0.349 0.835 2.011 255 255 255
-0.113 -0.423 1.999 255 255 255
0.31 -1.415 2.056 255 255 255
0.347 -0.213 2.083 255 255 255
0.909 -0.489 2.218 255 255 255
0.069 -0.436 2.026 255 255 255
0.044 0.041 2.036 255 255 255
0.966 0.487 2.255 255 255 255
1.394 0.222 2.321 255 255 255
1.438 -0.558 2.316 255 255 255
0.198 -0.434 2.05 255 255 255
0.443 -0.776 2.086 255 255 255
-0.221 -0.094 1.976 255 255 255
0.239 -1.321 2.047 255 255 255
0.588 0.415 2.186 255 255 255
-0.225 -1.473 1.962 0 0 0
1.278 -0.666 2.28 255 255 255
-0.309 0.789 1.982 255 255 255
0.098 0.666 1.223 255 255 255
1.188 0.513 2.294 255 255 255
0.986 0.794 2.273 255 255 255
0.037 0.684 2.049 255 255 255
0.238 -1.032 2.048 255 255 255
-0.521 -0.243 1.232 255 255 255
-1.017 -0.636 1.642 255 255 255
1.051 -0.253 2.251 255 255 255
0.809 -0.406 2.209 255 255 255
1.373 0.442 2.331 255 255 255
-0.168 -0.788 1.997 255 255 255
-0.913 -0.823 1.866 255 255 255
0.314 0.189 2.088 255 255 255
0.433 -0.951 2.083 255 255 255
0.452 0.397 1.229 0 0 0
0.585 -0.216 2.125 255 255 255
-0.958 -1.249 1.832 255 255 255
0.91 -0.186 2.225 255 255 255
0.401 0.531 1.124 255 255 255
0.892 -1.212 2.161 255 255 255
0.028 -0.348 2.024 255 255 255
0.301 0.526 1.038 255 255 255
1.268 -0.124 2.291 255 255 255
0.126 -1.058 2.025 255 255 255
1.051 -1.181 2.184 255 255 255
0.237 -0.868 2.049 255 255 255
0.677 -0.066 2.189 255 255 255
-0.563 1.096 2.177 255 255 255
1.137 -0.97 2.21 255 255 255
1.023 -0.747 2.202 255 255 255
0.533 -0.033 2.12 255 255 255
-0.072 0.696 2.029 255 255 255
0.036 -0.407 2.029 0 0 0
-0.537 0.076 1.241 255 255 255
-0.507 -0.356 1.23 255 255 255
-0.106 -0.979 1.971 255 255 255
1.102 -0.722 2.234 255 255 255
1 0.53 2.264 255 255 255
1.009 0.357 2.258 255 255 255
0.004 0.179 2.033 255 255 255
0.753 -1.055 2.139 255 255 255
1.211 -0.805 2.226 255 255 255
0.267 -0.823 2.056 255 255 255
-0.999 -0.083 1.327 255 255 255
0.223 0.483 1.142 255 255 255
-0.109 0.948 2.033 0 0 0
0.384 -0.896 2.078 255 255 255
0.574 -1.331 2.105 255 255 255
0.146 -1.123 2.029 255 255 255
0.841 0.689 2.237 255 255 255
0.306 0.473 2.092 255 255 255
0.687 0.356 2.202 255 255 255
0.338 -1.009 2.066 255 255 255
0.939 0.246 2.24 255 255 255
0.061 0.238 2.044 255 255 255
0.21 0.888 2.082 255 255 255
-0.225 0.867 2.008 255 255 255
0.286 0.699 2.095 255 255 255
-0.569 1.095 2.096 255 255 255
0.845 -0.244 2.214 255 255 255
0.246 0.404 1.176 255 255 255
0.318 0.591 2.097 255 255 255
1.428 0.198 2.326 255 255 255
-0.037 -0.007 2.021 255 255 255
-0.507 1.049 2.338 255 255 255
-0.096 0.659 2.024 255 255 255
0.824 -0.908 2.151 255 255 255
1.423 -0.205 2.318 255 255 255
0.901 0.61 2.245 255 255 255
-0.526 0.165 1.302 0 0 0
0.402 0.328 1.227 0 0 0
0.265 -0.273 2.067 255 255 255
0.592 -0.49 2.119 255 255 255
-1.066 -0.011 1.837 255 255 255
0.358 -0.96 2.068 255 255 255
1.623 -0.514 2.39 255 255 255
-1.105 0.017 1.802 255 255 255
-0.437 -1.638 2.972 255 255 255
-1.11 0.07 1.818 255 255 255
0.202 0.466 1.218 255 255 255
0.587 -1.473 2.104 255 255 255
-0.096 -0.761 1.989 255 255 255
-0.144 -0.246 1.994 255 255 255
-0.995 1.038 2.799 255 255 255
-0.057 0.154 2.021 255 255 255
-0.508 -0.258 1.233 255 255 255
0.316 -1.341 2.062 255 255 255
0.63 0.22 2.185 255 255 255
-0.025 0.244 2.029 255 255 255
-1.08 -0.108 1.682 255 255 255
1.125 0.27 2.276 255 255 255
0.225 -1.44 2.046 255 255 255
-0.005 0.905 2.048 0 0 0
-0.562 -0.34 1.301 255 255 255
0.82 0.043 2.222 255 255 255
-0.928 -1.077 1.84 255 255 255
-0.108 -0.251 2 255 255 255
-0.59 -1.372 1.933 255 255 255
0.711 0.419 2.21 255 255 255
-0.235 0.775 2 255 255 255
0.814 -0.553 2.203 255 255 255
0.348 0.064 2.091 255 255 255
-0.054 0.489 2.027 255 255 255
0.115 1.116 2.041 255 255 255
0.99 -0.744 2.2 255 255 255
0.189 0.17 2.066 255 255 255
0.26 0.466 1.088 255 255 255
0.46 0.522 1.081 255 255 255
0.631 0.353 2.194 255 255 255
0.958 -0.785 2.192 255 255 255
-0.001 -0.755 2.01 255 255 255
-0.033 -1.461 1.997 0 0 0
0.217 0.443 1.341 0 0 0
0.308 0.426 1.104 255 255 255
0.226 0.017 2.067 255 255 255
0.879 0.359 2.238 255 255 255
-0.034 -0.849 2.002 255 255 255
-0.274 0.746 1.981 255 255 255
0.255 0.39 1.149 255 255 255
0.996 -0.217 2.24 255 255 255
-0.734 1.071 2.297 255 255 255
0.831 -1.316 2.149 255 255 255
1.474 -0.791 2.265 255 255 255
0.454 -0.802 2.091 255 255 255
0.829 -0.04 2.219 255 255 255
0.214 0.034 2.068 255 255 255
0.32 -0.416 2.077 255 255 255
0.862 -0.823 2.165 255 255 255
0.763 -1.306 2.137 255 255 255
-0.037 -0.2 2.016 255 255 255
1.318 0.026 2.306 255 255 255
1.107 -0.31 2.259 255 255 255
0.462 -0.522 2.101 255 255 255
-0.326 0.885 1.985 0 0 0
0.012 -0.023 2.027 255 255 255
0.357 -0.243 2.088 255 255 255
0.871 -0.147 2.219 255 255 255
0.667 -0.147 2.186 255 255 255
0.451 0.375 2.113 255 255 255
0.667 -0.991 2.123 255 255 255
-1.059 -0.089 1.586 255 255 255
0.728 0.485 2.21 255 255 255
-0.105 0.157 2.014 255 255 255
0.013 -1.454 2.004 0 0 0
-0.51 -0.348 1.231 255 255 255
0.195 0.475 1.243 255 255 255
0.695 -1.06 2.128 255 255 255
1.018 -0.634 2.237 255 255 255
-0.504 -0.522 1.245 255 255 255
-1.07 -0.336 1.799 255 255 255
0.668 -1.11 2.123 255 255 255
0.771 -0.213 2.204 255 255 255
1.149 -0.666 2.261 255 255 255
-0.12 0.089 2.007 255 255 255
0.065 0.296 2.047 255 255 255
0.289 0.512 2.09 255 255 255
0.469 -0.599 2.099 255 255 255
0.182 -0.759 2.041 255 255 255
0.426 0.513 1.141 255 255 255
0.448 0.417 1.229 0 0 0
0.104 -0.566 2.045 0 0 0
0.04 -0.528 2.019 0 0 0
-0.86 -1.686 2.604 0 0 0
0.427 0.52 1.132 255 255 255
0.576 0.43 1.162 255 255 255
0.314 -0.995 2.06 255 255 255
0.377 0.29 1.216 0 0 0
-0.051 0.712 2.036 255 255 255
0.857 -0.819 2.168 255 255 255
-0.221 0.025 1.978 255 255 255
0.689 -1.416 2.123 255 255 255
0.757 0.398 2.217 255 255 255
0.512 0.457 1.163 255 255 255
0.288 -0.329 2.073 255 255 255
1.21 -1.173 2.216 255 255 255
-0.568 -1.655 2.916 255 255 255
1.503 -0.388 2.326 255 255 255
0.597 0.228 2.182 255 255 255
0.969 -0.829 2.181 255 255 255
0.595 -0.774 2.111 255 255 255
1.115 0.715 2.288 255 255 255
0.473 0.468 1.199 0 0 0
-0.866 -1.421 1.841 255 255 255
-0.187 0.65 2.008 255 255 255
0.997 -0.424 2.236 255 255 255
-0.516 -0.335 1.234 255 255 255
0.382 -0.61 2.084 255 255 255
0.689 -1.457 2.127 255 255 255
-0.473 -1.659 2.661 255 255 255
0.004 0.982 2.054 255 255 255
1.277 -0.079 2.296 255 255 255
-0.316 -1.633 2.669 255 255 255
1.248 -1.311 2.223 255 255 255
-0.982 -0.955 1.838 255 255 255
-0.299 0.867 1.981 0 0 0
0.02 0.033 2.033 255 255 255
1.679 -0.004 2.413 255 255 255
1.251 -0.667 2.275 255 255 255
-0.873 -1.413 1.836 255 255 255
0.031 1.106 2.055 255 255 255
0.551 -0.038 2.121 255 255 255
1.642 0.012 2.412 255 255 255
-0.95 -0.396 1.862 255 255 255
-0.88 1.043 2.821 255 255 255
0.245 -0.985 2.046 255 255 255
0.265 0.331 1.222 255 255 255
0.267 -1.072 2.053 255 255 255
-0.494 -0.411 1.23 255 255 255
0.404 0.42 1.196 255 255 255
0.122 -1.058 2.025 255 255 255
-0.045 -0.147 2.015 255 255 255
-0.147 0.732 2.014 255 255 255
0.323 0.432 1.102 255 255 255
1.307 -0.576 2.293 255 255 255
0.555 -1.445 2.105 255 255 255
0.633 0.041 2.184 255 255 255
0.181 0.549 2.069 255 255 255
-0.903 -1.427 1.829 255 255 255
1.003 0.695 2.269 255 255 255
1.067 -0.057 2.258 255 255 255
-0.936 -0.809 1.847 255 255 255
0.272 0.307 1.288 0 0 0
-1.056 -0.342 1.692 255 255 255
0.182 -1.136 2.032 255 255 255
0.325 0.55 2.095 255 255 255
0.33 0.351 1.159 255 255 255
-0.27 0.186 2.01 0 0 0
-1.083 0.009 1.841 255 255 255
0.642 0.426 2.19 255 255 255
-0.073 -0.167 2.01 255 255 255
0.331 0.396 2.095 255 255 255
0.29 0.367 2.086 255 255 255
0.388 0.364 1.185 255 255 255
-0.99 -0.412 1.845 255 255 255
1.607 -0.391 2.391 255 255 255
-0.762 1.071 2.016 255 255 255
-1.061 -0.003 1.837 255 255 255
-0.148 0.157 2.005 255 255 255
-0.798 1.066 2.589 255 255 255
0.163 -0.097 2.056 255 255 255
0.293 0.477 2.091 255 255 255
0.471 0.432 1.226 0 0 0
-0.914 -1.692 2.759 0 0 0
0.957 -0.597 2.228 255 255 255
0.506 0.168 2.118 255 255 255
-0.6 -1.37 1.937 255 255 255
-1.008 -0.509 1.836 255 255 255
-0.18 0.723 2.012 255 255 255
0.734 0.514 2.209 255 255 255
0.314 -0.573 2.074 0 0 0
0.105 -0.125 2.042 255 255 255
0.397 -0.206 2.095 255 255 255
-0.565 0.308 1.24 255 255 255
1.278 0.554 2.312 255 255 255
1.688 -0.01 2.415 255 255 255
0.325 -1.052 2.06 255 255 255
0.282 -0.858 2.058 255 255 255
-0.663 -1.659 2.856 255 255 255
0.016 0.196 2.035 255 255 255
-0.552 0.321 1.251 255 255 255
-1.01 -0.722 1.666 255 255 255
0.557 -1.004 2.102 255 255 255
0.803 -1.48 2.148 255 255 255
-0.566 -1.429 1.883 255 255 255
0.383 -0.226 2.088 255 255 255
0.874 -0.797 2.175 255 255 255
0.177 -0.669 2.046 255 255 255
1.046 -1.264 2.184 255 255 255
1.065 0.8 2.285 255 255 255
-0.906 -0.938 1.859 255 255 255
-0.097 -0.903 1.974 255 255 255
-0.152 -0.382 1.978 255 255 255
0.494 -1.011 2.093 255 255 255
0.183 0.392 2.065 255 255 255
0.836 -0.285 2.212 255 255 255
0.283 0.336 1.208 255 255 255
1.215 0.18 2.289 255 255 255
0.873 -0.919 2.155 255 255 255
-0.43 -0.938 1.235 255 255 255
0.185 -0.877 2.04 255 255 255
1.041 -1.212 2.19 255 255 255
0.184 -0.825 2.042 255 255 255
-0.983 -0.452 1.442 255 255 255
-0.561 1.097 2.19 255 255 255
0.262 -0.635 2.061 255 255 255
-0.429 -1.395 1.909 0 0 0
-0.269 -1.35 1.955 255 255 255
0.155 0.767 2.072 255 255 255
0.09 -1.278 2.014 255 255 255
-0.775 1.063 2.569 255 255 255
-0.045 0.065 2.022 255 255 255
-0.245 -0.091 2.005 255 255 255
-0.113 0.963 2.034 255 255 255
-1.084 0.106 1.84 255 255 255
1.257 -0.044 2.294 255 255 255
1.07 0.598 2.273 255 255 255
0.012 -0.503 2.02 255 255 255
0.057 -0.598 2.022 0 0 0
-0.296 0.878 1.985 0 0 0
0.236 0.837 2.087 255 255 255
0.783 -0.744 2.191 255 255 255
0.2 -1.16 2.034 255 255 255
0.833 -1.514 2.123 255 255 255
0.36 0.555 1.048 255 255 255
1.221 -0.529 2.276 255 255 255
0.403 0.523 1.132 255 255 255
-0.161 -0.522 1.975 255 255 255
0.951 -0.267 2.231 255 255 255
-0.056 -0.999 1.992 255 255 255
0.162 0.647 1.182 255 255 255
-0.205 0.285 1.994 255 255 255
-1.006 -0.884 1.787 255 255 255
-0.199 0.144 1.985 255 255 255
-0.009 0.302 2.033 255 255 255
-1.042 0.011 1.458 255 255 255
-0.184 0.12 1.997 255 255 255
1.228 -1.321 2.214 255 255 255
1.41 -0.913 2.249 255 255 255
0.415 0.12 2.105 255 255 255
0.591 -1.543 2.064 0 0 0
-0.115 -0.712 1.977 255 255 255
1.301 0.158 2.304 255 255 255
-0.073 -0.091 2.013 255 255 255
0.329 -1.495 2.061 0 0 0
-0.526 -0.718 1.308 255 255 255
-0.662 1.019 2.669 255 255 255
1.049 0.565 2.27 255 255 255
0.21 -0.609 2.052 255 255 255
0.012 0.324 2.04 255 255 255
1.282 -1.018 2.226 255 255 255
0.405 0.575 1.055 255 255 255
-0.033 0.418 2.028 255 255 255
-0.078 -0.515 2.002 255 255 255
1.374 0.247 2.319 255 255 255
1.146 -0.082 2.271 255 255 255
-0.461 -1.411 1.901 0 0 0
-1.005 -0.612 1.838 255 255 255
0.209 0.046 2.064 255 255 255
-0.194 -0.046 1.977 255 255 255
-0.117 0.19 2.013 255 255 255
-0.237 -0.208 2.002 255 255 255
0.849 -0.124 2.216 255 255 255
-0.111 1.106 2.032 255 255 255
-0.123 -0.634 1.98 255 255 255
0.208 0.597 2.079 255 255 255
-0.073 0.109 2.017 255 255 255
0.291 0.067 2.08 255 255 255
0.255 0.447 1.092 255 255 255
-0.033 -0.099 2.018 255 255 255
1.239 -0.661 2.276 255 255 255
0.576 -0.112 2.128 255 255 255
0.479 0.381 2.118 255 255 255
0.502 -1.063 2.092 255 255 255
0.134 -0.983 2.027 255 255 255
1.019 -0.013 2.249 255 255 255
1.017 0.289 2.257 255 255 255
1.647 -0.394 2.398 255 255 255
0.695 -0.892 2.127 255 255 255
-0.955 -0.924 1.832 255 255 255
1.081 0.757 2.279 255 255 255
0.035 1.107 2.056 255 255 255
0.514 -1.336 2.095 255 255 255
-0.057 -1.172 1.978 255 255 255
0.045 -0.495 2.025 0 0 0
-1.038 1.032 2.811 255 255 255
-0.874 -0.823 1.83 255 255 255
0.317 0.093 2.087 255 255 255
-0.23 -1.482 1.958 0 0 0
0.351 0.026 2.089 255 255 255
1.242 -0.343 2.283 255 255 255
1.145 0.693 2.295 255 255 255
0.456 0.129 2.111 255 255 255
-0.289 0.684 1.981 255 255 255
-0.041 -0.184 2.016 255 255 255
-0.022 -1.072 1.996 255 255 255
-0.062 0.434 2.025 255 255 255
-0.58 -1.653 2.612 255 255 255
1.016 -0.783 2.201 255 255 255
0.731 -0.739 2.186 255 255 255
-0.783 -1.685 2.521 255 255 255
0.269 -0.111 2.076 255 255 255
0.389 0.213 2.101 255 255 255
0.526 0.16 2.124 255 255 255
0.175 0.681 2.075 255 255 255
-0.15 0.323 2.007 255 255 255
-0.104 -0.159 2.006 255 255 255
0.683 -0.429 2.182 255 255 255
0.419 0.322 2.109 255 255 255
1.058 -1.261 2.186 255 255 255
1.012 -0.29 2.247 255 255 255
-0.32 0.622 2.006 255 255 255
0.763 0.441 2.216 255 255 255
-0.514 -0.054 1.244 255 255 255
-1.034 0.234 1.866 255 255 255
-0.685 1.083 1.964 255 255 255
0.704 -1.403 2.129 255 255 255
0.193 0.489 1.172 255 255 255
1.185 -0.515 2.265 255 255 255
0.909 -0.494 2.218 255 255 255
-0.283 0.247 2.007 255 255 255
1.147 -1.366 2.206 255 255 255
-0.843 1.061 2.582 255 255 255
-0.025 -0.302 2.017 255 255 255
0.11 0.234 2.052 255 255 255
0.79 -1.161 2.142 255 255 255
0.008 0.738 2.045 255 255 255
-0.12 -0.083 2.004 255 255 255
0.02 0.536 2.042 255 255 255
0.699 -1.353 2.129 255 255 255
1.157 -0.538 2.263 255 255 255
0.202 0.711 2.08 255 255 255
0.435 -0.396 2.097 255 255 255
0.112 0.855 2.067 255 255 255
1.184 0.144 2.286 255 255 255
-0.293 0.488 1.989 255 255 255
0.687 0.45 2.209 255 255 255
-1.103 -0.015 1.784 255 255 255
-0.516 -0.482 1.255 255 255 255
-0.784 -1.68 2.659 255 255 255
0.745 -1.191 2.135 255 255 255
-0.195 0.152 1.989 255 255 255
0.735 -0.285 2.193 255 255 255
-1.098 -0.063 1.807 255 255 255
-0.541 -1.445 1.892 255 255 255
-0.493 -1.362 1.945 255 255 255
0.416 -0.3 2.096 255 255 255
-0.203 1.104 2.015 255 255 255
-0.976 -1.704 2.907 0 0 0
0.319 0.511 1.048 255 255 255
-1.058 -0.241 1.654 255 255 255
1.192 -0.822 2.219 255 255 255
0.52 0.156 2.12 255 255 255
0.39 -1.197 2.072 255 255 255
0.702 -1.234 2.128 255 255 255
-0.346 -1.418 1.926 0 0 0
-0.21 0.06 1.98 255 255 255
0.189 0.153 2.063 255 255 255
-0.269 0.381 1.978 255 255 255
-0.363 -1.639 2.663 255 255 255
1.361 0.446 2.331 255 255 255
0.205 0.617 1.163 255 255 255
-0.986 -0.309 1.375 255 255 255
-0.867 1.041 2.818 255 255 255
-0.253 -0.063 2.005 255 255 255
1.376 -0.086 2.319 255 255 255
0.189 -0.638 2.047 255 255 255
1.307 -0.887 2.228 255 255 255
0.406 0.166 2.103 255 255 255
-0.217 -0.05 1.976 255 255 255
0.213 0.47 1.163 255 255 255
-0.374 -1.353 1.957 255 255 255
-0.941 -0.773 1.846 255 255 255
1.069 0.342 2.271 255 255 255
-0.273 0.125 2.003 0 0 0
0.708 -0.804 2.147 255 255 255
0.287 0.172 2.081 255 255 255
-0.487 -0.598 1.233 255 255 255
0.713 -1.53 2.086 0 0 0
1.256 0.52 2.309 255 255 255
0.131 0.65 2.066 255 255 255
-0.072 -0.111 2.01 255 255 255
-0.564 0.367 1.242 255 255 255
0.38 0.407 2.105 255 255 255
-0.07 -0.623 2.003 255 255 255
-0.257 1.047 2.001 255 255 255
1.521 0.097 2.374 255 255 255
-0.507 -0.119 1.244 255 255 255
-0.949 -0.087 1.868 255 255 255
0.025 -0.839 2.013 255 255 255
-0.464 -0.726 1.228 255 255 255
0.301 -0.363 2.072 255 255 255
0.972 -1.015 2.178 255 255 255
0.793 0.583 2.223 255 255 255
1.152 -0.917 2.209 255 255 255
0.532 0.451 1.156 255 255 255
0.147 0.588 2.068 255 255 255
0.132 -0.543 2.039 0 0 0
-0.36 0.944 2.017 255 255 255
-0.566 1.095 2.063 255 255 255
0.565 0.185 2.153 255 255 255
-0.259 0.291 1.977 255 255 255
0.885 -0.434 2.217 255 255 255
0.304 0.426 1.11 255 255 255
-0.192 0.863 2.013 255 255 255
0.32 0.419 1.116 255 255 255
-0.283 0.786 1.978 255 255 255
1.306 -0.774 2.253 255 255 255
0.425 0.566 1.065 255 255 255
-0.968 -1.226 1.828 255 255 255
0.363 0.366 1.153 255 255 255
-1.032 -0.647 1.726 255 255 255
0.23 0.615 2.078 255 255 255
1.363 -0.932 2.24 255 255 255
0.254 0.238 2.079 255 255 255
0.123 0.714 2.067 255 255 255
-0.041 0.355 2.026 255 255 255
-0.734 -1.665 2.786 255 255 255
0.216 -1.456 2.043 255 255 255
0.402 0.341 1.215 0 0 0
-0.057 0.284 2.025 255 255 255
-0.191 0.997 2.018 255 255 255
1.346 -0.997 2.237 255 255 255
0.951 -1.464 2.168 255 255 255
0.235 0.464 2.078 255 255 255
-1.044 0.342 1.865 255 255 255
-0.555 0.283 1.243 255 255 255
1.213 -0.402 2.278 255 255 255
-0.322 -1.634 2.931 255 255 255
0.362 0.356 1.161 255 255 255
0.132 -1.34 2.028 255 255 255
-0.141 0.169 2.007 255 255 255
1.288 -0.744 2.249 255 255 255
-0.11 -0.93 1.97 255 255 255
0.778 -0.884 2.142 255 255 255
0.66 -0.823 2.126 255 255 255
1.417 -0.7 2.277 255 255 255
0.748 -1.314 2.134 255 255 255
-0.27 0.833 1.992 255 255 255
0.547 -0.167 2.119 255 255 255
0.321 -0.074 2.082 255 255 255
-0.111 0.492 2.018 255 255 255
-0.061 -0.35 2.008 255 255 255
-0.144 -0.219 1.999 255 255 255
-0.882 -1.469 1.834 255 255 255
-0.018 1.078 2.042 255 255 255
0.561 0.289 2.167 255 255 255
0.469 0.35 2.117 255 255 255
0.612 -0.092 2.177 0 0 0
1.301 -0.444 2.29 255 255 255
0.104 0.567 2.059 255 255 255
1.103 0.612 2.281 255 255 255
0.116 0.784 2.067 255 255 255
0.51 0.104 2.119 255 255 255
-1.074 -0.277 1.786 255 255 255
-0.218 -0.066 1.979 255 255 255
-0.969 1.054 2.38 0 0 0
0.256 0.511 1.055 255 255 255
1.044 -0.408 2.245 255 255 255
-0.23 0.721 2.003 255 255 255
0.709 -0.667 2.18 255 255 255
0.81 -1.372 2.145 255 255 255
0.964 -1.468 2.171 255 255 255
1.119 0.162 2.27 255 255 255
0.02 -0.431 2.022 0 0 0
0.114 0.654 2.064 255 255 255
0.241 -1 2.046 255 255 255
-0.874 1.061 2.452 255 255 255
0.504 0.01 2.113 255 255 255
0.328 -0.382 2.078 255 255 255
0.262 0.35 1.204 255 255 255
0.363 0.344 1.166 255 255 255
0.397 0.548 1.106 255 255 255
0.945 -0.424 2.225 255 255 255
-1.012 -0.318 1.844 255 255 255
0.116 -0.638 2.035 255 255 255
1.119 -0.38 2.265 255 255 255
0.037 0.675 2.049 255 255 255
0.733 -0.189 2.195 255 255 255
0.278 -0.194 2.074 255 255 255
1.105 -1.495 2.151 255 255 255
-1.011 -0.787 1.712 255 255 255
0.135 0.61 2.066 255 255 255
0.15 0.486 2.065 255 255 255
0.713 -0.921 2.132 255 255 255
0.305 0.347 1.159 255 255 255
0.385 0.558 1.095 255 255 255
0.384 -0.776 2.081 255 255 255
0.234 0.76 2.084 255 255 255
-1.091 1.035 2.6 255 255 255
0.457 -1.386 2.087 255 255 255
0.544 -0.336 2.114 255 255 255
0.245 -1.12 2.047 255 255 255
-0.107 0.479 2.019 255 255 255
0.069 -1.073 2.017 255 255 255
-1.053 0.066 1.84 255 255 255
-0.53 -0.262 1.244 255 255 255
0.503 -1.211 2.092 255 255 255
-0.647 1.056 2.59 255 255 255
0.232 0.15 2.074 255 255 255
-0.162 0.315 2.008 255 255 255
-0.204 0.988 2.019 255 255 255
0.495 0.242 2.121 255 255 255
-0.306 0.433 2.004 255 255 255
-0.557 -0.887 1.366 255 255 255
0.887 -0.594 2.213 255 255 255
-0.041 -0.513 2.011 255 255 255
0.874 -0.979 2.157 255 255 255
0.215 0.229 2.071 255 255 255
0.19 -0.679 2.048 255 255 255
-1.077 -0.159 1.698 255 255 255
0.26 -0.537 2.06 255 255 255
1.102 0.713 2.286 255 255 255
-0.175 -1.475 1.969 0 0 0
-1.019 -0.022 1.39 255 255 255
0.406 0.481 1.188 255 255 255
0.201 0.108 2.064 255 255 255
0.385 -0.329 2.091 255 255 255
-0.585 -1.436 1.88 255 255 255
-0.528 -1.421 1.887 255 255 255
0.351 -1.445 2.068 255 255 255
-0.563 0.353 1.243 255 255 255
0.603 -0.8 2.114 255 255 255
-1.003 0.438 1.856 255 255 255
-0.516 1.007 2.266 255 255 255
-0.512 -0.025 1.246 255 255 255
0.13 0.589 1.28 255 255 255
1.037 0.761 2.27 255 255 255
0.063 -0.787 2.022 255 255 255
-0.239 0.323 1.977 255 255 255
0.328 -0.911 2.062 255 255 255
0.795 0.334 2.221 255 255 255
0.907 -0.441 2.219 255 255 255
0.259 0.302 2.081 255 255 255
0.314 -0.891 2.062 255 255 255
1.296 0.218 2.304 255 255 255
0.34 -1.056 2.067 255 255 255
1.354 0.011 2.314 255 255 255
0.618 0.014 2.182 255 255 255
0.229 0.366 1.296 0 0 0
0.328 -0.888 2.067 255 255 255
0.879 -1.096 2.162 255 255 255
1.305 -0.424 2.29 255 255 255
0.943 -1.516 2.025 0 0 0
0.591 -0.208 2.129 255 255 255
0.5 -0.43 2.105 255 255 255
1.729 -0.543 2.413 255 255 255
0.024 -0.562 2.018 255 255 255
-0.023 -1.162 1.998 255 255 255
-0.013 -0.877 2.002 255 255 255
1.032 0.044 2.254 255 255 255
-0.037 -0.445 2.01 255 255 255
-0.998 -0.402 1.481 255 255 255
-0.45 -1.642 2.921 255 255 255
0.298 0.507 1.043 255 255 255
1.058 -0.804 2.205 255 255 255
0.468 -0.088 2.108 255 255 255
0.097 0.707 2.062 255 255 255
0.379 0.333 2.104 255 255 255
-1.044 0.27 1.855 0 0 0
-0.474 -0.479 1.24 255 255 255
-0.009 1.049 2.045 255 255 255
0.9 -0.195 2.226 255 255 255
0.334 -0.503 2.075 0 0 0
0.34 -0.71 2.072 255 255 255
0.078 -0.547 2.024 0 0 0
1.218 -0.841 2.22 255 255 255
-0.91 1.053 2.646 255 255 255
-0.017 0.089 2.026 255 255 255
0.128 0.42 2.058 255 255 255
-0.085 -0.986 1.974 255 255 255
1.113 -0.687 2.253 255 255 255
-0.523 1.037 2.27 255 255 255
1.073 -0.235 2.253 255 255 255
-0.18 0.894 2.019 0 0 0
0.957 0.826 2.262 255 255 255
-0.033 0.439 2.03 255 255 255
-0.021 -0.015 2.023 255 255 255
0.174 0.533 1.224 255 255 255
-0.303 0.496 2.003 255 255 255
-1.05 -0.184 1.603 255 255 255
-0.156 -0.297 1.982 255 255 255
-1.028 -0.447 1.838 255 255 255
-0.993 1.045 2.62 255 255 255
0.307 -0.136 2.075 255 255 255
1.019 0.787 2.274 255 255 255
-0.769 1.07 1.949 255 255 255
-0.244 1.059 2.005 255 255 255
0.528 0.001 2.121 255 255 255
0.453 0.412 1.23 0 0 0
-0.234 1.009 2.008 255 255 255
1.212 -0.112 2.275 255 255 255
-1.018 -0.17 1.462 255 255 255
0.588 -0.112 2.138 255 255 255
-0.53 0.103 1.245 255 255 255
-0.814 -1.342 1.826 0 0 0
1.056 -0.645 2.248 255 255 255
0.273 -0.177 2.068 255 255 255
-0.054 -1.348 1.972 255 255 255
0.312 0.334 2.09 255 255 255
-0.037 0.114 2.023 255 255 255
0.076 -0.06 2.038 0 0 0
0.775 -1.169 2.14 255 255 255
1.418 0.398 2.336 255 255 255
-0.544 -0.702 1.329 255 255 255
0.683 -1.308 2.126 255 255 255
-0.485 -0.5 1.231 255 255 255
0.148 0.566 1.296 255 255 255
0.378 0.281 1.238 0 0 0
1.034 -0.616 2.24 255 255 255
0.733 -0.517 2.188 255 255 255
-0.188 0.515 2.004 255 255 255
1.716 -0.472 2.404 255 255 255
1.265 -0.174 2.293 255 255 255
1.379 0.052 2.314 255 255 255
-0.218 0.028 1.978 255 255 255
0.327 0.517 1.048 255 255 255
-0.221 0.867 2.008 255 255 255
-0.09 -0.545 2.002 255 255 255
-0.206 -0.177 1.976 255 255 255
0.301 -0.347 2.075 255 255 255
0.259 0.339 1.234 255 255 255
0.135 -0.394 2.042 0 0 0
0.451 -0.186 2.105 255 255 255
0.159 0.547 1.231 255 255 255
-0.875 -1.319 1.844 255 255 255
0.403 0.413 2.107 255 255 255
-0.269 0.145 2.005 255 255 255
1.273 -0.597 2.283 255 255 255
-0.148 0.077 2.001 255 255 255
-1.041 -0.419 1.84 255 255 255
0.598 -1.011 2.111 255 255 255
0.847 0.56 2.235 255 255 255
0.6 -0.98 2.11 255 255 255
0.016 0.562 2.04 255 255 255
-0.694 1.079 2.15 255 255 255
-0.041 -0.459 2.013 255 255 255
1.275 -0.32 2.29 255 255 255
0.556 -0.072 2.123 255 255 255
-0.455 -1.642 2.54 255 255 255
-0.114 0.365 2.015 255 255 255
-0.17 -1.473 1.966 0 0 0
-0.577 -1.658 2.812 255 255 255
-0.013 0.491 2.033 255 255 255
0.327 0.357 1.154 255 255 255
0.226 0.584 1.07 255 255 255
-0.149 0.841 2.019 255 255 255
0.135 -1.264 2.026 255 255 255
-1.048 -0.519 1.81 255 255 255
-1.057 0.22 1.847 255 255 255
0.134 -0.003 2.047 255 255 255
1.392 -0.962 2.249 255 255 255
0.745 0.024 2.206 255 255 255
1.519 -0.665 2.321 255 255 255
0.719 -1.531 2.067 0 0 0
0.347 0.288 1.204 0 0 0
0.069 -1.026 2.015 255 255 255
1.292 0.461 2.316 255 255 255
0.1 -0.744 2.028 255 255 255
1.39 -0.774 2.259 255 255 255
0.228 -0.523 2.041 255 255 255
-0.041 -0.152 2.018 255 255 255
-0.061 0.081 2.019 255 255 255
0.344 -1.249 2.06 255 255 255
0.613 -1.018 2.11 255 255 255
0.198 0.529 1.142 255 255 255
1.382 -0.53 2.301 255 255 255
0.18 -0.278 2.051 255 255 255
-0.033 -0.645 2.005 255 255 255
1.152 -1.441 2.201 255 255 255
-1.049 -0.466 1.839 255 255 255
-0.139 0.436 2.012 255 255 255
-1.103 0.021 1.833 255 255 255
1.087 -0.24 2.257 255 255 255
0.462 0.495 1.116 255 255 255
0.374 -0.775 2.08 255 255 255
-0.986 -0.253 1.857 0 0 0
0.171 -0.862 2.04 255 255 255
1.003 0.595 2.261 255 255 255
0.963 -1.268 2.17 255 255 255
-0.772 1.055 2.893 255 255 255
0.021 0.877 2.051 255 255 255
0.587 -0.508 2.116 255 255 255
0.978 -0.369 2.234 255 255 255
-0.343 -1.426 1.929 0 0 0
0.143 -0.698 2.038 255 255 255
0.551 -0.407 2.115 255 255 255
0.031 -1.348 2.007 255 255 255
-1.071 0.237 1.844 255 255 255
-1.065 1.036 2.684 255 255 255
0.841 -0.55 2.206 255 255 255
0.875 0.291 2.234 255 255 255
-0.983 0.118 1.859 255 255 255
-0.13 0.386 2.012 255 255 255
0.42 -1.56 2.051 0 0 0
0.876 -0.885 2.159 255 255 255
0.178 0.621 2.073 255 255 255
0.903 0.635 2.245 255 255 255
0.596 0.351 2.185 255 255 255
1.148 -0.072 2.274 255 255 255
0.098 0.234 2.05 255 255 255
0.738 -0.391 2.191 255 255 255
-0.503 -0.375 1.23 255 255 255
-0.015 -1.504 1.995 0 0 0
0.94 0.053 2.239 255 255 255
0.208 0.351 2.072 255 255 255
-0.998 -0.98 1.79 255 255 255
-0.273 -1.626 2.735 255 255 255
0.338 0.562 1.028 255 255 255
0.184 -1.229 2.032 255 255 255
1.445 -0.724 2.275 255 255 255
-0.954 -1.109 1.832 255 255 255
-0.047 -0.927 1.995 255 255 255
1.31 -0.629 2.291 255 255 255
0.091 -1.35 2.018 255 255 255
1.38 0.479 2.327 255 255 255
0.228 0.471 1.13 255 255 255
0.226 0.431 1.173 255 255 255
0.077 -0.19 2.034 255 255 255
0.15 -0.032 2.049 255 255 255
-0.902 -0.96 1.865 255 255 255
0.335 -0.947 2.065 255 255 255
0.369 -1.076 2.072 255 255 255
-1.034 -0.019 1.447 255 255 255
0.949 -0.083 2.235 255 255 255
0.714 0.042 2.201 255 255 255
1.265 0.334 2.303 255 255 255
1.165 -0.747 2.228 255 255 255
0.804 -0.406 2.208 255 255 255
-0.969 -0.833 1.837 255 255 255
0.818 0.111 2.216 255 255 255
0.925 -0.563 2.22 255 255 255
0.92 0.17 2.237 255 255 255
0.272 -1.541 2.05 0 0 0
0.616 -1.285 2.11 255 255 255
1.319 -1.16 2.23 255 255 255
0.315 0.641 2.097 255 255 255
0.064 -0.978 2.02 255 255 255
0.372 0.53 1.115 255 255 255
-0.093 -0.248 2.006 255 255 255
0.187 0.367 2.069 255 255 255
0.171 -1.257 2.032 255 255 255
0.6 -0.769 2.111 255 255 255
0.219 -1.305 2.041 255 255 255
0.486 -0.106 2.111 255 255 255
-0.514 -0.277 1.23 255 255 255
0.371 -0.303 2.087 255 255 255
-0.894 -1.397 1.832 255 255 255
-0.836 -1.088 1.81 255 255 255
-0.172 0.9 2.022 0 0 0
0.323 0.434 1.102 255 255 255
0.203 0.489 1.158 255 255 255
0.854 -1.499 2.145 255 255 255
1.69 -0.253 2.41 255 255 255
1.184 -0.275 2.279 255 255 255
0.292 -1.243 2.055 255 255 255
0.705 0.274 2.208 255 255 255
-0.086 -0.482 2.003 255 255 255
0.537 -1.139 2.096 255 255 255
0.315 -0.377 2.077 255 255 255
-1.025 -0.082 1.445 255 255 255
-0.437 -0.837 1.236 255 255 255
0.016 0.365 2.039 255 255 255
-0.051 0.666 2.033 255 255 255
-0.033 0.363 2.029 255 255 255
0.352 0.102 2.093 255 255 255
0.14 0.374 2.061 255 255 255
-1.05 -0.173 1.838 255 255 255
0.411 0.494 1.175 255 255 255
-0.533 -1.371 1.934 255 255 255
1.229 -0.449 2.28 255 255 255
-1.016 -0.031 1.852 0 0 0
-0.296 0.337 2.006 0 0 0
-0.443 -0.703 1.247 0 0 0
0.98 -0.193 2.241 255 255 255
0.074 -0.62 2.023 255 255 255
-0.517 -0.198 1.233 255 255 255
0.498 0.194 2.118 255 255 255
-0.14 -0.075 2.002 255 255 255
-0.466 -0.627 1.233 255 255 255
0.463 -0.376 2.103 255 255 255
0.597 0.436 2.178 0 0 0
-0.563 0.22 1.235 255 255 255
0.109 0.017 2.042 255 255 255
0.204 0.483 1.163 255 255 255
-0.332 0.915 1.987 0 0 0
0.157 0.29 2.063 255 255 255
0.201 -0.831 2.043 255 255 255
-1.043 -0.463 1.692 255 255 255
-0.815 1.018 2.62 255 255 255
1.46 -0.512 2.316 255 255 255
0.096 -0.703 2.028 255 255 255
0.231 0.534 1.039 255 255 255
1.444 -0.19 2.321 255 255 255
-0.961 -0.019 1.856 255 255 255
-0.021 -0.616 2.01 255 255 255
0.894 -1.515 2.108 0 0 0
-0.237 0.685 2.001 255 255 255
1.122 0.025 2.269 255 255 255
-0.233 -0.196 2.004 255 255 255
-0.321 0.687 2 255 255 255
0.162 -0.831 2.035 255 255 255
0.377 -1.15 2.068 255 255 255
0.552 0.442 2.166 0 0 0
-1.035 0.267 1.866 255 255 255
0.709 -1.344 2.132 255 255 255
