ply
format ascii 1.0
comment Created by Open3D
element vertex 1587
property double x
property double y
property double z
property uchar red
property uchar green
property uchar blue
end_header
0.938 -0.966 2.107 255 255 255
-0.79 0.719 2.619 255 255 255
-0.026 0.861 2.049 255 255 255
-0.715 -2.079 2.845 255 255 255
0.693 0.079 2.225 255 255 255
-0.558 0.019 1.236 255 255 255
-0.311 0.053 2.011 255 255 255
0.079 -0.567 1.959 255 255 255
1.223 -1.027 2.153 255 255 255
-1.143 0.345 1.878 255 255 255
-0.956 -0.914 1.712 255 255 255
0.554 0.01 2.189 255 255 255
-0.429 0.566 2.382 0 0 0
0.337 0.482 1.051 255 255 255
0.146 0.534 1.339 0 0 0
1.335 -0.08 2.323 255 255 255
0.276 -0.721 1.981 255 255 255
0.486 0.369 1.055 255 255 255
0.898 -0.194 2.22 255 255 255
0.592 -0.513 2.116 255 255 255
-0.032 -0.624 1.939 0 0 0
0.859 -0.366 2.184 255 255 255
0.164 0.446 1.236 255 255 255
0.251 0.214 1.149 255 255 255
0.025 -1.27 1.843 255 255 255
0.413 0.436 1.039 255 255 255
-0.169 -0.466 1.932 255 255 255
-0.131 -0.303 1.966 255 255 255
-0.526 -0.684 1.131 255 255 255
0.157 0.398 1.25 255 255 255
-1.119 -0.462 1.754 255 255 255
0.289 0.21 1.146 255 255 255
-0.267 0.239 2.011 255 255 255
0.709 -1.223 1.982 255 255 255
-1.045 0.266 1.893 255 255 255
1.105 -0.337 2.24 255 255 255
0.319 -0.016 2.097 255 255 255
0.844 -1.025 2.086 255 255 255
-0.017 -1.368 1.823 0 0 0
0.778 -0.56 2.142 255 255 255
-0.113 -0.953 1.871 255 255 255
-0.51 0.863 1.73 255 255 255
-0.183 0.175 2.032 255 255 255
1.036 -1.361 2.02 255 255 255
0.156 0.904 1.674 255 255 255
0.826 -0.474 2.163 255 255 255
-1.138 -0.042 1.729 255 255 255
0.665 -0.598 2.111 255 255 255
0.3 0.221 1.14 255 255 255
0.043 0.591 2.146 255 255 255
-0.225 -0.058 1.975 255 255 255
0.84 -0.32 2.192 255 255 255
-0.204 -1.325 1.78 0 0 0
0.841 -0.406 2.173 255 255 255
1.012 -0.401 2.21 255 255 255
-0.552 0.088 1.249 255 255 255
0.915 -0.093 2.241 255 255 255
-1.116 -0.068 1.82 255 255 255
-0.623 -0.571 1.233 255 255 255
0.868 -1.232 2.008 255 255 255
0.247 0.318 1.093 255 255 255
0.997 -1.333 2.015 255 255 255
-1.087 0.24 1.871 255 255 255
-1.143 0.162 1.852 255 255 255
-0.557 -0.072 1.22 255 255 255
0.881 -0.843 2.114 255 255 255
-0.605 -0.711 1.196 255 255 255
-0.113 0.049 2.025 255 255 255
-0.052 -0.167 2.003 255 255 255
-0.991 -0.316 1.806 255 255 255
-0.583 -0.095 1.211 255 255 255
1.217 -0.231 2.279 255 255 255
0.729 -0.318 2.171 255 255 255
0.317 0.086 2.112 255 255 255
0.434 0.166 1.245 0 0 0
0.323 0.439 1.074 255 255 255
0.544 -0.876 2.006 255 255 255
-0.117 0.854 2.051 255 255 255
0.481 -1.339 1.922 255 255 255
-0.592 0.829 1.924 255 255 255
0.313 -0.362 2.038 255 255 255
0.893 -0.647 2.15 255 255 255
0.324 0.045 1.302 0 0 0
0.46 -0.282 2.08 255 255 255
0.193 0.275 1.249 255 255 255
0.451 0.317 1.109 255 255 255
0.406 -1.446 1.891 0 0 0
0.97 0.049 2.272 255 255 255
-1.045 -0.1 1.842 255 255 255
0.297 0.305 1.09 255 255 255
-0.068 -0.206 1.992 255 255 255
0.466 0.471 1.075 255 255 255
0.577 -0.432 2.123 255 255 255
-1.032 -0.194 1.813 255 255 255
-0.155 -0.13 1.988 255 255 255
-0.566 0.074 1.24 255 255 255
-0.116 0.888 1.728 255 255 255
0.061 0.853 2.11 255 255 255
1.588 -0.042 2.426 255 255 255
0.416 0.261 1.223 255 255 255
-0.42 0.787 2.284 0 0 0
1.687 0.125 2.464 255 255 255
0.651 -0.318 2.152 255 255 255
0.497 0.262 1.095 255 255 255
0.464 -0.29 2.078 255 255 255
-1.131 -0.152 1.691 255 255 255
0.338 -1.137 1.927 255 255 255
1.638 -0.548 2.354 255 255 255
-0.578 0.356 1.283 255 255 255
0.684 -0.29 2.17 255 255 255
0.193 0.487 1.324 255 255 255
0.387 -0.424 2.047 255 255 255
-0.021 0.344 2.089 255 255 255
-0.42 0.823 2.069 255 255 255
0.345 -0.909 1.967 255 255 255
0.57 -1.46 1.916 0 0 0
0.314 -1.225 1.907 255 255 255
-0.06 -0.127 2.006 255 255 255
1.085 0.189 2.317 255 255 255
0.358 0.11 1.19 0 0 0
0.424 -0.239 2.08 255 255 255
0.398 0.211 1.222 255 255 255
1.293 -0.085 2.315 255 255 255
0.137 0.176 2.092 255 255 255
0.616 -0.181 2.17 255 255 255
1.065 -0.443 2.215 255 255 255
-1.128 -0.052 1.823 255 255 255
0.301 0.87 2.032 255 255 255
1.556 -0.761 2.307 255 255 255
-0.316 0.37 2.051 255 255 255
0.357 0.336 1.113 255 255 255
-0.235 -0.941 1.839 255 255 255
0.803 -1.158 2.023 255 255 255
-0.107 -0.539 1.934 255 255 255
0.333 0.502 1.103 255 255 255
0.227 0.38 1.122 255 255 255
0.448 -0.168 2.093 255 255 255
-0.21 -0.438 1.917 255 255 255
-0.081 0.874 1.895 0 0 0
-0.56 -0.306 1.176 255 255 255
0.56 -1.444 1.921 0 0 0
1.565 -0.647 2.322 255 255 255
-1.24 -2.122 2.791 255 255 255
-1.029 -0.477 1.782 255 255 255
-0.507 0.882 1.594 255 255 255
-0.231 0.471 2.068 255 255 255
-1.126 -0.335 1.775 255 255 255
0.254 0.421 1.105 255 255 255
-0.222 -0.496 1.902 255 255 255
-1.06 0.365 1.901 255 255 255
-0.341 0.55 2.078 255 255 255
-0.572 0.819 2.022 255 255 255
0.371 0.4 1.066 255 255 255
-0.128 0.293 2.057 255 255 255
0.391 0.41 1.062 255 255 255
-0.276 0.375 2.032 255 255 255
0.41 -0.674 2.011 255 255 255
0.265 0.293 1.104 255 255 255
-1.148 0.048 1.759 255 255 255
0.249 0.001 2.086 255 255 255
-0.606 0.876 1.559 255 255 255
-1.011 -0.784 1.73 255 255 255
-1.132 -0.293 1.726 255 255 255
-0.208 -0.771 1.862 255 255 255
1.086 -1.291 2.05 255 255 255
-0.289 0.841 2.045 255 255 255
0.238 -1.209 1.897 255 255 255
-1.136 0.005 1.829 255 255 255
0.07 0.217 2.085 255 255 255
1.515 -0.825 2.271 255 255 255
0.409 -0.997 1.961 255 255 255
0.309 0.89 1.875 255 255 255
0.335 -1.195 1.917 255 255 255
0.572 0.229 1.059 255 255 255
0.343 0.094 2.116 255 255 255
0.308 0.218 1.135 255 255 255
0.004 0.165 2.064 255 255 255
-0.379 0.816 2.12 255 255 255
0.178 -0.977 1.923 255 255 255
1.121 -0.647 2.194 255 255 255
1.331 -0.342 2.28 255 255 255
0.076 -0.551 1.963 255 255 255
0.075 0.641 2.16 255 255 255
0.33 -0.569 2.011 255 255 255
-0.563 0.195 1.266 255 255 255
-0.084 0.671 2.136 255 255 255
0.164 0.368 1.252 255 255 255
0.224 0.49 1.145 255 255 255
0.295 0.477 1.059 255 255 255
-0.196 -0.519 1.917 255 255 255
0.287 -1.104 1.919 255 255 255
-0.433 0.872 1.699 255 255 255
0.634 -1.113 2.029 255 255 255
1.13 -0.15 2.27 255 255 255
0.845 -0.256 2.199 255 255 255
-0.231 -0.163 1.953 255 255 255
-0.258 -0.91 1.869 255 255 255
1.072 -0.439 2.218 255 255 255
0.143 -0.044 2.057 255 255 255
0.382 0.472 0.988 255 255 255
-0.115 -0.389 1.957 255 255 255
-0.429 0.755 2.502 255 255 255
0.517 -1.379 1.923 255 255 255
-0.532 -0.861 1.092 255 255 255
0.142 0.9 1.683 255 255 255
-1.154 0.649 2.91 255 255 255
1.503 -0.004 2.411 255 255 255
0.289 -0.773 1.972 255 255 255
0.34 0.522 0.974 255 255 255
0.4 0.487 0.96 255 255 255
0.159 0.411 1.242 255 255 255
-0.076 0.883 1.746 255 255 255
-0.589 -0.781 1.174 255 255 255
-0.544 -0.018 1.294 255 255 255
0.37 0.438 1.022 255 255 255
0.227 -1.291 1.881 255 255 255
0.763 -0.144 2.2 255 255 255
1.286 -0.2 2.297 255 255 255
0.057 0.854 2.101 255 255 255
-0.734 0.734 2.517 255 255 255
1.007 -0.84 2.141 255 255 255
0.719 -0.242 2.179 255 255 255
-0.04 0.6 2.131 255 255 255
-1.155 0.151 1.805 255 255 255
0.243 0.465 1.107 255 255 255
0.518 0.257 0.96 255 255 255
-0.717 0.794 2.093 255 255 255
0.315 -0.704 1.992 255 255 255
1.475 -0.52 2.297 255 255 255
-0.048 -0.292 1.981 255 255 255
0.559 -1.219 1.951 255 255 255
-0.021 0.091 2.049 255 255 255
-0.072 0.812 2.144 255 255 255
-0.202 0.841 2.088 255 255 255
-1.107 -0.454 1.59 255 255 255
0.207 0.292 1.179 255 255 255
-1.005 -0.043 1.84 255 255 255
1.165 -1.056 2.134 255 255 255
-0.291 0.017 1.986 255 255 255
-0.993 -0.345 1.788 255 255 255
0.222 0.488 1.12 255 255 255
0.35 -0.953 1.958 255 255 255
-1.021 -0.519 1.786 255 255 255
0.348 0.331 1.103 255 255 255
-0.547 -0.202 1.202 255 255 255
1.039 0.011 2.283 255 255 255
0.486 -0.354 2.072 255 255 255
-1.215 -2.106 2.981 255 255 255
0.075 0.717 2.159 255 255 255
0.254 0.213 1.144 255 255 255
0.927 -0.837 2.127 255 255 255
0.285 0.231 2.127 255 255 255
0.383 0.507 0.959 255 255 255
-0.094 0.815 2.138 255 255 255
0.256 -0.865 1.953 255 255 255
0.903 -0.223 2.22 255 255 255
1.1 -0.317 2.244 255 255 255
0.303 0.066 1.238 0 0 0
0.723 0.029 2.229 255 255 255
0.18 0.402 2.139 255 255 255
-0.548 0.852 1.803 255 255 255
-0.175 0.857 2.021 255 255 255
1.27 -0.422 2.259 255 255 255
0.556 -1.076 1.972 255 255 255
0.224 0.873 2 255 255 255
0.457 -0.156 2.094 255 255 255
0.862 0.308 2.294 255 255 255
-0.311 0.89 1.625 255 255 255
-0.252 -0.873 1.869 255 255 255
0.183 -0.17 2.044 255 255 255
0.309 -0.893 1.958 0 0 0
0.409 0.031 2.119 255 255 255
-0.576 0.428 1.301 0 0 0
0.457 0.296 1.135 0 0 0
0.377 0.292 1.17 255 255 255
0.43 -0.012 2.118 255 255 255
-0.553 0.865 1.697 255 255 255
0.246 0.096 1.286 0 0 0
0.073 -0.921 1.911 255 255 255
0.51 -1.103 1.963 255 255 255
-1.144 0.699 2.662 0 0 0
0.459 0.299 1.126 0 0 0
0.439 -0.739 2.01 255 255 255
1.048 -0.418 2.216 255 255 255
0.366 -0.058 2.098 255 255 255
0.543 -0.469 2.072 255 255 255
0.454 -0.84 1.992 255 255 255
-0.072 -0.111 2.007 255 255 255
0.041 -1.16 1.863 255 255 255
-0.978 -0.337 1.842 255 255 255
0.488 -0.055 2.119 255 255 255
-0.092 -0.799 1.894 255 255 255
-0.055 -1.329 1.824 0 0 0
0.365 0.108 1.195 0 0 0
0.358 0.515 0.951 255 255 255
-0.021 0.241 2.071 255 255 255
0.17 0.334 2.126 255 255 255
0.321 0.538 1.044 255 255 255
-1.021 0.64 2.994 255 255 255
0.332 0.458 1.067 255 255 255
0.765 -0.031 2.221 255 255 255
0.251 -0.16 2.058 255 255 255
-0.192 -1.207 1.799 255 255 255
0.307 -1.01 1.939 255 255 255
-1.158 0.226 1.822 255 255 255
0.25 0.439 1.105 255 255 255
0.219 -0.378 2.018 255 255 255
-1.137 -2.117 2.919 0 0 0
0.916 0.227 2.291 255 255 255
-0.194 -0.102 1.982 255 255 255
-0.129 0.571 2.105 255 255 255
0.769 -0.149 2.202 255 255 255
1.206 -0.294 2.263 255 255 255
0.032 0.009 2.043 255 255 255
1.172 -0.429 2.239 255 255 255
0.214 0.19 1.249 0 0 0
1.084 0.234 2.323 255 255 255
-0.053 -0.007 2.024 255 255 255
1.705 -0.22 2.412 255 255 255
1.487 0.33 2.459 255 255 255
-1.062 -0.081 1.399 255 255 255
0.083 0.501 1.337 0 0 0
0.049 0.873 1.956 0 0 0
0.161 -1.26 1.872 255 255 255
0.07 0.873 1.976 0 0 0
1.236 -0.701 2.205 255 255 255
0.204 -1.406 1.858 0 0 0
-0.796 0.706 2.704 255 255 255
-0.556 -0.012 1.233 0 0 0
-1.026 -0.155 1.822 255 255 255
0.012 0.245 2.077 255 255 255
0.345 0.217 1.136 255 255 255
-0.528 0.792 2.24 255 255 255
-0.115 -0.252 1.977 255 255 255
-0.222 0.309 2.045 255 255 255
0.963 -1.395 1.998 255 255 255
0.463 -0.349 2.07 255 255 255
-0.549 0.855 1.76 255 255 255
0.268 0.359 1.074 255 255 255
0.049 0.137 2.07 255 255 255
0.872 0.284 2.294 255 255 255
-0.052 -0.53 1.946 0 0 0
-0.217 0.883 1.688 255 255 255
-0.589 -0.442 1.193 255 255 255
-0.562 0.777 2.329 255 255 255
-1.111 -2.079 2.724 255 255 255
0.294 0.45 1.061 255 255 255
0.587 -0.485 2.117 255 255 255
-0.426 0.882 1.633 255 255 255
-0.674 0.297 1.367 255 255 255
0.9 -1.385 1.99 255 255 255
0.821 0.276 2.283 255 255 255
0.299 -0.853 1.963 0 0 0
0.045 0.204 2.078 255 255 255
0.911 -0.329 2.205 255 255 255
0.201 0.327 1.177 255 255 255
-0.105 -0.896 1.878 255 255 255
0.404 0.397 1.066 255 255 255
-0.634 0.696 2.69 255 255 255
-1.141 -0.06 1.811 255 255 255
0.208 -0.731 1.965 255 255 255
-0.243 -1.017 1.848 255 255 255
1.543 0.182 2.448 255 255 255
0.495 -0.397 2.069 255 255 255
-1.001 -0.224 1.807 255 255 255
-0.033 -0.107 2.014 255 255 255
0.268 0.459 1.07 255 255 255
1.246 -0.729 2.207 255 255 255
0.096 0.464 1.292 255 255 255
-0.168 -1.167 1.819 255 255 255
-0.216 -1.179 1.803 255 255 255
0.104 -0.637 1.963 255 255 255
0.213 -1.254 1.885 255 255 255
-0.27 0.869 1.823 255 255 255
0.031 -0.541 1.957 255 255 255
0.203 -0.236 2.038 255 255 255
0.92 -0.77 2.141 255 255 255
-0.834 -2.067 2.732 255 255 255
0.219 0.287 1.126 255 255 255
-1.055 0.22 1.887 255 255 255
0.958 -1.319 2.003 255 255 255
1.294 -0.499 2.249 255 255 255
0.739 -0.432 2.159 255 255 255
0.427 0.412 1.051 255 255 255
0.419 -0.649 2.016 255 255 255
-0.185 -0.644 1.903 255 255 255
-0.157 -0.967 1.858 255 255 255
0.778 -0.524 2.146 255 255 255
-0.357 0.886 1.62 255 255 255
0.064 -0.096 2.033 255 255 255
1.114 -0.769 2.177 255 255 255
0.201 0.404 1.214 255 255 255
0.145 -0.242 2.026 255 255 255
-0.563 -0.079 1.214 255 255 255
-1.043 -0.805 1.712 255 255 255
0.97 0.349 2.32 255 255 255
-0.06 -0.65 1.926 255 255 255
-1.051 -0.135 1.825 0 0 0
0.301 -0.706 1.986 255 255 255
0.158 -0.677 1.964 255 255 255
-0.811 -2.114 2.997 255 255 255
0.886 -0.594 2.156 255 255 255
-0.112 -0.15 1.991 255 255 255
-1.054 -0.48 1.766 255 255 255
-0.144 -0.075 1.999 255 255 255
0.022 0.768 2.156 255 255 255
1.5 0.208 2.444 255 255 255
0.606 -0.185 2.168 255 255 255
0.962 -1.156 2.052 255 255 255
0.375 0.483 0.98 255 255 255
0.41 0.272 1.211 255 255 255
0.648 -0.243 2.165 255 255 255
1.681 -0.225 2.409 255 255 255
0.215 0.305 1.167 255 255 255
0.049 0.806 2.165 255 255 255
0.807 -0.309 2.186 255 255 255
-0.594 0.346 1.272 255 255 255
-0.879 0.769 2.221 255 255 255
0.096 -0.408 1.99 255 255 255
0.06 -0.773 1.93 255 255 255
-0.065 -0.937 1.878 255 255 255
-0.08 -0.374 1.964 255 255 255
1.675 -0.197 2.413 255 255 255
0.933 -1.12 2.056 0 0 0
0.456 -0.215 2.089 255 255 255
0.34 0.88 1.919 255 255 255
-0.275 -0.128 1.958 255 255 255
-0.061 -0.909 1.887 255 255 255
1.195 -0.351 2.248 255 255 255
-0.048 -0.3 1.981 255 255 255
0.193 -0.853 1.941 255 255 255
-0.578 -0.325 1.186 255 255 255
0.911 0.281 2.301 255 255 255
-1.131 -0.324 1.721 255 255 255
0.211 0.301 1.173 255 255 255
-1.135 -0.195 1.779 255 255 255
0.375 -1.4 1.89 0 0 0
0.506 -0.723 2.02 255 255 255
1.21 -0.373 2.253 255 255 255
-1.098 0.292 1.877 255 255 255
-1.132 -2.062 2.594 255 255 255
0.228 -0.419 2.015 255 255 255
0.578 -0.569 2.105 0 0 0
-0.718 0.729 2.561 255 255 255
1.448 0.375 2.444 255 255 255
-0.444 0.811 2.123 255 255 255
0.305 -1.091 1.93 255 255 255
0.721 -1.303 1.971 255 255 255
0.239 0.294 1.103 255 255 255
0.765 0.043 2.236 255 255 255
-0.541 0.785 2.277 255 255 255
1.048 -0.637 2.182 255 255 255
-0.024 -0.199 2.002 255 255 255
0.777 -1.162 2.017 255 255 255
0.492 0.403 1.036 255 255 255
-1.098 -0.678 1.732 255 255 255
-0.575 0.831 1.944 255 255 255
0.212 0.34 1.141 255 255 255
0.106 0.488 1.271 0 0 0
-0.064 -0.755 1.907 255 255 255
-0.317 0.414 2.055 255 255 255
0.466 -0.003 2.122 255 255 255
1.011 -0.023 2.269 255 255 255
-0.182 0.301 2.052 255 255 255
-0.071 0.317 2.075 255 255 255
0.412 -0.008 2.114 255 255 255
-0.57 0.15 1.252 255 255 255
0.205 -0.781 1.964 0 0 0
0.727 0.111 2.238 255 255 255
0.902 -0.577 2.161 255 255 255
0.283 0.502 1.059 255 255 255
0.338 0.368 1.075 255 255 255
0.417 -0.732 2.008 255 255 255
0.088 -0.678 1.945 255 255 255
0.146 0.206 2.098 255 255 255
-0.214 0.872 1.807 255 255 255
0.513 -0.322 2.08 255 255 255
0.274 -0.036 2.081 255 255 255
0.381 0.483 0.984 255 255 255
0.206 0.395 1.196 255 255 255
-0.189 -0.258 1.959 255 255 255
-0.186 -0.192 1.971 255 255 255
0.441 -1.111 1.95 255 255 255
0.882 -0.655 2.146 255 255 255
-0.049 0.013 2.03 255 255 255
0.789 -0.407 2.168 255 255 255
0.524 0.223 1.187 255 255 255
0.294 0.504 1.055 255 255 255
0.286 -0.847 1.962 0 0 0
0.012 0.367 2.098 255 255 255
1.348 -0.267 2.294 255 255 255
1.024 -0.028 2.273 255 255 255
-0.131 -0.201 1.98 255 255 255
0.363 -0.748 1.994 255 255 255
-0.682 0.849 1.747 255 255 255
0.421 0.289 1.191 255 255 255
-0.357 0.861 1.845 0 0 0
1.301 0.006 2.329 255 255 255
0.004 -1.023 1.878 255 255 255
-0.611 -0.61 1.216 255 255 255
0.954 0.126 2.283 255 255 255
0.227 -1.096 1.911 255 255 255
0.335 0.529 0.97 255 255 255
0.452 -0.743 2.008 255 255 255
0.344 0.495 0.987 255 255 255
0.989 -1.401 2.009 255 255 255
0.816 -0.437 2.169 255 255 255
1.04 -1.068 2.113 255 255 255
1.398 -0.422 2.278 255 255 255
-0.566 0.307 1.286 0 0 0
1.483 -0.152 2.375 255 255 255
1.101 -1.008 2.134 255 255 255
0.328 0.57 1.12 255 255 255
0.202 -1.161 1.9 255 255 255
-0.163 0.566 2.1 255 255 255
0.161 -1.245 1.875 255 255 255
0.34 0.171 2.121 0 0 0
0.087 0.555 2.148 255 255 255
1.199 0.229 2.346 255 255 255
-0.217 0.527 2.084 255 255 255
0.304 0.909 1.695 255 255 255
0.039 -0.29 1.995 255 255 255
0.226 0.295 2.126 255 255 255
-0.024 -0.368 1.976 255 255 255
-0.005 -0.111 2.017 255 255 255
0.257 -0.469 2.009 255 255 255
1.465 0.124 2.412 255 255 255
0.521 -0.183 2.105 255 255 255
1.189 -0.78 2.187 255 255 255
0.549 -0.93 1.995 255 255 255
0.215 0.538 1.136 255 255 255
0.187 0.484 2.151 255 255 255
0.467 -0.96 1.977 255 255 255
1.24 -0.084 2.305 255 255 255
-0.471 0.793 2.221 255 255 255
1.327 -0.796 2.208 255 255 255
1.106 -0.135 2.268 255 255 255
0.093 -0.881 1.916 0 0 0
-0.607 0.275 1.27 255 255 255
-1.004 0.722 2.537 255 255 255
1.05 -0.314 2.233 255 255 255
0.396 -0.442 2.047 255 255 255
0.324 0.512 1.038 255 255 255
1.47 0.239 2.437 255 255 255
0.033 0.285 2.09 255 255 255
0.563 0.05 2.184 255 255 255
0.037 0.264 2.088 255 255 255
0.958 -1.315 2.006 255 255 255
0.485 -0.548 2.042 255 255 255
0.423 0.217 1.24 255 255 255
-0.001 0.783 2.158 255 255 255
0.388 0.095 2.122 0 0 0
0.357 0.339 1.112 255 255 255
-1.027 -0.426 1.795 255 255 255
-0.556 0.137 1.262 255 255 255
0.61 0.198 1.181 255 255 255
-0.486 0.806 2.13 255 255 255
-0.327 0.711 2.098 255 255 255
1.323 -0.452 2.264 255 255 255
-0.276 -0.416 1.937 255 255 255
0.145 -0.643 1.968 255 255 255
0.13 -1.201 1.875 255 255 255
-0.124 -0.015 2.01 255 255 255
1.043 0.021 2.29 255 255 255
0.506 -0.896 1.993 255 255 255
0.134 -0.742 1.951 255 255 255
0.586 -0.189 2.163 255 255 255
1.454 0.232 2.421 255 255 255
-0.325 0.46 2.072 255 255 255
0.622 0.217 1.149 255 255 255
0.794 -0.548 2.145 255 255 255
0.226 -0.882 1.941 0 0 0
-0.635 0.874 1.624 255 255 255
-0.284 0.558 2.064 255 255 255
-0.231 -1.086 1.823 255 255 255
0.674 -0.727 2.098 255 255 255
-0.557 -0.139 1.21 255 255 255
-0.215 -0.292 1.942 255 255 255
0.435 0.279 1.203 255 255 255
-1.061 -0.412 1.773 255 255 255
0.348 0.437 1.043 255 255 255
-0.697 0.709 2.662 0 0 0
-0.231 0.669 2.107 255 255 255
-1.055 0.695 2.695 255 255 255
0.579 -0.877 2.039 0 0 0
-0.066 -1.04 1.863 255 255 255
0.759 -1.499 1.947 255 255 255
-0.156 0.255 2.047 255 255 255
0.09 0.475 1.315 0 0 0
-0.888 0.733 2.522 255 255 255
0.341 0.424 1.091 255 255 255
-0.782 0.828 1.888 0 0 0
0.256 0.073 1.329 0 0 0
0.967 -0.332 2.213 255 255 255
0.464 0.249 1.218 0 0 0
1.011 -0.9 2.134 255 255 255
0.108 0.882 1.892 255 255 255
0.096 -0.268 2.011 255 255 255
0.055 0.88 1.86 255 255 255
0.368 0.43 1.046 255 255 255
-0.16 0.618 2.11 255 255 255
0.104 -0.28 2.008 255 255 255
0.095 0.469 1.356 0 0 0
1.388 0.318 2.392 255 255 255
0.121 -1.162 1.88 255 255 255
0.362 0.087 1.204 0 0 0
-0.102 0.139 2.04 255 255 255
0.287 0.41 1.071 255 255 255
-0.526 0.784 2.278 255 255 255
-1.041 -0.127 1.824 255 255 255
0.366 -0.291 2.062 255 255 255
0.376 0.086 1.223 0 0 0
0.226 0.145 1.261 0 0 0
0.289 0.491 1.057 255 255 255
-0.547 -0.412 1.165 255 255 255
1.689 -0.492 2.363 255 255 255
-0.077 0.876 1.889 0 0 0
0.267 -0.946 1.943 255 255 255
-1.085 -0.718 1.724 255 255 255
-1.16 0.243 1.824 255 255 255
0.2 0.539 1.34 255 255 255
-1.146 0.075 1.835 255 255 255
0.261 0.31 2.135 255 255 255
0.516 -0.2 2.101 255 255 255
0.569 -0.677 2.068 0 0 0
-1.146 -0.035 1.779 255 255 255
-1.056 -0.266 1.382 255 255 255
0.332 0.416 1.113 255 255 255
0.679 -1.023 2.051 255 255 255
0.617 -0.123 2.178 255 255 255
0.161 -0.457 2 255 255 255
-0.113 -1.32 1.809 0 0 0
0.465 -0.879 1.992 255 255 255
-0.752 0.747 2.404 255 255 255
0.207 -0.418 2.012 255 255 255
0.91 -1.224 2.013 255 255 255
-0.026 -1.24 1.839 255 255 255
0.356 -0.468 2.032 255 255 255
0.994 -0.343 2.213 255 255 255
0.244 0.868 2.033 255 255 255
1.2 0.249 2.346 255 255 255
-0.04 -0.554 1.944 0 0 0
-0.242 -0.602 1.886 255 255 255
0.384 -0.245 2.07 255 255 255
0.463 -0.973 1.974 255 255 255
-1.148 0.147 1.748 255 255 255
0.167 0.303 1.282 0 0 0
-1.107 -0.417 1.596 255 255 255
0.134 -0.04 2.055 255 255 255
1.138 0.08 2.313 255 255 255
1.108 -0.38 2.231 255 255 255
0.313 0.395 1.086 255 255 255
-0.061 0.017 2.03 255 255 255
0.392 0.056 2.122 255 255 255
0.647 -0.305 2.155 255 255 255
0.48 -0.759 2.01 255 255 255
0.371 0.423 1.082 255 255 255
1.105 0.291 2.339 255 255 255
0.123 -1.331 1.856 255 255 255
0.229 -0.249 2.043 255 255 255
-1.079 -0.174 1.477 255 255 255
-0.302 0.282 2.023 255 255 255
-0.084 0.356 2.08 255 255 255
0.153 -0.282 2.02 255 255 255
0.356 0.347 1.108 255 255 255
-0.923 -2.059 2.654 255 255 255
0.054 0.351 2.105 255 255 255
0.354 0.419 1.11 255 255 255
-0.107 -0.632 1.922 255 255 255
0.306 -0.227 2.059 255 255 255
0.268 0.338 1.068 255 255 255
0.118 0.604 2.16 255 255 255
0.271 0.412 1.084 255 255 255
-0.301 0.257 2.02 255 255 255
-0.119 -0.432 1.948 255 255 255
0.531 -0.476 2.062 255 255 255
-0.045 0.066 2.042 255 255 255
1.69 -0.667 2.358 255 255 255
0.943 -1.323 2.005 255 255 255
0.857 -0.907 2.1 255 255 255
1.191 -1.011 2.153 255 255 255
-0.229 0.873 1.771 255 255 255
-0.526 0.879 1.609 255 255 255
1.07 0.006 2.289 255 255 255
-0.246 0.439 2.058 255 255 255
-0.528 -0.455 1.165 0 0 0
-0.046 -1.083 1.861 255 255 255
-0.564 -0.467 1.157 255 255 255
0.145 0.62 2.165 255 255 255
0.716 -1.245 1.98 255 255 255
-0.231 0.045 1.992 255 255 255
-0.726 0.823 1.925 255 255 255
1.329 -0.694 2.223 255 255 255
-0.552 -0.036 1.23 0 0 0
-0.257 -0.704 1.887 255 255 255
0.874 -0.455 2.174 255 255 255
-0.161 -1.211 1.815 255 255 255
-0.098 0.471 2.095 255 255 255
0.665 -1.262 1.963 255 255 255
1.074 -0.718 2.174 255 255 255
0.541 -0.104 2.152 0 0 0
0.175 -0.597 1.986 255 255 255
0.433 0.331 1.12 255 255 255
0.372 0.393 1.061 255 255 255
0.26 0.224 1.127 255 255 255
0.097 -0.771 1.935 255 255 255
-1.106 0.236 1.862 255 255 255
0.685 0.203 1.171 255 255 255
1.259 -0.725 2.21 255 255 255
-0.009 0.407 2.102 255 255 255
0.944 -1.132 2.053 255 255 255
-1.077 0.025 1.838 255 255 255
-0.192 -1.202 1.799 255 255 255
-0.537 0.856 1.776 255 255 255
0.053 -1.052 1.886 255 255 255
0.064 -0.104 2.034 255 255 255
0.497 0.247 1.18 255 255 255
0.957 0.268 2.308 255 255 255
-0.519 -0.66 1.137 0 0 0
-0.147 -1.129 1.833 255 255 255
0.307 0.082 1.211 255 255 255
0.203 0.257 1.202 255 255 255
0.392 -0.583 2.022 255 255 255
-0.539 -0.302 1.19 255 255 255
1.532 -0.112 2.401 255 255 255
-0.186 0.297 2.051 255 255 255
0.046 0.897 1.658 255 255 255
0.773 -1.115 2.054 255 255 255
0.352 -0.538 2.021 255 255 255
1.357 0.343 2.392 255 255 255
-0.532 0.813 2.064 255 255 255
-1.063 -0.171 1.418 255 255 255
0.628 0.221 1.094 255 255 255
-0.208 0.795 2.117 255 255 255
-0.028 -0.526 1.949 255 255 255
0.552 -0.991 1.987 255 255 255
-0.029 -1.144 1.853 255 255 255
-0.017 0.331 2.087 255 255 255
-0.634 -2.051 2.673 255 255 255
1.167 -0.673 2.202 255 255 255
-1.059 -2.069 2.672 255 255 255
1.283 -0.064 2.319 255 255 255
-1.14 -0.14 1.744 255 255 255
1.165 -1.115 2.114 255 255 255
1.084 -0.383 2.227 255 255 255
0.313 0.259 1.112 255 255 255
1.198 0.101 2.326 255 255 255
-0.466 0.718 2.603 0 0 0
-0.217 -0.863 1.849 255 255 255
-0.291 0.85 1.986 255 255 255
1.728 -0.183 2.426 255 255 255
0.375 -1.053 1.946 255 255 255
0.608 -1.302 1.948 255 255 255
0.614 -0.048 2.203 0 0 0
1.094 0.011 2.293 255 255 255
0.055 0.482 2.127 255 255 255
0.35 0.129 1.177 255 255 255
0.096 0.49 1.283 255 255 255
0.756 -0.207 2.19 255 255 255
1.053 -1.274 2.03 255 255 255
-0.173 -1.246 1.795 255 255 255
-0.07 -1.071 1.857 255 255 255
0.532 0.21 1.182 255 255 255
-0.184 0.72 2.108 255 255 255
0.824 -1.061 2.076 255 255 255
1.501 -0.395 2.344 255 255 255
-0.249 -0.411 1.915 255 255 255
-1.011 -0.514 1.786 255 255 255
0.294 0.06 2.104 255 255 255
0.401 -0.509 2.036 255 255 255
-0.547 -0.785 1.112 255 255 255
0.149 -0.484 1.991 255 255 255
0.83 -0.224 2.202 255 255 255
0.254 -0.61 1.993 0 0 0
-0.152 0.455 2.082 255 255 255
1.317 0.208 2.364 255 255 255
0.242 0.386 1.1 255 255 255
0.152 0.017 2.069 255 255 255
-1.138 0.03 1.831 255 255 255
0.481 -0.135 2.104 255 255 255
-0.152 -1.148 1.831 255 255 255
-1.135 -0.227 1.737 255 255 255
-0.233 -1 1.834 255 255 255
-0.572 0.112 1.244 255 255 255
0.859 -0.817 2.117 255 255 255
1.37 -0.598 2.248 255 255 255
0.423 0.453 0.989 255 255 255
-0.065 -0.003 2.022 255 255 255
0.72 -0.892 2.083 255 255 255
-0.555 -0.489 1.15 255 255 255
0.232 0.009 2.085 255 255 255
-0.222 0.665 2.11 255 255 255
0.136 0.391 1.274 255 255 255
-1.147 0.091 1.741 255 255 255
0.076 -0.628 1.963 0 0 0
0.297 0.167 1.163 255 255 255
0.234 0.287 2.127 255 255 255
0.297 0.288 1.099 255 255 255
1.262 -0.342 2.264 255 255 255
0.355 -1.22 1.92 255 255 255
0.244 0.911 1.665 255 255 255
0.264 0.497 1.353 255 255 255
-0.268 -0.035 1.969 255 255 255
0.267 0.143 1.209 255 255 255
0.158 -0.639 1.968 255 255 255
-0.156 0.872 1.877 0 0 0
0.487 0.331 1.041 255 255 255
0.301 0.078 1.229 0 0 0
1.679 -0.496 2.358 255 255 255
0.03 0.562 2.141 255 255 255
-0.932 0.67 2.855 255 255 255
-0.143 -1.074 1.843 255 255 255
-0.211 -0.365 1.928 255 255 255
-1.132 0.31 1.872 255 255 255
0.495 0.344 1.034 255 255 255
-0.032 -0.636 1.935 255 255 255
-0.175 0.353 2.063 255 255 255
0.367 -1.066 1.943 255 255 255
1.046 -0.238 2.241 255 255 255
0.205 -1.094 1.909 255 255 255
0.353 -1.407 1.885 0 0 0
-0.204 -0.378 1.935 255 255 255
1.118 0.344 2.35 255 255 255
1.003 0.074 2.287 255 255 255
-0.186 0.636 2.108 255 255 255
0.17 -0.615 1.972 255 255 255
1.068 0.208 2.315 255 255 255
0.326 -1.189 1.917 255 255 255
1.161 -0.881 2.164 255 255 255
0.965 0.121 2.285 255 255 255
0.478 -0.883 1.99 255 255 255
1.296 0.016 2.331 255 255 255
0.251 0.464 1.103 255 255 255
0.228 0.877 1.956 0 0 0
-1.074 -0.063 1.825 255 255 255
0.299 -1.184 1.912 255 255 255
-0.581 0.594 2.967 0 0 0
1.339 0.162 2.361 255 255 255
-0.017 -0.119 2.015 255 255 255
0.035 0.881 1.825 255 255 255
0.97 -0.458 2.193 255 255 255
-0.296 0.362 2.03 255 255 255
-1.066 -0.027 1.837 0 0 0
0.118 0.878 1.934 0 0 0
-0.427 0.858 1.828 255 255 255
0.265 0.559 1.057 255 255 255
0.09 -1.029 1.897 255 255 255
1.143 -1.176 2.081 255 255 255
0.068 -0.232 2.011 255 255 255
0.323 0.22 1.134 255 255 255
-1.139 0.016 1.708 255 255 255
0.165 -1.016 1.914 255 255 255
0.412 -0.96 1.966 255 255 255
-0.119 0.89 1.658 255 255 255
-1.121 -0.201 1.636 255 255 255
-1.061 -0.047 1.836 0 0 0
0.767 -0.491 2.148 255 255 255
0.419 0.35 1.12 255 255 255
0.223 -0.024 2.075 255 255 255
0.905 0.177 2.279 255 255 255
0.294 -0.144 2.068 255 255 255
0.4 0.485 0.961 255 255 255
-0.552 -0.08 1.221 255 255 255
-0.046 0.169 2.055 255 255 255
-1.08 -0.035 1.827 255 255 255
0.268 0.225 1.129 255 255 255
0.303 0.089 1.214 255 255 255
1.083 -0.918 2.144 255 255 255
-0.716 0.778 2.208 255 255 255
-0.101 0.355 2.077 255 255 255
-0.321 0.867 1.815 255 255 255
-1.066 -0.049 1.423 255 255 255
-0.3 -0.035 1.994 255 255 255
0.238 0.393 1.101 255 255 255
0.314 -0.338 2.046 255 255 255
0.376 0.141 1.201 0 0 0
-0.612 -0.455 1.226 255 255 255
-0.035 0.864 2.021 255 255 255
0.595 0.214 1.173 255 255 255
-0.071 0.24 2.064 255 255 255
1.083 0.326 2.339 255 255 255
-0.617 0.727 2.379 255 255 255
0.473 -1.111 1.954 255 255 255
0.91 -0.282 2.207 255 255 255
-0.211 0.171 2.024 255 255 255
0.007 0.895 1.671 255 255 255
0.012 -0.064 2.027 255 255 255
0.125 0.85 2.139 255 255 255
0.266 -0.315 2.036 255 255 255
-0.158 -0.38 1.948 255 255 255
1.182 -1.003 2.149 255 255 255
-1.022 -0.605 1.761 255 255 255
-0.585 0.401 1.285 255 255 255
1.322 -0.547 2.249 255 255 255
0.629 -0.892 2.066 255 255 255
1.309 -0.345 2.273 255 255 255
-0.235 0.462 2.066 255 255 255
-1.091 -0.699 1.731 255 255 255
1.526 -0.685 2.308 255 255 255
0.714 0.001 2.215 255 255 255
0.907 -0.485 2.176 255 255 255
1.178 -0.926 2.163 255 255 255
0.346 0.471 1.011 255 255 255
0.486 0.282 1.066 255 255 255
-0.605 -0.742 1.191 255 255 255
0.052 0.881 1.891 255 255 255
-0.685 0.849 1.745 255 255 255
0.327 0.522 0.993 255 255 255
-0.516 -2.084 2.931 255 255 255
-1.092 -0.272 1.532 255 255 255
0.127 0.026 2.068 255 255 255
-0.645 0.102 1.314 255 255 255
1.071 0.016 2.291 255 255 255
0.61 -0.189 2.167 255 255 255
1.222 0.308 2.362 255 255 255
-0.222 -0.543 1.896 255 255 255
0.525 -0.029 2.144 255 255 255
0.392 -0.333 2.059 255 255 255
0.105 -0.844 1.924 0 0 0
1.699 0.052 2.463 255 255 255
-0.652 0.851 1.758 255 255 255
-0.597 -0.01 1.231 255 255 255
-0.831 0.648 2.86 255 255 255
-0.742 0.394 1.471 255 255 255
-0.838 0.747 2.386 255 255 255
-0.201 -1.046 1.824 255 255 255
-0.568 0.048 1.233 255 255 255
-0.127 -1.353 1.808 0 0 0
0.337 -0.203 2.07 255 255 255
0.292 -0.493 2.018 255 255 255
1.25 -0.238 2.284 255 255 255
0.187 -0.568 1.988 255 255 255
0.019 0.886 1.807 255 255 255
-0.582 0.219 1.257 255 255 255
-0.097 0.85 2.102 255 255 255
1.667 -0.518 2.359 255 255 255
0.357 0.513 0.928 255 255 255
0.151 0.337 1.279 255 255 255
-0.208 -0.991 1.829 255 255 255
-1.111 0.262 1.868 255 255 255
0.237 -0.596 1.99 255 255 255
-0.336 0.878 1.716 255 255 255
0.142 -1.134 1.893 255 255 255
-0.15 -0.251 1.969 255 255 255
-0.808 0.721 2.6 255 255 255
0.246 -0.18 2.055 255 255 255
-0.465 0.802 2.164 255 255 255
1.381 -0.894 2.203 255 255 255
0.378 0.445 1.02 255 255 255
-0.364 0.88 1.657 255 255 255
-0.987 -0.484 1.791 255 255 255
0.478 0.417 1.08 255 255 255
-0.16 -0.031 2 255 255 255
-0.576 0.432 1.302 0 0 0
0.354 0.427 1.075 255 255 255
1.078 -0.836 2.155 255 255 255
0.391 0.506 0.955 255 255 255
0.022 0.832 2.157 255 255 255
0.149 -0.431 1.999 255 255 255
1.153 -0.349 2.245 255 255 255
1.058 -0.399 2.217 255 255 255
-0.27 -0.386 1.929 255 255 255
-0.56 -0.11 1.212 255 255 255
0.187 -0.243 2.034 255 255 255
-0.001 0.082 2.051 255 255 255
-0.336 0.882 1.647 255 255 255
-0.045 0.85 2.116 255 255 255
-0.147 -0.705 1.898 255 255 255
-0.249 -0.489 1.904 255 255 255
-1.084 -0.302 1.784 255 255 255
-0.017 0.253 2.073 255 255 255
-0.021 -0.115 2.016 255 255 255
0.318 0.291 1.097 255 255 255
-0.551 0.066 1.247 255 255 255
-1.037 -0.771 1.719 255 255 255
-1.054 0.686 2.762 255 255 255
-0.156 0.259 2.048 255 255 255
0.801 -0.136 2.209 255 255 255
0.933 -0.965 2.107 255 255 255
0.862 -0.046 2.238 255 255 255
0.605 0.208 1.182 255 255 255
0.202 -0.543 1.987 255 255 255
1.618 -0.26 2.398 255 255 255
1.108 -0.356 2.234 255 255 255
0.253 -0.057 2.078 255 255 255
0.568 -0.824 2.029 255 255 255
0.254 0.541 1.354 255 255 255
0.578 -0.577 2.102 0 0 0
0.365 -0.44 2.04 255 255 255
0.476 0.382 1.077 255 255 255
0.516 -0.916 1.992 255 255 255
0.12 0.437 1.264 255 255 255
-0.354 0.784 2.14 255 255 255
-0.028 -0.337 1.981 255 255 255
-0.984 -0.393 1.765 255 255 255
-0.262 -0.711 1.894 255 255 255
0.534 0.225 1.147 255 255 255
0.52 0.229 1.159 255 255 255
1.35 -0.991 2.187 255 255 255
-0.083 -0.457 1.952 255 255 255
-0.229 0.517 2.08 255 255 255
0.293 0.171 1.159 255 255 255
0.272 0.899 1.748 255 255 255
0.859 0.152 2.269 255 255 255
0.427 0.398 1.055 255 255 255
-0.2 0.409 2.062 255 255 255
-0.123 -0.499 1.937 255 255 255
0.46 0.43 1.072 255 255 255
-0.219 0.867 1.863 0 0 0
0.427 -1.118 1.946 255 255 255
-0.048 -0.687 1.923 255 255 255
0.281 0.393 1.073 255 255 255
0.187 -0.68 1.97 255 255 255
-0.579 0.024 1.225 255 255 255
0.257 -0.314 2.034 255 255 255
0.232 0.145 1.253 0 0 0
1.106 -1.066 2.126 255 255 255
0.159 -0.113 2.048 255 255 255
-0.066 0.856 2.081 255 255 255
0.175 0.348 1.238 255 255 255
0.376 0.284 1.178 255 255 255
0.228 -0.557 1.992 255 255 255
0.306 0.066 1.237 0 0 0
-0.02 -0.664 1.929 255 255 255
-0.139 0.634 2.118 255 255 255
-0.167 -0.803 1.879 255 255 255
0.348 0.111 2.119 255 255 255
-0.56 -0.237 1.187 255 255 255
0.781 -0.767 2.107 255 255 255
0.068 -0.379 1.99 255 255 255
0.203 0.429 2.144 255 255 255
1.49 -0.295 2.357 255 255 255
-0.332 0.864 1.835 255 255 255
0.037 -1.201 1.861 255 255 255
-0.195 0.777 2.121 255 255 255
0.02 -0.052 2.033 255 255 255
0.83 -0.228 2.2 255 255 255
0.138 0.223 2.1 255 255 255
0.287 0.28 2.136 255 255 255
0.786 -1.134 2.025 255 255 255
-0.86 0.653 2.939 255 255 255
0.851 -0.897 2.102 255 255 255
0.366 -0.623 2.01 255 255 255
-0.227 -0.148 1.957 255 255 255
1.134 -0.86 2.16 255 255 255
-1.017 -0.739 1.737 0 0 0
1.279 -0.284 2.279 255 255 255
-0.091 -0.441 1.951 255 255 255
0.646 -0.641 2.101 255 255 255
0.737 -0.552 2.136 255 255 255
-0.687 0.843 1.803 255 255 255
0.215 -0.398 2.016 255 255 255
0.501 0.271 1.055 255 255 255
0.345 0.4 1.126 255 255 255
0.378 -1.116 1.939 255 255 255
1.022 -0.222 2.238 255 255 255
0.561 -1.324 1.937 255 255 255
0.436 -0.562 2.033 255 255 255
1.318 -0.126 2.315 255 255 255
-0.989 0.715 2.578 255 255 255
-1.075 0.042 1.843 255 255 255
0.828 -0.704 2.128 255 255 255
1.193 -0.294 2.262 255 255 255
0.179 -0.203 2.037 255 255 255
-0.931 0.726 2.548 255 255 255
1.094 -1.176 2.074 255 255 255
1.06 -0.038 2.279 255 255 255
-0.269 0.81 2.101 255 255 255
1.65 -0.441 2.376 255 255 255
0.061 0.075 2.061 255 255 255
1.356 -0.505 2.26 255 255 255
1.703 -0.555 2.364 255 255 255
-0.499 0.825 2.013 255 255 255
0.283 -0.295 2.045 255 255 255
0.08 -0.136 2.03 255 255 255
-0.253 0.013 1.975 255 255 255
-0.155 0.871 1.865 255 255 255
1.228 -0.821 2.185 255 255 255
-0.313 0.314 2.041 255 255 255
0.248 0.432 2.153 255 255 255
0.537 -0.983 1.984 255 255 255
1.27 -0.229 2.288 255 255 255
-0.148 -0.09 1.995 255 255 255
1.033 -0.482 2.199 255 255 255
-0.892 0.743 2.416 255 255 255
-0.186 -0.145 1.979 255 255 255
-0.196 -0.668 1.886 255 255 255
0.967 -0.15 2.238 255 255 255
-0.983 -0.572 1.748 255 255 255
0.557 -0.479 2.093 0 0 0
0.256 -0.127 2.066 255 255 255
0.048 -0.616 1.952 255 255 255
0.223 0.478 1.129 255 255 255
1.559 -0.438 2.355 255 255 255
0.596 0.228 1.021 255 255 255
0.933 -1.473 1.983 0 0 0
-0.012 -0.345 1.98 255 255 255
-0.232 -0.977 1.836 255 255 255
0.004 0.398 2.101 255 255 255
0.016 -0.155 2.015 255 255 255
0.246 -0.697 1.977 255 255 255
0.538 0.244 1.027 255 255 255
0.753 -0.63 2.125 255 255 255
0.703 -0.865 2.082 255 255 255
0.246 0.441 1.105 255 255 255
-1.041 -0.392 1.783 0 0 0
-0.516 -0.649 1.141 0 0 0
0.415 -1.045 1.955 255 255 255
0.716 -0.464 2.144 255 255 255
0.357 -0.869 1.973 255 255 255
0.519 -0.284 2.087 255 255 255
-0.001 0.88 1.879 255 255 255
-1.108 0.665 2.822 255 255 255
0.318 -1.068 1.934 255 255 255
0.016 -0.088 2.024 255 255 255
1.129 0.036 2.306 255 255 255
0.096 -0.297 2.009 255 255 255
-1.085 -0.714 1.726 255 255 255
-0.88 0.714 2.646 255 255 255
0.22 -1.343 1.875 255 255 255
0.975 -1.06 2.104 255 255 255
0.257 -1.082 1.919 255 255 255
0.746 -1.348 1.972 255 255 255
0.294 -1.301 1.89 255 255 255
0.463 -1.081 1.958 255 255 255
0.223 -0.532 1.993 255 255 255
0.279 -0.41 2.028 255 255 255
1.085 -0.661 2.185 255 255 255
-0.184 -0.998 1.835 255 255 255
-0.753 0.738 2.485 255 255 255
-0.844 0.784 2.107 255 255 255
0.378 -1.02 1.951 255 255 255
-0.958 -0.771 1.714 255 255 255
0.235 0.259 1.116 255 255 255
0.52 -0.204 2.101 255 255 255
0.013 0.859 2.078 255 255 255
0.323 0.394 1.103 255 255 255
0.647 -0.021 2.201 255 255 255
0.945 -0.252 2.218 255 255 255
0.288 0.104 1.217 255 255 255
0.909 -0.379 2.193 255 255 255
0.1 -0.525 1.973 255 255 255
-0.477 0.781 2.307 255 255 255
1.121 -0.705 2.183 255 255 255
0.292 0.874 1.997 255 255 255
-1.104 -0.536 1.756 255 255 255
-0.713 0.806 2.034 255 255 255
0.383 -1.148 1.931 255 255 255
-0.273 -0.616 1.914 255 255 255
0.907 -1.459 1.978 0 0 0
0.378 0.482 0.982 255 255 255
0.187 -0.775 1.951 255 255 255
-0.163 -0.074 1.992 255 255 255
-0.194 0.851 2.041 255 255 255
0.232 0.583 1.077 255 255 255
-0.052 -0.407 1.967 255 255 255
0.233 -0.457 2.017 255 255 255
0.346 0.026 2.107 255 255 255
-0.511 -0.875 1.103 255 255 255
-0.111 -0.428 1.95 255 255 255
0.785 0.033 2.237 255 255 255
0.237 -0.622 1.99 255 255 255
0.308 0.094 2.111 255 255 255
0.963 -0.046 2.256 255 255 255
-1.131 -0.302 1.764 255 255 255
1.505 0.275 2.459 255 255 255
0.342 -1.128 1.928 255 255 255
-0.129 0.32 2.067 255 255 255
0.195 0.876 1.967 0 0 0
-0.521 -0.822 1.106 0 0 0
-0.621 0.327 1.294 255 255 255
-0.266 0.545 2.066 255 255 255
0.183 0.553 1.36 255 255 255
-0.303 0.869 1.801 255 255 255
-1.128 -0.358 1.713 255 255 255
0.558 -1.412 1.928 0 0 0
1.385 -0.941 2.208 255 255 255
0.559 -1.366 1.93 255 255 255
1.378 0.027 2.345 255 255 255
0.27 0.359 1.073 255 255 255
1.321 -0.095 2.321 255 255 255
-1.111 -0.486 1.627 255 255 255
-0.117 0.328 2.068 255 255 255
1.087 -1.301 2.047 255 255 255
-0.9 0.701 2.71 255 255 255
-0.175 -0.828 1.874 255 255 255
0.069 0.861 2.059 255 255 255
-0.054 0.875 1.928 0 0 0
-1.126 -0.154 1.662 255 255 255
0.272 0.065 1.34 0 0 0
-0.153 0.285 2.055 255 255 255
0.153 -0.614 1.97 255 255 255
0.635 0.037 2.208 255 255 255
0.349 0.49 0.99 255 255 255
-0.303 0.795 2.098 255 255 255
0.572 0.227 1.063 255 255 255
-1.01 -0.193 1.808 255 255 255
0.399 0.193 1.221 255 255 255
0.426 0.3 1.173 255 255 255
0.675 -0.576 2.116 255 255 255
0.072 0.46 2.125 255 255 255
0.913 -0.486 2.178 255 255 255
-0.253 -0.423 1.915 255 255 255
0.705 -1.484 1.939 255 255 255
-1.051 0.095 1.87 255 255 255
0.245 -0.466 2.016 255 255 255
0.122 -0.88 1.933 0 0 0
0.249 -0.538 1.999 255 255 255
0.004 -1.033 1.879 255 255 255
0.253 0.407 1.102 255 255 255
0.161 -0.974 1.919 255 255 255
-0.088 -0.676 1.915 255 255 255
-0.615 0.844 1.834 0 0 0
0.947 -1.225 2.026 255 255 255
1.228 -0.398 2.251 255 255 255
-0.212 0.017 1.998 255 255 255
0.156 0.688 2.171 0 0 0
0.012 -1.256 1.846 255 255 255
0.26 0.086 1.278 0 0 0
1.375 0.361 2.398 255 255 255
0.41 -0.267 2.073 255 255 255
1.082 -0.149 2.264 255 255 255
0.325 0.09 2.113 255 255 255
-0.23 0.021 1.985 255 255 255
-0.184 0.871 1.873 0 0 0
0.564 -0.516 2.096 0 0 0
0.393 0.501 0.971 255 255 255
0.374 -0.51 2.028 255 255 255
-1.139 0.116 1.69 255 255 255
0.195 -1.028 1.917 255 255 255
0.174 0.401 1.241 255 255 255
0.228 -1.178 1.899 255 255 255
0.222 0.124 1.333 0 0 0
0.561 -1.077 1.974 255 255 255
0.336 0.205 1.139 255 255 255
0.21 0.279 1.185 255 255 255
1.67 0.102 2.461 255 255 255
0.104 -0.668 1.952 255 255 255
1.406 0.064 2.359 255 255 255
0.993 -1.26 2.023 255 255 255
0.631 -0.414 2.137 255 255 255
-0.084 -0.331 1.971 255 255 255
0.133 -0.646 1.964 255 255 255
0.818 -0.036 2.229 255 255 255
0.51 0.29 0.994 255 255 255
-0.565 -0.324 1.172 255 255 255
1.157 -0.896 2.163 255 255 255
-0.569 0.211 1.263 0 0 0
0.476 -0.131 2.104 255 255 255
1.114 -0.928 2.148 255 255 255
0.907 -0.564 2.163 255 255 255
-0.708 0.763 2.324 255 255 255
-0.779 0.806 2.004 255 255 255
0.195 -0.377 2.016 255 255 255
-0.194 0.472 2.077 255 255 255
0.866 0.298 2.291 255 255 255
1.082 -0.55 2.2 255 255 255
-0.084 -0.772 1.903 255 255 255
0.032 0.898 1.675 255 255 255
0.156 0.055 2.075 255 255 255
-0.465 0.843 1.936 255 255 255
0.08 0.773 2.169 255 255 255
-1.141 -0.115 1.793 255 255 255
0.718 -0.645 2.119 255 255 255
0.228 0.401 1.139 255 255 255
0.435 0.436 1.073 255 255 255
-0.98 -0.432 1.779 255 255 255
-0.216 0.855 2.003 255 255 255
0.363 0.222 1.16 255 255 255
-0.299 0.692 2.087 255 255 255
0.495 0.287 1.027 255 255 255
-0.173 -1.275 1.79 255 255 255
0.229 0.127 1.278 0 0 0
-0.046 0.249 2.068 255 255 255
-0.178 -0.153 1.979 255 255 255
-0.125 0.065 2.023 255 255 255
1.359 -0.04 2.334 255 255 255
0.172 -1.18 1.89 255 255 255
0.322 0.249 1.119 255 255 255
0.27 0.093 1.237 255 255 255
1.04 -0.905 2.138 255 255 255
1.04 -0.384 2.216 255 255 255
-0.123 -0.295 1.969 255 255 255
1.011 -0.939 2.125 255 255 255
0.297 0.157 1.165 255 255 255
-0.065 -1 1.87 255 255 255
0.661 -1.06 2.044 255 255 255
0.487 0.388 1.052 255 255 255
-0.427 0.755 2.484 255 255 255
0.286 0.068 2.104 255 255 255
0.191 -0.187 2.044 255 255 255
-0.834 0.742 2.424 255 255 255
0.172 0.365 1.231 255 255 255
-0.586 0.592 2.958 0 0 0
-0.237 -0.333 1.927 255 255 255
0.582 -0.516 2.113 255 255 255
0.395 0.1 1.241 0 0 0
-0.769 -2.108 2.969 255 255 255
1.244 0.021 2.325 255 255 255
0.951 -1.269 2.02 255 255 255
0.254 0.538 1.072 255 255 255
-0.554 -0.597 1.136 255 255 255
0.295 0.337 1.076 255 255 255
0.054 0.373 2.107 255 255 255
0.21 -0.885 1.939 0 0 0
1.109 0.11 2.311 255 255 255
0.093 -1.295 1.853 255 255 255
0.744 -1.33 1.972 255 255 255
0.243 -0.8 1.965 255 255 255
-0.185 0.761 2.119 255 255 255
1.399 0.132 2.367 255 255 255
1.611 -0.422 2.373 255 255 255
0.964 -1.054 2.105 255 255 255
-1.053 -0.243 1.381 255 255 255
0.439 -1.263 1.925 255 255 255
0.469 0.262 1.177 0 0 0
-0.624 0.659 2.781 255 255 255
0.932 -0.856 2.123 255 255 255
-1.132 -0.248 1.786 255 255 255
1.61 0.007 2.437 255 255 255
-1.054 0.07 1.859 255 255 255
0.429 -0.699 2.014 255 255 255
0.897 -0.752 2.138 255 255 255
0.285 0.504 1.057 255 255 255
0.217 -0.758 1.964 255 255 255
0.267 0.27 1.119 255 255 255
0.802 0.217 2.264 255 255 255
0.129 0.437 1.253 255 255 255
-0.623 0.831 1.91 0 0 0
-0.292 0.893 1.618 255 255 255
-0.536 -0.209 1.202 255 255 255
-0.497 0.758 2.363 255 255 255
-0.467 0.865 1.733 255 255 255
-0.966 -0.744 1.757 255 255 255
-0.998 -0.027 1.846 255 255 255
-0.057 -0.043 2.019 255 255 255
1.039 0.323 2.33 255 255 255
-1.084 0.706 2.637 255 255 255
0.28 0.074 1.259 0 0 0
-0.436 0.867 1.751 255 255 255
1.291 -0.765 2.206 255 255 255
-0.056 0.885 1.733 255 255 255
-0.061 -0.051 2.016 255 255 255
0.21 -1.105 1.909 255 255 255
1.495 -0.004 2.409 255 255 255
0.568 -0.175 2.165 255 255 255
0.651 -0.847 2.073 255 255 255
0.615 -0.787 2.075 255 255 255
0.908 0.058 2.263 255 255 255
0.133 -0.691 1.956 0 0 0
0.071 0.704 2.165 255 255 255
-0.172 -1.201 1.807 255 255 255
-0.617 0.367 1.291 255 255 255
0.647 -0.296 2.155 255 255 255
0.13 0.88 1.917 0 0 0
0.141 0.858 2.107 255 255 255
-1.138 -0.03 1.714 255 255 255
1.676 -0.301 2.397 255 255 255
-1.144 0.272 1.87 255 255 255
0.44 -0.826 1.994 255 255 255
0.459 -0.547 2.04 255 255 255
1.1 0.011 2.293 255 255 255
0.939 -0.265 2.215 255 255 255
-0.115 -0.479 1.941 255 255 255
0.017 0.589 2.139 255 255 255
-0.04 -0.328 1.978 255 255 255
-1.148 0.136 1.836 255 255 255
-0.578 -0.033 1.216 255 255 255
0.543 -0.288 2.113 0 0 0
1.675 -0.032 2.438 255 255 255
0.109 -0.82 1.933 255 255 255
0.058 0.826 2.166 255 255 255
-0.539 -0.476 1.158 255 255 255
0.454 -1.097 1.951 255 255 255
-1.082 -0.143 1.81 255 255 255
0.65 0.06 2.211 255 255 255
0.335 0.455 1.061 255 255 255
0.339 -0.866 1.968 255 255 255
0.341 0.239 1.127 255 255 255
-0.755 0.745 2.433 255 255 255
0.484 -0.764 2.008 255 255 255
0.237 0.429 1.103 255 255 255
0.133 -0.732 1.947 255 255 255
-0.093 0.413 2.087 255 255 255
0.123 0.054 2.069 255 255 255
0.176 0.281 1.28 0 0 0
0.674 -0.916 2.066 255 255 255
0.51 -1.282 1.935 255 255 255
0.2 0.262 1.202 255 255 255
-0.272 0.268 2.015 255 255 255
1.106 -1.247 2.049 255 255 255
-0.34 0.822 2.1 255 255 255
1.332 0.099 2.35 255 255 255
-0.238 0.871 1.85 255 255 255
0.916 -1.226 2.015 255 255 255
0.53 -0.137 2.125 255 255 255
1.204 0.318 2.361 255 255 255
0.557 -0.991 1.987 255 255 255
-0.1 -0.824 1.89 255 255 255
0.024 -0.796 1.919 0 0 0
1.396 -0.636 2.243 255 255 255
1.136 -0.891 2.157 255 255 255
-0.766 0.802 2.022 255 255 255
0.492 0.251 1.162 255 255 255
0.048 -0.208 2.011 255 255 255
1.117 -0.087 2.281 255 255 255
0.11 0.624 2.163 255 255 255
0.332 0.501 0.992 255 255 255
-0.591 0.147 1.245 255 255 255
0.39 0.447 1.02 255 255 255
0.662 -0.858 2.074 255 255 255
-0.606 0.006 1.243 255 255 255
0.577 -1.266 1.95 255 255 255
0.1 -0.356 1.996 255 255 255
1.065 -0.4 2.219 255 255 255
0.261 0.134 1.217 255 255 255
0.833 -1.124 2.036 0 0 0
-0.255 -0.062 1.962 255 255 255
0.361 -1.164 1.925 255 255 255
0.527 -0.804 2.01 255 255 255
-0.223 -0.939 1.836 255 255 255
-1.06 -0.048 1.397 255 255 255
0.874 -1.391 1.988 255 255 255
-0.196 -0.992 1.831 255 255 255
-0.587 0.575 1.316 0 0 0
0.469 -0.599 2.035 255 255 255
-0.066 0.135 2.047 255 255 255
0.455 -0.618 2.027 255 255 255
0.02 0.153 2.066 255 255 255
-0.284 -0.283 1.957 255 255 255
-0.699 0.688 2.695 255 255 255
0.283 0.873 1.996 255 255 255
0.138 -0.777 1.948 255 255 255
-0.181 -0.317 1.955 255 255 255
0.084 -0.516 1.972 255 255 255
-0.212 -0.767 1.863 255 255 255
1.456 -0.551 2.272 255 255 255
-0.758 0.822 1.914 255 255 255
-0.556 -0.501 1.15 255 255 255
0.186 0.359 1.192 255 255 255
0.446 -0.589 2.034 255 255 255
-0.717 0.753 2.395 255 255 255
-0.731 0.817 1.956 255 255 255
0.287 -0.579 2.003 0 0 0
0.033 -1.243 1.851 255 255 255
0.206 0.406 1.211 255 255 255
1.062 0.304 2.331 255 255 255
-0.262 -0.486 1.91 255 255 255
-0.932 -2.118 2.953 255 255 255
-0.552 0.093 1.255 255 255 255
-0.49 0.879 1.632 255 255 255
-0.093 0.751 2.133 255 255 255
0.025 0.426 2.113 255 255 255
-0.604 0.323 1.271 255 255 255
0.24 0.096 1.311 0 0 0
-0.094 -1.092 1.85 255 255 255
-0.093 -0.872 1.885 255 255 255
0.144 0.86 2.088 255 255 255
-0.041 -0.812 1.905 255 255 255
1.011 -0.825 2.142 255 255 255
1.103 -0.023 2.288 255 255 255
-0.613 0.383 1.287 255 255 255
0.653 -0.871 2.071 255 255 255
1.1 -0.465 2.215 255 255 255
0.016 -1.373 1.822 0 0 0
1.043 -0.788 2.162 255 255 255
-1.148 0.2 1.857 255 255 255
0.158 -0.785 1.943 255 255 255
0.255 0.326 1.087 255 255 255
1.015 -0.246 2.233 255 255 255
-0.267 -0.508 1.915 255 255 255
1.134 -0.194 2.266 255 255 255
1.296 0.244 2.369 255 255 255
-0.538 0.878 1.612 255 255 255
0.245 -0.551 2 255 255 255
0.135 -1.261 1.867 255 255 255
-0.277 -0.576 1.919 255 255 255
0.794 -0.589 2.138 255 255 255
0.272 0.381 1.096 255 255 255
1.722 0.126 2.473 255 255 255
0.979 -0.855 2.134 255 255 255
0.332 0.528 0.977 255 255 255
-0.288 0.858 1.897 0 0 0
0.451 0.308 1.116 255 255 255
-0.196 -0.5 1.921 255 255 255
0.151 -0.898 1.929 0 0 0
-0.022 0.497 2.116 255 255 255
-0.522 -0.794 1.112 255 255 255
1.431 0.16 2.387 255 255 255
-1.1 0.279 1.874 255 255 255
0.492 0.378 1.043 255 255 255
0.028 -1.137 1.867 255 255 255
0.141 -1.08 1.896 255 255 255
-0.417 0.847 1.93 0 0 0
0.508 -0.44 2.062 255 255 255
-0.103 -0.225 1.983 255 255 255
-1.025 0.204 1.861 255 255 255
0.45 0.248 1.242 255 255 255
0.438 -0.909 1.978 255 255 255
0.251 0.295 1.104 255 255 255
-1.109 -0.254 1.586 255 255 255
1.327 0.058 2.343 255 255 255
-0.088 -0.608 1.927 255 255 255
0.603 0.192 1.156 255 255 255
1.114 -0.346 2.236 255 255 255
-0.589 0.534 1.308 255 255 255
-1.127 -0.364 1.725 255 255 255
0.224 0.238 2.117 255 255 255
0.151 -0.04 2.062 255 255 255
-0.149 -0.928 1.865 255 255 255
0.05 -1.285 1.849 255 255 255
-0.857 0.72 2.608 255 255 255
0.179 0.901 1.725 255 255 255
0.311 0.047 2.105 255 255 255
-0.048 0.86 2.068 255 255 255
-0.174 -0.181 1.977 255 255 255
-0.548 -0.353 1.175 255 255 255
0.889 -1.067 2.084 255 255 255
0.435 0.384 1.078 255 255 255
-0.257 -0.894 1.873 255 255 255
-0.229 -0.461 1.907 255 255 255
-1.051 0.128 1.877 255 255 255
-0.169 -1.22 1.804 255 255 255
0.318 -0.293 2.053 255 255 255
0.332 -0.207 2.067 255 255 255
-0.547 -0.243 1.197 255 255 255
-0.649 0.712 2.511 255 255 255
-1.012 0.164 1.875 255 255 255
0.845 -1.387 1.979 255 255 255
-0.097 0.36 2.079 255 255 255
0.812 -0.72 2.121 255 255 255
0.187 -0.475 2.005 255 255 255
0.58 -0.923 2.029 255 255 255
-0.55 0.027 1.239 255 255 255
-0.02 -0.388 1.973 255 255 255
-0.281 0.863 1.879 0 0 0
-0.074 0.618 2.128 255 255 255
0.279 0.152 1.164 255 255 255
-1.104 -0.279 1.583 255 255 255
0.202 0.271 1.196 255 255 255
1.564 0.166 2.45 255 255 255
0.084 -0.632 1.962 255 255 255
-1.133 -0.15 1.709 255 255 255
0.776 -0.689 2.124 255 255 255
0.263 0.326 1.079 255 255 255
0.949 -1.366 2.004 255 255 255
0.043 0.881 1.834 255 255 255
0.983 0.122 2.288 255 255 255
0.057 0.009 2.051 255 255 255
0.827 0.237 2.274 255 255 255
1.415 -0.894 2.207 255 255 255
0.663 0.214 1.131 255 255 255
1.261 -0.654 2.217 255 255 255
-1.061 -0.17 1.404 255 255 255
0.26 0.101 1.24 255 255 255
0.434 0.302 1.166 255 255 255
0.114 -0.015 2.055 255 255 255
0.839 -0.742 2.122 255 255 255
0.528 -0.306 2.089 255 255 255
-0.398 0.839 1.991 255 255 255
0.475 -0.182 2.097 255 255 255
0.626 -0.168 2.175 255 255 255
-0.267 0.231 2.011 255 255 255
0.208 -1.385 1.862 0 0 0
0.732 -0.763 2.106 255 255 255
1.006 -0.613 2.176 255 255 255
0.948 0.208 2.292 255 255 255
-0.06 -0.794 1.903 255 255 255
0.17 -0.432 2.004 255 255 255
1.518 -0.508 2.334 255 255 255
-0.564 0.155 1.257 255 255 255
0.334 -0.112 2.084 255 255 255
-0.334 0.738 2.107 255 255 255
0.205 0.144 2.102 255 255 255
-0.533 -0.496 1.159 255 255 255
-1.005 0.033 1.832 255 255 255
0.161 0.507 2.151 255 255 255
-0.079 0.26 2.062 255 255 255
-0.066 0.131 2.046 255 255 255
-1.049 -0.42 1.776 255 255 255
-0.227 0.005 1.988 255 255 255
-0.557 -0.316 1.174 255 255 255
-0.532 -0.273 1.19 255 255 255
0.665 -0.549 2.121 255 255 255
0.101 -0.739 1.944 255 255 255
-0.214 0.86 1.94 0 0 0
0.84 -0.701 2.133 255 255 255
