ply
format ascii 1.0
comment Created by Open3D
element vertex 1590
property double x
property double y
property double z
property uchar red
property uchar green
property uchar blue
end_header
1.096 -0.099 2.356 255 255 255
0.704 -1.238 1.991 255 255 255
-0.843 0.59 2.217 255 255 255
0.109 0.018 2.111 255 255 255
0.369 0.13 1.234 255 255 255
-0.204 -0.398 1.936 255 255 255
-0.368 -0.386 1.92 255 255 255
-0.31 -0.309 1.915 255 255 255
0.723 -0.426 2.185 255 255 255
-0.071 0.518 2.185 255 255 255
-0.6 -0.176 1.186 0 0 0
0.99 -0.627 2.199 255 255 255
0.234 -0.398 2.037 255 255 255
-0.62 0.504 1.342 255 255 255
1.419 -0.129 2.468 255 255 255
0.514 0.141 0.945 255 255 255
-1.164 -0.451 1.699 255 255 255
0.834 -1.489 1.913 255 255 255
-0.289 -0.661 1.846 255 255 255
-0.208 -0.394 1.935 255 255 255
-0.622 -0.028 1.208 255 255 255
0.112 -0.609 1.958 255 255 255
-0.171 0.69 1.957 255 255 255
1.018 -1.274 2.052 255 255 255
1.071 -0.084 2.352 255 255 255
0.427 -1.325 1.859 255 255 255
-0.311 -0.494 1.873 255 255 255
0.438 -0.876 1.968 255 255 255
0.976 -0.819 2.15 255 255 255
0.141 0.393 1.38 0 0 0
-1.112 -0.557 1.7 255 255 255
1.34 0.065 2.457 255 255 255
-0.075 0.459 2.184 255 255 255
-0.591 -0.138 1.225 0 0 0
1.737 -0.453 2.459 255 255 255
1.222 -0.192 2.359 255 255 255
1.247 -0.349 2.326 255 255 255
0.074 0.329 2.184 255 255 255
0.238 0.018 2.137 0 0 0
0.418 0.168 1.147 0 0 0
0.931 -0.634 2.183 255 255 255
-0.325 0.482 2.128 255 255 255
-1.115 -0.533 1.702 0 0 0
0.122 0.671 2.06 255 255 255
-0.302 0.187 2.058 255 255 255
1.204 -0.999 2.16 255 255 255
0.313 -0.701 1.983 255 255 255
0.878 -0.023 2.322 255 255 255
-0.618 0.622 2.117 255 255 255
0.061 -1.322 1.776 0 0 0
0.609 -0.546 2.138 255 255 255
-1.205 -0.337 1.701 255 255 255
-0.353 -0.762 1.827 255 255 255
0.266 0.656 1.356 255 255 255
-0.35 0.427 2.099 255 255 255
0.157 -0.633 1.961 0 0 0
0.834 -0.28 2.248 255 255 255
0.119 -0.217 2.057 255 255 255
-1.218 0.05 1.794 255 255 255
0.222 0.001 1.214 255 255 255
-0.413 0.667 1.997 255 255 255
-0.105 -1.202 1.765 255 255 255
-0.001 -0.997 1.848 255 255 255
-0.342 -0.939 1.778 255 255 255
0.754 -1.009 2.061 255 255 255
0.377 0.19 1.176 255 255 255
-0.182 -1.093 1.773 255 255 255
-0.784 0.468 2.694 0 0 0
0.888 -1.371 1.961 255 255 255
0.281 0.003 1.179 255 255 255
0.056 -0.278 2.024 255 255 255
-0.545 0.799 1.409 255 255 255
0.599 0.09 1.117 255 255 255
0.234 0.158 1.124 255 255 255
-0.06 -0.562 1.928 255 255 255
0.293 -1.347 1.826 0 0 0
-1.207 -0.21 1.695 255 255 255
0.131 0.794 1.514 255 255 255
1.671 -0.756 2.377 255 255 255
0.452 -1.131 1.909 255 255 255
0.775 -1.021 2.06 255 255 255
0.65 -0.791 2.081 255 255 255
0.22 0.448 1.106 255 255 255
-1.14 0.054 1.834 0 0 0
0.499 -0.772 2.055 255 255 255
-0.271 -0.683 1.85 255 255 255
-0.973 0.589 2.2 255 255 255
0.222 0.214 1.092 255 255 255
1.282 -0.827 2.219 255 255 255
-0.705 0.081 1.315 255 255 255
-0.447 0.76 1.557 255 255 255
-0.211 -0.47 1.916 255 255 255
-0.335 -0.472 1.878 255 255 255
-0.632 0.471 1.332 255 255 255
-0.637 -2.01 2.989 255 255 255
0.231 0.081 1.145 255 255 255
-0.168 0.18 2.092 255 255 255
-1.195 0.113 1.837 255 255 255
0.586 -0.29 2.19 255 255 255
-0.254 0.387 2.126 255 255 255
-0.701 -2.106 2.95 255 255 255
0.052 -1.072 1.834 0 0 0
-0.803 0.585 2.249 255 255 255
1.043 -0.525 2.238 255 255 255
0.096 0.617 2.156 0 0 0
0.084 -0.595 1.955 255 255 255
-1.182 -0.493 1.696 255 255 255
0.488 0.12 0.973 255 255 255
-0.161 -1.236 1.743 255 255 255
-0.326 0.356 2.093 255 255 255
0.737 -1.055 2.039 255 255 255
-0.304 -1.217 1.703 255 255 255
-0.347 -0.125 1.958 255 255 255
-0.72 0.391 1.396 255 255 255
-0.054 0.009 2.073 255 255 255
0.51 -0.923 2.02 255 255 255
-0.622 -0.033 1.207 255 255 255
-0.072 -0.317 1.985 255 255 255
0.293 -0.087 1.238 0 0 0
0.285 0.554 1.095 255 255 255
-0.247 -1.037 1.772 255 255 255
0.172 0.091 1.214 255 255 255
0.185 0.388 1.145 255 255 255
0.293 0.459 0.844 255 255 255
0.331 0.406 0.829 255 255 255
0.145 -1.272 1.81 255 255 255
-0.287 0.213 2.073 255 255 255
0.198 -0.235 2.066 255 255 255
-0.206 -0.547 1.897 255 255 255
0.322 -0.681 1.989 255 255 255
0.268 0.136 1.128 255 255 255
-0.243 0.742 1.651 0 0 0
-0.927 0.625 2.049 255 255 255
-0.875 0.634 2.029 255 255 255
0.503 0.13 0.967 255 255 255
-0.262 0.709 1.805 255 255 255
0.224 0.218 1.089 255 255 255
0.656 -0.118 2.245 255 255 255
-0.221 -0.263 1.966 255 255 255
1.021 -0.924 2.139 255 255 255
1.555 -0.049 2.516 255 255 255
-0.078 0.798 1.48 255 255 255
0.267 0.512 1.165 255 255 255
0.115 -1.299 1.796 0 0 0
-0.641 0.379 1.298 255 255 255
-1.276 0.45 2.761 255 255 255
-0.594 0.767 1.513 255 255 255
-0.273 -0.369 1.924 255 255 255
-0.614 0.282 1.292 0 0 0
-1.091 0.192 1.882 255 255 255
0.166 -0.53 1.991 255 255 255
-0.609 -0.09 1.203 255 255 255
0.011 0.721 1.765 255 255 255
1.813 -0.069 2.572 255 255 255
0.371 0.308 1.07 255 255 255
0.262 -0.8 1.951 255 255 255
-1.147 -2.032 2.966 255 255 255
-0.305 0.178 2.053 255 255 255
0.293 -1.332 1.829 0 0 0
0.016 0.799 1.476 255 255 255
0.222 -0.373 2.041 255 255 255
-0.178 -1.026 1.791 255 255 255
0.036 -0.38 1.995 255 255 255
1.332 -0.155 2.393 255 255 255
-0.106 0.763 1.593 255 255 255
-0.054 -0.02 2.066 255 255 255
0.45 0.128 1.145 255 255 255
0.254 -0.549 2.006 255 255 255
-0.659 -0.117 1.198 255 255 255
0.462 0.135 1.096 255 255 255
0.138 0.274 1.264 255 255 255
1.267 -0.265 2.348 255 255 255
0.031 -0.626 1.933 255 255 255
0.406 -0.187 2.124 255 255 255
0.241 0.052 1.16 255 255 255
0.442 0.087 1.266 0 0 0
-1.016 0.554 2.349 255 255 255
-0.06 0.747 1.654 0 0 0
1.25 -0.732 2.237 255 255 255
-0.277 -0.039 2.007 255 255 255
-0.306 0.663 2.052 255 255 255
0.099 0.203 2.161 255 255 255
-0.286 -1.134 1.726 255 255 255
0.345 -0.515 2.033 255 255 255
-1.147 -0.06 1.804 255 255 255
-1.07 0.494 2.618 255 255 255
-0.095 -0.615 1.91 255 255 255
0.405 0.279 1.087 255 255 255
-0.056 -0.283 1.996 255 255 255
0.27 0.335 1.099 255 255 255
-1.084 0.054 1.834 255 255 255
0.311 0.41 1.013 255 255 255
-0.619 -0.195 1.167 255 255 255
0.094 0.159 2.147 255 255 255
-0.33 0.499 2.126 255 255 255
0.186 0.179 1.121 255 255 255
-0.327 0.001 1.987 255 255 255
-1.188 -0.132 1.589 255 255 255
0.756 -0.37 2.204 255 255 255
1.146 -0.638 2.235 255 255 255
1.2 -0.286 2.332 255 255 255
0.925 -0.28 2.269 255 255 255
-0.081 -0.116 2.033 255 255 255
0.004 0.434 2.195 255 255 255
-1.213 -2.104 2.879 0 0 0
-1.122 0.092 1.863 255 255 255
-0.827 0.533 2.472 255 255 255
-0.221 0.188 2.08 255 255 255
0.465 -1.342 1.861 0 0 0
1.266 -0.564 2.277 255 255 255
0.141 0.79 1.522 255 255 255
-0.206 -0.276 1.969 255 255 255
0.043 0.784 1.535 255 255 255
-0.374 0.082 2.02 255 255 255
0.874 -0.123 2.295 255 255 255
-0.194 0.227 2.098 255 255 255
-0.503 0.731 1.67 0 0 0
0.876 -0.393 2.227 255 255 255
-0.725 0.618 2.112 255 255 255
-0.009 0.68 1.997 255 255 255
-0.111 -0.873 1.848 0 0 0
-0.614 -0.151 1.185 255 255 255
0.229 -0.02 2.128 255 255 255
-0.143 -0.011 2.046 255 255 255
0.934 -1.416 1.952 0 0 0
0.316 -1.024 1.909 255 255 255
1.036 -0.42 2.261 255 255 255
0.314 -0.28 2.08 255 255 255
0.524 -0.275 2.185 0 0 0
-0.116 -1.135 1.78 255 255 255
0.148 0.166 1.212 255 255 255
-0.881 0.56 2.341 255 255 255
-0.414 0.755 1.585 255 255 255
1.495 -0.136 2.483 255 255 255
0.181 0.085 1.207 255 255 255
-0.561 0.594 2.253 255 255 255
0.196 -0.137 2.092 255 255 255
0.299 0.034 1.171 255 255 255
0.044 -0.998 1.867 255 255 255
0.337 0.394 0.965 255 255 255
-0.571 0.67 1.937 255 255 255
0.799 -0.978 2.073 255 255 255
0.513 -0.398 2.146 255 255 255
0.075 0.418 2.204 255 255 255
0.332 -0.004 1.209 0 0 0
1.509 -0.772 2.328 255 255 255
-0.603 -0.201 1.176 255 255 255
-0.727 0.708 1.738 255 255 255
0.89 -1.287 2.018 255 255 255
0.324 0.283 1.165 255 255 255
-0.087 0.067 2.08 255 255 255
-0.127 0.772 1.548 255 255 255
0.073 0.297 2.176 255 255 255
0.685 -0.801 2.087 255 255 255
-0.2 -0.163 1.996 255 255 255
1.109 -0.991 2.143 255 255 255
0.465 -0.948 1.973 255 255 255
1.011 -1.262 2.054 255 255 255
-0.049 -1.223 1.774 255 255 255
-0.088 0.726 1.734 255 255 255
0.463 0.256 1.011 255 255 255
-0.273 -0.039 2.008 255 255 255
1.112 -0.388 2.285 255 255 255
0.167 -1.076 1.862 0 0 0
-0.683 -0.598 1.155 255 255 255
1.157 -0.244 2.332 255 255 255
-0.114 -0.548 1.921 255 255 255
1.438 -0.091 2.48 255 255 255
-0.094 -0.7 1.885 255 255 255
0.655 -0.784 2.085 255 255 255
-0.556 0.733 1.654 0 0 0
-0.677 -2.186 2.937 0 0 0
-0.917 0.525 2.492 255 255 255
-0.329 0.481 2.124 255 255 255
0.193 0.105 1.16 255 255 255
-0.337 0.719 1.747 255 255 255
0.801 -0.718 2.132 255 255 255
-0.157 0.104 2.071 255 255 255
0.358 0.385 1.012 255 255 255
-1.447 -1.582 2.998 255 255 255
0.039 -0.791 1.898 255 255 255
0.287 -0.702 1.976 255 255 255
-0.763 0.516 2.537 255 255 255
-0.319 -0.521 1.867 255 255 255
0.087 0.653 2.138 255 255 255
-0.624 -0.178 1.168 255 255 255
-0.619 -0.11 1.187 255 255 255
-0.925 0.54 2.432 255 255 255
-0.232 0.374 2.126 255 255 255
-0.613 0.189 1.273 255 255 255
0.083 0.777 1.552 255 255 255
0.224 -0.828 1.935 255 255 255
1.167 -0.235 2.34 255 255 255
-0.282 0.741 1.652 0 0 0
-0.104 -0.317 1.98 255 255 255
0.502 0.197 0.864 255 255 255
1.129 -1 2.147 255 255 255
1.065 -1.245 2.071 255 255 255
0.576 -0.175 2.214 255 255 255
1.268 -0.723 2.238 255 255 255
-1.076 -0.088 1.828 255 255 255
-0.504 0.721 1.706 255 255 255
-0.621 -0.051 1.204 255 255 255
-1.218 0.198 1.851 255 255 255
0.16 -0.234 2.058 255 255 255
-0.063 0.046 2.08 255 255 255
-1.182 0.393 2.96 255 255 255
0.554 -1.342 1.896 255 255 255
1.503 -0.723 2.339 255 255 255
-0.322 0.702 1.846 255 255 255
-1.104 -0.653 1.689 255 255 255
-0.176 -0.468 1.926 255 255 255
-0.339 0.732 1.689 255 255 255
0.197 0.299 1.129 255 255 255
-0.373 0.161 2.036 255 255 255
-1.185 0.214 1.857 255 255 255
0.047 -0.711 1.917 255 255 255
0.458 -0.976 1.951 255 255 255
0.423 0.193 1.122 0 0 0
-1.141 0.017 1.828 0 0 0
0.357 0.392 0.871 255 255 255
0.032 -0.999 1.87 255 255 255
0.696 -0.681 2.117 255 255 255
1.5 -0.147 2.481 255 255 255
1.457 -0.807 2.311 255 255 255
-0.395 0.653 2.069 255 255 255
0.235 -1.297 1.824 255 255 255
-0.064 -0.965 1.831 255 255 255
-1.138 -0.027 1.815 0 0 0
1.713 -0.312 2.492 255 255 255
-0.294 0.758 1.585 255 255 255
-0.973 0.585 2.227 255 255 255
-0.234 -1.172 1.743 255 255 255
-0.486 0.621 2.15 255 255 255
0.292 0.152 1.126 255 255 255
0.402 0.234 1.115 255 255 255
0.207 -0.719 1.955 255 255 255
0.157 -0.667 1.961 255 255 255
-0.769 0.695 1.785 255 255 255
-0.062 0.791 1.497 255 255 255
-0.176 0.687 1.974 255 255 255
0.262 0.354 1.092 255 255 255
0.236 -0.717 1.961 255 255 255
-1.209 -0.294 1.734 255 255 255
0.979 -0.593 2.205 255 255 255
-1.101 -0.031 1.821 255 255 255
0.211 -0.614 1.98 255 255 255
-0.222 -0.717 1.856 255 255 255
0.248 0.024 1.172 255 255 255
-0.313 -0.003 1.998 255 255 255
0.16 0.229 1.2 255 255 255
-1.21 -0.072 1.789 255 255 255
0.744 -0.437 2.189 255 255 255
-0.069 0.711 1.833 255 255 255
-0.222 -0.752 1.847 255 255 255
0.558 -0.536 2.123 255 255 255
-0.097 -1.236 1.761 255 255 255
0.919 -0.018 2.333 255 255 255
0.153 -0.473 1.997 255 255 255
-0.131 -0.358 1.963 255 255 255
-0.108 0.6 2.196 255 255 255
-1.071 -0.456 1.741 255 255 255
1.19 -0.693 2.232 255 255 255
1.421 0.051 2.508 255 255 255
0.043 -0.819 1.89 255 255 255
-1.389 -1.851 2.947 255 255 255
0.206 0.763 1.494 255 255 255
0.328 0.166 1.17 255 255 255
-0.786 0.671 1.89 255 255 255
1.056 -0.009 2.369 255 255 255
1.005 -0.814 2.156 255 255 255
0.884 -0.028 2.324 255 255 255
1.407 -0.98 2.247 255 255 255
0.354 0.398 0.929 255 255 255
-0.614 -0.402 1.117 255 255 255
-1.093 -1.946 2.997 255 255 255
0.043 -0.6 1.942 255 255 255
1.141 0.001 2.392 255 255 255
0.759 -0.817 2.101 255 255 255
0.633 0.057 1.188 255 255 255
0.352 -1.253 1.861 255 255 255
-0.364 -0.316 1.929 255 255 255
1.614 -0.2 2.493 255 255 255
-0.477 0.778 1.49 255 255 255
-0.634 0.667 1.944 255 255 255
0.137 0.202 1.221 255 255 255
0.568 -1.261 1.954 255 255 255
0.209 0.039 1.197 255 255 255
0.801 -0.186 2.263 255 255 255
-1.164 -0.482 1.694 255 255 255
0.885 -0.819 2.13 255 255 255
-0.264 -0.496 1.9 255 255 255
1.164 -1.138 2.116 255 255 255
0.146 0.134 1.279 255 255 255
-0.191 -0.213 1.983 255 255 255
0.449 0.346 1.039 0 0 0
0.457 0.143 1.089 255 255 255
0.064 -1 1.844 255 255 255
-0.651 -0.099 1.202 255 255 255
-1.193 -0.49 1.697 255 255 255
0.298 0.372 1.059 255 255 255
0.462 0.151 1.063 255 255 255
0.402 -0.536 2.041 255 255 255
0.33 0.24 1.121 255 255 255
-0.618 -0.24 1.155 255 255 255
1.169 -0.226 2.345 255 255 255
0.476 0.27 0.918 255 255 255
0.959 -0.727 2.169 255 255 255
0.997 -0.028 2.35 255 255 255
-0.321 0.186 2.045 255 255 255
1.133 -0.921 2.167 255 255 255
0.57 -1.087 1.991 255 255 255
0.291 -0.028 1.19 0 0 0
0.181 0.363 1.386 255 255 255
-0.174 0.587 2.177 255 255 255
0.245 0.365 1.096 255 255 255
0.433 0.138 1.153 0 0 0
-0.197 -0.095 2.012 255 255 255
-0.393 0.727 1.699 255 255 255
0.193 0.303 1.133 255 255 255
-0.231 -0.928 1.804 255 255 255
-0.334 -0.559 1.856 255 255 255
0.912 -1.053 2.081 255 255 255
0.421 -1.288 1.863 255 255 255
-1.098 0.491 2.626 255 255 255
1.113 -0.368 2.29 255 255 255
0.2 0.133 1.13 255 255 255
-0.036 -0.83 1.883 255 255 255
0.798 -0.577 2.167 255 255 255
0.402 -0.914 1.95 255 255 255
0.426 0.074 1.268 0 0 0
1.098 -0.084 2.361 255 255 255
0.169 0.141 1.202 255 255 255
-1.169 0.453 2.774 255 255 255
-0.619 -0.18 1.17 255 255 255
0.095 -1.315 1.788 0 0 0
-1.432 -2.081 2.878 0 0 0
-0.785 0.695 1.781 255 255 255
0.044 -0.126 2.057 255 255 255
1.56 -0.116 2.501 255 255 255
0.131 0.776 1.571 255 255 255
-0.536 0.737 1.649 0 0 0
-0.067 0.135 2.1 255 255 255
-0.302 -0.981 1.759 255 255 255
0.469 0.133 1.081 255 255 255
-0.195 -0.778 1.848 255 255 255
-0.314 -0.726 1.816 255 255 255
0.471 0.107 1.152 255 255 255
-0.284 -0.438 1.907 255 255 255
0.21 0.032 1.206 255 255 255
-1.081 -0.003 1.813 255 255 255
-0.832 0.428 2.764 255 255 255
-0.307 -0.547 1.861 255 255 255
1.767 -0.427 2.472 255 255 255
0.816 -1.349 1.955 255 255 255
-1.442 -1.687 2.967 255 255 255
0.243 -1.283 1.828 255 255 255
1.318 -0.43 2.324 255 255 255
0.194 -0.02 2.122 255 255 255
0.418 0.21 1.107 0 0 0
0.197 0.426 1.133 255 255 255
1.078 0.098 2.404 255 255 255
-0.118 -0.7 1.884 0 0 0
0.793 -1.148 2.028 255 255 255
-0.735 0.603 2.178 255 255 255
-0.31 0.759 1.576 255 255 255
0.404 0.205 1.139 255 255 255
0.559 0.083 1.169 255 255 255
-0.013 -1.319 1.757 0 0 0
0.152 0.096 1.361 0 0 0
-0.253 -0.212 1.969 255 255 255
-0.029 -0.137 2.038 255 255 255
0.256 0.414 1.093 255 255 255
0.6 -1.419 1.878 0 0 0
-0.578 0.705 1.777 255 255 255
0.031 -0.827 1.888 255 255 255
-0.623 0.316 1.299 0 0 0
0.62 -0.77 2.082 255 255 255
-0.73 0.65 1.982 255 255 255
0.6 -0.506 2.145 255 255 255
0.017 0.534 2.213 255 255 255
-0.009 0.127 2.114 255 255 255
-0.091 -0.849 1.856 255 255 255
0.477 0.11 1.127 255 255 255
0.913 -1.186 2.049 255 255 255
0.304 -0.168 2.108 255 255 255
0.831 0.123 2.35 255 255 255
1.446 -1.002 2.277 255 255 255
-0.332 -0.921 1.772 255 255 255
1.228 -0.363 2.322 255 255 255
-1.433 -2.098 2.833 0 0 0
0.917 -1.167 2.053 255 255 255
0.725 -1.336 1.957 255 255 255
-1.365 -1.833 2.952 255 255 255
0.252 0.232 1.087 255 255 255
-1.084 -2.067 2.966 255 255 255
-0.214 -0.667 1.869 255 255 255
0.874 0.099 2.353 255 255 255
0.27 0.214 1.098 255 255 255
0.931 -0.949 2.107 255 255 255
0.304 -0.341 2.067 255 255 255
-0.496 0.632 2.107 255 255 255
0.234 -1.232 1.841 255 255 255
0.782 -1.23 2.008 255 255 255
-0.257 0.62 2.158 255 255 255
0.544 -0.53 2.121 255 255 255
-0.697 -2.012 2.971 0 0 0
-0.603 -0.153 1.188 255 255 255
0.476 -1.415 1.838 255 255 255
0.186 -0.659 1.962 0 0 0
-0.104 0.662 2.106 255 255 255
-0.351 -1.271 1.722 0 0 0
-1.108 -0.588 1.695 255 255 255
0.471 0.125 1.094 255 255 255
-1.199 -0.232 1.61 255 255 255
0.064 -0.448 1.984 255 255 255
0.232 0.43 1.099 255 255 255
0.902 -0.63 2.176 255 255 255
1.075 -0.629 2.219 255 255 255
-0.323 0.152 2.035 255 255 255
1.119 -0.019 2.381 255 255 255
-0.288 0.624 2.154 255 255 255
0.521 0.102 1.083 255 255 255
1.097 -0.781 2.186 255 255 255
0.633 0.057 1.194 255 255 255
0.131 0.671 2.061 255 255 255
0.205 -1.065 1.875 0 0 0
0.717 -1.412 1.911 0 0 0
1.359 -0.866 2.227 255 255 255
0.464 0.216 0.967 255 255 255
0.879 -0.789 2.135 255 255 255
-0.149 -0.73 1.871 255 255 255
0.21 0.77 1.469 255 255 255
1.318 -1.021 2.188 255 255 255
0.649 -1.198 1.982 255 255 255
-0.312 -0.872 1.783 255 255 255
0.918 -1.386 1.967 255 255 255
-0.053 0.777 1.538 255 255 255
1.572 -0.782 2.339 255 255 255
-0.25 -0.412 1.921 255 255 255
0.103 0.195 2.158 255 255 255
0.901 -1.527 1.911 255 255 255
0.186 0.162 1.127 255 255 255
0.683 -0.361 2.191 255 255 255
0.197 -1.329 1.81 0 0 0
0.699 -0.915 2.07 255 255 255
0.472 0.153 0.972 255 255 255
0.365 -0.39 2.069 255 255 255
-1.083 0.259 1.855 255 255 255
0.551 -1.317 1.937 255 255 255
0.364 0.216 1.157 255 255 255
-0.89 0.556 2.365 255 255 255
-0.603 -0.431 1.118 255 255 255
-0.182 -0.072 2.022 255 255 255
0.527 0.173 0.877 255 255 255
0.911 -0.191 2.293 255 255 255
0.473 0.126 0.997 255 255 255
0.407 0.143 1.208 255 255 255
-0.013 -1.197 1.79 255 255 255
1.117 -0.422 2.279 255 255 255
0.165 0.05 1.315 0 0 0
-1.22 0.185 1.847 255 255 255
1.074 -0.24 2.313 255 255 255
0.201 0.091 2.153 255 255 255
-0.133 0.326 2.137 255 255 255
-1.105 -0.354 1.747 255 255 255
0.422 0.287 1.085 0 0 0
-1.214 -0.027 1.721 255 255 255
0.178 0.208 1.116 255 255 255
-0.873 0.65 1.974 255 255 255
0.12 -0.688 1.947 255 255 255
-0.184 0.732 1.707 255 255 255
-0.599 0.643 2.047 255 255 255
-1.119 0.404 1.928 255 255 255
-0.017 0.68 2.01 255 255 255
0.561 -0.854 2.046 255 255 255
0.203 0.148 2.166 255 255 255
0.483 0.139 0.976 255 255 255
-0.821 0.627 2.054 255 255 255
0.783 -0.979 2.069 255 255 255
1.619 -0.179 2.502 255 255 255
0.077 0.261 2.169 255 255 255
1.821 -0.295 2.517 255 255 255
0.184 0.055 1.228 255 255 255
-0.093 0.759 1.61 255 255 255
0.375 -0.776 1.982 255 255 255
-1.214 0.198 1.853 255 255 255
-0.028 -0.862 1.866 0 0 0
-0.33 0.688 1.924 255 255 255
0.863 -0.644 2.167 255 255 255
0.802 -0.614 2.158 255 255 255
0.855 0.077 1.233 255 255 255
0.867 -0.709 2.151 255 255 255
0.337 -0.503 2.037 255 255 255
0.344 -0.763 1.977 255 255 255
-0.402 0.773 1.511 255 255 255
0.169 -0.796 1.925 0 0 0
0.263 0.738 1.424 255 255 255
-0.334 -0.555 1.857 255 255 255
-1.134 -0.147 1.789 0 0 0
0.391 0.052 1.263 0 0 0
-0.829 0.627 2.051 255 255 255
0.836 -1.4 1.946 0 0 0
0.153 0.09 2.141 255 255 255
0.434 0.119 1.187 0 0 0
-0.782 0.676 1.867 255 255 255
1.704 -0.617 2.42 255 255 255
0.632 -0.204 2.227 255 255 255
0.985 -1.288 2.045 255 255 255
0.643 -1.273 1.967 255 255 255
0.252 0.395 1.091 255 255 255
-1.098 0.103 1.847 255 255 255
0.749 -0.074 2.277 255 255 255
1.179 -0.241 2.34 255 255 255
-0.152 0.593 2.183 255 255 255
0.39 0.201 1.15 255 255 255
-0.379 0.787 1.465 255 255 255
0.827 -0.508 2.19 255 255 255
-0.044 -0.786 1.865 255 255 255
-0.191 -0.641 1.881 255 255 255
-0.728 0.725 1.651 0 0 0
-0.63 0.764 1.523 255 255 255
0.453 0.2 1.054 255 255 255
1.552 -0.726 2.352 255 255 255
-0.723 -2.15 2.932 0 0 0
0.15 -0.445 2.005 255 255 255
0.93 -1.084 2.074 255 255 255
-0.164 -0.826 1.841 255 255 255
0.609 -1.374 1.897 0 0 0
-1.166 0.318 1.885 255 255 255
-0.205 0.768 1.557 255 255 255
0.279 0.491 0.95 255 255 255
0.211 0.18 1.12 255 255 255
-0.368 -0.448 1.909 255 255 255
0.127 0.68 1.995 255 255 255
0.033 0.68 2.023 255 255 255
0.322 -0.673 1.991 255 255 255
0.107 -1.298 1.795 0 0 0
0.29 0.466 1.011 255 255 255
-0.286 -1.262 1.694 0 0 0
-1.159 -0.439 1.702 255 255 255
0.052 0.792 1.507 255 255 255
0.106 0.386 2.202 255 255 255
0.786 -0.95 2.072 255 255 255
-1.124 -0.06 1.825 255 255 255
0.484 0.321 0.965 255 255 255
-0.199 0.664 2.092 255 255 255
0.481 0.155 0.964 255 255 255
0.392 -0.717 1.995 255 255 255
-0.169 -0.851 1.837 255 255 255
-0.434 0.783 1.485 255 255 255
0.364 0.275 1.1 255 255 255
-0.184 -0.767 1.854 255 255 255
-0.023 0.792 1.493 255 255 255
0.277 0.512 0.91 255 255 255
1.231 -0.71 2.24 255 255 255
-0.505 0.777 1.491 255 255 255
0.492 -0.285 2.167 255 255 255
0.4 0.362 0.996 255 255 255
0.183 0.254 1.141 255 255 255
1.144 0.017 2.398 255 255 255
-1.183 -0.128 1.778 255 255 255
0.315 0.405 0.865 255 255 255
0.473 0.116 1.116 255 255 255
-0.341 0.769 1.535 255 255 255
0.068 -1.135 1.822 255 255 255
0.21 -0.078 1.348 0 0 0
0.512 -1.394 1.869 0 0 0
-0.282 -0.768 1.827 255 255 255
0.175 0.25 1.169 255 255 255
-0.019 0.718 1.788 255 255 255
1.411 -0.176 2.453 255 255 255
0.717 -1.347 1.94 255 255 255
1.553 -0.077 2.513 255 255 255
-0.301 0.153 2.054 255 255 255
-0.127 0.718 1.783 255 255 255
-0.244 0.025 2.029 255 255 255
-1.138 0.058 1.839 0 0 0
-0.123 0.017 2.056 255 255 255
-1.166 0.146 1.848 255 255 255
0.035 -0.85 1.888 255 255 255
-0.713 0.384 2.841 0 0 0
-0.244 -0.289 1.951 255 255 255
-0.223 0.507 2.15 255 255 255
0.145 -0.627 1.959 0 0 0
-0.014 0.646 2.176 255 255 255
-0.618 0.086 1.24 255 255 255
0.467 0.139 1.076 255 255 255
0.424 -0.335 2.093 255 255 255
-0.379 -0.158 1.975 255 255 255
-0.001 0.14 2.119 255 255 255
1.353 -0.414 2.344 255 255 255
0.034 0.708 1.857 255 255 255
-0.099 -1.011 1.811 0 0 0
0.412 -0.483 2.053 255 255 255
0.53 -1.282 1.94 255 255 255
0.076 -0.939 1.872 0 0 0
-0.241 -0.244 1.965 255 255 255
-0.069 0.733 1.715 255 255 255
0.316 -1.218 1.861 255 255 255
1.038 -0.643 2.207 255 255 255
0.357 -0.052 1.279 0 0 0
1.28 0.038 2.427 255 255 255
0.964 -0.39 2.25 255 255 255
0.216 0.161 2.169 0 0 0
0.901 -1.083 2.067 255 255 255
-0.08 0.753 1.633 0 0 0
1.169 -0.724 2.219 255 255 255
0.394 0.217 1.139 255 255 255
1.076 -0.61 2.224 255 255 255
-1.086 0.094 1.828 255 255 255
-0.622 0.732 1.655 0 0 0
-0.049 -1.21 1.779 255 255 255
0.796 -1.198 2.017 255 255 255
0.81 -0.51 2.184 255 255 255
0.773 -0.116 2.273 255 255 255
0.289 0.49 1.079 255 255 255
-1.214 -0.011 1.796 255 255 255
0.047 -0.962 1.852 255 255 255
1.246 -0.498 2.293 255 255 255
-0.281 0.731 1.695 255 255 255
0.166 -0.136 2.084 255 255 255
0.684 -1.021 2.035 255 255 255
-0.231 0.613 2.167 255 255 255
-0.728 0.641 2.03 255 255 255
-0.113 0.713 1.794 255 255 255
0.167 0.139 1.206 255 255 255
1.03 -0.048 2.348 255 255 255
0.165 0.036 1.358 0 0 0
-1.082 0.037 1.83 255 255 255
0.004 0.648 2.168 255 255 255
0.447 -0.434 2.086 255 255 255
0.468 0.255 0.958 255 255 255
0.923 -1.42 1.951 0 0 0
0.442 0.245 1.097 255 255 255
1.442 0.023 2.511 255 255 255
0.209 -0.014 1.228 255 255 255
0.104 -0.826 1.904 255 255 255
0.093 -0.359 2.016 255 255 255
0.294 0.439 1.135 255 255 255
0.34 0.405 0.83 255 255 255
1.071 -0.216 2.322 255 255 255
-0.605 -0.481 1.103 255 255 255
1.338 -0.462 2.321 255 255 255
0.87 -1.309 2.011 255 255 255
-0.052 -0.438 1.96 255 255 255
0.173 0.179 1.18 255 255 255
0.892 -0.979 2.09 255 255 255
0.77 -1.331 1.977 255 255 255
0.493 0.194 0.898 255 255 255
0.064 0.229 2.156 255 255 255
0.511 -1.288 1.934 255 255 255
0.103 0.203 2.161 255 255 255
0.284 -0.674 1.985 255 255 255
1.141 -0.619 2.24 255 255 255
-1.094 -0.668 1.685 255 255 255
0.854 0.084 2.342 255 255 255
0.272 -0.026 1.191 255 255 255
0.024 -0.007 2.087 255 255 255
0.65 -1.43 1.883 0 0 0
0.504 0.182 0.904 255 255 255
0.242 0.26 1.1 255 255 255
1.842 -0.123 2.567 255 255 255
-0.305 0.153 2.052 255 255 255
0.209 -1.051 1.876 0 0 0
0.52 -0.326 2.165 255 255 255
-0.124 0.494 2.179 255 255 255
0.331 0.336 1.05 255 255 255
0.833 -0.085 2.299 255 255 255
0.788 -0.079 2.287 255 255 255
0.211 0.755 1.477 255 255 255
0.658 -0.979 2.039 255 255 255
-0.305 -0.027 2.001 255 255 255
-0.128 0.466 2.174 255 255 255
-0.468 0.793 1.452 255 255 255
-0.357 0.114 2.017 255 255 255
-0.241 -0.079 2.004 255 255 255
0.472 0.218 0.891 255 255 255
-1.151 -2.102 2.921 255 255 255
1.059 -0.225 2.318 255 255 255
-0.354 0.742 1.647 0 0 0
1.589 -0.812 2.337 255 255 255
-0.223 0.727 1.729 255 255 255
0.092 0.022 2.107 255 255 255
-0.73 0.32 1.385 255 255 255
-0.109 0.117 2.088 255 255 255
0.309 -0.85 1.946 255 255 255
-0.605 -0.566 1.082 255 255 255
-0.075 0.788 1.505 255 255 255
-0.087 -0.665 1.894 255 255 255
1.339 -0.888 2.218 255 255 255
0.528 -0.266 2.185 255 255 255
-0.433 0.721 1.728 255 255 255
-0.597 -0.343 1.143 0 0 0
1.433 -0.321 2.425 255 255 255
0.232 0.01 1.176 255 255 255
0.488 -0.453 2.128 255 255 255
-0.809 0.668 1.903 255 255 255
-1.183 -0.283 1.543 255 255 255
0.02 0.085 2.109 255 255 255
-1.175 -1.909 2.988 255 255 255
0.612 -0.962 2.032 255 255 255
-0.471 0.658 2.03 255 255 255
-0.005 -1.21 1.787 255 255 255
1.732 -0.205 2.516 255 255 255
0.32 0.073 1.181 255 255 255
-1.172 -0.015 1.804 255 255 255
0.036 -1.139 1.813 255 255 255
-0.232 0.154 2.072 255 255 255
0.819 -0.85 2.109 255 255 255
0.922 -1.322 2.019 255 255 255
0.065 0.686 1.976 255 255 255
0.447 0.102 1.223 255 255 255
0.727 -1.099 2.023 255 255 255
-1.147 0.248 1.877 255 255 255
-0.633 -0.14 1.177 255 255 255
-0.133 -0.71 1.876 0 0 0
-0.163 0.651 2.143 255 255 255
-0.607 0.032 1.233 0 0 0
0.103 0.799 1.488 255 255 255
-0.664 0.481 2.481 255 255 255
1.661 0.042 2.559 255 255 255
-0.025 0.682 2.003 255 255 255
0.606 -0.445 2.161 255 255 255
0.12 0.277 1.264 255 255 255
-0.88 0.452 2.719 255 255 255
-0.236 0.266 2.099 255 255 255
-0.252 -0.711 1.848 255 255 255
-0.001 0.689 1.971 255 255 255
0.136 0.692 1.939 255 255 255
0.055 0.695 1.927 255 255 255
-0.154 0.771 1.552 255 255 255
-0.053 0.716 1.793 255 255 255
-1.157 -0.56 1.676 255 255 255
0.924 -0.378 2.243 255 255 255
1.037 -0.786 2.173 255 255 255
0.367 0.374 0.993 255 255 255
1.21 -0.207 2.357 255 255 255
-0.483 0.771 1.514 255 255 255
0.173 0.253 1.151 255 255 255
0.067 0.773 1.575 255 255 255
-0.615 0.169 1.266 0 0 0
0.49 0.103 1.103 255 255 255
0.597 -0.445 2.16 255 255 255
0.765 -1.311 1.983 255 255 255
-1.089 0.332 1.893 255 255 255
-1.133 -0.039 1.815 0 0 0
0.156 0.254 2.181 255 255 255
0.63 0.083 1.065 255 255 255
-1.108 0.436 2.835 255 255 255
0.192 -0.368 2.036 255 255 255
-0.044 -0.33 1.99 255 255 255
0.471 -0.353 2.147 255 255 255
0.299 0.422 1.151 255 255 255
-1.175 -2.097 2.906 0 0 0
0.596 -0.211 2.216 255 255 255
0.393 0.334 1.03 255 255 255
0.114 0.183 1.298 255 255 255
0.396 0.087 1.271 255 255 255
0.29 -0.385 2.054 255 255 255
-0.294 -0.949 1.768 255 255 255
0.478 0.195 0.92 255 255 255
-0.647 -0.583 1.106 255 255 255
-0.533 0.708 1.772 255 255 255
-0.321 0.25 2.066 255 255 255
-0.661 -2.137 2.949 0 0 0
0.221 -1.001 1.891 255 255 255
-1.183 -0.211 1.557 255 255 255
0.491 0.2 0.885 255 255 255
-0.938 0.596 2.178 255 255 255
0.389 -0.894 1.951 255 255 255
0.41 -0.619 2.022 255 255 255
-0.374 0.246 2.056 255 255 255
-0.08 -1.103 1.794 255 255 255
0.957 -0.404 2.245 255 255 255
0.527 -1.236 1.947 255 255 255
0.542 -0.795 2.059 255 255 255
-0.17 -0.326 1.962 255 255 255
0.495 -0.841 2.037 255 255 255
-0.515 0.665 1.974 255 255 255
1.117 -0.993 2.147 255 255 255
-0.016 -0.862 1.875 255 255 255
-0.315 -0.836 1.791 255 255 255
-0.11 -0.711 1.881 255 255 255
0.438 -0.902 1.961 255 255 255
-0.016 -0.885 1.867 0 0 0
0.302 0.001 1.181 255 255 255
-0.888 0.448 2.726 255 255 255
-0.279 0.497 2.141 255 255 255
0.029 0.123 2.121 255 255 255
-1.197 -0.372 1.722 255 255 255
-0.545 0.545 2.457 0 0 0
-0.474 0.709 1.776 255 255 255
0.111 0.79 1.516 255 255 255
-0.294 0.567 2.145 255 255 255
-0.259 0.713 1.783 255 255 255
0.112 -0.88 1.893 255 255 255
0.487 0.176 0.936 255 255 255
0.288 0.456 1.104 255 255 255
1.153 -1.206 2.092 255 255 255
1.224 -0.158 2.375 255 255 255
0.345 0.326 1.052 255 255 255
-1.472 -1.538 2.998 255 255 255
0.543 -0.612 2.102 255 255 255
-0.04 -0.396 1.972 255 255 255
0.862 -0.731 2.145 255 255 255
0.552 0.105 1.024 255 255 255
0.199 -0.633 1.975 255 255 255
-0.013 0.679 2.02 255 255 255
0.024 -1.26 1.782 255 255 255
0.594 -0.357 2.18 255 255 255
0.239 0.179 1.109 255 255 255
1.02 -0.641 2.204 255 255 255
-0.306 0.017 2.008 255 255 255
0.832 -1.343 1.961 255 255 255
-0.237 -0.818 1.826 255 255 255
1.003 -0.314 2.285 255 255 255
-0.288 -0.4 1.916 255 255 255
0.448 0.244 1.079 255 255 255
0.447 0.287 1.109 0 0 0
0.204 -0.513 2.005 255 255 255
0.999 -1.191 2.065 255 255 255
-0.605 -0.453 1.11 255 255 255
-0.212 -1.241 1.732 255 255 255
-0.06 0.217 2.129 255 255 255
-0.678 0.446 2.648 255 255 255
-1.184 0.116 1.836 255 255 255
-0.273 -0.442 1.91 255 255 255
0.371 -0.675 2.004 255 255 255
1.22 -0.866 2.194 255 255 255
-0.63 0.387 1.309 255 255 255
-0.137 -0.597 1.904 255 255 255
0.285 0.132 1.13 255 255 255
0.171 -0.419 2.019 255 255 255
0.241 -0.021 1.209 255 255 255
0.665 -0.691 2.109 255 255 255
-0.012 -0.785 1.894 255 255 255
1.691 -0.575 2.418 255 255 255
-0.611 -0.504 1.095 255 255 255
0.202 0.111 1.139 255 255 255
0.184 0.08 1.208 255 255 255
1.534 -0.461 2.41 255 255 255
-0.276 -0.927 1.789 255 255 255
0.015 -0.685 1.916 0 0 0
0.449 0.191 1.053 255 255 255
0.513 -0.765 2.058 255 255 255
-0.316 0.376 2.106 255 255 255
0.759 -1.078 2.038 255 255 255
0.592 -0.591 2.118 255 255 255
-0.092 -0.348 1.974 255 255 255
0.45 0.243 1.073 255 255 255
0.628 0.079 1.077 255 255 255
-1.475 -1.596 2.985 255 255 255
0.772 -0.417 2.202 255 255 255
-0.292 -0.625 1.85 255 255 255
0.221 -0.958 1.902 255 255 255
0.322 0.331 1.053 255 255 255
-0.338 0.733 1.683 255 255 255
-0.252 0.35 2.116 255 255 255
-0.176 -0.807 1.846 255 255 255
-1.22 0.013 1.722 255 255 255
1.142 -0.341 2.304 255 255 255
-0.118 0.203 2.109 255 255 255
0.933 -0.43 2.233 255 255 255
1.498 -0.837 2.318 255 255 255
1.104 -0.134 2.348 255 255 255
-0.629 0.196 1.26 255 255 255
-0.983 0.506 2.579 255 255 255
-1.264 0.389 2.957 255 255 255
-0.159 -0.273 1.979 255 255 255
-1.205 -0.083 1.663 255 255 255
0.172 -0.307 2.045 255 255 255
-0.343 0.62 2.134 255 255 255
-1.219 0.054 1.811 255 255 255
-0.144 -0.23 1.991 255 255 255
0.921 -0.181 2.292 255 255 255
0.807 -1.21 2.016 255 255 255
-0.295 0.204 2.065 255 255 255
-0.645 0.688 1.835 255 255 255
0.182 -0.563 1.986 255 255 255
1.362 0.007 2.462 255 255 255
-0.138 -0.056 2.036 255 255 255
1.377 0.012 2.478 255 255 255
-0.126 -0.084 2.031 255 255 255
-0.352 -0.703 1.838 255 255 255
-0.029 -0.141 2.035 255 255 255
0.236 -0.062 2.119 255 255 255
-0.11 -0.843 1.852 255 255 255
-0.345 0.682 1.943 255 255 255
0.464 0.121 1.12 255 255 255
0.212 0.73 1.767 255 255 255
-0.318 -0.32 1.913 255 255 255
0.012 0.318 2.171 255 255 255
0.315 0.402 0.862 255 255 255
0.624 0.119 1.019 255 255 255
1.417 -0.916 2.272 255 255 255
0.203 0.46 1.119 255 255 255
-0.162 -0.981 1.805 255 255 255
0.452 0.215 1.062 255 255 255
0.467 0.273 0.996 255 255 255
0.294 0.674 1.939 0 0 0
0.073 -1.264 1.794 255 255 255
-0.611 0.224 1.28 0 0 0
0.598 -0.405 2.17 255 255 255
0.654 -1.371 1.91 0 0 0
0.357 -0.719 1.991 255 255 255
0.053 0.712 1.835 255 255 255
-0.619 -0.067 1.201 255 255 255
0.307 0.253 1.109 255 255 255
-0.055 0.791 1.497 255 255 255
0.314 -0.796 1.96 255 255 255
-0.658 0.217 1.278 255 255 255
0.388 -0.852 1.962 255 255 255
0.399 0.367 0.992 255 255 255
1.114 -0.233 2.327 255 255 255
-1.2 0.005 1.664 255 255 255
0.7 -1.205 1.992 255 255 255
0.283 0.51 1.113 255 255 255
-0.368 0.709 1.791 255 255 255
0.063 0.294 1.373 255 255 255
-0.117 -0.176 2.012 255 255 255
1.105 -0.498 2.257 255 255 255
-0.665 0.639 2.053 255 255 255
0.259 -0.002 1.181 255 255 255
-0.185 0.748 1.641 0 0 0
-0.718 0.43 2.759 255 255 255
0.064 0.664 2.098 255 255 255
0.205 0.735 1.74 255 255 255
0.93 0.07 2.358 255 255 255
-0.084 -1.026 1.82 0 0 0
-0.191 0.768 1.558 255 255 255
0.808 -0.789 2.121 255 255 255
-0.73 0.595 2.208 255 255 255
0.613 -0.986 2.029 255 255 255
0.59 0.086 1.127 255 255 255
0.129 0.191 2.164 255 255 255
-0.344 -0.995 1.771 255 255 255
0.055 0.176 2.14 255 255 255
-0.339 -0.787 1.806 255 255 255
-0.089 0.225 2.122 255 255 255
0.039 -0.524 1.957 255 255 255
-0.458 0.699 1.83 255 255 255
0.337 -0.478 2.042 255 255 255
0.29 0.19 1.114 255 255 255
0.24 -0.067 1.244 0 0 0
0.026 0.459 2.205 255 255 255
1.136 -0.085 2.368 255 255 255
1.742 -0.211 2.519 255 255 255
0.613 -0.379 2.176 255 255 255
0.282 0.48 1.032 255 255 255
1.185 -0.369 2.307 255 255 255
-0.028 -0.747 1.887 255 255 255
0.254 -0.696 1.973 255 255 255
-0.13 -0.947 1.821 255 255 255
0.258 -0.72 1.966 255 255 255
0.045 0.79 1.517 255 255 255
-0.087 -0.915 1.833 255 255 255
0.243 0.625 1.371 255 255 255
-0.559 0.776 1.483 255 255 255
-0.085 0.671 2.063 255 255 255
0.428 0.177 1.109 0 0 0
0.245 -0.609 1.989 255 255 255
0.892 -0.454 2.219 255 255 255
0.076 -1.056 1.839 0 0 0
0.296 -0.026 1.19 0 0 0
0.145 0.103 2.145 255 255 255
-0.89 -2.124 2.891 0 0 0
-0.033 -1.068 1.828 0 0 0
0.006 0.764 1.607 255 255 255
0.468 -1.273 1.884 255 255 255
-0.252 0.592 2.157 255 255 255
0.476 0.249 0.917 255 255 255
0.279 0.709 1.399 255 255 255
-1.067 0.475 2.709 255 255 255
0.811 -1.008 2.068 255 255 255
0.11 -0.196 2.058 255 255 255
0.028 -0.114 2.06 255 255 255
1.086 -0.726 2.198 255 255 255
-0.621 0.18 1.264 255 255 255
-0.366 0.725 1.718 255 255 255
0.185 0.448 1.13 255 255 255
0.481 0.299 0.922 255 255 255
-0.107 0.723 1.756 255 255 255
-1.156 -0.175 1.774 255 255 255
1.317 -0.54 2.296 255 255 255
0.293 0.459 0.999 255 255 255
-0.313 0.648 2.105 255 255 255
1.255 -0.102 2.391 255 255 255
-1.529 -1.831 2.912 255 255 255
0.438 0.23 1.095 255 255 255
-1.179 -1.869 2.992 255 255 255
1.128 -0.467 2.273 255 255 255
-0.74 0.641 2.026 255 255 255
0.334 0.307 1.082 255 255 255
0.12 -0.523 1.981 255 255 255
0.693 -0.981 2.046 255 255 255
0.208 0.753 1.66 0 0 0
0.303 0.076 1.156 255 255 255
-1.512 -1.647 2.961 255 255 255
0.394 -0.494 2.048 255 255 255
-1.132 -2.023 2.97 255 255 255
-0.117 0.662 2.092 255 255 255
0.38 0.083 1.255 255 255 255
1.112 -0.074 2.367 255 255 255
-0.108 0.327 2.143 255 255 255
-0.159 -0.019 2.039 255 255 255
0.132 -0.706 1.936 255 255 255
0.354 0.172 1.206 255 255 255
1.229 -1.022 2.167 255 255 255
-0.645 0.716 1.704 255 255 255
0.252 0.65 1.381 255 255 255
0.232 -1.156 1.855 255 255 255
-0.651 0.499 2.469 255 255 255
0.361 0.204 1.174 255 255 255
-0.164 -0.665 1.88 255 255 255
1.205 -0.121 2.375 255 255 255
-1.133 -0.571 1.682 255 255 255
1.769 -0.051 2.564 255 255 255
-0.222 -1.167 1.745 255 255 255
0.318 -0.714 1.981 255 255 255
0.974 -0.598 2.204 255 255 255
-0.16 -1.148 1.766 255 255 255
-0.208 0.67 2.054 255 255 255
0.152 0.126 1.249 255 255 255
-0.256 0.777 1.508 255 255 255
-0.507 0.343 2.376 0 0 0
-1.504 -1.653 2.96 255 255 255
0.66 -0.708 2.104 255 255 255
0.717 -1.36 1.932 255 255 255
0.508 -0.75 2.058 255 255 255
0.126 0.8 1.496 255 255 255
-0.683 0.36 2.944 0 0 0
0.334 -0.202 2.105 255 255 255
0.485 -0.831 2.037 0 0 0
-0.851 0.558 2.361 255 255 255
0.28 0.283 1.12 255 255 255
-0.714 0.396 2.843 255 255 255
-0.319 -0.604 1.847 255 255 255
0.456 0.134 1.113 255 255 255
-1.156 0.292 1.888 255 255 255
-0.572 0.743 1.616 0 0 0
-1.357 0.397 2.943 255 255 255
0.354 -0.078 1.339 0 0 0
0.361 0.051 1.236 0 0 0
-0.215 -0.899 1.812 255 255 255
0.067 0.777 1.561 255 255 255
0.149 0.135 1.265 255 255 255
0.242 0.673 1.386 255 255 255
0.48 0.284 0.914 255 255 255
-0.111 0.546 2.185 255 255 255
-0.72 -2.095 2.944 255 255 255
0.864 -0.244 2.262 255 255 255
0.613 0.095 1.105 255 255 255
-0.092 0.694 1.911 255 255 255
-0.036 -0.845 1.877 255 255 255
-0.272 -1.137 1.74 255 255 255
0.387 0.35 1.008 255 255 255
0.241 0.199 1.094 255 255 255
0.254 -1.178 1.855 255 255 255
-0.262 0.719 1.746 255 255 255
0.316 -0.181 2.107 255 255 255
0.305 -0.775 1.965 255 255 255
-1.113 0.352 1.905 255 255 255
0.145 -0.818 1.915 255 255 255
-0.383 0.685 1.921 255 255 255
0.167 -0.338 2.033 255 255 255
-1.137 0.406 1.931 255 255 255
-0.513 0.801 1.414 255 255 255
0.22 -0.94 1.904 255 255 255
0.497 0.118 1.01 255 255 255
0.464 0.136 1.03 255 255 255
0.078 -0.036 2.091 255 255 255
0.198 0.48 1.138 255 255 255
-0.008 -0.953 1.845 0 0 0
-0.364 -0.003 1.99 255 255 255
-0.861 0.451 2.717 255 255 255
0.508 -0.273 2.177 0 0 0
0.56 0.067 1.203 255 255 255
0.411 -0.17 2.126 255 255 255
0.05 0.347 1.31 0 0 0
-0.149 0.776 1.538 255 255 255
0.461 -0.623 2.057 0 0 0
0.46 0.354 1.015 255 255 255
-0.047 0.204 2.127 255 255 255
-0.615 0.749 1.582 255 255 255
1.155 -0.766 2.204 255 255 255
0.758 -0.102 2.274 255 255 255
0.752 -0.366 2.206 255 255 255
0.481 -0.589 2.093 255 255 255
0.435 0.307 1.056 0 0 0
-0.308 -1.229 1.698 0 0 0
0.23 -0.166 2.093 255 255 255
-0.174 -0.039 2.029 255 255 255
0.468 0.3 1.022 255 255 255
1.255 -0.928 2.187 255 255 255
1.725 -0.279 2.502 255 255 255
0.314 -1.148 1.876 255 255 255
0.403 -0.279 2.101 255 255 255
0.057 -0.118 2.062 255 255 255
0.437 0.185 1.08 255 255 255
0.221 0.723 1.6 255 255 255
1.229 0.064 2.423 255 255 255
0.056 0.3 2.171 255 255 255
0.053 -0.122 2.061 255 255 255
-0.066 -0.064 2.049 255 255 255
0.153 -0.774 1.928 255 255 255
-0.458 0.63 2.121 255 255 255
-0.145 -0.096 2.022 255 255 255
-1.296 -1.819 2.977 255 255 255
0.289 0.52 1.079 255 255 255
0.443 -0.577 2.041 255 255 255
-0.248 0.714 1.786 255 255 255
-1.442 -2.094 2.838 0 0 0
-0.387 0.713 1.768 255 255 255
1.19 -0.181 2.355 255 255 255
-0.735 0.705 1.75 255 255 255
-0.603 0.554 2.395 255 255 255
0.626 -1.409 1.876 0 0 0
1.557 -0.34 2.449 255 255 255
0.316 -0.432 2.05 255 255 255
1.416 -0.518 2.372 255 255 255
0.81 0.088 2.336 255 255 255
0.169 -0.714 1.944 255 255 255
0.355 -0.409 2.06 255 255 255
0.072 0.732 1.73 255 255 255
-1.36 -1.681 2.996 255 255 255
-0.1 -0.278 1.991 255 255 255
0.267 -0.904 1.923 255 255 255
1.086 -0.867 2.165 255 255 255
-0.341 0.673 1.997 255 255 255
1.419 0.023 2.506 255 255 255
-0.323 0.224 2.055 255 255 255
0.76 -1.126 2.026 255 255 255
0.793 0.08 1.168 255 255 255
1.017 -1.368 1.996 255 255 255
1.339 -0.735 2.255 255 255 255
0.22 0.356 1.118 255 255 255
1.18 0.048 2.411 255 255 255
0.051 0.699 1.901 255 255 255
-0.634 0.456 1.325 255 255 255
1.145 -1.134 2.114 255 255 255
-0.169 0.692 1.938 255 255 255
0.442 0.255 1.101 255 255 255
0.301 0.339 1.099 255 255 255
-0.193 -0.376 1.946 255 255 255
0.928 -0.172 2.296 255 255 255
-0.039 0.703 1.866 255 255 255
0.294 0.447 0.915 255 255 255
0.243 -0.33 2.054 255 255 255
0.215 -1.149 1.854 255 255 255
-0.131 0.4 2.157 255 255 255
1.185 0.017 2.408 255 255 255
0.335 0.203 1.172 255 255 255
0.56 -0.196 2.207 255 255 255
-0.179 -1.154 1.758 255 255 255
0.227 0.095 2.154 0 0 0
0.218 -1.052 1.878 255 255 255
0.316 0.414 0.957 255 255 255
1.111 -0.402 2.281 255 255 255
-0.015 0.721 1.774 255 255 255
0.447 -0.873 1.971 255 255 255
-0.621 -0.038 1.206 255 255 255
-0.038 0.013 2.078 255 255 255
0.435 0.322 1.114 0 0 0
0.478 0.232 0.887 255 255 255
-0.264 0.337 2.111 255 255 255
0.151 -0.342 2.032 255 255 255
-1.096 0.405 2.929 255 255 255
0.462 0.205 0.964 255 255 255
-1.151 0.504 2.588 255 255 255
-0.146 0.502 2.172 255 255 255
-0.098 -0.04 2.051 255 255 255
-0.1 -0.289 1.986 255 255 255
0.176 -0.283 2.053 255 255 255
0.279 0.154 1.121 255 255 255
-0.23 -0.454 1.915 255 255 255
-0.025 -1.068 1.828 0 0 0
-0.192 0.311 2.119 255 255 255
-0.092 0.122 2.094 255 255 255
-0.736 0.632 2.058 255 255 255
0.514 -1.326 1.913 255 255 255
0.496 -0.212 2.187 255 255 255
-0.189 0.666 2.086 255 255 255
0.162 -0.095 2.094 255 255 255
-0.259 -1.025 1.775 255 255 255
0.383 0.343 1.014 255 255 255
-0.208 -0.387 1.939 255 255 255
0.395 0.396 0.879 255 255 255
0.614 -1.371 1.901 0 0 0
-0.143 0.738 1.684 255 255 255
0.071 0.386 1.348 0 0 0
-0.15 -1.285 1.737 0 0 0
0.1 -0.697 1.937 255 255 255
0.008 -1.239 1.783 255 255 255
-0.253 0.373 2.124 255 255 255
1.405 -0.166 2.455 255 255 255
-1.21 -0.179 1.702 255 255 255
-0.285 0.788 1.475 255 255 255
-0.133 0.55 2.181 255 255 255
0.297 0.199 1.113 255 255 255
-0.158 -0.99 1.805 255 255 255
0.955 -1.106 2.078 255 255 255
0.153 -0.497 1.993 255 255 255
-0.574 0.784 1.449 255 255 255
-0.048 -0.369 1.979 255 255 255
1.519 -0.065 2.503 255 255 255
1.039 -0.083 2.342 255 255 255
0.197 0.419 1.135 255 255 255
0.157 0.246 1.211 255 255 255
1.604 -0.277 2.473 255 255 255
1.683 -0.243 2.508 255 255 255
-0.238 0.696 1.897 255 255 255
-0.273 -0.035 2.008 255 255 255
-0.858 0.533 2.467 255 255 255
-0.179 0.734 1.693 255 255 255
0.201 -0.304 2.054 255 255 255
0.912 -1.042 2.082 255 255 255
-1.348 -1.766 2.973 255 255 255
-0.298 0.178 2.058 255 255 255
0.317 0.337 1.05 255 255 255
-0.635 0.222 1.264 255 255 255
-0.153 -0.687 1.883 255 255 255
-0.807 -2.202 2.9 255 255 255
0.182 0.128 1.193 255 255 255
0.496 0.152 0.956 255 255 255
-0.152 -0.23 1.99 255 255 255
-1.355 -2.163 2.777 255 255 255
0.449 -1.03 1.931 255 255 255
0.273 0.665 1.339 255 255 255
0.008 -1.178 1.801 255 255 255
-0.014 0.331 2.167 255 255 255
-0.028 -1.003 1.833 255 255 255
-0.494 0.686 1.882 255 255 255
0.376 0.271 1.1 255 255 255
-0.694 -0.369 1.211 255 255 255
-0.439 0.697 1.851 255 255 255
0.513 0.115 1.027 255 255 255
-1.196 -0.376 1.721 255 255 255
1.248 0.006 2.414 255 255 255
-0.849 0.584 2.234 255 255 255
0.717 -0.43 2.181 255 255 255
0.95 -1.444 1.942 0 0 0
-0.365 0.245 2.053 255 255 255
-0.343 0.729 1.693 255 255 255
-0.609 -0.031 1.218 255 255 255
0.003 -0.363 1.991 255 255 255
0.048 -1.102 1.826 255 255 255
0.69 0.083 1.075 255 255 255
0.298 0.402 1.027 255 255 255
0.236 0.349 1.101 255 255 255
-0.787 -2.103 2.919 255 255 255
0.199 -0.625 1.975 255 255 255
0.222 -0.061 1.271 0 0 0
-0.049 -1.268 1.762 255 255 255
1.757 -0.063 2.558 255 255 255
0.27 -0.038 1.193 255 255 255
-0.207 0.751 1.612 0 0 0
-0.369 -0.64 1.86 255 255 255
0.189 0.367 1.143 255 255 255
-1.137 -0.435 1.715 255 255 255
0.595 -1.18 1.98 255 255 255
0.541 -0.323 2.173 0 0 0
0.706 -1.357 1.93 255 255 255
-0.338 -0.29 1.919 255 255 255
-0.153 0.446 2.164 255 255 255
0.336 -0.609 2.011 255 255 255
0.057 0.366 2.192 255 255 255
0.105 0.735 1.726 255 255 255
0.829 -0.004 2.317 255 255 255
0.381 -0.469 2.053 255 255 255
0.754 -1.091 2.033 255 255 255
1.378 -0.745 2.278 255 255 255
-0.118 0.786 1.507 255 255 255
0.301 -0.77 1.964 255 255 255
0.961 -1.098 2.082 255 255 255
0.467 0.141 0.992 255 255 255
-0.141 0.079 2.072 255 255 255
-0.256 -0.599 1.876 255 255 255
0.421 -0.318 2.099 255 255 255
1.183 -0.511 2.274 255 255 255
0.161 -0.633 1.961 0 0 0
0.238 -0.985 1.898 255 255 255
-0.93 0.581 2.241 255 255 255
1.03 -0.804 2.166 255 255 255
0.418 0.149 1.17 0 0 0
-0.276 0.033 2.028 255 255 255
-1.559 -1.833 2.889 255 255 255
-0.315 -0.689 1.828 255 255 255
1.089 -0.996 2.135 255 255 255
-0.211 -0.883 1.817 255 255 255
-0.272 -0.856 1.811 255 255 255
0.077 -0.147 2.061 255 255 255
-0.056 -0.551 1.932 255 255 255
0.411 0.111 1.247 0 0 0
0.288 0.198 1.108 255 255 255
0.649 -1.333 1.925 255 255 255
0.42 -0.196 2.126 255 255 255
-0.764 0.659 1.944 255 255 255
0.241 -0.846 1.932 255 255 255
0.361 0.383 1.001 255 255 255
-0.203 -0.182 1.988 255 255 255
0.008 0.299 2.164 255 255 255
0.491 0.085 1.189 255 255 255
0.14 0.183 1.247 255 255 255
0.475 0.159 0.966 255 255 255
-0.145 -0.832 1.845 255 255 255
1.142 -0.55 2.255 255 255 255
-0.322 0.765 1.547 255 255 255
-0.686 0.558 2.395 255 255 255
0.192 -0.044 1.297 0 0 0
-0.222 -0.496 1.905 255 255 255
0.242 -0.195 2.087 255 255 255
-1.545 -1.549 2.981 255 255 255
-0.3 0.743 1.647 0 0 0
-0.433 0.758 1.562 255 255 255
0.08 -0.893 1.891 0 0 0
-0.208 0.175 2.08 255 255 255
0.284 0.336 1.108 255 255 255
0.241 -0.014 1.187 255 255 255
-1.114 0.05 1.85 255 255 255
-0.403 0.54 2.155 255 255 255
0.043 -0.965 1.85 255 255 255
-0.13 0.164 2.097 255 255 255
0.271 0.684 1.984 255 255 255
-0.203 0.761 1.575 255 255 255
0.886 -1.335 2.001 255 255 255
0.985 -1.283 2.047 255 255 255
1.563 -0.663 2.37 255 255 255
0.198 0.673 2.051 255 255 255
-0.29 -0.925 1.776 255 255 255
-0.675 0.32 2.967 0 0 0
-0.558 0.487 2.502 0 0 0
0.191 0.232 2.179 0 0 0
-0.31 -0.164 1.953 255 255 255
-0.097 0.448 2.175 255 255 255
0.35 0.091 1.235 255 255 255
0.34 -0.568 2.02 255 255 255
-0.377 -0.067 1.992 255 255 255
-0.204 0.772 1.549 255 255 255
1.101 -0.232 2.324 255 255 255
0.634 -1.335 1.921 255 255 255
0.233 -0.959 1.903 255 255 255
0.68 -1.437 1.887 0 0 0
0.113 0.78 1.556 255 255 255
0.28 0.186 1.106 255 255 255
-0.042 0.713 1.816 255 255 255
-1.037 0.53 2.458 255 255 255
0.346 -0.466 2.047 255 255 255
-0.42 0.789 1.454 255 255 255
-0.141 0.744 1.662 0 0 0
-0.18 -0.491 1.919 255 255 255
0.215 0.094 1.138 255 255 255
0.092 -0.896 1.888 0 0 0
0.514 -0.928 2.019 255 255 255
0.266 0.024 1.175 255 255 255
0.215 -1.141 1.858 255 255 255
0.43 -0.957 1.946 255 255 255
0.545 -1.191 1.961 255 255 255
1.423 -0.75 2.321 255 255 255
0.24 0.019 1.17 255 255 255
0.733 -0.445 2.184 255 255 255
0.258 -0.903 1.923 255 255 255
0.204 -0.06 1.307 0 0 0
0.018 0.737 1.705 255 255 255
0.419 0.142 1.173 0 0 0
0.359 0.364 1.021 255 255 255
0.838 0.093 2.34 255 255 255
0.767 -1.148 2.024 255 255 255
0.127 0.237 1.262 255 255 255
-0.001 -0.269 2.015 255 255 255
1.249 -0.807 2.219 255 255 255
-0.456 0.731 1.679 0 0 0
0.092 -0.533 1.972 255 255 255
-0.336 -0.4 1.893 255 255 255
-0.21 -1.083 1.771 255 255 255
-0.746 0.605 2.165 255 255 255
1.09 -0.347 2.29 255 255 255
0.441 0.235 1.095 255 255 255
0.629 -0.464 2.157 255 255 255
0.18 0.163 1.132 255 255 255
0.192 0.233 1.1 255 255 255
0.954 -0.45 2.232 255 255 255
-0.351 -1.067 1.761 255 255 255
0.744 -0.157 2.26 255 255 255
-1.194 -0.19 1.614 255 255 255
-0.348 -1.208 1.731 255 255 255
0.954 -0.101 2.324 255 255 255
-0.203 -0.482 1.914 255 255 255
-0.134 0.773 1.549 255 255 255
-0.322 -0.164 1.95 255 255 255
0.151 0.659 2.11 255 255 255
0.146 -1.042 1.865 0 0 0
-1.211 -0.26 1.688 255 255 255
-1.175 -0.183 1.763 255 255 255
0.166 -0.92 1.896 255 255 255
1.511 -0.368 2.427 255 255 255
-1.071 -0.663 1.68 255 255 255
1.645 -0.207 2.496 255 255 255
-1.078 -0.115 1.805 255 255 255
-0.216 0.556 2.162 255 255 255
1.63 -0.742 2.361 255 255 255
-1.081 0.005 1.838 255 255 255
-0.551 0.75 1.583 255 255 255
0.249 0.164 1.116 255 255 255
-0.51 0.354 2.344 0 0 0
-0.03 0.08 2.095 255 255 255
-0.11 -0.735 1.876 255 255 255
0.247 0.744 1.444 255 255 255
0.137 0.769 1.605 255 255 255
0.211 0.038 1.171 255 255 255
0.829 -0.874 2.102 255 255 255
1.64 -0.268 2.484 255 255 255
0.306 0.302 1.114 255 255 255
-0.952 0.574 2.27 255 255 255
0.49 -0.833 2.04 255 255 255
-0.054 -0.032 2.061 255 255 255
-0.667 0.484 2.471 255 255 255
0.933 -1.237 2.041 255 255 255
0.923 0.135 2.38 255 255 255
0.194 0.328 1.137 255 255 255
-0.282 0.099 2.042 255 255 255
0.408 0.228 1.117 255 255 255
0.478 0.168 0.956 255 255 255
-0.208 -0.367 1.941 255 255 255
1.001 0.031 2.371 255 255 255
0.539 0.067 1.202 255 255 255
0.5 0.115 0.981 255 255 255
-0.712 -0.039 1.297 255 255 255
-0.634 0.531 2.399 255 255 255
0.714 -0.274 2.221 255 255 255
0.389 0.289 1.084 255 255 255
-0.264 -0.235 1.961 255 255 255
-0.583 0.687 1.868 255 255 255
0.261 0.206 1.102 255 255 255
0.157 -1.246 1.819 255 255 255
0.064 0.742 1.698 255 255 255
-1.103 0.133 1.863 255 255 255
0.229 0.306 1.124 255 255 255
0.353 0.397 0.94 255 255 255
0.608 -0.357 2.179 255 255 255
0.205 -0.091 2.106 255 255 255
-0.619 -0.148 1.183 255 255 255
-0.083 -0.7 1.886 255 255 255
-1.069 -0.355 1.769 255 255 255
-0.258 0.716 1.77 255 255 255
0.753 -1.334 1.967 255 255 255
-1.074 -0.452 1.721 255 255 255
0.39 0.232 1.131 255 255 255
1.478 -0.689 2.348 255 255 255
-0.531 0.751 1.589 255 255 255
0.288 0.441 1.098 255 255 255
-0.497 0.618 2.156 255 255 255
0.213 0.742 1.708 255 255 255
0.151 0.135 1.238 255 255 255
-0.146 -1.299 1.734 0 0 0
-0.253 -0.235 1.962 255 255 255
0.475 -1.117 1.937 255 255 255
-0.403 0.378 2.11 255 255 255
-0.301 -1.265 1.69 0 0 0
-0.126 0.75 1.641 0 0 0
0.405 -0.213 2.118 255 255 255
0.251 0.027 2.139 0 0 0
0.433 0.333 1.119 255 255 255
-0.412 0.795 1.446 255 255 255
0.263 0.071 1.161 255 255 255
0.197 0.744 1.696 0 0 0
-0.318 0.614 2.146 255 255 255
0.478 0.257 0.909 255 255 255
0.465 0.228 0.983 255 255 255
-0.597 -0.411 1.128 0 0 0
0.989 -0.87 2.143 255 255 255
-0.151 0.582 2.18 255 255 255
-0.012 -0.703 1.906 255 255 255
0.197 0.432 1.13 255 255 255
0.182 0.043 2.136 255 255 255
0.642 -0.315 2.201 255 255 255
0.154 0.359 1.35 255 255 255
0.903 -1.214 2.039 255 255 255
-0.529 0.799 1.413 255 255 255
0.73 -0.198 2.245 255 255 255
0.098 -0.167 2.06 255 255 255
0.168 0.085 1.238 255 255 255
1.177 0.068 2.417 255 255 255
-0.168 0.533 2.166 255 255 255
0.362 0.394 0.94 255 255 255
-0.663 0.599 2.216 255 255 255
0.575 -0.298 2.184 255 255 255
0.048 -0.167 2.051 255 255 255
1.05 -0.118 2.342 255 255 255
-0.063 0.647 2.164 255 255 255
