ply
format ascii 1.0
comment Created by Open3D
element vertex 1588
property double x
property double y
property double z
property uchar red
property uchar green
property uchar blue
end_header
0.391 0.28 1.047 0 0 0
0.854 -0.584 2.222 255 255 255
0.315 -0.689 2 255 255 255
-0.215 -1.035 1.762 0 0 0
-0.203 0.669 1.629 255 255 255
0.578 -0.215 2.257 255 255 255
-0.325 0.063 2.051 255 255 255
0.524 -1.284 1.935 255 255 255
0.08 -0.948 1.862 0 0 0
0.385 -0.809 2.031 255 255 255
0.327 0.331 0.85 255 255 255
0.244 -0.281 2.099 255 255 255
-0.148 -0.754 1.847 255 255 255
0.974 -0.863 2.172 255 255 255
-0.398 -0.431 1.865 255 255 255
-0.263 -1.231 1.683 0 0 0
0.41 0.039 1.161 255 255 255
0.242 0.273 1.123 255 255 255
-1.26 -1.575 2.987 255 255 255
0.996 -1.048 2.132 255 255 255
1.216 -0.739 2.275 255 255 255
0.383 -1.293 1.875 255 255 255
0.205 0.699 1.476 255 255 255
0.102 -0.295 2.056 255 255 255
-0.669 -0.135 1.159 255 255 255
0.316 0.536 0.948 255 255 255
-1.132 -1.979 2.913 255 255 255
0.004 -1.283 1.746 0 0 0
-0.895 0.495 2.192 255 255 255
-0.669 0.219 1.267 0 0 0
0.625 -0.208 2.271 255 255 255
0.433 0.106 0.978 255 255 255
0.258 0.385 0.977 255 255 255
-0.283 0.642 1.71 255 255 255
0.461 -0.345 2.185 255 255 255
-0.325 -0.347 1.927 255 255 255
0.19 0.044 1.144 255 255 255
-1.212 -1.774 2.948 255 255 255
0.108 -0.977 1.862 255 255 255
-1.036 0.386 2.575 255 255 255
0.387 -1.213 1.905 0 0 0
0 -0.871 1.855 0 0 0
-0.421 0.728 1.423 255 255 255
-0.317 -0.52 1.877 255 255 255
1 -0.698 2.234 255 255 255
-0.22 -0.372 1.945 255 255 255
0.445 0.216 0.883 255 255 255
0.689 -0.297 2.264 255 255 255
-1.214 -0.079 1.764 0 0 0
0.136 0.547 2.099 255 255 255
1.739 -0.448 2.55 255 255 255
-0.879 -1.868 2.9 0 0 0
1.012 -0.665 2.243 255 255 255
0.508 0.045 0.973 255 255 255
0.932 -1.209 2.065 255 255 255
0.312 0.253 1.067 255 255 255
1.16 -1.114 2.153 255 255 255
0.572 -0.549 2.156 255 255 255
-0.02 -0.784 1.869 255 255 255
-1.095 -2.207 2.859 255 255 255
0.449 -0.924 2.01 255 255 255
0.441 -0.511 2.133 255 255 255
0.713 -1.311 1.977 255 255 255
-1.219 -1.835 2.922 255 255 255
0.77 -0.714 2.161 255 255 255
0.36 0.053 1.225 0 0 0
0.15 0.697 1.539 255 255 255
-0.456 -0.031 1.996 255 255 255
-1.292 0.368 2.62 255 255 255
-0.09 -0.21 2.031 255 255 255
-0.22 0.378 2.181 255 255 255
0.274 0.436 0.847 255 255 255
0.22 -0.126 1.189 0 0 0
0.083 0.592 1.937 255 255 255
-0.068 0.564 2.066 255 255 255
-0.024 -1.048 1.81 0 0 0
-1.205 0.245 1.869 255 255 255
-0.052 -1.1 1.789 255 255 255
0.021 0.642 1.727 255 255 255
-0.095 -0.526 1.933 255 255 255
0.216 0.74 1.425 255 255 255
-0.102 0.66 1.669 255 255 255
0.555 -0.461 2.179 255 255 255
-0.036 -0.75 1.883 255 255 255
1.473 -0.868 2.358 255 255 255
-0.187 0.65 1.688 255 255 255
-0.037 -0.247 2.032 255 255 255
0.257 0.56 1.067 255 255 255
-0.368 -0.413 1.894 255 255 255
0.546 -0.451 2.18 255 255 255
0.44 0.337 0.949 255 255 255
-0.331 -0.372 1.915 255 255 255
0.277 0.158 1.123 255 255 255
0.547 -1.266 1.939 255 255 255
0.634 -0.012 1.179 255 255 255
0.043 0.513 2.143 255 255 255
0.003 -1.04 1.812 0 0 0
1.229 -0.183 2.443 255 255 255
0.233 0.019 1.146 255 255 255
-0.243 0.118 2.091 255 255 255
-0.717 0.613 1.792 255 255 255
0.707 -1.177 2.01 255 255 255
-0.66 0.089 1.23 0 0 0
-1.4 -2.069 2.798 0 0 0
0.391 0.339 0.935 255 255 255
0.243 0.492 1.194 255 255 255
-0.828 0.589 1.866 255 255 255
0.015 0.74 1.429 255 255 255
-0.182 0.713 1.492 255 255 255
0.415 0.075 1.016 255 255 255
-0.998 -1.876 2.945 255 255 255
-0.539 0.616 1.804 255 255 255
0.063 0.758 1.386 255 255 255
0.833 -0.697 2.186 255 255 255
-0.916 -1.888 2.871 255 255 255
0.419 0.352 0.933 255 255 255
-0.732 0.233 1.302 255 255 255
-0.343 0.408 2.137 255 255 255
0.343 0.219 1.095 255 255 255
-0.289 -0.618 1.854 255 255 255
-1.533 -1.516 2.929 255 255 255
-0.153 0.718 1.481 255 255 255
0.218 -1.166 1.839 255 255 255
0.302 0.344 0.928 255 255 255
1.367 -0.234 2.511 255 255 255
-0.945 0.419 2.456 255 255 255
0.695 -0.795 2.122 255 255 255
0.619 0.033 0.957 255 255 255
0.189 0.607 1.872 0 0 0
-0.175 -0.717 1.858 255 255 255
0.324 -1.279 1.829 255 255 255
1.022 -0.909 2.17 255 255 255
0.565 0.033 1.072 255 255 255
0.686 -0.021 1.263 255 255 255
0.028 -0.213 2.06 255 255 255
0.716 -0.094 2.333 255 255 255
0.246 0.382 1.033 255 255 255
0.383 -0.641 2.081 255 255 255
-0.043 0.598 1.902 255 255 255
-0.879 0.589 1.867 255 255 255
-0.334 -0.258 1.947 255 255 255
-1.223 0.013 1.787 255 255 255
0.428 0.336 0.936 255 255 255
-1.199 -0.428 1.672 255 255 255
-0.027 0.525 2.196 255 255 255
0.93 -1.049 2.116 255 255 255
-0.144 -0.893 1.813 0 0 0
0.299 -0.635 2.012 255 255 255
-0.621 0.208 2.306 255 255 255
0.049 -0.116 2.095 255 255 255
-1.178 0.397 2.536 255 255 255
1.885 -0.27 2.619 0 0 0
0.195 0.198 1.108 255 255 255
0.191 0.744 1.421 255 255 255
0.363 0.153 1.121 255 255 255
-0.374 -0.78 1.784 255 255 255
-0.237 -0.148 2.008 255 255 255
0.307 -1.07 1.883 255 255 255
0.426 -1.186 1.935 255 255 255
1.183 -0.512 2.332 255 255 255
-0.229 0.662 1.647 255 255 255
-0.88 -2.044 2.854 255 255 255
0.409 0.248 1.064 0 0 0
0.816 -1.429 1.967 0 0 0
0.573 0.037 1.056 255 255 255
0.751 -1.202 2.015 255 255 255
0.349 0.304 0.962 255 255 255
-1.592 -1.562 2.888 255 255 255
0.454 0.117 0.918 255 255 255
-1.198 0.201 1.854 255 255 255
0.741 -1.44 1.947 0 0 0
-0.049 0.318 2.204 255 255 255
-0.252 -1.068 1.734 255 255 255
0.011 -0.932 1.849 255 255 255
-0.381 -0.161 1.964 255 255 255
-0.001 0.056 2.138 255 255 255
-0.994 0.505 2.141 255 255 255
0.416 0.172 0.999 255 255 255
0.165 -0.062 1.2 255 255 255
0.357 0.248 1.122 255 255 255
0.809 -1.046 2.081 255 255 255
-0.36 -0.565 1.847 255 255 255
0.137 0.339 1.153 255 255 255
0.007 0.659 1.679 255 255 255
-1.192 -0.312 1.723 255 255 255
0.25 -0.906 1.92 255 255 255
0.148 0.393 1.134 255 255 255
0.505 0.027 1.048 255 255 255
-0.153 -0.576 1.903 255 255 255
-0.946 0.481 2.229 255 255 255
-0.86 0.482 2.236 255 255 255
0.487 -0.874 2.036 255 255 255
-0.075 -0.539 1.935 255 255 255
-0.742 -0.272 1.18 255 255 255
-0.25 0.678 1.59 255 255 255
0.617 -0.813 2.093 255 255 255
-0.11 -0.683 1.885 255 255 255
0.996 -0.797 2.204 255 255 255
-0.871 -1.778 2.931 0 0 0
-0.073 -0.277 2.016 255 255 255
0.944 -0.981 2.131 255 255 255
-0.312 0.62 1.803 255 255 255
0.105 -0.514 1.996 255 255 255
-0.218 -0.136 2.016 255 255 255
-1.571 -1.439 2.934 255 255 255
-0.837 -1.945 2.896 0 0 0
1.112 -0.694 2.262 255 255 255
-1.648 -1.17 2.99 255 255 255
0.436 -0.002 1.203 255 255 255
-0.736 0.518 2.12 255 255 255
0.2 -0.312 2.08 255 255 255
0.922 -0.84 2.167 255 255 255
0.494 -0.713 2.088 255 255 255
0.316 -1.072 1.887 255 255 255
-0.083 -0.036 2.084 255 255 255
0.149 -0.851 1.908 255 255 255
-0.793 0.614 1.776 255 255 255
-0.393 -0.082 1.97 255 255 255
0.422 0.125 0.963 255 255 255
-0.917 0.297 2.87 255 255 255
1.45 -0.2 2.544 255 255 255
-0.042 0.672 1.634 255 255 255
-0.921 -1.464 2.995 0 0 0
0.371 0.31 0.948 255 255 255
-0.678 -0.025 1.184 255 255 255
-0.019 0.719 1.489 255 255 255
-0.949 0.565 1.953 255 255 255
0.567 0.079 0.895 255 255 255
0.056 -1.049 1.828 255 255 255
0.143 0.32 1.383 255 255 255
0.154 0.024 1.151 255 255 255
-0.118 0.261 2.171 255 255 255
0.864 -0.622 2.214 255 255 255
1.738 -0.281 2.598 255 255 255
0.624 -0.02 1.19 255 255 255
-0.439 -0.191 1.934 255 255 255
0.844 -1.153 2.058 255 255 255
-1.187 -0.475 1.669 255 255 255
0.157 -0.355 2.057 255 255 255
-1.017 0.385 2.574 255 255 255
-1.243 -1.701 2.957 255 255 255
0.056 0.263 1.264 255 255 255
0.281 -0.645 2.004 255 255 255
0.167 0.298 1.137 255 255 255
-0.25 -0.12 2.015 255 255 255
-0.671 0.577 1.928 255 255 255
-0.642 0.69 1.527 0 0 0
-0.914 0.552 1.986 255 255 255
0.248 0.518 1.06 255 255 255
0.841 -0.495 2.244 255 255 255
0.437 0.042 1.089 255 255 255
0.251 0.31 1.08 255 255 255
0.264 0.363 1.009 255 255 255
-0.054 0.723 1.467 255 255 255
0.159 0.615 1.837 255 255 255
-0.212 0.691 1.555 0 0 0
-0.841 -1.865 2.916 0 0 0
0.737 -0.373 2.253 255 255 255
0.628 -1.095 2.015 255 255 255
0.745 -1.462 1.916 0 0 0
1.122 -0.54 2.311 255 255 255
0.309 0.337 0.843 255 255 255
-0.221 -0.04 2.045 255 255 255
-0.685 -0.184 1.134 255 255 255
-0.262 0.673 1.604 255 255 255
0.259 0.439 0.866 255 255 255
0.208 -0.317 2.081 255 255 255
0.036 -1.185 1.78 255 255 255
0.459 -0.892 2.024 255 255 255
0.395 0.257 1.077 0 0 0
-0.349 -0.289 1.936 255 255 255
0.105 -0.549 1.985 255 255 255
0.249 0.309 1.104 255 255 255
-1.517 -1.305 2.995 255 255 255
-0.596 0.521 2.123 255 255 255
0.305 0.133 1.178 255 255 255
0.047 -0.744 1.912 255 255 255
-1.215 0.034 1.798 0 0 0
0.45 0.045 1.065 255 255 255
0.309 0.503 0.929 255 255 255
-0.226 -1.06 1.747 255 255 255
-0.098 0.349 2.201 255 255 255
0.754 -0.217 2.302 255 255 255
-1.609 -1.585 2.882 255 255 255
1.123 -0.158 2.424 255 255 255
0.149 0.568 2.029 255 255 255
0.475 0.097 0.911 255 255 255
1.534 -0.647 2.438 255 255 255
-1.145 -0.379 1.713 255 255 255
-0.326 0.559 2.063 255 255 255
0.328 -1 1.908 255 255 255
0.35 -1.284 1.834 255 255 255
-0.164 0.251 2.155 255 255 255
0.159 0.369 1.135 255 255 255
-0.163 0.206 2.145 255 255 255
-0.354 0.017 2.025 255 255 255
0.47 0.019 1.101 255 255 255
0.119 -0.059 1.251 0 0 0
-0.057 0.543 2.137 255 255 255
-0.676 0.189 1.253 255 255 255
0.247 0.065 1.133 255 255 255
0.306 0.244 1.078 255 255 255
-0.657 -0.16 1.163 255 255 255
0.264 -1.347 1.798 0 0 0
-1.199 -1.836 2.929 255 255 255
0.249 0.369 1.037 255 255 255
-0.268 0.13 2.089 255 255 255
0.105 0.077 1.203 255 255 255
0.974 -0.945 2.151 255 255 255
-0.66 -0.352 1.101 255 255 255
-0.271 -0.348 1.941 255 255 255
-0.693 0.374 1.296 255 255 255
0.155 0.097 1.122 255 255 255
0.272 -0.713 1.982 255 255 255
0.782 -1.471 1.919 0 0 0
-1.367 0.278 2.881 255 255 255
-0.33 0.607 1.846 255 255 255
-0.742 0.583 1.9 255 255 255
0.038 0.209 1.284 255 255 255
1.414 -0.414 2.474 255 255 255
0.251 0.403 0.989 255 255 255
-0.247 -1.204 1.698 255 255 255
-0.244 -1.249 1.689 0 0 0
0.061 0.104 1.293 255 255 255
-1.222 -0.043 1.769 255 255 255
0.161 0.408 1.137 255 255 255
0.448 0.024 1.123 255 255 255
-0.281 -0.944 1.761 255 255 255
-0.225 -0.349 1.951 255 255 255
-0.005 -1.202 1.767 255 255 255
0.684 -1.055 2.041 255 255 255
1.222 -0.239 2.426 255 255 255
0.856 -1.212 2.039 255 255 255
0.241 0.721 1.496 255 255 255
-0.817 0.239 2.767 255 255 255
-0.092 -0.405 1.974 255 255 255
-0.244 0.737 1.417 255 255 255
0.878 -0.044 2.395 255 255 255
0.625 -0.28 2.248 255 255 255
-0.192 -0.06 2.046 255 255 255
0.434 0.277 0.993 255 255 255
0.195 0.182 1.11 255 255 255
0.342 0.328 0.877 255 255 255
0.922 -0.644 2.225 255 255 255
1.459 -0.309 2.516 255 255 255
-1.149 -0.506 1.644 255 255 255
-0.644 0.504 2.181 255 255 255
-0.683 -0.018 1.182 255 255 255
0.267 -0.145 1.221 0 0 0
-1.218 -0.189 1.727 255 255 255
-0.304 -0.591 1.859 255 255 255
-0.434 -0.003 1.987 255 255 255
-0.114 -0.616 1.898 255 255 255
-0.257 -1.122 1.718 255 255 255
-0.699 0.61 1.802 255 255 255
-0.705 0.603 1.831 255 255 255
-1.164 -0.098 1.759 255 255 255
0.298 0.452 0.861 255 255 255
0.357 -1.116 1.888 255 255 255
0.174 -0.872 1.911 255 255 255
-0.001 0.525 2.193 255 255 255
0.191 -0.002 1.15 255 255 255
0.601 0.047 0.955 255 255 255
-0.661 0.502 2.189 255 255 255
0.36 0.349 0.867 255 255 255
0.473 -1.235 1.928 255 255 255
0.08 -1.031 1.838 255 255 255
-0.017 0.696 1.559 0 0 0
-0.071 0.739 1.425 255 255 255
0.416 0.228 1.064 255 255 255
-1.245 -0.275 1.691 255 255 255
0.625 0.029 0.998 255 255 255
-0.394 0.39 2.131 255 255 255
-1.241 -2.183 2.812 255 255 255
-0.24 -0.379 1.939 255 255 255
-0.165 0.694 1.549 0 0 0
0.676 -0.644 2.157 255 255 255
-0.746 -0.175 1.139 255 255 255
0.969 -1.38 2.021 255 255 255
1.708 -0.354 2.57 255 255 255
0.529 0.061 0.92 255 255 255
0.147 0.214 1.136 255 255 255
-1.6 -1.306 2.97 255 255 255
0.938 -1.028 2.115 255 255 255
-0.425 -0.435 1.86 255 255 255
0.478 -0.582 2.121 255 255 255
-0.845 0.475 2.253 255 255 255
-0.745 0.642 1.685 255 255 255
1.318 -0.07 2.548 0 0 0
0.552 -0.439 2.186 255 255 255
0.176 0.389 1.117 255 255 255
0.117 -0.578 1.98 255 255 255
0.155 0.265 1.141 255 255 255
-1.22 -1.809 2.935 255 255 255
-0.164 -0.569 1.904 255 255 255
0.243 0.736 1.436 255 255 255
-0.024 -0.839 1.864 0 0 0
0.453 0.135 0.886 255 255 255
-1.186 -1.63 2.989 255 255 255
0.031 -0.835 1.876 255 255 255
-0.95 0.435 2.395 255 255 255
0.869 -1.028 2.098 255 255 255
-1.257 0.112 1.802 255 255 255
0.284 0.298 1.04 255 255 255
1.351 -0.503 2.431 255 255 255
-0.657 -0.105 1.178 255 255 255
-0.039 0.099 2.14 255 255 255
0.03 0.608 1.858 255 255 255
-0.607 0.446 2.383 0 0 0
-0.194 -0.722 1.85 255 255 255
0.432 0.147 0.898 255 255 255
-0.297 -0.992 1.745 255 255 255
-0.059 -0.938 1.824 255 255 255
0.137 -0.658 1.961 255 255 255
0.693 -0.615 2.169 255 255 255
0.415 0.104 1.026 255 255 255
-1.611 -1.385 2.937 255 255 255
1.446 -0.966 2.309 255 255 255
1.41 -0.604 2.418 255 255 255
0.245 0.424 0.978 255 255 255
-0.162 -1.193 1.726 255 255 255
1.819 -0.12 2.669 0 0 0
-0.004 -0.7 1.911 255 255 255
0.446 0.071 0.982 255 255 255
0.429 0.025 1.162 255 255 255
0.347 0.32 0.897 255 255 255
-1.228 -0.328 1.683 255 255 255
-0.383 0.673 1.599 255 255 255
0.21 -0.034 1.162 255 255 255
-0.008 0.597 1.9 255 255 255
1.191 -0.908 2.218 255 255 255
0.968 -1.015 2.127 255 255 255
-0.19 -0.805 1.83 255 255 255
-1.625 -1.311 2.955 255 255 255
-0.332 -1.226 1.669 0 0 0
0.907 -0.2 2.351 255 255 255
0.063 0.143 1.278 255 255 255
0.027 -0.593 1.947 255 255 255
-1.424 -2.002 2.811 255 255 255
0.246 0.423 0.98 255 255 255
-0.023 0.514 2.226 255 255 255
0.686 -0.708 2.142 255 255 255
-0.453 0.347 2.098 255 255 255
0.296 -1.18 1.854 255 255 255
0.321 -0.392 2.087 255 255 255
0.263 -0.92 1.919 255 255 255
0.656 -0.683 2.145 255 255 255
0.121 0.091 1.186 255 255 255
0.927 -0.316 2.324 255 255 255
-0.198 -0.604 1.883 255 255 255
-0.308 0.48 2.164 255 255 255
0.39 0.187 1.138 255 255 255
0.058 0.207 1.268 255 255 255
-0.769 0.583 1.891 255 255 255
1.014 -0.14 2.401 255 255 255
0.202 0.082 1.119 255 255 255
0.446 0.308 0.947 255 255 255
0.974 -0.93 2.155 255 255 255
0.505 -1.307 1.921 255 255 255
0.17 0.166 1.093 255 255 255
-0.332 0.566 2.04 255 255 255
0.099 0.293 1.366 255 255 255
0.012 -0.164 2.074 255 255 255
0.43 0.297 0.961 0 0 0
-1.384 -1.673 2.923 255 255 255
-0.589 0.448 2.372 0 0 0
0.422 0.338 0.939 255 255 255
-0.68 -0.154 1.144 255 255 255
0.596 -0.858 2.074 255 255 255
0.062 -0.145 2.091 255 255 255
1.62 -0.365 2.547 255 255 255
0.27 0.192 1.13 255 255 255
-1.515 -1.737 2.863 255 255 255
0.929 -0.369 2.31 255 255 255
0.003 0.736 1.435 255 255 255
-0.391 -0.909 1.731 255 255 255
0.617 -0.75 2.108 255 255 255
-1.18 0.432 2.407 255 255 255
0.495 0.043 0.985 255 255 255
0.228 0.568 1.103 255 255 255
0.172 0.221 1.132 255 255 255
-1.188 -2.123 2.86 0 0 0
0.291 -1.153 1.862 255 255 255
-0.416 0.752 1.369 255 255 255
0.611 -0.587 2.154 255 255 255
1.439 -0.083 2.576 0 0 0
-0.762 0.548 2.013 255 255 255
0.157 0.353 1.139 255 255 255
-0.125 -0.804 1.843 255 255 255
0.39 -0.999 1.977 255 255 255
0.177 0.099 1.12 255 255 255
-0.67 0.369 1.32 255 255 255
-0.687 0.627 1.742 255 255 255
-1.624 -1.621 2.868 255 255 255
-1.148 -0.498 1.698 255 255 255
0.149 -0.297 2.069 255 255 255
0.024 -0.348 2.021 255 255 255
0.771 -1.173 2.028 255 255 255
0.049 0.693 1.569 0 0 0
0.416 -1.354 1.885 255 255 255
0.256 -0.582 2.017 255 255 255
-0.33 -0.672 1.827 255 255 255
-1.191 -0.471 1.668 255 255 255
0.423 0.085 0.983 255 255 255
0.42 0.011 1.212 255 255 255
0.349 -0.357 2.108 255 255 255
-1.414 -1.922 2.84 255 255 255
0.254 0.391 0.87 255 255 255
-0.254 -0.432 1.919 255 255 255
-0.546 0.502 2.189 255 255 255
0.537 -0.342 2.212 255 255 255
0.988 -1.446 2.013 0 0 0
0.057 0.749 1.404 255 255 255
-0.517 0.679 1.577 255 255 255
-1.557 -1.284 2.985 255 255 255
-1.339 -1.785 2.902 255 255 255
-0.678 0.275 1.278 255 255 255
0.234 -0.62 1.998 255 255 255
-0.515 0.601 1.853 255 255 255
0.184 0.23 1.132 255 255 255
0.939 -0.876 2.162 255 255 255
0.055 -0.721 1.921 255 255 255
0.864 -0.966 2.116 255 255 255
-0.706 0.668 1.591 255 255 255
-0.273 -0.412 1.92 255 255 255
0.25 0.438 0.929 255 255 255
-0.383 0.51 2.148 255 255 255
-0.602 0.639 1.702 255 255 255
-0.288 0.635 1.744 255 255 255
-0.091 0.546 2.13 255 255 255
0.421 0.155 0.989 255 255 255
0.636 -0.801 2.098 255 255 255
0.459 -0.948 2.007 255 255 255
0.101 0.186 1.23 255 255 255
0.218 -0.264 2.097 255 255 255
-0.183 -0.628 1.881 255 255 255
0.495 -0.7 2.093 255 255 255
0.242 0.705 1.508 255 255 255
0.773 -0.919 2.101 255 255 255
0.382 0.14 1.104 0 0 0
-0.289 0.582 1.976 255 255 255
0.047 -0.871 1.874 255 255 255
0.235 0.597 1.087 255 255 255
1.362 -0.995 2.29 255 255 255
0.917 -1.416 1.996 255 255 255
-0.001 -0.716 1.906 255 255 255
0.78 -0.959 2.095 255 255 255
0.091 0.662 1.676 255 255 255
-0.362 -0.337 1.914 255 255 255
0.417 0.152 1.014 255 255 255
1.433 -0.177 2.55 255 255 255
-1.361 -2.134 2.786 255 255 255
-0.192 -1.029 1.77 255 255 255
0.697 -0.646 2.161 255 255 255
0.233 -0.712 1.971 255 255 255
-0.237 -0.044 2.039 255 255 255
0.265 0.357 1.012 255 255 255
-1.259 0.009 1.776 255 255 255
0.58 0.027 1.02 255 255 255
-0.051 -0.02 2.101 255 255 255
-0.445 0.752 1.357 255 255 255
-0.067 -0.927 1.82 255 255 255
0.207 -1.308 1.795 0 0 0
0.391 0.286 0.964 255 255 255
0.467 0.105 0.913 255 255 255
0.576 -1.224 1.964 255 255 255
-0.573 0.475 2.283 255 255 255
0.13 -0.519 2 255 255 255
1.119 -0.96 2.187 255 255 255
0.458 0.212 0.847 255 255 255
0.988 -0.193 2.375 255 255 255
-1.104 -2.12 2.878 0 0 0
-1.225 0.435 2.411 255 255 255
1.059 -1.325 2.066 255 255 255
0.191 -1.003 1.88 255 255 255
0.316 0.293 1.033 255 255 255
-1.213 -0.279 1.705 255 255 255
-0.137 -0.793 1.857 255 255 255
-0.217 -0.357 1.95 255 255 255
-0.665 0.14 1.26 255 255 255
0.149 -0.719 1.946 255 255 255
0 -1.072 1.81 255 255 255
-0.074 -0.194 2.04 255 255 255
-1.458 -1.975 2.813 255 255 255
-0.271 0.709 1.498 255 255 255
1.358 -0.592 2.407 255 255 255
0.858 -1.021 2.098 255 255 255
0.243 -1.092 1.866 255 255 255
-0.21 -0.77 1.84 255 255 255
-0.099 0.472 2.222 255 255 255
-0.345 0.642 1.704 255 255 255
0.928 -1.281 2.039 255 255 255
-0.208 0.643 1.719 255 255 255
-0.367 -0.107 1.981 255 255 255
0.175 0.118 1.106 255 255 255
0.189 0.172 1.102 255 255 255
0.09 0.637 1.744 255 255 255
-0.581 0.241 2.361 0 0 0
0.522 -1.226 1.95 255 255 255
1.368 -0.776 2.356 255 255 255
0.758 -1.353 1.976 255 255 255
-0.151 -0.141 2.035 255 255 255
1.115 -1.283 2.094 255 255 255
0.203 0.708 1.479 255 255 255
-0.091 -0.692 1.887 255 255 255
0.977 -0.419 2.304 255 255 255
-0.184 -0.506 1.914 255 255 255
0.215 0.189 1.105 255 255 255
0.842 -1.024 2.096 255 255 255
-0.42 -0.172 1.939 255 255 255
-0.074 0.235 2.176 255 255 255
0.924 -1.41 2.003 255 255 255
0.184 -0.02 1.149 255 255 255
-0.339 0.559 2.06 255 255 255
0.33 -0.384 2.09 255 255 255
0.945 -1.364 2.023 255 255 255
0.664 -1.291 1.965 255 255 255
0.27 0.55 1.061 255 255 255
0.217 0.075 1.125 255 255 255
-0.26 0.244 2.125 255 255 255
-0.358 0.647 1.694 255 255 255
-0.039 0.182 2.167 255 255 255
0.135 -0.044 1.229 255 255 255
0.433 0.113 0.966 255 255 255
-0.67 -0.363 1.089 255 255 255
-0.219 0.241 2.139 255 255 255
0.507 -0.01 1.202 255 255 255
-0.26 0.231 2.123 255 255 255
1.137 -1.161 2.137 255 255 255
-0.91 -1.916 2.863 255 255 255
1.899 -0.29 2.627 0 0 0
0.567 -0.956 2.039 255 255 255
0.185 0.39 1.112 255 255 255
0.118 0.686 1.602 255 255 255
-0.008 -1.071 1.8 255 255 255
0.29 0.312 1.026 255 255 255
0.341 -0.704 2 255 255 255
0.602 0.046 0.965 255 255 255
0.184 -0.246 2.095 255 255 255
0.12 0.013 1.21 255 255 255
0.379 0.173 1.122 255 255 255
0.191 -0.804 1.934 255 255 255
0.261 0.433 0.861 255 255 255
0.345 0.128 1.151 255 255 255
-1.188 0.05 1.82 255 255 255
0.146 0.151 1.103 255 255 255
-0.164 -0.052 2.058 255 255 255
-0.08 0.047 2.113 255 255 255
0.335 0.166 1.133 255 255 255
-1.287 -0.023 1.718 255 255 255
0.381 -0.748 2.045 0 0 0
1.393 -0.927 2.318 255 255 255
-0.358 0.337 2.13 255 255 255
0.32 0.376 0.829 255 255 255
0.626 0.025 1.009 255 255 255
-0.429 -0.829 1.751 255 255 255
0.246 -0.803 1.95 255 255 255
0.447 -1.054 1.978 255 255 255
0.731 -1.055 2.052 255 255 255
-0.367 -0.592 1.839 255 255 255
0.244 0.419 0.966 255 255 255
-0.3 -0.735 1.819 255 255 255
0.134 0.07 1.163 255 255 255
-0.947 -2.092 2.82 255 255 255
-0.118 -1.084 1.769 255 255 255
0.498 0.108 0.819 255 255 255
-0.985 -1.719 2.961 255 255 255
1.043 -0.646 2.256 255 255 255
-1.454 -1.357 2.994 255 255 255
-0.431 0.727 1.425 255 255 255
0.264 0.222 1.141 255 255 255
-0.425 0.107 2.024 255 255 255
0.449 0.104 0.933 255 255 255
0.292 -0.017 1.225 255 255 255
-0.091 0.617 1.822 255 255 255
-0.69 0.571 1.946 255 255 255
-0.432 0.342 2.101 255 255 255
0.168 0.023 1.133 255 255 255
0.066 -0.161 2.089 255 255 255
0.678 -1.346 1.957 255 255 255
0.203 -0.737 1.956 255 255 255
1.287 -0.452 2.413 255 255 255
0.184 0.379 1.11 255 255 255
-0.316 0.755 1.359 255 255 255
0.668 -1.001 2.052 255 255 255
-0.058 0.711 1.503 255 255 255
-0.759 -0.295 1.193 255 255 255
0.106 -0.025 2.139 255 255 255
0.051 0.14 1.291 255 255 255
-0.123 0.297 2.179 255 255 255
-0.671 0.685 1.546 0 0 0
0.581 0.051 1.002 255 255 255
-0.26 -0.183 1.991 255 255 255
0.769 -0.353 2.276 255 255 255
0.491 -0.338 2.196 255 255 255
-0.055 -0.845 1.847 255 255 255
0.822 -1.162 2.048 255 255 255
0.065 0.578 1.991 255 255 255
0.612 -1.058 2.019 255 255 255
0.086 0.131 1.228 255 255 255
-0.876 0.468 2.282 255 255 255
-0.137 -0.574 1.909 255 255 255
-0.589 0.199 2.436 255 255 255
0.275 -0.458 2.054 255 255 255
0.617 0.028 1.017 255 255 255
-0.504 0.712 1.472 255 255 255
1.465 -0.413 2.493 255 255 255
0.064 -0.464 1.999 255 255 255
-0.333 -0.107 1.994 255 255 255
-0.13 0.584 1.979 255 255 255
0.236 0.003 1.148 255 255 255
0.038 0.039 2.141 255 255 255
0.242 -1.335 1.798 0 0 0
0.146 -0.571 1.986 255 255 255
0.169 0.72 1.492 255 255 255
-0.391 0.668 1.622 255 255 255
0.091 0.069 1.267 255 255 255
-0.662 0.542 2.046 255 255 255
-0.194 -0.846 1.815 255 255 255
-0.377 0.395 2.133 255 255 255
0.285 0.354 0.844 255 255 255
-1.072 -1.854 2.962 255 255 255
0.982 -0.715 2.226 255 255 255
0.137 0.117 1.12 255 255 255
-0.21 -0.551 1.897 255 255 255
0.301 0.34 0.941 255 255 255
1.622 -0.609 2.474 255 255 255
0.164 0.656 1.675 0 0 0
0.499 0.034 1.039 255 255 255
0.32 -0.636 2.015 255 255 255
-1.578 -1.69 2.862 255 255 255
-0.077 0.587 1.962 255 255 255
-0.731 0.642 1.679 255 255 255
0.073 0.218 1.259 255 255 255
-0.303 -0.464 1.898 255 255 255
-0.304 -0.373 1.922 255 255 255
1.358 -0.158 2.535 255 255 255
0.547 -0.988 2.024 255 255 255
-0.207 0.617 1.816 255 255 255
0.841 -0.092 2.366 255 255 255
0.452 0.019 1.133 255 255 255
0.095 0.538 2.133 255 255 255
-0.361 -0.536 1.858 255 255 255
0.264 0.319 1.036 255 255 255
-0.677 -0.074 1.171 255 255 255
-0.232 -0.886 1.792 255 255 255
-0.255 0.209 2.12 255 255 255
-0.045 -1.303 1.728 0 0 0
0.571 -0.797 2.084 255 255 255
-0.304 -0.392 1.916 255 255 255
-0.446 -0.922 1.747 255 255 255
0.031 -0.755 1.907 255 255 255
-0.284 0.64 1.716 255 255 255
0.428 0.268 1.025 255 255 255
-0.675 0.269 1.278 0 0 0
0.153 0.722 1.49 255 255 255
0.24 0.631 1.392 255 255 255
-0.305 -1.203 1.684 255 255 255
0.749 -1.464 1.909 0 0 0
-0.392 -0.531 1.835 255 255 255
-0.214 -0.6 1.881 255 255 255
-0.664 0.619 1.772 255 255 255
-0.673 -0.216 1.131 255 255 255
0.026 0.19 1.314 255 255 255
1.311 -0.736 2.352 255 255 255
-1.155 -2.161 2.857 255 255 255
0.801 -0.21 2.319 255 255 255
0.214 -0.462 2.039 255 255 255
0.967 -1.226 2.066 255 255 255
0.424 -0.64 2.089 255 255 255
1.439 -0.458 2.466 255 255 255
-0.492 0.599 1.877 255 255 255
-1.537 -1.793 2.837 255 255 255
0.016 -0.367 2.013 255 255 255
1.417 -0.917 2.33 255 255 255
-0.713 0.258 1.283 255 255 255
-0.037 -0.215 2.043 255 255 255
0.3 0.135 1.178 255 255 255
0.032 -1.296 1.748 0 0 0
1.643 -0.489 2.513 255 255 255
1.372 -0.384 2.472 255 255 255
1.873 -0.29 2.636 255 255 255
1.338 -0.905 2.306 255 255 255
0.111 -0.308 2.055 255 255 255
-1.161 0.294 2.849 255 255 255
-0.203 -0.092 2.035 255 255 255
0.665 -0.421 2.219 255 255 255
0.47 -0.526 2.136 255 255 255
0.593 0.058 0.917 255 255 255
0.221 -1.019 1.88 255 255 255
0.2 0.262 1.102 255 255 255
-0.361 -0.398 1.9 255 255 255
1.001 -0.536 2.279 255 255 255
0.918 -0.354 2.312 255 255 255
-0.55 0.726 1.427 255 255 255
-0.137 -0.696 1.874 255 255 255
-0.288 -0.441 1.906 255 255 255
-0.671 -0.216 1.132 255 255 255
0.242 0.709 1.509 255 255 255
0.709 -0.917 2.086 255 255 255
1.241 -0.584 2.33 255 255 255
0.205 0.326 1.103 255 255 255
-0.118 -0.69 1.881 255 255 255
0.149 -0.033 2.14 0 0 0
0.12 -0.784 1.921 255 255 255
0.411 0.102 1.034 255 255 255
-0.455 0.587 1.93 255 255 255
0.049 -0.242 2.059 255 255 255
0.565 -1.318 1.936 255 255 255
-1.036 0.517 2.072 255 255 255
0.767 -1.145 2.039 255 255 255
0.089 0.145 1.205 255 255 255
0.392 0.262 1.047 0 0 0
0.764 -1.462 1.928 0 0 0
-0.214 0.513 2.194 255 255 255
0.055 0.048 2.147 255 255 255
0.033 -0.037 2.118 255 255 255
0.236 0.239 1.123 255 255 255
-0.077 0.129 2.138 255 255 255
0.327 0.105 1.189 255 255 255
1.142 -0.568 2.312 255 255 255
-1.281 -0.128 1.736 255 255 255
-0.167 -0.117 2.035 255 255 255
0.07 0.682 1.604 255 255 255
0.601 -0.35 2.224 255 255 255
-1.135 -1.89 2.937 255 255 255
-1.145 0.381 2.589 255 255 255
-0.234 0.533 2.161 255 255 255
0.397 0.179 1.113 255 255 255
-0.303 0.536 2.149 255 255 255
0.311 0.203 1.104 255 255 255
0.418 0.076 1.06 255 255 255
-0.048 0.187 2.169 255 255 255
-0.825 -1.719 2.965 0 0 0
-0.311 -0.418 1.908 255 255 255
1.473 -0.792 2.376 255 255 255
0.284 0.064 1.209 255 255 255
0.869 -0.655 2.207 255 255 255
0.159 0.627 1.789 255 255 255
-1.234 0.133 1.815 255 255 255
0.494 0.125 0.796 255 255 255
-0.256 0.235 2.126 255 255 255
0.346 -1.005 1.915 255 255 255
-0.434 0.158 2.042 255 255 255
0.795 -0.947 2.1 255 255 255
0.229 -1.286 1.809 255 255 255
-0.24 -0.564 1.883 255 255 255
0.262 -1.249 1.824 255 255 255
-0.26 -0.302 1.954 255 255 255
-1.214 -2.114 2.853 0 0 0
0.252 -0.298 2.095 255 255 255
0.991 -0.349 2.331 255 255 255
-0.483 0.523 2.132 255 255 255
-0.163 0.741 1.417 255 255 255
-1.246 -0.337 1.677 255 255 255
-0.648 0.68 1.567 0 0 0
-0.13 0.548 2.121 255 255 255
0.254 0.432 0.895 255 255 255
0.331 0.297 1.029 255 255 255
0.712 -1.401 1.951 0 0 0
0.045 -0.253 2.052 255 255 255
0.458 0.037 1.078 255 255 255
0.09 0.061 2.161 255 255 255
-0.041 -0.313 2.011 255 255 255
0.394 -0.969 1.986 255 255 255
-1.163 -0.011 1.783 255 255 255
0.498 -0.826 2.058 255 255 255
1.157 -0.509 2.328 255 255 255
-0.123 0.124 2.124 255 255 255
-0.862 -1.975 2.871 0 0 0
0.21 -0.082 1.174 255 255 255
-0.036 -0.662 1.911 255 255 255
0.249 0.433 1.11 255 255 255
-0.592 0.716 1.451 255 255 255
0.537 -0.284 2.221 255 255 255
0.184 -0.234 2.094 0 0 0
0.131 -0.059 2.136 255 255 255
0.363 0.096 1.163 255 255 255
0.071 -0.91 1.87 0 0 0
-0.095 0.168 2.15 255 255 255
0.333 -1.076 1.891 255 255 255
-0.246 0.615 1.82 255 255 255
0.082 0.138 1.25 255 255 255
-0.201 -0.801 1.822 255 255 255
0.297 0.006 1.236 255 255 255
1.345 -0.642 2.388 255 255 255
0.745 -0.365 2.262 255 255 255
-0.449 -0.685 1.811 255 255 255
0.099 0.224 1.294 255 255 255
0.245 0.01 1.147 255 255 255
0.261 -0.517 2.034 255 255 255
-0.203 0.268 2.152 255 255 255
-0.437 0.2 2.055 255 255 255
0.731 -1.444 1.946 0 0 0
-0.233 -0.587 1.878 255 255 255
0.834 -0.517 2.235 255 255 255
-1.29 -0.07 1.693 255 255 255
-0.843 -1.99 2.872 0 0 0
-0.606 0.679 1.566 0 0 0
0.496 0.099 0.837 255 255 255
-1.158 -0.52 1.716 255 255 255
0.437 0.108 0.956 255 255 255
0.145 0.755 1.39 255 255 255
-0.052 0.587 1.949 255 255 255
-0.441 -0.027 1.982 255 255 255
0.632 -1.364 1.94 255 255 255
1.784 -0.29 2.61 255 255 255
0.015 -0.904 1.858 0 0 0
0.229 0.591 1.087 255 255 255
0.444 0.087 0.967 255 255 255
-1.646 -1.129 2.998 255 255 255
-1.579 -1.542 2.901 255 255 255
0.483 0.149 0.813 255 255 255
0.32 0.217 1.091 255 255 255
0.172 0.223 1.131 255 255 255
-0.126 -1.148 1.745 0 0 0
-0.084 0.535 2.177 255 255 255
-0.35 -1.016 1.724 255 255 255
0.242 -0.338 2.081 255 255 255
0.371 0.089 1.158 0 0 0
0.121 0.145 1.183 255 255 255
0.221 0.281 1.1 255 255 255
0.117 0.263 1.387 255 255 255
0.378 0.371 0.848 255 255 255
-0.141 -1.109 1.746 0 0 0
-0.087 -0.596 1.915 255 255 255
0.855 -0.381 2.282 255 255 255
-0.202 -0.623 1.877 255 255 255
-1.318 0.325 2.746 255 255 255
1.587 -0.697 2.437 255 255 255
1.599 -0.313 2.552 255 255 255
-0.55 0.734 1.405 255 255 255
0.195 0.18 1.109 255 255 255
1.428 -0.193 2.54 255 255 255
-1.568 -1.363 2.953 255 255 255
-0.228 -0.678 1.854 255 255 255
0.137 0.069 1.141 255 255 255
-0.416 -0.263 1.913 255 255 255
0.896 -0.049 2.398 255 255 255
0.188 -0.079 1.172 255 255 255
1.491 -0.88 2.352 255 255 255
0.469 0.125 0.863 255 255 255
-0.385 -0.517 1.844 255 255 255
1.504 -0.945 2.347 255 255 255
0.49 0.149 0.809 255 255 255
-1.147 0.344 2.701 255 255 255
0.396 -1.081 1.958 255 255 255
1.246 -0.614 2.322 255 255 255
-0.292 -0.674 1.837 255 255 255
-0.831 0.606 1.805 255 255 255
-0.084 -0.358 1.987 255 255 255
1.027 -1.231 2.078 255 255 255
0.403 -0.562 2.108 255 255 255
0.446 0.045 1.067 255 255 255
-0.209 -0.889 1.801 0 0 0
-0.658 0.327 2.378 255 255 255
0.111 0.688 1.598 255 255 255
-0.121 -0.874 1.812 255 255 255
0.229 0.51 1.127 255 255 255
0.252 -0.277 2.1 255 255 255
0.249 0.395 0.886 255 255 255
-0.156 0.623 1.79 255 255 255
-0.36 -0.939 1.741 255 255 255
-0.67 -0.373 1.087 255 255 255
0.578 0.079 0.869 255 255 255
0.581 -0.918 2.053 255 255 255
-0.285 -0.899 1.778 255 255 255
0.42 0.353 0.931 255 255 255
-0.938 -1.919 2.862 255 255 255
0.148 0.337 1.146 255 255 255
0.41 0.093 1.055 255 255 255
-0.392 -0.527 1.836 255 255 255
0.287 0.452 0.854 255 255 255
-0.16 -0.85 1.825 255 255 255
0.432 0.208 0.924 255 255 255
-0.091 -0.985 1.806 0 0 0
0.264 0.571 1.07 255 255 255
-0.632 0.477 2.282 255 255 255
-0.413 -0.791 1.763 255 255 255
0.258 -1.271 1.817 255 255 255
0.023 -1.065 1.806 0 0 0
-0.354 0.155 2.071 255 255 255
0.304 -0.553 2.034 255 255 255
1.396 -0.099 2.558 0 0 0
-0.653 -0.192 1.209 255 255 255
-0.405 -0.741 1.777 255 255 255
0.482 -0.307 2.2 255 255 255
-0.04 -0.587 1.927 255 255 255
1.01 -0.08 2.42 255 255 255
-0.147 -0.36 1.971 255 255 255
1.373 -0.191 2.525 255 255 255
-1.172 0.112 1.834 255 255 255
1.259 -0.703 2.307 255 255 255
0.654 -0.429 2.215 255 255 255
1.356 -0.324 2.484 255 255 255
0.851 -1.346 2 255 255 255
-0.349 0.001 2.021 255 255 255
-1.101 -2.054 2.901 255 255 255
-0.402 0.111 2.032 255 255 255
0.14 0.569 2.031 255 255 255
-1.58 -1.618 2.877 255 255 255
0.322 -0.551 2.041 255 255 255
-0.198 -0.918 1.796 255 255 255
0.22 0.378 1.124 255 255 255
0.125 0.155 1.134 255 255 255
0.333 0.244 1.083 255 255 255
-0.332 -1.238 1.663 0 0 0
-0.209 0.687 1.564 0 0 0
0.47 -1.111 1.964 255 255 255
-0.02 -0.989 1.824 0 0 0
1.437 -0.243 2.53 255 255 255
-0.887 0.528 2.066 255 255 255
0.128 0.074 1.187 255 255 255
0.114 0.013 1.226 255 255 255
0.257 0.106 1.132 255 255 255
1.039 -0.096 2.42 255 255 255
0.067 -0.757 1.911 255 255 255
1.498 -0.881 2.352 255 255 255
0.702 0.006 1.141 255 255 255
-1.212 0.116 1.822 255 255 255
0.116 -0.236 2.078 255 255 255
0.083 0.612 1.844 255 255 255
0.18 0.739 1.44 255 255 255
-1.151 -0.149 1.752 255 255 255
-0.27 -0.741 1.826 255 255 255
0.373 -0.424 2.136 0 0 0
0.57 -0.357 2.212 255 255 255
0.236 -1.243 1.818 255 255 255
-1.234 0.159 1.829 255 255 255
0.234 0.001 1.15 255 255 255
-0.29 0.625 1.783 255 255 255
0.748 -1.056 2.06 255 255 255
-0.153 0.538 2.151 255 255 255
0.125 -0.13 1.307 0 0 0
0.015 -0.542 1.962 255 255 255
0.171 -0.614 1.985 255 255 255
-0.852 0.498 2.172 255 255 255
0.25 -0.804 1.951 255 255 255
0.408 0.073 1.091 255 255 255
0.412 0.229 1.094 255 255 255
0.101 -1.144 1.811 0 0 0
-0.123 0.081 2.115 255 255 255
-0.284 0.384 2.157 255 255 255
0.795 -0.622 2.192 255 255 255
-0.028 -0.619 1.924 255 255 255
0.767 -0.697 2.17 255 255 255
-0.11 -0.571 1.914 255 255 255
0.17 0.385 1.121 255 255 255
-0.46 -0.54 1.856 255 255 255
0.427 -1.075 1.962 255 255 255
0.138 0.033 1.174 255 255 255
0.8 -0.368 2.273 255 255 255
0.424 0.053 1.094 0 0 0
-0.005 0.219 2.187 255 255 255
-0.685 0.118 1.222 255 255 255
1.814 -0.495 2.553 255 255 255
0.111 0.105 1.19 255 255 255
0.624 -0.488 2.186 255 255 255
0.481 0.138 0.83 255 255 255
0.419 0.146 0.996 255 255 255
0.097 0.618 1.824 255 255 255
0.27 0.258 1.074 255 255 255
0.523 -0.007 1.198 255 255 255
1.271 -0.347 2.429 255 255 255
-0.559 0.453 2.351 0 0 0
-0.386 -1.09 1.675 255 255 255
-0.263 -0.59 1.871 255 255 255
-0.228 -1.178 1.714 255 255 255
-1.163 0.331 2.739 255 255 255
0.367 -0.401 2.133 0 0 0
-1.219 -0.417 1.665 255 255 255
0.263 -0.74 1.972 255 255 255
-0.039 0.556 2.102 255 255 255
-1.149 -0.455 1.706 255 255 255
-0.278 -0.646 1.851 255 255 255
-0.612 0.425 2.468 0 0 0
-0.148 -0.069 2.059 255 255 255
-0.091 -0.065 2.076 255 255 255
-0.207 -0.471 1.918 255 255 255
-0.444 0.723 1.438 255 255 255
-0.036 -0.844 1.855 255 255 255
-0.763 0.568 1.95 255 255 255
0.388 -0.418 2.147 255 255 255
-1.284 -0.296 1.683 255 255 255
1.102 -0.338 2.366 255 255 255
1.252 -0.786 2.275 255 255 255
-0.626 0.299 2.354 255 255 255
0.184 -0.496 2.024 255 255 255
0.023 -0.862 1.876 255 255 255
-0.385 -1.034 1.693 255 255 255
0.454 0.192 0.838 255 255 255
0.64 -0.49 2.191 255 255 255
0.145 -0.67 1.958 255 255 255
-0.066 -0.171 2.05 255 255 255
0.797 -1.018 2.083 255 255 255
0.201 -0.545 2.012 255 255 255
-1.154 -0.044 1.808 255 255 255
0.115 0.663 1.667 255 255 255
0.182 0.645 1.519 255 255 255
0.059 0.065 2.155 255 255 255
-0.138 -1.121 1.757 0 0 0
-0.623 0.608 1.813 255 255 255
-1.733 -1.168 2.952 255 255 255
-0.359 0.725 1.441 255 255 255
1.474 -0.206 2.549 255 255 255
-0.368 -1.181 1.666 255 255 255
0.055 -0.701 1.925 255 255 255
0.37 -0.473 2.115 0 0 0
0.532 0.065 0.908 255 255 255
0.392 -1.333 1.883 255 255 255
1.24 -0.168 2.454 255 255 255
0.031 -0.751 1.907 255 255 255
0.362 0.25 1.13 255 255 255
0.172 0.172 1.106 255 255 255
-0.103 0.673 1.625 255 255 255
-0.119 -0.426 1.959 255 255 255
0.465 0.071 0.967 255 255 255
-0.121 0.735 1.436 255 255 255
1.803 -0.303 2.614 255 255 255
0.344 -0.525 2.054 255 255 255
-0.299 0.169 2.095 255 255 255
1.066 -0.182 2.4 255 255 255
-0.31 0.513 2.168 255 255 255
-0.064 -1.193 1.753 0 0 0
-0.169 0.704 1.522 0 0 0
0.463 0.247 0.864 255 255 255
0.463 0.085 0.939 255 255 255
-0.35 -0.495 1.872 255 255 255
-1.55 -1.547 2.905 255 255 255
0.206 -0.473 2.033 255 255 255
-0.155 0.582 1.985 255 255 255
-0.39 -1.224 1.636 0 0 0
0.507 0.094 0.799 255 255 255
0.956 -0.143 2.381 255 255 255
0.236 0.007 1.148 255 255 255
-1.087 0.265 2.952 255 255 255
0.095 0.697 1.559 0 0 0
0.076 0.722 1.486 255 255 255
0.678 -0.373 2.237 255 255 255
0.372 0.282 0.987 255 255 255
-0.118 -0.635 1.892 255 255 255
-0.669 -0.419 1.074 255 255 255
-0.255 0.294 2.144 255 255 255
1.125 -0.634 2.288 255 255 255
0.117 -0.538 1.99 255 255 255
-0.307 -0.877 1.776 255 255 255
-0.336 -0.519 1.872 255 255 255
0.215 -1.261 1.806 255 255 255
0.374 0.223 1.099 0 0 0
0.444 0.142 0.886 255 255 255
0.987 -0.144 2.39 255 255 255
0.534 -1.295 1.932 255 255 255
0.544 -1.141 1.978 255 255 255
-0.154 0.583 1.975 255 255 255
0.195 -0.352 2.065 255 255 255
-0.057 -0.379 1.989 255 255 255
0.464 0.279 0.906 255 255 255
0.414 -0.475 2.136 255 255 255
-0.048 -1.03 1.803 255 255 255
0.841 -0.784 2.16 255 255 255
0.142 0.634 1.766 255 255 255
-0.517 0.641 1.705 255 255 255
1.01 -0.814 2.205 255 255 255
0.084 0.635 1.769 255 255 255
-1.161 -2.145 2.859 255 255 255
0.42 0.008 1.213 255 255 255
-0.315 0.428 2.153 255 255 255
0.313 0.465 0.813 255 255 255
0.624 0.03 0.941 255 255 255
-0.269 -0.446 1.911 255 255 255
0.601 0.058 0.912 255 255 255
0.424 0.197 0.981 255 255 255
-0.683 0.388 1.309 255 255 255
0.122 -1.201 1.802 255 255 255
0.316 0.457 0.839 255 255 255
-1.304 -1.908 2.878 255 255 255
0.053 0.294 1.32 0 0 0
-0.242 -0.272 1.968 255 255 255
0.652 -0.624 2.158 255 255 255
-0.411 -0.27 1.909 255 255 255
-0.333 -1.119 1.697 255 255 255
-0.157 0.661 1.659 255 255 255
0.424 0.258 1.042 255 255 255
0.638 -1.286 1.961 255 255 255
-0.33 -0.653 1.832 255 255 255
0.248 0.515 1.058 255 255 255
1.536 -0.761 2.409 255 255 255
-0.27 -0.904 1.78 255 255 255
1.57 -0.625 2.456 255 255 255
1.025 -0.298 2.351 255 255 255
0.114 -0.104 1.305 0 0 0
0.084 -1.036 1.838 255 255 255
-0.252 -0.19 1.991 255 255 255
-0.173 -0.016 2.065 255 255 255
1.141 -0.99 2.188 255 255 255
-0.149 -0.577 1.905 255 255 255
0.456 -0.694 2.081 255 255 255
-0.289 -0.918 1.77 255 255 255
-0.357 -0.971 1.734 255 255 255
0.294 0.188 1.113 255 255 255
-0.229 -0.179 2.002 255 255 255
0.476 -1.419 1.884 0 0 0
0.535 0.083 0.837 255 255 255
-1.056 -1.936 2.947 255 255 255
-1.161 -0.348 1.688 255 255 255
0.424 -1.094 1.959 255 255 255
0.228 -0.129 1.192 0 0 0
-0.1 -0.024 2.085 255 255 255
0.197 -1.162 1.834 255 255 255
0.372 0.216 1.087 0 0 0
0.248 0.406 0.913 255 255 255
0.337 0.1 1.188 255 255 255
0.234 -1.111 1.857 255 255 255
0.45 -0.903 2.018 255 255 255
-0.515 0.725 1.427 255 255 255
-0.676 -0.012 1.192 255 255 255
0.315 -0.668 2.004 255 255 255
0.164 -1.275 1.791 255 255 255
-0.259 -1.223 1.687 0 0 0
-0.328 0.538 2.139 255 255 255
-0.048 0.133 2.149 255 255 255
0.42 0.152 0.993 255 255 255
0.286 -0.548 2.031 255 255 255
-0.371 0.537 2.129 255 255 255
0.058 0.748 1.408 255 255 255
0.458 0.189 0.809 255 255 255
-0.218 0.11 2.097 255 255 255
-0.381 -0.57 1.832 255 255 255
0.867 -1.312 2.018 255 255 255
-0.561 0.672 1.589 255 255 255
0.693 -0.238 2.281 255 255 255
0.202 -1.268 1.801 255 255 255
0.54 -1.133 1.983 255 255 255
1.358 -0.196 2.521 255 255 255
0.844 -1.195 2.041 255 255 255
1.099 -0.228 2.395 255 255 255
0.44 0.126 0.927 255 255 255
1.475 -0.92 2.337 255 255 255
-0.673 -0.443 1.064 255 255 255
0.365 0.371 0.853 255 255 255
0.423 0.323 0.94 0 0 0
0.237 0.057 1.129 255 255 255
-0.211 0.593 1.933 255 255 255
0.67 -0.186 2.29 255 255 255
0.022 0.706 1.531 0 0 0
0.451 -1.286 1.907 255 255 255
0.453 0.141 0.873 255 255 255
-0.395 -0.92 1.726 255 255 255
-0.933 0.445 2.364 255 255 255
0.253 0.489 1.035 255 255 255
0.419 -0.436 2.146 255 255 255
0.015 0.246 1.298 255 255 255
-0.017 0.565 2.051 255 255 255
-0.458 0.167 2.054 255 255 255
0.231 -0.148 1.203 0 0 0
-0.032 -0.906 1.844 0 0 0
0.275 -0.479 2.051 255 255 255
0.088 -0.096 2.114 255 255 255
1.537 -0.386 2.513 255 255 255
-1.605 -1.413 2.932 255 255 255
1.274 -0.835 2.284 255 255 255
0.285 -1.278 1.824 255 255 255
-0.394 -0.722 1.783 255 255 255
0.351 0.115 1.157 255 255 255
0.276 -0.942 1.914 255 255 255
-1.275 -2.032 2.848 255 255 255
-0.405 -0.349 1.888 255 255 255
0.271 -0.851 1.94 255 255 255
-1.179 0.166 1.842 255 255 255
0.773 -0.362 2.271 255 255 255
-0.85 -1.669 2.971 0 0 0
0.032 -1.293 1.752 0 0 0
-0.139 -0.429 1.951 255 255 255
-0.948 0.279 2.738 255 255 255
0.557 0.02 1.109 255 255 255
0.434 -1.147 1.949 255 255 255
0.432 0.201 0.92 255 255 255
-0.098 -0.943 1.814 255 255 255
0.259 0.131 1.131 255 255 255
0.071 0.587 1.95 255 255 255
-0.208 -0.211 1.995 255 255 255
1.126 -1.101 2.147 255 255 255
-0.152 -0.714 1.864 255 255 255
0.641 -0.29 2.251 255 255 255
0.551 -0.97 2.028 255 255 255
-0.027 0.531 2.179 255 255 255
-0.142 -1.079 1.768 0 0 0
0.316 0.33 0.848 255 255 255
-0.08 -1.134 1.763 0 0 0
0.659 -1.305 1.96 255 255 255
0.326 0.391 0.83 255 255 255
1.065 -0.241 2.382 255 255 255
1.359 -0.228 2.509 255 255 255
1.425 -0.526 2.445 255 255 255
-1.305 -1.951 2.863 255 255 255
0.207 0.369 1.106 255 255 255
-0.096 0.543 2.137 255 255 255
-0.325 -0.193 1.968 255 255 255
-0.009 0.161 2.167 255 255 255
0.605 -1.215 1.972 255 255 255
0.336 -0.863 1.951 255 255 255
0.246 0.373 1.123 255 255 255
0.249 0.196 1.157 255 255 255
0.087 0.134 1.213 255 255 255
0.901 -1.404 2.001 255 255 255
-0.666 -0.417 1.076 255 255 255
0.582 -0.75 2.101 255 255 255
0.187 -0.969 1.888 255 255 255
-0.232 -0.693 1.848 255 255 255
-0.405 -0.835 1.749 255 255 255
-0.876 -1.642 2.974 0 0 0
-0.238 0.647 1.697 255 255 255
0.971 -1.448 2.011 0 0 0
1.077 -0.83 2.217 255 255 255
-0.381 -1.018 1.698 255 255 255
0.705 -0.764 2.13 255 255 255
-0.24 -1.245 1.69 0 0 0
-0.304 0.7 1.523 0 0 0
0.144 0.059 1.131 255 255 255
0.123 -0.13 1.311 0 0 0
0.577 0.079 0.899 255 255 255
0.439 0.057 0.985 255 255 255
0.192 -0.576 2 255 255 255
-0.059 0.03 2.114 255 255 255
0.498 0.129 0.795 255 255 255
-0.245 -1.061 1.739 255 255 255
0.161 0.553 2.086 255 255 255
0.486 -0.012 1.204 255 255 255
-0.456 -0.54 1.857 255 255 255
0.509 -0.522 2.152 255 255 255
-0.24 -0.674 1.853 255 255 255
-0.056 0.702 1.539 0 0 0
0.263 0.438 0.858 255 255 255
-0.669 0.598 1.851 255 255 255
0.415 0.186 1.037 255 255 255
-0.036 -1.01 1.811 0 0 0
0.588 -0.529 2.167 255 255 255
0.282 -1.129 1.865 255 255 255
0.463 0.082 0.948 255 255 255
-0.281 -0.84 1.794 255 255 255
-0.414 -0.997 1.697 255 255 255
0.295 0.589 1.094 255 255 255
-0.09 -0.154 2.048 255 255 255
-0.858 0.609 1.795 255 255 255
-0.669 -0.17 1.15 255 255 255
0.132 0.746 1.422 255 255 255
-0.181 0.673 1.621 255 255 255
-0.972 -1.728 2.937 255 255 255
0.179 -0.274 2.084 255 255 255
-0.258 -0.725 1.83 255 255 255
1.42 -0.995 2.302 255 255 255
-0.553 0.57 1.973 255 255 255
1.253 -0.251 2.438 255 255 255
0.77 -0.114 2.34 255 255 255
-0.752 0.517 2.112 255 255 255
0.212 0.587 1.914 0 0 0
0.306 -0.733 1.985 255 255 255
-0.676 -0.423 1.065 255 255 255
1.598 -0.507 2.496 255 255 255
-1.194 -0.155 1.762 255 255 255
0.394 0.053 1.165 255 255 255
-0.275 -1.248 1.677 0 0 0
-0.822 -1.895 2.914 0 0 0
1.663 -0.26 2.588 255 255 255
-0.672 -0.302 1.106 255 255 255
-0.832 0.519 2.103 255 255 255
1.671 -0.643 2.476 255 255 255
-0.551 0.673 1.593 255 255 255
-0.429 -0.662 1.796 255 255 255
-1.163 -0.079 1.765 255 255 255
-0.137 0.534 2.172 255 255 255
0.432 0.206 0.924 255 255 255
0.064 -0.436 2.007 255 255 255
-0.807 -2.027 2.882 255 255 255
-0.452 0.672 1.603 255 255 255
0.282 -0.571 2.023 255 255 255
-0.664 -0.186 1.179 255 255 255
-1.458 -1.679 2.896 255 255 255
-0.405 -0.137 1.947 255 255 255
-0.281 -1.18 1.697 255 255 255
0.387 0.139 1.09 0 0 0
-0.179 -0.698 1.864 255 255 255
0.298 -0.113 1.244 0 0 0
0.164 0.143 1.105 255 255 255
1.367 -0.499 2.438 255 255 255
0.451 -1.415 1.874 0 0 0
-0.207 -0.281 1.977 255 255 255
0.263 0.373 0.993 255 255 255
-0.942 0.426 2.434 255 255 255
1.256 -1.031 2.208 255 255 255
-0.67 -0.028 1.192 255 255 255
-0.975 -1.906 2.901 255 255 255
0.212 -0.124 1.185 255 255 255
-1.223 0.319 2.773 255 255 255
0.421 0.344 0.935 255 255 255
1.121 -1.115 2.143 255 255 255
0.294 -0.638 2.009 255 255 255
0.366 0.21 1.093 255 255 255
0.178 -0.843 1.918 255 255 255
-0.028 -1.095 1.782 255 255 255
0.889 -0.058 2.395 255 255 255
0.332 -0.499 2.059 255 255 255
-0.667 -0.28 1.116 255 255 255
-0.146 -1.16 1.732 0 0 0
-0.657 -0.404 1.09 255 255 255
0.179 0.251 1.131 255 255 255
-0.249 -0.272 1.965 255 255 255
-1.287 -0.146 1.707 255 255 255
1.226 -0.881 2.238 255 255 255
-0.14 0.279 2.171 255 255 255
-0.402 0.751 1.364 255 255 255
1.271 -0.357 2.429 255 255 255
-1.221 -0.363 1.676 255 255 255
-0.74 0.64 1.693 255 255 255
0.904 -1.352 2.015 255 255 255
0.251 0.159 1.112 255 255 255
-0.234 -1.113 1.729 255 255 255
-0.4 -1.027 1.695 255 255 255
0.383 0.143 1.106 0 0 0
1.541 -0.636 2.441 255 255 255
-0.667 -0.37 1.088 255 255 255
-0.832 0.632 1.702 255 255 255
1.595 -0.639 2.459 255 255 255
-0.545 0.637 1.72 255 255 255
-0.802 0.224 1.383 255 255 255
-0.3 -0.415 1.911 255 255 255
0.324 -1.022 1.904 255 255 255
-0.687 -0.273 1.11 255 255 255
-0.383 -0.79 1.766 255 255 255
0.422 0.246 1.052 255 255 255
-0.349 -0.011 2.018 255 255 255
-0.187 -0.567 1.898 255 255 255
0.447 0.261 0.932 255 255 255
0.315 -0.882 1.943 255 255 255
0.321 -0.355 2.095 255 255 255
-0.685 0.129 1.226 255 255 255
0.456 -1.421 1.874 0 0 0
-0.449 -0.689 1.811 255 255 255
-0.067 -0.999 1.807 0 0 0
0.489 -0.55 2.136 255 255 255
0.455 0.166 0.824 255 255 255
0.771 -0.664 2.174 255 255 255
-0.164 -0.534 1.911 255 255 255
0.55 -0.022 1.189 255 255 255
0.462 0.325 0.927 255 255 255
-0.563 0.559 2.01 255 255 255
-0.44 -0.852 1.76 255 255 255
-0.753 0.547 2.026 255 255 255
0.051 0.12 1.366 0 0 0
-0.229 0.161 2.113 255 255 255
-1.347 -1.765 2.909 255 255 255
0.45 0.145 0.875 255 255 255
-1.524 -1.609 2.895 255 255 255
-0.853 -1.849 2.916 0 0 0
0.031 0.588 1.951 255 255 255
-0.423 0.723 1.433 255 255 255
-1.746 -1.01 2.999 255 255 255
0.274 -0.53 2.033 255 255 255
1.555 -0.365 2.523 255 255 255
0.499 -1.071 1.983 255 255 255
0.931 -1.417 2.003 255 255 255
-0.165 -0.473 1.93 255 255 255
0.55 -0.351 2.21 255 255 255
1.26 -0.528 2.363 255 255 255
1.537 -0.119 2.59 0 0 0
-0.35 -0.055 2.001 255 255 255
-1.046 0.463 2.289 255 255 255
-0.417 0.115 2.025 255 255 255
1.711 -0.4 2.559 255 255 255
0.442 -1.075 1.969 255 255 255
0.27 -0.007 1.184 255 255 255
1.273 -0.824 2.285 255 255 255
0.105 0.738 1.437 255 255 255
0.266 0.348 1.02 255 255 255
1.134 -0.355 2.371 255 255 255
0.397 0.241 1.065 0 0 0
-0.516 0.534 2.095 255 255 255
0.039 0.643 1.728 255 255 255
-1.145 0.453 2.318 255 255 255
0.14 0.035 2.139 0 0 0
0.425 0.267 1.032 255 255 255
0.382 -0.007 1.264 0 0 0
0.433 0.054 1.02 255 255 255
0.282 0.185 1.114 255 255 255
0.997 -1.156 2.1 255 255 255
0.104 -0.929 1.878 255 255 255
-0.148 -0.908 1.807 0 0 0
0.214 -0.259 2.097 255 255 255
-0.262 0.612 1.831 255 255 255
0.241 -0.004 1.149 255 255 255
0.877 -0.402 2.282 255 255 255
0.864 -0.448 2.27 255 255 255
0.206 -0.481 2.031 255 255 255
0.628 -1.089 2.015 255 255 255
0.418 0.361 0.929 255 255 255
0.114 -0.114 1.306 0 0 0
0.341 0.096 1.192 255 255 255
0.514 -0.992 2.018 255 255 255
0.182 -0.706 1.959 255 255 255
0.048 0.619 1.816 255 255 255
-0.578 0.591 1.904 255 255 255
0.059 -0.838 1.891 255 255 255
0.717 -0.257 2.279 255 255 255
0.522 -0.441 2.18 255 255 255
0.858 -0.824 2.153 255 255 255
-0.251 -0.639 1.859 255 255 255
0.838 -0.482 2.25 255 255 255
-1.218 -0.267 1.705 255 255 255
-0.268 -0.31 1.951 255 255 255
-0.432 0.626 1.768 255 255 255
0.276 -0.783 1.964 255 255 255
-0.206 -0.619 1.877 255 255 255
0.167 -0.208 2.097 0 0 0
0.106 -1.28 1.778 255 255 255
0.59 -0.354 2.219 255 255 255
1.011 -0.326 2.341 255 255 255
0.288 0.156 1.141 255 255 255
-0.409 0.711 1.474 255 255 255
0.42 0.084 1.044 255 255 255
-0.576 0.697 1.515 0 0 0
-0.084 -0.447 1.961 255 255 255
0.182 0.258 1.116 255 255 255
0.984 -0.737 2.213 255 255 255
-0.143 -1.208 1.726 255 255 255
0.204 -1.009 1.88 255 255 255
0.227 -0.45 2.043 255 255 255
-0.767 0.627 1.731 255 255 255
-0.812 -1.734 2.965 255 255 255
-0.257 -0.155 2.001 255 255 255
0.2 0.724 1.476 255 255 255
0.158 -1.12 1.834 255 255 255
0.836 -0.398 2.271 255 255 255
-1.187 -0.419 1.671 255 255 255
0.277 -0.361 2.085 255 255 255
0.241 0.522 1.08 255 255 255
-0.194 0.127 2.11 255 255 255
0.158 0.08 1.128 255 255 255
0.867 -1.38 2.002 255 255 255
0.235 0.484 1.141 255 255 255
-0.506 0.59 1.916 255 255 255
0.575 -0.002 1.134 255 255 255
-0.235 0.747 1.394 255 255 255
0.506 -1.331 1.914 255 255 255
-0.878 -2.021 2.859 255 255 255
-0.26 -0.536 1.885 255 255 255
-0.358 -0.492 1.873 255 255 255
-1.563 -1.323 2.969 255 255 255
0.142 -1.195 1.807 255 255 255
0.493 -0.942 2.021 255 255 255
-0.122 -0.517 1.929 255 255 255
0.968 -0.929 2.153 255 255 255
1.143 -1.162 2.138 255 255 255
0.994 -0.969 2.152 255 255 255
0.007 -0.716 1.907 255 255 255
0.247 0.37 1.127 255 255 255
0.314 -1.24 1.838 255 255 255
0.238 -1.347 1.792 0 0 0
0.129 0.375 1.141 0 0 0
0.125 -1.121 1.829 255 255 255
0.249 0.369 1.05 255 255 255
-0.161 0.685 1.58 255 255 255
-0.282 0.634 1.753 255 255 255
0.228 0.498 1.294 255 255 255
0.085 -1.24 1.783 255 255 255
-0.181 -0.431 1.938 255 255 255
0.761 -1.415 1.96 0 0 0
0.447 0.245 0.91 255 255 255
0.968 -1.164 2.09 255 255 255
1.749 -0.574 2.515 255 255 255
0.115 -0.117 1.309 0 0 0
-0.25 0.706 1.511 0 0 0
0.243 0.46 1.161 255 255 255
0.584 0.049 1.007 255 255 255
0.294 -1.094 1.874 255 255 255
0.634 -0.651 2.141 255 255 255
-0.874 -1.606 2.98 0 0 0
0.497 0.067 0.928 255 255 255
-0.311 0.025 2.042 255 255 255
-0.863 0.535 2.043 255 255 255
0.03 0.745 1.41 255 255 255
0.972 -0.74 2.21 255 255 255
0.429 0.048 1.088 255 255 255
0.811 -0.624 2.196 255 255 255
0.215 0.049 1.14 255 255 255
-0.694 0.63 1.736 255 255 255
1.258 -0.132 2.48 255 255 255
-0.032 -0.984 1.823 0 0 0
0.206 0.222 1.1 255 255 255
