ply
format ascii 1.0
comment Created by Open3D
element vertex 1577
property double x
property double y
property double z
property uchar red
property uchar green
property uchar blue
end_header
0.207 -0.264 1.809 255 255 255
-1.231 -0.596 1.913 255 255 255
-0.715 -1.239 2.291 255 255 255
0.608 0.078 1.038 255 255 255
0.675 -0.182 1.03 255 255 255
0.165 -0.095 1.93 255 255 255
0.619 -0.507 1.071 255 255 255
0.387 0.602 1.578 255 255 255
-0.668 0.17 2.37 255 255 255
-0.867 -0.568 2.439 255 255 255
0.571 0.401 1.171 255 255 255
0.65 0.02 0.946 255 255 255
-0.409 0.094 0.675 255 255 255
0.136 0.365 2.061 255 255 255
0.358 0.104 1.539 255 255 255
-0.16 -0.333 1.884 255 255 255
-0.938 -0.657 2.373 255 255 255
0.116 -0.136 2.016 255 255 255
0.237 0.703 1.406 255 255 255
-1.191 -0.004 2.454 255 255 255
0.631 -0.216 1.116 255 255 255
0.292 0.014 1.658 255 255 255
0.599 -0.1 1.007 255 255 255
-0.722 -0.225 2.637 255 255 255
-0.379 0.114 0.638 255 255 255
0.591 0.207 1.097 255 255 255
0.511 -0.065 1.209 255 255 255
0.614 0.005 1.017 255 255 255
-1.119 -1.226 2.084 255 255 255
-0.233 0.144 2.039 255 255 255
0.365 -0.096 1.489 255 255 255
-0.45 -1.104 2.262 255 255 255
0.384 0.457 1.579 255 255 255
0.6 -0.246 1.167 255 255 255
-0.552 -0.298 2.545 255 255 255
-1.201 -0.067 2.438 255 255 255
-0.993 -0.761 2.309 255 255 255
-1.075 -1.305 2.081 255 255 255
0.514 0.483 1.3 255 255 255
-0.04 -0.24 1.981 255 255 255
-0.559 0.617 1.448 255 255 255
-0.527 0.022 0.984 255 255 255
0.331 -1.006 1.645 255 255 255
0.192 0.581 1.755 255 255 255
-0.389 0.205 2.42 255 255 255
-0.189 -0.806 1.693 255 255 255
-0.03 0.093 2.112 255 255 255
-0.482 0.583 1.568 255 255 255
-0.61 -0.837 2.481 255 255 255
-0.511 -1.555 2.289 255 255 255
-0.404 -1.019 2.277 255 255 255
-0.146 0.025 2.037 255 255 255
0.13 -0.208 1.973 255 255 255
-0.944 -0.71 2.351 255 255 255
-0.579 0.139 2.439 255 255 255
0.012 0.68 1.402 255 255 255
-0.265 0.62 1.509 255 255 255
0.604 -0.006 1.032 255 255 255
0.044 0.146 2.215 255 255 255
0.221 0.662 1.513 255 255 255
-0.045 0.397 2.01 255 255 255
-0.156 0.667 1.369 255 255 255
0.297 -0.388 1.735 255 255 255
-0.153 0.534 1.822 255 255 255
-0.033 0.417 1.79 255 255 255
0.317 0.271 1.664 255 255 255
-0.923 -1.16 2.202 255 255 255
0.624 0.151 1.021 255 255 255
0.329 -1.046 1.636 255 255 255
-0.133 0.1 2.072 255 255 255
0.29 0.571 1.753 255 255 255
0.515 -0.161 1.154 0 0 0
0.341 0.083 1.567 255 255 255
0.092 0.055 2.108 255 255 255
-0.407 -1.679 2.301 0 0 0
-0.187 -0.12 1.948 255 255 255
-1.229 -0.288 1.618 0 0 0
-0.239 0.898 2.047 255 255 255
-0.865 -1.33 2.177 255 255 255
-0.152 -0.348 1.882 255 255 255
-0.077 -0.489 1.883 255 255 255
-0.492 0.454 1.872 255 255 255
0.043 -1.334 1.902 255 255 255
0.552 -0.107 1.118 255 255 255
0.657 -0.21 1.065 255 255 255
0.583 -0.002 1.07 255 255 255
-0.799 -0.3 2.568 255 255 255
-1.012 -1.218 2.139 255 255 255
-0.799 0.491 1.805 255 255 255
-0.973 -0.951 2.253 255 255 255
0.566 -0.042 1.1 255 255 255
-1.072 0.043 2.467 255 255 255
-0.105 -1.079 1.669 255 255 255
0.077 -0.473 2.018 0 0 0
0.599 -0.043 1.037 255 255 255
0.159 0.434 2.021 255 255 255
0.516 0.328 1.266 255 255 255
-0.767 -1.562 2.151 0 0 0
-0.463 -0.66 2.415 255 255 255
0.67 -0.216 1.055 255 255 255
-0.547 -1.106 2.417 255 255 255
-0.276 0.648 1.411 255 255 255
-0.429 0.628 1.435 0 0 0
-1.233 -0.283 1.603 255 255 255
0.076 -1.319 1.841 255 255 255
0.536 -0.044 1.159 255 255 255
-0.489 0.463 1.842 255 255 255
-0.48 -0.899 2.319 255 255 255
0.238 -0.14 1.753 255 255 255
-0.13 0.147 2.092 255 255 255
0.425 -0.098 1.372 255 255 255
-0.546 0.625 1.427 0 0 0
0.176 -0.703 1.8 0 0 0
0.393 0.344 1.526 255 255 255
0.566 0.049 1.115 255 255 255
-0.671 -0.906 2.428 255 255 255
-0.677 -1.347 2.271 255 255 255
-0.98 -0.883 2.274 255 255 255
0.047 0.001 2.176 255 255 255
-0.646 -0.485 2.581 255 255 255
0.425 -0.095 1.372 255 255 255
-0.798 0.252 2.381 255 255 255
0.214 0.2 1.881 255 255 255
0.643 -0.444 1.078 255 255 255
-0.288 -0.498 2.175 255 255 255
0.626 0.005 0.991 255 255 255
-0.56 0.366 2.095 255 255 255
0.058 0.692 1.368 255 255 255
0.075 -0.02 2.119 255 255 255
0.087 -0.057 2.089 255 255 255
-0.092 -0.099 2.009 255 255 255
0.429 0.305 1.44 255 255 255
-0.89 -0.953 2.296 255 255 255
-0.469 -1.087 2.261 255 255 255
0.481 0.513 1.296 255 255 255
-0.051 0.68 1.38 255 255 255
-0.704 0.543 1.656 255 255 255
0.492 -0.077 1.24 255 255 255
-0.278 -1.681 2.367 255 255 255
-0.425 -1.552 2.328 255 255 255
0.399 0.075 1.453 255 255 255
0.337 0.372 1.649 255 255 255
-0.446 -0.781 2.383 255 255 255
-0.005 -1.36 1.982 255 255 255
0.476 0.465 1.378 255 255 255
0.142 0.211 0.431 255 255 255
0.524 -0.147 1.152 0 0 0
0.344 -1.109 1.606 255 255 255
-0.79 0.449 1.933 255 255 255
0.427 -0.016 1.383 255 255 255
-1.156 -0.843 2.197 255 255 255
-0.104 0.692 1.326 255 255 255
0.23 0.477 1.885 255 255 255
-0.673 -0.34 2.616 255 255 255
-0.24 -0.302 1.857 255 255 255
-0.413 0.639 1.407 0 0 0
-0.719 -0.056 0.988 255 255 255
0.542 -0.224 1.243 255 255 255
-0.975 -0.099 2.543 255 255 255
0.44 0.329 1.419 255 255 255
-0.757 0.417 2.019 255 255 255
-0.186 0.149 2.06 255 255 255
-1.056 -1.114 2.148 255 255 255
0.313 0.377 1.707 255 255 255
-0.431 0.6 1.526 255 255 255
0.634 0.126 0.994 255 255 255
-0.023 -0.993 1.73 255 255 255
0.592 0.252 1.099 255 255 255
0.448 -0.272 1.382 255 255 255
0.532 -0.141 1.144 0 0 0
-0.796 -0.686 2.436 255 255 255
-0.521 0.566 1.619 255 255 255
0.282 0.082 1.696 255 255 255
0.398 0.188 1.476 255 255 255
0.6 0.091 1.056 255 255 255
0.335 0.56 1.678 255 255 255
0.08 0.056 2.128 255 255 255
0.03 -1.016 1.715 0 0 0
-1.185 -0.508 2.131 0 0 0
-0.544 0.002 0.841 255 255 255
-1.277 -0.591 1.872 255 255 255
0.332 -0.649 1.741 255 255 255
-0.008 -0.436 1.914 255 255 255
0.009 0.657 1.48 255 255 255
-0.16 -0.572 1.798 255 255 255
-0.775 -0.726 2.431 255 255 255
0.494 0.307 1.306 255 255 255
0.558 0.156 1.15 255 255 255
-0.423 -0.715 2.41 255 255 255
-0.432 -0.153 2.328 255 255 255
-0.043 -0.374 1.924 255 255 255
-0.787 -0.191 2.612 255 255 255
-0.417 0.085 0.742 255 255 255
-0.391 -1.608 2.332 255 255 255
0.122 -0.76 1.884 255 255 255
-1.314 -0.764 1.984 255 255 255
-0.486 -0.793 2.35 255 255 255
0.236 0.426 1.851 255 255 255
-0.123 -0.754 1.757 255 255 255
-0.146 -0.105 1.975 255 255 255
-1.181 -0.953 2.022 0 0 0
-0.977 -0.285 1.733 255 255 255
-0.322 0.489 1.798 255 255 255
-0.415 0.083 0.706 255 255 255
-0.922 0.125 2.493 255 255 255
-0.829 -0.096 2.621 255 255 255
0.322 0.036 1.603 255 255 255
-0.278 0.631 1.467 255 255 255
-0.827 -1.53 2.128 255 255 255
-0.572 0.504 1.815 255 255 255
0.554 0.114 1.151 255 255 255
-0.816 -0.319 2.549 255 255 255
-0.941 -1.383 2.12 255 255 255
0.614 -0.071 1.005 255 255 255
0.547 0.436 1.218 255 255 255
-0.598 -1.494 2.264 255 255 255
-0.601 -1.632 2.217 0 0 0
0.125 0.428 2.074 255 255 255
-0.387 0.241 0.76 255 255 255
-0.035 -0.797 1.789 255 255 255
-0.119 -0.794 1.742 255 255 255
0.412 0.444 1.517 255 255 255
0.232 0.447 1.875 255 255 255
0.035 -0.338 1.965 255 255 255
-0.686 -0.304 2.626 255 255 255
-0.111 -1.018 1.655 0 0 0
0.042 0.53 1.896 255 255 255
-0.449 0.699 1.239 255 255 255
-1.11 0.001 2.488 255 255 255
0.326 -0.412 1.756 255 255 255
0.574 0.296 1.147 255 255 255
0.021 0.074 2.164 255 255 255
0.388 0.649 1.555 255 255 255
-0.223 0.349 2.083 255 255 255
-0.496 0.654 1.346 255 255 255
0.339 -0.454 1.819 255 255 255
-1.18 -0.655 2.053 0 0 0
0.236 -0.516 1.775 255 255 255
0.346 0.24 1.593 255 255 255
-0.428 0.077 0.778 255 255 255
0.326 -0.542 1.773 255 255 255
0.541 0.013 1.158 255 255 255
-0.285 0.566 1.689 255 255 255
0.479 -0.191 1.145 0 0 0
-0.863 -1.067 2.265 255 255 255
0.425 0.332 1.453 255 255 255
0.384 0.185 1.507 255 255 255
-0.659 -1.032 2.389 255 255 255
-0.905 -0.898 2.307 255 255 255
0.138 -0.059 1.992 255 255 255
-0.347 -0.518 2.176 255 255 255
0.424 0.551 1.479 255 255 255
0.414 -0.022 1.408 255 255 255
-0.479 0.034 0.807 255 255 255
0.529 0.461 1.248 255 255 255
0.433 0.388 1.449 255 255 255
-0.015 0.681 1.389 255 255 255
0.452 0.417 1.421 255 255 255
-0.523 -0.983 2.387 255 255 255
-0.592 -0.601 2.569 255 255 255
0.522 0.006 1.197 255 255 255
0.035 -0.432 1.93 255 255 255
0.03 -1.035 1.708 0 0 0
0.054 -0.155 2.124 255 255 255
-0.267 0.441 1.897 255 255 255
-0.015 0.552 1.819 255 255 255
-0.119 -0.787 1.747 255 255 255
0.444 0.353 1.419 255 255 255
-0.688 0.572 1.56 255 255 255
-0.993 -0.591 2.368 255 255 255
-0.092 0.425 1.805 255 255 255
-0.791 -0.926 2.351 255 255 255
-0.625 -0.232 2.678 255 255 255
-0.999 -0.711 2.32 255 255 255
-0.265 0.652 1.399 255 255 255
0.573 -0.13 0.964 0 0 0
-0.651 -0.612 2.537 255 255 255
-0.629 -0.663 2.528 255 255 255
0.39 0.039 1.466 255 255 255
-0.999 -0.248 2.48 255 255 255
0.629 -0.198 1.115 255 255 255
0.518 0.062 1.212 255 255 255
0.138 0.574 1.775 255 255 255
0.053 0.535 1.885 255 255 255
-0.777 0.459 1.886 255 255 255
-0.168 -0.043 2 255 255 255
0.212 0.016 1.84 255 255 255
-0.52 -1.052 2.377 0 0 0
-0.14 0.556 1.743 255 255 255
0.126 -1.312 1.753 0 0 0
0.512 0.21 1.258 255 255 255
-0.443 0.064 0.72 255 255 255
-0.771 -0.881 2.385 255 255 255
-0.735 0.503 1.772 255 255 255
-0.516 -0.672 2.395 255 255 255
0.064 0.586 1.743 255 255 255
-0.558 -0.009 2.605 255 255 255
-1.118 0.037 2.44 255 255 255
0.049 -0.82 1.802 255 255 255
-0.177 -0.203 1.92 255 255 255
0.116 -1.064 1.818 0 0 0
-0.736 -0.106 1.12 255 255 255
-0.193 -0.674 1.735 255 255 255
-0.096 -0.482 1.874 255 255 255
0.122 -0.862 1.863 255 255 255
0.58 0.108 1.096 255 255 255
0.4 -0.02 1.433 255 255 255
-0.828 -0.01 2.618 255 255 255
-1.035 -0.579 2.35 255 255 255
-0.005 -1.327 1.959 0 0 0
-0.663 -1.329 2.287 255 255 255
0.527 -0.067 1.175 255 255 255
0.552 -0.024 1.134 255 255 255
0.479 0.382 1.355 255 255 255
-0.923 0.358 1.983 255 255 255
0.181 0.62 1.639 255 255 255
0.497 0.008 1.253 255 255 255
-0.831 -1.111 2.269 255 255 255
-0.237 -1.755 2.36 0 0 0
0.057 -0.621 1.877 255 255 255
0.497 0.329 1.303 255 255 255
-0.423 0.699 1.233 255 255 255
-0.202 -0.335 1.85 255 255 255
-1.295 -0.892 2.101 255 255 255
-1.138 -1.071 2.128 255 255 255
-0.117 -0.418 1.865 255 255 255
0.322 0.41 1.695 255 255 255
-0.055 0.097 2.105 255 255 255
-0.66 -0.505 2.568 255 255 255
-0.068 -0.709 1.8 255 255 255
-0.977 -0.279 2.48 255 255 255
-0.643 -0.015 2.738 255 255 255
0.057 -0.825 1.803 255 255 255
0.636 0.091 0.982 255 255 255
0.213 -0.769 1.699 0 0 0
-0.305 0.395 2.005 255 255 255
0.607 -0.1 0.984 255 255 255
-0.654 -1.054 2.386 255 255 255
0.373 0.436 1.594 255 255 255
-0.71 0.568 1.577 255 255 255
-1.004 -0.802 2.284 255 255 255
-1.14 -0.886 2.188 255 255 255
0.312 0.394 1.718 255 255 255
-0.557 -1.008 2.445 255 255 255
0.286 0.11 1.696 255 255 255
-1.161 -0.377 1.624 255 255 255
0.011 -0.253 1.986 255 255 255
0.557 0.362 1.193 255 255 255
-0.421 0.078 0.703 255 255 255
-1.094 -1.235 2.088 255 255 255
-1.041 -0.81 2.264 255 255 255
0.257 -0.14 1.708 255 255 255
-0.703 -0.988 2.384 255 255 255
-0.671 -0.076 2.709 255 255 255
-0.545 -1.29 2.349 255 255 255
-0.026 0.442 1.799 255 255 255
0.219 -0.356 1.745 255 255 255
-0.723 0.453 1.91 255 255 255
-0.27 0.386 2.05 0 0 0
0.566 0.403 1.179 255 255 255
0.602 -0.274 1.16 255 255 255
-0.522 0.634 1.412 0 0 0
-0.591 0.629 1.407 0 0 0
-0.966 0.229 2.145 255 255 255
-1.136 0.142 2.462 255 255 255
-1.064 0.169 2.487 255 255 255
-0.721 0.482 1.839 0 0 0
-0.608 -0.039 1.077 255 255 255
-0.385 0.109 0.69 255 255 255
0.413 0.439 1.509 255 255 255
0.042 -0.664 1.847 255 255 255
0.387 -0.236 1.406 0 0 0
0.324 -0.28 1.516 255 255 255
-0.15 0.67 1.367 255 255 255
0.416 0.474 1.514 255 255 255
0.433 0.297 1.43 255 255 255
-0.113 -0.083 2.01 255 255 255
-0.353 -0.217 2.309 255 255 255
-0.057 -0.899 1.74 255 255 255
0.122 -0.303 1.969 255 255 255
-0.252 0.537 1.798 255 255 255
0.538 0.373 1.23 255 255 255
-0.213 0.614 1.51 255 255 255
-1.125 -1.216 2.087 255 255 255
-0.698 -0.513 2.544 255 255 255
-0.11 -0.516 1.851 255 255 255
-0.137 -0.171 1.954 255 255 255
-0.054 -0.396 1.912 255 255 255
-0.418 0.593 1.558 255 255 255
-0.33 0.524 1.77 255 255 255
0.034 -0.783 1.807 255 255 255
-0.131 0.177 2.107 255 255 255
-0.792 -1.439 2.178 255 255 255
0.543 -0.007 1.155 255 255 255
0.399 -0.058 1.43 255 255 255
-0.339 0.152 0.611 255 255 255
-0.747 0.387 2.047 255 255 255
0.254 0.671 1.489 255 255 255
-1.025 -0.351 1.711 255 255 255
-0.155 -0.968 1.667 255 255 255
-0.873 -0.338 2.517 255 255 255
-0.544 0.44 1.945 255 255 255
-0.516 -0.658 2.401 255 255 255
-0.877 -0.287 2.531 255 255 255
0.197 -0.896 1.718 0 0 0
-0.958 -1.299 2.14 255 255 255
0.381 0.677 1.484 255 255 255
0.616 -0.541 1.072 255 255 255
0.276 0.069 1.703 255 255 255
-0.273 0.552 1.732 255 255 255
0.571 -0.049 1.093 255 255 255
-0.604 -0.216 2.686 255 255 255
0.234 0.436 1.86 255 255 255
-0.124 0.279 2.136 255 255 255
0.186 -0.16 1.868 255 255 255
0.105 0.334 2.102 255 255 255
0.133 -0.879 1.84 255 255 255
-0.786 -1.204 2.266 255 255 255
-0.788 -0.558 2.485 255 255 255
-0.359 -0.905 2.202 255 255 255
-0.209 0.057 2.014 255 255 255
0.069 -0.466 2.025 0 0 0
-0.553 0.471 1.883 0 0 0
-0.648 -0.46 2.59 255 255 255
-0.216 -0.215 1.888 255 255 255
-0.767 -1.227 2.268 255 255 255
-0.346 0.02 2.335 255 255 255
-1.181 -0.2 2.405 255 255 255
-0.924 -1.636 2.051 255 255 255
-0.544 0.392 2.068 255 255 255
-0.974 -0.254 2.489 255 255 255
-0.846 -1.095 2.268 255 255 255
-0.443 0.692 1.253 255 255 255
0.339 -1.208 1.579 0 0 0
-0.886 -0.482 2.457 255 255 255
-0.163 -0.07 1.987 255 255 255
0.421 0.583 1.511 255 255 255
0.108 0.557 1.821 255 255 255
-0.8 -0.798 2.392 255 255 255
-0.575 -0.845 2.495 255 255 255
0.511 -0.171 1.096 0 0 0
-0.667 -0.862 2.446 255 255 255
0.136 -1.18 1.769 255 255 255
-1.011 0.353 2.164 0 0 0
0.008 0.364 2.031 255 255 255
-0.199 -0.773 1.701 255 255 255
0.639 -0.09 0.923 255 255 255
-0.017 -0.207 2.006 255 255 255
-0.897 -0.546 2.431 255 255 255
-1.061 -0.362 2.412 255 255 255
0.606 0.157 1.057 255 255 255
-0.284 0.545 1.758 255 255 255
-0.639 -1.608 2.205 0 0 0
-0.608 -0.467 2.608 255 255 255
0.616 0.098 1.026 255 255 255
0.501 0.082 1.254 255 255 255
-0.008 -0.755 1.8 255 255 255
-1.152 0.048 2.423 255 255 255
-0.165 -0.475 1.84 255 255 255
0.416 0.513 1.52 255 255 255
0.085 -0.269 2.043 255 255 255
-1.022 -0.356 1.697 255 255 255
-0.61 -0.416 2.624 255 255 255
-0.081 -0.481 1.884 255 255 255
-0.761 -0.123 2.642 255 255 255
-0.805 -1.632 2.115 255 255 255
0.477 -0.01 1.285 255 255 255
-0.481 -1.475 2.336 255 255 255
-0.886 -1.422 2.137 255 255 255
-0.772 -0.553 2.489 255 255 255
-0.826 -0.124 1.146 0 0 0
-0.81 -0.201 2.594 255 255 255
-0.752 -0.605 2.486 255 255 255
0.336 0.206 1.611 255 255 255
0.382 -0.185 1.441 255 255 255
-0.728 0.468 1.884 255 255 255
0.552 -0.248 1.271 255 255 255
-0.938 -0.338 1.764 255 255 255
-0.048 -1.47 2.069 255 255 255
-0.887 -1.469 2.119 255 255 255
-0.054 -0.538 1.874 255 255 255
-1.094 0.111 2.463 255 255 255
-0.397 0.1 0.719 255 255 255
-0.173 -0.089 1.971 255 255 255
0.427 0.382 1.464 255 255 255
-1.102 -0.907 2.199 255 255 255
0.089 0.38 2.121 255 255 255
-0.756 0.433 1.965 255 255 255
0.295 0.228 1.703 255 255 255
-0.597 0.134 2.431 255 255 255
-0.485 -0.884 2.322 255 255 255
-0.42 0.554 1.681 255 255 255
0.225 0.677 1.466 255 255 255
0.596 -0.097 1.034 255 255 255
-0.681 -0.075 2.703 255 255 255
0.65 0.081 0.956 255 255 255
-1.015 0.227 2.116 0 0 0
-0.197 0.252 2.089 255 255 255
-0.275 0.642 1.429 0 0 0
-1.241 -0.68 1.996 255 255 255
-0.079 -0.982 1.702 255 255 255
0.133 0.21 0.454 255 255 255
0.633 0.054 0.987 255 255 255
0.386 0.584 1.577 255 255 255
0.613 -0.456 1.091 255 255 255
-0.698 -1.63 2.166 255 255 255
-1.122 -0.389 1.646 255 255 255
-0.12 0.698 1.311 255 255 255
-0.485 0.564 1.632 255 255 255
-0.551 -0.02 2.6 255 255 255
0.345 -1.065 1.612 255 255 255
-0.512 -0.902 2.351 255 255 255
0.389 0.403 1.555 255 255 255
-1.26 -1.019 2.076 255 255 255
0.525 0.064 1.202 255 255 255
0.004 0.137 2.139 255 255 255
-0.495 0.402 1.973 0 0 0
-1.215 -0.056 2.442 255 255 255
0.467 -0.545 1.981 255 255 255
0.451 0.293 1.39 255 255 255
-0.012 -0.615 1.848 255 255 255
-0.464 0.657 1.344 255 255 255
-0.511 -1.588 2.277 255 255 255
-0.644 -0.053 0.999 255 255 255
0.336 -0.917 1.661 255 255 255
0.252 -0.5 1.783 255 255 255
0.533 0.001 1.178 255 255 255
0.441 0.415 1.44 255 255 255
-1.016 -1.212 2.138 255 255 255
-1.021 -1.217 2.134 255 255 255
0.627 0.113 1.006 255 255 255
0.46 -0.097 1.307 255 255 255
-0.061 -0.874 1.75 255 255 255
0.03 -1.311 1.935 255 255 255
-0.452 -0.858 2.342 255 255 255
0.075 -0.091 2.1 255 255 255
-0.721 -1.434 2.217 255 255 255
0.015 0.532 1.876 255 255 255
0.203 0.667 1.493 255 255 255
-0.356 0.42 1.96 255 255 255
-0.827 0.055 2.598 255 255 255
0.592 0.25 1.099 255 255 255
-1.038 -0.472 2.386 255 255 255
0.307 -0.865 1.682 255 255 255
0.496 0.05 1.257 255 255 255
0.315 -0.971 1.65 255 255 255
-0.678 0.555 1.616 255 255 255
-0.353 0.468 1.805 255 255 255
-0.777 -0.418 2.541 255 255 255
-0.196 0.673 1.357 255 255 255
0.458 0.486 1.427 255 255 255
0.591 0.085 1.071 255 255 255
-0.824 -0.273 2.562 255 255 255
-0.21 -0.386 1.818 255 255 255
-0.711 -0.078 1.051 255 255 255
0.082 -0.144 2.08 255 255 255
-0.962 -0.255 1.776 255 255 255
0.997 -0.483 2.29 255 255 255
0.649 -0.245 1.145 255 255 255
0.633 -0.277 1.127 255 255 255
-0.65 -1.059 2.387 255 255 255
-0.392 0.649 1.386 255 255 255
-0.02 -0.384 1.933 255 255 255
-0.276 0.541 1.781 255 255 255
0.219 -0.853 1.666 0 0 0
-0.914 -0.771 2.346 255 255 255
0.564 0.333 1.17 255 255 255
0.493 0.301 1.305 255 255 255
0.644 -0.068 0.94 255 255 255
0.007 -0.57 1.872 255 255 255
0.326 0.148 1.618 255 255 255
0.267 -0.009 1.709 255 255 255
-0.551 -1.611 2.245 255 255 255
-0.157 0.104 2.063 255 255 255
0.702 -0.186 0.985 255 255 255
-0.038 -1.424 2.057 255 255 255
-0.477 -0.858 2.339 255 255 255
-0.962 0.356 1.983 0 0 0
-0.042 -0.891 1.751 255 255 255
-0.557 -1.699 2.209 255 255 255
-1.108 -1.017 2.155 255 255 255
-0.218 0.157 2.051 255 255 255
-0.39 0.161 0.757 255 255 255
0.213 -0.541 1.757 255 255 255
0.277 0.293 1.762 255 255 255
0.258 0.296 1.807 255 255 255
-1.066 -1.113 2.144 255 255 255
0.141 0.194 0.45 255 255 255
-0.667 -0.076 1.076 255 255 255
0.394 0.227 1.495 255 255 255
-0.648 0.544 1.663 255 255 255
-1.021 0.349 2.164 255 255 255
0.25 -0.034 1.739 255 255 255
0.618 -0.466 1.08 255 255 255
0.614 -0.474 1.088 255 255 255
0.194 -0.979 1.7 0 0 0
-0.896 0.349 2.201 255 255 255
0.569 0.124 1.118 255 255 255
-0.074 -1.531 2.119 0 0 0
-0.031 -0.518 1.874 255 255 255
0.283 -0.323 1.51 0 0 0
0.353 0.315 1.603 255 255 255
-0.78 -0.895 2.374 255 255 255
-0.138 -0.137 1.972 255 255 255
-0.564 0.524 1.759 255 255 255
-0.499 0.019 0.765 255 255 255
0.327 -0.063 1.575 255 255 255
0.613 -0.386 1.108 255 255 255
0.118 -0.767 1.891 255 255 255
-0.537 0.544 1.689 255 255 255
-0.537 -1.628 2.251 0 0 0
-0.729 -0.886 2.406 255 255 255
-0.859 -0.172 1.292 255 255 255
0.183 -0.123 1.879 255 255 255
-0.376 -1.641 2.331 255 255 255
0.391 0.487 1.574 255 255 255
0.359 0.295 1.583 255 255 255
-0.64 -0.064 1.092 255 255 255
0.163 -0.763 1.806 255 255 255
-0.901 -0.382 2.481 255 255 255
-0.21 0.945 2.053 255 255 255
-0.389 0.163 0.762 255 255 255
0.097 -0.142 2.044 255 255 255
-0.543 0.577 1.579 255 255 255
0.019 0.622 1.575 255 255 255
-1.039 0.219 2.113 0 0 0
-0.945 -0.993 2.254 255 255 255
-1.15 -1.217 2.055 255 255 255
0.361 0.502 1.605 255 255 255
0.321 -0.465 1.802 255 255 255
-0.498 0.013 0.801 255 255 255
-0.583 -0.02 1.038 255 255 255
-0.649 -0.541 2.561 255 255 255
-0.199 0.687 1.324 255 255 255
0.58 -0.028 1.079 255 255 255
-0.19 0.376 2.093 255 255 255
0.397 0.251 1.491 255 255 255
0.178 -0.083 1.906 255 255 255
0.463 0.348 1.378 255 255 255
0.118 -1.278 1.774 255 255 255
-0.905 0.407 1.947 255 255 255
0.64 0.116 0.982 255 255 255
0.317 0.622 1.642 255 255 255
0.156 -0.571 1.857 255 255 255
-0.429 0.581 1.592 255 255 255
0.585 -0.002 1.068 255 255 255
0.261 -0.243 1.681 255 255 255
-1.172 -0.821 2.188 255 255 255
-0.392 0.428 1.934 255 255 255
0.328 -0.288 1.503 0 0 0
0.183 0.647 1.559 255 255 255
0.307 -1.041 1.616 255 255 255
-0.863 0.012 2.586 255 255 255
0.409 -0.295 1.446 255 255 255
-0.696 0.057 2.74 255 255 255
-0.595 0.589 1.527 255 255 255
-0.704 0.184 2.353 255 255 255
-0.716 -0.391 2.583 255 255 255
-0.476 0.68 1.283 255 255 255
0.242 -0.104 1.752 255 255 255
-0.363 -0.075 2.231 255 255 255
0.585 0.095 1.086 255 255 255
-0.742 -0.714 2.451 255 255 255
-1.114 -0.56 2.311 255 255 255
-1.179 -0.792 2.197 255 255 255
-0.008 -0.934 1.74 255 255 255
-0.451 0.657 1.355 255 255 255
-0.407 0.087 0.64 255 255 255
0.432 0.072 1.387 255 255 255
-0.093 0.152 2.109 255 255 255
-0.949 0.069 2.522 255 255 255
-0.635 -1.62 2.204 0 0 0
-0.092 -0.494 1.871 255 255 255
0.306 -0.012 1.621 255 255 255
0.321 0.059 1.61 255 255 255
-1.094 -0.835 2.225 255 255 255
-0.77 0.477 1.855 255 255 255
-0.384 0.619 1.482 255 255 255
-0.372 -0.82 2.219 255 255 255
-0.985 0.264 2.128 255 255 255
0.15 -0.353 1.914 255 255 255
-0.846 -0.314 2.538 255 255 255
0.05 0.503 1.901 255 255 255
0 -0.351 1.95 255 255 255
-0.869 -0.847 2.341 255 255 255
0.34 0.225 1.6 255 255 255
-0.481 -0.434 2.492 255 255 255
-0.887 -1.459 2.124 255 255 255
0.4 0.19 1.472 255 255 255
-0.218 0.937 2.047 255 255 255
-0.331 0.685 1.295 255 255 255
-0.639 0.521 1.745 255 255 255
0.493 -0.542 1.982 255 255 255
0.385 -0.041 1.458 255 255 255
0.108 -0.844 1.894 0 0 0
0.16 -0.358 1.898 255 255 255
0.604 -0.304 1.142 255 255 255
-0.34 0.685 1.293 255 255 255
-0.615 -1.575 2.231 255 255 255
0.616 -0.024 1.006 255 255 255
-0.089 -0.063 2.021 255 255 255
-0.262 0.659 1.383 255 255 255
-0.587 0.094 2.69 255 255 255
0.632 -0.058 0.968 255 255 255
-0.981 -0.28 1.637 0 0 0
0.139 -0.799 1.841 255 255 255
-0.453 0.696 1.245 255 255 255
0.277 -0.399 1.768 255 255 255
0.281 0.213 1.726 255 255 255
-0.608 -0.029 0.94 255 255 255
-0.251 -0.057 1.932 255 255 255
0.584 -0.057 1.065 255 255 255
0.267 -0.091 1.691 255 255 255
-1.022 -0.12 2.514 255 255 255
0.237 0.434 1.853 255 255 255
-0.748 -1.575 2.154 0 0 0
-1.005 -0.667 2.33 255 255 255
-0.501 -0.067 2.589 255 255 255
-0.463 0.538 1.709 0 0 0
-1.035 -1.033 2.189 255 255 255
-0.231 -0.091 1.926 255 255 255
0.083 -0.795 1.884 0 0 0
0.043 0.142 2.212 255 255 255
-0.101 0.541 1.822 255 255 255
-1.202 -0.23 2.384 255 255 255
0.6 -0.047 1.034 255 255 255
-0.788 -1.517 2.149 255 255 255
0.546 0.067 1.16 255 255 255
-0.603 -0.011 0.87 0 0 0
-1.307 -0.729 2.001 255 255 255
-0.172 0.519 1.866 255 255 255
-0.515 -0.194 2.552 255 255 255
-0.309 0.673 1.336 255 255 255
-0.975 -0.146 2.527 255 255 255
0.245 0.576 1.771 255 255 255
-1.048 -0.882 2.237 255 255 255
0.137 -0.919 1.82 255 255 255
0.241 -0.96 1.623 255 255 255
0 -1.006 1.721 255 255 255
-1.059 -0.411 2.388 255 255 255
-0.436 -0.589 2.448 255 255 255
0.13 -0.987 1.817 255 255 255
0.212 0.209 1.893 255 255 255
0.509 0.042 1.227 255 255 255
0.648 -0.179 1.073 255 255 255
-0.868 -1.496 2.116 255 255 255
-0.141 0.473 1.921 255 255 255
0.391 0.412 1.549 255 255 255
-0.251 0.834 2.054 255 255 255
-0.279 0.676 1.332 255 255 255
-0.639 0.356 2.072 255 255 255
0.494 0.304 1.306 255 255 255
-0.653 -0.367 2.62 255 255 255
0.376 0.292 1.544 255 255 255
0.462 0.157 1.344 255 255 255
0.241 0.45 1.855 255 255 255
-0.365 0.181 0.711 255 255 255
-1.105 -0.386 2.379 255 255 255
0.327 -0.963 1.657 255 255 255
0.132 0.535 1.909 255 255 255
0.336 -0.283 1.414 0 0 0
-0.282 0.534 1.798 0 0 0
-0.225 -0.382 1.818 255 255 255
-0.99 0.054 2.508 255 255 255
-0.004 -1.076 1.736 255 255 255
-0.526 0.631 1.414 0 0 0
-0.481 0.043 0.856 255 255 255
0.207 0.664 1.502 255 255 255
0.084 -0.952 1.78 255 255 255
-0.789 -0.843 2.382 255 255 255
-0.612 0.609 1.47 255 255 255
-0.259 0.338 2.069 255 255 255
0.645 -0.045 0.947 255 255 255
-0.864 -1.243 2.206 255 255 255
-0.625 -0.643 2.536 255 255 255
-0.251 -1.67 2.374 255 255 255
0.152 -0.073 1.96 255 255 255
0.577 0.18 1.118 255 255 255
0.441 0.253 1.403 255 255 255
0.629 0.074 0.993 255 255 255
0.61 -0.092 0.993 255 255 255
0.345 0.499 1.633 255 255 255
-0.148 -0.677 1.768 255 255 255
0.537 -0.014 1.167 255 255 255
-0.558 -1.452 2.298 255 255 255
-0.134 -0.011 2.027 255 255 255
0.533 -0.146 1.123 255 255 255
-0.422 0.082 0.692 255 255 255
0.555 0.123 1.147 255 255 255
-0.298 -0.877 2.214 255 255 255
0.011 -0.809 1.788 255 255 255
0.473 0.448 1.382 255 255 255
-0.875 -1.014 2.284 255 255 255
-0.854 0.481 1.831 255 255 255
0.603 -0.108 0.994 255 255 255
-0.632 0.463 1.936 255 255 255
-0.185 -0.868 1.673 255 255 255
-0.784 0.242 2.235 255 255 255
-0.372 0.655 1.38 255 255 255
-0.213 -0.32 1.85 255 255 255
0.554 -0.062 1.124 255 255 255
-0.532 -0.139 2.583 255 255 255
-0.445 -0.946 2.305 255 255 255
-0.376 0.171 0.735 255 255 255
0.675 -0.364 1.132 255 255 255
0.051 0.668 1.433 255 255 255
-0.053 -0.084 2.032 255 255 255
-0.936 0.342 2.21 255 255 255
0.352 0.4 1.631 255 255 255
0.458 0.566 1.42 255 255 255
0.16 0.02 1.967 255 255 255
-1.255 -0.637 1.935 255 255 255
-0.159 -1.675 2.286 0 0 0
0.118 -1.224 1.789 255 255 255
0.514 -0.083 1.197 255 255 255
0.575 -0.136 0.959 0 0 0
0.603 -0.088 1.023 255 255 255
0.385 0.652 1.554 255 255 255
0.039 -1.277 1.927 255 255 255
0.369 0.007 1.505 255 255 255
-0.415 0.668 1.321 255 255 255
-0.735 0.272 2.347 255 255 255
-0.976 -1.302 2.128 255 255 255
-1.006 -1.493 2.052 0 0 0
0.654 -0.023 0.932 255 255 255
-1.108 0.163 2.467 255 255 255
0.321 0.252 1.651 255 255 255
0.491 -0.049 1.246 255 255 255
0.135 0.2 0.446 0 0 0
0.417 0.363 1.478 255 255 255
0.443 0.456 1.448 255 255 255
-0.93 -0.293 1.78 255 255 255
0.383 0.082 1.486 255 255 255
-0.185 0.858 2.094 255 255 255
-0.938 -0.617 2.382 255 255 255
-0.663 -1.22 2.324 255 255 255
-0.037 0.705 1.316 255 255 255
-0.858 -0.344 2.522 255 255 255
0.528 0.363 1.246 255 255 255
0.61 -0.342 1.123 255 255 255
-0.227 0.837 2.075 255 255 255
0.339 -0.78 1.702 255 255 255
-0.61 0.635 1.383 255 255 255
-0.95 0.255 2.142 255 255 255
-1.088 0.193 2.445 255 255 255
-0.812 -0.62 2.448 255 255 255
-0.577 -1.099 2.41 255 255 255
0.594 -0.107 1.012 255 255 255
0.592 0.237 1.1 255 255 255
-0.053 -0.78 1.789 255 255 255
0.142 -0.565 1.88 255 255 255
-0.544 0.364 2.085 255 255 255
0.492 0.056 1.269 255 255 255
0.083 -0.082 2.09 255 255 255
-0.947 -1.224 2.17 255 255 255
-0.925 0.351 2.208 255 255 255
-0.552 0.086 2.631 255 255 255
-0.571 0.214 2.084 255 255 255
-0.831 -1.603 2.107 255 255 255
-0.425 0.59 1.559 255 255 255
-0.462 -0.912 2.328 255 255 255
0.551 0.015 1.142 255 255 255
-0.467 -1.632 2.287 255 255 255
-0.231 0.19 2.055 255 255 255
-0.215 0.341 2.09 255 255 255
-0.749 0.56 1.587 255 255 255
-0.352 0.46 1.821 255 255 255
0.397 0.108 1.466 255 255 255
-0.739 -1.073 2.333 255 255 255
-0.425 -1.078 2.27 255 255 255
-0.244 0.655 1.4 255 255 255
0.324 0.594 1.689 255 255 255
0.166 0.569 1.794 255 255 255
-0.625 0.41 2.035 255 255 255
-0.589 0.174 2.438 255 255 255
0.586 0.136 1.089 255 255 255
-0.252 0.109 2 255 255 255
-0.232 0.877 2.067 255 255 255
-0.884 -0.806 2.346 255 255 255
-0.734 -0.161 2.646 255 255 255
-0.277 -1.641 2.371 255 255 255
-0.091 -1.113 1.67 255 255 255
-0.508 0.576 1.584 255 255 255
-0.411 -1.587 2.33 255 255 255
-0.775 -1.482 2.178 255 255 255
-0.905 0.298 2.203 255 255 255
0.234 -0.628 1.735 255 255 255
0.473 -0.026 1.289 255 255 255
-0.32 0.545 1.752 255 255 255
-0.635 -0.814 2.477 255 255 255
0.406 0.261 1.475 255 255 255
0.237 0.34 1.868 255 255 255
-0.715 -0.406 2.578 255 255 255
-0.444 0.309 2.31 255 255 255
-1.004 -0.362 1.714 255 255 255
0.58 0.149 1.105 255 255 255
-1.064 -0.333 2.421 255 255 255
-0.291 0.419 1.959 255 255 255
0.089 0.533 1.905 255 255 255
-0.033 -0.179 2.008 255 255 255
-0.558 0.613 1.465 255 255 255
-0.585 -1.621 2.224 0 0 0
-0.475 -0.563 2.442 255 255 255
0.101 0.205 2.129 255 255 255
0.085 -0.407 2.025 255 255 255
-0.58 -1.287 2.338 255 255 255
-0.314 0.549 1.74 255 255 255
-0.312 0.623 1.478 255 255 255
-0.33 0.243 2.276 255 255 255
0.663 -0.008 0.921 255 255 255
0.199 -0.791 1.732 0 0 0
0.618 -0.414 1.094 255 255 255
-0.426 0.077 0.67 255 255 255
-0.979 -1.166 2.173 255 255 255
0.33 -0.109 1.557 255 255 255
0.637 0.062 0.981 255 255 255
0.381 0.481 1.591 255 255 255
-0.446 0.398 1.962 0 0 0
-0.001 -1.263 1.897 255 255 255
0.452 -0.237 1.265 255 255 255
-0.976 0.285 2.151 255 255 255
0.534 -0.083 1.158 255 255 255
0.236 -0.059 1.766 255 255 255
0.299 0.202 1.69 255 255 255
0.582 0.259 1.123 255 255 255
-1.129 -0.416 1.659 255 255 255
-0.294 -0.607 2.167 255 255 255
0.409 0.124 1.442 255 255 255
-1.124 -1.073 2.136 255 255 255
0.08 -0.7 1.934 0 0 0
0.03 0.681 1.403 255 255 255
-0.461 0.577 1.596 255 255 255
0.546 0.151 1.173 255 255 255
0.421 -0.232 1.322 0 0 0
-0.852 -1.584 2.093 255 255 255
0.633 0.016 0.98 255 255 255
0.305 0.359 1.725 255 255 255
0.102 -0.036 2.069 255 255 255
0.172 -0.997 1.74 255 255 255
0.004 0.043 2.098 255 255 255
-0.901 -0.457 2.456 255 255 255
-0.912 -1.27 2.177 255 255 255
-0.157 0.001 2.017 255 255 255
-0.298 -0.266 2.147 255 255 255
-0.111 0.7 1.31 255 255 255
-0.794 -1.125 2.284 255 255 255
0.225 0.321 1.893 255 255 255
0.074 -0.387 2.051 255 255 255
-1.069 -0.958 2.2 255 255 255
-1.139 -0.487 2.326 255 255 255
-0.023 0.701 1.289 255 255 255
-0.502 0.013 0.826 255 255 255
-0.005 -0.144 2.024 255 255 255
0.248 -0.86 1.661 255 255 255
-0.892 -0.398 2.485 255 255 255
-0.183 -1.69 2.325 0 0 0
0.604 -0.297 1.144 255 255 255
0.227 0.301 1.885 255 255 255
0.247 -0.57 1.76 255 255 255
0.133 0.208 0.45 255 255 255
-0.871 -1.316 2.183 255 255 255
0.623 0.052 0.999 255 255 255
-0.768 0.436 1.959 255 255 255
-0.026 0.051 2.096 255 255 255
-0.794 -1.191 2.261 255 255 255
-0.982 -1.614 2.021 255 255 255
-0.677 0.501 1.797 255 255 255
0.402 0.039 1.442 255 255 255
0.588 0.057 1.073 255 255 255
-0.581 -0.016 0.923 255 255 255
-1.009 -0.827 2.277 255 255 255
-0.776 -1.012 2.331 255 255 255
0.297 0.678 1.474 255 255 255
0.291 0.2 1.704 255 255 255
-0.138 -0.561 1.814 255 255 255
-1.04 -0.329 1.715 255 255 255
0.162 0.497 2.004 255 255 255
0.63 -0.211 1.116 255 255 255
-0.079 -1.016 1.682 0 0 0
0.325 -0.271 1.537 255 255 255
-0.39 0.684 1.282 255 255 255
-0.001 -0.34 1.954 255 255 255
-1.078 -0.45 1.753 255 255 255
-0.878 -0.693 2.385 255 255 255
-1.208 -0.917 2.085 255 255 255
-0.644 -1.305 2.304 255 255 255
-0.489 0.686 1.264 255 255 255
0.286 0.483 1.767 255 255 255
0.628 0.058 0.993 255 255 255
0.239 0.323 1.858 255 255 255
-0.174 -0.078 1.976 255 255 255
0.596 -0.104 1.011 255 255 255
0.042 -1.083 1.731 255 255 255
-0.005 -0.052 2.054 255 255 255
-0.023 -1.035 1.692 0 0 0
0.17 -0.261 1.891 255 255 255
0.463 -0.123 1.291 255 255 255
-0.638 0.505 1.791 255 255 255
-1.139 -0.276 2.399 255 255 255
0.031 0.228 2.229 255 255 255
0.222 0.265 1.881 255 255 255
-0.537 0.651 1.352 255 255 255
-0.586 -0.007 0.863 0 0 0
-0.261 0.511 1.843 255 255 255
0.619 0.128 1.028 255 255 255
-0.484 -0.951 2.301 255 255 255
-0.059 0.561 1.784 255 255 255
0.415 0.079 1.421 255 255 255
-0.84 0.489 1.75 0 0 0
0.086 -0.156 2.068 255 255 255
-0.454 0.374 2.058 255 255 255
-0.273 0.573 1.658 255 255 255
-1.204 -0.896 2.028 255 255 255
0.354 -0.033 1.524 255 255 255
-0.231 -0.184 1.888 255 255 255
-0.3 0.456 1.855 255 255 255
-0.877 -0.542 2.44 255 255 255
0.258 -0.568 1.763 255 255 255
-0.488 0.674 1.295 255 255 255
-0.236 0.415 2.008 255 255 255
-0.212 -0.887 1.717 255 255 255
-0.971 -0.742 2.326 255 255 255
-0.662 -0.377 2.611 255 255 255
-0.513 -1.12 2.35 255 255 255
0.546 0.344 1.212 255 255 255
-0.352 -1.712 2.323 0 0 0
0.621 0.063 1.008 255 255 255
-1.081 -1.252 2.09 255 255 255
-0.259 0.239 2.048 255 255 255
-1.195 -0.734 2.117 0 0 0
-0.366 -0.54 2.149 255 255 255
-0.978 -1.34 2.119 255 255 255
0.219 0.03 1.83 255 255 255
0.073 -0.757 1.845 255 255 255
0.28 0.103 1.705 255 255 255
-0.901 0.064 2.546 255 255 255
-0.196 -0.511 1.801 255 255 255
0.148 0.208 0.427 255 255 255
0.361 -1.19 1.579 0 0 0
0.273 0.2 1.742 255 255 255
0.12 -1.04 1.827 0 0 0
0.606 -0.229 1.158 255 255 255
-0.739 -0.075 1.028 255 255 255
0.615 0.141 1.035 255 255 255
0.49 0.471 1.352 255 255 255
-0.232 0.647 1.429 255 255 255
0.624 -0.4 1.091 255 255 255
-0.622 -0.038 0.966 255 255 255
-0.23 0.173 2.052 255 255 255
-0.481 0.055 0.901 255 255 255
-0.137 0.405 2.114 255 255 255
-0.853 0.258 2.189 255 255 255
-0.52 0.61 1.476 255 255 255
-0.098 0.673 1.384 255 255 255
0.342 -0.172 1.521 255 255 255
-0.111 -0.473 1.869 255 255 255
0.539 0.035 1.17 255 255 255
-0.589 0.379 2.084 255 255 255
-0.147 -0.872 1.7 255 255 255
-1.094 -0.221 2.444 255 255 255
-0.055 0.447 1.79 255 255 255
0.498 0.014 1.25 255 255 255
0.426 -0.114 1.366 255 255 255
0.402 -0.106 1.417 255 255 255
0.208 0.068 1.863 255 255 255
0.153 -1.174 1.737 255 255 255
-0.521 0.196 2.134 255 255 255
0.516 -0.135 1.184 255 255 255
0.445 -0.155 1.321 255 255 255
-0.155 -0.647 1.773 255 255 255
-0.546 -0.092 2.577 255 255 255
-1.175 -0.035 2.46 255 255 255
0.03 0.085 2.213 255 255 255
-0.119 -0.881 1.711 255 255 255
-0.62 0.435 2.029 255 255 255
0.486 0.263 1.317 255 255 255
0.136 -0.323 1.944 255 255 255
-0.684 -0.974 2.397 255 255 255
-1.181 -0.046 2.458 255 255 255
0.111 -0.452 1.963 255 255 255
-0.985 -0.36 1.737 255 255 255
0.366 -0.563 1.8 255 255 255
-0.892 -1.569 2.07 255 255 255
0.407 0.077 1.437 255 255 255
0.541 -0.019 1.157 255 255 255
-1.109 -0.246 2.425 255 255 255
0.52 -0.04 1.192 255 255 255
0.076 0.58 1.759 255 255 255
-0.97 -1.266 2.142 255 255 255
-1.158 -1.019 2.128 255 255 255
-0.245 0.551 1.743 255 255 255
-0.548 0.011 0.784 255 255 255
-0.539 -1.521 2.284 255 255 255
0.556 0.254 1.172 255 255 255
0.374 0.421 1.587 255 255 255
0.447 0.065 1.358 255 255 255
-0.351 -1.658 2.338 255 255 255
0.211 0.51 1.92 255 255 255
0.54 0.126 1.181 255 255 255
-1.152 -0.894 2.175 255 255 255
-0.653 -0.274 2.653 255 255 255
0.411 0.279 1.469 255 255 255
0.496 -0.184 1.18 0 0 0
0.589 -0.136 0.955 0 0 0
-1.009 -0.203 2.493 255 255 255
-0.798 0.431 1.944 255 255 255
0.116 -0.969 1.855 0 0 0
-0.309 0.642 1.424 0 0 0
-0.989 -0.349 1.763 255 255 255
0.638 -0.058 0.956 255 255 255
0.247 0.628 1.617 255 255 255
-0.694 -1.655 2.162 255 255 255
0.295 -0.56 1.785 255 255 255
-0.183 -0.617 1.765 255 255 255
0.069 0.538 1.88 255 255 255
-0.425 0.677 1.301 255 255 255
-0.365 -0.544 2.147 255 255 255
-0.718 -1.474 2.209 255 255 255
-0.806 0.503 1.768 255 255 255
-0.274 0.525 1.823 0 0 0
-0.027 -0.609 1.843 255 255 255
-1.118 -1.17 2.102 255 255 255
-0.617 0.511 1.787 255 255 255
-1.035 -0.431 1.757 255 255 255
-0.671 -0.947 2.416 255 255 255
-0.573 0.445 2.003 255 255 255
0.246 0.562 1.815 255 255 255
-1.131 0.063 2.428 255 255 255
-0.736 -0.134 2.654 255 255 255
0.218 0.231 1.881 255 255 255
-0.362 0.129 0.675 255 255 255
0.576 0.258 1.134 255 255 255
-0.211 0.295 2.093 255 255 255
-0.23 -0.206 1.879 255 255 255
0.514 0.144 1.24 255 255 255
-0.512 0.02 0.874 255 255 255
-0.451 -1.129 2.257 255 255 255
0.058 0.699 1.356 255 255 255
0.348 -0.219 1.502 255 255 255
-0.897 0.23 2.175 255 255 255
0.057 -1.051 1.734 255 255 255
-0.194 -0.435 1.834 255 255 255
-0.573 -0.957 2.459 255 255 255
0.459 -0.304 1.434 255 255 255
0.472 0.146 1.322 255 255 255
-0.766 0.496 1.799 255 255 255
-1.188 0.063 2.388 0 0 0
0.017 0.585 1.73 255 255 255
-0.046 -0.75 1.798 255 255 255
-0.597 -0.075 2.708 255 255 255
0.55 -0.15 1.068 0 0 0
-1.177 -0.524 2.114 0 0 0
0.193 -0.813 1.744 0 0 0
-0.397 0.34 2.202 255 255 255
-0.039 0.216 2.153 255 255 255
0.012 -0.028 2.075 255 255 255
-0.012 -0.475 1.895 255 255 255
0.082 -0.193 2.065 255 255 255
-0.346 0.124 2.363 255 255 255
-0.458 -0.506 2.468 255 255 255
-0.458 0.554 1.673 255 255 255
0.337 0.176 1.602 255 255 255
0.62 0.066 1.011 255 255 255
0.642 -0.224 1.098 255 255 255
0.447 -0.085 1.332 255 255 255
-1.004 -0.418 2.42 255 255 255
0.494 -0.113 1.229 255 255 255
0.249 0.518 1.843 255 255 255
-0.948 0.366 1.973 0 0 0
0.01 0.611 1.624 255 255 255
0.538 0.04 1.174 255 255 255
-1.293 -0.684 1.988 255 255 255
0.454 0.31 1.385 255 255 255
0.271 -0.895 1.653 255 255 255
-0.147 -0.781 1.731 255 255 255
-0.412 -1.643 2.31 255 255 255
-0.197 -0.85 1.687 255 255 255
-0.248 -0.151 1.903 255 255 255
0.684 -0.182 1.012 255 255 255
-0.484 0.655 1.35 255 255 255
-0.632 0.578 1.551 255 255 255
-0.145 -0.635 1.783 255 255 255
0.559 0.327 1.18 255 255 255
0.508 -0.175 1.131 0 0 0
0.512 -0.573 1.968 255 255 255
-1.249 -0.302 1.622 255 255 255
-0.156 0.546 1.758 255 255 255
0.658 -0.008 0.933 255 255 255
0.117 -1.122 1.816 0 0 0
-0.522 0.026 0.727 255 255 255
0.256 0.312 1.815 255 255 255
-0.876 0.136 2.505 255 255 255
0.136 -1.184 1.768 255 255 255
-0.981 -1.023 2.223 255 255 255
0.528 -0.173 1.075 0 0 0
0.291 -0.232 1.619 255 255 255
0.503 0.358 1.299 255 255 255
-0.413 0.102 0.782 255 255 255
-0.416 0.552 1.698 255 255 255
-0.359 0.133 0.612 255 255 255
-0.823 -0.693 2.417 255 255 255
-0.469 0.339 2.132 255 255 255
-1.052 -1.129 2.145 255 255 255
0.107 -0.549 1.954 255 255 255
0.625 -0.024 0.989 255 255 255
0.24 0.665 1.509 0 0 0
-0.924 0.211 2.168 255 255 255
-0.302 -1.002 2.214 255 255 255
-0.634 -1.187 2.348 255 255 255
-0.104 -0.901 1.716 255 255 255
0.243 0.649 1.557 255 255 255
0.645 -0.012 0.951 255 255 255
-0.484 -0.375 2.512 255 255 255
-0.033 0.582 1.731 255 255 255
0.027 -0.341 1.959 255 255 255
0.453 0.425 1.415 255 255 255
0.223 0.628 1.618 255 255 255
-0.906 -1.064 2.247 255 255 255
0.479 0.148 1.308 255 255 255
0.592 0.324 1.115 255 255 255
-0.438 -0.411 2.483 255 255 255
-1.012 -0.565 2.364 255 255 255
0.577 0.356 1.154 255 255 255
-0.19 -0.157 1.934 255 255 255
0.501 -0.059 1.228 255 255 255
-0.479 -1.112 2.253 255 255 255
0.081 0.301 2.146 255 255 255
-0.516 0.295 2.087 255 255 255
0.503 -0.18 1.1 0 0 0
0.632 0.161 1.009 255 255 255
-0.91 -0.412 2.47 255 255 255
-0.457 0.056 0.687 255 255 255
-0.119 -0.137 1.982 255 255 255
0.573 0.324 1.152 255 255 255
0.523 -0.092 1.178 255 255 255
0.219 -0.367 1.665 0 0 0
-1.154 -0.305 2.379 255 255 255
0.284 -0.128 1.646 255 255 255
-1.183 -0.627 2.075 0 0 0
-0.743 -0.57 2.5 255 255 255
-0.814 0.297 2.148 255 255 255
-0.431 0.677 1.301 255 255 255
0.558 0.417 1.172 255 255 255
-0.261 0.647 1.417 255 255 255
-0.097 -0.92 1.712 255 255 255
0.599 0.289 1.095 255 255 255
-0.418 0.234 2.414 255 255 255
-0.537 0.009 0.951 255 255 255
-0.285 0.694 1.28 255 255 255
0.327 0.45 1.695 255 255 255
0.211 -0.094 1.826 255 255 255
-1.199 0.141 2.407 0 0 0
-0.922 -0.316 2.496 255 255 255
-0.123 -0.638 1.793 255 255 255
0.683 -0.174 1.02 255 255 255
-0.721 -0.477 2.551 255 255 255
-0.427 0.391 1.968 0 0 0
-1.136 -0.767 2.232 255 255 255
0.141 0.341 2.069 255 255 255
0.599 0.192 1.077 255 255 255
-0.673 -0.194 2.667 255 255 255
-0.479 -0.607 2.428 255 255 255
-0.592 -0.005 0.857 255 255 255
0.22 -0.057 1.808 255 255 255
-0.771 0.534 1.673 255 255 255
-0.696 -0.073 1.042 255 255 255
0.074 -1.082 1.768 255 255 255
0.342 -0.062 1.541 255 255 255
-0.736 0.439 1.959 255 255 255
-0.875 -0.963 2.297 255 255 255
0.121 -1.142 1.806 0 0 0
-0.191 0.407 2.1 255 255 255
-1.021 -0.259 1.496 0 0 0
-0.031 -0.995 1.726 255 255 255
-0.747 -0.678 2.458 255 255 255
-0.365 0.615 1.501 255 255 255
0.433 0.213 1.411 255 255 255
0.309 -0.389 1.721 255 255 255
-0.532 0.081 2.638 255 255 255
0.241 0.672 1.492 255 255 255
-0.262 -1.674 2.368 255 255 255
0.566 0.295 1.156 255 255 255
-0.655 -0.331 2.631 255 255 255
-1.192 -0.911 2.147 255 255 255
-0.001 0.115 2.13 255 255 255
-0.389 0.107 0.678 255 255 255
0.474 -0.168 1.261 255 255 255
0.022 -0.994 1.732 255 255 255
-0.018 0.198 2.153 255 255 255
-0.993 -1.09 2.192 255 255 255
-0.849 -0.766 2.383 255 255 255
0.359 -0.097 1.502 255 255 255
0.556 0.108 1.145 255 255 255
0.469 -0.103 1.283 255 255 255
0.133 -0.274 1.96 255 255 255
0.1 -0.968 1.863 0 0 0
0.036 -0.229 2.019 255 255 255
0.305 0.32 1.707 255 255 255
0.494 0.11 1.273 255 255 255
0.328 0.157 1.611 255 255 255
-0.649 -0.012 0.866 255 255 255
0.276 -0.05 1.679 255 255 255
0.578 0.295 1.139 255 255 255
0.228 -0.074 1.783 255 255 255
-0.389 0.21 2.42 255 255 255
-1.197 -0.69 2.197 255 255 255
-0.77 -0.712 2.437 255 255 255
0.436 0.615 1.48 255 255 255
0.275 0.175 1.735 255 255 255
0.488 0.059 1.275 255 255 255
-0.325 0.641 1.426 0 0 0
0.589 0.375 1.139 255 255 255
-0.973 -1.324 2.126 255 255 255
-1.183 0.146 2.424 0 0 0
-0.897 -0.61 2.408 255 255 255
-1.004 -0.933 2.239 255 255 255
0.611 0.108 1.036 255 255 255
-0.445 0.68 1.283 255 255 255
0.088 -0.745 1.936 0 0 0
-0.871 0.038 2.557 255 255 255
0.291 -0.698 1.726 255 255 255
-0.331 0.695 1.276 255 255 255
0.089 -0.513 1.994 0 0 0
0.011 -0.637 1.851 255 255 255
-0.68 0.416 2.008 255 255 255
-0.427 0.078 0.747 255 255 255
-0.456 -0.746 2.388 255 255 255
0.504 -0.114 1.21 255 255 255
-0.439 0.501 1.741 255 255 255
0.249 0.136 1.782 255 255 255
-0.494 0.278 2.092 255 255 255
0.234 -0.982 1.616 255 255 255
0.258 0.579 1.756 255 255 255
-0.806 -0.635 2.444 255 255 255
-0.899 -0.957 2.29 255 255 255
-0.912 -0.095 2.577 255 255 255
-0.83 -0.189 1.376 255 255 255
0.231 -0.575 1.753 255 255 255
0.293 -0.912 1.649 0 0 0
-1.127 -0.088 2.472 255 255 255
-0.963 -0.689 2.345 255 255 255
0.263 -0.883 1.655 255 255 255
-0.016 -1.007 1.723 255 255 255
0.085 -0.37 2.03 255 255 255
0.221 -0.31 1.773 255 255 255
-0.822 -1.284 2.215 255 255 255
-0.437 -0.575 2.453 255 255 255
-0.807 -0.62 2.45 255 255 255
-0.293 -0.588 2.164 255 255 255
-0.915 0.337 2.211 255 255 255
0.437 0.094 1.383 255 255 255
-0.256 0.603 1.56 255 255 255
0.463 -0.185 1.27 0 0 0
-0.65 -0.778 2.482 255 255 255
0.191 -0.374 1.817 255 255 255
0.267 -0.865 1.66 255 255 255
0.447 0.26 1.391 255 255 255
-0.643 -1.15 2.356 255 255 255
-1.029 -0.298 1.617 0 0 0
-0.452 0.66 1.345 255 255 255
0.282 -0.681 1.724 0 0 0
0.287 -0.315 1.586 0 0 0
-0.602 0.582 1.547 255 255 255
0.311 0.291 1.685 255 255 255
-0.272 -0.015 1.998 255 255 255
0.153 -0.492 1.879 255 255 255
-0.122 0.546 1.799 255 255 255
-0.813 -1.26 2.228 255 255 255
-0.783 0.498 1.788 255 255 255
0.659 -0.407 1.1 255 255 255
-0.341 0.306 2.197 255 255 255
-1.28 -0.765 1.985 255 255 255
-0.168 -0.262 1.903 255 255 255
-0.925 -0.857 2.31 255 255 255
0.435 -0.05 1.36 255 255 255
0.276 0.073 1.705 255 255 255
0.224 0.618 1.65 255 255 255
-0.512 0.338 2.088 255 255 255
0.192 -0.736 1.758 0 0 0
0.48 0.496 1.383 255 255 255
0.314 0.45 1.723 255 255 255
-0.258 0.291 2.065 255 255 255
0.351 -0.07 1.522 255 255 255
-0.15 0.406 2.117 255 255 255
-0.457 0.629 1.441 0 0 0
-1.146 -0.404 2.351 255 255 255
0.218 -0.932 1.661 0 0 0
-0.843 -0.495 2.476 255 255 255
0.432 0.192 1.409 255 255 255
-0.401 -0.361 2.361 255 255 255
0.294 -0.146 1.625 255 255 255
-0.165 -1.071 1.669 0 0 0
0.156 0.217 0.405 255 255 255
0.314 -0.156 1.588 255 255 255
0.215 0.093 1.856 255 255 255
0.544 -0.238 1.261 255 255 255
0.241 -0.741 1.699 255 255 255
-1.144 -0.603 2.282 255 255 255
-0.419 -0.325 2.41 255 255 255
0.282 -0.925 1.642 255 255 255
-0.8 -0.576 2.469 255 255 255
0.333 -1.087 1.619 255 255 255
-1.25 -0.321 1.621 255 255 255
0.226 -0.332 1.752 255 255 255
0.022 0.482 1.807 255 255 255
0.274 0.534 1.799 255 255 255
-0.989 -1.599 2.017 255 255 255
-0.4 0.096 0.702 255 255 255
0.503 -0.147 1.206 255 255 255
0.528 -0.118 1.162 255 255 255
0.58 0.307 1.134 255 255 255
0.493 0.164 1.282 255 255 255
0.483 0.412 1.352 255 255 255
-0.651 -1.562 2.206 255 255 255
0.462 0.454 1.405 255 255 255
-0.999 -0.536 2.379 255 255 255
-0.581 -0.013 0.882 255 255 255
0.267 -0.49 1.786 0 0 0
-0.958 -0.543 2.401 255 255 255
-1.021 0.289 2.134 0 0 0
0.421 -0.081 1.381 255 255 255
-0.22 -0.054 1.963 255 255 255
0.643 -0.241 1.041 255 255 255
-0.335 -0.209 2.281 255 255 255
-0.856 -0.98 2.302 255 255 255
0.564 0.112 1.131 255 255 255
-0.913 -1.61 2.065 255 255 255
0.621 -0.006 0.996 255 255 255
-1.265 -0.589 1.888 255 255 255
-0.958 -0.131 2.542 255 255 255
0.353 -1.192 1.576 0 0 0
-0.27 0.699 1.273 255 255 255
0.048 0.676 1.422 255 255 255
0.367 -0.027 1.5 255 255 255
-0.795 -0.497 2.501 255 255 255
-0.219 0.383 2.081 255 255 255
0.53 0.092 1.199 255 255 255
-0.496 0.244 2.139 255 255 255
-0.36 -0.143 2.238 255 255 255
-0.069 -0.593 1.843 255 255 255
0.221 0.688 1.435 255 255 255
-0.732 -0.062 1.001 255 255 255
-1.101 -0.394 1.658 255 255 255
-0.659 -0.657 2.517 255 255 255
0.231 -1.055 1.595 255 255 255
-0.94 -0.943 2.271 255 255 255
0.293 -0.211 1.616 255 255 255
0.099 -1.029 1.808 0 0 0
-0.383 0.419 1.953 255 255 255
0.195 -0.187 1.844 255 255 255
0.64 0.04 0.972 255 255 255
0.218 0.327 1.904 255 255 255
-0.008 -0.811 1.783 255 255 255
-0.496 -0.208 2.534 255 255 255
0.484 0.317 1.328 255 255 255
0.15 -0.35 1.914 255 255 255
-0.127 -1.056 1.67 255 255 255
-1.203 -1.058 2.1 255 255 255
0.664 -0.158 1.034 255 255 255
-0.783 -0.048 2.659 255 255 255
-0.225 -0.375 1.82 255 255 255
-0.658 -0.273 2.649 255 255 255
0.323 -0.9 1.68 255 255 255
0.241 0.355 1.865 255 255 255
0.328 0.562 1.695 255 255 255
-0.054 -0.028 2.052 255 255 255
0.019 0.514 1.88 255 255 255
-0.304 0.659 1.378 255 255 255
0.493 -0.525 1.985 255 255 255
-1.146 -0.722 2.239 255 255 255
0.662 -0.318 1.102 255 255 255
0.239 0.584 1.749 255 255 255
-0.652 -0.289 2.647 255 255 255
-0.446 -0.875 2.33 255 255 255
-0.401 0.03 2.433 255 255 255
-0.186 -0.758 1.714 255 255 255
0.315 -0.879 1.683 255 255 255
0.401 0.518 1.539 255 255 255
-0.263 0.239 2.046 255 255 255
-0.64 0.605 1.469 255 255 255
-0.528 0.669 1.302 255 255 255
0.358 0.672 1.502 0 0 0
0.463 0.518 1.425 255 255 255
0.129 -0.535 1.917 255 255 255
-0.915 -0.276 2.512 255 255 255
0.251 -0.137 1.718 255 255 255
0.12 -1.02 1.835 0 0 0
-0.92 0.303 2.199 255 255 255
0.233 0.219 1.844 255 255 255
0.348 0.115 1.565 255 255 255
0.42 -0.226 1.336 0 0 0
0.402 -0.245 1.353 0 0 0
0.335 -0.274 1.496 255 255 255
0.132 0.196 0.452 255 255 255
0.213 0.535 1.892 255 255 255
-0.186 -0.761 1.712 255 255 255
0.414 0.19 1.444 255 255 255
-0.626 0.468 1.888 255 255 255
0.312 0.09 1.635 255 255 255
0.301 -0.882 1.665 255 255 255
-0.19 -0.415 1.832 255 255 255
0.451 -0.154 1.311 255 255 255
-1.281 -0.604 1.867 255 255 255
0.1 -1.196 1.779 255 255 255
-0.102 0.529 1.847 255 255 255
-0.15 -0.121 1.974 255 255 255
-0.572 -0.01 0.925 255 255 255
-0.806 -1.417 2.18 255 255 255
-0.976 -0.869 2.282 255 255 255
-0.09 -0.015 2.038 255 255 255
0.121 0.316 2.1 255 255 255
0.452 -0.315 1.46 255 255 255
-0.548 0.003 0.976 255 255 255
-0.57 -0.87 2.488 255 255 255
-0.069 -0.434 1.887 255 255 255
-0.87 -0.368 2.504 255 255 255
0.419 0.69 1.275 255 255 255
-0.677 0.106 2.71 255 255 255
0.172 -0.087 1.918 255 255 255
-0.046 0.528 1.873 0 0 0
0.322 -0.448 1.813 255 255 255
-0.416 0.226 2.43 255 255 255
-0.165 -0.449 1.845 255 255 255
-0.601 -1.111 2.394 255 255 255
0.559 0.083 1.135 255 255 255
0.143 -0.298 1.938 255 255 255
0.61 0.019 1.023 255 255 255
-0.197 -0.944 1.654 255 255 255
0.216 -0.136 1.803 255 255 255
0.195 -0.764 1.746 0 0 0
-0.946 0.033 2.529 255 255 255
-0.511 0.035 0.944 255 255 255
-0.57 0.006 0.804 255 255 255
0.448 0.47 1.441 255 255 255
-0.714 -0.245 2.628 255 255 255
-0.366 -0.17 2.244 255 255 255
-0.277 0.618 1.505 255 255 255
0.288 0.342 1.752 255 255 255
0.258 -0.075 1.718 255 255 255
0.021 0.322 2.142 255 255 255
-0.365 0.129 0.632 255 255 255
-0.216 -0.528 1.776 255 255 255
-0.863 -1.237 2.207 255 255 255
0.215 0.408 1.898 255 255 255
-0.604 0.179 2.434 255 255 255
-0.723 -0.113 2.669 255 255 255
-0.467 0.048 0.727 255 255 255
-1.219 -0.229 2.371 255 255 255
-0.354 0.138 0.636 255 255 255
0.209 -0.541 1.757 255 255 255
-1.018 -1.15 2.164 255 255 255
-0.801 -1.387 2.194 255 255 255
-1.331 -0.696 1.999 0 0 0
0.592 -0.034 1.054 255 255 255
0.609 -0.312 1.128 255 255 255
0.49 -0.098 1.24 255 255 255
0.191 -0.97 1.708 0 0 0
0.619 -0.079 0.987 255 255 255
-0.651 0.617 1.431 255 255 255
0.62 -0.402 1.096 255 255 255
-0.5 -0.523 2.445 255 255 255
-0.96 -1.271 2.143 255 255 255
0.635 -0.444 1.074 255 255 255
0.316 0.559 1.713 255 255 255
-0.952 -0.094 2.559 255 255 255
-0.619 -0.049 1.071 255 255 255
-1.137 0.001 2.481 255 255 255
0.491 -0.177 1.201 0 0 0
-0.779 0.522 1.713 255 255 255
0.253 -0.619 1.743 255 255 255
0.105 0.238 2.124 255 255 255
0.267 0.64 1.587 255 255 255
-0.118 0.696 1.32 255 255 255
-0.145 -0.151 1.959 255 255 255
-0.423 -0.808 2.386 255 255 255
-1.238 -0.797 2.087 0 0 0
-1.054 -0.64 2.316 255 255 255
