ply
format ascii 1.0
comment Created by Open3D
element vertex 1582
property double x
property double y
property double z
property uchar red
property uchar green
property uchar blue
end_header
-0.433 -0.313 1.93 255 255 255
-0.131 0.266 2.246 255 255 255
-0.53 0.581 1.482 255 255 255
-0.211 -0.062 2.116 255 255 255
0.438 -0.501 2.213 255 255 255
-0.571 0.436 1.849 255 255 255
-0.949 0.063 2.698 255 255 255
0.164 -0.173 1.133 255 255 255
0.387 0.254 0.81 255 255 255
-0.311 0.468 1.737 255 255 255
0.278 0.383 0.701 255 255 255
0.043 -1.041 1.814 255 255 255
0.238 -0.119 1.23 255 255 255
0.712 -0.911 2.146 255 255 255
0.08 -1.115 1.806 255 255 255
0.839 -1.03 2.146 255 255 255
0.74 -0.528 2.305 255 255 255
0.62 -0.362 2.332 255 255 255
0.025 0.449 1.767 255 255 255
0.157 0.018 1.091 255 255 255
1.041 -0.695 2.346 255 255 255
0.825 -0.444 2.368 255 255 255
-0.418 0.19 2.133 255 255 255
-0.11 0.492 1.668 255 255 255
0.085 -0.732 1.949 255 255 255
0.528 -0.44 2.267 255 255 255
-1.036 0.371 2.028 255 255 255
0.064 0.404 1.884 255 255 255
0.331 -0.658 2.113 255 255 255
0.044 -0.671 1.963 255 255 255
-0.415 -0.437 1.889 255 255 255
-0.368 0.364 2.061 255 255 255
-0.085 -0.126 2.13 255 255 255
-0.094 -0.147 2.124 255 255 255
-0.538 -1.148 1.557 0 0 0
-0.377 -0.922 1.715 255 255 255
0.215 0.03 1.117 255 255 255
0.179 -0.998 1.879 255 255 255
-1.14 -1.498 2.856 0 0 0
0.46 -0.792 2.103 255 255 255
0.011 0.647 1.299 255 255 255
-0.811 0.347 2.086 255 255 255
-0.084 -0.224 2.091 255 255 255
0.175 -0.854 1.933 255 255 255
-1.102 0.339 2.1 255 255 255
0.297 0.16 1.032 255 255 255
-0.07 -0.402 2.023 255 255 255
0.138 0.32 2.038 255 255 255
1.294 -1.023 2.361 255 255 255
-0.505 -0.423 1.848 255 255 255
-0.189 -0.91 1.782 255 255 255
0.321 0.289 0.79 255 255 255
-0.643 0.333 2.118 255 255 255
0.088 -0.142 1.13 255 255 255
-0.279 -1.208 1.635 0 0 0
0.596 -1.301 1.957 255 255 255
0.317 0.356 0.786 255 255 255
0.574 -0.746 2.163 255 255 255
0.08 -0.089 1.122 255 255 255
-0.085 0.665 1.263 255 255 255
-1.106 -1.73 2.794 0 0 0
0.337 -0.048 1.076 255 255 255
-1.361 -1.922 2.742 255 255 255
0.54 -0.779 2.134 255 255 255
0.856 -0.63 2.308 255 255 255
0.368 -0.048 0.978 255 255 255
0.109 0.264 1.149 255 255 255
0.48 -0.027 0.71 255 255 255
0.012 -0.571 1.988 255 255 255
1.887 -0.698 2.689 255 255 255
-0.839 0.245 2.349 255 255 255
0.237 0.221 0.902 255 255 255
-1.057 0.395 1.976 255 255 255
0.434 0.118 0.79 255 255 255
0.262 -0.014 1.159 255 255 255
0.891 -1.285 2.067 255 255 255
-1.478 -1.256 2.956 255 255 255
0.996 -1.193 2.14 255 255 255
0.761 -0.568 2.3 255 255 255
0.663 -0.769 2.184 255 255 255
0.308 0.171 0.979 255 255 255
0.932 -1.532 1.984 255 255 255
-0.344 0.541 1.562 255 255 255
0.126 0.223 1.135 255 255 255
1.421 -0.573 2.576 255 255 255
0.406 -0.086 0.95 255 255 255
0.26 0.469 0.927 255 255 255
-1.281 -0.115 1.715 255 255 255
0.417 -1.095 1.972 255 255 255
0.455 0.14 0.751 255 255 255
-0.533 -0.787 1.695 255 255 255
0.337 -0.816 2.054 255 255 255
0.587 -1.278 1.968 255 255 255
-0.29 -0.974 1.731 255 255 255
-0.434 -0.517 1.851 255 255 255
0.38 0.243 0.949 255 255 255
0.268 -0.002 1.152 255 255 255
-1.136 0.02 2.912 255 255 255
0.644 -0.199 1.241 255 255 255
-0.146 0.572 1.487 255 255 255
-0.563 -1.094 1.572 255 255 255
-1.218 0.297 2.218 255 255 255
0.099 0.453 1.753 255 255 255
0.768 -0.805 2.209 255 255 255
-0.515 -0.379 1.86 255 255 255
0.293 -1.027 1.954 255 255 255
-0.231 0.245 2.214 255 255 255
-0.442 -0.032 2.044 255 255 255
-0.168 -0.137 2.099 255 255 255
0.404 0.042 0.837 255 255 255
0.17 -0.044 1.105 255 255 255
0.28 -0.918 1.995 255 255 255
-0.063 -1.106 1.759 0 0 0
-1.535 0.125 2.68 255 255 255
-0.84 -0.179 1.182 255 255 255
0.095 0.112 1.137 255 255 255
0.85 -1.312 2.043 255 255 255
-0.117 -1.152 1.714 255 255 255
-0.087 0.595 1.43 255 255 255
-0.516 -0.848 1.682 255 255 255
-0.102 -0.812 1.851 255 255 255
0.085 -0.612 1.996 255 255 255
0.267 0.399 0.892 255 255 255
0.145 0.234 1.121 255 255 255
0.663 -1.451 1.927 0 0 0
-0.203 -0.181 2.068 255 255 255
-0.401 0.62 1.38 0 0 0
-1.374 -1.577 2.875 255 255 255
0.539 -0.866 2.104 255 255 255
-1.433 0.102 2.726 255 255 255
1.066 -0.708 2.349 255 255 255
-0.487 -0.236 1.942 255 255 255
-0.203 -1.037 1.726 255 255 255
-0.223 -1.15 1.681 255 255 255
0.494 -1.441 1.87 0 0 0
-0.311 -0.534 1.887 255 255 255
-1.139 0.357 2.047 255 255 255
0.51 -0.117 0.73 255 255 255
-1.088 -1.9 2.731 0 0 0
0.964 -0.627 2.349 255 255 255
-0.459 -0.316 1.919 255 255 255
-0.008 0.141 1.3 0 0 0
1.289 -1.057 2.342 255 255 255
-1.468 -1.412 2.903 255 255 255
-0.047 0.662 1.266 255 255 255
-0.913 0.302 2.196 255 255 255
0.154 0.229 1.116 255 255 255
-0.216 -0.571 1.907 255 255 255
0.36 -0.104 1.1 255 255 255
1.157 -0.577 2.483 255 255 255
0.75 -1.416 1.973 0 0 0
0.272 0.212 0.874 255 255 255
-1.205 -1.726 2.775 255 255 255
0.378 -0.046 0.97 255 255 255
0.079 -0.013 1.104 255 255 255
0.144 -0.059 1.107 255 255 255
-0.54 -0.885 1.657 255 255 255
0.218 0.137 1.068 255 255 255
0.426 0.06 0.776 255 255 255
-0.406 0.624 1.374 0 0 0
-0.337 -1.102 1.656 255 255 255
-0.405 0.439 1.821 255 255 255
-0.95 0.04 2.667 255 255 255
0.293 0.561 1.15 255 255 255
0.43 -0.052 0.915 255 255 255
0.183 0.435 1.417 255 255 255
-0.404 -0.791 1.755 255 255 255
-0.441 -0.633 1.804 255 255 255
0.298 0.644 1.278 255 255 255
-0.15 0.146 2.213 255 255 255
1.045 -0.724 2.335 255 255 255
-0.451 0.657 1.29 255 255 255
-0.104 0.483 1.687 255 255 255
-0.276 0.545 1.552 255 255 255
-0.31 -0.977 1.709 255 255 255
0.276 -0.639 2.101 255 255 255
-0.297 -1.145 1.652 255 255 255
0.647 -0.67 2.22 255 255 255
-0.414 0.327 2.149 255 255 255
-0.244 0.528 1.589 255 255 255
-0.528 0.188 2.092 255 255 255
0.108 0.609 1.39 255 255 255
0.13 0.412 1.481 255 255 255
0.096 -0.974 1.857 255 255 255
0.211 0.374 1.086 255 255 255
-1.152 -1.541 2.834 0 0 0
-0.077 -0.555 1.961 255 255 255
0.418 0.162 0.934 255 255 255
1.52 -1.048 2.431 255 255 255
0.899 -0.646 2.32 255 255 255
0.314 0.488 0.927 255 255 255
-0.155 0.544 1.552 255 255 255
-0.175 0.315 2.175 255 255 255
-0.238 -1.168 1.669 255 255 255
0.431 0.171 0.898 255 255 255
0.085 -0.686 1.967 255 255 255
0.362 -0.591 2.153 255 255 255
0.234 0.094 1.102 255 255 255
-1.179 0.18 2.542 255 255 255
0.235 -1.164 1.885 255 255 255
-0.537 -0.505 1.804 255 255 255
-0.37 0.578 1.476 255 255 255
0.025 0.44 1.793 255 255 255
0.231 -1.163 1.884 255 255 255
0.112 0.3 2.164 255 255 255
-1.224 0.267 2.309 255 255 255
0.368 0.002 0.974 255 255 255
0.447 0.071 0.735 255 255 255
0.769 -0.471 2.339 255 255 255
-0.69 0.381 2.002 255 255 255
0.248 -0.176 1.226 0 0 0
-0.254 -1.094 1.668 255 255 255
-0.586 0.583 1.472 255 255 255
-0.672 0.546 1.575 255 255 255
0.446 0.035 0.795 255 255 255
-0.168 -0.681 1.877 255 255 255
0.706 -1.453 1.939 0 0 0
-0.333 0.139 2.155 255 255 255
-0.258 -0.037 2.114 255 255 255
0.4 0.115 0.932 255 255 255
0.22 0.595 1.404 255 255 255
-0.947 0.416 1.913 255 255 255
0.374 0.204 0.964 255 255 255
0 -1.118 1.772 255 255 255
-1.251 -1.639 2.879 255 255 255
-0.068 0.614 1.381 0 0 0
-0.41 0.018 2.078 255 255 255
0.422 -0.109 1.043 255 255 255
0.375 -1.134 1.944 255 255 255
-1.079 -1.374 2.943 0 0 0
0.33 -0.93 2.005 255 255 255
-0.162 0.256 2.238 255 255 255
-1.426 -1.609 2.845 255 255 255
-1.871 -0.973 2.921 255 255 255
0.271 -1.003 1.958 255 255 255
0.102 0.119 1.138 255 255 255
0.397 0.235 0.954 0 0 0
1.311 -0.74 2.477 255 255 255
-0.616 0.309 2.175 255 255 255
0.43 0.093 0.773 255 255 255
-0.623 0.564 1.521 255 255 255
-1.098 0.332 2.115 255 255 255
0.068 0.449 1.768 255 255 255
-0.248 -0.07 2.101 255 255 255
-0.58 -0.215 1.946 255 255 255
0.901 -0.978 2.188 255 255 255
-0.2 -0.058 2.125 255 255 255
-0.503 -0.566 1.799 255 255 255
0.399 0.071 0.88 255 255 255
-0.063 -1.102 1.76 0 0 0
0.527 -0.075 0.928 0 0 0
-0.758 0.392 1.976 255 255 255
0.299 0.249 0.856 255 255 255
0.438 0.088 0.731 255 255 255
1.216 -0.453 2.548 255 255 255
0.063 -0.018 1.141 255 255 255
-0.528 0.577 1.49 255 255 255
0.026 0.512 1.617 255 255 255
-0.999 0.086 2.72 255 255 255
0.408 0.013 0.868 255 255 255
-0.474 0.022 2.056 255 255 255
-0.121 -0.219 2.081 255 255 255
0.657 -0.433 2.313 255 255 255
0.597 -1.293 1.963 255 255 255
0.07 -0.197 1.173 255 255 255
0.06 0.001 1.164 255 255 255
0.376 0.008 0.932 255 255 255
0.301 0.039 1.121 255 255 255
0.821 -0.791 2.232 255 255 255
-0.446 0.508 1.648 255 255 255
-0.331 0.594 1.437 255 255 255
0.175 -1.255 1.777 255 255 255
1.461 -0.655 2.562 255 255 255
0.136 0.287 2.204 255 255 255
-0.566 0.195 2.116 255 255 255
-0.117 -0.883 1.821 255 255 255
-0.391 0.647 1.309 255 255 255
1.46 -1.011 2.42 255 255 255
-1.359 -1.423 2.946 255 255 255
-0.033 0.092 1.274 255 255 255
0.433 -0.027 0.845 255 255 255
0.45 0.019 0.762 255 255 255
0.036 -0.523 2.015 255 255 255
0.396 0.211 0.79 255 255 255
-1.231 0.121 2.685 255 255 255
-0.41 -1.069 1.646 255 255 255
-1.145 -1.937 2.695 255 255 255
1.519 -0.761 2.535 255 255 255
-0.324 0.126 2.153 255 255 255
-0.72 0.548 1.569 255 255 255
0.34 0.299 0.755 255 255 255
-0.429 0.41 1.92 255 255 255
-0.471 -0.91 1.685 255 255 255
0.401 0.127 0.955 255 255 255
-0.147 -1.111 1.718 255 255 255
0.388 -0.065 0.977 255 255 255
-0.027 0.675 1.241 255 255 255
-0.394 -0.729 1.781 255 255 255
-0.457 -0.093 2.015 255 255 255
-0.037 -0.589 1.961 255 255 255
-1.172 0.008 2.935 255 255 255
0.353 -0.732 2.095 255 255 255
0.207 0.293 0.972 255 255 255
1.348 -0.692 2.507 255 255 255
-0.178 -0.871 1.802 255 255 255
0.29 0.2 0.905 255 255 255
0.866 -0.753 2.265 255 255 255
-0.232 0.018 2.148 255 255 255
0.796 -0.989 2.151 255 255 255
0.476 -0.965 2.041 255 255 255
-0.013 0.535 1.57 255 255 255
0.577 -0.691 2.187 255 255 255
0.275 0.267 0.851 255 255 255
0.246 0.603 1.38 255 255 255
0.027 0.662 1.26 255 255 255
0.381 -1.26 1.902 255 255 255
-0.54 0.543 1.566 255 255 255
0.148 0.08 1.104 255 255 255
-0.108 0.316 2.155 255 255 255
-0.389 -0.829 1.747 255 255 255
0.138 0.024 1.082 255 255 255
0.219 0.618 1.35 255 255 255
-0.576 -0.806 1.699 255 255 255
-0.541 -0.666 1.742 255 255 255
0.411 0.041 0.826 255 255 255
0.226 -1.173 1.874 255 255 255
0.208 -0.208 1.184 0 0 0
1.208 -0.463 2.543 255 255 255
0.08 -1.009 1.842 255 255 255
-0.487 0.668 1.275 255 255 255
-1.079 -1.329 2.957 0 0 0
0.396 0.014 0.889 255 255 255
-0.166 0.287 2.231 255 255 255
-0.204 0.387 1.974 255 255 255
-0.04 -1.004 1.799 255 255 255
-0.421 -0.325 1.931 255 255 255
0.218 0.539 1.473 255 255 255
0.222 0.095 1.111 255 255 255
0.413 -0.075 0.944 255 255 255
-0.256 -0.957 1.745 0 0 0
-0.507 -0.622 1.772 255 255 255
-0.188 -0.02 2.143 255 255 255
0.706 -0.606 2.265 255 255 255
0.409 -0.755 2.101 255 255 255
0.401 0.053 0.843 255 255 255
1.155 -1.054 2.304 255 255 255
-0.09 -1.008 1.78 255 255 255
-0.646 0.442 1.839 255 255 255
0.207 0.304 1.135 255 255 255
-0.363 0.25 2.17 255 255 255
-0.566 -0.327 1.891 255 255 255
0.23 0.147 1.059 255 255 255
0.291 0.562 1.165 255 255 255
-0.046 0.636 1.324 255 255 255
0.815 -0.606 2.301 255 255 255
-1.363 -1.28 2.997 255 255 255
0.035 -1.094 1.796 255 255 255
0.255 0.349 0.908 255 255 255
-0.211 0.619 1.376 0 0 0
0.295 0.211 0.874 255 255 255
-0.567 -0.584 1.781 255 255 255
-1.481 -1.231 2.968 255 255 255
0.291 0.288 0.848 255 255 255
-0.42 0.657 1.288 255 255 255
0.202 0.224 1.172 255 255 255
-0.41 -0.856 1.728 255 255 255
1.273 -1.053 2.336 255 255 255
-0.422 0.593 1.445 255 255 255
-0.742 -0.281 1.115 255 255 255
0.347 -1.107 1.945 255 255 255
0.011 0.384 1.945 255 255 255
0.433 0.127 0.792 255 255 255
-1.209 0.11 2.707 255 255 255
-1.221 -1.949 2.705 0 0 0
0.109 -0.12 1.115 255 255 255
-0.118 0.507 1.635 255 255 255
0.294 0.037 1.122 255 255 255
0.313 0.14 1.042 255 255 255
-0.366 -0.041 2.068 255 255 255
-0.119 0.409 1.891 255 255 255
1.687 -0.744 2.601 255 255 255
-0.533 -0.196 1.931 255 255 255
-0.126 0.599 1.421 255 255 255
0.171 0.096 1.109 255 255 255
0.1 0.011 1.091 255 255 255
0.478 -0.736 2.133 255 255 255
0.336 0.118 1.124 255 255 255
0.495 -0.12 1.065 255 255 255
0.129 -0.973 1.872 255 255 255
1.219 -1.334 2.217 255 255 255
-0.542 0.406 1.941 255 255 255
-0.784 0.092 1.231 255 255 255
0.254 0.236 0.861 255 255 255
-0.524 -0.357 1.867 255 255 255
0.596 -1.314 1.951 255 255 255
-0.738 -0.174 1.112 0 0 0
0.278 0.666 1.229 255 255 255
0.188 -0.122 1.13 255 255 255
0.755 -1.425 1.967 0 0 0
-0.03 0.327 2.115 255 255 255
-0.641 0.374 2.019 255 255 255
-0.536 -0.896 1.654 255 255 255
-0.916 0.459 1.803 255 255 255
0.435 -0.587 2.179 255 255 255
1.317 -1.11 2.33 255 255 255
1.159 -0.771 2.412 255 255 255
0.191 0.145 1.158 255 255 255
0.458 -0.03 0.809 255 255 255
-0.109 0.615 1.382 0 0 0
0.389 0 0.917 255 255 255
-0.333 -0.433 1.917 255 255 255
-0.197 -0.841 1.804 255 255 255
0.293 -1.133 1.915 255 255 255
0.206 0.324 0.981 255 255 255
-0.327 -0.856 1.758 255 255 255
-0.409 0.103 2.113 255 255 255
-0.195 0.213 2.215 255 255 255
0.1 0.153 1.391 255 255 255
0.147 0.359 1.422 255 255 255
-0.448 0.52 1.625 255 255 255
-0.16 0.657 1.275 255 255 255
-0.14 -1.187 1.697 255 255 255
-0.546 0.608 1.412 255 255 255
0.392 0.212 0.778 255 255 255
-0.341 -0.862 1.75 255 255 255
0.433 0.156 0.854 255 255 255
-0.572 -0.459 1.769 255 255 255
-1.065 -1.517 2.899 255 255 255
0.275 0.148 1.043 255 255 255
-1.059 0.069 2.698 255 255 255
0.121 -0.908 1.893 255 255 255
-1.399 0.149 2.621 255 255 255
0.458 0.06 0.726 255 255 255
0.437 0.216 0.913 255 255 255
0.297 -0.049 1.153 255 255 255
-1.306 -0.011 1.743 255 255 255
-0.046 -0.306 2.071 255 255 255
0.278 0.552 1.195 255 255 255
1.536 -0.958 2.471 255 255 255
-1.321 -1.351 2.983 255 255 255
-0.345 -0.248 1.989 255 255 255
-0.381 -0.296 1.956 255 255 255
0.049 -0.027 1.173 255 255 255
-0.234 0.602 1.412 255 255 255
-0.62 0.614 1.405 0 0 0
0.299 0.369 0.733 255 255 255
0.983 -0.696 2.329 255 255 255
-0.046 0.466 1.732 255 255 255
0.436 -0.014 0.834 255 255 255
0.298 -1.161 1.909 255 255 255
0.126 -0.256 1.151 255 255 255
-0.368 0.195 2.149 255 255 255
-0.165 0.51 1.629 255 255 255
0.396 0 0.912 255 255 255
1.554 -0.905 2.491 255 255 255
0.98 -0.484 2.411 255 255 255
-0.592 -1.055 1.609 255 255 255
-0.304 0.46 1.764 255 255 255
0.966 -1.053 2.179 255 255 255
-0.429 -0.833 1.73 255 255 255
-0.107 0.587 1.449 255 255 255
-0.054 0.556 1.521 255 255 255
0.279 0.401 0.863 255 255 255
-0.178 -0.067 2.127 255 255 255
0.313 0.368 0.793 255 255 255
-0.53 -1.147 1.558 0 0 0
-0.318 0.27 2.191 255 255 255
0.572 -0.798 2.142 255 255 255
0.193 0.009 1.108 255 255 255
-0.058 0.505 1.641 255 255 255
0.263 -1.377 1.814 0 0 0
0.408 0.088 0.852 255 255 255
-0.456 -0.725 1.762 255 255 255
0.151 0.37 1.426 255 255 255
-0.74 0.019 1.18 255 255 255
0.13 -0.037 1.102 255 255 255
-0.269 0.096 2.164 255 255 255
-0.246 -0.02 2.125 255 255 255
-0.159 -0.332 2.025 255 255 255
-0.233 -1.084 1.691 0 0 0
0.002 0.671 1.24 255 255 255
0.98 -1.452 2.034 0 0 0
-0.909 -0.094 2.895 0 0 0
-0.547 -0.223 1.92 255 255 255
0.431 -0.039 0.872 255 255 255
-0.328 0.065 2.126 255 255 255
0.575 -0.101 0.932 0 0 0
1.061 -1.37 2.092 255 255 255
0.236 0.288 0.87 255 255 255
-0.507 0.56 1.527 255 255 255
-0.071 -0.993 1.796 255 255 255
0.005 -0.022 1.257 255 255 255
0.28 0.424 0.858 255 255 255
-1.499 -1.417 2.886 255 255 255
0.008 0.336 2.09 255 255 255
0.028 -0.699 1.944 255 255 255
0.188 0.018 1.103 255 255 255
-0.058 0.408 1.887 255 255 255
-0.219 -0.844 1.798 255 255 255
-0.136 -1.103 1.728 255 255 255
-0.319 0.561 1.515 255 255 255
0.387 -0.711 2.114 255 255 255
-0.414 -0.882 1.718 255 255 255
-0.099 0.436 1.806 255 255 255
-1.145 -1.792 2.739 0 0 0
-1.091 0.182 2.52 255 255 255
0.529 -0.116 0.729 255 255 255
-0.511 -0.272 1.905 255 255 255
-0.45 -0.935 1.685 255 255 255
0.423 0.02 0.831 255 255 255
-0.283 -1.169 1.652 255 255 255
0.889 -0.545 2.352 255 255 255
1.454 -0.844 2.488 255 255 255
0.286 0.529 1.117 255 255 255
0.399 -0.158 1.176 255 255 255
0.75 -0.562 2.299 255 255 255
0.437 -0.048 0.902 255 255 255
0.472 -0.067 0.715 255 255 255
0.416 -0.066 0.947 255 255 255
0.851 -0.489 2.36 255 255 255
0.756 -0.63 2.272 255 255 255
0.264 0.055 1.116 255 255 255
0.138 0.555 1.516 255 255 255
0.227 0.062 1.127 255 255 255
-0.743 0.016 1.175 255 255 255
-0.572 0.569 1.508 255 255 255
0.267 0.385 0.714 255 255 255
-0.126 -0.727 1.876 255 255 255
-0.152 -0.289 2.04 255 255 255
0.604 -1.376 1.936 255 255 255
-0.102 0.249 2.215 0 0 0
0.411 -0.007 0.897 255 255 255
1.602 -0.916 2.51 255 255 255
0.226 0.667 1.232 255 255 255
-0.024 -1.224 1.724 255 255 255
-0.386 -1.178 1.615 0 0 0
0.348 -1.083 1.958 255 255 255
0.239 0.262 0.866 255 255 255
0.304 0.124 1.062 255 255 255
1.234 -0.691 2.47 255 255 255
0.313 -0.623 2.121 255 255 255
0.317 0.134 1.05 255 255 255
0.306 0.061 1.103 255 255 255
0.756 -0.746 2.233 255 255 255
0.182 -0.04 1.111 255 255 255
-0.195 -0.071 2.122 255 255 255
0.051 -0.944 1.855 255 255 255
-1.303 -1.638 2.879 255 255 255
-0.562 -0.112 1.979 255 255 255
-1.491 -1.534 2.845 255 255 255
0.206 0.292 1.128 255 255 255
0.446 0.094 0.711 255 255 255
-0.134 0.635 1.331 255 255 255
1.082 -1.186 2.173 255 255 255
-1.076 -1.902 2.736 255 255 255
0.316 0.253 0.831 255 255 255
1.522 -0.84 2.511 255 255 255
0.21 0.311 0.961 255 255 255
0.673 -1.428 1.937 0 0 0
-0.74 0.054 1.195 255 255 255
-0.276 0.62 1.37 0 0 0
0.159 0.198 1.113 255 255 255
-0.497 -0.411 1.864 255 255 255
0.375 0.137 1.042 255 255 255
0.866 -1.234 2.077 255 255 255
0.5 -0.167 1.144 255 255 255
-0.795 0.432 1.869 255 255 255
-0.22 -1.226 1.652 0 0 0
0.959 -1.237 2.112 255 255 255
0.207 0.567 1.478 255 255 255
-0.663 0.303 2.188 255 255 255
-0.145 -0.976 1.788 255 255 255
0.541 -0.064 0.874 255 255 255
0.206 0.3 1.14 255 255 255
0.485 -0.024 0.791 255 255 255
0.377 -0.153 1.179 255 255 255
0.373 0.041 0.968 255 255 255
0.471 -1.316 1.905 255 255 255
-0.67 0.447 1.823 255 255 255
0.143 -0.723 1.971 255 255 255
0.243 0.187 1.036 255 255 255
-0.051 -0.242 2.1 255 255 255
0.297 0.531 1.132 255 255 255
-0.671 0.316 2.153 255 255 255
-0.508 -0.261 1.911 255 255 255
0.34 -0.097 1.13 255 255 255
0.403 -0.058 0.959 255 255 255
0.062 0.471 1.711 255 255 255
0.279 0.328 0.868 255 255 255
0.292 -0.092 1.202 255 255 255
-0.533 -1.123 1.565 255 255 255
0.457 -0.958 2.04 255 255 255
0.322 0.137 1.051 255 255 255
-0.44 -0.061 2.034 255 255 255
0.306 0.22 0.875 255 255 255
-0.048 0.372 1.985 255 255 255
0.171 0.54 1.529 255 255 255
1.169 -1.377 2.183 255 255 255
0.26 -0.776 2.043 255 255 255
0.429 0.165 0.889 255 255 255
0.175 -0.015 1.109 255 255 255
0.452 0.045 0.74 255 255 255
0.187 -1.107 1.836 255 255 255
-0.086 -1.024 1.776 255 255 255
-0.437 0.56 1.52 255 255 255
0.103 0.522 1.57 0 0 0
-0.06 0.375 1.982 255 255 255
-0.136 -0.084 2.134 255 255 255
-0.427 0.463 1.76 255 255 255
-0.697 0.392 1.97 255 255 255
0.094 0.381 1.947 255 255 255
-0.212 -1.196 1.668 255 255 255
0.252 -0.018 1.171 255 255 255
-0.49 -0.762 1.732 255 255 255
-0.137 0.512 1.626 255 255 255
0.498 0.028 0.694 255 255 255
0.702 -1.214 2.028 255 255 255
0.405 0.013 0.638 255 255 255
-0.306 0.614 1.384 0 0 0
0.645 -1.358 1.955 255 255 255
-0.326 0.583 1.462 255 255 255
-0.207 -0.994 1.741 255 255 255
0.566 -0.971 2.072 255 255 255
0.437 -0.536 2.2 255 255 255
-0.958 0.274 2.269 255 255 255
-0.481 -1.188 1.577 0 0 0
-1.347 -1.682 2.843 255 255 255
0.996 -1.439 2.039 255 255 255
0.204 -0.653 2.021 255 255 255
0.923 -1.111 2.146 255 255 255
0.234 0.606 1.374 255 255 255
-0.009 -0.139 2.125 0 0 0
0.442 -0.01 0.644 255 255 255
0.136 -0.227 1.147 255 255 255
-0.37 -0.68 1.809 255 255 255
-0.528 0.481 1.722 255 255 255
0.499 -0.182 1.186 255 255 255
-1.803 -0.953 2.952 255 255 255
0.49 -1.152 1.978 255 255 255
0.734 -1.17 2.054 255 255 255
0.583 -0.967 2.085 255 255 255
1.566 -0.991 2.466 255 255 255
-1.249 -0.125 1.7 255 255 255
-1.258 -0.265 1.673 255 255 255
-0.377 -0.982 1.692 0 0 0
-0.471 -0.016 2.04 255 255 255
0.223 -0.623 2.053 255 255 255
0.419 0.178 0.933 255 255 255
0.626 -0.297 2.358 255 255 255
0.564 -0.14 1.063 255 255 255
0.813 -1.286 2.037 255 255 255
0.305 -0.018 1.129 255 255 255
0.505 -1.316 1.917 255 255 255
0.205 0.059 1.163 255 255 255
-0.416 0.081 2.104 255 255 255
0.236 -1.259 1.849 255 255 255
-0.301 0.466 1.743 255 255 255
-0.283 0.266 2.201 255 255 255
-0.935 -0.01 2.783 255 255 255
-0.389 0.684 1.23 255 255 255
-0.308 -0.09 2.073 255 255 255
-0.105 0.426 1.842 255 255 255
-0.009 -0.577 1.981 255 255 255
0.271 0.469 0.879 255 255 255
0.304 0.141 1.035 255 255 255
0.8 -1.401 1.994 255 255 255
0.43 0.097 0.773 255 255 255
0.658 -0.164 1.148 255 255 255
1.091 -0.866 2.304 255 255 255
0.033 -0.169 1.265 0 0 0
-0.024 -1.083 1.778 255 255 255
0.368 -0.045 0.991 255 255 255
-0.086 -0.934 1.807 0 0 0
0.392 -0.069 0.976 255 255 255
0.029 -0.11 1.234 255 255 255
-0.219 0.534 1.577 255 255 255
0.061 -0.625 1.983 255 255 255
0.368 -0.065 0.979 255 255 255
0.055 -0.87 1.883 255 255 255
-0.673 0.534 1.598 255 255 255
-1.1 -2.091 2.656 255 255 255
0.076 -1.216 1.763 255 255 255
0.454 -0.886 2.069 255 255 255
0.015 -0.092 1.257 255 255 255
0.271 0.595 1.367 255 255 255
0.925 -0.885 2.235 255 255 255
-0.584 0.344 2.089 255 255 255
0.41 0.174 0.95 255 255 255
-0.522 -0.509 1.806 255 255 255
-1.49 -1.766 2.757 255 255 255
-0.215 -0.071 2.112 255 255 255
-0.827 0.187 1.323 255 255 255
1.79 -0.689 2.653 255 255 255
-0.171 0.496 1.664 255 255 255
-0.14 -0.531 1.949 255 255 255
-0.461 0.107 2.093 255 255 255
-0.422 0.249 2.151 255 255 255
0.408 -0.153 1.155 255 255 255
-0.581 -0.093 2 255 255 255
0.008 0.293 2.179 255 255 255
0.113 -0.015 1.097 255 255 255
-0.48 -0.286 1.924 255 255 255
-0.565 -0.374 1.868 255 255 255
-0.815 0.389 1.97 255 255 255
-0.972 0.111 2.645 255 255 255
-1.138 -1.904 2.71 255 255 255
0.353 -1.131 1.942 255 255 255
-0.272 -0.749 1.815 0 0 0
-0.3 -1.01 1.703 255 255 255
0.232 -0.057 1.2 255 255 255
0.016 -0.348 2.075 0 0 0
0.204 0.649 1.274 255 255 255
-1.205 0.194 2.505 255 255 255
0.134 0.487 1.558 255 255 255
0.211 0.368 1.08 255 255 255
0.049 0.108 1.386 255 255 255
-0.494 0.08 2.066 255 255 255
0.343 -1.269 1.878 255 255 255
0.688 -0.978 2.113 255 255 255
0.299 0.379 0.754 255 255 255
-0.394 0.609 1.405 255 255 255
0.703 -0.437 2.329 255 255 255
-0.108 -0.287 2.057 255 255 255
0.876 -0.797 2.253 255 255 255
-0.369 -0.989 1.689 0 0 0
-1.179 -1.877 2.696 255 255 255
-0.15 -0.059 2.139 255 255 255
-0.024 -0.864 1.861 255 255 255
-0.975 0.085 2.703 255 255 255
-0.109 -1.048 1.758 255 255 255
-0.402 0.64 1.328 255 255 255
-0.304 -0.016 2.105 255 255 255
0.058 -0.02 1.165 255 255 255
-0.074 0.578 1.47 255 255 255
0.204 0.176 1.071 255 255 255
-0.009 -0.247 2.11 255 255 255
0.463 0.022 0.688 0 0 0
0.251 0.097 1.087 255 255 255
-0.227 -0.184 2.057 255 255 255
0.065 0.566 1.494 255 255 255
-0.434 0.415 1.906 255 255 255
-0.568 0.646 1.331 255 255 255
-0.925 0.278 2.267 255 255 255
-0.226 0.459 1.755 255 255 255
0.263 -0.912 1.994 255 255 255
-1.292 -1.981 2.748 0 0 0
-0.661 0.5 1.677 255 255 255
0.012 -0.047 1.252 255 255 255
-0.471 0.485 1.707 255 255 255
-1.816 -0.851 2.994 255 255 255
0.856 -1.299 2.05 255 255 255
0.261 0.669 1.225 255 255 255
0.543 -0.093 0.939 255 255 255
-0.517 -0.188 1.934 255 255 255
0.145 -1.085 1.835 255 255 255
1.056 -0.629 2.379 255 255 255
0.585 -0.956 2.094 255 255 255
-0.494 -0.341 1.895 255 255 255
0.44 0.214 0.901 255 255 255
0.651 -1.431 1.928 0 0 0
-0.556 0.32 2.139 255 255 255
-0.982 0.193 2.482 255 255 255
-0.424 -0.955 1.686 255 255 255
0.414 -0.126 1.078 255 255 255
0.055 0.106 1.39 255 255 255
0.299 0.404 0.81 255 255 255
-0.102 0.363 2.026 255 255 255
0.334 -1.325 1.854 255 255 255
0.326 -0.669 2.106 255 255 255
0.057 0.544 1.545 255 255 255
0.379 -0.086 0.988 255 255 255
-0.158 0.372 2.005 255 255 255
0.375 0.087 1.04 255 255 255
0.315 0.328 0.801 255 255 255
-0.725 0.011 1.188 255 255 255
-0.317 -0.19 2.021 255 255 255
0.414 0.054 0.804 255 255 255
0.023 0.491 1.668 255 255 255
-0.41 -1.134 1.62 255 255 255
0.317 0.183 0.953 255 255 255
-0.304 0.62 1.373 0 0 0
0.447 -1.016 2.015 255 255 255
1.214 -1.345 2.216 255 255 255
0.846 -0.601 2.315 255 255 255
0.351 -0.019 1.059 255 255 255
-0.021 0.145 1.315 0 0 0
-0.737 -0.002 1.175 255 255 255
-0.125 -0.904 1.808 255 255 255
-0.157 0.608 1.401 255 255 255
0.129 0.295 2.164 255 255 255
0.131 -0.122 1.129 255 255 255
0.442 0.212 0.891 255 255 255
0.025 -0.297 2.097 0 0 0
0.153 0.356 1.419 255 255 255
0.243 -0.21 1.222 0 0 0
-0.594 0.588 1.465 255 255 255
0.204 0.311 1.074 255 255 255
0.369 -1.358 1.865 0 0 0
0.179 -0.267 1.161 0 0 0
0.478 -0.846 2.087 255 255 255
-0.388 0.529 1.595 255 255 255
-0.477 0.59 1.453 255 255 255
-0.531 -0.759 1.708 255 255 255
-0.49 0.158 2.102 255 255 255
0.092 0.62 1.365 0 0 0
0.243 0.615 1.356 255 255 255
0.077 0.673 1.231 255 255 255
-0.484 0.494 1.683 255 255 255
0.513 -0.897 2.086 255 255 255
0.136 -0.152 1.132 255 255 255
0.387 0.134 1.012 255 255 255
0.164 -0.671 1.999 255 255 255
-0.316 -0.482 1.904 255 255 255
0.145 0.148 1.112 255 255 255
-0.026 0.638 1.321 255 255 255
1.202 -0.931 2.363 255 255 255
-0.72 0.373 2.026 255 255 255
0.397 -0.812 2.075 255 255 255
0.508 -0.039 0.811 255 255 255
-0.724 0.548 1.568 255 255 255
0.325 0.119 1.134 255 255 255
-0.448 0.49 1.688 255 255 255
-0.631 0.265 2.265 255 255 255
0.344 0.281 0.787 255 255 255
0.387 -0.149 1.163 255 255 255
-0.564 -0.432 1.842 255 255 255
0.184 -0.835 1.942 255 255 255
0.43 0.149 0.857 255 255 255
0.35 -0.848 2.049 255 255 255
0.488 -0.024 0.793 255 255 255
-0.068 0.604 1.405 255 255 255
-0.489 -0.368 1.888 255 255 255
-0.463 0.485 1.706 255 255 255
-1.008 0.126 2.612 0 0 0
1.475 -0.787 2.513 255 255 255
-0.38 -0.468 1.887 255 255 255
0.435 0.153 0.844 255 255 255
-0.11 0.062 2.195 255 255 255
0.414 0.171 0.943 255 255 255
0.121 -1.122 1.815 255 255 255
0.271 -0.979 1.969 255 255 255
-1.586 -1.391 2.866 255 255 255
0.086 0.166 1.163 255 255 255
0.063 -0.081 1.17 255 255 255
0.703 -0.392 2.353 255 255 255
-0.192 0.436 1.814 255 255 255
0.136 0.657 1.264 255 255 255
0.04 -0.739 1.933 255 255 255
0.068 -0.804 1.918 255 255 255
-1.173 -1.415 2.877 255 255 255
0.425 0.24 0.933 255 255 255
-1.095 -1.921 2.722 0 0 0
-0.447 -0.784 1.742 255 255 255
0.428 0.1 0.784 255 255 255
0.03 0.586 1.449 255 255 255
0.313 -0.152 1.25 0 0 0
-0.315 -0.154 2.039 255 255 255
-0.313 -0.746 1.802 255 255 255
0.469 0.016 0.682 0 0 0
-0.188 0.498 1.66 255 255 255
-0.318 -0.687 1.823 255 255 255
-0.464 0.616 1.391 0 0 0
0.219 0.166 1.059 255 255 255
0.019 0.02 1.216 255 255 255
-0.236 0.543 1.552 255 255 255
0.122 0.393 1.905 0 0 0
0.005 0.162 1.395 0 0 0
0.289 0.31 0.831 255 255 255
-0.366 -0.232 1.989 255 255 255
0.154 -0.91 1.905 255 255 255
-0.959 0.259 2.311 255 255 255
-0.403 -0.686 1.797 255 255 255
1.333 -1.099 2.341 255 255 255
-0.376 0.617 1.379 0 0 0
0.088 -0.033 1.105 255 255 255
-0.04 0.644 1.306 255 255 255
0.11 -0.272 1.178 0 0 0
0.798 -0.883 2.189 255 255 255
-0.95 0.266 2.288 255 255 255
0.563 -0.878 2.106 255 255 255
0.15 -0.048 1.106 255 255 255
0.412 0.093 0.843 255 255 255
-0.734 0.244 1.279 255 255 255
-1.296 0.089 2.753 255 255 255
-0.424 0.64 1.33 255 255 255
0.428 0.01 0.64 0 0 0
-0.105 0.375 1.998 255 255 255
-0.573 -0.199 1.953 255 255 255
-0.141 0.473 1.716 255 255 255
1.153 -1.069 2.297 255 255 255
0.202 0.076 1.144 255 255 255
0.364 -0.02 0.987 255 255 255
0.065 -0.619 1.99 255 255 255
0.414 -0.945 2.028 255 255 255
-1.659 -1.311 2.864 255 255 255
-0.22 -0.536 1.916 255 255 255
-1.687 -1.365 2.839 255 255 255
0.416 0.046 0.812 255 255 255
-0.584 0.432 1.865 255 255 255
-0.368 -0.267 1.976 255 255 255
0.048 -0.144 1.203 255 255 255
-0.435 -1.041 1.65 255 255 255
0.245 0.216 0.89 255 255 255
0.414 0.124 0.876 255 255 255
0.266 0.211 0.961 255 255 255
0.417 0.156 0.937 255 255 255
0.27 0.461 0.909 255 255 255
-0.17 -0.079 2.121 255 255 255
0.285 0.558 1.176 255 255 255
0.19 0.561 1.492 255 255 255
0.453 0.017 0.682 0 0 0
0.523 -0.094 0.994 255 255 255
0.209 0.111 1.093 255 255 255
-0.489 -0.128 1.988 255 255 255
-0.02 0.533 1.575 255 255 255
-0.654 0.491 1.701 255 255 255
1.422 -0.758 2.509 255 255 255
-1.288 -0.015 1.764 255 255 255
-0.293 -0.911 1.747 255 255 255
0.029 -0.178 1.315 0 0 0
-0.404 -0.769 1.763 255 255 255
0.454 0.063 0.692 255 255 255
0.565 -0.114 0.94 255 255 255
0.203 0.264 1.081 255 255 255
0.786 -0.937 2.167 255 255 255
-0.377 -1.033 1.669 255 255 255
0.288 0.334 0.828 255 255 255
-1.011 0.38 2.008 255 255 255
-0.401 -0.751 1.772 255 255 255
-1.315 -1.763 2.824 255 255 255
-0.413 -1.099 1.632 255 255 255
0.474 -0.162 1.169 255 255 255
0.437 -0.646 2.154 255 255 255
-0.355 0.617 1.383 0 0 0
1.241 -0.903 2.387 255 255 255
-0.292 0.517 1.617 255 255 255
-0.071 0.427 1.833 255 255 255
-1.193 -1.673 2.782 255 255 255
0.316 0.271 0.812 255 255 255
0.269 0.295 0.856 255 255 255
-0.415 -0.196 1.989 255 255 255
0.246 0.21 0.988 255 255 255
0.479 -1.205 1.95 255 255 255
-1.045 0.284 2.244 255 255 255
-0.997 0.431 1.885 255 255 255
-0.373 0.567 1.503 255 255 255
-0.219 0.473 1.724 255 255 255
0.031 -0.87 1.882 255 255 255
0.014 0.023 1.241 255 255 255
-0.2 -0.605 1.898 255 255 255
0.061 -0.598 1.993 255 255 255
-0.356 -0.413 1.917 255 255 255
-0.408 -1.179 1.606 0 0 0
0.647 -0.885 2.133 255 255 255
0.107 -0.198 1.135 255 255 255
1.118 -1.225 2.205 255 255 255
-0.396 -0.829 1.745 255 255 255
0.731 -0.996 2.119 255 255 255
0.423 0.2 0.94 255 255 255
-0.986 0.4 1.955 255 255 255
-0.141 0.612 1.388 0 0 0
0.069 -0.666 1.973 255 255 255
0.898 -1.361 2.042 255 255 255
-0.639 0.388 1.983 255 255 255
0.156 -0.188 1.139 255 255 255
-0.227 -0.752 1.825 255 255 255
0.413 0.02 0.853 255 255 255
-0.02 -0.883 1.853 255 255 255
-0.677 0.49 1.709 255 255 255
0.433 -0.065 0.93 255 255 255
-0.64 0.439 1.847 255 255 255
-0.642 0.467 1.762 255 255 255
-0.389 -0.438 1.897 255 255 255
0.257 0.16 1.041 255 255 255
-1.093 -1.769 2.782 0 0 0
0.206 0.35 1.108 255 255 255
0.305 0.382 0.818 255 255 255
0.246 0.007 1.151 255 255 255
-0.332 -0.291 1.978 255 255 255
-0.144 -1.091 1.74 255 255 255
-0.119 -0.601 1.929 255 255 255
-0.738 0.006 1.177 255 255 255
0.739 -0.977 2.136 255 255 255
0.701 -0.61 2.262 255 255 255
0.142 -0.197 1.14 255 255 255
-0.175 0.26 2.235 255 255 255
0.121 0.142 1.138 255 255 255
0.102 0.016 1.088 255 255 255
-0.017 -0.223 2.116 255 255 255
-0.809 -0.013 1.219 255 255 255
0.325 -1.124 1.932 255 255 255
-0.242 -0.411 1.957 255 255 255
1.779 -0.812 2.613 255 255 255
1.718 -0.526 2.454 0 0 0
0.46 -0.165 1.181 255 255 255
0.212 0.276 0.978 255 255 255
0.035 -1.057 1.808 255 255 255
-0.231 0.669 1.259 255 255 255
-0.533 0.654 1.312 255 255 255
0.487 -0.095 0.724 255 255 255
0.413 -0.966 2.02 255 255 255
0.129 -0.229 1.146 255 255 255
-1.739 -1.094 2.922 255 255 255
-0.298 -0.761 1.799 255 255 255
-0.392 0.471 1.736 255 255 255
-0.258 0.548 1.543 255 255 255
1.18 -0.846 2.39 255 255 255
0.291 0.032 1.122 255 255 255
0.345 0.016 1.094 255 255 255
0.339 -0.687 2.103 255 255 255
0.179 -1.106 1.835 255 255 255
-0.671 0.397 1.957 255 255 255
0.297 -1.024 1.957 255 255 255
-0.351 -0.7 1.808 255 255 255
-0.428 0.324 2.154 255 255 255
0.762 -1.196 2.053 255 255 255
-1.671 -1.357 2.843 255 255 255
0.281 0.28 0.849 255 255 255
-0.02 0.637 1.325 255 255 255
-0.952 0.151 2.572 255 255 255
-0.554 0.571 1.506 255 255 255
0.051 -0.902 1.873 255 255 255
-0.448 0.369 2.05 255 255 255
0.178 -0.169 1.134 255 255 255
-0.359 -0.849 1.747 255 255 255
-0.442 0.111 2.106 255 255 255
0.443 -0.009 0.685 255 255 255
-0.073 0.408 1.888 255 255 255
-0.177 0.146 2.208 255 255 255
-1.04 0.31 2.184 255 255 255
0.448 0.009 0.763 255 255 255
-0.216 0.64 1.321 255 255 255
-0.191 -0.46 1.957 255 255 255
0.177 -0.672 2.001 255 255 255
0.537 -0.075 0.9 255 255 255
-0.579 0.043 2.058 255 255 255
-0.496 -0.971 1.652 255 255 255
0.286 0.019 1.13 255 255 255
-0.534 -0.072 1.987 255 255 255
-0.071 0.288 2.21 255 255 255
0.452 -0.631 2.166 255 255 255
-0.125 0.569 1.49 255 255 255
-1.28 0.2 2.491 255 255 255
-0.167 -0.958 1.779 255 255 255
0.412 0.208 0.794 255 255 255
0.64 -0.177 1.177 255 255 255
-0.051 -1.008 1.79 255 255 255
-0.695 0.465 1.774 255 255 255
-1.159 0.291 2.227 255 255 255
0.949 -1.447 2.026 0 0 0
-0.208 -1.126 1.691 255 255 255
0.303 -1.364 1.832 0 0 0
0.659 -1.281 1.987 255 255 255
-0.214 0.518 1.617 255 255 255
-0.315 -0.915 1.736 255 255 255
-0.331 0.499 1.661 255 255 255
0.411 0.029 0.843 255 255 255
-0.343 -0.752 1.792 255 255 255
-1.56 0.075 2.79 255 255 255
-0.247 -0.699 1.841 255 255 255
-0.113 -0.231 2.078 255 255 255
0.562 -0.406 2.29 255 255 255
0.402 -0.149 1.146 255 255 255
-1.256 -1.492 2.943 255 255 255
0.233 0.306 0.878 255 255 255
-0.71 0.399 1.956 255 255 255
-0.445 -0.505 1.85 255 255 255
0.415 -0.593 2.172 255 255 255
0.436 0.009 0.627 0 0 0
-0.102 -0.404 2.009 255 255 255
-0.579 -0.152 1.961 255 255 255
-0.233 -0.36 1.986 255 255 255
1.036 -1.129 2.177 255 255 255
0.174 0.549 1.524 255 255 255
0.189 -0.015 1.112 255 255 255
-1.434 -1.637 2.836 255 255 255
0.379 -1.099 1.955 255 255 255
-0.241 -0.889 1.771 255 255 255
-1.227 -0.104 1.678 255 255 255
0.265 -0.727 2.063 255 255 255
-0.395 -0.558 1.845 255 255 255
-0.083 -0.003 2.179 0 0 0
-0.416 -0.284 1.949 255 255 255
-0.437 -0.31 1.93 255 255 255
0.163 -0.2 1.142 255 255 255
0.73 -1.293 2.01 255 255 255
-0.646 0.581 1.481 255 255 255
-0.5 0.617 1.392 0 0 0
-0.038 -0.298 2.076 255 255 255
0.409 -0.944 2.027 255 255 255
-0.287 -0.167 2.043 255 255 255
0.09 -0.017 1.104 255 255 255
0.754 -1.082 2.103 255 255 255
-0.739 0.154 1.233 255 255 255
-1.209 -1.57 2.847 255 255 255
-0.116 0.29 2.225 255 255 255
-1.032 0.216 2.422 255 255 255
0.345 -0.038 1.048 255 255 255
-0.151 -0.329 2.027 255 255 255
-1.437 -1.354 2.937 255 255 255
-0.21 -0.488 1.938 255 255 255
0.092 -1.14 1.797 255 255 255
1.47 -0.934 2.458 255 255 255
0.742 -1.064 2.102 255 255 255
0.805 -1.074 2.12 255 255 255
-0.123 0.075 2.2 255 255 255
0.44 0.142 0.798 255 255 255
0.136 0.634 1.328 255 255 255
-0.536 -0.53 1.795 255 255 255
0.248 0.215 0.894 255 255 255
0.72 -0.184 1.204 255 255 255
1.015 -0.701 2.337 255 255 255
0.042 -0.089 1.183 255 255 255
0.06 0.068 1.262 255 255 255
0.334 -1.281 1.872 255 255 255
0.95 -1.42 2.042 255 255 255
-0.622 0.305 2.18 255 255 255
0.602 -1.004 2.072 255 255 255
-0.386 -0.496 1.872 255 255 255
0.025 0.076 1.264 255 255 255
-0.309 0.183 2.166 255 255 255
-0.201 -1.075 1.726 255 255 255
-1.399 -1.774 2.788 255 255 255
-0.543 -0.549 1.788 255 255 255
0.724 -1.201 2.041 255 255 255
0.122 0.043 1.116 255 255 255
0.915 -0.732 2.287 255 255 255
-0.446 -0.864 1.712 255 255 255
-0.079 0.584 1.452 255 255 255
0.109 -0.855 1.909 255 255 255
0.398 0.09 0.9 255 255 255
0.208 0.318 1.058 255 255 255
0.302 0.127 1.044 255 255 255
-0.436 -1.183 1.592 0 0 0
1.218 -0.694 2.463 255 255 255
0.756 -0.567 2.299 255 255 255
0.034 -0.178 1.239 0 0 0
-1.441 -1.452 2.899 255 255 255
-0.292 -0.942 1.729 255 255 255
0.068 -0.2 1.176 255 255 255
-0.133 0.138 2.216 0 0 0
-0.304 0.309 2.187 255 255 255
-0.527 -0.751 1.71 255 255 255
-0.241 0.04 2.15 255 255 255
0.273 0.649 1.265 255 255 255
0.418 0.027 0.832 255 255 255
0.369 -0.868 2.049 255 255 255
0.174 -0.135 1.126 255 255 255
-0.055 -1.042 1.783 0 0 0
0.625 -0.934 2.107 255 255 255
-0.318 0.091 2.143 255 255 255
0.436 -1.085 1.979 255 255 255
-0.571 0.635 1.352 255 255 255
-0.357 0.416 1.9 255 255 255
-0.008 -1.099 1.78 255 255 255
0.325 0.339 0.762 255 255 255
0.545 -0.622 2.208 255 255 255
0.04 0.001 1.184 255 255 255
-0.407 -0.856 1.729 255 255 255
-1.51 -1.461 2.863 255 255 255
0.117 0.568 1.488 255 255 255
0.204 0.176 1.081 255 255 255
0.366 0.039 1.03 255 255 255
-0.31 -0.453 1.919 255 255 255
0.336 0.255 0.821 255 255 255
0.264 0.024 1.138 255 255 255
0.157 0.21 1.113 255 255 255
0.443 0.06 0.755 255 255 255
0.199 0.171 1.19 255 255 255
-0.008 -1.18 1.743 255 255 255
-0.644 0.561 1.527 255 255 255
0.249 0.297 0.86 255 255 255
0.448 -0.618 2.171 255 255 255
0.385 -0.091 0.997 255 255 255
-0.357 0.662 1.272 255 255 255
0.268 0.158 1.043 255 255 255
0.103 0.604 1.402 255 255 255
-0.561 0.587 1.47 255 255 255
0.282 0.426 0.857 255 255 255
0.5 -0.711 2.155 255 255 255
0.276 -0.9 1.999 255 255 255
0.303 -0.041 1.137 0 0 0
-0.499 -0.588 1.795 255 255 255
0.028 0.638 1.322 255 255 255
0.656 -0.734 2.202 255 255 255
0.263 0.468 0.911 255 255 255
0.535 -0.989 2.051 255 255 255
0.352 0.043 1.086 255 255 255
-0.296 -0.977 1.719 255 255 255
-0.758 -0.066 1.136 255 255 255
-1.495 -1.339 2.917 255 255 255
-0.538 -0.778 1.701 255 255 255
-0.323 -0.241 2 255 255 255
-0.14 0.456 1.762 255 255 255
0.388 -1.187 1.923 255 255 255
0.199 0.065 1.153 255 255 255
0.234 -0.214 1.213 0 0 0
0.264 -0.133 1.246 255 255 255
0.544 -1.146 1.996 255 255 255
0.288 0.306 0.833 255 255 255
0.402 -0.549 2.181 255 255 255
-0.552 0.593 1.452 255 255 255
1.05 -0.755 2.327 255 255 255
0.444 0.162 0.819 255 255 255
-0.437 -0.447 1.875 255 255 255
0.426 -0.026 0.898 255 255 255
0.615 -1.33 1.945 255 255 255
-1.158 -1.624 2.801 0 0 0
-0.013 -0.687 1.934 255 255 255
-0.761 -0.218 1.073 255 255 255
0.925 -0.697 2.307 255 255 255
-0.555 0.44 1.835 255 255 255
-0.531 0.644 1.329 255 255 255
-1.278 -1.528 2.931 255 255 255
1.623 -0.787 2.574 255 255 255
-0.516 -0.807 1.696 255 255 255
0.588 -0.792 2.15 255 255 255
0.163 -0.136 1.129 255 255 255
0.639 -0.713 2.2 255 255 255
0.248 -0.676 2.077 255 255 255
0.366 0.094 1.075 255 255 255
-0.38 0.624 1.37 0 0 0
-0.515 -0.483 1.816 255 255 255
-0.438 -0.077 2.027 255 255 255
0.004 -0.581 1.98 255 255 255
-0.365 0.568 1.498 255 255 255
-0.194 0.15 2.203 255 255 255
0.015 -1.112 1.778 255 255 255
-1.213 0.014 2.919 255 255 255
-0.431 -0.498 1.858 255 255 255
0.304 0.371 0.817 255 255 255
-0.299 0.546 1.552 255 255 255
0.049 -0.016 1.174 255 255 255
-0.496 0.184 2.105 255 255 255
-0.281 0.329 2.146 255 255 255
-0.238 0.435 1.825 255 255 255
-0.399 0.37 2.041 255 255 255
-0.028 0.387 1.939 255 255 255
-0.481 0.133 2.1 255 255 255
-0.306 -0.732 1.811 255 255 255
0.522 -1.436 1.875 0 0 0
0.432 -0.155 1.163 255 255 255
-1.58 -1.465 2.83 255 255 255
-1.289 -1.863 2.792 255 255 255
-1.016 0.09 2.666 255 255 255
0.305 0.35 0.815 255 255 255
0.461 -0.051 0.89 255 255 255
0.051 -0.933 1.861 255 255 255
0.828 -0.875 2.202 255 255 255
-0.858 0.43 1.88 255 255 255
0.965 -0.735 2.302 255 255 255
-0.298 -0.368 1.957 255 255 255
0.468 -0.086 0.724 255 255 255
-0.001 -0.65 1.953 255 255 255
-0.201 0.643 1.314 255 255 255
0.471 -0.016 0.665 255 255 255
1.313 -0.787 2.458 255 255 255
0.02 0.625 1.356 0 0 0
-0.318 0.622 1.368 0 0 0
0.328 0.203 0.931 255 255 255
0.316 -0.055 1.133 0 0 0
0.624 -0.371 2.328 255 255 255
-0.396 0.601 1.426 255 255 255
0.05 -0.27 1.253 0 0 0
0.728 -0.709 2.234 255 255 255
1.375 -1.1 2.36 255 255 255
0.461 0.029 0.692 0 0 0
0.104 -0.073 1.114 255 255 255
0.442 0.017 0.678 0 0 0
0.317 0.281 0.807 255 255 255
-1.121 -2.006 2.677 0 0 0
0.014 0.598 1.415 255 255 255
-0.478 -0.683 1.766 255 255 255
0.758 -1.329 2.005 255 255 255
0.354 0.066 1.105 255 255 255
0.427 0.08 0.761 255 255 255
0.455 -0.673 2.149 255 255 255
0.437 0.111 0.762 255 255 255
0.121 -0.964 1.873 255 255 255
-0.655 0.292 2.212 255 255 255
0.227 0.047 1.107 255 255 255
-0.412 0.449 1.798 255 255 255
-0.417 -0.688 1.789 255 255 255
0.372 0.07 1.018 255 255 255
0.288 -0.697 2.081 0 0 0
-0.282 -0.908 1.751 255 255 255
-1.043 0.253 2.328 255 255 255
-1.258 -0.141 1.698 255 255 255
-0.931 -0.034 2.828 255 255 255
-0.166 0.265 2.238 255 255 255
0.14 -0.617 2.01 255 255 255
0.308 -0.009 1.121 0 0 0
1.311 -1.11 2.332 255 255 255
0.11 0.18 1.148 255 255 255
0.405 0.002 0.89 255 255 255
0.206 0.328 1.094 255 255 255
1.017 -0.729 2.323 255 255 255
-0.307 0.675 1.241 255 255 255
0.201 0.329 1.262 255 255 255
0.297 -0.086 1.181 0 0 0
-0.465 -0.044 2.034 255 255 255
0.085 0.011 1.097 255 255 255
0.664 -1.446 1.93 0 0 0
0.216 0.297 0.941 255 255 255
0.128 0.126 1.123 255 255 255
0.222 0.384 1.084 255 255 255
-0.401 -0.223 1.979 255 255 255
1.41 -0.582 2.568 255 255 255
-1.59 -1.336 2.876 255 255 255
0.129 -1.138 1.808 255 255 255
-0.252 -1.009 1.723 255 255 255
-0.726 -0.002 1.185 255 255 255
-0.203 -0.295 2.018 255 255 255
0 0.441 1.795 255 255 255
0.391 -0.939 2.029 255 255 255
0.457 -0.009 0.711 255 255 255
0.202 0.268 1.05 255 255 255
-0.548 0.089 2.053 255 255 255
0.274 0.125 1.075 255 255 255
-1.282 0.055 2.826 255 255 255
-1.335 0.168 2.576 255 255 255
-1.193 0.328 2.128 255 255 255
0.314 -0.025 1.125 0 0 0
0.317 0.254 0.829 255 255 255
0.183 -0.979 1.89 255 255 255
-0.187 -0.702 1.864 255 255 255
-0.362 -0.933 1.712 0 0 0
-0.646 0.545 1.567 255 255 255
0.468 -1.35 1.897 255 255 255
-0.266 -0.403 1.955 255 255 255
0.279 0.26 0.852 255 255 255
1.661 -0.54 2.678 0 0 0
-0.244 -0.66 1.859 255 255 255
0.23 -0.215 1.209 0 0 0
0.493 -0.058 0.707 255 255 255
-0.364 -0.794 1.769 255 255 255
0.143 0.581 1.451 255 255 255
-0.473 0.334 2.128 255 255 255
0.072 -1.005 1.844 255 255 255
0.277 0.422 0.878 255 255 255
-0.507 0.439 1.838 255 255 255
0.023 0.61 1.389 0 0 0
-0.228 -0.551 1.91 255 255 255
-0.313 0.397 1.951 255 255 255
-0.028 -0.995 1.809 255 255 255
-0.005 -0.259 2.103 255 255 255
-0.773 0.509 1.663 255 255 255
-0.318 -1.062 1.678 255 255 255
0.094 0.059 1.126 255 255 255
0.098 -0.115 1.116 255 255 255
-0.239 0.524 1.6 255 255 255
-0.137 -0.745 1.867 255 255 255
0.042 0.091 1.34 255 255 255
0.241 -0.887 1.994 255 255 255
-0.005 -0.173 2.133 0 0 0
-0.522 -1.05 1.602 255 255 255
1.334 -1.192 2.314 255 255 255
0.472 -0.04 0.836 255 255 255
0.003 0.555 1.521 255 255 255
0.45 -0.012 0.783 255 255 255
0.029 -0.126 1.243 0 0 0
0.048 -0.201 1.211 0 0 0
0.739 -0.556 2.298 255 255 255
0.39 0.216 0.774 255 255 255
0.67 -1.266 1.998 255 255 255
0.463 -1.354 1.895 255 255 255
0.962 -1.353 2.072 255 255 255
-0.079 -0.849 1.845 255 255 255
-0.834 -0.096 1.21 255 255 255
0.432 0.04 0.803 255 255 255
-0.301 -0.797 1.784 255 255 255
-0.018 0.628 1.348 255 255 255
0.551 -0.104 0.969 255 255 255
-0.392 0.679 1.245 255 255 255
0.371 0.265 0.795 255 255 255
-0.419 0.58 1.473 255 255 255
0.236 0.035 1.128 255 255 255
0.422 -1.193 1.938 255 255 255
-0.426 0.398 1.962 255 255 255
-0.595 -1.009 1.625 255 255 255
0.072 0.126 1.395 255 255 255
-0.374 -0.094 2.044 255 255 255
0.159 0.082 1.103 255 255 255
-0.299 -0.692 1.828 255 255 255
-0.058 0.443 1.789 255 255 255
0.391 0.035 0.872 255 255 255
-0.055 -1.16 1.735 255 255 255
0.37 -0.041 1.009 255 255 255
-0.026 0.013 1.285 255 255 255
0.058 0.48 1.69 255 255 255
0.188 0.11 1.113 255 255 255
0.049 -0.547 2.008 255 255 255
-0.461 -0.081 2.017 255 255 255
-0.511 0.394 1.969 255 255 255
1.623 -0.707 2.6 255 255 255
-0.573 -0.556 1.807 255 255 255
0.166 0.559 1.505 255 255 255
0.648 -1.208 2.01 255 255 255
0.23 -0.018 1.178 255 255 255
-0.185 -1.111 1.708 255 255 255
0.313 0.196 0.926 255 255 255
0.512 -0.141 1.084 255 255 255
0.453 0 0.77 255 255 255
-0.093 0.373 1.992 255 255 255
0.449 -0.111 1.015 255 255 255
-0.018 0.086 1.264 255 255 255
-0.262 -1.092 1.709 255 255 255
1.404 -0.642 2.547 255 255 255
-0.346 0.082 2.127 255 255 255
0.467 -0.01 0.654 255 255 255
1.669 -0.678 2.621 255 255 255
-1.201 -2.054 2.637 255 255 255
0.074 0.57 1.486 255 255 255
0.649 -1.34 1.962 255 255 255
-0.132 -0.994 1.771 255 255 255
-0.14 -0.86 1.82 255 255 255
0.154 -0.549 2.045 255 255 255
0.148 0.011 1.092 255 255 255
-0.557 -0.036 2.008 255 255 255
0.322 0.322 0.783 255 255 255
-1.131 -1.959 2.707 0 0 0
-0.355 0.665 1.265 255 255 255
0.395 -1.311 1.884 255 255 255
-0.112 -0.571 1.943 255 255 255
-0.515 -0.422 1.842 255 255 255
-0.091 -0.016 2.173 255 255 255
-0.524 -0.298 1.889 255 255 255
-0.017 -0.486 2.006 255 255 255
0.364 0.234 0.795 0 0 0
0.24 0.135 1.065 255 255 255
-0.227 -0.558 1.907 255 255 255
0.722 -0.721 2.228 255 255 255
-0.865 0.473 1.759 255 255 255
-0.538 -0.659 1.746 255 255 255
0.773 -0.729 2.242 255 255 255
-0.589 -0.734 1.737 255 255 255
0.296 0.571 1.139 255 255 255
0.264 0.041 1.125 255 255 255
-0.251 -0.282 2.008 255 255 255
0.339 -1.15 1.93 255 255 255
0.426 -0.821 2.082 255 255 255
-0.427 0.548 1.55 255 255 255
-0.521 -0.032 2.003 255 255 255
0.726 -1.079 2.092 255 255 255
-1.343 -1.52 2.911 255 255 255
0.023 -1.056 1.806 255 255 255
0.216 0.051 1.13 255 255 255
0.477 -0.077 0.925 255 255 255
0.966 -1.391 2.052 255 255 255
0.103 0.538 1.558 255 255 255
0.455 0.079 0.717 255 255 255
0.055 0.608 1.39 255 255 255
-0.297 -0.066 2.085 255 255 255
0.282 0.404 0.851 255 255 255
-0.082 -0.363 2.037 255 255 255
-0.124 0.64 1.314 255 255 255
0.413 -0.025 0.917 255 255 255
0.736 -1.299 2.009 255 255 255
0.206 0.646 1.287 255 255 255
0.638 -0.862 2.141 255 255 255
0.813 -1.463 1.973 0 0 0
1.256 -0.757 2.452 255 255 255
-1.316 -1.918 2.763 255 255 255
0.733 -0.817 2.191 255 255 255
-0.227 0.653 1.292 255 255 255
-0.394 -0.718 1.785 255 255 255
-0.334 0.629 1.353 0 0 0
-0.295 -1.085 1.665 255 255 255
-0.561 0.137 2.086 255 255 255
0.369 0.035 0.987 255 255 255
-1.253 -0.228 1.656 255 255 255
-0.395 0.487 1.699 255 255 255
1.586 -0.774 2.562 255 255 255
1.679 -0.844 2.556 255 255 255
0.22 0.398 1.096 255 255 255
-0.16 0.634 1.333 255 255 255
0.063 -0.025 1.144 255 255 255
-0.108 -0.565 1.95 255 255 255
-0.387 0.035 2.093 255 255 255
0.226 0.233 1.013 255 255 255
0.321 0.33 0.773 255 255 255
1.765 -0.601 2.664 0 0 0
1.148 -1.214 2.236 255 255 255
-0.434 0.064 2.087 255 255 255
-0.23 -0.841 1.792 255 255 255
0.069 0.045 1.128 255 255 255
0.016 -0.247 2.11 0 0 0
0.429 0.003 0.601 255 255 255
0.429 0.119 0.8 255 255 255
-0.192 0.613 1.387 0 0 0
0.446 0.005 0.773 255 255 255
-0.748 0.261 1.271 255 255 255
-0.156 -0.125 2.11 255 255 255
-0.724 0.106 1.222 255 255 255
0.173 0.631 1.326 255 255 255
-1.315 -0.035 1.726 255 255 255
0.141 -1.174 1.8 255 255 255
0.165 -0.188 1.139 255 255 255
0.194 0.591 1.42 255 255 255
0.7 -0.542 2.289 255 255 255
-0.832 0.157 2.442 255 255 255
0.473 -0.889 2.073 255 255 255
-0.092 0.439 1.8 255 255 255
0.154 0.091 1.102 255 255 255
0.11 0.614 1.373 0 0 0
0.044 -0.824 1.901 255 255 255
-0.087 -0.021 2.173 255 255 255
-0.227 0.674 1.245 255 255 255
-0.489 0.516 1.631 255 255 255
0.219 0.645 1.284 255 255 255
0.138 0.512 1.519 255 255 255
-0.155 -0.508 1.953 255 255 255
-0.271 -0.469 1.923 255 255 255
-0.728 0.338 1.325 255 255 255
0.417 0.059 0.794 255 255 255
-1.221 -1.616 2.842 255 255 255
1.234 -0.702 2.468 255 255 255
0.214 0.344 1.037 255 255 255
-1.279 -2.014 2.737 0 0 0
0.539 -0.154 1.089 255 255 255
0.886 -1.13 2.125 255 255 255
0.588 -0.508 2.263 255 255 255
-1.064 -1.774 2.798 255 255 255
0.02 -0.123 1.264 0 0 0
-1.275 -1.684 2.868 255 255 255
-0.256 -1.204 1.639 0 0 0
0.352 0.3 0.75 255 255 255
-0.092 -0.66 1.918 255 255 255
0.123 -0.071 1.118 255 255 255
-0.213 0.676 1.243 255 255 255
-1.655 -1.125 2.937 255 255 255
1.009 -0.413 2.451 255 255 255
0.441 -0.811 2.091 255 255 255
0.235 0.657 1.254 255 255 255
0.443 0.059 0.755 255 255 255
-0.559 -0.175 1.951 255 255 255
-0.299 0.233 2.187 255 255 255
-0.29 0.508 1.645 255 255 255
-0.445 0.005 2.06 255 255 255
0.748 -0.22 1.315 255 255 255
1.04 -1.377 2.079 255 255 255
-0.057 0.604 1.405 255 255 255
0.63 -0.935 2.109 255 255 255
0.087 -0.222 1.175 255 255 255
0.237 -0.833 2.012 255 255 255
-0.327 -0.313 1.969 255 255 255
0.324 0.359 0.768 255 255 255
0.057 -0.567 2.005 255 255 255
0.188 0.615 1.361 255 255 255
0.295 0.353 0.82 255 255 255
-0.325 -0.709 1.814 255 255 255
0.315 0.31 0.804 255 255 255
0.034 0.389 1.929 255 255 255
0.089 0.106 1.398 255 255 255
-0.384 -0.853 1.735 255 255 255
0.838 -1.104 2.117 255 255 255
0.361 0.02 1.028 255 255 255
0.128 0.627 1.342 255 255 255
0.074 0.016 1.102 255 255 255
-0.461 -0.233 1.953 255 255 255
0.25 0.628 1.319 255 255 255
0.455 -1.134 1.97 255 255 255
-0.319 -0.625 1.846 255 255 255
1.566 -0.546 2.64 255 255 255
0.607 -1.354 1.939 255 255 255
-0.343 0.576 1.485 255 255 255
0.378 0.22 0.78 255 255 255
0.199 -0.125 1.153 255 255 255
0.433 0.101 0.764 255 255 255
-0.203 -0.642 1.884 255 255 255
-0.031 0.589 1.44 255 255 255
-0.375 -0.146 2.023 255 255 255
0.188 -0.115 1.128 255 255 255
-0.661 0.486 1.711 255 255 255
0.08 0.646 1.297 255 255 255
-1.899 -0.812 2.972 255 255 255
0.071 -0.935 1.863 255 255 255
0.109 0.197 1.151 255 255 255
0.015 -0.059 1.251 255 255 255
0.849 -0.574 2.328 255 255 255
0.161 -0.15 1.131 255 255 255
0.107 -0.015 1.1 255 255 255
