ply
format ascii 1.0
comment Created by Open3D
element vertex 1579
property double x
property double y
property double z
property uchar red
property uchar green
property uchar blue
end_header
0.3 -0.304 1.1 255 255 255
-0.025 0.317 1.54 255 255 255
-0.328 0.54 1.236 0 0 0
0.449 -1.385 2.04 255 255 255
-0.072 -0.256 1.073 255 255 255
-0.793 -0.125 1.938 255 255 255
-0.005 0.009 1.102 255 255 255
-0.254 -1.105 1.738 255 255 255
-0.015 0.422 1.442 255 255 255
-1.444 -0.02 2.355 255 255 255
-1.733 -0.172 2.652 255 255 255
-0.707 -0.706 1.687 255 255 255
0.169 0.329 0.761 255 255 255
0.215 -0.129 1 255 255 255
0.2 -0.059 1.095 255 255 255
-0.573 0.423 1.463 255 255 255
0.388 -0.01 0.654 255 255 255
0.67 -1.488 2.101 255 255 255
-0.803 0.073 2.035 255 255 255
-0.615 -0.909 1.635 255 255 255
0.198 0.277 0.742 255 255 255
-1.031 -0.101 2.191 0 0 0
-0.626 0.112 2.093 255 255 255
0.291 0.245 0.699 255 255 255
0.309 -0.212 0.916 255 255 255
0.075 0.189 1.009 255 255 255
-0.343 -0.782 1.855 255 255 255
0.493 -0.967 2.272 255 255 255
-0.088 0.54 1.226 0 0 0
0.173 0.516 1.247 255 255 255
0.949 -1.596 2.262 255 255 255
0.093 -0.747 2.157 255 255 255
-1.118 0.276 1.778 255 255 255
0.789 -1.048 2.445 255 255 255
1.24 -1.658 2.405 255 255 255
-0.129 -0.275 1.13 255 255 255
0.008 0.436 1.416 255 255 255
0.283 0.184 0.761 255 255 255
0.027 0.4 1.477 255 255 255
-0.542 0.556 1.224 0 0 0
0.646 -1.536 2.062 0 0 0
-0.74 -0.045 2.026 255 255 255
-0.438 -0.599 1.892 255 255 255
0.651 -0.944 2.367 255 255 255
-0.102 -0.378 1.118 255 255 255
-0.154 0.555 1.204 0 0 0
0.135 -1.149 1.981 255 255 255
0.203 0.257 0.831 255 255 255
-0.714 0.096 2.083 255 255 255
-0.356 0.04 2.187 255 255 255
0.144 -0.769 2.177 255 255 255
0.209 0.067 0.966 255 255 255
0.365 -0.155 0.779 255 255 255
-0.255 0.126 2.019 255 255 255
0 0.236 1.449 255 255 255
-0.27 -0.832 1.865 255 255 255
-1.557 -1.164 2.81 255 255 255
-0.241 0.471 1.361 255 255 255
1.265 -1.539 2.467 255 255 255
0.618 -1.473 2.079 255 255 255
0.287 -1.318 1.976 255 255 255
1.131 -1.659 2.321 0 0 0
0.339 -0.164 0.806 255 255 255
-1.341 0.173 1.988 255 255 255
-0.076 0.437 1.418 255 255 255
-0.954 0.107 2.09 255 255 255
0.652 -0.29 0.954 255 255 255
1.33 -1.443 2.548 255 255 255
1.49 -1.197 2.713 255 255 255
0.364 0.015 0.687 255 255 255
-0.853 -0.566 1.698 255 255 255
0.33 -0.153 0.798 255 255 255
1.498 -1.363 2.59 255 255 255
0.538 -1.467 2.038 0 0 0
-0.678 -0.868 1.623 255 255 255
1.101 -1.598 2.335 255 255 255
-0.3 0.49 1.328 255 255 255
0.418 -0.252 0.747 255 255 255
0.387 0.08 0.7 255 255 255
0.385 -0.084 0.692 255 255 255
-0.348 0.592 1.149 255 255 255
0.467 -1.199 2.136 255 255 255
-0.721 -0.667 1.701 255 255 255
0.373 0.091 0.74 255 255 255
-0.059 0.381 1.525 255 255 255
0.359 -0.354 1.152 255 255 255
0.272 -0.128 0.879 255 255 255
0.408 0.057 0.613 255 255 255
0.185 0.036 0.981 255 255 255
-0.473 -1.083 1.626 255 255 255
0.584 -1.559 2.024 0 0 0
-0.58 -1.11 1.542 255 255 255
0.327 0.037 0.835 255 255 255
0.302 -0.145 0.864 255 255 255
-0.219 -0.909 1.85 255 255 255
-0.924 0.191 1.938 255 255 255
0.404 -0.08 0.671 255 255 255
0.288 0.01 0.932 255 255 255
0.289 0.268 0.666 255 255 255
0.645 -0.803 2.439 255 255 255
0.249 -0.059 0.941 255 255 255
-0.361 0.563 1.198 255 255 255
-0.394 0.128 2.034 255 255 255
0.966 -1.737 2.192 255 255 255
0.327 -0.097 0.757 255 255 255
0.136 0.586 1.12 255 255 255
0.395 -0.037 0.641 255 255 255
-0.138 -0.176 1.138 255 255 255
0.162 -1.16 1.989 255 255 255
0.302 -0.115 0.84 255 255 255
0.192 0.069 0.945 255 255 255
-0.358 -0.406 2.044 255 255 255
-0.743 -0.194 1.945 255 255 255
-0.389 0.563 1.199 255 255 255
-0.898 0.312 1.699 255 255 255
-0.792 -0.845 1.567 255 255 255
0.308 -0.984 2.16 255 255 255
-0.386 0.326 1.636 255 255 255
-0.673 -0.986 1.565 255 255 255
-1.342 0.011 2.291 255 255 255
-0.532 -0.168 2.075 255 255 255
-0.455 0.514 1.296 255 255 255
-0.258 0.487 1.334 255 255 255
0.432 -0.757 2.342 255 255 255
-0.702 -0.445 1.831 255 255 255
-0.824 -0.915 1.509 255 255 255
-0.293 0.618 1.106 255 255 255
-0.088 -0.128 1.069 255 255 255
-0.575 -0.865 1.678 255 255 255
-0.802 0.043 2.02 255 255 255
0.573 -1.227 2.183 255 255 255
0.351 -1.34 2.002 255 255 255
-1.806 -0.977 2.909 255 255 255
-0.364 -0.473 2 255 255 255
0.144 -0.231 1.112 255 255 255
0.193 0.155 0.852 255 255 255
0.123 0.288 1.169 255 255 255
-0.267 0.525 1.266 255 255 255
-0.833 -0.846 1.537 255 255 255
-0.4 0.351 1.589 255 255 255
-0.271 0.097 2.081 255 255 255
-0.607 -0.016 2.093 255 255 255
0.547 -0.902 2.332 255 255 255
0.434 -0.229 0.748 255 255 255
0.32 -0.295 1.087 255 255 255
0.253 -1.356 1.94 255 255 255
-0.595 -0.905 1.65 255 255 255
0.903 -1.274 2.393 255 255 255
-0.469 -0.219 2.084 255 255 255
-0.155 0.515 1.269 255 255 255
0.022 0.587 1.127 255 255 255
0.385 0.075 0.693 255 255 255
-0.116 0.344 1.587 255 255 255
-0.651 0.222 1.867 255 255 255
-0.181 -0.197 1.208 255 255 255
0.125 -0.746 2.181 255 255 255
-0.221 0.532 1.252 255 255 255
-1.414 -0.112 2.458 255 255 255
-0.022 -0.008 1.103 255 255 255
-0.133 -0.21 1.135 255 255 255
-0.044 0.601 1.111 255 255 255
-0.217 0.464 1.37 255 255 255
0.257 0.338 0.695 255 255 255
1.327 -0.933 2.362 0 0 0
-0.63 0.497 1.337 255 255 255
0.37 -0.205 0.73 255 255 255
0.337 -0.081 0.715 255 255 255
0.365 0.081 0.75 255 255 255
-0.108 -0.396 1.125 255 255 255
-0.577 -0.246 2.009 255 255 255
0.306 -0.067 0.789 255 255 255
-0.249 0.096 2.077 255 255 255
-0.358 -0.753 1.856 255 255 255
-0.781 -0.512 1.74 255 255 255
0.352 -0.059 0.689 255 255 255
-0.47 -0.805 1.767 255 255 255
-0.75 0.416 1.492 255 255 255
0.327 0.167 0.726 255 255 255
0.302 0.593 1.068 255 255 255
0.09 0.076 1.027 255 255 255
-0.309 -0.778 1.871 255 255 255
0.1 0.208 0.938 255 255 255
0.485 -1.336 2.071 255 255 255
-0.331 0.612 1.116 255 255 255
0.496 -0.21 0.749 255 255 255
0.407 0.126 0.698 255 255 255
-0.033 -0.22 1.086 255 255 255
-0.499 -0.861 1.722 255 255 255
-1.015 0.297 1.733 255 255 255
-0.075 -0.301 1.079 255 255 255
0.063 0.587 1.126 255 255 255
-0.509 -0.899 1.7 255 255 255
-0.597 0.477 1.374 255 255 255
-0.643 -0.705 1.725 255 255 255
-0.223 0.346 1.591 255 255 255
0.501 -1.375 2.063 255 255 255
0.006 0.018 1.104 255 255 255
0.029 -1.087 1.957 255 255 255
0.885 -1.568 2.235 255 255 255
-0.46 -0.239 2.078 255 255 255
-0.819 -0.843 1.545 255 255 255
0.298 0.261 0.678 255 255 255
0.926 -1.638 2.225 0 0 0
-0.199 -1.002 1.814 255 255 255
-0.539 -0.709 1.78 255 255 255
-0.166 0.274 1.719 255 255 255
0.232 -0.074 0.99 255 255 255
0.183 -0.285 1.118 255 255 255
0.054 0.137 1.137 255 255 255
0.441 -1.054 2.204 255 255 255
0.107 0.126 0.917 255 255 255
0.02 -0.083 1.138 255 255 255
0.383 0.116 0.739 255 255 255
0.29 -0.085 0.822 255 255 255
-0.202 -1.054 1.788 255 255 255
-0.353 0.466 1.376 255 255 255
-0.465 0.286 1.716 255 255 255
-0.066 0.014 1.141 255 255 255
0.631 -1.198 2.227 255 255 255
-0.447 0.041 2.197 255 255 255
0.05 -1.293 1.86 255 255 255
0.187 -0.159 1.065 255 255 255
-0.326 0.567 1.188 255 255 255
0.154 0.034 0.987 255 255 255
-2.013 -0.81 2.881 255 255 255
-0.087 -0.205 1.072 255 255 255
-0.081 -0.856 2.008 255 255 255
0.108 0.594 1.111 255 255 255
0.27 0.138 0.819 255 255 255
-0.038 -1.137 1.893 255 255 255
0.172 -0.05 1.148 255 255 255
-0.024 0.43 1.427 255 255 255
-0.601 -0.506 1.856 255 255 255
-0.451 0.203 1.88 255 255 255
-0.751 -0.248 1.914 255 255 255
0.209 0.05 0.989 255 255 255
0.025 0.549 1.197 0 0 0
-0.228 0.546 1.223 0 0 0
0.284 0.164 0.763 255 255 255
1.113 -1.551 2.371 255 255 255
0.588 -1.245 2.18 255 255 255
-0.029 -0.213 1.083 255 255 255
0.405 0.122 0.698 255 255 255
-0.33 0.445 1.411 255 255 255
0.333 0.194 0.722 255 255 255
0.89 -1.186 2.436 255 255 255
0.267 0.565 1.149 255 255 255
-0.335 -0.599 1.949 255 255 255
-0.676 0.332 1.643 255 255 255
0.198 0.225 0.848 255 255 255
-0.381 -0.914 1.76 255 255 255
0.368 -0.067 0.686 255 255 255
-0.045 -0.274 1.093 255 255 255
0.623 -1.485 2.076 255 255 255
-0.181 0.427 1.441 255 255 255
0.163 0.331 0.767 255 255 255
0.237 0.215 0.804 255 255 255
-0.171 0.493 1.318 255 255 255
-0.009 0.487 1.324 255 255 255
-0.23 0.514 1.281 255 255 255
0.17 0.281 0.753 255 255 255
-0.063 -0.334 1.088 255 255 255
0.155 -0.948 2.092 255 255 255
-0.076 -1.067 1.911 255 255 255
0.536 -1.013 2.271 255 255 255
0.585 -1.435 2.085 255 255 255
-0.07 0.504 1.291 255 255 255
0.272 0.28 0.697 255 255 255
0.234 0.385 0.731 255 255 255
-2.081 -0.66 2.901 255 255 255
-0.178 0.568 1.179 255 255 255
-0.456 0.333 1.624 255 255 255
0.191 0.275 0.85 255 255 255
-0.642 0.252 1.804 255 255 255
0.056 0.507 1.277 255 255 255
-0.558 -0.059 2.11 255 255 255
0.073 -0.224 1.175 255 255 255
0.303 0.259 0.666 255 255 255
0.128 0.155 0.882 255 255 255
1.657 -1.2 2.717 255 255 255
-0.303 0.531 1.254 255 255 255
0.315 0.254 0.656 255 255 255
0.13 -0.101 1.1 255 255 255
-0.017 -1.246 1.848 255 255 255
-0.338 0.312 1.659 255 255 255
0.047 -1.049 1.982 255 255 255
-0.118 0.264 1.73 0 0 0
0.526 -1.086 2.226 255 255 255
-1.467 -0.064 2.448 255 255 255
0.533 -0.754 2.42 255 255 255
0.851 -1.218 2.393 255 255 255
0.149 0.1 0.884 255 255 255
-0.655 -0.401 1.884 255 255 255
0.915 -1.461 2.305 255 255 255
-0.59 0.315 1.669 255 255 255
0.414 -0.044 0.604 255 255 255
-0.9 0.248 1.825 255 255 255
0.257 0.091 0.827 255 255 255
-0.347 0.619 1.104 255 255 255
-0.464 -0.729 1.812 255 255 255
-0.23 -0.052 1.257 255 255 255
0.203 0.179 0.837 255 255 255
0.273 -0.094 0.849 255 255 255
0.363 0.067 0.744 255 255 255
0.312 0.033 0.884 255 255 255
-0.024 -0.196 1.077 255 255 255
0.893 -0.842 2.609 255 255 255
-0.059 -1.069 1.915 255 255 255
-1.691 -0.145 2.6 255 255 255
-0.892 0.276 1.769 255 255 255
-1.271 0.142 2.043 255 255 255
-0.32 -0.779 1.861 255 255 255
-0.412 0.471 1.369 255 255 255
-0.153 0.433 1.431 255 255 255
1.278 -1.33 2.576 255 255 255
0.488 -0.971 2.268 255 255 255
-0.042 -0.265 1.094 255 255 255
-0.62 -0.537 1.83 255 255 255
0.008 -1.25 1.862 255 255 255
-0.349 -1.079 1.694 255 255 255
-0.575 -0.791 1.715 255 255 255
0.381 0.132 0.737 0 0 0
-0.077 -0.286 1.076 255 255 255
-0.573 -0.354 1.953 255 255 255
0.881 -0.935 2.552 255 255 255
0.324 0.182 0.772 255 255 255
-0.765 -0.701 1.657 255 255 255
-0.119 -0.241 1.124 255 255 255
-1.395 0.088 2.147 255 255 255
-0.63 -0.084 2.063 255 255 255
-0.361 -0.756 1.852 255 255 255
0.245 0.292 0.721 255 255 255
-0.362 -0.658 1.903 255 255 255
-0.048 0.413 1.464 255 255 255
-0.827 -0.767 1.578 255 255 255
0.134 0.154 0.883 255 255 255
-0.604 0.378 1.547 255 255 255
0.235 -0.111 0.947 255 255 255
-0.7 -1.174 1.453 255 255 255
0.323 -0.962 2.179 255 255 255
-0.286 -1.22 1.658 0 0 0
0.433 -0.972 2.239 255 255 255
0.538 -1.09 2.232 255 255 255
-0.399 0.318 1.648 255 255 255
0.231 0.029 1.002 0 0 0
0.076 0.49 1.308 255 255 255
0.95 -1.51 2.301 255 255 255
0.107 -0.008 1.059 255 255 255
0.912 -1.199 2.444 255 255 255
-0.274 0.065 2.135 255 255 255
0.463 -1.411 2.023 255 255 255
-1.535 -1.119 2.853 255 255 255
0.418 0.139 0.699 255 255 255
0.518 -0.382 1.23 255 255 255
0.22 0.255 0.723 255 255 255
0.071 -0.069 1.121 255 255 255
0.317 -1.255 2.027 255 255 255
-0.672 -0.116 2.024 255 255 255
0.779 -1.665 2.129 255 255 255
0.313 -0.08 0.797 255 255 255
0.427 -0.088 0.649 0 0 0
0.373 -0.164 0.804 255 255 255
0.3 0.069 0.949 255 255 255
-0.418 0.484 1.343 255 255 255
-0.199 0.268 1.728 255 255 255
1.234 -1.315 2.556 255 255 255
-0.705 0.377 1.559 255 255 255
-0.541 0.1 2.112 255 255 255
0.191 0.24 0.856 255 255 255
0.337 -0.131 0.786 255 255 255
-0.788 -0.133 1.938 255 255 255
0.067 0.112 1.052 255 255 255
-0.36 0.517 1.284 255 255 255
-0.041 0.523 1.21 255 255 255
0.369 -0.054 0.702 255 255 255
-2.242 -0.303 2.971 255 255 255
-0.37 -1.082 1.68 255 255 255
0.298 0.566 1.05 255 255 255
-0.448 0.576 1.176 255 255 255
0.342 -1.276 2.03 255 255 255
-0.044 -0.226 1.09 255 255 255
-0.254 -0.102 1.338 255 255 255
-0.105 0.413 1.463 255 255 255
-0.007 0.382 1.515 255 255 255
0.486 -1.382 2.057 255 255 255
0.1 0.583 1.133 255 255 255
1.18 -1.363 2.502 255 255 255
0.326 0.228 0.708 255 255 255
-0.284 0.427 1.443 255 255 255
0.309 -0.675 2.32 255 255 255
-0.48 0.462 1.387 255 255 255
0.284 0.577 1.107 255 255 255
-0.77 0.304 1.708 255 255 255
-0.175 0.132 1.991 255 255 255
0.137 -0.958 2.082 255 255 255
-0.648 0.292 1.717 255 255 255
1.038 -1.551 2.334 255 255 255
0.379 -0.2 0.726 255 255 255
0.254 0.224 0.739 255 255 255
0.093 0.098 0.995 255 255 255
-0.684 -1.122 1.489 0 0 0
0.713 -1.386 2.191 255 255 255
0.933 -1.096 2.503 255 255 255
-0.431 -1.079 1.651 255 255 255
0.246 0.571 1.117 255 255 255
0.171 -0.135 1.108 255 255 255
0.355 -0.032 0.718 255 255 255
0.163 0.542 1.201 255 255 255
-0.261 0.599 1.132 255 255 255
0.38 -0.103 0.72 0 0 0
0.002 -0.384 1.117 0 0 0
0.051 -0.318 1.197 255 255 255
0.333 -0.093 0.717 0 0 0
-0.031 0.468 1.356 255 255 255
-0.338 -0.552 1.978 255 255 255
0.623 -0.781 2.442 255 255 255
0.257 -0.302 1.09 255 255 255
0.288 0.151 0.772 255 255 255
-1.28 0.186 1.956 255 255 255
0.351 0.203 0.717 255 255 255
0.366 0.199 0.696 255 255 255
0.345 -0.092 0.719 0 0 0
0.362 -0.029 0.706 255 255 255
-0.498 -0.904 1.702 255 255 255
-0.509 0.477 1.366 255 255 255
1.407 -1.252 2.69 255 255 255
0.356 -0.166 0.708 255 255 255
0.327 0.076 0.764 0 0 0
-0.431 0.271 1.742 255 255 255
0.261 0.183 0.77 255 255 255
-0.515 -0.757 1.768 255 255 255
-0.478 -0.501 1.924 255 255 255
-0.663 0.234 1.841 255 255 255
-0.82 -0.581 1.678 255 255 255
0.13 -0.026 1.09 255 255 255
-0.327 -0.534 1.992 255 255 255
-0.646 0.351 1.602 255 255 255
-0.391 -0.842 1.795 255 255 255
-0.781 0.069 2.038 255 255 255
0.254 0.162 0.787 255 255 255
-0.132 -1.286 1.71 0 0 0
-0.365 0.598 1.139 255 255 255
-0.132 0.436 1.424 255 255 255
-0.814 -0.529 1.705 255 255 255
0.205 -1.017 2.083 255 255 255
-0.353 0.357 1.577 255 255 255
-0.456 -1.056 1.647 255 255 255
0.182 0.225 0.86 255 255 255
0.283 0.006 0.942 255 255 255
0.107 0.011 1.052 255 255 255
0.24 0.339 0.71 255 255 255
0.071 0.134 1.046 255 255 255
-0.026 -1.35 1.791 0 0 0
-0.61 -0.153 2.037 255 255 255
-0.018 0.016 1.111 255 255 255
0.223 0.348 0.733 255 255 255
0.254 0.161 0.788 255 255 255
0.296 0.077 0.957 255 255 255
0.304 -0.03 0.823 255 255 255
0.347 -0.01 0.708 255 255 255
0.776 -1.127 2.397 255 255 255
-0.599 0.001 2.11 255 255 255
0.205 0.154 0.836 255 255 255
1.319 -1.532 2.504 255 255 255
0.207 -0.288 1.096 255 255 255
-0.498 0.095 2.117 255 255 255
-0.477 -1.018 1.651 255 255 255
0.197 0.142 0.847 255 255 255
-0.125 -0.027 1.365 255 255 255
0.271 0.189 0.757 255 255 255
0.391 0.202 0.723 255 255 255
-0.479 0.433 1.441 255 255 255
0.675 -0.813 2.449 255 255 255
0.155 0.224 0.913 255 255 255
0.307 0.07 0.811 255 255 255
-0.545 -0.715 1.773 255 255 255
-0.346 0.327 1.629 255 255 255
-0.708 -0.979 1.551 255 255 255
0.337 -0.004 0.748 255 255 255
0.065 -0.967 2.039 255 255 255
0.33 0.114 0.727 255 255 255
-0.358 -0.459 2.014 255 255 255
-0.339 -0.893 1.795 255 255 255
-0.306 0.316 1.65 255 255 255
0.166 0.058 0.983 255 255 255
0.038 -1.02 1.994 255 255 255
-0.465 -0.585 1.884 255 255 255
-0.436 0.547 1.229 0 0 0
0.069 -1.022 2.007 255 255 255
0.354 -0.964 2.194 255 255 255
-0.208 0.503 1.301 255 255 255
0.191 -0.205 1.044 255 255 255
-0.686 -0.34 1.895 255 255 255
-0.719 -1.029 1.517 255 255 255
0.107 -1.206 1.935 255 255 255
-0.381 0.62 1.104 255 255 255
-0.184 -0.999 1.827 255 255 255
0.159 -0.124 1.151 255 255 255
-0.66 -0.436 1.856 255 255 255
0.098 0.144 0.905 255 255 255
1.235 -1.576 2.428 255 255 255
-0.812 0.372 1.571 255 255 255
0.415 0 0.628 255 255 255
0.423 -0.832 2.302 255 255 255
-0.161 -0.129 1.175 255 255 255
0.191 -0.223 1.054 255 255 255
0.404 0.04 0.603 255 255 255
1.093 -1.694 2.285 0 0 0
0.138 -0.014 1.05 255 255 255
-0.086 -0.15 1.073 255 255 255
-0.201 0.432 1.435 255 255 255
0.055 0.122 1.106 255 255 255
-0.175 -0.167 1.206 255 255 255
-0.73 0.234 1.851 255 255 255
-0.055 0.451 1.395 255 255 255
0.348 -0.213 0.91 255 255 255
0.299 -0.036 0.831 255 255 255
-0.759 -0.753 1.636 255 255 255
-0.727 -0.969 1.542 255 255 255
0.42 -0.28 0.963 255 255 255
0.123 0.048 1.027 255 255 255
-0.34 -0.872 1.808 255 255 255
0.105 -0.964 2.062 255 255 255
-0.129 -1.05 1.827 255 255 255
0.111 0.554 1.185 255 255 255
-0.629 -0.542 1.818 255 255 255
0.242 -0.708 2.267 255 255 255
0.68 -0.904 2.405 255 255 255
0.063 0.588 1.123 255 255 255
1.207 -1.683 2.359 0 0 0
0.077 0.535 1.223 255 255 255
-0.777 0.149 2.023 255 255 255
0.38 0.083 0.714 255 255 255
0.191 0.314 0.752 255 255 255
0.072 0.009 1.066 255 255 255
-0.214 0.122 2.018 255 255 255
-0.156 0.484 1.335 255 255 255
0.242 -0.161 0.939 255 255 255
0.038 -1.044 1.982 255 255 255
-0.627 -0.079 2.068 255 255 255
0.341 -0.131 0.783 255 255 255
-1.092 0.255 1.818 255 255 255
-0.596 0.385 1.534 255 255 255
0.267 0.126 0.844 0 0 0
-0.41 0.348 1.592 255 255 255
-0.707 -0.72 1.682 255 255 255
0.963 -1.562 2.282 255 255 255
-1.705 -0.151 2.611 255 255 255
-0.432 0.268 1.747 255 255 255
-0.779 0.001 2.009 255 255 255
0.018 0.503 1.252 255 255 255
-0.445 0.133 2.036 255 255 255
-0.58 0.146 2.027 255 255 255
0.099 -0.002 1.06 255 255 255
0.022 -0.079 1.139 255 255 255
0.326 0.156 0.72 255 255 255
1.003 -0.99 2.595 255 255 255
-0.053 0.085 1.149 255 255 255
0.079 -0.305 1.226 0 0 0
-0.352 0.438 1.427 255 255 255
-0.858 -0.568 1.688 255 255 255
-0.123 0.003 1.396 255 255 255
0.448 -1.39 2.03 255 255 255
-0.442 0.385 1.527 255 255 255
-0.282 -0.804 1.872 255 255 255
0.335 -0.127 0.656 255 255 255
0.363 0.176 0.712 255 255 255
0.038 -0.98 2.013 255 255 255
-0.039 -0.856 2.03 255 255 255
-0.347 0.617 1.106 255 255 255
0.156 0.028 1 255 255 255
-0.427 0.601 1.137 255 255 255
-0.315 0.521 1.272 255 255 255
0.37 0.025 0.675 255 255 255
-0.061 -0.268 1.076 255 255 255
-0.153 0.121 2.007 0 0 0
-0.096 0.316 1.63 0 0 0
0.268 -0.085 0.863 255 255 255
0.244 -0.018 1.021 255 255 255
0.243 0.326 0.711 255 255 255
-0.436 -0.141 2.136 0 0 0
0.097 0.162 0.913 255 255 255
0.394 0.074 0.668 255 255 255
-1.306 -0.296 2.667 255 255 255
0.253 0.373 0.69 255 255 255
-0.011 0.481 1.333 255 255 255
0.309 0.095 0.749 255 255 255
0.252 0.093 0.831 255 255 255
-0.642 0.018 2.089 255 255 255
0.449 -0.086 0.625 255 255 255
0.159 -0.989 2.081 255 255 255
-0.507 -0.106 2.119 255 255 255
-0.843 -0.649 1.646 255 255 255
0.343 -0.198 0.732 255 255 255
-0.059 -1.238 1.827 255 255 255
-0.228 0.354 1.578 255 255 255
-0.047 0.325 1.549 0 0 0
-0.474 -1.147 1.584 0 0 0
0.138 0.025 1.029 255 255 255
0.331 0.136 0.727 255 255 255
0.403 0.166 0.734 255 255 255
-1.643 0.012 2.318 255 255 255
0.462 -0.91 2.281 255 255 255
0.202 0.265 0.739 255 255 255
-0.566 -0.486 1.882 255 255 255
-0.335 -0.893 1.796 255 255 255
-0.264 -0.955 1.809 255 255 255
-0.731 -0.707 1.673 255 255 255
-0.739 -0.399 1.833 255 255 255
-0.745 -0.037 2.028 255 255 255
-0.009 -0.036 1.093 255 255 255
-0.775 0.373 1.569 255 255 255
-0.682 -1.082 1.515 255 255 255
0.017 -0.908 2.039 255 255 255
-0.867 0.176 1.969 255 255 255
-0.42 0.426 1.451 255 255 255
0.15 0.095 0.886 255 255 255
0.456 -0.079 0.638 0 0 0
-0.047 -0.872 2.023 255 255 255
1.016 -1.099 2.551 255 255 255
-0.247 -0.007 1.334 0 0 0
0.401 -0.17 0.705 255 255 255
0.339 -0.222 0.735 255 255 255
-0.366 -0.451 2.015 255 255 255
0.163 -0.753 2.198 255 255 255
0.335 0.17 0.799 255 255 255
-1.588 -0.065 2.455 255 255 255
0.091 0.053 1.045 255 255 255
0.061 -0.347 1.209 0 0 0
0.369 -0.198 0.728 255 255 255
0.046 -0.094 1.163 255 255 255
0.095 0.123 0.952 255 255 255
0.043 -0.158 1.132 255 255 255
0.157 0.076 0.896 255 255 255
-0.719 0.207 1.904 255 255 255
-0.362 0.263 1.747 255 255 255
0.202 0.175 0.834 255 255 255
-0.396 0.453 1.404 255 255 255
-0.005 0.582 1.146 255 255 255
-0.639 0.221 1.867 255 255 255
0.367 -0.158 0.702 255 255 255
-0.845 0.061 2.057 255 255 255
-0.645 0.399 1.51 255 255 255
-0.006 0.199 1.457 255 255 255
-0.58 0.416 1.474 255 255 255
-0.47 0.005 2.175 255 255 255
-1.219 0.222 1.885 255 255 255
-0.161 -0.104 1.214 255 255 255
-0.044 0.196 1.456 255 255 255
-0.091 -0.483 1.203 0 0 0
0.265 0.203 0.741 255 255 255
-0.442 0.251 1.776 255 255 255
0.375 -0.223 0.941 255 255 255
0.216 0.199 0.807 255 255 255
-0.057 0.59 1.132 255 255 255
-0.711 0.159 2.006 255 255 255
0.372 -0.221 0.735 255 255 255
-0.012 -0.455 1.142 0 0 0
0.042 -0.201 1.157 255 255 255
0.012 0.335 1.579 255 255 255
1.168 -1.161 2.602 255 255 255
0.196 0.361 0.758 255 255 255
-0.106 0.455 1.387 255 255 255
0.397 -0.028 0.666 255 255 255
0.006 0.282 1.471 255 255 255
-0.575 0.281 1.731 255 255 255
0.076 0.145 0.999 255 255 255
-0.373 0.463 1.381 255 255 255
0.925 -1.276 2.405 255 255 255
0.367 0.188 0.718 255 255 255
0.331 -0.1 0.798 255 255 255
-0.081 -0.389 1.114 255 255 255
0.397 0.021 0.622 255 255 255
0.002 0.584 1.139 255 255 255
-0.3 0.609 1.116 255 255 255
-0.18 0.547 1.222 0 0 0
0.374 -0.134 0.651 0 0 0
1.46 -1.194 2.539 255 255 255
0.202 -0.197 1.023 255 255 255
-0.157 0.142 1.967 0 0 0
0.184 0.088 0.903 255 255 255
-0.529 -0.83 1.725 255 255 255
0.235 0.251 0.818 255 255 255
0.405 0.016 0.616 255 255 255
0.392 0.089 0.695 255 255 255
0.119 -0.043 1.09 255 255 255
0.347 -0.284 1.058 255 255 255
-0.495 -0.189 2.084 255 255 255
0.264 0.244 0.734 255 255 255
-0.612 0.379 1.547 255 255 255
0.055 -1.319 1.849 255 255 255
-0.11 -1.192 1.805 255 255 255
0.171 0.305 0.903 255 255 255
-0.824 -0.783 1.576 255 255 255
0.387 -0.948 2.227 255 255 255
-0.742 0.104 2.069 255 255 255
0.283 0.26 0.694 255 255 255
-0.221 0.552 1.211 0 0 0
0.348 -0.102 0.612 0 0 0
0.418 -0.026 0.603 255 255 255
0.242 0.322 0.714 255 255 255
-1.168 0.03 2.224 255 255 255
-0.441 0.556 1.214 0 0 0
0 0.588 1.13 255 255 255
-0.248 0.061 2.14 255 255 255
-0.497 -0.132 2.115 255 255 255
-0.511 -0.784 1.761 255 255 255
0.113 0.151 0.888 255 255 255
-0.119 0.377 1.534 255 255 255
0.309 0.076 0.781 0 0 0
0.238 0.278 0.73 255 255 255
0.25 -0.234 0.952 255 255 255
0.415 -0.039 0.619 255 255 255
0.375 -0.235 0.741 255 255 255
-0.795 -0.512 1.722 255 255 255
-0.222 -0.015 1.253 255 255 255
-0.153 0.529 1.246 255 255 255
0.119 0.549 1.194 255 255 255
0.673 -1.186 2.254 255 255 255
-0.099 -0.228 1.087 255 255 255
0.17 -1.274 1.935 255 255 255
-0.499 -0.81 1.753 255 255 255
0.068 -1.197 1.921 255 255 255
0.36 -0.088 0.732 0 0 0
-0.933 0.223 1.876 255 255 255
-0.426 0.481 1.35 255 255 255
-0.094 0.307 1.654 255 255 255
0.557 -1.368 2.1 255 255 255
0.242 -0.002 1.016 255 255 255
0.479 -1.167 2.159 255 255 255
-0.646 -0.626 1.766 255 255 255
0.049 0.237 1.164 255 255 255
-0.264 -0.808 1.883 255 255 255
-0.003 0.379 1.518 255 255 255
-0.143 -0.873 1.916 255 255 255
-0.802 -0.46 1.748 255 255 255
0.419 -0.104 0.583 255 255 255
0.383 -0.277 1.012 255 255 255
0.837 -1.25 2.372 255 255 255
0.036 0.475 1.334 255 255 255
-0.488 -0.857 1.725 255 255 255
-0.388 -0.817 1.807 255 255 255
-0.375 0.345 1.6 255 255 255
0.172 -0.065 1.119 0 0 0
-0.731 -0.954 1.547 255 255 255
0.346 0.013 0.749 255 255 255
0.393 -0.048 0.665 255 255 255
0.513 -1.405 2.061 255 255 255
-2.14 -0.628 2.887 255 255 255
0.344 0.099 0.744 0 0 0
0.682 -1.142 2.282 255 255 255
-0.461 -0.318 2.036 255 255 255
-0.627 -0.556 1.811 255 255 255
-0.703 -0.888 1.595 255 255 255
0.017 0.52 1.177 0 0 0
0.072 0.011 1.066 255 255 255
-0.41 0.247 1.781 255 255 255
-0.599 -0.811 1.695 255 255 255
0.395 -0.06 0.652 255 255 255
-0.594 0.235 1.83 255 255 255
-0.818 -0.404 1.774 255 255 255
-0.149 0.493 1.32 255 255 255
-0.071 -0.072 1.11 255 255 255
0.885 -1.589 2.225 255 255 255
0.072 0.592 1.109 255 255 255
0.247 -0.211 0.968 255 255 255
1.164 -1.352 2.498 255 255 255
-0.095 0.423 1.446 255 255 255
0.275 -0.277 1.035 255 255 255
-0.365 0.574 1.177 255 255 255
-0.067 0.058 1.148 255 255 255
0.316 0.235 0.702 255 255 255
0 -0.303 1.095 255 255 255
-0.107 -0.218 1.106 255 255 255
-0.616 0.018 2.106 255 255 255
0.215 0.198 0.807 255 255 255
0.152 0.532 1.218 255 255 255
-0.48 -0.434 1.96 255 255 255
-0.363 -0.921 1.768 255 255 255
-0.639 0.454 1.415 255 255 255
0.172 0.128 0.874 255 255 255
-0.128 -0.301 1.136 255 255 255
-0.464 0.31 1.668 255 255 255
-0.596 -0.685 1.76 255 255 255
0.18 0.579 1.125 255 255 255
-0.673 -0.172 1.998 255 255 255
-0.022 -0.284 1.093 255 255 255
0.353 -0.103 0.595 255 255 255
0.198 -0.137 1.043 255 255 255
-0.591 0.421 1.466 255 255 255
0.099 -1.049 2.01 255 255 255
-0.797 -0.785 1.58 255 255 255
-0.156 -0.097 1.217 255 255 255
0.392 -0.254 0.741 255 255 255
-0.318 0.591 1.147 255 255 255
0.239 -1.381 1.918 255 255 255
0.378 0.023 0.649 0 0 0
-0.325 -0.648 1.93 255 255 255
0.307 -0.106 0.651 0 0 0
-0.674 -0.099 2.031 255 255 255
-1.893 -0.724 2.99 255 255 255
0.12 -0.012 1.055 255 255 255
-0.088 0.432 1.433 255 255 255
-0.148 0.2 1.847 255 255 255
0.169 -0.177 1.072 255 255 255
1.387 -1.257 2.675 255 255 255
0.301 0.033 0.929 255 255 255
-0.488 0.241 1.805 255 255 255
0.331 0.128 0.731 255 255 255
-0.456 -1.067 1.642 255 255 255
-0.415 0.11 2.08 255 255 255
-0.195 0.56 1.192 255 255 255
0.218 0.164 0.817 255 255 255
-0.02 0.054 1.124 255 255 255
-0.598 0.395 1.517 255 255 255
0.251 0.268 0.73 255 255 255
-1.185 -0.018 2.224 255 255 255
-0.374 -0.627 1.912 255 255 255
-0.477 -0.09 2.142 255 255 255
0.049 -0.212 1.174 255 255 255
0.414 -0.249 0.747 255 255 255
0.2 0.258 0.841 255 255 255
0.19 -1.105 2.033 255 255 255
0.142 -0.87 2.131 255 255 255
0.076 -1.299 1.868 255 255 255
-0.521 0.239 1.812 255 255 255
0.276 -0.05 0.875 255 255 255
-0.241 0.392 1.506 255 255 255
-0.006 0.441 1.405 255 255 255
0.286 0.079 0.844 255 255 255
0.297 0.28 0.649 255 255 255
-1.74 -0.172 2.651 255 255 255
0.957 -1.246 2.441 255 255 255
-0.19 -0.819 1.916 255 255 255
0.418 -0.076 0.671 255 255 255
0.336 0.221 0.712 255 255 255
-0.523 -0.526 1.884 255 255 255
1.185 -1.138 2.62 255 255 255
0.401 -0.048 0.657 255 255 255
-0.231 -0.078 1.263 255 255 255
-0.513 -0.877 1.708 255 255 255
-0.245 0.422 1.451 255 255 255
0.23 -0.941 2.139 255 255 255
0.342 -0.01 0.721 0 0 0
-0.573 -0.316 1.973 255 255 255
0.209 0.283 0.733 255 255 255
0.164 0.311 0.908 255 255 255
0.75 -1.509 2.196 255 255 255
0.191 0.316 0.752 255 255 255
-0.445 -1.065 1.648 255 255 255
1.138 -1.734 2.287 0 0 0
0.264 0.301 0.7 255 255 255
0.332 0.062 0.84 0 0 0
0.246 -1.158 2.037 255 255 255
-0.791 -0.646 1.655 255 255 255
-0.294 -1.204 1.664 0 0 0
0.179 0.146 0.871 255 255 255
0.425 -0.164 0.707 0 0 0
0.836 -1.072 2.464 255 255 255
-0.434 -0.162 2.127 255 255 255
0.713 -1.61 2.087 0 0 0
-0.155 -0.863 1.913 255 255 255
-0.729 -0.514 1.778 255 255 255
-0.473 -0.423 1.967 255 255 255
-0.495 -0.107 2.126 255 255 255
-0.638 -0.552 1.808 255 255 255
-0.304 -0.516 2.008 0 0 0
-0.786 -0.704 1.637 255 255 255
0.412 -0.205 0.729 255 255 255
0.126 0.03 1.054 255 255 255
-1.622 -0.945 2.886 0 0 0
-0.345 0.358 1.57 255 255 255
0.348 -0.029 0.722 255 255 255
0.376 -0.11 0.714 0 0 0
0.308 0.077 0.928 255 255 255
-0.306 0.148 1.978 255 255 255
0.248 -0.075 0.924 255 255 255
0.223 0.081 0.974 255 255 255
-0.484 -0.634 1.852 255 255 255
0.369 0.028 0.682 255 255 255
-1.71 -0.145 2.606 255 255 255
0.358 -0.038 0.716 255 255 255
0.076 0.226 1.108 255 255 255
0.218 0.57 1.144 255 255 255
0.073 -0.216 1.172 255 255 255
0.345 -0.146 0.79 255 255 255
0.08 0.028 1.058 255 255 255
0.528 -1.185 2.175 255 255 255
0.064 0.19 1.095 255 255 255
-0.241 0.482 1.339 255 255 255
0.367 -0.206 0.9 255 255 255
0.195 0.22 0.853 255 255 255
0.28 0.193 0.746 255 255 255
1.101 -0.902 2.695 255 255 255
0.337 -0.047 0.744 255 255 255
-0.999 0.284 1.763 255 255 255
0.816 -1.165 2.405 255 255 255
0.255 0.155 0.791 255 255 255
0.242 0.216 0.791 255 255 255
-0.451 -0.579 1.896 255 255 255
-0.617 0.112 2.094 255 255 255
-0.177 -0.903 1.879 255 255 255
-0.158 -0.358 1.177 0 0 0
0.27 0.354 0.673 255 255 255
-0.715 -0.21 1.952 255 255 255
-0.28 -1.107 1.716 255 255 255
0.139 0.465 1.344 255 255 255
-0.125 -1.047 1.831 0 0 0
0.131 0.067 0.979 255 255 255
-0.058 -0.419 1.103 0 0 0
0.135 -1.062 2.024 255 255 255
-0.209 -1.137 1.746 255 255 255
0.093 0.05 1.044 255 255 255
-0.479 -0.457 1.949 255 255 255
0.975 -0.572 1.578 255 255 255
-0.02 -0.084 1.087 255 255 255
1.011 -1.138 2.526 255 255 255
-2.052 -0.707 2.904 255 255 255
0.312 -0.861 2.225 255 255 255
0.731 -1.569 2.139 0 0 0
0.271 -0.151 0.906 255 255 255
-0.694 -0.697 1.699 255 255 255
0.041 0.529 1.237 255 255 255
0.277 0.242 0.715 255 255 255
-0.501 -1.045 1.629 255 255 255
1.318 -1.123 2.7 255 255 255
-0.535 -0.147 2.086 255 255 255
0.294 -0.003 0.888 255 255 255
0.029 -1.315 1.836 255 255 255
1.191 -1.563 2.405 255 255 255
0.752 -1.197 2.346 255 255 255
-0.685 0.169 1.982 255 255 255
-0.48 -0.976 1.664 255 255 255
0.877 -1.59 2.218 0 0 0
-0.441 -0.933 1.718 255 255 255
-0.528 0.221 1.852 255 255 255
0.41 -0.045 0.603 255 255 255
0.523 -1.336 2.094 255 255 255
0.06 -0.023 1.078 255 255 255
-0.359 -0.739 1.865 255 255 255
-0.091 -0.225 1.075 255 255 255
-0.246 0.475 1.354 255 255 255
-0.519 -0.622 1.834 255 255 255
-1.355 0.144 2.037 255 255 255
0.16 0.518 1.247 255 255 255
-0.013 -1.04 1.956 255 255 255
-0.627 -0.137 2.036 255 255 255
0.258 0.317 0.699 255 255 255
-0.746 -0.078 2.005 255 255 255
-0.025 -0.348 1.097 255 255 255
-0.192 0.46 1.379 255 255 255
0.177 -0.76 2.204 255 255 255
-0.49 0.545 1.241 0 0 0
0.366 0.184 0.718 255 255 255
0.075 0.499 1.292 255 255 255
-0.089 -0.865 2.006 255 255 255
-0.135 -0.076 1.272 255 255 255
0.412 -0.119 0.59 0 0 0
0.159 0.005 1.035 255 255 255
0.903 -1.448 2.309 255 255 255
-0.06 -0.247 1.085 255 255 255
0.393 -0.198 0.721 255 255 255
0.334 0.123 0.734 255 255 255
-0.384 0.612 1.116 255 255 255
-0.591 -0.059 2.1 255 255 255
-0.483 -0.355 2 255 255 255
0.15 0.122 0.886 255 255 255
-0.8 -0.622 1.662 255 255 255
-0.633 0.269 1.764 255 255 255
0.008 -0.889 2.041 255 255 255
0.04 -0.143 1.12 255 255 255
0.228 0.39 0.766 255 255 255
0.412 0.051 0.619 255 255 255
0.769 -1.42 2.247 255 255 255
0.496 -1.345 2.074 255 255 255
-0.513 -0.737 1.781 255 255 255
-0.718 -0.58 1.745 255 255 255
-0.349 0.28 1.718 255 255 255
0.273 -1.285 1.988 255 255 255
-0.309 0.339 1.61 255 255 255
1.473 -1.154 2.752 255 255 255
-0.318 0.127 2.03 255 255 255
0.137 0.528 1.229 255 255 255
0.974 -1.484 2.331 255 255 255
0.377 0.006 0.657 255 255 255
0.43 -0.004 0.615 255 255 255
-0.778 0.121 2.053 255 255 255
-0.123 -0.116 1.161 255 255 255
0.175 -0.227 1.077 255 255 255
0.404 -0.067 0.652 255 255 255
-1.556 -1.063 2.864 255 255 255
0.095 0.156 0.91 255 255 255
0.401 -0.209 0.883 0 0 0
0.055 -1.278 1.878 255 255 255
0.161 -0.077 1.134 0 0 0
0.19 0.262 0.857 255 255 255
-0.032 -0.113 1.055 255 255 255
0.272 0.247 0.715 255 255 255
-1.793 -0.897 2.959 255 255 255
0.365 0.197 0.71 255 255 255
-0.223 0.204 1.848 255 255 255
-0.413 0.054 2.184 255 255 255
0.403 0.139 0.726 255 255 255
0.369 -0.089 0.725 0 0 0
0.387 0.016 0.637 255 255 255
1.171 -1.434 2.469 255 255 255
-0.346 0.612 1.113 255 255 255
-0.069 0.028 1.145 255 255 255
-0.125 -1.256 1.736 0 0 0
-0.304 -0.718 1.907 255 255 255
0.517 -1.344 2.087 255 255 255
-1.406 0.075 2.182 255 255 255
-0.226 -0.949 1.828 255 255 255
-0.545 -1.078 1.588 255 255 255
-0.316 -1.118 1.69 255 255 255
-0.917 0.352 1.616 255 255 255
0.213 -1.153 2.021 255 255 255
-0.115 0.43 1.435 255 255 255
-0.501 -0.531 1.894 255 255 255
-0.665 -0.168 2.002 255 255 255
0.4 -0.987 2.206 255 255 255
0.254 0.1 0.982 255 255 255
-0.273 -1.055 1.751 255 255 255
-1.76 -0.898 2.974 255 255 255
-0.619 0.266 1.769 255 255 255
-0.521 0.449 1.417 255 255 255
-0.902 0.265 1.8 255 255 255
-0.322 0.586 1.154 255 255 255
-0.175 0.511 1.279 255 255 255
-0.559 -0.243 2.021 255 255 255
-0.051 -0.081 1.103 255 255 255
0.383 0.156 0.718 0 0 0
0.304 0.209 0.735 255 255 255
-0.365 0.128 2.035 255 255 255
-0.034 0.023 1.122 255 255 255
-0.374 0.622 1.098 255 255 255
0.313 0.122 0.761 255 255 255
-0.721 -0.012 2.039 255 255 255
-0.16 0.506 1.291 255 255 255
0.38 -0.203 0.727 255 255 255
0.353 -0.124 0.645 255 255 255
-0.783 -0.847 1.575 255 255 255
-0.384 -0.591 1.929 255 255 255
0.099 -0.189 1.149 255 255 255
0.648 -1.091 2.29 255 255 255
-0.127 0.602 1.114 255 255 255
-0.624 -0.557 1.814 255 255 255
-0.188 -0.982 1.832 255 255 255
-0.421 0.215 1.852 255 255 255
-0.556 -0.662 1.796 255 255 255
0.31 -0.784 2.264 255 255 255
-0.148 -1.112 1.789 255 255 255
-0.1 -0.392 1.121 255 255 255
0.004 -1.223 1.87 255 255 255
0.182 -0.76 2.206 255 255 255
0.243 0.571 1.113 255 255 255
-0.176 -1.007 1.826 255 255 255
0.225 0.047 0.996 255 255 255
0.976 -1.616 2.264 255 255 255
-1.562 -0.983 2.895 0 0 0
0.209 -0.152 0.989 255 255 255
-0.273 -0.732 1.913 0 0 0
0.146 0.381 1.012 255 255 255
-1.752 -0.021 2.389 255 255 255
-1.23 0.177 1.965 255 255 255
0.37 -0.014 0.684 255 255 255
-0.823 0.369 1.585 255 255 255
-0.435 -0.552 1.921 255 255 255
-0.029 0.041 1.125 255 255 255
-0.053 0.383 1.521 255 255 255
-0.502 -0.524 1.898 255 255 255
0.057 0.45 1.383 255 255 255
0.087 -0.16 1.143 255 255 255
0.046 -0.271 1.198 255 255 255
-0.276 -1.231 1.66 0 0 0
-0.605 0.079 2.133 255 255 255
-0.415 -0.405 2.011 255 255 255
0.312 -0.218 0.914 255 255 255
-0.619 -0.272 1.973 255 255 255
0.421 -0.219 0.743 255 255 255
0.334 0.051 0.826 255 255 255
-0.122 -0.933 1.895 255 255 255
0.53 -1.011 2.268 255 255 255
-0.683 -0.34 1.897 255 255 255
-0.175 -1.098 1.781 255 255 255
-0.603 -0.315 1.96 255 255 255
0.455 -0.846 2.309 255 255 255
-0.519 -1.105 1.578 255 255 255
0.054 0.23 1.163 255 255 255
0.043 0.251 1.183 255 255 255
1.715 -1.155 2.682 255 255 255
-0.454 -0.357 2.019 255 255 255
0.049 0.182 1.164 255 255 255
-0.034 0.591 1.13 255 255 255
-0.051 -0.087 1.099 255 255 255
0.921 -1.482 2.295 255 255 255
-0.289 0.057 2.153 255 255 255
0.423 -0.09 0.66 0 0 0
-0.838 -0.705 1.612 255 255 255
0.299 -0.034 0.834 255 255 255
-0.461 0.428 1.449 255 255 255
0.648 -1.242 2.218 255 255 255
0.367 0.011 0.669 255 255 255
0.152 0.077 0.934 255 255 255
0.32 0.187 0.761 255 255 255
0.427 -1.139 2.146 255 255 255
0.193 -1.18 1.995 255 255 255
0.155 0.368 1.197 255 255 255
0.085 -0.177 1.151 255 255 255
0.214 -0.647 2.28 255 255 255
-0.03 0.424 1.439 255 255 255
-0.51 0.469 1.381 255 255 255
0.38 -1.108 2.134 255 255 255
-1.298 -0.329 2.703 255 255 255
-0.186 0.49 1.324 255 255 255
0.076 -0.361 1.209 0 0 0
-0.268 -0.77 1.898 255 255 255
-0.107 -0.966 1.905 255 255 255
0.262 0.31 0.697 255 255 255
0.4 -0.318 1.075 255 255 255
-0.465 0.368 1.562 255 255 255
-0.145 0.546 1.217 0 0 0
0.28 -0.088 0.837 255 255 255
0.196 0.012 0.993 255 255 255
-0.369 0.441 1.422 255 255 255
-0.037 0.497 1.25 255 255 255
-0.27 0.435 1.429 255 255 255
-0.207 0.528 1.252 255 255 255
0.39 -1.435 1.97 0 0 0
0.225 0.049 0.995 255 255 255
-0.63 0.01 2.093 255 255 255
-0.113 -0.216 1.12 255 255 255
-0.28 -0.907 1.822 255 255 255
0.059 -0.152 1.14 255 255 255
-0.109 0.538 1.228 255 255 255
-0.746 0.218 1.883 255 255 255
0.274 0.324 0.66 255 255 255
-0.67 -0.947 1.584 255 255 255
0.369 0.012 0.661 255 255 255
0.263 0.107 0.818 0 0 0
0.268 -1.204 2.021 255 255 255
0.188 -0.183 1.03 255 255 255
-0.708 -0.347 1.883 255 255 255
-0.599 -0.121 2.061 255 255 255
-0.064 -0.955 1.973 255 255 255
-1.843 -0.866 2.953 255 255 255
-0.122 -0.435 1.17 0 0 0
-0.394 -0.608 1.914 255 255 255
-0.274 0.304 1.666 255 255 255
0.109 0.059 1.014 255 255 255
-0.237 -0.058 1.268 255 255 255
-0.411 -0.352 2.042 255 255 255
-0.481 -0.737 1.797 255 255 255
0.107 0 1.057 255 255 255
-0.78 0.399 1.526 255 255 255
-0.834 0.074 2.051 255 255 255
0.405 0.119 0.695 255 255 255
-0.742 -0.512 1.767 255 255 255
0.331 -0.084 0.769 255 255 255
0.204 0.072 0.953 255 255 255
-0.159 0.543 1.223 0 0 0
-0.494 0.552 1.226 0 0 0
0.26 0.37 0.683 255 255 255
0.097 -0.808 2.137 255 255 255
0.761 -1.659 2.125 255 255 255
-0.219 0.469 1.364 255 255 255
0.653 -1.527 2.075 0 0 0
-0.09 0.476 1.351 255 255 255
-0.393 0.554 1.214 0 0 0
-0.149 0.519 1.263 255 255 255
0.315 -0.048 0.766 255 255 255
0.451 -0.959 2.257 255 255 255
0.629 -1.262 2.194 255 255 255
-0.783 -0.385 1.806 255 255 255
0.238 0.359 0.717 255 255 255
0.239 -0.269 1.054 255 255 255
-0.007 -0.247 1.096 255 255 255
0.649 -1.203 2.234 255 255 255
-0.226 -0.914 1.842 255 255 255
-0.375 0.362 1.567 255 255 255
0.292 0.03 0.95 255 255 255
-1.73 -0.893 2.995 255 255 255
-0.201 0.533 1.244 255 255 255
1.359 -1.394 2.583 255 255 255
-0.222 -0.088 1.255 255 255 255
-2.135 -0.687 2.871 255 255 255
-0.454 -0.399 1.996 255 255 255
0.131 -0.057 1.115 255 255 255
0.785 -1.402 2.269 255 255 255
-0.2 -0.918 1.86 255 255 255
-0.194 -0.846 1.904 255 255 255
0.069 0.194 1.084 255 255 255
0.252 -0.092 0.908 255 255 255
0.265 -1.152 2.054 255 255 255
0.386 0.137 0.738 0 0 0
1.07 -1.188 2.537 255 255 255
0.26 -0.291 1.065 255 255 255
0.078 0.576 1.139 255 255 255
-0.262 -0.885 1.844 255 255 255
-0.129 0.264 1.729 0 0 0
-0.28 -1.135 1.705 255 255 255
0.227 0.253 0.827 255 255 255
1.312 -1.472 2.527 255 255 255
0.445 -0.933 2.26 255 255 255
-0.212 -0.059 1.238 255 255 255
1.213 -1.351 2.523 255 255 255
0.341 0.118 0.724 255 255 255
-2.083 -0.643 2.92 255 255 255
-0.156 -1.122 1.781 255 255 255
-0.805 0.232 1.854 255 255 255
0.242 0.3 0.72 255 255 255
-0.002 -0.128 1.072 255 255 255
0.36 0.058 0.745 255 255 255
-0.169 -0.075 1.219 255 255 255
1.165 -1.581 2.395 255 255 255
-1.425 0.093 2.144 255 255 255
0.356 0.038 0.738 255 255 255
-0.644 0.478 1.374 255 255 255
-0.381 -1.096 1.67 255 255 255
0.935 -1.055 2.522 255 255 255
0.352 0.124 0.724 255 255 255
0.207 0.162 0.828 255 255 255
-0.379 -0.628 1.912 255 255 255
1.08 -1.586 2.333 255 255 255
-0.528 -1.184 1.548 0 0 0
-0.374 -0.707 1.87 255 255 255
0.32 -0.063 0.774 255 255 255
0.352 0.18 0.726 255 255 255
0.136 0.169 0.884 255 255 255
-0.539 0.458 1.4 255 255 255
0.746 -1.113 2.371 255 255 255
0.501 -1.164 2.172 255 255 255
-1.041 0.247 1.834 255 255 255
-0.278 0.35 1.585 255 255 255
1.005 -1.274 2.448 255 255 255
0.075 0.09 1.043 255 255 255
-0.118 -0.189 1.122 255 255 255
-0.807 -0.274 1.855 255 255 255
0.206 -0.002 1.004 255 255 255
0.377 0.07 0.713 255 255 255
-0.743 0.074 2.061 255 255 255
0.05 -1.334 1.838 0 0 0
-0.565 0.407 1.493 255 255 255
0.326 0.047 0.855 255 255 255
0.374 0.067 0.717 255 255 255
0.398 0.002 0.632 255 255 255
0.329 0.114 0.729 255 255 255
0.454 -0.08 0.646 0 0 0
-0.446 -1.211 1.566 0 0 0
0.757 -1.035 2.435 255 255 255
0.388 -0.11 0.702 0 0 0
0.332 -0.049 0.752 255 255 255
0.209 0.171 0.822 255 255 255
0.085 0.148 0.94 255 255 255
0.323 0.109 0.732 255 255 255
0.943 -1.482 2.311 255 255 255
-2.134 -0.635 2.89 255 255 255
0.073 0.552 1.19 255 255 255
-0.213 0.466 1.366 255 255 255
0.093 -0.043 1.085 255 255 255
-1.063 -0.054 2.381 255 255 255
-0.982 0.293 1.748 255 255 255
-0.013 -0.914 2.03 255 255 255
-0.874 0.201 1.92 255 255 255
0.106 -0.147 1.134 255 255 255
-0.17 0.331 1.616 255 255 255
0.63 -1.229 2.209 255 255 255
0.219 0.546 1.19 255 255 255
0.32 0.104 0.738 255 255 255
0.12 0.557 1.174 255 255 255
0.123 -0.909 2.095 255 255 255
0.081 0.593 1.105 255 255 255
0.315 -0.131 0.792 255 255 255
-0.823 -0.02 1.992 255 255 255
0.209 -0.82 2.192 255 255 255
0.059 0.542 1.212 0 0 0
0.359 0.144 0.713 255 255 255
1.02 -0.979 2.611 255 255 255
0.196 0.31 0.747 255 255 255
0.311 0.121 0.761 255 255 255
-0.454 -1.161 1.593 0 0 0
-0.541 -0.059 2.115 255 255 255
-1.423 -0.16 2.555 255 255 255
0.78 -1.299 2.311 255 255 255
-0.185 -0.216 1.215 255 255 255
-0.059 -0.262 1.081 255 255 255
0.399 -1.207 2.098 255 255 255
0.299 -0.199 0.92 255 255 255
-0.018 -0.23 1.089 255 255 255
0.356 -0.156 0.698 255 255 255
0.885 -1.662 2.189 0 0 0
0.163 0.177 0.894 255 255 255
-0.41 -0.485 1.973 255 255 255
0.33 -0.105 0.81 255 255 255
-0.43 -1.191 1.597 0 0 0
-0.319 0.093 2.095 255 255 255
-0.78 -0.656 1.674 255 255 255
0.292 0.089 0.961 255 255 255
0.284 0.302 0.651 255 255 255
-0.421 -1.074 1.659 255 255 255
1.275 -1.544 2.474 255 255 255
0.095 -0.054 1.085 255 255 255
0.264 -0.078 0.888 255 255 255
-0.468 0.581 1.168 255 255 255
0.229 0.218 0.802 255 255 255
0.331 -0.078 0.773 255 255 255
0.236 0.276 0.731 255 255 255
-0.265 -0.763 1.904 255 255 255
0.178 -1.329 1.907 255 255 255
1.014 -1.41 2.391 255 255 255
0.136 -0.979 2.071 255 255 255
0.354 -0.193 0.858 255 255 255
-0.209 -1.117 1.754 255 255 255
-0.588 -0.76 1.727 255 255 255
-0.118 0.495 1.312 255 255 255
-0.562 0.278 1.737 255 255 255
0.15 -0.154 1.115 255 255 255
0.234 -0.273 1.063 255 255 255
-0.224 0.497 1.315 255 255 255
-0.679 -0.439 1.848 255 255 255
-1.553 -0.248 2.784 255 255 255
0.087 0.061 1.048 255 255 255
0.227 -0.04 1.063 255 255 255
0.311 -0.165 0.847 255 255 255
-0.631 0.018 2.096 255 255 255
0.41 -1.046 2.192 255 255 255
-0.352 -0.729 1.874 255 255 255
-0.329 -0.656 1.925 255 255 255
-0.025 0.107 1.134 255 255 255
0.207 -0.204 0.983 255 255 255
-0.465 -0.174 2.108 255 255 255
0.271 -0.883 2.194 255 255 255
-0.323 0.267 1.733 255 255 255
-0.759 -0.462 1.787 255 255 255
-0.559 0.321 1.653 255 255 255
0.142 0.033 1.015 255 255 255
-0.932 0.151 2.009 255 255 255
0.269 0.051 1.002 255 255 255
-0.094 0.404 1.479 255 255 255
-0.137 -0.162 1.138 255 255 255
-0.323 0.457 1.389 255 255 255
1.501 -1.234 2.68 255 255 255
-0.822 -0.045 1.978 255 255 255
0.039 -0.094 1.16 255 255 255
0.442 -0.167 0.713 0 0 0
0.046 -1.225 1.89 255 255 255
0.585 -1.401 2.1 255 255 255
-0.5 -0.702 1.803 255 255 255
-0.234 -0.956 1.822 255 255 255
-0.758 -0.963 1.531 255 255 255
0.149 0.281 0.938 255 255 255
0.099 0.473 1.335 255 255 255
-0.646 -0.259 1.962 255 255 255
0.282 -0.839 2.222 255 255 255
-0.074 0.056 1.161 255 255 255
0.443 -1.315 2.061 255 255 255
0.33 0.131 0.757 255 255 255
-0.656 -0.998 1.567 255 255 255
-0.4 -1.031 1.693 255 255 255
0.148 -1.155 1.981 255 255 255
0.179 -1.256 1.949 255 255 255
0.319 0.235 0.701 255 255 255
0.405 -1.456 1.971 0 0 0
-0.199 0.525 1.253 255 255 255
-0.76 -0.987 1.516 255 255 255
-0.052 -0.367 1.095 255 255 255
0.355 -0.131 0.668 255 255 255
-0.344 0.584 1.158 255 255 255
-1.89 -0.882 2.916 255 255 255
-0.663 0.421 1.471 255 255 255
0.408 -0.029 0.623 255 255 255
-0.916 0.305 1.717 255 255 255
-0.313 -0.748 1.882 255 255 255
0.333 0.152 0.717 255 255 255
0.232 -0.021 1.047 255 255 255
0.322 0.065 0.893 255 255 255
-0.261 0.603 1.127 255 255 255
1.017 -0.993 2.6 255 255 255
0.043 -0.103 1.134 255 255 255
0.145 0.359 0.981 255 255 255
-0.37 0.058 2.169 255 255 255
-0.168 0.577 1.162 255 255 255
0.443 -0.25 0.752 255 255 255
-0.077 -0.273 1.076 255 255 255
-0.439 0.399 1.502 255 255 255
-0.121 -1.176 1.78 255 255 255
0.267 0.342 0.677 255 255 255
1.049 -1.239 2.498 255 255 255
0.281 0.13 0.836 255 255 255
-1.181 0.148 2.023 255 255 255
0.051 -0.337 1.19 0 0 0
0.365 0.064 0.736 255 255 255
-0.071 0.392 1.505 255 255 255
1.002 -1.068 2.555 255 255 255
0.283 0.139 0.799 255 255 255
0.174 0.164 0.875 255 255 255
-0.097 0.602 1.115 255 255 255
0.013 -0.163 1.09 255 255 255
-0.003 0.574 1.158 255 255 255
-0.366 0.611 1.119 255 255 255
-0.022 -0.004 1.104 255 255 255
0.719 -0.909 2.428 255 255 255
0.091 -0.298 1.216 0 0 0
-0.169 -0.205 1.197 255 255 255
0.05 0.564 1.168 255 255 255
-0.611 -1.033 1.576 255 255 255
0.677 -1.113 2.295 255 255 255
1.124 -1.401 2.459 255 255 255
-0.234 -0.058 1.263 255 255 255
-0.1 0.607 1.113 255 255 255
0.134 -0.121 1.12 0 0 0
0.059 -1.162 1.933 255 255 255
0.385 -0.102 0.712 0 0 0
-0.631 -0.981 1.583 255 255 255
1.13 -1.209 2.556 255 255 255
1.201 -1.316 2.538 255 255 255
-0.456 0.485 1.346 255 255 255
-0.334 -1.184 1.653 255 255 255
0.207 0.313 0.737 255 255 255
-0.154 0.11 2.026 0 0 0
-0.062 -0.107 1.06 255 255 255
0.35 0.046 0.763 255 255 255
-0.21 -0.082 1.241 255 255 255
0.344 -0.13 0.667 255 255 255
0.336 0.141 0.717 255 255 255
0.096 -0.067 1.095 255 255 255
0.589 -0.98 2.316 255 255 255
-0.095 -0.15 1.074 255 255 255
0.39 -0.22 0.736 255 255 255
-0.717 -0.253 1.929 255 255 255
-0.854 0.266 1.793 255 255 255
-0.813 0.4 1.52 255 255 255
0.358 0.019 0.721 255 255 255
0.192 0.384 0.78 255 255 255
0.204 0.192 0.84 255 255 255
0.116 -1.389 1.848 0 0 0
-0.069 0.315 1.558 0 0 0
0.1 0.03 1.048 255 255 255
0 -0.281 1.093 255 255 255
-0.176 -1.046 1.81 255 255 255
-0.47 -1.074 1.635 255 255 255
0.244 -0.152 0.932 255 255 255
-0.372 0.584 1.159 255 255 255
-0.7 0.22 1.873 255 255 255
0.279 -0.22 0.94 255 255 255
-0.232 0.566 1.181 255 255 255
-0.606 -0.226 2.007 255 255 255
-0.591 0.014 2.116 255 255 255
0.41 -0.202 0.866 0 0 0
-0.754 -0.146 1.963 255 255 255
0.703 -1.431 2.153 255 255 255
-0.715 0.281 1.745 255 255 255
0.389 -0.033 0.692 255 255 255
-0.556 -0.562 1.846 255 255 255
0.187 0.251 0.87 255 255 255
-0.617 0.402 1.502 255 255 255
-0.198 0.469 1.359 255 255 255
-0.024 -0.106 1.07 255 255 255
0.195 -1.053 2.062 255 255 255
0.048 0.509 1.274 255 255 255
-0.053 -0.4 1.097 255 255 255
-0.584 -0.617 1.805 255 255 255
-1.755 -0.986 2.933 255 255 255
-0.441 -0.228 2.092 255 255 255
-0.688 0.373 1.564 255 255 255
-0.244 0.357 1.575 255 255 255
0.222 -0.151 0.956 255 255 255
1.092 -1.344 2.461 255 255 255
-0.136 -0.365 1.152 255 255 255
0.072 -1.263 1.889 255 255 255
-0.205 0.61 1.11 255 255 255
-0.216 0.468 1.364 255 255 255
0.159 -0.169 1.094 0 0 0
-0.5 -1.098 1.6 255 255 255
0.049 0.097 1.124 255 255 255
-0.355 -0.847 1.811 255 255 255
0.17 0.277 0.741 255 255 255
0.553 -0.426 1.335 255 255 255
-0.776 -0.797 1.605 255 255 255
-0.007 -0.285 1.091 255 255 255
0.217 -1.163 2.019 255 255 255
-0.067 -0.333 1.085 255 255 255
0.386 0.027 0.63 255 255 255
-0.182 0.222 1.811 255 255 255
-0.483 0.087 2.131 255 255 255
-0.148 -0.168 1.146 255 255 255
-0.522 -0.428 1.943 255 255 255
-0.456 0.528 1.268 255 255 255
0.183 -0.108 1.097 255 255 255
0.212 -1.211 1.99 255 255 255
0.584 -0.883 2.364 255 255 255
0.323 0.096 0.741 255 255 255
-0.157 0.087 2.064 255 255 255
0.029 0.425 1.433 255 255 255
0.223 -0.066 1.035 255 255 255
0.831 -1.443 2.261 255 255 255
0.334 0.199 0.728 255 255 255
-0.193 0.543 1.226 0 0 0
-0.272 -1.128 1.711 255 255 255
0.199 0.546 1.193 255 255 255
-0.085 -0.375 1.111 255 255 255
-0.566 0.499 1.332 255 255 255
-0.549 -0.913 1.667 255 255 255
1.377 -1.18 2.708 255 255 255
-0.406 -1.053 1.674 255 255 255
-0.044 0.374 1.534 255 255 255
0.282 -0.011 0.919 255 255 255
-0.227 0.372 1.544 255 255 255
-0.413 -1.199 1.605 0 0 0
0.413 -0.09 0.661 0 0 0
0.046 -1.269 1.874 255 255 255
-0.704 -0.131 2 255 255 255
0.431 -0.242 0.747 255 255 255
-0.113 -0.344 1.117 255 255 255
0.611 -1.023 2.307 255 255 255
0.143 0.454 1.356 255 255 255
0.328 -0.097 0.801 255 255 255
-0.156 0.561 1.192 255 255 255
0.103 -0.054 1.084 255 255 255
0.165 -1.29 1.925 255 255 255
0.271 -0.084 0.855 255 255 255
0.213 -0.163 0.98 255 255 255
-0.652 -0.456 1.855 255 255 255
-0.367 0.424 1.453 255 255 255
-0.393 0.489 1.336 255 255 255
-1.002 0.204 1.91 255 255 255
-0.09 0.519 1.261 255 255 255
-0.928 0.278 1.77 255 255 255
-0.692 -0.576 1.766 255 255 255
-0.091 0.282 1.671 255 255 255
0.331 -1.311 2.004 255 255 255
-0.706 -1.014 1.533 255 255 255
-1.381 0.136 2.059 255 255 255
0.059 0.041 1.063 255 255 255
0.138 -0.07 1.136 255 255 255
0.045 -0.257 1.193 255 255 255
0.339 -0.971 2.187 255 255 255
0.329 -0.173 0.847 255 255 255
-0.016 0.02 1.112 255 255 255
-0.682 0.363 1.586 255 255 255
-1.992 -0.823 2.886 255 255 255
-0.693 -0.355 1.887 255 255 255
0.257 0.352 0.69 255 255 255
-0.238 0.505 1.296 255 255 255
-0.279 0.473 1.36 255 255 255
0.406 0.065 0.64 255 255 255
-0.547 -0.691 1.786 255 255 255
0.214 -0.679 2.271 255 255 255
-0.637 -0.662 1.754 255 255 255
0.427 0.02 0.601 255 255 255
0.374 -0.08 0.709 255 255 255
-0.738 -0.385 1.844 255 255 255
0.194 0.244 0.858 255 255 255
0.114 0.549 1.194 255 255 255
0.394 -0.114 0.589 255 255 255
-0.306 0.557 1.208 0 0 0
-0.293 0.313 1.654 255 255 255
0.321 -0.754 2.282 255 255 255
0.103 -0.13 1.124 255 255 255
-0.784 -0.701 1.642 255 255 255
-0.733 -1.087 1.486 0 0 0
-0.174 0.29 1.69 255 255 255
-0.387 0.331 1.627 255 255 255
-0.495 0.495 1.33 255 255 255
-1.296 -0.162 2.525 255 255 255
0.209 0.201 0.829 255 255 255
0.198 -0.683 2.255 255 255 255
0.272 -0.058 0.884 255 255 255
0.999 -1.394 2.389 255 255 255
0.41 -0.215 0.873 0 0 0
-0.288 0.396 1.502 255 255 255
0.021 -0.381 1.144 0 0 0
0.217 -1.17 2.013 255 255 255
0.246 0.277 0.728 255 255 255
0.237 0.248 0.814 255 255 255
0.163 0.513 1.255 255 255 255
0.372 -0.004 0.675 255 255 255
-0.227 -1.184 1.709 255 255 255
1.018 -1.217 2.487 255 255 255
