ply
format ascii 1.0
comment Created by Open3D
element vertex 1583
property double x
property double y
property double z
property uchar red
property uchar green
property uchar blue
end_header
0.322 -0.166 0.608 255 255 255
0.164 -0.204 0.801 255 255 255
-0.77 -0.869 1.626 255 255 255
0.246 0.127 0.679 255 255 255
0.099 -0.48 1.116 255 255 255
0.339 -0.085 0.589 255 255 255
-0.151 -0.396 1.136 255 255 255
0.25 -0.278 0.69 255 255 255
-0.147 -0.008 1.109 255 255 255
0.09 -0.377 0.956 255 255 255
-0.319 0.203 1.559 255 255 255
-0.209 -0.399 1.017 255 255 255
0.14 0.443 1.137 255 255 255
0.132 0.135 0.739 255 255 255
-0.252 0.464 1.164 255 255 255
-0.313 0.493 1.125 0 0 0
-0.161 -0.359 1.107 255 255 255
0.263 -0.217 0.696 0 0 0
0.135 -0.148 0.872 255 255 255
-0.672 -1.096 1.563 255 255 255
0.526 -0.509 1.048 255 255 255
0.359 -0.09 0.576 255 255 255
0.338 -0.155 0.578 255 255 255
0.459 -1.356 2.426 255 255 255
-0.121 0.461 1.156 255 255 255
0.247 0.462 0.955 255 255 255
0.189 -0.177 0.678 255 255 255
-0.917 -0.634 1.66 255 255 255
0.193 0.122 0.731 255 255 255
0.165 -0.122 0.839 255 255 255
-0.389 0.558 1.041 255 255 255
0.213 -0.163 0.73 255 255 255
0.142 -1.267 2.165 255 255 255
-0.209 0.311 1.389 255 255 255
1.069 -1.554 2.649 255 255 255
-0.604 0.352 1.36 255 255 255
-0.413 0.321 1.39 255 255 255
-0.352 -0.426 1.076 0 0 0
-0.38 -1.236 1.768 255 255 255
0.384 -0.192 0.632 255 255 255
0.28 -0.016 0.71 255 255 255
0.174 -0.004 0.801 0 0 0
0.145 0.243 0.734 255 255 255
-0.164 -0.219 1.02 255 255 255
-1.032 -0.515 1.648 255 255 255
-0.559 0.247 1.508 255 255 255
-0.197 -1.331 1.852 255 255 255
1.319 -1.649 2.504 255 255 255
-0.325 -0.127 1.309 255 255 255
-0.535 0.106 1.713 255 255 255
0.619 -1.56 2.431 255 255 255
-0.862 -0.636 1.7 255 255 255
0.258 -0.133 0.682 255 255 255
-0.343 -0.168 1.29 255 255 255
-0.059 -0.056 1.015 255 255 255
0.389 0.103 0.648 255 255 255
-0.113 0.272 1.433 255 255 255
0.109 0.14 0.775 255 255 255
0.574 -1.396 2.496 255 255 255
-0.827 -0.288 1.954 255 255 255
0.206 0.532 1.003 255 255 255
0.35 -0.032 0.546 255 255 255
0.253 0.186 0.673 255 255 255
-0.193 -0.148 1.047 255 255 255
0.351 -0.011 0.568 255 255 255
-0.994 -0.672 1.575 255 255 255
-0.393 0.191 1.582 255 255 255
0.384 -0.335 0.75 0 0 0
0.126 0.147 0.797 255 255 255
-0.728 0.223 1.553 255 255 255
-0.191 -0.238 1.013 255 255 255
-0.017 -0.349 1.041 255 255 255
-0.449 0.203 1.563 255 255 255
-0.91 -0.623 1.666 255 255 255
0.13 0.061 0.79 255 255 255
-0.883 -0.05 2.01 255 255 255
-0.902 -0.084 1.999 255 255 255
0.218 0.038 0.737 255 255 255
-0.383 0.526 1.08 255 255 255
0.048 -0.335 0.938 255 255 255
0.253 -0.105 0.669 255 255 255
-0.343 -0.13 1.177 255 255 255
0.148 0.039 0.795 255 255 255
0.336 0.065 0.702 255 255 255
-0.837 -0.072 2.036 255 255 255
-0.115 0.332 1.349 255 255 255
0.994 -1.73 2.609 255 255 255
0.196 -0.132 0.752 255 255 255
0.382 0.118 0.677 255 255 255
0.097 -0.349 0.909 255 255 255
0.176 0.512 1.034 255 255 255
0.15 0.042 0.792 255 255 255
-0.058 -0.289 1.087 255 255 255
0.024 -0.019 0.872 255 255 255
0.304 0.456 0.807 255 255 255
-0.192 0.086 1.429 255 255 255
-0.869 -0.551 1.753 255 255 255
-0.018 0.047 0.877 255 255 255
-0.814 -0.164 2.023 255 255 255
0.285 0.019 0.745 255 255 255
-0.319 -1.144 1.878 255 255 255
0.173 -0.125 0.812 255 255 255
0.224 -0.102 0.719 255 255 255
-0.728 0.093 1.76 255 255 255
-0.07 0.3 1.388 255 255 255
-1.857 -0.313 2.445 255 255 255
0.301 -0.153 0.599 255 255 255
-0.774 -0.572 1.815 255 255 255
0.207 -0.23 0.647 255 255 255
0.192 -0.131 0.762 255 255 255
-1.021 -0.09 1.905 255 255 255
0.951 -1.253 2.35 0 0 0
0.172 0.118 0.748 255 255 255
0.121 0.041 0.82 255 255 255
0.163 0.524 1.018 255 255 255
0.297 -0.032 0.655 255 255 255
0.006 -0.175 1.098 0 0 0
-1.018 0.201 1.623 255 255 255
0.381 -0.219 0.606 255 255 255
0.341 0.022 0.613 255 255 255
0.688 -1.767 2.361 0 0 0
-0.652 -0.884 1.71 255 255 255
-0.206 0.043 1.425 255 255 255
-0.111 0.353 1.319 255 255 255
0.098 0.016 0.849 255 255 255
0.199 -0.137 0.732 255 255 255
0.367 0.043 0.585 255 255 255
-0.001 -1.173 2.112 255 255 255
-0.085 -1.261 1.987 255 255 255
0.365 0.044 0.593 255 255 255
-0.263 0.49 1.126 255 255 255
0.933 -1.262 2.362 0 0 0
0.079 -0.253 0.9 255 255 255
0.376 0.01 0.538 255 255 255
-0.218 -0.924 2.091 255 255 255
-0.245 -1.153 1.936 255 255 255
0.312 0.005 0.679 255 255 255
-0.388 -0.258 1.143 255 255 255
0.06 0.067 0.857 255 255 255
0.078 -0.376 0.958 255 255 255
-0.815 -0.985 1.519 255 255 255
-1.885 -0.345 2.512 255 255 255
0.015 0.375 1.272 255 255 255
-0.076 -1.407 1.905 0 0 0
-0.238 0.498 1.11 0 0 0
-0.876 -0.852 1.554 255 255 255
0.026 0.054 0.872 255 255 255
0.008 0.363 1.29 255 255 255
-0.615 -1.061 1.629 255 255 255
-0.25 -1.279 1.845 255 255 255
0.209 -0.323 0.709 255 255 255
0.268 0.439 0.854 255 255 255
-0.028 -1.305 2.004 255 255 255
0.024 -0.347 0.972 255 255 255
-0.231 -0.415 1.013 255 255 255
0.186 -0.152 0.749 255 255 255
0.052 -0.215 0.997 255 255 255
-0.117 0.424 1.202 255 255 255
-0.269 0.309 1.398 255 255 255
0.191 -0.139 0.753 255 255 255
0.352 0.102 0.714 255 255 255
0.25 -0.284 0.693 255 255 255
1.008 -1.679 2.635 255 255 255
0.151 -1.35 2.117 255 255 255
-0.342 0.107 1.694 0 0 0
-0.47 -1.237 1.633 0 0 0
0.113 0.18 0.742 255 255 255
0.117 -0.029 0.977 0 0 0
-0.197 0.362 1.314 255 255 255
-0.785 0.316 1.429 255 255 255
-0.013 -0.299 1.033 255 255 255
0.291 0.329 0.742 255 255 255
0.282 -0.001 0.72 255 255 255
0.14 -0.328 0.893 255 255 255
0.088 -0.271 0.9 255 255 255
-0.063 -1.344 1.95 255 255 255
0.172 0.23 0.697 255 255 255
-0.795 -0.279 1.99 255 255 255
-0.438 0.316 1.401 255 255 255
0.29 0.002 0.71 255 255 255
0.727 -0.782 1.412 255 255 255
-0.9 -0.299 1.888 255 255 255
0.33 0.163 0.665 255 255 255
-0.452 0.47 1.17 255 255 255
-1.331 0.01 1.936 255 255 255
-0.045 0.365 1.294 255 255 255
-0.957 0.034 1.894 255 255 255
0.301 -0.355 0.732 255 255 255
-1.052 -0.321 1.736 255 255 255
0.328 -0.228 0.575 255 255 255
0.05 -0.453 1.091 255 255 255
-1.303 -0.117 2.124 255 255 255
0.054 -0.371 0.969 255 255 255
-0.668 0.379 1.327 255 255 255
-0.4 -1.19 1.783 255 255 255
-0.652 -0.767 1.784 255 255 255
-0.587 -0.113 2.068 255 255 255
0.114 -0.254 0.867 255 255 255
-0.32 -0.303 1.058 255 255 255
0.256 -0.073 0.705 255 255 255
0.479 -1.202 2.531 255 255 255
-0.146 -0.113 1.152 255 255 255
-0.827 -0.88 1.577 255 255 255
-0.026 0.503 1.08 0 0 0
0.3 0.438 0.822 255 255 255
0.228 0.487 1.064 255 255 255
0.209 -0.411 0.982 255 255 255
0.023 -0.234 1.046 255 255 255
-0.294 -0.467 1.026 255 255 255
-0.332 0.357 1.334 255 255 255
0.042 -1.04 2.227 255 255 255
-0.102 0.518 1.058 255 255 255
-0.16 0.316 1.377 255 255 255
0.259 -0.086 0.657 255 255 255
0.286 -1.377 2.209 255 255 255
-2.152 -0.584 2.91 255 255 255
-0.31 0.561 1.032 255 255 255
-0.085 0.371 1.287 255 255 255
0.078 0.163 0.746 255 255 255
0.35 -0.189 0.639 255 255 255
-0.036 0.048 0.892 255 255 255
-0.707 -0.755 1.751 255 255 255
0.02 0.412 1.217 255 255 255
0.359 0.041 0.616 255 255 255
-0.291 0.568 1.018 255 255 255
0.098 0.05 0.822 255 255 255
0.064 0.129 0.867 255 255 255
0.141 -0.258 0.847 255 255 255
-0.068 0.287 1.407 255 255 255
-0.017 0.17 1.163 255 255 255
0.174 -0.133 0.802 255 255 255
0.346 -0.133 0.55 255 255 255
0.333 -0.011 0.599 255 255 255
-0.002 -0.314 1.016 255 255 255
-0.124 0.256 1.46 255 255 255
-0.129 0.535 1.049 255 255 255
-0.946 -0.165 1.935 255 255 255
0.286 0.218 0.606 255 255 255
0.102 -1.442 2.02 255 255 255
-1.461 -0.017 1.992 255 255 255
0.332 -0.111 0.597 255 255 255
0.94 -1.82 2.519 0 0 0
-1.022 -0.39 1.732 255 255 255
0.168 0.069 0.776 255 255 255
0.522 -1.242 2.543 255 255 255
-0.966 -0.482 1.717 255 255 255
-0.044 -0.141 1.043 255 255 255
0.037 -0.067 0.944 255 255 255
0.046 0.256 0.982 255 255 255
0.099 -1.15 2.204 255 255 255
-0.481 0.244 1.507 255 255 255
-0.395 0.442 1.206 255 255 255
-0.213 0.159 1.515 255 255 255
-0.643 0.105 1.727 255 255 255
0.183 -0.137 0.773 255 255 255
-0.765 -0.978 1.563 255 255 255
-0.164 -0.06 1.073 255 255 255
-0.55 -0.957 1.743 255 255 255
0.449 -1.305 2.45 255 255 255
-0.393 0.3 1.42 255 255 255
0.193 0.482 1.079 0 0 0
0.035 0.4 1.231 255 255 255
-0.876 0.185 1.628 255 255 255
-0.246 0.356 1.329 255 255 255
0.366 0.139 0.689 0 0 0
0.166 0.134 0.747 255 255 255
-1.735 -0.249 2.279 255 255 255
-0.699 0.214 1.565 255 255 255
-0.415 0.249 1.495 255 255 255
0.225 0.337 0.829 255 255 255
0.243 0.173 0.657 255 255 255
-0.005 -0.199 1.055 0 0 0
0.313 -0.103 0.622 255 255 255
0.301 -0.015 0.658 255 255 255
-0.429 0.515 1.105 0 0 0
-0.196 0.288 1.421 255 255 255
-0.688 0.32 1.416 255 255 255
0.155 -0.11 0.886 255 255 255
-0.276 0.316 1.389 255 255 255
-0.045 -1.42 1.916 0 0 0
0.192 0.242 0.684 255 255 255
-0.338 0.463 1.168 255 255 255
0.346 -0.105 0.596 255 255 255
-0.676 -0.533 1.913 0 0 0
0.24 0.107 0.736 255 255 255
-0.345 0.509 1.106 0 0 0
0.253 -0.212 0.589 255 255 255
-0.401 0.072 1.751 255 255 255
0.013 -1.077 2.181 255 255 255
0.216 -0.098 0.752 255 255 255
0.29 0.276 0.693 255 255 255
0.181 0.115 0.751 255 255 255
-1.127 0.159 1.708 255 255 255
-0.648 0.312 1.422 255 255 255
-0.229 -0.05 1.1 255 255 255
0.038 0.382 1.258 255 255 255
0.065 0.117 0.859 255 255 255
0.096 0.097 0.814 255 255 255
0.056 -1.098 2.201 255 255 255
0.016 0.329 1.308 255 255 255
0.153 0.438 1.149 255 255 255
-0.143 0.427 1.202 255 255 255
-0.553 -0.145 2.106 255 255 255
-0.295 -0.415 1.027 255 255 255
0.281 -0.092 0.636 255 255 255
0.229 -0.03 0.772 0 0 0
-1.137 0.055 1.855 255 255 255
-0.165 -0.202 1.04 255 255 255
-0.408 0.072 1.751 255 255 255
0.33 0.12 0.737 255 255 255
-0.575 0.091 1.743 255 255 255
-0.005 -1.104 2.148 255 255 255
-0.441 -1.058 1.766 255 255 255
0.085 0.153 0.753 255 255 255
0.071 -0.184 0.984 255 255 255
0.171 0.209 0.697 255 255 255
0.524 -1.642 2.304 255 255 255
-0.687 0.154 1.657 255 255 255
-0.717 -0.593 1.844 255 255 255
-0.205 0.517 1.079 255 255 255
-0.722 0.302 1.444 255 255 255
-0.825 -0.648 1.722 255 255 255
-0.237 0.222 1.526 255 255 255
0.272 0.164 0.676 255 255 255
-0.745 0.159 1.656 255 255 255
-0.04 -0.442 1.121 255 255 255
0.339 -0.109 0.597 255 255 255
-0.858 -0.183 1.98 255 255 255
-0.748 0.328 1.406 255 255 255
0.044 -0.089 0.974 255 255 255
-0.047 0.386 1.264 255 255 255
-0.557 -0.968 1.736 255 255 255
-1.053 -0.266 1.769 255 255 255
1.223 -1.797 2.528 255 255 255
-0.303 -0.145 1.307 255 255 255
0.394 0.097 0.633 255 255 255
0.239 -0.077 0.724 255 255 255
-0.213 -0.134 1.071 255 255 255
0.093 0.245 0.765 255 255 255
-0.887 -0.346 1.875 255 255 255
-0.185 -1.317 1.872 255 255 255
0.327 -0.033 0.577 0 0 0
-0.527 0.09 1.736 255 255 255
0.136 -0.152 0.865 255 255 255
0.345 0.15 0.62 255 255 255
0.289 0.352 0.776 255 255 255
-0.055 -0.388 1.092 255 255 255
-0.014 -0.039 0.954 255 255 255
-0.334 0.408 1.252 255 255 255
0.206 -0.343 0.905 255 255 255
-0.061 0.361 1.3 255 255 255
0.479 -1.517 2.351 255 255 255
-0.605 0.392 1.303 255 255 255
-0.529 -1.111 1.667 255 255 255
0.307 0.35 0.73 255 255 255
-0.313 0.571 1.02 255 255 255
0.359 -0.002 0.556 255 255 255
0.599 -1.764 2.291 0 0 0
0.343 -0.027 0.552 255 255 255
-0.869 -0.779 1.602 255 255 255
-0.185 -0.379 1.023 255 255 255
0.225 0.517 1.022 255 255 255
-0.16 -1.07 2.047 255 255 255
0.111 0.083 0.794 255 255 255
-0.923 -0.29 1.878 255 255 255
0.057 0.461 1.14 255 255 255
-0.565 0.063 1.786 255 255 255
-0.287 0.499 1.117 0 0 0
1.245 -1.655 2.592 255 255 255
0.193 0.159 0.697 255 255 255
0.449 -1.641 2.243 0 0 0
-0.059 -1.269 2.001 255 255 255
0.033 -0.321 0.952 255 255 255
-1.036 -0.196 1.838 255 255 255
-0.576 0.353 1.357 255 255 255
0.299 0.067 0.765 255 255 255
-0.336 -0.152 1.286 255 255 255
-0.203 -0.416 1.02 255 255 255
-0.206 0.439 1.197 255 255 255
-0.87 0.218 1.576 255 255 255
0.287 0.038 0.759 255 255 255
0.322 -0.146 0.59 255 255 255
-0.656 0.351 1.365 255 255 255
0.103 -0.434 1.049 255 255 255
-0.715 -0.76 1.738 255 255 255
-0.285 -0.372 1.009 255 255 255
-0.083 -1.024 2.137 255 255 255
-0.863 -0.677 1.674 255 255 255
-0.137 -0.243 1.051 255 255 255
-0.855 -0.613 1.719 255 255 255
-0.168 0.374 1.218 255 255 255
-0.308 -0.236 1.076 255 255 255
0.269 -0.237 0.614 0 0 0
-0.554 -1.164 1.614 0 0 0
-0.733 -0.097 2.07 255 255 255
0.156 -0.098 0.903 255 255 255
0.371 -0.217 0.609 255 255 255
0.192 -0.033 0.775 0 0 0
0.266 0.397 0.858 255 255 255
0.062 0.365 1.277 255 255 255
-0.091 0.034 1.06 255 255 255
0.058 0.094 0.853 255 255 255
0.023 -1.075 2.188 255 255 255
0.027 -0.245 1.03 255 255 255
-0.084 -0.018 1.023 255 255 255
0.144 -0.275 0.836 255 255 255
-0.283 0.549 1.041 255 255 255
-0.681 0.013 1.889 255 255 255
-0.154 -0.919 2.141 255 255 255
-0.034 0.494 1.065 0 0 0
-0.112 -0.446 1.164 0 0 0
-0.056 -0.327 1.08 0 0 0
0.261 -0.185 0.674 255 255 255
0.384 0.077 0.61 255 255 255
0.873 -1.548 2.643 255 255 255
-0.263 -0.59 1.068 0 0 0
-0.114 -0.035 1.097 255 255 255
-0.041 0.015 0.929 255 255 255
-0.061 0.529 1.051 255 255 255
-0.343 -0.162 1.281 255 255 255
-1.319 -0.266 1.958 255 255 255
0.029 0.035 0.868 255 255 255
0.352 0.08 0.684 255 255 255
-0.386 -1.183 1.798 255 255 255
-0.362 0.488 1.136 255 255 255
-0.693 -0.899 1.666 255 255 255
-0.124 -0.905 2.181 255 255 255
0.136 0.15 0.744 255 255 255
-0.031 -0.016 0.9 255 255 255
-0.048 -0.391 1.093 255 255 255
-0.367 -1.209 1.8 255 255 255
-0.118 -0.162 1.049 255 255 255
-0.659 -0.597 1.886 0 0 0
-0.161 -0.168 1.045 255 255 255
-0.171 -0.931 2.121 255 255 255
0.18 0.092 0.752 255 255 255
0.007 -0.056 0.948 255 255 255
0.367 -1.608 2.197 0 0 0
-0.493 -0.984 1.771 0 0 0
-1.638 -0.328 2.257 0 0 0
-0.567 0.363 1.34 255 255 255
0.328 0.081 0.746 255 255 255
-0.186 -0.431 1.034 255 255 255
0.054 0.523 1.049 255 255 255
-0.227 0.401 1.255 255 255 255
-0.116 -0.315 1.109 255 255 255
-0.082 -1.06 2.113 255 255 255
0.351 0.008 0.581 255 255 255
0.368 -0.157 0.55 255 255 255
-0.328 -1.261 1.802 255 255 255
-0.86 -0.499 1.793 255 255 255
-0.311 -0.135 1.306 255 255 255
-0.379 -0.24 1.143 255 255 255
0.127 0.149 0.737 255 255 255
-0.771 0.175 1.633 255 255 255
0.1 -0.351 0.909 255 255 255
0.156 0.238 0.721 255 255 255
-0.2 0.532 1.056 255 255 255
-0.056 -0.943 2.211 255 255 255
-0.342 0.502 1.114 0 0 0
0.323 -0.014 0.613 255 255 255
-0.811 -0.294 1.97 255 255 255
0.274 -0.076 0.636 255 255 255
0.196 -0.206 0.608 255 255 255
0.208 -0.146 0.73 255 255 255
0.225 -0.331 0.712 255 255 255
-0.064 -0.036 1.005 255 255 255
0.002 0.052 0.872 255 255 255
-0.953 -0.452 1.75 255 255 255
0.33 -0.221 0.593 255 255 255
0.39 -0.192 0.63 255 255 255
0.418 -0.2 0.621 255 255 255
-0.181 -0.271 1.011 255 255 255
0.022 -0.204 1.085 255 255 255
-1.048 -0.51 1.62 255 255 255
-0.386 -0.432 1.159 0 0 0
-1.053 -0.49 1.617 255 255 255
-0.776 0.118 1.727 255 255 255
-0.585 0.117 1.704 255 255 255
-0.176 0.491 1.114 0 0 0
0.216 -0.399 0.957 255 255 255
-0.496 0.32 1.396 255 255 255
-0.602 -1.046 1.647 255 255 255
-0.984 -0.519 1.684 255 255 255
0.034 0.508 1.073 255 255 255
0.37 0.144 0.671 255 255 255
-0.244 -0.277 1.005 255 255 255
-0.774 -0.862 1.628 255 255 255
-0.641 0.203 1.579 255 255 255
-0.159 0.478 1.136 255 255 255
0.206 0.119 0.728 255 255 255
-1.029 -0.435 1.697 255 255 255
0.355 -0.022 0.54 255 255 255
0.012 -0.104 1.007 255 255 255
-0.041 -1.261 2.025 255 255 255
0.291 0.29 0.708 255 255 255
0.119 0.14 0.778 255 255 255
-0.361 -0.503 1.084 0 0 0
0.194 -0.137 0.745 255 255 255
-0.087 0.274 1.429 255 255 255
0.049 0.203 0.911 255 255 255
-0.583 -1.199 1.57 0 0 0
0.255 0.43 0.875 255 255 255
-0.421 0.474 1.165 255 255 255
0.262 0.176 0.63 255 255 255
-0.183 0.479 1.135 255 255 255
0.191 -0.001 0.756 255 255 255
0.159 0.27 0.718 255 255 255
-0.61 0.298 1.44 255 255 255
0.163 0.166 0.729 255 255 255
-0.436 0.148 1.644 255 255 255
0.018 0.388 1.253 255 255 255
0.211 0.105 0.739 255 255 255
0.281 0.022 0.756 255 255 255
0.069 -0.167 1.015 255 255 255
-0.159 -0.222 1.088 255 255 255
-0.932 -0.478 1.75 255 255 255
-0.742 -0.782 1.701 255 255 255
0.232 -0.102 0.709 255 255 255
-0.125 -0.125 1.076 255 255 255
0.126 0.149 0.799 255 255 255
0.122 -0.128 0.939 255 255 255
0.318 0.447 0.798 255 255 255
0.27 -0.03 0.719 255 255 255
-0.171 -0.189 1.038 255 255 255
-0.187 0.381 1.256 255 255 255
-0.155 -0.075 1.07 255 255 255
0.242 0.092 0.736 255 255 255
-0.886 -0.422 1.823 255 255 255
-0.36 0.376 1.303 255 255 255
-0.722 0.083 1.776 255 255 255
0.291 0.065 0.755 255 255 255
0.046 -0.098 0.972 255 255 255
-1.1 -0.39 1.679 255 255 255
0.524 -1.638 2.308 255 255 255
0.381 -1.368 2.364 255 255 255
0.329 0.026 0.658 255 255 255
-0.796 -0.556 1.808 255 255 255
0.288 0.212 0.608 255 255 255
-0.428 0.301 1.421 255 255 255
-1.554 -0.101 2.109 255 255 255
0.23 0.018 0.73 255 255 255
0.27 0.295 0.751 255 255 255
-0.727 -0.887 1.649 255 255 255
1.25 -1.779 2.515 255 255 255
-0.041 0.534 1.041 255 255 255
0.033 0.535 1.033 255 255 255
-0.655 -0.786 1.775 255 255 255
-1.03 -0.007 1.933 0 0 0
-0.229 -0.033 1.104 255 255 255
0.225 -0.274 0.721 0 0 0
-0.135 0.261 1.453 255 255 255
-0.361 0.275 1.455 255 255 255
0.293 0.472 0.853 255 255 255
-0.055 -1.121 2.097 255 255 255
-0.65 -1.193 1.523 255 255 255
-0.97 -0.28 1.85 255 255 255
0.107 0.415 1.206 255 255 255
-0.576 0.426 1.251 255 255 255
0.385 -0.073 0.553 255 255 255
-0.263 -0.291 0.998 255 255 255
0.124 0.224 0.743 0 0 0
0.368 -0.043 0.544 255 255 255
0.387 0.083 0.615 255 255 255
-1.035 -0.291 1.785 255 255 255
-1.136 0.014 1.913 255 255 255
0.154 -0.037 0.893 255 255 255
0.448 -1.689 2.212 0 0 0
0.297 0.258 0.672 255 255 255
0.132 0.511 1.041 255 255 255
0.577 -1.336 2.531 255 255 255
0.072 0.251 0.78 0 0 0
-0.222 -0.333 1.012 255 255 255
0.326 -0.114 0.593 255 255 255
0.676 -1.726 2.38 0 0 0
0.071 0.257 0.783 255 255 255
0.257 0.259 0.746 255 255 255
0.087 0.447 1.156 255 255 255
0.213 0.424 0.959 255 255 255
-0.643 -0.836 1.751 0 0 0
0.093 -1.321 2.092 255 255 255
-0.151 -0.306 1.066 255 255 255
-1.148 -0.003 1.943 255 255 255
0.341 0.163 0.63 255 255 255
-0.854 -0.295 1.931 255 255 255
-0.26 -0.483 1.006 255 255 255
-0.334 0.418 1.239 255 255 255
0.261 -0.11 0.663 255 255 255
0.023 -1.102 2.175 255 255 255
0.208 -0.081 0.785 255 255 255
-2.133 -0.643 2.9 255 255 255
-0.634 -0.96 1.677 255 255 255
-0.511 0.344 1.364 255 255 255
-0.128 -0.327 1.116 255 255 255
0.178 0.2 0.679 255 255 255
-1.013 -0.061 1.928 255 255 255
0.223 0.145 0.673 255 255 255
0.333 0.101 0.735 255 255 255
0.321 0.009 0.649 255 255 255
-0.186 -0.48 1.061 0 0 0
0.583 -1.641 2.356 255 255 255
0.215 -0.326 0.861 255 255 255
-1.053 -0.471 1.636 255 255 255
0.004 -0.064 0.955 255 255 255
0.735 -1.505 2.555 255 255 255
0.228 -0.076 0.747 255 255 255
0.154 0.048 0.79 255 255 255
-0.342 -1.172 1.844 255 255 255
0.121 -0.119 0.961 255 255 255
0.25 -0.2 0.708 255 255 255
0.292 0.233 0.661 255 255 255
0.038 0.04 0.87 255 255 255
-0.232 0.551 1.036 255 255 255
-0.653 -1.17 1.533 0 0 0
-0.847 -0.458 1.83 255 255 255
0.015 -0.225 1.064 255 255 255
0.25 0.416 0.869 255 255 255
-0.151 -0.425 1.131 255 255 255
-0.389 0.428 1.226 255 255 255
-0.306 0.525 1.075 255 255 255
0.28 0.247 0.689 255 255 255
0.279 0.229 0.682 255 255 255
0.111 0.222 0.753 255 255 255
0.246 0.411 0.87 255 255 255
0.172 -1.277 2.181 255 255 255
0.347 -0.018 0.556 255 255 255
-0.707 0.283 1.469 255 255 255
-0.179 0.366 1.302 255 255 255
-0.361 -0.299 1.116 255 255 255
0.04 0.134 0.913 255 255 255
0.198 -0.337 0.712 255 255 255
0.274 0.309 0.754 255 255 255
-0.068 0.465 1.069 255 255 255
1.024 -1.665 2.154 255 255 255
-0.042 -0.236 1.075 0 0 0
-0.164 0.402 1.195 255 255 255
-0.419 0.324 1.387 255 255 255
-2.007 -0.568 2.87 0 0 0
-0.745 -0.86 1.652 255 255 255
-0.033 -0.114 1.023 255 255 255
-0.398 0.538 1.067 255 255 255
0.06 0.525 1.044 255 255 255
-0.76 -0.732 1.719 255 255 255
0.937 -1.261 2.358 0 0 0
-0.358 -1.259 1.772 255 255 255
-0.34 -0.314 1.075 255 255 255
-0.333 -1.068 1.913 255 255 255
0.216 -0.217 0.614 255 255 255
-0.334 0.554 1.041 255 255 255
-0.969 -0.485 1.713 255 255 255
0.116 0.027 0.833 255 255 255
0.092 -0.082 0.979 0 0 0
0.281 0.257 0.606 255 255 255
0.293 -0.148 0.609 255 255 255
-0.567 -1.027 1.689 255 255 255
0.084 -0.152 0.999 255 255 255
0.274 -0.081 0.638 255 255 255
-0.29 0.142 1.633 255 255 255
-0.523 0.005 1.872 255 255 255
0.237 0.363 0.857 255 255 255
0.121 -0.363 0.921 255 255 255
-0.311 -0.423 1.031 255 255 255
0.09 -0.275 0.9 255 255 255
0.026 -0.123 0.999 0 0 0
-0.225 -0.311 1.011 255 255 255
-0.785 -1.039 1.504 255 255 255
0.367 -0.086 0.571 255 255 255
-0.491 0.449 1.205 255 255 255
0.002 -0.05 0.945 255 255 255
-0.234 -0.444 1.012 255 255 255
0.24 0.125 0.68 255 255 255
-0.416 0.363 1.329 255 255 255
0.077 -0.239 0.899 255 255 255
-0.95 -0.413 1.778 255 255 255
0.122 0.416 1.203 0 0 0
-0.332 -1.269 1.79 255 255 255
-0.139 -0.061 1.178 255 255 255
-0.708 0.24 1.532 255 255 255
-2.027 -0.711 2.79 0 0 0
-0.338 -1.321 1.754 0 0 0
-0.631 0.351 1.362 255 255 255
0.177 0.158 0.716 255 255 255
-0.207 0.448 1.185 255 255 255
0.098 0.511 1.045 255 255 255
0.332 0.048 0.694 255 255 255
-0.753 -0.219 2.03 0 0 0
0.489 -1.705 2.228 0 0 0
0.294 0.32 0.727 255 255 255
0.172 0.466 1.1 255 255 255
-0.58 0.43 1.245 255 255 255
0.143 0.298 0.772 255 255 255
-0.552 0.129 1.683 255 255 255
-0.937 -0.327 1.845 255 255 255
0.302 0.394 0.77 255 255 255
0.134 -0.366 0.929 255 255 255
0.372 0.015 0.555 255 255 255
0.183 -1.273 2.194 255 255 255
-0.329 0.393 1.278 255 255 255
-1.07 0.073 1.826 255 255 255
-0.376 -0.244 1.14 255 255 255
-0.757 -0.257 2.024 0 0 0
-0.043 0.531 1.046 255 255 255
-0.325 0.419 1.235 255 255 255
-0.754 -0.382 1.956 255 255 255
-0.023 0.495 1.08 0 0 0
-0.22 -1.024 2.034 255 255 255
0.119 -0.045 0.998 0 0 0
-0.654 -0.019 1.935 255 255 255
0.014 -0.145 1.038 255 255 255
0.313 -0.06 0.594 255 255 255
0.107 -0.126 0.973 255 255 255
0.159 0.208 0.726 255 255 255
-0.053 0.414 1.223 255 255 255
0.216 0.538 0.993 255 255 255
-0.608 -1.191 1.56 0 0 0
-0.409 0.523 1.091 255 255 255
-0.272 0.434 1.207 255 255 255
-0.75 -0.993 1.562 255 255 255
-0.215 -0.053 1.098 255 255 255
0.225 0.055 0.722 255 255 255
-0.622 -0.99 1.668 255 255 255
-0.655 -0.946 1.671 255 255 255
-0.421 0.532 1.078 255 255 255
-0.098 -0.156 1.04 255 255 255
-0.146 0.013 1.256 255 255 255
-0.081 0.468 1.098 255 255 255
0.221 0.07 0.779 255 255 255
-0.897 -0.299 1.892 255 255 255
0.359 -0.069 0.556 255 255 255
-0.379 -1.081 1.877 255 255 255
-0.13 -1.071 2.07 255 255 255
-0.555 -0.992 1.721 255 255 255
0.268 0.201 0.672 255 255 255
-0.545 0.077 1.76 255 255 255
-0.708 -0.414 1.959 0 0 0
-0.463 0.303 1.422 255 255 255
-0.019 -0.984 2.21 255 255 255
0.188 -0.392 0.978 255 255 255
0.126 -0.466 1.083 255 255 255
-0.02 0.294 1.372 255 255 255
-0.791 -0.804 1.648 255 255 255
-0.145 -0.378 1.129 255 255 255
-0.169 -0.334 1.043 255 255 255
-0.694 0.093 1.758 255 255 255
-0.367 0.551 1.044 255 255 255
0.264 -0.322 0.715 255 255 255
0.046 0.391 1.244 255 255 255
0.35 0.127 0.708 255 255 255
-0.571 -0.998 1.702 255 255 255
-0.601 -0.953 1.707 255 255 255
0.366 -0.023 0.53 255 255 255
-0.624 -1.018 1.651 255 255 255
-0.753 -0.655 1.777 255 255 255
-0.154 -0.087 1.064 255 255 255
0.056 0.39 1.248 255 255 255
0.185 -0.393 0.964 255 255 255
-0.032 0.513 1.074 255 255 255
0.358 0.074 0.664 255 255 255
0.138 0.445 1.136 255 255 255
-0.433 0.085 1.735 255 255 255
-0.318 -1.069 1.926 255 255 255
0.041 0.014 0.868 255 255 255
0.117 -1.292 2.129 255 255 255
-0.037 -1.077 2.137 255 255 255
-0.122 -0.405 1.15 255 255 255
0.306 -0.155 0.597 255 255 255
-0.474 0.461 1.187 255 255 255
0.097 -1.433 2.025 255 255 255
0.312 -0.03 0.624 255 255 255
0.328 -0.114 0.597 255 255 255
0.02 0.39 1.25 255 255 255
0.518 -1.688 2.279 0 0 0
-0.138 0.362 1.241 255 255 255
0.228 -0.208 0.627 0 0 0
-0.906 -0.689 1.633 255 255 255
-0.438 -1.279 1.697 0 0 0
-0.884 -0.768 1.6 255 255 255
-0.008 -0.102 1.011 255 255 255
0.166 -1.379 2.114 255 255 255
-0.045 0.37 1.285 255 255 255
-0.947 -0.274 1.871 255 255 255
0.286 -0.098 0.631 255 255 255
-0.841 -0.089 2.035 255 255 255
0.313 0.087 0.759 255 255 255
-1.008 -0.657 1.573 255 255 255
-0.012 0.466 1.141 255 255 255
0.233 0.118 0.722 255 255 255
0.399 -0.232 0.606 255 255 255
0.118 -0.154 0.903 255 255 255
0.988 -1.806 2.557 255 255 255
0.154 -0.047 0.948 255 255 255
-0.519 0.056 1.789 255 255 255
-0.114 -0.279 1.098 255 255 255
-0.223 -0.416 1.016 255 255 255
-0.237 -1.326 1.826 0 0 0
0.193 -0.093 0.806 255 255 255
0.242 0.071 0.748 255 255 255
-0.191 0.545 1.04 255 255 255
-0.613 0.425 1.256 255 255 255
-0.19 -0.077 1.075 255 255 255
-0.518 -1.233 1.596 0 0 0
-0.856 0.001 1.938 255 255 255
-1.055 -0.229 1.792 255 255 255
-0.127 -0.344 1.118 255 255 255
0.285 0.235 0.614 255 255 255
0.23 -1.527 2.07 0 0 0
-1.107 0.108 1.779 255 255 255
0.548 -1.273 2.551 255 255 255
-0.364 0.312 1.4 255 255 255
-0.485 0.272 1.467 255 255 255
-0.396 0.529 1.082 255 255 255
-0.223 -0.433 1.016 255 255 255
0.372 -0.182 0.616 255 255 255
-0.183 -0.274 1.012 255 255 255
-0.737 -0.689 1.77 255 255 255
-0.953 -0.521 1.703 255 255 255
-0.288 -1.153 1.896 255 255 255
-0.038 0.05 0.895 255 255 255
-0.37 0.413 1.251 255 255 255
0.299 -0.098 0.625 255 255 255
0.386 0.02 0.536 255 255 255
0.215 0.051 0.771 255 255 255
-0.159 0.36 1.312 255 255 255
-0.667 -1.164 1.527 0 0 0
0.195 -0.046 0.79 0 0 0
0.13 0.102 0.789 255 255 255
0.352 0.092 0.698 255 255 255
-0.403 0.065 1.763 255 255 255
0.256 0.111 0.689 255 255 255
-0.148 -0.387 1.133 255 255 255
0.443 -1.288 2.455 255 255 255
0.355 -0.189 0.643 255 255 255
0.721 -1.395 2.61 255 255 255
0.007 -0.017 0.869 255 255 255
0.22 0.005 0.737 255 255 255
-0.641 0.392 1.303 255 255 255
-0.367 -0.124 1.329 0 0 0
0.343 0.145 0.705 0 0 0
-0.329 -1.069 1.916 255 255 255
0.349 -1.126 2.446 255 255 255
-0.564 0.226 1.543 255 255 255
-0.541 0.07 1.771 255 255 255
0.352 -0.064 0.563 255 255 255
0.094 -0.2 0.898 255 255 255
0.347 -0.015 0.567 255 255 255
-0.187 -0.157 1.039 255 255 255
0.177 -0.017 0.781 0 0 0
-0.138 -0.375 1.128 255 255 255
-0.091 -0.337 1.106 255 255 255
0.37 -0.06 0.543 255 255 255
0.061 -1.025 2.253 255 255 255
0.133 -1.256 2.166 255 255 255
-0.226 0.063 1.425 255 255 255
-1.034 -0.608 1.583 255 255 255
0.221 0.124 0.692 255 255 255
-0.064 -0.031 1.003 255 255 255
-0.244 0.428 1.215 255 255 255
-0.399 0.372 1.31 255 255 255
0.341 -0.026 0.554 255 255 255
0.246 -0.168 0.682 255 255 255
-0.637 -1.044 1.628 255 255 255
0.299 0.26 0.668 255 255 255
-0.09 0.028 1.053 255 255 255
0.127 -0.182 0.857 255 255 255
-0.748 0.124 1.71 255 255 255
-0.106 -0.264 1.086 255 255 255
-0.067 -0.244 1.071 255 255 255
-0.841 0.277 1.488 255 255 255
0.276 0.232 0.692 255 255 255
0.419 -0.195 0.623 255 255 255
-0.128 0.338 1.338 255 255 255
-0.067 -1.32 1.965 255 255 255
0.17 -0.176 0.775 255 255 255
-0.747 0.343 1.387 255 255 255
-0.268 -0.27 0.999 255 255 255
-0.303 -0.148 1.308 255 255 255
0.088 0.15 0.842 255 255 255
0.342 0.148 0.73 0 0 0
0.299 -0.288 0.708 255 255 255
0.344 -0.043 0.56 255 255 255
0.342 -1.139 2.424 255 255 255
-0.106 -1.331 1.929 255 255 255
-0.133 0.528 1.06 255 255 255
-0.128 0.507 1.084 0 0 0
0.159 0.296 0.762 255 255 255
-0.059 -0.103 1.019 255 255 255
0 -0.297 1.028 255 255 255
0.258 -1.379 2.175 255 255 255
0.311 -1.279 2.289 255 255 255
-0.783 -0.326 1.967 255 255 255
-0.192 -0.504 1.046 0 0 0
0.55 -1.476 2.428 255 255 255
0.542 -1.702 2.285 0 0 0
-0.055 -0.289 1.085 0 0 0
-0.726 -1.046 1.551 255 255 255
0.106 0.177 0.746 255 255 255
-0.22 0.433 1.209 255 255 255
-0.014 -1.347 1.989 255 255 255
0.024 -0.022 0.874 255 255 255
0.188 -0.214 0.789 255 255 255
-0.335 -0.499 1.056 0 0 0
-0.72 -0.881 1.657 255 255 255
0.253 -0.097 0.665 255 255 255
-0.3 -1.016 1.972 255 255 255
0.436 -1.186 2.514 255 255 255
-0.391 -0.116 1.233 0 0 0
-0.062 0.029 0.969 255 255 255
0.046 -0.17 1.048 255 255 255
0.064 -0.42 1.028 255 255 255
-0.151 -1.068 2.054 255 255 255
0.248 -0.124 0.685 255 255 255
0.181 0.272 0.704 255 255 255
0.009 -0.07 0.954 255 255 255
0.232 -0.103 0.706 255 255 255
0.323 0.165 0.678 255 255 255
-0.547 0.252 1.502 255 255 255
-0.008 -0.039 0.946 255 255 255
0.368 -0.197 0.642 0 0 0
-0.853 0.235 1.55 255 255 255
-0.974 -0.563 1.657 255 255 255
0.204 -0.099 0.775 255 255 255
-0.855 -0.563 1.759 255 255 255
0.091 -0.139 0.993 255 255 255
-1.075 -0.045 1.904 255 255 255
0.085 -0.005 0.896 255 255 255
0.322 0.174 0.66 255 255 255
0.399 -0.19 0.624 255 255 255
-0.68 -0.76 1.769 255 255 255
0.298 0.009 0.702 255 255 255
-0.785 -0.475 1.871 255 255 255
0.288 -1.463 2.148 255 255 255
-0.773 -0.872 1.623 255 255 255
0.366 0.009 0.557 255 255 255
0.125 0.221 0.742 0 0 0
-0.057 0.528 1.054 255 255 255
-0.838 -0.84 1.588 255 255 255
-0.141 -0.101 1.149 255 255 255
-0.501 0.253 1.497 255 255 255
0.169 0.127 0.748 255 255 255
0.104 0.145 0.804 255 255 255
-0.116 -0.111 1.073 255 255 255
0.182 0.226 0.678 255 255 255
0.25 0.093 0.731 255 255 255
0.925 -1.73 2.574 255 255 255
-0.268 0.288 1.428 255 255 255
-0.224 -0.055 1.099 255 255 255
-0.153 -0.012 1.23 255 255 255
-0.274 0.497 1.115 0 0 0
-0.178 -0.426 1.065 255 255 255
-0.353 0.553 1.039 255 255 255
-0.334 -0.234 1.085 255 255 255
0.127 0.096 0.782 255 255 255
0.108 -0.306 0.898 255 255 255
-0.027 -0.087 1.019 255 255 255
-0.17 0.483 1.128 255 255 255
0.222 0.036 0.733 255 255 255
0.242 0.187 0.683 255 255 255
0.223 -0.223 0.698 0 0 0
0.17 -1.131 2.273 255 255 255
-0.358 -0.123 1.176 255 255 255
0.708 -0.796 1.559 255 255 255
-0.161 -0.07 1.068 255 255 255
0.14 0.251 0.742 0 0 0
-0.397 -0.27 1.154 255 255 255
0.303 -0.114 0.631 255 255 255
-0.068 -0.087 1.024 255 255 255
0.035 -0.033 0.89 255 255 255
-0.811 -0.032 1.985 255 255 255
0.361 -0.051 0.553 255 255 255
0.318 -1.227 2.326 255 255 255
-0.481 0.463 1.182 255 255 255
-0.192 -0.024 1.097 255 255 255
-0.348 -0.154 1.257 255 255 255
0.162 -0.44 1.017 255 255 255
-0.362 0.126 1.673 255 255 255
0.481 -1.434 2.399 255 255 255
0.174 0.218 0.694 255 255 255
-0.183 0.422 1.221 255 255 255
0.313 0.168 0.673 255 255 255
-0.374 0.12 1.68 255 255 255
-0.213 -0.289 1.008 255 255 255
-0.754 0.147 1.676 255 255 255
0.166 0.029 0.802 255 255 255
-0.749 -0.937 1.602 255 255 255
0.29 -0.367 0.733 255 255 255
-0.217 -0.467 1.017 255 255 255
-0.26 0.284 1.436 255 255 255
-0.328 -1.143 1.876 255 255 255
-0.15 -0.246 1.036 255 255 255
0.056 -1.209 2.137 255 255 255
0.014 0.445 1.168 255 255 255
0.081 0.05 0.832 255 255 255
0.312 -0.051 0.59 255 255 255
0.165 -0.13 0.821 255 255 255
-1.031 -0.588 1.598 255 255 255
-0.262 -0.295 0.996 255 255 255
0.618 -0.532 1.091 255 255 255
0.385 -1.25 2.435 255 255 255
-0.963 0.163 1.678 255 255 255
-0.672 0.227 1.545 255 255 255
0.303 0.02 0.703 255 255 255
0.28 0.355 0.789 255 255 255
-0.21 -0.358 1.013 255 255 255
0.218 -0.25 0.676 255 255 255
0.34 0.05 0.663 255 255 255
-0.662 -0.572 1.901 0 0 0
-0.84 0.133 1.71 255 255 255
1.314 -1.592 2.55 255 255 255
0.287 0.177 0.657 255 255 255
-0.683 -0.686 1.812 255 255 255
0.052 0.374 1.269 0 0 0
-0.016 0.526 1.052 255 255 255
0.38 -1.633 2.201 0 0 0
-1.255 0.064 1.848 255 255 255
0.345 0.015 0.598 255 255 255
-1.051 -0.386 1.701 255 255 255
0.502 -1.234 2.529 255 255 255
-0.064 -0.193 1.057 255 255 255
0.443 -1.298 2.45 255 255 255
0.354 -0.183 0.638 255 255 255
-0.819 0.07 1.815 255 255 255
-0.129 -1.215 1.993 255 255 255
-0.189 -1.291 1.883 255 255 255
-0.019 0.373 1.277 255 255 255
-0.154 0.255 1.467 255 255 255
0.185 0.46 1.108 255 255 255
0.283 0.417 0.837 255 255 255
0.172 -0.285 0.822 255 255 255
0.131 0.187 0.742 255 255 255
-0.457 -1.193 1.669 255 255 255
-0.326 -0.221 1.091 255 255 255
0.12 0.022 0.833 255 255 255
-0.254 -1.25 1.859 255 255 255
0.123 0.07 0.788 255 255 255
0.255 -0.2 0.698 255 255 255
-0.905 0.017 1.914 255 255 255
0.651 -0.562 1.111 255 255 255
0.372 0.141 0.682 255 255 255
0.145 0.107 0.761 255 255 255
-1.088 -0.259 1.763 255 255 255
0.076 -0.267 0.909 255 255 255
0.038 -0.041 0.91 255 255 255
0.979 -1.628 2.67 255 255 255
0.188 0.5 1.056 255 255 255
-0.443 0.533 1.08 255 255 255
-0.586 0.316 1.412 255 255 255
0.25 -0.124 0.683 255 255 255
-1.084 -0.443 1.638 255 255 255
0.257 -1.223 2.278 255 255 255
0.183 -0.229 0.759 255 255 255
-0.035 -0.296 1.061 0 0 0
-0.432 -0.13 1.209 255 255 255
0.293 -0.152 0.605 255 255 255
0.346 0.091 0.718 255 255 255
0.177 -0.152 0.766 255 255 255
0.524 -0.496 1.029 255 255 255
0.122 0.2 0.744 255 255 255
-0.05 -1.216 2.042 255 255 255
-0.275 0.226 1.526 255 255 255
0.352 -1.34 2.351 255 255 255
0.28 -0.202 0.67 0 0 0
1.347 -1.575 2.521 255 255 255
0.236 -0.051 0.758 255 255 255
0.122 0.182 0.748 255 255 255
0.379 0.031 0.558 255 255 255
-0.57 -0.93 1.75 255 255 255
0.114 -0.165 0.898 255 255 255
0.207 -0.012 0.747 255 255 255
-1.15 0.078 1.825 255 255 255
0.518 -1.446 2.415 255 255 255
-0.168 -0.274 1.023 255 255 255
-0.334 -1.174 1.848 255 255 255
-0.401 -0.114 1.301 0 0 0
0.136 -0.06 0.971 255 255 255
0.358 -0.15 0.57 255 255 255
-0.331 0.314 1.397 255 255 255
0.369 -0.161 0.561 255 255 255
-1.211 -0.057 2.02 255 255 255
-0.43 0.471 1.17 255 255 255
0.291 0.269 0.682 255 255 255
0.05 -0.218 1 255 255 255
0.867 -1.862 2.437 0 0 0
-0.803 -0.247 2.001 255 255 255
-0.056 -0.047 1.003 255 255 255
-1.042 -0.497 1.652 255 255 255
-0.227 0.376 1.293 0 0 0
0.152 0.009 0.845 255 255 255
-0.385 -0.279 1.139 255 255 255
0.261 -0.015 0.747 255 255 255
-1.203 0.043 1.877 255 255 255
-0.214 -0.271 1.005 255 255 255
0.134 -0.443 1.062 255 255 255
-0.317 -0.154 1.309 255 255 255
0.294 -0.329 0.729 255 255 255
0.307 -0.117 0.63 255 255 255
-0.392 0.288 1.438 255 255 255
-0.772 -0.276 2.003 255 255 255
0.229 0.085 0.733 255 255 255
0.077 -0.322 0.928 255 255 255
0.202 0.16 0.674 255 255 255
0.186 0.128 0.727 255 255 255
-0.166 -0.277 1.025 255 255 255
-0.291 -1.059 1.958 255 255 255
0.112 0.213 0.749 0 0 0
-0.655 -0.82 1.752 255 255 255
0.277 -0.093 0.641 255 255 255
0.062 0.246 0.78 0 0 0
0.025 -0.231 1.044 255 255 255
-0.499 0.376 1.314 255 255 255
0.274 -0.159 0.647 255 255 255
0.468 -1.317 2.46 255 255 255
0.328 0.131 0.769 0 0 0
-0.068 -0.368 1.097 0 0 0
0.284 0.208 0.615 255 255 255
-0.24 -0.423 1.014 255 255 255
-0.054 0.077 0.959 255 255 255
0.072 0.002 0.885 255 255 255
-0.559 -0.916 1.76 0 0 0
-0.119 0.548 1.029 255 255 255
0.172 0.215 0.695 255 255 255
-1.491 -0.079 2.059 255 255 255
-0.462 0.233 1.522 255 255 255
0.156 -0.296 0.841 255 255 255
0.241 -0.058 0.741 255 255 255
0.368 -0.231 0.591 255 255 255
-0.28 0.347 1.345 255 255 255
-0.451 0.443 1.213 255 255 255
0.62 -1.745 2.322 0 0 0
0.332 0.109 0.731 255 255 255
-0.684 -0.932 1.653 255 255 255
-0.184 0.324 1.37 255 255 255
-0.025 -0.035 0.943 255 255 255
0 -0.348 1.024 255 255 255
0.091 -0.145 0.991 255 255 255
-0.021 -0.049 0.95 255 255 255
-0.114 0.34 1.335 255 255 255
0.009 -1.018 2.214 255 255 255
-0.207 0.419 1.226 255 255 255
-0.497 -0.022 1.91 255 255 255
-0.481 0.518 1.113 0 0 0
0.306 -0.143 0.617 255 255 255
-0.158 0.363 1.303 255 255 255
0.449 -0.377 0.822 0 0 0
-0.236 -0.096 1.088 255 255 255
0.179 -0.08 0.863 255 255 255
0.524 -1.667 2.289 0 0 0
0.098 0.272 0.789 0 0 0
-0.172 0.33 1.359 255 255 255
0.26 0.077 0.742 255 255 255
-0.629 0.345 1.374 255 255 255
-0.095 -0.367 1.122 255 255 255
-0.848 0.24 1.54 255 255 255
0.208 0.187 0.662 255 255 255
0.249 -0.222 0.705 0 0 0
0.349 -0.204 0.644 0 0 0
-0.133 -0.499 1.139 255 255 255
0.006 -0.17 1.089 0 0 0
0.776 -1.683 2.473 255 255 255
0.058 -0.204 0.994 255 255 255
-0.709 -0.803 1.719 255 255 255
0.265 0.402 0.87 255 255 255
-0.299 -1.182 1.866 255 255 255
-2.178 -0.643 2.875 255 255 255
0.161 -1.059 2.313 255 255 255
0.243 -0.04 0.755 255 255 255
-0.254 0.08 1.468 255 255 255
0.135 -0.008 0.813 255 255 255
-0.054 0.467 1.062 255 255 255
-0.277 -1.149 1.909 255 255 255
-0.665 0.264 1.49 255 255 255
-0.992 -0.546 1.66 255 255 255
0.358 0.071 0.661 255 255 255
-0.117 0.547 1.032 255 255 255
-0.189 0.525 1.066 255 255 255
0.245 -0.234 0.636 255 255 255
-0.253 -0.444 1.003 255 255 255
0.241 -1.249 2.252 255 255 255
0.256 0.086 0.736 255 255 255
-0.571 -1.02 1.691 255 255 255
-0.026 0.039 0.878 255 255 255
-0.369 -1.261 1.766 255 255 255
0.37 -0.014 0.522 255 255 255
-0.869 -0.204 1.973 255 255 255
-0.034 0.088 0.937 255 255 255
0.082 -0.183 0.949 255 255 255
-0.232 -1.024 2.024 255 255 255
0.248 0.302 0.781 255 255 255
-0.209 -0.393 1.019 255 255 255
-0.924 -0.1 1.972 255 255 255
-0.282 -0.959 2.019 255 255 255
-0.618 0.339 1.38 255 255 255
0.138 -0.001 0.821 255 255 255
0.276 -0.202 0.673 0 0 0
0.099 0.221 0.758 255 255 255
0.198 -0.249 0.761 255 255 255
-0.91 -0.553 1.717 255 255 255
-0.738 0.117 1.724 255 255 255
-0.127 -0.124 1.075 255 255 255
0.174 -0.441 1.025 255 255 255
0.3 -0.054 0.621 0 0 0
0.027 -1.455 1.955 0 0 0
0.129 -0.23 0.84 255 255 255
0.084 -0.099 0.977 0 0 0
0.378 -0.227 0.604 255 255 255
-0.019 -0.432 1.098 255 255 255
0.344 -0.233 0.577 255 255 255
-0.062 -0.277 1.086 255 255 255
0.492 -1.498 2.372 255 255 255
0.089 0.12 0.84 255 255 255
0.256 0.528 1.003 255 255 255
-0.275 -0.42 0.999 255 255 255
-0.136 -0.185 1.084 255 255 255
0.171 -0.259 0.783 255 255 255
0.295 -0.284 0.704 0 0 0
0.282 -0.007 0.712 255 255 255
0.084 -0.427 1.034 255 255 255
0.861 -1.585 2.609 255 255 255
-0.043 0.533 1.043 255 255 255
0.128 -0.164 0.866 255 255 255
-0.045 0.242 1.307 255 255 255
0.096 -0.174 0.922 255 255 255
-0.685 -1.191 1.496 255 255 255
-1.159 0.094 1.806 255 255 255
-1.208 0.091 1.802 255 255 255
-0.09 -0.355 1.115 255 255 255
-1.053 -0.421 1.676 255 255 255
-0.264 -0.257 1.002 255 255 255
0.094 0.03 0.826 255 255 255
0.155 0.063 0.776 255 255 255
0.223 -0.102 0.721 255 255 255
-0.763 0.256 1.512 255 255 255
-0.15 -0.14 1.062 255 255 255
-0.717 0.09 1.764 255 255 255
0.073 0.198 0.753 255 255 255
0.232 -1.2 2.282 255 255 255
-1.492 -0.017 1.992 255 255 255
0.3 -0.147 0.605 255 255 255
0.203 -0.085 0.792 255 255 255
0.283 0.225 0.673 255 255 255
0.151 0.302 0.763 255 255 255
-0.161 -1.262 1.925 255 255 255
0.257 0.083 0.738 255 255 255
-0.184 0.411 1.229 255 255 255
0.241 -1.242 2.26 255 255 255
-0.601 0.437 1.234 255 255 255
-0.052 0.012 0.958 255 255 255
0.195 -0.218 0.628 255 255 255
0.083 0.07 0.829 255 255 255
-0.033 -1.083 2.139 255 255 255
0.224 0.546 0.983 255 255 255
-0.36 -1.184 1.82 255 255 255
-0.493 0.498 1.137 0 0 0
-0.758 -0.281 2.013 0 0 0
-0.365 -1.041 1.906 255 255 255
0.049 0.38 1.262 0 0 0
-0.088 0.457 1.161 255 255 255
0.248 -0.394 0.918 255 255 255
-0.054 0.532 1.047 255 255 255
0.129 -0.251 0.849 255 255 255
0.389 -0.094 0.561 255 255 255
-0.863 0.134 1.714 255 255 255
0.591 -1.619 2.374 255 255 255
1.258 -1.758 2.529 255 255 255
0.325 -0.121 0.571 255 255 255
0.138 -1.188 2.209 255 255 255
0.131 -0.119 0.93 255 255 255
0.442 -1.196 2.51 255 255 255
0.232 0.124 0.681 255 255 255
-0.788 -0.322 1.967 255 255 255
-0.47 -1.128 1.699 255 255 255
0.362 -0.217 0.611 0 0 0
-0.061 -0.083 1.019 255 255 255
0.114 0.017 0.84 255 255 255
0.127 0.053 0.795 255 255 255
-0.241 0.22 1.529 255 255 255
0.386 0.046 0.563 255 255 255
0.286 0.281 0.703 255 255 255
-0.657 0.05 1.821 255 255 255
0.279 0.155 0.689 255 255 255
0.363 0.007 0.562 255 255 255
-0.644 0.256 1.502 255 255 255
-0.586 0.046 1.815 255 255 255
-0.256 0.302 1.409 255 255 255
-0.052 -0.367 1.081 255 255 255
0.931 -1.49 2.712 0 0 0
0.084 -0.072 0.983 0 0 0
0.05 -0.204 1.006 255 255 255
-0.076 -0.163 1.048 255 255 255
0.22 -0.164 0.689 255 255 255
-0.777 -0.941 1.575 255 255 255
-0.697 0.395 1.307 255 255 255
0.098 0.432 1.179 255 255 255
0.162 -0.421 1.025 255 255 255
-0.094 0.467 1.146 255 255 255
0.249 0.176 0.65 255 255 255
-0.268 -1.177 1.895 255 255 255
0.02 0.386 1.256 255 255 255
-0.16 -1.083 2.042 255 255 255
-0.202 0.562 1.02 255 255 255
0.326 0.109 0.739 255 255 255
0.157 -0.25 0.806 255 255 255
0.577 -1.589 2.374 255 255 255
-0.002 -0.111 1.013 255 255 255
-0.327 -0.156 1.303 255 255 255
0.361 -1.231 2.425 255 255 255
0.035 -0.117 0.981 0 0 0
-0.053 0.422 1.207 255 255 255
0.372 0.143 0.673 255 255 255
0.346 0.039 0.639 255 255 255
0.112 0.145 0.831 255 255 255
-0.934 0.009 1.926 255 255 255
0.025 0.523 1.051 255 255 255
0.273 -0.076 0.637 255 255 255
-0.786 -0.128 2.061 255 255 255
0.173 -0.033 0.789 255 255 255
-0.599 -0.941 1.719 255 255 255
0.029 0.013 0.872 255 255 255
0.055 -1.322 2.066 255 255 255
0.125 0.02 0.833 255 255 255
0.041 0.215 0.938 255 255 255
0.205 -0.528 1.154 255 255 255
-1.72 -0.238 2.279 255 255 255
-0.298 0.417 1.233 255 255 255
0.09 0.147 0.758 255 255 255
-0.044 0.218 1.275 255 255 255
-1.653 -0.407 2.371 0 0 0
-0.388 0.019 1.832 255 255 255
0.093 0.118 0.828 255 255 255
-0.456 0.133 1.667 255 255 255
-0.212 -0.104 1.084 255 255 255
-1.115 -0.361 1.691 255 255 255
-0.057 0.482 1.062 0 0 0
-0.937 -0.275 1.879 255 255 255
-0.176 -0.394 1.034 255 255 255
-0.829 -0.715 1.675 255 255 255
-0.462 0.485 1.147 255 255 255
0.325 0.157 0.751 255 255 255
-0.793 -0.41 1.913 255 255 255
-0.367 0.535 1.068 255 255 255
-0.195 -0.997 2.064 255 255 255
-0.851 -0.648 1.701 255 255 255
-0.173 -0.38 1.035 255 255 255
0.059 -0.216 0.976 255 255 255
0.148 -0.153 0.839 255 255 255
-0.056 -0.946 2.206 255 255 255
-0.399 -1.108 1.834 255 255 255
-0.23 -0.502 1.015 255 255 255
0.097 -0.19 0.903 255 255 255
-0.22 -0.048 1.1 255 255 255
-0.944 -0.062 1.975 255 255 255
0.162 -0.038 0.822 255 255 255
-0.002 -0.017 0.876 255 255 255
-0.351 -0.203 1.145 255 255 255
0.247 -0.098 0.672 255 255 255
0.231 -0.057 0.762 255 255 255
-0.882 -0.357 1.872 255 255 255
-0.141 -0.336 1.123 255 255 255
0.042 -0.314 0.942 255 255 255
-0.406 0.332 1.374 255 255 255
0.087 0.244 0.768 0 0 0
0.17 0.467 1.101 255 255 255
-0.883 0.045 1.868 255 255 255
0.276 0.002 0.735 255 255 255
0.057 0.548 1.016 255 255 255
0.052 -0.348 0.938 255 255 255
0.297 -0.188 0.66 255 255 255
0.107 -1.328 2.102 255 255 255
-0.518 -1.229 1.598 0 0 0
0.17 -0.028 0.789 255 255 255
0.086 0.025 0.83 255 255 255
-0.329 0.418 1.239 255 255 255
0.116 -0.151 0.915 255 255 255
-0.453 0.51 1.114 0 0 0
-0.776 -0.926 1.589 255 255 255
-0.659 0.153 1.656 255 255 255
-0.612 -0.948 1.704 255 255 255
0.095 0.148 0.759 255 255 255
-0.917 0.267 1.507 255 255 255
-0.795 0.128 1.713 255 255 255
0.309 -0.153 0.593 255 255 255
-0.74 -0.007 1.932 255 255 255
-0.355 -0.24 1.121 255 255 255
-0.239 -0.109 1.083 255 255 255
0.27 -0.072 0.663 255 255 255
0.325 0.162 0.679 255 255 255
-0.277 0.504 1.107 0 0 0
-0.685 0.039 1.843 255 255 255
0.071 0.209 0.756 0 0 0
0.295 0.245 0.65 255 255 255
0.286 0.224 0.607 255 255 255
0.673 -1.795 2.33 0 0 0
-0.2 -0.315 1.013 255 255 255
-0.396 0.433 1.22 255 255 255
0.227 0.027 0.725 255 255 255
-0.383 -0.506 1.105 0 0 0
0.348 0.149 0.645 255 255 255
-0.791 0.005 1.926 255 255 255
-0.973 -0.328 1.815 255 255 255
-0.351 0.484 1.142 255 255 255
-0.694 0.099 1.746 255 255 255
0.374 0.017 0.552 255 255 255
-0.85 0.261 1.513 255 255 255
-0.016 -0.258 1.091 255 255 255
-0.761 -0.643 1.778 255 255 255
-0.246 0.105 1.489 255 255 255
0.229 0.109 0.734 255 255 255
-0.872 -0.335 1.893 255 255 255
-0.712 -1.023 1.579 255 255 255
0.298 -1.314 2.256 255 255 255
-0.933 -0.007 1.953 255 255 255
0.253 0.372 0.832 255 255 255
0.342 0.075 0.696 255 255 255
0.355 -0.005 0.562 255 255 255
-0.691 -1.148 1.511 0 0 0
0.662 -1.323 2.611 255 255 255
0.1 -0.114 0.984 255 255 255
-0.037 0.295 1.389 255 255 255
0.136 -0.143 0.876 255 255 255
-1.028 -0.11 1.889 255 255 255
0.113 -0.202 0.856 255 255 255
0.212 0.165 0.668 255 255 255
-0.321 0.422 1.228 255 255 255
0.135 0.207 0.739 255 255 255
-0.908 -0.563 1.712 255 255 255
0.085 -0.17 0.963 255 255 255
-0.672 -1.171 1.514 0 0 0
0.307 -0.014 0.65 255 255 255
-0.694 -0.585 1.866 255 255 255
-0.231 -0.482 1.015 255 255 255
0.268 0.187 0.623 255 255 255
0.412 -0.443 0.926 255 255 255
0.345 0.161 0.644 255 255 255
-1.071 -0.378 1.689 255 255 255
-0.617 0.334 1.386 255 255 255
0.042 0.082 0.887 255 255 255
0.138 -0.27 0.856 255 255 255
0.359 0.129 0.697 255 255 255
-1.327 -0.245 1.971 255 255 255
-0.159 0.156 1.436 255 255 255
-0.731 -0.647 1.798 255 255 255
-0.371 -0.228 1.143 255 255 255
-0.225 -0.427 1.014 255 255 255
0.019 0.035 0.872 255 255 255
-0.263 -0.184 1.063 255 255 255
0.351 0.148 0.617 255 255 255
0.312 -0.002 0.65 255 255 255
0.162 0.078 0.771 255 255 255
0.014 -0.298 0.992 255 255 255
-0.163 -0.205 1.043 255 255 255
0.148 0.51 1.043 255 255 255
0.271 -0.37 0.728 255 255 255
-0.429 -0.116 1.225 0 0 0
0.119 0.462 1.114 255 255 255
-0.712 0.326 1.407 255 255 255
0.254 0.078 0.746 255 255 255
0.228 -0.041 0.781 255 255 255
0.272 -0.223 0.597 255 255 255
-0.697 -0.124 2.101 255 255 255
-0.055 0.468 1.126 255 255 255
0.349 0.016 0.594 255 255 255
-0.135 -1.35 1.89 255 255 255
-0.218 -1.106 1.984 255 255 255
-0.303 0.537 1.061 255 255 255
0.057 0.49 1.09 0 0 0
-1.058 -0.419 1.668 255 255 255
0.192 -0.344 0.719 255 255 255
-0.296 0.454 1.182 255 255 255
0.237 0.388 0.925 255 255 255
-0.673 -0.862 1.705 255 255 255
0.298 -0.233 0.572 255 255 255
0.15 -0.226 0.823 255 255 255
-0.783 -0.536 1.833 255 255 255
-0.046 -0.288 1.074 0 0 0
0.344 -0.117 0.541 255 255 255
-0.253 -1.145 1.93 255 255 255
0.363 -0.001 0.545 255 255 255
-0.817 -0.301 1.961 255 255 255
0.129 -0.186 0.839 255 255 255
-0.461 -1.151 1.689 255 255 255
-0.247 0.526 1.07 255 255 255
-1.04 -0.528 1.634 255 255 255
0.175 0.251 0.698 255 255 255
0.159 -0.152 0.815 255 255 255
0.291 -0.093 0.625 255 255 255
-0.591 0.074 1.77 255 255 255
-0.709 0.258 1.501 255 255 255
-0.381 0.299 1.421 255 255 255
0.296 0.166 0.67 255 255 255
-0.803 -0.275 1.987 255 255 255
0.323 0.112 0.755 255 255 255
0.3 0.417 0.802 255 255 255
-0.112 -1.212 2.006 255 255 255
-0.155 0.381 1.19 255 255 255
0.283 0.218 0.666 255 255 255
-0.261 -0.195 1.05 255 255 255
0.273 -0.31 0.709 255 255 255
0.074 0.095 0.845 255 255 255
-0.675 -1.192 1.5 255 255 255
0.333 0.199 0.64 255 255 255
0.254 0.22 0.717 255 255 255
0.28 -0.193 0.664 255 255 255
0.159 0.112 0.74 255 255 255
-0.292 -0.5 1.027 0 0 0
0.073 0.087 0.85 255 255 255
0.2 -0.136 0.731 255 255 255
0.288 0.445 0.823 255 255 255
0.293 0.426 0.827 255 255 255
-0.336 0.116 1.681 0 0 0
0.73 -1.477 2.568 255 255 255
-0.347 -0.156 1.255 255 255 255
-0.58 -1.039 1.673 255 255 255
-0.969 -0.561 1.665 255 255 255
-0.027 -0.201 1.103 0 0 0
-0.32 -0.343 1.049 255 255 255
-0.516 -1.041 1.723 255 255 255
0.323 -0.33 0.732 255 255 255
0.297 -0.104 0.633 255 255 255
0.261 -0.205 0.693 0 0 0
-0.478 0.353 1.347 255 255 255
0.209 -0.083 0.782 255 255 255
-0.572 0.172 1.62 255 255 255
-0.284 -1.341 1.779 0 0 0
0.164 0.472 1.095 255 255 255
0.134 0.435 1.15 255 255 255
-0.292 0.159 1.606 0 0 0
-0.115 0.256 1.458 255 255 255
-2.07 -0.482 2.749 255 255 255
-0.1 -0.06 1.04 255 255 255
0.192 0.164 0.682 255 255 255
-0.465 0.167 1.62 255 255 255
-0.303 0.458 1.176 255 255 255
0.2 -0.068 0.824 255 255 255
-0.179 0.321 1.371 255 255 255
1.23 -1.749 2.549 255 255 255
0.252 -0.224 0.7 0 0 0
0.104 -0.174 0.907 255 255 255
0.238 -0.315 0.844 255 255 255
0.071 0.149 0.868 255 255 255
0.17 0.13 0.746 255 255 255
-0.3 0.419 1.23 255 255 255
0.158 0.155 0.735 255 255 255
0.259 -0.1 0.661 255 255 255
0.225 -0.071 0.758 255 255 255
-0.558 -1.171 1.609 0 0 0
-1.36 0.019 1.935 255 255 255
0.332 -0.033 0.565 255 255 255
-0.634 0.415 1.269 255 255 255
-0.187 -0.215 1.006 255 255 255
-0.985 -0.238 1.865 255 255 255
-0.016 0.553 1.017 255 255 255
-0.045 -1.412 1.921 0 0 0
0.031 -1.413 1.99 255 255 255
-0.431 0.537 1.073 255 255 255
0.344 0.063 0.68 255 255 255
-0.245 -0.48 1.009 255 255 255
0.225 0.153 0.668 255 255 255
0.192 0.184 0.672 255 255 255
0.102 0.111 0.808 255 255 255
-0.733 -0.807 1.692 255 255 255
0.079 0.456 1.146 255 255 255
-0.15 -0.334 1.099 255 255 255
0.093 -0.214 0.897 255 255 255
-0.041 0.518 1.061 255 255 255
0.208 0 0.739 255 255 255
-0.27 -0.212 1.022 255 255 255
0.018 -1.375 1.996 255 255 255
-0.785 -0.722 1.709 255 255 255
-0.809 -0.698 1.703 255 255 255
-0.531 0.356 1.347 255 255 255
0.363 0.12 0.699 255 255 255
-0.459 0.499 1.127 0 0 0
-1.117 -0.431 1.639 255 255 255
-0.026 -0.156 1.085 255 255 255
0.079 -0.135 1.012 255 255 255
0.103 0.549 1.011 255 255 255
0.138 0.287 0.774 255 255 255
0.109 0.166 0.733 255 255 255
0.13 -0.18 0.854 255 255 255
-0.916 -0.746 1.584 255 255 255
0.155 -0.113 0.882 255 255 255
-0.49 0.356 1.345 255 255 255
-0.105 -0.175 1.067 255 255 255
0.202 0.172 0.667 255 255 255
