ply
format ascii 1.0
comment Created by Open3D
element vertex 1593
property double x
property double y
property double z
property uchar red
property uchar green
property uchar blue
end_header
-0.102 0.494 0.959 255 255 255
-0.931 0.137 1.398 255 255 255
-0.611 0.02 1.512 255 255 255
-0.221 -0.394 1.014 255 255 255
0.032 -1.599 2.382 255 255 255
-0.288 0.222 1.259 255 255 255
-0.417 0.149 1.36 255 255 255
-0.261 -0.469 0.992 0 0 0
-0.007 0.39 1.062 255 255 255
0.17 -0.289 0.61 255 255 255
0.111 -0.326 0.661 0 0 0
-0.088 -0.23 0.937 0 0 0
-0.527 -1.167 1.969 255 255 255
-0.496 0.04 1.486 255 255 255
0.27 -0.135 0.532 255 255 255
-0.736 0.014 1.524 255 255 255
0.445 -1.916 2.582 0 0 0
-0.34 0.472 0.987 255 255 255
-0.639 -0.234 1.16 0 0 0
0.205 0.108 0.612 255 255 255
-0.255 0.5 0.958 255 255 255
-0.061 0.357 1.089 255 255 255
0.257 -0.2 0.483 0 0 0
-0.107 0.473 0.981 255 255 255
0.035 0.074 0.736 255 255 255
0.338 0.021 0.594 255 255 255
-0.424 -0.299 0.952 255 255 255
0.195 0.044 0.694 255 255 255
-0.264 -0.098 1.002 255 255 255
0.225 -0.085 0.65 255 255 255
-0.419 -0.593 0.899 255 255 255
-0.263 -0.46 0.993 0 0 0
-0.474 -1.401 1.852 0 0 0
-0.106 -0.304 0.934 255 255 255
-0.082 -0.026 0.834 255 255 255
0.195 -0.114 0.638 255 255 255
-0.242 -0.184 0.966 255 255 255
0.2 0.458 0.97 255 255 255
0.258 0.247 0.61 255 255 255
0.155 0.097 0.714 255 255 255
0.049 -0.239 0.731 255 255 255
0.082 0.087 0.682 255 255 255
0.274 -0.146 0.528 255 255 255
0.222 0.131 0.597 255 255 255
0.176 0.15 0.64 255 255 255
-0.092 -0.11 0.836 255 255 255
-0.089 -0.26 0.946 255 255 255
-0.207 -1.518 2.077 0 0 0
0.34 0.117 0.576 255 255 255
-0.347 0.375 1.095 255 255 255
0.265 -0.139 0.537 255 255 255
-0.435 0.343 1.136 0 0 0
-0.036 0.466 0.984 255 255 255
0.225 -0.219 0.592 255 255 255
0.187 0.049 0.689 255 255 255
-0.349 -0.339 1.015 255 255 255
-0.268 -0.284 0.972 255 255 255
-0.567 0.248 1.255 255 255 255
0.221 -0.097 0.614 255 255 255
-0.519 -0.321 1.016 255 255 255
0.238 -0.249 0.434 255 255 255
-0.218 -0.261 0.967 255 255 255
0.25 0.245 0.621 255 255 255
0.085 -0.248 0.683 255 255 255
-1.04 0.078 1.472 255 255 255
0.098 0.091 0.691 255 255 255
-0.123 -0.143 0.847 255 255 255
0.22 -0.344 0.578 255 255 255
-0.016 0.388 1.063 255 255 255
-0.676 -0.088 1.635 255 255 255
0.214 0.248 0.669 255 255 255
-0.505 0.395 1.085 255 255 255
-0.348 0.348 1.122 255 255 255
0.058 0.254 1.023 255 255 255
0.239 0.029 0.65 255 255 255
0.158 0.288 0.9 255 255 255
0.221 -0.132 0.578 0 0 0
-0.29 0.488 0.968 255 255 255
0.324 0 0.597 255 255 255
-0.094 -0.286 0.935 255 255 255
-0.008 -0.524 0.876 255 255 255
-0.435 -0.393 0.91 255 255 255
0.295 -0.144 0.513 255 255 255
0.235 -0.273 0.475 255 255 255
-0.052 -0.048 0.805 255 255 255
0.024 -0.45 0.659 255 255 255
-0.44 -0.641 0.891 0 0 0
-0.335 -1.386 2.028 255 255 255
-1.247 -0.33 1.739 255 255 255
0.265 -0.261 0.556 255 255 255
0.165 0.331 0.93 0 0 0
-0.701 -0.111 1.665 255 255 255
-0.66 0.217 1.294 255 255 255
-0.847 0.102 1.43 255 255 255
0.123 -0.4 0.656 0 0 0
-0.362 -0.402 0.93 255 255 255
-0.763 -0.136 1.697 255 255 255
0.211 0.174 0.631 255 255 255
0.063 -0.165 0.765 0 0 0
-0.033 0.063 0.754 255 255 255
-0.384 0.386 1.082 255 255 255
-0.395 -0.445 0.914 255 255 255
-0.122 -0.099 0.839 255 255 255
0.399 -1.138 1.542 0 0 0
0.26 -0.224 0.527 255 255 255
-0.087 0.428 1.027 255 255 255
0.317 -0.176 0.515 255 255 255
0.021 0.085 0.746 255 255 255
0.037 -0.201 0.808 255 255 255
0.435 -0.679 0.922 255 255 255
0.286 0.128 0.564 0 0 0
-1.06 -0.627 1.72 255 255 255
-0.555 -0.076 1.538 0 0 0
-0.216 -0.539 0.964 255 255 255
-0.837 -0.058 1.616 255 255 255
-0.122 -0.543 0.92 255 255 255
0.246 0.124 0.557 255 255 255
-0.182 0.237 1.245 255 255 255
-0.825 0.104 1.426 255 255 255
-0.389 -0.572 0.981 255 255 255
-0.33 0.506 0.95 255 255 255
0.148 -0.248 0.637 255 255 255
-1.112 -0.574 1.72 255 255 255
-0.34 0.381 1.085 255 255 255
0.067 0.351 1.085 255 255 255
-0.382 0.239 1.253 255 255 255
-0.064 -0.28 0.88 255 255 255
-1.239 -0.397 1.704 255 255 255
-0.852 0.056 1.482 255 255 255
-0.409 -0.654 0.963 0 0 0
0.099 -0.012 0.743 255 255 255
0.239 -0.262 0.471 0 0 0
-0.26 -1.472 2.045 255 255 255
-1.006 -0.174 1.768 255 255 255
0.3 0.039 0.684 255 255 255
0.02 -0.081 0.772 255 255 255
0.208 -0.043 0.751 255 255 255
-0.46 -0.4 0.896 255 255 255
0.196 -0.208 0.599 255 255 255
0.167 -0.262 0.607 255 255 255
-0.219 0.455 0.998 0 0 0
0.171 -0.152 0.635 255 255 255
-0.527 0.082 1.443 255 255 255
-0.002 -0.515 0.866 255 255 255
-0.091 -0.176 0.94 255 255 255
-1.146 -0.491 1.743 255 255 255
-0.518 0.27 1.226 255 255 255
-0.351 0.423 1.04 255 255 255
0.363 -0.776 1.118 255 255 255
-0.306 -1.495 1.976 0 0 0
0.278 -0.198 0.53 0 0 0
-0.259 0.477 0.98 255 255 255
-0.733 0.19 1.328 255 255 255
-0.106 0.465 0.989 0 0 0
0.233 -0.08 0.644 255 255 255
0.008 0.468 0.979 255 255 255
0.153 0.072 0.65 255 255 255
-1.101 -0.643 1.67 255 255 255
0.281 -0.352 0.589 255 255 255
0.324 -0.037 0.524 255 255 255
0.15 -0.098 0.756 255 255 255
0.422 -0.732 1.002 0 0 0
0.407 -0.678 0.933 0 0 0
0.081 0.425 1.015 255 255 255
-0.575 -0.299 1.045 255 255 255
0.21 0.044 0.683 255 255 255
-1.109 -0.347 1.863 255 255 255
0.222 -0.271 0.561 255 255 255
-0.067 0.318 1.129 255 255 255
-1.246 -0.318 1.747 255 255 255
0.262 -0.193 0.49 0 0 0
0.292 0.091 0.614 255 255 255
-0.486 0.103 1.416 255 255 255
-0.199 -0.22 0.951 255 255 255
0.367 0.015 0.534 255 255 255
0.088 0 0.739 255 255 255
0.027 0.134 0.75 0 0 0
-0.386 0.461 1.002 0 0 0
0.111 0.257 0.96 255 255 255
0.151 -0.114 0.731 255 255 255
0.128 -0.169 0.685 255 255 255
0.207 0.172 0.637 255 255 255
-0.584 0.156 1.36 255 255 255
-0.65 0.109 1.416 255 255 255
-0.499 0.221 1.281 255 255 255
-0.612 -1.321 1.746 0 0 0
0.26 -0.203 0.477 0 0 0
0.257 0.145 0.561 255 255 255
-0.002 -0.392 0.747 255 255 255
0.169 -0.104 0.71 255 255 255
0.055 -0.297 0.672 255 255 255
-0.414 -0.403 0.912 255 255 255
-0.533 0.199 1.31 255 255 255
-0.869 -0.206 1.792 255 255 255
0.032 0.039 0.741 255 255 255
0.286 0.394 0.809 255 255 255
0.111 -0.005 0.702 255 255 255
0.127 -0.19 0.655 255 255 255
0.256 -0.228 0.522 255 255 255
0.26 -0.198 0.482 0 0 0
-0.399 -0.504 0.911 255 255 255
0.08 0.008 0.732 255 255 255
-0.395 -0.323 0.909 255 255 255
-0.164 -0.449 0.89 0 0 0
-0.128 0.352 1.109 255 255 255
0.331 -0.099 0.478 255 255 255
0.245 -0.337 0.589 0 0 0
-0.282 -0.353 0.993 255 255 255
-0.243 -0.152 0.956 255 255 255
0.058 -0.028 0.755 255 255 255
0.141 -0.145 0.706 255 255 255
-0.069 -0.332 0.817 255 255 255
0.309 0.007 0.645 255 255 255
-0.247 -0.3 0.987 255 255 255
0.225 0.075 0.633 255 255 255
-0.294 -0.071 1.101 255 255 255
-0.335 0.394 1.073 255 255 255
-0.785 0.033 1.508 255 255 255
-0.807 0.161 1.366 255 255 255
0.224 0.03 0.645 255 255 255
0.033 0.358 1.079 255 255 255
0.041 0.309 1.131 255 255 255
0.185 0.491 0.931 255 255 255
0.305 0.437 0.851 255 255 255
0.247 -0.238 0.478 255 255 255
0.057 -0.403 0.657 255 255 255
0.277 0.072 0.654 0 0 0
0.105 0.002 0.698 255 255 255
0.119 0.07 0.722 255 255 255
0.21 -0.246 0.548 255 255 255
-1.174 -0.444 1.74 255 255 255
0.042 -0.039 0.759 255 255 255
-0.529 -0.336 1.159 255 255 255
0.128 -0.01 0.708 255 255 255
0.249 0.204 0.609 255 255 255
0.347 0.032 0.596 255 255 255
0.281 0.005 0.673 255 255 255
0.215 0.321 0.878 255 255 255
-0.086 0.326 1.128 255 255 255
0.213 -0.059 0.711 255 255 255
-0.356 -0.267 0.97 255 255 255
-0.462 0.043 1.481 255 255 255
0.122 0.054 0.688 255 255 255
0.154 -0.024 0.759 0 0 0
0.316 -0.181 0.515 255 255 255
0.267 -0.187 0.479 255 255 255
0.135 -0.042 0.745 0 0 0
-0.947 0.051 1.496 255 255 255
-0.481 0.295 1.194 255 255 255
0.359 -0.012 0.501 255 255 255
0.339 -0.037 0.502 255 255 255
0.317 0.479 0.932 255 255 255
-0.173 0.476 0.98 255 255 255
-0.435 -0.184 1.035 255 255 255
-0.341 -0.486 1.021 255 255 255
-0.649 0.264 1.241 255 255 255
-0.346 0.526 0.936 255 255 255
0.32 0.131 0.565 255 255 255
-0.009 0.402 1.048 255 255 255
-0.511 0.227 1.275 255 255 255
-0.415 0.33 1.15 255 255 255
-0.63 -0.07 1.613 255 255 255
-0.482 0.173 1.339 255 255 255
0.242 -0.24 0.459 255 255 255
0.078 -0.385 0.652 255 255 255
0.267 -0.145 0.535 255 255 255
0.255 -0.081 0.587 255 255 255
0.222 -0.22 0.558 255 255 255
-0.269 0.294 1.187 255 255 255
0.178 -0.097 0.711 255 255 255
-0.249 0.404 1.059 255 255 255
-0.692 -0.085 1.635 255 255 255
0.157 0.122 0.722 255 255 255
-0.412 0.388 1.082 255 255 255
0.245 -0.112 0.558 255 255 255
0.19 0.409 1.023 255 255 255
-1.035 -0.717 1.678 255 255 255
0.345 -0.424 0.649 255 255 255
0.315 0.107 0.577 0 0 0
0.085 0.056 0.685 255 255 255
-1.201 -0.263 1.82 255 255 255
0.253 -0.222 0.466 255 255 255
0.013 -0.007 0.753 255 255 255
0.583 -1.131 1.426 255 255 255
-0.009 0.325 1.12 255 255 255
-0.244 0.007 1.118 255 255 255
-0.289 -0.479 1.004 0 0 0
-0.245 -0.329 1.009 255 255 255
0.038 -0.042 0.76 255 255 255
-0.041 0.499 0.949 255 255 255
0.225 0.475 0.946 255 255 255
-1.201 -0.361 1.777 255 255 255
0.331 0.002 0.573 255 255 255
0.04 -0.26 0.713 255 255 255
-0.742 0.011 1.529 255 255 255
0.347 -0.001 0.546 255 255 255
0.241 -0.124 0.543 255 255 255
-0.613 0.313 1.186 255 255 255
-0.688 0.262 1.249 255 255 255
0.232 0.248 0.651 255 255 255
-0.516 0.167 1.347 255 255 255
0.271 -0.036 0.632 255 255 255
-0.44 0.335 1.145 255 255 255
-0.819 -0.291 1.882 0 0 0
0.042 -0.331 0.653 0 0 0
0.044 0.458 0.982 0 0 0
0.077 -0.344 0.61 255 255 255
-0.397 -0.354 0.91 255 255 255
-0.272 0.085 1.404 0 0 0
-0.148 -0.048 0.856 255 255 255
-0.604 0.02 1.512 255 255 255
-0.435 0.077 1.443 255 255 255
-0.443 0.025 1.495 255 255 255
0.127 -0.064 0.745 255 255 255
0.26 0.163 0.572 255 255 255
0.232 0.297 0.776 255 255 255
-0.23 -0.612 1.025 255 255 255
-0.189 -0.167 0.911 255 255 255
0.353 -0.001 0.528 255 255 255
-0.032 -0.353 0.779 255 255 255
-0.619 -0.08 1.623 255 255 255
-0.095 0.39 1.064 255 255 255
0.137 -0.276 0.637 255 255 255
0.263 0.223 0.601 255 255 255
-0.569 0.215 1.292 255 255 255
-0.025 -0.049 0.779 255 255 255
-0.192 0.287 1.189 255 255 255
0.223 -0.068 0.663 255 255 255
0.158 0.463 0.966 255 255 255
0.099 0.361 1.071 255 255 255
-0.755 0.207 1.314 255 255 255
-0.191 0.211 1.273 255 255 255
-0.505 0.222 1.281 255 255 255
0.194 -0.035 0.759 255 255 255
-0.34 -0.546 1.048 255 255 255
-0.035 -0.003 0.798 255 255 255
0.101 0.032 0.689 255 255 255
-0.137 -0.429 0.871 255 255 255
-0.138 0.394 1.061 255 255 255
-0.231 -0.096 0.931 255 255 255
0.217 0.222 0.659 255 255 255
0.315 0.008 0.631 255 255 255
0.273 0.187 0.57 255 255 255
-0.035 -0.267 0.846 255 255 255
0.063 -0.47 0.671 255 255 255
-0.412 -0.252 0.993 255 255 255
-0.349 0.451 1.01 0 0 0
-0.506 0.112 1.408 255 255 255
-0.111 -0.161 0.888 255 255 255
0.164 0.095 0.685 255 255 255
-0.836 0.142 1.384 255 255 255
-0.582 0.285 1.215 255 255 255
-0.042 0.042 0.751 255 255 255
-0.384 -1.342 2.001 255 255 255
0.106 -0.299 0.652 255 255 255
0.068 -0.024 0.748 255 255 255
-0.041 -0.173 0.925 255 255 255
-0.068 0.512 0.941 255 255 255
-0.233 0.466 0.988 0 0 0
-0.451 -0.393 0.899 255 255 255
0.269 0.285 0.642 255 255 255
-0.152 0.307 1.163 255 255 255
-0.091 -0.359 0.825 255 255 255
-0.47 0.421 1.052 255 255 255
-0.358 0.205 1.292 255 255 255
0.344 -0.166 0.51 255 255 255
0.198 0.113 0.616 0 0 0
-0.079 -0.377 0.821 255 255 255
0.165 -0.019 0.786 0 0 0
0.146 0.016 0.726 255 255 255
0.133 0.31 0.959 0 0 0
-0.199 0.326 1.079 255 255 255
0.276 0.118 0.561 0 0 0
-0.186 -0.315 1.009 0 0 0
0.242 0.078 0.633 255 255 255
-0.233 -0.533 0.974 255 255 255
-0.435 0.288 1.198 255 255 255
0.375 0.053 0.59 255 255 255
0.034 -0.017 0.743 255 255 255
0.279 -0.05 0.59 255 255 255
0.187 -0.214 0.608 255 255 255
-0.041 -0.052 0.794 255 255 255
0.09 -0.069 0.726 255 255 255
-0.482 -0.417 0.909 255 255 255
-0.272 0.416 1.044 255 255 255
-0.896 -0.174 1.76 255 255 255
-0.041 0.024 0.788 255 255 255
-0.226 -0.067 0.929 255 255 255
0.018 -0.075 0.767 255 255 255
0.266 -0.043 0.627 255 255 255
0.245 0.114 0.61 0 0 0
0.19 -0.347 0.552 255 255 255
-0.19 0.459 0.995 0 0 0
-0.55 -0.3 1.046 255 255 255
0.024 0.372 1.065 255 255 255
-0.89 -0.335 1.943 255 255 255
-0.906 -0.128 1.704 255 255 255
-0.128 0.336 1.129 255 255 255
-0.299 -0.451 1.007 255 255 255
-0.59 -0.423 1.004 255 255 255
-0.284 -0.186 0.983 255 255 255
0.153 -0.319 0.638 0 0 0
0.179 -0.226 0.615 255 255 255
0.221 0.429 0.998 255 255 255
-0.186 0.44 1.017 255 255 255
-0.691 0.165 1.355 255 255 255
-0.55 0.345 1.141 255 255 255
0.212 -0.125 0.599 255 255 255
0.257 0.068 0.662 255 255 255
0.264 -0.142 0.538 255 255 255
0.301 -0.064 0.536 255 255 255
0.026 -0.042 0.764 255 255 255
-0.4 -0.493 0.912 255 255 255
0.453 -1.024 1.339 0 0 0
0.231 -0.332 0.611 0 0 0
-0.351 0.467 0.995 0 0 0
-0.018 0.071 0.75 0 0 0
-0.735 -0.127 1.688 255 255 255
0.199 0.016 0.779 255 255 255
0.058 -0.304 0.681 255 255 255
-0.093 0.461 0.991 0 0 0
-0.39 -0.347 0.918 255 255 255
-0.471 0.26 1.232 255 255 255
-0.568 -1.164 1.929 255 255 255
0.205 0.248 0.679 255 255 255
-0.473 0.114 1.405 255 255 255
-0.329 0.33 1.148 255 255 255
0.215 -0.143 0.564 255 255 255
0.127 0.047 0.677 255 255 255
0.194 -0.333 0.587 255 255 255
-0.018 -0.291 0.776 255 255 255
0.04 0.437 1.005 255 255 255
0.243 -0.027 0.696 255 255 255
0.216 0.163 0.622 255 255 255
-0.562 -0.387 0.997 255 255 255
0.292 0.145 0.547 255 255 255
-0.007 0.443 1.003 0 0 0
0.143 -0.266 0.62 255 255 255
0.021 -1.641 2.33 255 255 255
-0.743 0.175 1.347 255 255 255
-0.317 -0.443 1.013 255 255 255
0.024 -0.268 0.731 255 255 255
-0.025 0.002 0.825 255 255 255
-0.344 -0.39 0.982 255 255 255
-0.118 -0.285 0.973 255 255 255
0.16 -0.084 0.769 255 255 255
-0.421 0.121 1.394 255 255 255
-0.256 0.304 1.17 255 255 255
0.355 0.029 0.577 255 255 255
-0.425 -0.037 1.431 255 255 255
0.176 -0.103 0.695 255 255 255
0.231 -0.062 0.666 255 255 255
0.105 -0.476 0.682 255 255 255
0.146 -0.185 0.634 0 0 0
0.05 0.309 1.132 255 255 255
0.279 0.384 0.802 255 255 255
-0.555 -0.487 0.948 255 255 255
0.346 -0.048 0.485 255 255 255
0.227 0.2 0.623 255 255 255
0.163 0.105 0.702 255 255 255
-0.405 -0.621 0.937 0 0 0
-0.407 0.273 1.216 255 255 255
-0.036 -0.185 0.939 255 255 255
0.319 0.042 0.678 255 255 255
0.119 -0.277 0.651 255 255 255
-1.174 -0.484 1.716 255 255 255
0.314 -0.113 0.491 255 255 255
0.25 0.228 0.623 0 0 0
0.229 0 0.729 255 255 255
-0.39 -0.337 0.915 255 255 255
-0.28 -0.355 0.993 255 255 255
0.256 -0.055 0.626 255 255 255
-0.444 -1.24 2.013 255 255 255
0.222 -0.12 0.591 255 255 255
-1.052 0.022 1.537 255 255 255
-0.276 -1.389 2.094 255 255 255
-0.574 -1.27 1.834 255 255 255
-0.187 -1.447 2.159 255 255 255
0.248 -0.245 0.477 255 255 255
0.214 0.194 0.636 255 255 255
0.061 -0.143 0.742 0 0 0
-0.148 -0.083 0.844 255 255 255
-0.462 -1.209 1.996 255 255 255
-0.444 -0.328 0.91 255 255 255
0.166 0.506 0.921 255 255 255
0.278 0.343 0.779 255 255 255
0.265 0.326 0.762 255 255 255
-0.001 -1.618 2.318 255 255 255
-0.234 0.488 0.966 255 255 255
-0.89 0.075 1.464 255 255 255
-0.073 -0.034 0.833 255 255 255
-0.154 0.431 1.023 255 255 255
0.068 -0.193 0.759 255 255 255
-0.14 -0.16 0.852 255 255 255
-0.508 0.364 1.118 255 255 255
0.174 0.12 0.627 255 255 255
0.01 0.443 1.003 0 0 0
-0.216 0.173 1.32 255 255 255
-0.063 -0.36 0.806 255 255 255
0.329 -0.062 0.491 255 255 255
-0.595 0.303 1.195 255 255 255
-0.215 -0.408 0.991 255 255 255
0.022 0.169 0.782 255 255 255
-0.031 0.375 1.079 255 255 255
0.088 -0.156 0.766 255 255 255
-0.04 -0.108 0.82 255 255 255
-0.246 -0.008 1.094 255 255 255
-0.571 -0.284 1.147 255 255 255
-0.257 -0.337 0.985 255 255 255
-0.262 0.244 1.245 255 255 255
-0.185 -0.365 0.991 255 255 255
0 0.109 0.755 0 0 0
-0.359 0.394 1.074 255 255 255
0.334 0.039 0.618 255 255 255
-0.076 -0.342 0.813 255 255 255
-1.038 -0.342 1.937 255 255 255
0.233 0.153 0.588 255 255 255
0.164 0.499 0.926 255 255 255
-0.031 -0.315 0.773 255 255 255
0.286 -0.027 0.617 255 255 255
-0.482 0.381 1.097 255 255 255
0.065 -0.085 0.774 255 255 255
-0.152 -0.34 0.974 255 255 255
0.073 -0.133 0.742 255 255 255
0.016 0.107 0.749 255 255 255
-0.42 -0.467 0.902 255 255 255
-0.303 0.131 1.373 255 255 255
0.225 -0.146 0.556 255 255 255
0.266 -0.131 0.532 255 255 255
-0.451 0.283 1.207 255 255 255
-0.478 0.092 1.43 255 255 255
-0.127 0.293 1.177 255 255 255
-0.599 -1.327 1.765 0 0 0
-0.062 -0.454 0.832 255 255 255
-0.245 -0.346 0.987 255 255 255
0.025 0.341 1.1 255 255 255
-0.038 -0.006 0.801 255 255 255
0.241 0.185 0.593 255 255 255
0.21 -0.055 0.718 255 255 255
-0.214 0.232 1.252 255 255 255
-0.221 -0.344 1.005 0 0 0
-0.404 -0.271 0.982 255 255 255
-0.064 -0.591 0.947 255 255 255
-0.241 -0.471 0.964 255 255 255
0.157 0.245 0.847 255 255 255
-0.433 0.465 1.004 0 0 0
0.241 0.335 0.842 255 255 255
-0.111 -0.424 0.854 255 255 255
-0.547 0.315 1.179 255 255 255
-0.579 -1.25 1.845 255 255 255
0.205 -0.228 0.555 255 255 255
0.316 0.078 0.692 0 0 0
-0.331 0.369 1.101 255 255 255
-0.271 -0.23 0.966 255 255 255
-0.282 -0.457 1.001 255 255 255
0.257 -0.211 0.473 0 0 0
-0.05 0.501 0.948 255 255 255
-0.168 -1.437 2.183 255 255 255
0.039 -0.305 0.659 255 255 255
0.252 -0.369 0.579 255 255 255
0.288 -0.152 0.521 255 255 255
0.346 0.082 0.634 255 255 255
0.238 0.416 0.988 255 255 255
0.177 0.385 1.044 255 255 255
-0.027 -0.251 0.862 255 255 255
0.244 -0.229 0.532 255 255 255
-0.06 0.434 1.02 255 255 255
0.189 0.258 0.849 255 255 255
0.037 -0.327 0.662 0 0 0
0.121 0.473 0.959 255 255 255
-0.908 -0.016 1.572 255 255 255
-1.221 -0.174 1.793 255 255 255
-0.435 -1.33 1.949 255 255 255
0.106 -0.01 0.738 255 255 255
-0.197 -0.26 0.965 255 255 255
0.241 0.249 0.637 0 0 0
-0.396 -0.367 0.91 255 255 255
-0.089 -0.046 0.837 255 255 255
0.077 -0.009 0.741 255 255 255
-0.685 0.17 1.35 255 255 255
-0.055 -0.282 0.858 255 255 255
-1.047 -0.185 1.79 255 255 255
-0.02 0.103 0.764 255 255 255
0.343 -0.159 0.51 255 255 255
0.126 0.058 0.683 255 255 255
-0.002 -0.35 0.77 255 255 255
-0.352 -0.143 1.034 255 255 255
-0.122 -0.079 0.843 255 255 255
0.158 -0.169 0.629 255 255 255
-0.559 -1.367 1.781 0 0 0
0.178 0.187 0.662 255 255 255
-0.039 0.013 0.808 255 255 255
-0.001 -1.671 2.283 0 0 0
-0.555 -0.498 0.944 255 255 255
-0.262 0.514 0.945 255 255 255
-0.437 -0.377 0.908 255 255 255
0.043 -0.42 0.659 255 255 255
-1.274 -0.313 1.726 255 255 255
-0.938 -0.167 1.754 255 255 255
-0.04 -0.217 0.933 255 255 255
0.279 0.364 0.788 255 255 255
-0.145 -0.242 0.934 0 0 0
0.29 -0.04 0.594 255 255 255
0.143 0.101 0.735 255 255 255
-0.151 0.489 0.969 255 255 255
0.218 0.003 0.738 255 255 255
-0.081 -0.076 0.827 255 255 255
0.277 -0.126 0.523 255 255 255
-0.384 -0.179 1.022 255 255 255
0.043 -0.32 0.621 0 0 0
0.119 -0.181 0.686 255 255 255
0.268 -0.213 0.543 255 255 255
0.181 0.476 0.95 255 255 255
0.138 -0.128 0.724 255 255 255
-0.076 -0.229 0.959 255 255 255
0.302 -0.062 0.536 255 255 255
-0.22 -0.192 0.951 255 255 255
-0.064 0.5 0.954 255 255 255
0.012 -0.144 0.773 255 255 255
-0.057 -0.299 0.835 255 255 255
-0.019 -0.592 0.959 255 255 255
-0.68 0.014 1.523 255 255 255
-0.531 0.218 1.287 255 255 255
-0.591 -0.26 1.232 0 0 0
-0.611 -1.203 1.849 255 255 255
0.328 0.122 0.571 255 255 255
0.137 0.061 0.665 255 255 255
-0.107 0.098 0.937 255 255 255
-0.417 -0.585 0.904 255 255 255
0.203 0 0.77 0 0 0
-0.043 -0.127 0.815 0 0 0
-0.661 0.045 1.488 255 255 255
0.122 -0.162 0.704 255 255 255
0.354 0.064 0.634 255 255 255
-0.602 0.288 1.212 255 255 255
0.073 0.045 0.702 255 255 255
-0.455 -0.426 0.893 255 255 255
-0.094 -0.232 0.937 0 0 0
0.084 -0.264 0.684 255 255 255
0.217 -0.077 0.657 255 255 255
-0.086 -0.076 0.829 255 255 255
-0.153 -0.558 0.946 255 255 255
-0.12 0.061 0.948 255 255 255
0.108 0.426 1.01 255 255 255
0.277 0.136 0.558 0 0 0
-0.01 -0.387 0.76 255 255 255
-0.067 0.377 1.078 255 255 255
0.077 -0.196 0.74 255 255 255
-0.419 -0.518 0.904 255 255 255
-0.206 0.168 1.324 255 255 255
0.057 -0.315 0.58 255 255 255
0.165 -0.315 0.571 255 255 255
0.266 0.192 0.585 0 0 0
0.192 0.148 0.641 255 255 255
0.215 0.171 0.621 255 255 255
-0.8 0.177 1.346 255 255 255
-0.521 0.359 1.124 255 255 255
0.143 -0.208 0.628 255 255 255
-0.762 0.129 1.398 255 255 255
0.012 0.062 0.752 255 255 255
0.307 -0.119 0.497 255 255 255
-0.351 0.34 1.134 255 255 255
0.15 -0.091 0.767 255 255 255
-0.466 -0.469 0.888 255 255 255
-0.174 -0.122 0.849 255 255 255
0.186 -0.118 0.65 255 255 255
-0.049 -0.339 0.791 255 255 255
0.035 0.247 1.034 0 0 0
0.115 -0.233 0.655 255 255 255
-0.356 0.122 1.387 255 255 255
0.296 -0.168 0.525 255 255 255
0.121 -0.122 0.759 255 255 255
-1.261 -0.217 1.787 255 255 255
0.284 -0.019 0.645 255 255 255
0.315 0.075 0.672 0 0 0
-0.812 -0.047 1.599 255 255 255
-0.414 0.468 0.998 0 0 0
0.222 -0.327 0.627 0 0 0
0.051 -0.459 0.665 255 255 255
0.202 0.162 0.64 255 255 255
-1.1 -0.349 1.874 255 255 255
-1.199 -0.08 1.677 255 255 255
-0.052 -0.022 0.816 255 255 255
0.262 0.389 0.84 255 255 255
0.263 -0.067 0.588 255 255 255
0.075 -0.243 0.685 255 255 255
-0.181 -0.231 0.95 255 255 255
0.293 -0.167 0.534 255 255 255
0.096 0.25 0.948 255 255 255
-0.259 0.377 1.078 255 255 255
0.239 -0.147 0.553 255 255 255
0.123 -0.274 0.668 255 255 255
0.254 -0.308 0.599 255 255 255
0.139 -0.189 0.638 0 0 0
-0.433 -0.049 1.419 255 255 255
-0.482 0.36 1.121 255 255 255
0.357 0.04 0.593 255 255 255
-0.011 -0.139 0.788 255 255 255
0 -0.056 0.768 255 255 255
0.261 0.22 0.604 255 255 255
0.228 0.093 0.626 255 255 255
-1.282 -0.196 1.779 255 255 255
0.275 -0.185 0.486 255 255 255
-1.245 -0.367 1.717 255 255 255
0.131 0.12 0.771 255 255 255
0.031 -0.017 0.745 255 255 255
-0.068 0.367 1.09 255 255 255
-0.415 -0.171 1.031 255 255 255
0.146 -0.067 0.761 0 0 0
0.09 -0.375 0.646 255 255 255
0.257 0.16 0.577 255 255 255
-0.59 -0.415 1.005 255 255 255
-0.37 -0.353 0.928 255 255 255
0.102 -0.389 0.649 255 255 255
-0.564 -0.308 1.129 255 255 255
0.127 0.338 1.064 255 255 255
0.137 0.072 0.709 255 255 255
0.078 -0.169 0.769 255 255 255
-0.529 0.169 1.341 255 255 255
-0.743 0.185 1.334 255 255 255
0.231 -0.262 0.539 0 0 0
-0.321 0.409 1.055 255 255 255
0.106 -0.414 0.659 255 255 255
-0.032 -0.408 0.774 255 255 255
0.158 -0.11 0.722 255 255 255
0.316 0.394 0.761 255 255 255
0.267 0.138 0.561 0 0 0
-1.071 -0.58 1.741 255 255 255
-0.323 -0.368 0.976 255 255 255
0.315 0.382 0.767 255 255 255
-0.272 0.158 1.342 255 255 255
-0.057 0.288 1.162 255 255 255
0.272 0.186 0.572 255 255 255
-0.4 -0.583 0.958 255 255 255
0.055 -0.13 0.737 255 255 255
-0.157 -0.126 0.835 255 255 255
-0.387 0.301 1.183 255 255 255
-0.327 0.325 1.151 255 255 255
-0.003 -0.067 0.79 255 255 255
0.134 -0.19 0.653 255 255 255
-0.202 0.24 1.244 255 255 255
0.127 0.506 0.925 255 255 255
0.293 -0.439 0.638 255 255 255
0.318 -0.105 0.487 255 255 255
0.26 -0.239 0.449 255 255 255
0.035 -0.24 0.755 255 255 255
-0.379 0.328 1.152 255 255 255
0.214 0.463 0.963 255 255 255
-0.093 0.351 1.099 255 255 255
0.027 0.131 0.747 255 255 255
-0.389 0.439 1.026 255 255 255
0.17 0.161 0.648 255 255 255
0.053 0.129 0.72 255 255 255
-0.475 0.19 1.318 255 255 255
-1.067 -0.204 1.815 255 255 255
-0.247 -0.326 0.999 255 255 255
-0.165 -0.058 0.853 255 255 255
0.276 -0.174 0.497 255 255 255
0.097 0.282 0.989 255 255 255
0.173 -0.13 0.654 255 255 255
0.029 -0.144 0.766 0 0 0
-0.218 0.225 1.261 255 255 255
-0.502 -1.372 1.847 0 0 0
-0.029 -0.305 0.78 255 255 255
-0.087 -0.356 0.822 255 255 255
-0.066 0.512 0.94 255 255 255
-0.158 -0.309 0.992 255 255 255
0.184 0.096 0.627 255 255 255
0.044 -0.179 0.785 0 0 0
0.178 -0.323 0.608 255 255 255
-0.588 -0.26 1.232 0 0 0
-0.164 -0.386 0.933 255 255 255
-0.936 -0.031 1.59 255 255 255
0.243 -0.245 0.437 255 255 255
0.238 0.072 0.638 255 255 255
-0.309 -0.421 1.008 255 255 255
-0.313 0.475 0.983 255 255 255
0.326 0.081 0.659 0 0 0
-0.246 -0.403 0.997 0 0 0
-0.575 0.225 1.282 255 255 255
-0.9 -0.231 1.826 255 255 255
0.085 -0.235 0.676 255 255 255
-0.416 -0.413 0.909 255 255 255
0.269 -0.09 0.554 255 255 255
-0.213 0.408 1.051 255 255 255
0.053 -0.126 0.738 255 255 255
-0.111 -0.326 0.902 255 255 255
0.179 0.182 0.657 255 255 255
-0.03 -0.029 0.786 255 255 255
-0.131 -0.474 0.851 255 255 255
-0.203 0.401 1.059 255 255 255
0.236 -0.045 0.69 255 255 255
-0.257 0.35 1.079 255 255 255
-1.216 -0.359 1.76 255 255 255
0.079 0.328 1.11 255 255 255
0.19 0.06 0.676 255 255 255
0.293 0.004 0.657 255 255 255
-0.428 -1.33 1.959 255 255 255
-0.608 0.162 1.356 255 255 255
0.29 -0.171 0.538 255 255 255
-0.086 -0.575 0.968 255 255 255
0.268 -0.324 0.591 255 255 255
0.28 -0.072 0.558 255 255 255
-1.155 -0.513 1.706 255 255 255
0.296 -0.192 0.491 255 255 255
-0.542 -0.324 1.068 255 255 255
0.136 -0.005 0.713 255 255 255
-0.831 -0.348 1.934 255 255 255
-0.077 -0.309 0.856 255 255 255
-0.162 -0.133 0.841 255 255 255
-1.212 -0.041 1.639 255 255 255
-0.107 -0.628 0.996 255 255 255
0.247 0.25 0.628 255 255 255
-0.417 0.004 1.517 255 255 255
-0.28 -0.359 0.992 255 255 255
-0.125 -0.399 0.861 255 255 255
-0.098 0.326 1.137 255 255 255
0.302 -0.227 0.496 255 255 255
0.323 -0.115 0.484 0 0 0
-0.333 0.35 1.122 255 255 255
-0.349 0.179 1.322 255 255 255
0.173 -0.167 0.622 0 0 0
-0.601 0.121 1.396 255 255 255
-0.015 -0.198 0.913 255 255 255
-0.501 -0.388 0.942 255 255 255
0.138 -0.302 0.583 0 0 0
0.023 0.31 1.134 255 255 255
-0.207 0.366 1.067 255 255 255
-0.065 0.37 1.086 255 255 255
-1.274 -0.107 1.72 255 255 255
0.223 -0.006 0.732 255 255 255
-0.959 0.018 1.537 255 255 255
-0.387 -0.518 0.974 255 255 255
0.228 0.341 0.827 255 255 255
-0.052 0.064 0.748 255 255 255
0.31 0.069 0.668 255 255 255
0.067 0.457 0.984 0 0 0
0.256 0.146 0.562 255 255 255
0.162 -0.108 0.713 255 255 255
-0.415 -0.242 0.997 255 255 255
0.211 0.048 0.683 0 0 0
0.104 -0.417 0.659 255 255 255
-0.045 0.054 0.749 255 255 255
0.118 -0.302 0.651 255 255 255
0.067 -0.279 0.698 255 255 255
-0.33 0.403 1.062 255 255 255
-0.578 0.225 1.283 255 255 255
-0.162 -0.104 0.836 255 255 255
-0.086 0.433 1.021 255 255 255
-0.252 -0.564 1.004 255 255 255
0.226 0.107 0.623 255 255 255
-0.021 -0.248 0.856 255 255 255
0.106 -0.185 0.708 255 255 255
-0.527 0.213 1.292 255 255 255
0.318 0.045 0.676 255 255 255
0.282 0.092 0.645 255 255 255
-0.938 -0.215 1.813 255 255 255
0.083 -0.225 0.692 255 255 255
-0.565 -0.403 0.993 255 255 255
0.256 -0.048 0.64 255 255 255
-0.933 0.051 1.494 255 255 255
-0.241 0.398 1.065 255 255 255
0.191 -0.216 0.605 255 255 255
-0.711 0.256 1.255 255 255 255
-0.608 0.347 1.147 255 255 255
-0.232 -0.259 0.965 255 255 255
-0.366 -0.377 0.935 255 255 255
-0.475 -0.306 0.968 255 255 255
0.131 -0.066 0.747 0 0 0
-0.841 -0.155 1.728 255 255 255
-0.581 -0.291 1.049 255 255 255
0.011 -0.258 0.776 255 255 255
-0.539 -0.326 1.056 255 255 255
-0.294 0.289 1.195 255 255 255
-1.145 -0.408 1.805 255 255 255
0.293 -0.054 0.56 255 255 255
-0.198 -0.485 0.935 255 255 255
-0.424 -0.052 1.429 255 255 255
-0.417 -0.052 1.426 255 255 255
-0.48 0.306 1.183 255 255 255
0.209 -0.1 0.638 255 255 255
0.247 -0.037 0.685 255 255 255
0.09 -0.318 0.685 0 0 0
0.247 -0.017 0.713 255 255 255
0.216 -0.225 0.584 0 0 0
-0.032 -0.008 0.799 255 255 255
0.26 0.373 0.823 255 255 255
-0.028 0.04 0.769 255 255 255
0.32 0.117 0.573 255 255 255
0.349 -0.035 0.488 255 255 255
-0.261 -0.25 0.966 255 255 255
-0.23 -0.254 0.968 255 255 255
0.175 0.104 0.631 255 255 255
0.308 0.333 0.71 255 255 255
0.462 -0.687 0.93 255 255 255
0.079 0.272 1.003 0 0 0
-0.101 -0.328 0.876 255 255 255
0.155 -0.009 0.753 255 255 255
-0.144 0.491 0.965 255 255 255
-0.016 0.053 0.74 255 255 255
0.119 -0.135 0.745 255 255 255
-0.399 0.264 1.227 255 255 255
-1.002 0.038 1.509 255 255 255
0.039 0.305 1.135 255 255 255
0.164 0.103 0.699 255 255 255
-0.197 0.326 1.079 255 255 255
-0.005 -0.24 0.835 255 255 255
-0.058 -0.451 0.831 255 255 255
0.304 -0.076 0.512 255 255 255
-0.497 -1.253 1.944 255 255 255
0.117 -0.183 0.687 255 255 255
-1.234 -0.257 1.79 255 255 255
-0.044 0.326 1.121 255 255 255
0.226 -0.306 0.608 255 255 255
0.345 0.015 0.568 255 255 255
0.175 -0.079 0.75 255 255 255
-0.849 -0.265 1.86 255 255 255
0.268 -0.201 0.56 255 255 255
0.329 -0.107 0.478 0 0 0
0.083 -0.09 0.728 255 255 255
-0.678 0.177 1.341 255 255 255
0.327 -0.154 0.503 255 255 255
0.263 -0.077 0.578 255 255 255
0.2 0.215 0.664 255 255 255
0.348 0.034 0.605 0 0 0
-0.2 0.257 1.225 255 255 255
-0.84 -0.103 1.669 255 255 255
-0.946 0.114 1.428 255 255 255
-0.715 0.214 1.298 255 255 255
-0.163 0.202 1.284 0 0 0
0.319 -0.073 0.488 0 0 0
0.042 0.122 0.733 255 255 255
-0.198 -0.328 1 0 0 0
0.211 0.11 0.611 0 0 0
-0.017 -0.386 0.763 255 255 255
0.19 -0.107 0.676 255 255 255
-0.754 0.193 1.326 255 255 255
-0.18 -0.516 0.926 255 255 255
-0.104 -0.382 0.841 255 255 255
0.245 0.112 0.601 0 0 0
0.194 0.194 0.655 0 0 0
0.097 0.468 0.965 255 255 255
0.16 0.302 0.895 255 255 255
-0.108 -0.255 0.941 0 0 0
0.236 0.23 0.642 0 0 0
0.188 -0.184 0.594 255 255 255
0.087 -0.333 0.688 0 0 0
-0.003 0.008 0.771 255 255 255
0.206 -0.142 0.584 0 0 0
-0.257 0.401 1.063 255 255 255
0.046 -0.003 0.748 255 255 255
0.267 0.39 0.836 255 255 255
0.097 0.281 0.994 255 255 255
0.212 -0.117 0.616 255 255 255
-0.888 -0.182 1.769 255 255 255
-0.02 0.016 0.775 255 255 255
0.11 0.491 0.94 255 255 255
0.016 -0.009 0.747 255 255 255
0.248 0.07 0.642 255 255 255
0.097 0.249 0.978 255 255 255
-0.003 -0.124 0.808 255 255 255
-0.382 -0.545 1.009 255 255 255
-0.403 0.327 1.153 0 0 0
0.078 0.054 0.684 255 255 255
0.004 0.046 0.758 255 255 255
0.27 -0.215 0.467 255 255 255
0.087 -0.347 0.612 255 255 255
0.252 -0.257 0.509 0 0 0
-0.05 -0.323 0.792 255 255 255
-0.412 -0.623 0.921 255 255 255
-0.225 -0.008 1.103 255 255 255
-1.298 -0.207 1.755 255 255 255
-0.304 0.216 1.226 255 255 255
-1.11 -0.581 1.716 255 255 255
-0.345 -0.259 0.984 255 255 255
-0.023 0.128 0.774 255 255 255
0.041 0.076 0.734 255 255 255
0.131 -0.144 0.716 255 255 255
-0.724 0.07 1.461 255 255 255
-0.428 -0.642 0.902 255 255 255
-0.279 0.244 1.24 255 255 255
0.293 -0.165 0.537 255 255 255
-0.382 0.212 1.285 255 255 255
-0.016 -0.22 0.891 255 255 255
-1.113 -0.559 1.725 255 255 255
0.123 -0.175 0.689 255 255 255
0.017 0.388 1.061 255 255 255
0.321 -0.189 0.497 255 255 255
-0.121 -0.63 1.02 255 255 255
-0.38 -0.57 0.994 255 255 255
-0.151 0.382 1.078 255 255 255
0.267 -0.047 0.621 255 255 255
-0.666 -1.191 1.791 255 255 255
0.092 -0.338 0.681 0 0 0
-0.345 0.411 1.054 255 255 255
0.367 0.09 0.623 255 255 255
-1.187 -0.489 1.696 255 255 255
-0.514 -0.364 0.958 255 255 255
-1.271 -0.347 1.704 255 255 255
0.086 0.271 1.004 255 255 255
-0.291 0.175 1.325 255 255 255
0.071 0.458 0.982 0 0 0
-0.068 -0.234 0.947 255 255 255
-0.357 -0.45 1.014 255 255 255
-0.164 -0.424 0.899 255 255 255
-1.231 -0.444 1.693 255 255 255
0.106 -0.151 0.748 255 255 255
-0.374 -0.268 0.963 255 255 255
-0.083 0.301 1.164 255 255 255
0.223 0.211 0.642 255 255 255
-0.114 -0.34 0.889 255 255 255
0.234 0.27 0.648 255 255 255
0.167 0.307 0.892 255 255 255
-0.178 -0.388 0.953 255 255 255
0.137 -0.172 0.676 255 255 255
-1.16 -0.517 1.704 255 255 255
-0.364 -0.203 1.002 255 255 255
-0.394 -1.298 2.023 255 255 255
-1.003 0.032 1.523 255 255 255
0.145 -0.177 0.639 255 255 255
0.281 -0.098 0.51 255 255 255
0.192 0.309 0.871 255 255 255
-0.421 0.346 1.133 255 255 255
-0.611 0.262 1.242 255 255 255
-0.417 -0.39 0.912 255 255 255
-0.407 0.252 1.243 255 255 255
0.344 -0.122 0.482 255 255 255
0.209 -0.225 0.57 255 255 255
-0.08 -0.186 0.941 0 0 0
0.157 0.081 0.648 255 255 255
0.241 -0.057 0.651 255 255 255
0.23 -0.265 0.481 255 255 255
-0.322 0.468 0.992 0 0 0
-0.178 -0.215 0.926 255 255 255
-0.541 -0.31 1.2 255 255 255
-0.61 -0.253 1.203 0 0 0
0.227 -0.147 0.556 255 255 255
-0.393 -0.488 0.915 255 255 255
0.262 0.194 0.59 255 255 255
-0.309 -0.271 0.98 255 255 255
0.055 -0.308 0.68 255 255 255
0.248 0.01 0.692 0 0 0
0.513 -1.097 1.403 255 255 255
0.104 -0.08 0.728 255 255 255
-0.502 0.12 1.399 255 255 255
-0.234 -0.415 0.988 0 0 0
-0.202 -0.036 0.908 255 255 255
-1.295 -0.107 1.72 255 255 255
0.071 -0.476 0.671 255 255 255
-0.333 0.378 1.09 255 255 255
0.255 -0.079 0.588 255 255 255
-0.445 0.313 1.169 255 255 255
-0.161 0.358 1.107 255 255 255
0.073 -0.109 0.745 255 255 255
0.149 -0.207 0.623 255 255 255
0.245 0.053 0.655 255 255 255
0.291 -0.025 0.615 255 255 255
-0.113 -0.175 0.903 255 255 255
-0.534 0.244 1.256 255 255 255
0.109 -0.462 0.685 255 255 255
-0.281 -1.375 2.1 255 255 255
0.245 0.13 0.557 255 255 255
0.17 -0.103 0.713 255 255 255
0.251 0.19 0.592 255 255 255
0.093 -0.189 0.724 255 255 255
-1.193 -0.2 1.821 255 255 255
0.214 0.184 0.628 255 255 255
-0.377 -0.476 0.939 255 255 255
0.069 -0.353 0.628 255 255 255
0.229 0.066 0.662 0 0 0
0.292 -0.017 0.632 255 255 255
-0.382 -0.119 1.049 255 255 255
0.04 -0.139 0.743 255 255 255
-0.911 -0.357 1.967 255 255 255
-0.302 -0.477 1.008 255 255 255
0.298 -0.027 0.597 255 255 255
-0.249 -1.421 2.098 255 255 255
-0.312 0.492 0.965 255 255 255
-0.232 -0.395 1.034 255 255 255
-0.342 -0.197 1.006 255 255 255
0.139 -0.312 0.642 255 255 255
0.279 0.202 0.559 255 255 255
0.061 -0.467 0.67 255 255 255
-0.202 0.071 1.21 255 255 255
0.053 0.158 0.737 255 255 255
0.139 -0.19 0.631 255 255 255
-0.295 0.131 1.372 255 255 255
0.101 -0.493 0.68 0 0 0
0.11 0.407 1.033 255 255 255
-0.197 -0.178 0.909 255 255 255
-0.198 0.32 1.142 255 255 255
-0.187 0.483 0.969 255 255 255
0.009 0.385 1.066 255 255 255
0.232 0.129 0.584 0 0 0
0.202 -0.08 0.7 255 255 255
-0.323 -0.457 1.016 255 255 255
-0.278 -0.136 0.995 255 255 255
0.122 0.021 0.69 255 255 255
0.452 -0.776 1.026 255 255 255
-0.405 -0.118 1.052 255 255 255
0.249 -0.22 0.469 255 255 255
0.072 0.149 0.73 255 255 255
-0.599 -0.287 1.056 255 255 255
-0.607 0.338 1.157 255 255 255
-0.028 -0.028 0.787 255 255 255
0.22 0.032 0.678 255 255 255
-0.201 -0.256 0.965 255 255 255
0.289 -0.082 0.526 255 255 255
-1.198 -0.113 1.718 255 255 255
0.146 -0.166 0.669 255 255 255
-0.286 -0.203 0.971 255 255 255
0.212 0.022 0.709 0 0 0
-0.461 0.122 1.396 255 255 255
0.245 -0.332 0.602 0 0 0
0.181 -0.067 0.758 255 255 255
0.418 -0.993 1.364 0 0 0
-1.278 -0.227 1.763 255 255 255
0.287 -0.177 0.537 255 255 255
0.077 -0.248 0.686 255 255 255
0.222 -0.113 0.595 255 255 255
-0.102 0.36 1.098 255 255 255
-0.74 -0.108 1.664 255 255 255
-0.159 -0.285 1.006 255 255 255
-0.127 -0.082 0.842 255 255 255
0.304 -0.041 0.557 255 255 255
0.02 -1.711 2.27 0 0 0
0.091 0.097 0.69 255 255 255
-0.586 0.274 1.226 255 255 255
-0.666 -0.122 1.675 255 255 255
-0.051 -0.104 0.818 255 255 255
0.18 -0.196 0.601 255 255 255
0.241 0.003 0.717 0 0 0
0.286 -0.191 0.533 0 0 0
0.016 0.288 1.154 255 255 255
-0.034 -0.09 0.812 255 255 255
-1.272 -0.243 1.761 255 255 255
0.266 -0.179 0.55 255 255 255
-0.449 -1.294 1.963 255 255 255
0.317 -0.009 0.581 255 255 255
-0.205 0.225 1.261 255 255 255
0.115 -0.312 0.557 255 255 255
0.375 0.065 0.591 255 255 255
-0.387 0.475 0.988 255 255 255
-0.019 0.042 0.743 255 255 255
-0.717 0.03 1.508 255 255 255
-0.053 0.106 0.778 255 255 255
0.122 -0.324 0.561 255 255 255
0.236 0.165 0.587 255 255 255
0.142 -0.187 0.636 0 0 0
0.141 -0.209 0.631 255 255 255
0.145 0.483 0.943 255 255 255
0.461 -1.936 2.597 0 0 0
-0.546 0.187 1.321 255 255 255
-0.363 0.286 1.201 255 255 255
0.085 -0.144 0.752 0 0 0
0.018 0.348 1.092 255 255 255
-0.272 0.523 0.937 255 255 255
-0.144 0.358 1.103 255 255 255
-0.406 0.312 1.172 255 255 255
-0.749 0.058 1.474 255 255 255
-0.325 -0.36 0.971 255 255 255
0.059 0.318 1.12 255 255 255
0.286 0.168 0.554 255 255 255
-0.334 0.202 1.293 255 255 255
-0.213 -0.453 0.945 255 255 255
0.221 -0.222 0.58 0 0 0
0.24 -0.123 0.545 255 255 255
0.283 -0.001 0.666 255 255 255
0.04 0.497 0.941 255 255 255
-0.409 -0.303 0.96 255 255 255
0.238 -0.258 0.511 255 255 255
-0.084 -0.221 0.94 0 0 0
-0.766 0.238 1.282 255 255 255
-0.505 0.044 1.484 255 255 255
0.332 0.05 0.663 255 255 255
-0.366 0.312 1.17 255 255 255
-0.026 -0.197 0.925 255 255 255
0.03 -0.286 0.725 255 255 255
0.264 0.169 0.569 0 0 0
-0.206 0.473 0.98 255 255 255
-0.227 -0.086 0.921 255 255 255
-0.274 0.476 0.981 255 255 255
0.018 0.258 1.126 0 0 0
0.206 -0.181 0.584 255 255 255
0.237 0.232 0.639 255 255 255
0.309 -0.185 0.509 255 255 255
-0.614 -0.302 1.061 255 255 255
0.289 0.362 0.786 255 255 255
0.093 -0.251 0.676 255 255 255
-0.997 -0.344 1.964 255 255 255
-0.011 -0.206 0.896 255 255 255
-0.714 0.224 1.288 255 255 255
0.19 -0.269 0.571 255 255 255
-0.437 -0.118 1.37 255 255 255
-0.965 0.12 1.418 255 255 255
-0.158 -0.336 0.987 255 255 255
0.189 -0.011 0.794 0 0 0
-1.036 0.022 1.533 255 255 255
0.329 -0.111 0.479 0 0 0
0.109 -0.084 0.736 255 255 255
0.306 -0.019 0.588 255 255 255
-0.281 -1.468 2.02 0 0 0
0.149 0.396 1.031 255 255 255
-0.956 -0.239 1.845 255 255 255
0.286 -0.109 0.509 255 255 255
-0.186 0.499 0.956 255 255 255
-0.331 -0.256 1.011 255 255 255
0.116 -0.472 0.687 255 255 255
-0.643 -0.025 1.566 255 255 255
-0.453 0.354 1.125 255 255 255
-0.187 0.363 1.085 0 0 0
0.02 -0.3 0.736 255 255 255
0.353 0.052 0.605 255 255 255
-0.143 -0.337 0.954 255 255 255
-0.059 0.364 1.088 255 255 255
0.323 0.101 0.592 0 0 0
-0.226 -0.208 0.966 255 255 255
-0.133 -0.073 0.845 255 255 255
-0.507 0.13 1.386 255 255 255
-0.501 0.294 1.196 255 255 255
-0.143 0.201 1.293 255 255 255
-0.396 0.289 1.196 255 255 255
0.318 -0.042 0.532 255 255 255
0.191 -0.313 0.621 0 0 0
0.21 0.312 0.887 255 255 255
0.311 -0.048 0.535 255 255 255
-0.136 -0.315 0.979 255 255 255
-0.415 -0.278 0.974 255 255 255
-0.216 -1.533 2.053 0 0 0
0.313 -0.186 0.506 255 255 255
-0.067 -0.242 0.939 255 255 255
0.155 0.052 0.686 255 255 255
0.005 -0.258 0.786 255 255 255
-0.868 -0.016 1.567 255 255 255
-0.55 0.082 1.443 255 255 255
-0.931 0.089 1.45 255 255 255
-0.648 -1.302 1.726 0 0 0
-0.557 -1.177 1.935 255 255 255
-0.661 -1.254 1.748 255 255 255
0.214 0.065 0.666 0 0 0
-0.074 -0.592 0.971 255 255 255
0.288 0.175 0.55 255 255 255
0.236 -0.337 0.592 0 0 0
0.254 -0.158 0.546 255 255 255
-0.878 -0.37 1.977 0 0 0
0.081 -0.025 0.752 255 255 255
-0.141 -0.118 0.839 255 255 255
0.176 -0.165 0.611 0 0 0
0.3 0.369 0.776 255 255 255
-0.378 -0.603 1.006 0 0 0
0.288 -0.016 0.643 255 255 255
-0.302 -0.544 1.024 0 0 0
0.264 -0.262 0.549 0 0 0
-0.963 0.09 1.455 255 255 255
-0.445 -0.526 0.896 255 255 255
0.303 0.068 0.681 0 0 0
-0.366 -0.39 0.927 255 255 255
0.127 0.474 0.956 255 255 255
-0.255 0.005 1.106 255 255 255
0.044 -0.434 0.66 255 255 255
-0.429 -0.388 0.909 255 255 255
-0.277 0.325 1.151 0 0 0
-0.693 -0.111 1.665 255 255 255
-1.047 -0.211 1.821 255 255 255
0.036 0.049 0.735 255 255 255
0.129 -0.485 0.69 255 255 255
0.16 -0.151 0.658 255 255 255
-0.89 0.057 1.485 255 255 255
0.28 0.174 0.554 255 255 255
0.184 0.479 0.945 255 255 255
-0.726 0.257 1.257 255 255 255
0.221 -0.332 0.602 0 0 0
0.12 -0.338 0.656 0 0 0
0.025 0.445 0.997 0 0 0
-0.675 0.215 1.299 255 255 255
-0.018 -0.227 0.889 255 255 255
-0.287 0.524 0.936 255 255 255
0.315 0.505 0.908 255 255 255
-0.965 -0.106 1.684 255 255 255
-0.384 -0.118 1.283 255 255 255
0.083 -0.279 0.686 255 255 255
0.067 -0.404 0.658 255 255 255
-0.488 0.283 1.208 255 255 255
0.303 -0.029 0.589 255 255 255
0.104 0.014 0.695 255 255 255
0.295 0.145 0.545 255 255 255
0.201 -0.03 0.754 255 255 255
0.153 -0.228 0.633 255 255 255
-0.233 -0.45 0.96 0 0 0
-0.002 -0.513 0.886 255 255 255
0.287 0.426 0.869 255 255 255
-0.073 0.097 0.805 255 255 255
-0.254 -1.408 2.106 255 255 255
-1.155 -0.464 1.746 255 255 255
0.313 -0.185 0.511 255 255 255
-0.349 0.507 0.953 255 255 255
-1.324 -0.175 1.747 255 255 255
0.069 0.482 0.953 255 255 255
0.28 0.135 0.558 0 0 0
-0.02 0.131 0.777 255 255 255
0.311 -0.081 0.484 0 0 0
0.021 -0.349 0.71 255 255 255
0.046 -0.028 0.752 255 255 255
-0.002 0.071 0.756 255 255 255
-0.158 -0.37 0.949 255 255 255
-0.846 -0.312 1.911 255 255 255
0.204 0.083 0.637 255 255 255
-0.097 -0.299 0.919 255 255 255
-0.502 0.258 1.239 255 255 255
-1.038 0.018 1.536 255 255 255
0.059 -0.42 0.663 255 255 255
-0.477 0.32 1.166 255 255 255
-0.303 0.311 1.167 255 255 255
-0.11 -0.203 0.938 255 255 255
0.088 -0.345 0.668 0 0 0
-0.328 0.208 1.269 255 255 255
-0.116 0.503 0.952 255 255 255
-0.442 -0.119 1.349 255 255 255
0.3 0.504 0.909 255 255 255
0.267 -0.082 0.564 255 255 255
0.037 0.471 0.969 255 255 255
0.272 -0.211 0.54 255 255 255
0.222 0.483 0.939 255 255 255
0.048 -0.194 0.794 255 255 255
-0.587 0.191 1.32 255 255 255
0.043 -0.286 0.716 255 255 255
0.056 0.405 1.038 255 255 255
-0.552 -1.287 1.848 255 255 255
0.085 -0.007 0.74 255 255 255
-0.278 0.194 1.302 255 255 255
-1.059 -0.352 1.91 255 255 255
0.226 0.259 0.649 255 255 255
0.179 -0.235 0.612 255 255 255
0.036 -0.044 0.764 255 255 255
-0.696 -1.191 1.758 255 255 255
-0.088 -0.102 0.826 255 255 255
-0.295 -0.366 0.997 255 255 255
-0.62 0.032 1.501 255 255 255
-0.024 -0.666 1.036 255 255 255
0.306 -0.198 0.479 255 255 255
-0.358 0.521 0.942 255 255 255
-0.069 -0.075 0.816 255 255 255
-0.243 -0.275 0.984 255 255 255
-1.056 -0.691 1.681 255 255 255
-0.36 0.51 0.951 255 255 255
0.036 -0.034 0.758 255 255 255
-0.285 -0.42 1.004 255 255 255
0.589 -0.945 1.197 255 255 255
-0.37 -0.31 0.951 255 255 255
0.009 -0.015 0.755 255 255 255
0.123 -0.138 0.734 255 255 255
-0.089 0.508 0.95 255 255 255
-1.129 -0.193 1.81 255 255 255
0.027 -0.259 0.742 255 255 255
0.143 -0.456 0.691 255 255 255
-0.158 -0.198 0.912 255 255 255
-0.359 -0.146 1.206 255 255 255
0.353 -0.015 0.507 255 255 255
-0.38 -0.242 0.979 255 255 255
-0.4 -0.299 0.966 255 255 255
0.003 0.03 0.745 255 255 255
-0.544 0.341 1.147 255 255 255
0.078 -0.331 0.688 0 0 0
-0.36 -0.411 0.941 255 255 255
-0.555 -0.288 1.09 255 255 255
0.199 0.496 0.925 255 255 255
0.052 0.08 0.711 255 255 255
0.054 0.135 0.722 255 255 255
-0.65 0.142 1.377 255 255 255
-0.293 -0.329 0.974 255 255 255
-0.266 0.276 1.208 255 255 255
-0.124 -0.327 0.934 255 255 255
0.24 -0.112 0.571 255 255 255
0.159 -0.143 0.667 255 255 255
-0.055 -0.303 0.827 255 255 255
0.213 0.275 0.804 255 255 255
0.292 0.059 0.691 255 255 255
0.261 0.096 0.638 0 0 0
0.047 -0.431 0.661 255 255 255
0.149 -0.324 0.566 0 0 0
-0.649 0.281 1.227 255 255 255
0.096 0.254 0.943 255 255 255
0.188 -0.073 0.738 255 255 255
-0.514 0.402 1.079 255 255 255
0.23 0.072 0.652 255 255 255
-0.013 -0.611 0.973 255 255 255
0.086 0.369 1.066 255 255 255
0.12 -0.301 0.557 255 255 255
0.117 -0.031 0.733 255 255 255
0.232 0.375 0.872 255 255 255
-0.359 -0.612 1.022 0 0 0
-0.002 0.408 1.04 255 255 255
-0.842 -0.232 1.819 255 255 255
0.389 -1.119 1.538 0 0 0
-0.496 -0.493 0.897 255 255 255
0.229 -0.086 0.618 255 255 255
-0.721 -0.075 1.624 255 255 255
0.075 0.366 1.066 255 255 255
-0.772 -0.009 1.551 255 255 255
0.303 0.51 0.905 255 255 255
-0.507 -1.381 1.826 0 0 0
-0.568 0.353 1.134 255 255 255
0.057 -0.466 0.808 255 255 255
-0.576 -1.123 1.958 255 255 255
-0.377 -0.472 0.953 255 255 255
-0.151 0.255 1.222 255 255 255
0.072 0.371 1.061 255 255 255
0.01 0.024 0.748 255 255 255
-0.228 0.254 1.23 255 255 255
-0.097 -0.167 0.926 255 255 255
-0.059 -0.436 0.818 255 255 255
-0.544 0.172 1.339 255 255 255
-0.4 0.04 1.477 255 255 255
0.257 -0.155 0.544 255 255 255
0.043 -0.209 0.781 255 255 255
0.031 -0.315 0.634 0 0 0
0.122 -0.2 0.654 0 0 0
-0.089 -0.1 0.824 255 255 255
-0.333 0.119 1.389 255 255 255
0.296 -0.08 0.519 255 255 255
0.231 0.121 0.581 255 255 255
-0.126 -0.019 0.887 255 255 255
0.227 0.411 0.999 255 255 255
-0.319 -0.46 1.017 255 255 255
0.083 0.091 0.683 255 255 255
0.081 -0.069 0.725 255 255 255
-0.857 -0.044 1.6 255 255 255
0.129 -0.252 0.654 255 255 255
0.26 0.381 0.841 255 255 255
0.142 -0.179 0.642 255 255 255
-0.549 -0.327 1.156 255 255 255
0.279 -0.219 0.477 255 255 255
-0.404 -0.319 0.915 255 255 255
0.246 -0.331 0.602 0 0 0
0.302 0.094 0.58 0 0 0
-0.14 0.487 0.967 255 255 255
-0.272 0.504 0.953 255 255 255
-0.379 -0.372 0.917 255 255 255
0.069 0.45 0.99 0 0 0
-0.534 0.175 1.338 255 255 255
0.125 0.475 0.954 255 255 255
-0.586 0.201 1.31 255 255 255
-0.021 -0.102 0.816 0 0 0
0.104 0.421 1.016 255 255 255
-0.014 -0.525 0.903 255 255 255
-0.241 0.418 1.041 255 255 255
0.206 0.113 0.61 255 255 255
-0.158 0.411 1.045 255 255 255
0.163 -0.272 0.589 255 255 255
-0.67 -1.166 1.801 255 255 255
0.171 -0.13 0.66 255 255 255
-1.013 -0.028 1.594 255 255 255
0.02 0.488 0.956 255 255 255
0.219 0.015 0.719 0 0 0
-0.07 -0.336 0.812 255 255 255
0.258 -0.26 0.555 255 255 255
0.169 0.335 0.931 0 0 0
-0.311 -0.266 0.987 255 255 255
0.355 0.044 0.605 255 255 255
0.194 0.142 0.639 0 0 0
0.345 -0.049 0.486 255 255 255
-0.911 -0.254 1.856 255 255 255
0.221 0.279 0.761 255 255 255
0.134 -0.311 0.646 255 255 255
0.367 0.001 0.514 255 255 255
0.173 0.403 1.029 255 255 255
-0.068 0.51 0.942 255 255 255
-0.344 -0.349 0.99 255 255 255
-0.331 0.45 1.011 0 0 0
0.092 0.038 0.691 255 255 255
0.004 0.312 1.133 255 255 255
-0.213 -0.391 1.009 255 255 255
0.138 -0.32 0.641 0 0 0
-0.051 -0.052 0.803 255 255 255
-0.438 -0.029 1.456 255 255 255
-0.957 0.015 1.541 255 255 255
-0.014 -0.077 0.791 255 255 255
-0.32 -0.545 1.039 0 0 0
0.243 0.102 0.629 255 255 255
-0.341 -0.234 0.991 255 255 255
-0.118 0.475 0.979 255 255 255
0.244 0.176 0.588 255 255 255
-0.207 0.494 0.958 255 255 255
0.165 0.483 0.942 255 255 255
0.28 -0.028 0.631 255 255 255
-0.909 -0.074 1.641 255 255 255
0.263 -0.079 0.575 255 255 255
-1.048 -0.129 1.722 255 255 255
-0.021 -0.417 0.781 255 255 255
0.16 0.039 0.702 255 255 255
-0.397 -0.636 0.974 0 0 0
0.163 0.065 0.662 255 255 255
-0.765 0.194 1.327 255 255 255
-0.44 -0.354 0.911 255 255 255
-0.662 0.063 1.467 255 255 255
0.314 0.053 0.667 255 255 255
-0.28 -0.35 0.992 255 255 255
-0.8 0.187 1.332 255 255 255
0.16 -0.332 0.538 255 255 255
0.246 0.013 0.679 0 0 0
0.129 0.097 0.746 255 255 255
0.252 -0.199 0.571 255 255 255
-0.152 0.474 0.979 255 255 255
0.236 -0.104 0.583 255 255 255
-0.597 -0.314 1.048 255 255 255
0.084 -0.043 0.741 255 255 255
0.297 0.103 0.571 0 0 0
-0.166 -0.063 0.85 255 255 255
0.067 0.028 0.722 255 255 255
0.281 0.062 0.702 0 0 0
-0.028 -0.194 0.927 255 255 255
-0.054 -0.607 0.952 255 255 255
-0.147 -0.232 0.932 255 255 255
0.148 0.05 0.684 255 255 255
-0.021 0.084 0.76 0 0 0
-0.636 0.144 1.375 255 255 255
0.205 -0.284 0.585 255 255 255
0.237 0.44 0.984 0 0 0
-0.77 -0.25 1.831 0 0 0
0.294 -0.07 0.539 255 255 255
-0.472 0.334 1.15 255 255 255
0.56 -0.955 1.232 255 255 255
-0.223 0.419 1.039 255 255 255
-0.245 0.023 1.125 255 255 255
0.077 -0.49 0.667 0 0 0
0.128 0.272 0.916 255 255 255
-0.023 0.013 0.817 255 255 255
-0.024 0.025 0.814 255 255 255
0.018 0.12 0.754 0 0 0
0.251 -0.159 0.548 255 255 255
-0.17 -0.354 0.981 255 255 255
0.132 -0.094 0.754 0 0 0
-0.626 0.149 1.368 255 255 255
-0.408 -0.323 0.947 255 255 255
-0.179 -0.291 0.982 0 0 0
0.152 -0.319 0.569 0 0 0
-0.571 -0.411 0.998 255 255 255
-0.993 -0.279 1.895 255 255 255
-0.05 -0.562 0.948 255 255 255
-0.578 -1.365 1.75 0 0 0
0.113 0.136 0.78 255 255 255
-0.152 -0.436 0.893 255 255 255
-0.378 0.462 1 0 0 0
-0.338 0.38 1.088 255 255 255
0.207 -0.179 0.583 255 255 255
0.169 0.036 0.706 255 255 255
-0.168 -0.084 0.839 255 255 255
-1.192 -0.353 1.781 255 255 255
0.1 0.375 1.055 255 255 255
0.097 -0.021 0.749 255 255 255
0.279 0.5 0.914 255 255 255
0.258 0.187 0.588 255 255 255
-1.25 -0.349 1.727 255 255 255
-0.129 -0.542 0.922 255 255 255
-0.58 -1.227 1.86 255 255 255
-0.076 -0.426 0.831 255 255 255
-0.382 0.284 1.202 255 255 255
-0.303 0.279 1.204 255 255 255
-1.086 -0.289 1.91 255 255 255
0.268 -0.099 0.539 255 255 255
-0.531 -0.433 0.938 255 255 255
0.268 -0.14 0.535 255 255 255
0.263 -0.149 0.538 255 255 255
-0.552 -0.302 1.044 255 255 255
-0.173 -0.038 0.869 255 255 255
0.053 -0.451 0.664 255 255 255
-0.456 0.208 1.293 255 255 255
-0.787 0.03 1.512 255 255 255
-0.049 -0.413 0.815 255 255 255
0.226 -0.059 0.69 255 255 255
0.07 0.082 0.689 255 255 255
-0.783 0.171 1.354 255 255 255
-0.012 -0.434 0.792 255 255 255
0.304 -0.035 0.565 255 255 255
-0.42 0.074 1.445 255 255 255
0.125 0.3 0.963 0 0 0
-0.006 0.12 0.769 255 255 255
-0.011 -0.052 0.779 255 255 255
-0.609 0.127 1.391 255 255 255
-0.954 -0.06 1.629 255 255 255
0.293 0.103 0.572 0 0 0
-0.017 -0.067 0.782 255 255 255
0.2 0.126 0.617 255 255 255
0.015 -0.279 0.734 255 255 255
0.174 -0.008 0.807 255 255 255
-0.217 -0.328 1.056 0 0 0
0.045 -0.057 0.78 255 255 255
0.181 0.066 0.672 255 255 255
0.095 -0.217 0.68 0 0 0
-0.605 0.113 1.406 255 255 255
0.081 -0.074 0.727 255 255 255
-0.357 -0.324 1.009 255 255 255
-0.085 -0.149 0.92 255 255 255
