ply
format ascii 1.0
comment Created by Open3D
element vertex 1597
property double x
property double y
property double z
property uchar red
property uchar green
property uchar blue
end_header
0.162 0.349 0.984 255 255 255
-0.31 -0.16 0.783 255 255 255
0.092 -0.199 0.593 255 255 255
-0.041 -0.149 0.728 255 255 255
-0.329 -0.668 0.874 0 0 0
-1.213 -0.227 1.589 255 255 255
-0.247 -0.301 0.895 255 255 255
0.258 -0.064 0.568 255 255 255
0.323 0.302 0.742 255 255 255
-0.075 -0.084 0.715 255 255 255
0.212 0.196 0.628 255 255 255
0.353 0.061 0.587 255 255 255
-0.192 -0.278 0.843 255 255 255
-0.18 0.325 1.032 255 255 255
0.178 0.123 0.606 255 255 255
0.034 -0.179 0.724 255 255 255
0.093 -0.199 0.59 255 255 255
0.154 -0.26 0.493 255 255 255
-0.071 0.295 1.046 255 255 255
-0.034 -0.242 0.691 255 255 255
-0.447 0.166 1.144 0 0 0
0.388 0.013 0.538 255 255 255
-0.333 0.165 1.183 255 255 255
0.129 -0.285 0.46 0 0 0
0.137 0.424 0.917 0 0 0
-0.192 -0.327 0.788 255 255 255
0.137 -0.182 0.557 255 255 255
0.115 0.007 0.636 255 255 255
0.155 -0.333 0.467 255 255 255
-0.061 -0.205 0.707 0 0 0
0.288 0.14 0.572 255 255 255
-0.126 0.391 0.968 255 255 255
-0.015 -0.165 0.726 0 0 0
-0.334 -0.313 0.861 0 0 0
-0.177 0.446 0.918 255 255 255
-0.072 0.482 0.885 255 255 255
-0.104 0.015 0.73 255 255 255
0.276 -0.052 0.563 255 255 255
-0.064 -0.156 0.701 255 255 255
-0.284 -0.471 0.754 255 255 255
-0.329 -0.093 0.845 255 255 255
-0.173 0.005 0.728 255 255 255
-0.302 0.233 1.118 255 255 255
-0.407 -0.332 0.886 255 255 255
-0.427 -0.089 1.036 255 255 255
-0.533 0.338 1.036 255 255 255
0.206 -0.21 0.481 255 255 255
0.026 -0.297 0.584 255 255 255
0.17 -0.139 0.573 255 255 255
0.229 0.136 0.571 255 255 255
0.213 -0.219 0.487 255 255 255
-0.096 -0.151 0.754 255 255 255
0.06 -0.203 0.619 255 255 255
0.239 -0.268 0.473 255 255 255
-0.309 0.327 1.032 255 255 255
0.177 -0.134 0.575 255 255 255
0.112 -0.004 0.637 255 255 255
0.164 0.323 1.004 255 255 255
-0.994 -0.156 1.511 255 255 255
-0.65 -0.183 1.265 255 255 255
0.323 0.081 0.575 255 255 255
0.302 0.04 0.619 255 255 255
-0.174 0.273 1.074 255 255 255
0.199 0.401 0.935 255 255 255
0.022 -0.216 0.671 255 255 255
0.209 0.113 0.584 0 0 0
0.234 -0.111 0.532 255 255 255
0.064 -0.287 0.561 255 255 255
-0.798 -0.014 1.369 255 255 255
0.211 -0.15 0.502 255 255 255
0.125 0.123 0.669 0 0 0
-0.135 0.436 0.925 0 0 0
0.118 -0.322 0.416 0 0 0
0.135 -0.241 0.522 255 255 255
0.228 -0.073 0.627 255 255 255
0.365 0.042 0.576 255 255 255
-0.063 -0.254 0.709 255 255 255
-0.442 0.111 1.239 255 255 255
0.219 -0.144 0.497 255 255 255
0.01 -0.33 0.568 255 255 255
-0.269 -0.135 0.803 255 255 255
-0.292 -0.213 0.781 255 255 255
0.166 -0.281 0.462 0 0 0
0.3 0.404 0.912 255 255 255
0.216 -0.137 0.52 255 255 255
-0.271 0.317 1.037 255 255 255
0.325 -0.072 0.47 255 255 255
0.038 -0.115 0.79 0 0 0
0.229 -0.131 0.502 255 255 255
-0.314 0.214 1.137 255 255 255
0.097 -0.179 0.608 255 255 255
0.29 0.46 0.883 255 255 255
-0.002 0.246 1.076 255 255 255
0.135 -0.198 0.528 255 255 255
0.195 0.094 0.576 0 0 0
-0.096 0.442 0.916 255 255 255
-0.127 0.038 0.743 255 255 255
-0.339 -0.525 0.77 255 255 255
-0.233 -0.44 0.721 255 255 255
-0.508 -0.327 0.892 255 255 255
-0.998 -0.246 1.594 255 255 255
0.209 0.127 0.597 255 255 255
-0.136 -0.119 0.734 255 255 255
-0.603 0.113 1.245 255 255 255
0.013 0.468 0.887 255 255 255
0.027 0.411 0.935 255 255 255
-0.558 0.279 1.087 255 255 255
-0.284 -0.315 0.874 0 0 0
-0.467 0.358 1.01 255 255 255
0.256 -0.058 0.598 0 0 0
-0.237 -0.098 0.801 255 255 255
0.321 0.094 0.557 255 255 255
-0.269 0.295 1.058 255 255 255
0.112 -0.345 0.49 255 255 255
-0.024 -0.026 0.667 255 255 255
-0.354 0.1 1.245 255 255 255
0.087 -0.348 0.532 255 255 255
-0.563 0.124 1.23 255 255 255
0.259 -0.087 0.524 255 255 255
0.18 -0.043 0.691 255 255 255
-0.176 -0.207 0.764 255 255 255
0.313 0.243 0.673 255 255 255
-0.339 -0.534 0.766 255 255 255
0.07 0.422 0.923 0 0 0
-0.179 -0.321 0.778 255 255 255
0.154 0.272 0.887 0 0 0
-0.153 -0.021 0.714 255 255 255
-0.292 -0.418 0.783 255 255 255
0.164 -0.162 0.548 255 255 255
0.089 0.448 0.898 255 255 255
0.046 -0.028 0.669 255 255 255
0.006 -0.189 0.74 255 255 255
0.126 -0.257 0.523 255 255 255
-0.141 -0.124 0.741 255 255 255
0.273 0.065 0.597 255 255 255
-0.04 -0.229 0.719 255 255 255
0.25 -0.136 0.474 255 255 255
0.161 -0.254 0.495 0 0 0
0.347 0.04 0.584 255 255 255
0.051 0.181 0.946 255 255 255
-0.158 -0.013 0.726 255 255 255
-0.394 0.426 0.949 0 0 0
-0.13 -0.093 0.723 255 255 255
-0.108 -0.098 0.716 255 255 255
-0.366 0.234 1.072 255 255 255
0.033 -0.265 0.572 255 255 255
0.29 0.463 0.872 255 255 255
-0.438 0.125 1.227 255 255 255
-0.143 0.363 0.994 255 255 255
0.204 -0.166 0.482 0 0 0
-0.052 -0.168 0.697 255 255 255
-0.586 0.066 1.284 255 255 255
-0.225 -0.354 0.786 255 255 255
-0.24 -0.178 0.773 255 255 255
-0.028 -0.316 0.605 255 255 255
-0.547 -0.345 0.892 255 255 255
-0.295 -0.123 0.832 255 255 255
0.203 0.469 0.873 255 255 255
-0.359 0.162 1.187 255 255 255
0.176 -0.342 0.458 0 0 0
-0.267 -0.306 0.88 255 255 255
0.215 0.232 0.671 255 255 255
0.281 -0.123 0.452 255 255 255
0.177 -0.279 0.481 0 0 0
0.04 -0.061 0.698 255 255 255
0.024 -0.346 0.561 255 255 255
0.25 0.103 0.539 255 255 255
0.2 -0.12 0.574 255 255 255
0.204 0.231 0.771 255 255 255
0.173 -0.188 0.496 255 255 255
-0.125 0.045 0.749 255 255 255
0.217 0.232 0.754 255 255 255
-0.44 -0.344 0.893 255 255 255
0.118 0.411 0.931 0 0 0
-0.556 0.302 1.068 255 255 255
-0.248 -0.219 0.818 255 255 255
-0.933 0.001 1.363 255 255 255
0.056 -0.126 0.741 255 255 255
0.13 -0.159 0.595 255 255 255
0.214 0.431 0.909 255 255 255
-0.153 0.442 0.921 255 255 255
0.201 -0.246 0.493 255 255 255
0.126 -0.303 0.524 255 255 255
-0.187 0.002 0.719 255 255 255
-0.432 -0.223 0.886 255 255 255
-0.016 -0.38 0.523 0 0 0
0.185 -0.019 0.66 255 255 255
0.036 -0.105 0.787 255 255 255
0.254 0.098 0.544 255 255 255
-0.095 -0.066 0.716 255 255 255
0.279 0.114 0.521 255 255 255
-0.445 0.266 1.093 255 255 255
-0.68 -0.085 1.385 0 0 0
0.307 0.003 0.603 255 255 255
0.038 -0.231 0.607 255 255 255
-0.238 -0.041 0.84 255 255 255
-0.186 0.453 0.912 255 255 255
-0.601 0.196 1.167 255 255 255
-0.332 -0.518 0.769 255 255 255
0.011 -0.215 0.678 255 255 255
-1.185 -0.25 1.611 255 255 255
0.338 0.062 0.597 255 255 255
0.069 -0.353 0.534 255 255 255
-0.408 0.288 1.064 255 255 255
-0.669 0.051 1.305 255 255 255
0.148 -0.262 0.486 255 255 255
0.072 -0.102 0.738 0 0 0
-0.052 -0.272 0.67 255 255 255
0.07 -0.074 0.702 255 255 255
0.19 -0.071 0.689 0 0 0
0.343 0.058 0.593 255 255 255
0.013 -0.261 0.584 255 255 255
-0.315 0.307 1.05 255 255 255
-0.31 -0.483 0.765 255 255 255
-0.084 -0.308 0.656 255 255 255
0.224 0.05 0.577 255 255 255
0.202 0.466 0.876 255 255 255
-0.299 0.449 0.923 255 255 255
-0.307 0.28 1.074 255 255 255
0.052 -0.165 0.715 255 255 255
0.093 0.332 1.005 255 255 255
-0.124 -0.137 0.738 255 255 255
-0.349 -0.206 0.785 255 255 255
-0.137 0.241 1.087 255 255 255
0.207 -0.134 0.533 255 255 255
0.048 -0.244 0.584 0 0 0
0.047 -0.314 0.548 255 255 255
-0.306 0.339 1.019 255 255 255
0.274 -0.107 0.47 255 255 255
-0.038 -0.005 0.671 255 255 255
0.24 -0.104 0.53 255 255 255
0.276 -0.077 0.519 255 255 255
0.097 -0.007 0.637 255 255 255
-0.367 0.194 1.157 255 255 255
-0.146 -0.394 0.673 255 255 255
-0.108 -0.191 0.733 255 255 255
0.285 0.186 0.629 255 255 255
-0.391 -0.493 0.834 255 255 255
-0.258 -0.433 0.736 255 255 255
0.152 0.327 1.005 255 255 255
0.171 0.259 0.843 255 255 255
0.103 -0.139 0.686 255 255 255
0.18 -0.304 0.468 255 255 255
0.092 -0.26 0.544 255 255 255
0.122 0.03 0.598 0 0 0
-0.063 -0.162 0.702 255 255 255
-1.063 -0.151 1.508 255 255 255
0.191 -0.161 0.512 255 255 255
-0.582 0.102 1.253 255 255 255
-0.319 -0.379 0.898 255 255 255
0.054 -0.217 0.612 255 255 255
0.162 0.057 0.579 255 255 255
0.061 -0.189 0.653 255 255 255
-0.081 -0.313 0.639 255 255 255
0.14 -0.014 0.651 0 0 0
-0.242 0.43 0.938 0 0 0
0.168 0.32 1.003 255 255 255
-0.368 -0.324 0.879 255 255 255
-0.366 -0.26 0.841 255 255 255
0.368 0.078 0.59 255 255 255
-0.664 0.004 1.348 255 255 255
0.021 -0.288 0.58 255 255 255
0.142 -0.161 0.577 255 255 255
-0.61 -0.19 0.961 0 0 0
-0.23 -0.062 0.827 255 255 255
-0.234 -0.22 0.805 255 255 255
0.116 -0.3 0.47 255 255 255
-0.843 -0.122 1.469 255 255 255
-0.139 0.435 0.928 0 0 0
0.238 -0.125 0.496 255 255 255
0.105 0.085 0.647 0 0 0
0.107 -0.32 0.431 0 0 0
-0.218 0.466 0.905 255 255 255
0.193 -0.001 0.595 0 0 0
-0.124 0.443 0.917 255 255 255
-0.677 -0.1 1.378 0 0 0
0.157 0.402 0.937 255 255 255
-0.431 -0.48 0.896 255 255 255
0.134 -0.28 0.458 255 255 255
0.233 -0.177 0.467 255 255 255
-0.415 0.374 0.995 255 255 255
-0.012 0.19 0.994 0 0 0
0.25 -0.211 0.46 255 255 255
-0.263 -0.529 0.748 255 255 255
-0.449 0.274 1.083 0 0 0
-0.29 -0.37 0.865 255 255 255
-0.234 -0.097 0.801 255 255 255
-0.445 0.156 1.198 0 0 0
0.34 0.081 0.603 0 0 0
-0.074 0.211 1.113 255 255 255
-0.079 -0.359 0.638 255 255 255
0.057 -0.22 0.598 255 255 255
0.184 0.198 0.732 255 255 255
-0.201 -0.469 0.693 255 255 255
0.227 0.222 0.761 255 255 255
-0.295 -0.51 0.757 255 255 255
-0.25 0.311 1.044 255 255 255
-0.286 -0.349 0.878 255 255 255
0.298 0.176 0.595 255 255 255
-0.235 0.367 0.994 255 255 255
0.187 0.048 0.556 255 255 255
-0.442 -0.349 0.89 255 255 255
0.216 0.13 0.591 0 0 0
0.017 -0.01 0.721 255 255 255
0.088 -0.051 0.659 255 255 255
-0.281 0.388 0.979 255 255 255
-0.71 -0.104 1.382 0 0 0
0.156 0.456 0.889 255 255 255
-1.232 -0.358 1.715 255 255 255
0.345 0.082 0.606 0 0 0
-0.281 -0.269 0.873 0 0 0
0.237 -0.083 0.571 255 255 255
-0.268 -0.516 0.744 255 255 255
-0.315 -0.187 0.774 255 255 255
-0.713 0.032 1.324 255 255 255
0.174 0.098 0.604 0 0 0
0.056 -0.089 0.775 0 0 0
-0.168 0.449 0.914 255 255 255
-0.704 -0.153 1.303 0 0 0
0.081 -0.224 0.572 0 0 0
-0.63 0.108 1.25 255 255 255
-0.063 -0.08 0.709 255 255 255
-0.944 -0.028 1.385 255 255 255
-0.306 -0.258 0.823 255 255 255
0.13 -0.129 0.668 255 255 255
0.206 -0.101 0.601 255 255 255
-0.627 0.257 1.113 255 255 255
0.293 0.22 0.663 255 255 255
-0.412 0.213 1.143 255 255 255
0.25 0.289 0.781 255 255 255
0.142 0.224 0.889 255 255 255
-0.188 -0.298 0.836 255 255 255
0.045 -0.296 0.577 255 255 255
-0.187 0.296 1.055 255 255 255
-0.016 0.467 0.893 255 255 255
0.129 -0.061 0.677 0 0 0
-0.134 0.37 0.988 255 255 255
-0.105 0.372 0.983 255 255 255
-0.066 -0.257 0.709 255 255 255
-0.139 -0.227 0.727 0 0 0
-0.072 0.151 1.018 255 255 255
-0.392 0.068 1.273 255 255 255
0.173 -0.136 0.586 255 255 255
-0.443 0.2 1.159 255 255 255
-0.717 0.09 1.268 255 255 255
-0.111 -0.102 0.716 255 255 255
-0.165 0.037 0.75 0 0 0
-0.596 0.249 1.121 255 255 255
-0.407 -0.019 1.203 255 255 255
-0.217 -0.308 0.856 255 255 255
0.137 0.056 0.595 255 255 255
-1.117 -0.143 1.506 255 255 255
-0.034 -0.067 0.679 255 255 255
0.14 0.09 0.614 255 255 255
-0.627 0.213 1.153 255 255 255
-0.077 -0.202 0.696 255 255 255
-0.035 -0.006 0.67 255 255 255
-0.713 -0.092 1.383 0 0 0
0.308 -0.035 0.553 255 255 255
-0.175 0.424 0.939 0 0 0
0.223 -0.015 0.635 255 255 255
-1.003 -0.279 1.62 255 255 255
0.333 -0.017 0.551 255 255 255
0.357 -0.009 0.527 255 255 255
0.245 0.362 0.964 0 0 0
0.075 0.059 0.655 255 255 255
0.245 -0.127 0.484 255 255 255
-0.833 -0.111 1.46 255 255 255
-0.047 -0.361 0.602 255 255 255
-0.126 -0.224 0.718 0 0 0
-0.648 -0.05 1.398 255 255 255
-0.155 0.437 0.924 0 0 0
-0.929 -0.21 1.555 255 255 255
-0.019 -0.04 0.667 255 255 255
0.18 0.409 0.93 255 255 255
0.009 -0.03 0.662 255 255 255
-0.345 -0.507 0.773 255 255 255
-1.108 -0.196 1.555 255 255 255
0.052 -0.142 0.746 255 255 255
0.242 -0.239 0.481 255 255 255
0.128 -0.148 0.62 255 255 255
-0.45 -0.347 0.885 255 255 255
-0.082 -0.081 0.714 255 255 255
-0.45 -0.405 0.936 255 255 255
0 -0.331 0.577 255 255 255
0.082 -0.191 0.611 255 255 255
-0.18 -0.357 0.718 255 255 255
0.23 -0.102 0.554 255 255 255
-0.28 -0.08 0.847 255 255 255
0.292 0.278 0.724 255 255 255
0.289 -0.097 0.47 255 255 255
0.059 0.366 0.976 255 255 255
-0.823 -0.307 1.145 255 255 255
0.134 -0.29 0.452 255 255 255
0.06 0.007 0.633 255 255 255
-0.127 -0.384 0.658 255 255 255
0.247 0.024 0.594 255 255 255
0.337 -0.029 0.521 255 255 255
-0.674 0.029 1.328 255 255 255
-0.378 -0.72 0.914 255 255 255
0.298 -0.098 0.465 255 255 255
-0.371 0.367 0.998 255 255 255
-0.223 0.334 1.025 255 255 255
0.233 0.209 0.724 255 255 255
0.222 0.265 0.829 255 255 255
-0.014 0.017 0.771 255 255 255
-0.166 -0.001 0.728 255 255 255
0.285 -0.104 0.466 255 255 255
0.371 0.015 0.554 255 255 255
-0.319 0.167 1.181 255 255 255
0.104 0.18 0.827 255 255 255
-0.004 0.37 0.976 255 255 255
0.178 0.048 0.568 255 255 255
0.214 0.015 0.587 255 255 255
-0.016 -0.257 0.645 255 255 255
0.348 -0.006 0.546 255 255 255
0.189 -0.161 0.513 255 255 255
0.127 -0.26 0.524 255 255 255
0.046 0.002 0.664 0 0 0
0.384 0.039 0.568 255 255 255
-1.048 -0.079 1.44 255 255 255
0.293 -0.148 0.438 255 255 255
-0.169 -0.349 0.712 255 255 255
-0.345 0.491 0.897 255 255 255
0.026 -0.162 0.761 255 255 255
0.371 -0.008 0.517 255 255 255
-0.14 0.237 1.091 255 255 255
0.051 -0.269 0.565 255 255 255
-0.337 -0.2 0.777 255 255 255
0.209 0.368 0.963 255 255 255
-0.058 -0.317 0.627 255 255 255
-0.237 -0.12 0.792 255 255 255
0.021 -0.4 0.586 0 0 0
-0.216 -0.601 0.782 0 0 0
0.117 -0.301 0.455 255 255 255
0.039 0.254 1.07 255 255 255
-0.416 0.33 1.033 255 255 255
-0.004 -0.052 0.68 255 255 255
0.3 -0.007 0.595 0 0 0
-0.081 -0.412 0.548 0 0 0
-0.15 0.445 0.918 255 255 255
0.19 -0.333 0.467 255 255 255
0.099 -0.243 0.545 255 255 255
-0.302 -0.337 0.87 0 0 0
0.209 -0.13 0.537 255 255 255
-0.46 -0.415 0.887 255 255 255
-0.71 0.197 1.174 255 255 255
-0.084 -0.362 0.639 255 255 255
0.003 -0.41 0.597 255 255 255
0.068 0.164 0.866 255 255 255
0.104 -0.205 0.563 255 255 255
0.209 -0.132 0.533 255 255 255
-0.304 -0.392 0.841 255 255 255
-0.1 -0.084 0.724 255 255 255
0.193 0.442 0.898 255 255 255
-0.442 -0.261 0.881 255 255 255
0.288 -0.01 0.617 255 255 255
0.119 0.404 0.936 255 255 255
-0.144 0.018 0.738 0 0 0
-0.083 0.319 1.027 255 255 255
-0.321 0.182 1.167 255 255 255
-0.139 0.414 0.946 255 255 255
-0.448 0.149 1.164 0 0 0
0.072 0.344 0.994 255 255 255
0.166 -0.28 0.469 0 0 0
0.177 0.012 0.586 0 0 0
0.141 -0.152 0.611 255 255 255
0.012 -0.049 0.689 255 255 255
-0.078 -0.018 0.707 255 255 255
-0.155 -0.235 0.736 255 255 255
0.057 -0.326 0.523 255 255 255
-0.654 -0.02 1.369 255 255 255
0.292 0.101 0.555 255 255 255
0.007 -0.198 0.721 255 255 255
0.279 0.161 0.599 255 255 255
-0.426 -0.484 0.877 255 255 255
-0.867 -0.105 1.457 255 255 255
-0.213 -0.447 0.713 255 255 255
0.245 -0.286 0.47 255 255 255
-0.028 -0.165 0.718 255 255 255
0.116 -0.263 0.529 255 255 255
-0.517 0.179 1.168 255 255 255
0.04 0.184 0.903 255 255 255
0.203 -0.282 0.451 255 255 255
-0.516 0.278 1.084 255 255 255
-0.301 0.397 0.97 255 255 255
0.225 -0.375 0.501 0 0 0
0.215 -0.036 0.662 255 255 255
0.155 -0.058 0.703 255 255 255
0.155 -0.343 0.464 0 0 0
0.141 0.003 0.65 0 0 0
0.052 -0.425 0.562 0 0 0
0.213 0.095 0.555 255 255 255
0.246 -0.288 0.458 255 255 255
-0.02 -0.026 0.665 255 255 255
0.23 -0.225 0.472 255 255 255
0.075 -0.351 0.536 255 255 255
0.22 -0.24 0.486 255 255 255
-0.054 -0.029 0.675 255 255 255
0.154 -0.031 0.668 0 0 0
-1.242 -0.428 1.781 255 255 255
-0.261 -0.111 0.808 255 255 255
0.08 -0.213 0.582 255 255 255
0.002 -0.321 0.594 255 255 255
0.282 -0.042 0.579 255 255 255
0.201 -0.181 0.482 255 255 255
-0.246 0.262 1.087 255 255 255
0.329 -0.032 0.529 255 255 255
-0.034 -0.054 0.676 255 255 255
-0.223 0.214 1.117 255 255 255
-0.447 0.402 0.976 255 255 255
-0.278 -0.21 0.793 255 255 255
-0.08 -0.278 0.696 255 255 255
0.171 -0.135 0.594 255 255 255
0.291 0.415 0.909 255 255 255
0.111 0.311 1.022 255 255 255
0.226 -0.191 0.467 0 0 0
0.14 -0.307 0.448 255 255 255
-0.091 -0.12 0.731 255 255 255
0.216 -0.338 0.479 255 255 255
-0.291 0.276 1.078 255 255 255
0.049 -0.227 0.6 255 255 255
-0.472 0.08 1.268 255 255 255
0.118 0.145 0.685 0 0 0
-0.441 -0.625 0.861 0 0 0
-0.363 -0.378 0.907 255 255 255
0.025 -0.075 0.714 255 255 255
-0.31 -0.433 0.791 255 255 255
-0.348 -0.371 0.923 255 255 255
0.177 -0.208 0.5 255 255 255
-0.302 -0.397 0.828 255 255 255
0.058 0.441 0.907 255 255 255
-0.599 -0.307 0.884 255 255 255
0.076 -0.005 0.639 255 255 255
-0.055 -0.2 0.707 0 0 0
0.11 -0.173 0.593 255 255 255
-0.039 0.266 1.063 255 255 255
0.055 -0.27 0.564 255 255 255
0.102 -0.254 0.541 255 255 255
0.032 -0.219 0.631 255 255 255
0.369 -0.005 0.526 255 255 255
0.173 0.043 0.57 255 255 255
-0.46 0.282 1.077 255 255 255
-0.129 0.306 1.042 255 255 255
0.168 -0.188 0.499 255 255 255
0.155 0.125 0.64 255 255 255
-0.045 -0.159 0.708 255 255 255
-0.429 -0.084 1.037 255 255 255
0.234 -0.25 0.488 255 255 255
0.203 -0.245 0.492 255 255 255
-0.362 0.078 1.266 0 0 0
-0.17 0.459 0.907 255 255 255
0.084 0.231 0.923 0 0 0
-0.093 -0.105 0.731 255 255 255
-1.001 -0.202 1.553 255 255 255
-0.125 -0.216 0.719 0 0 0
0.152 -0.039 0.678 0 0 0
0.055 -0.009 0.643 255 255 255
0.259 -0.139 0.455 255 255 255
-0.184 -0.138 0.749 255 255 255
-0.116 -0.094 0.717 255 255 255
-0.985 -0.137 1.493 255 255 255
0.279 0.443 0.894 255 255 255
0.35 -0.015 0.525 255 255 255
-0.042 -0.241 0.701 255 255 255
0.065 0.351 0.989 255 255 255
0.12 -0.252 0.529 255 255 255
0.125 -0.2 0.54 255 255 255
-1.117 -0.275 1.631 255 255 255
0.008 0.205 0.996 0 0 0
0.376 0.055 0.572 255 255 255
-0.169 0.197 1.129 255 255 255
-0.442 -0.409 0.889 0 0 0
0.069 -0.298 0.558 255 255 255
0.063 0.036 0.637 0 0 0
0.18 -0.059 0.682 255 255 255
0.122 0.44 0.906 255 255 255
0.226 -0.12 0.521 255 255 255
-1.234 -0.353 1.71 255 255 255
-0.135 -0.134 0.736 255 255 255
0.217 -0.148 0.497 255 255 255
-1.185 -0.334 1.688 255 255 255
-0.198 0.47 0.902 255 255 255
0.302 0.468 0.843 255 255 255
-0.273 -0.308 0.873 0 0 0
0.173 -0.15 0.558 255 255 255
0.2 -0.344 0.482 255 255 255
0.138 -0.033 0.657 255 255 255
0.069 -0.311 0.52 255 255 255
0.166 -0.125 0.615 255 255 255
-0.478 0.125 1.187 255 255 255
-0.408 -0.482 0.867 255 255 255
0.227 0.156 0.595 255 255 255
-0.551 0.328 1.047 255 255 255
0.14 -0.325 0.447 0 0 0
-0.047 0.357 0.989 255 255 255
0.104 0.25 0.926 255 255 255
0.259 -0.134 0.461 255 255 255
0.2 -0.064 0.683 255 255 255
0.126 -0.225 0.527 255 255 255
-0.314 -0.282 0.845 255 255 255
0.288 0.149 0.581 255 255 255
-0.122 -0.057 0.728 255 255 255
-0.014 0.465 0.894 255 255 255
-0.442 -0.493 0.866 0 0 0
-0.315 0.247 1.091 255 255 255
0.232 -0.038 0.66 255 255 255
0.162 -0.133 0.604 255 255 255
0.115 -0.175 0.59 255 255 255
-0.023 0.356 0.988 255 255 255
-0.261 -0.061 0.853 255 255 255
-0.349 0.235 1.058 255 255 255
0.154 0.111 0.629 255 255 255
-0.17 -0.193 0.777 0 0 0
0.072 -0.312 0.516 255 255 255
0.212 0.119 0.589 255 255 255
0.249 -0.082 0.549 255 255 255
0.215 -0.097 0.581 255 255 255
-0.313 -0.316 0.858 0 0 0
-0.197 -0.371 0.714 255 255 255
-0.43 -0.544 0.841 255 255 255
0.185 -0.173 0.5 0 0 0
-0.091 -0.214 0.699 255 255 255
0.019 -0.099 0.79 0 0 0
-0.106 -0.39 0.632 0 0 0
0.231 0.049 0.551 255 255 255
-0.57 -0.019 1.363 255 255 255
-0.15 0.159 1.163 255 255 255
0.303 0.307 0.767 255 255 255
-0.353 0.297 1.05 255 255 255
0.004 0.413 0.935 0 0 0
0.128 -0.155 0.618 255 255 255
0.069 0.234 0.953 255 255 255
0.264 0.08 0.579 255 255 255
-0.176 -0.339 0.736 255 255 255
0.072 -0.173 0.664 255 255 255
0.344 -0.014 0.539 255 255 255
-0.385 -0.517 0.815 255 255 255
0.066 -0.153 0.71 255 255 255
-0.074 0.153 1.016 0 0 0
0.356 0.022 0.581 255 255 255
-0.301 -0.321 0.87 0 0 0
0.191 0.148 0.612 255 255 255
-0.861 -0.056 1.41 255 255 255
0.136 -0.295 0.532 255 255 255
0.308 -0.068 0.495 255 255 255
-0.646 0.17 1.192 255 255 255
0.263 0.37 0.917 0 0 0
-0.385 -0.197 0.839 255 255 255
0.09 -0.417 0.573 0 0 0
0.051 -0.255 0.562 255 255 255
-0.45 0.142 1.212 255 255 255
-0.238 -0.42 0.725 255 255 255
0.102 -0.342 0.464 0 0 0
-0.061 -0.002 0.681 255 255 255
0.042 -0.158 0.749 255 255 255
0.091 -0.292 0.553 255 255 255
-0.408 0.363 1.004 255 255 255
0.063 0.057 0.649 255 255 255
0.102 0.116 0.676 255 255 255
0.141 0.059 0.595 255 255 255
0.097 -0.146 0.685 255 255 255
0.159 -0.055 0.702 255 255 255
-0.255 -0.201 0.796 255 255 255
0.262 -0.065 0.557 255 255 255
-0.002 -0.192 0.741 255 255 255
0.182 -0.288 0.458 255 255 255
-0.079 0.439 0.917 255 255 255
0.125 -0.105 0.703 0 0 0
0.167 0.065 0.583 255 255 255
-0.542 -0.297 0.885 255 255 255
-0.991 -0.054 1.416 255 255 255
0.046 -0.203 0.662 255 255 255
0.146 0.385 0.951 255 255 255
-0.723 0.195 1.174 255 255 255
0.276 -0.411 0.551 0 0 0
0.241 -0.054 0.617 255 255 255
0.111 -0.299 0.549 255 255 255
0.36 -0.009 0.527 255 255 255
0.067 -0.152 0.709 255 255 255
-0.174 0.411 0.951 255 255 255
-0.108 -0.411 0.612 255 255 255
-0.048 -0.298 0.618 255 255 255
0.034 0.286 1.048 255 255 255
0.27 -0.09 0.504 255 255 255
-0.056 -0.373 0.608 255 255 255
-0.405 0.447 0.935 255 255 255
0.237 -0.219 0.467 255 255 255
-0.155 -0.206 0.784 0 0 0
0.056 -0.221 0.598 255 255 255
-0.007 -0.323 0.599 255 255 255
0.108 -0.34 0.457 0 0 0
0.071 -0.062 0.688 0 0 0
0.159 -0.187 0.508 255 255 255
-0.094 -0.295 0.691 255 255 255
-0.027 0.365 0.982 255 255 255
0.066 -0.208 0.605 255 255 255
-0.013 -0.356 0.571 255 255 255
-0.32 0.331 1.028 255 255 255
0.256 -0.001 0.634 255 255 255
-0.243 0.294 1.057 255 255 255
0.125 -0.128 0.677 255 255 255
0.19 0.027 0.581 0 0 0
-0.227 0.22 1.112 255 255 255
-0.468 -0.11 1.039 255 255 255
0.235 -0.034 0.655 255 255 255
-0.537 -0.056 1.344 255 255 255
-0.42 -0.709 0.905 255 255 255
0.004 0.319 1.022 255 255 255
-0.439 -0.313 0.878 255 255 255
0.134 0.141 0.67 0 0 0
-0.006 0.423 0.927 0 0 0
0.24 -0.122 0.503 255 255 255
0.202 -0.104 0.599 255 255 255
0.102 0.428 0.919 0 0 0
-0.43 0.087 1.261 255 255 255
0.084 -0.275 0.549 255 255 255
0.271 0.11 0.524 255 255 255
0.3 0.029 0.613 255 255 255
0.091 0.024 0.621 255 255 255
0.084 -0.006 0.635 255 255 255
0.09 -0.252 0.549 255 255 255
0.108 -0.241 0.538 255 255 255
0.081 0.241 0.948 255 255 255
-0.165 0.056 0.763 0 0 0
0.186 0.079 0.575 0 0 0
-0.055 -0.182 0.696 255 255 255
-0.107 0.227 1.1 255 255 255
-0.423 -0.284 0.88 255 255 255
-0.827 -0.31 1.14 255 255 255
-0.053 0.368 0.982 255 255 255
0.088 -0.276 0.545 255 255 255
0.195 0.1 0.578 0 0 0
-0.221 0.226 1.105 255 255 255
-0.076 -0.377 0.512 0 0 0
-0.273 0.336 1.023 255 255 255
0.295 -0.159 0.444 255 255 255
-0.811 0.039 1.323 255 255 255
0.005 -0.39 0.533 0 0 0
-0.306 -0.544 0.746 0 0 0
0.206 0.105 0.578 0 0 0
0.207 -0.061 0.677 255 255 255
0.197 -0.164 0.5 255 255 255
-0.861 0.01 1.349 255 255 255
0.223 0.019 0.57 0 0 0
0.26 0.464 0.875 255 255 255
0.158 0.019 0.581 0 0 0
0.101 0.335 1.001 255 255 255
0.265 -0.387 0.538 0 0 0
-0.204 -0.218 0.764 0 0 0
0.216 -0.111 0.567 255 255 255
0.217 0.271 0.808 255 255 255
-0.307 0.444 0.93 255 255 255
-0.029 -0.23 0.701 255 255 255
0.255 -0.125 0.475 255 255 255
-0.096 -0.304 0.683 255 255 255
-0.49 0.306 1.058 255 255 255
0.197 -0.306 0.476 255 255 255
-0.307 0.111 1.236 255 255 255
0.335 -0.005 0.563 255 255 255
-0.4 -0.323 0.887 255 255 255
-0.02 -0.108 0.695 255 255 255
-0.51 0.08 1.268 255 255 255
0.144 0.089 0.612 255 255 255
-0.194 -0.386 0.698 255 255 255
-0.092 -0.362 0.612 255 255 255
-0.072 -0.171 0.707 255 255 255
-0.367 -0.452 0.842 255 255 255
0.104 -0.157 0.64 255 255 255
0.187 -0.278 0.505 255 255 255
-0.518 0.148 1.16 255 255 255
0.195 -0.044 0.672 255 255 255
0.091 -0.307 0.559 255 255 255
-0.348 0.48 0.903 255 255 255
-0.255 0.182 1.161 255 255 255
-0.042 -0.05 0.676 255 255 255
-0.916 -0.255 1.588 255 255 255
0.284 -0.13 0.444 255 255 255
0.166 -0.134 0.6 255 255 255
-0.475 0.212 1.149 255 255 255
-0.134 -0.011 0.732 255 255 255
-0.336 0.23 1.062 255 255 255
-1.023 -0.215 1.565 255 255 255
0.359 -0.016 0.514 255 255 255
0.088 0.075 0.657 255 255 255
-0.358 -0.482 0.797 255 255 255
0.216 0.097 0.556 255 255 255
-0.775 0.05 1.311 255 255 255
-0.178 -0.212 0.747 255 255 255
0.161 -0.131 0.611 255 255 255
-0.202 -0.165 0.763 255 255 255
0.322 0.067 0.632 0 0 0
-0.427 0.388 0.983 255 255 255
0.333 -0.059 0.482 255 255 255
0.29 -0.126 0.443 255 255 255
0.156 -0.277 0.493 255 255 255
-0.448 -0.556 0.852 255 255 255
0.226 -0.115 0.54 255 255 255
-0.335 -0.266 0.83 255 255 255
0.124 0.148 0.678 0 0 0
-0.916 -0.135 1.483 255 255 255
0.28 -0.081 0.507 255 255 255
0.141 -0.261 0.526 255 255 255
0.126 0.059 0.61 255 255 255
0.304 0.151 0.563 255 255 255
-0.046 -0.374 0.517 0 0 0
0.039 -0.207 0.664 255 255 255
-0.257 -0.254 0.882 255 255 255
0.116 -0.29 0.545 255 255 255
0.166 0.091 0.605 0 0 0
-0.094 -0.038 0.714 255 255 255
0.176 0.262 0.841 255 255 255
0.091 -0.343 0.471 0 0 0
0.257 -0.142 0.455 255 255 255
0.134 -0.206 0.517 255 255 255
0.215 0.405 0.932 255 255 255
0.181 -0.153 0.539 255 255 255
-0.026 -0.228 0.7 255 255 255
0.179 -0.278 0.49 255 255 255
0.279 0.227 0.692 255 255 255
-0.587 -0.289 0.894 255 255 255
-0.061 0.393 0.96 255 255 255
0.186 0.039 0.564 0 0 0
-1.051 -0.069 1.432 255 255 255
-0.402 -0.621 0.841 0 0 0
-0.124 -0.387 0.611 255 255 255
0.012 -0.344 0.548 255 255 255
0.161 -0.046 0.716 0 0 0
0.182 -0.129 0.587 255 255 255
0.068 -0.31 0.542 255 255 255
-0.494 -0.025 1.352 0 0 0
0.063 0.453 0.896 255 255 255
0.357 0.048 0.581 255 255 255
0.203 -0.138 0.531 255 255 255
-0.288 0.41 0.958 255 255 255
0.174 -0.084 0.668 255 255 255
0.107 0.021 0.62 0 0 0
0.203 0.111 0.589 255 255 255
-0.843 -0.062 1.412 255 255 255
-0.422 0.101 1.245 255 255 255
0.098 -0.212 0.565 255 255 255
0.06 -0.175 0.69 255 255 255
0.21 -0.069 0.632 255 255 255
-0.298 -0.227 0.79 255 255 255
0.125 0.252 0.902 0 0 0
0.245 0.408 0.927 255 255 255
0.3 -0.005 0.601 255 255 255
-0.491 -0.426 0.894 255 255 255
-0.048 0.021 0.683 255 255 255
0.262 0.003 0.631 255 255 255
-0.958 0.037 1.323 255 255 255
-0.076 0.071 0.732 255 255 255
0.228 -0.181 0.47 255 255 255
0 0.346 0.995 255 255 255
-0.171 -0.01 0.726 255 255 255
0.033 0.414 0.931 0 0 0
0.16 0.133 0.632 255 255 255
0.334 0.049 0.596 255 255 255
-0.321 0.45 0.926 255 255 255
-0.056 0.413 0.939 255 255 255
0.225 0.068 0.578 0 0 0
-0.03 -0.413 0.591 0 0 0
0.213 -0.357 0.501 255 255 255
0.332 0.438 0.87 255 255 255
0.023 -0.03 0.652 255 255 255
-0.089 0.191 1.13 255 255 255
-0.262 0.187 1.158 255 255 255
-0.277 0.452 0.919 255 255 255
0.206 0.254 0.845 255 255 255
-0.165 -0.379 0.682 255 255 255
0.218 0.222 0.76 255 255 255
-0.851 0.004 1.357 255 255 255
0.142 -0.275 0.53 255 255 255
-0.391 0.372 0.994 255 255 255
-0.142 -0.205 0.769 0 0 0
-0.091 -0.312 0.66 255 255 255
-0.067 -0.099 0.721 255 255 255
0.187 -0.278 0.504 255 255 255
-0.236 0.477 0.9 255 255 255
0.232 -0.255 0.491 255 255 255
0.292 -0.079 0.497 255 255 255
-0.017 -0.3 0.602 255 255 255
0.295 -0.147 0.437 255 255 255
-0.325 -0.203 0.774 255 255 255
-0.323 0.402 0.966 255 255 255
-0.229 0.466 0.907 255 255 255
0.25 -0.107 0.499 255 255 255
-0.057 -0.024 0.678 255 255 255
0.326 0.043 0.599 255 255 255
-0.122 -0.098 0.72 255 255 255
0.185 -0.161 0.515 255 255 255
0.241 0.473 0.87 255 255 255
-0.005 -0.13 0.728 0 0 0
0.002 0.385 0.959 255 255 255
0.085 -0.134 0.726 255 255 255
0.051 0.043 0.717 255 255 255
0.127 -0.315 0.428 0 0 0
-0.243 0.169 1.173 255 255 255
-0.558 0.314 1.058 255 255 255
0.197 -0.129 0.555 255 255 255
0.297 0.043 0.628 255 255 255
0.211 -0.189 0.481 255 255 255
0.114 -0.201 0.559 255 255 255
0.34 0.311 0.732 255 255 255
0.187 -0.236 0.505 255 255 255
-0.378 -0.12 0.861 255 255 255
-0.039 0.3 1.041 255 255 255
0.209 -0.112 0.574 255 255 255
0.019 -0.101 0.792 255 255 255
-0.004 0.376 0.969 255 255 255
-0.078 -0.398 0.631 255 255 255
0.179 -0.203 0.499 255 255 255
0.036 -0.24 0.592 255 255 255
0.048 -0.089 0.782 0 0 0
0.137 0.358 0.979 255 255 255
0.242 -0.095 0.543 255 255 255
0.223 -0.056 0.631 255 255 255
0.289 -0.123 0.447 255 255 255
0.091 -0.346 0.492 255 255 255
-0.482 0.202 1.161 255 255 255
-0.659 -0.099 1.378 255 255 255
-0.177 -0.059 0.795 255 255 255
-0.568 0.27 1.097 255 255 255
-0.291 -0.051 0.89 255 255 255
0.267 -0.004 0.629 255 255 255
-0.304 0.422 0.949 0 0 0
0.188 0.123 0.595 255 255 255
0.03 0.025 0.727 255 255 255
0.111 -0.027 0.652 255 255 255
0.216 0.072 0.561 255 255 255
0.324 -0.031 0.535 255 255 255
0.001 -0.014 0.73 255 255 255
-0.539 0.134 1.209 255 255 255
0.044 -0.418 0.585 255 255 255
-0.078 0.41 0.946 255 255 255
0.225 -0.062 0.627 255 255 255
0.09 -0.122 0.724 255 255 255
-0.893 -0.185 1.531 255 255 255
0.274 -0.062 0.547 255 255 255
-0.207 -0.12 0.772 255 255 255
0.28 0.275 0.744 255 255 255
-0.002 -0.241 0.65 255 255 255
-0.293 -0.378 0.854 255 255 255
-0.2 -0.589 0.771 0 0 0
-0.216 -0.379 0.735 255 255 255
-0.675 0.049 1.309 255 255 255
0.07 -0.052 0.688 255 255 255
0.349 -0.005 0.547 255 255 255
0.188 -0.321 0.466 255 255 255
-0.099 0.36 0.994 255 255 255
0.064 -0.348 0.536 255 255 255
0.005 0.135 0.908 255 255 255
-0.113 0.048 0.749 0 0 0
-0.445 0.309 1.053 255 255 255
-0.085 0.015 0.716 255 255 255
-0.006 0.454 0.902 255 255 255
0.187 -0.249 0.5 255 255 255
0.161 -0.15 0.569 255 255 255
0.231 -0.067 0.623 255 255 255
0.03 -0.193 0.705 255 255 255
-0.062 -0.085 0.713 255 255 255
0.226 -0.178 0.471 255 255 255
-0.395 -0.174 0.855 255 255 255
-0.038 0.431 0.924 0 0 0
-0.056 0.137 0.962 0 0 0
-0.098 -0.195 0.725 255 255 255
-0.361 -0.507 0.8 255 255 255
-0.369 0.124 1.223 255 255 255
0.159 0.023 0.578 0 0 0
0.167 0.039 0.579 0 0 0
-0.014 -0.053 0.671 255 255 255
0.153 -0.232 0.511 255 255 255
-0.171 0.166 1.158 255 255 255
0.216 -0.145 0.499 255 255 255
0.181 -0.069 0.69 255 255 255
-0.107 -0.168 0.759 255 255 255
-0.287 -0.329 0.868 0 0 0
0.026 0.026 0.73 255 255 255
-0.116 0.07 0.767 0 0 0
0.241 -0.265 0.495 255 255 255
-0.661 0.062 1.294 255 255 255
-0.448 -0.496 0.87 0 0 0
-0.188 0.365 0.994 255 255 255
0.09 -0.246 0.548 255 255 255
-0.424 -0.616 0.847 0 0 0
0.294 -0.125 0.441 255 255 255
-0.434 -0.061 1.189 255 255 255
0.019 -0.031 0.654 255 255 255
-0.984 -0.249 1.593 255 255 255
0.103 -0.126 0.702 255 255 255
0.261 -0.094 0.509 255 255 255
-0.571 0.109 1.243 255 255 255
-1.008 -0.191 1.544 255 255 255
-0.381 0.335 1.027 255 255 255
-0.264 0.253 1.096 255 255 255
0.261 -0.089 0.517 255 255 255
-0.42 0.324 1.037 255 255 255
0.227 0.275 0.744 255 255 255
0.22 -0.175 0.472 255 255 255
-0.444 -0.259 0.881 255 255 255
-0.52 -0.397 0.897 255 255 255
-0.107 -0.36 0.605 255 255 255
0.115 0.284 1.021 255 255 255
-0.217 0.405 0.959 255 255 255
0.054 -0.282 0.57 255 255 255
0.166 -0.208 0.505 255 255 255
0.154 -0.082 0.697 255 255 255
0.044 0.32 1.019 255 255 255
0.03 0.204 0.95 0 0 0
0.247 -0.287 0.474 255 255 255
-0.578 0.239 1.128 255 255 255
0.109 0.315 1.02 255 255 255
0.098 -0.215 0.548 255 255 255
0.03 -0.119 0.794 0 0 0
0.123 -0.311 0.435 255 255 255
-0.297 0.131 1.214 255 255 255
0.055 -0.238 0.585 255 255 255
0.076 -0.249 0.552 255 255 255
-0.163 -0.222 0.74 255 255 255
-0.572 0.271 1.099 255 255 255
0.044 -0.243 0.573 0 0 0
-0.015 -0.067 0.676 255 255 255
0.324 0.344 0.769 255 255 255
0.066 -0.33 0.52 255 255 255
-0.193 -0.362 0.728 255 255 255
-0.088 0.337 1.014 255 255 255
-0.271 -0.219 0.809 255 255 255
0.114 -0.311 0.469 255 255 255
-0.284 0.478 0.898 255 255 255
-0.037 0.361 0.987 255 255 255
-0.159 -0.231 0.736 255 255 255
0.186 0.243 0.857 255 255 255
-0.175 0.225 1.104 255 255 255
0.194 -0.165 0.504 255 255 255
0.32 0.054 0.608 255 255 255
0.14 -0.282 0.458 255 255 255
0.094 -0.304 0.558 255 255 255
-0.073 0.381 0.974 255 255 255
0.225 -0.086 0.597 255 255 255
-0.825 0.053 1.309 255 255 255
0.067 -0.322 0.517 255 255 255
0.094 -0.303 0.515 255 255 255
-0.387 -0.505 0.815 255 255 255
-1.092 -0.291 1.643 255 255 255
0.174 0.062 0.581 255 255 255
-0.514 0.136 1.165 255 255 255
-0.646 -0.105 1.386 255 255 255
-0.194 0.354 1.006 255 255 255
-0.169 -0.191 0.775 0 0 0
-0.19 0.382 0.979 255 255 255
0.197 -0.28 0.461 255 255 255
0.281 -0.096 0.477 255 255 255
-0.66 -0.224 1.219 255 255 255
-0.101 -0.367 0.641 255 255 255
-0.151 -0.136 0.734 255 255 255
-0.066 0.465 0.896 255 255 255
-0.328 -0.474 0.778 255 255 255
-0.027 -0.013 0.668 255 255 255
-0.155 -0.217 0.738 0 0 0
-0.24 -0.625 0.817 0 0 0
0.017 0.446 0.905 255 255 255
0.283 -0.103 0.469 255 255 255
0.084 0.379 0.962 255 255 255
-0.156 0.408 0.952 255 255 255
-0.39 0.335 1.027 255 255 255
0.231 0.276 0.758 255 255 255
0.26 0.076 0.584 255 255 255
-0.519 0.098 1.253 255 255 255
0.321 -0.064 0.486 255 255 255
-0.252 0.163 1.181 255 255 255
0.104 -0.338 0.44 0 0 0
0.03 -0.061 0.699 255 255 255
-0.214 -0.304 0.86 255 255 255
0.229 -0.151 0.476 0 0 0
-0.353 -0.533 0.772 255 255 255
-0.917 0.037 1.327 255 255 255
-0.432 0.079 1.267 255 255 255
-0.424 -0.071 1.074 255 255 255
-0.819 0.056 1.306 255 255 255
-1.111 -0.318 1.668 0 0 0
0.142 0.026 0.574 255 255 255
0.232 -0.142 0.488 255 255 255
0.179 -0.048 0.684 255 255 255
0.312 0.319 0.752 255 255 255
0.27 -0.125 0.457 0 0 0
0.131 0.231 0.852 255 255 255
-0.036 0.218 1.102 255 255 255
-0.197 -0.452 0.685 255 255 255
0.203 -0.103 0.607 255 255 255
0.215 -0.279 0.462 0 0 0
-0.728 0.131 1.232 255 255 255
-0.503 -0.46 0.898 255 255 255
0.069 0.463 0.887 255 255 255
-0.123 0.033 0.744 0 0 0
0.276 0.261 0.718 255 255 255
-0.362 0.364 1 255 255 255
0.374 0.029 0.573 255 255 255
0.232 -0.161 0.463 255 255 255
-0.194 -0.065 0.781 255 255 255
0.237 -0.378 0.517 0 0 0
-0.399 -0.619 0.839 0 0 0
-0.153 0.238 1.093 255 255 255
-0.118 -0.084 0.714 255 255 255
-0.356 0.215 1.137 255 255 255
0.247 -0.291 0.456 255 255 255
-0.099 0.217 1.108 255 255 255
0.211 0.183 0.68 255 255 255
-0.384 -0.42 0.929 255 255 255
0.177 0.005 0.601 0 0 0
-0.294 -0.131 0.798 255 255 255
-0.256 0.217 1.129 255 255 255
0.054 0.395 0.949 255 255 255
0.284 0.435 0.899 255 255 255
-0.451 -0.095 1.03 255 255 255
0.156 -0.207 0.509 255 255 255
-0.075 -0.197 0.701 255 255 255
0.116 -0.261 0.529 255 255 255
0.344 0.005 0.572 255 255 255
0.314 0.229 0.652 255 255 255
0.149 0.274 0.902 255 255 255
0.077 -0.018 0.651 255 255 255
0.065 -0.294 0.559 255 255 255
-0.268 0.282 1.068 255 255 255
-0.058 0.411 0.94 255 255 255
0.044 -0.206 0.658 0 0 0
-0.112 -0.164 0.754 255 255 255
-0.034 0.01 0.676 255 255 255
-0.008 -0.387 0.592 255 255 255
-0.26 0.435 0.935 0 0 0
0.136 -0.274 0.482 0 0 0
-0.191 0.358 1 255 255 255
0.037 0.343 0.995 255 255 255
-0.184 -0.097 0.758 255 255 255
0.031 0.415 0.93 0 0 0
-0.421 -0.085 1.051 255 255 255
0.165 -0.161 0.549 255 255 255
-0.261 -0.357 0.844 255 255 255
-0.472 -0.171 0.983 255 255 255
0.273 0.158 0.605 255 255 255
-0.415 -0.048 1.166 255 255 255
0.222 -0.065 0.629 255 255 255
0.242 0.101 0.543 255 255 255
0.28 -0.098 0.474 255 255 255
-0.392 0.238 1.099 255 255 255
-0.149 -0.13 0.734 255 255 255
-0.054 -0.237 0.721 255 255 255
-0.342 0.496 0.892 255 255 255
-0.041 0.038 0.706 255 255 255
-0.271 -0.213 0.804 255 255 255
0.087 0.032 0.63 255 255 255
0.235 0.309 0.825 255 255 255
0.391 0.026 0.552 255 255 255
0.224 -0.139 0.5 255 255 255
0.204 -0.092 0.617 255 255 255
0.048 0.311 1.026 255 255 255
-0.669 0.015 1.338 255 255 255
-0.437 -0.273 0.882 255 255 255
0.052 -0.419 0.578 0 0 0
-0.048 -0.268 0.672 255 255 255
0.101 -0.3 0.555 255 255 255
-0.582 -0.243 0.924 255 255 255
0.039 -0.307 0.577 255 255 255
-0.759 -0.054 1.403 255 255 255
0.122 0.033 0.598 0 0 0
0.043 -0.066 0.703 255 255 255
-0.391 -0.347 0.887 255 255 255
0.12 -0.107 0.708 0 0 0
0.305 -0.13 0.432 255 255 255
0.278 0.236 0.705 255 255 255
0.115 -0.169 0.605 255 255 255
-0.115 -0.319 0.685 255 255 255
0.299 0.057 0.644 0 0 0
-0.07 0.04 0.711 255 255 255
-0.44 0.077 1.267 255 255 255
0.087 -0.347 0.492 255 255 255
0.132 -0.184 0.559 255 255 255
-0.129 -0.322 0.7 255 255 255
-0.102 -0.201 0.711 255 255 255
0.17 -0.246 0.515 255 255 255
-0.346 -0.266 0.835 255 255 255
0.306 -0.072 0.49 255 255 255
0.316 0.424 0.878 255 255 255
-0.444 -0.516 0.853 255 255 255
0.276 0.419 0.912 255 255 255
0.089 -0.202 0.591 255 255 255
-0.137 -0.385 0.638 255 255 255
0.306 0.224 0.651 255 255 255
-0.366 0.267 1.045 255 255 255
0.277 -0.261 0.475 255 255 255
0.097 -0.347 0.456 0 0 0
-0.088 -0.289 0.693 255 255 255
0.28 0.024 0.635 255 255 255
0.134 -0.255 0.521 255 255 255
0.136 0.017 0.594 255 255 255
0.025 -0.256 0.594 0 0 0
0.062 -0.133 0.739 255 255 255
0.216 -0.375 0.487 0 0 0
0.184 -0.078 0.662 255 255 255
-0.228 -0.359 0.781 255 255 255
-0.166 -0.15 0.745 255 255 255
0.173 -0.09 0.657 255 255 255
0.185 -0.144 0.553 255 255 255
0.226 -0.075 0.625 0 0 0
-0.649 0.116 1.243 255 255 255
0.088 0.474 0.877 255 255 255
0.249 -0.113 0.496 255 255 255
0.092 0.081 0.656 255 255 255
-0.137 -0.371 0.669 255 255 255
-0.492 0.19 1.16 255 255 255
-0.156 -0.463 0.651 255 255 255
-0.306 0.464 0.913 255 255 255
0.32 -0.059 0.495 255 255 255
-0.374 -0.14 0.825 255 255 255
-0.354 -0.542 0.77 255 255 255
0.109 -0.302 0.511 255 255 255
-0.259 0.398 0.967 255 255 255
0.339 -0.034 0.512 255 255 255
-0.05 -0.109 0.726 255 255 255
0.213 0.474 0.871 255 255 255
0.114 0.046 0.611 0 0 0
-0.071 0.393 0.96 255 255 255
-0.275 0.28 1.07 255 255 255
-0.013 -0.373 0.581 255 255 255
0.167 0.451 0.895 255 255 255
0.107 0.099 0.654 255 255 255
0.148 0.05 0.581 0 0 0
-0.304 -0.458 0.763 255 255 255
-0.566 0.091 1.26 255 255 255
-0.177 0.032 0.751 255 255 255
-0.292 -0.403 0.799 255 255 255
0.124 0.044 0.598 0 0 0
0.335 0.367 0.786 255 255 255
0.062 -0.215 0.603 255 255 255
0.312 0.28 0.703 255 255 255
-0.294 -0.223 0.789 255 255 255
0.176 0.312 0.977 255 255 255
-0.476 -0.316 0.873 255 255 255
-0.5 0.319 1.047 255 255 255
0.013 -0.2 0.713 255 255 255
-0.441 -0.371 0.903 255 255 255
0.256 -0.227 0.471 255 255 255
0.291 0.284 0.745 255 255 255
0.02 0.171 0.915 255 255 255
0.282 -0.147 0.441 255 255 255
0.377 0.086 0.596 255 255 255
0.12 0.064 0.622 255 255 255
0.103 -0.346 0.502 255 255 255
0.157 -0.1 0.666 255 255 255
0.113 -0.34 0.516 255 255 255
-0.431 -0.537 0.841 255 255 255
0.271 0.25 0.725 255 255 255
-0.151 0.376 0.984 255 255 255
0.223 -0.115 0.542 255 255 255
0.261 -0.057 0.577 255 255 255
-0.02 0.044 0.761 255 255 255
-0.011 0.265 1.06 255 255 255
-0.448 -0.376 0.896 255 255 255
0.156 -0.144 0.595 255 255 255
-0.559 0.104 1.25 255 255 255
-0.737 0.134 1.231 255 255 255
-0.244 -0.453 0.728 255 255 255
0.159 -0.17 0.544 255 255 255
0.329 0.015 0.594 255 255 255
-1.006 -0.051 1.413 255 255 255
0.08 0.461 0.888 255 255 255
0.324 0.255 0.674 255 255 255
0.141 0.19 0.757 255 255 255
-0.281 -0.381 0.82 255 255 255
0.101 0.108 0.666 255 255 255
-0.255 0.13 1.21 255 255 255
-0.17 0.229 1.102 255 255 255
0.095 0.442 0.903 255 255 255
-0.445 0.051 1.291 255 255 255
-0.077 -0.413 0.632 255 255 255
0.006 -0.16 0.765 255 255 255
0.12 0.024 0.599 255 255 255
0.296 -0.014 0.587 255 255 255
-0.279 0.354 1.006 255 255 255
0.215 -0.113 0.558 255 255 255
0.001 -0.068 0.698 255 255 255
-0.057 0.258 1.069 255 255 255
0.313 0.022 0.603 255 255 255
0.183 0.244 0.861 255 255 255
-0.012 -0.387 0.526 0 0 0
0.083 -0.168 0.649 255 255 255
-0.54 -0.239 0.92 255 255 255
0.081 -0.237 0.546 255 255 255
0.208 -0.161 0.489 0 0 0
-0.018 -0.382 0.543 255 255 255
-0.31 -0.107 0.815 255 255 255
-0.247 0.125 1.209 255 255 255
-0.268 -0.444 0.743 255 255 255
0.065 -0.192 0.652 255 255 255
-0.085 0.029 0.722 255 255 255
-0.037 -0.083 0.68 255 255 255
0.159 0.448 0.896 255 255 255
-0.168 0.354 1.005 255 255 255
0.276 -0.182 0.456 255 255 255
0.123 0.077 0.611 0 0 0
-0.058 0.425 0.931 0 0 0
0.138 -0.287 0.534 255 255 255
0.248 -0.028 0.645 255 255 255
0.298 -0.045 0.545 255 255 255
-0.05 -0.148 0.729 255 255 255
-0.051 0.159 1.004 255 255 255
0.127 -0.073 0.687 0 0 0
0.101 0.433 0.912 255 255 255
-0.398 0.066 1.276 255 255 255
0.24 -0.146 0.466 255 255 255
-0.202 -0.323 0.809 255 255 255
-0.099 -0.097 0.732 255 255 255
0.118 0.217 0.894 255 255 255
0.244 -0.073 0.586 255 255 255
-0.29 -0.193 0.784 255 255 255
-0.121 -0.055 0.727 255 255 255
0.145 0.261 0.892 0 0 0
-0.957 -0.07 1.428 255 255 255
-0.118 -0.217 0.711 0 0 0
-0.016 -0.129 0.707 255 255 255
0.111 -0.321 0.508 255 255 255
-0.257 -0.025 0.872 255 255 255
-0.02 0.104 0.896 255 255 255
-0.342 -0.129 0.802 255 255 255
-1.115 -0.323 1.673 0 0 0
0.302 0.005 0.602 255 255 255
0.101 -0.307 0.555 255 255 255
-0.213 0.202 1.127 255 255 255
0.044 -0.253 0.566 255 255 255
-0.485 -0.132 1.036 255 255 255
0.215 0.348 0.979 255 255 255
0.319 -0.021 0.561 255 255 255
0.16 -0.084 0.696 255 255 255
-0.135 -0.213 0.746 0 0 0
-0.101 -0.178 0.778 255 255 255
-0.245 -0.536 0.746 255 255 255
-0.51 0.012 1.331 255 255 255
0.011 -0.343 0.549 255 255 255
0.364 0.004 0.542 255 255 255
-0.208 -0.452 0.712 255 255 255
0.011 0.23 1.073 255 255 255
-0.166 0.453 0.91 255 255 255
0.068 -0.205 0.608 255 255 255
-0.262 -0.468 0.743 255 255 255
-0.2 -0.38 0.706 255 255 255
-0.478 0.107 1.244 255 255 255
0.038 -0.14 0.752 255 255 255
0.183 0.156 0.624 255 255 255
0.082 0.099 0.67 255 255 255
-0.117 0.003 0.73 255 255 255
0.268 0.016 0.638 255 255 255
0.289 -0.177 0.45 255 255 255
-0.313 0.339 1.019 255 255 255
0.242 0.103 0.545 255 255 255
0.021 -0.208 0.677 255 255 255
0.267 -0.078 0.53 255 255 255
0.265 0.096 0.559 255 255 255
-0.249 -0.194 0.783 255 255 255
0.148 -0.32 0.464 255 255 255
0.275 -0.187 0.455 255 255 255
0.218 0.237 0.762 255 255 255
-0.06 0.484 0.884 255 255 255
-0.423 0.406 0.969 255 255 255
0.276 -0.21 0.46 255 255 255
-0.181 0.215 1.114 255 255 255
0.229 -0.093 0.566 255 255 255
0.305 -0.001 0.604 255 255 255
-0.308 0.394 0.973 255 255 255
0.281 0.166 0.599 255 255 255
0.386 0.02 0.545 255 255 255
-0.289 -0.19 0.786 255 255 255
0.302 -0.049 0.536 255 255 255
-0.547 -0.344 0.869 255 255 255
-0.431 0.418 0.961 0 0 0
-0.138 -0.294 0.761 255 255 255
-0.309 0.111 1.236 255 255 255
-0.553 -0.217 0.937 255 255 255
0.122 -0.209 0.524 255 255 255
-0.222 -0.607 0.786 0 0 0
-0.459 -0.468 0.893 0 0 0
0.099 -0.014 0.636 255 255 255
0.206 -0.366 0.479 0 0 0
0.306 -0.115 0.445 255 255 255
-0.149 -0.207 0.758 0 0 0
0.25 -0.287 0.465 255 255 255
0.111 -0.233 0.535 255 255 255
-0.145 0.298 1.05 255 255 255
-0.384 0.068 1.274 0 0 0
-0.906 -0.117 1.468 255 255 255
0.104 -0.151 0.665 255 255 255
-0.272 0.452 0.919 255 255 255
0.336 0.013 0.594 255 255 255
0.293 -0.076 0.5 255 255 255
-0.013 -0.328 0.602 255 255 255
-0.254 0.155 1.19 255 255 255
0.101 0.395 0.946 255 255 255
0.318 0.104 0.552 255 255 255
-0.177 -0.161 0.755 255 255 255
0.18 0.407 0.931 255 255 255
-0.103 0.22 1.108 255 255 255
0.015 0.44 0.912 255 255 255
0.126 0.002 0.641 255 255 255
0.113 -0.207 0.546 255 255 255
-0.478 -0.27 0.897 255 255 255
0.191 -0.131 0.559 255 255 255
-0.08 -0.086 0.715 255 255 255
0.174 -0.233 0.502 255 255 255
-0.646 0.252 1.121 255 255 255
0.253 -0.144 0.455 255 255 255
-0.168 -0.049 0.768 255 255 255
-0.313 0.379 0.986 255 255 255
-0.206 -0.158 0.763 255 255 255
0.221 -0.309 0.459 255 255 255
0.126 0.185 0.775 255 255 255
-0.06 0.007 0.681 255 255 255
0.188 0.112 0.584 255 255 255
0.199 0.469 0.873 255 255 255
0.376 0.004 0.533 255 255 255
-0.024 -0.195 0.732 0 0 0
-0.358 0.188 1.163 255 255 255
-0.085 0.469 0.894 255 255 255
0.186 0.098 0.577 255 255 255
0.051 -0.218 0.617 255 255 255
-0.526 0.11 1.241 255 255 255
-0.526 0.02 1.324 255 255 255
-0.375 0.083 1.261 0 0 0
0.043 0.427 0.921 0 0 0
-0.357 -0.517 0.774 255 255 255
0.227 0.199 0.717 255 255 255
-0.046 -0.36 0.61 255 255 255
-0.273 -0.26 0.877 0 0 0
-0.215 0.138 1.197 255 255 255
0.267 -0.045 0.595 255 255 255
-0.036 -0.244 0.692 255 255 255
-0.097 0.36 0.994 255 255 255
0.002 -0.319 0.594 255 255 255
-0.322 0.191 1.16 255 255 255
-0.036 0.224 1.097 255 255 255
-0.249 -0.43 0.732 255 255 255
-0.132 0.249 1.081 255 255 255
0.283 0.161 0.598 255 255 255
-0.341 0.255 1.058 255 255 255
0 0.324 1.018 255 255 255
-0.025 -0.029 0.668 255 255 255
-0.143 -0.104 0.733 255 255 255
0.234 0.107 0.557 0 0 0
0.111 -0.033 0.668 255 255 255
0.378 0.022 0.557 255 255 255
-0.381 -0.277 0.863 255 255 255
0.057 -0.201 0.628 255 255 255
0.124 -0.187 0.565 255 255 255
0.133 0.166 0.675 255 255 255
-0.182 -0.519 0.71 0 0 0
-0.542 0.125 1.224 255 255 255
0.25 -0.046 0.612 255 255 255
0.114 -0.114 0.715 255 255 255
0.334 0.456 0.856 255 255 255
-0.531 -0.267 0.907 255 255 255
-0.092 -0.381 0.52 0 0 0
-0.216 0.181 1.145 255 255 255
-0.184 -0.006 0.719 255 255 255
-0.339 -0.231 0.818 255 255 255
-0.034 -0.357 0.618 255 255 255
0.017 -0.351 0.548 255 255 255
0.271 0.154 0.605 255 255 255
0.211 -0.163 0.479 0 0 0
-0.021 0.481 0.881 255 255 255
0.24 -0.142 0.473 0 0 0
0.309 0.045 0.614 255 255 255
0.18 -0.121 0.599 255 255 255
-0.253 -0.295 0.912 255 255 255
-0.268 0.494 0.887 255 255 255
0.076 -0.209 0.594 255 255 255
0.178 -0.174 0.511 0 0 0
-0.457 0.144 1.159 0 0 0
0.112 -0.327 0.466 255 255 255
-0.439 -0.204 0.899 255 255 255
-0.173 -0.364 0.691 255 255 255
-0.324 0.195 1.156 255 255 255
0.103 0.123 0.682 255 255 255
0.12 -0.023 0.642 255 255 255
0.189 0.113 0.579 255 255 255
-0.038 -0.4 0.6 255 255 255
-0.508 0.203 1.158 255 255 255
0.216 -0.164 0.471 255 255 255
0.151 0.009 0.611 255 255 255
-0.345 -0.465 0.799 255 255 255
-0.049 0.198 1.103 255 255 255
0.342 -0.06 0.474 255 255 255
-0.085 0.063 0.731 255 255 255
-0.711 -0.035 1.386 255 255 255
-0.01 0.415 0.935 0 0 0
-0.051 0.387 0.963 255 255 255
-0.587 -0.272 0.906 255 255 255
-0.211 0.457 0.911 255 255 255
-0.364 0.24 1.058 255 255 255
-0.166 -0.327 0.743 255 255 255
-0.122 -0.114 0.727 255 255 255
0.314 -0.097 0.454 255 255 255
0.153 0.481 0.871 255 255 255
-0.176 -0.047 0.749 255 255 255
0.186 -0.132 0.564 255 255 255
0.038 -0.043 0.683 255 255 255
0.183 -0.247 0.503 255 255 255
0.216 0.094 0.555 0 0 0
0.08 0.034 0.643 0 0 0
0.028 0.263 1.06 255 255 255
0.059 0.035 0.644 255 255 255
-0.002 0.353 0.99 255 255 255
0.188 0.068 0.577 255 255 255
0.196 -0.033 0.704 0 0 0
-0.596 -0.225 0.938 255 255 255
-0.371 -0.58 0.803 0 0 0
-0.106 -0.166 0.757 255 255 255
-0.218 -0.111 0.787 255 255 255
0.315 0.046 0.608 255 255 255
-0.385 -0.128 0.865 255 255 255
-0.261 -0.032 0.874 255 255 255
-0.349 0.223 1.128 255 255 255
0.119 -0.32 0.423 0 0 0
-0.179 -0.098 0.757 255 255 255
-0.081 -0.23 0.711 0 0 0
-0.034 -0.123 0.725 255 255 255
0.166 0.033 0.581 0 0 0
0.307 0.142 0.551 255 255 255
0.271 0.446 0.893 255 255 255
0.236 0.314 0.826 255 255 255
0.207 0.15 0.598 255 255 255
-0.061 -0.082 0.71 255 255 255
0.165 -0.101 0.663 255 255 255
-0.131 -0.075 0.722 255 255 255
-0.631 -0.202 1.227 255 255 255
-0.463 -0.163 0.976 255 255 255
-0.183 0.351 1.005 255 255 255
0.194 0.261 0.817 255 255 255
0.299 -0.117 0.447 255 255 255
0.216 0.105 0.559 255 255 255
0.24 -0.141 0.48 255 255 255
0.144 -0.195 0.513 255 255 255
-0.164 -0.195 0.779 255 255 255
0.224 -0.216 0.474 255 255 255
0.09 -0.171 0.639 255 255 255
-0.067 -0.028 0.686 255 255 255
-0.063 0.156 1.009 0 0 0
-0.406 -0.547 0.823 255 255 255
-0.284 0.352 1.007 255 255 255
-0.326 -0.15 0.78 255 255 255
-0.171 0.338 1.017 255 255 255
0.276 -0.259 0.475 255 255 255
0.06 -0.049 0.685 255 255 255
-0.278 -0.369 0.845 255 255 255
0.229 -0.117 0.523 255 255 255
0.249 -0.085 0.546 255 255 255
-0.411 0.179 1.175 255 255 255
0.307 0.213 0.634 255 255 255
-0.569 -0.314 0.867 255 255 255
-0.151 -0.302 0.77 255 255 255
0.16 -0.172 0.54 255 255 255
-0.19 -0.087 0.77 255 255 255
-0.29 0.136 1.208 255 255 255
-0.331 0.49 0.893 255 255 255
0.059 -0.267 0.562 255 255 255
0.225 -0.159 0.467 255 255 255
-0.285 -0.116 0.836 255 255 255
-0.542 -0.368 0.904 255 255 255
-0.08 -0.377 0.622 255 255 255
0.132 -0.284 0.457 255 255 255
-0.031 -0.124 0.72 255 255 255
-0.008 -0.101 0.693 255 255 255
0.201 -0.157 0.504 255 255 255
0.099 -0.155 0.668 255 255 255
-0.02 0.177 0.986 0 0 0
0.356 -0.027 0.5 255 255 255
0.21 -0.198 0.478 0 0 0
0.137 0.149 0.662 0 0 0
-0.169 -0.298 0.812 255 255 255
-0.657 0.109 1.248 255 255 255
0.01 -0.103 0.747 255 255 255
-0.138 0.323 1.029 255 255 255
0.208 -0.361 0.49 0 0 0
0.185 -0.187 0.49 255 255 255
-0.566 -0.286 0.885 255 255 255
0.318 0.254 0.68 255 255 255
0.21 -0.284 0.504 255 255 255
-0.242 0.237 1.101 255 255 255
-0.47 0.057 1.288 255 255 255
0.344 0.058 0.592 255 255 255
-0.261 -0.396 0.765 255 255 255
0.191 -0.292 0.461 255 255 255
0.19 0.271 0.836 255 255 255
-0.3 -0.663 0.866 0 0 0
0.143 -0.284 0.532 255 255 255
-0.026 -0.108 0.704 255 255 255
-0.018 -0.071 0.676 255 255 255
0.179 0.4 0.936 255 255 255
0.095 -0.346 0.499 255 255 255
-0.524 0.178 1.172 255 255 255
-0.038 -0.36 0.618 255 255 255
