ply
format ascii 1.0
comment Created by Open3D
element vertex 1599
property double x
property double y
property double z
property uchar red
property uchar green
property uchar blue
end_header
-0.005 0.025 0.66 255 255 255
-0.044 -0.199 0.699 255 255 255
0.207 0.414 0.872 0 0 0
-0.258 0.258 1.012 255 255 255
-0.028 0.294 0.97 255 255 255
0.17 -0.21 0.437 255 255 255
0.075 -0.148 0.676 255 255 255
-0.695 0.022 1.209 255 255 255
-0.011 -0.174 0.672 0 0 0
-0.164 -0.063 0.648 255 255 255
0.332 -0.078 0.507 0 0 0
-0.39 0.353 0.945 255 255 255
0.079 -0.001 0.583 0 0 0
-0.55 0.268 1.018 255 255 255
0.136 -0.249 0.446 255 255 255
0.153 0.432 0.863 255 255 255
0.127 -0.215 0.465 0 0 0
0.138 -0.096 0.64 255 255 255
0.184 -0.214 0.432 255 255 255
-0.156 -0.343 0.547 255 255 255
0.328 -0.074 0.528 255 255 255
-0.328 0.413 0.897 0 0 0
0.272 0.409 0.869 0 0 0
0.31 0.075 0.531 255 255 255
0.139 0.03 0.594 0 0 0
0.156 0.032 0.596 255 255 255
0.046 -0.277 0.479 255 255 255
0.212 -0.196 0.427 255 255 255
0.098 -0.209 0.512 255 255 255
0.179 -0.121 0.587 255 255 255
-0.567 0.245 1.035 255 255 255
-0.196 -0.365 0.561 255 255 255
0.221 -0.243 0.419 255 255 255
-0.564 0.203 1.067 255 255 255
-0.641 0.197 1.077 255 255 255
0.253 -0.116 0.522 255 255 255
0.149 -0.346 0.454 0 0 0
0.127 0.016 0.573 255 255 255
0.083 0.064 0.627 0 0 0
-0.327 -0.272 0.683 255 255 255
-0.13 0.226 1.028 255 255 255
-0.463 -0.193 0.709 255 255 255
-0.078 -0.081 0.625 255 255 255
-0.075 -0.109 0.662 255 255 255
0.059 -0.093 0.625 255 255 255
-0.207 -0.407 0.554 0 0 0
-0.062 -0.237 0.632 255 255 255
0.11 -0.334 0.475 255 255 255
0.198 -0.172 0.473 255 255 255
-0.395 -0.388 0.7 255 255 255
0.008 -0.025 0.606 0 0 0
0.225 0.061 0.582 255 255 255
-0.042 -0.267 0.544 255 255 255
0.32 -0.108 0.476 255 255 255
0.169 0.182 0.846 255 255 255
0.261 0.081 0.576 255 255 255
0.262 0.115 0.627 255 255 255
0.206 0.12 0.699 255 255 255
0.179 0.285 0.965 255 255 255
-0.144 0.44 0.872 255 255 255
-0.079 -0.187 0.713 255 255 255
-0.245 0.371 0.924 255 255 255
0.152 -0.271 0.441 255 255 255
0.176 0.032 0.552 255 255 255
0.211 0.01 0.564 255 255 255
0.017 -0.225 0.559 255 255 255
-0.304 -0.336 0.696 255 255 255
0.117 -0.188 0.531 255 255 255
0.189 -0.028 0.633 255 255 255
-0.258 -0.225 0.715 0 0 0
0.256 -0.11 0.531 255 255 255
0.294 0.016 0.495 255 255 255
0.09 -0.221 0.493 255 255 255
0.19 -0.057 0.636 255 255 255
-0.683 -0.021 1.24 255 255 255
0.243 -0.218 0.418 255 255 255
-0.049 -0.183 0.699 255 255 255
0.095 -0.3 0.46 255 255 255
0.219 0.412 0.872 0 0 0
-0.129 0.389 0.905 255 255 255
-0.488 0.097 1.145 255 255 255
-0.284 -0.228 0.7 0 0 0
-0.263 0.017 0.743 0 0 0
0.216 0.196 0.83 255 255 255
-0.461 0.209 1.024 0 0 0
-0.151 0.439 0.873 255 255 255
0.203 -0.307 0.44 255 255 255
-0.051 0.336 0.942 255 255 255
0.004 0.019 0.644 0 0 0
-0.629 0.09 1.097 0 0 0
-0.139 -0.262 0.673 255 255 255
0.243 0.26 0.873 255 255 255
-0.12 -0.313 0.537 255 255 255
-0.069 -0.095 0.651 255 255 255
-0.73 0.091 1.157 255 255 255
-0.057 0.398 0.895 0 0 0
-0.382 0.287 0.995 255 255 255
0.29 0.068 0.536 255 255 255
-0.315 -0.11 0.748 255 255 255
-0.057 0.339 0.939 255 255 255
0.074 -0.048 0.587 255 255 255
0.058 -0.263 0.474 255 255 255
0.22 -0.126 0.54 255 255 255
0.103 -0.196 0.531 255 255 255
-0.131 -0.077 0.714 255 255 255
0.082 0.265 0.99 255 255 255
0.196 -0.175 0.47 255 255 255
-0.37 -0.131 0.751 255 255 255
0.227 -0.192 0.421 255 255 255
0.263 0.378 0.893 255 255 255
0.031 -0.113 0.657 0 0 0
-0.009 -0.319 0.492 255 255 255
0.139 -0.269 0.448 255 255 255
-0.235 -0.353 0.595 255 255 255
0.207 -0.095 0.603 0 0 0
-0.289 -0.191 0.685 255 255 255
0.214 0.362 0.9 255 255 255
-0.114 0.14 1.07 255 255 255
0.194 0.332 0.938 0 0 0
0.035 -0.01 0.596 255 255 255
0.193 0.113 0.701 255 255 255
-0.272 0.281 0.996 255 255 255
0.003 -0.296 0.497 255 255 255
0.359 0.277 0.77 255 255 255
-0.044 0.132 0.94 255 255 255
-0.348 -0.269 0.699 255 255 255
-0.38 -0.141 0.737 255 255 255
0.089 -0.183 0.572 255 255 255
-0.045 -0.014 0.638 255 255 255
0.271 0.108 0.609 255 255 255
0.061 0.453 0.852 255 255 255
0.086 -0.234 0.473 0 0 0
-0.973 -0.155 1.315 255 255 255
-0.262 -0.395 0.586 255 255 255
0.048 -0.225 0.53 255 255 255
-0.816 -0.027 1.25 255 255 255
0.03 -0.201 0.604 255 255 255
0.108 0.011 0.577 0 0 0
0.288 -0.055 0.587 255 255 255
0.265 0.009 0.53 255 255 255
0.056 -0.086 0.614 255 255 255
0.166 0.274 0.977 0 0 0
-0.021 -0.321 0.497 255 255 255
0.011 0.125 0.905 255 255 255
-0.064 -0.122 0.669 255 255 255
-0.157 -0.173 0.659 255 255 255
-0.041 0.36 0.922 255 255 255
-0.245 0.356 0.936 255 255 255
0.226 -0.013 0.583 0 0 0
-0.122 0.042 0.866 255 255 255
-0.199 0.34 0.946 255 255 255
-0.178 -0.112 0.644 255 255 255
-0.09 -0.101 0.654 255 255 255
0.084 0.114 0.776 255 255 255
0.295 -0.074 0.561 255 255 255
-0.249 -0.13 0.674 255 255 255
0.003 -0.255 0.522 255 255 255
0.132 -0.195 0.484 255 255 255
0.243 -0.146 0.476 255 255 255
0.297 0.024 0.471 255 255 255
-0.564 0.261 1.022 255 255 255
-0.736 0.056 1.184 255 255 255
0.304 -0.129 0.461 255 255 255
-0.391 0.356 0.942 255 255 255
-0.264 -0.11 0.671 255 255 255
-0.246 -0.225 0.728 255 255 255
0.203 -0.155 0.497 255 255 255
-0.058 -0.098 0.651 255 255 255
0.229 0.021 0.54 255 255 255
-0.383 -0.379 0.707 255 255 255
-0.065 -0.299 0.514 255 255 255
-0.202 0.365 0.926 255 255 255
0.05 0.153 0.865 255 255 255
0.125 -0.161 0.566 255 255 255
0.21 -0.285 0.428 255 255 255
-0.583 0.054 1.182 255 255 255
-0.249 -0.39 0.581 255 255 255
0.245 -0.166 0.444 255 255 255
0.108 0.378 0.901 255 255 255
-0.451 -0.183 0.721 255 255 255
-0.128 -0.081 0.705 255 255 255
-0.371 0.103 1.124 255 255 255
-0.078 -0.268 0.583 255 255 255
0.266 -0.028 0.604 255 255 255
-0.021 -0.239 0.589 255 255 255
-0.121 0.377 0.912 255 255 255
-0.616 0.176 1.092 255 255 255
-0.232 -0.401 0.576 255 255 255
0.341 -0.051 0.56 255 255 255
0.096 -0.264 0.458 0 0 0
-0.311 -0.288 0.682 255 255 255
0.276 0.459 0.832 255 255 255
0.089 -0.283 0.467 255 255 255
-0.285 0.443 0.877 255 255 255
0.172 -0.058 0.656 255 255 255
-0.192 -0.416 0.537 0 0 0
-0.351 0.347 0.95 255 255 255
-0.009 -0.316 0.492 255 255 255
-0.453 -0.367 0.796 255 255 255
-0.142 0.409 0.894 0 0 0
-0.206 -0.082 0.68 255 255 255
0.384 -0.037 0.535 255 255 255
-0.519 0.309 0.986 255 255 255
-0.265 0.378 0.921 255 255 255
0.176 -0.285 0.441 255 255 255
0.249 -0.041 0.609 255 255 255
0.167 -0.232 0.435 255 255 255
-0.045 -0.269 0.546 255 255 255
0.39 0.302 0.797 255 255 255
-0.188 0.236 1.022 255 255 255
-0.452 -0.219 0.709 255 255 255
0.193 -0.204 0.431 255 255 255
-0.115 0.225 1.027 255 255 255
-0.407 0.262 1.014 255 255 255
-0.087 -0.235 0.675 255 255 255
-0.602 -0.206 0.822 255 255 255
0.102 -0.189 0.539 255 255 255
-0.313 -0.037 0.675 255 255 255
0.285 0.218 0.798 255 255 255
-0.374 0.434 0.891 255 255 255
0.331 -0.116 0.466 255 255 255
-0.046 -0.292 0.507 255 255 255
0.125 -0.287 0.45 255 255 255
0.191 0.096 0.674 255 255 255
-0.219 0.173 1.064 255 255 255
-0.024 -0.25 0.561 255 255 255
-0.28 -0.374 0.599 255 255 255
0.293 0.148 0.65 255 255 255
0.311 -0.072 0.541 255 255 255
-0.279 -0.252 0.691 0 0 0
0.251 0.129 0.664 255 255 255
0.243 0.025 0.514 255 255 255
0.039 -0.268 0.482 255 255 255
0.243 -0.191 0.414 255 255 255
0.108 -0.135 0.659 255 255 255
-0.276 -0.182 0.689 255 255 255
-0.331 -0.224 0.715 0 0 0
0.158 -0.157 0.532 255 255 255
0.282 0.091 0.569 255 255 255
0.294 0.073 0.539 255 255 255
0.152 0.389 0.892 255 255 255
-0.134 -0.308 0.56 255 255 255
-0.203 -0.334 0.587 255 255 255
0.111 -0.279 0.455 255 255 255
-0.211 0.177 1.061 255 255 255
-0.193 0.126 1.097 255 255 255
-0.096 -0.068 0.7 255 255 255
0.094 -0.166 0.602 255 255 255
-0.543 0.07 1.166 255 255 255
0.097 -0.225 0.484 255 255 255
-0.019 -0.261 0.538 255 255 255
-0.483 0.2 1.019 255 255 255
0.012 -0.242 0.538 255 255 255
0.3 0.247 0.769 255 255 255
0.141 -0.296 0.451 255 255 255
0.009 -0.028 0.602 0 0 0
-0.181 -0.131 0.656 255 255 255
0.036 -0.325 0.487 255 255 255
0.203 -0.225 0.429 255 255 255
-0.039 -0.229 0.616 255 255 255
0.001 0.065 0.702 255 255 255
0.286 0.235 0.77 255 255 255
-0.181 -0.159 0.683 255 255 255
-0.215 0.034 0.757 0 0 0
-0.012 -0.27 0.502 255 255 255
0.009 -0.209 0.615 255 255 255
-0.182 -0.354 0.557 255 255 255
-0.998 -0.091 1.308 255 255 255
0.065 0.441 0.862 255 255 255
0.274 0.041 0.472 255 255 255
0.183 -0.257 0.43 255 255 255
-0.26 0.446 0.871 255 255 255
-0.261 0.316 0.969 255 255 255
0.092 -0.033 0.557 0 0 0
0.247 0.455 0.837 255 255 255
-0.933 -0.008 1.241 255 255 255
-0.276 -0.37 0.605 255 255 255
-0.25 -0.022 0.705 0 0 0
0.224 0.037 0.516 255 255 255
-0.407 -0.36 0.778 255 255 255
-0.145 -0.315 0.563 255 255 255
-0.307 -0.371 0.641 255 255 255
0.127 -0.346 0.464 0 0 0
-0.104 -0.115 0.664 255 255 255
-0.696 0.138 1.119 255 255 255
0.135 0.08 0.616 255 255 255
-0.412 0.1 1.139 255 255 255
0.188 -0.279 0.436 255 255 255
-0.033 -0.081 0.625 255 255 255
-0.236 -0.098 0.685 255 255 255
0.002 -0.21 0.624 255 255 255
-0.02 -0.315 0.499 255 255 255
0.285 -0.137 0.459 255 255 255
-0.059 0.157 1.045 255 255 255
0.26 0.171 0.733 255 255 255
-0.185 0.271 0.996 255 255 255
0.36 -0.052 0.524 255 255 255
-0.114 0.329 0.949 255 255 255
0.23 0.299 0.926 0 0 0
-0.069 -0.292 0.52 255 255 255
-0.006 -0.262 0.517 255 255 255
0.272 0.015 0.52 255 255 255
-0.06 -0.226 0.659 255 255 255
0.11 -0.199 0.51 255 255 255
0.297 0.204 0.714 255 255 255
-0.308 -0.385 0.611 255 255 255
-0.083 0.363 0.922 255 255 255
-0.139 -0.135 0.651 255 255 255
-0.283 0.423 0.889 0 0 0
-0.033 0.126 0.911 255 255 255
-0.007 -0.267 0.504 255 255 255
-0.298 0.203 1.054 255 255 255
-0.323 -0.358 0.676 255 255 255
-0.087 0.103 0.92 255 255 255
0.23 0.144 0.718 255 255 255
0.274 -0.108 0.513 255 255 255
-0.426 -0.236 0.727 255 255 255
-0.215 -0.031 0.7 255 255 255
-0.491 -0.333 0.774 255 255 255
-0.457 0.099 1.142 255 255 255
0.231 -0.047 0.616 255 255 255
0.055 0.304 0.96 255 255 255
-0.085 -0.289 0.552 255 255 255
0.053 -0.321 0.478 255 255 255
0.12 -0.036 0.567 255 255 255
0.356 -0.08 0.497 255 255 255
-0.787 -0.226 1.063 255 255 255
0.127 -0.026 0.591 255 255 255
-0.203 -0.136 0.68 255 255 255
0.081 -0.24 0.465 255 255 255
0.163 -0.073 0.646 255 255 255
-0.281 0.355 0.939 255 255 255
-0.264 -0.371 0.589 255 255 255
0.26 -0.162 0.441 255 255 255
-0.023 0.194 1.045 255 255 255
-0.819 -0.089 1.293 255 255 255
0.054 -0.037 0.577 0 0 0
-0.396 0.338 0.958 255 255 255
-0.399 -0.337 0.799 255 255 255
0.189 -0.101 0.606 0 0 0
-0.076 0.295 0.972 255 255 255
0.313 0.381 0.886 255 255 255
-0.425 -0.084 0.834 255 255 255
0.149 0.394 0.888 0 0 0
-0.215 0.011 0.725 0 0 0
-0.693 0.003 1.223 255 255 255
0.144 -0.123 0.612 255 255 255
-0.405 -0.358 0.778 255 255 255
-0.274 -0.408 0.584 255 255 255
0.137 -0.179 0.511 255 255 255
0.164 -0.23 0.437 255 255 255
0.296 -0.094 0.515 255 255 255
-0.002 -0.281 0.494 255 255 255
0.078 -0.182 0.587 255 255 255
0.323 0.061 0.495 255 255 255
-0.486 -0.133 0.761 255 255 255
0.328 0.009 0.476 255 255 255
-0.22 0.206 1.047 255 255 255
-0.353 -0.338 0.755 255 255 255
0.207 0.401 0.882 0 0 0
-0.071 0.169 1.066 255 255 255
-0.309 -0.073 0.675 255 255 255
0.324 -0.114 0.469 255 255 255
-0.371 -0.389 0.672 255 255 255
-0.176 -0.166 0.686 255 255 255
0.242 -0.004 0.561 0 0 0
0.262 -0.009 0.564 0 0 0
0.223 -0.131 0.526 255 255 255
-0.481 -0.271 0.722 255 255 255
0.28 -0.063 0.59 255 255 255
-0.327 0.095 1.125 255 255 255
-0.144 -0.109 0.64 255 255 255
-0.097 -0.207 0.717 255 255 255
-0.343 0.362 0.938 255 255 255
0.039 -0.311 0.488 255 255 255
-0.189 0.058 0.946 255 255 255
-0.35 0.14 1.093 255 255 255
-0.5 0.065 1.168 255 255 255
-0.161 -0.063 0.648 255 255 255
0.048 0.015 0.617 255 255 255
0.032 -0.101 0.665 0 0 0
0.016 -0.023 0.607 0 0 0
-0.214 -0.417 0.546 0 0 0
0.176 0.251 0.963 0 0 0
0.158 -0.105 0.633 255 255 255
-0.357 0.405 0.908 0 0 0
-0.067 -0.087 0.643 255 255 255
0.324 0.129 0.59 255 255 255
0.14 -0.121 0.625 255 255 255
0.238 0.097 0.622 255 255 255
0.082 -0.279 0.464 255 255 255
-0.037 -0.235 0.607 255 255 255
-0.283 -0.101 0.695 255 255 255
0.197 -0.318 0.425 0 0 0
-0.325 0.014 0.736 0 0 0
-0.755 -0.05 1.265 255 255 255
-0.882 0.018 1.223 255 255 255
0.193 -0.128 0.558 255 255 255
0.319 0.249 0.755 255 255 255
-0.025 -0.053 0.611 0 0 0
0.263 -0.123 0.499 255 255 255
0.071 -0.248 0.467 255 255 255
-0.037 0.447 0.859 255 255 255
-0.013 -0.353 0.504 255 255 255
0.193 0.085 0.654 255 255 255
-0.043 0.267 0.992 255 255 255
0.122 -0.338 0.464 0 0 0
-0.094 -0.371 0.487 0 0 0
0.098 -0.013 0.585 0 0 0
-0.461 0.123 1.124 255 255 255
-0.044 -0.215 0.663 255 255 255
-0.211 -0.425 0.555 0 0 0
-0.16 0.37 0.923 255 255 255
0.166 -0.297 0.445 255 255 255
0.054 0.069 0.658 255 255 255
0.144 -0.09 0.638 255 255 255
0.115 0.433 0.864 255 255 255
0.209 0.345 0.901 255 255 255
0.342 -0.051 0.552 255 255 255
0.002 -0.349 0.5 255 255 255
-0.31 -0.009 0.706 255 255 255
0.079 -0.146 0.675 255 255 255
-0.348 -0.347 0.736 255 255 255
-0.168 -0.076 0.644 255 255 255
-0.106 0.415 0.887 0 0 0
-0.15 -0.389 0.504 0 0 0
-0.239 -0.329 0.64 255 255 255
-0.234 -0.088 0.687 255 255 255
-0.056 -0.089 0.645 255 255 255
-0.111 -0.238 0.699 255 255 255
-0.6 -0.117 0.956 255 255 255
0.03 0.404 0.885 0 0 0
0.185 0.265 0.966 255 255 255
0.183 -0.202 0.441 255 255 255
0.073 0.213 1.012 255 255 255
0.075 -0.257 0.467 255 255 255
0.088 -0.246 0.462 255 255 255
-0.03 0.409 0.887 0 0 0
-0.383 0.368 0.934 255 255 255
-0.137 -0.079 0.713 255 255 255
0.064 0.344 0.93 255 255 255
0.233 -0.136 0.505 255 255 255
-0.318 -0.257 0.685 255 255 255
-0.227 -0.24 0.667 255 255 255
-0.329 0.158 1.078 255 255 255
-0.086 -0.273 0.583 255 255 255
0.422 0.354 0.901 255 255 255
0.113 0.317 0.946 255 255 255
0.158 -0.341 0.451 0 0 0
-0.148 0.213 1.039 255 255 255
0.09 -0.328 0.475 255 255 255
-0.062 -0.291 0.516 255 255 255
-0.276 -0.38 0.592 255 255 255
0.138 -0.321 0.46 255 255 255
-0.226 0.3 0.978 255 255 255
0.025 -0.329 0.489 255 255 255
-0.102 -0.271 0.602 255 255 255
0.297 0.036 0.45 255 255 255
-0.042 0.209 1.037 255 255 255
-0.398 0.303 0.985 255 255 255
0.386 -0.038 0.535 255 255 255
-0.294 -0.055 0.687 255 255 255
0.119 0.174 0.829 255 255 255
-0.012 -0.039 0.61 255 255 255
0.253 -0.085 0.585 0 0 0
0.296 0.106 0.581 255 255 255
0.129 -0.143 0.611 255 255 255
0.312 0.094 0.55 255 255 255
0.063 -0.244 0.472 255 255 255
-0.071 -0.316 0.521 255 255 255
0.173 -0.185 0.468 255 255 255
-0.228 -0.029 0.702 255 255 255
-0.058 -0.107 0.657 255 255 255
0.08 -0.003 0.583 255 255 255
0.251 0.041 0.494 255 255 255
-0.081 -0.107 0.66 255 255 255
0.318 -0.055 0.573 255 255 255
-0.307 0.006 0.723 0 0 0
0.164 -0.006 0.594 255 255 255
-0.16 -0.137 0.648 255 255 255
0.279 -0.12 0.49 255 255 255
-0.056 -0.313 0.516 255 255 255
0.086 -0.217 0.506 255 255 255
0.287 0.393 0.879 0 0 0
0.057 -0.266 0.475 255 255 255
-0.369 -0.145 0.737 255 255 255
0.172 -0.221 0.435 255 255 255
0.304 -0.035 0.578 255 255 255
0.133 -0.155 0.573 255 255 255
0.339 0.388 0.88 0 0 0
0.004 0.41 0.884 0 0 0
0.027 0.219 1.023 255 255 255
-0.174 -0.386 0.532 0 0 0
0.281 0.367 0.901 255 255 255
0.225 0.007 0.56 255 255 255
-0.556 0.138 1.117 255 255 255
0.039 -0.325 0.479 255 255 255
0.122 -0.242 0.453 255 255 255
-0.004 0.058 0.704 0 0 0
-0.507 0.254 1.02 255 255 255
-0.627 -0.097 1.118 255 255 255
0.28 0.211 0.77 255 255 255
-0.375 -0.235 0.71 255 255 255
0.29 0.145 0.65 255 255 255
0.163 0.455 0.848 255 255 255
0.173 -0.212 0.435 255 255 255
0.24 0.077 0.591 255 255 255
0.211 0.331 0.914 255 255 255
-0.236 0.22 1.038 255 255 255
0.287 0.325 0.918 255 255 255
0.042 0.275 0.983 255 255 255
-0.309 -0.012 0.707 255 255 255
0.109 -0.053 0.572 0 0 0
-0.074 -0.118 0.667 255 255 255
-0.135 -0.317 0.552 0 0 0
0.239 0.34 0.911 0 0 0
0.138 -0.123 0.621 255 255 255
-0.245 -0.28 0.653 0 0 0
-0.265 0.383 0.918 255 255 255
0.241 -0.076 0.602 255 255 255
-0.23 0.184 1.062 255 255 255
0.079 -0.257 0.467 255 255 255
-0.23 -0.109 0.682 255 255 255
0.101 -0.025 0.552 0 0 0
0.301 -0.11 0.486 255 255 255
0.038 -0.001 0.605 0 0 0
0.265 0.187 0.725 255 255 255
0.191 -0.128 0.561 255 255 255
0.033 0.006 0.612 255 255 255
-0.186 0.078 0.993 255 255 255
-0.217 -0.035 0.699 255 255 255
-0.163 -0.316 0.595 255 255 255
0.17 0.057 0.627 0 0 0
-0.02 -0.021 0.631 255 255 255
-0.018 -0.088 0.629 0 0 0
-0.826 0.006 1.228 255 255 255
0.163 -0.019 0.606 255 255 255
-0.174 -0.118 0.639 255 255 255
0.053 -0.188 0.613 255 255 255
0.225 0.067 0.593 0 0 0
-0.198 0.248 1.015 255 255 255
0.02 -0.184 0.656 255 255 255
-0.425 -0.37 0.781 255 255 255
0.223 -0.034 0.639 0 0 0
0.271 -0.169 0.432 255 255 255
-0.255 -0.092 0.689 255 255 255
0.064 0.042 0.632 255 255 255
0.274 0.078 0.564 255 255 255
-0.492 0.062 1.169 255 255 255
0.06 -0.226 0.521 255 255 255
-0.024 0.009 0.656 255 255 255
0.107 0.042 0.61 255 255 255
-0.03 -0.231 0.607 255 255 255
-0.218 -0.103 0.675 255 255 255
-0.872 -0.025 1.257 255 255 255
-0.127 0.372 0.915 255 255 255
0.271 -0.02 0.607 0 0 0
-0.268 0.281 0.996 255 255 255
0.075 -0.336 0.463 0 0 0
-0.071 -0.324 0.521 255 255 255
-0.268 0.201 1.053 255 255 255
0.181 -0.195 0.455 0 0 0
0.034 -0.059 0.591 255 255 255
-0.476 0.296 0.993 255 255 255
0.301 -0.082 0.537 255 255 255
0.27 0.408 0.871 0 0 0
-0.227 -0.177 0.687 255 255 255
-0.776 -0.056 1.271 255 255 255
0.309 -0.103 0.487 255 255 255
-0.521 0.086 1.153 255 255 255
-0.455 -0.354 0.787 0 0 0
-0.282 0.13 1.098 255 255 255
0.306 0.056 0.504 255 255 255
-0.057 -0.179 0.704 0 0 0
0.084 -0.26 0.465 255 255 255
0.11 -0.249 0.457 255 255 255
-0.437 -0.256 0.735 255 255 255
0.165 0.144 0.772 255 255 255
-0.141 -0.335 0.541 255 255 255
-0.464 -0.315 0.79 255 255 255
-0.848 0.037 1.207 255 255 255
-0.004 -0.075 0.631 255 255 255
-0.2 0.305 0.972 255 255 255
0.292 0.019 0.492 255 255 255
-0.162 -0.037 0.659 255 255 255
-0.878 -0.199 1.147 255 255 255
0.165 -0.297 0.445 255 255 255
-0.191 -0.015 0.684 255 255 255
0.266 0.156 0.696 255 255 255
-0.426 -0.35 0.807 255 255 255
0.333 0.439 0.848 255 255 255
0.155 -0.288 0.445 255 255 255
0.263 -0.143 0.464 255 255 255
0.203 0.146 0.753 255 255 255
-0.161 -0.141 0.647 255 255 255
0.217 0.152 0.75 255 255 255
0.305 -0.069 0.556 255 255 255
0.012 -0.184 0.66 255 255 255
0.261 -0.143 0.465 255 255 255
-0.06 0.425 0.875 255 255 255
0.181 -0.188 0.461 255 255 255
-0.359 0.317 0.974 255 255 255
0.119 -0.28 0.452 255 255 255
-0.667 0.148 1.107 255 255 255
0.143 0.265 0.986 255 255 255
-0.22 0.025 0.757 255 255 255
-0.37 -0.387 0.675 255 255 255
-0.181 0.43 0.879 255 255 255
0.248 0.077 0.587 255 255 255
0.176 -0.249 0.436 255 255 255
-0.443 -0.152 0.735 255 255 255
-0.156 -0.063 0.646 255 255 255
0.115 -0.002 0.571 255 255 255
-0.35 0.406 0.906 0 0 0
0.321 0.417 0.861 255 255 255
-0.124 -0.244 0.699 255 255 255
-0.151 -0.061 0.645 255 255 255
-0.121 0.088 0.928 255 255 255
-0.072 0.251 1.005 255 255 255
0.102 0.014 0.586 0 0 0
0.141 0.022 0.569 255 255 255
0.007 0.047 0.686 255 255 255
0.037 -0.027 0.578 0 0 0
0.137 0.292 0.969 255 255 255
-0.231 0.275 0.997 255 255 255
-0.229 -0.321 0.641 255 255 255
0.146 -0.218 0.445 255 255 255
-0.028 -0.288 0.501 255 255 255
0.124 -0.229 0.451 255 255 255
-0.519 0.24 1.015 255 255 255
0.214 -0.091 0.609 0 0 0
-0.246 0.203 1.053 255 255 255
0.153 -0.212 0.449 255 255 255
-0.582 0.021 1.205 0 0 0
-0.325 0.391 0.914 255 255 255
0.252 0.056 0.554 255 255 255
0.097 -0.337 0.478 255 255 255
-0.018 -0.265 0.524 255 255 255
0.052 -0.341 0.478 255 255 255
0.197 0.051 0.594 255 255 255
0.25 0.073 0.58 255 255 255
-0.013 0.061 0.706 255 255 255
-0.482 -0.317 0.771 255 255 255
-0.084 -0.239 0.662 255 255 255
-0.132 -0.361 0.542 255 255 255
0.307 -0.105 0.487 255 255 255
0.182 0.004 0.58 255 255 255
0.368 -0.006 0.535 0 0 0
0.211 -0.177 0.456 255 255 255
-0.113 -0.246 0.683 255 255 255
-0.27 0.27 1.004 255 255 255
0.161 0.029 0.561 255 255 255
0.072 -0.325 0.478 255 255 255
0.001 -0.132 0.669 0 0 0
0.187 -0.177 0.472 255 255 255
0.144 -0.102 0.636 255 255 255
0.115 -0.155 0.609 255 255 255
0.119 -0.335 0.472 255 255 255
-0.147 -0.051 0.662 255 255 255
-0.305 -0.386 0.604 255 255 255
0.004 -0.311 0.488 255 255 255
0.189 -0.126 0.569 255 255 255
0.2 -0.024 0.621 255 255 255
-0.346 0.136 1.096 255 255 255
0.21 -0.049 0.628 255 255 255
-0.155 -0.063 0.645 255 255 255
-0.258 -0.229 0.724 0 0 0
-0.015 -0.196 0.662 255 255 255
-0.043 -0.367 0.516 255 255 255
-0.246 -0.029 0.703 0 0 0
-0.305 -0.057 0.675 255 255 255
-0.363 -0.201 0.703 255 255 255
0.118 0.339 0.93 255 255 255
-0.07 -0.205 0.706 255 255 255
-0.34 -0.38 0.659 255 255 255
0.092 -0.189 0.562 255 255 255
-0.204 -0.435 0.556 255 255 255
0.219 -0.226 0.422 255 255 255
0.106 -0.193 0.533 255 255 255
-0.171 -0.336 0.555 255 255 255
-0.076 -0.296 0.522 255 255 255
0.035 -0.24 0.518 255 255 255
0.258 0.359 0.901 255 255 255
-0.307 0.247 1.022 255 255 255
-0.316 -0.328 0.722 0 0 0
-0.237 0.051 0.99 255 255 255
-0.122 0.177 1.057 255 255 255
-0.448 -0.386 0.777 255 255 255
0.166 -0.343 0.441 0 0 0
0.089 -0.141 0.669 255 255 255
0.022 -0.002 0.606 255 255 255
-0.049 -0.286 0.512 255 255 255
0.182 0.017 0.557 255 255 255
0.296 0.15 0.649 255 255 255
-0.09 0.399 0.896 0 0 0
-0.015 -0.315 0.496 255 255 255
0.085 -0.125 0.662 255 255 255
0.281 0.08 0.559 255 255 255
0.243 0.4 0.878 0 0 0
-0.217 0.219 1.038 255 255 255
0.228 -0.147 0.491 255 255 255
0.094 -0.335 0.478 255 255 255
-0.428 0.107 1.134 255 255 255
-0.034 0.201 1.04 255 255 255
0.257 0.039 0.488 255 255 255
-0.033 -0.202 0.667 255 255 255
-0.107 0.437 0.87 255 255 255
0.016 0.005 0.617 0 0 0
0.013 -0.006 0.62 255 255 255
-0.167 -0.02 0.673 255 255 255
0.291 0.037 0.455 255 255 255
-0.294 -0.029 0.703 255 255 255
-0.28 0.182 1.064 255 255 255
-0.213 -0.061 0.69 255 255 255
0.233 0.463 0.838 255 255 255
-0.587 0.23 1.049 255 255 255
0.103 -0.025 0.554 0 0 0
0.313 -0.045 0.573 255 255 255
0.075 -0.08 0.59 0 0 0
-0.219 0.471 0.857 255 255 255
-0.253 -0.046 0.693 255 255 255
0.298 0.385 0.884 255 255 255
-0.204 -0.142 0.679 255 255 255
0.102 -0.347 0.475 0 0 0
-0.287 0.469 0.861 255 255 255
-0.03 -0.034 0.632 255 255 255
0.107 -0.184 0.543 255 255 255
-0.476 0.115 1.13 255 255 255
0.044 -0.037 0.568 0 0 0
0.024 0.401 0.888 0 0 0
-0.142 -0.135 0.649 255 255 255
0.277 0.049 0.509 255 255 255
0.079 -0.229 0.493 255 255 255
0.122 -0.183 0.53 255 255 255
0.082 -0.265 0.465 255 255 255
-0.246 -0.15 0.675 255 255 255
-0.28 -0.053 0.689 255 255 255
0.23 0.165 0.755 255 255 255
0.06 -0.274 0.473 255 255 255
0.172 -0.316 0.445 255 255 255
0.275 0.245 0.794 255 255 255
-0.363 -0.198 0.704 255 255 255
-0.487 0.207 1.017 255 255 255
0.052 -0.023 0.583 0 0 0
-0.09 0.425 0.877 255 255 255
-0.12 -0.197 0.761 0 0 0
0.164 -0.255 0.441 255 255 255
0.203 0.304 0.926 0 0 0
-0.974 -0.103 1.314 0 0 0
0.128 -0.335 0.466 255 255 255
-0.28 0.202 1.055 255 255 255
0.198 -0.1 0.597 255 255 255
-0.432 0.142 1.109 255 255 255
0.297 0.143 0.638 255 255 255
-0.213 0.384 0.917 255 255 255
0.31 -0.083 0.53 255 255 255
-0.133 -0.387 0.514 0 0 0
-0.243 -0.133 0.687 255 255 255
-0.517 0.311 0.986 255 255 255
-0.786 0.098 1.155 255 255 255
0.167 -0.157 0.524 255 255 255
-0.357 -0.392 0.656 255 255 255
-0.123 -0.246 0.694 255 255 255
-0.088 -0.038 0.707 255 255 255
-0.316 -0.095 0.728 255 255 255
0.029 -0.238 0.528 255 255 255
-0.011 -0.152 0.675 0 0 0
-0.017 0.216 1.029 255 255 255
0.112 -0.157 0.6 255 255 255
0.149 0.442 0.857 255 255 255
0.256 0.134 0.671 255 255 255
-0.428 0.32 0.972 255 255 255
-0.082 -0.035 0.707 255 255 255
-0.424 -0.365 0.785 255 255 255
-0.15 -0.082 0.642 255 255 255
0.281 0.31 0.914 255 255 255
0.182 -0.034 0.656 0 0 0
-0.3 0.191 1.063 255 255 255
-0.415 0.366 0.937 255 255 255
-0.246 -0.047 0.699 255 255 255
-0.067 -0.071 0.621 255 255 255
-0.628 -0.04 1.249 255 255 255
0.047 -0.214 0.551 255 255 255
-0.024 -0.268 0.524 255 255 255
-0.068 -0.027 0.693 255 255 255
-0.377 0.363 0.938 255 255 255
0.105 -0.048 0.566 255 255 255
0.062 -0.073 0.596 0 0 0
0.194 0.019 0.555 255 255 255
-0.442 -0.197 0.72 255 255 255
0.231 -0.168 0.455 255 255 255
-0.355 0.421 0.898 0 0 0
0.116 -0.157 0.589 255 255 255
-0.025 -0.272 0.516 255 255 255
-0.1 -0.161 0.756 0 0 0
0.239 -0.134 0.502 255 255 255
0.134 0.025 0.58 0 0 0
-0.04 0.286 0.979 255 255 255
0.157 -0.183 0.483 255 255 255
0.312 -0.125 0.464 255 255 255
0.38 -0.037 0.538 255 255 255
0.06 -0.283 0.468 0 0 0
0.276 -0.162 0.436 255 255 255
0.01 -0.2 0.642 255 255 255
0.118 0.344 0.926 255 255 255
-0.009 -0.126 0.645 255 255 255
0.028 -0.171 0.688 0 0 0
0.293 0.332 0.888 0 0 0
-0.009 -0.25 0.546 255 255 255
0.255 0.382 0.889 255 255 255
-0.267 -0.2 0.683 255 255 255
0.272 0.386 0.886 255 255 255
-0.334 -0.341 0.73 255 255 255
0.257 -0.057 0.601 255 255 255
-0.254 0.205 1.051 255 255 255
0.059 0.357 0.92 255 255 255
-0.608 -0.205 0.824 255 255 255
-0.611 -0.021 1.235 255 255 255
0.288 -0.107 0.499 255 255 255
0.044 -0.274 0.481 255 255 255
0.361 0.261 0.752 255 255 255
-0.68 -0.018 1.239 255 255 255
-0.41 0.177 1.079 255 255 255
-0.245 -0.17 0.687 255 255 255
0.329 -0.052 0.568 255 255 255
-0.214 0.053 0.962 0 0 0
0.213 -0.112 0.573 255 255 255
0.058 -0.228 0.52 255 255 255
0.294 0.007 0.507 255 255 255
0.015 -0.266 0.489 255 255 255
-0.078 -0.258 0.618 255 255 255
0.291 0.161 0.676 255 255 255
-0.044 -0.33 0.504 255 255 255
-0.597 0.186 1.083 255 255 255
-0.178 -0.171 0.689 255 255 255
0.106 -0.304 0.461 255 255 255
0.048 -0.037 0.569 0 0 0
0.269 -0.024 0.604 0 0 0
-0.214 0.188 1.061 255 255 255
0.004 0.082 0.717 255 255 255
-0.768 0.1 1.153 255 255 255
0.33 -0.099 0.48 255 255 255
-0.023 -0.212 0.649 255 255 255
0.077 0.3 0.961 255 255 255
0.088 0.034 0.598 255 255 255
-0.1 -0.285 0.571 255 255 255
-0.362 0.321 0.97 255 255 255
0.325 -0.06 0.548 255 255 255
0.312 -0.134 0.454 255 255 255
-0.376 0.076 1.148 255 255 255
-0.022 -0.281 0.499 255 255 255
-0.395 0.266 1.014 255 255 255
0.157 -0.332 0.454 0 0 0
0.253 0.145 0.689 255 255 255
0.285 0.008 0.515 255 255 255
0.288 0.135 0.634 255 255 255
0.186 -0.118 0.585 255 255 255
0.33 0.238 0.789 255 255 255
0.129 -0.342 0.462 0 0 0
0.154 -0.196 0.465 255 255 255
-0.154 -0.292 0.626 255 255 255
-0.378 0.433 0.892 255 255 255
-0.162 -0.314 0.596 255 255 255
0.132 0.009 0.568 255 255 255
0.052 0.252 0.999 255 255 255
-0.58 -0.204 0.802 255 255 255
-0.212 0.112 1.106 255 255 255
0.225 0.022 0.539 255 255 255
0.156 -0.335 0.455 0 0 0
0.3 -0.1 0.511 255 255 255
-0.168 -0.29 0.637 255 255 255
-0.099 0.409 0.889 0 0 0
0.036 0.001 0.606 255 255 255
0.176 -0.316 0.443 255 255 255
0.201 -0.33 0.421 255 255 255
0.06 0.387 0.898 255 255 255
0.019 0.081 0.686 255 255 255
-0.034 0.424 0.877 255 255 255
-0.043 0.357 0.925 255 255 255
0.036 -0.067 0.606 255 255 255
0.322 0.065 0.502 255 255 255
0.199 -0.101 0.596 255 255 255
0.283 0.414 0.864 255 255 255
-0.032 0.019 0.665 0 0 0
0.265 0.281 0.908 255 255 255
0.336 -0.031 0.56 255 255 255
0.206 -0.24 0.426 255 255 255
0.305 -0.063 0.571 255 255 255
-0.246 -0.156 0.675 255 255 255
-0.095 0.095 0.911 255 255 255
0.225 -0.219 0.422 255 255 255
-0.047 -0.011 0.639 255 255 255
-0.272 -0.032 0.702 0 0 0
-0.031 0.349 0.931 255 255 255
0.003 -0.249 0.535 255 255 255
-0.144 0.202 1.047 255 255 255
0.037 -0.19 0.633 255 255 255
0.173 0.206 0.835 255 255 255
0.217 0.395 0.886 0 0 0
0.112 -0.07 0.589 0 0 0
0.404 0.377 0.89 255 255 255
-0.449 -0.141 0.748 255 255 255
0.102 0.356 0.919 255 255 255
-0.936 -0.046 1.271 255 255 255
0.003 -0.167 0.676 0 0 0
-0.177 0.349 0.938 255 255 255
0.306 0.236 0.801 255 255 255
-0.124 -0.282 0.601 255 255 255
0.099 -0.016 0.554 255 255 255
-0.032 0.399 0.894 0 0 0
-0.328 0.243 1.027 255 255 255
0.323 -0.133 0.453 255 255 255
-0.596 0.141 1.112 255 255 255
-0.14 -0.088 0.692 0 0 0
0.181 -0.182 0.47 255 255 255
0.096 0.456 0.852 255 255 255
-0.132 0.305 0.966 255 255 255
-0.118 0.21 1.038 255 255 255
-0.219 -0.14 0.68 255 255 255
0.2 -0.339 0.424 255 255 255
-0.147 0.152 1.075 255 255 255
-0.103 -0.145 0.696 255 255 255
0.267 -0.154 0.447 255 255 255
0.32 0.255 0.762 255 255 255
-0.015 -0.284 0.498 255 255 255
-0.622 -0.097 1.116 255 255 255
0 0.128 0.872 0 0 0
0.274 0.243 0.788 255 255 255
-0.552 0.031 1.197 255 255 255
0.042 -0.047 0.574 0 0 0
0.174 0.282 0.969 0 0 0
0.037 -0.012 0.595 255 255 255
0.055 -0.149 0.679 255 255 255
-0.136 -0.162 0.671 0 0 0
0.266 0.016 0.52 255 255 255
0.142 -0.225 0.445 255 255 255
0.309 -0.118 0.468 255 255 255
-0.254 -0.166 0.684 255 255 255
0.291 0.039 0.454 255 255 255
-0.304 -0.007 0.716 255 255 255
0.106 -0.169 0.591 255 255 255
-0.18 -0.291 0.645 255 255 255
-0.451 0.255 1.023 255 255 255
-0.255 -0.452 0.567 255 255 255
-0.583 0.051 1.183 255 255 255
0.282 0.158 0.679 255 255 255
0.111 -0.29 0.454 255 255 255
-0.511 0.259 1.021 255 255 255
-0.04 -0.195 0.699 255 255 255
0.075 -0.119 0.674 0 0 0
0.277 0.235 0.771 255 255 255
0.2 -0.003 0.58 255 255 255
-0.122 0.181 1.057 255 255 255
-0.228 -0.253 0.648 255 255 255
-0.244 0.199 1.055 255 255 255
0.242 -0.168 0.444 255 255 255
0.171 -0.196 0.46 255 255 255
0.059 -0.224 0.521 255 255 255
-0.149 0.068 0.963 255 255 255
-0.21 0.254 1.011 255 255 255
0.142 0.258 0.991 255 255 255
0.188 0.22 0.847 255 255 255
0.145 0.257 0.989 0 0 0
-0.224 -0.41 0.548 0 0 0
-0.324 -0.241 0.723 255 255 255
0.289 -0.077 0.559 255 255 255
-0.407 0.342 0.956 255 255 255
0.287 0.412 0.864 255 255 255
-0.326 -0.251 0.69 255 255 255
0.187 -0.156 0.51 255 255 255
-0.145 -0.297 0.595 255 255 255
0.216 -0.194 0.429 0 0 0
0.067 0.069 0.644 0 0 0
-0.171 -0.11 0.641 255 255 255
-0.291 0.433 0.884 255 255 255
0.199 0.423 0.866 255 255 255
0.123 -0.178 0.543 255 255 255
0.387 0.303 0.819 255 255 255
-0.48 0.271 1.013 255 255 255
0.274 -0.091 0.547 255 255 255
-0.007 -0.272 0.495 255 255 255
-0.002 0.278 0.981 255 255 255
0.287 -0.099 0.518 255 255 255
-0.465 -0.145 0.735 255 255 255
0.037 0.411 0.882 0 0 0
-0.158 0.158 1.071 255 255 255
0.096 -0.291 0.459 255 255 255
0.09 -0.214 0.514 255 255 255
0.212 0.168 0.741 255 255 255
0.216 -0.068 0.613 255 255 255
-0.146 -0.369 0.544 255 255 255
0.072 -0.296 0.468 255 255 255
0.069 -0.327 0.48 255 255 255
-0.36 0.117 1.111 255 255 255
-0.341 0.464 0.867 255 255 255
0.297 0.405 0.869 0 0 0
0.28 0.092 0.573 255 255 255
0.015 -0.049 0.589 255 255 255
-0.399 -0.074 0.812 255 255 255
0.178 -0.218 0.434 255 255 255
0.333 0.266 0.777 255 255 255
0.292 0.062 0.526 255 255 255
0.129 -0.212 0.475 255 255 255
0.131 -0.025 0.588 255 255 255
-0.106 -0.272 0.624 255 255 255
-0.594 -0.064 1.152 255 255 255
0.079 -0.184 0.58 255 255 255
0.015 -0.222 0.571 255 255 255
0.019 0.313 0.955 255 255 255
-0.079 -0.294 0.546 255 255 255
0.025 -0.244 0.523 255 255 255
0.245 0.025 0.518 255 255 255
-0.207 -0.332 0.608 255 255 255
-0.062 -0.251 0.611 255 255 255
-0.021 -0.294 0.503 255 255 255
-0.103 0.252 1.006 255 255 255
-0.077 -0.088 0.635 255 255 255
-0.278 -0.057 0.687 255 255 255
-0.22 -0.106 0.677 255 255 255
-0.179 -0.387 0.555 255 255 255
-0.701 0.017 1.213 255 255 255
0.006 -0.287 0.495 255 255 255
-0.143 0.178 1.058 255 255 255
0.036 -0.187 0.647 255 255 255
-0.296 -0.046 0.687 255 255 255
-0.482 0.097 1.145 255 255 255
-0.464 0.112 1.132 255 255 255
-0.255 0.372 0.925 255 255 255
0.135 0.317 0.949 255 255 255
0.085 0.039 0.605 255 255 255
-0.266 -0.37 0.59 255 255 255
-0.159 0.006 0.722 255 255 255
0.215 0.41 0.873 0 0 0
0.037 -0.169 0.674 0 0 0
-0.223 -0.108 0.68 255 255 255
0.062 -0.159 0.642 255 255 255
-0.249 0.395 0.908 255 255 255
0.259 -0.13 0.489 255 255 255
0.226 0.401 0.879 0 0 0
-0.154 -0.323 0.551 0 0 0
-0.198 0.022 0.76 255 255 255
-0.137 -0.309 0.562 255 255 255
-0.053 0.392 0.9 255 255 255
-0.383 -0.389 0.687 255 255 255
0.258 0.384 0.888 255 255 255
0.048 -0.346 0.481 255 255 255
0.032 -0.013 0.596 255 255 255
0.19 -0.335 0.425 255 255 255
-0.086 0.091 0.911 255 255 255
-0.122 0.419 0.885 0 0 0
-0.211 -0.156 0.685 255 255 255
0.158 -0.126 0.6 255 255 255
-0.166 -0.046 0.653 255 255 255
-0.054 -0.293 0.512 255 255 255
0.284 0.342 0.889 0 0 0
0.138 0.37 0.908 255 255 255
0.151 0.093 0.663 255 255 255
-0.24 0.307 0.973 255 255 255
-0.145 -0.332 0.545 255 255 255
-0.143 -0.066 0.653 255 255 255
-0.016 -0.029 0.619 255 255 255
-0.268 0.37 0.928 255 255 255
0.187 0.135 0.755 255 255 255
0.269 0.449 0.839 255 255 255
-0.453 0.203 1.03 0 0 0
-0.033 -0.173 0.684 0 0 0
0.192 0.024 0.54 255 255 255
-0.056 0.156 1.034 255 255 255
-0.319 -0.103 0.751 255 255 255
0.007 -0.262 0.499 255 255 255
0.267 0.445 0.841 255 255 255
0.343 0.174 0.626 255 255 255
-0.225 0.432 0.88 255 255 255
0.318 -0.015 0.572 0 0 0
0.234 0.045 0.524 255 255 255
0.244 0.025 0.519 255 255 255
-0.352 -0.239 0.719 0 0 0
0.205 -0.233 0.427 255 255 255
-0.379 0.429 0.894 255 255 255
-0.206 0.127 1.097 255 255 255
0.063 -0.123 0.702 0 0 0
-0.171 -0.262 0.697 255 255 255
0.121 -0.306 0.462 255 255 255
-0.027 -0.007 0.648 255 255 255
-0.466 0.35 0.954 255 255 255
0.143 -0.176 0.512 255 255 255
0.132 -0.237 0.449 255 255 255
0.1 -0.159 0.625 255 255 255
-0.092 0.447 0.864 255 255 255
-0.403 0.154 1.096 255 255 255
0.251 -0.151 0.464 255 255 255
-0.205 -0.353 0.567 255 255 255
0.339 -0.108 0.469 255 255 255
-0.185 -0.065 0.65 255 255 255
-0.475 -0.221 0.7 255 255 255
-0.315 0.344 0.95 255 255 255
-0.01 0.27 0.987 255 255 255
0.283 0.051 0.514 255 255 255
-0.257 0.459 0.866 255 255 255
0.214 -0.094 0.596 255 255 255
0.131 -0.31 0.456 255 255 255
-0.233 -0.28 0.66 0 0 0
0.171 -0.092 0.624 255 255 255
0.178 -0.059 0.645 255 255 255
0.223 0.022 0.54 255 255 255
0.058 0.257 0.995 255 255 255
0.008 0.308 0.959 255 255 255
-0.218 0.243 1.019 255 255 255
0.205 -0.217 0.427 255 255 255
-0.324 -0.195 0.697 255 255 255
0.262 0.079 0.575 255 255 255
-0.259 -0.404 0.548 0 0 0
-0.06 0.466 0.851 255 255 255
0.246 -0.004 0.56 255 255 255
0.273 -0.097 0.536 255 255 255
-0.306 -0.004 0.717 255 255 255
0.145 0.089 0.643 255 255 255
0.067 0.257 0.995 255 255 255
0.138 0.423 0.869 255 255 255
-0.111 -0.274 0.6 255 255 255
0.044 0.05 0.656 255 255 255
0.165 -0.191 0.466 255 255 255
0.068 -0.299 0.469 255 255 255
0.218 0.032 0.519 255 255 255
0.235 -0.109 0.554 255 255 255
-0.095 0.089 0.908 255 255 255
-0.503 0.138 1.115 255 255 255
0.204 0.124 0.713 255 255 255
-0.135 -0.34 0.537 255 255 255
-0.227 0.309 0.972 255 255 255
-0.168 -0.129 0.642 255 255 255
0.103 -0.346 0.467 0 0 0
0.232 -0.157 0.469 255 255 255
0.334 -0.065 0.53 255 255 255
0.235 0.083 0.599 255 255 255
-0.055 -0.268 0.561 255 255 255
-0.629 0.092 1.091 0 0 0
0.219 -0.153 0.487 255 255 255
0.13 -0.31 0.456 255 255 255
-0.356 0.359 0.938 255 255 255
0.01 -0.083 0.634 0 0 0
0.191 -0.333 0.428 0 0 0
0.186 -0.03 0.638 255 255 255
-0.351 -0.149 0.728 255 255 255
-0.32 -0.105 0.716 0 0 0
0.229 -0.156 0.473 255 255 255
0.265 0.191 0.725 255 255 255
0.263 -0.11 0.522 255 255 255
0.072 -0.079 0.589 255 255 255
0.345 -0.065 0.522 255 255 255
0.272 -0.151 0.446 255 255 255
0.229 -0.13 0.52 255 255 255
-0.017 -0.364 0.491 0 0 0
-0.175 -0.049 0.654 255 255 255
-0.225 0.466 0.863 255 255 255
0.177 0.377 0.9 255 255 255
-0.891 -0.085 1.3 255 255 255
0.227 0.089 0.623 255 255 255
-0.091 -0.09 0.629 255 255 255
-0.125 -0.37 0.537 255 255 255
-0.428 0.146 1.105 255 255 255
-0.39 -0.367 0.751 0 0 0
0.212 -0.096 0.594 255 255 255
-0.35 -0.376 0.675 255 255 255
-0.126 -0.116 0.666 255 255 255
-0.112 0.11 0.961 0 0 0
-0.462 -0.338 0.801 0 0 0
-0.112 0.374 0.915 255 255 255
-0.247 -0.163 0.68 255 255 255
-0.101 0.281 0.986 255 255 255
-0.208 -0.264 0.662 0 0 0
0.166 0.398 0.886 0 0 0
0.282 0.02 0.502 255 255 255
-0.144 -0.204 0.728 0 0 0
0.072 -0.302 0.468 255 255 255
0.15 -0.162 0.534 255 255 255
-0.305 0.311 0.973 255 255 255
-0.251 -0.365 0.585 255 255 255
-0.327 0.356 0.943 255 255 255
-0.129 -0.256 0.675 255 255 255
0.001 -0.087 0.632 0 0 0
-0.275 0.014 0.743 0 0 0
0.209 0.198 0.832 255 255 255
0.342 -0.046 0.56 255 255 255
-0.184 -0.369 0.554 255 255 255
-0.189 -0.232 0.66 255 255 255
-0.572 0.214 1.059 255 255 255
-0.269 -0.056 0.692 255 255 255
0.133 -0.119 0.646 255 255 255
0.202 -0.239 0.428 255 255 255
0.055 -0.177 0.643 255 255 255
-0.204 -0.235 0.65 255 255 255
-0.575 0.031 1.198 255 255 255
0.084 0.316 0.949 255 255 255
-0.084 -0.274 0.574 255 255 255
0.035 -0.169 0.686 0 0 0
0.247 0.466 0.833 255 255 255
-0.051 0.132 0.938 0 0 0
0.158 -0.207 0.451 255 255 255
-0.043 -0.263 0.556 255 255 255
-0.637 0.067 1.172 255 255 255
-0.047 -0.335 0.504 255 255 255
0.342 0.008 0.475 255 255 255
-0.255 -0.066 0.692 255 255 255
-0.358 -0.381 0.671 255 255 255
0.13 -0.18 0.526 255 255 255
0.146 0.424 0.869 255 255 255
0.313 -0.118 0.468 255 255 255
0.393 0.395 0.873 0 0 0
-0.562 0.224 1.049 255 255 255
0.179 -0.195 0.453 0 0 0
0.343 -0.051 0.551 255 255 255
-0.252 -0.06 0.696 255 255 255
0.148 0.36 0.914 255 255 255
-0.249 -0.358 0.6 255 255 255
-0.908 -0.128 1.266 255 255 255
0.135 -0.178 0.514 255 255 255
0.013 -0.232 0.556 255 255 255
-0.517 0.276 1.01 255 255 255
0.08 0.051 0.618 255 255 255
-0.525 0.272 1.01 255 255 255
0.012 0.177 0.99 255 255 255
-0.274 -0.41 0.584 255 255 255
0.256 -0.178 0.427 255 255 255
-0.117 0.285 0.984 255 255 255
-0.091 -0.205 0.715 255 255 255
-0.37 -0.185 0.71 255 255 255
-0.434 0.166 1.091 255 255 255
0.101 -0.06 0.578 255 255 255
-0.232 0.359 0.934 255 255 255
-0.114 0.448 0.864 255 255 255
-0.401 0.193 1.067 255 255 255
-0.3 -0.045 0.687 255 255 255
-0.255 -0.447 0.57 255 255 255
0.076 -0.213 0.522 255 255 255
0.123 -0.174 0.549 255 255 255
-0.204 0.214 1.039 255 255 255
-0.192 0.197 1.051 255 255 255
-0.134 -0.203 0.756 0 0 0
-0.103 -0.275 0.59 255 255 255
0.137 0.012 0.566 255 255 255
0.217 0.028 0.522 255 255 255
0.159 -0.34 0.451 0 0 0
-0.195 -0.073 0.664 255 255 255
0.277 -0.074 0.581 255 255 255
0.128 0.303 0.96 255 255 255
-0.328 0.179 1.065 255 255 255
-0.366 0.325 0.968 255 255 255
-0.086 -0.274 0.58 255 255 255
0.006 0.304 0.962 255 255 255
0.064 0.006 0.603 0 0 0
0.269 -0.168 0.433 255 255 255
0.194 -0.047 0.646 0 0 0
0.069 -0.233 0.495 255 255 255
-0.278 -0.001 0.722 255 255 255
0.062 -0.214 0.541 255 255 255
0.279 0.301 0.909 255 255 255
-0.31 0.393 0.911 255 255 255
-0.263 -0.432 0.568 0 0 0
-0.147 0.445 0.869 255 255 255
0.004 0.323 0.948 255 255 255
0.323 0.274 0.831 255 255 255
0.02 -0.138 0.717 0 0 0
0 0.087 0.765 255 255 255
-0.468 -0.193 0.707 255 255 255
-0.077 0.375 0.915 255 255 255
-0.039 -0.297 0.507 255 255 255
-0.095 -0.301 0.536 0 0 0
0.236 -0.148 0.482 255 255 255
-0.072 -0.239 0.65 255 255 255
-0.172 -0.123 0.639 255 255 255
0.072 -0.071 0.591 0 0 0
-0.127 0.108 0.973 0 0 0
-0.616 0.204 1.069 255 255 255
0.271 -0.143 0.458 255 255 255
-0.122 0.449 0.865 255 255 255
-0.374 0.166 1.076 255 255 255
-0.872 -0.214 1.137 255 255 255
0.09 -0.103 0.617 0 0 0
0.033 0.309 0.958 255 255 255
-0.041 0.174 1.056 255 255 255
0.027 -0.344 0.471 0 0 0
0.281 -0.108 0.507 255 255 255
0.397 0.358 0.901 255 255 255
-0.114 0.41 0.89 0 0 0
0.23 -0.186 0.431 255 255 255
0.043 0.21 1.028 255 255 255
0.013 0.043 0.678 0 0 0
-0.14 -0.272 0.645 255 255 255
-0.152 -0.005 0.718 255 255 255
0.086 -0.235 0.468 0 0 0
0.149 -0.075 0.652 255 255 255
0.091 -0.009 0.584 0 0 0
-0.053 -0.045 0.62 255 255 255
-0.082 -0.118 0.668 255 255 255
0.167 -0.183 0.472 255 255 255
-0.248 0.399 0.905 0 0 0
-0.342 -0.23 0.714 0 0 0
-0.164 0.144 1.082 255 255 255
0 -0.265 0.499 255 255 255
0.011 -0.296 0.493 255 255 255
0.192 0.177 0.801 255 255 255
-0.181 0.01 0.702 255 255 255
0.142 0.277 0.978 255 255 255
0.15 -0.206 0.456 0 0 0
0.004 -0.018 0.618 255 255 255
0.21 0.203 0.8 255 255 255
-0.239 0.371 0.926 255 255 255
0.19 -0.208 0.431 255 255 255
0.135 0.168 0.853 255 255 255
0.314 0.298 0.873 255 255 255
0.004 0.074 0.694 255 255 255
-0.176 -0.167 0.687 255 255 255
-0.232 -0.358 0.578 255 255 255
0.063 -0.238 0.492 255 255 255
0.147 -0.163 0.533 255 255 255
-0.356 0.342 0.954 255 255 255
0.117 -0.193 0.509 255 255 255
0.025 0.02 0.628 0 0 0
-0.047 -0.173 0.693 0 0 0
-0.077 0.17 1.067 255 255 255
0.213 0.25 0.893 255 255 255
-0.004 -0.281 0.494 255 255 255
0.06 0.147 0.85 255 255 255
-0.311 -0.137 0.736 255 255 255
-0.196 -0.05 0.67 255 255 255
-0.277 -0.305 0.671 0 0 0
0.085 0.031 0.597 255 255 255
-0.022 -0.266 0.531 255 255 255
-0.238 -0.192 0.704 255 255 255
-0.058 -0.06 0.616 255 255 255
0.065 0.436 0.865 255 255 255
-0.026 0.315 0.955 255 255 255
0.139 0.021 0.569 255 255 255
0.164 0.024 0.555 255 255 255
-0.154 -0.221 0.699 0 0 0
0.249 -0.029 0.617 255 255 255
-0.314 -0.388 0.61 255 255 255
-0.122 -0.137 0.683 255 255 255
-0.638 0.029 1.203 255 255 255
-0.397 -0.154 0.731 255 255 255
0.167 0.442 0.855 255 255 255
0.173 -0.051 0.665 0 0 0
0.256 -0.103 0.544 255 255 255
0.046 -0.345 0.48 255 255 255
-0.307 -0.056 0.675 255 255 255
0.192 -0.027 0.629 255 255 255
0.186 -0.166 0.49 255 255 255
0.168 0.013 0.567 255 255 255
-0.143 -0.171 0.665 255 255 255
-0.084 -0.25 0.623 255 255 255
-0.559 0.151 1.106 255 255 255
0.098 0.091 0.697 255 255 255
-0.427 -0.242 0.734 255 255 255
0.283 -0.15 0.444 255 255 255
-0.311 -0.06 0.673 255 255 255
0.269 -0.046 0.596 255 255 255
-0.27 0.297 0.984 255 255 255
0.255 0.189 0.729 255 255 255
-0.276 0.126 1.102 255 255 255
0.098 -0.058 0.58 255 255 255
-0.463 -0.135 0.748 255 255 255
0.283 0.407 0.868 0 0 0
0.185 0.133 0.756 255 255 255
-0.038 -0.245 0.604 0 0 0
0.171 -0.171 0.489 255 255 255
0.266 0.065 0.552 255 255 255
0.078 0.005 0.585 0 0 0
-0.079 -0.352 0.516 255 255 255
-0.436 0.302 0.985 255 255 255
-0.296 -0.365 0.64 255 255 255
0.317 0.165 0.651 255 255 255
0.225 0.033 0.513 255 255 255
-0.139 0.355 0.93 255 255 255
-0.757 -0.09 1.291 255 255 255
-0.168 -0.274 0.674 255 255 255
0.204 -0.181 0.457 255 255 255
0.228 0.016 0.547 255 255 255
0.341 -0.052 0.546 0 0 0
0.114 0.211 0.924 255 255 255
0.032 0.411 0.882 0 0 0
-0.596 0.203 1.069 255 255 255
0.001 0.008 0.637 0 0 0
0.158 -0.215 0.439 255 255 255
0.185 -0.093 0.615 255 255 255
0.05 0.116 0.814 255 255 255
-0.13 0.087 0.937 255 255 255
0.108 0.43 0.868 255 255 255
0.148 -0.117 0.628 0 0 0
-0.431 -0.3 0.804 0 0 0
0.076 0.193 0.926 255 255 255
0.344 0.176 0.627 255 255 255
-0.409 0.156 1.093 255 255 255
-0.167 -0.104 0.646 255 255 255
-0.838 0.042 1.203 255 255 255
-0.358 0.147 1.089 255 255 255
-0.398 -0.068 0.815 255 255 255
-0.854 -0.081 1.296 255 255 255
0.074 -0.185 0.583 255 255 255
0.231 -0.261 0.422 255 255 255
0.351 0.267 0.753 255 255 255
0.254 0.063 0.561 255 255 255
-0.249 -0.146 0.676 255 255 255
-0.178 0.176 1.06 255 255 255
0.21 0.464 0.84 255 255 255
-0.169 0.283 0.986 255 255 255
-0.102 -0.043 0.715 255 255 255
0.316 -0.106 0.479 255 255 255
0.21 -0.142 0.517 255 255 255
-0.305 -0.379 0.62 255 255 255
0.064 -0.189 0.6 255 255 255
0.133 0.355 0.919 255 255 255
-0.133 -0.242 0.718 255 255 255
0.037 0.443 0.859 255 255 255
0.131 -0.085 0.626 0 0 0
0.09 -0.343 0.481 255 255 255
0.196 -0.029 0.642 0 0 0
-0.07 -0.089 0.644 255 255 255
0.147 -0.209 0.455 255 255 255
-0.433 -0.161 0.767 255 255 255
0.049 -0.251 0.479 255 255 255
-0.139 -0.259 0.677 255 255 255
0.215 -0.142 0.51 255 255 255
0.1 0.268 0.986 255 255 255
-0.19 -0.345 0.562 255 255 255
0.185 -0.24 0.434 255 255 255
-0.051 -0.206 0.686 255 255 255
-0.297 0.332 0.958 255 255 255
-0.35 0.39 0.917 255 255 255
-0.126 -0.375 0.509 0 0 0
0.07 0.263 0.991 255 255 255
0.292 -0.012 0.575 0 0 0
-0.021 -0.252 0.554 255 255 255
-0.07 -0.033 0.698 255 255 255
-0.01 0.249 1.004 255 255 255
0.017 0.138 0.869 255 255 255
-0.306 0.475 0.86 255 255 255
0.2 0.314 0.932 255 255 255
-0.259 -0.337 0.645 255 255 255
-0.006 -0.312 0.494 255 255 255
0.003 -0.127 0.674 255 255 255
0.154 -0.338 0.456 0 0 0
0.115 -0.146 0.617 255 255 255
0.053 0.227 1.018 255 255 255
0.271 0.017 0.516 255 255 255
0.229 -0.182 0.436 255 255 255
-0.111 -0.332 0.531 255 255 255
-0.193 -0.33 0.582 255 255 255
0.095 0.303 0.96 255 255 255
0.169 -0.192 0.461 255 255 255
0.003 -0.262 0.509 255 255 255
0.22 0.398 0.882 0 0 0
-0.15 -0.081 0.642 255 255 255
0.2 0.328 0.929 0 0 0
0.285 -0.159 0.437 255 255 255
-0.11 -0.273 0.61 255 255 255
-0.226 0.303 0.976 255 255 255
0.072 -0.153 0.658 0 0 0
-0.006 0.444 0.861 255 255 255
-0.605 0.001 1.223 255 255 255
0.334 0.35 0.884 255 255 255
-0.272 0.315 0.972 255 255 255
-0.884 -0.096 1.294 255 255 255
-0.318 -0.136 0.711 0 0 0
0.083 -0.227 0.49 255 255 255
-0.59 -0.127 1.041 255 255 255
-0.155 -0.382 0.528 0 0 0
0.22 -0.157 0.479 255 255 255
0.16 -0.316 0.453 255 255 255
-0.116 -0.258 0.644 255 255 255
0.009 -0.249 0.531 255 255 255
0.032 -0.325 0.469 255 255 255
0.007 -0.254 0.52 255 255 255
-0.021 0.362 0.921 255 255 255
-0.107 0.271 0.99 255 255 255
0.263 0.434 0.85 255 255 255
-0.435 0.298 0.988 255 255 255
0.228 -0.124 0.532 255 255 255
-0.097 -0.226 0.711 0 0 0
-0.438 0.149 1.104 255 255 255
0.098 0.045 0.598 255 255 255
-0.449 0.195 1.039 0 0 0
0.076 -0.197 0.556 255 255 255
-0.144 -0.053 0.701 255 255 255
0.161 0.344 0.927 255 255 255
-0.264 -0.127 0.682 255 255 255
0.041 -0.269 0.481 255 255 255
-0.123 -0.213 0.728 255 255 255
0.184 -0.065 0.638 255 255 255
0.056 0.414 0.879 0 0 0
0.219 -0.201 0.422 255 255 255
0.05 -0.18 0.644 255 255 255
0.107 0.191 0.878 0 0 0
0.033 -0.336 0.477 255 255 255
0.186 -0.016 0.597 255 255 255
-0.036 -0.268 0.544 255 255 255
0.115 0.132 0.778 255 255 255
-0.077 -0.275 0.57 255 255 255
0.123 -0.062 0.578 0 0 0
0.019 -0.236 0.542 255 255 255
-0.403 0.393 0.921 255 255 255
-0.191 0.428 0.881 255 255 255
0.022 -0.126 0.69 0 0 0
0.017 -0.006 0.613 255 255 255
0 -0.311 0.489 255 255 255
0.28 -0.064 0.591 255 255 255
0.233 -0.185 0.43 255 255 255
0.095 -0.052 0.577 255 255 255
0.275 -0.139 0.461 255 255 255
-0.202 0.02 0.744 255 255 255
-0.323 -0.343 0.707 255 255 255
0.001 -0.078 0.63 0 0 0
0.263 0.219 0.819 255 255 255
0.232 0.421 0.864 255 255 255
0.1 -0.228 0.469 255 255 255
-0.223 0.383 0.915 255 255 255
0.165 -0.228 0.438 255 255 255
0.023 0.016 0.623 0 0 0
0.215 0.391 0.888 0 0 0
-0.039 -0.129 0.646 255 255 255
0.18 -0.327 0.441 0 0 0
-0.15 0.178 1.058 255 255 255
-0.231 0.146 1.085 255 255 255
0.235 0.065 0.583 255 255 255
-0.232 -0.036 0.698 255 255 255
-0.51 -0.152 0.758 255 255 255
-0.578 0.008 1.215 0 0 0
-0.944 -0.074 1.291 255 255 255
0.327 0.002 0.486 0 0 0
-0.053 0.27 0.988 255 255 255
0.012 -0.144 0.695 255 255 255
-0.246 -0.105 0.691 255 255 255
-0.089 -0.291 0.555 255 255 255
0.052 -0.198 0.582 255 255 255
-0.064 0.299 0.97 255 255 255
-0.156 -0.207 0.703 0 0 0
-0.178 -0.213 0.675 255 255 255
0.33 -0.124 0.462 255 255 255
0.227 0.126 0.686 255 255 255
-0.193 0.002 0.695 255 255 255
-0.01 -0.091 0.633 255 255 255
-0.481 -0.258 0.718 255 255 255
0.058 -0.077 0.602 255 255 255
-0.163 0.029 0.883 255 255 255
-0.298 -0.339 0.684 255 255 255
0.258 0.073 0.573 255 255 255
0.004 -0.073 0.632 255 255 255
-0.337 -0.384 0.65 255 255 255
-0.241 0.335 0.951 255 255 255
0.326 0.117 0.571 255 255 255
0.123 0.42 0.873 255 255 255
0.083 0.441 0.861 255 255 255
-0.118 0.465 0.855 255 255 255
0.145 -0.222 0.445 255 255 255
-0.179 -0.333 0.56 255 255 255
-0.244 0.451 0.87 255 255 255
-0.128 -0.362 0.541 255 255 255
0.207 -0.165 0.476 255 255 255
-0.046 0.217 1.032 255 255 255
-0.137 -0.226 0.728 255 255 255
0.195 -0.19 0.453 255 255 255
0.068 0.056 0.632 0 0 0
-0.204 -0.18 0.693 255 255 255
0.253 -0.157 0.453 255 255 255
0.197 -0.081 0.615 255 255 255
-0.017 -0.002 0.648 255 255 255
0.144 -0.22 0.445 255 255 255
0.284 -0.156 0.44 255 255 255
0.002 -0.219 0.595 255 255 255
-0.196 0.444 0.873 255 255 255
-0.146 -0.069 0.642 255 255 255
0.028 0.435 0.864 255 255 255
0.214 0.075 0.607 255 255 255
-0.321 0.114 1.111 255 255 255
-0.765 0.049 1.193 255 255 255
-0.252 -0.001 0.725 255 255 255
0.081 -0.093 0.599 0 0 0
-0.297 -0.352 0.659 255 255 255
0.25 0.121 0.65 255 255 255
0.114 -0.15 0.618 255 255 255
-0.058 -0.108 0.658 255 255 255
0.322 0.374 0.892 255 255 255
0.151 0.016 0.559 255 255 255
-0.049 -0.319 0.511 255 255 255
-0.303 -0.289 0.677 255 255 255
-0.246 0.446 0.873 255 255 255
0.262 -0.147 0.459 255 255 255
-0.204 -0.207 0.653 255 255 255
0.21 -0.261 0.426 255 255 255
0.192 0.217 0.838 255 255 255
-0.439 -0.258 0.735 255 255 255
0.301 0.044 0.453 255 255 255
-0.344 -0.395 0.633 255 255 255
-0.038 -0.21 0.662 255 255 255
0.262 0.276 0.898 0 0 0
-0.139 -0.303 0.587 255 255 255
0.349 -0.041 0.554 255 255 255
0.01 -0.042 0.592 255 255 255
-0.587 0.198 1.073 255 255 255
