ply
format ascii 1.0
comment Created by Open3D
element vertex 1597
property double x
property double y
property double z
property uchar red
property uchar green
property uchar blue
end_header
-0.59 0.12 1.046 255 255 255
-0.259 -0.117 0.609 255 255 255
-0.2 -0.182 0.609 255 255 255
-0.371 -0.024 0.663 0 0 0
-0.157 -0.081 0.584 255 255 255
-0.049 -0.224 0.567 255 255 255
-0.432 -0.04 0.627 255 255 255
0.167 -0.086 0.518 255 255 255
-0.063 -0.229 0.567 255 255 255
-0.034 0.097 0.883 0 0 0
0.337 0.288 0.895 255 255 255
-0.334 0.205 0.981 255 255 255
0.215 -0.024 0.536 255 255 255
0.07 0.161 0.978 255 255 255
-0.124 -0.27 0.503 255 255 255
0.01 0.053 0.756 255 255 255
-0.039 -0.015 0.599 255 255 255
0.03 0.242 0.944 255 255 255
0.134 -0.278 0.395 255 255 255
-0.223 0.123 1.027 255 255 255
0.029 -0.255 0.436 255 255 255
-0.011 -0.308 0.41 0 0 0
0.322 0.001 0.514 255 255 255
-0.244 -0.239 0.652 255 255 255
-0.392 -0.03 0.653 255 255 255
0.307 0.288 0.897 255 255 255
0.107 -0.059 0.529 255 255 255
-0.002 0.211 0.966 255 255 255
-0.03 0.038 0.788 255 255 255
0.22 -0.039 0.462 255 255 255
-0.209 -0.284 0.517 255 255 255
0.203 0.337 0.875 255 255 255
0.236 0.31 0.89 255 255 255
-0.312 0.165 1.006 255 255 255
0.091 -0.184 0.566 255 255 255
0.346 0.073 0.55 255 255 255
0.071 -0.04 0.581 255 255 255
-0.042 0.12 0.998 255 255 255
0.001 0.032 0.644 255 255 255
-0.383 0.31 0.921 255 255 255
-0.323 0.249 0.954 255 255 255
-0.122 -0.031 0.624 0 0 0
-0.183 -0.31 0.444 255 255 255
-0.29 -0.058 0.634 255 255 255
-0.198 -0.253 0.607 255 255 255
-0.186 -0.109 0.581 255 255 255
-0.013 0.348 0.882 255 255 255
0.139 -0.006 0.6 255 255 255
0.222 0.375 0.853 255 255 255
0.198 -0.006 0.568 255 255 255
0.087 -0.153 0.604 255 255 255
0.016 -0.157 0.622 255 255 255
-0.291 -0.182 0.614 255 255 255
-0.026 0.143 1.005 255 255 255
-0.017 -0.074 0.56 255 255 255
0.184 -0.181 0.506 255 255 255
-0.083 0.086 0.895 0 0 0
-0.189 0.007 0.803 255 255 255
0.179 -0.229 0.421 255 255 255
-0.377 0.402 0.868 0 0 0
0.049 0.055 0.777 255 255 255
0.192 -0.233 0.412 255 255 255
-0.113 0.231 0.954 255 255 255
-0.331 -0.223 0.619 255 255 255
0.03 -0.071 0.574 255 255 255
0.072 0.224 0.958 0 0 0
-0.209 -0.307 0.478 255 255 255
-0.219 -0.167 0.624 0 0 0
-0.122 -0.171 0.62 0 0 0
0.259 -0.128 0.551 255 255 255
0.081 -0.081 0.567 255 255 255
-0.078 0.227 0.956 255 255 255
-0.326 0.438 0.844 255 255 255
-0.023 -0.22 0.556 255 255 255
-0.36 -0.179 0.619 255 255 255
-0.43 0.354 0.898 255 255 255
0.246 -0.223 0.419 255 255 255
-0.333 0.136 1.027 255 255 255
-0.107 -0.05 0.584 0 0 0
-0.015 -0.179 0.618 255 255 255
0.087 0.193 0.943 0 0 0
-0.325 -0.28 0.63 255 255 255
-0.232 0.232 0.96 255 255 255
0.196 0.375 0.854 255 255 255
0.254 -0.08 0.472 255 255 255
-0.197 -0.216 0.625 0 0 0
0.246 0.02 0.592 255 255 255
-0.027 0.079 0.835 255 255 255
0.087 0.382 0.857 0 0 0
0.106 -0.182 0.562 255 255 255
0.297 0.243 0.927 255 255 255
0.155 -0.031 0.55 255 255 255
-0.193 0.395 0.861 0 0 0
-0.34 -0.178 0.615 255 255 255
0.296 0.103 0.693 255 255 255
-0.327 -0.081 0.604 255 255 255
-0.125 0.336 0.892 255 255 255
0.11 0.197 0.952 255 255 255
0.165 0.272 0.919 255 255 255
0.071 -0.072 0.565 255 255 255
-0.084 -0.043 0.596 255 255 255
0.352 0.302 0.885 255 255 255
0.261 0.342 0.871 255 255 255
-0.498 0.195 0.998 255 255 255
0.396 0.302 0.884 255 255 255
-0.546 0.202 0.996 255 255 255
-0.509 0.086 1.052 255 255 255
-0.697 0.09 1.07 255 255 255
0.295 -0.003 0.523 255 255 255
-0.39 -0.213 0.628 255 255 255
-0.367 0.203 0.984 255 255 255
-0.154 -0.177 0.644 255 255 255
0.207 -0.246 0.393 255 255 255
0.148 -0.055 0.486 0 0 0
-0.114 -0.275 0.482 255 255 255
0.298 0.052 0.62 255 255 255
-0.246 0.063 0.96 0 0 0
-0.019 -0.212 0.583 255 255 255
-0.027 0.416 0.844 255 255 255
-0.036 -0.051 0.566 0 0 0
-0.043 -0.277 0.441 0 0 0
-0.344 -0.004 0.695 255 255 255
0.065 -0.257 0.421 255 255 255
-0.424 -0.041 0.637 255 255 255
0.233 0.303 0.894 255 255 255
0.077 -0.204 0.526 255 255 255
-0.358 -0.131 0.607 255 255 255
-0.102 -0.302 0.429 255 255 255
-0.432 -0.136 0.624 255 255 255
-0.198 0.092 1.035 255 255 255
-0.238 0.275 0.934 255 255 255
-0.193 -0.248 0.609 255 255 255
-0.308 -0.18 0.592 255 255 255
0.026 -0.208 0.544 255 255 255
-0.289 0.108 1.032 255 255 255
-0.133 0.442 0.834 255 255 255
-0.506 -0.11 0.673 255 255 255
-0.084 -0.09 0.546 0 0 0
0.101 -0.23 0.451 255 255 255
0.188 -0.016 0.558 255 255 255
-0.392 -0.012 0.676 0 0 0
-0.182 -0.262 0.563 255 255 255
-0.682 0.02 1.118 0 0 0
0.346 0.373 0.847 0 0 0
-0.01 -0.005 0.608 255 255 255
-0.018 -0.175 0.619 255 255 255
-0.214 0.428 0.843 255 255 255
0.128 -0.165 0.588 255 255 255
-0.094 -0.285 0.45 255 255 255
-0.212 -0.284 0.517 255 255 255
-0.182 -0.18 0.582 255 255 255
0.287 0.312 0.885 255 255 255
0.355 -0.107 0.557 255 255 255
0.064 0.279 0.92 255 255 255
0.007 -0.229 0.499 255 255 255
0.226 0.234 0.937 255 255 255
-0.358 -0.006 0.682 255 255 255
-0.237 0.17 1 255 255 255
-0.303 0.46 0.835 255 255 255
-0.21 -0.304 0.486 255 255 255
-0.568 0.208 0.997 255 255 255
0.331 -0.15 0.507 255 255 255
-0.113 -0.11 0.563 255 255 255
0.087 -0.088 0.569 255 255 255
0.033 -0.21 0.53 255 255 255
-0.124 -0.274 0.495 255 255 255
-0.412 0.202 0.989 255 255 255
-0.144 0.075 0.904 0 0 0
0.401 0.321 0.871 255 255 255
-0.015 -0.284 0.415 255 255 255
-0.267 -0.222 0.691 0 0 0
-0.369 -0.215 0.614 255 255 255
0.341 0.067 0.545 255 255 255
-0.134 -0.133 0.6 0 0 0
-0.081 -0.128 0.569 0 0 0
-0.481 0.125 1.027 255 255 255
-0.044 -0.246 0.502 255 255 255
0.409 0.268 0.861 255 255 255
-0.358 -0.244 0.587 255 255 255
-0.11 -0.263 0.506 255 255 255
0.139 0.446 0.817 255 255 255
-0.058 0.16 0.997 255 255 255
-0.115 -0.295 0.435 255 255 255
-0.078 -0.217 0.595 255 255 255
-0.143 -0.327 0.436 0 0 0
-0.094 -0.237 0.574 255 255 255
-0.289 -0.05 0.678 255 255 255
0.306 -0.152 0.506 255 255 255
-0.617 0.114 1.049 255 255 255
-0.172 -0.299 0.466 255 255 255
-0.107 -0.051 0.583 0 0 0
0.094 -0.257 0.406 255 255 255
0.251 0.06 0.647 255 255 255
-0.301 -0.056 0.749 255 255 255
0.172 -0.186 0.509 255 255 255
-0.142 -0.162 0.607 255 255 255
0.134 0.388 0.853 0 0 0
-0.101 -0.248 0.557 255 255 255
-0.368 0.379 0.879 255 255 255
-0.424 -0.027 0.649 255 255 255
-0.342 -0.193 0.623 255 255 255
-0.193 0.393 0.861 0 0 0
-0.382 -0.074 0.632 255 255 255
-0.189 -0.278 0.524 255 255 255
0.156 0.256 0.928 255 255 255
0.102 -0.021 0.598 255 255 255
0.166 -0.083 0.518 255 255 255
-0.164 -0.277 0.511 255 255 255
-0.534 0.073 1.06 255 255 255
-0.25 0.242 0.955 255 255 255
-0.12 -0.134 0.604 255 255 255
0.053 -0.298 0.403 0 0 0
-0.016 -0.253 0.459 255 255 255
-0.26 -0.315 0.484 255 255 255
0.119 -0.065 0.537 255 255 255
0.157 -0.258 0.392 255 255 255
-0.238 0.366 0.879 255 255 255
-0.377 0.322 0.913 255 255 255
0.064 -0.301 0.4 0 0 0
0.27 0.291 0.9 255 255 255
0.124 -0.179 0.556 255 255 255
0.222 0.129 0.79 255 255 255
-0.174 -0.222 0.626 0 0 0
0.024 0.323 0.895 255 255 255
-0.231 -0.144 0.609 255 255 255
-0.072 0.127 1.018 255 255 255
0.012 -0.136 0.658 0 0 0
0.119 -0.213 0.481 255 255 255
-0.059 -0.266 0.468 255 255 255
0.136 -0.216 0.466 255 255 255
-0.044 -0.118 0.56 255 255 255
0.224 -0.131 0.564 255 255 255
-0.033 -0.003 0.616 0 0 0
0.004 0.094 0.766 255 255 255
-0.052 -0.076 0.566 0 0 0
-0.04 -0.047 0.57 255 255 255
0.211 -0.244 0.399 255 255 255
0.029 0.223 0.957 255 255 255
0.137 -0.239 0.421 255 255 255
0.223 0.123 0.845 255 255 255
0.16 -0.252 0.393 255 255 255
0.02 -0.185 0.592 255 255 255
-0.487 0.07 1.06 255 255 255
-0.225 -0.085 0.662 255 255 255
-0.336 0.3 0.923 255 255 255
0.274 0.004 0.54 255 255 255
-0.252 -0.22 0.668 0 0 0
-0.061 -0.203 0.633 255 255 255
0.046 -0.199 0.557 255 255 255
-0.019 -0.176 0.619 255 255 255
-0.069 -0.124 0.573 0 0 0
-0.09 -0.138 0.581 255 255 255
-0.195 -0.317 0.443 255 255 255
0.164 -0.076 0.511 255 255 255
0.099 0.145 0.936 255 255 255
-0.303 0.243 0.957 255 255 255
-0.017 -0.063 0.559 255 255 255
0.218 -0.175 0.502 255 255 255
-0.042 -0.279 0.429 255 255 255
0.126 -0.049 0.504 255 255 255
-0.232 -0.244 0.647 255 255 255
-0.104 -0.306 0.429 255 255 255
-0.2 0.4 0.858 0 0 0
-0.099 -0.219 0.628 0 0 0
-0.445 -0.034 0.622 255 255 255
-0.308 0.246 0.954 255 255 255
-0.129 -0.197 0.645 255 255 255
0.148 -0.138 0.589 255 255 255
0.22 -0.185 0.478 255 255 255
-0.372 0.093 1.042 255 255 255
0.151 -0.237 0.42 255 255 255
0.349 -0.132 0.516 255 255 255
0.113 0.335 0.885 255 255 255
0.311 -0.045 0.446 255 255 255
-0.297 -0.213 0.707 255 255 255
0.057 -0.22 0.497 255 255 255
-0.117 0.313 0.907 255 255 255
0.338 0.253 0.916 0 0 0
-0.174 -0.257 0.586 255 255 255
-0.09 -0.255 0.513 255 255 255
0.231 0.41 0.833 255 255 255
-0.242 0.42 0.848 255 255 255
-0.44 -0.075 0.607 255 255 255
-0.107 -0.075 0.567 255 255 255
-0.526 0.097 1.044 255 255 255
0.052 -0.021 0.626 255 255 255
0.229 0.351 0.865 255 255 255
0.273 -0.205 0.446 255 255 255
-0.019 -0.032 0.6 0 0 0
0.056 -0.24 0.455 255 255 255
-0.1 0.212 0.966 255 255 255
-0.415 0.331 0.911 255 255 255
-0.174 0.322 0.903 255 255 255
-0.603 0.12 1.044 255 255 255
-0.101 0.19 0.98 255 255 255
-0.003 -0.303 0.409 0 0 0
-0.331 0.038 0.948 0 0 0
0.177 0.058 0.727 255 255 255
0.004 -0.214 0.541 255 255 255
-0.077 -0.122 0.559 0 0 0
0.201 -0.17 0.527 255 255 255
0.253 0.066 0.652 255 255 255
-0.229 -0.332 0.45 0 0 0
0.254 -0.04 0.448 0 0 0
-0.014 0.102 0.877 255 255 255
-0.236 0.393 0.864 0 0 0
-0.344 0.054 1.038 255 255 255
0.438 0.294 0.886 255 255 255
0.123 0.234 0.931 255 255 255
0.329 -0.175 0.487 255 255 255
0.113 -0.044 0.513 255 255 255
-0.293 0.361 0.884 255 255 255
0.051 0.262 0.929 255 255 255
0.111 -0.041 0.513 255 255 255
-0.093 -0.287 0.435 255 255 255
0.062 -0.166 0.598 255 255 255
-0.078 -0.094 0.556 0 0 0
-0.316 0.017 0.892 255 255 255
-0.189 -0.316 0.442 255 255 255
-0.053 -0.277 0.448 255 255 255
0.166 -0.155 0.578 255 255 255
-0.262 -0.306 0.512 255 255 255
0.226 -0.044 0.457 0 0 0
-0.1 0.208 0.968 255 255 255
-0.344 0.407 0.863 0 0 0
-0.837 -0.015 1.136 255 255 255
-0.139 -0.332 0.432 0 0 0
-0.08 0.321 0.898 255 255 255
-0.318 0.411 0.859 255 255 255
-0.022 -0.09 0.554 0 0 0
-0.33 0.154 1.014 255 255 255
0.164 0.075 0.758 255 255 255
0.229 0.018 0.596 255 255 255
0.032 0.307 0.906 255 255 255
-0.288 -0.083 0.598 255 255 255
-0.231 -0.221 0.655 0 0 0
-0.159 -0.194 0.67 0 0 0
-0.048 0.155 1 255 255 255
0.141 -0.147 0.589 255 255 255
0.127 -0.253 0.404 255 255 255
0.161 0.449 0.816 255 255 255
-0.382 -0.025 0.667 0 0 0
-0.489 0.032 1.077 255 255 255
0.114 -0.162 0.592 255 255 255
-0.39 -0.137 0.62 255 255 255
0.191 -0.207 0.457 255 255 255
0.171 0.041 0.686 255 255 255
0.233 -0.187 0.47 255 255 255
0.17 0.272 0.918 255 255 255
-0.289 0.085 1.041 255 255 255
0.161 -0.165 0.569 255 255 255
-0.594 0.177 1.004 255 255 255
-0.323 -0.226 0.632 0 0 0
0.022 -0.225 0.499 255 255 255
0.359 0.305 0.883 255 255 255
0.143 0.446 0.817 255 255 255
0.204 -0.037 0.515 255 255 255
-0.364 -0.176 0.617 255 255 255
-0.388 -0.176 0.614 255 255 255
0.003 0.397 0.853 0 0 0
-0.292 -0.073 0.681 255 255 255
0.061 0.316 0.898 255 255 255
0.206 -0.006 0.562 255 255 255
-0.403 0.198 0.99 255 255 255
0.091 -0.243 0.432 255 255 255
-0.41 0.06 1.062 255 255 255
-0.003 -0.166 0.618 255 255 255
-0.159 -0.022 0.642 255 255 255
0.128 -0.242 0.42 255 255 255
-0.273 0.023 0.92 255 255 255
0.197 -0.053 0.462 0 0 0
-0.296 -0.081 0.697 255 255 255
-0.031 0.005 0.63 255 255 255
-0.281 0.098 1.036 255 255 255
-0.167 -0.27 0.545 255 255 255
0.255 0.019 0.584 255 255 255
0.234 -0.019 0.534 255 255 255
0.215 -0.133 0.563 255 255 255
0.443 0.307 0.88 255 255 255
0.153 -0.12 0.597 0 0 0
-0.375 -0.026 0.664 0 0 0
0.103 -0.217 0.48 255 255 255
0.131 -0.153 0.589 255 255 255
0.169 -0.218 0.442 255 255 255
-0.121 -0.207 0.64 255 255 255
0.012 -0.166 0.615 255 255 255
-0.201 -0.296 0.489 255 255 255
-0.151 -0.218 0.649 255 255 255
-0.386 0.083 1.05 255 255 255
0.051 -0.197 0.561 255 255 255
-0.252 -0.006 0.826 255 255 255
0.271 0.423 0.821 255 255 255
-0.194 0.267 0.936 255 255 255
-0.496 -0.097 0.663 255 255 255
-0.243 0.329 0.902 255 255 255
0.412 0.213 0.762 255 255 255
-0.253 -0.293 0.54 255 255 255
0.16 0.201 0.938 0 0 0
0.02 -0.103 0.6 255 255 255
0.042 0.345 0.883 255 255 255
-0.505 0.177 1.009 0 0 0
-0.006 0.214 0.962 255 255 255
0.102 -0.188 0.551 255 255 255
0.156 0.092 0.778 255 255 255
0.029 -0.042 0.604 255 255 255
-0.096 -0.028 0.619 255 255 255
-0.663 0.096 1.064 255 255 255
0.353 0.115 0.731 255 255 255
0.244 0.444 0.812 255 255 255
-0.014 -0.009 0.597 255 255 255
-0.027 -0.028 0.578 255 255 255
0.31 0.407 0.831 255 255 255
-0.042 -0.285 0.419 255 255 255
-0.033 0.401 0.851 0 0 0
-0.05 -0.282 0.427 255 255 255
-0.196 0.35 0.887 255 255 255
0.128 -0.052 0.5 0 0 0
-0.06 -0.21 0.597 255 255 255
0.13 -0.022 0.581 255 255 255
0.337 0.057 0.574 255 255 255
-0.133 -0.325 0.435 0 0 0
-0.104 0.295 0.916 255 255 255
0.124 -0.231 0.44 255 255 255
0.23 -0.139 0.556 255 255 255
-0.164 -0.067 0.612 255 255 255
0.213 -0.218 0.425 255 255 255
-0.406 -0.001 0.901 0 0 0
0.312 0.309 0.884 255 255 255
0.023 -0.263 0.423 255 255 255
-0.027 0.083 0.843 255 255 255
0.261 0.062 0.641 255 255 255
-0.06 0.179 0.986 255 255 255
0.087 0.251 0.932 255 255 255
0.001 -0.267 0.43 0 0 0
-0.307 -0.173 0.591 255 255 255
0.056 -0.217 0.507 255 255 255
0.075 -0.263 0.406 255 255 255
-0.024 -0.064 0.561 255 255 255
0.054 -0.181 0.584 255 255 255
-0.197 0.012 0.815 255 255 255
0.35 0.245 0.921 0 0 0
-0.3 0.231 0.963 255 255 255
0.051 0.166 0.983 0 0 0
-0.152 -0.277 0.504 255 255 255
0.244 -0.176 0.489 0 0 0
-0.212 -0.121 0.59 255 255 255
-0.213 0.256 0.945 255 255 255
-0.101 -0.236 0.597 0 0 0
-0.243 -0.316 0.481 255 255 255
-0.303 -0.063 0.756 255 255 255
0.224 -0.21 0.435 255 255 255
0.406 0.228 0.805 255 255 255
-0.032 -0.258 0.471 255 255 255
-0.291 -0.036 0.666 255 255 255
-0.01 -0.302 0.409 0 0 0
-0.201 -0.161 0.616 0 0 0
0.139 0.415 0.835 255 255 255
-0.455 0.061 1.063 255 255 255
0.106 0.221 0.919 255 255 255
-0.03 0.35 0.882 255 255 255
-0.345 -0.229 0.61 255 255 255
-0.046 -0.223 0.575 255 255 255
-0.442 -0.019 0.654 255 255 255
0.206 0.029 0.634 255 255 255
-0.101 -0.094 0.545 255 255 255
-0.255 -0.163 0.621 255 255 255
-0.222 -0.281 0.552 255 255 255
0.074 0.387 0.856 0 0 0
-0.209 0.137 1.018 255 255 255
0.015 0.314 0.903 255 255 255
0.078 0.172 0.948 0 0 0
-0.228 -0.211 0.653 0 0 0
0.292 0.032 0.586 255 255 255
-0.215 -0.251 0.616 255 255 255
-0.649 0.046 1.092 255 255 255
0.043 -0.258 0.434 255 255 255
0.133 -0.251 0.406 255 255 255
-0.576 0.064 1.079 255 255 255
-0.127 -0.069 0.587 255 255 255
-0.38 -0.096 0.623 255 255 255
-0.226 0.269 0.937 255 255 255
-0.406 0.314 0.92 255 255 255
0.161 -0.251 0.395 255 255 255
-0.157 -0.194 0.669 0 0 0
0.008 -0.254 0.444 255 255 255
0.329 0.05 0.535 255 255 255
0.134 -0.252 0.404 255 255 255
-0.108 -0.251 0.539 255 255 255
0.195 -0.017 0.546 255 255 255
-0.42 -0.236 0.645 255 255 255
-0.013 -0.07 0.556 255 255 255
0.022 -0.221 0.508 255 255 255
0.015 -0.237 0.473 255 255 255
-0.286 -0.112 0.607 0 0 0
-0.395 -0.206 0.629 255 255 255
-0.058 -0.239 0.532 255 255 255
-0.125 -0.158 0.633 255 255 255
0.419 0.206 0.757 255 255 255
-0.032 0.171 0.989 255 255 255
-0.267 -0.095 0.671 255 255 255
0.08 0.443 0.824 255 255 255
0.102 -0.301 0.391 0 0 0
0.02 0.361 0.874 255 255 255
0.033 0.221 0.957 255 255 255
0.078 -0.208 0.512 255 255 255
-0.659 0.054 1.089 255 255 255
-0.36 -0.21 0.618 255 255 255
-0.135 -0.196 0.649 255 255 255
-0.157 0.353 0.885 255 255 255
0.337 0.047 0.586 255 255 255
-0.219 -0.322 0.448 0 0 0
-0.284 -0.077 0.606 255 255 255
0.04 0.389 0.857 0 0 0
-0.464 0.043 1.073 255 255 255
-0.13 -0.044 0.614 0 0 0
-0.414 -0.149 0.604 255 255 255
-0.07 -0.259 0.496 255 255 255
-0.224 0.005 0.819 255 255 255
0.018 -0.249 0.444 255 255 255
-0.288 -0.088 0.596 255 255 255
0.221 -0.23 0.413 255 255 255
-0.263 0.103 1.033 255 255 255
-0.196 -0.16 0.614 0 0 0
-0.032 -0.289 0.417 255 255 255
-0.293 0.116 1.03 255 255 255
-0.442 -0.177 0.615 255 255 255
0.005 0.386 0.861 0 0 0
-0.02 -0.169 0.621 255 255 255
0.005 -0.253 0.445 255 255 255
-0.296 -0.206 0.704 0 0 0
0.03 -0.233 0.481 255 255 255
0.144 -0.22 0.452 255 255 255
-0.022 -0.205 0.587 255 255 255
-0.486 0.295 0.936 255 255 255
0.163 -0.003 0.595 255 255 255
0.059 -0.026 0.617 255 255 255
-0.382 0.368 0.885 255 255 255
-0.02 0.009 0.639 255 255 255
0.241 -0.181 0.476 255 255 255
0.064 -0.231 0.468 255 255 255
0.178 -0.287 0.387 0 0 0
-0.029 -0.052 0.57 0 0 0
-0.045 -0.284 0.42 255 255 255
0.202 -0.009 0.557 255 255 255
-0.305 -0.094 0.593 255 255 255
0.084 -0.05 0.525 255 255 255
0.016 0.389 0.858 0 0 0
-0.272 0.028 0.884 255 255 255
0.127 -0.244 0.418 255 255 255
0.138 -0.069 0.528 255 255 255
0.096 -0.025 0.597 255 255 255
-0.057 -0.107 0.562 255 255 255
-0.228 -0.273 0.561 255 255 255
0.249 -0.196 0.449 255 255 255
-0.496 0.07 1.059 255 255 255
-0.083 0.034 0.77 255 255 255
0.014 -0.141 0.649 255 255 255
0.154 -0.242 0.41 255 255 255
0.195 0.079 0.743 255 255 255
0.172 -0.2 0.482 255 255 255
0.22 -0.211 0.436 255 255 255
0.244 0.413 0.832 255 255 255
-0.05 -0.281 0.431 255 255 255
-0.275 0.464 0.832 255 255 255
-0.305 -0.04 0.631 255 255 255
0.118 -0.228 0.449 255 255 255
0.15 -0.142 0.587 255 255 255
-0.187 -0.32 0.443 0 0 0
0.04 -0.076 0.577 255 255 255
-0.295 0.403 0.861 0 0 0
-0.222 0.29 0.924 255 255 255
-0.406 0.117 1.03 255 255 255
-0.096 0.252 0.941 255 255 255
0.058 -0.131 0.637 0 0 0
-0.042 -0.292 0.419 255 255 255
-0.074 0.046 0.839 255 255 255
0.044 -0.058 0.548 255 255 255
-0.27 -0.296 0.545 255 255 255
0.157 -0.203 0.481 255 255 255
-0.299 0.289 0.929 255 255 255
-0.318 -0.297 0.571 255 255 255
-0.102 -0.061 0.576 255 255 255
0.046 -0.135 0.637 0 0 0
-0.136 -0.251 0.572 255 255 255
-0.483 0.079 1.053 255 255 255
0.102 0.425 0.832 255 255 255
0.165 -0.242 0.407 255 255 255
0.128 0.129 0.848 255 255 255
0.279 -0.004 0.53 255 255 255
-0.083 0.294 0.915 255 255 255
0.143 -0.051 0.489 255 255 255
-0.353 -0.039 0.646 255 255 255
-0.46 -0.145 0.628 255 255 255
-0.637 0.065 1.081 255 255 255
0.043 -0.091 0.586 255 255 255
-0.284 -0.228 0.7 0 0 0
0.205 -0.216 0.434 255 255 255
-0.533 0.1 1.046 255 255 255
0.246 -0.143 0.551 255 255 255
-0.024 -0.274 0.431 255 255 255
0.262 -0.02 0.516 255 255 255
-0.309 -0.166 0.59 255 255 255
0.341 0.35 0.857 255 255 255
-0.051 -0.256 0.48 255 255 255
0.328 -0.007 0.488 255 255 255
0.159 0.451 0.815 255 255 255
-0.209 -0.128 0.6 255 255 255
-0.355 -0.284 0.626 255 255 255
-0.043 -0.208 0.592 255 255 255
0.197 0.272 0.915 255 255 255
-0.126 -0.002 0.675 255 255 255
-0.232 0.367 0.878 255 255 255
-0.076 -0.237 0.563 255 255 255
-0.13 -0.03 0.627 255 255 255
0.199 0.421 0.83 255 255 255
0.121 -0.228 0.446 255 255 255
0.111 0.134 0.862 255 255 255
-0.128 0.404 0.853 0 0 0
-0.051 0.433 0.836 255 255 255
0.164 0.21 0.926 0 0 0
0.074 -0.29 0.4 0 0 0
0.357 -0.108 0.556 255 255 255
-0.264 0.301 0.919 255 255 255
0.274 0.206 0.946 255 255 255
-0.32 0.037 0.945 0 0 0
-0.216 -0.27 0.557 255 255 255
0.354 0.355 0.856 255 255 255
0.04 -0.058 0.548 255 255 255
-0.156 -0.328 0.44 0 0 0
0.291 -0.009 0.514 255 255 255
0.008 0.094 0.798 255 255 255
0.319 -0.147 0.509 255 255 255
0.175 -0.249 0.395 255 255 255
0.149 -0.114 0.602 0 0 0
0.146 0.187 0.948 0 0 0
0.14 -0.174 0.56 255 255 255
-0.072 0.267 0.93 255 255 255
0.138 0.107 0.814 255 255 255
0.182 0.395 0.844 0 0 0
-0.092 -0.067 0.573 255 255 255
0.009 -0.06 0.555 255 255 255
0.235 0.442 0.814 255 255 255
0.361 0.375 0.848 0 0 0
-0.13 0.207 0.971 255 255 255
-0.155 -0.207 0.631 255 255 255
-0.278 0.067 1.026 255 255 255
0.198 0.258 0.923 255 255 255
0.116 -0.254 0.403 255 255 255
0.026 -0.186 0.586 255 255 255
-0.006 -0.256 0.447 255 255 255
-0.02 0.217 0.959 255 255 255
-0.035 -0.241 0.512 255 255 255
0.178 -0.24 0.407 255 255 255
0.291 0.003 0.531 255 255 255
-0.217 -0.298 0.504 255 255 255
0.371 -0.109 0.552 255 255 255
-0.073 -0.284 0.438 255 255 255
0.251 -0.183 0.472 255 255 255
0.089 -0.25 0.427 255 255 255
0.232 0.342 0.872 255 255 255
0.165 -0.067 0.498 255 255 255
-0.13 0.32 0.903 255 255 255
-0.408 0.138 1.022 255 255 255
-0.231 0.316 0.907 255 255 255
-0.083 -0.214 0.614 255 255 255
0.148 -0.063 0.505 255 255 255
-0.096 -0.037 0.6 0 0 0
-0.061 -0.01 0.623 0 0 0
-0.557 0.225 0.984 255 255 255
-0.34 -0.052 0.636 255 255 255
0.075 0.183 0.952 0 0 0
-0.187 0.398 0.86 0 0 0
-0.32 -0.018 0.65 255 255 255
0.222 0.13 0.788 255 255 255
-0.028 -0.026 0.578 255 255 255
0.139 -0.2 0.494 255 255 255
0.146 -0.025 0.566 255 255 255
0.327 0.038 0.515 255 255 255
0.207 0.014 0.6 255 255 255
-0.026 -0.102 0.553 0 0 0
-0.647 0.07 1.078 255 255 255
-0.462 0.263 0.954 255 255 255
-0.466 0.25 0.964 255 255 255
-0.038 0.409 0.847 255 255 255
-0.232 -0.321 0.454 255 255 255
0.098 -0.129 0.613 255 255 255
-0.063 -0.23 0.565 255 255 255
-0.128 0.289 0.921 255 255 255
-0.044 0.402 0.85 0 0 0
-0.251 -0.293 0.524 255 255 255
-0.192 -0.279 0.525 255 255 255
-0.27 0.418 0.852 255 255 255
0.146 0.082 0.745 255 255 255
-0.441 0.11 1.035 255 255 255
0.215 -0.185 0.48 255 255 255
0.118 -0.248 0.415 255 255 255
0.228 -0.11 0.533 0 0 0
-0.482 0.046 1.073 255 255 255
-0.426 0.303 0.928 255 255 255
0.315 0.285 0.898 255 255 255
0.284 0.009 0.552 255 255 255
-0.063 0.096 0.901 0 0 0
-0.142 0.082 0.927 255 255 255
-0.112 -0.259 0.516 255 255 255
0.114 -0.217 0.476 255 255 255
0.212 0.003 0.579 255 255 255
0.255 -0.057 0.456 255 255 255
0.148 0.419 0.833 255 255 255
-0.108 -0.268 0.499 255 255 255
0.211 0.072 0.701 255 255 255
0.105 -0.235 0.441 255 255 255
0.013 -0.154 0.63 255 255 255
0.242 -0.072 0.467 255 255 255
-0.647 0.063 1.083 255 255 255
-0.401 0.182 1 255 255 255
0.016 -0.308 0.409 0 0 0
-0.021 -0.293 0.416 255 255 255
-0.17 0.217 0.966 255 255 255
0.058 -0.066 0.563 255 255 255
-0.054 0.249 0.941 255 255 255
-0.002 -0.05 0.557 255 255 255
0.321 -0.062 0.456 0 0 0
-0.323 -0.029 0.642 255 255 255
0.159 -0.174 0.544 255 255 255
0.088 -0.01 0.619 255 255 255
-0.065 0.047 0.834 255 255 255
0.024 0.335 0.889 255 255 255
-0.598 0.12 1.045 255 255 255
-0.047 -0.112 0.554 0 0 0
0.18 -0.293 0.386 0 0 0
0.015 0.049 0.766 255 255 255
-0.197 -0.144 0.607 0 0 0
-0.455 -0.046 0.611 255 255 255
0.189 0.236 0.939 255 255 255
0.11 -0.155 0.594 255 255 255
0.155 0.247 0.934 255 255 255
0.087 -0.069 0.557 255 255 255
0.058 0.221 0.957 255 255 255
-0.176 0.124 1.024 255 255 255
0.099 -0.218 0.478 255 255 255
-0.118 -0.193 0.646 255 255 255
0.398 0.203 0.755 255 255 255
0.304 0.108 0.707 255 255 255
0.223 -0.181 0.48 255 255 255
0.244 -0.177 0.479 255 255 255
0.13 -0.255 0.401 255 255 255
0.044 -0.252 0.438 255 255 255
0.283 -0.163 0.505 255 255 255
-0.327 -0.252 0.635 0 0 0
0.194 -0.249 0.39 255 255 255
-0.414 -0.146 0.606 255 255 255
0.148 -0.043 0.492 255 255 255
0.273 0.003 0.538 255 255 255
0.267 0.337 0.873 255 255 255
-0.051 -0.257 0.479 255 255 255
-0.254 0.235 0.959 255 255 255
0.372 -0.104 0.549 255 255 255
-0.749 0.046 1.098 255 255 255
-0.146 0.431 0.84 255 255 255
-0.257 0.193 0.984 255 255 255
0.208 -0.231 0.413 255 255 255
-0.453 -0.087 0.616 255 255 255
-0.129 0.163 0.997 255 255 255
-0.441 0.059 1.066 255 255 255
-0.279 -0.298 0.532 255 255 255
-0.145 -0.076 0.584 255 255 255
0.114 -0.26 0.399 255 255 255
-0.046 0.356 0.879 255 255 255
-0.172 -0.274 0.539 255 255 255
0.17 0.307 0.896 255 255 255
0.212 0.124 0.796 255 255 255
-0.405 0.269 0.945 255 255 255
-0.164 0.132 1.018 255 255 255
-0.381 0.27 0.945 255 255 255
-0.028 -0.298 0.417 255 255 255
0.286 -0.138 0.536 255 255 255
-0.406 -0.158 0.604 255 255 255
-0.324 -0.016 0.651 0 0 0
-0.033 0.237 0.949 255 255 255
0.244 0.047 0.641 255 255 255
-0.145 0.007 0.679 255 255 255
-0.265 -0.128 0.587 255 255 255
-0.273 0.456 0.835 255 255 255
-0.121 -0.253 0.551 255 255 255
-0.167 -0.335 0.44 0 0 0
-0.134 -0.063 0.599 255 255 255
0.022 -0.065 0.565 255 255 255
-0.053 -0.218 0.589 255 255 255
0.173 -0.265 0.388 255 255 255
0.113 -0.092 0.561 255 255 255
-0.515 0.099 1.043 255 255 255
0.044 0.212 0.962 255 255 255
0.11 -0.186 0.551 255 255 255
0.06 -0.219 0.498 255 255 255
0.044 0.321 0.894 255 255 255
0.353 -0.161 0.511 255 255 255
-0.411 0.094 1.044 255 255 255
0.269 -0.201 0.448 255 255 255
0.25 0.193 0.926 0 0 0
-0.435 -0.176 0.614 255 255 255
0.148 0.195 0.949 255 255 255
0.039 -0.22 0.505 255 255 255
0.185 -0.234 0.412 255 255 255
0.275 0.449 0.811 255 255 255
0.363 0.296 0.889 255 255 255
-0.167 -0.273 0.514 255 255 255
-0.254 0.298 0.92 255 255 255
0.067 -0.276 0.402 255 255 255
0.36 0.147 0.789 255 255 255
0.128 -0.229 0.442 255 255 255
0.179 0.118 0.803 255 255 255
0.322 0.275 0.903 0 0 0
-0.852 -0.018 1.138 255 255 255
-0.293 -0.064 0.712 255 255 255
0.257 0.182 0.918 255 255 255
0.131 -0.227 0.446 255 255 255
0.173 -0.268 0.388 255 255 255
-0.049 0.433 0.836 255 255 255
0.318 0.235 0.929 255 255 255
-0.139 0.023 0.737 255 255 255
0.171 -0.2 0.482 255 255 255
-0.143 0.167 0.996 255 255 255
0.047 -0.037 0.602 255 255 255
0.173 -0.212 0.455 255 255 255
-0.232 -0.135 0.603 255 255 255
-0.387 -0.056 0.639 255 255 255
-0.388 0.324 0.912 255 255 255
-0.293 0.465 0.831 255 255 255
0.3 -0.022 0.47 255 255 255
0.19 0.381 0.853 0 0 0
0.147 -0.244 0.409 255 255 255
0.097 -0.213 0.491 255 255 255
0.332 0.024 0.544 255 255 255
-0.173 -0.214 0.632 0 0 0
-0.455 0.012 0.664 0 0 0
-0.228 0.363 0.88 255 255 255
-0.337 0.093 1.04 255 255 255
0.304 0.05 0.614 255 255 255
0.233 0.062 0.662 255 255 255
-0.334 -0.021 0.651 255 255 255
-0.046 -0.253 0.491 255 255 255
0.207 -0.193 0.473 255 255 255
0.236 -0.048 0.45 255 255 255
0.243 -0.199 0.449 255 255 255
-0.434 0.156 1.018 255 255 255
0.12 -0.17 0.585 0 0 0
0.013 0.336 0.888 255 255 255
-0.265 -0.285 0.561 255 255 255
0.294 -0.184 0.47 255 255 255
0.176 -0.058 0.467 255 255 255
-0.228 -0.294 0.512 255 255 255
0.118 -0.272 0.397 255 255 255
0.193 0.041 0.67 255 255 255
0.011 0.45 0.827 255 255 255
-0.424 -0.059 0.623 255 255 255
0.327 -0.125 0.524 255 255 255
-0.362 -0.121 0.611 255 255 255
-0.387 -0.137 0.619 255 255 255
0.01 -0.269 0.421 255 255 255
0.036 -0.085 0.584 255 255 255
0.203 0 0.578 255 255 255
0.19 0.008 0.602 255 255 255
0.081 -0.025 0.604 255 255 255
-0.106 0.019 0.666 255 255 255
-0.525 0.044 1.076 255 255 255
-0.073 0.409 0.849 255 255 255
0.088 -0.158 0.596 255 255 255
-0.414 -0.03 0.649 255 255 255
-0.217 -0.35 0.444 255 255 255
-0.163 -0.257 0.575 255 255 255
0.093 -0.276 0.399 255 255 255
0.147 -0.099 0.548 0 0 0
0.07 -0.155 0.606 255 255 255
0.392 -0.105 0.545 255 255 255
-0.031 -0.275 0.429 255 255 255
0.081 -0.27 0.4 255 255 255
-0.386 0.098 1.041 255 255 255
-0.071 -0.087 0.557 255 255 255
-0.41 0.007 0.696 0 0 0
0.05 -0.074 0.572 255 255 255
0.199 -0.045 0.467 255 255 255
-0.404 0.158 1.015 255 255 255
0.178 -0.22 0.436 255 255 255
0.237 0.414 0.831 255 255 255
0.4 0.25 0.894 0 0 0
-0.114 -0.142 0.605 255 255 255
-0.314 -0.228 0.683 0 0 0
-0.402 -0.019 0.664 255 255 255
-0.243 0.241 0.954 255 255 255
-0.516 0.108 1.039 255 255 255
-0.167 0.375 0.871 255 255 255
0.057 -0.278 0.403 255 255 255
0.141 0.237 0.934 255 255 255
0.383 0.266 0.908 0 0 0
0.238 -0.013 0.537 255 255 255
0.185 -0.012 0.562 255 255 255
-0.686 0.119 1.051 255 255 255
-0.019 -0.114 0.543 255 255 255
-0.227 0.4 0.858 0 0 0
0.147 0.242 0.937 255 255 255
-0.186 0.05 0.876 255 255 255
0.089 -0.174 0.584 255 255 255
0.009 0.431 0.832 255 255 255
-0.374 -0.138 0.611 255 255 255
-0.057 -0.192 0.628 255 255 255
0.075 -0.204 0.525 255 255 255
0.089 -0.205 0.515 255 255 255
-0.004 0.375 0.867 255 255 255
0.067 0.318 0.897 255 255 255
0.001 0.008 0.616 255 255 255
0.194 -0.088 0.497 255 255 255
-0.114 -0.273 0.486 255 255 255
-0.361 -0.239 0.582 255 255 255
0.114 -0.175 0.573 255 255 255
0.077 0.288 0.914 255 255 255
0.087 -0.154 0.603 255 255 255
-0.047 -0.204 0.619 0 0 0
0.136 -0.176 0.556 255 255 255
-0.171 -0.057 0.612 255 255 255
-0.145 -0.292 0.461 255 255 255
-0.055 0.122 1.011 255 255 255
-0.45 0.241 0.967 255 255 255
-0.015 -0.056 0.56 255 255 255
0.129 0.126 0.844 255 255 255
-0.242 -0.232 0.654 255 255 255
0.137 -0.298 0.391 0 0 0
0.081 0.266 0.928 255 255 255
0.173 -0.185 0.509 255 255 255
0.137 -0.263 0.394 255 255 255
-0.092 -0.203 0.635 255 255 255
0.142 -0.204 0.485 255 255 255
0.144 -0.084 0.538 255 255 255
0.26 0.333 0.876 255 255 255
0.237 -0.177 0.492 0 0 0
-0.017 -0.28 0.415 255 255 255
0.067 -0.109 0.614 255 255 255
-0.213 -0.267 0.584 255 255 255
0.081 -0.29 0.4 0 0 0
-0.131 0.305 0.912 255 255 255
-0.005 -0.217 0.536 255 255 255
0.212 0.281 0.91 255 255 255
0.146 -0.09 0.539 255 255 255
-0.418 -0.04 0.642 0 0 0
-0.076 0.444 0.831 255 255 255
-0.152 0.243 0.95 255 255 255
-0.113 -0.237 0.603 0 0 0
0.021 -0.243 0.453 255 255 255
-0.116 0.014 0.67 255 255 255
0.093 0.431 0.829 255 255 255
0.112 -0.176 0.571 255 255 255
-0.091 -0.02 0.632 255 255 255
0.211 0.03 0.634 255 255 255
-0.107 0.432 0.838 255 255 255
0.124 -0.264 0.396 255 255 255
-0.084 -0.287 0.433 255 255 255
0.378 -0.099 0.547 255 255 255
-0.059 -0.267 0.461 255 255 255
0.363 0.137 0.768 255 255 255
0.288 0.246 0.924 255 255 255
0 -0.181 0.615 255 255 255
0.075 0.094 0.822 255 255 255
-0.407 -0.1 0.627 255 255 255
0.084 -0.263 0.402 255 255 255
-0.65 0.056 1.089 255 255 255
-0.274 -0.16 0.621 255 255 255
0.081 -0.238 0.449 255 255 255
0.182 -0.097 0.516 0 0 0
0.092 -0.204 0.514 255 255 255
-0.071 -0.304 0.423 255 255 255
0.373 0.194 0.766 255 255 255
-0.155 -0.134 0.592 0 0 0
-0.235 -0.166 0.624 255 255 255
0.29 0.022 0.566 255 255 255
0.053 -0.129 0.643 0 0 0
0.309 0.122 0.725 255 255 255
0.196 0.022 0.626 255 255 255
-0.192 0.281 0.927 255 255 255
-0.341 0.163 1.006 255 255 255
-0.189 0.162 0.999 255 255 255
-0.186 -0.155 0.611 0 0 0
0.054 -0.178 0.603 255 255 255
0.296 0.22 0.94 255 255 255
-0.338 0.113 1.03 255 255 255
-0.767 0.043 1.1 255 255 255
-0.22 0.314 0.91 255 255 255
-0.613 0.074 1.074 255 255 255
-0.399 -0.168 0.604 255 255 255
-0.298 -0.202 0.632 0 0 0
-0.29 -0.051 0.649 255 255 255
0.265 -0.098 0.507 0 0 0
0.275 -0.06 0.457 255 255 255
0.283 -0.081 0.473 0 0 0
0.309 -0.18 0.473 255 255 255
-0.084 -0.052 0.589 255 255 255
0.13 -0.053 0.499 0 0 0
-0.199 0.15 1.009 255 255 255
0.002 -0.212 0.56 255 255 255
-0.083 -0.011 0.637 255 255 255
-0.142 -0.255 0.558 255 255 255
-0.098 0.087 0.901 0 0 0
-0.265 0.268 0.94 255 255 255
-0.148 -0.147 0.595 255 255 255
-0.197 -0.104 0.58 255 255 255
-0.437 0.242 0.965 255 255 255
0.426 0.263 0.858 255 255 255
0.054 -0.023 0.622 255 255 255
-0.221 -0.001 0.823 255 255 255
-0.291 -0.119 0.648 0 0 0
-0.38 -0.145 0.614 255 255 255
-0.068 -0.26 0.49 255 255 255
0.15 -0.029 0.556 255 255 255
0.192 0.045 0.678 255 255 255
0.285 0.312 0.885 255 255 255
-0.233 -0.283 0.554 255 255 255
0.352 0.101 0.696 255 255 255
0.148 0.003 0.617 255 255 255
0.123 0.293 0.907 255 255 255
-0.207 -0.162 0.619 0 0 0
0.035 -0.266 0.418 255 255 255
-0.393 -0.083 0.632 255 255 255
-0.362 0.184 0.998 255 255 255
-0.003 -0.043 0.562 255 255 255
0.153 -0.036 0.54 255 255 255
-0.331 -0.262 0.635 0 0 0
-0.071 -0.258 0.501 255 255 255
-0.287 -0.061 0.638 255 255 255
0.037 0.335 0.888 255 255 255
-0.29 -0.299 0.546 255 255 255
0.176 -0.198 0.485 255 255 255
0.238 -0.154 0.528 255 255 255
-0.098 -0.068 0.571 255 255 255
0.38 0.193 0.801 255 255 255
-0.298 -0.046 0.633 255 255 255
0.159 -0.23 0.428 255 255 255
-0.012 -0.267 0.438 255 255 255
-0.317 -0.208 0.602 255 255 255
0.374 -0.118 0.543 255 255 255
0.145 -0.091 0.54 255 255 255
-0.072 -0.127 0.561 0 0 0
0 0.322 0.898 255 255 255
0.039 -0.052 0.546 255 255 255
-0.178 0.355 0.883 255 255 255
0.165 -0.213 0.457 255 255 255
0.099 -0.277 0.398 255 255 255
0.193 -0.047 0.469 255 255 255
0.007 -0.064 0.557 255 255 255
-0.156 -0.126 0.591 255 255 255
-0.167 -0.068 0.61 255 255 255
-0.043 -0.135 0.572 255 255 255
-0.003 0.033 0.652 255 255 255
0.073 -0.237 0.453 255 255 255
0.1 0.308 0.9 255 255 255
0.326 0.371 0.848 255 255 255
0.118 -0.289 0.395 0 0 0
0.213 -0.136 0.562 255 255 255
0.33 0.243 0.925 255 255 255
0.114 -0.268 0.396 255 255 255
-0.055 0.032 0.763 255 255 255
0.174 0.337 0.878 255 255 255
-0.028 -0.011 0.608 255 255 255
-0.033 -0.244 0.5 255 255 255
0.289 0.323 0.877 255 255 255
-0.036 -0.201 0.614 0 0 0
-0.147 0.283 0.925 255 255 255
0.264 0.321 0.88 255 255 255
-0.45 -0.056 0.61 255 255 255
0.204 0.385 0.847 0 0 0
-0.01 -0.045 0.566 255 255 255
0.138 -0.08 0.539 255 255 255
0.263 0.043 0.622 255 255 255
-0.143 -0.305 0.437 255 255 255
-0.195 -0.19 0.594 255 255 255
-0.477 -0.119 0.646 255 255 255
-0.351 -0.155 0.609 255 255 255
-0.091 -0.217 0.602 255 255 255
0.261 -0.119 0.554 255 255 255
0.068 -0.06 0.551 255 255 255
-0.445 -0.017 0.641 255 255 255
0.01 -0.274 0.412 255 255 255
-0.567 0.14 1.032 255 255 255
-0.04 -0.271 0.446 255 255 255
-0.464 0.02 1.013 0 0 0
0.129 0.425 0.83 255 255 255
0.079 -0.225 0.471 255 255 255
-0.29 0.302 0.919 255 255 255
-0.381 0.227 0.972 255 255 255
0.314 0.398 0.834 0 0 0
0.21 0.393 0.844 0 0 0
-0.092 0.219 0.962 255 255 255
-0.286 -0.064 0.643 255 255 255
0.293 0.269 0.909 255 255 255
-0.111 -0.246 0.566 255 255 255
-0.621 0.083 1.068 255 255 255
-0.133 -0.227 0.631 0 0 0
-0.211 0.169 0.998 255 255 255
0.033 -0.023 0.594 0 0 0
-0.379 0.185 0.996 255 255 255
0.084 -0.069 0.559 255 255 255
0.271 -0.197 0.452 255 255 255
0.159 -0.016 0.578 255 255 255
-0.207 -0.289 0.509 255 255 255
0.011 -0.251 0.446 255 255 255
-0.127 -0.072 0.583 0 0 0
-0.163 -0.262 0.548 255 255 255
0.363 0.242 0.923 255 255 255
0.069 -0.101 0.59 255 255 255
0.051 -0.264 0.416 255 255 255
0.179 0.031 0.658 255 255 255
-0.378 0.284 0.936 255 255 255
0.125 -0.287 0.393 0 0 0
0.37 -0.107 0.551 255 255 255
-0.08 0.222 0.959 255 255 255
0.021 -0.229 0.488 255 255 255
0.181 0.07 0.745 255 255 255
0.31 -0.182 0.47 255 255 255
0.038 -0.185 0.581 255 255 255
-0.067 0.341 0.887 255 255 255
0.048 -0.092 0.585 255 255 255
0.329 0.005 0.479 255 255 255
0.054 0.398 0.85 0 0 0
0.158 -0.118 0.597 0 0 0
-0.016 -0.277 0.42 255 255 255
-0.073 -0.285 0.43 255 255 255
0.114 -0.204 0.506 255 255 255
-0.084 0.416 0.846 255 255 255
-0.126 0.409 0.85 255 255 255
0.288 -0.022 0.498 255 255 255
0.126 -0.055 0.505 255 255 255
-0.303 -0.06 0.608 255 255 255
0.305 0.062 0.637 255 255 255
0.064 -0.248 0.438 255 255 255
-0.132 -0.017 0.647 255 255 255
0.161 0.004 0.611 255 255 255
-0.09 -0.025 0.625 255 255 255
-0.19 0.321 0.906 255 255 255
-0.216 0.038 0.874 255 255 255
0.006 -0.27 0.422 255 255 255
-0.045 -0.195 0.627 255 255 255
-0.604 0.109 1.052 255 255 255
0.337 0.075 0.642 255 255 255
-0.196 -0.087 0.591 255 255 255
-0.126 -0.28 0.482 255 255 255
0.153 0.106 0.846 255 255 255
-0.129 -0.126 0.605 255 255 255
-0.162 0.11 1.031 255 255 255
0.069 -0.198 0.547 255 255 255
0.173 -0.21 0.46 255 255 255
-0.305 -0.035 0.637 255 255 255
-0.385 0.022 0.952 255 255 255
-0.083 -0.3 0.424 255 255 255
-0.333 -0.302 0.569 255 255 255
-0.166 0.321 0.902 255 255 255
-0.029 0.404 0.85 0 0 0
0.11 -0.135 0.604 255 255 255
0.068 0.161 0.978 255 255 255
0.28 -0.064 0.46 255 255 255
0.197 -0.266 0.387 255 255 255
0.099 -0.031 0.582 255 255 255
0.242 -0.168 0.514 255 255 255
-0.081 -0.243 0.54 255 255 255
-0.311 -0.151 0.588 255 255 255
0.151 0.304 0.901 255 255 255
-0.021 -0.089 0.566 0 0 0
-0.289 -0.052 0.676 255 255 255
0.008 -0.243 0.464 255 255 255
-0.032 0.292 0.916 255 255 255
0.021 0.23 0.951 255 255 255
0.371 0.357 0.857 255 255 255
-0.124 0.416 0.847 255 255 255
-0.446 -0.155 0.617 255 255 255
0.18 -0.053 0.466 0 0 0
-0.468 0.104 1.039 255 255 255
0.065 -0.221 0.491 255 255 255
0.194 -0.164 0.543 255 255 255
-0.17 -0.23 0.637 255 255 255
-0.115 0.429 0.84 255 255 255
0.392 0.296 0.887 255 255 255
-0.22 -0.18 0.626 255 255 255
0.259 -0.147 0.547 255 255 255
-0.666 0.075 1.075 255 255 255
0.028 -0.242 0.459 255 255 255
-0.208 0.451 0.833 255 255 255
0.31 -0.023 0.44 255 255 255
-0.172 -0.315 0.44 255 255 255
-0.233 0.306 0.915 255 255 255
0.268 0.358 0.858 255 255 255
-0.153 -0.249 0.597 255 255 255
-0.056 -0.206 0.612 0 0 0
-0.184 -0.125 0.591 255 255 255
0.348 0.092 0.587 255 255 255
-0.201 0.414 0.85 255 255 255
0.346 0.091 0.64 255 255 255
-0.074 -0.047 0.593 255 255 255
0.178 0.024 0.642 255 255 255
0.06 0.354 0.875 255 255 255
-0.222 -0.245 0.645 255 255 255
-0.215 -0.109 0.586 0 0 0
-0.215 0.002 0.814 255 255 255
0.006 -0.164 0.617 255 255 255
0.26 -0.035 0.45 255 255 255
-0.185 -0.254 0.595 255 255 255
-0.267 -0.163 0.622 255 255 255
0.004 0.193 0.975 255 255 255
-0.094 -0.262 0.503 255 255 255
-0.249 0.163 1.004 255 255 255
-0.19 -0.299 0.479 255 255 255
-0.128 -0.015 0.65 255 255 255
0.102 -0.251 0.414 255 255 255
0.091 -0.036 0.581 255 255 255
0.154 0.284 0.909 255 255 255
0.07 0.111 0.85 255 255 255
-0.3 0.308 0.916 255 255 255
-0.202 -0.307 0.461 255 255 255
0.004 -0.037 0.567 255 255 255
-0.338 0.134 1.027 255 255 255
-0.318 0.285 0.932 255 255 255
-0.217 0.178 0.992 255 255 255
0.242 -0.214 0.43 255 255 255
-0.267 0.45 0.837 255 255 255
0.224 -0.085 0.482 255 255 255
0.216 -0.208 0.444 255 255 255
0.142 0.122 0.811 255 255 255
-0.278 0.125 1.03 255 255 255
0.096 -0.293 0.397 0 0 0
-0.389 0.022 0.953 255 255 255
0.2 -0.215 0.439 255 255 255
-0.045 -0.191 0.626 255 255 255
0.233 0.383 0.847 0 0 0
-0.027 0.217 0.958 255 255 255
0.168 -0.031 0.546 255 255 255
-0.424 -0.097 0.614 255 255 255
0.031 -0.044 0.598 255 255 255
0.313 0.361 0.855 255 255 255
-0.145 -0.104 0.584 0 0 0
-0.47 0.262 0.956 255 255 255
-0.205 -0.297 0.49 255 255 255
-0.047 -0.058 0.564 0 0 0
0.115 -0.043 0.513 255 255 255
0.361 -0.09 0.527 0 0 0
0.081 -0.14 0.612 255 255 255
0.17 -0.152 0.578 255 255 255
0.238 -0.094 0.49 0 0 0
0.169 0.009 0.616 255 255 255
0.227 -0.152 0.553 255 255 255
-0.071 -0.057 0.582 0 0 0
0.021 0.138 0.986 0 0 0
0.301 -0.066 0.46 255 255 255
0.264 -0.03 0.455 255 255 255
0.212 -0.006 0.56 255 255 255
-0.156 -0.276 0.508 255 255 255
0.344 0.075 0.558 255 255 255
-0.264 -0.118 0.62 255 255 255
-0.403 -0.141 0.604 255 255 255
0.148 -0.078 0.53 255 255 255
0.023 0.445 0.827 255 255 255
-0.02 -0.06 0.56 255 255 255
0.272 -0.05 0.45 255 255 255
-0.15 -0.2 0.666 255 255 255
-0.037 -0.142 0.575 255 255 255
-0.23 -0.281 0.555 255 255 255
0.14 -0.239 0.42 255 255 255
-0.141 0.052 0.858 255 255 255
-0.07 0 0.635 255 255 255
-0.596 0.055 1.085 255 255 255
0.045 -0.014 0.63 255 255 255
0.108 -0.187 0.551 255 255 255
0.141 -0.075 0.531 255 255 255
0.196 -0.152 0.568 255 255 255
0.126 -0.121 0.607 0 0 0
0.22 0.052 0.664 255 255 255
-0.265 -0.313 0.497 255 255 255
-0.298 0.196 0.985 255 255 255
0.137 -0.188 0.529 255 255 255
-0.097 -0.194 0.637 255 255 255
0.153 -0.278 0.391 255 255 255
0.15 0.2 0.946 255 255 255
0.203 -0.257 0.387 255 255 255
0.087 -0.045 0.528 255 255 255
0.232 -0.086 0.481 255 255 255
0.22 0.35 0.867 255 255 255
-0.217 -0.147 0.61 255 255 255
-0.245 -0.135 0.601 255 255 255
0.137 0.251 0.933 255 255 255
-0.231 -0.316 0.457 255 255 255
-0.172 -0.233 0.637 255 255 255
-0.338 0.084 1.046 255 255 255
-0.337 -0.236 0.615 255 255 255
-0.668 0.063 1.083 255 255 255
0.355 -0.163 0.511 255 255 255
0.256 -0.167 0.503 255 255 255
-0.185 0.446 0.835 255 255 255
-0.525 0.053 1.07 255 255 255
-0.564 0.115 1.048 255 255 255
-0.171 -0.101 0.579 255 255 255
0.011 -0.08 0.572 255 255 255
0.195 0.397 0.843 0 0 0
0.025 -0.162 0.615 255 255 255
0.299 0.229 0.934 255 255 255
-0.238 -0.273 0.585 255 255 255
-0.428 0.254 0.957 255 255 255
0.291 0.259 0.917 255 255 255
0.189 0.003 0.592 255 255 255
0.193 -0.203 0.462 255 255 255
-0.079 -0.284 0.443 255 255 255
0.143 -0.254 0.397 255 255 255
0.096 -0.187 0.556 255 255 255
-0.453 0.193 0.998 255 255 255
-0.181 0.175 0.991 255 255 255
-0.072 -0.081 0.556 255 255 255
-0.179 -0.086 0.588 0 0 0
0.203 0.046 0.674 255 255 255
0.2 -0.116 0.565 0 0 0
-0.017 -0.25 0.467 255 255 255
0.115 0.273 0.921 255 255 255
-0.332 0.218 0.973 255 255 255
0.103 -0.222 0.469 255 255 255
-0.488 0.207 0.991 255 255 255
0.253 0.421 0.824 255 255 255
0.333 -0.064 0.462 0 0 0
0 -0.197 0.584 255 255 255
-0.006 0.267 0.927 255 255 255
0.132 -0.221 0.458 255 255 255
-0.456 -0.095 0.62 255 255 255
-0.465 0.207 0.989 255 255 255
-0.153 -0.269 0.513 255 255 255
0.143 -0.049 0.492 255 255 255
0.158 -0.085 0.526 255 255 255
-0.333 -0.012 0.659 0 0 0
-0.29 -0.173 0.603 255 255 255
-0.055 0.385 0.861 0 0 0
0.145 -0.052 0.488 0 0 0
-0.692 0.028 1.108 0 0 0
0.214 0.129 0.791 255 255 255
0.19 0.079 0.762 255 255 255
0.12 -0.129 0.602 255 255 255
-0.025 -0.171 0.622 255 255 255
-0.084 0.323 0.898 255 255 255
0.159 0.275 0.918 255 255 255
0.013 -0.214 0.532 255 255 255
-0.405 -0.126 0.607 255 255 255
-0.118 0.06 0.852 255 255 255
0.002 0.013 0.618 255 255 255
0.284 -0.004 0.528 255 255 255
-0.262 0.23 0.963 255 255 255
-0.062 -0.267 0.472 255 255 255
-0.006 0.318 0.899 255 255 255
0.25 -0.043 0.449 255 255 255
-0.204 0.156 1.006 255 255 255
0.092 -0.273 0.398 255 255 255
-0.37 0.066 1.057 255 255 255
0.244 0.236 0.934 255 255 255
-0.03 0.153 1 255 255 255
0.4 0.266 0.865 0 0 0
0.218 -0.238 0.406 255 255 255
0.04 -0.268 0.409 255 255 255
-0.113 0.015 0.669 255 255 255
-0.006 -0.046 0.559 255 255 255
-0.011 0.371 0.869 255 255 255
-0.092 -0.216 0.629 0 0 0
0.049 -0.165 0.601 255 255 255
-0.329 -0.278 0.637 255 255 255
0.157 0.197 0.946 255 255 255
-0.108 0.015 0.667 255 255 255
-0.434 0.324 0.916 255 255 255
-0.048 0.164 0.995 255 255 255
0.193 -0.059 0.461 255 255 255
0.117 -0.204 0.501 255 255 255
-0.356 0.412 0.861 255 255 255
0.326 0.05 0.597 255 255 255
-0.291 -0.168 0.597 255 255 255
-0.008 0.125 0.975 0 0 0
-0.161 -0.271 0.539 255 255 255
-0.368 -0.186 0.619 255 255 255
0.18 -0.118 0.587 0 0 0
0.076 -0.254 0.42 255 255 255
-0.236 0.422 0.847 255 255 255
-0.295 -0.044 0.646 255 255 255
0.331 0.001 0.478 255 255 255
-0.088 -0.08 0.547 0 0 0
0.291 -0.159 0.51 255 255 255
0.084 -0.204 0.519 255 255 255
-0.033 -0.282 0.418 255 255 255
0.162 0.111 0.817 255 255 255
-0.06 -0.24 0.533 255 255 255
0.281 -0.137 0.538 255 255 255
-0.171 0.254 0.942 255 255 255
-0.204 -0.216 0.631 0 0 0
0.116 0.168 0.965 255 255 255
-0.153 0.169 0.994 255 255 255
0.075 0.109 0.838 255 255 255
-0.31 -0.012 0.839 255 255 255
-0.409 -0.078 0.632 255 255 255
0.358 -0.116 0.556 255 255 255
-0.212 0.161 1.003 255 255 255
-0.043 0.022 0.654 255 255 255
0.008 0.182 0.981 255 255 255
0.052 -0.241 0.453 255 255 255
0.246 0.235 0.935 255 255 255
-0.027 0.081 0.838 255 255 255
-0.461 -0.122 0.643 255 255 255
0.079 0.062 0.766 255 255 255
-0.688 0.122 1.05 255 255 255
0.307 -0.013 0.501 255 255 255
0.171 -0.234 0.417 255 255 255
0.113 -0.246 0.417 255 255 255
0.112 -0.276 0.396 255 255 255
0.184 -0.029 0.543 255 255 255
0.156 0.407 0.841 0 0 0
-0.047 0.305 0.907 255 255 255
-0.007 -0.239 0.486 255 255 255
0.26 -0.194 0.452 255 255 255
-0.377 -0.083 0.629 255 255 255
-0.418 0.147 1.021 255 255 255
0.337 0.054 0.582 255 255 255
0.265 0.35 0.864 255 255 255
0.231 -0.221 0.42 255 255 255
-0.134 0.272 0.931 255 255 255
0.32 -0.173 0.489 255 255 255
0.189 -0.207 0.458 255 255 255
-0.632 0.15 1.029 255 255 255
-0.223 -0.151 0.613 255 255 255
-0.332 0.302 0.923 255 255 255
0.265 0.09 0.689 255 255 255
0.337 0.051 0.575 255 255 255
0.047 0.157 0.986 0 0 0
0.041 -0.165 0.606 255 255 255
-0.317 -0.296 0.576 255 255 255
0.348 0.079 0.567 255 255 255
-0.408 -0.007 0.672 255 255 255
-0.498 0.173 1.011 255 255 255
0.271 0.45 0.81 255 255 255
-0.201 0.016 0.835 255 255 255
-0.234 0.192 0.985 255 255 255
-0.08 0.093 0.904 0 0 0
-0.145 0.354 0.883 255 255 255
0.145 -0.21 0.473 255 255 255
-0.161 -0.123 0.59 255 255 255
-0.112 -0.088 0.552 255 255 255
0.214 -0.224 0.417 255 255 255
-0.027 -0.265 0.447 255 255 255
-0.302 -0.047 0.752 255 255 255
0.205 -0.067 0.473 255 255 255
-0.211 -0.211 0.632 0 0 0
-0.171 -0.296 0.478 255 255 255
0.142 0.395 0.849 0 0 0
0.325 -0.001 0.507 255 255 255
-0.053 -0.257 0.481 255 255 255
-0.065 -0.061 0.568 0 0 0
0.161 -0.207 0.47 255 255 255
0.061 0.092 0.822 255 255 255
0.298 0.331 0.873 255 255 255
0.145 0.35 0.874 255 255 255
-0.329 -0.24 0.622 0 0 0
-0.038 0.145 1.005 255 255 255
-0.322 -0.055 0.62 255 255 255
0.211 0.267 0.918 255 255 255
0.139 -0.178 0.549 255 255 255
-0.619 0.132 1.042 255 255 255
0.002 0.214 0.962 255 255 255
0.149 -0.211 0.467 255 255 255
0.327 0.022 0.543 255 255 255
0.193 -0.053 0.462 0 0 0
0.018 -0.196 0.581 255 255 255
0.243 -0.029 0.509 255 255 255
0.18 -0.096 0.516 0 0 0
-0.299 -0.204 0.63 0 0 0
0.195 -0.2 0.47 255 255 255
-0.219 -0.189 0.63 255 255 255
-0.135 0.135 1.016 255 255 255
0.043 -0.273 0.405 255 255 255
-0.29 -0.05 0.659 255 255 255
-0.104 -0.064 0.572 255 255 255
-0.477 0.119 1.03 255 255 255
0.033 -0.249 0.445 255 255 255
0.022 0.397 0.852 0 0 0
0.299 -0.164 0.497 255 255 255
0.199 0.101 0.783 255 255 255
-0.28 0.424 0.849 255 255 255
-0.119 -0.013 0.658 255 255 255
-0.009 -0.269 0.436 0 0 0
0.012 -0.099 0.597 255 255 255
-0.139 0.3 0.916 255 255 255
-0.194 0.041 0.872 255 255 255
-0.511 0.084 1.052 255 255 255
-0.225 0.217 0.968 255 255 255
-0.116 -0.175 0.65 0 0 0
0.275 -0.179 0.468 255 255 255
0.136 -0.089 0.547 255 255 255
0.027 -0.273 0.408 255 255 255
-0.097 0.343 0.886 255 255 255
0.134 -0.231 0.44 255 255 255
-0.099 0.334 0.893 255 255 255
0.146 0.193 0.949 255 255 255
0.218 0.451 0.81 255 255 255
0.127 -0.08 0.546 255 255 255
-0.446 0.188 0.999 255 255 255
0.195 -0.239 0.403 255 255 255
-0.035 -0.263 0.455 255 255 255
-0.248 -0.111 0.656 0 0 0
-0.327 -0.251 0.632 0 0 0
-0.038 -0.131 0.566 255 255 255
-0.174 -0.171 0.598 255 255 255
0.11 -0.231 0.447 255 255 255
-0.353 -0.239 0.599 255 255 255
0.161 -0.191 0.51 255 255 255
0.331 0.004 0.51 255 255 255
0.202 -0.118 0.572 0 0 0
-0.322 0.113 1.029 255 255 255
-0.314 -0.043 0.63 255 255 255
0.198 -0.229 0.416 255 255 255
0.087 -0.108 0.611 255 255 255
-0.123 -0.055 0.604 255 255 255
-0.108 0.215 0.964 255 255 255
0.085 -0.159 0.595 255 255 255
0.032 0.167 0.99 0 0 0
0.025 0.178 0.983 255 255 255
0.036 -0.226 0.491 255 255 255
0.046 -0.181 0.589 0 0 0
0.167 -0.296 0.386 0 0 0
-0.06 -0.006 0.624 0 0 0
-0.302 -0.038 0.734 255 255 255
-0.355 -0.253 0.595 255 255 255
0.139 0.167 0.945 0 0 0
0.233 -0.194 0.457 255 255 255
0.305 0.056 0.621 255 255 255
0.115 -0.131 0.605 255 255 255
0.262 -0.124 0.555 255 255 255
0.394 -0.101 0.546 255 255 255
0.142 -0.283 0.391 0 0 0
0.214 -0.048 0.457 0 0 0
0.035 -0.216 0.518 255 255 255
-0.225 -0.119 0.583 255 255 255
-0.153 -0.1 0.577 0 0 0
0.182 -0.191 0.486 255 255 255
0.015 -0.054 0.554 255 255 255
0.15 -0.188 0.515 255 255 255
-0.25 -0.093 0.669 255 255 255
0.162 0.171 0.944 0 0 0
-0.091 0.248 0.943 255 255 255
-0.398 -0.149 0.614 255 255 255
-0.305 0.239 0.959 255 255 255
0.177 -0.162 0.562 0 0 0
0.006 -0.304 0.408 0 0 0
0.28 0.383 0.842 0 0 0
0.256 0.22 0.939 255 255 255
-0.565 0.176 1.011 255 255 255
0.142 -0.202 0.489 255 255 255
-0.219 0.277 0.931 255 255 255
-0.43 0.12 1.029 255 255 255
-0.438 0.313 0.922 255 255 255
0.227 -0.226 0.416 255 255 255
0.119 -0.214 0.479 255 255 255
0.091 -0.267 0.399 255 255 255
-0.172 -0.128 0.582 0 0 0
0.05 -0.223 0.494 255 255 255
0.128 0.354 0.871 255 255 255
0.062 0.26 0.93 255 255 255
0.158 -0.022 0.567 255 255 255
0.345 -0.106 0.559 255 255 255
0.308 0.326 0.873 255 255 255
0.036 0.249 0.939 255 255 255
-0.144 -0.231 0.613 255 255 255
-0.299 0.149 1.016 255 255 255
0.281 -0.011 0.52 255 255 255
0.015 -0.071 0.566 255 255 255
0.091 -0.191 0.548 255 255 255
0.22 -0.182 0.48 255 255 255
-0.024 -0.237 0.51 255 255 255
-0.069 -0.113 0.568 0 0 0
-0.475 0.157 1.018 255 255 255
0.046 -0.183 0.582 255 255 255
-0.157 0.321 0.903 255 255 255
0.412 0.266 0.859 255 255 255
-0.31 -0.071 0.602 255 255 255
-0.18 0.054 0.884 255 255 255
0.034 0.389 0.858 0 0 0
-0.048 -0.264 0.462 255 255 255
0.149 -0.301 0.391 0 0 0
0.226 0.126 0.825 255 255 255
0.336 0.055 0.573 255 255 255
0.242 0.378 0.848 0 0 0
-0.16 -0.251 0.589 255 255 255
0.28 0.138 0.805 255 255 255
0.207 -0.227 0.417 255 255 255
0.136 -0.003 0.607 255 255 255
-0.173 -0.263 0.549 255 255 255
0.213 -0.204 0.451 255 255 255
-0.066 0.234 0.951 255 255 255
0.333 0.149 0.827 255 255 255
0.119 -0.192 0.529 255 255 255
0.222 -0.198 0.457 255 255 255
-0.058 -0.128 0.57 255 255 255
0.304 0.22 0.938 255 255 255
-0.435 -0.022 0.652 255 255 255
0.152 -0.228 0.433 255 255 255
0.261 -0.043 0.446 255 255 255
0.097 -0.029 0.588 255 255 255
