ply
format ascii 1.0
comment Created by Open3D
element vertex 1601
property double x
property double y
property double z
property uchar red
property uchar green
property uchar blue
end_header
-0.283 -0.128 0.559 0 0 0
0.148 -0.232 0.499 255 255 255
0.297 0.433 0.801 255 255 255
-0.172 -0.235 0.49 255 255 255
0.372 0.261 0.882 255 255 255
-0.021 -0.078 0.514 255 255 255
-0.43 -0.038 0.692 255 255 255
-0.037 0.059 0.814 255 255 255
-0.289 0.161 0.972 255 255 255
0.13 0.019 0.711 255 255 255
-0.051 -0.28 0.385 0 0 0
-0.18 -0.172 0.585 0 0 0
0.096 -0.1 0.458 255 255 255
0.529 0.185 0.913 255 255 255
0.275 0.338 0.852 255 255 255
-0.178 -0.294 0.381 0 0 0
0.083 0.441 0.812 255 255 255
-0.218 -0.019 0.613 255 255 255
-0.429 -0.008 0.585 255 255 255
-0.208 -0.265 0.422 255 255 255
0.235 -0.15 0.396 255 255 255
0.059 -0.114 0.486 255 255 255
0.24 -0.086 0.432 255 255 255
-0.012 -0.247 0.457 255 255 255
0.058 0.139 0.937 0 0 0
-0.535 0.171 0.974 255 255 255
0.08 0.214 0.926 255 255 255
0.184 -0.093 0.458 255 255 255
-0.153 -0.258 0.422 255 255 255
-0.087 -0.252 0.448 255 255 255
-0.125 -0.16 0.628 255 255 255
0.305 0.243 0.899 255 255 255
-0.366 0.133 0.991 255 255 255
0.226 -0.076 0.455 255 255 255
-0.386 -0.085 0.599 255 255 255
-0.017 0.261 0.907 255 255 255
-0.005 0.026 0.75 255 255 255
-0.558 0.037 0.847 255 255 255
-0.445 0.041 0.851 255 255 255
-0.325 0.116 0.997 255 255 255
0.017 -0.239 0.474 255 255 255
-0.152 -0.252 0.437 255 255 255
-0.172 0.355 0.863 255 255 255
0.215 -0.079 0.45 255 255 255
-0.083 -0.28 0.384 0 0 0
0.229 -0.212 0.527 255 255 255
0.182 0.255 0.9 255 255 255
-0.019 -0.234 0.483 255 255 255
-0.292 -0.216 0.573 255 255 255
-0.422 -0.017 0.598 255 255 255
-0.05 -0.268 0.411 255 255 255
0.161 -0.216 0.526 255 255 255
-0.203 0.404 0.842 0 0 0
-0.267 0.067 0.88 255 255 255
-0.432 -0.076 0.591 0 0 0
0.239 -0.148 0.373 255 255 255
-0.156 0.346 0.868 255 255 255
-0.304 0.072 0.89 0 0 0
0.093 -0.23 0.479 255 255 255
-0.07 -0.269 0.41 255 255 255
-0.005 -0.287 0.381 0 0 0
-0.117 -0.265 0.414 255 255 255
-0.106 -0.174 0.596 255 255 255
-0.548 0.035 0.862 255 255 255
-0.282 0.294 0.9 255 255 255
0.1 -0.158 0.516 0 0 0
-0.131 0.114 0.99 255 255 255
0.162 -0.084 0.512 255 255 255
-0.208 0.008 0.628 0 0 0
0.177 0.272 0.892 255 255 255
-0.25 0.392 0.85 0 0 0
-0.12 -0.061 0.549 0 0 0
-0.357 0.365 0.866 255 255 255
0.067 -0.027 0.647 255 255 255
0.246 -0.099 0.388 0 0 0
-0.051 -0.267 0.415 255 255 255
0.392 0.273 0.876 255 255 255
0.169 -0.109 0.462 255 255 255
0.163 -0.19 0.547 255 255 255
0.098 0.197 0.935 255 255 255
-0.277 0.054 0.834 255 255 255
0.095 0.237 0.913 255 255 255
0.697 -0.171 1.032 255 255 255
0.157 -0.135 0.482 255 255 255
0.039 0.149 0.939 0 0 0
0.118 -0.127 0.484 255 255 255
0.25 0.413 0.817 255 255 255
-0.298 -0.243 0.507 255 255 255
0.108 -0.211 0.526 255 255 255
0.203 -0.173 0.556 0 0 0
0.506 0.177 0.921 255 255 255
0.716 -0.193 1.044 255 255 255
0.086 -0.191 0.558 255 255 255
0.214 -0.012 0.669 255 255 255
-0.139 -0.015 0.591 255 255 255
-0.245 -0.02 0.606 255 255 255
0.085 0.077 0.872 255 255 255
-0.006 0.423 0.825 255 255 255
-0.015 0.189 0.939 255 255 255
0.518 0.066 0.976 255 255 255
0.613 0.078 0.96 255 255 255
0.16 -0.08 0.52 255 255 255
0.312 0.111 0.81 255 255 255
0.137 0.303 0.878 255 255 255
0.223 -0.084 0.442 255 255 255
-0.465 0.099 1.001 255 255 255
-0.033 0.166 0.947 255 255 255
-0.041 -0.196 0.579 255 255 255
-0.328 -0.181 0.622 0 0 0
0.011 0.154 0.949 0 0 0
-0.242 -0.255 0.462 255 255 255
0.391 0.339 0.832 255 255 255
-0.165 -0.056 0.548 0 0 0
-0.075 -0.273 0.398 255 255 255
-0.343 0.243 0.931 255 255 255
-0.132 0.442 0.826 255 255 255
-0.108 -0.275 0.395 255 255 255
0.706 -0.013 1.006 0 0 0
-0.215 0.173 0.964 255 255 255
-0.289 -0.217 0.565 255 255 255
0.428 0.095 0.967 255 255 255
-0.017 0.334 0.87 255 255 255
-0.239 -0.032 0.578 0 0 0
-0.26 -0.219 0.559 255 255 255
0.064 -0.186 0.564 255 255 255
-0.243 0.137 0.983 255 255 255
0.463 0.081 0.972 255 255 255
-0.374 0.306 0.898 255 255 255
0.065 -0.247 0.454 255 255 255
0.238 0.106 0.891 255 255 255
-0.158 -0.212 0.556 255 255 255
0.28 0.44 0.81 255 255 255
0.18 -0.086 0.508 255 255 255
-0.442 -0.184 0.634 255 255 255
0.275 -0.242 0.497 255 255 255
0.254 0.11 0.86 255 255 255
-0.165 0.448 0.822 255 255 255
-0.289 -0.142 0.564 0 0 0
-0.141 -0.156 0.635 0 0 0
-0.428 -0.048 0.627 255 255 255
-0.169 -0.116 0.518 255 255 255
-0.169 0.074 0.874 0 0 0
-0.436 -0.047 0.653 255 255 255
-0.042 -0.266 0.415 255 255 255
-0.04 0.342 0.866 255 255 255
-0.031 -0.213 0.546 255 255 255
-0.159 0.24 0.922 255 255 255
-0.048 0.043 0.855 255 255 255
0.114 -0.189 0.557 255 255 255
0.003 -0.275 0.402 255 255 255
0.005 0.37 0.852 255 255 255
0.09 0.259 0.902 255 255 255
0.054 -0.253 0.441 255 255 255
0.14 -0.227 0.508 255 255 255
-0.105 -0.052 0.577 0 0 0
-0.057 -0.07 0.525 255 255 255
0.24 0.297 0.875 255 255 255
0.614 0.082 0.957 255 255 255
-0.348 0.265 0.918 255 255 255
0.039 -0.042 0.617 255 255 255
0.03 -0.287 0.383 0 0 0
0.097 -0.021 0.657 255 255 255
-0.492 0.035 0.867 255 255 255
0.118 -0.259 0.428 255 255 255
0.369 0.296 0.867 255 255 255
-0.183 0.187 0.954 255 255 255
0.13 0.085 0.892 0 0 0
0.234 -0.152 0.397 255 255 255
-0.409 -0.071 0.622 0 0 0
-0.302 -0.195 0.602 255 255 255
0.024 0.162 0.947 0 0 0
0.005 -0.183 0.579 255 255 255
0.24 -0.049 0.479 255 255 255
0.21 0.283 0.884 255 255 255
0.232 -0.095 0.394 255 255 255
0.247 -0.126 0.388 255 255 255
-0.229 -0.019 0.615 255 255 255
0.043 -0.085 0.485 255 255 255
-0.107 0.067 0.857 255 255 255
-0.033 0.074 0.859 255 255 255
0.037 0.215 0.929 255 255 255
-0.117 -0.225 0.517 255 255 255
-0.572 0.058 0.891 255 255 255
-0.047 -0.261 0.427 255 255 255
0.101 -0.034 0.625 255 255 255
-0.262 -0.033 0.587 0 0 0
0.232 -0.212 0.522 0 0 0
-0.404 0.103 0.997 255 255 255
-0.422 0.158 0.98 255 255 255
0.215 -0.051 0.54 255 255 255
0.461 0.091 0.968 255 255 255
0.073 -0.27 0.411 255 255 255
-0.128 0.095 0.859 255 255 255
0.5 0.118 0.949 255 255 255
0.17 0.173 0.945 255 255 255
0.213 -0.091 0.411 255 255 255
0.175 0.09 0.868 0 0 0
0.576 -0.045 0.997 255 255 255
0.39 0.328 0.858 255 255 255
-0.16 -0.277 0.391 255 255 255
-0.201 0.073 0.878 0 0 0
-0.028 -0.049 0.604 255 255 255
0.134 -0.191 0.555 255 255 255
0.182 0.082 0.857 0 0 0
0.029 -0.124 0.516 255 255 255
0.179 -0.262 0.429 255 255 255
0.467 0.214 0.904 255 255 255
0.11 -0.26 0.425 255 255 255
-0.302 -0.019 0.597 255 255 255
-0.149 -0.064 0.548 0 0 0
-0.33 0.118 0.996 255 255 255
0.189 -0.116 0.468 255 255 255
0.008 -0.25 0.45 255 255 255
-0.134 0.32 0.881 255 255 255
-0.351 -0.086 0.538 255 255 255
0.478 0.185 0.917 255 255 255
0.233 -0.053 0.496 255 255 255
0.221 0.317 0.866 255 255 255
-0.427 -0.184 0.626 255 255 255
0.14 0.091 0.88 255 255 255
0.055 -0.274 0.407 255 255 255
0.595 -0.043 0.993 255 255 255
-0.21 -0.264 0.425 255 255 255
0.222 -0.087 0.436 255 255 255
-0.07 -0.279 0.389 255 255 255
-0.404 0.324 0.892 255 255 255
-0.142 0.366 0.859 255 255 255
0.138 -0.086 0.513 255 255 255
-0.285 -0.214 0.601 0 0 0
-0.142 -0.21 0.557 255 255 255
0.111 -0.257 0.429 255 255 255
0.214 -0.056 0.563 255 255 255
0.12 -0.04 0.603 255 255 255
0.132 -0.221 0.517 255 255 255
0.565 -0.037 0.997 255 255 255
-0.483 0.097 1.002 255 255 255
0.123 0.132 0.961 255 255 255
-0.138 -0.114 0.565 255 255 255
-0.122 -0.261 0.415 255 255 255
0.181 -0.266 0.42 255 255 255
0.237 0.416 0.818 255 255 255
0.532 0.007 1.004 255 255 255
0.176 -0.151 0.499 0 0 0
-0.155 -0.299 0.378 255 255 255
-0.146 -0.275 0.392 255 255 255
-0.145 -0.165 0.62 255 255 255
0.32 0.425 0.8 255 255 255
0.729 -0.201 1.044 255 255 255
0.12 -0.243 0.464 255 255 255
0.3 0.339 0.85 255 255 255
0.121 -0.193 0.55 255 255 255
-0.316 -0.058 0.552 0 0 0
0.079 0.356 0.855 255 255 255
0.015 -0.247 0.454 255 255 255
-0.125 0.001 0.607 255 255 255
-0.048 -0.227 0.509 255 255 255
0.212 -0.141 0.414 255 255 255
0.235 -0.202 0.556 255 255 255
0.136 -0.244 0.457 255 255 255
-0.251 -0.219 0.559 255 255 255
-0.246 0.385 0.853 0 0 0
-0.15 -0.257 0.423 255 255 255
-0.144 -0.034 0.58 0 0 0
0.213 -0.126 0.455 255 255 255
-0.311 -0.192 0.598 255 255 255
-0.215 0.423 0.832 255 255 255
0.325 0.278 0.879 255 255 255
-0.043 0.049 0.85 255 255 255
0.196 0.124 0.97 255 255 255
0.145 -0.261 0.425 255 255 255
0.002 0.427 0.824 255 255 255
-0.283 -0.157 0.587 0 0 0
0.188 -0.1 0.454 255 255 255
-0.241 -0.029 0.586 0 0 0
-0.432 0.315 0.897 255 255 255
-0.078 0.269 0.905 255 255 255
0.228 0.302 0.872 255 255 255
0.286 0.228 0.908 255 255 255
-0.056 0.411 0.833 255 255 255
-0.083 -0.289 0.378 0 0 0
-0.194 -0.285 0.383 0 0 0
-0.017 0.314 0.88 255 255 255
0.204 -0.244 0.461 255 255 255
-0.06 0.171 0.962 0 0 0
0.139 0.26 0.901 255 255 255
0.034 -0.238 0.476 255 255 255
0.234 0.3 0.873 255 255 255
-0.053 -0.272 0.403 255 255 255
-0.207 -0.173 0.575 255 255 255
-0.309 -0.112 0.54 0 0 0
0.091 -0.231 0.492 0 0 0
0.08 -0.172 0.556 0 0 0
0.465 0.18 0.92 255 255 255
0.667 0.014 0.992 255 255 255
0.185 -0.302 0.379 255 255 255
0.175 0.06 0.819 255 255 255
0.221 -0.056 0.493 255 255 255
-0.115 0.08 0.883 255 255 255
0.688 0.041 0.976 255 255 255
0.1 0.32 0.872 255 255 255
-0.328 -0.208 0.589 255 255 255
-0.066 0.31 0.885 255 255 255
-0.181 -0.033 0.584 255 255 255
0.02 -0.281 0.392 255 255 255
0.215 0.302 0.874 255 255 255
0.365 0.176 0.927 255 255 255
0.417 0.28 0.873 255 255 255
0.373 0.197 0.917 255 255 255
0.125 -0.241 0.464 255 255 255
-0.432 0.124 0.99 255 255 255
-0.294 -0.099 0.546 0 0 0
-0.021 0.267 0.905 255 255 255
-0.042 -0.244 0.468 255 255 255
-0.428 0.061 0.88 255 255 255
-0.038 -0.26 0.428 255 255 255
0.079 -0.047 0.593 255 255 255
-0.046 -0.239 0.476 255 255 255
0.076 -0.25 0.446 255 255 255
-0.529 0.15 0.98 255 255 255
0.041 -0.051 0.588 255 255 255
-0.425 0.141 0.989 255 255 255
-0.417 -0.042 0.685 255 255 255
0.06 0.057 0.813 255 255 255
0.08 -0.186 0.563 255 255 255
0.123 -0.089 0.491 255 255 255
-0.184 -0.259 0.437 255 255 255
-0.169 -0.125 0.524 0 0 0
-0.131 -0.102 0.565 255 255 255
-0.037 -0.283 0.382 0 0 0
-0.251 -0.25 0.47 255 255 255
-0.208 -0.143 0.546 0 0 0
-0.281 -0.138 0.563 0 0 0
-0.211 -0.15 0.536 0 0 0
-0.061 -0.122 0.564 255 255 255
0.215 -0.049 0.544 255 255 255
-0.01 0.17 0.938 0 0 0
0.237 -0.166 0.523 255 255 255
0.06 0.136 0.937 0 0 0
0.313 0.182 0.927 255 255 255
-0.381 -0.218 0.587 255 255 255
0.04 0.317 0.878 255 255 255
-0.127 -0.064 0.542 255 255 255
-0.448 -0.173 0.642 255 255 255
-0.221 0.172 0.964 255 255 255
0.069 0.206 0.932 255 255 255
0.129 -0.006 0.66 255 255 255
-0.349 0.169 0.97 255 255 255
-0.087 -0.173 0.595 255 255 255
-0.117 -0.131 0.594 255 255 255
-0.057 -0.123 0.564 255 255 255
0.055 0.298 0.886 255 255 255
-0.294 -0.024 0.593 255 255 255
0.265 0.113 0.854 255 255 255
-0.394 0.203 0.955 255 255 255
0.062 -0.271 0.411 255 255 255
-0.301 -0.083 0.54 0 0 0
0.098 -0.095 0.463 0 0 0
0.238 -0.135 0.388 255 255 255
-0.441 0.189 0.966 255 255 255
0.135 0.144 0.961 255 255 255
0.029 -0.278 0.398 255 255 255
0.487 0.16 0.928 255 255 255
0.016 -0.272 0.407 255 255 255
0.188 0.404 0.826 255 255 255
-0.083 -0.272 0.4 255 255 255
0.277 0.221 0.911 255 255 255
-0.081 0.246 0.919 255 255 255
0.046 -0.118 0.498 255 255 255
-0.146 -0.254 0.431 255 255 255
-0.006 0.349 0.864 255 255 255
-0.096 0.073 0.867 255 255 255
0.064 0.416 0.826 255 255 255
0.209 -0.165 0.537 0 0 0
0.047 -0.219 0.525 255 255 255
-0.154 -0.044 0.555 255 255 255
-0.021 -0.082 0.512 0 0 0
0.355 0.381 0.824 0 0 0
0.042 0.327 0.873 255 255 255
0.042 -0.223 0.52 0 0 0
0.157 -0.205 0.541 255 255 255
-0.092 0.323 0.88 0 0 0
0.163 -0.254 0.441 255 255 255
-0.144 -0.283 0.382 0 0 0
-0.413 0.183 0.967 255 255 255
0.193 -0.1 0.455 255 255 255
0.156 -0.288 0.382 0 0 0
0.227 -0.153 0.491 255 255 255
0.437 0.296 0.865 255 255 255
-0.082 0.256 0.913 255 255 255
0.148 -0.076 0.532 255 255 255
-0.427 -0.058 0.642 255 255 255
0.035 0.296 0.891 255 255 255
0.044 0.309 0.883 255 255 255
0.201 -0.264 0.43 255 255 255
-0.169 -0.215 0.555 255 255 255
-0.065 -0.272 0.406 255 255 255
-0.322 -0.157 0.548 255 255 255
0.139 -0.278 0.4 255 255 255
0.247 -0.123 0.388 255 255 255
-0.279 0.405 0.844 0 0 0
-0.117 -0.242 0.466 255 255 255
0.007 0.107 0.955 0 0 0
-0.177 -0.152 0.547 0 0 0
-0.268 -0.088 0.531 255 255 255
0.756 -0.237 1.07 255 255 255
-0.012 -0.196 0.578 255 255 255
-0.201 0.354 0.866 255 255 255
-0.276 0.192 0.954 255 255 255
0.144 0.229 0.917 255 255 255
-0.45 0.195 0.963 255 255 255
0.115 -0.265 0.417 255 255 255
-0.126 -0.272 0.396 255 255 255
-0.363 -0.198 0.579 0 0 0
0.04 0.121 0.961 0 0 0
0.098 -0.289 0.379 0 0 0
0.094 -0.037 0.62 255 255 255
0.507 0.013 1.004 255 255 255
0.523 0.02 1.001 255 255 255
0.072 0.264 0.901 255 255 255
-0.044 -0.188 0.582 255 255 255
0.228 -0.108 0.395 255 255 255
-0.125 0.058 0.821 255 255 255
0.087 -0.236 0.475 255 255 255
0.28 -0.258 0.486 255 255 255
0.194 0.433 0.809 255 255 255
-0.139 -0.29 0.38 0 0 0
-0.33 0.42 0.842 255 255 255
0.673 -0.114 1.01 255 255 255
0.232 0.391 0.828 0 0 0
0.074 -0.223 0.501 255 255 255
0.021 0.036 0.775 255 255 255
-0.041 -0.231 0.496 255 255 255
0.029 0.023 0.763 255 255 255
0.234 0.39 0.829 0 0 0
-0.162 -0.27 0.407 255 255 255
0.208 -0.284 0.412 255 255 255
0.188 -0.12 0.47 255 255 255
0.218 -0.22 0.524 255 255 255
0.483 0.063 0.98 255 255 255
-0.274 -0.234 0.532 255 255 255
-0.164 -0.248 0.447 255 255 255
-0.424 0.216 0.949 255 255 255
-0.442 0.005 0.677 255 255 255
0.424 0.169 0.926 255 255 255
0.231 -0.273 0.436 255 255 255
-0.296 0.105 1.002 255 255 255
0.725 -0.191 1.039 255 255 255
-0.062 0.031 0.77 255 255 255
-0.118 0.257 0.916 255 255 255
0.011 0.054 0.82 255 255 255
0.24 -0.186 0.44 0 0 0
-0.056 -0.128 0.567 255 255 255
-0.275 0.444 0.827 255 255 255
-0.303 -0.014 0.609 255 255 255
-0.362 0.367 0.866 255 255 255
0.16 -0.09 0.46 255 255 255
-0.124 -0.201 0.582 255 255 255
-0.157 -0.153 0.605 0 0 0
0.137 -0.052 0.573 255 255 255
-0.05 0.435 0.822 255 255 255
-0.011 -0.111 0.538 255 255 255
-0.122 -0.28 0.382 0 0 0
0.036 -0.224 0.519 255 255 255
-0.22 0.218 0.937 255 255 255
0.027 -0.25 0.45 255 255 255
-0.036 0.055 0.814 255 255 255
-0.1 -0.282 0.383 0 0 0
-0.566 0.129 0.992 255 255 255
0.078 -0.199 0.559 255 255 255
-0.166 -0.23 0.504 255 255 255
0.163 -0.245 0.457 255 255 255
0.181 -0.238 0.483 0 0 0
0.028 -0.216 0.53 255 255 255
-0.522 0.198 0.966 255 255 255
0.012 0.421 0.824 255 255 255
-0.126 -0.262 0.412 255 255 255
-0.161 -0.091 0.511 255 255 255
-0.398 0.216 0.946 255 255 255
0.12 -0.225 0.505 0 0 0
-0.024 0.349 0.863 255 255 255
-0.426 -0.02 0.653 255 255 255
0.128 -0.257 0.432 255 255 255
0.298 0.339 0.85 255 255 255
-0.061 -0.265 0.419 255 255 255
0.258 0.174 0.938 0 0 0
0.211 -0.074 0.456 255 255 255
-0.104 -0.267 0.411 255 255 255
-0.155 -0.272 0.397 255 255 255
-0.152 -0.212 0.558 255 255 255
0.118 0.218 0.921 255 255 255
0.244 -0.115 0.392 255 255 255
0.004 0.231 0.924 255 255 255
0.624 -0.03 0.988 255 255 255
-0.019 -0.256 0.438 255 255 255
0.505 0.068 0.976 255 255 255
0.009 0.41 0.831 255 255 255
-0.189 -0.111 0.529 0 0 0
0.329 0.16 0.909 255 255 255
-0.304 -0.224 0.561 255 255 255
-0.195 -0.045 0.579 0 0 0
0.268 0.185 0.933 255 255 255
-0.063 -0.234 0.493 255 255 255
0.124 -0.073 0.545 255 255 255
0.134 -0.257 0.436 255 255 255
-0.104 -0.248 0.452 255 255 255
-0.118 -0.197 0.581 255 255 255
0.631 -0.035 0.99 255 255 255
0.383 0.32 0.86 255 255 255
0.302 0.168 0.915 255 255 255
0.147 -0.194 0.547 255 255 255
0.093 -0.13 0.486 255 255 255
0.275 0.268 0.888 255 255 255
-0.183 -0.297 0.381 0 0 0
-0.141 -0.282 0.381 0 0 0
0.35 0.265 0.883 255 255 255
-0.165 -0.269 0.407 255 255 255
-0.105 -0.257 0.428 255 255 255
-0.394 -0.105 0.543 255 255 255
0.212 -0.061 0.482 255 255 255
-0.138 -0.038 0.586 0 0 0
-0.098 -0.096 0.562 255 255 255
0.217 0.362 0.843 255 255 255
0.103 -0.079 0.535 255 255 255
0.067 -0.161 0.534 0 0 0
-0.527 0.05 0.862 0 0 0
0.141 0.237 0.911 255 255 255
0.058 0.014 0.773 255 255 255
0.27 -0.258 0.484 255 255 255
-0.044 0.332 0.871 255 255 255
0.049 -0.276 0.402 255 255 255
0.017 -0.168 0.585 255 255 255
0.227 0.174 0.94 255 255 255
0.002 -0.254 0.439 255 255 255
-0.12 0.371 0.854 255 255 255
-0.011 0.39 0.842 0 0 0
0.36 0.353 0.84 255 255 255
-0.313 0.278 0.909 255 255 255
-0.073 -0.249 0.453 255 255 255
0.15 0.347 0.855 255 255 255
-0.184 -0.082 0.543 0 0 0
-0.051 -0.205 0.571 255 255 255
-0.063 -0.274 0.396 255 255 255
0.068 0.361 0.853 255 255 255
-0.201 0.207 0.943 255 255 255
-0.262 0.453 0.823 255 255 255
0.185 -0.203 0.534 255 255 255
0.16 0.061 0.809 255 255 255
-0.275 -0.194 0.598 255 255 255
-0.387 0.37 0.865 255 255 255
0.228 -0.105 0.394 255 255 255
-0.595 0.074 0.969 0 0 0
-0.014 -0.246 0.458 255 255 255
0.233 -0.212 0.539 0 0 0
0.071 -0.128 0.492 255 255 255
-0.204 -0.18 0.596 255 255 255
0.137 -0.182 0.558 255 255 255
0.011 -0.062 0.579 255 255 255
0.201 -0.125 0.406 255 255 255
-0.156 0.345 0.87 255 255 255
-0.429 -0.055 0.622 255 255 255
-0.166 -0.237 0.484 255 255 255
-0.155 -0.245 0.459 255 255 255
-0.396 -0.105 0.543 255 255 255
-0.06 0.35 0.865 255 255 255
-0.067 -0.132 0.578 255 255 255
-0.201 -0.248 0.466 255 255 255
-0.109 -0.124 0.581 255 255 255
0.182 0.167 0.945 0 0 0
0.085 -0.247 0.452 255 255 255
-0.459 0.209 0.955 255 255 255
-0.183 -0.178 0.592 255 255 255
0.332 0.418 0.809 255 255 255
0.197 -0.241 0.48 255 255 255
-0.283 0.103 1 255 255 255
0.124 -0.121 0.479 255 255 255
0.199 0.409 0.823 255 255 255
-0.377 0.265 0.919 255 255 255
-0.331 -0.24 0.536 255 255 255
0.389 0.331 0.844 255 255 255
-0.111 0.089 0.938 255 255 255
-0.332 0.158 0.974 255 255 255
-0.339 -0.181 0.574 0 0 0
-0.043 -0.25 0.451 255 255 255
-0.122 0.075 0.866 255 255 255
0.257 -0.072 0.457 255 255 255
0.201 0.224 0.915 255 255 255
-0.184 0.348 0.869 255 255 255
0.269 0.426 0.811 255 255 255
-0.09 -0.286 0.379 0 0 0
-0.402 -0.105 0.542 255 255 255
0.043 0.38 0.846 0 0 0
0.367 0.223 0.902 255 255 255
0.129 0.315 0.873 255 255 255
-0.176 -0.287 0.381 0 0 0
-0.349 0.377 0.862 0 0 0
-0.482 0.101 1.001 255 255 255
0.2 -0.076 0.525 255 255 255
-0.124 -0.081 0.542 255 255 255
0.268 0.141 0.953 0 0 0
-0.02 -0.139 0.562 0 0 0
0.088 -0.288 0.382 0 0 0
-0.302 0.146 0.981 255 255 255
0.773 -0.247 1.074 255 255 255
0.12 -0.039 0.608 255 255 255
-0.227 -0.083 0.515 255 255 255
-0.438 0.019 0.787 255 255 255
0.046 -0.211 0.539 255 255 255
-0.168 -0.007 0.602 0 0 0
-0.083 -0.126 0.576 255 255 255
-0.359 0.324 0.887 255 255 255
-0.196 -0.199 0.593 255 255 255
-0.125 -0.009 0.594 255 255 255
-0.347 0.23 0.937 255 255 255
-0.141 -0.271 0.398 255 255 255
-0.221 0.422 0.832 255 255 255
-0.165 0.049 0.833 255 255 255
0.009 -0.164 0.589 0 0 0
0.107 -0.053 0.577 255 255 255
-0.167 -0.155 0.571 0 0 0
0.141 -0.283 0.393 0 0 0
0.26 -0.095 0.39 255 255 255
0.057 -0.224 0.52 255 255 255
-0.142 -0.236 0.484 255 255 255
-0.077 0.05 0.854 255 255 255
-0.066 -0.265 0.42 255 255 255
-0.14 -0.014 0.596 255 255 255
0.207 -0.096 0.402 255 255 255
-0.256 0.137 0.985 255 255 255
0.074 -0.021 0.663 255 255 255
0.021 0.394 0.838 0 0 0
0.263 -0.112 0.391 255 255 255
0.074 -0.247 0.451 255 255 255
0.128 -0.26 0.428 255 255 255
-0.123 0.345 0.869 255 255 255
-0.112 -0.256 0.429 255 255 255
0.172 -0.267 0.418 255 255 255
0.516 0.045 0.988 255 255 255
-0.29 -0.239 0.522 255 255 255
-0.096 -0.209 0.565 255 255 255
0.07 -0.074 0.545 0 0 0
-0.26 0.017 0.648 255 255 255
0.178 -0.248 0.451 255 255 255
0.467 0.216 0.904 255 255 255
-0.039 0.276 0.903 255 255 255
0.17 0.076 0.837 0 0 0
0.322 0.212 0.914 255 255 255
0.139 -0.226 0.514 255 255 255
0.085 -0.052 0.583 255 255 255
0.29 0.325 0.859 255 255 255
0.242 -0.025 0.543 255 255 255
0.172 -0.13 0.476 255 255 255
-0.217 -0.209 0.57 255 255 255
0.073 0.01 0.715 255 255 255
-0.097 -0.148 0.632 0 0 0
-0.301 0.07 0.883 0 0 0
-0.104 0.405 0.838 0 0 0
0.07 -0.288 0.384 0 0 0
0.188 -0.275 0.409 255 255 255
-0.305 -0.024 0.589 255 255 255
-0.162 -0.236 0.488 255 255 255
0.153 0.201 0.93 255 255 255
0.265 0.135 0.935 255 255 255
-0.132 -0.067 0.538 0 0 0
-0.296 -0.052 0.574 255 255 255
0.309 0.354 0.844 255 255 255
-0.148 0.356 0.863 255 255 255
-0.099 -0.231 0.497 255 255 255
0.141 -0.261 0.425 255 255 255
-0.015 -0.249 0.454 255 255 255
-0.154 -0.086 0.538 255 255 255
0.21 -0.147 0.435 255 255 255
-0.04 -0.226 0.514 255 255 255
-0.121 0.096 0.974 0 0 0
-0.004 0.08 0.855 255 255 255
-0.293 -0.231 0.552 255 255 255
0.261 -0.26 0.476 255 255 255
-0.076 -0.25 0.449 255 255 255
-0.179 -0.021 0.59 255 255 255
0.197 -0.08 0.518 255 255 255
-0.234 -0.246 0.482 255 255 255
0.276 -0.064 0.462 255 255 255
0.051 0.085 0.887 255 255 255
0.23 -0.205 0.456 255 255 255
-0.003 -0.27 0.413 255 255 255
0.147 -0.249 0.448 255 255 255
0.171 0.448 0.808 255 255 255
0.106 -0.255 0.436 255 255 255
-0.364 -0.124 0.556 255 255 255
-0.271 -0.004 0.628 255 255 255
0.062 -0.189 0.563 255 255 255
0.24 -0.066 0.47 255 255 255
-0.215 0.236 0.928 255 255 255
-0.162 -0.251 0.44 255 255 255
0.162 -0.07 0.531 255 255 255
-0.087 0.28 0.9 255 255 255
-0.382 0.133 0.99 255 255 255
-0.229 -0.022 0.607 255 255 255
0.03 0.354 0.86 255 255 255
-0.158 -0.116 0.517 255 255 255
-0.517 0.069 0.919 0 0 0
0.252 0.161 0.946 255 255 255
0.074 -0.004 0.705 255 255 255
-0.169 0.41 0.837 255 255 255
0.09 0.221 0.922 255 255 255
-0.309 -0.209 0.598 255 255 255
-0.059 -0.077 0.524 255 255 255
0.113 0.235 0.914 255 255 255
-0.609 0.146 0.986 255 255 255
-0.148 -0.191 0.588 255 255 255
-0.386 0.359 0.871 255 255 255
-0.167 -0.28 0.385 0 0 0
-0.225 -0.262 0.44 255 255 255
-0.427 0.175 0.973 255 255 255
-0.145 0.395 0.845 0 0 0
-0.198 -0.232 0.518 255 255 255
0.051 -0.135 0.505 255 255 255
0.195 -0.258 0.441 255 255 255
-0.411 0.101 0.997 255 255 255
-0.506 0.147 0.98 255 255 255
0.342 0.356 0.846 255 255 255
-0.029 0.134 0.954 0 0 0
0.248 0.117 0.952 255 255 255
0.24 -0.14 0.388 255 255 255
0.122 0.047 0.863 255 255 255
-0.013 -0.279 0.393 255 255 255
-0.289 -0.242 0.508 255 255 255
0.236 -0.039 0.523 255 255 255
-0.16 -0.107 0.549 0 0 0
-0.194 -0.235 0.499 255 255 255
-0.121 0.02 0.766 255 255 255
0.046 0.175 0.953 255 255 255
-0.106 0.234 0.924 255 255 255
-0.09 0.424 0.828 255 255 255
-0.118 0.276 0.906 255 255 255
0.037 -0.234 0.479 255 255 255
0.715 -0.083 1.048 0 0 0
-0.202 -0.234 0.503 255 255 255
-0.219 -0.255 0.458 255 255 255
-0.509 0.145 0.981 255 255 255
0.029 -0.256 0.437 255 255 255
-0.298 -0.025 0.59 0 0 0
-0.187 -0.126 0.532 255 255 255
-0.057 -0.179 0.589 255 255 255
-0.152 -0.01 0.613 255 255 255
0.063 -0.053 0.582 255 255 255
0.222 -0.005 0.68 255 255 255
-0.208 -0.225 0.554 255 255 255
-0.213 -0.078 0.526 255 255 255
-0.002 -0.257 0.434 255 255 255
-0.016 -0.267 0.417 255 255 255
0.144 -0.248 0.451 255 255 255
0.241 -0.042 0.492 255 255 255
0.484 0.175 0.921 255 255 255
-0.325 -0.191 0.58 0 0 0
0.214 -0.232 0.506 255 255 255
0.049 -0.105 0.476 255 255 255
-0.237 0.251 0.92 255 255 255
0.234 -0.177 0.411 255 255 255
-0.142 -0.11 0.539 255 255 255
-0.22 -0.027 0.599 255 255 255
0.291 0.39 0.827 0 0 0
0.098 0.133 0.945 0 0 0
-0.291 0.344 0.876 255 255 255
-0.234 -0.206 0.599 255 255 255
-0.265 -0.133 0.566 255 255 255
0.147 0.43 0.813 255 255 255
0.241 -0.063 0.475 255 255 255
-0.316 -0.225 0.561 255 255 255
-0.323 0.118 0.996 255 255 255
0.458 0.232 0.893 255 255 255
-0.13 -0.168 0.612 255 255 255
0.062 -0.253 0.439 255 255 255
0.2 -0.245 0.46 255 255 255
-0.235 -0.049 0.555 0 0 0
0.385 0.262 0.883 255 255 255
-0.214 -0.047 0.568 255 255 255
0.026 -0.231 0.485 255 255 255
0.218 -0.029 0.54 255 255 255
-0.341 0.098 1.005 255 255 255
-0.1 -0.257 0.434 255 255 255
0.348 0.267 0.882 255 255 255
0.16 -0.073 0.53 255 255 255
-0.434 0.226 0.944 255 255 255
0.145 -0.088 0.506 255 255 255
-0.096 -0.203 0.575 0 0 0
-0.073 -0.237 0.485 255 255 255
0.22 -0.231 0.508 255 255 255
-0.085 -0.098 0.56 255 255 255
-0.127 -0.148 0.637 0 0 0
-0.197 0.099 0.996 255 255 255
0.491 0.158 0.926 0 0 0
-0.032 0.05 0.852 255 255 255
0.238 -0.066 0.469 255 255 255
-0.107 -0.206 0.562 255 255 255
-0.082 -0.216 0.548 255 255 255
-0.084 0.421 0.83 255 255 255
0.229 -0.187 0.568 255 255 255
-0.052 0.423 0.828 255 255 255
0.228 -0.089 0.409 255 255 255
0.259 -0.116 0.39 255 255 255
0.26 0.405 0.82 255 255 255
0.182 0.224 0.917 255 255 255
0.182 -0.086 0.508 255 255 255
-0.161 -0.077 0.542 255 255 255
-0.048 -0.277 0.393 255 255 255
-0.093 -0.051 0.614 0 0 0
0.733 -0.068 1.038 0 0 0
-0.271 -0.215 0.586 0 0 0
0.124 -0.252 0.445 255 255 255
0.178 -0.077 0.521 255 255 255
-0.197 0.045 0.879 255 255 255
0.162 -0.283 0.393 0 0 0
-0.489 0.178 0.973 255 255 255
0.697 -0.177 1.036 255 255 255
0.21 0.226 0.913 255 255 255
0.222 -0.06 0.487 255 255 255
0.562 0.024 0.996 255 255 255
-0.079 -0.268 0.412 255 255 255
0.315 0.412 0.819 255 255 255
-0.083 0.295 0.893 255 255 255
-0.122 -0.274 0.393 255 255 255
0.387 0.333 0.849 255 255 255
0.075 -0.125 0.488 255 255 255
0.044 0.178 0.951 255 255 255
-0.422 -0.005 0.622 255 255 255
-0.277 0.242 0.927 255 255 255
-0.152 -0.063 0.55 0 0 0
-0.089 0.285 0.898 255 255 255
-0.169 -0.224 0.53 255 255 255
-0.209 -0.046 0.571 255 255 255
0.196 -0.259 0.437 255 255 255
-0.38 0.185 0.963 255 255 255
0.02 0.311 0.884 255 255 255
0.121 0.199 0.933 255 255 255
-0.063 -0.281 0.384 0 0 0
0.186 0.12 0.971 255 255 255
0.138 -0.097 0.456 0 0 0
0.16 -0.059 0.55 255 255 255
-0.097 -0.188 0.583 255 255 255
0.156 0.219 0.922 255 255 255
0.381 0.19 0.92 255 255 255
0.259 -0.266 0.46 255 255 255
-0.055 -0.222 0.522 255 255 255
-0.091 -0.051 0.614 255 255 255
0.113 -0.103 0.46 255 255 255
-0.214 -0.112 0.522 0 0 0
0.08 -0.287 0.387 0 0 0
0.173 -0.268 0.417 255 255 255
0.228 -0.156 0.491 255 255 255
-0.216 0.269 0.91 255 255 255
0.106 -0.061 0.554 255 255 255
0.083 -0.091 0.493 255 255 255
0.158 -0.231 0.5 255 255 255
-0.088 -0.258 0.43 255 255 255
0.279 0.416 0.817 255 255 255
-0.006 0.334 0.872 255 255 255
0.121 -0.112 0.469 255 255 255
0.089 -0.138 0.491 255 255 255
-0.121 0.399 0.841 0 0 0
0.275 0.173 0.939 0 0 0
0.031 -0.265 0.419 255 255 255
0.237 -0.113 0.394 255 255 255
-0.209 -0.193 0.594 255 255 255
0.239 -0.207 0.543 0 0 0
-0.09 -0.27 0.408 255 255 255
-0.148 -0.046 0.58 0 0 0
0.146 -0.067 0.542 255 255 255
-0.139 0.416 0.833 255 255 255
0.063 -0.096 0.466 0 0 0
-0.146 -0.263 0.414 255 255 255
-0.255 -0.092 0.523 255 255 255
-0.278 0.342 0.874 255 255 255
0.054 -0.084 0.527 255 255 255
0.422 0.186 0.92 255 255 255
0.165 -0.291 0.379 0 0 0
-0.141 0.225 0.933 255 255 255
0.275 0.171 0.94 0 0 0
0.239 -0.133 0.389 255 255 255
0.262 -0.084 0.438 255 255 255
0.092 0.102 0.94 255 255 255
0.254 0.126 0.964 255 255 255
0.142 0.085 0.876 0 0 0
-0.419 -0.036 0.58 255 255 255
-0.424 0.167 0.977 255 255 255
-0.188 0.393 0.847 0 0 0
0.116 -0.2 0.551 255 255 255
-0.063 -0.243 0.466 255 255 255
-0.116 -0.172 0.606 255 255 255
0.059 -0.25 0.446 255 255 255
0.396 0.269 0.877 255 255 255
0.079 -0.287 0.387 0 0 0
0.161 0.374 0.84 0 0 0
-0.301 -0.231 0.554 255 255 255
0.269 0.203 0.922 255 255 255
-0.243 -0.099 0.519 255 255 255
-0.289 0.293 0.901 255 255 255
0.287 0.394 0.826 0 0 0
-0.048 -0.182 0.584 255 255 255
-0.355 0.161 0.975 255 255 255
-0.155 -0.229 0.505 255 255 255
0.015 -0.099 0.497 255 255 255
0.075 -0.257 0.432 255 255 255
0.223 0.062 0.811 255 255 255
-0.186 -0.05 0.571 255 255 255
0.044 -0.017 0.68 255 255 255
0.066 0.274 0.897 255 255 255
-0.124 -0.076 0.539 255 255 255
-0.34 -0.167 0.538 255 255 255
0.655 -0.134 1.013 255 255 255
-0.039 -0.162 0.599 255 255 255
-0.503 0.155 0.977 255 255 255
-0.213 -0.035 0.589 255 255 255
-0.279 -0.131 0.56 0 0 0
-0.169 -0.169 0.583 255 255 255
0.091 -0.008 0.68 255 255 255
-0.205 -0.121 0.54 255 255 255
0.01 -0.268 0.414 255 255 255
-0.154 -0.259 0.421 255 255 255
0.104 -0.255 0.436 255 255 255
-0.302 -0.082 0.541 0 0 0
-0.113 0.16 0.967 255 255 255
0.066 0.089 0.873 255 255 255
-0.332 -0.192 0.582 0 0 0
-0.423 0.335 0.888 255 255 255
-0.184 -0.118 0.526 255 255 255
-0.338 -0.132 0.561 0 0 0
-0.202 -0.113 0.539 0 0 0
0.348 0.36 0.845 255 255 255
-0.434 0.002 0.59 255 255 255
0.147 -0.24 0.466 255 255 255
-0.234 0.006 0.642 0 0 0
-0.292 -0.115 0.553 0 0 0
-0.25 0.15 0.978 255 255 255
-0.164 -0.283 0.382 0 0 0
-0.231 0.417 0.835 255 255 255
0.147 -0.285 0.386 0 0 0
-0.128 0.29 0.898 255 255 255
-0.207 -0.114 0.535 0 0 0
0.615 0.02 0.991 255 255 255
-0.01 0.172 0.937 0 0 0
-0.21 -0.057 0.559 0 0 0
-0.317 0.112 1 255 255 255
-0.039 0.268 0.904 255 255 255
-0.331 0.431 0.836 255 255 255
-0.171 -0.218 0.553 255 255 255
-0.314 -0.225 0.56 255 255 255
0.085 0.394 0.834 0 0 0
0.184 -0.14 0.481 0 0 0
0.245 0.12 0.963 255 255 255
0.182 -0.134 0.476 255 255 255
0.097 -0.009 0.675 255 255 255
-0.096 0.303 0.891 255 255 255
-0.037 -0.246 0.46 255 255 255
-0.113 -0.236 0.482 255 255 255
-0.059 -0.168 0.595 255 255 255
0.11 -0.124 0.483 255 255 255
0.039 -0.054 0.574 255 255 255
-0.177 -0.239 0.483 255 255 255
-0.143 -0.175 0.603 255 255 255
-0.182 -0.094 0.515 255 255 255
-0.021 0.118 0.967 255 255 255
0.021 -0.062 0.576 255 255 255
-0.21 -0.266 0.421 255 255 255
0.085 -0.27 0.409 255 255 255
0.122 -0.054 0.569 255 255 255
0.016 -0.097 0.493 255 255 255
0.255 -0.214 0.452 0 0 0
0.075 -0.258 0.43 255 255 255
0.226 -0.064 0.476 255 255 255
0.094 -0.104 0.461 255 255 255
0.19 -0.226 0.513 255 255 255
0.302 0.142 0.91 0 0 0
-0.185 0.045 0.881 255 255 255
-0.186 -0.229 0.522 255 255 255
-0.562 0.194 0.969 255 255 255
0.02 -0.126 0.526 255 255 255
-0.137 0.133 0.983 255 255 255
-0.145 -0.186 0.591 255 255 255
-0.144 -0.198 0.587 255 255 255
0.379 0.309 0.861 255 255 255
0.479 0.143 0.938 255 255 255
-0.053 -0.275 0.394 255 255 255
0.046 -0.231 0.483 255 255 255
0.212 -0.162 0.426 255 255 255
0.029 -0.192 0.572 255 255 255
-0.52 0.248 0.936 255 255 255
0 0.147 0.949 255 255 255
0.056 -0.077 0.54 255 255 255
0.066 -0.284 0.39 0 0 0
-0.115 0.338 0.872 255 255 255
0.022 0.224 0.926 255 255 255
0.088 -0.05 0.585 255 255 255
-0.21 -0.079 0.532 255 255 255
-0.036 0.395 0.839 0 0 0
0.158 -0.182 0.572 255 255 255
0.064 0.398 0.835 0 0 0
0.197 -0.264 0.427 255 255 255
-0.062 -0.166 0.597 255 255 255
-0.184 -0.295 0.381 0 0 0
-0.381 0.239 0.933 255 255 255
-0.283 -0.142 0.568 0 0 0
-0.46 0.203 0.959 255 255 255
0.228 -0.026 0.547 255 255 255
0.101 -0.059 0.565 255 255 255
0.136 -0.026 0.647 255 255 255
-0.237 -0.148 0.554 255 255 255
-0.209 -0.079 0.531 255 255 255
0.116 -0.257 0.432 255 255 255
-0.412 0.091 1.001 255 255 255
-0.126 -0.226 0.508 255 255 255
0.225 -0.274 0.43 255 255 255
-0.045 0.435 0.822 255 255 255
0.117 0.239 0.913 255 255 255
-0.106 -0.07 0.539 255 255 255
0.465 0.259 0.879 255 255 255
-0.164 -0.14 0.533 0 0 0
-0.413 -0.163 0.619 255 255 255
0.022 -0.124 0.524 255 255 255
0.078 0.151 0.948 255 255 255
-0.049 -0.052 0.606 255 255 255
0.231 -0.159 0.392 255 255 255
0.157 -0.254 0.442 255 255 255
0.106 -0.03 0.632 255 255 255
0.683 0.012 0.994 255 255 255
-0.175 0.204 0.944 255 255 255
-0.354 -0.089 0.536 255 255 255
0.25 0.111 0.914 255 255 255
0.244 -0.159 0.399 255 255 255
-0.049 -0.221 0.525 255 255 255
0.176 -0.12 0.469 255 255 255
0.238 -0.113 0.393 255 255 255
-0.113 0.363 0.858 255 255 255
-0.24 -0.133 0.544 255 255 255
-0.194 -0.25 0.461 255 255 255
0.054 -0.274 0.406 255 255 255
-0.196 0.451 0.822 255 255 255
-0.038 -0.074 0.522 255 255 255
0.229 -0.257 0.452 255 255 255
0.059 0.081 0.896 255 255 255
0.221 -0.018 0.614 255 255 255
0.375 0.334 0.857 255 255 255
-0.087 0.169 0.962 255 255 255
0.231 -0.275 0.434 255 255 255
-0.198 -0.08 0.525 255 255 255
-0.358 -0.112 0.551 255 255 255
0.221 -0.156 0.513 0 0 0
0.238 -0.187 0.444 0 0 0
-0.213 -0.036 0.584 255 255 255
0.204 -0.098 0.401 255 255 255
-0.429 -0.008 0.587 255 255 255
-0.278 0.13 0.988 255 255 255
-0.199 -0.244 0.477 255 255 255
-0.188 -0.268 0.413 255 255 255
-0.011 0.358 0.857 255 255 255
-0.09 -0.218 0.545 255 255 255
0.461 0.252 0.882 255 255 255
-0.198 -0.046 0.577 0 0 0
0.23 -0.157 0.409 255 255 255
-0.127 -0.104 0.572 255 255 255
0.181 -0.238 0.488 0 0 0
-0.45 0.241 0.937 255 255 255
0.012 0.395 0.839 0 0 0
0.283 -0.011 0.583 255 255 255
0.413 0.112 0.958 255 255 255
-0.417 -0.07 0.623 0 0 0
-0.026 -0.24 0.475 255 255 255
0.292 0.127 0.858 0 0 0
-0.303 -0.048 0.575 255 255 255
0.004 0.153 0.951 255 255 255
0.327 0.203 0.917 255 255 255
-0.334 0.102 1.004 255 255 255
0.526 0.074 0.972 255 255 255
-0.366 0.146 0.983 255 255 255
-0.301 -0.012 0.614 255 255 255
-0.157 -0.087 0.514 255 255 255
-0.333 -0.191 0.582 0 0 0
-0.479 0.107 0.998 255 255 255
0.476 0.183 0.918 255 255 255
0.139 -0.214 0.521 255 255 255
0.65 0.012 0.993 255 255 255
0.025 -0.266 0.416 255 255 255
-0.031 -0.062 0.581 255 255 255
-0.47 -0.174 0.645 255 255 255
-0.448 0.112 0.995 255 255 255
0.031 -0.221 0.526 255 255 255
-0.247 -0.257 0.451 255 255 255
-0.045 0.263 0.906 255 255 255
-0.11 -0.095 0.564 255 255 255
0.254 0.257 0.894 255 255 255
-0.17 0.357 0.863 255 255 255
-0.351 0.374 0.864 255 255 255
0.174 -0.233 0.498 255 255 255
0.229 -0.157 0.496 255 255 255
0.224 -0.07 0.469 255 255 255
0.636 -0.06 1.005 255 255 255
0.45 0.14 0.941 255 255 255
-0.138 -0.237 0.481 255 255 255
0.435 0.185 0.919 255 255 255
-0.28 -0.011 0.611 255 255 255
0.376 0.286 0.87 255 255 255
0.459 0.251 0.882 255 255 255
0.257 -0.062 0.466 0 0 0
0.369 0.184 0.923 255 255 255
-0.097 -0.024 0.586 255 255 255
0.02 0.357 0.858 255 255 255
-0.094 0.108 0.98 0 0 0
0.169 -0.261 0.429 255 255 255
-0.195 0.296 0.895 255 255 255
0.04 -0.213 0.533 255 255 255
0.137 -0.029 0.636 255 255 255
0.048 0.047 0.861 255 255 255
0.076 -0.007 0.698 255 255 255
0.171 -0.296 0.377 255 255 255
0.225 0.361 0.844 255 255 255
-0.168 -0.294 0.381 0 0 0
-0.287 -0.029 0.592 255 255 255
-0.404 0.111 0.996 255 255 255
-0.029 -0.071 0.552 255 255 255
-0.011 0.434 0.822 255 255 255
0.044 0.438 0.816 255 255 255
-0.055 -0.058 0.593 255 255 255
-0.253 0.195 0.952 255 255 255
0.067 -0.239 0.471 255 255 255
-0.158 -0.265 0.412 255 255 255
0.222 -0.109 0.394 255 255 255
-0.309 0.221 0.94 255 255 255
0.338 0.314 0.861 255 255 255
-0.161 -0.116 0.518 255 255 255
-0.171 0.093 0.975 255 255 255
-0.059 0.327 0.877 255 255 255
-0.217 -0.255 0.451 255 255 255
0.016 -0.098 0.495 255 255 255
0.733 -0.063 1.034 0 0 0
0.289 0.182 0.931 255 255 255
-0.075 -0.157 0.614 0 0 0
0.288 0.273 0.884 255 255 255
-0.203 -0.265 0.421 255 255 255
-0.169 0.335 0.874 255 255 255
0.172 0.146 0.958 255 255 255
0.303 0.144 0.909 0 0 0
-0.183 -0.24 0.486 255 255 255
-0.323 -0.145 0.555 255 255 255
0.418 0.167 0.927 255 255 255
0.013 -0.215 0.537 255 255 255
-0.136 0.29 0.898 255 255 255
0.024 -0.07 0.559 255 255 255
-0.494 0.147 0.981 255 255 255
-0.637 0.093 1.009 255 255 255
-0.074 -0.238 0.48 255 255 255
-0.239 0.237 0.928 255 255 255
-0.549 0.155 0.978 255 255 255
-0.145 -0.277 0.39 255 255 255
0.267 0.418 0.815 255 255 255
-0.34 0.108 1.002 255 255 255
-0.302 0.093 1.001 255 255 255
-0.076 -0.273 0.398 255 255 255
-0.228 -0.106 0.52 255 255 255
0.037 -0.192 0.569 255 255 255
0.219 -0.076 0.455 255 255 255
-0.322 -0.076 0.539 255 255 255
-0.4 -0.118 0.552 255 255 255
0.127 0.275 0.893 255 255 255
-0.475 0.218 0.952 255 255 255
-0.178 -0.252 0.441 255 255 255
0.101 -0.088 0.472 255 255 255
-0.017 -0.121 0.547 255 255 255
0.174 -0.266 0.42 255 255 255
-0.328 -0.096 0.537 255 255 255
0.319 0.417 0.82 255 255 255
0.054 -0.21 0.539 255 255 255
-0.101 -0.254 0.441 255 255 255
-0.125 0.245 0.921 255 255 255
-0.234 -0.257 0.452 255 255 255
0.007 0.073 0.85 255 255 255
0.077 0.35 0.859 255 255 255
0.422 0.122 0.953 255 255 255
0.084 -0.067 0.545 255 255 255
0.083 -0.107 0.465 255 255 255
-0.008 -0.275 0.402 255 255 255
-0.071 -0.236 0.486 255 255 255
0.551 -0.015 1.011 255 255 255
-0.11 -0.288 0.379 0 0 0
0.172 -0.056 0.557 255 255 255
0.57 0.016 0.997 255 255 255
-0.406 -0.194 0.597 255 255 255
0.085 0.261 0.902 255 255 255
-0.167 -0.202 0.591 255 255 255
-0.018 -0.057 0.591 255 255 255
0.687 -0.158 1.023 255 255 255
0.152 0.059 0.815 255 255 255
0.032 0.372 0.85 255 255 255
-0.4 -0.06 0.631 255 255 255
-0.174 -0.132 0.527 0 0 0
-0.43 0 0.592 255 255 255
0.546 0.024 0.997 255 255 255
-0.262 0.43 0.833 255 255 255
-0.183 -0.239 0.487 255 255 255
-0.16 -0.264 0.416 255 255 255
-0.609 0.103 1.004 255 255 255
-0.236 0.357 0.867 255 255 255
-0.062 -0.277 0.393 255 255 255
0.188 -0.114 0.466 255 255 255
-0.067 -0.273 0.397 255 255 255
-0.187 0.214 0.94 255 255 255
0.059 -0.253 0.442 255 255 255
-0.442 0.183 0.969 255 255 255
0.237 -0.147 0.369 255 255 255
0.224 -0.033 0.53 255 255 255
0.018 -0.234 0.479 255 255 255
-0.192 -0.123 0.533 255 255 255
0.15 0.394 0.832 0 0 0
0.232 -0.2 0.563 255 255 255
0.017 -0.222 0.521 255 255 255
-0.197 -0.276 0.398 255 255 255
0.142 0.263 0.899 255 255 255
0.227 0.346 0.851 255 255 255
0.382 0.224 0.902 255 255 255
-0.179 0.238 0.924 255 255 255
-0.085 0.304 0.889 255 255 255
0.234 0.062 0.808 255 255 255
0.001 -0.156 0.588 0 0 0
-0.344 0.11 1 255 255 255
0.069 0.24 0.914 255 255 255
0.081 0.119 0.941 0 0 0
0.096 0.247 0.909 255 255 255
0.223 -0.228 0.51 255 255 255
-0.298 0.345 0.873 255 255 255
-0.125 -0.219 0.544 255 255 255
-0.292 0.218 0.94 255 255 255
0.396 0.259 0.884 255 255 255
0.202 -0.181 0.572 255 255 255
0.023 -0.261 0.424 255 255 255
-0.024 -0.249 0.454 255 255 255
0.087 -0.076 0.542 255 255 255
0.244 -0.079 0.445 255 255 255
0.171 0.087 0.857 0 0 0
0.365 0.329 0.855 255 255 255
-0.11 0.151 0.972 255 255 255
-0.391 0.192 0.961 255 255 255
0.047 -0.115 0.495 255 255 255
-0.156 -0.142 0.587 0 0 0
0.358 0.265 0.881 255 255 255
-0.033 -0.226 0.513 255 255 255
-0.206 -0.166 0.563 0 0 0
0.216 0.319 0.866 255 255 255
-0.282 -0.246 0.494 255 255 255
-0.105 -0.253 0.442 255 255 255
0.668 -0.139 1.014 255 255 255
0.281 -0.09 0.435 255 255 255
-0.055 -0.228 0.509 255 255 255
0.275 0.435 0.809 255 255 255
0.075 -0.262 0.422 255 255 255
0.333 0.322 0.857 255 255 255
-0.153 0.128 0.987 255 255 255
-0.054 -0.221 0.526 255 255 255
0.202 -0.099 0.402 255 255 255
0.217 -0.209 0.527 255 255 255
-0.034 0.21 0.936 255 255 255
0.062 -0.067 0.558 255 255 255
-0.124 0.301 0.891 255 255 255
-0.306 -0.123 0.548 255 255 255
0.018 -0.079 0.496 255 255 255
0.135 -0.193 0.553 255 255 255
-0.129 -0.249 0.443 255 255 255
-0.225 0.235 0.929 255 255 255
0.226 0.077 0.816 255 255 255
0.123 -0.235 0.475 255 255 255
-0.242 0.093 0.993 255 255 255
0.22 -0.005 0.683 255 255 255
-0.279 0.205 0.948 255 255 255
0.022 -0.272 0.407 255 255 255
0.013 -0.238 0.476 255 255 255
0.598 0.061 0.975 255 255 255
0.392 0.316 0.86 255 255 255
0.468 0.201 0.909 255 255 255
0.232 0.266 0.891 255 255 255
-0.084 -0.239 0.478 255 255 255
-0.031 0.38 0.846 0 0 0
-0.486 0.095 1.003 255 255 255
-0.162 0.308 0.89 255 255 255
-0.222 0.134 0.984 255 255 255
0.172 0.44 0.809 255 255 255
-0.075 -0.122 0.569 255 255 255
0.235 0.339 0.853 255 255 255
-0.048 0.262 0.907 255 255 255
0.181 -0.245 0.459 255 255 255
-0.065 -0.248 0.457 255 255 255
0.172 0.035 0.741 255 255 255
-0.092 -0.23 0.501 255 255 255
-0.108 0.406 0.837 255 255 255
-0.129 -0.027 0.586 0 0 0
-0.096 -0.069 0.537 255 255 255
-0.118 -0.062 0.571 0 0 0
0.144 -0.259 0.431 255 255 255
0.228 0.268 0.89 255 255 255
-0.207 0.045 0.88 255 255 255
0.008 -0.21 0.559 255 255 255
0.059 -0.066 0.56 255 255 255
-0.332 0.149 0.98 255 255 255
0.024 0.215 0.93 255 255 255
0.189 0.176 0.94 255 255 255
-0.21 -0.174 0.568 255 255 255
-0.089 -0.266 0.414 255 255 255
0.5 0.141 0.937 255 255 255
-0.243 -0.261 0.44 255 255 255
-0.434 -0.186 0.63 255 255 255
-0.152 -0.264 0.413 255 255 255
-0.106 -0.086 0.552 255 255 255
0.011 0.304 0.888 255 255 255
-0.415 -0.193 0.6 255 255 255
0.06 0.141 0.937 0 0 0
0.232 -0.182 0.567 255 255 255
0.231 -0.17 0.499 0 0 0
-0.412 0.311 0.897 255 255 255
-0.051 -0.069 0.564 255 255 255
-0.206 0.132 0.985 255 255 255
-0.121 -0.243 0.463 255 255 255
-0.199 0.032 0.825 255 255 255
-0.217 0.19 0.954 255 255 255
-0.32 -0.196 0.579 0 0 0
0.634 0.012 0.995 0 0 0
-0.01 -0.18 0.583 255 255 255
-0.329 -0.152 0.55 255 255 255
0.486 0.15 0.931 255 255 255
-0.459 0.184 0.969 255 255 255
0.271 0.266 0.888 255 255 255
-0.023 0.15 0.955 255 255 255
0.086 -0.032 0.63 255 255 255
-0.041 0.233 0.924 255 255 255
0.17 0.224 0.916 255 255 255
-0.117 -0.255 0.436 255 255 255
0.287 -0.026 0.555 255 255 255
0.243 -0.219 0.482 255 255 255
0.2 -0.106 0.461 0 0 0
0.702 -0.144 1.016 255 255 255
0.053 -0.207 0.544 0 0 0
0.095 -0.054 0.578 255 255 255
0.1 -0.212 0.528 255 255 255
-0.347 0.022 0.781 255 255 255
-0.339 0.104 1.004 255 255 255
-0.378 -0.071 0.614 255 255 255
0.405 0.225 0.899 255 255 255
0.11 -0.101 0.458 255 255 255
0.107 0.369 0.845 255 255 255
-0.193 -0.121 0.532 255 255 255
0.022 0.206 0.934 255 255 255
-0.049 -0.251 0.45 255 255 255
-0.23 -0.014 0.623 0 0 0
-0.093 0.169 0.961 255 255 255
0.014 -0.233 0.483 255 255 255
-0.517 0.213 0.955 255 255 255
-0.271 0.258 0.918 255 255 255
-0.182 -0.19 0.59 255 255 255
-0.231 -0.228 0.544 255 255 255
-0.084 -0.156 0.614 255 255 255
-0.521 0.061 0.893 255 255 255
0.623 0.005 1 0 0 0
0.284 0.083 0.758 255 255 255
0.104 0.082 0.866 0 0 0
0.092 0.119 0.939 0 0 0
-0.105 -0.171 0.599 255 255 255
-0.427 -0.03 0.646 255 255 255
-0.202 -0.174 0.588 255 255 255
-0.073 -0.203 0.571 0 0 0
0.234 -0.169 0.418 255 255 255
-0.3 -0.029 0.585 0 0 0
-0.294 -0.04 0.584 255 255 255
0.228 -0.086 0.439 255 255 255
0.019 0.404 0.833 0 0 0
0.249 -0.084 0.436 255 255 255
-0.047 -0.253 0.445 255 255 255
-0.347 -0.109 0.549 255 255 255
0.081 -0.139 0.493 255 255 255
0.109 -0.194 0.552 255 255 255
0.221 -0.154 0.425 255 255 255
-0.023 -0.256 0.439 255 255 255
-0.284 -0.129 0.558 0 0 0
-0.045 -0.273 0.405 255 255 255
0.205 -0.038 0.598 255 255 255
-0.162 -0.078 0.542 0 0 0
0.133 0.313 0.873 255 255 255
0.079 -0.237 0.475 255 255 255
0.103 -0.23 0.481 0 0 0
-0.165 -0.257 0.428 255 255 255
0.136 -0.089 0.46 255 255 255
-0.29 -0.191 0.603 255 255 255
-0.365 0.355 0.872 255 255 255
0.161 -0.297 0.376 255 255 255
-0.003 -0.078 0.506 255 255 255
-0.202 -0.209 0.572 255 255 255
0.685 -0.121 1.005 255 255 255
-0.382 0.364 0.869 255 255 255
0.128 0.128 0.964 255 255 255
0.368 0.162 0.935 255 255 255
0.121 -0.025 0.64 255 255 255
-0.276 -0.06 0.558 0 0 0
-0.173 -0.217 0.553 255 255 255
-0.439 0.009 0.789 255 255 255
0.113 -0.146 0.495 0 0 0
0.287 0.24 0.9 255 255 255
0.273 -0.244 0.498 255 255 255
0.193 0.282 0.885 255 255 255
-0.353 0.216 0.946 255 255 255
-0.361 0.257 0.924 255 255 255
-0.311 0.093 1.002 255 255 255
0.197 0.404 0.825 255 255 255
-0.268 -0.103 0.545 255 255 255
0.338 0.39 0.824 0 0 0
-0.347 0.18 0.964 255 255 255
-0.012 -0.27 0.413 255 255 255
-0.226 -0.07 0.54 255 255 255
-0.289 -0.205 0.602 255 255 255
0.088 -0.182 0.568 255 255 255
0.106 -0.284 0.391 0 0 0
-0.425 -0.018 0.574 255 255 255
-0.18 0.143 0.978 255 255 255
-0.012 -0.233 0.489 255 255 255
0.166 -0.14 0.484 0 0 0
-0.327 0.126 0.993 255 255 255
0.077 -0.075 0.549 0 0 0
-0.056 -0.207 0.569 255 255 255
0.295 0.442 0.79 255 255 255
-0.033 0.047 0.86 255 255 255
-0.136 -0.049 0.569 255 255 255
-0.021 -0.179 0.585 255 255 255
-0.033 0.273 0.901 255 255 255
-0.411 0.197 0.959 255 255 255
0.214 0.137 0.96 255 255 255
0.063 -0.018 0.672 255 255 255
-0.237 -0.005 0.641 0 0 0
-0.301 -0.188 0.611 255 255 255
0.273 0.372 0.836 0 0 0
0.007 -0.238 0.475 255 255 255
0.581 0.096 0.955 255 255 255
-0.128 0.212 0.938 255 255 255
0.103 -0.256 0.434 255 255 255
0.219 -0.16 0.523 0 0 0
-0.244 0.457 0.822 255 255 255
0.174 -0.19 0.56 255 255 255
0.048 -0.212 0.534 255 255 255
0.056 -0.251 0.446 255 255 255
-0.068 -0.25 0.451 255 255 255
-0.259 -0.255 0.461 255 255 255
-0.001 -0.269 0.413 255 255 255
0.179 -0.064 0.545 255 255 255
-0.251 -0.253 0.463 255 255 255
-0.135 -0.212 0.556 255 255 255
0.14 -0.249 0.449 255 255 255
0.473 0.117 0.952 255 255 255
-0.103 -0.024 0.583 255 255 255
-0.004 0.416 0.827 255 255 255
-0.084 -0.222 0.528 255 255 255
0.138 -0.229 0.501 255 255 255
0.307 0.076 0.781 255 255 255
-0.504 0.123 0.992 255 255 255
-0.154 -0.277 0.39 255 255 255
-0.304 0.348 0.873 255 255 255
0.205 0.315 0.869 255 255 255
-0.324 -0.106 0.542 0 0 0
0.652 -0.124 1.009 255 255 255
0.223 -0.199 0.447 255 255 255
0.251 -0.115 0.39 255 255 255
-0.258 -0.198 0.597 255 255 255
-0.06 0.052 0.832 255 255 255
-0.126 -0.291 0.378 0 0 0
-0.228 -0.039 0.569 255 255 255
0.029 -0.232 0.483 255 255 255
-0.461 -0.182 0.642 255 255 255
0.198 -0.255 0.445 255 255 255
-0.106 -0.272 0.401 255 255 255
0.224 -0.223 0.522 255 255 255
0.421 0.291 0.869 255 255 255
0.12 -0.027 0.638 255 255 255
0.192 0.141 0.96 255 255 255
-0.221 -0.087 0.515 0 0 0
-0.099 0.125 0.983 0 0 0
-0.189 -0.232 0.515 255 255 255
-0.175 -0.271 0.408 255 255 255
-0.219 -0.21 0.579 255 255 255
0.09 -0.149 0.5 0 0 0
0.085 -0.189 0.559 255 255 255
-0.218 -0.05 0.562 255 255 255
-0.254 -0.043 0.572 255 255 255
0.18 -0.08 0.519 255 255 255
0.716 -0.17 1.029 255 255 255
0.152 -0.278 0.396 255 255 255
-0.28 -0.243 0.506 255 255 255
0.153 -0.038 0.592 255 255 255
0.208 -0.231 0.509 255 255 255
0.056 -0.201 0.563 255 255 255
0.248 0.26 0.893 255 255 255
0.203 -0.08 0.519 255 255 255
0.105 -0.133 0.488 255 255 255
0.742 -0.076 1.042 0 0 0
-0.021 -0.251 0.451 255 255 255
-0.039 -0.283 0.382 0 0 0
-0.057 -0.28 0.387 0 0 0
0.059 -0.223 0.503 0 0 0
0.005 -0.075 0.553 255 255 255
0.003 -0.283 0.39 0 0 0
0.15 0.158 0.954 255 255 255
-0.035 -0.267 0.415 255 255 255
0.24 -0.045 0.509 255 255 255
-0.16 -0.252 0.437 255 255 255
0.233 0.096 0.871 0 0 0
0.004 0.029 0.75 255 255 255
-0.008 -0.223 0.518 255 255 255
0.458 0.089 0.968 255 255 255
0.052 -0.044 0.604 255 255 255
-0.178 -0.061 0.547 0 0 0
0.023 0.194 0.941 255 255 255
-0.26 -0.009 0.625 255 255 255
0.038 0.12 0.962 0 0 0
0.21 -0.083 0.459 255 255 255
-0.368 0.262 0.92 255 255 255
-0.162 -0.231 0.502 255 255 255
-0.171 -0.063 0.543 0 0 0
-0.421 0.091 1 255 255 255
0.235 0.19 0.93 255 255 255
-0.156 -0.239 0.477 255 255 255
-0.432 -0.051 0.672 255 255 255
0.213 -0.076 0.501 255 255 255
0.112 -0.023 0.649 255 255 255
-0.111 -0.065 0.56 0 0 0
0.293 0.279 0.88 255 255 255
0.048 -0.269 0.413 255 255 255
-0.106 -0.25 0.448 255 255 255
-0.132 -0.052 0.556 255 255 255
-0.103 -0.269 0.409 255 255 255
0.678 -0.101 1.015 255 255 255
-0.252 -0.118 0.542 255 255 255
0.151 -0.19 0.55 255 255 255
-0.286 0.248 0.922 255 255 255
-0.171 0.005 0.616 255 255 255
-0.054 0.351 0.863 255 255 255
0.439 0.075 0.977 255 255 255
-0.057 -0.256 0.435 255 255 255
-0.232 -0.205 0.598 255 255 255
-0.45 0.259 0.927 255 255 255
-0.067 0.349 0.867 255 255 255
0.028 -0.049 0.591 255 255 255
0.258 0.104 0.826 0 0 0
0.102 0.296 0.883 255 255 255
0.52 0.078 0.97 255 255 255
-0.586 0.111 1.001 255 255 255
0.256 -0.079 0.445 255 255 255
0.419 0.221 0.902 255 255 255
-0.237 -0.014 0.626 0 0 0
-0.005 -0.266 0.418 255 255 255
0.058 -0.271 0.41 255 255 255
-0.163 -0.244 0.463 255 255 255
0.156 -0.228 0.505 255 255 255
-0.106 -0.024 0.585 255 255 255
-0.114 0.368 0.857 255 255 255
-0.271 -0.2 0.598 255 255 255
-0.235 -0.227 0.556 0 0 0
0.118 -0.221 0.519 255 255 255
0.016 -0.124 0.527 255 255 255
-0.249 -0.23 0.54 255 255 255
-0.185 -0.09 0.517 255 255 255
0.064 -0.279 0.397 255 255 255
-0.026 -0.108 0.544 255 255 255
-0.04 0.21 0.936 255 255 255
-0.243 -0.145 0.554 255 255 255
0.026 0.134 0.955 0 0 0
0.251 -0.077 0.449 255 255 255
0.137 -0.271 0.409 255 255 255
-0.407 0.14 0.989 255 255 255
0.238 -0.251 0.47 255 255 255
-0.234 0.062 0.862 255 255 255
0.438 0.214 0.902 255 255 255
-0.237 -0.031 0.58 0 0 0
-0.132 -0.24 0.468 255 255 255
0.248 -0.09 0.401 255 255 255
-0.335 -0.22 0.57 255 255 255
-0.231 -0.255 0.46 255 255 255
0.357 0.373 0.827 0 0 0
-0.022 0.275 0.9 255 255 255
0.115 -0.053 0.574 255 255 255
-0.213 -0.046 0.569 255 255 255
0.211 -0.093 0.406 255 255 255
0.141 -0.208 0.542 255 255 255
0.244 -0.117 0.39 255 255 255
-0.328 0.145 0.982 255 255 255
-0.211 -0.092 0.523 0 0 0
0.027 -0.077 0.546 255 255 255
-0.029 -0.184 0.583 255 255 255
-0.113 0.07 0.868 255 255 255
0.194 0.312 0.872 255 255 255
-0.188 -0.102 0.521 0 0 0
0.198 -0.079 0.519 255 255 255
-0.147 -0.247 0.453 255 255 255
0.41 0.269 0.878 255 255 255
-0.173 0.167 0.966 255 255 255
0.555 0.152 0.932 255 255 255
0.009 0.26 0.909 255 255 255
0.081 -0.036 0.624 255 255 255
-0.319 0.066 0.879 255 255 255
-0.232 0.32 0.884 255 255 255
-0.489 0.271 0.924 255 255 255
0.234 -0.026 0.545 255 255 255
