ply
format ascii 1.0
comment Created by Open3D
element vertex 1602
property double x
property double y
property double z
property uchar red
property uchar green
property uchar blue
end_header
-0.24 0.048 0.801 255 255 255
0.224 0.098 0.962 255 255 255
-0.269 0.423 0.825 255 255 255
0.029 -0.214 0.441 255 255 255
0.244 0.243 0.861 255 255 255
-0.278 -0.187 0.523 255 255 255
-0.011 -0.241 0.551 255 255 255
0.085 -0.121 0.473 255 255 255
0.472 -0.12 1.049 255 255 255
-0.076 -0.172 0.489 0 0 0
0.371 -0.016 1.012 255 255 255
-0.149 -0.237 0.464 0 0 0
-0.12 0.423 0.827 255 255 255
-0.286 0.13 0.951 0 0 0
-0.147 0.025 0.83 255 255 255
-0.214 -0.077 0.491 255 255 255
0.035 -0.098 0.565 255 255 255
-0.217 -0.062 0.532 255 255 255
-0.234 -0.178 0.547 255 255 255
-0.28 -0.011 0.543 255 255 255
0.055 -0.135 0.411 255 255 255
0.18 0.171 0.464 255 255 255
0.372 -0.079 1.039 255 255 255
-0.067 0.227 0.909 255 255 255
-0.128 -0.241 0.465 0 0 0
-0.134 -0.125 0.475 255 255 255
-0.258 -0.056 0.498 255 255 255
-0.277 -0.144 0.568 255 255 255
0 -0.119 0.462 255 255 255
-0.367 -0.122 0.529 0 0 0
0.247 0.156 0.936 0 0 0
0.316 -0.191 1.055 255 255 255
-0.358 0.118 0.959 255 255 255
-0.031 -0.147 0.47 255 255 255
0.202 0.075 0.973 255 255 255
0.087 -0.225 0.309 0 0 0
0.462 0.122 0.944 255 255 255
-0.205 0.397 0.836 0 0 0
-0.465 0.267 0.891 255 255 255
0.295 0.142 0.94 255 255 255
-0.385 0.078 0.783 255 255 255
-0.218 0.25 0.899 255 255 255
-0.491 0.212 0.915 255 255 255
0.556 0 0.85 255 255 255
-0.052 0.447 0.821 255 255 255
0.081 -0.211 0.332 255 255 255
0.171 0.217 0.524 255 255 255
0.18 0.099 0.963 255 255 255
0.427 -0.228 1.107 0 0 0
-0.244 0.27 0.889 255 255 255
0.633 -0.686 1.298 255 255 255
-0.233 -0.056 0.523 255 255 255
-0.064 0.095 0.971 255 255 255
0.14 0.165 0.935 255 255 255
0.059 -0.072 0.574 255 255 255
0.521 0.114 0.947 255 255 255
-0.191 -0.254 0.39 255 255 255
0.547 0.001 0.994 0 0 0
0.578 -0.114 0.997 255 255 255
0.087 -0.213 0.329 255 255 255
-0.35 0.006 0.541 255 255 255
0.115 0.284 0.886 255 255 255
0.161 0.252 0.9 255 255 255
-0.208 -0.167 0.557 255 255 255
-0.201 -0.234 0.438 255 255 255
-0.053 0.069 0.984 255 255 255
-0.107 -0.147 0.477 255 255 255
-0.266 -0.212 0.454 255 255 255
-0.12 0.047 0.892 255 255 255
-0.251 0.236 0.907 255 255 255
-0.306 -0.149 0.551 255 255 255
0.214 -0.058 1.033 255 255 255
0.096 -0.094 0.559 255 255 255
-0.201 -0.237 0.429 255 255 255
0.088 -0.208 0.336 255 255 255
0.458 -0.208 1.091 0 0 0
-0.31 -0.161 0.541 255 255 255
-0.404 0.148 0.944 255 255 255
0.058 -0.209 0.339 255 255 255
-0.138 0.226 0.912 255 255 255
0.087 -0.166 0.405 255 255 255
-0.186 0.11 0.948 255 255 255
0.328 0.174 0.923 255 255 255
-0.159 0.021 0.848 255 255 255
0.01 -0.304 0.428 255 255 255
0.333 -0.256 1.08 0 0 0
0.048 0.339 0.862 255 255 255
-0.355 0.298 0.876 255 255 255
-0.33 -0.058 0.495 0 0 0
-0.168 0.4 0.834 0 0 0
-0.335 -0.038 0.495 255 255 255
-0.165 -0.261 0.391 255 255 255
-0.16 -0.283 0.359 255 255 255
-0.027 0.15 0.944 255 255 255
0.535 -0.095 1.026 0 0 0
-0.175 0.407 0.831 255 255 255
0.086 0.112 0.96 255 255 255
-0.049 0.189 0.926 255 255 255
-0.22 -0.205 0.516 255 255 255
0.075 -0.202 0.341 255 255 255
0.206 0.134 0.441 255 255 255
0.225 0.07 0.977 255 255 255
-0.102 -0.247 0.46 255 255 255
0.408 -0.471 1.156 255 255 255
0.031 0.082 0.975 0 0 0
0.017 0.042 0.984 255 255 255
0.197 0.151 0.448 255 255 255
-0.107 0.237 0.906 255 255 255
-0.319 -0.133 0.58 0 0 0
0.021 -0.2 0.463 255 255 255
-0.066 0.095 0.971 255 255 255
-0.159 0.384 0.841 0 0 0
-0.16 0.281 0.886 255 255 255
-0.297 0.391 0.838 0 0 0
-0.193 0.346 0.857 255 255 255
0.096 0.203 0.918 255 255 255
0.065 -0.145 0.402 255 255 255
0.082 -0.223 0.305 0 0 0
-0.158 0.341 0.86 255 255 255
-0.363 0.318 0.867 255 255 255
0.112 0.179 0.35 255 255 255
0.497 0.176 0.923 255 255 255
0.34 -0.397 1.121 255 255 255
0.03 -0.309 0.446 255 255 255
-0.021 -0.298 0.417 255 255 255
-0.108 -0.206 0.548 255 255 255
-0.142 -0.25 0.431 255 255 255
-0.29 0.332 0.862 255 255 255
0.211 -0.095 1.046 255 255 255
-0.214 -0.244 0.395 255 255 255
0.229 0.076 0.975 255 255 255
-0.002 -0.255 0.521 255 255 255
-0.153 0.085 0.953 0 0 0
0.733 -1.093 1.473 0 0 0
-0.221 -0.239 0.407 255 255 255
0.089 -0.146 0.405 0 0 0
0.031 -0.119 0.535 255 255 255
-0.036 -0.118 0.493 255 255 255
0.299 0.059 0.98 255 255 255
0.023 -0.293 0.475 255 255 255
0.404 0.072 0.971 255 255 255
-0.158 -0.12 0.49 255 255 255
0.204 0.14 0.446 255 255 255
-0.112 -0.268 0.409 255 255 255
0.074 0.139 0.947 255 255 255
-0.204 0.038 0.816 255 255 255
-0.117 -0.239 0.482 255 255 255
0.222 0.109 0.452 0 0 0
-0.269 0.421 0.826 255 255 255
-0.351 0.113 0.962 0 0 0
0.057 0.245 0.903 255 255 255
-0.231 0.317 0.871 255 255 255
-0.3 -0.018 0.532 255 255 255
0.203 0.128 0.489 255 255 255
0.177 0.347 0.826 255 255 255
-0.149 0.095 0.939 0 0 0
-0.097 -0.239 0.502 255 255 255
-0.193 -0.245 0.413 255 255 255
-0.291 0.026 0.758 255 255 255
-0.002 -0.158 0.476 255 255 255
-0.218 -0.062 0.496 255 255 255
0.052 -0.119 0.471 255 255 255
-0.033 -0.194 0.52 0 0 0
-0.246 0.214 0.915 255 255 255
0.359 0.069 0.97 255 255 255
-0.272 -0.065 0.505 255 255 255
0.106 0.048 0.916 0 0 0
-0.047 -0.221 0.577 255 255 255
0.189 0.174 0.929 255 255 255
0.241 0.183 0.925 255 255 255
-0.093 -0.258 0.448 255 255 255
-0.126 -0.262 0.407 255 255 255
-0.287 -0.137 0.587 0 0 0
-0.355 0.032 0.571 0 0 0
0.098 0.302 0.878 255 255 255
-0.221 -0.06 0.544 255 255 255
-0.066 0.258 0.895 255 255 255
0.08 -0.2 0.343 255 255 255
0.567 -0.058 0.987 255 255 255
0.556 -0.085 1.007 255 255 255
-0.164 -0.125 0.497 255 255 255
-0.027 -0.237 0.531 255 255 255
0.571 -0.052 0.988 255 255 255
0.049 0.137 0.95 255 255 255
0.023 -0.012 0.885 255 255 255
0.392 -0.182 1.078 255 255 255
-0.126 -0.249 0.446 255 255 255
0.14 0.371 0.847 255 255 255
-0.157 -0.146 0.5 0 0 0
0.585 -1.134 1.498 0 0 0
-0.11 0.163 0.938 255 255 255
-0.249 -0.053 0.527 255 255 255
0.077 -0.174 0.4 255 255 255
0.044 -0.103 0.502 255 255 255
0.363 0.17 0.928 255 255 255
-0.208 -0.108 0.513 255 255 255
-0.215 -0.22 0.467 255 255 255
0.357 -0.163 1.069 255 255 255
-0.078 0.08 0.976 255 255 255
-0.025 -0.118 0.513 255 255 255
0.465 -0.435 1.14 255 255 255
0.046 -0.238 0.326 0 0 0
-0.065 -0.228 0.533 255 255 255
0.214 0.119 0.429 255 255 255
0.023 0.306 0.876 255 255 255
0.358 -0.349 1.099 255 255 255
-0.098 0.239 0.906 255 255 255
-0.055 0.004 0.833 255 255 255
0.223 0.046 0.984 255 255 255
-0.309 -0.076 0.52 255 255 255
-0.15 0.173 0.934 255 255 255
-0.026 -0.24 0.529 255 255 255
-0.302 0.3 0.876 255 255 255
-0.123 -0.273 0.389 255 255 255
-0.237 -0.149 0.571 0 0 0
0.344 0.151 0.935 255 255 255
-0.27 -0.145 0.568 255 255 255
0.231 0.115 0.954 255 255 255
0.206 0.134 0.455 255 255 255
0.065 -0.22 0.32 255 255 255
-0.233 -0.222 0.449 255 255 255
-0.113 -0.237 0.499 255 255 255
0.109 0.365 0.85 255 255 255
-0.195 -0.167 0.559 0 0 0
0.418 -0.25 1.121 0 0 0
-0.098 -0.27 0.415 255 255 255
0.406 0.172 0.925 255 255 255
-0.026 -0.241 0.526 255 255 255
-0.03 -0.23 0.54 0 0 0
-0.063 0.429 0.826 255 255 255
0.068 0.359 0.853 255 255 255
-0.029 0.373 0.844 0 0 0
-0.052 -0.292 0.397 0 0 0
-0.356 0.018 0.552 0 0 0
-0.069 0.027 0.825 255 255 255
0.195 0.173 0.93 255 255 255
0.546 -0.662 1.287 255 255 255
-0.083 -0.176 0.498 0 0 0
0.499 -0.623 1.271 255 255 255
0.077 0.226 0.91 255 255 255
0.503 0.082 0.965 255 255 255
-0.018 0.413 0.83 255 255 255
-0.032 -0.001 0.876 255 255 255
0.104 -0.143 0.442 255 255 255
-0.314 -0.193 0.495 255 255 255
-0.284 0.237 0.904 255 255 255
-0.12 -0.267 0.404 255 255 255
-0.002 -0.003 0.866 255 255 255
-0.013 0.22 0.912 255 255 255
0.136 0.165 0.355 0 0 0
-0.12 -0.14 0.477 255 255 255
0.554 -0.079 1.01 255 255 255
0.198 0.26 0.895 255 255 255
0.088 -0.208 0.339 255 255 255
-0.295 0.057 0.803 255 255 255
0.298 -0.291 1.076 255 255 255
-0.045 0.371 0.848 255 255 255
-0.232 -0.05 0.566 255 255 255
0.095 -0.219 0.337 255 255 255
-0.02 0.433 0.824 255 255 255
-0.218 -0.241 0.403 255 255 255
-0.225 -0.234 0.419 255 255 255
0.059 -0.137 0.411 255 255 255
0.096 -0.216 0.338 255 255 255
-0.223 0.213 0.915 255 255 255
0.323 0.132 0.945 255 255 255
0.333 -0.154 1.07 0 0 0
0.113 0.359 0.853 255 255 255
-0.079 -0.089 0.541 255 255 255
-0.439 0.298 0.877 255 255 255
0.201 0.443 0.814 255 255 255
-0.147 0.106 0.936 0 0 0
-0.094 0.326 0.867 255 255 255
0 -0.248 0.553 255 255 255
-0.06 -0.233 0.532 255 255 255
-0.058 -0.276 0.433 255 255 255
0.373 -0.308 1.082 255 255 255
-0.277 -0.042 0.567 255 255 255
0.067 -0.208 0.336 255 255 255
-0.223 -0.231 0.427 255 255 255
0.61 -1.147 1.496 255 255 255
-0.225 0.315 0.872 255 255 255
-0.092 -0.104 0.51 255 255 255
0.089 -0.133 0.464 255 255 255
0.115 0.203 0.918 255 255 255
-0.208 -0.229 0.442 255 255 255
-0.072 0.442 0.822 255 255 255
-0.139 -0.221 0.514 0 0 0
-0.121 -0.081 0.55 255 255 255
-0.129 -0.084 0.541 0 0 0
-0.35 0.203 0.921 255 255 255
0.179 0.14 0.385 255 255 255
0.574 -0.23 0.996 255 255 255
-0.309 -0.155 0.546 255 255 255
-0.146 -0.084 0.527 255 255 255
0.043 0.419 0.828 255 255 255
0.445 -0.35 1.099 255 255 255
0.27 -0.014 1.013 255 255 255
-0.076 0.061 0.976 255 255 255
0.17 0.195 0.529 255 255 255
-0.409 0.062 0.723 255 255 255
-0.2 0.183 0.934 255 255 255
-0.361 0.046 0.58 255 255 255
0.073 -0.005 0.901 255 255 255
-0.032 -0.249 0.529 255 255 255
0.054 -0.227 0.305 0 0 0
0.384 0.056 0.98 255 255 255
0.386 0.046 0.985 255 255 255
-0.187 -0.215 0.507 255 255 255
-0.095 -0.269 0.418 255 255 255
-0.032 -0.255 0.524 255 255 255
0.129 0.4 0.834 0 0 0
0.451 -0.39 1.021 255 255 255
0.447 -0.187 1.079 0 0 0
0.628 -1.016 1.455 255 255 255
0.248 0.241 0.86 255 255 255
0.324 -0.211 1.064 255 255 255
0.028 0.35 0.857 255 255 255
0.309 -0.114 1.054 255 255 255
0.303 -0.196 1.057 255 255 255
0.096 0.323 0.869 255 255 255
0.048 -0.163 0.41 0 0 0
-0.395 0.029 0.567 255 255 255
-0.295 0.005 0.554 0 0 0
-0.227 -0.204 0.515 255 255 255
-0.286 0.005 0.566 255 255 255
0.128 0.055 0.945 255 255 255
-0.365 0.274 0.887 255 255 255
-0.377 0.202 0.92 255 255 255
-0.476 0.099 0.772 255 255 255
0.462 0.03 0.988 255 255 255
-0.444 0.231 0.906 255 255 255
0 -0.109 0.536 255 255 255
0.066 -0.157 0.406 255 255 255
0.195 0.146 0.458 255 255 255
-0.006 -0.124 0.501 255 255 255
0.369 -0.338 1.095 255 255 255
0.509 -0.214 1.07 0 0 0
0.033 0.073 0.981 255 255 255
-0.156 0.022 0.845 255 255 255
-0.274 -0.211 0.449 255 255 255
-0.193 -0.254 0.389 255 255 255
-0.109 -0.247 0.458 255 255 255
0.011 -0.288 0.462 255 255 255
-0.16 -0.206 0.54 255 255 255
-0.19 -0.2 0.542 255 255 255
-0.126 -0.195 0.55 0 0 0
-0.216 0.142 0.929 255 255 255
-0.209 -0.081 0.493 255 255 255
0.414 -0.38 1.114 255 255 255
0.239 -0.067 1.036 255 255 255
-0.427 0.232 0.907 255 255 255
-0.359 0.05 0.59 255 255 255
0.012 -0.112 0.542 255 255 255
0.22 0.254 0.85 255 255 255
-0.018 -0.229 0.577 255 255 255
-0.37 0.05 0.721 255 255 255
-0.455 0.258 0.894 255 255 255
0.195 0.143 0.459 0 0 0
-0.284 0.314 0.873 255 255 255
-0.077 0.27 0.893 255 255 255
0.473 0.065 0.974 255 255 255
0.398 -0.016 1.004 255 255 255
0.555 0 0.829 255 255 255
-0.026 -0.149 0.471 255 255 255
0.482 -0.083 1.03 255 255 255
0.374 -0.288 1.076 255 255 255
0.182 0.353 0.821 255 255 255
-0.021 -0.232 0.576 255 255 255
-0.193 0.225 0.912 255 255 255
0.416 -0.492 1.166 255 255 255
-0.022 -0.282 0.448 255 255 255
0.13 0.338 0.864 255 255 255
-0.384 0.138 0.949 255 255 255
0.075 -0.101 0.493 255 255 255
0.526 -0.302 0.988 255 255 255
-0.036 0.44 0.824 255 255 255
0.231 0.205 0.919 255 255 255
-0.25 0.274 0.887 255 255 255
-0.037 0.255 0.897 255 255 255
-0.384 0.275 0.886 255 255 255
0.398 -0.272 1.083 255 255 255
0.584 -0.015 0.984 255 255 255
-0.188 -0.255 0.391 255 255 255
-0.045 -0.216 0.571 0 0 0
-0.348 0.208 0.92 255 255 255
0.314 -0.196 1.056 255 255 255
0.235 0.101 0.445 255 255 255
0.208 0.173 0.929 255 255 255
-0.01 -0.264 0.519 255 255 255
0.198 0.14 0.429 255 255 255
0.043 0.148 0.944 255 255 255
-0.17 -0.224 0.497 255 255 255
0.03 -0.14 0.442 255 255 255
-0.15 0.382 0.843 0 0 0
-0.369 0.11 0.931 255 255 255
-0.183 -0.269 0.364 0 0 0
-0.157 -0.081 0.529 255 255 255
-0.095 0.152 0.943 255 255 255
-0.174 -0.211 0.538 255 255 255
-0.007 0.37 0.847 255 255 255
-0.11 -0.216 0.537 255 255 255
0.695 -0.924 1.417 255 255 255
-0.04 -0.265 0.494 255 255 255
-0.254 -0.097 0.52 255 255 255
0.046 -0.24 0.327 0 0 0
-0.138 0.342 0.86 255 255 255
-0.328 0.19 0.925 255 255 255
-0.173 -0.279 0.352 255 255 255
-0.049 -0.268 0.459 255 255 255
0.087 0.198 0.921 255 255 255
0.3 0.135 0.943 255 255 255
0.064 -0.087 0.529 255 255 255
0.385 0.139 0.938 255 255 255
-0.232 -0.054 0.497 255 255 255
-0.258 0.179 0.933 255 255 255
0.035 -0.131 0.42 255 255 255
-0.049 -0.275 0.445 255 255 255
-0.227 0.319 0.87 255 255 255
-0.005 -0.245 0.531 255 255 255
-0.095 -0.157 0.478 255 255 255
-0.171 -0.255 0.403 255 255 255
-0.341 -0.074 0.463 255 255 255
-0.084 0.407 0.832 255 255 255
-0.014 0.128 0.953 255 255 255
0.172 0.199 0.919 255 255 255
0.616 0.116 0.949 255 255 255
0.392 -0.146 1.062 0 0 0
-0.111 0.1 0.952 0 0 0
-0.324 -0.084 0.479 255 255 255
0.045 -0.173 0.414 255 255 255
0.176 0.162 0.935 255 255 255
-0.179 -0.268 0.37 0 0 0
0.063 -0.136 0.414 255 255 255
-0.228 0.271 0.888 255 255 255
0.004 -0.294 0.445 255 255 255
-0.188 -0.126 0.512 255 255 255
-0.013 0.433 0.824 255 255 255
0.454 -0.372 1.032 255 255 255
0.096 -0.22 0.322 255 255 255
0.427 -0.014 1.001 0 0 0
0.023 0.037 0.963 255 255 255
0.032 0.002 0.819 255 255 255
-0.271 0.26 0.896 255 255 255
0.154 0.052 0.985 255 255 255
-0.229 0.041 0.83 255 255 255
-0.333 -0.049 0.459 255 255 255
0.277 0.031 0.993 255 255 255
-0.257 0.166 0.939 255 255 255
0.084 -0.221 0.298 0 0 0
0.178 0 1.007 255 255 255
0.433 -0.658 1.284 255 255 255
0.345 0.019 0.995 255 255 255
0.089 -0.141 0.419 255 255 255
0.201 0.145 0.445 255 255 255
-0.269 0.103 0.96 255 255 255
0.485 0.047 0.981 0 0 0
0.514 -0.056 1.013 255 255 255
0.47 -0.337 0.984 0 0 0
-0.039 -0.271 0.464 255 255 255
0.389 -0.212 1.082 255 255 255
0.033 0.175 0.932 255 255 255
-0.162 -0.151 0.508 0 0 0
-0.312 0.421 0.825 255 255 255
0.2 0.153 0.462 255 255 255
-0.506 0.151 0.942 255 255 255
0.347 -0.199 1.057 255 255 255
-0.231 -0.199 0.532 255 255 255
0.248 0.139 0.942 255 255 255
-0.254 -0.21 0.475 255 255 255
0.374 -0.247 1.083 0 0 0
-0.037 0.231 0.907 255 255 255
0.492 -0.595 1.261 255 255 255
-0.243 -0.175 0.548 255 255 255
-0.153 0.39 0.838 0 0 0
-0.329 0.089 0.811 0 0 0
0.147 0.288 0.885 255 255 255
-0.093 0.323 0.869 255 255 255
0.094 0.407 0.831 255 255 255
0.549 0.164 0.929 255 255 255
0.185 0.16 0.462 255 255 255
0.275 -0.1 1.049 255 255 255
0.21 0.43 0.817 255 255 255
0.077 -0.196 0.35 255 255 255
-0.037 -0.229 0.537 255 255 255
0.094 -0.149 0.404 0 0 0
0.352 0.136 0.942 0 0 0
-0.275 0.36 0.852 255 255 255
0.015 -0.291 0.471 255 255 255
0.5 -0.045 1.011 255 255 255
0.264 -0.237 1.079 255 255 255
0.385 0.011 1 255 255 255
0.079 -0.181 0.393 0 0 0
-0.116 -0.26 0.425 255 255 255
0.263 0.213 0.89 255 255 255
-0.209 0.366 0.849 255 255 255
0.194 0.144 0.519 255 255 255
-0.131 -0.19 0.545 0 0 0
-0.14 -0.136 0.484 255 255 255
0.014 0.326 0.867 255 255 255
0.047 -0.12 0.469 255 255 255
-0.438 0.266 0.891 255 255 255
-0.211 -0.066 0.494 255 255 255
-0.241 -0.081 0.508 255 255 255
-0.043 0.055 0.987 255 255 255
-0.073 -0.276 0.421 255 255 255
0.018 -0.13 0.465 255 255 255
0.107 0.019 0.827 0 0 0
0.092 -0.175 0.402 255 255 255
-0.09 -0.238 0.504 255 255 255
0.079 -0.136 0.433 0 0 0
0.596 -1.177 1.5 255 255 255
-0.167 -0.233 0.461 0 0 0
0.23 0.002 1.007 255 255 255
0.498 -0.161 1.062 255 255 255
0.214 0.115 0.472 0 0 0
-0.009 -0.279 0.462 0 0 0
-0.137 0.315 0.872 255 255 255
-0.002 0.193 0.926 255 255 255
0.074 -0.186 0.368 255 255 255
-0.219 -0.155 0.565 0 0 0
0.566 -0.154 1.006 255 255 255
-0.279 -0.185 0.525 255 255 255
-0.056 0.443 0.822 255 255 255
0.621 0.027 0.9 255 255 255
0.095 -0.163 0.408 255 255 255
-0.31 -0.065 0.506 255 255 255
0.042 -0.084 0.538 255 255 255
-0.074 -0.251 0.492 255 255 255
-0.065 -0.047 0.663 255 255 255
-0.096 -0.101 0.517 255 255 255
-0.256 -0.216 0.45 255 255 255
-0.252 0.391 0.838 0 0 0
0.102 -0.145 0.418 255 255 255
0.094 0.41 0.829 255 255 255
0.385 0.208 0.911 255 255 255
0.192 0.023 0.998 255 255 255
-0.199 -0.068 0.536 255 255 255
0.17 -0.012 1.011 255 255 255
0.084 0.269 0.892 255 255 255
0.383 -0.229 1.083 255 255 255
-0.254 0.083 0.941 255 255 255
0.387 -0.038 1.016 255 255 255
-0.04 0.342 0.86 255 255 255
0.54 0.103 0.958 0 0 0
0.023 0.274 0.89 255 255 255
0.257 -0.193 1.064 255 255 255
-0.102 0.101 0.962 255 255 255
-0.249 -0.144 0.577 0 0 0
-0.021 -0.293 0.423 255 255 255
-0.408 0.177 0.933 255 255 255
-0.049 0.03 0.869 0 0 0
0.026 -0.132 0.464 255 255 255
-0.072 0.428 0.825 255 255 255
0.563 -0.083 1.002 255 255 255
-0.19 -0.252 0.396 255 255 255
-0.394 0.31 0.872 255 255 255
0.597 0.138 0.942 255 255 255
0.073 0.409 0.832 255 255 255
0.266 0.192 0.925 0 0 0
0.514 -0.178 1.051 0 0 0
-0.258 0.385 0.841 0 0 0
0.536 -0.004 1.002 255 255 255
-0.019 -0.181 0.49 0 0 0
-0.315 0.117 0.959 0 0 0
-0.052 0.112 0.963 255 255 255
0.391 0.044 0.985 255 255 255
0.109 0.117 0.957 255 255 255
-0.266 -0.051 0.5 255 255 255
-0.369 -0.162 0.533 255 255 255
-0.214 -0.186 0.546 255 255 255
0.329 -0.11 1.053 255 255 255
-0.071 -0.112 0.493 255 255 255
-0.133 0.402 0.835 0 0 0
-0.167 -0.282 0.354 255 255 255
-0.16 -0.073 0.551 255 255 255
0.112 0.182 0.344 255 255 255
-0.3 0.3 0.876 255 255 255
0.013 0.112 0.962 255 255 255
0.071 0.409 0.832 255 255 255
-0.376 0.198 0.922 255 255 255
-0.156 -0.081 0.489 255 255 255
-0.041 -0.224 0.552 255 255 255
0.089 -0.168 0.403 0 0 0
0.443 -0.382 1.115 255 255 255
-0.066 -0.066 0.622 255 255 255
-0.378 0.012 0.549 255 255 255
-0.306 0.113 0.956 0 0 0
0.356 0.159 0.932 255 255 255
0.144 0.161 0.368 255 255 255
-0.056 -0.259 0.492 255 255 255
-0.02 -0.115 0.52 255 255 255
0.292 -0.242 1.079 255 255 255
-0.281 0.101 0.958 255 255 255
-0.058 -0.275 0.433 255 255 255
-0.04 -0.126 0.454 255 255 255
-0.199 0.134 0.942 255 255 255
-0.042 -0.027 0.717 255 255 255
-0.184 0.335 0.862 255 255 255
-0.276 -0.142 0.57 255 255 255
0.07 0.366 0.85 255 255 255
0.303 0.003 1.002 255 255 255
-0.229 -0.092 0.511 255 255 255
0.433 -0.209 1.093 255 255 255
-0.174 -0.249 0.417 255 255 255
0.54 0.05 0.939 0 0 0
0.038 -0.208 0.429 255 255 255
0.025 -0.156 0.467 255 255 255
-0.308 -0.088 0.526 255 255 255
0.381 -0.334 1.094 255 255 255
-0.18 -0.211 0.535 0 0 0
0.171 0.194 0.522 255 255 255
-0.047 0.185 0.928 255 255 255
-0.083 0.099 0.968 255 255 255
-0.182 0.368 0.849 255 255 255
0.483 -0.104 1.04 255 255 255
-0.137 -0.161 0.497 0 0 0
-0.028 -0.226 0.577 255 255 255
0.151 0.328 0.869 255 255 255
-0.164 -0.245 0.429 255 255 255
-0.265 0.322 0.867 255 255 255
0.013 -0.237 0.478 0 0 0
-0.133 0.047 0.899 255 255 255
-0.243 -0.033 0.588 255 255 255
-0.192 -0.066 0.498 255 255 255
-0.177 0.049 0.828 255 255 255
-0.201 -0.146 0.539 0 0 0
-0.215 -0.235 0.421 255 255 255
-0.15 -0.083 0.488 255 255 255
-0.086 -0.285 0.394 0 0 0
0.186 0.165 0.512 255 255 255
-0.044 0.159 0.941 255 255 255
0.393 -0.136 1.054 255 255 255
0.622 0.023 0.894 255 255 255
0.141 0.17 0.336 255 255 255
-0.134 -0.174 0.517 0 0 0
-0.296 0.296 0.878 255 255 255
-0.013 -0.167 0.479 255 255 255
0.018 0.218 0.913 255 255 255
0.126 0.349 0.857 255 255 255
-0.323 -0.019 0.536 255 255 255
0.223 0.422 0.82 255 255 255
-0.01 -0.275 0.491 255 255 255
0.419 -0.166 1.074 255 255 255
-0.439 0.161 0.939 255 255 255
-0.097 -0.231 0.516 0 0 0
0.156 0.155 0.381 255 255 255
-0.238 -0.21 0.482 255 255 255
-0.099 -0.105 0.502 255 255 255
-0.365 -0.019 0.498 0 0 0
0.101 0.005 0.802 255 255 255
-0.357 0.291 0.879 255 255 255
-0.29 0.387 0.84 0 0 0
0.049 0.117 0.957 255 255 255
0.205 0.422 0.822 255 255 255
0.571 -0.067 0.998 255 255 255
-0.043 -0.277 0.447 255 255 255
0.164 0.205 0.471 255 255 255
-0.349 -0.052 0.46 0 0 0
-0.231 -0.038 0.585 255 255 255
-0.348 0.304 0.873 255 255 255
-0.134 0.354 0.855 255 255 255
-0.216 -0.086 0.503 255 255 255
0.206 0.266 0.842 255 255 255
0.077 0.243 0.902 255 255 255
0.219 0.206 0.918 255 255 255
-0.491 0.103 0.771 255 255 255
-0.508 0.172 0.933 255 255 255
-0.138 -0.193 0.55 0 0 0
-0.354 0.366 0.847 255 255 255
0.321 0.063 0.976 255 255 255
0.16 0.292 0.884 255 255 255
0.096 -0.218 0.334 255 255 255
-0.17 -0.225 0.495 255 255 255
-0.112 -0.1 0.51 255 255 255
0.054 -0.147 0.404 255 255 255
-0.216 0.017 0.739 255 255 255
0.17 0.204 0.572 255 255 255
-0.027 -0.232 0.536 255 255 255
-0.313 0.376 0.843 0 0 0
0.283 0.015 1 255 255 255
-0.174 -0.119 0.503 255 255 255
-0.318 0.192 0.926 255 255 255
-0.205 0.024 0.761 255 255 255
-0.248 0.376 0.846 0 0 0
0.063 -0.11 0.497 255 255 255
-0.085 -0.279 0.401 255 255 255
-0.035 -0.159 0.478 255 255 255
-0.044 0.004 0.851 255 255 255
0.538 -0.109 1.031 0 0 0
-0.088 -0.054 0.642 255 255 255
0.099 -0.204 0.355 255 255 255
-0.063 0.021 0.805 255 255 255
-0.179 -0.181 0.551 255 255 255
-0.031 -0.283 0.439 255 255 255
-0.351 0.162 0.941 255 255 255
0.044 -0.147 0.405 255 255 255
0.504 -0.004 1 255 255 255
0.051 -0.209 0.349 255 255 255
-0.128 -0.083 0.546 255 255 255
0.064 -0.088 0.525 255 255 255
0.081 -0.126 0.479 255 255 255
0.44 0.114 0.951 255 255 255
-0.332 0.092 0.878 255 255 255
-0.032 0.413 0.833 255 255 255
-0.101 -0.266 0.422 255 255 255
-0.161 0.306 0.876 255 255 255
-0.053 0.157 0.941 255 255 255
0.031 -0.073 0.657 255 255 255
-0.189 -0.124 0.511 255 255 255
0.206 0.124 0.403 255 255 255
0.038 -0.31 0.451 255 255 255
-0.054 0.222 0.911 255 255 255
0.241 -0.073 1.038 255 255 255
0.244 0.388 0.831 255 255 255
-0.094 -0.277 0.4 255 255 255
0.028 -0.305 0.455 255 255 255
-0.101 0.387 0.841 0 0 0
-0.39 0.142 0.948 255 255 255
-0.358 0.397 0.836 0 0 0
-0.263 0.331 0.864 255 255 255
-0.254 0.315 0.871 255 255 255
0.036 0.328 0.866 255 255 255
-0.154 -0.144 0.497 0 0 0
0.369 -0.097 1.047 255 255 255
0.433 0.186 0.918 255 255 255
-0.21 0.206 0.92 255 255 255
-0.393 0.029 0.569 255 255 255
0.057 -0.178 0.398 255 255 255
-0.167 -0.079 0.531 255 255 255
0.136 0.004 0.885 255 255 255
-0.022 -0.294 0.422 255 255 255
-0.244 -0.097 0.518 255 255 255
-0.295 0.193 0.925 255 255 255
-0.27 0.395 0.838 0 0 0
-0.264 0.46 0.814 255 255 255
0.168 0.147 0.37 255 255 255
0.011 -0.267 0.506 0 0 0
-0.248 -0.078 0.508 255 255 255
0.384 -0.153 1.066 255 255 255
0.043 -0.11 0.487 255 255 255
0.133 0.167 0.362 0 0 0
0.059 0.417 0.829 255 255 255
0.117 0.183 0.325 255 255 255
0.62 -0.05 0.938 255 255 255
-0.111 0.424 0.826 255 255 255
-0.065 -0.257 0.488 255 255 255
-0.06 -0.272 0.438 255 255 255
0.077 -0.202 0.344 255 255 255
-0.368 0.181 0.931 255 255 255
0.078 -0.119 0.475 255 255 255
0.218 -0.049 1.029 255 255 255
0.278 0.2 0.904 255 255 255
0.08 -0.215 0.325 255 255 255
-0.332 0.252 0.898 255 255 255
-0.122 -0.279 0.385 0 0 0
-0.225 -0.206 0.505 255 255 255
0.428 -0.025 1.003 255 255 255
-0.258 0.422 0.826 255 255 255
0.166 0.362 0.821 255 255 255
0.238 0.148 0.939 0 0 0
-0.155 0.311 0.874 255 255 255
-0.009 0.282 0.886 255 255 255
0.15 0.418 0.827 255 255 255
-0.14 -0.25 0.43 255 255 255
0.274 -0.163 1.065 0 0 0
-0.075 -0.111 0.498 255 255 255
0.139 0.167 0.343 0 0 0
0.001 0.002 0.822 255 255 255
-0.187 -0.071 0.511 255 255 255
0.043 -0.092 0.523 255 255 255
-0.345 -0.045 0.494 0 0 0
-0.208 -0.226 0.449 255 255 255
-0.321 -0.011 0.512 0 0 0
-0.191 -0.07 0.537 255 255 255
-0.185 -0.265 0.369 0 0 0
0.455 0.04 0.984 255 255 255
-0.09 0.035 0.864 255 255 255
0.136 0.15 0.941 255 255 255
0.511 -0.649 1.282 255 255 255
-0.325 -0.059 0.502 255 255 255
-0.205 0.153 0.924 0 0 0
0.029 -0.235 0.448 255 255 255
0.058 -0.231 0.349 255 255 255
-0.273 -0.207 0.473 255 255 255
0.072 0.135 0.949 255 255 255
0.038 0.146 0.945 255 255 255
-0.191 -0.125 0.513 255 255 255
0.026 -0.149 0.441 255 255 255
-0.1 -0.26 0.437 255 255 255
0.704 -1.083 1.431 0 0 0
-0.02 0.265 0.893 255 255 255
0.463 0.079 0.968 255 255 255
-0.104 -0.208 0.547 255 255 255
0.071 -0.155 0.405 255 255 255
-0.122 -0.271 0.393 255 255 255
0.048 -0.08 0.548 255 255 255
-0.295 0.354 0.854 255 255 255
-0.123 0.022 0.827 255 255 255
0.115 0.112 0.96 255 255 255
0.031 0.255 0.899 255 255 255
0.358 0.075 0.968 255 255 255
0.091 0.019 0.834 255 255 255
0.179 0.374 0.826 0 0 0
-0.138 -0.231 0.499 255 255 255
0.036 -0.285 0.501 255 255 255
-0.287 0.1 0.956 0 0 0
-0.229 0.303 0.876 255 255 255
-0.193 -0.225 0.469 255 255 255
-0.313 -0.18 0.519 255 255 255
0.04 -0.17 0.413 255 255 255
0.053 0.394 0.84 0 0 0
-0.4 0.334 0.86 255 255 255
-0.19 -0.241 0.428 255 255 255
-0.173 0.294 0.882 255 255 255
-0.347 -0.107 0.56 0 0 0
-0.322 -0.088 0.528 255 255 255
-0.28 -0.146 0.564 255 255 255
-0.388 -0.134 0.535 255 255 255
0.051 -0.226 0.34 255 255 255
-0.342 -0.146 0.551 255 255 255
-0.078 0.22 0.911 255 255 255
-0.26 -0.094 0.52 255 255 255
-0.329 0.144 0.948 255 255 255
-0.05 -0.281 0.428 255 255 255
-0.374 -0.123 0.52 0 0 0
0.506 0.142 0.938 255 255 255
-0.017 0.267 0.893 255 255 255
0.103 0.061 0.943 0 0 0
-0.285 -0.197 0.503 255 255 255
-0.045 0.426 0.826 255 255 255
0.054 -0.152 0.405 255 255 255
0.393 0.025 0.992 255 255 255
-0.368 0.014 0.554 255 255 255
0.016 0.002 0.814 255 255 255
0.172 0.129 0.95 255 255 255
0.182 0.028 0.995 255 255 255
-0.505 0.17 0.933 255 255 255
0.098 -0.115 0.49 255 255 255
-0.26 -0.036 0.584 255 255 255
-0.414 0.168 0.937 255 255 255
-0.053 -0.161 0.48 255 255 255
0.105 -0.124 0.498 255 255 255
-0.223 -0.07 0.492 255 255 255
0.009 -0.28 0.499 255 255 255
-0.351 -0.068 0.466 0 0 0
-0.27 0.223 0.913 255 255 255
-0.347 0.319 0.867 255 255 255
0.069 -0.225 0.31 0 0 0
0.367 0.087 0.962 255 255 255
-0.049 0.166 0.936 255 255 255
-0.092 0.441 0.823 255 255 255
0.006 -0.281 0.495 255 255 255
-0.082 0.305 0.877 255 255 255
-0.21 -0.21 0.508 255 255 255
0.161 0.375 0.838 0 0 0
-0.028 -0.232 0.556 255 255 255
0.072 0.13 0.952 255 255 255
-0.138 -0.25 0.434 255 255 255
0.2 0.14 0.46 0 0 0
0.067 -0.095 0.515 255 255 255
-0.334 -0.081 0.463 255 255 255
-0.429 0.134 0.951 255 255 255
-0.305 0.072 0.818 255 255 255
0.111 0.401 0.834 0 0 0
-0.213 0.21 0.918 255 255 255
-0.176 -0.216 0.505 255 255 255
0.082 -0.203 0.341 255 255 255
-0.403 0.293 0.881 255 255 255
-0.214 0.041 0.807 255 255 255
0 0.023 0.893 0 0 0
-0.259 -0.191 0.531 255 255 255
-0.253 -0.207 0.483 255 255 255
0.153 0.202 0.919 255 255 255
-0.309 -0.127 0.588 0 0 0
-0.275 0.452 0.814 255 255 255
0.225 -0.035 1.022 255 255 255
0.451 -0.469 1.051 255 255 255
-0.151 -0.275 0.377 0 0 0
-0.035 -0.288 0.424 255 255 255
0.166 0.146 0.374 255 255 255
-0.105 -0.266 0.423 255 255 255
0.432 -0.31 0.941 255 255 255
0.156 0.446 0.815 255 255 255
-0.174 -0.26 0.388 255 255 255
0.376 0.05 0.983 255 255 255
-0.311 -0.184 0.517 255 255 255
-0.463 0.266 0.891 255 255 255
-0.114 -0.125 0.466 255 255 255
-0.321 -0.185 0.504 255 255 255
0.559 -1.015 1.436 255 255 255
-0.277 -0.161 0.549 255 255 255
-0.354 -0.043 0.472 255 255 255
-0.191 -0.254 0.391 255 255 255
0.254 0.384 0.826 255 255 255
0.227 0.129 0.945 255 255 255
-0.12 -0.235 0.5 255 255 255
-0.081 -0.092 0.54 255 255 255
-0.21 -0.225 0.448 255 255 255
-0.224 0.407 0.832 255 255 255
0.317 -0.287 1.078 255 255 255
-0.017 -0.12 0.511 255 255 255
0.233 0.033 0.992 255 255 255
-0.002 0.35 0.856 255 255 255
0.505 -0.032 1.005 255 255 255
-0.035 -0.232 0.534 255 255 255
0.039 -0.223 0.367 255 255 255
0.45 -0.48 1.052 255 255 255
-0.202 0.232 0.907 255 255 255
0.401 0.092 0.963 255 255 255
-0.344 0.254 0.896 255 255 255
0.15 0.227 0.908 255 255 255
-0.26 -0.215 0.454 255 255 255
-0.367 0.22 0.912 255 255 255
0.459 -0.234 1.102 255 255 255
0.08 -0.223 0.307 0 0 0
-0.328 0.439 0.819 255 255 255
-0.129 -0.251 0.436 255 255 255
-0.208 0.373 0.847 0 0 0
-0.002 0.203 0.92 0 0 0
-0.114 0.122 0.961 255 255 255
0.299 0.076 0.972 255 255 255
0.588 0.143 0.936 255 255 255
-0.294 0.303 0.876 255 255 255
0.395 -0.053 1.018 255 255 255
-0.387 -0.141 0.532 255 255 255
0.126 0.282 0.887 255 255 255
0.279 0.236 0.868 255 255 255
-0.087 -0.102 0.517 255 255 255
0.187 0.419 0.824 255 255 255
0.051 0.117 0.958 255 255 255
0.334 -0.108 1.053 255 255 255
-0.004 0.387 0.84 0 0 0
-0.057 0.021 0.809 255 255 255
-0.471 0.106 0.814 255 255 255
-0.163 -0.229 0.473 255 255 255
-0.307 0.217 0.914 255 255 255
-0.228 0.104 0.941 0 0 0
0.066 -0.219 0.291 255 255 255
-0.168 -0.28 0.356 255 255 255
0.272 0.143 0.939 255 255 255
0.169 0.426 0.823 255 255 255
-0.074 -0.206 0.553 0 0 0
-0.408 0.296 0.876 255 255 255
-0.048 0.391 0.839 0 0 0
0.091 -0.115 0.5 255 255 255
-0.132 -0.278 0.382 0 0 0
-0.326 -0.189 0.499 255 255 255
-0.242 0.099 0.951 255 255 255
-0.017 0.033 0.912 0 0 0
0.209 0.137 0.946 0 0 0
0.169 0.22 0.494 0 0 0
-0.14 0.285 0.887 255 255 255
0.101 -0.142 0.423 255 255 255
0.207 0.129 0.43 255 255 255
-0.011 -0.098 0.552 255 255 255
-0.332 0.426 0.822 255 255 255
-0.044 -0.287 0.42 255 255 255
-0.477 0.118 0.847 0 0 0
0.095 -0.216 0.339 255 255 255
-0.444 0.267 0.89 255 255 255
-0.167 -0.079 0.511 255 255 255
0.605 0.077 0.943 255 255 255
0.301 0.137 0.942 255 255 255
0.178 0.171 0.54 255 255 255
-0.089 -0.278 0.402 255 255 255
-0.146 0.03 0.808 255 255 255
-0.009 -0.212 0.552 0 0 0
-0.271 -0.063 0.503 255 255 255
0.31 0.193 0.911 255 255 255
-0.321 -0.012 0.541 0 0 0
0.01 -0.305 0.424 255 255 255
0.042 -0.137 0.407 255 255 255
0.008 -0.181 0.487 0 0 0
-0.012 -0.015 0.761 255 255 255
-0.149 -0.076 0.55 255 255 255
-0.258 -0.211 0.468 255 255 255
-0.106 -0.241 0.49 0 0 0
-0.004 -0.295 0.436 255 255 255
-0.243 -0.059 0.498 255 255 255
-0.157 -0.228 0.496 255 255 255
-0.022 0.234 0.907 255 255 255
0.154 0.387 0.839 0 0 0
0.071 -0.203 0.34 255 255 255
-0.138 0.422 0.827 255 255 255
0.598 -0.173 0.984 255 255 255
-0.068 -0.107 0.456 255 255 255
0.162 0.359 0.83 255 255 255
0.598 -0.136 0.989 255 255 255
-0.414 0.161 0.94 255 255 255
0.552 0.031 0.909 255 255 255
0.302 -0.238 1.076 255 255 255
-0.216 -0.207 0.515 255 255 255
0.279 0.164 0.933 0 0 0
0.029 -0.17 0.415 255 255 255
0.452 -0.363 1.018 255 255 255
-0.394 0.08 0.782 255 255 255
0.183 0.164 0.462 255 255 255
-0.074 -0.246 0.504 255 255 255
-0.183 -0.054 0.574 255 255 255
-0.185 -0.133 0.512 0 0 0
0.411 -0.458 1.15 255 255 255
-0.22 -0.048 0.581 255 255 255
-0.16 0.328 0.866 255 255 255
-0.062 -0.255 0.494 255 255 255
0.074 -0.182 0.385 0 0 0
0.178 0.075 0.974 255 255 255
-0.36 0.307 0.872 255 255 255
0.014 -0.112 0.542 255 255 255
-0.366 -0.138 0.552 255 255 255
0.204 0.124 0.467 255 255 255
0.257 0.21 0.893 255 255 255
-0.26 -0.196 0.52 255 255 255
-0.293 -0.19 0.515 255 255 255
-0.093 -0.101 0.456 255 255 255
-0.457 0.227 0.909 255 255 255
0.394 0.201 0.913 0 0 0
0.249 0.132 0.946 255 255 255
-0.008 -0.106 0.534 255 255 255
0.571 0.169 0.931 255 255 255
-0.352 0.108 0.961 0 0 0
-0.273 0.37 0.847 0 0 0
0.222 -0.03 1.021 255 255 255
0.083 -0.181 0.395 255 255 255
0.499 -0.528 1.216 255 255 255
-0.012 -0.108 0.529 255 255 255
-0.226 0.338 0.862 255 255 255
0.014 -0.298 0.447 255 255 255
0.098 0.443 0.819 255 255 255
-0.006 0.431 0.824 255 255 255
-0.346 -0.134 0.568 255 255 255
0.028 -0.129 0.467 255 255 255
0.187 0.404 0.831 255 255 255
0.204 0.092 0.963 255 255 255
-0.113 -0.253 0.446 255 255 255
-0.231 -0.222 0.45 255 255 255
0.082 -0.171 0.403 255 255 255
-0.27 -0.007 0.551 255 255 255
0.415 0.144 0.935 255 255 255
-0.333 0.025 0.563 0 0 0
0.184 0.086 0.97 255 255 255
-0.106 -0.267 0.416 255 255 255
-0.132 -0.222 0.518 0 0 0
0.406 -0.519 1.178 255 255 255
0.494 -0.369 1.025 255 255 255
0.031 0.091 0.971 255 255 255
-0.213 -0.224 0.458 255 255 255
0.199 0.272 0.834 255 255 255
0.003 -0.292 0.446 255 255 255
-0.532 0.158 0.938 255 255 255
0.077 -0.118 0.476 255 255 255
-0.139 0.019 0.852 255 255 255
-0.045 0.226 0.911 255 255 255
-0.06 -0.206 0.553 0 0 0
0.208 0.218 0.913 255 255 255
-0.252 -0.215 0.46 255 255 255
-0.434 0.146 0.945 255 255 255
-0.124 0.256 0.898 255 255 255
0.194 0.325 0.748 255 255 255
-0.309 -0.184 0.517 255 255 255
-0.188 0.061 0.852 255 255 255
0.057 -0.133 0.424 255 255 255
0.122 0.182 0.325 255 255 255
0.014 0.29 0.885 255 255 255
-0.072 -0.133 0.463 255 255 255
0.004 -0.256 0.52 255 255 255
-0.313 0.444 0.819 255 255 255
0.421 0.104 0.956 255 255 255
-0.233 -0.23 0.423 255 255 255
-0.168 -0.078 0.529 255 255 255
-0.144 -0.278 0.373 0 0 0
0.36 0.021 0.995 255 255 255
-0.25 -0.18 0.543 255 255 255
0.553 -0.06 0.998 255 255 255
0.069 0.273 0.891 255 255 255
-0.201 0.229 0.91 255 255 255
-0.116 -0.22 0.535 255 255 255
-0.213 -0.048 0.578 255 255 255
-0.016 -0.284 0.45 255 255 255
0.477 -0.474 1.194 255 255 255
0.148 0.158 0.373 255 255 255
-0.168 -0.204 0.541 255 255 255
0.184 0.14 0.945 255 255 255
-0.173 0.154 0.945 255 255 255
-0.229 0.207 0.919 255 255 255
-0.285 -0.192 0.509 255 255 255
-0.362 -0.005 0.531 0 0 0
-0.327 -0.019 0.505 0 0 0
0.435 -0.257 0.97 255 255 255
-0.081 -0.277 0.407 255 255 255
0.082 -0.223 0.312 255 255 255
-0.221 0.139 0.935 255 255 255
0.302 -0.098 1.049 255 255 255
-0.208 0.033 0.848 255 255 255
0.093 -0.184 0.395 255 255 255
-0.346 -0.137 0.564 255 255 255
0.484 -0.187 1.057 255 255 255
0.612 -0.146 0.979 255 255 255
-0.2 -0.191 0.546 255 255 255
-0.108 0.277 0.89 255 255 255
0.024 -0.284 0.502 255 255 255
0.1 -0.19 0.376 255 255 255
-0.279 -0.205 0.469 255 255 255
-0.362 -0.117 0.552 0 0 0
-0.02 -0.293 0.426 255 255 255
0.287 -0.151 1.072 255 255 255
-0.021 -0.229 0.578 255 255 255
0.494 -0.545 1.237 255 255 255
-0.036 0.321 0.869 255 255 255
0.549 0.031 0.933 255 255 255
-0.081 -0.249 0.485 255 255 255
-0.289 -0.095 0.527 255 255 255
-0.387 -0.135 0.535 255 255 255
-0.175 -0.226 0.487 255 255 255
-0.374 0.038 0.577 255 255 255
-0.121 -0.264 0.41 255 255 255
0.49 0.172 0.923 255 255 255
-0.363 0.271 0.887 255 255 255
0.119 0.354 0.855 255 255 255
-0.199 -0.05 0.576 255 255 255
-0.282 0.403 0.835 255 255 255
0.108 -0.107 0.535 255 255 255
0.282 0.185 0.926 255 255 255
-0.026 0.304 0.876 255 255 255
0.36 -0.211 1.066 255 255 255
-0.16 -0.187 0.549 255 255 255
-0.145 0.16 0.94 255 255 255
-0.024 -0.235 0.556 255 255 255
-0.207 -0.228 0.447 255 255 255
-0.074 0.312 0.873 255 255 255
-0.244 0.316 0.87 255 255 255
0.282 0.233 0.872 255 255 255
0.003 0.308 0.875 255 255 255
0.404 0.192 0.914 0 0 0
0.12 0.373 0.847 255 255 255
-0.308 0.075 0.836 255 255 255
-0.281 0.451 0.815 255 255 255
-0.084 -0.261 0.446 255 255 255
-0.163 -0.19 0.544 255 255 255
-0.268 -0.021 0.544 255 255 255
-0.062 -0.262 0.481 0 0 0
-0.188 0.239 0.904 255 255 255
0.425 -0.288 0.94 255 255 255
-0.151 -0.13 0.489 255 255 255
-0.009 0.369 0.848 255 255 255
0.18 0.166 0.462 0 0 0
-0.091 -0.282 0.396 255 255 255
-0.228 -0.143 0.558 0 0 0
0.124 0.169 0.338 255 255 255
0.122 0.289 0.883 255 255 255
-0.166 -0.119 0.497 255 255 255
0.55 -0.19 1.026 255 255 255
0.423 -0.07 1.024 255 255 255
0.007 -0.232 0.572 255 255 255
0.006 -0.16 0.476 255 255 255
-0.072 -0.275 0.421 255 255 255
0.35 -0.334 1.092 255 255 255
0.125 0.39 0.839 0 0 0
0.538 -0.126 1.025 255 255 255
0.016 -0.282 0.501 255 255 255
-0.073 -0.284 0.401 255 255 255
-0.172 -0.117 0.501 255 255 255
0.111 0.373 0.845 0 0 0
-0.427 0.241 0.901 255 255 255
0.081 -0.22 0.315 255 255 255
0.177 0.18 0.506 0 0 0
-0.207 -0.121 0.519 255 255 255
0.211 0.386 0.837 0 0 0
0.248 0.231 0.871 255 255 255
-0.378 0.15 0.945 255 255 255
-0.107 0.233 0.907 255 255 255
0.371 -0.388 1.117 255 255 255
0.052 -0.097 0.514 255 255 255
-0.048 -0.221 0.544 255 255 255
-0.154 -0.219 0.513 255 255 255
0.449 -0.205 1.089 0 0 0
-0.237 0.077 0.916 255 255 255
-0.048 -0.087 0.562 255 255 255
-0.071 0.123 0.957 255 255 255
-0.053 -0.24 0.532 255 255 255
0.598 0.051 0.929 255 255 255
0.276 0.175 0.929 255 255 255
-0.06 0.304 0.875 255 255 255
-0.247 -0.209 0.481 255 255 255
-0.056 -0.088 0.557 255 255 255
-0.374 -0.14 0.534 255 255 255
0.123 0.244 0.901 255 255 255
0.506 -0.072 1.021 255 255 255
-0.095 -0.08 0.542 255 255 255
0.557 0.152 0.935 255 255 255
0.298 -0.035 1.022 255 255 255
-0.005 -0.109 0.528 255 255 255
0.022 -0.285 0.501 255 255 255
0.069 0.01 0.919 255 255 255
0.024 -0.298 0.461 255 255 255
0.606 0.097 0.93 255 255 255
-0.269 -0.202 0.494 255 255 255
-0.197 -0.113 0.511 255 255 255
0.102 0.264 0.892 255 255 255
0.184 0.14 0.376 255 255 255
-0.309 -0.154 0.547 255 255 255
-0.082 0.405 0.832 0 0 0
0.031 -0.158 0.409 255 255 255
0.267 0.112 0.954 255 255 255
-0.088 -0.279 0.4 255 255 255
0.513 -0.576 1.239 255 255 255
-0.053 -0.006 0.776 255 255 255
-0.149 -0.272 0.382 255 255 255
0.448 0.059 0.977 255 255 255
0.063 -0.209 0.337 255 255 255
-0.038 -0.269 0.481 255 255 255
0.146 0.293 0.882 255 255 255
-0.174 0.224 0.91 255 255 255
0.363 -0.263 1.082 255 255 255
-0.15 0.273 0.893 255 255 255
-0.426 0.091 0.781 255 255 255
-0.064 -0.225 0.538 255 255 255
-0.034 0.4 0.836 0 0 0
-0.017 -0.269 0.505 255 255 255
0.131 0.168 0.364 0 0 0
-0.392 0.255 0.894 255 255 255
0.111 0.179 0.35 255 255 255
0.233 -0.033 1.022 255 255 255
0.406 -0.129 1.05 255 255 255
-0.082 -0.168 0.486 0 0 0
-0.113 -0.206 0.545 255 255 255
-0.096 -0.244 0.486 255 255 255
-0.232 0.275 0.887 255 255 255
-0.227 -0.079 0.5 255 255 255
-0.116 0.093 0.945 0 0 0
-0.133 0.449 0.818 255 255 255
0.034 0.031 0.913 0 0 0
-0.221 -0.124 0.525 0 0 0
0.092 -0.115 0.491 255 255 255
-0.059 -0.284 0.409 255 255 255
-0.187 0.166 0.939 255 255 255
-0.004 0.18 0.929 255 255 255
-0.357 0.106 0.957 0 0 0
0.675 -1.064 1.37 255 255 255
0.583 0.004 0.83 255 255 255
0.26 -0.045 1.027 255 255 255
-0.132 -0.266 0.398 255 255 255
0.118 0.362 0.85 255 255 255
-0.318 0.018 0.569 255 255 255
0.071 0.159 0.938 255 255 255
0.01 -0.15 0.47 0 0 0
-0.368 0.178 0.933 255 255 255
0.283 0.013 1 255 255 255
0.206 0.148 0.941 255 255 255
-0.084 -0.075 0.577 255 255 255
0.349 -0.368 1.106 255 255 255
-0.073 -0.258 0.479 0 0 0
-0.329 -0.087 0.525 255 255 255
-0.439 0.279 0.886 255 255 255
0.525 0.1 0.951 0 0 0
-0.324 -0.145 0.556 255 255 255
-0.15 -0.226 0.499 255 255 255
-0.033 0.306 0.876 255 255 255
0.099 0.312 0.872 255 255 255
-0.122 -0.248 0.454 255 255 255
-0.104 -0.023 0.694 255 255 255
0.283 0.236 0.868 255 255 255
-0.547 0.168 0.932 255 255 255
-0.242 -0.06 0.496 255 255 255
-0.164 0.4 0.835 0 0 0
-0.123 -0.263 0.41 255 255 255
0.031 0.009 0.839 255 255 255
0.038 -0.222 0.391 255 255 255
-0.248 -0.226 0.424 255 255 255
-0.211 -0.228 0.444 255 255 255
-0.146 -0.071 0.56 255 255 255
0.086 0.235 0.906 255 255 255
0.134 0.167 0.364 0 0 0
-0.121 0.296 0.881 255 255 255
0.042 -0.227 0.364 255 255 255
-0.172 -0.261 0.389 255 255 255
-0.057 -0.24 0.531 255 255 255
0.116 0.408 0.83 255 255 255
0.301 -0.321 1.091 255 255 255
-0.008 -0.245 0.527 255 255 255
0.245 -0.143 1.07 255 255 255
0.528 -1.011 1.431 255 255 255
0.516 0.086 0.962 255 255 255
0.34 -0.052 1.027 255 255 255
0.238 -0.039 1.025 255 255 255
0.543 0.054 0.94 0 0 0
-0.073 -0.256 0.471 0 0 0
-0.061 0.082 0.977 255 255 255
-0.255 0.331 0.865 255 255 255
-0.011 0.204 0.919 0 0 0
0.172 0.426 0.822 255 255 255
0.338 -0.185 1.054 255 255 255
-0.428 0.13 0.953 255 255 255
0.019 0.007 0.816 255 255 255
-0.102 -0.249 0.474 0 0 0
0.109 0.367 0.849 255 255 255
0.389 -0.04 1.015 255 255 255
0.567 0.054 0.925 255 255 255
0.084 0.242 0.903 255 255 255
-0.037 0.022 0.835 0 0 0
-0.259 0.363 0.848 255 255 255
-0.189 0.358 0.853 255 255 255
-0.252 -0.05 0.554 255 255 255
-0.098 -0.106 0.5 255 255 255
0.062 0.03 0.862 0 0 0
-0.374 -0.132 0.527 255 255 255
0.043 -0.109 0.489 255 255 255
-0.008 0.128 0.954 255 255 255
-0.082 0.13 0.953 255 255 255
-0.092 -0.217 0.537 255 255 255
-0.045 -0.184 0.502 0 0 0
0.44 -0.078 1.029 255 255 255
-0.178 -0.134 0.51 0 0 0
0.441 -0.025 1.005 255 255 255
0.167 0.244 0.903 255 255 255
-0.34 -0.076 0.462 255 255 255
-0.298 0.073 0.835 255 255 255
-0.243 0.328 0.865 255 255 255
-0.264 0.34 0.86 255 255 255
-0.171 -0.217 0.506 255 255 255
0.001 -0.177 0.484 0 0 0
-0.13 -0.241 0.461 255 255 255
0.023 0.428 0.826 255 255 255
-0.315 -0.152 0.547 255 255 255
0.23 0.083 0.971 255 255 255
0.304 0.178 0.926 0 0 0
-0.387 0.063 0.621 255 255 255
-0.323 -0.037 0.497 255 255 255
0.061 -0.204 0.341 255 255 255
-0.286 -0.187 0.52 255 255 255
0.36 -0.307 1.08 255 255 255
-0.191 -0.241 0.428 255 255 255
-0.189 -0.261 0.376 255 255 255
0.062 -0.191 0.353 255 255 255
-0.047 0.407 0.833 255 255 255
0.069 0.431 0.823 255 255 255
0.508 -0.667 1.285 255 255 255
-0.112 -0.286 0.374 0 0 0
-0.025 -0.281 0.452 255 255 255
-0.531 0.166 0.935 255 255 255
-0.343 -0.102 0.546 0 0 0
-0.399 0.053 0.591 255 255 255
0.321 -0.117 1.057 255 255 255
-0.054 -0.112 0.512 255 255 255
0.27 0.239 0.853 255 255 255
-0.111 -0.265 0.416 255 255 255
-0.222 -0.239 0.406 255 255 255
0.039 -0.299 0.474 0 0 0
-0.382 0.345 0.855 255 255 255
-0.229 -0.094 0.511 255 255 255
-0.169 0.304 0.877 255 255 255
-0.255 0.068 0.844 255 255 255
0.322 -0.299 1.076 255 255 255
-0.374 0.01 0.548 255 255 255
0.066 0.238 0.905 255 255 255
-0.379 0.376 0.844 0 0 0
0.204 0.116 0.469 255 255 255
-0.024 -0.124 0.458 0 0 0
0.589 -0.082 0.977 255 255 255
-0.411 0.098 0.827 255 255 255
-0.372 -0.014 0.512 255 255 255
0.429 -0.077 1.027 255 255 255
-0.27 -0.028 0.574 255 255 255
0.034 -0.316 0.433 0 0 0
-0.189 0.123 0.943 255 255 255
-0.036 -0.118 0.458 0 0 0
-0.374 0.274 0.887 255 255 255
-0.237 0.062 0.84 255 255 255
-0.052 -0.228 0.537 255 255 255
0.182 0.289 0.778 255 255 255
0.284 0.112 0.955 255 255 255
-0.435 0.192 0.926 255 255 255
0.026 -0.287 0.498 255 255 255
-0.093 0.212 0.917 255 255 255
0.396 -0.177 1.078 255 255 255
0.03 -0.126 0.466 255 255 255
-0.118 -0.222 0.534 255 255 255
-0.139 -0.25 0.431 255 255 255
0.563 -1.08 1.472 0 0 0
-0.1 0.303 0.879 255 255 255
0.102 0.296 0.881 255 255 255
0.018 -0.309 0.424 0 0 0
0.252 0.07 0.978 255 255 255
0.371 0.011 0.999 255 255 255
-0.069 0.288 0.885 255 255 255
-0.271 -0.203 0.486 255 255 255
-0.105 -0.149 0.477 255 255 255
-0.216 -0.097 0.51 255 255 255
0.365 0.127 0.943 255 255 255
-0.043 -0.177 0.488 0 0 0
0.024 -0.126 0.465 255 255 255
-0.099 -0.118 0.451 255 255 255
0.415 -0.265 1.112 0 0 0
-0.28 -0.135 0.585 0 0 0
0.494 0.08 0.967 255 255 255
-0.294 -0.059 0.507 255 255 255
-0.418 0.281 0.883 255 255 255
-0.236 -0.045 0.581 255 255 255
-0.128 0.083 0.941 0 0 0
-0.055 -0.257 0.494 255 255 255
0.094 -0.188 0.374 255 255 255
-0.524 0.131 0.896 255 255 255
-0.006 -0.278 0.482 255 255 255
0.421 -0.023 1.002 255 255 255
-0.1 -0.243 0.49 0 0 0
-0.091 -0.075 0.572 255 255 255
0.595 -0.064 0.958 255 255 255
-0.017 -0.275 0.488 255 255 255
-0.101 -0.282 0.389 0 0 0
-0.021 0.21 0.916 255 255 255
0.098 -0.206 0.348 255 255 255
0.02 0.267 0.893 255 255 255
-0.324 -0.176 0.524 255 255 255
-0.316 0.016 0.567 255 255 255
-0.15 0.302 0.877 255 255 255
0.414 0.182 0.921 255 255 255
0.554 -0.658 1.282 255 255 255
-0.23 -0.223 0.443 255 255 255
-0.259 -0.052 0.548 255 255 255
-0.204 0.232 0.907 255 255 255
0.238 0.231 0.873 255 255 255
0.052 -0.226 0.34 255 255 255
-0.108 -0.211 0.538 255 255 255
-0.191 -0.189 0.545 255 255 255
-0.047 -0.263 0.489 255 255 255
-0.157 -0.084 0.517 255 255 255
-0.1 0.343 0.861 255 255 255
-0.327 -0.017 0.507 0 0 0
0.175 0.199 0.502 255 255 255
0.504 0.013 0.995 255 255 255
0.578 0.001 0.966 255 255 255
-0.016 -0.159 0.477 255 255 255
-0.137 -0.269 0.39 255 255 255
-0.318 -0.004 0.535 255 255 255
0.046 -0.193 0.408 255 255 255
-0.048 0.103 0.966 255 255 255
-0.035 -0.276 0.451 255 255 255
-0.195 -0.092 0.495 255 255 255
-0.008 0.265 0.894 255 255 255
-0.28 -0.107 0.534 255 255 255
-0.009 0.396 0.837 0 0 0
-0.178 0.147 0.941 255 255 255
0.068 -0.127 0.466 255 255 255
0.173 0.203 0.519 255 255 255
0.716 -1.094 1.472 0 0 0
-0.039 -0.031 0.716 255 255 255
-0.249 -0.171 0.547 255 255 255
0.04 -0.18 0.415 255 255 255
0.172 0.135 0.948 255 255 255
0.055 -0.094 0.523 255 255 255
-0.224 0.382 0.841 0 0 0
-0.084 0.399 0.837 0 0 0
-0.21 0.043 0.8 255 255 255
0.104 0.356 0.853 255 255 255
0.192 0.147 0.514 255 255 255
0.518 0.116 0.945 255 255 255
0.237 0.102 0.454 255 255 255
-0.355 -0.141 0.55 255 255 255
0.057 -0.211 0.334 255 255 255
-0.437 0.19 0.926 255 255 255
0.46 0.028 0.989 255 255 255
-0.398 0.322 0.863 255 255 255
0.088 -0.152 0.404 255 255 255
0.211 -0.101 1.046 255 255 255
-0.077 -0.109 0.455 255 255 255
-0.459 0.242 0.902 255 255 255
-0.104 -0.162 0.483 0 0 0
-0.002 -0.292 0.443 255 255 255
0.424 0.152 0.933 255 255 255
-0.102 -0.243 0.482 255 255 255
0.069 -0.112 0.492 255 255 255
0.428 -0.118 1.045 0 0 0
0.245 0.383 0.829 255 255 255
-0.199 -0.232 0.442 255 255 255
0.215 0.4 0.832 255 255 255
0.094 0.101 0.965 255 255 255
0.051 -0.073 0.57 255 255 255
-0.186 -0.229 0.454 255 255 255
0.103 -0.139 0.464 255 255 255
-0.015 -0.282 0.454 255 255 255
0.054 -0.185 0.4 255 255 255
-0.105 0.203 0.919 255 255 255
-0.07 -0.204 0.551 0 0 0
0.495 -0.156 1.062 255 255 255
-0.088 0.042 0.877 0 0 0
-0.082 -0.259 0.45 255 255 255
-0.192 -0.248 0.404 255 255 255
0.095 -0.1 0.529 255 255 255
-0.177 0.029 0.835 255 255 255
0.585 -0.209 0.99 255 255 255
-0.268 -0.046 0.56 255 255 255
0.016 -0.159 0.475 0 0 0
0.17 0.172 0.435 255 255 255
-0.063 0.346 0.859 255 255 255
0.282 0.149 0.937 255 255 255
-0.168 0.319 0.869 255 255 255
0.071 0.429 0.823 255 255 255
0.019 -0.127 0.464 255 255 255
-0.106 0.068 0.946 0 0 0
-0.13 -0.25 0.442 255 255 255
0.198 0.434 0.819 255 255 255
-0.011 0.378 0.843 0 0 0
0.048 -0.126 0.458 255 255 255
-0.12 0.201 0.922 255 255 255
0.497 0.182 0.922 255 255 255
-0.217 -0.131 0.529 0 0 0
-0.226 -0.092 0.51 255 255 255
-0.079 -0.082 0.56 255 255 255
-0.075 -0.086 0.548 255 255 255
0.353 -0.179 1.057 255 255 255
-0.383 0.354 0.853 255 255 255
-0.297 0.45 0.818 255 255 255
0.202 0.013 1.003 255 255 255
-0.072 0.059 0.978 255 255 255
0.726 -0.944 1.42 255 255 255
-0.091 0.299 0.881 255 255 255
0.374 -0.285 1.076 255 255 255
0.541 -0.374 0.93 255 255 255
-0.199 -0.066 0.545 255 255 255
-0.138 -0.075 0.556 255 255 255
0.196 0.429 0.821 255 255 255
-0.304 0.131 0.955 0 0 0
0.221 0.21 0.917 255 255 255
-0.057 -0.257 0.493 255 255 255
-0.481 0.104 0.791 255 255 255
-0.004 -0.001 0.855 255 255 255
-0.34 0.264 0.889 255 255 255
-0.289 -0.091 0.524 255 255 255
-0.07 -0.13 0.458 255 255 255
-0.113 -0.236 0.499 255 255 255
-0.193 -0.259 0.379 255 255 255
-0.224 -0.219 0.465 255 255 255
-0.257 0.147 0.943 0 0 0
-0.122 0.045 0.898 255 255 255
0.059 -0.225 0.337 255 255 255
0.31 -0.16 1.071 0 0 0
-0.341 -0.051 0.458 255 255 255
0.178 0.021 0.999 255 255 255
0.291 -0.139 1.063 255 255 255
0.441 -0.237 0.988 255 255 255
0.463 0.188 0.918 255 255 255
-0.286 0.074 0.844 255 255 255
0.186 0.39 0.837 0 0 0
0.224 0.19 0.924 255 255 255
0.314 0.092 0.964 255 255 255
0.406 -0.008 1.002 0 0 0
0.373 -0.229 1.074 0 0 0
-0.307 0.071 0.81 255 255 255
-0.145 -0.264 0.396 255 255 255
-0.335 0.28 0.883 255 255 255
0.188 0.153 0.46 0 0 0
-0.343 -0.102 0.551 0 0 0
-0.017 -0.173 0.485 0 0 0
0.101 -0.148 0.41 0 0 0
0.047 0.324 0.869 255 255 255
-0.223 -0.227 0.439 255 255 255
-0.215 0.377 0.845 0 0 0
-0.363 -0.04 0.492 0 0 0
-0.23 -0.205 0.509 255 255 255
-0.051 -0.115 0.496 255 255 255
0.129 0.171 0.356 0 0 0
-0.16 -0.222 0.501 255 255 255
0.46 -0.162 1.064 255 255 255
-0.266 -0.145 0.571 255 255 255
0.102 -0.185 0.404 255 255 255
0 0.253 0.898 255 255 255
-0.027 0.33 0.865 255 255 255
0.169 0.385 0.837 0 0 0
-0.104 -0.088 0.537 255 255 255
0.1 0.427 0.824 255 255 255
-0.078 0.212 0.916 255 255 255
0.173 0.219 0.912 255 255 255
-0.028 -0.121 0.462 0 0 0
-0.361 -0.033 0.492 255 255 255
-0.087 0.353 0.856 255 255 255
0.273 0.033 0.993 255 255 255
-0.115 -0.26 0.427 255 255 255
0.314 -0.236 1.076 0 0 0
-0.171 -0.073 0.482 255 255 255
0.447 -0.098 1.032 0 0 0
0.605 -1.007 1.447 255 255 255
0.111 0.409 0.83 255 255 255
0.088 0.247 0.901 255 255 255
0.573 -0.168 1.007 255 255 255
-0.108 0.432 0.826 255 255 255
-0.109 0.269 0.894 255 255 255
-0.371 0.339 0.86 255 255 255
0.172 0.222 0.503 255 255 255
0.465 -0.019 1.005 0 0 0
0.342 -0.252 1.079 0 0 0
0.036 -0.113 0.536 255 255 255
0.164 0.334 0.855 255 255 255
0.18 0.14 0.947 255 255 255
-0.251 -0.218 0.45 255 255 255
-0.274 0.201 0.922 255 255 255
-0.084 -0.041 0.668 255 255 255
0.676 -1.063 1.375 255 255 255
-0.134 0.412 0.829 255 255 255
-0.223 -0.052 0.568 255 255 255
-0.122 0.262 0.896 255 255 255
-0.23 -0.11 0.52 255 255 255
0.047 0.332 0.864 255 255 255
