ply
format ascii 1.0
comment Created by Open3D
element vertex 1604
property double x
property double y
property double z
property uchar red
property uchar green
property uchar blue
end_header
0.115 0.101 0.367 255 255 255
0.005 0.322 0.866 0 0 0
-0.014 -1.045 1.416 0 0 0
0.499 -1.05 1.456 0 0 0
-0.166 -0.098 0.526 255 255 255
-0.234 -0.245 0.421 255 255 255
0.114 0.093 0.372 0 0 0
-0.434 0.061 0.7 255 255 255
-0.162 0.143 0.929 255 255 255
-0.101 0.153 0.927 255 255 255
0.15 -0.07 1.029 255 255 255
-0.246 -0.233 0.466 255 255 255
0.099 -0.176 1.072 255 255 255
-0.226 -0.096 0.467 255 255 255
0.457 0.011 1.01 0 0 0
-0.215 0.304 0.858 255 255 255
-0.068 -0.197 0.351 255 255 255
0.149 0.012 0.997 255 255 255
0.367 -0.123 1.021 255 255 255
-0.181 -0.135 0.436 255 255 255
-0.417 0.292 0.85 255 255 255
-0.192 0.354 0.838 255 255 255
-0.111 -0.151 0.387 255 255 255
-0.294 -0.075 0.425 255 255 255
-0.266 -0.212 0.473 255 255 255
0.436 -0.4 1.092 255 255 255
0.6 -0.117 1.071 255 255 255
0.153 -0.183 1.069 255 255 255
-0.22 -0.251 0.45 255 255 255
-0.148 0.374 0.833 0 0 0
0.18 -0.068 1.03 255 255 255
0.098 0.091 0.402 0 0 0
0.136 0.139 0.329 255 255 255
0.183 0.134 0.943 0 0 0
-0.375 0.124 0.903 255 255 255
-0.185 -0.031 0.693 255 255 255
-0.278 -0.071 0.426 255 255 255
0.381 -1.123 1.478 255 255 255
-0.199 -0.105 0.482 255 255 255
0.117 0.152 0.316 0 0 0
0.609 -0.804 1.362 255 255 255
-0.022 0.33 0.86 255 255 255
0.02 0.166 0.346 0 0 0
-0.349 0.35 0.833 255 255 255
0.315 -0.753 1.294 255 255 255
-0.259 0.153 0.918 255 255 255
-0.022 -0.302 1.077 255 255 255
0.102 -0.386 1.099 255 255 255
-0.13 0.442 0.814 255 255 255
0.341 -0.028 1.004 0 0 0
0.168 0 0.999 255 255 255
-0.218 -0.218 0.499 255 255 255
0.652 -0.022 1.031 255 255 255
-0.051 0.033 0.951 255 255 255
-0.044 0.204 0.908 255 255 255
0.22 -0.012 1.012 255 255 255
-0.095 0.024 0.894 255 255 255
-0.176 -0.281 0.41 255 255 255
0.17 0.092 0.372 0 0 0
0.156 -0.024 1.013 255 255 255
-0.198 0.187 0.905 255 255 255
0.054 -0.241 1.067 255 255 255
-0.114 -0.126 0.447 255 255 255
-0.195 0.255 0.879 255 255 255
-0.168 -0.14 0.439 255 255 255
0.124 -0.195 1.077 255 255 255
-0.092 -0.209 0.33 255 255 255
0.16 0.101 0.96 255 255 255
-0.084 -0.139 0.398 255 255 255
0.284 -0.788 1.328 255 255 255
0.566 -0.124 1.064 255 255 255
0.066 0.129 0.346 255 255 255
-0.237 0.44 0.806 255 255 255
0.063 -0.387 1.095 255 255 255
-0.035 0.053 0.971 255 255 255
-0.213 -0.248 0.472 255 255 255
0.481 -0.098 1.026 0 0 0
-0.038 -0.196 0.401 255 255 255
0.024 -0.665 1.262 255 255 255
0.137 0.094 0.365 255 255 255
0.132 -0.051 1.02 255 255 255
0.399 -0.182 1.007 255 255 255
-0.072 0.117 0.943 255 255 255
-0.241 0.185 0.905 255 255 255
0.265 -0.073 1.034 255 255 255
0.003 -0.807 1.319 255 255 255
0.088 0.183 0.893 255 255 255
0.36 -0.171 0.574 255 255 255
-0.234 0.049 0.961 255 255 255
-0.07 -0.214 0.324 255 255 255
-0.041 -0.213 0.389 255 255 255
0.028 0.17 0.313 255 255 255
0.104 0.125 0.33 255 255 255
0.256 -0.717 1.294 255 255 255
-0.025 0.41 0.827 255 255 255
0.073 0.128 0.514 0 0 0
-0.143 0.015 0.88 0 0 0
0.134 -0.174 1.072 0 0 0
0.561 -0.043 1 255 255 255
-0.104 -0.105 0.492 255 255 255
-0.118 0.099 0.95 255 255 255
-0.177 0.25 0.882 255 255 255
-0.2 -0.249 0.474 255 255 255
0.025 0.292 0.881 255 255 255
0.517 -0.871 1.382 255 255 255
0.057 0.348 0.855 255 255 255
0.552 0.065 0.992 255 255 255
-0.227 -0.071 0.511 255 255 255
-0.085 -0.137 0.418 255 255 255
0.204 -0.538 1.147 255 255 255
0.357 -0.159 0.626 255 255 255
0.589 -0.071 0.987 255 255 255
-0.029 -0.186 0.404 255 255 255
-0.142 -0.225 0.42 255 255 255
0.583 -1.048 1.38 0 0 0
0.087 -0.314 1.09 0 0 0
0.034 -0.612 1.22 255 255 255
0.366 -0.138 0.672 255 255 255
-0.195 0.015 0.787 0 0 0
0.147 0.133 0.345 255 255 255
-0.194 0.088 0.948 0 0 0
-0.092 -0.135 0.407 255 255 255
-0.203 -0.096 0.502 0 0 0
-0.069 -0.143 0.423 255 255 255
-0.059 -0.14 0.465 255 255 255
0.078 0.051 0.979 255 255 255
0.107 0.146 0.32 0 0 0
-0.173 0.109 0.941 255 255 255
0.014 -0.092 1.034 255 255 255
0.459 -0.004 0.992 255 255 255
-0.304 0.196 0.898 255 255 255
0.271 -0.758 1.315 255 255 255
-0.056 0.16 0.925 255 255 255
0.686 0.033 1.012 255 255 255
-0.217 -0.24 0.491 255 255 255
0.114 -0.093 1.038 255 255 255
0.094 -0.115 1.047 255 255 255
0.703 0.003 1.028 255 255 255
0.131 -0.7 1.281 255 255 255
0.635 -0.946 1.326 255 255 255
-0.335 -0.04 0.486 255 255 255
0.417 -0.014 0.999 255 255 255
0.083 0.103 0.475 0 0 0
-0.253 -0.22 0.487 255 255 255
0.387 -0.162 1.009 255 255 255
0.04 -0.472 1.131 255 255 255
-0.284 0.131 0.93 255 255 255
-0.267 0.104 0.938 255 255 255
0.009 -0.323 1.083 255 255 255
0.01 -0.09 1.033 255 255 255
-0.077 0.232 0.896 255 255 255
0.296 -1.045 1.446 0 0 0
0.154 -0.004 1.002 255 255 255
0.073 0.137 0.329 255 255 255
0.065 0.14 0.539 255 255 255
-0.301 0.43 0.806 255 255 255
-0.058 -0.217 0.319 255 255 255
0.247 0.017 1.001 255 255 255
-0.445 0.158 0.899 0 0 0
-0.188 0.207 0.899 255 255 255
0.495 -0.969 1.421 255 255 255
-0.16 -0.1 0.521 255 255 255
0.192 0.094 0.963 255 255 255
-0.359 0.216 0.887 255 255 255
0.267 0.066 0.977 255 255 255
0.101 0.16 0.912 255 255 255
-0.185 -0.257 0.475 255 255 255
0.169 -0.48 1.144 255 255 255
-0.381 0.155 0.899 255 255 255
-0.063 0 0.828 0 0 0
0.488 -1.083 1.467 0 0 0
0.229 -0.254 1.098 255 255 255
-0.28 0.014 0.807 255 255 255
-0.075 -0.125 0.47 255 255 255
-0.076 -0.108 0.49 255 255 255
0.032 -0.042 1.014 255 255 255
0.6 -0.861 1.384 255 255 255
0.105 -0.698 1.279 255 255 255
-0.335 0.215 0.889 255 255 255
-0.057 0.246 0.892 255 255 255
0.208 -1.061 1.511 255 255 255
0.023 0.264 0.891 255 255 255
0.079 -0.73 1.289 255 255 255
0.042 -0.312 1.086 255 255 255
0.184 -0.119 1.041 255 255 255
0.135 0.132 0.331 255 255 255
0.073 -0.306 1.09 0 0 0
-0.169 -0.004 0.803 255 255 255
0.509 -0.111 1.041 255 255 255
0.444 -0.462 0.984 255 255 255
0.776 -0.113 1.074 255 255 255
0.002 -0.325 1.082 255 255 255
0.353 -0.177 0.613 255 255 255
-0.039 -0.242 1.063 255 255 255
-0.318 -0.19 0.489 255 255 255
-0.179 -0.106 0.498 255 255 255
0.051 0.147 0.322 0 0 0
-0.063 -0.106 0.491 255 255 255
0.026 -0.822 1.325 255 255 255
0.232 -0.102 1.035 255 255 255
0.646 -0.113 1.066 255 255 255
0.567 -0.966 1.426 255 255 255
-0.384 0.312 0.842 255 255 255
-0.052 -0.025 0.842 255 255 255
0.158 0.072 0.39 255 255 255
-0.113 0.094 0.952 255 255 255
-0.382 0.316 0.842 255 255 255
-0.373 0.32 0.839 255 255 255
0.359 -0.141 0.688 255 255 255
-0.262 -0.122 0.428 255 255 255
0.386 -1.016 1.441 255 255 255
-0.177 -0.268 0.473 255 255 255
-0.403 0.313 0.841 255 255 255
0.493 -0.275 1.06 255 255 255
-0.031 0.032 0.981 255 255 255
-0.293 -0.043 0.525 255 255 255
0.734 -0.202 1.08 255 255 255
-0.257 -0.086 0.417 0 0 0
0.055 -0.401 1.101 255 255 255
-0.089 -0.128 0.452 255 255 255
-0.385 0.002 0.536 255 255 255
0.165 0.04 0.983 255 255 255
0.322 -0.917 1.384 255 255 255
-0.073 0.402 0.826 255 255 255
0.641 -0.877 1.372 255 255 255
-0.243 0.087 0.946 255 255 255
0.141 0.088 0.373 255 255 255
0.392 -1.125 1.478 255 255 255
-0.108 0.301 0.867 255 255 255
-0.269 0.134 0.926 255 255 255
-0.221 -0.233 0.472 0 0 0
0.086 0.164 0.297 255 255 255
0.098 0 1.002 255 255 255
0.151 0.042 0.433 255 255 255
-0.083 -0.226 0.297 255 255 255
-0.132 0.273 0.875 255 255 255
-0.387 0.2 0.891 255 255 255
0.075 -0.044 1.019 255 255 255
0.071 -0.26 1.072 255 255 255
0.571 0.125 0.97 255 255 255
-0.059 0.431 0.818 255 255 255
0.115 0.178 0.878 0 0 0
0.149 0.103 0.36 255 255 255
0.062 0.309 0.825 255 255 255
-0.059 0.408 0.826 255 255 255
0.124 -0.578 1.183 255 255 255
0.232 -0.163 1.059 0 0 0
-0.066 -0.005 0.823 0 0 0
-0.12 0.072 0.962 0 0 0
-0.031 0.357 0.848 255 255 255
-0.252 -0.084 0.466 255 255 255
-0.167 0.43 0.811 255 255 255
-0.344 0.331 0.839 255 255 255
-0.325 0.305 0.85 255 255 255
-0.217 -0.257 0.41 255 255 255
-0.382 -0.014 0.506 255 255 255
0.036 -0.063 1.022 255 255 255
-0.127 0.018 0.868 255 255 255
-0.427 0.153 0.884 0 0 0
0.379 -0.116 0.789 255 255 255
-0.498 0.213 0.878 255 255 255
0.035 0.149 0.351 255 255 255
0.141 0.152 0.327 0 0 0
0.135 0.123 0.338 255 255 255
-0.25 -0.152 0.451 0 0 0
0.311 0.015 1.005 255 255 255
-0.055 -0.171 0.396 255 255 255
0.571 -0.782 1.352 255 255 255
-0.011 0.355 0.849 255 255 255
-0.064 0.068 0.965 255 255 255
-0.108 -0.157 0.388 255 255 255
-0.159 0.06 0.964 255 255 255
-0.277 0.173 0.908 255 255 255
0.121 -0.228 1.088 255 255 255
-0.431 0.149 0.884 0 0 0
0.192 0.036 0.986 255 255 255
0.092 0.147 0.309 0 0 0
-0.211 -0.262 0.411 255 255 255
0.095 0.103 0.372 255 255 255
0.449 -0.799 1.345 255 255 255
-0.299 0.078 0.917 0 0 0
0.643 -0.943 1.319 0 0 0
-0.186 0.316 0.856 255 255 255
-0.074 0.19 0.912 255 255 255
-0.291 0.054 0.859 255 255 255
-0.159 0.064 0.962 0 0 0
0.217 -0.197 1.078 255 255 255
0.528 -0.793 1.349 255 255 255
-0.087 -0.132 0.445 255 255 255
-0.446 0.09 0.769 255 255 255
0.407 0.015 1.008 255 255 255
0.038 -0.168 1.065 255 255 255
0.176 0.106 0.365 255 255 255
0.062 0.161 0.3 255 255 255
-0.279 0.288 0.863 255 255 255
-0.099 -0.23 0.31 0 0 0
0.037 0.313 0.851 255 255 255
-0.385 0.331 0.834 255 255 255
-0.242 -0.091 0.418 0 0 0
0.532 0.048 0.999 255 255 255
-0.126 -0.131 0.489 255 255 255
-0.13 0.428 0.816 255 255 255
0.013 0.179 0.33 255 255 255
-0.194 -0.256 0.476 255 255 255
-0.123 0.204 0.904 255 255 255
-0.317 0.261 0.869 255 255 255
0.157 -0.486 1.146 255 255 255
-0.153 -0.13 0.435 255 255 255
-0.504 0.198 0.882 255 255 255
0.037 0.181 0.923 255 255 255
0.246 -0.084 1.039 255 255 255
0.238 0.085 0.97 255 255 255
-0.323 0.084 0.921 0 0 0
0.6 -0.981 1.407 255 255 255
0.338 -0.257 1.042 255 255 255
0.17 0.097 0.961 255 255 255
-0.201 0.072 0.954 255 255 255
-0.056 -0.201 0.343 255 255 255
0.351 -0.202 0.885 255 255 255
0.025 0.399 0.835 0 0 0
-0.218 0.245 0.881 255 255 255
-0.103 -0.191 0.392 255 255 255
-0.3 0.201 0.896 255 255 255
-0.121 -0.137 0.44 255 255 255
-0.199 0.127 0.932 255 255 255
-0.249 -0.086 0.464 255 255 255
-0.046 -0.102 0.584 255 255 255
-0.28 -0.191 0.496 255 255 255
0.339 -0.014 1.003 0 0 0
0.354 -0.251 1.042 255 255 255
0.07 0.149 0.499 255 255 255
0.097 0.165 0.91 255 255 255
-0.295 -0.054 0.44 255 255 255
-0.195 -0.249 0.494 255 255 255
0.211 0.058 0.978 255 255 255
0.635 0.113 0.978 255 255 255
0.481 -0.349 0.995 255 255 255
-0.035 -0.204 0.403 255 255 255
0.521 -0.106 1.051 255 255 255
-0.193 -0.014 0.719 255 255 255
-0.152 -0.1 0.534 255 255 255
0.269 -0.091 1.041 255 255 255
-0.015 0.281 0.882 255 255 255
0.155 -0.682 1.277 255 255 255
0.179 0.002 1.002 255 255 255
-0.105 -0.135 0.434 255 255 255
0.471 -0.317 1.073 255 255 255
0.106 -0.532 1.161 255 255 255
-0.056 -0.19 0.385 255 255 255
-0.032 -0.377 1.083 255 255 255
-0.111 0.328 0.855 255 255 255
-0.161 -0.136 0.436 255 255 255
-0.204 0.228 0.888 255 255 255
0.19 0.091 0.384 255 255 255
0.004 0.055 0.974 255 255 255
0.302 -0.033 1.021 0 0 0
0.061 -0.061 1.023 255 255 255
-0.002 -0.194 1.074 255 255 255
0.522 -0.301 1.05 255 255 255
0.628 0.019 1.012 255 255 255
-0.28 -0.06 0.434 255 255 255
0.054 0.15 0.317 0 0 0
-0.35 -0.007 0.573 255 255 255
0.071 0.336 0.853 255 255 255
0.092 0.151 0.307 0 0 0
0.241 -0.098 1.034 0 0 0
0.086 0.106 0.956 255 255 255
0.374 -0.153 0.593 255 255 255
-0.404 0.105 0.872 0 0 0
-0.245 -0.139 0.434 0 0 0
0.319 0.079 0.974 255 255 255
0.617 0.114 0.977 255 255 255
-0.308 -0.053 0.479 255 255 255
0.78 -0.14 1.086 255 255 255
-0.263 -0.181 0.505 0 0 0
-0.198 -0.096 0.427 255 255 255
-0.099 -0.114 0.475 255 255 255
-0.023 -0.062 1.019 255 255 255
0.203 0.03 0.991 255 255 255
-0.134 0.049 0.97 0 0 0
-0.198 -0.229 0.542 255 255 255
-0.499 0.138 0.852 0 0 0
0.593 -0.175 1.083 255 255 255
0.185 -0.313 1.13 0 0 0
0.608 0.018 1.015 255 255 255
-0.399 0.147 0.895 0 0 0
0.008 -0.046 1.014 255 255 255
-0.032 0.335 0.858 255 255 255
0.184 0.066 0.404 255 255 255
0.606 -0.999 1.372 0 0 0
0.622 0.132 0.97 255 255 255
0.097 -0.507 1.149 255 255 255
0.152 0.111 0.352 255 255 255
-0.282 -0.182 0.501 255 255 255
-0.084 0.094 0.953 255 255 255
-0.121 -0.185 0.401 255 255 255
0.365 0.062 0.987 255 255 255
-0.109 -0.168 0.392 255 255 255
-0.057 -0.154 0.396 255 255 255
-0.453 0.191 0.892 255 255 255
-0.184 -0.228 0.543 255 255 255
0.041 0.045 0.978 255 255 255
0.12 -0.408 1.11 255 255 255
-0.035 0.293 0.876 255 255 255
0.678 -0.867 1.287 255 255 255
-0.259 -0.07 0.507 255 255 255
0.12 0.09 0.376 255 255 255
0.16 -0.195 1.072 255 255 255
-0.083 -0.221 0.311 255 255 255
-0.264 0.022 0.801 255 255 255
-0.332 -0.019 0.537 255 255 255
0.035 -0.283 1.083 255 255 255
0.21 -0.095 1.032 255 255 255
-0.134 -0.129 0.485 255 255 255
0.072 0.116 0.374 255 255 255
-0.396 0.122 0.907 255 255 255
-0.215 0.367 0.832 0 0 0
0.062 0.133 0.34 255 255 255
0.409 -0.014 1.021 255 255 255
-0.086 0.314 0.862 255 255 255
-0.331 -0.17 0.493 255 255 255
-0.015 -0.531 1.156 255 255 255
0.112 0.087 0.383 0 0 0
-0.103 -0.207 0.348 255 255 255
0.138 -0.177 1.073 255 255 255
0.167 -0.042 1.02 255 255 255
0.03 0.159 0.334 0 0 0
0.097 -0.181 1.074 255 255 255
0.094 0.107 0.365 0 0 0
-0.255 -0.204 0.496 255 255 255
-0.051 -0.228 0.299 255 255 255
0.165 0.045 0.429 255 255 255
-0.372 0.264 0.863 255 255 255
-0.161 -0.249 0.456 255 255 255
-0.181 0.039 0.969 255 255 255
0.37 -0.139 1.029 255 255 255
-0.202 -0.099 0.494 255 255 255
0.111 0.119 0.338 255 255 255
-0.223 -0.247 0.454 255 255 255
-0.302 -0.195 0.472 255 255 255
0.142 0.063 0.408 255 255 255
0.452 0.03 1.004 0 0 0
0.361 -0.142 0.652 255 255 255
-0.141 -0.227 0.419 255 255 255
-0.287 -0.177 0.503 0 0 0
-0.066 0.343 0.853 255 255 255
-0.053 -0.227 0.3 0 0 0
0.462 -0.029 0.994 255 255 255
-0.125 -0.129 0.496 255 255 255
-0.144 -0.153 0.447 255 255 255
0.17 -0.109 1.046 255 255 255
0.081 0.191 0.889 255 255 255
0.609 0.023 1.013 255 255 255
-0.033 0.274 0.883 255 255 255
0.037 0.172 0.926 255 255 255
0.074 0.119 0.362 0 0 0
0.503 0.112 0.973 255 255 255
-0.34 -0.037 0.496 255 255 255
-0.285 -0.066 0.48 255 255 255
0.075 -0.061 1.024 255 255 255
0.039 0.346 0.855 255 255 255
0.018 -0.417 1.105 255 255 255
-0.262 -0.077 0.478 255 255 255
0.14 0.117 0.344 255 255 255
0.293 -0.024 1.019 255 255 255
0.073 -0.067 1.025 255 255 255
-0.195 0.351 0.84 255 255 255
-0.163 -0.094 0.543 255 255 255
0.134 0.053 0.453 255 255 255
0.088 -0.572 1.179 255 255 255
0.025 0.058 0.971 255 255 255
-0.424 0.067 0.681 255 255 255
-0.053 0.229 0.899 255 255 255
-0.227 0.4 0.816 255 255 255
0.038 -0.138 1.052 255 255 255
0.372 -0.145 0.602 255 255 255
-0.134 -0.197 0.415 255 255 255
-0.086 -0.208 0.329 255 255 255
0.085 0.112 0.364 255 255 255
-0.188 -0.158 0.448 0 0 0
-0.218 0.085 0.949 255 255 255
-0.164 -0.115 0.493 255 255 255
-0.268 0.146 0.922 255 255 255
0.071 0.137 0.477 255 255 255
0.165 -0.312 1.138 255 255 255
-0.06 -0.17 0.394 255 255 255
-0.013 -0.182 1.069 255 255 255
0.103 0.106 0.357 255 255 255
0.05 -0.028 1.011 255 255 255
-0.054 0.153 0.928 255 255 255
-0.356 0.156 0.903 0 0 0
0.023 0.165 0.339 0 0 0
0.063 -0.373 1.09 255 255 255
-0.146 -0.123 0.439 255 255 255
-0.068 0.39 0.832 0 0 0
-0.069 0.072 0.964 255 255 255
-0.266 -0.062 0.514 255 255 255
-0.244 -0.237 0.428 255 255 255
0.135 0.164 0.888 255 255 255
0.182 -0.351 0.989 255 255 255
-0.174 0.411 0.817 255 255 255
0.051 0.165 0.299 255 255 255
-0.285 -0.189 0.496 255 255 255
-0.259 -0.162 0.473 0 0 0
-0.046 -0.165 0.394 255 255 255
-0.015 0.222 0.904 255 255 255
0.443 0.094 0.975 255 255 255
0.338 -0.468 0.976 255 255 255
-0.338 0.041 0.703 255 255 255
-0.28 0.39 0.819 0 0 0
0.177 -0.747 1.3 255 255 255
0.104 0.107 0.357 255 255 255
0.455 -0.506 0.99 255 255 255
0.006 -0.094 1.034 255 255 255
-0.143 0.446 0.812 255 255 255
-0.27 0.091 0.926 255 255 255
-0.039 -0.161 0.442 255 255 255
-0.078 -0.16 0.39 255 255 255
-0.076 -0.21 0.322 255 255 255
0.113 0.088 0.382 0 0 0
0.062 -0.224 1.072 0 0 0
-0.129 -0.117 0.526 255 255 255
0.183 0.09 0.381 255 255 255
0.704 0.051 1.006 255 255 255
0.164 -0.402 1.109 255 255 255
-0.034 0.374 0.841 0 0 0
-0.061 0.096 0.953 255 255 255
-0.176 -0.24 0.493 255 255 255
-0.247 0.044 0.857 0 0 0
0.031 0.24 0.9 255 255 255
0.061 0.356 0.854 255 255 255
-0.181 -0.179 0.468 0 0 0
-0.101 0.146 0.93 255 255 255
0.295 0.015 1.002 255 255 255
0 -0.997 1.398 255 255 255
0.071 0.322 0.833 255 255 255
-0.167 -0.3 0.381 255 255 255
-0.184 0.125 0.935 255 255 255
-0.225 0.424 0.81 255 255 255
-0.088 -1.021 1.399 0 0 0
0.075 -0.291 1.084 0 0 0
0.11 -0.193 1.077 255 255 255
0.128 -0.257 1.073 255 255 255
0.077 0.142 0.32 255 255 255
-0.212 0.047 0.964 255 255 255
-0.244 0.322 0.848 255 255 255
0.445 -0.042 0.998 255 255 255
-0.008 0.01 0.993 255 255 255
0.458 -0.38 0.974 255 255 255
-0.241 -0.239 0.449 255 255 255
-0.046 -0.156 0.444 0 0 0
-0.063 -0.1 0.513 255 255 255
0.166 0.08 0.384 0 0 0
0.016 -0.406 1.1 255 255 255
0.066 0.121 0.373 0 0 0
-0.055 -0.125 0.502 255 255 255
0.098 0.118 0.343 0 0 0
-0.082 0.223 0.899 255 255 255
0.107 0.071 0.464 255 255 255
0.069 0.13 0.534 255 255 255
0.615 -1.041 1.315 255 255 255
-0.144 0.301 0.863 255 255 255
-0.303 0.322 0.845 255 255 255
0.194 -0.11 1.036 255 255 255
-0.36 0.197 0.893 255 255 255
0.215 -0.297 1.114 255 255 255
0.069 0.135 0.444 255 255 255
-0.023 0.119 0.943 255 255 255
0.492 -0.345 1.01 255 255 255
0.041 0.116 0.949 255 255 255
-0.042 -0.205 0.392 255 255 255
-0.173 -0.271 0.452 255 255 255
-0.295 0.213 0.891 0 0 0
-0.045 -0.73 1.284 255 255 255
-0.209 -0.215 0.519 255 255 255
-0.13 0.396 0.826 0 0 0
-0.389 -0.003 0.528 255 255 255
0.011 0.173 0.925 255 255 255
0.17 0.057 0.414 255 255 255
-0.351 -0.001 0.597 255 255 255
0.192 0.066 0.409 255 255 255
-0.322 -0.098 0.45 255 255 255
0.139 0.152 0.326 0 0 0
-0.063 -0.204 0.329 255 255 255
-0.028 -0.204 1.06 255 255 255
-0.01 0.03 0.984 255 255 255
0.123 -0.22 1.092 0 0 0
-0.221 -0.069 0.541 255 255 255
-0.048 -0.206 0.344 255 255 255
0.568 -1.02 1.442 255 255 255
0.35 -1.113 1.469 255 255 255
-0.335 0.134 0.901 0 0 0
0.614 -0.859 1.384 255 255 255
0.097 0.152 0.931 255 255 255
0.144 0.091 0.373 255 255 255
-0.018 0.429 0.821 255 255 255
0.211 -0.27 1.109 255 255 255
-0.201 -0.017 0.726 255 255 255
-0.033 -0.186 0.403 255 255 255
0.075 -0.697 1.278 255 255 255
0.36 0.056 0.988 255 255 255
0.18 -0.392 1.094 255 255 255
-0.137 -0.126 0.441 255 255 255
-0.125 -0.01 0.905 255 255 255
0.059 0.103 0.954 255 255 255
-0.065 -0.151 0.388 0 0 0
-0.126 0.293 0.867 255 255 255
0.061 -0.45 1.122 255 255 255
0.497 -0.062 1.009 255 255 255
0.239 -0.359 1.047 255 255 255
-0.269 0.254 0.875 255 255 255
0.223 -1.042 1.438 0 0 0
-0.227 -0.028 0.649 255 255 255
-0.323 0.088 0.921 0 0 0
-0.207 -0.255 0.459 255 255 255
0.11 -0.721 1.29 255 255 255
0.097 -0.51 1.15 255 255 255
-0.034 -0.044 1.012 255 255 255
-0.06 -0.2 0.344 255 255 255
-0.313 -0.053 0.436 255 255 255
0.296 -1.041 1.447 0 0 0
-0.279 0.223 0.888 255 255 255
0.347 -0.279 1.03 255 255 255
-0.244 0.033 0.788 255 255 255
-0.195 -0.22 0.544 255 255 255
0.569 0.091 0.983 255 255 255
0.203 -0.087 1.029 0 0 0
-0.352 0.047 0.724 255 255 255
-0.143 -0.305 0.405 0 0 0
0.018 0.251 0.896 255 255 255
0.409 0.075 0.983 255 255 255
-0.003 -0.846 1.335 255 255 255
-0.04 0.121 0.942 255 255 255
0.151 0.055 0.422 255 255 255
0 0.369 0.845 255 255 255
0.401 -0.418 0.985 255 255 255
0.25 -0.161 1.06 255 255 255
-0.384 0.314 0.842 255 255 255
-0.069 -0.152 0.386 0 0 0
0.08 -0.307 1.091 255 255 255
0.087 0.008 0.999 255 255 255
0.209 0.056 0.978 255 255 255
-0.172 0.34 0.845 255 255 255
0.19 0.07 0.404 255 255 255
-0.284 -0.194 0.496 255 255 255
-0.113 0.171 0.919 255 255 255
-0.101 -0.135 0.403 255 255 255
-0.164 0.393 0.825 0 0 0
0.352 -0.202 0.567 255 255 255
-0.097 -0.15 0.386 255 255 255
0.494 -0.329 1.005 255 255 255
-0.302 0.129 0.917 255 255 255
0.48 0.129 0.964 255 255 255
0.449 -0.834 1.359 255 255 255
-0.079 -0.186 0.377 255 255 255
0.142 0.069 0.972 255 255 255
0.306 -0.252 1.078 255 255 255
0.117 -0.321 1.099 0 0 0
-0.036 0.375 0.839 0 0 0
0.112 0.122 0.338 255 255 255
-0.093 0.317 0.86 255 255 255
-0.045 -0.229 0.306 0 0 0
-0.093 0.002 0.827 255 255 255
-0.194 -0.26 0.458 255 255 255
0.558 0.161 0.954 255 255 255
-0.049 -0.168 0.394 255 255 255
-0.172 -0.113 0.434 0 0 0
-0.275 -0.067 0.446 255 255 255
-0.281 -0.183 0.5 255 255 255
-0.116 0.273 0.877 255 255 255
0.326 -0.274 1.04 255 255 255
0.076 0.15 0.31 0 0 0
-0.049 0.239 0.894 255 255 255
-0.225 0.115 0.936 0 0 0
-0.214 -0.214 0.505 255 255 255
-0.227 -0.077 0.513 255 255 255
0.334 0.009 1.001 255 255 255
-0.415 0.293 0.849 255 255 255
-0.306 -0.096 0.44 255 255 255
0.038 0.15 0.341 255 255 255
0.088 -0.117 1.049 255 255 255
0.112 0.082 0.401 255 255 255
-0.124 0.405 0.824 255 255 255
-0.152 -0.124 0.433 0 0 0
-0.21 -0.251 0.47 255 255 255
-0.503 0.143 0.883 0 0 0
-0.022 -0.332 1.075 255 255 255
0.043 -0.243 1.068 255 255 255
0.101 -0.026 1.011 0 0 0
-0.389 0.109 0.897 0 0 0
-0.472 0.129 0.818 255 255 255
0.051 -0.164 1.066 255 255 255
-0.141 0.23 0.892 255 255 255
0.123 0.103 0.355 255 255 255
0.011 0.116 0.949 255 255 255
0.221 -0.745 1.305 255 255 255
-0.098 -0.172 0.392 255 255 255
0.651 -0.116 1.069 255 255 255
-0.458 0.185 0.894 0 0 0
0.045 -0.011 1 0 0 0
0.327 0.031 0.993 255 255 255
0.389 -0.027 1.022 255 255 255
0.129 0.077 0.384 255 255 255
-0.379 -0.017 0.5 255 255 255
-0.379 0.005 0.573 255 255 255
-0.012 -0.518 1.15 255 255 255
-0.071 -0.141 0.445 255 255 255
0.248 -0.012 1.013 255 255 255
-0.143 -0.224 0.422 255 255 255
0.38 -0.102 0.849 255 255 255
-0.085 0.004 0.818 255 255 255
0.355 -0.272 1.034 255 255 255
0.513 -0.002 1.017 255 255 255
-0.125 -0.005 0.908 255 255 255
0.018 0.176 0.326 255 255 255
-0.05 -0.156 0.403 255 255 255
-0.114 0.353 0.843 255 255 255
-0.134 0.169 0.918 255 255 255
-0.148 -0.301 0.411 0 0 0
-0.201 -0.274 0.395 255 255 255
0.165 0.054 0.416 255 255 255
-0.281 0.323 0.848 255 255 255
0.05 0.136 0.356 255 255 255
-0.385 0.145 0.899 255 255 255
-0.43 0.258 0.861 255 255 255
0.626 -0.974 1.308 0 0 0
-0.352 -0.142 0.499 255 255 255
-0.081 -0.135 0.445 255 255 255
-0.255 -0.23 0.461 255 255 255
0.354 -0.083 1.032 255 255 255
0.12 -0.516 1.155 255 255 255
0.67 -0.833 1.334 255 255 255
0.12 -0.266 1.075 255 255 255
-0.101 0.215 0.902 255 255 255
0.039 0.147 0.356 255 255 255
0.158 0.106 0.361 255 255 255
0.474 -0.083 1.007 0 0 0
0.151 -0.049 1.022 255 255 255
0.123 0.006 0.998 255 255 255
-0.412 0.142 0.881 0 0 0
0.052 0.285 0.836 255 255 255
0.075 0.124 0.488 0 0 0
-0.038 0.291 0.877 255 255 255
-0.1 -0.214 0.334 255 255 255
-0.058 -0.142 0.462 255 255 255
-0.051 -0.156 0.399 255 255 255
0.043 0.145 0.353 255 255 255
-0.099 -0.199 0.35 255 255 255
-0.302 0.144 0.923 255 255 255
0.189 0.032 0.988 255 255 255
0.239 0.074 0.974 255 255 255
-0.238 -0.073 0.511 255 255 255
-0.301 -0.053 0.436 255 255 255
0.416 -0.032 1.024 255 255 255
-0.036 0.267 0.885 255 255 255
-0.46 0.151 0.902 0 0 0
0.029 0.238 0.9 255 255 255
-0.027 0.34 0.855 255 255 255
0.064 -0.475 1.133 255 255 255
0.134 -0.177 1.073 0 0 0
0.392 0.048 0.993 255 255 255
-0.154 -0.304 0.39 255 255 255
0.178 0.092 0.377 255 255 255
0.238 -0.047 1.024 255 255 255
-0.333 -0.033 0.516 255 255 255
-0.043 -0.202 1.058 255 255 255
-0.204 -0.252 0.474 255 255 255
-0.24 0.192 0.902 0 0 0
0.309 -0.174 1.058 0 0 0
-0.319 0.286 0.858 255 255 255
-0.325 0.117 0.902 0 0 0
-0.391 0.126 0.9 0 0 0
-0.161 -0.282 0.438 255 255 255
-0.259 -0.203 0.496 255 255 255
0.164 0.121 0.353 255 255 255
0.081 0.11 0.471 0 0 0
-0.255 -0.075 0.502 0 0 0
0.095 -0.557 1.173 255 255 255
0.084 -0.449 1.124 255 255 255
-0.414 0.275 0.856 255 255 255
-0.056 -0.215 0.321 255 255 255
-0.26 -0.195 0.5 255 255 255
0.359 -0.185 0.548 255 255 255
0.287 0.076 0.975 255 255 255
-0.275 -0.221 0.458 255 255 255
-0.16 0.384 0.828 0 0 0
-0.194 -0.088 0.516 255 255 255
-0.195 -0.109 0.426 0 0 0
-0.22 0.298 0.861 255 255 255
-0.306 0.053 0.765 255 255 255
-0.146 0.355 0.841 255 255 255
0.042 0.302 0.853 255 255 255
-0.141 -0.106 0.539 255 255 255
0.073 0.131 0.504 255 255 255
-0.41 0.099 0.796 255 255 255
0.275 -0.155 1.06 255 255 255
-0.127 -0.007 0.896 255 255 255
-0.096 -0.206 0.336 255 255 255
0.528 -1.131 1.473 0 0 0
-0.022 -0.252 1.068 255 255 255
0.445 -1.037 1.448 255 255 255
-0.309 0.118 0.904 0 0 0
-0.059 0 0.837 0 0 0
0.041 -0.669 1.263 255 255 255
-0.231 -0.208 0.505 255 255 255
-0.205 0.089 0.948 0 0 0
0.339 -0.157 1.043 255 255 255
0.053 0.145 0.323 0 0 0
-0.022 -0.353 1.074 255 255 255
0.6 -0.179 1.055 255 255 255
0.152 0.049 0.44 255 255 255
-0.122 -0.149 0.424 255 255 255
0.15 0.067 0.397 255 255 255
-0.035 0.068 0.965 255 255 255
0.115 0.084 0.383 0 0 0
0.035 0.155 0.33 0 0 0
0.057 -0.298 1.086 255 255 255
0.021 0.167 0.328 255 255 255
-0.098 0.251 0.887 255 255 255
0.179 0.044 0.419 255 255 255
0.032 0.318 0.855 255 255 255
0.162 0.069 0.396 255 255 255
0.31 -0.286 0.92 255 255 255
0.057 -0.392 1.097 255 255 255
-0.171 0.252 0.882 255 255 255
0.298 0.08 0.975 255 255 255
-0.18 0.25 0.881 255 255 255
0.477 -0.331 1.031 255 255 255
0.011 0.263 0.891 255 255 255
-0.095 -0.101 0.502 255 255 255
0.367 -0.153 0.589 255 255 255
-0.191 0.122 0.935 255 255 255
-0.176 -0.096 0.519 255 255 255
0.566 0.106 0.977 255 255 255
0.331 -0.143 1.041 0 0 0
0.065 -0.073 1.028 255 255 255
0.344 -0.21 1.053 255 255 255
0.093 0.118 0.95 255 255 255
0.291 -0.794 1.331 255 255 255
0.153 0.144 0.924 255 255 255
-0.017 0.114 0.946 255 255 255
-0.193 -0.089 0.516 255 255 255
0.094 -0.69 1.276 255 255 255
-0.22 0.177 0.909 255 255 255
0.021 0.123 0.945 255 255 255
-0.04 -0.216 0.396 255 255 255
-0.189 -0.266 0.449 255 255 255
0.379 -0.441 1.018 255 255 255
0.247 0.021 1 255 255 255
0.135 -0.625 1.23 255 255 255
0.489 0.115 0.964 255 255 255
-0.298 0.222 0.887 255 255 255
-0.411 0.295 0.849 255 255 255
-0.21 -0.08 0.514 255 255 255
0.245 0.052 0.984 255 255 255
-0.16 0.016 0.883 0 0 0
0.093 0.116 0.347 255 255 255
-0.207 0.033 0.941 255 255 255
0.326 -0.33 0.922 255 255 255
0.637 -0.931 1.349 255 255 255
0.181 0.064 0.407 255 255 255
-0.214 0.124 0.932 255 255 255
0.102 -0.246 1.069 0 0 0
0.175 0.108 0.956 255 255 255
0.391 -0.002 1.015 255 255 255
-0.338 0.036 0.696 255 255 255
-0.183 -0.081 0.537 255 255 255
-0.116 0.215 0.9 255 255 255
-0.285 -0.076 0.421 255 255 255
-0.288 0.133 0.929 255 255 255
0.061 0.026 0.989 255 255 255
0.072 -0.506 1.148 255 255 255
0.329 0.053 0.986 255 255 255
-0.391 0.083 0.749 255 255 255
-0.112 -0.213 0.383 255 255 255
0.029 0.018 0.991 255 255 255
-0.321 0.398 0.813 255 255 255
-0.069 0.254 0.888 255 255 255
-0.358 0.082 0.8 255 255 255
-0.233 -0.083 0.421 255 255 255
-0.233 -0.219 0.497 255 255 255
0.004 -0.226 1.059 255 255 255
-0.003 -0.693 1.273 255 255 255
0.355 -0.173 1.041 255 255 255
0.146 -0.036 1.017 255 255 255
0.555 0.167 0.952 255 255 255
0.343 -0.295 1.022 255 255 255
0.068 0.118 0.39 0 0 0
-0.289 -0.18 0.499 255 255 255
-0.033 -0.252 1.066 255 255 255
0.355 -0.183 0.597 255 255 255
-0.196 0.111 0.939 255 255 255
-0.177 -0.105 0.434 255 255 255
-0.112 0.045 0.968 0 0 0
-0.17 0.182 0.909 255 255 255
-0.424 0.238 0.871 255 255 255
-0.06 -0.195 0.346 255 255 255
-0.303 -0.099 0.439 255 255 255
-0.251 -0.134 0.431 255 255 255
-0.068 -0.134 0.465 255 255 255
0.229 -0.588 1.089 255 255 255
-0.214 0.007 0.804 255 255 255
0.292 -0.229 1.08 0 0 0
-0.319 0.149 0.916 255 255 255
-0.222 -0.207 0.527 255 255 255
-0.375 0.297 0.849 255 255 255
-0.259 -0.077 0.481 255 255 255
-0.271 -0.072 0.483 255 255 255
-0.125 0.278 0.874 255 255 255
-0.103 -0.136 0.431 255 255 255
-0.233 -0.077 0.512 255 255 255
0.568 -1.067 1.418 0 0 0
0.002 0.181 0.918 255 255 255
0.012 0.304 0.875 255 255 255
0.112 0.123 0.337 255 255 255
0.108 0.097 0.367 255 255 255
-0.075 0.235 0.895 255 255 255
0.415 0.042 0.994 255 255 255
-0.127 0.108 0.943 255 255 255
-0.182 -0.239 0.492 255 255 255
-0.265 -0.073 0.486 255 255 255
-0.362 0.073 0.756 255 255 255
-0.315 -0.179 0.493 255 255 255
-0.047 -0.194 0.394 255 255 255
0.146 0.132 0.342 255 255 255
0.338 0.007 1.001 0 0 0
-0.172 -0.111 0.436 255 255 255
-0.353 -0.015 0.532 255 255 255
-0.332 0.039 0.706 255 255 255
0.2 -0.104 1.036 255 255 255
-0.02 -0.56 1.168 255 255 255
0.507 -0.378 0.989 255 255 255
-0.405 0.308 0.843 255 255 255
0.092 0.089 0.481 255 255 255
0.139 0.111 0.352 0 0 0
0.513 0.092 0.98 255 255 255
-0.192 -0.264 0.424 255 255 255
-0.188 -0.266 0.454 255 255 255
0.487 -0.344 1.026 255 255 255
-0.392 0.299 0.848 255 255 255
0.252 -0.201 1.082 255 255 255
0.358 -0.181 0.571 255 255 255
-0.213 -0.137 0.434 255 255 255
0.153 -0.209 1.079 255 255 255
0.01 0.392 0.838 0 0 0
0.084 0.132 0.329 255 255 255
-0.312 0.324 0.843 255 255 255
0.419 -0.031 1.014 255 255 255
0.111 0.107 0.954 0 0 0
0.104 0.104 0.361 255 255 255
0.188 -0.734 1.3 255 255 255
0.181 0.127 0.951 0 0 0
0.6 0.062 0.996 255 255 255
0.111 0.123 0.336 255 255 255
0.202 -0.362 1.152 255 255 255
0.114 0.136 0.947 255 255 255
0.157 0.054 0.421 255 255 255
-0.013 0.432 0.821 255 255 255
0.716 -0.171 1.099 255 255 255
0.217 -0.163 1.061 255 255 255
0.127 0.059 0.468 0 0 0
0.318 -0.213 1.061 255 255 255
0.454 0.041 0.997 255 255 255
0.199 0.011 1 255 255 255
0.321 -0.035 1.016 255 255 255
-0.195 -0.124 0.429 255 255 255
0.386 -0.117 0.803 255 255 255
-0.29 -0.156 0.479 0 0 0
0.289 0.041 0.989 255 255 255
0.071 0.136 0.477 255 255 255
-0.157 -0.301 0.392 0 0 0
-0.215 -0.101 0.42 0 0 0
-0.419 0.161 0.891 0 0 0
-0.239 -0.124 0.427 255 255 255
0.04 0.092 0.96 0 0 0
0.021 0.049 0.974 255 255 255
-0.152 -0.292 0.423 255 255 255
-0.233 0.338 0.844 255 255 255
0.178 -0.359 1.106 0 0 0
0.234 -0.295 1.101 255 255 255
0.065 -0.441 1.119 255 255 255
-0.295 -0.079 0.428 255 255 255
-0.326 0.084 0.919 0 0 0
-0.256 -0.026 0.653 255 255 255
-0.23 -0.063 0.549 255 255 255
-0.326 0.18 0.903 255 255 255
0.153 0.071 0.394 255 255 255
0.049 -0.327 1.088 255 255 255
-0.011 -0.207 1.063 0 0 0
-0.224 -0.2 0.515 255 255 255
0.479 -0.102 1.027 255 255 255
0.056 -0.052 1.018 255 255 255
-0.092 0.155 0.926 255 255 255
-0.234 -0.147 0.44 0 0 0
0.145 -0.706 1.284 255 255 255
0.085 0.16 0.299 255 255 255
0.058 0.16 0.302 255 255 255
-0.144 0.409 0.821 255 255 255
0.061 0.164 0.297 255 255 255
0.471 -0.477 1.001 255 255 255
-0.014 -0.37 1.083 255 255 255
0.265 -0.232 1.087 255 255 255
-0.073 -0.174 0.392 255 255 255
0.138 0.072 0.393 255 255 255
0.089 0.101 0.47 255 255 255
-0.179 -0.087 0.522 255 255 255
-0.352 -0.14 0.5 255 255 255
-0.335 0.132 0.899 0 0 0
0.031 0.196 0.917 255 255 255
-0.095 -0.199 0.352 255 255 255
0.082 0.149 0.936 255 255 255
0.16 0.043 0.433 255 255 255
0.039 -0.54 1.162 255 255 255
0.126 -0.259 1.074 255 255 255
-0.116 -0.187 0.398 255 255 255
-0.086 0.326 0.857 255 255 255
0.035 -0.276 1.08 255 255 255
0.086 0.097 0.499 255 255 255
0.676 -0.869 1.291 255 255 255
0.048 0.154 0.317 0 0 0
-0.214 0.105 0.941 255 255 255
0.118 0.115 0.341 255 255 255
0.118 0.095 0.37 0 0 0
0.005 0.11 0.949 255 255 255
0.044 0.317 0.841 255 255 255
0.081 0.106 0.387 255 255 255
-0.267 0.028 0.789 255 255 255
0.2 -0.02 1.014 255 255 255
0.453 -0.819 1.353 255 255 255
-0.369 0.091 0.82 255 255 255
-0.11 0.237 0.892 255 255 255
-0.184 -0.112 0.481 255 255 255
0.159 0.09 0.965 255 255 255
0 0.394 0.838 0 0 0
-0.122 0.314 0.86 0 0 0
-0.036 -0.215 0.404 255 255 255
-0.448 0.218 0.879 255 255 255
0.166 -0.21 1.082 255 255 255
0.287 0.019 1 0 0 0
-0.301 -0.057 0.486 255 255 255
-0.068 -0.221 0.311 255 255 255
-0.037 -1.068 1.423 0 0 0
0.403 -0.455 1.042 255 255 255
0.029 0.034 0.985 255 255 255
-0.1 -0.2 0.35 255 255 255
-0.043 -0.17 0.395 255 255 255
-0.052 0.097 0.952 255 255 255
0.55 0.051 0.998 255 255 255
-0.317 0.415 0.807 255 255 255
0.045 0.141 0.35 255 255 255
0.316 -0.373 0.94 255 255 255
0.277 -0.719 1.294 255 255 255
-0.27 0.235 0.882 255 255 255
-0.092 0.215 0.903 255 255 255
0.149 0.125 0.343 255 255 255
-0.247 0.087 0.946 255 255 255
-0.297 -0.052 0.439 255 255 255
0.112 0.132 0.325 255 255 255
0.215 -0.165 1.062 255 255 255
-0.276 0.419 0.811 255 255 255
0.028 -0.05 1.017 255 255 255
0.071 0.147 0.314 0 0 0
0.457 -0.046 0.998 255 255 255
-0.047 -0.162 0.394 255 255 255
0.168 0.055 0.415 255 255 255
-0.314 0.294 0.855 255 255 255
-0.083 0.073 0.961 255 255 255
-0.084 -0.143 0.387 255 255 255
-0.102 0.01 0.826 0 0 0
0.11 0.091 0.375 0 0 0
0.052 0.149 0.936 255 255 255
0.131 0.131 0.333 255 255 255
0.558 0.078 0.987 255 255 255
-0.184 -0.232 0.499 255 255 255
-0.097 -0.193 0.368 255 255 255
0.105 -1.05 1.42 255 255 255
-0.306 0.155 0.919 255 255 255
0.564 0.099 0.978 255 255 255
0.186 0.105 0.959 255 255 255
-0.002 0.364 0.846 255 255 255
-0.128 0.355 0.842 255 255 255
-0.04 0.225 0.901 255 255 255
-0.358 -0.025 0.503 255 255 255
-0.245 -0.11 0.42 255 255 255
0.164 -0.118 1.049 255 255 255
-0.182 -0.269 0.448 255 255 255
0.178 0.115 0.36 255 255 255
-0.255 -0.131 0.43 255 255 255
0.005 0.141 0.936 255 255 255
0.002 0.096 0.956 255 255 255
0.147 -0.179 1.072 255 255 255
0.019 -1.044 1.421 0 0 0
-0.203 0.309 0.858 255 255 255
0.048 -0.008 1.002 255 255 255
-0.213 0.205 0.898 255 255 255
0.434 -1.153 1.489 255 255 255
-0.306 0.278 0.863 255 255 255
0.04 0.261 0.892 255 255 255
-0.224 0.061 0.959 255 255 255
0.105 0.093 0.382 0 0 0
0.105 -0.176 1.073 255 255 255
-0.173 0.007 0.793 255 255 255
-0.05 -0.094 1.03 255 255 255
0.113 0.163 0.308 255 255 255
0.423 -0.414 0.975 255 255 255
0.65 -0.899 1.339 255 255 255
-0.13 0.127 0.937 255 255 255
0.105 -0.32 1.095 0 0 0
0.05 -0.73 1.29 255 255 255
0.101 0.096 0.956 255 255 255
0.174 0.092 0.374 255 255 255
0.661 -0.876 1.33 255 255 255
-0.06 0.124 0.939 255 255 255
0.034 0.283 0.881 0 0 0
-0.055 -0.135 0.47 255 255 255
0.003 0.171 0.317 255 255 255
-0.368 0.251 0.867 255 255 255
0.132 0.134 0.328 255 255 255
-0.3 0.351 0.833 255 255 255
0.213 -0.126 1.046 255 255 255
-0.084 0.323 0.859 255 255 255
0.428 -0.01 0.982 255 255 255
-0.266 -0.224 0.459 255 255 255
-0.154 -0.29 0.423 255 255 255
0.171 0.114 0.361 255 255 255
-0.472 0.201 0.887 255 255 255
-0.155 0.232 0.889 255 255 255
0.033 -0.347 1.079 255 255 255
-0.006 0.411 0.829 255 255 255
-0.201 0.243 0.882 255 255 255
-0.228 0.172 0.911 255 255 255
0.269 -0.167 1.064 255 255 255
-0.278 0.181 0.906 255 255 255
0.386 -0.208 0.884 255 255 255
-0.25 0.322 0.848 255 255 255
-0.004 0.125 0.943 255 255 255
-0.046 0.211 0.905 255 255 255
0.052 0.133 0.371 255 255 255
-0.185 -0.28 0.404 255 255 255
0.604 -0.943 1.413 255 255 255
-0.06 0.277 0.881 255 255 255
0.53 0.02 1.01 255 255 255
0.146 0.095 0.961 255 255 255
0.338 -0.301 1.021 255 255 255
-0.216 -0.256 0.411 255 255 255
-0.37 0.283 0.855 255 255 255
0.268 -0.045 1.025 255 255 255
0.546 -0.013 1.025 255 255 255
-0.345 0.101 0.907 0 0 0
0.171 -0.739 1.299 255 255 255
0.059 -1.051 1.424 255 255 255
0.357 -0.177 0.577 255 255 255
0.295 -0.25 1.073 255 255 255
0.634 -0.96 1.297 0 0 0
0.027 -0.412 1.103 255 255 255
-0.202 -0.218 0.543 0 0 0
-0.224 0.214 0.894 255 255 255
0.005 0.344 0.856 0 0 0
-0.189 0.378 0.829 0 0 0
-0.199 -0.148 0.441 255 255 255
-0.018 -0.305 1.077 255 255 255
0.266 -0.79 1.328 255 255 255
0.007 0.271 0.887 255 255 255
0.125 0.097 0.363 255 255 255
-0.076 0.426 0.82 255 255 255
0.636 0.104 0.98 255 255 255
-0.257 -0.127 0.429 255 255 255
0.42 -0.014 0.99 255 255 255
-0.172 0.068 0.959 0 0 0
0.041 0.144 0.363 255 255 255
0.121 -0.016 1.01 0 0 0
0.257 0.005 1.005 255 255 255
-0.326 0.33 0.84 255 255 255
-0.128 -0.149 0.441 255 255 255
0.754 -0.188 1.101 255 255 255
0.078 -0.409 1.107 255 255 255
-0.143 0.22 0.896 255 255 255
-0.287 -0.057 0.436 255 255 255
-0.17 -0.274 0.43 255 255 255
0.105 0.156 0.309 255 255 255
0.246 -0.726 1.299 255 255 255
0.079 0.113 0.517 255 255 255
-0.105 0.107 0.947 255 255 255
0.152 -0.26 1.104 255 255 255
0.191 -0.347 0.984 255 255 255
-0.433 0.192 0.892 255 255 255
-0.032 -0.204 0.406 255 255 255
0.335 -0.129 1.043 0 0 0
-0.157 0.055 0.966 255 255 255
-0.357 0.07 0.756 255 255 255
-0.147 -0.155 0.449 255 255 255
-0.243 0.109 0.938 255 255 255
-0.134 0.057 0.968 255 255 255
-0.158 0.338 0.847 255 255 255
-0.244 0.396 0.818 255 255 255
-0.172 -0.099 0.513 255 255 255
-0.21 -0.139 0.434 255 255 255
-0.258 -0.098 0.418 255 255 255
-0.08 -0.18 0.385 255 255 255
0.012 -0.071 1.024 255 255 255
-0.02 -0.25 1.067 255 255 255
0.19 -0.362 1.147 0 0 0
0.011 0.2 0.914 255 255 255
0.075 0.12 0.487 0 0 0
-0.189 0.127 0.933 255 255 255
0.002 -0.006 0.999 255 255 255
-0.228 -0.069 0.534 255 255 255
-0.307 -0.058 0.432 255 255 255
-0.307 -0.05 0.464 255 255 255
0.368 -0.087 0.905 255 255 255
-0.027 0.105 0.949 255 255 255
-0.083 -0.228 0.296 255 255 255
-0.422 0.209 0.885 255 255 255
0.161 -0.356 1.099 0 0 0
0.037 -0.431 1.113 255 255 255
-0.178 -0.089 0.519 255 255 255
0.175 0.143 0.939 0 0 0
0.111 0.154 0.305 255 255 255
-0.229 0.398 0.817 255 255 255
0.105 0.16 0.912 255 255 255
0.086 0.109 0.373 255 255 255
0.472 -1.009 1.44 255 255 255
0.283 0.051 0.983 255 255 255
0.07 0.094 0.956 255 255 255
0.031 0.17 0.317 255 255 255
0.504 0.128 0.965 255 255 255
0.103 0.145 0.934 255 255 255
0.487 0.09 0.973 255 255 255
0.112 0.11 0.351 255 255 255
0.042 -0.307 1.085 255 255 255
0.466 0.092 0.978 255 255 255
-0.413 0.06 0.684 255 255 255
-0.087 -0.124 0.462 255 255 255
-0.234 -0.235 0.469 255 255 255
-0.341 0.181 0.904 255 255 255
-0.078 -0.179 0.39 255 255 255
-0.229 -0.238 0.47 255 255 255
0.131 0.078 0.382 0 0 0
-0.5 0.16 0.898 255 255 255
0.207 -0.32 1.129 255 255 255
0.035 0.184 0.92 255 255 255
0.427 -0.331 1.023 255 255 255
-0.189 -0.266 0.456 255 255 255
-0.092 -0.198 0.347 255 255 255
-0.309 -0.161 0.497 0 0 0
-0.085 0.07 0.963 255 255 255
0.264 -0.695 1.264 255 255 255
-0.305 0.073 0.901 0 0 0
0.308 -0.334 1.013 255 255 255
-0.24 0.173 0.912 255 255 255
-0.089 0.105 0.948 255 255 255
-0.168 -0.132 0.434 255 255 255
-0.19 -0.029 0.696 255 255 255
0.329 -0.164 1.049 255 255 255
0.186 -0.363 0.961 255 255 255
-0.142 -0.118 0.447 255 255 255
0.133 0.131 0.332 255 255 255
0.005 0.201 0.913 0 0 0
-0.061 -0.191 0.353 255 255 255
-0.24 -0.088 0.421 255 255 255
-0.374 0.006 0.588 255 255 255
-0.226 0.057 0.96 255 255 255
0.216 -0.135 1.049 255 255 255
-0.286 -0.008 0.691 255 255 255
-0.282 0.062 0.909 255 255 255
-0.353 0.105 0.906 0 0 0
0.254 -0.157 1.058 255 255 255
-0.146 -0.152 0.447 255 255 255
0.146 -0.239 1.094 255 255 255
0.119 -0.541 1.166 255 255 255
-0.33 -0.16 0.494 255 255 255
0.065 0.173 0.525 255 255 255
0.127 0.117 0.343 255 255 255
0.057 0.157 0.305 255 255 255
-0.177 -0.271 0.431 255 255 255
-0.006 -0.861 1.34 255 255 255
0.258 -0.138 1.048 255 255 255
0.575 -1.075 1.376 255 255 255
0.005 -0.706 1.278 255 255 255
-0.148 -0.121 0.468 255 255 255
-0.212 0.402 0.818 255 255 255
0.133 0.111 0.348 255 255 255
0.215 -0.053 1.024 255 255 255
-0.102 -0.141 0.389 255 255 255
0.164 0.026 0.988 255 255 255
-0.029 -0.948 1.375 255 255 255
-0.004 0.058 0.973 255 255 255
-0.208 0.051 0.963 255 255 255
-0.212 -0.145 0.439 255 255 255
0.106 0.125 0.331 255 255 255
-0.183 0.344 0.842 255 255 255
-0.252 -0.23 0.452 255 255 255
-0.31 0.392 0.817 0 0 0
-0.08 -0.122 0.475 255 255 255
-0.22 -0.096 0.481 255 255 255
-0.096 -0.193 0.371 255 255 255
0.062 -0.086 1.033 255 255 255
-0.18 0.422 0.814 255 255 255
-0.126 -0.119 0.522 255 255 255
0.031 0.256 0.894 255 255 255
0.172 -0.126 1.046 255 255 255
-0.166 -0.273 0.473 255 255 255
-0.045 -0.863 1.336 255 255 255
0.333 -0.257 0.896 255 255 255
-0.248 0.055 0.954 255 255 255
-0.23 -0.115 0.423 255 255 255
0.507 -0.078 1.019 0 0 0
0.713 0.031 1.007 0 0 0
0.13 0.118 0.347 255 255 255
-0.27 0.24 0.881 255 255 255
0.077 0.119 0.507 0 0 0
-0.124 -0.016 0.896 255 255 255
-0.208 0.018 0.785 255 255 255
-0.201 -0.154 0.444 255 255 255
0.117 0.004 1 255 255 255
-0.069 -0.198 0.341 255 255 255
-0.148 -0.1 0.541 255 255 255
0.107 0.176 0.898 0 0 0
-0.083 -0.157 0.389 255 255 255
0.146 0.129 0.342 255 255 255
0.007 0.336 0.86 0 0 0
0.074 0.15 0.31 0 0 0
0.559 0.083 0.985 255 255 255
-0.038 -0.167 0.396 0 0 0
-0.032 0.018 0.987 255 255 255
0.219 -0.693 1.285 255 255 255
-0.155 0.355 0.84 255 255 255
-0.209 -0.097 0.488 255 255 255
0.261 -0.588 1.074 255 255 255
0.596 -0.824 1.368 255 255 255
0.082 0.172 0.907 255 255 255
-0.019 -0.067 1.021 255 255 255
-0.051 0.214 0.903 255 255 255
0.027 0.363 0.849 255 255 255
-0.345 0.376 0.819 0 0 0
-0.19 0.201 0.9 0 0 0
0.108 -0.532 1.161 255 255 255
0.419 -0.066 0.991 255 255 255
0.019 0.175 0.324 255 255 255
0.062 0.132 0.344 255 255 255
0.174 -0.218 1.089 255 255 255
-0.219 -0.244 0.471 255 255 255
0.162 -0.213 1.084 0 0 0
-0.105 0.139 0.933 255 255 255
-0.3 -0.168 0.501 0 0 0
-0.372 0.194 0.891 255 255 255
-0.081 0.066 0.965 255 255 255
0.119 0.143 0.319 0 0 0
0.22 -0.682 1.277 255 255 255
0.057 0.15 0.313 0 0 0
0.655 -0.902 1.314 255 255 255
-0.029 -0.189 0.405 255 255 255
-0.291 0.123 0.929 255 255 255
-0.098 0.117 0.941 255 255 255
0.603 -1.036 1.324 255 255 255
-0.02 -0.26 1.071 255 255 255
-0.131 0.155 0.924 255 255 255
-0.346 0.313 0.843 255 255 255
-0.029 -0.174 0.404 255 255 255
-0.281 -0.198 0.495 255 255 255
-0.455 0.111 0.768 255 255 255
-0.331 0.15 0.909 255 255 255
0.637 -0.896 1.372 255 255 255
0.152 -1.092 1.45 255 255 255
-0.139 -0.133 0.436 255 255 255
-0.25 -0.231 0.458 255 255 255
0.345 0.031 0.995 255 255 255
-0.014 -0.388 1.092 255 255 255
-0.111 -0.139 0.407 255 255 255
-0.442 0.087 0.777 255 255 255
-0.474 0.21 0.882 255 255 255
0.479 0.107 0.97 255 255 255
0.157 -0.573 1.202 255 255 255
-0.121 0.092 0.953 255 255 255
-0.453 0.173 0.895 0 0 0
0.126 -0.332 1.1 0 0 0
0.117 0.178 0.876 0 0 0
0.186 -0.339 1.145 0 0 0
-0.232 0.279 0.868 255 255 255
0.319 -0.076 1.039 255 255 255
0.145 0.094 0.366 255 255 255
0.106 0.085 0.4 255 255 255
-0.275 0.107 0.931 255 255 255
-0.186 -0.17 0.456 0 0 0
0.288 -0.004 1.01 255 255 255
0.34 -0.407 0.996 255 255 255
-0.39 -0.008 0.516 255 255 255
0.087 0.118 0.347 0 0 0
-0.145 0.275 0.874 255 255 255
0.147 -0.334 1.14 0 0 0
-0.136 0.278 0.873 255 255 255
-0.011 -0.674 1.262 255 255 255
0.055 -0.077 1.029 255 255 255
-0.242 0.305 0.857 255 255 255
0.145 -0.301 1.127 0 0 0
-0.149 -0.231 0.433 255 255 255
-0.393 0.258 0.864 255 255 255
-0.08 -0.182 0.382 255 255 255
-0.334 -0.158 0.494 255 255 255
0.013 0.172 0.333 255 255 255
-0.229 0.156 0.918 255 255 255
0.067 0.13 0.342 255 255 255
0.041 0.049 0.977 255 255 255
0.475 -0.036 0.995 255 255 255
0.093 0.101 0.448 255 255 255
0.126 0.161 0.314 255 255 255
-0.118 -0.124 0.507 255 255 255
-0.225 0.311 0.855 255 255 255
-0.304 -0.172 0.5 255 255 255
-0.213 0.049 0.964 255 255 255
-0.088 0.132 0.936 255 255 255
-0.22 -0.132 0.431 255 255 255
-0.322 -0.076 0.444 255 255 255
-0.087 0.192 0.911 255 255 255
0.006 -0.175 1.067 255 255 255
0.331 -0.271 0.95 255 255 255
-0.305 -0.038 0.528 255 255 255
0.344 -0.324 0.926 255 255 255
-0.006 0.399 0.834 0 0 0
-0.134 0.21 0.901 255 255 255
-0.396 0.29 0.851 255 255 255
-0.376 0.249 0.867 255 255 255
-0.123 -0.176 0.401 255 255 255
0.435 -0.008 0.987 255 255 255
-0.081 -0.191 0.361 255 255 255
0.053 -0.579 1.183 255 255 255
-0.121 0.423 0.818 255 255 255
0.617 -0.99 1.335 0 0 0
-0.362 -0.011 0.534 255 255 255
0.028 0.157 0.931 255 255 255
0.21 -0.243 1.095 255 255 255
-0.057 -0.157 0.389 0 0 0
0 -0.663 1.258 255 255 255
0.508 0.132 0.963 255 255 255
0.035 -0.127 1.048 255 255 255
0.089 -0.538 1.163 255 255 255
0.035 -0.677 1.266 255 255 255
0.059 0.14 0.332 255 255 255
-0.266 -0.008 0.663 255 255 255
-0.32 -0.092 0.447 255 255 255
0.061 0.138 0.333 255 255 255
-0.031 -0.457 1.122 255 255 255
0.279 -0.244 1.076 0 0 0
-0.065 -0.225 0.305 0 0 0
-0.161 -0.305 0.383 255 255 255
-0.174 -0.29 0.393 0 0 0
-0.116 0.148 0.929 255 255 255
-0.189 -0.285 0.382 0 0 0
0.06 0.128 0.394 255 255 255
-0.253 0.106 0.939 255 255 255
0.162 0.114 0.354 255 255 255
0.35 -0.237 1.031 255 255 255
-0.127 0.047 0.973 0 0 0
-0.336 0.323 0.841 255 255 255
0.049 0.122 0.947 255 255 255
-0.173 -0.162 0.45 0 0 0
0.661 -0.209 0.973 255 255 255
0.224 0.05 0.983 255 255 255
0.08 0.124 0.458 255 255 255
-0.316 0.244 0.876 255 255 255
0.366 -0.146 1.035 255 255 255
-0.199 -0.104 0.427 0 0 0
0.28 -0.242 1.079 0 0 0
0.02 0.326 0.866 0 0 0
0.642 -0.868 1.378 255 255 255
0.225 -0.19 1.074 255 255 255
-0.474 0.101 0.762 255 255 255
-0.127 -0.128 0.502 255 255 255
0.07 0.128 0.533 255 255 255
0.066 0.116 0.949 255 255 255
-0.124 -0.131 0.495 255 255 255
-0.08 0.27 0.882 255 255 255
-0.149 -0.293 0.428 255 255 255
-0.101 0.3 0.867 255 255 255
-0.263 -0.114 0.425 255 255 255
0.144 0.129 0.346 255 255 255
-0.252 0.093 0.944 255 255 255
0.036 0.077 0.962 255 255 255
-0.363 0.268 0.861 255 255 255
-0.374 -0.018 0.503 255 255 255
0.28 -0.736 1.306 255 255 255
-0.328 0.086 0.919 0 0 0
-0.169 -0.087 0.56 255 255 255
0.084 -0.584 1.187 255 255 255
-0.189 -0.279 0.404 255 255 255
-0.02 -0.292 1.072 255 255 255
-0.319 -0.046 0.498 255 255 255
-0.057 -0.175 0.395 255 255 255
0.473 0.086 0.978 255 255 255
-0.097 -0.144 0.387 255 255 255
0.311 0.051 0.986 255 255 255
-0.182 -0.282 0.407 255 255 255
0.03 -0.677 1.266 255 255 255
0.397 -0.215 0.894 255 255 255
-0.271 0.198 0.899 255 255 255
-0.266 -0.069 0.435 255 255 255
-0.452 0.151 0.901 0 0 0
0.268 -1.057 1.441 0 0 0
-0.347 -0.004 0.595 255 255 255
0.635 -0.101 1.038 255 255 255
0.049 -0.533 1.159 255 255 255
0.022 -0.342 1.076 0 0 0
-0.326 -0.074 0.446 255 255 255
-0.038 0.358 0.847 255 255 255
0.08 0.04 0.984 255 255 255
-0.081 -0.213 0.318 255 255 255
0.433 0.046 0.991 255 255 255
-0.012 -0.493 1.137 255 255 255
-0.111 -0.128 0.444 255 255 255
-0.186 -0.236 0.54 0 0 0
-0.16 -0.094 0.547 255 255 255
-0.267 -0.07 0.493 255 255 255
0.402 -0.219 0.904 255 255 255
-0.161 -0.302 0.385 255 255 255
-0.229 -0.07 0.524 255 255 255
0.123 0.091 0.963 255 255 255
-0.023 -0.732 1.287 255 255 255
-0.319 0.426 0.803 255 255 255
0.557 -0.117 1.063 255 255 255
0.279 -0.155 1.059 255 255 255
0.42 -0.012 0.99 255 255 255
0.24 0.06 0.979 255 255 255
-0.213 -0.073 0.545 255 255 255
-0.048 0.199 0.909 255 255 255
-0.2 -0.121 0.427 255 255 255
0.492 -0.324 0.996 255 255 255
-0.256 -0.221 0.469 255 255 255
0.476 -0.016 0.988 255 255 255
0.17 0.034 0.987 255 255 255
0.3 -0.304 0.918 255 255 255
0.002 0.302 0.875 255 255 255
0.119 -0.28 1.084 255 255 255
-0.142 -0.11 0.526 255 255 255
0.139 0.068 0.399 255 255 255
-0.16 0.379 0.83 0 0 0
-0.266 0.302 0.855 255 255 255
0.395 -0.424 1.001 255 255 255
-0.052 0.334 0.856 255 255 255
0.064 -0.348 1.081 0 0 0
0.238 -0.2 1.081 255 255 255
0.089 0.171 0.908 255 255 255
-0.173 -0.027 0.755 255 255 255
-0.162 -0.17 0.455 0 0 0
-0.363 0.055 0.803 255 255 255
-0.258 -0.219 0.469 255 255 255
-0.057 -0.13 0.469 255 255 255
-0.129 0.334 0.85 255 255 255
0.134 0.072 0.97 255 255 255
-0.372 -0.002 0.537 255 255 255
0.152 0.154 0.916 255 255 255
-0.182 0.352 0.839 255 255 255
0.162 -0.338 1.145 0 0 0
-0.412 0.193 0.894 0 0 0
0.078 0.13 0.334 255 255 255
-0.12 0.324 0.855 255 255 255
0.135 0.139 0.327 255 255 255
-0.008 -0.079 1.026 255 255 255
0.122 -0.291 1.089 0 0 0
0.607 -0.151 1.059 255 255 255
-0.086 -0.115 0.484 255 255 255
-0.233 -0.243 0.428 255 255 255
-0.044 -0.342 1.076 255 255 255
0.358 -0.153 0.639 255 255 255
0.447 0.074 0.985 0 0 0
0.191 -0.093 1.032 255 255 255
0.265 -0.056 1.028 255 255 255
0.066 -1.071 1.432 255 255 255
-0.05 -0.125 0.523 255 255 255
0.362 -0.251 1.03 255 255 255
0.018 0.171 0.924 255 255 255
-0.398 0.317 0.84 255 255 255
0.701 -0.098 1.036 255 255 255
-0.099 -0.092 0.522 255 255 255
0.45 -0.063 1.004 255 255 255
0.044 0.16 0.309 255 255 255
0.212 -1.109 1.461 255 255 255
0.304 -0.188 1.063 0 0 0
0.088 -0.19 1.076 255 255 255
0.252 -0.035 1.021 255 255 255
-0.031 0.106 0.949 255 255 255
-0.495 0.143 0.89 0 0 0
-0.071 -0.145 0.397 255 255 255
0.1 0.086 0.411 255 255 255
-0.055 -0.22 0.314 255 255 255
-0.21 -0.148 0.44 255 255 255
-0.087 0.028 0.926 0 0 0
-0.251 0.178 0.908 255 255 255
0.166 -0.282 1.117 255 255 255
0.05 0.363 0.852 255 255 255
-0.064 -0.208 0.328 255 255 255
-0.145 0.088 0.951 255 255 255
0.447 -0.475 0.98 255 255 255
-0.276 -0.138 0.445 0 0 0
-0.184 -0.266 0.458 255 255 255
-0.06 -0.051 0.729 255 255 255
-0.235 0.083 0.949 255 255 255
0.347 -0.102 1.032 0 0 0
-0.052 -0.245 1.074 255 255 255
-0.079 -0.14 0.427 255 255 255
-0.23 -0.123 0.426 255 255 255
-0.053 -0.208 0.344 255 255 255
0.43 -0.358 0.988 255 255 255
0.02 -0.065 1.022 255 255 255
0.219 -0.002 1.007 255 255 255
