ply
format ascii 1.0
comment Created by Open3D
element vertex 1577
property double x
property double y
property double z
property uchar red
property uchar green
property uchar blue
end_header
-0.016 -0.442 1.87 255 255 255
0.59 0.046 1.168 255 255 255
-1.241 -0.896 2.132 255 255 255
-1.094 -0.856 2.208 255 255 255
0.122 -0.589 1.865 255 255 255
-0.398 0.084 0.835 255 255 255
-0.385 -0.503 2.46 255 255 255
0.342 -0.806 1.668 255 255 255
-0.536 -1.157 2.376 255 255 255
0.282 -0.282 1.843 255 255 255
-0.654 -0.886 2.406 255 255 255
0.643 0.183 1.078 255 255 255
-0.814 -0.609 2.421 255 255 255
-0.917 0.033 2.576 255 255 255
-0.93 -1.042 2.228 255 255 255
-0.561 0.644 1.435 0 0 0
0.327 0.022 1.77 255 255 255
-0.967 -0.945 2.24 255 255 255
0.576 -0.032 1.188 255 255 255
0.068 -0.895 1.758 255 255 255
-0.648 -0.357 2.581 255 255 255
-0.726 0.525 1.812 0 0 0
0.145 -0.699 1.835 255 255 255
0.123 -0.016 2.064 255 255 255
0.015 -0.343 1.906 255 255 255
-0.429 -0.704 2.542 255 255 255
-0.314 0.144 0.66 255 255 255
0.355 0.049 1.697 255 255 255
-0.356 0.608 1.589 255 255 255
0.226 -0.656 1.885 255 255 255
-0.54 0.464 2.039 255 255 255
-0.893 -0.116 1.199 255 255 255
-0.532 -1.077 2.407 255 255 255
-0.552 0.182 2.41 255 255 255
-0.089 -1.771 2.368 255 255 255
0.445 -0.894 1.667 255 255 255
-0.477 0.03 0.785 255 255 255
0.593 0.114 1.172 255 255 255
0.019 -0.266 1.935 255 255 255
0.267 -0.979 1.741 255 255 255
-1.238 -0.813 2.009 255 255 255
-0.243 0.639 1.508 255 255 255
0.461 0.456 1.548 255 255 255
-0.019 -0.745 1.767 255 255 255
0.379 -0.078 1.617 255 255 255
-0.886 -0.869 2.307 255 255 255
-1.147 -0.517 1.96 0 0 0
-0.351 0.543 1.743 255 255 255
0.57 -0.002 1.206 255 255 255
-0.126 0.138 2.028 255 255 255
0.466 0.007 1.437 255 255 255
0.337 0.678 1.528 0 0 0
-0.372 0.65 1.449 0 0 0
-0.046 -0.468 1.85 255 255 255
0.655 0.058 1.021 255 255 255
-0.71 0.183 2.478 255 255 255
0.673 -0.436 1.989 255 255 255
0.4 -0.634 1.744 255 255 255
-0.448 -0.393 2.639 255 255 255
0.681 -0.351 1.08 255 255 255
0.253 -0.038 1.952 255 255 255
-0.035 -0.347 1.884 255 255 255
0.476 0.49 1.521 255 255 255
-0.074 -0.63 1.772 255 255 255
-0.605 -1.412 2.256 255 255 255
-0.856 -0.276 1.824 255 255 255
-1.049 -0.382 1.699 255 255 255
-0.924 -0.283 2.475 255 255 255
0.268 -0.778 1.783 255 255 255
0.326 -0.171 1.741 255 255 255
-1.036 -1.148 2.142 255 255 255
0.213 -0.463 1.951 255 255 255
0.471 -0.222 1.337 0 0 0
-0.629 -0.72 2.474 255 255 255
-0.466 0.573 1.686 255 255 255
0 -0.631 1.811 255 255 255
0.2 -1.291 1.811 255 255 255
0.298 -0.828 1.71 0 0 0
-0.063 -0.962 1.669 255 255 255
0.003 -0.086 1.995 255 255 255
-0.335 0.132 0.601 255 255 255
-0.746 0.227 2.509 255 255 255
-0.672 -0.884 2.397 255 255 255
0.43 -0.859 1.66 255 255 255
-0.123 0.507 1.946 255 255 255
0.455 0.651 1.568 255 255 255
-0.513 0.003 0.972 255 255 255
-0.963 -1.234 2.15 255 255 255
0.122 0.547 1.868 255 255 255
-0.094 -0.085 1.957 255 255 255
-0.026 0.341 2.123 255 255 255
0.626 0.119 1.101 255 255 255
0.181 -0.177 2.07 255 255 255
0.103 -0.491 1.89 255 255 255
0.288 -0.62 1.775 0 0 0
-0.127 0.703 1.328 255 255 255
-1.064 -0.587 2.153 0 0 0
0.589 -0.251 1.327 255 255 255
0.487 0.453 1.486 255 255 255
0.108 0.315 2.176 255 255 255
0.648 -0.093 0.992 255 255 255
-0.727 -0.638 2.451 255 255 255
0.623 0.208 1.125 255 255 255
-0.666 -0.391 2.56 255 255 255
-0.663 -0.972 2.381 255 255 255
-1.166 -0.909 2.152 0 0 0
0.51 0.001 1.34 255 255 255
-0.576 -0.908 2.435 255 255 255
0.623 0.008 1.09 255 255 255
0.283 -1.209 1.644 0 0 0
-0.602 -0.506 2.552 255 255 255
0.388 -0.384 1.771 0 0 0
0.636 -0.542 1.924 255 255 255
0.384 -1.173 1.566 0 0 0
-0.569 -0.473 2.581 255 255 255
-0.973 0.11 2.492 255 255 255
0.478 0.37 1.483 255 255 255
0.657 0.102 1.031 255 255 255
0.278 -0.138 1.876 255 255 255
0.638 0.2 1.094 255 255 255
-0.489 0.403 2.114 255 255 255
-0.617 -0.394 2.585 255 255 255
-0.324 0.638 1.503 255 255 255
-0.02 -0.09 1.992 255 255 255
0.061 0.465 1.786 255 255 255
0.11 -0.982 1.733 255 255 255
0.31 -0.803 1.674 0 0 0
-0.369 0.594 1.639 255 255 255
0.101 0.673 1.489 255 255 255
-0.531 -0.011 1.052 255 255 255
-0.684 -0.105 1.209 255 255 255
0.181 -0.246 2.06 255 255 255
-1.209 -0.503 1.912 255 255 255
-0.283 0.181 0.6 255 255 255
-0.459 -1.004 2.463 255 255 255
-0.306 0.21 0.675 255 255 255
0.643 0.208 1.081 255 255 255
-0.329 0.187 0.726 255 255 255
-0.504 0.492 1.928 0 0 0
0.41 -0.769 1.703 255 255 255
0.244 0.663 1.582 255 255 255
-0.43 -0.653 2.557 255 255 255
-0.966 -1.602 2.029 255 255 255
-0.347 -0.466 2.484 255 255 255
0.486 0.061 1.401 255 255 255
-0.591 -1.426 2.261 255 255 255
-0.025 0.099 2.058 255 255 255
0.399 0.224 1.632 255 255 255
-0.411 0.075 0.723 255 255 255
-0.132 -0.202 1.879 255 255 255
-0.609 -1.037 2.382 255 255 255
-0.298 -0.059 2.325 255 255 255
0.599 0.075 1.151 255 255 255
-0.533 -1.399 2.3 255 255 255
-0.154 0.346 2.07 255 255 255
-0.715 -1.001 2.344 255 255 255
-0.187 0.485 1.871 255 255 255
-0.525 0.565 1.708 255 255 255
0.487 -0.13 1.367 255 255 255
-0.756 -1.494 2.161 255 255 255
-0.761 -1.453 2.176 255 255 255
-1.133 -1.106 2.119 255 255 255
0.409 0.424 1.664 255 255 255
0.526 0.186 1.335 255 255 255
0.421 0.282 1.593 255 255 255
0.129 -0.622 1.853 0 0 0
0.592 -0.019 1.157 255 255 255
0.095 0.721 1.336 255 255 255
-0.984 -1.25 2.14 255 255 255
-0.799 -0.777 2.376 255 255 255
0.545 0.258 1.304 255 255 255
-0.055 0.234 2.09 255 255 255
0.311 0.635 1.667 255 255 255
-0.706 0.441 2.084 255 255 255
-0.241 -0.021 2.191 255 255 255
-0.977 -0.292 2.449 255 255 255
-0.102 -0.292 1.871 255 255 255
0.294 -0.668 1.752 0 0 0
-0.198 -0.104 2.198 255 255 255
0.409 -0.215 1.528 255 255 255
-0.996 -0.915 2.238 255 255 255
-1.206 -0.807 2.035 255 255 255
0.557 -0.093 1.221 255 255 255
0.51 -0.096 1.322 255 255 255
-0.779 -0.129 1.233 255 255 255
0.098 0.21 2.138 255 255 255
-0.064 0.338 2.104 255 255 255
0.357 0.248 1.744 255 255 255
-0.983 -0.267 1.567 0 0 0
-0.752 -1.007 2.322 255 255 255
-1.222 -0.531 1.911 255 255 255
-1.202 -0.508 1.918 0 0 0
0.23 -0.429 1.926 255 255 255
-0.684 -0.799 2.42 255 255 255
-0.034 -1.074 1.679 255 255 255
-0.827 -0.612 2.412 255 255 255
0.418 -0.09 1.531 255 255 255
-0.315 0.152 0.577 255 255 255
0.253 0.48 2.013 255 255 255
-1.235 -0.998 2.103 255 255 255
0.508 -0.096 1.325 255 255 255
-1.029 -1.496 2.038 0 0 0
0.265 -0.348 1.874 255 255 255
0.336 0.523 1.836 255 255 255
0.615 0.081 1.12 255 255 255
-0.958 -0.675 2.336 255 255 255
-1.026 -0.369 2.397 255 255 255
0.323 -0.256 1.739 255 255 255
-0.474 -1.371 2.336 255 255 255
-0.047 -0.143 1.954 255 255 255
0.575 0.141 1.218 255 255 255
-1.096 -0.872 2.207 255 255 255
-0.778 0.219 2.525 255 255 255
-0.052 -0.983 1.659 0 0 0
0.211 -1.16 1.805 0 0 0
0.328 0.535 1.852 255 255 255
0.394 0.136 1.621 255 255 255
-0.759 0.32 2.23 255 255 255
-0.682 -0.551 2.497 255 255 255
0.443 0.464 1.595 255 255 255
-0.419 0.062 0.711 255 255 255
-1.034 0.131 2.471 255 255 255
0.417 -0.562 1.751 255 255 255
0.076 0.227 2.14 255 255 255
-0.285 0.233 0.611 255 255 255
0.624 0.012 1.086 255 255 255
0.365 -0.139 1.643 255 255 255
0.015 0.557 1.85 255 255 255
-0.371 -0.479 2.472 255 255 255
0.411 -0.155 1.529 255 255 255
-1.094 -1.364 2.048 255 255 255
0.018 -0.533 1.856 255 255 255
0.583 -0.04 1.172 255 255 255
0.076 0.483 1.781 255 255 255
-0.012 -1.095 1.681 255 255 255
0.573 0.325 1.25 255 255 255
-0.143 -1.633 2.408 255 255 255
-0.439 0.199 2.661 255 255 255
-1.128 -0.587 2.011 255 255 255
0.555 0.526 1.341 255 255 255
0.048 -0.782 1.785 255 255 255
-0.425 0.705 1.27 255 255 255
0.454 -0.094 1.445 255 255 255
-0.781 -1.574 2.136 0 0 0
-0.196 -0.39 2.208 255 255 255
0.09 0.458 1.785 255 255 255
-0.919 -0.338 1.745 255 255 255
-0.394 -1.334 2.382 255 255 255
-0.968 -0.931 2.246 255 255 255
0.08 -0.419 1.908 255 255 255
-0.138 0.158 2.024 255 255 255
0.193 0.11 2.108 255 255 255
-0.707 0.034 2.653 255 255 255
-0.488 0.538 1.809 255 255 255
0.616 0.081 1.117 255 255 255
0.311 0.657 1.596 255 255 255
-0.43 0.484 1.873 255 255 255
0.622 -0.106 1.05 255 255 255
0.195 0.413 2.106 255 255 255
-0.338 0.122 0.72 255 255 255
0.603 0.161 1.158 255 255 255
0.197 -0.616 1.96 0 0 0
0.613 0.178 1.142 255 255 255
-0.414 -1.658 2.28 0 0 0
-0.699 -1.101 2.315 255 255 255
0.486 -0.177 1.359 255 255 255
-0.519 0.566 1.701 255 255 255
-1.032 0.105 2.468 0 0 0
-0.021 0.045 2.038 255 255 255
-0.26 -0.058 2.281 255 255 255
-0.268 -1.468 2.401 255 255 255
-0.811 0.188 2.524 255 255 255
-0.219 -0.834 2.229 255 255 255
0.223 0.033 2.038 255 255 255
0.27 0.243 1.98 255 255 255
0.485 0.035 1.4 255 255 255
-0.118 0.331 2.087 255 255 255
-0.104 -0.407 1.836 255 255 255
0.288 -0.284 1.834 255 255 255
0.599 0.129 1.16 255 255 255
0.502 0.197 1.386 255 255 255
0.086 -0.228 1.977 255 255 255
-0.171 -0.26 2.136 255 255 255
-0.219 -0.815 2.232 255 255 255
0.003 -0.228 1.947 255 255 255
-0.255 0.686 1.363 255 255 255
-0.135 0.831 2.077 255 255 255
0.61 -0.126 0.977 0 0 0
-0.053 -0.357 1.873 255 255 255
-0.968 -0.936 2.244 255 255 255
0.397 -0.802 1.686 255 255 255
0.534 -0.013 1.286 255 255 255
-0.387 0.093 0.653 255 255 255
0.341 -0.106 1.711 255 255 255
0.207 0.394 2.096 255 255 255
-0.751 -1.026 2.315 255 255 255
0.714 -0.258 1.105 255 255 255
-0.77 -0.773 2.389 255 255 255
-0.213 -0.53 2.179 255 255 255
0.476 0.468 1.515 255 255 255
-0.704 0.297 2.244 255 255 255
0 -0.545 1.843 255 255 255
0.342 -0.239 1.689 255 255 255
-0.861 -0.513 2.428 255 255 255
0.376 0.637 1.663 255 255 255
0.507 0.394 1.418 255 255 255
-0.371 -0.651 2.413 255 255 255
-0.583 -1.447 2.264 255 255 255
0.098 0.689 1.446 255 255 255
0.446 -1.174 1.571 0 0 0
0.529 0.39 1.363 255 255 255
0.53 -0.128 1.273 255 255 255
0.619 0.09 1.111 255 255 255
0.412 -0.959 1.646 255 255 255
-0.315 0.141 0.598 255 255 255
-0.268 0.588 1.691 255 255 255
0.195 -0.903 1.859 0 0 0
-0.873 -0.582 2.405 255 255 255
0.116 -0.428 1.913 255 255 255
-0.574 -0.043 1.135 255 255 255
-0.527 -1.067 2.412 255 255 255
-0.97 -0.296 2.447 255 255 255
0.05 -0.249 1.954 255 255 255
-0.558 -0.37 2.616 255 255 255
0.36 -0.176 1.65 255 255 255
0.442 0.112 1.511 255 255 255
-0.023 -0.498 1.845 255 255 255
0.096 -0.123 2.014 255 255 255
-0.682 -0.35 2.565 255 255 255
0.157 0.302 2.181 255 255 255
-0.915 -0.146 1.27 255 255 255
-0.54 -0.33 2.64 255 255 255
0.346 0.286 1.78 255 255 255
0.596 -0.036 1.142 255 255 255
-0.097 -1.015 1.665 255 255 255
-0.838 -0.588 2.416 255 255 255
-0.87 -0.165 1.332 255 255 255
0.67 -0.225 1.125 255 255 255
-0.127 -0.271 1.859 255 255 255
-0.77 -1.025 2.307 255 255 255
-0.402 0.686 1.338 255 255 255
0.018 -0.652 1.814 255 255 255
-0.4 -1.187 2.405 255 255 255
0.266 0.308 2.004 255 255 255
0.648 -0.16 1.074 255 255 255
0.038 -1.055 1.709 255 255 255
-0.064 0.492 2.076 255 255 255
-0.923 -0.373 1.766 255 255 255
-0.084 -0.75 1.73 255 255 255
-1.065 0.104 2.438 0 0 0
-0.864 -0.453 2.445 255 255 255
0.591 0.21 1.195 255 255 255
0.246 -0.735 1.834 255 255 255
0.486 0.539 1.51 255 255 255
0.447 0.6 1.592 255 255 255
-0.415 0.075 0.736 255 255 255
-0.051 0.41 2.098 255 255 255
0.714 -0.379 1.072 255 255 255
-0.075 0.925 2.082 255 255 255
-0.395 -1.498 2.331 255 255 255
-0.253 0.338 2.203 255 255 255
-0.632 -0.64 2.499 255 255 255
-0.271 0.6 1.638 255 255 255
-0.319 0.145 0.647 255 255 255
-0.37 -0.183 2.558 255 255 255
-0.848 -1.333 2.175 255 255 255
-0.034 -0.729 1.759 255 255 255
0.308 -0.759 1.678 0 0 0
-0.915 -1.112 2.212 255 255 255
-0.617 0.001 0.894 255 255 255
-0.71 -0.13 1.308 255 255 255
-0.311 0.147 0.583 255 255 255
0.382 -0.042 1.616 255 255 255
0.066 0.647 1.573 255 255 255
-0.905 -0.6 2.385 255 255 255
0.061 0.48 1.785 255 255 255
-1.19 -0.283 1.686 0 0 0
-0.057 -0.442 1.853 255 255 255
-0.989 -0.367 1.727 255 255 255
0.279 -0.606 1.795 0 0 0
-0.636 -0.212 2.632 255 255 255
-0.732 0.449 1.946 255 255 255
0.17 -0.676 1.864 255 255 255
-1.266 -0.892 2.113 255 255 255
0.092 -0.084 2.029 255 255 255
-0.095 -0.836 1.69 255 255 255
-0.517 -0.713 2.524 255 255 255
-0.39 0.09 0.821 255 255 255
-0.568 -1.601 2.227 255 255 255
0.579 0.302 1.234 255 255 255
-0.607 0.452 2.012 255 255 255
0.29 -0.606 1.769 0 0 0
-0.257 0.125 2.38 255 255 255
-0.631 -0.409 2.573 255 255 255
-0.472 0.034 0.968 255 255 255
0.004 0.229 2.116 255 255 255
-0.373 0.479 1.892 255 255 255
0.635 -0.069 1.05 255 255 255
0.415 0.386 1.637 255 255 255
0.501 -0.425 1.837 255 255 255
0.621 0.022 1.092 255 255 255
0.434 -0.243 1.352 0 0 0
-0.213 0.525 1.815 0 0 0
-0.088 -0.209 1.909 255 255 255
0.139 0.119 2.194 255 255 255
-0.999 -0.185 2.47 255 255 255
-1.194 -0.942 2.142 255 255 255
0.606 0.224 1.163 255 255 255
-1.369 -0.65 1.994 255 255 255
-0.52 -1.484 2.281 255 255 255
-0.68 -0.815 2.42 255 255 255
0.547 -0.063 1.246 255 255 255
-0.363 -0.624 2.428 255 255 255
0.407 -0.495 1.773 255 255 255
0.204 -0.26 2.002 255 255 255
-0.405 0.08 0.649 0 0 0
-0.063 -0.718 1.752 255 255 255
0.038 -0.535 1.864 255 255 255
-0.701 0.282 2.236 255 255 255
-0.468 -0.021 2.741 255 255 255
0.518 0.229 1.358 255 255 255
-0.871 -0.218 2.519 255 255 255
0.35 0.461 1.794 255 255 255
-0.374 0.069 2.626 255 255 255
0.565 0.402 1.284 255 255 255
-0.642 -0.095 1.225 255 255 255
-0.458 0.627 1.506 255 255 255
-0.797 -1.415 2.169 255 255 255
-0.615 0.478 1.934 255 255 255
-0.961 -0.82 2.285 255 255 255
-0.241 -1.481 2.402 255 255 255
0.046 0.484 1.773 255 255 255
0.485 -0.144 1.369 255 255 255
0.383 0.47 1.736 255 255 255
-0.043 -0.226 1.926 255 255 255
0.67 -0.196 1.135 255 255 255
-0.454 0.052 0.959 255 255 255
-0.223 -0.286 2.311 255 255 255
0.602 0.368 1.2 255 255 255
0.324 0.004 1.773 255 255 255
0.534 0.472 1.376 255 255 255
-0.114 0.713 1.308 255 255 255
0.065 -0.447 1.89 255 255 255
0.102 -0.865 1.767 255 255 255
-0.389 0.085 0.676 255 255 255
-0.851 -0.778 2.352 255 255 255
0.681 -0.424 1.075 255 255 255
-0.281 -1.741 2.308 255 255 255
0.665 0.025 1.002 255 255 255
-0.082 -0.553 1.801 255 255 255
-0.876 -0.503 2.427 255 255 255
-0.988 -0.872 2.257 255 255 255
0.577 0.532 1.298 255 255 255
0.021 0.597 1.754 255 255 255
-0.439 -0.421 2.613 255 255 255
-0.722 -0.796 2.403 255 255 255
-0.999 -0.19 2.469 255 255 255
0.618 0.306 1.152 255 255 255
0.086 -0.807 1.782 255 255 255
-0.621 -0.053 2.69 255 255 255
-0.127 0.446 2.08 255 255 255
0.083 -0.647 1.831 255 255 255
0.514 0.568 1.439 255 255 255
-0.589 -0.01 0.91 0 0 0
-0.238 -1.182 2.292 255 255 255
0.279 0.586 1.826 255 255 255
-0.017 0.263 2.119 255 255 255
-0.345 0.671 1.39 255 255 255
-0.512 -0.279 2.669 255 255 255
0.413 -0.558 1.751 255 255 255
0.592 0.473 1.256 255 255 255
0.368 0.442 1.776 255 255 255
0.381 -0.527 1.769 255 255 255
-0.404 0.073 0.742 255 255 255
0.022 0.567 1.842 255 255 255
-0.277 0.197 0.561 255 255 255
0.509 -0.049 1.337 255 255 255
-0.119 0.025 1.988 255 255 255
-0.889 -0.897 2.293 255 255 255
-0.483 -1.608 2.261 255 255 255
1.244 -0.506 2.336 255 255 255
0.186 -0.582 1.978 0 0 0
0.234 -0.226 1.949 255 255 255
0.66 0.014 1.008 255 255 255
0.112 -0.41 1.92 255 255 255
-0.067 -0.545 1.804 255 255 255
-0.511 0.681 1.333 255 255 255
-0.566 -1.098 2.383 255 255 255
-0.34 0.348 0.784 0 0 0
0.123 -0.444 1.911 255 255 255
0.433 -0.148 1.481 255 255 255
0.125 0.472 1.809 255 255 255
0.384 0.242 1.673 255 255 255
-0.76 -1.376 2.206 255 255 255
-0.297 -1.735 2.309 255 255 255
0.303 -0.158 1.8 255 255 255
-0.021 0.373 2.035 255 255 255
0.401 -0.544 1.77 255 255 255
-0.205 -1.174 2.313 255 255 255
0.69 -0.367 1.067 255 255 255
0.164 -0.993 1.742 255 255 255
0.298 0.443 1.904 255 255 255
-0.291 0.169 0.614 0 0 0
0.636 -0.027 1.057 255 255 255
0.125 0.539 1.853 255 255 255
-0.663 0.14 2.631 255 255 255
-0.512 0.035 0.757 255 255 255
-0.465 0.053 0.678 255 255 255
-0.415 0.627 1.523 255 255 255
-0.178 -0.469 2.194 255 255 255
0.306 -1.2 1.593 0 0 0
-0.4 0.507 1.841 255 255 255
-0.824 -0.573 2.424 255 255 255
-0.19 -0.786 2.236 0 0 0
-0.563 -0.012 0.918 255 255 255
-0.804 -1.233 2.225 255 255 255
-0.392 0.696 1.306 255 255 255
0.625 -0.082 1.071 255 255 255
-0.005 0.945 2.094 255 255 255
-0.352 0.665 1.413 255 255 255
-0.925 -0.303 1.77 255 255 255
-0.628 0.425 2.043 255 255 255
-0.794 -1.194 2.243 255 255 255
0.255 -0.065 1.94 255 255 255
0.649 -0.043 1.027 255 255 255
-0.288 0.607 1.614 255 255 255
-1.049 -0.849 2.234 255 255 255
-0.384 0.087 0.68 255 255 255
-0.698 -0.329 2.565 255 255 255
-1.104 -0.531 1.996 255 255 255
-0.796 -0.713 2.397 255 255 255
-0.797 -1.394 2.176 255 255 255
-0.991 -0.093 2.509 255 255 255
0.714 -0.194 1.051 255 255 255
0.46 0.245 1.496 255 255 255
0.02 0.705 1.375 255 255 255
0.604 -0.559 1.915 255 255 255
-0.267 0.3 2.332 255 255 255
0.627 0.252 1.126 255 255 255
-0.427 0.593 1.628 255 255 255
-0.303 0.284 2.389 255 255 255
-0.505 -1.479 2.286 255 255 255
0.315 -1.101 1.592 255 255 255
0.279 0.156 1.937 255 255 255
0.018 -0.541 1.855 255 255 255
-0.746 -1.551 2.159 255 255 255
0.536 0.501 1.376 255 255 255
-0.004 -0.974 1.698 255 255 255
0.58 0.008 1.185 255 255 255
0.594 -0.449 1.987 255 255 255
-0.801 0.085 2.569 255 255 255
-0.533 -1.357 2.314 255 255 255
0.148 -0.063 2.128 255 255 255
-0.252 0.585 1.704 255 255 255
0.601 -0.08 1.122 255 255 255
0.314 -0.242 1.767 255 255 255
-0.589 -1.145 2.353 255 255 255
-1.078 -0.24 2.42 255 255 255
0.671 -0.116 0.939 255 255 255
0.364 -1.033 1.602 255 255 255
0.446 -0.026 1.474 255 255 255
0.676 -0.38 1.082 255 255 255
-0.333 0.334 2.328 255 255 255
-1.016 -1.143 2.163 255 255 255
-0.843 0.009 1.85 255 255 255
-1.163 -0.545 1.955 255 255 255
-0.212 0.7 1.333 255 255 255
-0.753 0.47 1.939 0 0 0
0.379 0.348 1.716 255 255 255
-0.066 -0.127 1.948 255 255 255
0.666 -0.506 1.942 255 255 255
-0.016 -1.596 2.267 255 255 255
0.6 -0.014 1.137 255 255 255
-0.102 -0.062 1.961 255 255 255
0.424 -0.156 1.503 255 255 255
-0.434 0.471 1.953 255 255 255
0.228 -0.823 1.859 255 255 255
0.552 0.58 1.363 255 255 255
-0.456 0.68 1.344 255 255 255
0.064 -0.557 1.856 255 255 255
-0.821 -0.265 1.807 255 255 255
-0.032 0.965 2.082 255 255 255
0.159 -0.297 2.038 255 255 255
-0.511 0.585 1.631 255 255 255
0.465 0.55 1.528 255 255 255
-0.406 0.083 0.662 255 255 255
0.419 -0.945 1.651 255 255 255
-0.707 0.465 1.949 255 255 255
-0.212 -1.06 2.311 255 255 255
0.635 -0.044 1.055 255 255 255
-0.972 -1.418 2.084 255 255 255
-0.843 -0.602 2.41 255 255 255
0.28 -0.145 1.868 255 255 255
0.064 0.444 1.776 255 255 255
0.257 0.084 1.979 255 255 255
-0.167 0.358 2.066 255 255 255
-0.407 0.073 0.799 255 255 255
-0.447 0.037 0.846 255 255 255
0.654 0.112 1.041 255 255 255
0.256 -0.297 1.897 255 255 255
-0.958 -0.635 2.344 255 255 255
-0.508 0.604 1.579 255 255 255
0.08 0.693 1.442 255 255 255
0.442 -0.147 1.465 255 255 255
0.339 -0.113 1.717 255 255 255
0.05 0.6 1.751 255 255 255
-0.341 -0.842 2.371 255 255 255
-0.364 0.105 0.639 255 255 255
0.422 -0.924 1.653 255 255 255
0.505 0.334 1.413 255 255 255
-0.972 -1 2.223 255 255 255
-0.835 -0.469 2.455 255 255 255
-0.443 0.694 1.304 255 255 255
-0.199 -1.006 2.291 255 255 255
-0.67 -0.064 2.662 255 255 255
-0.638 -1.084 2.353 255 255 255
0.442 -0.802 1.698 255 255 255
-0.148 0.242 2.044 255 255 255
-0.888 -0.351 1.761 255 255 255
-0.507 -0.771 2.516 255 255 255
0.374 -0.068 1.626 255 255 255
-0.971 -1.128 2.18 255 255 255
-0.468 0.569 1.707 255 255 255
0.346 -1.141 1.562 0 0 0
-0.308 0.543 1.747 255 255 255
-0.634 0.007 2.701 255 255 255
-0.626 0.144 2.71 255 255 255
-0.16 -1.707 2.38 255 255 255
-0.211 0.667 1.429 255 255 255
0.346 0.332 1.792 255 255 255
-0.311 0.605 1.606 255 255 255
-0.389 -0.367 2.502 255 255 255
-0.052 -0.874 1.708 255 255 255
0.549 0.003 1.251 255 255 255
0.296 -1.129 1.635 255 255 255
-0.677 -1.296 2.269 255 255 255
0.336 -0.294 1.689 0 0 0
-0.855 -0.777 2.348 255 255 255
-0.094 0.139 2.041 255 255 255
0.579 0.064 1.194 255 255 255
-0.474 -0.935 2.475 255 255 255
0.29 -0.029 1.861 255 255 255
0.285 -0.681 1.767 0 0 0
-0.993 -0.449 2.389 255 255 255
-0.77 -1.441 2.176 255 255 255
-0.518 -0.356 2.636 255 255 255
0.026 -0.527 1.863 255 255 255
0.041 -0.738 1.8 255 255 255
0.34 0.674 1.544 255 255 255
0.056 -0.658 1.828 255 255 255
0.17 0.563 1.893 255 255 255
0.102 0.228 2.146 255 255 255
-0.666 -0.741 2.447 255 255 255
-0.359 0.104 0.695 255 255 255
-0.808 -0.152 2.569 255 255 255
-0.719 0.488 1.918 0 0 0
0.076 -1.048 1.736 255 255 255
0.042 -0.282 1.938 255 255 255
-0.882 -0.015 2.575 255 255 255
-0.878 -0.562 2.408 255 255 255
-0.34 0.167 0.745 255 255 255
0.347 -0.254 1.676 255 255 255
0.459 -0.503 1.782 255 255 255
0.655 0.056 1.022 255 255 255
0.246 0.635 1.655 255 255 255
0.485 -0.065 1.382 255 255 255
0.336 0.499 1.836 255 255 255
-0.711 -0.272 2.576 255 255 255
-0.642 -0.588 2.505 255 255 255
0.022 0.968 2.111 255 255 255
0.025 0.441 1.779 255 255 255
0.241 0.552 1.934 255 255 255
0.257 0.319 2.028 255 255 255
0.481 0.576 1.497 255 255 255
-0.55 -0.032 2.729 255 255 255
-0.141 -0.121 1.906 255 255 255
-0.679 -0.506 2.515 255 255 255
0.213 0.612 1.743 255 255 255
-0.367 -0.344 2.526 255 255 255
0.445 -0.238 1.408 0 0 0
-0.383 0.358 2.121 255 255 255
-0.581 -0.944 2.423 255 255 255
-1.19 -0.383 1.644 255 255 255
0.666 0.108 1.014 255 255 255
-0.626 -0.012 0.914 0 0 0
0.508 0.091 1.359 255 255 255
0.038 0.635 1.665 255 255 255
0.592 0.353 1.22 255 255 255
-0.82 -0.843 2.343 255 255 255
0.463 0.148 1.463 255 255 255
-0.446 -1.508 2.309 255 255 255
0.114 -0.904 1.764 255 255 255
0.608 -0.451 1.976 255 255 255
-0.034 -0.615 1.8 255 255 255
-0.586 -0.943 2.421 255 255 255
-0.094 -1.727 2.389 0 0 0
0.045 0.1 2.085 255 255 255
0.194 0.425 2.099 255 255 255
-0.731 -1.286 2.251 255 255 255
0.235 0.245 2.063 255 255 255
0.312 -0.781 1.671 255 255 255
-0.591 -1.594 2.214 255 255 255
-0.544 -0.883 2.462 255 255 255
-0.584 -0.075 2.7 255 255 255
0.537 0.43 1.359 255 255 255
-0.634 -0.16 2.649 255 255 255
-1.429 -0.519 2.009 0 0 0
-0.311 0.694 1.322 255 255 255
0.578 0.001 1.186 255 255 255
0.558 0.395 1.305 255 255 255
-0.653 -0.728 2.459 255 255 255
-0.063 -0.975 1.667 255 255 255
-1.066 -0.491 2.343 255 255 255
0.573 -0.035 1.194 255 255 255
0.285 -0.455 1.813 0 0 0
0.449 -0.22 1.421 0 0 0
-0.635 -1.411 2.249 255 255 255
-1.215 -0.273 1.6 255 255 255
0.412 0.261 1.613 255 255 255
-0.673 -0.054 1.049 255 255 255
-0.395 0.084 0.677 255 255 255
-1.054 -0.815 2.241 255 255 255
-0.176 -0.278 2.142 255 255 255
-0.345 -1.488 2.362 255 255 255
-0.999 0.038 2.53 255 255 255
0.27 -0.661 1.802 0 0 0
-0.794 -0.14 1.285 255 255 255
-0.023 -0.395 1.869 255 255 255
-0.217 -0.572 2.164 255 255 255
0.087 -0.611 1.845 255 255 255
0.514 -0.021 1.327 255 255 255
-0.197 0.684 1.379 255 255 255
-0.248 -1.545 2.386 255 255 255
-1.052 -0.985 2.19 255 255 255
0.57 0.533 1.311 255 255 255
0.28 -1.213 1.649 0 0 0
-0.296 -1.644 2.333 255 255 255
0.107 0.694 1.428 255 255 255
0.345 0.317 1.792 255 255 255
-0.55 -0.025 1.078 255 255 255
0.21 -0.381 1.971 255 255 255
0.05 0.634 1.624 255 255 255
0.684 -0.206 1.109 255 255 255
0.095 -0.205 1.987 255 255 255
-0.69 0.226 2.286 255 255 255
-0.07 0.178 2.064 255 255 255
0.104 -1.169 1.866 255 255 255
0.194 -0.263 2.025 255 255 255
0.393 -0.051 1.592 255 255 255
0.388 0.594 1.716 255 255 255
-0.703 0.124 2.615 255 255 255
-0.487 0.581 1.649 255 255 255
0.403 -0.696 1.727 255 255 255
0.605 -0.126 1.001 0 0 0
0.452 -0.232 1.316 0 0 0
0.394 -0.019 1.594 255 255 255
-0.539 -0.017 1.021 255 255 255
0.413 -0.009 1.554 255 255 255
-0.845 -0.676 2.388 255 255 255
0.18 -0.618 1.953 0 0 0
0.21 -1.139 1.804 0 0 0
-0.091 -0.8 1.703 255 255 255
-0.337 -0.525 2.473 255 255 255
0.093 0.681 1.467 255 255 255
0.635 -0.021 1.06 255 255 255
0.29 -0.877 1.716 0 0 0
-1.014 -0.374 1.713 255 255 255
-0.106 -0.583 1.762 255 255 255
0.492 -0.233 1.311 255 255 255
-0.814 -0.868 2.336 255 255 255
-0.377 0.627 1.521 255 255 255
-0.703 -1.402 2.221 255 255 255
0.11 -0.236 1.977 255 255 255
0.383 0.377 1.715 255 255 255
0.676 0.086 0.99 255 255 255
-0.469 0.332 2.111 255 255 255
-1.054 -0.467 2.357 255 255 255
0.578 -0.476 1.959 255 255 255
0.357 -0.801 1.672 255 255 255
-0.425 -1.412 2.347 255 255 255
-0.604 -0.761 2.471 255 255 255
0.261 -0.537 1.843 255 255 255
-0.818 -0.35 2.5 255 255 255
-0.581 -0.426 2.591 255 255 255
0.397 -0.551 1.769 255 255 255
0.46 0.049 1.457 255 255 255
-0.999 -0.36 2.414 255 255 255
0.48 -0.225 1.279 255 255 255
0.665 0.135 1.024 255 255 255
-0.382 0.098 0.813 255 255 255
-0.727 -1.104 2.302 255 255 255
-0.058 -0.184 1.935 255 255 255
-0.766 0.407 2.034 255 255 255
-0.946 -0.864 2.277 255 255 255
-0.021 0.12 2.067 255 255 255
-0.218 -1.756 2.333 255 255 255
-0.292 0.698 1.314 255 255 255
0.217 -0.552 1.929 255 255 255
0.535 -0.281 1.424 255 255 255
0.286 0.027 1.881 255 255 255
-0.317 -0.884 2.326 255 255 255
-1.03 0.028 2.521 255 255 255
0.067 -1.007 1.707 0 0 0
0.007 -0.422 1.887 255 255 255
0.376 -0.156 1.613 255 255 255
0.329 -0.532 1.751 255 255 255
-1.091 -0.154 2.441 255 255 255
-0.632 -0.285 2.611 255 255 255
0.164 -0.915 1.775 255 255 255
0.131 -0.433 1.915 255 255 255
-0.653 0.557 1.718 255 255 255
-0.792 -1.41 2.172 255 255 255
0.445 0.607 1.185 255 255 255
-1.238 -0.962 2.108 255 255 255
-0.031 -0.278 1.91 255 255 255
0.51 -0.101 1.322 255 255 255
-0.91 0.23 2.502 255 255 255
0.508 0.515 1.454 255 255 255
-1.096 -0.215 1.537 255 255 255
-0.649 -0.663 2.479 255 255 255
-0.151 0.598 1.685 255 255 255
-0.089 0.585 1.706 255 255 255
-0.205 0.656 1.46 0 0 0
0.352 -1.03 1.6 255 255 255
-0.121 -1.64 2.409 255 255 255
0.272 0.329 1.987 255 255 255
0.679 -0.063 0.946 255 255 255
0.052 -0.881 1.757 255 255 255
-0.942 0.164 2.53 255 255 255
0.045 -0.884 1.754 255 255 255
-1.266 -0.821 1.976 255 255 255
0.369 -0.873 1.654 255 255 255
-0.728 -0.246 2.577 255 255 255
-0.956 -0.275 1.558 0 0 0
0.368 0.409 1.764 255 255 255
-0.652 -0.986 2.375 255 255 255
-0.416 0.065 0.695 255 255 255
-0.323 0.315 0.73 255 255 255
0.083 -0.996 1.718 0 0 0
0.125 -0.659 1.841 255 255 255
-0.138 -0.286 1.858 255 255 255
-0.604 0.262 2.37 255 255 255
-1.132 -0.508 1.964 0 0 0
0.003 0.708 1.354 255 255 255
0.187 0.596 1.779 255 255 255
-0.774 -0.281 2.545 255 255 255
-0.258 -1.148 2.302 255 255 255
0.676 0.016 0.975 255 255 255
0.445 0.397 1.574 255 255 255
0.301 0.611 1.743 255 255 255
0.531 0.299 1.341 255 255 255
-0.029 0.6 1.727 255 255 255
0.093 0.662 1.529 255 255 255
-0.644 -0.459 2.553 255 255 255
-0.463 -1.303 2.362 255 255 255
-0.949 -0.763 2.31 255 255 255
0.215 -0.222 1.99 255 255 255
0.661 -0.545 1.947 255 255 255
-0.106 -0.838 1.702 255 255 255
0.232 -0.145 1.973 255 255 255
-0.819 -0.957 2.309 255 255 255
0.541 0.463 1.354 255 255 255
0.244 -0.905 1.802 255 255 255
-0.774 -0.823 2.373 255 255 255
-0.708 -0.635 2.463 255 255 255
-0.545 -0.015 0.988 255 255 255
0.187 -0.75 1.911 0 0 0
-1.314 -0.516 1.909 0 0 0
-0.562 0.272 2.381 255 255 255
-0.93 -0.276 1.58 0 0 0
0.17 -1.291 1.868 255 255 255
0.622 0.117 1.105 255 255 255
-0.385 -1.712 2.28 0 0 0
-0.61 -1.063 2.375 255 255 255
0.258 -1.181 1.709 255 255 255
-0.572 -0.012 0.912 255 255 255
-0.015 0.573 1.812 255 255 255
0.392 0.116 1.627 255 255 255
0.14 -1.322 1.932 255 255 255
-0.806 0.199 2.527 255 255 255
-0.684 -1.365 2.248 255 255 255
0.579 0.13 1.208 255 255 255
0.395 0.41 1.699 255 255 255
-0.647 -1.057 2.354 255 255 255
-0.37 -1.423 2.372 255 255 255
-0.791 0.091 2.572 255 255 255
-0.544 0.014 0.849 255 255 255
-0.574 0.552 1.745 255 255 255
0.362 0.694 1.485 255 255 255
-0.818 0.064 2.568 255 255 255
0.503 0.183 1.388 255 255 255
0.289 -0.447 1.795 0 0 0
0.431 0.37 1.593 255 255 255
0.567 0.346 1.268 255 255 255
-1.039 -0.623 2.311 255 255 255
-0.595 0.602 1.575 255 255 255
-0.138 0.695 1.351 255 255 255
-0.886 -0.344 1.768 255 255 255
-0.264 -1.603 2.357 255 255 255
-0.48 0.025 0.945 255 255 255
-0.065 0.025 2.013 255 255 255
0.129 0.677 1.442 255 255 255
0.578 0.162 1.216 255 255 255
0.403 -0.22 1.542 255 255 255
-0.016 -0.279 1.918 255 255 255
0.64 0.105 1.07 255 255 255
-0.047 -0.169 1.944 255 255 255
-1.109 -0.275 1.693 0 0 0
-0.289 0.175 0.601 255 255 255
0.6 0.34 1.201 255 255 255
-0.814 -1.61 2.101 255 255 255
-1.095 -0.298 1.668 0 0 0
-0.329 0.175 2.563 255 255 255
-0.825 -0.465 2.46 255 255 255
0.625 -0.058 1.073 255 255 255
0.3 -0.828 1.702 0 0 0
-1.062 -0.385 2.385 255 255 255
0.283 -0.359 1.791 0 0 0
-0.61 0.26 2.355 255 255 255
0.372 -1.024 1.609 255 255 255
-0.118 -0.371 1.826 255 255 255
0.196 -0.865 1.885 0 0 0
-0.201 0.463 1.896 255 255 255
0.418 0.647 1.622 255 255 255
0.491 -0.109 1.361 255 255 255
0.322 -0.72 1.688 255 255 255
-0.585 -1.188 2.345 255 255 255
0.504 0.444 1.438 255 255 255
-0.054 -0.295 1.896 255 255 255
-0.345 0.17 0.774 255 255 255
0.053 0.702 1.381 255 255 255
0.457 0.381 1.534 255 255 255
0.484 -0.048 1.388 255 255 255
0.38 0.659 1.592 255 255 255
0.317 -1.081 1.596 0 0 0
0.327 -0.073 1.752 255 255 255
0.238 0.106 2.026 255 255 255
0.173 -0.857 1.801 255 255 255
0.419 0.045 1.549 255 255 255
0.363 -0.555 1.749 0 0 0
0.606 0.226 1.163 255 255 255
-0.122 0.606 1.678 255 255 255
-1.129 -0.336 1.649 255 255 255
-0.912 -0.25 1.58 0 0 0
-0.671 -1.669 2.148 255 255 255
-0.56 0.252 2.376 255 255 255
0.229 -1.188 1.776 255 255 255
0.003 -0.232 1.943 255 255 255
0.088 -1.058 1.744 255 255 255
0.643 -0.101 1.001 255 255 255
0.473 0.526 1.539 255 255 255
-0.976 -1.004 2.218 255 255 255
-0.328 0.147 0.6 255 255 255
0.472 -0.181 1.39 255 255 255
-0.885 -0.052 2.565 255 255 255
-0.259 -0.21 2.348 255 255 255
-0.33 0.181 0.72 255 255 255
0.529 -0.257 1.393 255 255 255
0.117 0.097 2.107 255 255 255
-0.366 0.675 1.374 255 255 255
-0.635 -1.592 2.193 0 0 0
0.383 0.001 1.621 255 255 255
-0.427 0.053 0.749 255 255 255
-0.679 -0.248 2.6 255 255 255
0.412 0.339 1.63 255 255 255
-0.703 -0.028 0.93 255 255 255
0.544 -0.159 1.213 255 255 255
0.627 -0.093 1.064 255 255 255
0.523 -0.051 1.303 255 255 255
-0.561 0.313 2.395 255 255 255
0.49 -0.294 1.492 255 255 255
0.412 0.451 1.672 255 255 255
0.181 -0.989 1.766 255 255 255
0.538 -0.029 1.274 255 255 255
-0.717 0.55 1.729 0 0 0
-0.615 -0.134 2.665 255 255 255
-0.436 0.415 2.092 255 255 255
-0.892 0.186 2.55 255 255 255
-0.406 0.662 1.413 255 255 255
-0.871 0.017 2.593 255 255 255
-0.955 -1.387 2.112 255 255 255
-0.772 -0.184 2.579 255 255 255
0.103 -0.498 1.887 255 255 255
0.038 -1.433 2.163 255 255 255
0.612 0.195 1.144 255 255 255
0.141 -0.341 1.953 255 255 255
0.492 0.365 1.445 255 255 255
-0.872 -0.329 2.482 255 255 255
-0.038 -0.476 1.85 255 255 255
0.402 -0.939 1.643 255 255 255
-1.015 -0.175 2.467 255 255 255
-0.433 0.044 0.766 255 255 255
-0.934 -1.041 2.226 255 255 255
0.703 -0.171 1.065 255 255 255
-0.727 -1.038 2.322 255 255 255
0.233 -0.559 1.894 255 255 255
-0.532 0.571 1.678 255 255 255
-0.495 0.03 0.779 255 255 255
-0.378 -0.421 2.49 255 255 255
0.583 0.401 1.245 255 255 255
0.251 -0.092 1.936 255 255 255
-0.511 -0.316 2.662 255 255 255
-0.567 0.537 1.804 255 255 255
-0.505 0.685 1.314 255 255 255
-0.655 -0.857 2.418 255 255 255
0.082 -0.819 1.772 255 255 255
0.311 0.149 1.843 255 255 255
-0.578 -0.492 2.568 255 255 255
-1.085 -1.261 2.096 255 255 255
-0.399 0.078 0.787 255 255 255
0.38 0.374 1.719 255 255 255
0.389 -0.55 1.767 255 255 255
-0.066 0.169 2.062 255 255 255
-1.127 -1.066 2.132 255 255 255
-0.079 0.912 2.074 255 255 255
-0.105 -0.107 1.944 255 255 255
0.098 -0.73 1.809 255 255 255
-0.577 -0.39 2.602 255 255 255
-0.996 -0.77 2.286 255 255 255
0.584 -0.045 1.169 255 255 255
-0.008 -0.485 1.856 255 255 255
0.125 0.068 2.101 255 255 255
0.537 0.322 1.336 255 255 255
-0.752 -1.455 2.182 255 255 255
0.658 -0.187 1.147 255 255 255
0.492 0.592 1.482 255 255 255
-0.057 -0.353 1.871 255 255 255
-0.896 -0.693 2.359 255 255 255
-0.817 -1.085 2.265 255 255 255
-0.196 -0.263 2.165 255 255 255
-0.239 -0.093 2.251 255 255 255
0.066 -0.284 1.95 255 255 255
0.384 -0.454 1.798 255 255 255
-0.695 -1.214 2.282 255 255 255
0.455 -1.08 1.602 255 255 255
-0.247 0.454 1.955 255 255 255
-0.857 0.023 2.601 255 255 255
-0.5 0.702 1.273 255 255 255
0.463 0.309 1.499 255 255 255
-0.42 0.063 0.725 0 0 0
0.178 -0.503 2 0 0 0
-0.027 -0.322 1.893 255 255 255
0.167 -1.229 1.858 255 255 255
-0.097 0.518 1.987 255 255 255
-0.764 -1.393 2.193 255 255 255
-0.33 0.598 1.636 255 255 255
-0.126 0.151 2.034 255 255 255
0.444 0.019 1.489 255 255 255
-0.533 -1.627 2.23 0 0 0
0.39 -0.061 1.592 255 255 255
0.28 0.626 1.698 255 255 255
0.01 -1.614 2.196 0 0 0
0.247 -0.886 1.8 255 255 255
-0.328 0.469 1.909 255 255 255
0.685 -0.301 1.087 255 255 255
-0.008 -0.404 1.875 255 255 255
0.454 0.614 1.577 255 255 255
0.033 -0.806 1.771 255 255 255
-0.602 0.554 1.733 255 255 255
-0.06 -0.491 1.832 255 255 255
-0.149 0.036 1.968 255 255 255
-0.763 -0.561 2.456 255 255 255
-0.94 -1.408 2.108 255 255 255
-0.794 -1.524 2.127 255 255 255
0.343 0.62 1.707 255 255 255
-0.084 0.981 2.062 255 255 255
-1.006 0.054 2.505 255 255 255
0.069 -0.378 1.921 255 255 255
0.06 -0.739 1.803 255 255 255
0.403 0.617 1.679 255 255 255
-0.958 -1.477 2.081 255 255 255
-0.696 -0.913 2.379 255 255 255
0.589 -0.124 1.124 0 0 0
-0.022 0.259 2.118 255 255 255
-0.278 0.185 0.547 255 255 255
-0.689 -0.521 2.508 255 255 255
-0.894 -0.269 1.696 0 0 0
-0.171 0.607 1.635 255 255 255
-0.306 -0.585 2.465 255 255 255
0.481 -0.057 1.396 255 255 255
0.211 0.238 2.112 255 255 255
0.224 -1.079 1.804 255 255 255
0.614 0.091 1.123 255 255 255
-0.315 0.2 0.719 255 255 255
0.446 0.289 1.535 255 255 255
0.684 -0.028 0.957 255 255 255
0.284 -0.546 1.791 0 0 0
0.58 0.132 1.204 255 255 255
-0.161 0.869 2.062 255 255 255
0.626 -0.105 1.037 255 255 255
-0.572 0.45 2.03 255 255 255
0.277 0.475 1.972 255 255 255
0.676 -0.259 1.109 255 255 255
-0.292 -1.74 2.307 255 255 255
0.431 0.116 1.531 255 255 255
0.601 -0.242 1.299 255 255 255
0.364 -0.39 1.785 0 0 0
0.48 0.27 1.454 255 255 255
0.031 0.613 1.71 255 255 255
0.54 0.213 1.305 255 255 255
0.548 0.033 1.263 255 255 255
0.137 -0.976 1.747 255 255 255
-0.342 -0.761 2.396 255 255 255
-0.666 0.236 2.393 255 255 255
-0.909 -0.342 1.751 255 255 255
-0.068 -0.444 1.848 255 255 255
-0.309 -0.744 2.413 255 255 255
-0.162 0.056 1.974 255 255 255
-0.364 -1.05 2.301 255 255 255
0.617 0.044 1.109 255 255 255
0.516 0.116 1.346 255 255 255
0.622 0.134 1.109 255 255 255
-0.485 0.442 2.069 255 255 255
0.509 0.04 1.346 255 255 255
-0.998 0.001 2.53 255 255 255
-0.488 -0.264 2.686 255 255 255
-0.349 0.64 1.495 255 255 255
-0.884 0.274 2.165 255 255 255
-0.107 -0.5 1.794 255 255 255
-0.564 0.538 1.796 255 255 255
0.536 0.052 1.291 255 255 255
0.582 0.311 1.233 255 255 255
-0.663 -0.356 2.574 255 255 255
0.26 0.526 1.992 255 255 255
-0.723 -1.02 2.332 255 255 255
-0.6 -1.254 2.318 255 255 255
0.641 -0.088 1.021 0 0 0
0.249 0.673 1.543 255 255 255
-0.08 0.409 2.09 255 255 255
0.225 0.382 2.075 255 255 255
0.395 0.152 1.624 255 255 255
0.475 -0.493 1.786 255 255 255
0.681 0.045 0.969 255 255 255
-0.106 -0.915 1.677 255 255 255
0.426 -0.104 1.512 255 255 255
-0.054 0.119 2.052 255 255 255
0.443 0.028 1.495 255 255 255
0.533 0.451 1.378 255 255 255
-0.494 -0.949 2.465 255 255 255
0.385 -0.989 1.616 0 0 0
0.247 0.301 2.048 255 255 255
0.003 -0.071 2.003 255 255 255
-0.243 -0.476 2.18 255 255 255
-1.08 -0.082 2.471 255 255 255
-0.985 -0.779 2.285 255 255 255
0.332 0.119 1.774 255 255 255
0.663 -0.285 1.142 255 255 255
-0.542 -1.338 2.313 255 255 255
0.302 -0.778 1.701 0 0 0
-0.663 0.13 2.654 255 255 255
0.364 0.117 1.688 255 255 255
0.633 -0.023 1.062 255 255 255
0.255 -0.97 1.769 255 255 255
0.267 0.146 1.963 255 255 255
0.706 -0.399 1.064 255 255 255
-0.377 0.093 0.766 255 255 255
0.526 -0.128 1.279 255 255 255
0.232 0.594 1.78 255 255 255
0.174 0.206 0.441 255 255 255
0.417 0.273 1.602 255 255 255
-1.016 -0.314 1.631 0 0 0
-0.226 0.443 1.984 255 255 255
-0.671 -1.191 2.3 255 255 255
-0.263 0.462 1.921 255 255 255
-1.097 -0.389 1.675 255 255 255
-0.33 0.197 0.756 255 255 255
-1.087 -0.952 2.177 255 255 255
-0.247 -0.514 2.166 255 255 255
-0.004 -0.762 1.767 255 255 255
0.085 0.589 1.798 255 255 255
-0.65 -0.233 2.618 255 255 255
0.067 -0.15 1.999 255 255 255
-0.765 -0.839 2.374 255 255 255
0.372 0.495 1.73 255 255 255
-0.005 0.921 2.119 255 255 255
-0.927 -0.222 1.543 255 255 255
0.028 0.009 2.041 255 255 255
0.252 -0.515 1.865 255 255 255
0.355 -1.172 1.556 0 0 0
-0.995 -0.488 2.374 255 255 255
0.183 -0.857 1.83 0 0 0
0.427 0.199 1.56 255 255 255
0.657 -0.036 1.012 255 255 255
-0.239 0.437 1.991 255 255 255
-0.084 0.578 1.775 255 255 255
-0.777 -0.152 1.328 255 255 255
-0.392 0.706 1.279 255 255 255
0.121 -0.335 1.944 255 255 255
-0.071 0.542 1.908 255 255 255
0.316 0.541 1.875 255 255 255
-0.566 -1.017 2.409 255 255 255
0.303 0.645 1.635 255 255 255
0.051 -0.146 1.993 255 255 255
0.276 0.634 1.669 255 255 255
-0.242 -0.864 2.224 255 255 255
0.137 -0.622 1.853 255 255 255
-0.072 0.356 2.105 255 255 255
0.597 0.05 1.154 255 255 255
0.384 -0.95 1.626 0 0 0
-1.01 -0.409 2.393 255 255 255
-0.899 0.383 2.203 0 0 0
-1.032 -1.124 2.154 255 255 255
-0.552 -0.193 2.68 255 255 255
0.346 0.028 1.72 255 255 255
0.517 -0.13 1.301 255 255 255
0.429 0.275 1.571 255 255 255
0.564 0.019 1.22 255 255 255
-1.063 -1.405 2.066 255 255 255
0.376 -0.82 1.666 0 0 0
-0.182 -0.538 2.174 255 255 255
0.242 -1.135 1.764 255 255 255
0.265 0.624 1.694 255 255 255
-0.672 -0.116 1.362 255 255 255
-0.456 0.511 1.878 0 0 0
-0.935 -0.667 2.349 255 255 255
0.09 -0.239 1.972 255 255 255
-0.077 -0.889 1.687 255 255 255
-0.264 0.452 1.965 255 255 255
-0.391 0.7 1.301 255 255 255
-0.621 -1.633 2.185 0 0 0
-0.409 -0.02 2.611 255 255 255
0.072 0.696 1.397 255 255 255
0.605 0.381 1.196 255 255 255
0.129 -0.67 1.836 255 255 255
0.361 0.25 1.732 255 255 255
-0.945 -0.228 1.524 255 255 255
0.585 0.386 1.24 255 255 255
-0.188 0.551 1.824 255 255 255
-1.199 -1.128 2.081 255 255 255
-1.101 -0.524 2.011 255 255 255
0.655 0.139 1.044 255 255 255
0.416 0.298 1.61 255 255 255
-0.68 -0.304 2.582 255 255 255
-0.431 0.676 1.355 255 255 255
0.696 -0.231 1.106 255 255 255
-0.7 0.097 2.626 255 255 255
-0.444 0.061 0.952 255 255 255
0.589 -0.064 1.154 255 255 255
-0.355 0.109 0.635 255 255 255
-0.559 0.014 0.846 255 255 255
-0.849 -1.482 2.13 255 255 255
-0.869 -0.235 1.838 255 255 255
-0.089 -0.488 1.822 255 255 255
0.036 0.001 2.044 255 255 255
0.437 0.068 1.509 255 255 255
0.307 -0.104 1.8 255 255 255
0.431 -0.628 1.732 255 255 255
-0.357 0.702 1.297 255 255 255
-0.416 -0.225 2.555 255 255 255
0.16 0.542 1.921 255 255 255
-0.805 -0.579 2.433 255 255 255
-0.378 0.269 2.472 255 255 255
0.346 0.637 1.657 255 255 255
0.288 -0.935 1.708 0 0 0
-0.933 -0.23 1.546 0 0 0
-0.13 0.032 1.976 255 255 255
0.27 0.55 1.94 255 255 255
-0.575 -0.059 2.712 255 255 255
0.511 0.553 1.455 255 255 255
-1.146 -0.281 1.689 0 0 0
-0.261 0.586 1.696 255 255 255
0.51 0.585 1.432 255 255 255
0.46 0.203 1.488 255 255 255
0.569 0.363 1.27 255 255 255
-0.477 -0.742 2.536 255 255 255
0.032 0.476 1.786 255 255 255
0.664 -0.491 1.951 255 255 255
0.382 -0.055 1.614 255 255 255
0.178 -1.158 1.757 255 255 255
0.555 0.34 1.294 255 255 255
-0.432 0.267 2.088 255 255 255
-0.747 -0.052 2.632 255 255 255
-0.304 0.235 2.484 255 255 255
-0.894 -0.971 2.27 255 255 255
-0.631 -0.018 0.922 0 0 0
-0.428 0.052 0.79 255 255 255
0.263 0.605 1.763 255 255 255
-0.438 0.124 2.661 255 255 255
-0.676 -0.12 1.376 255 255 255
0.468 -0.247 1.352 255 255 255
0.469 -0.193 1.398 255 255 255
0.296 0.649 1.616 255 255 255
-1.021 0.084 2.469 255 255 255
-0.453 0.474 1.964 255 255 255
0.676 -0.298 1.098 255 255 255
0.291 0.076 1.888 255 255 255
0.457 0.684 1.513 255 255 255
-0.048 -0.809 1.733 255 255 255
-0.516 0.453 2.052 255 255 255
0.395 0.043 1.601 255 255 255
-0.113 -0.699 1.733 255 255 255
0.245 -0.39 1.894 255 255 255
0.437 0.208 1.535 255 255 255
-0.061 0.065 2.026 255 255 255
-0.182 0.674 1.41 255 255 255
-0.6 -0.025 0.957 255 255 255
-0.464 0.431 2.079 255 255 255
-0.401 0.483 1.872 255 255 255
0.645 -0.071 1.028 255 255 255
-0.672 0.58 1.637 0 0 0
0.429 0.079 1.527 255 255 255
0.126 0.549 1.873 255 255 255
-0.911 -0.257 2.488 255 255 255
-1.024 0.094 2.464 255 255 255
0.444 -0.196 1.449 255 255 255
-0.052 -0.69 1.762 255 255 255
0.222 -1.332 1.758 255 255 255
-1.001 -0.895 2.242 255 255 255
0.191 -0.007 2.088 255 255 255
0.186 0.12 2.126 255 255 255
0.166 0.608 1.745 255 255 255
-1.108 -1.215 2.089 255 255 255
0.529 0.125 1.316 255 255 255
-0.058 0.922 2.088 255 255 255
0.529 0.075 1.31 255 255 255
-0.52 -0.002 0.971 255 255 255
0.575 -0.149 1.052 0 0 0
-0.602 -0.867 2.44 255 255 255
-0.159 0.835 2.039 255 255 255
-0.475 0.522 1.855 255 255 255
-0.325 0.649 1.471 0 0 0
0.419 -0.203 1.507 255 255 255
-1.303 -0.715 2.007 255 255 255
-0.899 -0.235 1.605 255 255 255
-0.339 -0.65 2.432 255 255 255
-1.121 -1.041 2.14 255 255 255
-0.677 0.527 1.816 255 255 255
0.076 0.712 1.36 255 255 255
0.57 0.089 1.218 255 255 255
0.337 -0.055 1.728 255 255 255
-0.754 -0.889 2.362 255 255 255
-0.032 -1.589 2.316 255 255 255
0.103 0.268 2.158 255 255 255
0.52 -0.002 1.319 255 255 255
0.205 0.013 2.067 255 255 255
-0.208 0.455 1.929 255 255 255
-0.602 0.602 1.563 255 255 255
-0.489 0.412 2.094 255 255 255
0.627 0.136 1.096 255 255 255
0.494 -0.475 1.816 255 255 255
0.225 0.281 2.086 255 255 255
0.359 0.684 1.52 255 255 255
0.392 -0.27 1.446 0 0 0
-0.527 -1.196 2.371 255 255 255
-0.326 0.133 0.626 255 255 255
-0.713 -0.061 1.045 255 255 255
-0.804 -0.194 1.493 255 255 255
0.299 0.094 1.866 255 255 255
-0.113 0.398 2.076 255 255 255
-0.439 0.523 1.835 0 0 0
-0.294 0.182 0.632 255 255 255
0.223 -0.431 1.937 255 255 255
0.554 -0.062 1.229 255 255 255
-0.686 -0.978 2.363 255 255 255
-0.504 0.602 1.587 255 255 255
0 -0.919 1.719 255 255 255
0.319 0.66 1.584 255 255 255
-0.987 -0.766 2.293 255 255 255
-0.742 -1.128 2.288 255 255 255
0.379 -0.223 1.594 255 255 255
0.233 -0.431 1.917 255 255 255
-0.256 -0.836 2.231 255 255 255
-0.334 0.133 0.6 255 255 255
0.328 -0.279 1.723 255 255 255
-0.109 0.691 1.364 255 255 255
-0.485 0.047 0.707 255 255 255
0.039 -0.218 1.962 255 255 255
0.406 -0.037 1.563 255 255 255
-0.578 -1.432 2.272 255 255 255
-0.973 -0.167 1.343 255 255 255
0.03 -0.568 1.851 255 255 255
0.07 0.059 2.076 255 255 255
-0.992 -0.158 1.307 255 255 255
-0.731 -1.621 2.107 255 255 255
-0.157 0.6 1.68 255 255 255
-0.849 -1.027 2.267 255 255 255
0.422 0.302 1.593 255 255 255
-0.974 -0.538 2.371 255 255 255
-0.784 -0.121 1.203 255 255 255
-0.353 0.114 0.621 255 255 255
-0.932 -0.623 2.364 255 255 255
0.405 0.423 1.677 255 255 255
0.54 -0.174 1.209 0 0 0
-1.137 -1.194 2.085 255 255 255
0.405 0.684 1.514 255 255 255
0.294 -0.504 1.766 0 0 0
-0.015 0.707 1.358 255 255 255
-0.95 -1.571 2.047 255 255 255
0.547 0.293 1.305 255 255 255
0.269 -0.369 1.767 0 0 0
-0.679 -0.804 2.42 255 255 255
-0.19 0.464 1.899 255 255 255
-0.331 -0.39 2.522 255 255 255
-0.606 -0.051 1.068 255 255 255
0.623 -0.059 1.078 255 255 255
0.273 -0.365 1.823 255 255 255
0.184 0.014 2.107 255 255 255
-0.104 -0.373 1.835 255 255 255
0.17 0.031 2.138 255 255 255
0.133 -0.701 1.83 0 0 0
-0.197 0.647 1.496 255 255 255
0.287 -0.07 1.865 255 255 255
-0.893 -0.74 2.339 255 255 255
-0.26 0.595 1.657 255 255 255
-0.418 -1.225 2.406 255 255 255
0.197 -0.756 1.924 0 0 0
-1 -0.231 2.455 255 255 255
-0.583 -0.844 2.457 255 255 255
0.018 -0.735 1.784 255 255 255
-0.688 -0.131 1.364 255 255 255
0.49 0.158 1.408 255 255 255
-0.552 0.399 2.08 255 255 255
0.53 0.352 1.355 255 255 255
-0.713 -1.166 2.288 255 255 255
-0.73 -0.277 2.565 255 255 255
-0.061 0.078 2.03 255 255 255
0.289 0.02 1.876 255 255 255
0.668 -0.122 0.955 255 255 255
-1.073 -0.514 2.172 0 0 0
-0.316 0.526 1.779 255 255 255
-0.248 0.576 1.735 255 255 255
-0.401 0.604 1.602 255 255 255
-0.239 -1.194 2.292 255 255 255
0.343 -0.456 1.78 255 255 255
-1.085 -0.653 2.116 255 255 255
0.542 0.134 1.288 255 255 255
-0.72 -1.274 2.254 255 255 255
-0.105 -0.64 1.745 255 255 255
0.229 -0.138 1.981 255 255 255
-1.056 -1.432 2.05 255 255 255
0.493 0.084 1.393 255 255 255
0.622 -0.052 1.082 255 255 255
0.075 -0.646 1.83 255 255 255
-0.435 -1.448 2.33 255 255 255
-0.394 0.082 0.773 255 255 255
0.477 -0.04 1.404 255 255 255
-0.456 0.186 2.701 255 255 255
-0.361 -1.52 2.348 255 255 255
0.616 -0.066 1.092 255 255 255
0.31 0.541 1.888 255 255 255
-0.541 0.079 2.768 255 255 255
-0.186 -1.668 2.374 255 255 255
0.019 -0.199 1.967 255 255 255
-0.428 0.054 0.805 255 255 255
0.463 -0.215 1.387 0 0 0
0.516 0.526 1.436 255 255 255
-0.263 -1.143 2.304 255 255 255
-0.386 0.598 1.616 255 255 255
0.305 -0.975 1.657 0 0 0
-0.471 -1.688 2.246 0 0 0
-0.307 -0.596 2.466 255 255 255
-0.237 0.391 2.058 0 0 0
0.484 0.429 1.482 255 255 255
0.072 0.48 1.783 255 255 255
-0.754 -0.378 2.524 255 255 255
-0.431 0.646 1.461 0 0 0
-0.032 -1.591 2.309 255 255 255
-0.468 -1.319 2.356 255 255 255
0.046 0.608 1.727 255 255 255
-1.271 -0.776 2.007 255 255 255
0.376 -0.536 1.759 0 0 0
-0.404 0.213 2.643 255 255 255
-0.576 -0.688 2.506 255 255 255
0.503 -0.119 1.334 255 255 255
-0.004 -0.661 1.803 255 255 255
-0.221 -1.508 2.404 255 255 255
0.324 0.022 1.777 255 255 255
-1.024 0.099 2.464 255 255 255
-0.502 -0.091 2.711 255 255 255
0.042 0.187 2.12 255 255 255
-0.616 -1.389 2.269 255 255 255
0.422 0.37 1.611 255 255 255
-0.121 -0.679 1.752 0 0 0
0.191 -0.385 2.017 255 255 255
-0.343 0.615 1.571 255 255 255
-0.282 0.67 1.404 255 255 255
-0.294 0.223 0.629 255 255 255
-1.211 -0.274 1.672 255 255 255
0.23 0.025 2.023 255 255 255
-0.881 -0.338 2.474 255 255 255
0.312 -0.932 1.644 0 0 0
0.379 -0.259 1.59 255 255 255
-0.094 -0.409 1.844 255 255 255
0.509 0.208 1.377 255 255 255
0.109 -0.338 1.942 255 255 255
0.44 0.652 1.593 255 255 255
-0.765 -1.38 2.202 255 255 255
0.511 -0.18 1.282 255 255 255
-0.775 -0.412 2.498 255 255 255
-0.122 -0.321 1.839 255 255 255
0.663 0.095 1.018 255 255 255
0.494 0.27 1.418 255 255 255
-0.283 0.514 1.784 255 255 255
-0.608 0.419 2.038 255 255 255
0.511 0.389 1.411 255 255 255
0.551 -0.116 1.226 255 255 255
0.489 0.31 1.437 255 255 255
0.309 -0.546 1.739 255 255 255
-0.127 0.172 2.044 255 255 255
0.2 -0.754 1.919 0 0 0
-1.062 -0.616 2.131 0 0 0
-0.73 -0.089 1.147 255 255 255
0.577 -0.148 1.047 0 0 0
0.462 -0.146 1.42 255 255 255
0.505 0.525 1.464 255 255 255
0.381 -1.109 1.58 255 255 255
-0.858 -0.379 2.47 255 255 255
0.324 -1.163 1.554 0 0 0
-0.905 -0.798 2.316 255 255 255
0.51 -0.11 1.321 255 255 255
0.441 -1.131 1.588 255 255 255
-0.744 -0.089 1.138 255 255 255
0.587 -0.275 1.38 255 255 255
-0.638 -0.28 2.612 255 255 255
-0.033 0.685 1.382 255 255 255
-0.258 -0.229 2.342 255 255 255
0.15 -0.525 1.895 255 255 255
-0.386 0.088 0.75 255 255 255
-0.988 -1.405 2.09 255 255 255
-0.49 0.038 0.75 255 255 255
-0.519 0.615 1.539 255 255 255
-0.41 -1.346 2.378 255 255 255
-0.234 0.631 1.54 255 255 255
-0.036 0.993 2.077 255 255 255
-0.451 0.383 2.106 255 255 255
0.694 -0.153 1.057 255 255 255
-0.11 -0.794 1.716 255 255 255
-0.178 0.299 2.063 255 255 255
0.064 0.571 1.843 255 255 255
-0.428 0.057 0.813 255 255 255
0.661 -0.178 1.137 0 0 0
-0.468 0.047 0.71 255 255 255
-0.066 -0.681 1.759 255 255 255
0.163 0.035 2.157 255 255 255
-0.137 0.554 1.849 255 255 255
-0.732 -0.343 2.545 255 255 255
-0.294 0.165 0.56 255 255 255
-0.34 0.123 0.694 255 255 255
-0.777 -0.734 2.4 255 255 255
-0.953 -0.195 1.445 255 255 255
-0.073 0.704 1.345 255 255 255
0.14 -0.985 1.737 255 255 255
-0.983 -0.216 2.469 255 255 255
-0.082 -0.486 1.826 255 255 255
-0.503 -1.246 2.366 255 255 255
0.018 -0.721 1.789 255 255 255
-0.264 0.677 1.385 255 255 255
-0.419 0.063 0.703 255 255 255
0.364 -0.29 1.508 0 0 0
0.385 0.717 1.429 255 255 255
0.169 -0.807 1.816 255 255 255
-0.056 -0.908 1.698 255 255 255
0.073 0.676 1.497 255 255 255
-0.064 -0.33 1.875 255 255 255
-0.183 0.442 2.001 255 255 255
0.406 -0.147 1.546 255 255 255
0.393 0.046 1.606 255 255 255
-0.008 -0.45 1.872 255 255 255
0.368 0.623 1.7 255 255 255
0.61 0.31 1.171 255 255 255
0.45 0.037 1.476 255 255 255
0.015 -0.692 1.799 255 255 255
0.346 -0.176 1.681 255 255 255
0.488 0.064 1.397 255 255 255
-0.405 0.075 0.635 255 255 255
0.518 0.017 1.323 255 255 255
0.25 -1.214 1.728 255 255 255
-0.336 0.615 1.572 255 255 255
-0.339 0.168 0.744 255 255 255
0.521 0.152 1.339 255 255 255
-0.874 -0.078 2.566 255 255 255
-0.129 -0.151 1.899 255 255 255
0.128 0.253 2.217 255 255 255
0.224 0.579 1.848 255 255 255
0.271 -0.783 1.774 255 255 255
-0.956 -0.739 2.319 255 255 255
-0.294 0.198 0.628 255 255 255
