ply
format ascii 1.0
comment Created by Open3D
element vertex 1595
property double x
property double y
property double z
property uchar red
property uchar green
property uchar blue
end_header
0.045 0.079 0.367 255 255 255
0.492 0.031 1.037 255 255 255
0.281 -0.156 1.076 0 0 0
0.157 0.15 0.366 255 255 255
-0.222 0.022 0.947 255 255 255
0.03 0.084 0.356 255 255 255
0.098 -0.038 1.01 255 255 255
-0.523 0.126 0.832 255 255 255
0.788 -0.224 1.098 255 255 255
-0.035 0.142 0.303 0 0 0
0.561 0.023 1.049 255 255 255
-0.189 -0.139 0.447 255 255 255
-0.049 0.14 0.319 255 255 255
-0.384 -0.022 0.578 255 255 255
0.155 -0.173 0.908 255 255 255
-0.038 0.108 0.359 255 255 255
-0.288 -0.268 1.017 255 255 255
-0.187 0.291 0.851 255 255 255
-0.07 -0.116 1.021 255 255 255
0.32 0.052 1.007 255 255 255
0.64 -0.298 1.189 255 255 255
0.179 0.066 0.443 255 255 255
0.715 -0.403 1.09 255 255 255
0.168 -0.228 0.624 255 255 255
-0.427 -0.978 1.292 0 0 0
-0.21 0.183 0.889 255 255 255
0.001 0.041 0.425 255 255 255
0.548 -0.174 1.128 255 255 255
-0.016 -0.466 0.939 255 255 255
-0.122 -0.191 1.043 255 255 255
0.296 0.086 0.99 255 255 255
-0.079 -0.043 0.99 255 255 255
0.537 0.076 1.026 0 0 0
-0.154 0.204 0.889 255 255 255
-0.286 -0.262 1.017 255 255 255
-0.38 0.323 0.811 255 255 255
0.742 -0.309 1.1 255 255 255
0.188 0.058 0.442 255 255 255
-0.032 -0.384 1.089 0 0 0
0.124 -0.317 0.909 255 255 255
-0.234 -0.141 1.009 255 255 255
-0.195 -0.508 1.094 255 255 255
0.043 -0.402 1.046 255 255 255
0.21 0.077 0.425 0 0 0
0.109 -0.265 1.054 255 255 255
-0.014 0.128 0.313 255 255 255
-0.21 -0.454 1.07 255 255 255
0.017 0.149 0.303 0 0 0
-0.295 -0.41 1.038 255 255 255
-0.194 -0.188 0.359 255 255 255
-0.358 0.339 0.807 255 255 255
-0.053 0.143 0.319 0 0 0
-0.357 0.332 0.81 255 255 255
0.572 -0.202 1.128 255 255 255
-0.138 0.171 0.905 0 0 0
-0.147 -0.186 1.038 255 255 255
-0.218 0.22 0.872 255 255 255
-0.044 0.12 0.345 255 255 255
-0.204 -0.179 0.351 255 255 255
-0.035 0.137 0.31 255 255 255
-0.311 -0.486 1.069 255 255 255
0.032 0.09 0.357 255 255 255
-0.293 -0.198 1.022 255 255 255
0.397 0.045 1.019 255 255 255
-0.169 0.002 0.964 255 255 255
-0.198 -0.43 1.062 255 255 255
0.018 -0.037 1.001 255 255 255
-0.261 -0.059 0.971 255 255 255
-0.177 0.106 0.921 255 255 255
0.126 -0.486 1.081 255 255 255
0.285 -0.172 1.081 0 0 0
0.007 0.129 0.311 255 255 255
0.303 -0.155 1.048 255 255 255
0.196 -0.294 0.451 255 255 255
0.067 -0.077 1.024 255 255 255
0.152 0.111 0.395 255 255 255
0.11 -0.469 1.06 255 255 255
0.015 0.132 0.309 255 255 255
0.383 -0.821 1.24 255 255 255
0.14 -0.895 1.352 255 255 255
-0.552 -1.023 1.289 255 255 255
0.704 -0.222 1.173 0 0 0
-0.184 -0.184 0.369 255 255 255
0.001 0.12 0.318 255 255 255
0.153 0.13 0.378 255 255 255
0.122 -0.261 0.889 255 255 255
0.093 -0.307 0.906 255 255 255
-0.278 0.206 0.87 255 255 255
-0.335 0.362 0.802 0 0 0
-0.313 -0.573 1.108 255 255 255
0.712 -0.392 1.092 255 255 255
0.182 -0.427 1.056 255 255 255
0.413 0.024 1.029 255 255 255
0.302 -0.149 1.053 0 0 0
-0.132 0.118 0.925 255 255 255
-0.112 -0.316 1.09 255 255 255
-0.333 0.38 0.797 0 0 0
-0.199 -0.154 0.355 255 255 255
-0.074 0.085 0.947 255 255 255
-0.016 0.143 0.306 0 0 0
-0.102 -0.559 1.096 255 255 255
0.681 -0.07 1.1 255 255 255
-0.297 0.028 0.908 0 0 0
-0.238 -0.197 1.029 0 0 0
-0.397 -0.274 1.032 255 255 255
-0.002 -0.145 1.037 0 0 0
-0.379 0.003 0.668 255 255 255
0.141 0.087 0.472 255 255 255
-0.302 0.012 0.794 0 0 0
0.035 0.101 0.339 255 255 255
-0.223 -0.096 0.501 255 255 255
0.056 0.167 0.335 255 255 255
0.655 -0.033 1.084 255 255 255
0.612 -0.056 1.085 255 255 255
0.463 0.059 1.022 255 255 255
0.348 -0.014 1.037 255 255 255
0.021 0.125 0.319 255 255 255
0.015 -0.243 1.068 255 255 255
-0.002 0.103 0.336 255 255 255
0.025 0.12 0.323 0 0 0
-0.347 0.124 0.894 255 255 255
0.574 0.223 1.042 255 255 255
-0.014 -0.392 1.082 255 255 255
-0.041 0.002 0.977 255 255 255
-0.276 0.382 0.802 0 0 0
0.626 -0.129 1.111 255 255 255
0 -0.003 0.984 255 255 255
-0.181 0.09 0.926 255 255 255
-0.232 -0.702 1.215 255 255 255
-0.397 0.182 0.862 255 255 255
-0.211 -0.372 1.047 0 0 0
-0.231 -0.131 0.394 255 255 255
-0.457 0.045 0.742 255 255 255
-0.268 0.164 0.888 255 255 255
0.143 0.179 0.355 255 255 255
-0.326 -0.504 1.075 255 255 255
0.753 -0.203 1.17 0 0 0
0.727 -0.297 1.136 255 255 255
-0.068 -0.275 1.077 255 255 255
0.017 0.14 0.306 0 0 0
-0.042 -0.305 1.087 255 255 255
0.037 -0.975 1.367 255 255 255
0.186 0.425 0.85 255 255 255
-0.121 -0.135 1.02 255 255 255
0.353 -0.286 1.056 255 255 255
-0.002 -0.132 1.035 255 255 255
0.11 -0.307 0.901 255 255 255
-0.133 0.141 0.915 0 0 0
-0.305 0.362 0.805 0 0 0
0.027 0.02 0.423 255 255 255
0.726 0.032 1.071 255 255 255
0.457 -0.337 1.141 255 255 255
0.757 -0.253 1.128 255 255 255
0.129 -0.513 1.061 255 255 255
0.401 0.022 1.03 255 255 255
0 -0.202 1.05 255 255 255
-0.333 -0.292 1.02 255 255 255
0.039 0.088 0.359 255 255 255
0.224 -0.075 1.038 0 0 0
0.62 -0.167 1.124 255 255 255
-0.191 -0.158 0.364 0 0 0
0.068 0.132 0.357 255 255 255
0.272 0.041 1.006 255 255 255
0.072 0.124 0.364 255 255 255
0.327 0.032 1.016 255 255 255
0.243 -0.16 1.036 255 255 255
0.043 -0.277 1.076 0 0 0
-0.053 -0.086 1.013 255 255 255
0.381 -0.059 1.057 255 255 255
0.384 -0.077 1.065 255 255 255
0.741 -0.187 1.157 255 255 255
-0.252 -0.001 0.793 0 0 0
0.004 0.134 0.309 255 255 255
0.173 -0.222 0.631 255 255 255
0.338 -0.087 1.062 255 255 255
0.018 0.12 0.324 255 255 255
0.11 0.203 0.37 255 255 255
-0.268 -0.118 0.402 255 255 255
0.107 -0.134 1.048 255 255 255
-0.409 0.272 0.826 255 255 255
0.695 -0.376 1.11 255 255 255
0.125 0.154 0.404 255 255 255
-0.071 -0.155 1.033 255 255 255
0.782 -0.105 1.131 0 0 0
0.415 -0.193 1.073 255 255 255
-0.338 0.182 0.87 255 255 255
-0.146 -0.281 1.05 255 255 255
-0.441 -0.69 1.179 255 255 255
-0.27 -0.109 0.451 255 255 255
0.588 0.099 1.02 255 255 255
0.373 -0.876 1.224 255 255 255
-0.203 0.292 0.847 255 255 255
-0.392 -0.017 0.578 255 255 255
-0.022 0.156 0.298 255 255 255
0.016 -0.031 0.999 255 255 255
0.054 0.094 0.36 255 255 255
-0.489 0.182 0.854 255 255 255
0.699 -0.425 1.089 255 255 255
0.262 -0.185 1.041 255 255 255
-0.201 0.289 0.849 255 255 255
-0.277 0.098 0.912 255 255 255
-0.281 -0.336 1.034 255 255 255
-0.006 0.115 0.325 255 255 255
0.317 -0.924 1.281 0 0 0
0.026 -0.455 0.93 255 255 255
0.041 0.031 0.409 255 255 255
0.046 0.157 0.324 0 0 0
0.335 0.048 1.011 255 255 255
-0.21 -0.139 0.371 255 255 255
0.182 0.104 0.39 255 255 255
0.18 -0.239 0.589 255 255 255
0.495 -0.409 1.005 255 255 255
-0.306 0.393 0.793 255 255 255
-0.139 0.008 0.965 255 255 255
-0.026 0.094 0.366 255 255 255
-0.029 -0.135 1.028 0 0 0
0.081 0.043 0.41 255 255 255
0.179 -0.254 0.56 255 255 255
0.01 0.129 0.313 255 255 255
-0.256 0.401 0.8 255 255 255
-0.491 0.169 0.846 255 255 255
0.302 -0.044 1.041 255 255 255
-0.439 -0.504 1.107 255 255 255
-0.201 0.053 0.938 255 255 255
-0.254 -0.045 0.79 255 255 255
-0.006 0.079 0.365 255 255 255
-0.151 -0.023 0.975 0 0 0
0.189 0.128 0.373 255 255 255
0.131 -0.151 1.017 255 255 255
0.286 0.05 1.003 255 255 255
0.132 0.142 0.392 255 255 255
0.433 -0.246 1.136 255 255 255
0.032 0.154 0.309 255 255 255
0.14 0.108 0.414 0 0 0
-0.206 -0.165 0.356 255 255 255
0.011 0.161 0.294 255 255 255
0.172 0.116 0.386 0 0 0
-0.036 0.136 0.311 255 255 255
-0.165 0.161 0.902 255 255 255
-0.146 -0.002 0.968 255 255 255
0.63 0.121 1.02 255 255 255
-0.201 0.179 0.89 255 255 255
0.072 -0.377 1.06 255 255 255
-0.069 -0.103 1.016 255 255 255
0.122 0.18 0.371 255 255 255
0.755 -0.002 1.085 255 255 255
-0.225 -0.135 0.347 255 255 255
0.028 0.076 0.363 255 255 255
0.408 0.026 1.029 255 255 255
0.553 0.141 1.003 255 255 255
-0.429 0.266 0.825 255 255 255
0.024 0.083 0.355 255 255 255
-0.305 -0.113 0.988 255 255 255
-0.183 -0.2 0.371 255 255 255
-0.02 -0.318 1.09 255 255 255
-0.278 0.039 0.898 0 0 0
0.37 -0.164 1.072 255 255 255
0.603 0.051 1.044 255 255 255
-0.193 -0.355 1.054 255 255 255
-0.273 -0.124 0.393 255 255 255
-0.178 -0.546 1.112 255 255 255
-0.361 0.172 0.872 255 255 255
-0.339 -0.065 0.468 255 255 255
0.041 0.075 0.365 255 255 255
-0.05 0.139 0.318 255 255 255
0.139 0.106 0.414 0 0 0
-0.587 -0.853 1.223 255 255 255
0.078 0.122 0.373 255 255 255
-0.236 -0.327 1.04 255 255 255
-0.23 -0.085 0.559 255 255 255
0.364 -0.061 1.056 255 255 255
0.047 0.079 0.362 255 255 255
-0.224 0.191 0.883 255 255 255
0.041 0.172 0.315 255 255 255
0.125 0.129 0.411 255 255 255
0.035 0.024 0.417 255 255 255
0.313 -0.26 1.093 255 255 255
-0.015 0.11 0.331 255 255 255
0.103 -0.04 1.011 255 255 255
-0.405 0.024 0.705 255 255 255
-0.035 0.012 0.975 255 255 255
-0.489 0.119 0.841 0 0 0
-0.389 0.1 0.892 255 255 255
0.152 0.103 0.404 255 255 255
0.286 -0.245 1.082 255 255 255
-0.135 -0.45 1.08 255 255 255
-0.199 -0.153 0.414 255 255 255
0.025 0.088 0.347 255 255 255
-0.514 0.119 0.841 255 255 255
0.223 -0.938 1.38 255 255 255
-0.266 0.293 0.839 255 255 255
-0.071 -0.374 0.994 255 255 255
0.06 0.106 0.358 255 255 255
0.154 0.09 0.421 255 255 255
-0.102 -0.074 1.002 255 255 255
0.042 0.151 0.32 0 0 0
-0.094 0.123 0.915 255 255 255
0.226 0.097 0.418 255 255 255
0.661 -0.096 1.086 255 255 255
-0.238 -0.127 0.389 255 255 255
-0.209 -0.108 0.537 255 255 255
0.226 -0.191 1.045 0 0 0
0.32 0.086 0.991 255 255 255
0.231 -0.047 1.03 255 255 255
0.125 -0.146 1.024 255 255 255
-0.312 -0.271 1.014 255 255 255
-0.332 0.002 0.778 255 255 255
0.466 -0.156 1.104 255 255 255
0.11 0.205 0.369 255 255 255
-0.408 0.025 0.758 255 255 255
0.187 -0.315 0.428 0 0 0
-0.295 -0.086 0.526 255 255 255
-0.136 -0.035 0.982 255 255 255
0.585 -0.254 1.158 255 255 255
0.637 0.152 1.009 255 255 255
0.202 0.08 0.417 255 255 255
0.153 -0.239 1.034 255 255 255
0.114 0.175 0.408 255 255 255
0.093 -0.879 1.336 255 255 255
-0.377 0 0.782 255 255 255
-0.306 -0.094 0.46 255 255 255
0.004 0.034 0.425 255 255 255
0.769 -0.019 1.095 255 255 255
0.14 -0.03 1.014 255 255 255
-0.313 0.375 0.801 0 0 0
0.115 0.171 0.404 255 255 255
0.347 -0.87 1.271 255 255 255
-0.275 0.332 0.821 255 255 255
-0.172 0.174 0.897 255 255 255
-0.437 0.136 0.875 255 255 255
0.785 -0.236 1.092 255 255 255
-0.278 -0.006 0.791 255 255 255
0.053 0.043 0.398 255 255 255
0.047 0.059 0.379 255 255 255
-0.305 -0.379 1.023 255 255 255
-0.513 -0.7 1.171 255 255 255
0.105 -0.252 1.062 255 255 255
0.558 0.109 1.015 255 255 255
0.533 -0.055 1.078 255 255 255
0.656 -0.438 1.12 255 255 255
-0.011 0.095 0.347 255 255 255
0.036 -0.518 0.974 255 255 255
-0.043 0.128 0.334 255 255 255
0.108 0.191 0.413 255 255 255
-0.322 -0.087 0.457 255 255 255
-0.21 -0.111 0.505 255 255 255
-0.364 0.223 0.848 255 255 255
-0.155 0.033 0.953 255 255 255
0.617 -0.208 1.147 255 255 255
0.183 -0.126 1.042 255 255 255
0.123 0.161 0.395 255 255 255
0.424 -0.156 1.1 255 255 255
0.692 -0.444 1.083 255 255 255
-0.131 0.114 0.927 255 255 255
-0.32 0.417 0.784 255 255 255
-0.013 0.07 0.387 0 0 0
-0.275 0.307 0.832 255 255 255
-0.052 -0.329 1.095 255 255 255
0.09 0.051 0.415 255 255 255
-0.239 0.225 0.87 255 255 255
-0.462 0.115 0.849 0 0 0
-0.237 -0.109 0.997 255 255 255
-0.241 -0.018 0.806 255 255 255
-0.058 0.141 0.331 255 255 255
0.185 -0.322 0.426 255 255 255
-0.482 -0.763 1.203 255 255 255
-0.017 0.037 0.467 255 255 255
0.126 0.174 0.366 0 0 0
0.423 -0.275 1.146 255 255 255
-0.07 -0.201 1.043 255 255 255
0.129 0.152 0.387 255 255 255
0.788 -0.179 1.133 0 0 0
-0.064 0.165 0.305 255 255 255
-0.17 0.01 0.96 255 255 255
0.192 -0.908 1.367 255 255 255
0.56 -0.444 1.017 255 255 255
0.163 0.132 0.373 255 255 255
0.078 0.083 0.38 255 255 255
-0.226 0.311 0.837 255 255 255
-0.214 -0.104 0.55 255 255 255
-0.001 0.106 0.332 255 255 255
-0.372 -0.036 0.533 255 255 255
-0.292 -0.128 0.995 255 255 255
-0.296 -0.255 1.013 255 255 255
0.123 0.198 0.353 255 255 255
-0.209 0.02 0.95 255 255 255
-0.317 0.374 0.801 0 0 0
-0.195 -0.047 0.979 255 255 255
-0.224 -0.135 0.391 255 255 255
0.161 0.115 0.386 255 255 255
-0.131 -0.168 1.033 255 255 255
-0.411 0.034 0.739 255 255 255
-0.438 -0.616 1.15 255 255 255
-0.271 -0.232 1.016 255 255 255
0.565 0.001 1.057 255 255 255
0.571 -0.315 1.176 255 255 255
-0.004 0.038 0.441 255 255 255
-0.393 0.015 0.664 255 255 255
-0.203 -0.161 1.021 255 255 255
0.272 -0.023 1.03 255 255 255
0.354 0.117 0.985 0 0 0
-0.221 -0.096 0.484 255 255 255
0.429 -0.055 1.057 0 0 0
-0.617 -0.941 1.248 0 0 0
-0.104 0.074 0.946 255 255 255
-0.166 0.146 0.908 255 255 255
-0.198 -0.12 1.007 255 255 255
0.739 -0.305 1.107 255 255 255
-0.003 0.098 0.341 0 0 0
0.019 0.079 0.358 255 255 255
-0.188 -0.254 1.045 0 0 0
0.528 0.116 1.007 255 255 255
0.025 0.144 0.306 0 0 0
-0.479 0.185 0.852 255 255 255
-0.356 -0.763 1.219 255 255 255
-0.367 0.024 0.81 0 0 0
0.344 -0.911 1.241 0 0 0
-0.187 -0.165 0.362 0 0 0
0.13 -0.511 1.024 255 255 255
-0.281 -0.098 0.986 255 255 255
0.032 0.152 0.309 255 255 255
-0.059 -0.074 1.009 255 255 255
-0.015 -0.213 1.051 0 0 0
-0.204 -0.546 1.11 255 255 255
-0.036 0.123 0.328 0 0 0
0.729 -0.284 1.152 255 255 255
-0.117 -0.266 1.065 255 255 255
-0.135 0.103 0.93 255 255 255
0.147 0.147 0.371 255 255 255
-0.447 0.086 0.878 255 255 255
0.341 0.057 1.008 255 255 255
-0.271 0.402 0.798 255 255 255
-0.376 -0.813 1.234 255 255 255
-0.267 -0.124 0.391 255 255 255
-0.369 0.06 0.912 0 0 0
0.165 0.129 0.372 255 255 255
-0.373 0.263 0.832 255 255 255
0.148 0.121 0.393 255 255 255
-0.182 0.289 0.852 255 255 255
-0.413 0.101 0.892 255 255 255
0.17 0.084 0.411 255 255 255
0.011 0.088 0.349 255 255 255
-0.215 -0.662 1.174 255 255 255
0.039 0.012 0.983 255 255 255
-0.367 -0.039 0.538 255 255 255
0.051 -0.21 1.057 255 255 255
0.093 -0.339 0.911 255 255 255
0.45 -0.14 1.097 255 255 255
0.071 0.084 0.373 255 255 255
0.539 -0.233 1.144 255 255 255
0.281 -0.209 1.097 255 255 255
0.06 -0.111 1.033 0 0 0
-0.241 -0.466 1.07 255 255 255
-0.25 -0.103 0.437 255 255 255
-0.423 -0.788 1.219 255 255 255
-0.01 0.118 0.328 255 255 255
-0.008 0.049 0.423 255 255 255
0.339 -0.274 1.065 255 255 255
-0.006 0.142 0.306 0 0 0
0.435 -0.851 1.089 255 255 255
0.707 -0.231 1.177 255 255 255
0.549 -0.562 1.18 255 255 255
0.746 -0.365 1.085 255 255 255
-0.006 0.057 0.396 255 255 255
-0.258 -0.188 1.024 255 255 255
-0.407 0.054 0.91 255 255 255
0.01 0.126 0.314 255 255 255
0.052 -0.257 1.07 0 0 0
0.633 -0.295 1.188 255 255 255
0.471 0.038 1.028 0 0 0
0.633 0.135 1.018 255 255 255
-0.33 -0.003 0.851 255 255 255
0.059 0.169 0.339 255 255 255
0.177 -0.282 0.506 255 255 255
0.782 -0.208 1.116 255 255 255
0.766 -0.224 1.13 255 255 255
-0.228 0.382 0.812 0 0 0
0.026 0.144 0.308 0 0 0
0.026 -0.403 1.054 255 255 255
-0.48 0.16 0.861 255 255 255
-0.176 0.303 0.848 255 255 255
0.19 -0.302 0.456 255 255 255
-0.245 -0.098 0.461 255 255 255
-0.26 -0.023 0.801 255 255 255
0.081 -0.534 0.988 255 255 255
0.44 0.048 1.025 255 255 255
-0.188 -0.185 0.364 255 255 255
-0.038 -0.409 1.075 255 255 255
-0.022 -0.023 0.987 255 255 255
-0.322 0.26 0.841 255 255 255
0.054 0.007 0.434 255 255 255
-0.041 -0.141 1.023 255 255 255
-0.316 -0.131 0.993 255 255 255
0.191 -0.107 1.044 255 255 255
-0.473 0.147 0.858 255 255 255
0.132 -0.249 1.048 255 255 255
0.014 -0.096 1.025 255 255 255
-0.425 0.044 0.731 255 255 255
0.422 0.031 1.029 255 255 255
-0.4 0.201 0.853 255 255 255
-0.019 0.125 0.315 255 255 255
0.024 0.021 0.434 255 255 255
0.732 -0.277 1.153 255 255 255
0.118 0.151 0.461 255 255 255
-0.037 0.09 0.415 255 255 255
0.545 -0.176 1.127 255 255 255
-0.348 -0.396 1.044 255 255 255
-0.221 -0.063 0.982 255 255 255
-0.261 -0.22 1.031 255 255 255
0.645 0.045 1.053 255 255 255
0.685 -0.269 1.189 255 255 255
-0.062 -0.002 0.977 255 255 255
-0.02 0.117 0.321 255 255 255
0.343 0.038 1.016 255 255 255
0.034 0.064 0.372 0 0 0
-0.166 0.186 0.893 255 255 255
-0.296 0.146 0.891 255 255 255
-0.481 0.153 0.843 255 255 255
0.119 0.174 0.381 0 0 0
0.426 -0.039 1.055 255 255 255
-0.042 0.043 0.963 0 0 0
-0.383 -0.343 1.033 255 255 255
-0.25 -0.294 1.036 255 255 255
-0.287 -0.339 1.033 255 255 255
-0.38 -0.432 1.059 255 255 255
0.53 -0.055 1.076 255 255 255
0.012 0.153 0.299 255 255 255
0.578 0.149 1.003 255 255 255
-0.305 0.353 0.808 0 0 0
0.126 0.151 0.398 255 255 255
0.436 -0.826 1.125 0 0 0
-0.022 0.039 0.483 0 0 0
-0.063 -0.355 1.052 255 255 255
-0.097 -0.287 1.078 255 255 255
-0.294 0.244 0.853 255 255 255
-0.026 0.14 0.307 0 0 0
-0.174 -0.532 1.107 255 255 255
0.058 0.055 0.384 255 255 255
-0.105 0.16 0.899 255 255 255
-0.02 -0.047 1.001 255 255 255
-0.198 -0.3 1.04 255 255 255
-0.402 0.123 0.886 0 0 0
-0.172 -0.102 1.003 255 255 255
0.282 0.066 0.996 0 0 0
-0.069 -0.563 0.98 255 255 255
-0.158 -0.047 0.983 255 255 255
0.689 -0.427 1.099 255 255 255
0.053 0.141 0.335 255 255 255
-0.387 -0.32 1.028 255 255 255
-0.051 0.129 0.341 255 255 255
0.004 -0.528 0.964 255 255 255
0.158 0.117 0.387 255 255 255
-0.433 -0.513 1.103 255 255 255
0.089 -0.532 1.002 255 255 255
-0.06 0.163 0.304 255 255 255
0.059 0.16 0.339 0 0 0
0.639 0.081 1.036 255 255 255
0.167 0.148 0.358 255 255 255
-0.276 -0.196 1.025 255 255 255
0.271 0.099 0.984 255 255 255
0.032 0.101 0.34 255 255 255
-0.303 -0.092 0.467 255 255 255
0.175 0.017 1.001 255 255 255
-0.377 -0.031 0.548 255 255 255
-0.425 0.058 0.73 255 255 255
0.199 -0.305 0.436 255 255 255
0.223 -0.456 1.019 255 255 255
0.321 -0.287 1.093 255 255 255
-0.061 0.146 0.324 0 0 0
0.426 -0.207 1.067 255 255 255
-0.036 -0.192 1.044 255 255 255
-0.011 0.095 0.346 255 255 255
-0.157 0.098 0.929 255 255 255
0.613 -0.562 1.07 255 255 255
0.422 0.112 0.995 255 255 255
-0.346 -0.068 0.461 255 255 255
-0.193 -0.165 0.361 255 255 255
-0.242 0.24 0.864 255 255 255
-0.478 0.099 0.851 0 0 0
-0.034 -0.415 1.072 255 255 255
-0.436 -0.639 1.161 255 255 255
-0.386 0.185 0.862 255 255 255
-0.235 -0.124 0.37 255 255 255
0.118 -0.572 1.066 255 255 255
0.68 -0.209 1.15 255 255 255
-0.384 -0.289 1.031 255 255 255
0.178 0.057 0.433 0 0 0
0.23 -0.375 1.088 255 255 255
0.197 -0.556 1.048 255 255 255
-0.057 0.104 0.52 255 255 255
-0.019 0.059 0.437 255 255 255
0.055 -0.382 1.06 255 255 255
-0.225 -0.133 0.354 255 255 255
0.326 0.019 1.019 255 255 255
-0.503 -0.768 1.201 255 255 255
-0.198 -0.198 0.353 255 255 255
0.313 -0.008 1.028 255 255 255
0.067 -1.003 1.382 0 0 0
-0.037 0.136 0.313 255 255 255
0.749 -0.297 1.103 255 255 255
-0.476 -0.816 1.222 255 255 255
0.043 0.038 0.4 255 255 255
0.021 0.072 0.362 255 255 255
0.217 0.106 0.4 255 255 255
0.182 -0.085 1.042 255 255 255
0.066 0.117 0.353 255 255 255
0.021 0.143 0.306 0 0 0
0.045 0.063 0.375 0 0 0
-0.131 0.221 0.887 255 255 255
-0.107 -0.993 1.36 0 0 0
0.037 0.13 0.327 255 255 255
-0.24 0.09 0.92 255 255 255
-0.25 0.336 0.825 255 255 255
0.628 -0.545 1.065 255 255 255
0.123 0.174 0.369 0 0 0
0.027 0.032 0.405 255 255 255
0.35 -0.271 1.093 255 255 255
-0.159 -0.141 1.02 255 255 255
0.509 -0.068 1.076 255 255 255
-0.231 -0.125 0.409 255 255 255
0.05 0.163 0.325 255 255 255
-0.049 0.137 0.318 255 255 255
-0.227 -0.099 0.475 255 255 255
0.003 0.095 0.344 255 255 255
0.451 -0.131 1.095 255 255 255
0.418 -0.075 1.064 0 0 0
0.167 0.127 0.376 255 255 255
0.169 -0.167 0.936 255 255 255
0.258 -0.082 1.043 0 0 0
0.585 -0.285 1.172 255 255 255
-0.428 0.142 0.874 255 255 255
0.283 -0.964 1.321 0 0 0
0.003 0.118 0.322 255 255 255
0.362 -0.008 1.037 255 255 255
0.123 0.191 0.362 255 255 255
-0.477 0.143 0.841 255 255 255
-0.299 -0.286 1.021 0 0 0
0.599 0.028 1.052 255 255 255
-0.109 -0.143 1.024 255 255 255
0.339 -0.269 1.084 255 255 255
0.024 0.072 0.367 255 255 255
-0.162 -0.263 1.056 255 255 255
-0.017 -0.11 1.025 255 255 255
0.048 0.035 0.404 255 255 255
0.624 -0.162 1.126 255 255 255
-0.354 -0.489 1.065 255 255 255
-0.469 0.074 0.791 255 255 255
0.388 -0.72 1.264 255 255 255
0.011 0.155 0.295 255 255 255
0.011 0.108 0.33 255 255 255
-0.377 0.08 0.905 0 0 0
-0.288 -0.316 1.025 255 255 255
-0.304 -0.09 0.469 255 255 255
-0.041 0.088 0.471 255 255 255
-0.369 -0.038 0.553 255 255 255
-0.137 0.014 0.963 255 255 255
-0.143 -0.714 1.222 255 255 255
0.815 -0.125 1.137 255 255 255
-0.143 -0.049 0.987 255 255 255
0.217 -0.157 1.031 255 255 255
0.801 -0.167 1.119 255 255 255
0.615 -0.522 1.119 255 255 255
-0.152 0.139 0.914 255 255 255
-0.265 -0.126 0.382 255 255 255
0.135 0.096 0.464 255 255 255
0.571 0.206 0.984 255 255 255
-0.222 -0.112 0.439 255 255 255
-0.195 0.006 0.956 255 255 255
0.117 0.165 0.404 255 255 255
0.176 -0.227 0.623 255 255 255
-0.233 -0.08 0.597 255 255 255
-0.141 -0.272 1.059 255 255 255
-0.534 -0.876 1.238 255 255 255
0.011 0.023 0.45 255 255 255
-0.144 0.151 0.911 255 255 255
0.043 -0.286 1.076 255 255 255
-0.25 0.063 0.929 255 255 255
0.501 0.083 1.016 255 255 255
-0.031 0.117 0.334 255 255 255
-0.177 0.072 0.934 255 255 255
0.104 -0.325 1.063 255 255 255
0.152 -0.181 0.902 255 255 255
-0.284 0.367 0.808 0 0 0
0.192 -0.327 0.41 255 255 255
-0.222 -0.099 0.492 255 255 255
0.163 0.081 0.42 255 255 255
0.198 -0.064 1.035 255 255 255
0.141 0.13 0.394 255 255 255
-0.248 -0.17 1.017 255 255 255
0.563 -0.622 1.102 255 255 255
-0.24 -0.121 0.412 255 255 255
-0.231 -0.13 0.389 255 255 255
0.554 -0.013 1.061 255 255 255
0.053 0.054 0.385 255 255 255
-0.333 -0.392 1.036 255 255 255
0.345 -0.324 1.102 255 255 255
-0.267 0.28 0.844 255 255 255
-0.412 0.168 0.866 255 255 255
0.674 -0.139 1.121 255 255 255
0.2 -0.134 1.022 255 255 255
0.167 -0.274 0.541 255 255 255
0.095 -0.25 1.064 255 255 255
0.763 -0.204 1.154 255 255 255
0.185 -0.073 1.038 255 255 255
-0.386 -0.348 1.034 255 255 255
0.574 -0.004 1.057 255 255 255
-0.206 -0.148 1.015 255 255 255
0.023 0.105 0.335 255 255 255
-0.2 -0.195 0.361 255 255 255
-0.204 0.039 0.944 255 255 255
-0.036 0.115 0.344 255 255 255
-0.07 0.018 0.968 255 255 255
0.538 0.161 0.993 255 255 255
0.274 0.13 0.971 255 255 255
-0.214 0.174 0.891 255 255 255
0.168 0.139 0.368 255 255 255
0.5 0.128 1.001 255 255 255
-0.298 -0.358 1.018 255 255 255
-0.321 -0.311 1.027 255 255 255
-0.06 0.01 0.972 255 255 255
0.573 0.105 1.018 255 255 255
0.405 0.062 1.014 255 255 255
-0.02 0.103 0.343 0 0 0
-0.498 -0.747 1.195 255 255 255
-0.192 -0.08 0.993 255 255 255
-0.285 -0.39 1.031 255 255 255
0.594 -0.004 1.064 255 255 255
0.04 0.005 0.417 255 255 255
-0.366 -0.887 1.264 255 255 255
-0.444 -0.588 1.142 255 255 255
-0.268 0.197 0.876 255 255 255
0.528 -0.383 1.118 255 255 255
0.16 0.093 0.408 0 0 0
0.6 -0.556 1.108 255 255 255
0.569 -0.167 1.12 255 255 255
-0.311 -0.434 1.047 255 255 255
-0.45 -0.691 1.178 255 255 255
-0.183 -0.119 1.007 255 255 255
-0.201 -0.266 1.031 255 255 255
-0.243 -0.534 1.097 255 255 255
-0.086 -0.191 1.044 255 255 255
0.045 0.021 0.423 255 255 255
-0.205 -0.559 1.114 255 255 255
-0.352 -0.251 1.006 255 255 255
-0.001 0.129 0.313 255 255 255
-0.106 -0.338 1.1 255 255 255
-0.414 0.046 0.784 0 0 0
0.025 0.15 0.305 0 0 0
0.508 -0.155 1.109 255 255 255
0.273 0.095 0.985 255 255 255
0.071 0.066 0.385 255 255 255
-0.331 0.38 0.797 0 0 0
0.113 -0.252 1.055 255 255 255
-0.21 0.318 0.838 255 255 255
-0.056 -0.23 1.056 255 255 255
-0.308 -0.088 0.461 255 255 255
-0.289 -0.096 0.499 255 255 255
-0.279 0.175 0.883 255 255 255
-0.462 0.211 0.842 255 255 255
0.02 0.107 0.331 255 255 255
0.625 -0.145 1.123 0 0 0
0.047 0.169 0.32 255 255 255
-0.138 0.068 0.942 255 255 255
-0.015 -0.211 1.052 255 255 255
0.02 0.146 0.301 0 0 0
-0.246 -0.112 0.422 255 255 255
0.169 0.065 0.444 0 0 0
0.705 -0.253 1.182 255 255 255
0.521 -0.195 1.128 255 255 255
0.158 0.085 0.421 255 255 255
0.446 -0.179 1.108 255 255 255
0.033 -0.53 0.964 255 255 255
0.419 -0.048 1.056 255 255 255
0.185 0.119 0.374 255 255 255
-0.034 0.133 0.313 255 255 255
-0.27 0.328 0.822 255 255 255
0.536 -0.115 1.097 255 255 255
0.288 0.007 1.017 255 255 255
-0.26 0.403 0.799 255 255 255
0.121 -0.991 1.386 255 255 255
-0.012 0.083 0.363 255 255 255
-0.258 0.132 0.902 255 255 255
0.614 0.145 1.01 255 255 255
-0.319 0.182 0.873 255 255 255
-0.235 0.228 0.869 255 255 255
0.624 0.07 1.041 0 0 0
0.676 0.124 1.027 255 255 255
-0.048 0.118 0.35 255 255 255
-0.002 0.028 0.976 255 255 255
-0.139 0.195 0.896 255 255 255
-0.283 -0.152 1.006 0 0 0
0.276 0.12 0.976 255 255 255
0.11 0.197 0.392 255 255 255
-0.283 0.259 0.85 255 255 255
0.029 0.057 0.38 255 255 255
0.035 0.102 0.339 255 255 255
-0.186 0.362 0.825 0 0 0
0.073 0.078 0.377 255 255 255
-0.041 -0.105 1.02 255 255 255
-0.132 -0.109 1.01 255 255 255
0.39 -0.388 0.977 255 255 255
-0.257 0.085 0.919 255 255 255
-0.128 -0.516 1.107 255 255 255
-0.035 0.149 0.304 0 0 0
-0.254 -0.264 1.023 255 255 255
0.008 -0.011 0.99 255 255 255
0.016 0.123 0.319 255 255 255
0.005 0.053 0.39 0 0 0
-0.325 -0.085 0.46 255 255 255
0.377 -0.017 1.041 255 255 255
0.125 0.192 0.35 255 255 255
0.223 -0.184 1.043 0 0 0
-0.019 0.142 0.303 0 0 0
-0.01 0.008 0.979 255 255 255
0.015 0.036 0.411 255 255 255
0.013 0.061 0.375 255 255 255
-0.239 -0.488 1.079 255 255 255
-0.562 -0.792 1.2 255 255 255
-0.043 -0.403 1.08 0 0 0
0.02 0.023 0.429 255 255 255
-0.371 -0.456 1.065 255 255 255
0.504 -0.015 1.056 255 255 255
-0.043 -0.011 0.98 255 255 255
0.292 0.15 0.966 255 255 255
0.39 -0.098 1.073 255 255 255
0.352 -0.078 1.061 255 255 255
-0.511 -0.985 1.283 0 0 0
0.211 -0.41 1.079 255 255 255
0.133 -0.881 1.349 255 255 255
-0.059 0.067 0.951 255 255 255
-0.203 0.385 0.814 0 0 0
-0.236 0.169 0.89 255 255 255
0.333 0.099 0.989 255 255 255
-0.19 -0.174 1.026 255 255 255
-0.389 -0.879 1.259 255 255 255
0.714 -0.422 1.083 255 255 255
-0.175 0.347 0.831 255 255 255
-0.185 -0.358 1.057 255 255 255
-0.253 -0.271 1.026 255 255 255
-0.264 0.266 0.849 255 255 255
-0.231 -0.168 1.019 255 255 255
0.193 0.085 0.404 255 255 255
-0.398 0.156 0.874 255 255 255
0.525 -0.376 1.112 255 255 255
0.043 0.108 0.341 255 255 255
0.137 0.135 0.393 0 0 0
0.034 0.168 0.31 255 255 255
-0.429 -0.916 1.266 0 0 0
-0.106 -0.291 1.076 255 255 255
-0.25 0.067 0.927 255 255 255
0.389 -0.812 1.241 255 255 255
-0.278 -0.765 1.23 255 255 255
-0.106 0.067 0.947 0 0 0
0.751 -0.303 1.09 255 255 255
0.056 0.045 0.394 255 255 255
-0.224 -0.732 1.227 255 255 255
-0.386 0.058 0.912 255 255 255
-0.312 0.195 0.867 255 255 255
-0.366 -0.509 1.073 255 255 255
-0.357 0.228 0.848 255 255 255
0.675 0.052 1.048 255 255 255
-0.366 0.135 0.885 255 255 255
-0.283 -0.243 1.011 255 255 255
-0.308 -0.705 1.204 255 255 255
0.019 0.159 0.295 255 255 255
0.008 -0.205 1.052 255 255 255
-0.486 0.191 0.848 255 255 255
-0.54 -0.924 1.257 0 0 0
-0.315 0.337 0.813 255 255 255
-0.003 0.108 0.331 255 255 255
-0.349 -0.419 1.051 255 255 255
-0.179 -0.371 1.061 255 255 255
-0.018 -0.076 1.014 255 255 255
-0.369 -0.008 0.8 255 255 255
-0.081 -0.826 1.284 255 255 255
-0.327 0.348 0.809 255 255 255
-0.08 0.085 0.946 255 255 255
-0.276 0.223 0.865 255 255 255
0.126 -0.499 1.052 255 255 255
-0.028 0.14 0.312 255 255 255
0.449 0.054 1.022 255 255 255
0.299 0.127 0.976 255 255 255
-0.36 0.255 0.836 255 255 255
-0.051 -0.211 1.049 255 255 255
0.196 -0.353 0.452 255 255 255
-0.023 0.041 0.967 255 255 255
0.105 0.214 0.382 255 255 255
0.707 -0.174 1.152 255 255 255
-0.296 -0.089 0.517 255 255 255
-0.054 0.037 0.961 255 255 255
-0.214 -0.136 0.42 255 255 255
0.693 -0.331 1.171 255 255 255
0.008 0.129 0.311 255 255 255
-0.332 0.256 0.841 255 255 255
0.085 0.084 0.39 255 255 255
-0.218 -0.116 0.442 255 255 255
-0.12 -0.454 1.066 255 255 255
-0.363 -0.654 1.175 255 255 255
-0.103 -0.039 0.987 255 255 255
-0.086 -0.392 1.117 255 255 255
-0.257 -0.074 0.529 255 255 255
-0.301 0.318 0.823 255 255 255
-0.282 -0.111 0.397 255 255 255
-0.275 0.182 0.881 255 255 255
-0.272 -0.117 0.398 255 255 255
-0.203 -0.128 0.494 255 255 255
-0.042 0.05 0.961 255 255 255
0.052 0.179 0.327 255 255 255
-0.057 -0.011 0.98 255 255 255
-0.036 0.158 0.294 255 255 255
-0.236 -0.11 0.447 255 255 255
0.036 0.018 0.426 255 255 255
-0.159 0.286 0.858 255 255 255
-0.375 0.233 0.843 255 255 255
0.124 0.18 0.364 255 255 255
0.147 0.123 0.393 255 255 255
-0.048 0.151 0.303 255 255 255
-0.346 -0.251 1.004 255 255 255
-0.341 -0.077 0.455 255 255 255
-0.391 0.311 0.814 255 255 255
0.348 -0.327 1.102 255 255 255
0.199 -0.473 1.005 255 255 255
0.072 -0.879 1.331 255 255 255
0.48 -0.264 1.15 255 255 255
0.044 -0.334 1.082 255 255 255
0.045 0.081 0.362 255 255 255
0.181 -0.482 1.005 255 255 255
0.536 0.061 1.03 255 255 255
-0.125 0.26 0.877 255 255 255
-0.233 -0.476 1.076 255 255 255
0.181 -0.053 1.028 0 0 0
0.202 -0.409 1.11 255 255 255
-0.188 -0.146 0.444 255 255 255
0.398 -0.213 1.072 255 255 255
-0.241 -0.779 1.241 255 255 255
0.014 0.108 0.331 255 255 255
0.206 -0.412 1.105 255 255 255
-0.059 0.151 0.32 0 0 0
0.12 -0.164 1.047 255 255 255
0.157 0.069 0.445 255 255 255
0.045 -0.098 1.028 255 255 255
-0.403 0.215 0.847 255 255 255
0.624 0.079 1.04 0 0 0
0.145 0.08 0.443 255 255 255
-0.225 -0.087 0.504 255 255 255
0.19 -0.28 0.486 255 255 255
-0.247 -0.497 1.08 255 255 255
0.06 0.042 0.401 0 0 0
-0.196 -0.149 0.371 255 255 255
0.541 -0.605 1.17 255 255 255
-0.065 -0.027 0.986 255 255 255
-0.057 0.161 0.304 255 255 255
0.499 -0.106 1.087 255 255 255
0.463 -0.038 1.062 0 0 0
-0.241 0.155 0.895 255 255 255
0.178 -0.008 1.012 255 255 255
-0.25 -0.006 0.791 0 0 0
-0.522 -0.965 1.274 0 0 0
0.519 0.086 1.017 255 255 255
-0.263 -0.124 0.401 255 255 255
0.107 0.198 0.417 255 255 255
0.11 -0.507 1.027 255 255 255
-0.125 -0.047 0.988 255 255 255
-0.229 -0.128 0.409 255 255 255
0.209 0.073 0.428 0 0 0
-0.266 0 0.782 255 255 255
-0.119 -0.096 1.008 255 255 255
-0.226 -0.098 0.478 255 255 255
0.701 -0.438 1.078 255 255 255
0.244 -0.112 1.027 255 255 255
-0.133 0.014 0.964 255 255 255
0.233 -0.149 1.034 255 255 255
-0.228 -0.12 0.425 255 255 255
-0.036 0.097 0.37 255 255 255
0.182 -0.294 0.477 255 255 255
0.013 0.046 0.397 0 0 0
-0.033 0.14 0.307 0 0 0
0.29 0.011 1.016 255 255 255
-0.274 0.143 0.896 255 255 255
-0.387 0.188 0.859 255 255 255
-0.326 0.059 0.92 0 0 0
0.002 -0.153 1.036 255 255 255
0.16 0.134 0.373 255 255 255
-0.164 0.183 0.895 255 255 255
0.155 -0.26 1.029 255 255 255
0.439 -0.817 1.138 0 0 0
0.005 0.143 0.303 0 0 0
-0.33 0 0.847 255 255 255
0.327 0.102 0.984 0 0 0
-0.016 0.071 0.388 0 0 0
-0.196 -0.033 0.974 255 255 255
0.249 0.117 0.971 255 255 255
-0.514 0.114 0.837 255 255 255
-0.35 0.046 0.919 255 255 255
-0.246 0.171 0.889 255 255 255
-0.205 0.365 0.822 0 0 0
-0.216 0.142 0.902 255 255 255
-0.342 -0.388 1.042 255 255 255
-0.134 -0.479 1.088 255 255 255
0.187 0.073 0.428 255 255 255
-0.351 0.207 0.857 255 255 255
0.077 0.03 0.424 255 255 255
-0.037 0.077 0.468 255 255 255
0.052 0.144 0.334 255 255 255
0.091 -0.547 0.973 255 255 255
-0.188 -0.199 0.368 255 255 255
0.587 -0.218 1.145 255 255 255
0.001 0.145 0.301 0 0 0
0.032 -0.081 1.021 255 255 255
0.223 0.088 0.427 255 255 255
-0.592 -0.853 1.22 255 255 255
-0.104 0.153 0.9 255 255 255
0.11 -0.319 1.052 255 255 255
0.536 0.087 1.019 255 255 255
0.531 -0.361 1.123 255 255 255
0.018 0.136 0.307 255 255 255
-0.457 0.205 0.845 255 255 255
0.135 0.097 0.431 255 255 255
-0.234 -0.092 0.483 255 255 255
-0.391 0.102 0.892 0 0 0
-0.54 -0.912 1.25 0 0 0
-0.086 -0.129 1.023 255 255 255
-0.235 -0.124 1.004 255 255 255
0.032 0.101 0.341 255 255 255
-0.432 0.081 0.898 255 255 255
0.543 0.028 1.045 255 255 255
0.052 0.072 0.371 255 255 255
-0.363 -0.02 0.809 255 255 255
0.116 0.168 0.469 255 255 255
0.043 0.117 0.338 255 255 255
-0.21 0.176 0.891 255 255 255
-0.263 0.213 0.871 255 255 255
0.552 -0.431 0.965 255 255 255
0.112 -0.205 1.051 255 255 255
0.525 -0.02 1.061 255 255 255
-0.016 -0.401 1.068 255 255 255
0.24 -0.443 0.991 255 255 255
0.173 -0.957 1.381 255 255 255
-0.224 -0.445 1.063 255 255 255
0.401 0.049 1.018 255 255 255
0.795 -0.168 1.129 0 0 0
-0.368 -0.734 1.209 255 255 255
0.524 -0.085 1.085 255 255 255
-0.233 0.33 0.83 255 255 255
-0.251 0.023 0.926 255 255 255
0.032 0.062 0.376 0 0 0
0.14 0.088 0.44 255 255 255
-0.314 -0.695 1.201 255 255 255
-0.433 0.026 0.611 255 255 255
0.421 0.037 1.026 255 255 255
-0.302 0.148 0.89 255 255 255
-0.019 -0.47 0.991 255 255 255
-0.317 -0.465 1.06 255 255 255
-0.193 -0.158 0.402 255 255 255
-0.136 -0.326 1.064 255 255 255
-0.158 -0.009 0.969 255 255 255
-0.204 -0.352 1.051 255 255 255
0.069 0.162 0.36 0 0 0
0.162 0.072 0.432 255 255 255
0.14 0.119 0.402 0 0 0
-0.248 -0.102 0.445 255 255 255
0.107 0.197 0.4 255 255 255
0.018 0.109 0.329 255 255 255
-0.343 -0.265 1.011 255 255 255
0.556 -0.61 1.137 255 255 255
0.074 0.135 0.365 255 255 255
0.417 -0.132 1.092 255 255 255
-0.049 0.124 0.347 255 255 255
0.004 -0.189 1.047 0 0 0
0.118 0.152 0.422 255 255 255
0.676 -0.134 1.119 255 255 255
0.097 -0.907 1.349 255 255 255
-0.357 0.205 0.857 255 255 255
-0.464 0.176 0.858 255 255 255
-0.292 -0.086 0.981 255 255 255
0.179 -0.171 0.958 255 255 255
-0.057 0.125 0.329 255 255 255
0.049 0.144 0.334 255 255 255
0.103 -0.344 0.919 255 255 255
-0.274 0.314 0.829 255 255 255
0.572 0.179 0.994 255 255 255
-0.291 -0.112 0.437 255 255 255
0.197 -0.465 1.009 255 255 255
0.756 -0.115 1.131 255 255 255
-0.363 0.163 0.873 255 255 255
0.126 0.186 0.36 255 255 255
-0.3 -0.206 1.021 255 255 255
-0.21 -0.128 0.446 255 255 255
-0.299 -0.489 1.07 255 255 255
0.078 0.143 0.375 255 255 255
0.408 -0.057 1.059 255 255 255
0.008 0.026 0.447 255 255 255
0.16 -0.452 1.006 255 255 255
0.252 -0.18 1.036 0 0 0
0.608 0.069 1.038 255 255 255
0.029 -0.203 1.054 255 255 255
-0.024 0.146 0.303 0 0 0
-0.253 0.273 0.849 255 255 255
-0.342 -0.518 1.081 255 255 255
-0.315 -0.095 0.423 255 255 255
-0.257 0.223 0.867 255 255 255
-0.325 0.361 0.802 0 0 0
0.068 -0.523 0.991 255 255 255
-0.159 -0.28 1.045 255 255 255
-0.198 -0.199 0.356 255 255 255
0.074 0.065 0.386 255 255 255
-0.281 -0.154 1.007 255 255 255
-0.302 0.329 0.817 255 255 255
-0.161 -0.175 1.033 255 255 255
0.702 -0.35 1.132 255 255 255
0.763 -0.012 1.092 255 255 255
0.091 -0.097 1.035 255 255 255
-0.13 -0.148 1.024 255 255 255
-0.058 -0.314 1.093 255 255 255
0.202 -0.035 1.025 255 255 255
-0.381 0.314 0.814 255 255 255
-0.404 -0.489 1.079 255 255 255
-0.384 -0.455 1.065 255 255 255
0.258 -0.042 1.037 255 255 255
-0.286 -0.184 1.019 255 255 255
-0.029 -0.531 0.952 255 255 255
-0.312 -0.086 0.465 255 255 255
0.617 -0.549 1.071 255 255 255
0.198 -0.415 1.113 255 255 255
-0.227 0.241 0.864 255 255 255
0.518 -0.176 1.116 0 0 0
-0.529 -0.92 1.254 0 0 0
0.609 0.024 1.056 255 255 255
0.462 -0.298 1.16 255 255 255
-0.194 0.359 0.824 255 255 255
-0.377 0.028 0.802 0 0 0
0.628 -0.396 1.228 255 255 255
-0.235 -0.127 0.4 255 255 255
0.356 -0.004 1.034 255 255 255
-0.269 -0.36 1.029 0 0 0
-0.391 0.117 0.889 0 0 0
0.086 -0.546 0.985 255 255 255
0.547 -0.067 1.082 255 255 255
-0.597 -0.893 1.234 0 0 0
0.576 0.129 1.011 255 255 255
0.244 0.098 0.978 255 255 255
-0.319 -0.141 0.996 255 255 255
-0.421 0.167 0.866 255 255 255
-0.436 0.126 0.88 255 255 255
-0.007 -0.224 1.062 255 255 255
-0.323 0.394 0.79 255 255 255
-0.138 -0.08 0.999 255 255 255
0.291 -0.025 1.034 255 255 255
0.67 0.024 1.06 0 0 0
-0.107 -0.226 1.056 255 255 255
0.512 0.043 1.034 255 255 255
-0.403 0.012 0.782 255 255 255
0.022 0.066 0.373 255 255 255
0.168 -0.233 0.618 255 255 255
-0.025 0.146 0.301 0 0 0
0.588 0.149 1.003 255 255 255
0.463 -0.361 1.089 255 255 255
-0.33 -0.65 1.175 255 255 255
-0.206 -0.128 0.477 255 255 255
-0.342 0.163 0.877 255 255 255
0.187 -0.045 1.023 255 255 255
-0.291 -0.305 1.021 255 255 255
0.433 -0.006 1.044 255 255 255
0.124 0.123 0.443 255 255 255
-0.336 0.25 0.843 255 255 255
-0.283 -0.633 1.15 255 255 255
0.079 0.053 0.399 255 255 255
0.524 -0.279 1.16 255 255 255
0.256 0.138 0.963 255 255 255
-0.062 -0.562 0.973 255 255 255
-0.291 0.442 0.782 255 255 255
0.034 0.036 0.403 255 255 255
0.182 -0.316 0.495 255 255 255
0.136 0.134 0.397 0 0 0
-0.189 -0.131 0.456 255 255 255
-0.445 0.169 0.862 255 255 255
0.011 0.103 0.332 255 255 255
0.546 0.13 1.006 255 255 255
-0.169 -0.636 1.188 255 255 255
-0.336 -0.741 1.215 255 255 255
-0.445 0.193 0.853 255 255 255
-0.376 -0.013 0.584 255 255 255
0.192 -0.316 0.425 255 255 255
0.365 -0.147 1.082 255 255 255
-0.224 0.2 0.881 255 255 255
-0.365 -0.007 0.64 255 255 255
0.293 0.146 0.967 0 0 0
-0.271 -0.115 0.401 255 255 255
-0.012 0.117 0.334 255 255 255
-0.395 -0.024 0.529 255 255 255
0.142 0.099 0.418 255 255 255
0.095 0.077 0.407 255 255 255
-0.47 0.075 0.782 255 255 255
-0.334 0.152 0.883 255 255 255
-0.325 -0.37 1.029 255 255 255
-0.029 0.076 0.416 255 255 255
0.004 0.126 0.314 255 255 255
0.009 -0.333 1.087 0 0 0
-0.192 -0.073 0.991 255 255 255
-0.278 0.043 0.904 0 0 0
0.041 0.15 0.324 0 0 0
-0.333 -0.069 0.494 255 255 255
0.657 -0.417 1.144 255 255 255
0.009 0.071 0.364 255 255 255
0.545 -0.579 1.172 255 255 255
0.013 0.112 0.324 255 255 255
0.039 0.158 0.314 255 255 255
0.123 -0.232 1.063 255 255 255
-0.035 0.115 0.341 255 255 255
0.027 0.129 0.32 255 255 255
0.004 0.131 0.309 255 255 255
0.531 -0.125 1.102 255 255 255
0.183 -0.14 1.022 255 255 255
-0.313 0.354 0.807 0 0 0
-0.018 0.1 0.345 0 0 0
0.781 0.008 1.084 255 255 255
-0.476 0.143 0.843 255 255 255
0.433 -0.257 1.14 255 255 255
0.169 -0.261 0.564 255 255 255
-0.226 -0.12 0.425 255 255 255
-0.374 -0.521 1.08 255 255 255
0.118 0.154 0.424 255 255 255
0.053 -0.518 0.996 255 255 255
-0.213 0.221 0.874 255 255 255
-0.309 0.216 0.86 255 255 255
-0.174 -0.326 1.053 0 0 0
-0.214 -0.102 0.548 255 255 255
-0.277 -0.761 1.229 255 255 255
0.18 -0.238 0.594 255 255 255
0.034 -0.227 1.062 255 255 255
0.003 0.078 0.359 255 255 255
-0.004 0.097 0.341 0 0 0
0.631 -0.126 1.11 255 255 255
0.257 0.021 1.015 255 255 255
0.118 -0.008 1.002 255 255 255
-0.222 -0.1 0.488 255 255 255
0.042 0.088 0.358 255 255 255
-0.276 0.098 0.912 255 255 255
0.562 -0.032 1.071 255 255 255
-0.221 0.366 0.818 0 0 0
0.38 -0.84 1.23 255 255 255
0.056 0.048 0.39 255 255 255
0.189 -0.334 0.473 255 255 255
0.579 -0.132 1.109 255 255 255
0.555 -0.065 1.082 255 255 255
0.695 -0.344 1.155 255 255 255
-0.008 0.105 0.334 255 255 255
-0.046 0.044 0.961 0 0 0
-0.437 -0.573 1.136 255 255 255
-0.349 -0.302 1.022 255 255 255
-0.201 -0.149 0.415 255 255 255
0.137 -0.11 1.018 0 0 0
-0.376 -0.012 0.587 255 255 255
-0.212 -0.125 0.471 255 255 255
-0.295 0.148 0.892 255 255 255
0.001 0.057 0.391 255 255 255
0.578 -0.092 1.094 255 255 255
-0.216 -0.613 1.133 255 255 255
0.012 -0.188 1.043 255 255 255
-0.046 0.097 0.468 255 255 255
-0.611 -0.941 1.25 0 0 0
-0.017 0.114 0.327 255 255 255
0.104 -0.477 1.067 255 255 255
-0.367 -0.461 1.065 255 255 255
0.421 -0.863 1.114 255 255 255
0.346 0.032 1.019 255 255 255
-0.575 -0.915 1.245 0 0 0
-0.419 0.262 0.828 255 255 255
0.125 0.128 0.421 255 255 255
-0.17 -0.071 0.992 255 255 255
-0.048 -0.185 1.038 255 255 255
-0.05 0.147 0.312 0 0 0
-0.164 -0.13 1.013 255 255 255
0.197 -0.291 0.459 255 255 255
-0.25 -0.488 1.077 255 255 255
0.684 -0.401 1.106 255 255 255
-0.166 0.037 0.948 255 255 255
-0.389 0.218 0.848 255 255 255
-0.188 -0.505 1.094 255 255 255
-0.393 0.196 0.856 255 255 255
-0.44 0.062 0.808 255 255 255
-0.212 -0.121 0.483 255 255 255
-0.485 0.143 0.839 0 0 0
0.116 0.139 0.474 255 255 255
0.145 -0.116 1.02 0 0 0
-0.119 -0.405 1.069 255 255 255
-0.031 0.109 0.345 255 255 255
0.658 0.127 1.023 255 255 255
-0.422 0.09 0.893 255 255 255
-0.193 -0.155 0.361 0 0 0
0.724 -0.345 1.09 255 255 255
0.129 -0.498 1.083 255 255 255
-0.438 0.185 0.855 255 255 255
0.075 -0.326 1.078 255 255 255
0.661 0.114 1.028 255 255 255
0.018 0.019 0.449 255 255 255
-0.01 0.146 0.302 0 0 0
0.136 0.161 0.371 255 255 255
-0.226 -0.13 0.404 255 255 255
0.498 -0.274 1.158 255 255 255
0.11 0.199 0.367 255 255 255
-0.021 0.117 0.327 255 255 255
0 -0.273 1.079 255 255 255
-0.24 0.387 0.807 0 0 0
-0.292 -0.103 0.471 255 255 255
-0.018 0.144 0.301 0 0 0
-0.099 -0.251 1.059 255 255 255
-0.11 -0.35 1.108 255 255 255
-0.055 -0.037 0.989 255 255 255
-0.22 -0.104 0.51 255 255 255
-0.064 -0.439 1.006 0 0 0
-0.193 -0.137 0.47 255 255 255
-0.275 0.046 0.921 255 255 255
0.078 0.054 0.399 255 255 255
-0.247 -0.113 0.417 255 255 255
0.582 -0.534 1.161 255 255 255
0.037 0.166 0.312 255 255 255
0.26 -0.098 1.025 255 255 255
-0.139 -0.051 0.989 255 255 255
0.617 0.005 1.064 255 255 255
-0.002 0.068 0.375 0 0 0
-0.273 0.22 0.868 255 255 255
-0.003 0.146 0.3 0 0 0
-0.357 0.28 0.829 255 255 255
-0.122 -0.508 1.1 255 255 255
-0.172 -0.349 1.061 255 255 255
-0.258 0.232 0.864 255 255 255
-0.224 -0.131 0.377 255 255 255
-0.185 -0.177 0.365 255 255 255
0.216 -0.258 0.559 255 255 255
0.617 0.112 1.022 255 255 255
-0.233 0.323 0.832 255 255 255
-0.256 0.085 0.92 255 255 255
0.504 -0.201 1.125 255 255 255
0.104 -0.073 1.026 255 255 255
0.416 -0.343 1.019 255 255 255
0.221 0.068 0.442 255 255 255
-0.329 0.196 0.865 255 255 255
-0.019 -0.195 1.046 255 255 255
0.744 -0.359 1.084 255 255 255
0.678 -0.371 1.159 255 255 255
-0.398 -0.667 1.176 255 255 255
-0.156 -0.015 0.972 255 255 255
0.047 0.004 0.986 255 255 255
-0.448 0.128 0.877 255 255 255
-0.205 -0.135 1.012 255 255 255
0.041 0.068 0.372 255 255 255
0.048 0.12 0.34 255 255 255
-0.193 -0.175 0.362 255 255 255
-0.423 0.266 0.826 255 255 255
-0.227 0.432 0.797 255 255 255
-0.026 0.074 0.408 255 255 255
0.438 0.094 1.006 255 255 255
0.555 -0.624 1.116 255 255 255
-0.014 -0.384 1.087 255 255 255
0.134 0.141 0.387 255 255 255
0.006 0.107 0.333 255 255 255
-0.289 -0.479 1.069 255 255 255
-0.385 0.023 0.74 255 255 255
-0.37 -0.017 0.598 255 255 255
-0.209 -0.14 0.362 255 255 255
-0.359 -0.249 1.015 255 255 255
-0.186 0.321 0.84 255 255 255
0.192 0.072 0.427 0 0 0
-0.357 -0.051 0.504 255 255 255
-0.329 -0.084 0.453 255 255 255
-0.018 0.088 0.362 0 0 0
-0.25 0.015 0.914 255 255 255
0.039 0.037 0.405 255 255 255
0.155 0.087 0.421 255 255 255
0.132 -0.328 0.918 255 255 255
0.053 0.095 0.358 0 0 0
0.206 0.067 0.443 0 0 0
0.478 -0.161 1.106 255 255 255
-0.466 -0.547 1.123 255 255 255
0.004 0.129 0.314 255 255 255
0.025 0.055 0.376 255 255 255
0.53 -0.224 1.137 255 255 255
-0.104 -0.289 1.077 255 255 255
-0.009 0.11 0.331 255 255 255
0.446 0.04 1.028 255 255 255
0.08 0.058 0.397 255 255 255
-0.374 -0.552 1.087 255 255 255
-0.033 0.112 0.343 255 255 255
-0.102 -0.105 1.013 255 255 255
0.059 0.153 0.339 0 0 0
-0.258 0.059 0.93 255 255 255
-0.395 0.013 0.707 255 255 255
0.3 -0.181 1.048 255 255 255
0.144 0.083 0.442 255 255 255
-0.244 -0.143 1.005 255 255 255
-0.521 -0.816 1.216 255 255 255
0.386 -0.877 1.19 0 0 0
-0.352 -0.012 0.648 255 255 255
0.546 -0.197 1.132 255 255 255
0.781 -0.252 1.085 255 255 255
-0.305 -0.3 1.024 255 255 255
0.531 -0.142 1.107 255 255 255
-0.327 0.346 0.81 255 255 255
-0.302 -0.107 0.442 255 255 255
0.037 -0.139 1.041 0 0 0
-0.254 0.219 0.869 255 255 255
0.405 0.011 1.033 255 255 255
-0.345 -0.44 1.048 255 255 255
0.174 0.117 0.384 0 0 0
0.008 0.138 0.307 255 255 255
-0.104 -0.212 1.052 255 255 255
-0.251 0.316 0.831 255 255 255
0.093 -0.943 1.36 255 255 255
0.717 -0.415 1.084 255 255 255
-0.146 -0.202 1.043 255 255 255
0.015 0.049 0.389 0 0 0
0.008 0.006 0.983 255 255 255
0.378 -0.742 1.288 255 255 255
-0.389 -0.77 1.219 255 255 255
-0.398 -0.001 0.584 255 255 255
0.063 0.044 0.396 255 255 255
-0.327 0.141 0.888 255 255 255
-0.165 -0.009 0.969 255 255 255
-0.165 -0.516 1.103 255 255 255
0.146 0.139 0.377 255 255 255
0.034 0.03 0.409 255 255 255
0.397 -0.185 1.066 255 255 255
-0.488 -0.598 1.144 255 255 255
0.053 0.009 0.435 255 255 255
0.093 0.066 0.406 255 255 255
-0.222 -0.479 1.078 255 255 255
0.227 -0.289 0.469 255 255 255
0.721 -0.265 1.18 255 255 255
0.429 -0.053 1.057 0 0 0
-0.133 0.261 0.873 255 255 255
0.115 0.166 0.412 255 255 255
0.565 -0.401 1.033 255 255 255
-0.345 -0.218 1.004 255 255 255
-0.021 0.139 0.305 0 0 0
0.472 -0.04 1.059 255 255 255
0.685 -0.033 1.088 255 255 255
0.192 -0.138 1.021 255 255 255
-0.268 -0.343 1.037 255 255 255
-0.414 0.174 0.863 255 255 255
-0.413 -0.56 1.125 255 255 255
-0.246 0.389 0.807 0 0 0
-0.011 0.069 0.384 0 0 0
0.175 -0.22 0.627 255 255 255
0.03 0.159 0.307 255 255 255
-0.273 0.36 0.812 0 0 0
0.148 -0.957 1.378 255 255 255
0.219 -1.027 1.386 0 0 0
0.147 0.154 0.365 255 255 255
-0.133 0.052 0.948 255 255 255
-0.087 -0.316 1.089 255 255 255
0.508 0.122 1.003 255 255 255
-0.314 0.402 0.789 255 255 255
-0.395 -0.535 1.101 255 255 255
-0.544 -0.892 1.242 255 255 255
-0.051 -0.206 1.048 255 255 255
0.18 -0.282 0.505 255 255 255
-0.344 -0.067 0.464 255 255 255
-0.301 0.093 0.911 255 255 255
-0.196 -0.759 1.236 255 255 255
0.038 0.101 0.338 255 255 255
0.2 0.104 0.391 255 255 255
-0.491 -0.944 1.27 0 0 0
0.288 0.123 0.976 255 255 255
-0.23 -0.334 1.042 255 255 255
0.308 -0.113 1.066 255 255 255
0.283 -0.978 1.294 0 0 0
0.509 -0.348 1.158 255 255 255
-0.131 0.162 0.909 0 0 0
0.276 -0.023 1.028 255 255 255
0.122 0.165 0.393 255 255 255
0.035 0.088 0.356 255 255 255
0.427 -0.783 1.204 255 255 255
0.184 -0.545 1.018 255 255 255
0.127 0.116 0.461 255 255 255
-0.205 -0.005 0.96 255 255 255
0.022 -0.414 0.965 255 255 255
-0.407 -0.609 1.132 255 255 255
-0.252 -0.279 1.03 255 255 255
0.386 -0.874 1.202 0 0 0
0.048 0.074 0.371 255 255 255
0.393 -0.133 1.086 255 255 255
0.156 -0.255 0.891 255 255 255
0.075 -0.254 1.065 255 255 255
0.044 0.007 0.429 255 255 255
-0.225 -0.132 0.355 255 255 255
-0.007 0.121 0.32 255 255 255
-0.371 0.005 0.683 255 255 255
-0.55 -0.867 1.232 255 255 255
0.585 0.128 1.013 255 255 255
-0.199 0.255 0.864 255 255 255
-0.002 0.036 0.446 255 255 255
0.039 0.158 0.315 255 255 255
0.615 -0.565 1.056 255 255 255
-0.035 0.048 0.964 255 255 255
-0.051 0.112 0.334 255 255 255
0.015 0.022 0.446 255 255 255
-0.095 -0.217 1.047 255 255 255
-0.451 0.077 0.84 0 0 0
0.785 -0.135 1.143 0 0 0
0.256 -1.009 1.328 0 0 0
-0.349 0.186 0.866 255 255 255
-0.282 0.303 0.831 255 255 255
0.054 0.163 0.332 255 255 255
-0.192 0.046 0.942 255 255 255
-0.085 -0.041 0.989 255 255 255
0.177 0.011 1.003 255 255 255
0.086 -0.094 1.031 255 255 255
-0.314 -0.175 1.01 255 255 255
-0.387 -0.305 1.032 255 255 255
0.375 -0.236 1.123 255 255 255
-0.002 0.063 0.382 0 0 0
-0.164 -0.756 1.245 255 255 255
-0.166 -0.137 1.016 255 255 255
0.069 0.074 0.376 255 255 255
0.064 -0.542 0.974 255 255 255
0.555 -0.156 1.115 255 255 255
-0.315 -0.019 0.851 255 255 255
-0.45 -0.483 1.072 255 255 255
-0.386 -0.011 0.659 255 255 255
-0.372 0.091 0.902 0 0 0
0.043 0.13 0.328 255 255 255
0.516 -0.335 1.158 255 255 255
0.05 0.07 0.369 255 255 255
-0.221 -0.121 0.427 255 255 255
-0.037 0.152 0.297 255 255 255
-0.047 0.156 0.298 255 255 255
-0.008 0.045 0.437 255 255 255
0.392 -0.07 1.062 255 255 255
0.171 -0.221 0.635 255 255 255
-0.35 0.297 0.823 255 255 255
-0.139 0.13 0.918 255 255 255
-0.29 0.195 0.872 255 255 255
0.179 -0.431 1.047 255 255 255
0.354 -0.908 1.23 0 0 0
0.012 0.067 0.367 255 255 255
-0.041 0.117 0.351 255 255 255
0.138 -0.044 1.017 255 255 255
0.065 0.09 0.368 255 255 255
0.377 -0.03 1.046 255 255 255
0.435 -0.815 1.146 255 255 255
0.411 -0.021 1.048 255 255 255
-0.205 -0.148 0.357 0 0 0
0.382 -0.816 1.25 255 255 255
0.056 -0.982 1.37 255 255 255
0.187 -0.213 0.592 255 255 255
0.14 -0.309 0.915 255 255 255
-0.427 0.234 0.837 255 255 255
-0.025 0.144 0.304 0 0 0
0.122 -0.118 1.02 0 0 0
0.056 0.136 0.338 255 255 255
0.765 -0.114 1.124 255 255 255
-0.238 -0.362 1.041 0 0 0
0.356 0.053 1.013 255 255 255
0.029 -0.425 0.934 255 255 255
-0.209 -0.508 1.091 255 255 255
-0.347 -0.31 1.024 255 255 255
0.186 -0.234 0.576 255 255 255
-0.375 -0.032 0.552 255 255 255
0.154 -0.445 1.024 255 255 255
0.145 0.155 0.363 255 255 255
-0.403 0.212 0.849 255 255 255
-0.372 0.021 0.737 255 255 255
-0.019 0.068 0.401 255 255 255
-0.209 -0.137 0.425 255 255 255
-0.308 -0.765 1.225 255 255 255
-0.294 0.252 0.849 255 255 255
0.052 0.155 0.331 0 0 0
0.065 0.048 0.392 255 255 255
0.143 0.084 0.442 255 255 255
0.153 0.102 0.402 255 255 255
0.55 -0.398 1.035 255 255 255
-0.235 0.188 0.883 255 255 255
0.286 -0.108 1.062 255 255 255
-0.35 0.126 0.892 255 255 255
0.548 0.052 1.034 255 255 255
-0.165 0.202 0.888 255 255 255
0.442 -0.152 1.101 255 255 255
0.811 -0.096 1.133 255 255 255
0.13 0.114 0.471 255 255 255
-0.142 -0.429 1.07 255 255 255
0.031 -0.301 1.087 0 0 0
0.65 -0.038 1.085 255 255 255
-0.428 0.204 0.849 255 255 255
0.585 -0.104 1.1 255 255 255
0.005 0.058 0.383 255 255 255
0.311 -0.023 1.035 255 255 255
-0.31 -0.267 1.014 255 255 255
0.188 -0.428 1.063 255 255 255
-0.004 0.087 0.352 255 255 255
-0.224 -0.354 1.048 255 255 255
-0.207 -0.491 1.083 255 255 255
0.003 0.066 0.374 255 255 255
0.193 -0.01 1.014 255 255 255
0.709 0.039 1.064 255 255 255
