ply
format ascii 1.0
comment Created by Open3D
element vertex 1592
property double x
property double y
property double z
property uchar red
property uchar green
property uchar blue
end_header
0.019 0.13 0.401 255 255 255
0.233 -0.131 0.417 255 255 255
0.341 -0.072 1.11 255 255 255
0.28 -0.115 1.111 255 255 255
-0.489 0.042 0.766 255 255 255
-0.125 -0.066 1.004 255 255 255
0.464 -0.278 1.222 255 255 255
-0.032 0.12 0.362 255 255 255
0.036 0.1 0.401 255 255 255
0.663 -0.179 1.167 255 255 255
-0.057 0.135 0.318 255 255 255
-0.194 -0.382 1.011 255 255 255
0.403 -0.175 1.139 255 255 255
-0.555 -0.558 1.05 255 255 255
-0.103 0.144 0.287 255 255 255
-0.013 0.411 0.842 255 255 255
-0.572 -0.128 0.932 255 255 255
0.043 0.089 0.982 0 0 0
0.618 0.092 1.105 255 255 255
0.288 -0.217 1.154 255 255 255
-0.029 -0.092 1.036 255 255 255
-0.024 0.094 0.391 255 255 255
-0.302 -0.252 1.03 255 255 255
0.668 0.013 1.153 255 255 255
0.464 0.31 0.981 255 255 255
0.226 -0.13 0.385 255 255 255
0.382 0.341 0.953 255 255 255
-0.474 -0.043 0.928 255 255 255
-0.02 -0.004 1.001 255 255 255
0.062 0.16 0.347 0 0 0
-0.14 -0.158 1.037 255 255 255
-0.029 0.062 0.397 255 255 255
0.055 0.133 0.37 255 255 255
0.604 -0.291 1.12 255 255 255
0.702 -0.081 1.187 0 0 0
-0.429 0.122 0.865 255 255 255
0.116 0.131 0.37 0 0 0
-0.106 0.086 0.338 255 255 255
-0.364 0.219 0.839 0 0 0
-0.117 -0.415 1.049 255 255 255
-0.353 0.099 0.891 255 255 255
0.051 0.036 0.453 255 255 255
-0.058 0.01 0.423 255 255 255
0.161 -0.205 0.376 255 255 255
0.411 0.123 1.044 255 255 255
0.252 -0.015 1.067 255 255 255
0.564 0.001 1.135 255 255 255
-0.432 -0.184 0.983 255 255 255
-0.597 -0.507 1.019 255 255 255
-0.312 -0.182 1.003 255 255 255
-0.086 0.065 0.356 255 255 255
-0.345 0.156 0.87 255 255 255
-0.058 0.018 0.416 255 255 255
-0.401 -0.387 1.011 255 255 255
0.439 -0.405 1.216 255 255 255
0.139 -0.436 0.995 255 255 255
0.093 0.042 0.453 255 255 255
-0.208 -0.029 0.973 255 255 255
0.806 -0.059 1.118 255 255 255
-0.066 0.143 0.305 0 0 0
-0.445 -0.575 1.126 255 255 255
0.085 0.075 0.406 255 255 255
0.332 0.178 1.005 255 255 255
-0.617 -0.223 0.954 255 255 255
0.2 -0.153 0.382 255 255 255
0.08 -0.301 0.408 0 0 0
-0.411 -0.013 0.925 255 255 255
-0.568 -0.467 1.008 255 255 255
0.427 0.197 1.017 255 255 255
0.577 0.084 1.098 255 255 255
-0.186 -0.587 1.072 255 255 255
0.433 -0.077 1.13 255 255 255
-0.127 0.069 0.34 255 255 255
-0.506 -0.064 0.925 255 255 255
-0.485 -0.635 1.133 255 255 255
0.248 -0.114 0.399 255 255 255
0.092 0.156 0.342 0 0 0
-0.355 -0.077 0.464 255 255 255
-0.526 -0.197 0.941 255 255 255
0.463 0.331 0.969 0 0 0
-0.292 -0.096 0.982 255 255 255
0.596 -0.327 1.11 255 255 255
-0.158 -0.178 1.042 255 255 255
0.237 -0.126 0.4 255 255 255
0.723 -0.065 1.19 0 0 0
-0.623 -0.21 0.953 255 255 255
0.526 -0.028 1.137 255 255 255
0.021 0.097 0.415 0 0 0
-0.079 -0.165 1.005 255 255 255
0.478 -0.38 1.196 255 255 255
-0.363 0.212 0.842 0 0 0
-0.475 0.162 0.84 255 255 255
-0.55 -0.204 0.938 255 255 255
-0.351 0.083 0.898 255 255 255
0.497 0.335 0.978 255 255 255
0.048 0.123 0.372 255 255 255
-0.144 -0.059 0.997 255 255 255
0.674 -0.069 1.184 0 0 0
-0.061 -0.638 1.001 255 255 255
0.52 0.15 1.055 255 255 255
-0.086 -0.052 1.005 255 255 255
-0.3 -0.967 1.322 0 0 0
0.096 0.064 1.002 255 255 255
-0.073 0.097 0.33 255 255 255
0.635 -0.245 1.12 255 255 255
0.24 -0.127 1.107 255 255 255
0.47 -0.212 1.188 255 255 255
-0.515 -0.299 0.97 255 255 255
0.458 0.289 0.99 255 255 255
-0.116 0.142 0.295 0 0 0
-0.622 -0.299 0.958 255 255 255
-0.104 0.059 0.361 255 255 255
-0.083 0.002 0.425 255 255 255
0.027 0.151 0.379 255 255 255
-0.427 0.229 0.824 255 255 255
-0.641 -0.215 0.95 255 255 255
0.503 -0.169 1.157 0 0 0
-0.258 -0.543 0.933 255 255 255
-0.482 0.13 0.851 255 255 255
-0.341 0.151 0.872 255 255 255
0.462 -0.462 1.14 255 255 255
0.018 0.12 0.404 255 255 255
-0.296 -0.055 0.962 255 255 255
-0.329 -0.273 1.038 255 255 255
-0.145 0.133 0.316 255 255 255
0.77 0.063 1.15 255 255 255
-0.405 -0.382 1.01 255 255 255
-0.435 -0.235 0.978 255 255 255
0.08 -0.29 1.135 255 255 255
-0.336 0.133 0.881 255 255 255
-0.04 0.132 0.343 255 255 255
-0.1 0.09 0.332 255 255 255
0.113 0.096 0.397 255 255 255
0.055 0.094 0.393 0 0 0
0.165 -0.134 1.094 255 255 255
0.435 -0.265 1.204 255 255 255
0.627 -0.137 1.196 255 255 255
0.378 -0.011 1.092 255 255 255
-0.371 0.126 0.876 0 0 0
-0.254 -0.082 0.983 255 255 255
-0.48 -0.358 0.979 255 255 255
0.153 -0.225 0.357 255 255 255
-0.585 -0.522 1.025 255 255 255
-0.104 0.146 0.286 255 255 255
-0.459 -0.168 0.972 0 0 0
-0.319 -0.947 1.309 0 0 0
0.645 0.006 1.15 255 255 255
0.361 -0.082 1.117 255 255 255
0.176 -0.203 0.345 255 255 255
0.144 -0.231 0.317 0 0 0
-0.12 -0.266 1.054 255 255 255
0.558 0.099 1.087 255 255 255
0.257 0.051 1.041 255 255 255
-0.051 0.033 0.394 255 255 255
-0.045 0.156 0.324 0 0 0
-0.033 0.153 0.35 255 255 255
0.19 -0.163 0.376 255 255 255
0.011 0.086 0.442 255 255 255
0.073 0.085 0.396 255 255 255
-0.035 0.111 0.358 255 255 255
0.242 -0.438 1.178 255 255 255
0.536 -0.291 1.213 255 255 255
0.021 -0.214 1.057 0 0 0
-0.082 0.019 0.398 255 255 255
-0.069 0.105 0.328 0 0 0
0.119 0.125 0.377 255 255 255
0.099 0.152 0.346 255 255 255
0.082 0.075 0.405 0 0 0
-0.438 0.041 0.897 255 255 255
-0.548 0.088 0.845 255 255 255
-0.279 -0.161 0.996 255 255 255
0.088 -0.269 0.394 255 255 255
-0.052 0.105 0.341 255 255 255
0.093 0.146 0.349 255 255 255
-0.145 0.044 0.437 255 255 255
0.318 0.127 1.022 255 255 255
-0.087 0.104 0.321 255 255 255
0.428 -0.307 1.217 255 255 255
0.135 -0.235 0.374 255 255 255
-0.042 0.137 0.342 255 255 255
0.431 0.326 0.968 255 255 255
-0.355 0.05 0.91 255 255 255
0.024 0.133 0.398 255 255 255
-0.027 -0.166 1.025 255 255 255
0.665 -0.131 1.204 0 0 0
-0.373 -0.379 1.075 255 255 255
-0.402 0.046 0.9 255 255 255
0.37 -0.518 1.178 255 255 255
0.291 -0.123 1.118 255 255 255
0.076 -0.306 0.403 255 255 255
0.786 -0.036 1.159 255 255 255
0.059 0.146 0.357 255 255 255
0.002 -0.125 1.028 255 255 255
0.281 0.003 1.066 255 255 255
0.47 -0.457 1.133 255 255 255
-0.354 -0.292 1.042 255 255 255
-0.453 -0.23 0.971 255 255 255
-0.282 0.004 0.944 255 255 255
0.367 -0.063 1.109 255 255 255
-0.052 0.051 0.382 255 255 255
0.281 -0.501 1.02 255 255 255
-0.114 0.082 0.341 255 255 255
-0.117 0.149 0.288 255 255 255
-0.217 -0.238 1.039 255 255 255
0.655 0.188 1.074 255 255 255
-0.422 -0.775 1.209 255 255 255
-0.1 0.158 0.282 255 255 255
-0.042 -0.136 1.05 255 255 255
-0.068 0.109 0.327 255 255 255
0.039 -0.229 1.083 0 0 0
0.049 0.138 0.369 255 255 255
-0.054 -0.109 1.039 255 255 255
0.016 0.189 0.371 255 255 255
-0.427 -0.101 0.958 255 255 255
-0.098 0.025 0.397 255 255 255
-0.258 -0.191 1.013 255 255 255
0.454 -0.163 1.165 255 255 255
-0.497 -0.145 0.958 255 255 255
-0.337 -0.24 1.018 255 255 255
-0.026 0.014 0.993 255 255 255
0.045 0.064 0.419 255 255 255
0.141 -0.43 1.014 255 255 255
-0.02 -0.252 0.618 255 255 255
-0.352 0.076 0.9 0 0 0
0.813 0.054 1.163 255 255 255
0.031 0.082 0.98 255 255 255
-0.481 -0.197 0.969 0 0 0
0.507 -0.031 1.131 255 255 255
-0.613 -0.233 0.95 255 255 255
0.315 -0.227 1.162 0 0 0
-0.377 0.255 0.823 255 255 255
0.695 0.039 1.145 255 255 255
-0.23 -0.196 1.023 255 255 255
0.052 0.037 0.454 255 255 255
-0.558 -0.367 0.967 255 255 255
0.393 -0.114 1.131 255 255 255
-0.419 -0.314 1.006 0 0 0
-0.036 0.041 0.408 255 255 255
-0.407 0.029 0.906 255 255 255
0.195 -0.167 0.41 255 255 255
-0.335 -0.368 0.973 255 255 255
-0.019 0.196 0.926 255 255 255
-0.033 0.124 0.357 255 255 255
0.209 0.05 1.03 255 255 255
-0.179 -0.142 1.02 0 0 0
0.551 0.282 1.014 255 255 255
0.63 -0.22 1.169 255 255 255
-0.391 0.167 0.856 255 255 255
0.213 -0.129 1.102 255 255 255
0.081 0.074 0.996 255 255 255
0.747 -0.137 1.096 255 255 255
0.032 0.139 0.381 255 255 255
0.462 -0.421 1.157 255 255 255
0.185 -0.195 0.352 255 255 255
0.081 -0.294 0.409 255 255 255
-0.508 -0.607 1.082 255 255 255
-0.276 -0.233 1.027 0 0 0
0.421 0.057 1.074 255 255 255
0.131 -0.436 0.996 255 255 255
-0.673 -0.236 0.952 255 255 255
-0.089 0.137 0.296 0 0 0
-0.454 -0.19 0.985 255 255 255
-0.371 -0.172 0.993 255 255 255
0.615 -0.158 1.2 255 255 255
-0.393 -0.076 0.955 255 255 255
0.027 0.15 0.387 255 255 255
0.03 0.165 0.369 255 255 255
-0.018 -0.915 1.266 255 255 255
-0.032 0.062 0.392 255 255 255
-0.233 -0.352 1.063 255 255 255
0.017 0.189 0.382 255 255 255
-0.315 -0.354 1.055 255 255 255
0.245 0.059 1.034 255 255 255
0.637 0.184 1.073 255 255 255
-0.076 0.122 0.314 255 255 255
-0.585 -0.367 0.963 255 255 255
-0.37 0.066 0.899 255 255 255
-0.543 -0.399 0.982 255 255 255
-0.299 -0.071 0.971 255 255 255
0.05 -0.323 0.469 255 255 255
0.027 0.193 0.361 255 255 255
-0.097 0.084 0.337 255 255 255
0.784 -0.092 1.091 255 255 255
0.297 -0.486 1.052 255 255 255
0.108 -0.249 0.392 255 255 255
0.602 0.213 1.053 255 255 255
-0.654 -0.346 0.968 255 255 255
-0.216 -0.292 1.057 0 0 0
0.393 -0.48 1.2 255 255 255
0.455 -0.153 1.162 255 255 255
-0.41 0.216 0.831 255 255 255
-0.467 -0.053 0.929 255 255 255
-0.427 -0.164 0.98 255 255 255
-0.486 -0.706 1.167 255 255 255
-0.108 0.11 0.317 255 255 255
-0.424 0.12 0.868 255 255 255
0.185 -0.189 0.36 255 255 255
-0.042 0.146 0.332 255 255 255
-0.029 0.143 0.36 255 255 255
-0.257 -0.063 0.972 255 255 255
0.075 0.087 0.988 255 255 255
-0.21 -0.118 1.008 255 255 255
0.256 -0.376 1.209 255 255 255
-0.265 -0.035 0.962 255 255 255
-0.538 -0.087 0.925 255 255 255
0.286 0.022 1.057 255 255 255
-0.121 0.129 0.299 255 255 255
-0.052 0.035 0.39 255 255 255
-0.019 0.137 0.949 255 255 255
-0.114 0.017 0.419 255 255 255
0.572 -0.36 1.107 0 0 0
0.004 -0.231 1.052 255 255 255
-0.363 -0.069 0.505 255 255 255
0.53 -0.275 1.23 255 255 255
0.391 0.222 0.999 255 255 255
-0.439 0.205 0.831 255 255 255
-0.239 -0.333 1.06 255 255 255
0.115 -0.268 0.356 255 255 255
0.305 0.18 0.997 255 255 255
-0.096 0.151 0.286 255 255 255
0.606 -0.201 1.215 255 255 255
0.404 -0.53 1.132 0 0 0
-0.361 0.227 0.835 255 255 255
-0.44 -0.153 0.973 255 255 255
0.017 0.187 0.382 255 255 255
-0.417 0.052 0.894 255 255 255
0.742 -0.112 1.14 255 255 255
0.023 0.091 0.416 0 0 0
-0.155 -0.57 1 255 255 255
-0.567 -0.334 0.953 255 255 255
-0.139 -0.212 1.051 255 255 255
0.041 -0.23 1.078 0 0 0
0.719 0.001 1.164 255 255 255
-0.417 0.234 0.824 255 255 255
-0.508 -0.102 0.94 255 255 255
-0.019 0.296 0.898 255 255 255
0.223 -0.146 0.367 255 255 255
-0.071 -0.609 0.999 255 255 255
0.569 0.268 1.02 255 255 255
-0.037 0.039 0.41 255 255 255
0.474 -0.444 1.14 255 255 255
-0.421 -0.182 0.986 255 255 255
-0.043 0.041 0.98 255 255 255
0.469 0.286 0.992 255 255 255
0.418 0.391 0.943 255 255 255
-0.441 -0.436 1.021 255 255 255
0.167 -0.166 1.103 0 0 0
-0.589 -0.71 1.149 255 255 255
0.112 0.133 0.365 255 255 255
0.235 -0.142 0.365 255 255 255
0.15 -0.239 0.338 255 255 255
-0.431 0.039 0.897 255 255 255
0.07 0.101 0.385 255 255 255
0.269 -0.461 1.117 255 255 255
-0.054 0.087 0.353 255 255 255
0.05 0.165 0.351 0 0 0
-0.118 0.128 0.305 255 255 255
-0.076 -0.037 1.001 255 255 255
-0.026 0.094 0.386 255 255 255
0.093 0.068 0.416 255 255 255
-0.065 0.017 0.405 255 255 255
-0.089 -0.276 0.877 255 255 255
0.698 -0.125 1.184 255 255 255
-0.011 -0.287 0.561 255 255 255
0.203 0.06 1.061 255 255 255
0.146 -0.133 1.09 255 255 255
-0.233 -0.499 0.943 255 255 255
-0.459 -0.035 0.922 255 255 255
-0.184 -0.263 1.054 255 255 255
0.468 0.366 0.962 255 255 255
-0.536 -0.399 0.984 255 255 255
0.457 -0.381 1.224 255 255 255
0.301 -0.303 1.182 255 255 255
0.223 0.061 1.031 255 255 255
0.527 -0.124 1.172 255 255 255
0.189 -0.17 0.401 255 255 255
0.393 0.162 1.024 255 255 255
0.163 -0.189 0.389 255 255 255
0.025 -0.322 0.455 255 255 255
-0.363 -0.388 1.065 255 255 255
-0.362 -0.07 0.517 255 255 255
-0.123 0.03 0.413 255 255 255
0.281 0.064 1.039 255 255 255
0.008 0.131 0.432 255 255 255
-0.315 -0.147 0.995 255 255 255
0.504 -0.255 1.217 255 255 255
0.509 0.04 1.1 255 255 255
-0.07 0.12 0.32 255 255 255
0.107 -0.243 0.397 255 255 255
-0.231 -0.262 1.047 255 255 255
0.182 -0.118 1.092 255 255 255
0.117 -0.259 0.369 255 255 255
-0.052 0.097 0.343 255 255 255
0.294 -0.498 0.991 255 255 255
0.173 -0.417 1.089 255 255 255
-0.536 -0.248 0.956 255 255 255
0.31 0.041 1.055 255 255 255
0.119 0.176 0.339 255 255 255
0.085 0.164 0.335 255 255 255
-0.088 0.033 0.387 255 255 255
-0.23 -0.415 0.902 255 255 255
0.263 0.084 1.029 255 255 255
-0.465 -0.007 0.902 255 255 255
-0.389 0.242 0.826 255 255 255
0.395 -0.326 1.215 255 255 255
-0.319 0.052 0.917 255 255 255
0.105 -0.259 0.39 255 255 255
0.219 -0.705 1.187 255 255 255
-0.549 -0.44 0.998 255 255 255
-0.142 0.125 0.32 255 255 255
0.689 0.108 1.117 255 255 255
0.127 0.124 0.387 255 255 255
0.294 -0.229 1.154 0 0 0
-0.537 -0.126 0.941 255 255 255
0.535 -0.307 1.188 255 255 255
0.572 0.122 1.08 255 255 255
0.072 0.096 0.388 255 255 255
0.136 0.049 1.015 0 0 0
-0.188 -0.338 1.054 255 255 255
-0.437 0.109 0.87 255 255 255
-0.227 -0.166 1.011 255 255 255
-0.364 -0.069 0.476 255 255 255
-0.435 0.238 0.818 255 255 255
-0.032 0.125 0.356 255 255 255
0.185 -0.198 0.352 255 255 255
0.403 -0.534 1.121 0 0 0
0.004 0.156 0.946 255 255 255
0.287 -0.489 1.032 255 255 255
-0.413 -0.182 0.989 255 255 255
0.734 -0.203 1.066 0 0 0
-0.185 -0.419 0.905 255 255 255
-0.335 -0.051 0.952 255 255 255
0.135 -0.254 0.349 0 0 0
0.357 0.226 0.993 255 255 255
-0.374 0.274 0.817 255 255 255
0.025 0.077 0.422 255 255 255
0.69 -0.2 1.105 255 255 255
0.006 0.065 0.983 255 255 255
-0.187 -0.57 0.964 255 255 255
-0.456 0.044 0.724 255 255 255
0.445 0.112 1.056 255 255 255
-0.392 -0.157 0.985 255 255 255
0.185 -0.178 0.421 255 255 255
0.316 0.031 1.06 255 255 255
0.686 -0.191 1.114 255 255 255
0.122 0.119 0.387 255 255 255
0.061 0.178 0.336 255 255 255
0.38 0.027 1.076 255 255 255
-0.385 -0.393 1.061 255 255 255
-0.567 -0.402 0.981 255 255 255
0.034 0.177 0.356 255 255 255
-0.115 0.06 0.367 255 255 255
-0.417 -0.238 0.99 0 0 0
0.055 0.093 0.393 0 0 0
-0.083 0.133 0.301 255 255 255
-0.107 0.063 0.359 255 255 255
-0.516 -0.595 1.073 255 255 255
0.013 -0.314 0.486 255 255 255
-0.483 -0.14 0.959 0 0 0
-0.221 -0.326 1.065 255 255 255
0.461 0.019 1.098 255 255 255
0.086 0.107 0.381 255 255 255
0.086 0.142 0.354 255 255 255
0.056 0.169 0.346 255 255 255
0.704 0.091 1.127 255 255 255
0.443 -0.487 1.14 0 0 0
0.104 0.179 0.327 255 255 255
0.593 -0.154 1.199 0 0 0
-0.468 -0.205 0.97 0 0 0
0.545 -0.143 1.184 255 255 255
0.384 0.021 1.079 255 255 255
0.207 -0.239 1.144 255 255 255
-0.416 -0.124 0.968 255 255 255
0.608 -0.25 1.158 255 255 255
-0.528 -0.387 0.981 255 255 255
0.025 -0.311 0.467 255 255 255
-0.089 0.045 0.376 255 255 255
-0.186 -0.276 1.053 255 255 255
-0.538 -0.312 0.953 0 0 0
0.144 -0.236 0.355 255 255 255
0.056 0.059 0.42 0 0 0
0.33 0.042 1.06 255 255 255
-0.381 -0.04 0.571 255 255 255
-0.065 -0.197 0.943 255 255 255
0.614 -0.099 1.184 255 255 255
-0.286 -0.428 1.006 255 255 255
0.027 0.178 0.368 0 0 0
-0.552 0.098 0.843 255 255 255
-0.574 -0.148 0.937 0 0 0
-0.398 -0.166 0.987 255 255 255
0.027 0.088 0.978 255 255 255
-0.494 -0.912 1.25 0 0 0
0.368 -0.085 1.118 255 255 255
0.006 0.094 0.46 255 255 255
0.396 0.395 0.94 255 255 255
-0.418 0.008 0.737 0 0 0
-0.554 -0.743 1.166 255 255 255
0.15 -0.234 1.091 255 255 255
0.005 0.158 0.437 255 255 255
-0.305 -0.165 1.003 255 255 255
-0.186 -0.358 1.051 255 255 255
-0.082 0.138 0.298 0 0 0
-0.552 -0.177 0.927 255 255 255
0.429 0.387 0.948 255 255 255
0.217 -0.217 1.138 255 255 255
-0.042 0.105 0.35 255 255 255
0.418 -0.025 1.105 0 0 0
0.658 -0.273 1.087 0 0 0
0.614 -0.078 1.175 255 255 255
-0.236 -0.013 0.96 255 255 255
-0.023 0.108 0.394 255 255 255
-0.069 0.08 0.351 255 255 255
0.044 -0.109 1.058 255 255 255
0.133 -0.216 0.395 255 255 255
-0.15 -0.19 1.045 0 0 0
0.118 0.125 0.375 255 255 255
-0.549 -0.484 1.019 255 255 255
-0.038 0.166 0.33 255 255 255
-0.459 -0.084 0.943 255 255 255
0.115 -0.259 0.372 255 255 255
0.233 -0.354 1.2 255 255 255
0.118 0.099 0.401 255 255 255
0.386 -0.107 1.131 255 255 255
-0.062 0.063 0.367 255 255 255
0.097 0.112 0.377 255 255 255
-0.029 0.15 0.361 255 255 255
0.202 -0.002 1.049 255 255 255
-0.035 0.07 0.379 255 255 255
0.243 0.011 1.054 255 255 255
0.051 -0.059 1.038 255 255 255
0.122 -0.242 1.057 255 255 255
-0.062 0.11 0.329 255 255 255
-0.034 0.068 0.385 255 255 255
0.381 0.357 0.947 255 255 255
-0.443 0.018 0.903 255 255 255
-0.462 -0.041 0.924 255 255 255
-0.044 0.027 0.416 255 255 255
0.269 -0.087 0.383 255 255 255
0.56 0.02 1.127 255 255 255
-0.074 0.125 0.312 255 255 255
-0.026 0.105 0.381 255 255 255
0.269 -0.38 1.21 0 0 0
-0.384 -0.035 0.503 255 255 255
-0.11 0.034 0.393 255 255 255
0.33 -0.363 1.225 0 0 0
0.392 -0.126 1.134 0 0 0
0.145 -0.217 0.382 255 255 255
-0.477 0.119 0.856 255 255 255
-0.416 0.031 0.75 0 0 0
0.501 -0.434 1.106 0 0 0
-0.04 0.075 0.37 255 255 255
-0.505 -0.907 1.246 0 0 0
0.146 -0.217 0.381 255 255 255
0.066 -0.273 1.126 255 255 255
0.335 0.121 1.028 255 255 255
0.405 0.112 1.047 255 255 255
-0.141 0.112 0.332 255 255 255
0.2 -0.185 0.359 255 255 255
-0.414 0.026 0.74 0 0 0
0.065 0.137 0.357 255 255 255
0.068 0.075 0.404 255 255 255
-0.107 0.042 0.383 0 0 0
0.09 0.112 0.375 255 255 255
-0.526 -0.241 0.957 255 255 255
0.109 0.116 0.379 255 255 255
-0.032 -0.034 1.012 255 255 255
0.288 -0.3 1.184 255 255 255
-0.247 -0.346 1.064 255 255 255
-0.143 0.054 0.422 255 255 255
0.478 0.218 1.019 255 255 255
0.255 -0.107 0.371 255 255 255
-0.513 -0.27 0.962 255 255 255
0.052 0.026 1.007 255 255 255
0.044 0.057 0.426 255 255 255
0.339 -0.259 1.171 255 255 255
0.561 -0.34 1.131 255 255 255
0.046 0.159 0.358 255 255 255
0.027 0.083 0.415 255 255 255
0.075 0.088 0.394 255 255 255
-0.047 0.089 0.352 255 255 255
0.524 -0.327 1.186 255 255 255
0.025 -0.207 1.051 0 0 0
0.572 0.053 1.111 255 255 255
-0.506 0.041 0.754 255 255 255
0.166 -0.208 0.36 255 255 255
0.11 0.043 1.019 255 255 255
-0.109 0.138 0.292 0 0 0
0.58 -0.355 1.096 0 0 0
0.421 -0.096 1.131 0 0 0
0.156 -0.4 1.052 255 255 255
-0.079 0.05 0.37 0 0 0
-0.17 -0.114 1.013 255 255 255
-0.356 -0.2 1.007 255 255 255
-0.532 -0.154 0.952 255 255 255
-0.284 -0.32 1.049 255 255 255
0.048 -0.085 1.05 255 255 255
0.537 -0.348 1.152 255 255 255
0.565 -0.097 1.17 255 255 255
-0.036 0.154 0.341 0 0 0
-0.224 -0.24 1.039 255 255 255
-0.353 0.054 0.909 255 255 255
0.036 0.183 0.35 255 255 255
0.407 -0.404 1.256 0 0 0
0.103 0.035 1.018 0 0 0
-0.196 -0.074 0.993 255 255 255
-0.504 0.033 0.749 255 255 255
0.533 -0.262 1.231 255 255 255
0.255 -0.108 0.403 255 255 255
0.128 0.15 0.363 255 255 255
-0.134 0.063 0.385 255 255 255
0.31 -0.33 1.206 255 255 255
-0.437 0.172 0.845 255 255 255
0.237 -0.127 1.106 255 255 255
0.115 0.039 1.015 0 0 0
-0.272 -0.061 0.972 255 255 255
0.106 -0.269 0.372 0 0 0
-0.421 0.259 0.811 255 255 255
-0.434 0.022 0.904 255 255 255
0.221 -0.256 1.153 255 255 255
-0.423 0.029 0.904 255 255 255
-0.032 0.099 0.364 255 255 255
-0.136 -0.223 1.05 255 255 255
0.442 0.311 0.975 255 255 255
0.464 0.187 1.029 255 255 255
0.045 0.103 0.391 255 255 255
0.076 0.111 0.376 255 255 255
0.006 -0.286 0.536 255 255 255
0.137 -0.237 0.319 0 0 0
0.11 0.025 1.023 255 255 255
-0.145 -0.334 1.031 255 255 255
-0.19 -0.269 1.052 0 0 0
-0.072 0.158 0.295 255 255 255
-0.101 0.132 0.298 255 255 255
-0.381 0.27 0.816 255 255 255
-0.016 -0.233 0.632 255 255 255
-0.413 -0.195 0.992 255 255 255
-0.225 -0.033 0.967 255 255 255
-0.127 0.116 0.32 255 255 255
0.117 -0.271 0.349 255 255 255
0.025 0.156 0.381 255 255 255
-0.475 -0.31 0.984 255 255 255
0.028 0.156 0.373 255 255 255
-0.065 0.017 0.408 255 255 255
-0.316 0.053 0.916 255 255 255
0.192 -0.32 1.174 255 255 255
-0.048 0.149 0.321 0 0 0
0.257 -0.24 1.154 255 255 255
0.044 0.178 0.346 255 255 255
-0.301 -1.015 1.342 0 0 0
0.383 -0.55 1.136 255 255 255
-0.047 0.11 0.34 255 255 255
0.096 -0.008 1.029 255 255 255
0.015 0.177 0.39 0 0 0
0.291 -0.436 1.238 255 255 255
-0.132 0.094 0.341 255 255 255
-0.69 -0.265 0.959 255 255 255
0.299 -0.294 1.176 255 255 255
-0.203 -0.54 0.992 255 255 255
-0.418 -0.415 1.018 255 255 255
0.473 0.146 1.05 255 255 255
0.155 -0.213 0.373 255 255 255
0.222 -0.145 0.371 255 255 255
-0.21 -0.086 0.997 255 255 255
0.236 -0.136 0.366 255 255 255
0.523 0.173 1.048 255 255 255
-0.384 0.207 0.84 255 255 255
-0.082 0.059 0.366 255 255 255
0.368 0.229 0.993 255 255 255
0.018 0.172 0.386 255 255 255
-0.109 0.011 0.421 255 255 255
0.16 -0.204 0.424 255 255 255
0.459 0.176 1.031 255 255 255
0.244 -0.128 0.365 255 255 255
0.069 0.087 0.395 255 255 255
0.185 -0.256 1.125 255 255 255
0.516 -0.339 1.184 255 255 255
0.022 0.191 0.365 255 255 255
0.183 -0.183 0.368 255 255 255
-0.186 -0.323 1.057 255 255 255
-0.371 0.01 0.924 255 255 255
0.079 0.082 0.4 255 255 255
0.43 0.278 0.982 0 0 0
-0.381 -0.319 1.051 255 255 255
-0.106 0.139 0.296 0 0 0
0.042 -0.316 0.506 255 255 255
0.192 -0.193 0.345 255 255 255
-0.566 -0.515 1.028 255 255 255
0.159 -0.227 0.343 255 255 255
0.682 -0.241 1.092 0 0 0
0.621 0.205 1.059 255 255 255
-0.385 0.153 0.864 255 255 255
0.198 -0.162 0.41 255 255 255
0.097 0.134 0.359 255 255 255
0.204 -0.151 0.375 255 255 255
-0.276 -0.029 0.957 255 255 255
-0.052 0.013 0.429 255 255 255
-0.432 0.059 0.89 255 255 255
0.122 0.139 0.362 255 255 255
-0.08 -0.472 1.008 255 255 255
-0.254 -0.063 0.973 255 255 255
0.075 0.031 0.467 255 255 255
0.335 0.038 1.062 255 255 255
0.045 0.098 0.979 0 0 0
-0.015 0.429 0.832 255 255 255
-0.063 0.145 0.308 0 0 0
-0.582 -0.715 1.154 255 255 255
-0.481 -0.535 1.052 255 255 255
0.134 -0.219 0.391 255 255 255
-0.421 0.016 0.732 255 255 255
-0.037 0.045 0.406 255 255 255
0.687 0.143 1.1 255 255 255
-0.655 -0.301 0.961 255 255 255
0.522 0.05 1.099 255 255 255
-0.042 0.067 0.375 255 255 255
0.345 -0.355 1.214 0 0 0
-0.018 -0.016 1.007 255 255 255
-0.629 -0.679 1.126 255 255 255
-0.517 -0.412 0.994 255 255 255
0.332 -0.342 1.206 255 255 255
0.016 0.188 0.384 255 255 255
-0.055 -0.212 0.966 255 255 255
-0.4 -0.374 1.017 0 0 0
0.102 0.051 0.443 255 255 255
-0.597 -0.472 1.003 255 255 255
0.057 0.164 0.35 0 0 0
0.52 -0.206 1.2 0 0 0
0.072 0.144 0.353 255 255 255
-0.426 0.089 0.88 255 255 255
-0.023 0.086 0.395 255 255 255
-0.118 0.118 0.314 255 255 255
-0.035 0.064 0.973 255 255 255
0.637 0.057 1.124 255 255 255
-0.653 -0.206 0.944 255 255 255
0.02 0.082 0.425 255 255 255
-0.049 0.027 0.408 255 255 255
-0.011 0.316 0.892 255 255 255
-0.215 -0.376 1.058 255 255 255
-0.634 -0.349 0.971 255 255 255
-0.46 0.14 0.852 255 255 255
-0.013 0.281 0.894 255 255 255
-0.025 0.134 0.38 255 255 255
0.548 0.114 1.077 255 255 255
0.529 0.089 1.084 255 255 255
0.104 0.137 0.358 255 255 255
-0.053 0.11 0.335 255 255 255
-0.128 0.134 0.304 255 255 255
-0.389 0.214 0.836 255 255 255
-0.079 0.033 0.393 255 255 255
0.06 0.107 0.383 255 255 255
-0.438 -0.309 0.999 0 0 0
0.252 -0.043 1.076 255 255 255
0.467 -0.153 1.164 255 255 255
-0.41 -0.288 0.995 255 255 255
0.671 0.075 1.124 255 255 255
-0.08 0.079 0.344 255 255 255
0.689 -0.002 1.162 255 255 255
-0.031 0.126 0.364 255 255 255
0.121 0.179 0.334 255 255 255
0.382 0.029 1.075 255 255 255
-0.636 -0.38 0.976 255 255 255
-0.019 -0.245 1.028 255 255 255
0.059 0.041 0.45 255 255 255
0.223 0.048 1.034 255 255 255
-0.213 -0.946 1.338 255 255 255
-0.286 -0.302 1.052 255 255 255
-0.369 0.085 0.891 255 255 255
-0.082 0.071 0.351 0 0 0
-0.006 -0.274 0.575 255 255 255
0.28 -0.091 1.101 255 255 255
0.059 -0.319 0.479 255 255 255
-0.258 -0.065 0.973 255 255 255
-0.046 -0.009 0.999 255 255 255
0.357 0.22 0.994 255 255 255
-0.083 0.103 0.324 255 255 255
-0.537 -0.443 1.002 255 255 255
-0.137 0.099 0.343 255 255 255
0.491 -0.424 1.133 0 0 0
0.321 -0.114 1.121 255 255 255
0.123 -0.24 0.382 255 255 255
0.302 -0.051 1.091 255 255 255
-0.085 -0.411 1.099 255 255 255
-0.365 -0.063 0.487 255 255 255
0.102 -0.27 0.38 255 255 255
-0.29 -0.033 0.956 255 255 255
0.727 -0.068 1.192 0 0 0
-0.5 -0.156 0.963 255 255 255
0.264 -0.382 1.209 0 0 0
-0.369 -0.076 0.961 255 255 255
-0.283 -0.235 1.026 0 0 0
0.648 0.008 1.149 255 255 255
0.505 -0.075 1.151 255 255 255
-0.045 0.171 0.321 255 255 255
0.04 -0.306 0.543 255 255 255
0.218 -0.144 0.401 255 255 255
0.043 -0.309 0.523 255 255 255
-0.179 -0.057 0.99 255 255 255
0.04 -0.302 0.545 255 255 255
0.307 0.085 1.036 255 255 255
-0.129 0.121 0.312 255 255 255
0.191 -0.165 0.395 255 255 255
0.441 0.096 1.061 255 255 255
-0.375 -0.271 1.009 255 255 255
0.752 0.106 1.131 255 255 255
-0.32 -0.276 1.039 255 255 255
-0.12 0.085 0.346 255 255 255
0.101 0.043 0.458 255 255 255
-0.213 -0.067 0.986 255 255 255
-0.115 0.036 0.394 255 255 255
0.051 0.105 0.39 0 0 0
-0.074 0.054 0.368 255 255 255
-0.1 0.065 0.356 255 255 255
0.38 -0.131 1.136 255 255 255
0.392 -0.503 1.164 255 255 255
0.025 0.16 0.38 255 255 255
0.016 -0.004 1.01 255 255 255
0.468 0.026 1.097 255 255 255
0.099 0.155 0.342 0 0 0
0.179 -0.177 0.394 255 255 255
0.543 -0.038 1.144 255 255 255
0.145 -0.212 0.386 255 255 255
0.109 -0.24 1.059 255 255 255
0.004 -0.142 1.036 255 255 255
-0.03 0.099 0.378 255 255 255
0.185 -0.375 1.196 255 255 255
-0.361 -0.071 0.489 255 255 255
0.33 0.223 0.987 255 255 255
-0.512 -0.085 0.931 255 255 255
-0.133 0.117 0.324 255 255 255
-0.585 -0.723 1.157 255 255 255
-0.517 0.063 0.766 255 255 255
0.401 -0.502 1.159 255 255 255
0.24 -0.123 0.401 255 255 255
-0.088 0.104 0.32 255 255 255
0.695 -0.147 1.165 255 255 255
0.146 -0.02 1.044 255 255 255
0.107 -0.255 0.393 255 255 255
-0.062 0.059 0.372 255 255 255
-0.068 0.056 0.368 255 255 255
0.066 0.104 0.381 255 255 255
0.075 0.097 0.387 255 255 255
0.37 -0.304 1.206 255 255 255
-0.094 -0.432 1.088 255 255 255
0.022 0.164 0.38 255 255 255
-0.432 0.032 0.72 255 255 255
-0.403 -0.025 0.64 255 255 255
-0.436 -0.281 0.988 255 255 255
-0.582 -0.521 1.025 255 255 255
0.088 0.108 0.381 255 255 255
-0.079 0.05 0.369 255 255 255
-0.029 0.184 0.376 255 255 255
-0.151 -0.165 1.036 255 255 255
-0.067 0.103 0.331 255 255 255
0.206 -0.175 0.359 255 255 255
-0.426 -0.327 1.009 0 0 0
-0.507 0.082 0.859 0 0 0
0.037 0.097 0.402 255 255 255
0.155 -0.166 1.1 255 255 255
0.13 -0.247 0.357 255 255 255
-0.101 -0.078 1.01 255 255 255
-0.47 0.128 0.854 255 255 255
-0.421 0.018 0.732 255 255 255
0.474 -0.334 1.239 255 255 255
-0.391 0.198 0.842 255 255 255
0.095 0.151 0.349 255 255 255
-0.114 0.135 0.294 0 0 0
0.59 -0.307 1.126 255 255 255
-0.057 0.032 0.404 255 255 255
0.414 -0.368 1.248 255 255 255
0.056 0.021 1.009 255 255 255
-0.407 -0.417 1.02 255 255 255
0.007 0.12 0.444 255 255 255
-0.302 0.027 0.93 255 255 255
0.498 0.101 1.073 255 255 255
0.182 -0.45 1.006 255 255 255
0.115 0.178 0.325 255 255 255
-0.472 0.122 0.855 255 255 255
0.253 -0.126 0.371 255 255 255
-0.01 -0.067 1.029 255 255 255
-0.361 -0.271 1.029 255 255 255
-0.621 -0.671 1.125 255 255 255
-0.504 -0.512 1.037 255 255 255
0.277 -0.407 1.227 255 255 255
-0.459 -0.388 0.997 255 255 255
-0.026 0.131 0.378 255 255 255
0.229 -0.153 0.361 255 255 255
0.259 -0.102 0.38 255 255 255
-0.101 0.124 0.304 255 255 255
-0.044 0.126 0.343 255 255 255
0.129 0.135 0.376 255 255 255
0.104 0.15 0.347 255 255 255
0.057 0.122 0.374 255 255 255
0.016 -0.297 0.503 255 255 255
0.098 0.097 0.392 255 255 255
-0.058 0.073 0.365 255 255 255
0.424 -0.216 1.164 255 255 255
0.613 -0.068 1.173 255 255 255
-0.456 -0.393 1 255 255 255
-0.425 -0.029 0.926 255 255 255
-0.535 -0.599 1.075 255 255 255
-0.369 -0.063 0.501 255 255 255
0.695 -0.156 1.155 255 255 255
0.008 -0.229 1.054 255 255 255
0.088 0.058 0.43 255 255 255
0.284 -0.19 1.139 255 255 255
-0.382 0.079 0.891 255 255 255
0.108 -0.269 0.361 255 255 255
-0.022 0.095 0.404 255 255 255
0.701 0.089 1.127 255 255 255
-0.57 -0.291 0.963 255 255 255
-0.028 0.069 0.393 255 255 255
0.417 0.347 0.959 255 255 255
0.3 -0.322 1.197 255 255 255
0.656 0.067 1.125 255 255 255
0.197 -0.173 0.365 255 255 255
0.267 -0.148 1.123 255 255 255
0.248 0.071 1.029 255 255 255
0.042 0.174 0.347 255 255 255
-0.539 -0.324 0.952 255 255 255
0.02 0.094 0.425 0 0 0
0.164 -0.19 0.382 255 255 255
0.334 -0.37 1.229 0 0 0
-0.1 0.082 0.337 255 255 255
0.227 -0.696 1.187 255 255 255
0.236 -0.067 1.082 255 255 255
0.414 0.269 0.985 0 0 0
-0.242 -0.363 1.058 255 255 255
0.172 -0.21 0.35 255 255 255
0.244 -0.115 0.371 255 255 255
0.053 0.06 0.417 255 255 255
0.271 -0.205 1.144 255 255 255
0.097 -0.084 1.059 255 255 255
0.172 -0.21 0.347 255 255 255
-0.479 -0.074 0.932 255 255 255
-0.36 -0.019 0.939 255 255 255
0.107 0.165 0.345 0 0 0
0.161 -0.213 0.362 255 255 255
0.485 0.044 1.094 255 255 255
0.23 -0.42 1.199 0 0 0
0.351 0.128 1.028 255 255 255
-0.105 -0.1 1.009 0 0 0
0.125 -0.247 0.316 255 255 255
0.063 0.138 0.36 255 255 255
-0.372 -0.113 0.973 255 255 255
0.422 -0.164 1.158 255 255 255
-0.382 -0.137 0.98 255 255 255
0.783 -0.102 1.089 255 255 255
0.515 0.088 1.082 255 255 255
-0.042 0.056 0.383 0 0 0
0.108 -0.269 0.357 255 255 255
0.071 0.028 0.463 0 0 0
0.111 -0.018 1.037 255 255 255
-0.035 0.164 0.336 255 255 255
0.528 0.173 1.048 255 255 255
0.339 0.103 1.036 255 255 255
-0.084 0.109 0.315 255 255 255
-0.104 0.035 0.388 255 255 255
-0.372 -0.059 0.497 255 255 255
0.366 -0.48 1.243 255 255 255
0.107 0.05 0.453 255 255 255
-0.56 -0.209 0.937 255 255 255
0.02 0.074 0.427 255 255 255
-0.041 0.087 0.356 255 255 255
0.086 -0.285 0.403 255 255 255
-0.033 0.037 0.417 255 255 255
0.092 0.118 0.372 255 255 255
0.439 -0.068 1.127 255 255 255
-0.161 -0.502 1.056 255 255 255
-0.112 0.025 0.406 255 255 255
0.192 -0.375 1.195 255 255 255
-0.262 -0.226 1.026 0 0 0
-0.069 0.084 0.35 255 255 255
-0.092 0.121 0.305 255 255 255
-0.694 -0.254 0.953 255 255 255
0.286 0.087 1.032 255 255 255
-0.228 -0.088 0.994 255 255 255
0.01 -0.202 1.049 255 255 255
-0.027 0.057 0.978 255 255 255
0.035 0.107 0.396 255 255 255
-0.125 0.079 0.353 255 255 255
0.05 -0.229 1.075 0 0 0
-0.029 0.127 0.37 255 255 255
0.351 0.11 1.036 255 255 255
-0.563 -0.552 1.046 255 255 255
0.287 -0.091 1.102 255 255 255
0.017 0.112 0.967 255 255 255
0.19 -0.193 0.352 255 255 255
-0.256 -0.974 1.338 0 0 0
-0.134 0.038 0.419 255 255 255
0.735 -0.151 1.096 255 255 255
0.092 0.124 0.367 255 255 255
0.013 0.139 0.412 255 255 255
-0.122 0.088 0.343 255 255 255
0.631 -0.248 1.123 255 255 255
-0.119 0.124 0.308 255 255 255
-0.068 0.134 0.314 255 255 255
0.156 -0.203 0.384 255 255 255
0.056 0.073 0.404 255 255 255
-0.365 -0.346 1.063 0 0 0
0.445 0.014 1.098 255 255 255
-0.45 0.024 0.9 255 255 255
0.125 0.013 1.028 255 255 255
0.421 0.236 1.002 255 255 255
-0.098 -0.002 0.984 255 255 255
0.276 0.022 1.056 255 255 255
-0.059 0.032 0.393 255 255 255
-0.486 -0.38 0.987 255 255 255
0.512 0.274 1.006 255 255 255
0.236 -0.126 0.398 255 255 255
-0.442 -0.035 0.925 255 255 255
-0.418 0.013 0.701 255 255 255
-0.504 0.119 0.851 255 255 255
-0.334 0 0.937 255 255 255
-0.382 -0.356 1.068 0 0 0
0.512 -0.349 1.18 255 255 255
0.681 0.138 1.101 255 255 255
-0.109 -0.131 1.022 0 0 0
0.252 -0.118 0.375 255 255 255
0.549 -0.004 1.134 255 255 255
-0.45 0.1 0.87 255 255 255
0.447 0.32 0.974 255 255 255
-0.146 -0.998 1.37 255 255 255
0.161 -0.201 0.417 255 255 255
0.37 0.133 1.029 0 0 0
0.549 0.177 1.052 255 255 255
0.026 0.036 0.997 255 255 255
-0.381 0.244 0.825 0 0 0
-0.304 -0.053 0.959 255 255 255
0.099 0.181 0.325 255 255 255
-0.369 -0.393 1.051 255 255 255
0.357 0.027 1.072 255 255 255
-0.045 0.07 0.368 255 255 255
0.092 0.013 1.025 255 255 255
-0.114 -0.419 1.047 255 255 255
-0.232 -0.09 0.993 255 255 255
-0.42 -0.191 0.988 255 255 255
-0.403 -0.043 0.938 255 255 255
-0.093 0.129 0.304 255 255 255
-0.476 -0.242 0.971 255 255 255
0.797 -0.051 1.13 255 255 255
0.335 -0.029 1.09 255 255 255
0.003 -0.267 0.561 255 255 255
0.451 0.284 0.99 255 255 255
0.097 0.107 0.384 255 255 255
0.096 0.128 0.369 255 255 255
-0.247 -0.063 0.979 255 255 255
-0.093 -0.266 0.872 255 255 255
0.629 -0.145 1.198 255 255 255
0.383 0.21 1.005 255 255 255
0.123 0.055 1.013 0 0 0
-0.268 -0.153 0.996 255 255 255
-0.162 -0.227 1.046 0 0 0
0.211 -0.464 1.052 255 255 255
-0.206 -0.205 1.029 255 255 255
0.072 -0.02 1.033 255 255 255
0.278 -0.066 1.089 0 0 0
0.249 -0.107 0.382 255 255 255
0.002 0.154 0.947 255 255 255
-0.399 0.16 0.857 255 255 255
-0.471 -0.242 0.972 255 255 255
-0.382 -0.04 0.502 255 255 255
0.35 -0.008 1.085 255 255 255
-0.469 0.17 0.836 255 255 255
-0.015 0.137 0.95 255 255 255
-0.431 -0.5 1.049 255 255 255
-0.444 -0.253 0.978 255 255 255
0.016 0.189 0.374 255 255 255
-0.211 -0.142 1.017 255 255 255
0.321 -0.173 1.142 255 255 255
-0.031 0.064 0.392 255 255 255
-0.345 -0.111 0.977 255 255 255
-0.47 -0.076 0.937 255 255 255
0.699 0.064 1.136 255 255 255
-0.124 0.049 0.386 255 255 255
0.28 -0.078 0.384 255 255 255
0.061 0.119 0.376 255 255 255
-0.332 0.05 0.915 0 0 0
-0.5 -0.55 1.055 255 255 255
0.209 -0.172 0.361 255 255 255
0.246 -0.054 1.078 255 255 255
-0.365 -0.103 0.971 255 255 255
0.133 -0.25 0.35 255 255 255
-0.058 0 0.993 255 255 255
0.406 -0.429 1.246 255 255 255
0.178 -0.177 0.393 255 255 255
0.338 0.014 1.071 255 255 255
-0.05 0.034 0.401 255 255 255
-0.003 -0.269 0.576 255 255 255
0.247 -0.313 1.19 255 255 255
-0.29 -0.228 1.02 255 255 255
0.551 -0.257 1.225 255 255 255
0.787 -0.09 1.09 255 255 255
-0.115 0.034 0.397 255 255 255
0.517 0.047 1.099 255 255 255
-0.357 -0.077 0.469 255 255 255
-0.114 0.101 0.324 0 0 0
0.369 0.15 1.025 255 255 255
-0.124 0.123 0.313 255 255 255
-0.581 -0.502 1.018 255 255 255
-0.026 0.36 0.861 255 255 255
0.272 -0.416 1.229 255 255 255
0.166 -0.212 0.358 255 255 255
0.03 0.138 0.388 255 255 255
0.697 -0.23 1.097 0 0 0
0.573 0.19 1.054 255 255 255
0.167 -0.402 1.097 255 255 255
-0.048 0.037 0.402 255 255 255
-0.016 -0.016 1.007 255 255 255
0.181 0.009 1.04 255 255 255
0.732 -0.193 1.087 0 0 0
0.084 0.102 0.386 255 255 255
-0.19 -0.535 0.994 255 255 255
0.41 0.287 0.978 255 255 255
-0.031 0.421 0.832 255 255 255
0.564 -0.21 1.213 255 255 255
0.386 0.236 0.991 0 0 0
-0.086 0.041 0.383 255 255 255
-0.331 -0.113 0.981 255 255 255
0.117 0.087 0.415 255 255 255
-0.185 -0.257 1.05 0 0 0
-0.493 -0.397 0.992 255 255 255
0.342 -0.268 1.168 255 255 255
0.086 0.066 0.416 255 255 255
-0.217 -0.299 1.059 0 0 0
0.371 0.336 0.954 255 255 255
-0.07 -0.531 1.037 255 255 255
-0.095 -0.449 1.022 255 255 255
0.112 0.147 0.35 255 255 255
0.103 -0.018 1.036 255 255 255
0.546 -0.296 1.194 255 255 255
0.25 -0.428 1.181 255 255 255
-0.056 -0.19 0.995 255 255 255
0.516 0.124 1.066 255 255 255
-0.482 -0.388 0.991 255 255 255
-0.068 0.126 0.316 255 255 255
0.056 0.015 1.012 255 255 255
0.519 -0.231 1.209 255 255 255
-0.416 0.146 0.857 255 255 255
-0.375 -0.39 1.027 255 255 255
0.555 0.146 1.067 255 255 255
0.071 -0.369 1.122 255 255 255
-0.083 0.123 0.311 255 255 255
0.649 0.136 1.094 255 255 255
-0.041 0.15 0.331 0 0 0
0.145 -0.243 0.345 255 255 255
-0.409 0.059 0.895 255 255 255
0.062 0.036 1.005 255 255 255
0.648 -0.21 1.154 255 255 255
-0.417 0.054 0.894 255 255 255
-0.173 -0.055 0.991 255 255 255
0.02 0.083 0.426 255 255 255
0.681 0.171 1.088 255 255 255
-0.032 0.074 0.383 255 255 255
0.288 0.133 1.012 255 255 255
-0.077 0.137 0.301 0 0 0
-0.46 -0.047 0.928 255 255 255
0.73 -0.015 1.171 255 255 255
-0.162 -0.234 1.048 255 255 255
0.639 -0.202 1.172 255 255 255
-0.205 -0.063 0.985 255 255 255
0.654 -0.222 1.129 255 255 255
-0.44 0.205 0.83 255 255 255
-0.528 -0.773 1.183 255 255 255
-0.09 0.098 0.324 255 255 255
0.555 0.11 1.081 255 255 255
0.599 0.056 1.114 255 255 255
0.55 -0.17 1.193 255 255 255
-0.021 -0.253 0.617 255 255 255
0.103 0.044 0.458 255 255 255
-0.487 0.075 0.852 0 0 0
0.003 -0.291 0.536 255 255 255
-0.478 -0.773 1.198 255 255 255
-0.088 0.018 0.406 255 255 255
0.137 -0.231 0.375 255 255 255
0.127 0.129 0.384 255 255 255
0.098 0.122 0.372 255 255 255
0.186 -0.193 0.354 255 255 255
0.024 0.094 0.414 0 0 0
-0.093 0.121 0.305 255 255 255
0.043 0.063 0.425 255 255 255
0.105 0.131 0.366 255 255 255
0.192 -0.164 0.377 255 255 255
0.355 -0.015 1.087 255 255 255
-0.107 0.148 0.285 255 255 255
0.562 -0.373 1.09 255 255 255
-0.394 0.125 0.872 255 255 255
0.491 -0.011 1.119 255 255 255
0.06 0.065 0.416 255 255 255
0.134 -0.248 0.348 255 255 255
-0.391 0.24 0.826 0 0 0
0.18 -0.178 0.4 255 255 255
0.135 0.029 1.023 255 255 255
-0.498 -0.215 0.956 255 255 255
-0.093 -0.001 0.421 255 255 255
-0.119 0.098 0.331 0 0 0
0.082 0.149 0.349 255 255 255
-0.386 -0.049 0.577 255 255 255
-0.471 -0.139 0.954 255 255 255
-0.108 0.081 0.342 255 255 255
0.464 0.281 0.992 255 255 255
-0.131 -0.595 0.981 255 255 255
0.682 -0.237 1.097 0 0 0
0.333 0.033 1.063 255 255 255
0.179 -0.19 0.366 255 255 255
0.602 0.04 1.124 255 255 255
-0.041 0.063 0.374 255 255 255
0.807 -0.005 1.165 255 255 255
-0.54 -0.273 0.955 255 255 255
-0.403 0.107 0.876 255 255 255
-0.411 0.098 0.879 255 255 255
0.174 -0.212 0.342 255 255 255
0.027 -0.144 1.031 255 255 255
0.043 -0.312 0.507 255 255 255
0.207 -0.181 1.122 255 255 255
-0.039 0.129 0.344 255 255 255
0.065 -0.026 1.024 255 255 255
0.183 -0.107 1.086 255 255 255
0.323 -0.129 1.128 255 255 255
0.643 0.108 1.105 255 255 255
-0.542 -0.262 0.955 255 255 255
-0.328 0.15 0.869 255 255 255
-0.553 -0.532 1.036 255 255 255
-0.143 -0.401 0.939 255 255 255
0.134 -0.254 0.339 255 255 255
0.556 -0.209 1.21 255 255 255
0.498 -0.294 1.227 0 0 0
0.189 -0.084 1.08 255 255 255
-0.296 -0.019 0.949 255 255 255
0.795 0.032 1.167 255 255 255
0.227 -0.409 1.197 255 255 255
-0.327 -0.302 1.05 255 255 255
-0.196 -0.594 0.958 255 255 255
-0.371 0.121 0.878 255 255 255
0.658 -0.178 1.176 255 255 255
-0.286 -0.316 1.052 255 255 255
0.059 0.121 0.374 255 255 255
-0.136 0.099 0.332 255 255 255
-0.101 0.037 0.383 255 255 255
0.442 0.109 1.056 255 255 255
0.205 -0.685 1.21 255 255 255
0.627 -0.193 1.203 255 255 255
-0.683 -0.244 0.952 255 255 255
-0.56 -0.158 0.935 0 0 0
0.255 -0.304 1.182 255 255 255
0.664 -0.125 1.201 0 0 0
0.196 -0.687 1.222 255 255 255
0.141 -0.191 1.092 255 255 255
-0.105 0.149 0.286 255 255 255
0.192 0.015 1.042 255 255 255
-0.432 -0.066 0.942 255 255 255
0.388 -0.319 1.211 255 255 255
-0.025 0.095 0.389 255 255 255
-0.28 -0.109 0.989 255 255 255
-0.55 -0.195 0.935 255 255 255
0.04 0.008 1.011 255 255 255
0.023 0.186 0.37 255 255 255
-0.12 0.095 0.336 255 255 255
0.596 -0.182 1.209 0 0 0
-0.057 0.08 0.351 255 255 255
-0.468 -0.585 1.109 255 255 255
0.035 0.155 0.37 255 255 255
0.203 -0.409 1.209 255 255 255
-0.047 0.147 0.323 0 0 0
0.385 0.128 1.037 255 255 255
-0.348 0.09 0.895 255 255 255
-0.601 -0.261 0.949 255 255 255
0.112 0.15 0.35 255 255 255
-0.106 0.058 0.364 255 255 255
0.031 0.114 0.967 255 255 255
-0.362 -0.078 0.502 255 255 255
-0.116 0.074 0.353 255 255 255
0.074 -0.033 1.036 255 255 255
-0.069 0.1 0.331 255 255 255
0.099 0.173 0.33 255 255 255
0.383 -0.322 1.211 0 0 0
0.429 -0.506 1.128 0 0 0
-0.038 0.172 0.329 255 255 255
0.024 0.062 0.445 255 255 255
-0.455 -0.489 1.04 255 255 255
-0.304 -0.929 1.308 255 255 255
0.261 -0.441 1.171 255 255 255
-0.043 0.125 0.342 255 255 255
0.049 -0.315 1.098 255 255 255
-0.457 -0.635 1.117 255 255 255
0.267 0.005 1.061 255 255 255
0.079 0.128 0.363 255 255 255
-0.047 0.106 0.336 255 255 255
0.1 0.129 0.363 255 255 255
-0.086 -0.134 1.019 0 0 0
0.204 -0.172 0.363 255 255 255
0.346 0.139 1.025 255 255 255
0.66 0.184 1.077 255 255 255
-0.014 0.089 0.969 255 255 255
-0.44 -0.168 0.977 255 255 255
0.224 -0.145 0.368 255 255 255
0.123 -0.041 1.048 255 255 255
-0.552 -0.089 0.922 255 255 255
0.102 0.027 1.021 255 255 255
0.194 -0.167 0.413 255 255 255
0.307 -0.076 1.1 0 0 0
0.058 0.076 0.405 255 255 255
-0.118 0.111 0.318 255 255 255
-0.059 0.065 0.362 255 255 255
0.037 0.117 0.391 255 255 255
0.404 0.047 1.074 255 255 255
-0.174 -0.246 1.052 0 0 0
-0.616 -0.161 0.935 255 255 255
0.004 0.123 0.457 255 255 255
0.031 0.133 0.391 255 255 255
-0.505 -0.1 0.939 255 255 255
-0.408 -0.285 0.994 255 255 255
0.427 0.134 1.042 255 255 255
-0.166 -0.086 1.004 255 255 255
0.527 0.012 1.116 255 255 255
0.148 -0.232 0.345 255 255 255
0.102 0.167 0.335 255 255 255
-0.447 -0.009 0.913 255 255 255
-0.14 0.11 0.336 255 255 255
-0.06 0.025 0.401 255 255 255
-0.334 -0.179 1.003 255 255 255
0.599 -0.283 1.13 255 255 255
-0.175 -0.109 1.01 255 255 255
-0.194 -0.183 1.025 255 255 255
-0.043 0.129 0.342 255 255 255
0.24 -0.121 0.403 255 255 255
-0.071 0.144 0.301 0 0 0
-0.075 0.068 0.357 255 255 255
-0.463 0.053 0.727 255 255 255
-0.067 0.035 0.389 255 255 255
-0.26 -0.135 0.992 0 0 0
-0.292 -0.113 0.988 255 255 255
-0.433 0.044 0.896 255 255 255
-0.451 0.057 0.773 255 255 255
0.434 0.266 0.994 255 255 255
-0.373 -0.184 0.998 255 255 255
-0.043 0.14 0.332 255 255 255
0.123 -0.242 0.433 255 255 255
0.611 -0.152 1.198 255 255 255
-0.395 -0.356 1.065 0 0 0
0.008 -0.287 0.53 255 255 255
-0.108 0.143 0.291 255 255 255
0.506 -0.321 1.221 255 255 255
0.474 0.232 1.013 255 255 255
-0.517 -0.314 0.966 0 0 0
-0.119 0.035 0.4 255 255 255
-0.005 -0.316 0.509 255 255 255
0.035 0.051 0.434 255 255 255
0.447 0.003 1.102 255 255 255
0.226 -0.132 1.107 255 255 255
-0.068 0.096 0.337 255 255 255
0.006 0.061 0.985 255 255 255
0.326 -0.081 1.106 0 0 0
0.014 0.148 0.401 255 255 255
0.804 -0.02 1.156 255 255 255
0.567 0.246 1.03 255 255 255
0.086 -0.265 0.4 255 255 255
0.35 -0.068 1.106 255 255 255
-0.065 0.134 0.313 255 255 255
-0.024 0.102 0.394 255 255 255
0.043 0.076 0.411 255 255 255
0.462 -0.424 1.15 255 255 255
0.142 -0.251 0.314 255 255 255
0.357 0.012 1.078 255 255 255
-0.053 0.019 0.413 255 255 255
-0.572 -0.557 1.046 255 255 255
0.35 -0.32 1.209 255 255 255
-0.54 0.079 0.81 255 255 255
-0.614 -0.395 0.973 255 255 255
-0.214 -0.051 0.98 255 255 255
-0.061 0.024 0.399 255 255 255
0.161 0.013 1.034 255 255 255
-0.004 0.061 0.983 255 255 255
0.272 0.022 1.055 255 255 255
0.429 0.232 1.004 255 255 255
0.063 0.14 0.358 255 255 255
-0.456 -0.474 1.035 255 255 255
0.02 0.144 0.394 255 255 255
-0.232 -0.554 0.942 255 255 255
0.503 -0.377 1.16 255 255 255
0.356 -0.075 1.111 255 255 255
0.057 0.097 0.389 255 255 255
0.054 0.081 0.403 255 255 255
-0.431 -0.11 0.961 255 255 255
0.115 -0.264 0.362 0 0 0
0.615 -0.144 1.196 255 255 255
-0.119 0.011 0.419 255 255 255
-0.191 -0.445 0.931 255 255 255
-0.089 0.086 0.338 255 255 255
-0.478 -0.534 1.052 255 255 255
0.213 -0.724 1.155 0 0 0
0.053 -0.321 0.46 255 255 255
-0.502 -0.429 1.004 255 255 255
-0.401 0.112 0.875 255 255 255
-0.317 0.064 0.911 255 255 255
0.75 -0.088 1.154 255 255 255
-0.509 -0.108 0.941 255 255 255
0.462 -0.049 1.126 255 255 255
-0.176 -0.151 1.026 255 255 255
-0.541 -0.361 0.967 255 255 255
-0.487 -0.272 0.979 255 255 255
-0.406 -0.103 0.963 255 255 255
-0.45 0.205 0.828 255 255 255
0.113 -0.264 0.368 255 255 255
0.544 0.152 1.061 255 255 255
0.592 -0.184 1.206 0 0 0
0.661 0.179 1.08 255 255 255
0.047 0.115 0.376 255 255 255
-0.088 0.088 0.336 255 255 255
0.185 -0.198 0.352 255 255 255
-0.077 0.137 0.3 0 0 0
0.187 -0.409 1.186 255 255 255
-0.339 -0.998 1.325 0 0 0
0.474 0.06 1.085 255 255 255
-0.591 -0.283 0.96 255 255 255
0.327 0.105 1.032 255 255 255
0.044 0.129 0.375 255 255 255
0.118 -0.248 0.38 255 255 255
-0.299 -0.104 0.983 255 255 255
-0.506 -0.526 1.043 255 255 255
0.392 0.038 1.075 255 255 255
0.614 -0.163 1.203 255 255 255
0.269 0.11 1.015 255 255 255
-0.301 -0.946 1.316 255 255 255
-0.31 -0.335 1.018 255 255 255
-0.115 0.057 0.368 255 255 255
-0.181 -0.018 0.998 255 255 255
-0.659 -0.263 0.965 255 255 255
-0.491 0.03 0.769 255 255 255
-0.441 0.12 0.863 255 255 255
0.091 0.081 0.403 0 0 0
0.385 0.212 1.003 255 255 255
0.462 -0.184 1.169 255 255 255
0.085 -0.271 0.405 255 255 255
0.166 -0.707 1.236 255 255 255
-0.179 -0.382 0.894 255 255 255
-0.466 0.006 0.905 255 255 255
0.27 -0.357 1.206 255 255 255
0.168 -0.195 0.414 255 255 255
0.187 -0.372 1.195 255 255 255
0.147 -0.228 0.319 255 255 255
0.066 0.053 0.427 255 255 255
-0.051 0.116 0.331 255 255 255
-0.378 -0.146 0.984 255 255 255
-0.64 -0.323 0.963 255 255 255
0.209 -0.167 0.362 255 255 255
-0.148 -0.033 0.985 255 255 255
0.096 0.066 0.426 255 255 255
-0.361 -0.274 1.031 255 255 255
0.525 0.309 0.994 255 255 255
0.004 -0.305 0.515 255 255 255
-0.5 0.075 0.84 0 0 0
-0.229 -0.25 1.042 255 255 255
0.017 0.189 0.376 255 255 255
0.006 -0.01 1.011 255 255 255
0.375 -0.262 1.176 255 255 255
0.415 -0.133 1.147 255 255 255
0.581 0.242 1.036 255 255 255
-0.083 0.1 0.327 255 255 255
-0.133 0.086 0.355 255 255 255
0.102 0.128 0.365 255 255 255
0.124 -0.252 0.325 255 255 255
0.083 0.077 0.402 0 0 0
0.708 0.069 1.135 255 255 255
0.525 0.142 1.061 255 255 255
0.769 -0.029 1.18 255 255 255
-0.153 -0.436 0.998 255 255 255
0.587 -0.049 1.158 255 255 255
0.005 -0.247 0.579 255 255 255
-0.243 -0.188 1.015 255 255 255
0.463 0.262 1 255 255 255
-0.446 0.033 0.848 255 255 255
-0.134 0.122 0.317 255 255 255
0.558 0.197 1.046 255 255 255
-0.571 -0.192 0.931 255 255 255
0.047 -0.321 0.471 255 255 255
0.383 0.159 1.023 255 255 255
-0.527 -0.22 0.948 255 255 255
-0.126 -0.021 0.984 255 255 255
-0.353 0.231 0.838 255 255 255
-0.086 0.118 0.313 255 255 255
0.084 0.081 0.402 0 0 0
-0.358 -1.021 1.329 255 255 255
0.743 0.055 1.149 255 255 255
0.1 -0.261 0.394 255 255 255
-0.444 -0.408 1.01 255 255 255
-0.057 0.034 0.396 255 255 255
0.392 -0.506 1.164 255 255 255
0.185 -0.17 0.392 255 255 255
-0.428 0.236 0.821 255 255 255
0.12 -0.254 0.366 255 255 255
-0.137 -0.229 1.056 255 255 255
-0.523 -0.096 0.933 255 255 255
-0.056 0.129 0.317 255 255 255
-0.537 -0.19 0.934 255 255 255
-0.384 -0.306 1.029 255 255 255
-0.049 -0.156 1.058 255 255 255
0.01 0.084 0.446 255 255 255
-0.576 -0.307 0.961 255 255 255
-0.207 -0.176 1.019 0 0 0
-0.565 -0.148 0.939 255 255 255
-0.08 0.12 0.313 255 255 255
0.152 -0.112 1.083 255 255 255
0.032 -0.04 1.025 0 0 0
-0.373 0.092 0.889 255 255 255
-0.013 0.376 0.856 255 255 255
0.429 -0.217 1.165 255 255 255
-0.151 0.043 0.434 255 255 255
0.454 -0.428 1.171 255 255 255
0.071 -0.295 0.428 255 255 255
0.713 0.039 1.149 255 255 255
0.051 0.112 0.382 255 255 255
0.289 -0.106 1.109 255 255 255
-0.457 -0.352 0.984 0 0 0
0.053 0.183 0.336 255 255 255
0.259 -0.104 0.37 255 255 255
-0.006 0.114 0.962 255 255 255
-0.503 -0.201 0.949 255 255 255
0.315 -0.208 1.153 255 255 255
0.116 0.159 0.349 0 0 0
-0.03 0.067 0.391 255 255 255
0.071 -0.293 0.432 255 255 255
0.04 -0.315 0.433 0 0 0
0.412 -0.199 1.149 255 255 255
-0.398 -0.395 1.014 255 255 255
0.039 0.071 0.418 255 255 255
0.171 -0.129 1.093 255 255 255
0.171 -0.186 0.4 255 255 255
-0.089 -0.064 1.007 255 255 255
0.074 0.147 0.349 255 255 255
-0.278 -0.241 1.032 255 255 255
0.041 0.054 0.438 0 0 0
-0.493 -0.506 1.039 255 255 255
-0.105 0.161 0.283 255 255 255
0.018 0.09 0.425 0 0 0
0.031 0.056 0.991 255 255 255
0.123 -0.223 1.071 255 255 255
0.476 -0.443 1.138 255 255 255
-0.231 -0.371 1.048 255 255 255
-0.021 0.065 0.417 255 255 255
-0.097 0.147 0.29 255 255 255
0.339 0.202 0.997 255 255 255
0.109 0.103 0.39 255 255 255
-0.047 0.151 0.323 0 0 0
-0.336 -0.021 0.944 255 255 255
0.448 0.332 0.968 255 255 255
0.547 0.245 1.028 255 255 255
-0.116 -0.078 1.012 255 255 255
-0.572 -0.745 1.164 255 255 255
-0.439 0.069 0.884 255 255 255
0.076 -0.153 1.081 255 255 255
0.019 -0.308 0.483 255 255 255
0.445 0.221 1.011 255 255 255
-0.476 -0.617 1.136 255 255 255
-0.082 0.076 0.347 0 0 0
0.489 -0.303 1.232 0 0 0
-0.108 0.051 0.372 255 255 255
-0.56 -0.753 1.169 255 255 255
0.118 -0.247 1.059 255 255 255
-0.164 -0.514 1.059 255 255 255
0.101 -0.349 1.045 255 255 255
0.667 0.048 1.134 255 255 255
0.787 -0.064 1.13 255 255 255
0.081 0.18 0.325 255 255 255
0.449 -0.218 1.181 255 255 255
0.55 -0.29 1.191 0 0 0
0.107 -0.271 0.359 255 255 255
-0.456 -0.151 0.972 255 255 255
0.144 -0.235 0.326 0 0 0
-0.056 -0.164 1.026 255 255 255
-0.077 0 0.425 255 255 255
0.425 -0.141 1.153 255 255 255
-0.138 -0.582 0.99 255 255 255
0.023 -0.326 0.453 255 255 255
-0.678 -0.251 0.956 255 255 255
0.037 -0.206 1.079 255 255 255
0.049 0.112 0.382 255 255 255
0.245 -0.456 1.163 255 255 255
-0.441 0.2 0.832 255 255 255
-0.075 0.051 0.372 255 255 255
0.021 0.071 0.428 255 255 255
-0.283 -0.007 0.947 255 255 255
-0.159 -0.527 1.033 255 255 255
0.58 0.074 1.099 255 255 255
-0.099 0.005 0.424 255 255 255
-0.565 -0.133 0.937 255 255 255
0.036 -0.292 0.55 255 255 255
-0.257 -0.986 1.343 0 0 0
0.075 0.122 0.369 255 255 255
-0.382 -0.048 0.556 255 255 255
-0.032 0.081 0.38 255 255 255
-0.495 0.112 0.856 0 0 0
0.115 0.127 0.37 0 0 0
0.175 -0.208 0.341 255 255 255
