ply
format ascii 1.0
comment Created by Open3D
element vertex 1597
property double x
property double y
property double z
property uchar red
property uchar green
property uchar blue
end_header
0.028 0.156 0.35 255 255 255
-0.162 0.075 0.347 0 0 0
0.222 0.402 0.938 255 255 255
0.044 -0.33 1.201 0 0 0
0.059 -0.204 0.312 255 255 255
-0.262 0.099 0.928 255 255 255
-0.03 -0.249 0.427 255 255 255
0.676 0.142 1.188 255 255 255
-0.069 0.108 0.389 255 255 255
-0.216 0.05 0.385 255 255 255
-0.623 -0.259 0.985 255 255 255
0.088 0.024 1.061 255 255 255
-0.522 0.135 0.836 255 255 255
0.549 -0.041 1.232 255 255 255
0.122 -0.414 1.266 255 255 255
0.272 -0.13 1.188 255 255 255
-0.119 0.132 0.341 255 255 255
-0.152 -0.051 1.024 255 255 255
-0.543 -0.276 0.94 255 255 255
0.171 -0.134 1.155 255 255 255
-0.545 -0.154 0.945 255 255 255
0.007 0.112 0.379 255 255 255
-0.385 -0.227 1.007 255 255 255
0.188 -0.112 0.339 255 255 255
0.208 -0.076 0.369 255 255 255
-0.523 -0.183 0.96 0 0 0
0.524 0.293 1.072 255 255 255
-0.097 0.145 0.431 255 255 255
0.488 0.233 1.084 255 255 255
0.252 0.023 1.114 255 255 255
0.006 0.159 0.339 0 0 0
0.336 0.379 0.981 255 255 255
-0.148 0.052 0.382 255 255 255
-0.253 -0.004 0.973 255 255 255
0.507 -0.197 1.217 255 255 255
0.306 0.344 0.986 255 255 255
0.246 -0.2 1.202 255 255 255
-0.111 -0.115 1.067 255 255 255
0.455 0.26 1.064 255 255 255
0.063 0.015 1.058 255 255 255
0.042 0.1 1.018 255 255 255
-0.632 -0.181 0.904 255 255 255
0.154 -0.131 0.307 255 255 255
-0.087 0.092 0.419 255 255 255
-0.641 -0.953 1.278 0 0 0
0.152 -0.136 0.348 255 255 255
-0.072 -0.291 0.401 0 0 0
-0.204 -0.004 0.991 255 255 255
-0.185 0.087 0.956 0 0 0
0.737 0.153 1.202 255 255 255
-0.439 -0.233 1.009 0 0 0
0.562 0.006 1.216 255 255 255
0.176 0.204 1.01 255 255 255
-0.194 0.045 0.97 255 255 255
0.354 0.033 1.137 255 255 255
0.206 -0.07 0.414 255 255 255
-0.369 -0.052 0.963 255 255 255
0.024 0.138 0.363 255 255 255
-0.101 -0.496 1.048 255 255 255
-0.663 -0.111 0.903 255 255 255
-0.077 0.069 0.425 255 255 255
-0.586 -0.361 0.967 255 255 255
-0.646 -0.195 0.906 255 255 255
-0.03 0.18 0.341 255 255 255
0.139 -0.14 0.304 255 255 255
0.19 -0.083 0.414 255 255 255
0.093 0.221 0.98 255 255 255
0.439 0.149 1.108 255 255 255
0.353 0.204 1.061 0 0 0
0.039 0.168 0.342 255 255 255
0.277 -0.281 1.25 255 255 255
0.286 0.161 1.059 255 255 255
-0.587 -0.206 0.956 255 255 255
-0.415 -0.485 0.982 255 255 255
0.144 -0.204 0.329 255 255 255
-0.418 -0.072 0.956 255 255 255
0.183 -0.107 0.357 255 255 255
0.001 0.162 0.338 0 0 0
0.03 -0.22 0.313 255 255 255
0.082 -0.178 0.366 255 255 255
0.034 -0.036 1.072 255 255 255
0.129 0.257 0.973 255 255 255
0.062 0.038 1.048 255 255 255
0.67 -0.083 1.198 0 0 0
-0.004 0.057 1.021 255 255 255
0.161 0.248 0.986 255 255 255
0.162 -0.131 0.336 255 255 255
-0.127 -0.345 1.122 255 255 255
-0.024 0.091 0.392 0 0 0
-0.008 0.057 1.018 255 255 255
-0.16 -0.493 0.999 255 255 255
0.151 0.141 1.028 255 255 255
0.12 -0.131 0.394 255 255 255
0.014 -0.212 0.421 255 255 255
0.327 -0.208 1.239 255 255 255
0.119 0.076 1.049 255 255 255
-0.128 0.13 0.325 255 255 255
-0.005 -0.227 0.388 255 255 255
-0.117 -0.306 0.463 255 255 255
-0.166 0.105 0.966 0 0 0
-0.461 -0.151 0.967 255 255 255
0.586 0.052 1.197 255 255 255
0.038 -0.226 0.344 255 255 255
0.004 -0.27 1.162 0 0 0
0.125 0.136 1.022 0 0 0
-0.258 -0.134 1.029 255 255 255
0.091 -0.172 0.366 255 255 255
0.086 0.049 1.052 255 255 255
-0.152 -0.222 0.581 255 255 255
0.077 -0.19 0.353 255 255 255
0.264 0.497 0.907 255 255 255
-0.618 -0.016 0.879 255 255 255
0.001 0.149 0.346 255 255 255
0.136 -0.119 0.394 255 255 255
-0.087 0.113 0.41 255 255 255
-0.058 -0.031 1.043 255 255 255
-0.368 -0.509 0.97 255 255 255
-0.035 -0.244 0.39 255 255 255
0.52 -0.183 1.223 255 255 255
-0.152 -0.312 0.456 255 255 255
0.151 -0.128 0.362 255 255 255
0.185 0.016 1.098 255 255 255
-0.21 -0.008 0.989 0 0 0
-0.442 -0.021 0.929 255 255 255
-0.084 0.125 0.405 255 255 255
0.049 0.169 0.349 255 255 255
0.013 -0.222 0.38 255 255 255
-0.563 -0.346 0.998 255 255 255
0.066 -0.176 0.425 255 255 255
-0.062 0.129 0.379 255 255 255
-0.387 -0.134 0.987 255 255 255
0.148 -0.133 0.357 255 255 255
0.391 0.012 1.158 255 255 255
0.653 0.006 1.244 255 255 255
-0.122 0.159 0.312 255 255 255
-0.043 0.063 0.415 255 255 255
0.065 -0.182 0.378 255 255 255
0.065 0.122 1.014 255 255 255
0.07 0.19 0.356 255 255 255
0.075 -0.177 0.375 255 255 255
0.495 0.166 1.115 255 255 255
-0.091 -0.344 0.538 255 255 255
-0.003 0.141 0.353 255 255 255
0.369 0.276 1.034 255 255 255
0.047 0.154 0.364 255 255 255
0.313 -0.231 1.242 255 255 255
-0.539 0.047 0.867 255 255 255
-0.633 -0.843 1.228 255 255 255
0.001 0.177 0.328 255 255 255
-0.385 -0.325 0.842 255 255 255
0.279 0.473 0.923 255 255 255
-0.176 0.095 0.327 255 255 255
0.174 0.005 1.1 255 255 255
0.534 0.27 1.086 255 255 255
-0.293 0 0.961 255 255 255
0.195 -0.061 1.132 255 255 255
-0.202 -0.016 1 255 255 255
-0.576 -0.024 0.891 255 255 255
0.165 -0.107 1.143 255 255 255
-0.074 -0.318 1.166 255 255 255
0.107 0.153 1.012 255 255 255
-0.13 -0.112 1.06 255 255 255
-0.082 -0.414 1.095 255 255 255
0.088 -0.189 0.344 255 255 255
0.062 -0.127 1.122 255 255 255
-0.146 0.097 0.342 255 255 255
-0.119 0.079 0.409 255 255 255
0.287 0.34 0.983 255 255 255
0.361 -0.274 1.265 255 255 255
-0.182 -0.337 0.92 255 255 255
-0.095 0.109 0.417 255 255 255
-0.042 0.095 0.385 0 0 0
0.512 0.147 1.131 255 255 255
0.226 -0.077 0.348 255 255 255
-0.192 0.036 0.974 255 255 255
0.152 -0.136 0.35 255 255 255
-0.129 0.12 0.334 255 255 255
-0.109 -0.377 1.143 255 255 255
-0.011 0.069 0.415 255 255 255
0.067 0.017 1.059 255 255 255
0.015 0.174 0.327 255 255 255
0.661 0.192 1.156 255 255 255
0.386 0.129 1.102 255 255 255
0.231 -0.202 1.202 255 255 255
-0.037 0.186 0.345 255 255 255
0.135 -0.199 0.325 255 255 255
0.111 -0.161 0.316 255 255 255
-0.153 0.102 0.33 255 255 255
-0.034 0.082 0.398 255 255 255
-0.123 0.139 0.326 255 255 255
0.338 0.154 1.078 255 255 255
0.164 0.279 0.975 255 255 255
-0.083 -0.29 0.415 255 255 255
0.259 -0.043 0.359 255 255 255
0.089 -0.154 0.391 255 255 255
-0.125 0.073 0.39 255 255 255
-0.579 -0.124 0.931 255 255 255
0.043 -0.21 0.313 255 255 255
-0.145 0.074 0.358 0 0 0
-0.208 -0.036 1.002 0 0 0
0.129 -0.205 1.171 255 255 255
0.058 -0.201 0.323 255 255 255
0.028 0.126 0.383 0 0 0
0.587 -0.002 1.223 0 0 0
0.046 -0.404 1.245 255 255 255
-0.081 0.102 0.404 0 0 0
0.347 0.25 1.036 255 255 255
-0.147 0.07 0.363 0 0 0
-0.131 0.058 0.404 255 255 255
-0.15 0.097 0.333 255 255 255
0.246 0.429 0.934 0 0 0
0.05 -0.188 0.424 255 255 255
0.053 -0.201 0.315 255 255 255
-0.125 -0.294 0.467 255 255 255
-0.045 0.179 0.351 255 255 255
-0.235 0.073 0.946 0 0 0
0.283 0.144 1.065 255 255 255
-0.013 0.097 0.386 255 255 255
0.172 0.366 0.963 255 255 255
0.23 0.045 1.096 255 255 255
0.125 0.266 0.969 255 255 255
0.641 -0.035 1.257 0 0 0
-0.454 -0.166 0.972 255 255 255
0.321 0.035 1.126 255 255 255
0.225 -0.394 1.253 255 255 255
-0.457 -0.076 0.944 255 255 255
-0.071 0.157 0.383 255 255 255
0.781 0.003 1.187 0 0 0
-0.524 0.024 0.882 255 255 255
-0.018 -0.238 0.419 255 255 255
-0.342 0.022 0.937 255 255 255
0.328 0.507 0.923 255 255 255
0.205 -0.081 0.445 0 0 0
-0.148 -0.188 1.075 0 0 0
0.779 -0.01 1.159 0 0 0
-0.209 0.352 0.834 255 255 255
0.327 -0.135 1.206 255 255 255
-0.403 -0.549 0.933 255 255 255
-0.137 0.096 0.342 255 255 255
0.169 -0.117 0.316 255 255 255
-0.154 -0.313 0.456 255 255 255
0.162 -0.106 0.378 255 255 255
-0.251 -0.209 1 255 255 255
-0.054 0.112 0.382 0 0 0
0.502 0.077 1.162 255 255 255
0.397 0.283 1.038 255 255 255
0.056 -0.178 0.397 255 255 255
-0.066 0.109 0.389 255 255 255
0.25 -0.033 0.377 255 255 255
0.041 0.176 0.336 255 255 255
0.113 -0.073 1.111 255 255 255
-0.098 -0.099 1.064 255 255 255
-0.465 -0.068 0.942 255 255 255
0.516 -0.181 1.228 255 255 255
0.283 -0.015 0.417 255 255 255
-0.034 0.081 0.399 255 255 255
0.253 0.124 1.066 255 255 255
-0.2 0.029 0.396 255 255 255
0.08 -0.193 0.306 255 255 255
0.1 -0.034 1.091 0 0 0
0.392 0.47 0.958 255 255 255
-0.433 -0.176 0.986 255 255 255
0.057 -0.18 0.385 255 255 255
0.253 -0.028 0.381 255 255 255
0.285 -0.321 1.271 0 0 0
0.059 -0.204 0.345 255 255 255
0.162 0.177 1.016 255 255 255
-0.004 0.109 0.38 255 255 255
-0.159 0.106 0.319 255 255 255
0.206 -0.074 0.43 0 0 0
-0.002 0.081 1.016 255 255 255
0.687 -0.05 1.218 255 255 255
-0.275 -0.046 0.985 255 255 255
-0.13 0.076 0.375 255 255 255
0.049 -0.012 1.067 255 255 255
0.004 0.069 0.441 255 255 255
-0.111 0.172 0.332 255 255 255
0.274 0.379 0.964 255 255 255
-0.458 0.02 0.902 255 255 255
-0.162 0.031 0.403 255 255 255
-0.19 -0.325 1.081 255 255 255
0.077 -0.189 0.309 255 255 255
-0.124 0.097 0.363 255 255 255
0.028 0.148 0.352 255 255 255
-0.591 -0.054 0.901 255 255 255
0.48 0.25 1.076 255 255 255
0.163 0.255 0.985 255 255 255
0.241 -0.069 0.337 255 255 255
-0.149 0.097 0.333 255 255 255
-0.369 -0.216 1.009 255 255 255
0.125 0.28 0.966 255 255 255
-0.03 -0.044 1.057 255 255 255
-0.004 0.023 1.036 255 255 255
0.406 -0.275 1.222 255 255 255
0.076 -0.167 0.417 255 255 255
-0.022 -0.241 0.389 255 255 255
0.105 -0.151 0.38 255 255 255
-0.07 -0.344 1.178 255 255 255
0.124 -0.152 0.353 255 255 255
-0.118 0.095 0.389 255 255 255
-0.27 -0.126 1.016 255 255 255
0.174 0.302 0.966 255 255 255
-0.114 0.109 0.392 255 255 255
0.037 0.172 0.334 255 255 255
0.21 -0.088 0.352 255 255 255
0.368 -0.106 1.206 255 255 255
0.692 -0.079 1.159 0 0 0
-0.095 0.112 0.424 255 255 255
-0.154 -0.27 0.518 255 255 255
0.19 -0.109 0.336 255 255 255
0.208 0.241 1.003 255 255 255
0.333 0.091 1.106 255 255 255
0.201 0.285 0.983 255 255 255
-0.159 -0.727 1.215 255 255 255
0.192 0.387 0.945 255 255 255
0.409 0.299 1.035 255 255 255
0.402 0.02 1.159 255 255 255
0.42 -0.034 1.19 255 255 255
-0.35 -0.254 0.999 255 255 255
-0.57 -0.982 1.311 0 0 0
0.032 0.141 0.371 0 0 0
0.327 0.451 0.946 0 0 0
0.295 -0.004 0.412 255 255 255
-0.072 0.09 0.403 255 255 255
0.465 0.397 1.004 0 0 0
0.297 0.257 1.019 0 0 0
-0.596 -0.148 0.931 0 0 0
-0.066 0.056 0.43 0 0 0
-0.547 -0.274 0.968 255 255 255
-0.07 -0.447 1.031 255 255 255
-0.523 -0.163 0.954 255 255 255
0.206 0.271 0.992 255 255 255
0.172 0.02 1.091 255 255 255
0.402 0.427 0.979 255 255 255
0.149 -0.235 1.175 255 255 255
0.043 -0.521 1.284 255 255 255
-0.575 -0.319 0.99 255 255 255
0.149 -0.135 0.354 255 255 255
0.279 -0.366 1.235 255 255 255
-0.035 0.123 0.369 255 255 255
0.484 -0.176 1.256 255 255 255
0.177 -0.456 1.229 255 255 255
0.351 0.001 1.152 255 255 255
0.179 -0.099 0.369 255 255 255
-0.344 -0.033 0.96 255 255 255
0.06 -0.284 1.192 255 255 255
0.01 0.175 0.328 255 255 255
0.139 0.174 1.012 255 255 255
-0.043 0.084 0.396 255 255 255
0.281 0.319 0.99 255 255 255
-0.211 0.065 0.363 255 255 255
-0.171 -0.012 1.001 255 255 255
0.13 -0.123 1.143 255 255 255
0.673 0.001 1.246 255 255 255
0.11 -0.168 0.345 255 255 255
0.395 0.466 0.959 255 255 255
-0.056 0.052 0.432 255 255 255
-0.551 -0.009 0.891 255 255 255
0.194 -0.086 0.368 255 255 255
0.5 0.103 1.15 255 255 255
-0.614 0.014 0.863 255 255 255
0.437 0.022 1.171 255 255 255
-0.173 0.096 0.326 255 255 255
0.046 0.118 1.011 255 255 255
-0.129 -0.277 0.521 255 255 255
0.2 -0.092 0.358 255 255 255
-0.335 -0.039 0.965 255 255 255
0.145 -0.14 0.35 255 255 255
0.262 -0.031 0.373 255 255 255
-0.234 -0.19 1.039 0 0 0
0.154 -0.112 0.38 255 255 255
0.178 0.106 1.054 255 255 255
-0.608 -0.082 0.905 255 255 255
-0.088 0.045 1.005 255 255 255
-0.391 -0.261 1.011 255 255 255
0.129 -0.194 1.164 255 255 255
-0.034 0.033 0.461 0 0 0
-0.053 -0.243 1.137 255 255 255
-0.269 0.037 0.949 255 255 255
-0.416 -0.294 1.009 255 255 255
-0.123 0.166 0.307 255 255 255
0.497 0.245 1.084 255 255 255
-0.044 -0.274 0.366 0 0 0
-0.119 0.143 0.331 255 255 255
-0.378 -0.482 0.931 255 255 255
0.442 0.025 1.17 255 255 255
0.111 -0.154 0.365 255 255 255
0.059 -0.2 0.359 255 255 255
0.155 -0.436 1.27 255 255 255
0.417 -0.263 1.226 255 255 255
-0.123 -0.369 1.081 255 255 255
-0.444 -0.308 1.002 255 255 255
-0.011 -0.031 1.057 255 255 255
-0.393 -0.074 0.965 255 255 255
0.348 0.391 0.98 255 255 255
-0.466 -0.183 0.979 255 255 255
0.044 -0.341 1.214 0 0 0
-0.03 0.067 0.414 0 0 0
-0.108 0.18 0.344 255 255 255
-0.12 0.077 0.418 255 255 255
0.24 -0.039 0.376 255 255 255
-0.134 0.026 0.997 255 255 255
0.535 0.095 1.167 255 255 255
0.249 -0.05 0.359 255 255 255
-0.515 -0.033 0.912 255 255 255
0.345 0.144 1.086 255 255 255
-0.121 -0.692 1.225 255 255 255
-0.05 0.168 0.357 0 0 0
-0.395 -0.041 0.95 255 255 255
-0.16 -0.73 1.198 255 255 255
-0.163 0.053 0.369 255 255 255
0.228 -0.047 0.388 255 255 255
-0.219 -0.03 0.995 255 255 255
0.013 -0.066 1.08 255 255 255
-0.439 -0.526 0.923 255 255 255
-0.023 0.075 0.407 255 255 255
-0.064 -0.438 1.186 255 255 255
-0.161 -0.458 0.988 255 255 255
0.192 -0.105 0.351 255 255 255
-0.424 -0.102 0.967 255 255 255
0.371 0.423 0.971 255 255 255
-0.437 -0.205 0.993 255 255 255
-0.377 -0.031 0.949 255 255 255
0.076 0.009 1.064 255 255 255
0.096 -0.179 0.33 255 255 255
-0.026 -0.12 1.094 255 255 255
0.066 -0.452 1.273 0 0 0
-0.023 0.083 0.397 0 0 0
0.578 0.109 1.171 255 255 255
0.101 -0.072 1.108 255 255 255
0.325 0.11 1.093 255 255 255
-0.324 -0.015 0.959 255 255 255
-0.257 -0.154 0.997 255 255 255
0.753 -0.033 1.155 255 255 255
0.333 0.381 0.98 255 255 255
-0.171 0.049 0.976 255 255 255
0.388 -0.182 1.246 0 0 0
0.356 0.42 0.968 255 255 255
-0.042 -0.265 0.376 255 255 255
0.183 -0.11 0.352 255 255 255
-0.021 -0.184 1.121 255 255 255
-0.194 -0.217 0.625 255 255 255
0.023 0.115 0.39 255 255 255
-0.148 -0.279 0.498 255 255 255
0.572 0.103 1.171 255 255 255
0.056 0.042 1.045 255 255 255
-0.208 -0.276 1.076 255 255 255
-0.053 0.046 0.444 0 0 0
0.633 0.038 1.224 255 255 255
-0.596 0.02 0.866 255 255 255
0.287 -0.146 1.199 255 255 255
-0.06 -0.105 1.077 255 255 255
-0.046 0.088 0.394 255 255 255
0.024 -0.487 1.275 255 255 255
-0.015 -0.249 0.372 255 255 255
0.158 -0.125 0.313 255 255 255
-0.142 -0.239 0.555 255 255 255
0.058 -0.204 0.346 255 255 255
-0.172 -0.245 0.568 255 255 255
-0.198 0.03 0.974 255 255 255
0.228 -0.061 0.367 255 255 255
0.54 0.142 1.143 255 255 255
-0.191 -0.126 1.014 255 255 255
0.136 -0.131 0.375 255 255 255
-0.133 0.065 0.385 255 255 255
-0.039 0.156 0.353 255 255 255
0.187 -0.463 1.208 0 0 0
0.07 -0.183 0.373 255 255 255
-0.378 -0.556 0.969 255 255 255
0.758 -0.005 1.2 255 255 255
0.113 -0.165 0.35 255 255 255
0.206 0.012 1.103 255 255 255
-0.376 0.026 0.93 255 255 255
-0.641 -0.158 0.904 255 255 255
-0.035 -0.14 1.1 255 255 255
0.119 -0.064 1.109 255 255 255
0.182 -0.106 0.306 255 255 255
0.093 -0.156 0.384 255 255 255
-0.11 0.179 0.329 255 255 255
0.099 -0.17 0.309 255 255 255
0.205 -0.065 0.38 255 255 255
0.19 -0.091 1.144 255 255 255
-0.161 0.085 0.343 255 255 255
-0.593 -0.073 0.907 255 255 255
-0.165 -0.289 0.499 255 255 255
0.47 0.39 1.012 255 255 255
0.009 0.085 0.411 255 255 255
0.154 -0.132 0.306 255 255 255
0.163 -0.227 1.169 255 255 255
-0.064 -0.457 1.004 255 255 255
-0.178 0.088 0.334 255 255 255
-0.171 0.056 0.365 255 255 255
0.367 -0.33 1.184 0 0 0
-0.175 -0.343 1.086 255 255 255
-0.034 0.122 0.37 0 0 0
-0.482 -0.085 0.942 255 255 255
-0.077 -0.033 1.04 255 255 255
0.336 -0.06 1.177 255 255 255
-0.094 0.105 0.413 255 255 255
-0.085 -0.426 1.002 255 255 255
0.228 -0.071 1.145 0 0 0
-0.093 -0.398 1.112 255 255 255
-0.638 -0.326 0.937 255 255 255
0.193 0.357 0.946 255 255 255
-0.445 -0.283 1.011 255 255 255
0.609 -0.11 1.222 255 255 255
-0.136 0.074 0.367 0 0 0
-0.036 0.067 0.411 255 255 255
0.223 0.147 1.048 255 255 255
-0.338 -0.431 0.95 255 255 255
0.303 -0.37 1.2 0 0 0
0.195 0.156 1.036 255 255 255
-0.557 -0.12 0.937 255 255 255
-0.182 0.029 0.397 255 255 255
0.664 0.085 1.21 255 255 255
-0.528 -0.21 0.976 255 255 255
-0.031 0.101 0.384 255 255 255
0.001 -0.215 0.387 255 255 255
-0.306 -0.082 0.985 0 0 0
0.459 0.059 1.158 255 255 255
0.013 -0.214 0.421 255 255 255
0.272 -0.092 1.17 255 255 255
0.048 0.138 0.396 255 255 255
-0.139 0.075 0.365 0 0 0
0.207 -0.069 0.419 0 0 0
0.013 0.138 0.357 255 255 255
-0.624 -0.952 1.281 0 0 0
0.151 -0.186 1.173 255 255 255
-0.064 0.005 1.027 255 255 255
-0.038 -0.138 1.099 255 255 255
-0.474 -0.171 0.968 0 0 0
0.143 -0.144 0.348 255 255 255
-0.013 0.133 0.359 255 255 255
0.236 0.306 0.984 255 255 255
-0.26 -0.011 0.974 255 255 255
0.302 0.25 1.024 255 255 255
-0.228 0.111 0.933 255 255 255
-0.029 0.033 1.026 255 255 255
-0.174 -0.24 0.583 255 255 255
-0.244 -0.28 1.044 255 255 255
0.115 0.308 1.064 255 255 255
-0.59 0.012 0.87 255 255 255
0.583 -0.137 1.216 255 255 255
0.143 -0.443 1.259 255 255 255
0.025 0.015 1.047 255 255 255
0.349 -0.033 1.169 255 255 255
0.29 0.254 1.018 255 255 255
-0.325 -0.093 0.985 0 0 0
-0.107 0.192 0.352 255 255 255
0.249 -0.048 0.36 255 255 255
-0.277 -0.182 0.909 255 255 255
-0.111 -0.308 0.464 255 255 255
-0.145 0.125 0.316 255 255 255
0.261 0.311 0.989 255 255 255
0.413 0.425 0.983 255 255 255
0.327 0.399 0.968 255 255 255
-0.183 -0.119 1.02 255 255 255
0.148 0.32 0.97 255 255 255
0.015 -0.239 0.348 255 255 255
0.007 0.103 0.391 255 255 255
-0.085 0.078 0.424 255 255 255
-0.329 -0.07 0.983 255 255 255
0.482 0.302 1.054 255 255 255
-0.189 0.07 0.348 255 255 255
-0.518 -0.136 0.942 255 255 255
0.43 0.193 1.087 255 255 255
0.391 -0.102 1.21 255 255 255
0.213 -0.011 1.115 255 255 255
0.138 0.308 0.973 255 255 255
0.085 -0.172 0.372 255 255 255
-0.181 -0.298 1.086 255 255 255
-0.072 0.16 0.384 255 255 255
-0.658 -0.259 0.925 255 255 255
-0.047 0.059 0.421 255 255 255
-0.047 0.072 0.406 0 0 0
-0.002 0.137 0.355 255 255 255
0.061 -0.18 0.384 255 255 255
0.084 -0.15 1.14 255 255 255
-0.602 -0.036 0.891 255 255 255
-0.472 0.008 0.902 255 255 255
0.523 0.319 1.06 255 255 255
-0.026 0.086 0.393 255 255 255
0.533 -0.059 1.235 255 255 255
0.233 -0.349 1.26 0 0 0
0.237 -0.067 0.347 255 255 255
0.017 0.113 0.385 255 255 255
0.099 -0.025 1.086 255 255 255
0.312 -0.314 1.259 255 255 255
0.6 0.194 1.138 255 255 255
-0.047 0.151 0.362 255 255 255
0.475 -0.073 1.225 255 255 255
-0.462 -0.211 0.994 255 255 255
0.476 0.176 1.106 255 255 255
-0.029 0.047 0.442 0 0 0
-0.183 0.064 0.354 0 0 0
0.172 -0.115 0.315 255 255 255
0.143 -0.113 0.398 255 255 255
0.111 -0.154 0.364 255 255 255
0.017 0.119 0.38 0 0 0
-0.405 -0.447 1.033 255 255 255
0.097 0.034 1.06 255 255 255
0.772 0.103 1.235 255 255 255
0.163 -0.118 0.363 255 255 255
-0.224 0.062 0.379 255 255 255
-0.059 0.164 0.368 0 0 0
-0.552 -0.131 0.941 255 255 255
-0.118 0.16 0.32 255 255 255
-0.112 0.161 0.342 0 0 0
-0.004 -0.241 0.372 255 255 255
-0.024 0.059 0.427 255 255 255
0.529 0.344 1.049 255 255 255
0.111 0.005 1.077 255 255 255
-0.202 0.041 0.384 255 255 255
-0.021 -0.273 1.157 255 255 255
-0.669 -0.187 0.896 255 255 255
-0.158 0.077 0.347 255 255 255
-0.123 0.137 0.328 255 255 255
-0.646 -0.094 0.893 255 255 255
-0.617 -0.065 0.896 255 255 255
-0.073 0.031 1.011 0 0 0
-0.433 -0.457 1.019 255 255 255
-0.545 0.051 0.861 255 255 255
0.274 -0.063 1.156 255 255 255
0.059 -0.178 0.411 255 255 255
0.511 -0.056 1.23 255 255 255
0.127 -0.448 1.282 0 0 0
-0.208 -0.014 0.993 0 0 0
-0.397 0 0.93 255 255 255
-0.137 -0.25 1.082 255 255 255
-0.194 -0.091 1.032 0 0 0
-0.096 0.087 0.432 255 255 255
0.635 0.138 1.171 255 255 255
-0.157 0.058 0.365 255 255 255
0.15 -0.178 1.167 255 255 255
-0.054 -0.259 0.404 255 255 255
-0.511 -0.085 0.934 255 255 255
0.018 0.05 1.029 255 255 255
0.178 -0.114 0.307 255 255 255
-0.064 0.115 0.386 0 0 0
0.508 0.378 1.03 255 255 255
0.103 0.216 0.984 255 255 255
0.117 0.088 1.044 255 255 255
0.024 -0.289 1.181 255 255 255
-0.446 -0.511 0.922 255 255 255
-0.004 0.178 0.326 255 255 255
0.041 -0.299 1.193 255 255 255
0.001 0.111 0.378 255 255 255
-0.548 -0.291 0.99 255 255 255
0.108 -0.163 0.357 255 255 255
0.094 -0.155 1.143 255 255 255
-0.174 0.049 0.974 255 255 255
0.067 -0.072 1.096 255 255 255
0.538 0.051 1.188 255 255 255
-0.171 -0.261 0.545 255 255 255
0.087 -0.183 0.326 255 255 255
-0.354 -0.207 1.014 255 255 255
-0.19 -0.059 1.016 0 0 0
0.121 -0.141 0.444 255 255 255
0.223 -0.339 1.264 255 255 255
-0.026 0.098 0.384 0 0 0
-0.181 0.021 0.408 255 255 255
0.279 0.456 0.931 255 255 255
0.328 0.339 0.994 255 255 255
-0.014 0.075 0.41 255 255 255
0.407 0.366 1.008 255 255 255
-0.463 -0.279 1.007 255 255 255
0.21 0.282 0.986 255 255 255
-0.631 -0.255 0.94 255 255 255
-0.64 -0.001 0.862 255 255 255
-0.01 -0.231 0.388 255 255 255
0.518 0.043 1.187 255 255 255
-0.141 0.124 0.317 255 255 255
0.058 0.024 1.053 0 0 0
0.485 -0.098 1.236 0 0 0
0.021 -0.239 0.348 255 255 255
-0.177 -0.403 0.955 255 255 255
-0.135 -0.321 0.427 255 255 255
0.085 -0.165 0.433 255 255 255
0.383 0.269 1.04 255 255 255
0.076 -0.197 0.307 255 255 255
-0.254 0.012 0.967 255 255 255
-0.015 0.117 0.37 0 0 0
-0.019 0.081 0.401 0 0 0
-0.675 -0.21 0.905 255 255 255
-0.219 -0.167 1.014 255 255 255
0.074 -0.193 0.345 255 255 255
-0.505 -0.303 1.006 255 255 255
-0.127 0.082 0.372 255 255 255
0.28 -0.125 1.19 255 255 255
0.078 -0.427 1.264 255 255 255
0.108 -0.149 0.38 255 255 255
0.041 -0.205 0.374 255 255 255
0.177 -0.246 1.181 255 255 255
0.093 -0.18 0.35 255 255 255
-0.015 -0.046 1.062 255 255 255
0.142 -0.409 1.275 255 255 255
-0.118 0.171 0.311 255 255 255
0.431 0.232 1.071 255 255 255
0.089 -0.168 0.372 255 255 255
0.597 0.047 1.201 255 255 255
-0.165 -0.251 0.558 255 255 255
0.095 -0.166 0.371 255 255 255
0.26 0.204 1.031 255 255 255
0.207 0.214 1.014 255 255 255
-0.545 -0.038 0.905 255 255 255
-0.119 0.147 0.329 0 0 0
0.154 -0.106 0.389 255 255 255
0.037 -0.071 1.088 255 255 255
0.017 -0.202 0.385 255 255 255
0.205 0.293 0.98 255 255 255
-0.121 0.098 0.367 255 255 255
0 -0.473 1.129 255 255 255
0.243 0.189 1.034 255 255 255
-0.04 0.163 0.352 0 0 0
-0.26 -0.15 1.024 255 255 255
-0.123 -0.106 1.059 255 255 255
0.141 -0.202 1.171 255 255 255
0.297 0.153 1.065 255 255 255
0.132 -0.037 1.103 0 0 0
0.024 -0.359 1.206 255 255 255
0.094 -0.175 0.31 255 255 255
0.15 -0.144 0.31 255 255 255
0.277 -0.148 1.197 255 255 255
-0.255 -0.082 1.01 255 255 255
0.819 0.039 1.197 255 255 255
-0.505 -0.231 0.993 255 255 255
0.324 -0.207 1.238 255 255 255
-0.479 -0.249 0.998 0 0 0
0.075 -0.193 0.345 255 255 255
0.299 -0.003 0.415 255 255 255
0.063 -0.204 0.311 255 255 255
0.149 -0.138 0.347 255 255 255
-0.056 0.107 0.388 255 255 255
0.006 0.115 0.378 0 0 0
-0.014 0.126 0.365 255 255 255
0.684 0.182 1.171 255 255 255
-0.203 -0.128 1.011 255 255 255
0.105 -0.143 0.382 255 255 255
-0.133 -0.324 0.419 255 255 255
-0.082 -0.346 1.175 255 255 255
-0.179 -0.29 1.119 255 255 255
-0.244 -0.052 0.995 255 255 255
0.067 0.024 1.056 255 255 255
0.468 0.003 1.188 255 255 255
-0.228 -0.272 1.051 255 255 255
0.461 -0.226 1.229 255 255 255
0.825 0.108 1.251 255 255 255
-0.12 0.122 0.346 255 255 255
0.474 0.232 1.082 255 255 255
-0.28 0.018 0.957 255 255 255
-0.285 -0.127 0.99 0 0 0
0.035 -0.204 0.379 255 255 255
0.141 -0.143 0.305 255 255 255
-0.37 -0.429 0.972 255 255 255
-0.012 0.165 0.338 255 255 255
-0.114 -0.223 1.063 255 255 255
0.154 -0.475 1.228 255 255 255
0.002 0.121 0.366 255 255 255
-0.003 0.078 0.412 255 255 255
0.102 -0.161 0.367 255 255 255
-0.124 0.067 0.41 255 255 255
0.036 -0.214 0.315 255 255 255
-0.07 -0.46 0.999 255 255 255
-0.438 -0.003 0.921 255 255 255
-0.073 0.143 0.386 255 255 255
0.245 -0.057 1.146 255 255 255
-0.198 0.069 0.352 255 255 255
0.082 -0.534 1.224 255 255 255
-0.212 0.034 0.397 255 255 255
0.68 0.187 1.168 255 255 255
-0.191 -0.129 1.014 255 255 255
-0.446 -0.515 0.903 255 255 255
-0.16 -0.261 0.535 255 255 255
0.383 -0.199 1.254 0 0 0
-0.149 -0.322 0.441 0 0 0
-0.348 0.031 0.93 255 255 255
0.087 -0.178 0.36 255 255 255
-0.162 0.067 0.355 0 0 0
-0.212 0.039 0.393 255 255 255
-0.611 -0.94 1.279 0 0 0
-0.176 0.006 0.993 255 255 255
0.17 -0.39 1.275 255 255 255
0.01 -0.449 1.241 255 255 255
-0.184 0.442 0.807 255 255 255
0.107 0.162 1.007 255 255 255
-0.124 -0.687 1.234 255 255 255
0.231 -0.076 0.33 255 255 255
-0.18 -0.268 0.545 255 255 255
0.236 -0.065 0.351 255 255 255
-0.016 0.054 0.444 0 0 0
-0.327 0.006 0.948 255 255 255
0.11 -0.163 0.308 255 255 255
0.106 -0.233 0.329 255 255 255
0.128 -0.14 0.373 255 255 255
-0.022 -0.251 0.374 255 255 255
-0.013 -0.6 1.226 255 255 255
-0.192 -0.393 0.963 255 255 255
-0.62 -0.936 1.276 0 0 0
-0.004 -0.222 0.402 255 255 255
0.101 0.219 0.982 255 255 255
-0.025 -0.457 1.167 255 255 255
-0.275 0.045 0.946 255 255 255
-0.025 0.144 0.354 255 255 255
0.115 -0.148 0.37 255 255 255
0.296 0.213 1.039 255 255 255
0.233 0.315 0.978 255 255 255
-0.008 -0.233 0.425 255 255 255
0.175 -0.114 0.357 255 255 255
-0.255 0.049 0.95 255 255 255
0.291 0.403 0.957 255 255 255
0.053 -0.043 1.081 255 255 255
-0.306 0.006 0.953 255 255 255
0.11 -0.156 1.147 255 255 255
0.238 -0.043 0.398 255 255 255
-0.397 -0.265 1.007 255 255 255
0.195 -0.457 1.208 0 0 0
0.294 0.211 1.039 255 255 255
0.519 0.356 1.042 255 255 255
-0.004 -0.237 0.376 255 255 255
0.383 -0.088 1.203 255 255 255
0.487 -0.23 1.2 0 0 0
0.095 0.223 0.98 255 255 255
0.321 -0.264 1.261 255 255 255
-0.273 0.033 0.949 255 255 255
0.494 0.391 1.02 255 255 255
0.091 0.077 1.042 255 255 255
0.184 -0.091 0.433 255 255 255
-0.064 -0.167 1.101 255 255 255
0.588 -0.157 1.177 0 0 0
-0.2 0.028 0.396 255 255 255
-0.404 0.006 0.925 255 255 255
-0.633 -0.285 0.961 0 0 0
-0.474 -0.274 1.004 0 0 0
0.151 0.139 1.03 255 255 255
0.002 -0.095 1.089 255 255 255
-0.113 0.104 0.397 255 255 255
0.09 -0.183 0.331 255 255 255
-0.139 0.046 0.405 255 255 255
0.046 -0.216 0.314 255 255 255
-0.129 0.085 0.369 255 255 255
0.157 0.305 0.961 255 255 255
-0.003 0.141 0.352 255 255 255
-0.629 -0.069 0.894 255 255 255
-0.116 -0.043 1.032 255 255 255
0.054 -0.268 1.175 255 255 255
0.291 0.074 1.101 255 255 255
-0.302 0.004 0.955 255 255 255
-0.038 0.095 0.388 0 0 0
-0.505 -0.209 0.981 255 255 255
0.385 -0.271 1.245 255 255 255
0.647 -0.058 1.244 255 255 255
0.071 0.017 1.06 255 255 255
-0.362 -0.089 0.977 255 255 255
0.591 0.263 1.106 255 255 255
0.392 0.465 0.958 255 255 255
0.281 -0.135 1.193 255 255 255
0.699 0.226 1.158 255 255 255
0.421 -0.114 1.227 255 255 255
0.057 0.154 0.387 255 255 255
-0.194 0.402 0.817 255 255 255
0.061 -0.004 1.066 255 255 255
-0.162 -0.263 0.535 255 255 255
0.307 0.363 0.98 255 255 255
-0.582 -0.096 0.921 255 255 255
-0.079 -0.289 0.413 255 255 255
0.362 0.466 0.951 255 255 255
-0.284 -0.159 0.955 255 255 255
-0.18 0.072 0.349 0 0 0
0.111 -0.22 0.327 255 255 255
0.293 0.081 1.099 255 255 255
-0.413 -0.089 0.963 255 255 255
0.057 -0.192 0.374 255 255 255
-0.16 -0.211 0.619 255 255 255
-0.146 -0.304 0.461 255 255 255
0.049 -0.204 0.365 255 255 255
-0.425 -0.06 0.95 255 255 255
0.412 -0.274 1.217 255 255 255
0.394 -0.004 1.166 255 255 255
-0.576 -0.235 0.975 255 255 255
0.192 -0.045 1.127 0 0 0
0.137 -0.147 0.348 255 255 255
-0.631 -0.287 0.962 0 0 0
-0.005 0.059 0.449 255 255 255
-0.116 0.024 1.003 255 255 255
0.109 -0.139 0.401 255 255 255
0.027 0.019 1.045 255 255 255
0.464 0.235 1.077 255 255 255
-0.605 -0.217 0.927 255 255 255
-0.098 -0.008 1.02 255 255 255
-0.301 -0.08 0.984 0 0 0
0.023 -0.47 1.266 255 255 255
0.034 0.173 0.338 255 255 255
-0.207 -0.326 1.064 255 255 255
-0.19 -0.093 1.034 0 0 0
0.069 -0.174 0.386 255 255 255
-0.007 0.087 0.399 0 0 0
-0.137 0.077 0.365 255 255 255
0.12 -0.15 0.361 255 255 255
0.098 -0.057 1.101 255 255 255
-0.013 -0.07 1.074 255 255 255
-0.46 -0.029 0.924 255 255 255
0.018 -0.237 0.359 255 255 255
0.178 -0.329 1.248 255 255 255
0.286 0.242 1.023 0 0 0
-0.02 -0.493 1.144 255 255 255
-0.063 0.128 0.38 255 255 255
-0.437 -0.534 0.998 255 255 255
0.066 -0.194 0.309 255 255 255
0.063 -0.181 0.379 255 255 255
-0.133 0.057 0.399 255 255 255
-0.485 -0.009 0.909 255 255 255
0.249 -0.052 0.356 255 255 255
-0.22 0.335 0.844 255 255 255
-0.074 0.083 0.408 255 255 255
0.112 -0.012 1.083 255 255 255
0.194 -0.071 0.378 255 255 255
-0.071 0.12 0.394 255 255 255
0.6 -0.15 1.155 0 0 0
-0.425 -0.527 0.93 255 255 255
-0.135 0.092 0.354 255 255 255
0.004 0.13 0.359 255 255 255
0.145 0.048 1.07 255 255 255
0.355 0.315 1.012 0 0 0
0.593 -0.137 1.206 255 255 255
-0.064 0.157 0.372 255 255 255
-0.221 -0.301 1.056 255 255 255
0.364 0.149 1.087 255 255 255
-0.023 0.177 0.338 255 255 255
-0.132 -0.325 0.418 255 255 255
0.304 0.428 0.949 0 0 0
-0.127 0.073 0.385 0 0 0
-0.17 0.021 0.418 255 255 255
-0.62 -0.335 0.937 255 255 255
-0.592 -0.993 1.309 0 0 0
-0.13 0.075 0.375 0 0 0
0.009 0.078 0.429 255 255 255
-0.117 -0.296 0.507 255 255 255
0.129 -0.147 0.357 255 255 255
-0.071 0.18 0.381 0 0 0
-0.481 0.06 0.879 255 255 255
0.115 -0.149 0.367 255 255 255
0.315 0.127 1.082 255 255 255
0.454 0.082 1.144 255 255 255
-0.653 -0.209 0.91 255 255 255
-0.425 -0.118 0.964 255 255 255
0.044 -0.551 1.231 255 255 255
0.553 0.016 1.209 255 255 255
0.12 -0.291 1.206 255 255 255
0.186 -0.088 0.376 255 255 255
0.533 -0.166 1.228 255 255 255
-0.165 0.028 0.411 255 255 255
-0.135 -0.314 0.432 0 0 0
-0.38 -0.072 0.968 255 255 255
0.296 -0.154 1.202 255 255 255
0.135 -0.143 0.311 255 255 255
0.141 -0.12 0.417 255 255 255
0.135 -0.289 1.208 255 255 255
0.136 0.045 1.067 0 0 0
-0.335 -0.266 0.857 255 255 255
0.013 0.139 0.356 255 255 255
0.198 -0.1 0.351 255 255 255
-0.145 0.11 0.327 255 255 255
0.133 -0.37 1.248 0 0 0
-0.071 0.103 0.395 0 0 0
-0.129 0.152 0.315 255 255 255
-0.306 -0.128 0.977 255 255 255
-0.014 0.119 0.368 255 255 255
0.421 0.43 0.983 0 0 0
-0.003 0.164 0.337 255 255 255
-0.669 -0.121 0.896 255 255 255
-0.018 -0.186 1.123 255 255 255
0.576 0.13 1.16 255 255 255
0.179 -0.345 1.251 255 255 255
0.017 -0.029 1.064 255 255 255
0.239 -0.039 0.38 255 255 255
0.173 0.19 1.017 255 255 255
0.502 0.283 1.067 255 255 255
-0.68 -0.16 0.884 255 255 255
0.663 0.197 1.155 255 255 255
-0.162 0.107 0.32 255 255 255
-0.504 -0.202 0.98 255 255 255
-0.626 -0.266 0.985 255 255 255
0.439 -0.162 1.245 255 255 255
-0.134 0.125 0.323 255 255 255
-0.63 -0.225 0.923 255 255 255
0.592 -0.005 1.229 255 255 255
-0.082 -0.433 0.991 255 255 255
0.48 0.363 1.03 255 255 255
-0.203 -0.065 1.014 255 255 255
0.214 0.171 1.034 255 255 255
0.457 0.223 1.08 255 255 255
-0.107 -0.294 1.14 255 255 255
0.105 -0.177 0.31 255 255 255
0.202 -0.456 1.189 0 0 0
-0.108 0.188 0.344 255 255 255
-0.607 -0.036 0.89 255 255 255
-0.609 -0.169 0.936 255 255 255
0.383 0.148 1.092 255 255 255
-0.602 0.02 0.864 255 255 255
-0.08 0.13 0.4 0 0 0
0.144 -0.149 0.307 255 255 255
0.179 -0.086 0.395 0 0 0
0.348 0.246 1.039 255 255 255
-0.099 -0.388 1.104 255 255 255
0.16 -0.134 0.337 255 255 255
0.151 0.299 0.963 255 255 255
0.477 0.064 1.161 255 255 255
-0.145 -0.352 0.937 255 255 255
-0.595 -0.228 0.967 255 255 255
-0.022 0.09 0.392 255 255 255
0.148 -0.071 1.121 255 255 255
0.672 0.159 1.18 255 255 255
0.412 0.013 1.166 255 255 255
0.112 -0.151 0.369 255 255 255
-0.368 -0.031 0.954 255 255 255
0.053 -0.308 1.196 255 255 255
-0.517 -0.154 0.952 255 255 255
-0.436 -0.183 0.987 255 255 255
-0.4 -0.175 0.991 255 255 255
-0.12 0.109 0.364 255 255 255
0.393 -0.305 1.204 0 0 0
0.539 0.219 1.109 255 255 255
-0.12 -0.314 1.148 255 255 255
0.074 -0.203 0.31 255 255 255
0.484 0.035 1.18 255 255 255
0.428 -0.19 1.257 0 0 0
0.056 0.052 1.04 255 255 255
0.221 -0.424 1.22 255 255 255
0.18 -0.426 1.262 255 255 255
-0.018 -0.113 1.092 255 255 255
0.166 -0.1 0.412 255 255 255
-0.187 0.019 0.408 255 255 255
0.403 0.472 0.96 255 255 255
-0.37 -0.474 0.986 255 255 255
-0.047 -0.054 1.058 255 255 255
-0.077 -0.298 0.397 0 0 0
0.169 -0.128 0.306 255 255 255
0.187 0.216 1.007 255 255 255
0.207 -0.079 0.366 255 255 255
-0.355 -0.035 0.959 255 255 255
-0.415 -0.226 1.006 0 0 0
-0.25 -0.217 0.995 255 255 255
0.366 -0.121 1.213 255 255 255
0.83 0.047 1.197 255 255 255
0.186 -0.104 0.316 255 255 255
0.224 -0.074 0.314 255 255 255
0.49 -0.071 1.228 255 255 255
0.174 -0.035 1.115 0 0 0
0.085 -0.182 0.357 255 255 255
0.146 -0.133 0.36 255 255 255
0.133 -0.028 1.097 0 0 0
-0.468 -0.029 0.922 255 255 255
-0.114 0.113 0.385 255 255 255
0.077 -0.014 1.075 255 255 255
0.148 -0.138 0.351 255 255 255
0.002 -0.21 1.138 255 255 255
0.241 0.216 1.022 255 255 255
-0.491 -0.048 0.925 255 255 255
-0.143 -0.547 1.022 255 255 255
0.146 0.2 1.003 255 255 255
-0.123 0.086 0.378 255 255 255
0.245 -0.055 0.358 255 255 255
0.19 0.005 1.103 255 255 255
0.373 -0.06 1.188 255 255 255
-0.519 -0.021 0.902 255 255 255
0.401 0.186 1.082 255 255 255
-0.191 -0.291 1.092 255 255 255
-0.419 -0.003 0.924 255 255 255
0.167 -0.114 0.361 255 255 255
-0.334 0.004 0.945 255 255 255
0.595 -0.074 1.259 0 0 0
0.171 0.104 1.053 255 255 255
0.259 0.065 1.094 255 255 255
-0.065 -0.125 1.084 255 255 255
-0.013 0.063 0.423 255 255 255
0.182 0.306 0.968 255 255 255
0.503 -0.223 1.185 0 0 0
-0.023 0.132 0.361 255 255 255
-0.12 -0.302 0.454 255 255 255
0.791 0.017 1.192 255 255 255
0.48 -0.204 1.235 255 255 255
0.189 0.419 0.92 0 0 0
-0.198 -0.451 0.967 255 255 255
0.631 0.197 1.146 255 255 255
0.007 -0.497 1.093 255 255 255
-0.179 0.023 0.407 255 255 255
0.199 -0.083 0.369 255 255 255
0.462 0.385 1.012 255 255 255
-0.034 0.171 0.346 255 255 255
0.112 -0.137 0.395 255 255 255
0.446 -0.199 1.261 255 255 255
0.401 0.208 1.073 255 255 255
-0.114 0.149 0.343 255 255 255
-0.04 0.186 0.347 255 255 255
0.542 0.239 1.101 255 255 255
-0.544 -0.984 1.315 255 255 255
-0.17 -0.177 1.074 0 0 0
0.04 -0.217 0.358 255 255 255
-0.283 -0.05 0.983 255 255 255
-0.385 -0.141 0.991 255 255 255
0.143 0.047 1.069 255 255 255
-0.064 0.097 0.393 255 255 255
-0.061 0.037 1.011 0 0 0
-0.435 -0.329 0.989 255 255 255
0.114 -0.059 1.106 255 255 255
0.416 -0.293 1.17 0 0 0
-0.477 -0.07 0.939 0 0 0
0.116 -0.499 1.236 255 255 255
-0.181 0.067 0.353 0 0 0
-0.002 0.074 0.419 255 255 255
0 -0.38 1.214 255 255 255
0.474 -0.159 1.255 0 0 0
0.149 -0.111 0.406 255 255 255
-0.001 0.117 0.372 0 0 0
-0.034 -0.514 1.24 255 255 255
0.106 -0.165 0.309 255 255 255
0.228 0.062 1.087 255 255 255
-0.241 -0.084 1.015 255 255 255
0.137 0.271 0.971 255 255 255
0.043 -0.198 0.439 255 255 255
-0.072 0 1.028 255 255 255
0.336 0.477 0.939 255 255 255
0.232 0.458 0.915 255 255 255
-0.042 -0.259 1.145 0 0 0
-0.199 -0.62 1.048 255 255 255
0.135 -0.213 0.329 255 255 255
-0.13 -0.268 0.533 255 255 255
-0.092 -0.221 1.109 0 0 0
-0.138 0.117 0.329 255 255 255
-0.061 0.039 0.42 255 255 255
0.24 0.244 1.012 255 255 255
0.188 0.268 0.986 255 255 255
-0.056 0.154 0.365 255 255 255
0.325 -0.191 1.231 255 255 255
0.143 -0.132 0.367 255 255 255
0.683 -0.05 1.222 255 255 255
0.202 0.357 0.951 255 255 255
-0.575 -0.044 0.901 255 255 255
-0.627 -0.302 0.947 255 255 255
-0.117 0.135 0.343 255 255 255
0.007 0.077 0.425 255 255 255
0.089 0.007 1.07 255 255 255
0.198 -0.099 0.351 255 255 255
-0.195 0.023 0.403 255 255 255
-0.265 0.01 0.962 255 255 255
0.139 -0.19 0.321 255 255 255
0.153 0.254 0.983 255 255 255
0.04 0.135 0.383 255 255 255
0.144 -0.119 0.382 255 255 255
0.497 0.149 1.126 255 255 255
0.384 0.191 1.075 255 255 255
0.27 0.037 1.112 255 255 255
0.114 -0.22 0.327 255 255 255
0.33 0.402 0.969 255 255 255
0.242 -0.069 0.337 255 255 255
-0.498 -0.156 0.958 255 255 255
-0.204 -0.174 1.022 255 255 255
0.138 -0.142 0.321 255 255 255
0.169 -0.074 1.129 255 255 255
-0.346 -0.432 0.962 255 255 255
-0.081 -0.282 0.425 255 255 255
-0.127 0.124 0.331 255 255 255
-0.112 0.154 0.346 0 0 0
0.179 -0.094 0.374 255 255 255
0.012 0.12 0.375 0 0 0
-0.008 -0.261 0.346 0 0 0
0.296 0.437 0.943 0 0 0
0.358 0.061 1.126 255 255 255
0.487 -0.122 1.246 255 255 255
0.133 -0.121 0.393 255 255 255
-0.117 -0.458 0.992 255 255 255
0.726 -0.039 1.196 255 255 255
0.432 0.093 1.133 255 255 255
-0.119 -0.184 1.093 255 255 255
-0.442 -0.076 0.952 255 255 255
-0.12 0.079 0.406 255 255 255
-0.147 -0.253 1.095 255 255 255
-0.099 -0.117 1.071 255 255 255
-0.053 0.173 0.359 255 255 255
0.038 -0.274 1.181 0 0 0
0.568 0.205 1.124 255 255 255
-0.652 -0.156 0.896 255 255 255
0.427 -0.232 1.252 255 255 255
-0.159 0.066 0.359 255 255 255
-0.013 0.094 0.388 0 0 0
-0.478 -0.135 0.955 255 255 255
-0.643 -0.277 0.983 255 255 255
0.103 0.098 1.035 255 255 255
-0.274 0.028 0.952 255 255 255
-0.164 0.085 0.338 0 0 0
0.219 -0.087 0.332 255 255 255
0.309 0.057 1.114 255 255 255
0.255 0.036 1.109 255 255 255
-0.108 -0.312 0.454 255 255 255
-0.031 0.055 0.429 255 255 255
-0.243 0.132 0.92 255 255 255
0.374 -0.189 1.246 0 0 0
0.288 -0.364 1.227 255 255 255
-0.498 -0.241 0.997 255 255 255
-0.115 0.108 0.388 255 255 255
-0.55 -0.193 0.962 255 255 255
0.157 0.144 1.03 255 255 255
0.142 -0.117 0.41 255 255 255
-0.642 -0.231 0.924 0 0 0
-0.112 0.144 0.36 255 255 255
-0.23 0.18 0.901 255 255 255
0.22 -0.085 0.346 255 255 255
0.553 -0.049 1.234 255 255 255
-0.032 -0.624 1.214 255 255 255
-0.618 -0.168 0.921 0 0 0
-0.259 -0.114 1.023 255 255 255
-0.122 0.137 0.33 255 255 255
0.7 -0.039 1.218 255 255 255
0.064 -0.476 1.282 255 255 255
-0.017 0.048 0.447 255 255 255
0 -0.215 1.139 255 255 255
0.411 -0.14 1.236 255 255 255
-0.527 -0.031 0.908 255 255 255
-0.456 -0.094 0.942 255 255 255
0.016 0.158 0.342 0 0 0
0.314 0.014 1.135 255 255 255
-0.035 0.041 1.022 255 255 255
-0.096 -0.394 1.101 255 255 255
-0.304 -0.264 0.85 255 255 255
-0.092 -0.473 1.021 255 255 255
0.264 -0.021 0.379 255 255 255
-0.6 -0.176 0.942 255 255 255
0.036 -0.21 0.37 255 255 255
-0.086 -0.229 1.082 255 255 255
0.054 -0.418 1.254 255 255 255
0.323 0.315 1.006 255 255 255
0.001 0.114 0.372 0 0 0
-0.268 -0.144 0.992 0 0 0
-0.517 0.01 0.887 255 255 255
-0.119 -0.336 1.157 255 255 255
-0.434 -0.105 0.958 0 0 0
-0.163 0.091 0.962 255 255 255
-0.27 -0.149 0.974 0 0 0
0.236 -0.055 0.362 255 255 255
-0.197 -0.247 1.095 255 255 255
-0.323 -0.046 0.972 255 255 255
-0.24 0.099 0.934 255 255 255
0.368 0.452 0.955 0 0 0
-0.122 0.16 0.311 255 255 255
-0.216 -0.176 1.018 255 255 255
0.405 0.324 1.024 255 255 255
0.314 -0.195 1.229 255 255 255
0.656 -0.05 1.244 255 255 255
0.463 0.27 1.062 255 255 255
0.028 0.115 0.399 255 255 255
-0.411 -0.155 0.982 255 255 255
0.029 0.107 0.411 255 255 255
0.183 -0.113 0.351 255 255 255
0.002 0.138 0.354 255 255 255
0.031 0.04 1.038 255 255 255
-0.04 0.039 0.454 0 0 0
0.244 -0.061 0.35 255 255 255
0.377 -0.154 1.231 255 255 255
0.011 0.084 0.417 255 255 255
0.409 0.008 1.166 255 255 255
-0.587 -0.202 0.948 255 255 255
0.293 0.354 0.979 255 255 255
-0.165 0.049 0.375 0 0 0
0.135 0.252 0.977 255 255 255
-0.36 -0.083 0.977 0 0 0
-0.167 -0.072 1.028 255 255 255
-0.037 0.085 0.398 255 255 255
-0.023 -0.261 0.362 255 255 255
0.382 -0.248 1.266 255 255 255
0.737 0.003 1.231 255 255 255
0.085 -0.156 0.401 255 255 255
0.07 -0.29 1.196 255 255 255
0.623 -0.002 1.241 255 255 255
0.049 0.09 1.023 0 0 0
-0.175 0.056 0.364 255 255 255
0.082 -0.544 1.207 255 255 255
0.679 0.059 1.227 255 255 255
-0.147 0.076 0.361 255 255 255
0.088 -0.159 0.384 255 255 255
-0.002 0.064 0.443 255 255 255
0.342 0.321 1.006 255 255 255
0.235 0.178 1.039 255 255 255
-0.062 -0.158 1.1 255 255 255
-0.011 0.092 0.391 0 0 0
-0.05 -0.422 1.21 255 255 255
-0.065 -0.039 1.045 255 255 255
0.754 -0.01 1.199 255 255 255
-0.056 0.156 0.363 255 255 255
0.141 -0.464 1.254 255 255 255
0.092 -0.184 0.343 255 255 255
-0.12 -0.372 1.03 255 255 255
0.104 -0.142 0.395 255 255 255
-0.03 -0.255 0.379 255 255 255
0.243 -0.045 0.371 255 255 255
0.261 -0.038 0.441 255 255 255
0.479 0.161 1.115 255 255 255
0.234 -0.398 1.24 255 255 255
0.432 0.178 1.093 255 255 255
-0.018 0.091 0.391 0 0 0
-0.136 0.119 0.331 0 0 0
-0.02 -0.458 1.162 255 255 255
0.538 -0.134 1.25 255 255 255
0.409 0.36 1.009 0 0 0
-0.628 -0.156 0.925 255 255 255
-0.508 -0.14 0.947 255 255 255
-0.032 -0.365 1.198 255 255 255
0.084 -0.389 1.239 0 0 0
-0.023 0.025 1.03 255 255 255
0.448 -0.099 1.227 255 255 255
0.164 -0.24 1.174 255 255 255
0.35 -0.337 1.204 0 0 0
-0.017 0.178 0.334 255 255 255
-0.294 -0.005 0.962 255 255 255
0.139 -0.134 0.368 255 255 255
-0.031 0.106 0.38 255 255 255
-0.065 0.113 0.387 255 255 255
-0.549 -0.291 0.926 255 255 255
0.127 -0.129 0.413 255 255 255
-0.232 -0.036 0.995 255 255 255
-0.135 -0.356 1.03 255 255 255
-0.142 -0.141 1.066 0 0 0
-0.452 -0.457 0.948 255 255 255
-0.421 -0.198 0.995 255 255 255
-0.252 -0.019 0.983 255 255 255
-0.007 0.093 0.392 0 0 0
-0.17 0.06 0.359 255 255 255
-0.029 0.117 0.37 0 0 0
0.162 -0.006 1.097 255 255 255
-0.142 0.046 0.398 255 255 255
0.232 -0.153 1.183 255 255 255
-0.007 -0.488 1.103 255 255 255
0.106 -0.161 1.149 255 255 255
-0.067 0.19 0.373 255 255 255
0.058 0.021 1.054 255 255 255
0.101 -0.066 1.105 255 255 255
-0.047 -0.094 1.074 255 255 255
-0.184 0.032 0.39 255 255 255
0.121 -0.381 1.256 0 0 0
-0.05 -0.381 1.199 255 255 255
-0.546 0.058 0.858 255 255 255
-0.11 0.062 1 255 255 255
-0.213 0.248 0.884 255 255 255
-0.109 0.163 0.354 0 0 0
-0.026 -0.247 0.387 255 255 255
-0.484 -0.093 0.942 255 255 255
-0.605 -0.207 0.921 255 255 255
-0.234 0.152 0.913 255 255 255
0.429 0.352 1.018 255 255 255
-0.633 -0.318 0.936 255 255 255
0.153 0.308 0.959 255 255 255
-0.036 0.122 0.369 255 255 255
-0.245 0.073 0.402 255 255 255
0.172 0.128 1.041 255 255 255
-0.25 0.047 0.952 255 255 255
0.367 0.236 1.049 255 255 255
-0.464 -0.011 0.914 255 255 255
0.032 0.125 0.385 255 255 255
-0.36 -0.268 1 255 255 255
-0.054 0.106 0.387 255 255 255
0.047 0.036 1.044 255 255 255
0.611 0.174 1.151 255 255 255
0.238 -0.295 1.236 255 255 255
0.147 0.296 0.962 255 255 255
0.04 -0.036 1.074 255 255 255
-0.266 -0.034 0.983 255 255 255
0.025 0.029 1.04 255 255 255
0.031 -0.21 0.374 255 255 255
0.379 0.073 1.127 255 255 255
0.008 -0.002 1.049 255 255 255
-0.027 -0.513 1.151 255 255 255
-0.21 -0.147 1.013 255 255 255
-0.3 -0.107 0.986 0 0 0
-0.052 0.132 0.373 255 255 255
0.177 -0.047 1.121 255 255 255
0.086 -0.079 1.105 255 255 255
0.47 0.042 1.172 255 255 255
0.034 -0.078 1.091 255 255 255
-0.186 0.392 0.827 255 255 255
0.094 0.047 1.054 255 255 255
-0.132 -0.275 0.509 255 255 255
0.263 0.23 1.023 255 255 255
0.056 -0.146 1.129 255 255 255
0.058 0.151 1 255 255 255
0.119 -0.155 0.315 255 255 255
0.074 -0.474 1.284 255 255 255
-0.576 -0.056 0.906 255 255 255
0.22 0.125 1.057 255 255 255
0.121 -0.139 0.378 255 255 255
0.123 -0.013 1.087 255 255 255
-0.052 -0.276 1.119 0 0 0
0.04 -0.221 0.315 255 255 255
-0.346 -0.229 1.013 255 255 255
0.188 -0.105 0.324 255 255 255
-0.146 -0.116 1.055 255 255 255
-0.185 0.049 0.372 0 0 0
0.233 -0.049 0.377 255 255 255
-0.045 -0.18 1.11 255 255 255
-0.437 -0.109 0.955 0 0 0
-0.52 0.043 0.875 255 255 255
0.195 -0.087 0.367 255 255 255
-0.469 -0.039 0.929 255 255 255
0.099 0.16 1.007 255 255 255
0.252 -0.141 1.187 255 255 255
-0.291 -0.166 0.936 255 255 255
0.308 -0.023 1.148 255 255 255
0.077 -0.162 0.398 255 255 255
0.213 0.446 0.917 255 255 255
0.092 -0.153 0.39 255 255 255
0.007 -0.412 1.23 255 255 255
0.095 -0.121 1.13 255 255 255
-0.539 0.073 0.857 255 255 255
-0.562 -0.146 0.943 255 255 255
-0.26 0.022 0.96 255 255 255
-0.227 0.238 0.887 255 255 255
-0.219 0.037 0.965 255 255 255
0.454 0.188 1.095 255 255 255
-0.095 -0.297 0.417 255 255 255
-0.325 -0.1 0.991 0 0 0
0.309 0.158 1.067 255 255 255
-0.099 0.021 1.008 0 0 0
-0.013 0.091 0.392 0 0 0
0.302 -0.02 1.146 255 255 255
0.155 -0.104 0.397 255 255 255
-0.623 -0.284 0.994 0 0 0
-0.228 0.02 0.969 255 255 255
0.01 0.06 1.025 255 255 255
-0.026 -0.246 0.388 255 255 255
-0.364 -0.023 0.951 255 255 255
-0.658 -0.175 0.894 255 255 255
-0.04 -0.397 1.207 255 255 255
-0.594 -0.314 0.972 255 255 255
-0.157 -0.312 1.123 255 255 255
-0.005 0.129 0.361 255 255 255
0.728 0.173 1.192 255 255 255
0.121 -0.225 1.178 255 255 255
0.004 0.127 0.36 255 255 255
0.032 -0.075 1.09 255 255 255
0.257 -0.038 0.371 255 255 255
0.16 -0.131 0.332 255 255 255
-0.143 -0.038 1.018 255 255 255
-0.344 -0.122 0.998 255 255 255
-0.144 0.06 0.376 255 255 255
-0.159 0.092 0.334 0 0 0
0.225 0.153 1.045 255 255 255
0.018 -0.23 0.364 255 255 255
0.209 -0.069 0.38 255 255 255
0.433 -0.022 1.189 255 255 255
-0.161 -0.293 0.492 255 255 255
0.028 0.111 0.405 255 255 255
-0.137 0.087 0.358 255 255 255
0.156 -0.125 0.36 255 255 255
-0.367 -0.139 0.999 255 255 255
0.139 -0.121 0.42 255 255 255
0.184 -0.435 1.248 255 255 255
-0.243 -0.306 1.056 255 255 255
-0.41 -0.045 0.948 255 255 255
0.114 -0.52 1.209 0 0 0
0.055 -0.187 0.381 255 255 255
0.055 0.166 0.361 0 0 0
-0.352 -0.035 0.959 255 255 255
-0.42 0.026 0.942 255 255 255
-0.06 -0.286 0.389 0 0 0
-0.045 0.041 1.016 255 255 255
-0.363 -0.05 0.963 255 255 255
-0.513 0.049 0.875 255 255 255
0.351 -0.152 1.223 255 255 255
-0.049 0.068 0.408 255 255 255
0.125 -0.15 0.313 255 255 255
-0.177 -0.229 0.6 255 255 255
-0.002 0.112 0.377 0 0 0
0.184 -0.104 0.305 255 255 255
0.588 0.21 1.129 255 255 255
0.025 -0.225 0.363 255 255 255
-0.023 -0.447 1.191 255 255 255
-0.226 -0.212 1.031 255 255 255
0.38 -0.083 1.201 255 255 255
-0.154 0.056 0.373 255 255 255
0.09 0.181 0.996 255 255 255
0.59 0.146 1.158 255 255 255
-0.215 0.356 0.833 255 255 255
0.254 -0.198 1.203 255 255 255
0.01 -0.235 0.313 0 0 0
0.017 -0.082 1.088 255 255 255
0.143 0.223 0.994 255 255 255
-0.645 -0.86 1.234 255 255 255
0.164 -0.281 1.205 255 255 255
0.074 0.011 1.062 255 255 255
-0.174 -0.051 1.018 0 0 0
0.17 -0.429 1.265 255 255 255
0.217 -0.063 0.375 255 255 255
0.131 0.142 1.021 0 0 0
0.187 -0.34 1.25 255 255 255
0.23 0.387 0.946 255 255 255
-0.138 -0.257 1.091 255 255 255
0.199 0.437 0.914 255 255 255
0.109 -0.329 1.224 255 255 255
0.095 -0.359 1.229 255 255 255
-0.534 0.104 0.843 255 255 255
0.014 0.103 0.398 255 255 255
0.254 -0.23 1.175 0 0 0
0.021 0 1.052 255 255 255
-0.133 0.048 0.989 255 255 255
0.181 0.197 1.016 255 255 255
-0.464 -0.319 1.001 255 255 255
-0.132 -0.263 0.525 255 255 255
0.1 -0.255 1.183 0 0 0
0.642 0.071 1.21 255 255 255
0.159 -0.11 0.378 255 255 255
0.241 -0.095 1.158 0 0 0
-0.08 -0.209 1.105 0 0 0
0.687 0.127 1.198 255 255 255
0.069 -0.172 0.413 255 255 255
-0.561 -0.305 0.899 255 255 255
-0.02 0.104 0.382 255 255 255
0.31 0.504 0.916 255 255 255
-0.259 0.039 0.954 255 255 255
-0.071 0.176 0.38 0 0 0
-0.011 0.071 0.415 255 255 255
0.734 0.169 1.196 255 255 255
-0.146 0.1 0.337 0 0 0
-0.377 -0.391 1.009 255 255 255
0.629 0.263 1.117 255 255 255
0.436 0.302 1.039 255 255 255
-0.245 -0.078 1.012 255 255 255
0.211 -0.081 0.359 255 255 255
0.048 -0.318 1.195 255 255 255
0.152 0.33 0.967 255 255 255
0.113 -0.16 0.354 255 255 255
0.274 -0.082 1.166 255 255 255
-0.554 -0.058 0.911 255 255 255
-0.102 -0.26 1.061 255 255 255
0.151 0.238 0.989 255 255 255
-0.008 -0.455 1.191 255 255 255
-0.171 0.012 0.992 255 255 255
0.149 -0.201 0.328 255 255 255
-0.169 0.042 0.383 0 0 0
0.378 0.077 1.124 255 255 255
0.131 -0.064 1.112 255 255 255
0.204 -0.092 0.319 255 255 255
-0.47 -0.317 0.992 255 255 255
0.067 -0.127 1.124 255 255 255
0.33 0.427 0.957 0 0 0
0.21 0.076 1.076 255 255 255
0.332 -0.004 1.147 255 255 255
-0.145 0.07 0.364 0 0 0
-0.244 -0.251 1.036 255 255 255
0.103 0.249 0.977 255 255 255
0.36 0.431 0.964 0 0 0
-0.092 -0.35 1.174 255 255 255
0.171 0.18 1.019 255 255 255
-0.322 0.01 0.946 255 255 255
0.104 -0.32 1.219 255 255 255
-0.027 -0.45 1.184 255 255 255
0.78 -0.007 1.165 0 0 0
-0.415 -0.142 0.976 255 255 255
-0.2 -0.022 1.004 255 255 255
0.492 0.317 1.05 255 255 255
-0.152 -0.716 1.224 255 255 255
0.609 0.169 1.153 255 255 255
0.401 0.275 1.042 255 255 255
0.344 -0.331 1.214 255 255 255
-0.109 -0.196 1.099 0 0 0
-0.374 -0.52 0.97 255 255 255
0.284 0.467 0.928 255 255 255
0.408 -0.298 1.185 0 0 0
-0.526 -0.254 0.985 255 255 255
-0.247 -0.056 0.997 255 255 255
-0.064 -0.466 1.163 255 255 255
0.187 0.094 1.06 255 255 255
0.731 0.106 1.223 255 255 255
0.057 -0.253 1.173 0 0 0
0.189 -0.322 1.252 255 255 255
-0.126 0.069 0.393 255 255 255
-0.005 -0.23 0.434 255 255 255
-0.127 0.092 0.36 255 255 255
0.365 0.391 0.982 255 255 255
0.631 0.053 1.213 255 255 255
-0.601 -0.125 0.924 255 255 255
0.028 0.102 0.421 255 255 255
-0.671 -0.24 0.915 255 255 255
0.487 0.244 1.081 255 255 255
0.008 0.11 0.382 255 255 255
-0.128 0.124 0.332 255 255 255
0.15 0.357 0.988 255 255 255
-0.17 0.092 0.333 255 255 255
-0.314 0.026 0.942 255 255 255
-0.295 -0.109 0.99 0 0 0
-0.19 -0.07 1.023 255 255 255
-0.114 -0.17 1.087 255 255 255
0.588 0.008 1.219 255 255 255
0.142 -0.116 0.383 255 255 255
0.135 0.06 1.06 255 255 255
-0.235 -0.185 1.034 255 255 255
0.569 0.135 1.158 255 255 255
0.004 -0.113 1.098 255 255 255
-0.159 -0.335 0.929 255 255 255
-0.276 -0.135 1.005 255 255 255
