ply
format ascii 1.0
comment Created by Open3D
element vertex 1596
property double x
property double y
property double z
property uchar red
property uchar green
property uchar blue
end_header
-0.391 -0.169 0.953 255 255 255
-0.057 0.197 0.973 255 255 255
-0.017 0 1.075 255 255 255
-0.124 0.187 0.364 255 255 255
0 0.032 1.067 255 255 255
-0.127 -0.04 1.059 255 255 255
-0.434 0.1 0.891 255 255 255
-0.182 0.109 0.352 255 255 255
-0.324 -0.047 0.996 0 0 0
0.166 0.314 0.99 255 255 255
0.038 -0.148 0.373 255 255 255
0.193 -0.075 0.315 255 255 255
0.297 0.079 1.142 255 255 255
-0.056 -0.217 1.163 0 0 0
0.386 0.329 1.053 255 255 255
-0.344 0.148 0.9 255 255 255
-0.657 -0.097 0.896 255 255 255
0.071 -0.011 1.112 255 255 255
0.578 -0.046 1.29 255 255 255
-0.412 0.004 0.939 255 255 255
-0.364 -0.173 0.987 0 0 0
-0.137 0.127 0.384 0 0 0
0.063 0.328 0.95 255 255 255
-0.601 -0.384 0.959 255 255 255
-0.246 -0.421 0.961 255 255 255
0.49 -0.141 1.254 0 0 0
-0.079 0.142 0.351 255 255 255
-0.549 -0.038 0.915 255 255 255
0.227 -0.025 0.415 255 255 255
0.079 -0.136 0.347 255 255 255
0.4 0.134 1.15 255 255 255
0.048 -0.156 0.351 255 255 255
-0.165 0.144 0.366 255 255 255
0.067 0.037 1.087 255 255 255
0.2 -0.062 0.35 255 255 255
-0.255 -0.27 0.457 255 255 255
0.272 -0.003 0.389 255 255 255
0.169 -0.078 0.319 255 255 255
0.022 -0.155 0.374 255 255 255
-0.202 -0.291 0.446 255 255 255
0.05 -0.198 0.323 255 255 255
0.14 0.492 0.903 255 255 255
-0.573 -0.246 0.954 255 255 255
-0.47 -0.084 0.966 255 255 255
-0.223 -0.287 0.455 255 255 255
-0.036 -0.207 0.3 255 255 255
0.245 -0.196 1.259 0 0 0
0.009 -0.184 0.339 255 255 255
0.149 -0.081 0.374 255 255 255
0.186 -0.051 0.382 255 255 255
-0.179 0.098 0.409 255 255 255
0.453 0.373 1.054 255 255 255
0.196 0.33 0.994 255 255 255
-0.04 0.145 1.003 255 255 255
-0.142 0.131 0.387 255 255 255
-0.107 0.097 1.003 255 255 255
-0.346 -0.426 0.948 255 255 255
0.199 -0.036 0.409 255 255 255
-0.642 -0.169 0.936 255 255 255
0.535 0.358 1.089 255 255 255
0.092 -0.2 0.34 255 255 255
-0.389 0.087 0.907 0 0 0
0.539 0.118 1.205 255 255 255
-0.034 0.162 0.994 255 255 255
-0.08 -0.393 1.245 0 0 0
0.141 -0.099 0.341 255 255 255
-0.3 0.432 0.782 255 255 255
-0.309 0.364 0.833 0 0 0
-0.433 0.038 0.916 255 255 255
-0.057 -0.222 0.331 255 255 255
-0.051 -0.002 1.065 255 255 255
0.477 0.225 1.135 255 255 255
-0.179 -0.301 1.151 0 0 0
-0.036 0.174 0.329 255 255 255
0.388 0.417 1.015 255 255 255
0.109 -0.164 0.328 255 255 255
0.215 -0.172 1.239 255 255 255
0.416 0.11 1.168 255 255 255
0.681 -0.019 1.272 0 0 0
-0.101 0 1.048 255 255 255
0.083 -0.229 0.35 255 255 255
-0.322 -0.381 0.926 255 255 255
0.137 -0.029 1.144 255 255 255
-0.012 0.127 1.019 255 255 255
0.183 -0.034 1.16 255 255 255
0.15 -0.219 1.239 255 255 255
-0.268 -0.108 1.043 255 255 255
0.267 0.398 0.984 255 255 255
-0.038 0.148 0.352 255 255 255
-0.054 0.167 0.987 255 255 255
-0.423 0.064 0.907 255 255 255
-0.082 0.09 0.394 0 0 0
0.183 0.028 1.132 255 255 255
0.244 -0.038 0.385 255 255 255
-0.451 0.024 0.919 255 255 255
0.449 0.35 1.062 255 255 255
-0.048 0.066 1.036 255 255 255
0.117 -0.112 0.316 255 255 255
0.195 -0.061 0.324 255 255 255
-0.237 0.002 1.001 255 255 255
-0.055 -0.202 0.374 255 255 255
-0.04 -0.183 0.415 255 255 255
-0.119 0.196 0.361 255 255 255
0.161 -0.134 0.332 255 255 255
-0.372 -0.363 0.962 255 255 255
-0.173 0.117 0.366 255 255 255
0.491 0.276 1.115 255 255 255
0.095 -0.102 0.387 255 255 255
0.106 0.232 1.009 255 255 255
0.23 0.506 0.921 255 255 255
0.143 -0.235 1.244 255 255 255
-0.354 0.008 0.959 255 255 255
-0.364 0.057 0.933 255 255 255
-0.242 -0.439 1.052 255 255 255
0.42 0.373 1.04 255 255 255
-0.081 0.066 0.429 0 0 0
0.085 -0.187 0.331 255 255 255
-0.493 0.014 0.908 255 255 255
-0.171 -0.285 0.375 255 255 255
0.219 -0.235 0.395 255 255 255
-0.169 -0.209 1.125 255 255 255
0.184 -0.05 0.386 255 255 255
-0.29 0.107 0.94 255 255 255
0.392 0.028 1.201 255 255 255
0.185 0.395 0.96 255 255 255
-0.429 -0.123 0.921 255 255 255
-0.079 0.082 0.401 255 255 255
0.089 -0.127 0.314 255 255 255
0.125 0.309 0.979 255 255 255
-0.09 0.005 1.048 255 255 255
-0.329 -0.528 1.023 255 255 255
-0.338 -0.127 0.989 255 255 255
0.483 0.189 1.154 255 255 255
-0.168 0.07 0.993 255 255 255
-0.602 0.02 0.871 255 255 255
0.69 0.24 1.202 255 255 255
-0.225 -0.291 0.44 255 255 255
0.135 -0.079 0.439 0 0 0
0.25 -0.038 0.385 255 255 255
0.192 -0.127 0.338 255 255 255
0.048 0.109 1.048 255 255 255
0.462 0.1 1.19 255 255 255
-0.022 -0.301 1.2 255 255 255
0.106 0.074 1.082 255 255 255
-0.327 -0.274 1.041 255 255 255
0.072 0.351 0.943 255 255 255
0.456 0.388 1.045 0 0 0
-0.511 -0.235 0.916 255 255 255
-0.606 -0.004 0.882 255 255 255
-0.211 -0.489 1.154 255 255 255
0.361 0.206 1.101 255 255 255
-0.099 0.091 0.391 255 255 255
-0.036 -0.207 0.349 255 255 255
-0.027 0.244 0.959 255 255 255
-0.054 0.14 0.353 255 255 255
0.689 0.023 1.307 255 255 255
0.338 0.2 1.097 255 255 255
0.19 -0.305 0.401 255 255 255
0.363 0.241 1.087 255 255 255
0.717 0.088 1.294 255 255 255
-0.293 -0.237 0.541 255 255 255
0.804 0.116 1.286 255 255 255
0.128 -0.084 0.386 255 255 255
-0.317 -0.279 1.045 255 255 255
0.147 -0.219 0.369 255 255 255
0.212 -0.05 0.323 255 255 255
0.234 0.167 1.079 255 255 255
0.207 -0.031 0.393 255 255 255
0.016 -0.174 0.344 255 255 255
-0.131 0.072 0.414 255 255 255
-0.044 -0.213 0.3 255 255 255
-0.101 -0.235 0.363 255 255 255
-0.005 -0.193 0.342 255 255 255
-0.109 0.15 0.36 255 255 255
0.171 -0.283 0.394 255 255 255
0.195 -0.276 1.285 255 255 255
0.626 0.1 1.25 255 255 255
-0.118 0.11 0.379 255 255 255
-0.046 -0.353 1.23 0 0 0
0.088 -0.169 0.325 255 255 255
-0.02 -0.171 0.415 255 255 255
0.223 -0.044 0.369 255 255 255
-0.115 -0.363 1.216 255 255 255
-0.426 -0.102 0.946 0 0 0
-0.359 -0.34 0.95 255 255 255
0.211 -0.04 0.374 255 255 255
0.102 -0.113 0.371 255 255 255
-0.168 0.136 0.381 255 255 255
0.109 -0.168 0.331 255 255 255
0.015 0.287 0.954 255 255 255
0.084 0.273 0.983 255 255 255
0.036 0.353 0.925 255 255 255
0.399 0.442 1.007 0 0 0
-0.268 -0.22 0.539 255 255 255
-0.384 -0.129 0.917 255 255 255
-0.107 -0.219 0.391 255 255 255
0.106 0.378 0.942 255 255 255
-0.434 -0.058 0.951 0 0 0
0.542 0.257 1.141 255 255 255
-0.02 0.14 0.375 0 0 0
0.269 0.006 0.4 255 255 255
-0.059 0.154 0.343 0 0 0
-0.44 0.026 0.921 255 255 255
-0.406 0.022 0.934 255 255 255
0.022 -0.158 0.368 255 255 255
0.163 -0.07 0.377 255 255 255
-0.556 -0.157 0.95 0 0 0
0.268 -0.033 0.373 255 255 255
0.198 -0.221 1.258 255 255 255
-0.593 -0.385 0.963 255 255 255
0.12 -0.108 0.361 255 255 255
-0.556 -0.194 0.963 255 255 255
0.008 -0.037 1.103 0 0 0
-0.076 -0.231 0.343 255 255 255
-0.124 -0.245 0.368 255 255 255
0.172 0.426 0.939 0 0 0
0.06 -0.149 0.355 255 255 255
-0.068 -0.226 0.301 0 0 0
-0.565 -0.417 0.963 255 255 255
0.201 -0.031 0.398 255 255 255
0.019 -0.208 0.317 255 255 255
0.071 0.191 1.016 255 255 255
0.074 0.098 1.061 255 255 255
0.011 -0.182 0.336 255 255 255
-0.041 0.096 0.428 255 255 255
-0.17 0.015 1.017 255 255 255
-0.352 0.096 0.92 255 255 255
0.188 -0.06 0.37 255 255 255
-0.05 -0.212 0.308 255 255 255
0.166 -0.084 0.349 255 255 255
-0.538 -0.067 0.93 255 255 255
-0.06 0.161 0.338 0 0 0
-0.103 0.128 0.365 255 255 255
0.493 0.166 1.167 255 255 255
-0.08 0.129 0.357 255 255 255
0.135 -0.077 0.431 0 0 0
0.53 0.163 1.17 255 255 255
0.554 0.064 1.241 255 255 255
0.004 -0.147 1.151 255 255 255
0.366 -0.108 1.261 255 255 255
0.531 -0.037 1.286 255 255 255
0.222 -0.046 0.335 255 255 255
0.596 0.109 1.234 255 255 255
-0.116 0.063 1.014 255 255 255
0.753 0.049 1.299 255 255 255
0.017 -0.166 0.482 255 255 255
0.129 -0.097 0.368 255 255 255
0.098 -0.126 0.349 255 255 255
0.21 0.18 1.066 255 255 255
0.164 -0.059 0.425 255 255 255
0.134 -0.101 1.176 255 255 255
-0.019 -0.196 0.307 255 255 255
0.089 -0.134 0.312 255 255 255
0.596 0.192 1.195 255 255 255
-0.177 -0.054 1.05 255 255 255
-0.228 -0.489 1.01 255 255 255
-0.012 0.149 0.367 255 255 255
-0.081 0.142 0.351 255 255 255
-0.181 0 1.021 255 255 255
-0.231 -0.104 1.054 255 255 255
-0.098 -0.249 0.338 0 0 0
-0.209 0.076 0.361 255 255 255
0.421 0.195 1.13 255 255 255
0.265 -0.013 0.407 0 0 0
0.276 0.008 0.395 255 255 255
-0.213 0.027 0.997 255 255 255
0.199 -0.109 0.332 255 255 255
-0.279 -0.199 0.575 255 255 255
0.434 0.424 1.027 255 255 255
-0.194 -0.037 1.035 255 255 255
-0.465 -0.073 0.961 0 0 0
0.232 0.196 1.066 255 255 255
-0.296 -0.092 1.026 0 0 0
-0.138 0.07 0.419 0 0 0
-0.107 0.135 0.365 255 255 255
-0.061 0.162 0.338 0 0 0
0.142 -0.188 1.221 255 255 255
-0.266 -0.246 1.056 255 255 255
-0.352 0.175 0.881 255 255 255
0.089 -0.178 0.328 255 255 255
0.115 -0.095 0.382 255 255 255
0.153 0.31 0.987 255 255 255
-0.067 -0.056 1.082 0 0 0
-0.489 -0.112 0.964 0 0 0
-0.092 0.142 0.357 255 255 255
-0.43 0.1 0.891 255 255 255
0.36 0.395 1.015 255 255 255
0.311 0.433 0.981 0 0 0
0.086 -0.127 0.318 255 255 255
-0.029 0.087 1.032 255 255 255
-0.01 -0.18 0.366 255 255 255
0.23 0.106 1.108 255 255 255
0.488 0.096 1.201 255 255 255
0.302 -0.24 1.276 255 255 255
-0.118 -0.296 1.184 255 255 255
-0.543 -0.233 0.953 255 255 255
0.058 -0.155 0.311 255 255 255
-0.026 0.13 0.381 255 255 255
0.443 0.419 1.031 255 255 255
0.439 0.234 1.117 255 255 255
-0.007 0.067 1.05 255 255 255
0.072 -0.141 0.33 255 255 255
-0.309 0.408 0.79 255 255 255
-0.222 0.08 0.977 255 255 255
0.225 -0.043 0.323 255 255 255
0.201 0.238 1.035 255 255 255
0.123 0.081 1.085 255 255 255
-0.243 -0.445 0.979 255 255 255
0.219 -0.058 0.315 255 255 255
-0.545 0.028 0.885 255 255 255
-0.665 -0.083 0.893 255 255 255
0.397 0.023 1.207 255 255 255
0.062 -0.144 0.359 255 255 255
-0.032 0.159 0.345 0 0 0
-0.089 -0.012 1.059 255 255 255
-0.11 0.074 0.409 255 255 255
0.123 0.484 0.898 255 255 255
0.542 0.203 1.153 255 255 255
0.199 -0.121 0.338 255 255 255
-0.074 0.105 0.378 255 255 255
-0.34 -0.287 0.938 255 255 255
0.186 -0.203 1.245 255 255 255
-0.181 0.091 0.388 255 255 255
0.174 -0.072 0.366 255 255 255
0.241 0.353 0.997 255 255 255
-0.099 -0.023 1.059 255 255 255
0.198 -0.101 1.201 255 255 255
-0.319 0.353 0.808 0 0 0
0.516 -0.05 1.287 255 255 255
0.247 -0.028 0.399 255 255 255
0.126 -0.284 0.394 255 255 255
0.202 -0.064 0.317 255 255 255
-0.105 0.085 0.396 0 0 0
0.199 -0.063 0.341 255 255 255
0.468 0.235 1.124 255 255 255
0.031 -0.092 1.137 255 255 255
0.075 0.05 1.085 255 255 255
-0.045 0.176 0.327 255 255 255
0.211 0.347 0.991 255 255 255
-0.074 0.072 0.424 255 255 255
-0.126 -0.24 0.373 255 255 255
0.246 -0.018 1.174 255 255 255
0.117 -0.086 0.389 255 255 255
0.134 0.145 1.057 255 255 255
-0.06 0.15 0.342 255 255 255
0.127 0.091 1.082 255 255 255
-0.008 0.258 0.958 255 255 255
-0.272 -0.216 0.547 255 255 255
-0.639 -0.047 0.89 0 0 0
0.413 0.371 1.037 0 0 0
-0.367 -0.258 1.022 255 255 255
0.616 -0.046 1.277 0 0 0
0.106 -0.185 0.335 255 255 255
-0.136 0.138 0.382 255 255 255
0.437 -0.136 1.291 255 255 255
-0.12 0.113 0.378 255 255 255
-0.286 -0.331 1.023 255 255 255
0.456 0.179 1.148 255 255 255
0.036 -0.155 0.365 255 255 255
-0.16 0.076 0.994 255 255 255
0.105 0.133 1.054 255 255 255
0.263 -0.075 1.208 255 255 255
-0.223 0.031 0.992 255 255 255
-0.033 0.232 0.962 255 255 255
0.651 0.091 1.263 255 255 255
-0.174 0.123 0.354 255 255 255
0.273 0.424 0.973 255 255 255
-0.413 0 0.94 255 255 255
-0.064 -0.006 1.063 255 255 255
-0.31 -0.481 0.978 255 255 255
-0.033 0.146 0.353 255 255 255
-0.047 0.219 0.964 255 255 255
-0.098 -0.246 0.339 0 0 0
0.639 0.058 1.279 255 255 255
-0.52 -0.206 0.957 255 255 255
-0.087 0.019 1.042 255 255 255
-0.063 -0.194 0.399 255 255 255
-0.117 0.138 0.368 255 255 255
0.012 0.084 1.048 255 255 255
0.411 0.091 1.177 255 255 255
0.181 -0.236 1.26 255 255 255
-0.094 -0.245 0.334 0 0 0
-0.16 -0.526 1.199 255 255 255
0.124 -0.156 0.329 255 255 255
0.202 0.07 1.119 255 255 255
-0.487 0.026 0.905 255 255 255
-0.039 0.11 0.397 255 255 255
-0.594 -0.018 0.894 0 0 0
-0.011 0.077 1.043 255 255 255
-0.246 -0.222 0.534 255 255 255
0.058 -0.145 0.359 255 255 255
-0.208 -0.223 1.121 255 255 255
-0.409 0.032 0.927 255 255 255
0 -0.229 1.166 0 0 0
-0.065 -0.218 0.356 255 255 255
-0.149 -0.251 1.148 255 255 255
0.194 -0.065 0.355 255 255 255
0.524 0.402 1.067 255 255 255
0.034 -0.225 0.332 255 255 255
-0.382 -0.486 0.949 255 255 255
0.121 -0.081 0.395 255 255 255
-0.208 0.078 0.979 255 255 255
0.107 -0.12 0.355 255 255 255
0.102 -0.205 0.347 255 255 255
-0.353 -0.25 1.037 255 255 255
0.427 0.398 1.033 255 255 255
0.116 -0.088 0.418 255 255 255
-0.105 0.045 0.446 0 0 0
-0.027 0.141 0.36 0 0 0
0.138 0.365 0.957 0 0 0
-0.106 0.066 0.416 255 255 255
0.027 -0.161 0.362 255 255 255
-0.044 -0.19 0.381 255 255 255
-0.454 -0.042 0.95 255 255 255
0.215 0.066 1.124 255 255 255
0.031 0.064 1.063 255 255 255
0.423 0.048 1.204 255 255 255
-0.324 0.333 0.816 255 255 255
-0.062 -0.194 0.416 255 255 255
-0.009 0.177 0.334 255 255 255
-0.25 -0.382 0.942 255 255 255
0.445 0.333 1.07 255 255 255
-0.034 0.218 0.97 255 255 255
-0.546 -0.227 0.955 255 255 255
0.111 -0.139 1.186 255 255 255
-0.23 -0.459 1.216 255 255 255
0.485 -0.145 1.247 0 0 0
-0.106 0.098 0.384 255 255 255
-0.227 -0.372 1.174 255 255 255
0.06 -0.031 1.116 255 255 255
-0.278 -0.354 1.011 255 255 255
-0.004 0.153 0.377 255 255 255
-0.186 0.082 0.387 255 255 255
-0.012 0.27 0.952 255 255 255
0.033 -0.164 0.343 255 255 255
-0.656 -0.059 0.889 255 255 255
0.222 -0.023 0.417 255 255 255
0.105 -0.224 1.214 0 0 0
0.153 -0.096 0.314 255 255 255
0.279 0.435 0.969 0 0 0
-0.172 0.061 0.997 255 255 255
-0.435 -0.054 0.943 0 0 0
-0.006 -0.171 0.375 255 255 255
-0.071 -0.427 1.265 255 255 255
0.304 0.232 1.074 255 255 255
0.125 0.256 1.003 255 255 255
0.121 -0.109 0.332 0 0 0
0.208 0.435 0.949 0 0 0
-0.283 -0.335 1.045 255 255 255
-0.288 -0.323 1.125 255 255 255
-0.05 0.103 0.397 0 0 0
0.599 0.311 1.136 255 255 255
0.404 0.252 1.095 255 255 255
-0.006 0.137 1.018 255 255 255
-0.104 0.077 0.403 255 255 255
-0.181 -0.384 1.2 255 255 255
0.35 0.322 1.046 255 255 255
-0.538 -0.135 0.948 255 255 255
-0.392 -0.209 0.968 255 255 255
-0.094 -0.242 0.339 255 255 255
-0.063 -0.199 0.379 255 255 255
-0.024 0.192 0.984 255 255 255
0.055 -0.037 1.119 255 255 255
-0.159 -0.174 1.11 255 255 255
0.242 0.252 1.043 255 255 255
-0.101 0.169 0.348 255 255 255
-0.24 -0.238 0.531 255 255 255
0.022 -0.232 0.331 255 255 255
0.206 0.1 1.102 255 255 255
0.059 -0.16 1.179 0 0 0
-0.12 -0.263 1.162 0 0 0
-0.093 -0.237 0.31 255 255 255
-0.2 0.067 0.386 255 255 255
0.107 -0.128 0.315 255 255 255
-0.346 -0.325 1.045 255 255 255
-0.313 -0.16 1.055 0 0 0
0.174 0.324 0.987 255 255 255
-0.143 0.11 0.394 255 255 255
-0.318 -0.382 0.929 255 255 255
0.416 0.227 1.112 255 255 255
0.036 -0.17 0.31 255 255 255
0.299 0.325 1.029 255 255 255
-0.276 -0.348 1.129 0 0 0
0.032 -0.137 0.382 255 255 255
0.062 -0.146 0.349 255 255 255
0.651 0.106 1.256 255 255 255
-0.13 0.082 0.404 255 255 255
0.031 -0.162 0.315 255 255 255
-0.117 -0.073 1.079 255 255 255
0.161 0.223 1.031 255 255 255
0.093 0.107 1.065 255 255 255
0.14 0.029 1.116 255 255 255
0.506 0.372 1.075 255 255 255
-0.043 -0.185 0.415 255 255 255
-0.089 0.044 1.033 255 255 255
-0.347 -0.042 0.986 0 0 0
0.033 -0.064 1.126 255 255 255
-0.211 0.056 0.984 255 255 255
0.182 -0.135 0.337 255 255 255
-0.165 0.152 0.381 255 255 255
-0.225 0.082 0.981 255 255 255
0.13 0.232 1.016 255 255 255
0.163 -0.15 1.212 255 255 255
-0.136 0.126 0.384 0 0 0
-0.125 0.14 0.373 255 255 255
0.001 0.154 0.396 255 255 255
0.054 -0.15 0.358 255 255 255
-0.029 -0.187 0.372 255 255 255
0.079 0 1.109 255 255 255
-0.202 -0.449 1.155 255 255 255
-0.211 0.052 0.985 255 255 255
0.008 0.169 0.381 255 255 255
-0.094 -0.231 0.359 255 255 255
0.492 -0.007 1.257 255 255 255
0.424 0.213 1.122 255 255 255
-0.226 -0.263 0.511 255 255 255
-0.65 -0.04 0.886 255 255 255
-0.013 -0.189 0.312 255 255 255
0.248 0.516 0.923 255 255 255
0.234 -0.295 1.259 0 0 0
0.442 -0.081 1.274 255 255 255
0.411 0.469 0.997 0 0 0
-0.28 0.03 0.973 255 255 255
-0.356 -0.376 0.939 255 255 255
0.239 0.235 1.049 255 255 255
0.149 -0.172 0.346 255 255 255
0.841 0.17 1.295 255 255 255
-0.471 -0.12 0.97 255 255 255
0.6 0.228 1.175 255 255 255
0.201 -0.036 0.429 255 255 255
0.053 0.141 1.033 255 255 255
-0.402 -0.012 0.951 255 255 255
0.055 -0.096 1.149 255 255 255
0.119 -0.054 1.149 255 255 255
0.292 -0.046 1.204 255 255 255
0.217 0.174 1.071 255 255 255
0.72 0.198 1.237 255 255 255
0.043 -0.163 0.344 255 255 255
0.202 -0.107 0.333 255 255 255
0.322 0.237 1.077 255 255 255
0.279 0.321 1.025 255 255 255
0.164 -0.063 0.386 255 255 255
-0.205 0.074 0.369 255 255 255
0.1 -0.212 1.213 255 255 255
-0.038 -0.218 0.305 255 255 255
-0.152 -0.247 0.387 255 255 255
-0.425 0.041 0.916 255 255 255
0.37 0.338 1.047 255 255 255
0.246 0.098 1.116 255 255 255
-0.449 -0.089 0.957 255 255 255
-0.47 0.041 0.903 255 255 255
-0.011 0.162 0.35 0 0 0
-0.056 -0.208 0.365 255 255 255
-0.44 0.028 0.921 255 255 255
0.093 0.248 0.997 255 255 255
0 -0.162 0.381 255 255 255
-0.225 0.06 0.373 255 255 255
0.246 0.031 1.152 255 255 255
0.327 0.083 1.153 255 255 255
-0.075 -0.205 0.42 255 255 255
0.104 -0.114 0.367 255 255 255
0.345 -0.075 1.236 255 255 255
-0.237 -0.307 1.147 255 255 255
0.638 0.111 1.248 255 255 255
0.068 -0.072 1.139 0 0 0
0.208 -0.059 0.319 255 255 255
-0.352 -0.166 0.998 0 0 0
0.038 -0.216 0.328 255 255 255
0 0.276 0.952 255 255 255
0.345 -0.012 1.209 255 255 255
-0.077 0.113 0.373 0 0 0
-0.218 -0.293 0.439 255 255 255
0.038 -0.164 0.345 255 255 255
-0.027 -0.199 0.319 255 255 255
-0.007 -0.193 0.342 255 255 255
-0.276 0.036 0.972 255 255 255
0.072 0.272 0.979 255 255 255
-0.054 -0.212 0.356 255 255 255
-0.466 0.012 0.919 255 255 255
-0.081 -0.207 0.384 255 255 255
-0.064 -0.212 0.365 255 255 255
-0.265 -0.292 1.133 255 255 255
0.154 -0.298 0.395 255 255 255
-0.05 -0.185 0.387 255 255 255
0.068 -0.188 0.324 255 255 255
-0.186 0.088 0.377 0 0 0
0.052 0.033 1.085 255 255 255
0.504 0.269 1.123 255 255 255
0.147 -0.268 0.393 255 255 255
-0.168 0.133 0.372 255 255 255
-0.034 -0.191 0.37 255 255 255
0.695 0.231 1.212 255 255 255
0.158 -0.072 0.379 255 255 255
-0.24 0.071 0.969 255 255 255
-0.05 0.046 1.044 255 255 255
0.643 -0.027 1.288 255 255 255
0.569 -0.054 1.297 255 255 255
-0.403 0.03 0.933 255 255 255
-0.029 0.132 1.012 255 255 255
-0.303 -0.053 1 255 255 255
0.141 -0.09 0.369 255 255 255
0.366 0.216 1.1 255 255 255
0.121 -0.103 0.364 255 255 255
-0.492 -0.231 0.864 255 255 255
-0.117 0.05 0.446 255 255 255
0.127 0.364 0.954 255 255 255
0.13 -0.096 0.37 255 255 255
0.124 -0.111 0.345 255 255 255
-0.08 0.056 0.456 255 255 255
-0.358 0.223 0.867 255 255 255
-0.041 0.101 0.413 255 255 255
-0.191 0.077 0.398 0 0 0
0.313 -0.248 1.261 0 0 0
-0.095 0.111 0.376 255 255 255
0.054 -0.151 0.344 255 255 255
-0.155 -0.252 0.408 255 255 255
-0.065 0.13 0.358 255 255 255
0.589 -0.067 1.279 0 0 0
-0.107 -0.018 1.054 255 255 255
0.05 0.224 0.996 255 255 255
-0.331 0.067 0.939 255 255 255
0.619 0.107 1.243 255 255 255
0.063 -0.192 0.325 255 255 255
0.673 0.284 1.178 255 255 255
0.311 0.159 1.107 255 255 255
0.253 -0.033 0.388 255 255 255
0.081 -0.22 0.344 255 255 255
0.018 -0.071 1.121 255 255 255
-0.293 -0.501 1.012 255 255 255
-0.098 -0.227 0.374 255 255 255
-0.103 -0.224 0.376 255 255 255
-0.053 -0.186 0.386 255 255 255
-0.132 -0.4 1.231 0 0 0
0.17 0.388 0.957 255 255 255
-0.083 0.15 0.347 255 255 255
-0.266 -0.176 1.066 0 0 0
0.109 0.16 1.044 255 255 255
-0.118 -0.226 0.392 255 255 255
0.403 0.498 0.979 255 255 255
-0.263 0.013 0.988 0 0 0
0.231 -0.033 0.397 255 255 255
-0.352 -0.291 1.041 255 255 255
-0.08 -0.229 0.351 255 255 255
-0.07 0.175 0.337 255 255 255
-0.268 -0.084 1.035 255 255 255
-0.127 -0.038 1.058 255 255 255
0.288 0.451 0.965 0 0 0
-0.002 0.233 0.972 255 255 255
0.205 -0.057 0.319 255 255 255
-0.508 -0.181 0.966 255 255 255
0.128 0.12 1.067 255 255 255
-0.188 -0.49 1.103 255 255 255
0.542 0.278 1.131 255 255 255
0.148 -0.309 1.279 255 255 255
-0.226 0.048 0.4 255 255 255
-0.179 0.084 0.985 255 255 255
0.211 -0.029 0.413 255 255 255
0.08 0.411 0.918 0 0 0
-0.353 0.172 0.883 255 255 255
0.129 0.029 1.113 255 255 255
-0.229 -0.28 0.466 255 255 255
-0.414 0.116 0.888 255 255 255
-0.606 -0.202 0.952 0 0 0
-0.29 -0.38 0.943 255 255 255
0.016 -0.166 0.366 255 255 255
0.355 0.298 1.06 255 255 255
-0.348 -0.278 1.041 255 255 255
0.018 -0.225 1.168 0 0 0
0.224 -0.154 1.234 255 255 255
0.103 -0.169 0.328 255 255 255
0.145 -0.093 0.317 255 255 255
-0.144 -0.264 0.354 0 0 0
0.266 0.271 1.043 255 255 255
0.121 -0.008 1.126 255 255 255
-0.137 -0.127 1.098 255 255 255
0.001 0.173 0.345 255 255 255
-0.179 0.047 1.002 0 0 0
0.135 -0.095 0.364 255 255 255
0.052 -0.133 0.384 255 255 255
0.249 -0.026 0.402 255 255 255
0.447 0.16 1.154 255 255 255
0.448 0.43 1.027 255 255 255
-0.337 0.305 0.833 255 255 255
-0.328 0 0.971 0 0 0
0.091 -0.358 1.274 0 0 0
-0.187 0.082 0.415 255 255 255
0.142 -0.095 0.33 255 255 255
-0.295 0.439 0.776 255 255 255
-0.316 -0.006 0.98 255 255 255
0.242 -0.216 1.271 0 0 0
0.296 0.089 1.139 255 255 255
0.38 -0.147 1.288 255 255 255
-0.512 -0.061 0.936 0 0 0
-0.232 -0.131 1.066 255 255 255
-0.142 0.085 0.407 255 255 255
-0.397 0.151 0.895 255 255 255
-0.074 -0.219 0.362 255 255 255
-0.091 -0.266 1.176 255 255 255
-0.112 0.058 0.43 0 0 0
-0.22 0.042 0.988 0 0 0
0.037 -0.142 0.384 255 255 255
-0.176 0.101 0.399 255 255 255
-0.244 0.049 0.383 255 255 255
0.018 -0.155 0.379 255 255 255
0.418 0.084 1.181 255 255 255
-0.089 -0.241 0.327 0 0 0
0.481 -0.042 1.271 255 255 255
-0.027 0.125 0.394 255 255 255
-0.248 -0.108 1.052 255 255 255
-0.128 0.117 0.379 255 255 255
-0.117 0.174 0.361 255 255 255
-0.12 0.114 0.378 255 255 255
-0.341 0.317 0.834 255 255 255
0.622 -0.03 1.296 255 255 255
-0.567 -0.203 0.963 255 255 255
0.077 -0.13 0.365 255 255 255
0.174 0.436 0.935 0 0 0
0.122 -0.095 0.374 255 255 255
0.251 -0.082 1.208 255 255 255
-0.017 0.135 0.387 255 255 255
-0.332 0.28 0.836 255 255 255
0.086 0.382 0.933 255 255 255
-0.086 0.144 0.356 255 255 255
-0.1 0.098 0.386 255 255 255
-0.071 0.095 0.39 0 0 0
0.039 -0.16 0.349 255 255 255
0.212 -0.216 1.262 255 255 255
-0.277 -0.222 0.547 255 255 255
-0.161 -0.455 1.244 0 0 0
-0.204 -0.063 1.044 255 255 255
-0.626 -0.11 0.91 255 255 255
0.387 0.349 1.043 255 255 255
-0.617 0.005 0.875 255 255 255
-0.525 -0.026 0.918 255 255 255
-0.266 -0.039 1.013 255 255 255
0.058 0.401 0.922 255 255 255
-0.139 -0.031 1.05 255 255 255
-0.355 0.034 0.948 255 255 255
0.171 0.336 0.982 255 255 255
0.012 -0.24 0.332 0 0 0
-0.105 -0.053 1.071 255 255 255
0.506 -0.094 1.296 255 255 255
0.378 0.206 1.107 255 255 255
0.183 0.316 0.995 255 255 255
-0.006 0.175 0.998 255 255 255
-0.175 0.117 0.365 255 255 255
-0.062 0.079 0.503 255 255 255
0.193 -0.059 0.366 255 255 255
0.715 0.126 1.271 255 255 255
0.022 -0.17 0.346 255 255 255
0.338 0.407 1.001 255 255 255
-0.255 -0.175 1.076 0 0 0
0.106 -0.117 0.316 255 255 255
-0.008 -0.193 0.307 255 255 255
0.107 -0.121 0.349 255 255 255
-0.001 -0.167 0.374 255 255 255
-0.586 0.065 0.854 255 255 255
0.119 0.29 0.986 255 255 255
0.076 0.365 0.939 255 255 255
-0.182 -0.32 1.166 255 255 255
0.08 -0.281 1.242 255 255 255
-0.252 -0.267 0.46 255 255 255
0.251 -0.259 1.287 255 255 255
0.142 -0.076 0.445 255 255 255
-0.081 0.068 0.427 0 0 0
0.084 0.131 1.051 255 255 255
-0.511 -0.073 0.939 255 255 255
-0.019 -0.199 0.306 255 255 255
-0.075 0.121 0.368 0 0 0
-0.506 -0.148 0.965 0 0 0
-0.031 -0.095 1.118 255 255 255
0.632 -0.054 1.264 0 0 0
0.215 -0.051 0.357 255 255 255
0.415 0.463 1.004 0 0 0
0.208 -0.045 0.371 255 255 255
-0.067 0.11 0.375 255 255 255
-0.085 0.097 0.384 255 255 255
-0.068 -0.012 1.066 255 255 255
-0.121 -0.176 1.113 0 0 0
0.703 -0.01 1.259 0 0 0
-0.208 -0.196 1.111 255 255 255
-0.136 0.123 0.385 0 0 0
0.138 0.356 0.962 255 255 255
0.146 -0.097 0.348 255 255 255
0.037 -0.134 0.395 255 255 255
-0.224 0.06 0.375 255 255 255
-0.296 -0.226 0.559 255 255 255
-0.031 0.263 0.955 255 255 255
0.054 -0.151 0.357 255 255 255
-0.173 0.123 0.361 255 255 255
-0.017 0.04 1.056 255 255 255
-0.145 0.085 0.409 255 255 255
0.184 0.343 0.983 255 255 255
0.002 0.158 0.382 255 255 255
-0.209 0.066 0.986 255 255 255
-0.099 0.112 0.374 255 255 255
-0.55 -0.069 0.917 255 255 255
-0.05 -0.197 0.376 255 255 255
0.006 0.051 1.061 255 255 255
-0.252 -0.402 1.144 255 255 255
0.087 -0.203 1.207 255 255 255
-0.424 -0.09 0.953 0 0 0
-0.052 0.115 0.378 255 255 255
-0.32 0.051 0.952 255 255 255
0.056 -0.144 0.364 255 255 255
-0.194 0.092 0.355 255 255 255
-0.228 -0.272 0.483 255 255 255
0.19 -0.294 0.398 255 255 255
0.015 -0.182 0.309 255 255 255
-0.216 -0.189 1.096 0 0 0
-0.065 0.122 0.365 0 0 0
0.096 -0.073 1.146 255 255 255
-0.15 -0.19 1.122 0 0 0
0.198 -0.039 0.423 255 255 255
0.057 0.467 0.992 0 0 0
0.042 -0.158 0.358 255 255 255
0.059 0.276 0.972 255 255 255
0.21 -0.064 0.316 255 255 255
-0.21 -0.265 1.079 255 255 255
-0.379 -0.014 0.96 255 255 255
-0.504 -0.112 0.965 0 0 0
-0.093 0.084 0.399 255 255 255
0.166 0.097 1.092 255 255 255
-0.296 -0.077 1.018 255 255 255
0.109 -0.119 0.35 255 255 255
0.154 -0.079 0.373 255 255 255
0.051 -0.193 0.321 255 255 255
-0.247 0.042 0.392 255 255 255
0.146 -0.104 0.309 255 255 255
0.058 -0.153 0.346 255 255 255
-0.028 0.129 0.383 255 255 255
-0.355 -0.401 0.93 255 255 255
-0.108 0.047 1.023 255 255 255
0.221 0.505 0.92 255 255 255
0.513 0.019 1.25 255 255 255
-0.048 0.127 0.364 0 0 0
-0.194 -0.422 1.194 255 255 255
-0.07 -0.334 1.218 255 255 255
-0.336 -0.271 1.046 255 255 255
-0.275 -0.421 0.957 255 255 255
-0.033 0.148 0.35 255 255 255
0.074 -0.139 0.355 255 255 255
0.377 0.236 1.093 255 255 255
-0.393 -0.167 0.97 255 255 255
-0.372 -0.022 0.965 255 255 255
0.372 -0.022 1.222 255 255 255
-0.062 -0.224 0.342 255 255 255
0.128 0.289 0.989 255 255 255
0.248 0.151 1.092 255 255 255
-0.259 -0.37 1.162 255 255 255
-0.195 0.069 0.392 0 0 0
-0.585 0.026 0.873 255 255 255
0.429 0.405 1.032 255 255 255
-0.391 -0.158 1.006 0 0 0
-0.565 -0.006 0.894 255 255 255
0.429 0.423 1.026 255 255 255
0.083 -0.364 1.275 255 255 255
0.343 0.328 1.037 255 255 255
0.174 -0.067 0.37 255 255 255
-0.029 0.108 1.022 0 0 0
0.211 0.418 0.958 255 255 255
0.176 0.399 0.955 255 255 255
0.077 0.416 0.914 0 0 0
0.279 0.017 0.401 255 255 255
-0.115 -0.201 1.138 255 255 255
-0.31 -0.187 0.628 255 255 255
-0.356 -0.316 1.028 255 255 255
0.031 0.122 1.035 255 255 255
0.225 -0.04 0.376 255 255 255
-0.064 0.128 0.361 255 255 255
-0.022 0.242 0.96 255 255 255
0.126 -0.109 0.31 255 255 255
-0.458 -0.032 0.943 0 0 0
-0.245 -0.016 1.008 255 255 255
0.182 0.012 1.139 255 255 255
0.549 0.017 1.266 255 255 255
0.045 -0.149 0.367 255 255 255
-0.332 0.34 0.822 255 255 255
-0.057 -0.083 1.102 255 255 255
0.034 0.213 0.996 255 255 255
-0.369 0.145 0.891 255 255 255
-0.162 -0.26 0.391 255 255 255
0.274 -0.025 0.386 0 0 0
-0.066 -0.224 0.319 255 255 255
0.392 -0.101 1.266 255 255 255
0.169 -0.082 0.35 255 255 255
-0.32 -0.089 0.989 255 255 255
0.018 -0.173 1.169 0 0 0
-0.113 0.068 0.421 255 255 255
-0.299 -0.201 0.595 255 255 255
-0.197 0.085 0.36 255 255 255
0.303 0.438 0.977 0 0 0
-0.356 0.072 0.928 255 255 255
-0.31 -0.208 0.594 255 255 255
-0.678 -0.151 0.917 255 255 255
0.085 -0.171 0.324 255 255 255
-0.111 0.077 0.402 255 255 255
0.728 0.035 1.297 255 255 255
-0.058 -0.194 1.154 255 255 255
0.033 -0.069 1.128 255 255 255
0.014 -0.147 0.389 255 255 255
-0.111 -0.236 0.367 255 255 255
-0.218 -0.255 1.075 255 255 255
0.053 -0.273 1.208 255 255 255
-0.152 -0.382 1.205 255 255 255
0.035 -0.211 0.325 255 255 255
0.244 -0.014 0.419 255 255 255
0.196 0.458 0.934 255 255 255
-0.437 -0.094 0.946 255 255 255
0.093 -0.129 0.347 255 255 255
-0.208 0.075 0.362 255 255 255
0.56 0.169 1.19 255 255 255
-0.12 0.073 0.411 255 255 255
0.786 0.061 1.288 255 255 255
0.465 0.112 1.184 255 255 255
0.054 -0.138 0.372 255 255 255
0.629 0.172 1.214 255 255 255
-0.416 -0.159 0.923 255 255 255
0.025 0.041 1.072 0 0 0
0.363 -0.086 1.25 255 255 255
-0.036 -0.258 1.185 255 255 255
-0.33 0.141 0.909 0 0 0
0.159 -0.063 0.435 0 0 0
-0.043 0.163 0.335 255 255 255
0.12 0.314 0.975 255 255 255
-0.335 -0.288 1.049 255 255 255
-0.077 0.166 0.339 255 255 255
-0.407 -0.135 0.925 255 255 255
-0.1 -0.031 1.063 255 255 255
0.18 -0.054 0.383 255 255 255
0.002 0.09 1.042 255 255 255
-0.298 -0.119 1.038 255 255 255
0.641 0.21 1.197 255 255 255
0.296 -0.076 1.219 255 255 255
0.357 0.428 0.999 255 255 255
-0.142 -0.126 1.09 0 0 0
-0.528 -0.221 0.956 255 255 255
0.395 0.353 1.045 255 255 255
0.072 0.386 0.926 255 255 255
0.033 -0.164 0.311 255 255 255
0.23 -0.031 0.404 255 255 255
0.137 -0.08 0.385 255 255 255
0.07 -0.305 1.237 255 255 255
-0.083 0.154 0.346 0 0 0
0.182 0.083 1.105 255 255 255
-0.258 -0.375 1.035 255 255 255
0.253 0.275 1.036 0 0 0
0.025 0.195 0.368 255 255 255
0.159 -0.096 0.315 255 255 255
-0.147 -0.095 1.08 255 255 255
-0.363 -0.483 0.954 255 255 255
0.189 -0.067 0.319 255 255 255
0.233 -0.187 1.254 255 255 255
-0.416 -0.139 0.895 255 255 255
0.414 -0.159 1.287 255 255 255
0.309 -0.046 1.211 255 255 255
-0.037 0.148 0.351 255 255 255
-0.2 0.066 0.385 255 255 255
-0.006 0.297 0.94 255 255 255
0.238 0.19 1.07 255 255 255
-0.409 -0.065 0.972 0 0 0
-0.645 -0.088 0.896 255 255 255
0.262 -0.03 0.387 255 255 255
0.003 0.182 0.334 255 255 255
0.005 -0.177 0.358 255 255 255
-0.098 0.118 0.369 0 0 0
0.422 0.425 1.021 255 255 255
0.222 0.426 0.957 0 0 0
-0.041 0.122 0.383 255 255 255
-0.132 -0.202 1.126 0 0 0
-0.577 -0.152 0.946 255 255 255
-0.12 0.066 0.419 255 255 255
-0.387 -0.164 1.006 0 0 0
0.004 0.145 1.016 255 255 255
-0.087 -0.223 0.368 255 255 255
0.129 -0.318 1.274 255 255 255
0.414 0.288 1.083 255 255 255
0.353 -0.07 1.237 255 255 255
0.111 -0.291 1.251 0 0 0
0.013 0.177 0.364 255 255 255
-0.592 -0.181 0.951 0 0 0
0.205 0.184 1.063 255 255 255
0.049 -0.147 0.366 255 255 255
-0.343 -0.354 0.944 255 255 255
0.381 -0.194 1.276 0 0 0
-0.219 0.051 0.397 255 255 255
0.242 -0.196 1.259 255 255 255
0.096 -0.126 0.357 255 255 255
-0.17 0.124 0.383 0 0 0
-0.622 -0.257 0.943 255 255 255
-0.53 0.055 0.875 255 255 255
0.1 -0.161 0.325 255 255 255
-0.206 0.079 0.36 255 255 255
0.253 -0.038 0.382 255 255 255
-0.1 0.126 0.364 255 255 255
-0.187 0.086 0.381 0 0 0
-0.091 0.133 0.36 0 0 0
0.622 0.012 1.296 255 255 255
-0.066 0.054 1.035 255 255 255
-0.383 -0.049 0.981 255 255 255
-0.259 -0.203 1.034 255 255 255
0.524 0.058 1.234 255 255 255
0.043 -0.22 0.331 255 255 255
0.21 0.29 1.015 255 255 255
0.371 0.032 1.192 255 255 255
-0.272 -0.229 0.532 255 255 255
-0.038 -0.217 0.306 255 255 255
0.148 -0.264 0.391 255 255 255
0.168 -0.094 1.185 255 255 255
0.687 0.006 1.296 255 255 255
0.033 -0.174 0.308 255 255 255
-0.082 -0.153 1.128 255 255 255
-0.261 -0.093 1.041 255 255 255
0.316 0.394 1.002 255 255 255
0.292 0.169 1.099 255 255 255
0.099 -0.108 0.38 255 255 255
0.179 -0.074 0.357 255 255 255
0.261 0.15 1.096 255 255 255
0.334 0.163 1.113 255 255 255
0.162 0.167 1.057 255 255 255
0.147 -0.147 1.205 255 255 255
-0.273 -0.17 1.039 255 255 255
0.08 -0.136 0.354 255 255 255
0.582 -0.021 1.299 255 255 255
-0.619 -0.048 0.892 255 255 255
0.154 -0.099 0.315 255 255 255
-0.354 -0.183 0.997 255 255 255
-0.412 0.087 0.901 255 255 255
-0.018 -0.45 1.207 255 255 255
-0.065 0.124 0.365 255 255 255
-0.229 0.021 0.994 255 255 255
0.257 0.254 1.049 255 255 255
-0.32 -0.357 0.927 255 255 255
0.326 0.062 1.16 255 255 255
-0.089 0.162 0.345 0 0 0
-0.105 -0.366 1.218 255 255 255
0.374 0.318 1.054 255 255 255
0.123 0.317 0.975 255 255 255
-0.106 -0.223 0.377 255 255 255
-0.004 0.152 0.378 255 255 255
0.097 -0.108 0.381 255 255 255
-0.034 -0.184 0.379 255 255 255
0.153 0.369 0.96 255 255 255
-0.136 0.122 0.385 0 0 0
0.298 -0.253 1.266 0 0 0
-0.316 0.343 0.809 255 255 255
0.018 -0.154 0.381 255 255 255
0.006 0.257 0.963 255 255 255
-0.064 0.109 0.385 255 255 255
0.295 0.349 1.018 255 255 255
-0.254 -0.211 0.565 255 255 255
0.076 0.252 0.991 0 0 0
0.046 -0.127 0.381 255 255 255
0.277 0.014 0.399 255 255 255
-0.262 -0.183 1.056 0 0 0
-0.207 0.073 0.366 255 255 255
0.621 -0.056 1.267 0 0 0
-0.133 0.027 1.025 255 255 255
0.252 0.293 1.028 255 255 255
-0.042 0.151 0.345 255 255 255
-0.073 0.125 0.364 255 255 255
0.177 -0.075 0.357 255 255 255
0.374 -0.071 1.245 255 255 255
-0.65 -0.104 0.902 255 255 255
0.069 -0.12 0.386 255 255 255
0.037 0.339 0.95 255 255 255
-0.212 0.07 0.364 255 255 255
0.202 -0.12 0.339 255 255 255
-0.097 0.115 0.369 0 0 0
-0.064 0.168 0.332 255 255 255
0.159 -0.097 0.314 255 255 255
0.52 0.129 1.195 255 255 255
-0.205 0.062 0.388 255 255 255
-0.426 -0.082 0.953 0 0 0
0.07 -0.385 1.264 255 255 255
-0.403 -0.088 0.983 255 255 255
0.067 -0.115 0.386 255 255 255
0.205 -0.05 0.369 255 255 255
0.079 -0.054 1.133 255 255 255
-0.135 0.073 0.412 255 255 255
0.077 -0.109 0.396 255 255 255
-0.069 0.162 0.336 0 0 0
0.157 -0.06 0.402 255 255 255
-0.177 -0.024 1.034 255 255 255
0.116 -0.111 0.319 255 255 255
-0.109 0.076 0.403 255 255 255
0.075 -0.136 0.311 255 255 255
0.072 -0.143 0.333 255 255 255
0.019 -0.176 0.343 255 255 255
0.196 -0.256 0.397 255 255 255
-0.068 -0.415 1.262 255 255 255
-0.054 0.081 0.441 0 0 0
-0.083 0.143 0.351 255 255 255
-0.088 0.048 0.459 255 255 255
0.253 -0.035 0.385 255 255 255
0.055 -0.153 0.313 255 255 255
-0.27 -0.198 0.566 255 255 255
-0.382 -0.362 0.958 255 255 255
-0.506 -0.112 0.964 255 255 255
0.092 0.131 1.053 255 255 255
0.41 0.315 1.067 255 255 255
-0.28 -0.345 1.011 255 255 255
0.738 0.026 1.285 255 255 255
0.13 0.124 1.065 255 255 255
0.276 0.338 1.016 255 255 255
-0.159 0.167 0.363 0 0 0
-0.032 0.156 0.998 255 255 255
-0.029 -0.409 1.272 255 255 255
0.239 -0.146 1.234 255 255 255
0.03 -0.425 1.244 255 255 255
-0.584 -0.416 0.959 255 255 255
0.138 0.183 1.038 255 255 255
0.073 -0.141 0.346 255 255 255
0.083 -0.135 0.334 255 255 255
-0.541 -0.094 0.934 255 255 255
0.106 -0.092 1.162 255 255 255
-0.048 -0.191 0.381 255 255 255
-0.043 0.115 0.385 255 255 255
-0.311 0.409 0.791 255 255 255
-0.08 -0.178 1.139 255 255 255
-0.057 -0.209 0.361 255 255 255
0.152 0.48 0.909 255 255 255
-0.572 -0.213 0.966 255 255 255
-0.205 -0.511 1.155 255 255 255
-0.111 0.037 1.027 255 255 255
0.082 -0.087 1.151 0 0 0
0.029 -0.137 0.382 255 255 255
-0.2 0.08 0.366 255 255 255
-0.058 -0.465 1.269 255 255 255
-0.065 -0.221 0.308 255 255 255
-0.379 -0.151 1.005 255 255 255
0.291 0.047 1.157 255 255 255
0.365 0.517 0.959 255 255 255
0.182 -0.129 0.337 255 255 255
-0.135 -0.238 0.408 255 255 255
0.302 -0.053 1.21 255 255 255
0.187 0.284 1.012 255 255 255
-0.04 0.147 0.351 255 255 255
0.294 -0.094 1.229 255 255 255
-0.628 -0.125 0.916 0 0 0
0.202 -0.036 0.432 255 255 255
0.104 -0.092 0.394 255 255 255
0.274 0.32 1.022 255 255 255
0.206 -0.044 0.379 255 255 255
0.037 0.099 1.048 255 255 255
-0.683 -0.193 0.931 255 255 255
-0.167 -0.267 0.393 255 255 255
0.092 -0.129 0.349 255 255 255
-0.049 0.179 0.327 255 255 255
-0.217 -0.341 1.165 255 255 255
0.226 0.152 1.084 0 0 0
0.555 0.185 1.178 255 255 255
-0.112 0.103 1 255 255 255
0.181 -0.06 0.375 255 255 255
-0.187 0.088 0.37 0 0 0
0.43 0.206 1.126 255 255 255
-0.117 0.202 0.36 255 255 255
-0.079 -0.228 0.35 255 255 255
0.179 -0.297 0.396 255 255 255
0.113 -0.118 0.341 255 255 255
-0.625 -0.099 0.906 255 255 255
-0.546 -0.065 0.922 0 0 0
0.538 0.261 1.138 255 255 255
-0.683 -0.189 0.931 255 255 255
-0.055 0.098 0.398 255 255 255
0.212 -0.116 1.211 255 255 255
0.123 -0.08 0.397 255 255 255
-0.326 -0.063 1.002 0 0 0
0.76 0.202 1.253 255 255 255
0.109 -0.157 0.327 255 255 255
0.082 -0.109 0.385 255 255 255
0.113 0.477 0.898 255 255 255
0.014 0.158 1.011 255 255 255
-0.521 -0.147 0.952 0 0 0
0.091 -0.124 0.364 255 255 255
-0.293 -0.232 0.546 255 255 255
-0.312 -0.002 0.98 255 255 255
0.052 -0.137 0.375 255 255 255
-0.237 0.051 0.382 255 255 255
0.182 -0.045 0.389 255 255 255
-0.025 -0.175 0.422 255 255 255
0.338 -0.235 1.257 0 0 0
0.208 0.079 1.114 255 255 255
0.13 -0.168 0.336 255 255 255
-0.261 -0.371 1.03 255 255 255
-0.137 0.136 0.383 255 255 255
0.074 0.388 0.926 255 255 255
0.491 -0.091 1.296 0 0 0
-0.476 0.039 0.902 255 255 255
-0.234 0.071 0.97 255 255 255
-0.093 -0.242 0.323 0 0 0
-0.543 0.056 0.865 255 255 255
-0.094 0.015 1.043 255 255 255
-0.054 0.118 0.372 255 255 255
-0.08 0.066 1.025 255 255 255
-0.048 0.036 1.048 255 255 255
-0.209 -0.451 0.993 255 255 255
-0.081 -0.203 1.149 255 255 255
0.104 -0.123 0.351 255 255 255
-0.124 0.155 0.37 255 255 255
-0.27 -0.246 0.51 255 255 255
0.181 0.424 0.944 0 0 0
0.406 0.055 1.193 255 255 255
0.446 0.373 1.049 255 255 255
-0.261 -0.201 0.596 255 255 255
-0.111 0.19 0.353 255 255 255
0.266 -0.006 0.468 255 255 255
-0.328 -0.181 1.042 0 0 0
-0.33 0.047 0.949 255 255 255
-0.002 0.156 1.008 255 255 255
0.375 0.478 0.981 255 255 255
0.442 -0.041 1.25 255 255 255
-0.045 0.096 1.021 0 0 0
-0.463 0.002 0.926 255 255 255
0.107 -0.109 0.481 0 0 0
0.269 -0.007 0.396 255 255 255
0.215 0.43 0.953 0 0 0
0.367 0.023 1.195 255 255 255
-0.528 -0.176 0.97 255 255 255
-0.337 0.109 0.918 0 0 0
0.374 -0.144 1.285 255 255 255
-0.19 -0.279 1.12 255 255 255
-0.037 0.113 0.396 0 0 0
-0.15 -0.192 1.124 0 0 0
-0.096 0.147 0.356 255 255 255
0.233 0.425 0.96 0 0 0
-0.139 -0.26 0.357 0 0 0
0.324 0.467 0.968 255 255 255
-0.066 -0.211 0.37 255 255 255
0.487 0.118 1.189 255 255 255
-0.236 0.058 0.977 255 255 255
0.695 0.182 1.235 255 255 255
0.204 -0.044 0.379 255 255 255
-0.26 -0.142 1.062 255 255 255
0.033 -0.067 1.127 255 255 255
-0.036 0.142 0.358 255 255 255
-0.134 -0.24 0.378 255 255 255
-0.175 -0.344 1.182 0 0 0
-0.147 -0.265 0.358 0 0 0
-0.565 -0.003 0.893 255 255 255
-0.064 -0.222 0.346 255 255 255
0.493 0.001 1.252 255 255 255
0.226 0.509 0.919 255 255 255
0.399 0.448 1.003 0 0 0
-0.017 -0.196 0.327 255 255 255
-0.289 -0.429 0.967 255 255 255
-0.14 0.013 1.03 255 255 255
0.029 -0.169 0.331 255 255 255
0.159 -0.074 0.376 255 255 255
0.494 0.418 1.048 255 255 255
0.359 0.5 0.966 255 255 255
0.275 0.488 0.944 255 255 255
-0.327 -0.409 0.944 255 255 255
-0.274 -0.071 1.026 255 255 255
-0.622 -0.218 0.95 0 0 0
-0.344 -0.299 0.886 255 255 255
0.257 -0.004 0.438 255 255 255
-0.047 0.14 0.356 255 255 255
-0.084 -0.238 0.339 255 255 255
0.452 0.245 1.117 255 255 255
-0.239 -0.273 0.443 255 255 255
-0.025 0.174 0.332 255 255 255
0.14 0.185 1.038 0 0 0
0.061 0.288 0.968 255 255 255
-0.605 -0.132 0.933 255 255 255
0.072 0.027 1.095 255 255 255
0.032 -0.153 0.374 255 255 255
0.035 -0.168 0.345 255 255 255
0.152 -0.256 1.255 255 255 255
0.08 -0.111 0.423 255 255 255
-0.067 -0.224 0.347 255 255 255
0.238 0.405 0.971 255 255 255
0.549 0.295 1.125 255 255 255
-0.099 -0.235 0.356 255 255 255
-0.101 0.138 0.36 255 255 255
-0.165 0.149 0.381 255 255 255
0.801 0.057 1.272 255 255 255
-0.059 0.147 0.346 255 255 255
-0.135 0.127 0.382 255 255 255
-0.169 -0.261 0.405 255 255 255
0.12 -0.087 0.383 255 255 255
0.509 -0.069 1.29 255 255 255
0.225 0.339 0.997 255 255 255
-0.127 0.057 0.435 0 0 0
0.69 0.026 1.308 255 255 255
0.243 0.108 1.111 255 255 255
-0.102 -0.509 1.245 0 0 0
-0.089 0.071 0.417 255 255 255
0.211 -0.047 0.363 255 255 255
0.426 0.429 1.022 255 255 255
0.18 -0.132 0.337 255 255 255
-0.127 -0.232 0.395 255 255 255
0.03 -0.159 0.366 255 255 255
-0.048 -0.185 0.39 255 255 255
-0.19 -0.278 0.426 255 255 255
0.075 -0.063 1.139 0 0 0
0.11 0.33 0.964 255 255 255
-0.054 0.132 0.362 255 255 255
-0.416 -0.08 0.955 0 0 0
0.092 -0.1 0.394 255 255 255
0.513 0.386 1.069 255 255 255
-0.448 -0.018 0.942 255 255 255
-0.67 -0.215 0.909 255 255 255
-0.067 0.179 0.977 255 255 255
0.485 0.177 1.159 255 255 255
0.132 -0.179 0.343 255 255 255
-0.408 0.07 0.912 255 255 255
-0.034 0.203 0.976 255 255 255
0.685 0.233 1.207 255 255 255
0.191 -0.053 0.469 255 255 255
-0.019 -0.175 1.155 0 0 0
-0.01 -0.172 0.376 255 255 255
-0.409 0.014 0.932 255 255 255
0.315 -0.007 1.193 255 255 255
0.142 -0.218 0.364 255 255 255
0.158 -0.081 0.369 255 255 255
0.563 0.069 1.241 255 255 255
-0.124 0.113 0.379 255 255 255
0.045 -0.163 0.308 255 255 255
0.018 -0.174 0.351 255 255 255
0.107 0.042 1.099 255 255 255
-0.345 -0.302 1.04 255 255 255
0.142 -0.156 0.336 255 255 255
0.267 0.008 0.408 255 255 255
0.287 0.196 1.083 255 255 255
0.173 -0.054 0.424 255 255 255
-0.435 -0.127 0.919 255 255 255
0.002 -0.157 0.382 255 255 255
0.053 0.353 0.948 255 255 255
-0.337 -0.357 0.941 255 255 255
0.279 0.252 1.056 255 255 255
0.126 0.285 0.99 255 255 255
-0.023 -0.37 1.25 0 0 0
0.409 -0.178 1.271 0 0 0
0.002 0.057 1.056 255 255 255
-0.312 -0.15 1.045 255 255 255
-0.57 -0.048 0.901 255 255 255
-0.084 -0.227 0.354 255 255 255
-0.187 0.093 0.362 255 255 255
0.215 0.493 0.922 255 255 255
0.005 -0.437 1.254 255 255 255
0.23 0.192 1.066 255 255 255
-0.088 0.013 1.046 255 255 255
0.048 -0.161 0.307 255 255 255
0.085 -0.134 0.334 255 255 255
-0.079 0.116 0.37 255 255 255
0.262 -0.013 0.412 255 255 255
-0.072 0.141 0.352 255 255 255
0.015 0.33 0.933 255 255 255
0.698 0.049 1.304 255 255 255
0.204 -0.091 1.198 255 255 255
0.367 0.209 1.103 255 255 255
0.727 0.049 1.308 255 255 255
-0.05 -0.14 1.131 255 255 255
-0.137 -0.106 1.087 255 255 255
0.135 -0.156 0.334 255 255 255
0.027 0.242 0.977 255 255 255
-0.38 -0.28 1.008 255 255 255
0.182 -0.128 1.207 255 255 255
-0.33 0.353 0.817 255 255 255
0.149 0.049 1.112 255 255 255
-0.077 -0.221 0.364 255 255 255
0.05 -0.148 0.364 255 255 255
0.294 -0.131 1.249 255 255 255
0.167 -0.091 0.313 255 255 255
0.184 -0.129 0.337 255 255 255
-0.113 0.083 0.397 0 0 0
-0.046 -0.21 0.354 255 255 255
0.57 0.275 1.143 255 255 255
0 -0.075 1.117 255 255 255
0.193 -0.068 0.317 255 255 255
0.005 -0.153 0.39 255 255 255
-0.046 -0.209 0.307 255 255 255
0.118 -0.096 0.379 255 255 255
-0.009 0.148 0.375 255 255 255
-0.167 0.143 0.377 255 255 255
0.064 -0.343 1.269 0 0 0
-0.219 -0.22 1.117 255 255 255
0.373 0.425 1.006 255 255 255
0.057 -0.156 0.314 255 255 255
0.108 -0.357 1.26 0 0 0
0.154 -0.083 0.367 255 255 255
0.143 -0.099 0.352 255 255 255
-0.473 0.022 0.913 255 255 255
-0.459 -0.076 0.963 0 0 0
0.413 0.313 1.069 255 255 255
0.231 -0.028 0.41 255 255 255
-0.004 -0.184 0.314 255 255 255
0.293 0.336 1.021 255 255 255
0.015 -0.037 1.105 0 0 0
0.172 -0.143 0.339 255 255 255
0.406 0.193 1.125 255 255 255
-0.075 0.182 0.331 255 255 255
-0.012 -0.196 0.305 255 255 255
-0.266 -0.154 1.066 255 255 255
-0.097 -0.213 0.385 255 255 255
0.035 0.097 1.048 255 255 255
0.134 0.092 1.084 255 255 255
0.141 -0.088 0.371 255 255 255
0.088 0.382 0.933 255 255 255
0.132 -0.064 1.158 255 255 255
-0.387 -0.564 1.034 255 255 255
0.269 -0.214 1.271 255 255 255
0.105 -0.117 0.317 255 255 255
0.392 0.468 0.993 0 0 0
-0.386 0.022 0.939 255 255 255
0.267 -0.03 0.381 255 255 255
0.425 0.433 1.02 255 255 255
-0.268 -0.322 1.144 255 255 255
-0.005 0.165 0.352 0 0 0
0.015 0.009 1.083 255 255 255
-0.082 0.081 0.402 255 255 255
0.072 -0.118 0.385 255 255 255
-0.064 0.097 0.39 0 0 0
-0.171 0.118 0.386 0 0 0
-0.033 0.163 0.341 0 0 0
0.083 0.147 1.042 255 255 255
-0.078 -0.235 0.339 255 255 255
0.032 -0.15 0.374 255 255 255
-0.456 -0.125 0.948 255 255 255
-0.14 0.085 0.405 255 255 255
0.195 -0.057 0.368 255 255 255
-0.059 0.13 0.36 255 255 255
0.166 -0.055 0.39 255 255 255
0.182 -0.121 0.332 255 255 255
-0.09 -0.239 0.345 255 255 255
0.034 -0.137 0.407 255 255 255
0.19 0.094 1.102 255 255 255
0.384 0.42 1.011 255 255 255
0.638 0.225 1.191 255 255 255
-0.165 0.144 0.355 255 255 255
-0.133 -0.254 0.362 255 255 255
0.207 0.042 1.134 255 255 255
0.033 0.084 1.055 255 255 255
-0.113 -0.372 1.217 255 255 255
-0.154 0.122 0.401 255 255 255
0.741 0.237 1.229 255 255 255
-0.128 -0.177 1.118 0 0 0
0.268 0.209 1.072 255 255 255
-0.007 0.148 0.383 255 255 255
-0.063 0.021 1.05 255 255 255
-0.077 0.121 0.366 255 255 255
-0.343 0.129 0.906 255 255 255
0.044 -0.157 0.356 255 255 255
0.171 -0.053 0.388 255 255 255
0.164 0.375 0.962 255 255 255
0.057 0.186 1.014 255 255 255
-0.109 0.059 0.428 0 0 0
-0.226 -0.391 1.191 255 255 255
0.155 -0.145 1.206 255 255 255
-0.045 0.164 0.335 255 255 255
-0.105 0.132 0.365 255 255 255
0.188 -0.069 0.353 255 255 255
0.22 0.46 0.94 255 255 255
-0.559 -0.356 0.962 255 255 255
0.185 -0.071 0.351 255 255 255
-0.017 0.079 1.04 255 255 255
0.005 -0.345 1.249 255 255 255
-0.084 0.075 0.417 255 255 255
-0.01 -0.161 1.155 255 255 255
0.224 0.472 0.936 255 255 255
-0.143 -0.415 1.232 255 255 255
-0.058 -0.179 1.147 255 255 255
0 -0.157 0.404 255 255 255
0.176 -0.055 0.445 255 255 255
-0.118 0.05 0.445 255 255 255
-0.104 0.1 0.383 255 255 255
-0.355 -0.215 1.041 255 255 255
-0.299 -0.047 1.001 255 255 255
-0.582 -0.159 0.949 255 255 255
-0.283 -0.161 1.054 0 0 0
0.428 -0.03 1.243 255 255 255
-0.064 -0.202 0.378 255 255 255
-0.145 0.114 0.395 255 255 255
-0.07 -0.201 0.384 255 255 255
0.102 -0.13 0.315 255 255 255
-0.229 -0.127 1.063 255 255 255
-0.328 -0.028 0.982 0 0 0
-0.297 -0.061 1.009 255 255 255
-0.578 -0.092 0.919 255 255 255
-0.349 -0.456 0.956 255 255 255
-0.095 -0.11 1.105 255 255 255
0.196 -0.282 1.287 255 255 255
0.312 -0.046 1.211 255 255 255
0.157 -0.086 0.319 255 255 255
-0.168 -0.26 0.407 255 255 255
0.392 -0.122 1.273 255 255 255
0.226 0.252 1.038 0 0 0
-0.084 -0.239 0.341 255 255 255
-0.041 -0.212 0.301 255 255 255
-0.271 0.067 0.96 255 255 255
0.109 -0.347 1.281 255 255 255
0.063 -0.122 0.43 255 255 255
-0.214 -0.073 1.047 255 255 255
0.014 0.219 0.983 255 255 255
-0.06 -0.254 1.178 0 0 0
-0.132 -0.023 1.049 255 255 255
0.071 -0.113 0.396 255 255 255
0.062 -0.206 0.331 255 255 255
-0.101 0.16 0.353 0 0 0
-0.043 -0.021 1.077 255 255 255
0.364 0.098 1.157 255 255 255
0.159 -0.091 0.347 255 255 255
-0.345 -0.26 1.056 255 255 255
0.398 0.19 1.123 255 255 255
-0.459 -0.102 0.962 255 255 255
0.014 -0.147 0.386 255 255 255
0.211 -0.236 1.269 0 0 0
0.164 0.299 0.998 255 255 255
-0.308 -0.17 0.65 255 255 255
-0.075 -0.2 0.394 255 255 255
-0.074 0.12 0.368 0 0 0
-0.586 -0.172 0.951 255 255 255
0.183 0.336 0.987 255 255 255
-0.2 0.007 1.013 255 255 255
-0.086 -0.371 1.224 0 0 0
-0.619 -0.141 0.933 255 255 255
-0.064 0.113 0.382 255 255 255
0.637 -0.05 1.243 255 255 255
-0.003 -0.192 0.306 255 255 255
0.117 0.232 1.011 255 255 255
-0.149 0.131 0.396 255 255 255
-0.218 -0.078 1.047 255 255 255
0.097 -0.096 0.397 255 255 255
-0.046 -0.164 1.144 255 255 255
-0.067 -0.186 1.148 255 255 255
-0.182 -0.043 1.043 255 255 255
-0.057 0.112 0.379 255 255 255
-0.021 -0.196 1.168 255 255 255
-0.043 -0.185 0.382 255 255 255
-0.005 -0.446 1.249 255 255 255
0.298 0.335 1.023 255 255 255
-0.594 -0.054 0.894 255 255 255
0.014 0.254 0.967 255 255 255
0.016 0.086 1.048 255 255 255
0.162 -0.084 0.315 255 255 255
0.405 0.18 1.131 255 255 255
-0.042 0.137 0.361 255 255 255
-0.221 -0.024 1.021 255 255 255
-0.086 0.071 0.42 255 255 255
-0.093 0.104 0.38 0 0 0
0.25 -0.007 1.169 255 255 255
-0.078 -0.38 1.228 0 0 0
-0.016 0.17 0.338 255 255 255
0.137 -0.105 0.313 255 255 255
-0.335 -0.416 0.944 255 255 255
0.022 -0.169 0.312 255 255 255
0.012 0.226 0.979 255 255 255
-0.283 -0.02 0.998 255 255 255
-0.114 -0.241 0.362 255 255 255
-0.142 -0.079 1.074 255 255 255
-0.126 0.106 0.385 0 0 0
-0.55 0.026 0.885 255 255 255
0.62 0.191 1.201 255 255 255
0.165 -0.056 0.389 255 255 255
-0.08 -0.045 1.077 255 255 255
0.267 0.351 1.007 255 255 255
-0.124 0.115 0.378 255 255 255
0.138 -0.073 0.39 255 255 255
-0.074 0.113 0.371 0 0 0
-0.414 -0.085 0.962 0 0 0
-0.026 -0.203 0.342 255 255 255
-0.067 0.071 0.441 0 0 0
-0.167 0.139 0.373 255 255 255
0.06 0.259 0.979 255 255 255
0.147 -0.086 0.37 255 255 255
0.383 0.176 1.124 255 255 255
0.023 -0.175 0.339 255 255 255
-0.299 -0.057 1.006 255 255 255
0.044 0.199 1.004 255 255 255
-0.056 0.081 0.459 0 0 0
-0.226 0.062 0.368 255 255 255
0.065 0.216 1.005 255 255 255
-0.116 0.197 0.358 255 255 255
0.01 0.178 0.348 255 255 255
-0.125 -0.04 1.059 255 255 255
-0.268 -0.221 0.537 255 255 255
0.288 0.372 1.004 255 255 255
-0.688 -0.156 0.918 255 255 255
0.124 -0.103 0.364 255 255 255
0.283 0.469 0.958 255 255 255
0.024 -0.178 0.306 255 255 255
-0.021 -0.447 1.258 0 0 0
0.31 0.367 1.013 255 255 255
0.179 -0.133 0.336 255 255 255
0.311 0.001 1.189 255 255 255
0.168 -0.123 0.33 255 255 255
0.091 -0.179 0.33 255 255 255
0.314 -0.021 1.201 255 255 255
-0.424 -0.082 0.953 0 0 0
0.828 0.09 1.291 255 255 255
0.024 0.186 1.003 255 255 255
0.034 0.222 0.989 255 255 255
-0.086 0.137 0.358 0 0 0
-0.446 -0.083 0.955 255 255 255
-0.422 -0.12 0.931 255 255 255
