ply
format ascii 1.0
comment Created by Open3D
element vertex 1595
property double x
property double y
property double z
property uchar red
property uchar green
property uchar blue
end_header
-0.086 0.155 0.357 255 255 255
0.067 -0.267 0.408 255 255 255
0.567 0.327 1.178 255 255 255
0.215 -0.021 0.375 255 255 255
0.107 -0.232 0.408 255 255 255
-0.081 -0.174 0.308 255 255 255
0.11 -0.05 1.203 255 255 255
-0.551 0.083 0.884 255 255 255
-0.021 0.14 1.055 255 255 255
-0.071 0.052 1.082 255 255 255
0.191 -0.037 0.339 255 255 255
-0.04 -0.153 0.353 255 255 255
0.212 -0.011 0.397 255 255 255
0.068 -0.1 0.358 255 255 255
0.224 -0.248 0.433 255 255 255
-0.578 -0.32 0.991 255 255 255
-0.109 0.266 0.953 255 255 255
-0.58 -0.433 0.941 255 255 255
-0.048 0.421 0.899 0 0 0
0.113 -0.059 0.391 255 255 255
0.019 0.46 0.902 255 255 255
-0.12 0.155 0.343 0 0 0
0.065 0.341 0.981 255 255 255
-0.338 0.017 0.998 255 255 255
-0.48 0.079 0.911 255 255 255
-0.199 0.088 1.014 255 255 255
-0.122 -0.202 0.3 255 255 255
0.373 0.011 1.268 255 255 255
-0.414 -0.243 1.011 255 255 255
-0.327 -0.08 1.055 255 255 255
0.052 -0.109 0.356 255 255 255
0.303 0.362 1.056 255 255 255
0.669 0.322 1.229 255 255 255
-0.022 -0.115 0.393 255 255 255
-0.025 -0.208 0.339 255 255 255
-0.36 -0.356 1.169 255 255 255
-0.074 -0.141 0.39 255 255 255
-0.381 0.031 0.976 255 255 255
0.609 0.247 1.24 255 255 255
0.211 0.258 1.075 255 255 255
0.107 -0.087 0.329 255 255 255
0.681 0.196 1.301 255 255 255
-0.416 0.051 0.952 255 255 255
-0.092 -0.177 0.352 255 255 255
-0.364 -0.106 1.051 0 0 0
0.124 -0.165 1.27 255 255 255
-0.134 0.348 0.901 255 255 255
-0.129 0.115 0.503 255 255 255
0.223 -0.194 0.41 255 255 255
0.537 0.015 1.34 255 255 255
-0.596 0.023 0.897 255 255 255
-0.312 -0.223 1.13 0 0 0
-0.131 0.201 0.978 255 255 255
0.172 -0.107 0.363 255 255 255
-0.123 0.147 0.35 255 255 255
-0.651 -0.051 0.902 255 255 255
0.006 0.305 0.979 255 255 255
-0.137 -0.189 0.36 255 255 255
0.019 -0.16 0.331 255 255 255
-0.128 0.161 0.341 0 0 0
-0.441 -0.365 0.955 0 0 0
0.001 -0.182 0.335 255 255 255
0.122 0.287 1.029 255 255 255
-0.564 0.068 0.886 255 255 255
-0.028 -0.159 0.313 255 255 255
-0.102 -0.19 0.303 255 255 255
0.102 -0.238 0.409 255 255 255
-0.556 0.029 0.907 255 255 255
0.374 0.476 1.022 0 0 0
0.178 0.4 0.991 255 255 255
-0.368 0.109 0.94 255 255 255
0.193 -0.195 0.417 255 255 255
0.007 -0.128 0.364 255 255 255
-0.143 0.138 0.356 255 255 255
-0.051 -0.159 0.312 255 255 255
0.49 0.469 1.076 255 255 255
0.169 -0.178 0.399 255 255 255
0.113 -0.074 0.37 255 255 255
-0.18 -0.221 0.344 255 255 255
-0.145 -0.192 0.36 255 255 255
0.172 -0.108 0.363 255 255 255
-0.552 0.117 0.863 255 255 255
-0.252 0.166 0.952 255 255 255
-0.554 0.041 0.903 255 255 255
-0.465 -0.25 1.011 255 255 255
-0.086 0.218 0.988 255 255 255
0.566 0.281 1.201 255 255 255
0.088 -0.076 0.386 255 255 255
0.203 -0.013 0.412 255 255 255
-0.293 -0.304 1.179 255 255 255
0.092 -0.085 0.338 255 255 255
0.197 -0.067 1.245 255 255 255
0.061 -0.085 0.388 255 255 255
-0.532 0.007 0.917 0 0 0
0.199 0.343 1.029 255 255 255
0.106 -0.088 0.33 255 255 255
0.249 0.171 1.135 255 255 255
0.168 -0.209 0.417 255 255 255
-0.029 -0.159 0.317 255 255 255
0.133 -0.065 0.365 255 255 255
0.243 -0.153 1.313 0 0 0
-0.237 -0.099 1.094 0 0 0
0.094 -0.19 0.376 255 255 255
0.097 -0.078 0.376 255 255 255
-0.015 0.085 1.086 255 255 255
0.05 0.112 1.096 255 255 255
-0.427 -0.002 0.978 255 255 255
0.117 -0.151 0.364 255 255 255
0.21 -0.041 0.341 255 255 255
0.029 0.023 1.134 255 255 255
0.295 0.373 1.048 255 255 255
-0.506 -0.166 0.987 255 255 255
0.187 0.276 1.059 255 255 255
-0.321 -0.123 1.079 255 255 255
0.562 0.139 1.277 255 255 255
0.067 0.213 1.046 0 0 0
-0.048 -0.156 0.355 255 255 255
0.009 -0.112 1.2 255 255 255
-0.156 0.135 0.357 255 255 255
0.084 -0.207 0.382 255 255 255
-0.097 0.137 0.388 0 0 0
-0.17 -0.14 1.143 255 255 255
-0.155 0.127 0.365 0 0 0
-0.035 -0.097 1.172 0 0 0
0.125 -0.04 0.412 255 255 255
-0.14 -0.188 0.361 255 255 255
-0.242 -0.246 1.172 255 255 255
-0.486 -0.444 0.958 255 255 255
-0.437 -0.096 1.019 255 255 255
-0.321 -0.133 1.084 0 0 0
0.306 0.204 1.139 255 255 255
0.043 -0.281 0.408 255 255 255
-0.349 0.047 0.979 255 255 255
-0.038 0.477 0.873 255 255 255
0.116 0.207 1.068 255 255 255
-0.145 -0.028 1.097 255 255 255
-0.123 0.178 0.328 255 255 255
-0.638 -0.01 0.896 255 255 255
-0.333 -0.197 0.517 255 255 255
0.067 -0.249 1.291 255 255 255
-0.06 0.183 0.336 255 255 255
0.252 0.163 1.141 255 255 255
0.195 -0.242 0.417 255 255 255
-0.033 -0.145 0.362 255 255 255
0.104 -0.235 1.299 0 0 0
0.066 -0.081 0.392 255 255 255
-0.53 -0.151 0.963 255 255 255
-0.123 -0.164 0.385 255 255 255
-0.041 0.19 0.358 255 255 255
0.641 0.299 1.227 255 255 255
0.448 0.22 1.187 255 255 255
0.111 -0.14 0.355 255 255 255
-0.144 -0.204 0.345 255 255 255
0.021 -0.121 0.323 255 255 255
0.102 0.174 1.08 255 255 255
-0.233 -0.326 1.214 255 255 255
0.096 -0.086 0.361 255 255 255
0.055 -0.222 0.377 255 255 255
0.121 -0.136 0.355 255 255 255
-0.073 0.201 1.005 255 255 255
0.013 -0.138 0.317 255 255 255
-0.131 -0.179 0.371 255 255 255
0.019 -0.132 0.325 255 255 255
0.247 0.279 1.08 255 255 255
0.261 0.207 1.121 255 255 255
-0.391 -0.061 1.02 255 255 255
-0.094 0.365 0.931 255 255 255
0.012 0.366 0.948 255 255 255
-0.522 -0.165 0.971 255 255 255
-0.475 -0.211 1.039 255 255 255
-0.085 0.159 0.352 0 0 0
-0.059 0.17 0.359 0 0 0
-0.046 -0.21 0.332 255 255 255
-0.265 0.141 0.963 255 255 255
-0.114 -0.23 1.176 255 255 255
-0.115 -0.028 1.107 255 255 255
-0.282 -0.341 1.201 0 0 0
0.15 0.418 0.971 255 255 255
0.131 0.394 0.976 255 255 255
-0.057 0.171 0.359 0 0 0
0.194 -0.202 0.417 0 0 0
0.03 -0.25 0.385 255 255 255
0.013 0.014 1.135 255 255 255
0.217 0.496 0.909 255 255 255
-0.006 -0.106 0.404 255 255 255
-0.387 0.047 0.964 0 0 0
-0.177 0.116 0.379 0 0 0
0.293 0.338 1.058 255 255 255
0.224 -0.1 0.376 255 255 255
0.273 0.059 1.206 255 255 255
0.168 0.088 1.152 255 255 255
-0.113 -0.166 0.378 255 255 255
0.43 0.017 1.29 255 255 255
-0.021 -0.294 1.278 255 255 255
0.203 -0.185 0.414 255 255 255
-0.03 0.307 0.964 255 255 255
0.015 -0.304 0.407 0 0 0
-0.456 -0.35 0.926 255 255 255
-0.341 -0.125 1.065 0 0 0
0.108 0.231 1.053 255 255 255
0.495 0.117 1.261 255 255 255
0.147 -0.062 0.334 255 255 255
0.122 0.292 1.025 255 255 255
0.079 -0.128 0.337 255 255 255
-0.041 -0.154 0.312 255 255 255
-0.071 -0.144 1.184 255 255 255
0.108 0.291 1.021 255 255 255
-0.025 0.164 1.036 255 255 255
-0.535 -0.061 0.867 255 255 255
-0.181 0.093 1.018 255 255 255
-0.567 0.019 0.908 255 255 255
0.056 0.125 1.091 255 255 255
-0.386 0.078 0.949 255 255 255
-0.17 0.088 0.411 255 255 255
-0.311 0.051 0.99 255 255 255
0.022 -0.126 0.349 255 255 255
0.178 -0.286 0.42 255 255 255
-0.079 0.154 0.369 255 255 255
0.2 -0.043 0.341 255 255 255
-0.039 -0.148 0.362 255 255 255
-0.167 0.143 0.998 255 255 255
-0.078 0.235 0.982 255 255 255
-0.382 0.122 0.929 255 255 255
0.182 -0.042 0.407 255 255 255
0.221 -0.11 1.277 255 255 255
-0.423 0.104 0.92 255 255 255
0.539 0.155 1.258 255 255 255
-0.285 -0.087 1.074 0 0 0
-0.161 0.065 1.039 255 255 255
0.632 0.256 1.249 255 255 255
0.077 0.497 0.907 255 255 255
-0.337 0.075 0.968 0 0 0
0.346 0.16 1.179 255 255 255
0.042 -0.168 1.24 255 255 255
-0.275 -0.156 1.113 0 0 0
-0.173 -0.145 1.146 255 255 255
-0.084 0.319 0.939 255 255 255
-0.015 -0.119 0.39 255 255 255
0.052 -0.153 0.34 255 255 255
-0.019 -0.138 0.367 255 255 255
-0.447 0.121 0.902 255 255 255
-0.52 0.028 0.912 0 0 0
-0.228 -0.329 1.214 0 0 0
-0.179 -0.207 0.358 255 255 255
-0.366 -0.255 1.123 0 0 0
0.484 0.323 1.143 255 255 255
-0.09 0.135 0.404 0 0 0
0.067 0.413 0.943 255 255 255
-0.436 -0.215 1.084 255 255 255
0.377 0.336 1.097 255 255 255
0.556 0.417 1.128 255 255 255
0.289 0.296 1.085 255 255 255
0.219 0.364 1.025 255 255 255
-0.317 0.053 0.988 255 255 255
-0.106 0.031 1.079 255 255 255
0.191 -0.043 0.4 255 255 255
-0.432 0.106 0.915 0 0 0
0.516 0.1 1.277 255 255 255
0.043 -0.108 0.369 255 255 255
-0.654 -0.012 0.881 255 255 255
-0.086 -0.176 0.325 255 255 255
-0.048 0.444 0.886 255 255 255
-0.181 -0.006 1.072 255 255 255
-0.397 0.051 0.959 255 255 255
-0.14 0.117 0.378 0 0 0
-0.06 0.335 0.938 255 255 255
-0.122 0 1.09 255 255 255
0.364 -0.02 1.284 255 255 255
-0.084 -0.166 0.364 255 255 255
-0.243 -0.177 1.137 255 255 255
0.001 -0.13 0.365 255 255 255
-0.172 0.098 0.398 255 255 255
-0.116 0.184 0.326 255 255 255
-0.203 0.179 0.965 255 255 255
-0.326 -0.262 1.14 0 0 0
-0.473 -0.317 0.906 255 255 255
0.252 0.167 1.138 255 255 255
-0.004 -0.174 0.33 255 255 255
0.097 -0.069 0.39 255 255 255
-0.011 -0.119 0.388 255 255 255
-0.402 -0.368 1.025 255 255 255
0.274 0.087 1.189 255 255 255
-0.026 0.127 1.059 255 255 255
0.156 0.054 1.167 255 255 255
0.633 0.233 1.259 255 255 255
-0.053 0.183 0.343 255 255 255
0.266 0.273 1.091 255 255 255
0.066 -0.119 1.222 255 255 255
0.056 -0.15 0.34 255 255 255
-0.175 0.258 0.934 255 255 255
0.1 0.204 1.063 255 255 255
-0.261 -0.113 1.097 0 0 0
0.006 0.314 0.972 255 255 255
0.402 0.385 1.058 255 255 255
0.217 0.393 1.01 255 255 255
0.094 -0.3 0.414 0 0 0
-0.387 -0.361 1.171 255 255 255
-0.086 -0.147 0.412 255 255 255
0.594 0.287 1.21 255 255 255
-0.489 -0.414 0.935 255 255 255
0.088 -0.278 0.418 0 0 0
-0.112 0.13 0.378 255 255 255
0.075 0.185 1.066 255 255 255
-0.423 -0.35 0.943 255 255 255
0.154 -0.053 0.34 255 255 255
0.281 0.451 1 0 0 0
0.189 -0.197 1.287 255 255 255
-0.465 0.172 0.869 0 0 0
-0.368 0.13 0.933 255 255 255
-0.165 0.089 1.025 255 255 255
-0.17 0.281 0.931 255 255 255
-0.102 0.157 0.349 0 0 0
0.462 0.212 1.196 255 255 255
0 -0.23 0.361 255 255 255
-0.114 0.121 0.45 255 255 255
-0.433 -0.17 1.032 255 255 255
-0.076 0.376 0.922 255 255 255
-0.469 -0.203 1.06 255 255 255
0.065 -0.108 0.326 255 255 255
-0.048 -0.138 0.381 255 255 255
-0.367 0.078 0.956 0 0 0
0.115 0.227 1.056 255 255 255
0.184 -0.038 0.342 255 255 255
0.661 0.3 1.236 255 255 255
0.183 -0.25 0.418 0 0 0
0.116 -0.148 0.361 255 255 255
0.453 -0.064 1.314 255 255 255
-0.18 -0.212 0.355 255 255 255
0.119 -0.167 1.269 255 255 255
0.024 0.318 0.978 255 255 255
-0.383 -0.393 1.005 255 255 255
0.02 -0.106 0.499 255 255 255
0.508 0.025 1.319 255 255 255
0.532 0.144 1.262 255 255 255
-0.071 -0.139 0.391 255 255 255
0.384 0.069 1.242 255 255 255
0.067 -0.204 0.374 255 255 255
-0.464 -0.103 0.972 255 255 255
-0.053 -0.248 0.35 255 255 255
0.621 0.134 1.297 0 0 0
-0.133 0.099 0.426 255 255 255
-0.437 -0.326 1.011 255 255 255
-0.117 0.185 0.993 255 255 255
-0.096 0.173 0.336 255 255 255
0.015 -0.196 1.245 255 255 255
0.005 -0.137 0.319 255 255 255
-0.117 0.011 1.085 255 255 255
0.248 -0.178 0.411 255 255 255
-0.388 -0.077 1.029 0 0 0
-0.114 0.185 0.327 255 255 255
-0.065 0.171 0.347 255 255 255
0.286 0.043 0.431 255 255 255
0.171 0.345 1.018 0 0 0
0.438 0.508 1.032 255 255 255
0.271 0.017 0.409 255 255 255
0.429 0.411 1.071 255 255 255
-0.112 -0.158 0.388 255 255 255
-0.021 -0.128 0.382 255 255 255
0.129 -0.203 0.398 255 255 255
-0.191 0.038 1.042 255 255 255
-0.014 -0.024 1.143 255 255 255
0.14 -0.002 1.189 255 255 255
-0.073 -0.162 0.361 255 255 255
-0.025 0.009 1.121 255 255 255
-0.18 -0.068 1.105 0 0 0
0.183 -0.052 0.337 255 255 255
0.053 -0.211 0.37 255 255 255
0.062 0.35 0.975 255 255 255
0.411 0.029 1.274 255 255 255
0.365 0.303 1.107 255 255 255
0.706 0.168 1.351 255 255 255
0.034 -0.123 1.214 255 255 255
-0.089 0.093 1.055 255 255 255
-0.004 -0.106 0.427 255 255 255
-0.353 -0.077 1.043 255 255 255
-0.204 0.084 0.411 255 255 255
0.16 -0.114 0.361 255 255 255
-0.094 -0.15 0.401 255 255 255
-0.369 -0.061 1.03 255 255 255
-0.066 0.341 0.933 255 255 255
0.369 0.054 1.246 255 255 255
0.067 -0.097 0.37 255 255 255
-0.102 0.388 0.893 255 255 255
0.084 -0.021 1.178 255 255 255
-0.319 -0.247 1.141 255 255 255
-0.346 -0.414 1.211 255 255 255
0.099 -0.179 0.371 255 255 255
0.092 -0.275 0.419 0 0 0
-0.519 -0.014 0.941 255 255 255
0.102 -0.078 0.377 255 255 255
-0.027 -0.117 0.41 255 255 255
0.166 -0.126 0.369 255 255 255
0 0.245 1.005 0 0 0
-0.442 0.081 0.923 255 255 255
-0.518 -0.117 0.94 255 255 255
-0.413 -0.07 1.016 255 255 255
-0.434 -0.248 1.049 255 255 255
0.243 -0.037 1.248 255 255 255
0.249 0.054 1.199 255 255 255
0.406 0.247 1.155 255 255 255
-0.131 0.126 0.372 255 255 255
-0.289 -0.103 1.081 255 255 255
0.121 -0.116 0.348 255 255 255
-0.114 -0.184 0.356 255 255 255
-0.292 -0.112 1.082 255 255 255
-0.138 -0.188 0.361 255 255 255
-0.167 0.119 0.371 255 255 255
0.8 0.153 1.226 255 255 255
0.059 -0.075 0.43 255 255 255
-0.178 0.178 0.974 255 255 255
-0.142 -0.076 1.122 255 255 255
-0.196 -0.144 1.14 255 255 255
-0.467 -0.053 0.952 255 255 255
0.245 0.015 1.218 255 255 255
-0.48 0.011 0.951 255 255 255
-0.12 0.112 1.031 255 255 255
0.074 -0.094 0.327 255 255 255
0.358 0.272 1.121 255 255 255
0.033 0.429 0.925 0 0 0
-0.226 -0.03 1.065 255 255 255
-0.406 -0.326 1.053 255 255 255
0.246 0.026 0.428 255 255 255
-0.213 -0.191 1.153 255 255 255
0.002 -0.055 1.167 255 255 255
0.29 -0.072 1.281 255 255 255
-0.15 -0.216 0.298 0 0 0
0.062 -0.102 0.362 255 255 255
-0.081 0.183 0.331 255 255 255
0.183 0.331 1.029 255 255 255
-0.648 -0.041 0.899 255 255 255
0.116 -0.115 0.346 255 255 255
-0.312 -0.221 1.13 0 0 0
0.029 -0.122 0.323 255 255 255
-0.007 -0.225 0.356 255 255 255
0.175 0.472 0.953 255 255 255
-0.409 -0.337 0.963 255 255 255
0.248 -0.006 0.384 255 255 255
0.326 -0.038 1.276 255 255 255
0.073 -0.073 0.397 255 255 255
-0.154 0.125 0.365 0 0 0
0.107 -0.179 0.377 255 255 255
0.051 -0.108 0.364 255 255 255
-0.255 -0.151 1.11 0 0 0
0.625 0.262 1.24 255 255 255
-0.434 -0.263 1.035 255 255 255
-0.187 0.081 0.423 0 0 0
-0.347 -0.035 1.025 255 255 255
-0.022 -0.147 0.351 255 255 255
0.217 -0.032 0.341 255 255 255
0.112 -0.225 0.404 255 255 255
-0.127 -0.182 0.365 255 255 255
-0.484 -0.361 0.918 255 255 255
-0.41 0.045 0.958 255 255 255
-0.33 -0.213 1.124 255 255 255
0.087 -0.088 0.37 255 255 255
0.053 -0.2 0.364 255 255 255
-0.459 -0.044 0.95 255 255 255
0.681 0.141 1.331 255 255 255
-0.402 -0.121 1.037 0 0 0
-0.292 -0.216 1.135 255 255 255
-0.321 0.113 0.956 255 255 255
0.264 0.017 0.41 255 255 255
0.18 0.364 1.012 255 255 255
0.126 -0.053 0.393 255 255 255
0.084 -0.096 0.327 255 255 255
0.097 -0.305 0.41 0 0 0
-0.121 0.105 0.421 255 255 255
-0.168 0.159 0.99 255 255 255
-0.135 -0.199 0.34 255 255 255
-0.408 0.125 0.918 255 255 255
0.091 -0.089 0.361 255 255 255
-0.227 0.155 0.969 255 255 255
-0.035 -0.122 0.394 255 255 255
0.125 -0.064 0.377 255 255 255
0.195 0.483 0.953 255 255 255
0.024 0.023 1.133 255 255 255
-0.569 0.031 0.904 0 0 0
-0.096 0.131 0.403 255 255 255
0.102 0.288 1.02 255 255 255
0.064 -0.181 0.36 255 255 255
0.171 -0.047 0.406 255 255 255
0.306 0.388 1.026 255 255 255
0.136 0.139 1.112 255 255 255
-0.167 0.089 1.025 255 255 255
-0.394 -0.15 0.587 255 255 255
0.392 -0.067 1.322 255 255 255
0.078 -0.283 0.415 255 255 255
0.076 0.424 0.942 0 0 0
0.126 0.147 1.105 255 255 255
0.132 -0.278 0.418 255 255 255
0.17 -0.026 1.215 255 255 255
0.156 0.165 1.106 255 255 255
0.457 0.343 1.104 255 255 255
-0.083 0.183 1.007 255 255 255
-0.127 0.162 0.339 0 0 0
0.045 -0.11 0.369 255 255 255
0.032 0.15 1.066 255 255 255
0.543 0.221 1.218 255 255 255
0.05 -0.11 0.325 255 255 255
-0.116 0.117 0.401 0 0 0
-0.101 0.041 1.075 255 255 255
0.042 -0.123 0.321 255 255 255
-0.093 0.022 1.087 255 255 255
0.051 -0.02 1.164 255 255 255
-0.052 -0.312 1.276 255 255 255
-0.457 -0.074 0.965 255 255 255
0.116 -0.073 0.371 255 255 255
-0.049 -0.257 0.357 255 255 255
-0.161 -0.193 1.17 0 0 0
0.344 -0.031 1.282 255 255 255
-0.558 0.07 0.888 255 255 255
0.263 -0.161 0.41 255 255 255
-0.097 0.16 0.346 0 0 0
-0.202 0.233 0.936 255 255 255
-0.325 0.098 0.963 255 255 255
0.376 0.014 1.27 255 255 255
-0.412 0.114 0.919 255 255 255
-0.285 -0.078 1.068 255 255 255
-0.115 0.119 0.397 0 0 0
0.158 0.299 1.038 255 255 255
-0.186 -0.243 1.187 0 0 0
-0.468 -0.125 0.974 0 0 0
0.037 -0.209 0.363 255 255 255
0.039 0.48 0.899 255 255 255
-0.07 -0.206 0.324 255 255 255
0.176 0.344 1.021 255 255 255
-0.044 0.407 0.907 0 0 0
0.609 0.232 1.248 255 255 255
-0.064 0.088 1.065 255 255 255
-0.496 -0.08 0.869 255 255 255
0.097 -0.139 1.245 255 255 255
-0.501 0.161 0.862 255 255 255
0.466 0.157 1.227 255 255 255
0.032 0.321 0.98 255 255 255
-0.522 0.148 0.858 255 255 255
0.121 0.196 1.076 255 255 255
-0.45 -0.119 1.025 0 0 0
-0.49 -0.275 1.011 255 255 255
-0.207 -0.264 1.192 255 255 255
-0.168 0.141 0.356 255 255 255
0.081 -0.231 0.396 255 255 255
-0.081 0.164 0.349 0 0 0
0.105 -0.087 1.222 255 255 255
0.15 0.272 1.047 0 0 0
-0.249 0.032 1.024 255 255 255
-0.087 0.022 1.091 255 255 255
-0.13 0.104 0.41 255 255 255
0.236 -0.012 0.353 255 255 255
-0.078 0.15 0.385 255 255 255
0.559 0.208 1.23 255 255 255
-0.043 -0.242 0.35 255 255 255
-0.156 -0.19 0.37 255 255 255
-0.11 0.123 0.394 0 0 0
0.01 -0.126 0.325 255 255 255
0.158 -0.054 0.375 0 0 0
0.11 -0.299 0.406 0 0 0
-0.471 -0.04 0.941 255 255 255
-0.124 0.131 0.366 255 255 255
0.102 -0.16 0.362 255 255 255
0.533 0.353 1.147 255 255 255
-0.032 0.107 1.067 255 255 255
-0.479 0.074 0.915 255 255 255
0.135 -0.103 0.348 255 255 255
-0.175 -0.269 1.194 255 255 255
0.496 0.313 1.155 255 255 255
0.19 -0.217 0.414 255 255 255
0.139 -0.298 0.421 255 255 255
0.345 0.468 1.016 0 0 0
-0.038 0.014 1.115 255 255 255
0.004 0.379 0.938 255 255 255
0.133 -0.038 0.43 255 255 255
-0.015 0.109 1.072 255 255 255
-0.026 -0.13 0.381 255 255 255
-0.123 -0.211 1.169 0 0 0
-0.16 0.099 0.399 255 255 255
-0.564 0.074 0.885 255 255 255
-0.002 0.159 1.053 255 255 255
0.293 -0.133 1.318 0 0 0
0.098 -0.236 0.405 255 255 255
-0.148 0.097 0.409 255 255 255
0.178 0.16 1.116 0 0 0
-0.185 -0.216 0.352 255 255 255
-0.505 -0.354 0.908 255 255 255
0.003 -0.213 0.354 255 255 255
-0.122 0.109 0.445 0 0 0
-0.05 -0.147 0.368 255 255 255
0.233 -0.187 0.409 255 255 255
0.002 -0.143 0.317 255 255 255
0.248 0.237 1.099 255 255 255
-0.304 -0.029 1.039 255 255 255
0.195 -0.221 0.412 255 255 255
-0.49 0.134 0.879 255 255 255
0.421 0.153 1.2 255 255 255
0.234 0.43 0.994 255 255 255
0.6 0.295 1.208 255 255 255
-0.462 0.064 0.927 255 255 255
0.146 0.087 1.144 255 255 255
-0.365 -0.202 1.068 0 0 0
0.067 0.443 0.929 0 0 0
0.672 0.189 1.317 255 255 255
0.029 -0.118 0.36 255 255 255
0.067 -0.1 0.358 255 255 255
0.058 0.359 0.969 255 255 255
-0.524 -0.362 0.9 255 255 255
0.424 0.009 1.29 255 255 255
0.595 0.068 1.333 255 255 255
-0.098 -0.181 0.352 255 255 255
-0.087 0.156 0.357 255 255 255
0.002 0.42 0.917 0 0 0
-0.487 -0.002 0.954 255 255 255
-0.08 -0.22 0.324 255 255 255
0.469 0.241 1.174 255 255 255
-0.079 -0.145 0.384 255 255 255
-0.179 0.124 0.371 255 255 255
-0.356 -0.04 1.024 255 255 255
-0.014 0.318 0.964 0 0 0
0.272 0.326 1.061 255 255 255
-0.403 0.118 0.923 255 255 255
0.127 -0.316 0.419 255 255 255
-0.105 0.165 0.339 255 255 255
0.337 -0.063 1.298 255 255 255
-0.423 -0.076 1.016 255 255 255
0.323 0.028 1.242 255 255 255
0.064 -0.102 0.356 255 255 255
0.173 -0.085 0.349 255 255 255
0.59 0.032 1.353 255 255 255
0.401 0.062 1.251 0 0 0
0.092 -0.309 0.403 255 255 255
0.406 0.138 1.213 255 255 255
0.319 0.535 0.97 255 255 255
0.338 0.173 1.167 255 255 255
0.39 0.294 1.122 255 255 255
-0.514 -0.076 0.868 255 255 255
-0.49 -0.437 0.946 255 255 255
0.132 -0.324 0.422 255 255 255
0.245 -0.017 0.345 255 255 255
0.27 -0.004 1.24 255 255 255
-0.172 0.107 0.384 255 255 255
-0.03 -0.147 0.317 255 255 255
0.446 0.381 1.096 255 255 255
-0.193 -0.199 0.369 255 255 255
-0.005 -0.129 1.203 255 255 255
-0.064 -0.138 0.388 255 255 255
-0.02 -0.153 0.316 255 255 255
-0.424 0.017 0.966 0 0 0
0.21 -0.03 0.337 255 255 255
0.39 0.432 1.053 255 255 255
-0.098 0.13 0.413 255 255 255
-0.192 -0.161 1.147 255 255 255
0.321 0.477 1.002 255 255 255
0.082 -0.092 0.36 255 255 255
-0.32 -0.412 1.227 255 255 255
-0.088 -0.146 0.392 255 255 255
-0.037 -0.196 0.331 255 255 255
0.122 0.1 1.128 255 255 255
0.051 -0.112 0.326 255 255 255
0.181 -0.23 0.412 255 255 255
-0.229 -0.177 1.137 0 0 0
0.169 -0.234 0.41 255 255 255
-0.118 -0.188 0.308 255 255 255
-0.029 0.476 0.879 255 255 255
-0.063 0.163 0.379 255 255 255
0.234 0.386 1.019 255 255 255
0.026 -0.272 1.289 255 255 255
0.082 0.163 1.078 255 255 255
0.249 0.245 1.094 255 255 255
0.251 -0.181 0.41 255 255 255
0.212 -0.222 0.418 255 255 255
-0.121 -0.127 1.158 255 255 255
0.214 -0.049 1.243 255 255 255
0.147 -0.058 0.336 255 255 255
-0.247 -0.19 1.144 255 255 255
-0.097 -0.168 0.368 255 255 255
0.055 0.436 0.926 0 0 0
-0.088 0.169 0.343 255 255 255
0.02 -0.206 0.355 255 255 255
0.062 0.085 1.116 255 255 255
0.178 0.438 0.971 0 0 0
-0.08 0.147 0.389 255 255 255
-0.223 0.084 1.008 255 255 255
0.177 -0.046 0.336 255 255 255
-0.35 0.025 0.99 255 255 255
-0.078 -0.143 0.387 255 255 255
-0.112 -0.193 0.303 255 255 255
0.148 -0.055 0.377 255 255 255
-0.368 -0.249 1.115 255 255 255
0.03 -0.129 0.32 255 255 255
0.052 -0.186 0.357 255 255 255
0.126 -0.109 1.242 255 255 255
0.113 -0.077 0.33 255 255 255
0.091 0.153 1.088 255 255 255
-0.502 -0.201 1 255 255 255
0.083 -0.158 0.354 255 255 255
-0.193 0.099 0.393 0 0 0
0.212 -0.071 0.356 255 255 255
0.189 -0.336 0.444 255 255 255
-0.143 -0.104 1.134 0 0 0
-0.535 -0.018 0.918 0 0 0
0.003 -0.215 0.354 255 255 255
-0.012 -0.26 0.373 255 255 255
-0.488 -0.203 0.987 255 255 255
-0.108 -0.187 0.351 255 255 255
0.569 0.4 1.141 255 255 255
-0.08 -0.201 1.208 255 255 255
0.17 -0.046 0.347 255 255 255
-0.627 0.003 0.896 255 255 255
0.222 -0.179 0.407 255 255 255
-0.16 0.15 0.353 255 255 255
0.38 0.222 1.157 0 0 0
0.149 -0.31 0.423 0 0 0
0.19 0.484 0.951 255 255 255
0.341 0.279 1.111 0 0 0
0.096 -0.307 0.403 255 255 255
-0.433 -0.279 1.107 255 255 255
0.045 -0.092 0.386 255 255 255
-0.115 0.139 0.361 255 255 255
0.117 -0.155 0.366 255 255 255
-0.064 -0.207 0.325 255 255 255
-0.169 0.208 0.963 255 255 255
-0.051 0.362 0.928 255 255 255
0.449 0.398 1.078 255 255 255
0.249 0.018 0.425 255 255 255
0.045 0.468 0.907 255 255 255
0.219 0.483 0.907 255 255 255
0.058 0.385 0.952 255 255 255
-0.112 0.133 0.374 255 255 255
0.224 -0.08 0.365 255 255 255
-0.042 -0.225 0.341 255 255 255
0.121 -0.288 0.412 255 255 255
0.485 0.136 1.247 255 255 255
-0.346 -0.014 1.015 255 255 255
-0.132 0.172 0.335 255 255 255
-0.336 0.045 0.985 255 255 255
0.142 -0.045 0.392 255 255 255
0.083 0.195 1.062 255 255 255
0.156 -0.158 1.278 255 255 255
-0.118 0.167 0.336 255 255 255
0.06 0.257 1.02 255 255 255
0.101 -0.113 1.233 255 255 255
0.109 -0.072 0.376 255 255 255
-0.017 -0.069 1.167 255 255 255
-0.012 -0.109 0.4 255 255 255
0.241 -0.011 0.366 255 255 255
0.37 0.081 1.231 255 255 255
-0.068 -0.16 0.362 255 255 255
-0.091 -0.184 0.307 255 255 255
-0.462 0.043 0.938 255 255 255
0.239 0.286 1.073 255 255 255
0.311 0.254 1.113 255 255 255
0.185 -0.101 0.363 255 255 255
-0.179 -0.289 1.216 0 0 0
0.136 -0.263 0.411 255 255 255
0.061 -0.262 0.405 255 255 255
-0.088 0.156 0.356 255 255 255
0.013 -0.16 0.328 255 255 255
-0.061 0.167 0.38 255 255 255
-0.048 -0.129 0.395 255 255 255
-0.417 -0.245 1.012 255 255 255
0.265 -0.056 1.265 255 255 255
0.464 0.074 1.271 255 255 255
-0.117 -0.172 0.376 255 255 255
-0.272 0.083 0.988 255 255 255
-0.133 -0.197 0.348 255 255 255
0.261 -0.137 1.309 0 0 0
0.631 0.277 1.231 255 255 255
0.772 0.129 1.366 255 255 255
0.054 -0.078 0.439 255 255 255
0.297 0.186 1.145 255 255 255
0.012 -0.235 0.37 255 255 255
0.139 -0.138 0.364 255 255 255
0.475 0.138 1.243 255 255 255
0.205 0.215 1.097 255 255 255
0.024 -0.119 0.323 255 255 255
-0.39 -0.106 1.045 255 255 255
-0.473 0 0.96 255 255 255
-0.186 -0.199 1.176 255 255 255
0.53 -0.013 1.352 0 0 0
0.113 -0.318 0.415 255 255 255
-0.43 -0.267 0.884 255 255 255
0.19 -0.017 0.438 255 255 255
0.143 0.419 0.968 255 255 255
-0.051 -0.243 1.209 0 0 0
0.557 -0.011 1.35 0 0 0
0.011 -0.097 0.399 255 255 255
0.345 0.472 1.014 0 0 0
-0.148 0.287 0.931 255 255 255
0.167 -0.094 0.352 255 255 255
0.418 0.107 1.227 255 255 255
-0.328 0.138 0.944 255 255 255
-0.429 -0.283 0.972 255 255 255
0.512 0.012 1.329 255 255 255
-0.284 -0.144 1.105 255 255 255
0.006 -0.101 0.429 255 255 255
-0.059 0.416 0.896 0 0 0
-0.139 -0.183 0.37 255 255 255
-0.169 -0.256 1.203 0 0 0
-0.287 -0.354 1.21 255 255 255
0.392 0.029 1.268 255 255 255
-0.228 -0.034 1.066 255 255 255
0.158 -0.053 0.338 255 255 255
0.228 0.267 1.079 255 255 255
-0.07 -0.254 1.239 0 0 0
0.655 0.076 1.35 255 255 255
-0.051 -0.266 1.257 255 255 255
-0.11 0.128 0.385 0 0 0
-0.091 0.137 0.392 0 0 0
-0.022 0.304 0.967 255 255 255
-0.128 0.145 1.01 255 255 255
-0.195 0.114 0.385 255 255 255
0.08 -0.124 0.335 255 255 255
-0.059 -0.145 0.375 255 255 255
0.038 -0.091 0.398 255 255 255
-0.076 -0.165 0.359 255 255 255
-0.482 0.176 0.863 255 255 255
-0.133 0.106 0.401 255 255 255
0.173 -0.129 1.27 255 255 255
0.361 -0.058 1.303 255 255 255
0.441 0.076 1.264 255 255 255
-0.286 -0.047 1.055 255 255 255
-0.267 -0.014 1.043 255 255 255
0.197 0.386 1.005 0 0 0
0.373 0.315 1.104 255 255 255
-0.087 0.141 0.387 255 255 255
0.216 -0.025 0.385 0 0 0
0.109 -0.073 0.376 255 255 255
0.242 0.016 0.423 255 255 255
0.044 -0.11 0.324 255 255 255
0.082 -0.023 1.178 255 255 255
-0.162 -0.213 0.345 255 255 255
-0.536 -0.058 0.881 255 255 255
0.254 0.027 0.427 255 255 255
0.073 -0.093 0.33 255 255 255
-0.095 0.179 0.333 255 255 255
0.246 -0.2 0.415 255 255 255
-0.032 0.289 0.972 255 255 255
0.764 0.13 1.37 255 255 255
-0.069 -0.298 1.262 255 255 255
0.1 0.097 1.121 255 255 255
-0.396 -0.406 0.973 255 255 255
0.319 0.149 1.173 255 255 255
-0.188 0.27 0.924 255 255 255
-0.541 0.039 0.91 255 255 255
0.028 -0.17 0.34 255 255 255
0.125 -0.067 0.337 255 255 255
-0.121 0.1 1.038 255 255 255
0.023 -0.177 0.34 255 255 255
-0.67 -0.039 0.887 255 255 255
0.254 0.014 0.413 255 255 255
-0.072 0.178 1.016 255 255 255
0.489 0.439 1.088 255 255 255
0.184 0.202 1.094 255 255 255
0.055 0.01 1.151 255 255 255
0.386 0.33 1.103 255 255 255
0.049 -0.09 0.388 255 255 255
-0.095 0.142 0.377 255 255 255
0.395 0.171 1.192 255 255 255
-0.224 0.111 0.992 0 0 0
0.098 -0.067 0.392 255 255 255
0.258 -0.071 1.269 255 255 255
0.764 0.203 1.26 255 255 255
-0.197 0.096 0.4 0 0 0
-0.125 0.12 0.379 0 0 0
0.187 -0.252 0.417 255 255 255
0.214 -0.079 0.364 255 255 255
-0.123 -0.193 0.348 255 255 255
0.161 0.307 1.033 255 255 255
-0.047 0.349 0.937 255 255 255
-0.474 0.197 0.853 255 255 255
0.2 -0.211 0.412 255 255 255
-0.153 0.299 0.937 255 255 255
-0.44 0.15 0.889 0 0 0
-0.174 0.079 0.423 0 0 0
-0.472 -0.283 1.01 255 255 255
-0.632 0.025 0.88 255 255 255
0.142 0.405 0.974 255 255 255
0.038 -0.129 0.326 255 255 255
-0.429 -0.285 1.103 0 0 0
-0.144 0.039 1.06 255 255 255
-0.081 0.17 0.341 255 255 255
-0.349 -0.111 1.057 255 255 255
0.022 -0.103 0.486 255 255 255
0.21 -0.07 0.355 255 255 255
-0.092 -0.27 1.228 0 0 0
0.194 -0.17 0.405 255 255 255
0.364 0.293 1.113 255 255 255
-0.15 -0.177 0.413 255 255 255
-0.006 0.403 0.923 255 255 255
-0.005 -0.289 0.39 0 0 0
-0.105 0.344 0.916 255 255 255
-0.082 0.157 0.358 255 255 255
-0.073 -0.201 1.213 255 255 255
-0.006 -0.137 0.341 255 255 255
-0.084 0.16 1.019 255 255 255
0.234 0.075 1.185 255 255 255
-0.411 -0.149 1.011 0 0 0
0.136 -0.064 0.367 255 255 255
0.045 -0.098 0.379 255 255 255
0.503 0.265 1.179 255 255 255
0.303 0.333 1.071 255 255 255
0.151 0.46 0.949 255 255 255
-0.563 0.098 0.87 255 255 255
-0.519 -0.053 0.94 0 0 0
0.03 0.148 1.067 255 255 255
0.228 -0.004 0.398 255 255 255
-0.085 -0.175 0.309 255 255 255
-0.008 0.291 0.979 255 255 255
-0.006 -0.136 0.32 255 255 255
-0.111 -0.152 1.171 255 255 255
-0.05 -0.052 1.145 0 0 0
-0.147 0.154 1 255 255 255
0.077 0.352 0.979 255 255 255
-0.234 0.105 0.991 0 0 0
0.129 0.087 1.138 255 255 255
-0.06 0.173 0.354 255 255 255
0.071 -0.069 0.397 255 255 255
-0.547 -0.487 0.981 255 255 255
0.284 0.289 1.086 255 255 255
0.642 0.272 1.241 255 255 255
0.015 -0.227 0.365 255 255 255
-0.085 0.269 0.961 0 0 0
-0.437 0.08 0.927 0 0 0
-0.193 0.139 0.992 255 255 255
0.114 -0.076 0.352 255 255 255
-0.388 -0.111 1.047 255 255 255
-0.444 -0.244 0.998 255 255 255
0.319 -0.084 1.301 255 255 255
0.321 0.199 1.148 255 255 255
0.128 -0.193 0.392 255 255 255
0.18 -0.106 0.364 255 255 255
0.339 0.371 1.062 255 255 255
-0.516 0.141 0.866 255 255 255
0.084 0.218 1.048 0 0 0
-0.297 0.087 0.977 0 0 0
-0.348 -0.426 1.205 255 255 255
-0.065 -0.18 1.204 255 255 255
0.163 -0.262 0.417 255 255 255
-0.006 0.257 0.996 255 255 255
-0.144 0.152 0.351 255 255 255
0.194 0.506 0.941 255 255 255
0.18 -0.04 0.408 255 255 255
-0.465 -0.299 0.907 255 255 255
0.1 -0.129 0.346 255 255 255
-0.073 0.133 1.039 255 255 255
0.1 0.294 1.018 255 255 255
0.284 0.033 0.423 255 255 255
0.179 0.21 1.089 255 255 255
0.134 -0.142 0.366 255 255 255
-0.243 0.05 1.017 255 255 255
0.41 0.121 1.218 255 255 255
0.012 0.318 0.972 255 255 255
-0.126 0.187 0.326 255 255 255
0.17 -0.049 0.337 255 255 255
-0.166 0.305 0.915 255 255 255
-0.131 0.125 0.373 255 255 255
0.026 0.294 0.99 255 255 255
-0.154 0.139 0.356 0 0 0
-0.167 0.14 0.361 255 255 255
0.152 0.308 1.03 255 255 255
-0.124 0.125 0.507 255 255 255
-0.387 0.067 0.956 255 255 255
-0.485 -0.426 0.943 255 255 255
-0.423 -0.304 1.011 255 255 255
-0.386 0.089 0.942 255 255 255
-0.308 -0.046 1.045 255 255 255
0.076 -0.219 0.386 255 255 255
-0.357 0.013 0.995 255 255 255
0.009 -0.261 0.382 255 255 255
0.22 0.32 1.049 255 255 255
-0.281 0.114 0.97 255 255 255
0.107 -0.182 0.377 255 255 255
0.396 0.119 1.218 255 255 255
-0.235 -0.04 1.068 255 255 255
-0.584 0.005 0.911 255 255 255
0.399 0.332 1.105 255 255 255
-0.567 -0.006 0.92 0 0 0
-0.522 0.124 0.87 255 255 255
-0.082 0.174 0.341 255 255 255
0.045 0.136 1.079 255 255 255
-0.019 -0.111 1.187 255 255 255
-0.296 -0.047 1.051 255 255 255
0.021 -0.228 0.369 255 255 255
0.064 -0.271 0.408 255 255 255
0.117 -0.055 0.395 255 255 255
-0.353 -0.162 0.559 255 255 255
-0.429 0.087 0.923 255 255 255
0.346 0.085 1.22 255 255 255
-0.092 0.152 0.359 255 255 255
-0.182 0.105 0.387 255 255 255
-0.019 -0.052 1.156 255 255 255
-0.025 -0.117 0.415 255 255 255
-0.476 -0.133 0.971 255 255 255
0.147 -0.045 0.391 255 255 255
0.438 0.51 1.03 255 255 255
-0.122 0.197 0.984 255 255 255
0.237 -0.198 0.415 255 255 255
0.209 -0.234 0.42 255 255 255
0.176 0.382 0.998 255 255 255
-0.487 0.181 0.858 255 255 255
-0.014 0.433 0.905 0 0 0
0.665 0.3 1.237 255 255 255
0.215 -0.016 0.397 255 255 255
0.097 -0.071 0.389 255 255 255
-0.339 0.118 0.946 255 255 255
-0.345 -0.002 1.007 255 255 255
0.487 0.219 1.201 255 255 255
0.145 -0.064 0.333 255 255 255
-0.082 0.15 0.371 255 255 255
-0.071 -0.152 0.374 255 255 255
-0.093 0.133 1.033 255 255 255
0.08 0.224 1.046 0 0 0
-0.14 0.121 0.371 255 255 255
0.276 0.378 1.037 255 255 255
0.16 0.378 0.995 255 255 255
0.098 -0.214 0.391 255 255 255
-0.439 -0.114 0.676 255 255 255
0.054 0.249 1.023 255 255 255
0.131 -0.193 1.286 255 255 255
-0.104 0.115 1.037 255 255 255
0.171 0.045 1.175 255 255 255
0.195 0.222 1.089 255 255 255
-0.329 -0.089 1.059 255 255 255
0.187 0.137 1.131 255 255 255
-0.42 0.134 0.906 255 255 255
0.009 -0.114 1.202 255 255 255
-0.115 -0.19 0.345 255 255 255
0.151 -0.238 0.41 255 255 255
-0.053 -0.16 0.35 255 255 255
0.059 0.439 0.927 0 0 0
0.403 0.095 1.233 255 255 255
-0.574 -0.014 0.924 0 0 0
-0.095 -0.185 0.307 255 255 255
-0.091 0.165 0.344 0 0 0
-0.018 -0.231 0.355 255 255 255
0.072 -0.158 0.349 255 255 255
0.233 0.34 1.044 255 255 255
-0.24 -0.085 1.089 0 0 0
-0.001 -0.134 0.334 255 255 255
-0.061 -0.178 1.205 255 255 255
-0.451 0.043 0.944 255 255 255
-0.52 -0.361 0.911 255 255 255
-0.147 0.09 0.431 255 255 255
0.165 -0.112 0.36 255 255 255
0.036 -0.287 0.406 255 255 255
0.399 0.042 1.264 255 255 255
-0.061 -0.035 1.131 0 0 0
-0.379 0.017 0.983 255 255 255
0.162 -0.053 0.336 255 255 255
0.052 -0.105 0.326 255 255 255
-0.034 -0.121 0.421 255 255 255
-0.141 -0.215 0.297 0 0 0
0.02 0.361 0.953 255 255 255
0.279 -0.015 1.248 255 255 255
-0.074 0.165 0.356 0 0 0
-0.109 0.142 0.361 0 0 0
-0.123 0.311 0.925 255 255 255
0.156 -0.126 1.261 255 255 255
-0.076 0.426 0.885 0 0 0
0.079 -0.158 0.353 255 255 255
-0.137 0.107 0.394 255 255 255
0.179 -0.27 0.413 255 255 255
-0.529 -0.154 0.966 255 255 255
-0.652 -0.049 0.9 255 255 255
0.078 -0.093 0.328 255 255 255
-0.538 -0.36 0.908 255 255 255
-0.29 0.049 0.999 255 255 255
-0.068 0.157 0.376 255 255 255
-0.056 0.007 1.111 255 255 255
-0.12 0.164 0.335 255 255 255
0.003 -0.142 0.318 255 255 255
-0.186 -0.209 0.361 255 255 255
-0.625 -0.006 0.897 255 255 255
-0.066 0.027 1.097 255 255 255
0.281 0.243 1.11 255 255 255
-0.024 0.282 0.978 255 255 255
0.116 -0.077 0.33 255 255 255
0.026 -0.118 0.368 255 255 255
-0.173 0.241 0.945 255 255 255
0.033 -0.22 1.266 255 255 255
-0.389 0.136 0.934 255 255 255
-0.205 -0.204 0.375 255 255 255
-0.403 -0.068 1.019 0 0 0
-0.32 0.015 1.006 255 255 255
0.117 -0.072 0.37 0 0 0
-0.332 -0.317 1.171 255 255 255
-0.614 -0.043 0.924 255 255 255
-0.447 -0.244 0.999 255 255 255
0.424 0.432 1.059 255 255 255
-0.11 0.119 0.399 255 255 255
0.109 -0.22 0.4 255 255 255
-0.266 -0.408 1.249 255 255 255
-0.307 -0.053 1.05 255 255 255
-0.118 0.118 0.391 0 0 0
-0.044 -0.205 0.331 255 255 255
0.607 0.316 1.201 255 255 255
0.083 -0.137 0.344 255 255 255
0.396 0.459 1.042 0 0 0
0.027 0.453 0.906 255 255 255
0.162 -0.031 0.435 255 255 255
-0.027 -0.013 1.132 255 255 255
-0.038 -0.195 0.331 255 255 255
0.03 0.283 0.997 255 255 255
0.181 -0.278 0.416 255 255 255
0.07 -0.159 0.35 255 255 255
0.198 0.036 1.189 255 255 255
0.198 0.401 0.996 255 255 255
0.448 0.423 1.077 255 255 255
-0.546 0 0.911 0 0 0
0.055 -0.086 0.387 255 255 255
0.176 0.499 0.938 255 255 255
-0.188 -0.221 0.348 255 255 255
-0.432 -0.189 1.058 255 255 255
-0.172 -0.175 1.164 255 255 255
0.16 -0.189 1.289 0 0 0
0.127 -0.07 0.368 255 255 255
0.061 0.191 1.055 255 255 255
-0.454 -0.061 0.959 255 255 255
0.07 -0.183 0.363 255 255 255
0.378 0.255 1.139 255 255 255
-0.283 0.119 0.965 255 255 255
-0.008 0.239 1.006 255 255 255
-0.103 0.176 0.332 255 255 255
-0.34 0.134 0.943 255 255 255
0.054 -0.183 0.356 255 255 255
0.498 0.33 1.148 255 255 255
0.467 0.393 1.098 255 255 255
0.107 -0.15 0.359 255 255 255
-0.037 0.194 0.367 255 255 255
0.441 0.311 1.118 255 255 255
-0.031 0.244 0.995 255 255 255
-0.346 -0.389 1.209 255 255 255
0.19 0.381 1.006 0 0 0
-0.115 0.112 0.412 0 0 0
-0.083 0.14 0.399 0 0 0
0.032 0.337 0.97 255 255 255
0.163 -0.094 0.351 255 255 255
-0.135 -0.183 0.367 255 255 255
-0.07 0.377 0.92 255 255 255
-0.114 0.149 1.013 255 255 255
-0.061 0.184 0.334 255 255 255
-0.375 -0.174 0.54 255 255 255
0.033 0.385 0.948 255 255 255
-0.52 -0.314 0.933 255 255 255
-0.011 -0.141 0.35 255 255 255
-0.001 -0.106 0.436 255 255 255
-0.088 0.145 0.374 255 255 255
-0.121 0.256 0.954 255 255 255
-0.415 0.058 0.948 255 255 255
-0.113 0.162 0.34 0 0 0
0.178 -0.226 0.411 255 255 255
0.06 -0.109 0.327 255 255 255
0.058 0.143 1.08 255 255 255
0.2 -0.033 0.34 255 255 255
0.215 -0.215 0.417 255 255 255
-0.214 -0.019 1.063 255 255 255
-0.06 0.174 0.35 255 255 255
0.032 -0.116 0.367 255 255 255
-0.113 0.137 0.367 255 255 255
0.215 -0.012 0.386 255 255 255
-0.096 0.144 0.37 255 255 255
0.009 -0.112 0.383 255 255 255
-0.171 0.109 0.381 0 0 0
0.146 -0.057 0.346 255 255 255
-0.125 0.318 0.929 255 255 255
-0.418 -0.297 1.133 255 255 255
0.374 0.438 1.041 255 255 255
-0.139 0.1 1.03 255 255 255
-0.079 0.255 0.971 255 255 255
0.068 -0.268 0.409 255 255 255
0.214 -0.021 0.348 255 255 255
0.186 -0.095 0.36 255 255 255
-0.128 0.146 0.353 255 255 255
-0.002 0.36 0.944 255 255 255
0.046 -0.136 1.224 255 255 255
0.093 0.322 1.002 255 255 255
0.253 0.267 1.086 255 255 255
0.703 0.198 1.31 255 255 255
-0.554 -0.411 0.929 255 255 255
0.169 0.389 0.993 255 255 255
-0.494 0.037 0.927 255 255 255
0.418 0.161 1.206 255 255 255
-0.161 -0.184 0.372 255 255 255
0.008 -0.124 0.369 255 255 255
0.004 0.316 0.971 255 255 255
0.141 -0.234 0.418 255 255 255
0.077 -0.081 0.383 255 255 255
-0.379 -0.161 1.018 255 255 255
-0.19 0.003 1.061 255 255 255
0.019 -0.237 0.374 255 255 255
0.741 0.146 1.366 255 255 255
-0.051 0.227 0.999 255 255 255
0.072 -0.257 0.406 255 255 255
0.487 0.146 1.244 255 255 255
-0.637 -0.1 0.915 255 255 255
-0.052 -0.227 0.338 255 255 255
0.151 0.452 0.953 0 0 0
-0.446 -0.242 1.007 255 255 255
-0.02 -0.265 0.373 255 255 255
-0.085 0.174 0.341 255 255 255
-0.393 -0.379 1.004 255 255 255
0.134 -0.32 0.422 255 255 255
0.427 0.446 1.054 255 255 255
-0.112 0.149 0.351 255 255 255
-0.002 -0.137 0.346 255 255 255
-0.164 0.079 0.431 255 255 255
-0.53 0.091 0.885 255 255 255
-0.363 -0.258 1.128 0 0 0
-0.519 -0.214 0.954 255 255 255
0.061 -0.173 0.354 255 255 255
-0.089 -0.176 0.35 255 255 255
-0.022 -0.183 1.223 255 255 255
0.166 -0.121 0.367 255 255 255
0.134 -0.13 0.356 255 255 255
-0.086 0.222 0.986 255 255 255
-0.026 -0.103 1.179 255 255 255
0.004 0.174 1.044 255 255 255
0.035 0.225 1.028 255 255 255
0.037 -0.086 0.433 255 255 255
0.111 0.266 1.035 255 255 255
-0.348 0.126 0.941 255 255 255
0.076 0.29 1.012 255 255 255
-0.469 -0.176 1.046 255 255 255
-0.143 -0.332 1.245 255 255 255
0.756 0.205 1.276 255 255 255
0.067 0.225 1.039 255 255 255
-0.215 -0.122 1.12 255 255 255
0.193 -0.088 0.36 255 255 255
0.023 -0.109 0.377 255 255 255
-0.197 -0.37 1.26 255 255 255
-0.094 -0.179 1.194 255 255 255
-0.114 0.18 0.327 255 255 255
-0.102 0.394 0.892 0 0 0
0.063 -0.071 0.402 255 255 255
-0.177 0.266 0.934 255 255 255
-0.058 -0.233 0.339 255 255 255
0.012 -0.24 0.37 255 255 255
-0.351 -0.373 1.2 255 255 255
0.149 -0.064 0.333 255 255 255
-0.579 0.021 0.903 255 255 255
0.083 -0.105 0.327 255 255 255
0.206 -0.037 0.341 255 255 255
-0.488 0.172 0.861 255 255 255
0 -0.135 0.34 255 255 255
-0.355 -0.11 1.053 0 0 0
-0.259 0.135 0.967 255 255 255
-0.06 -0.166 0.309 255 255 255
0.135 -0.066 0.357 255 255 255
-0.069 -0.008 1.113 255 255 255
0.125 -0.249 0.418 0 0 0
-0.001 -0.136 0.348 255 255 255
0.159 0.182 1.098 255 255 255
-0.084 0.15 0.365 255 255 255
-0.278 -0.407 1.244 255 255 255
-0.213 0.034 1.037 255 255 255
0.239 0.194 1.118 255 255 255
-0.026 -0.25 0.362 255 255 255
-0.017 -0.183 1.225 255 255 255
-0.236 -0.133 1.117 255 255 255
0.186 -0.051 0.336 255 255 255
-0.164 0.093 0.408 255 255 255
0.45 0.374 1.1 255 255 255
-0.421 -0.272 1.119 255 255 255
0.157 -0.055 0.336 255 255 255
-0.145 -0.2 0.351 255 255 255
0.039 -0.113 0.322 255 255 255
-0.442 -0.25 1.008 255 255 255
0.224 -0.092 0.371 255 255 255
-0.4 -0.052 1.012 255 255 255
0.004 0.167 1.051 255 255 255
0.184 -0.275 0.415 255 255 255
0.066 -0.145 0.341 255 255 255
0.451 0.043 1.283 255 255 255
0.297 -0.072 1.277 255 255 255
0.447 0.187 1.203 255 255 255
0.521 -0.032 1.323 0 0 0
0.414 0.027 1.277 255 255 255
-0.148 0.206 0.971 255 255 255
0.222 -0.019 0.354 255 255 255
0.073 -0.213 0.381 255 255 255
-0.155 -0.194 0.363 255 255 255
-0.082 0.317 0.94 255 255 255
-0.033 -0.246 0.355 255 255 255
-0.495 -0.197 1.003 255 255 255
-0.157 0.183 0.979 255 255 255
-0.049 -0.234 0.345 255 255 255
-0.106 -0.161 0.379 255 255 255
-0.439 -0.279 0.88 255 255 255
0.164 0.451 0.959 0 0 0
0.777 0.126 1.361 255 255 255
-0.065 0.162 0.372 255 255 255
-0.422 0.138 0.904 255 255 255
0.169 -0.173 0.397 255 255 255
0.18 0.221 1.085 255 255 255
-0.344 -0.066 1.042 255 255 255
-0.013 0.099 1.08 255 255 255
0.258 0.325 1.059 255 255 255
0.106 -0.12 0.345 255 255 255
0.04 -0.09 0.398 255 255 255
0.126 0.301 1.024 255 255 255
0.245 0.136 1.153 255 255 255
0.11 -0.056 0.4 255 255 255
0.523 0.256 1.195 255 255 255
0.082 0.392 0.961 255 255 255
-0.016 0.33 0.957 255 255 255
-0.095 0.193 0.997 255 255 255
-0.313 -0.107 1.074 0 0 0
-0.147 0.059 1.049 255 255 255
0.144 0.244 1.058 255 255 255
-0.016 0.467 0.888 255 255 255
-0.131 -0.196 0.304 255 255 255
0.173 -0.058 0.335 255 255 255
-0.157 0.134 0.359 255 255 255
-0.284 0.04 1.008 255 255 255
-0.097 0.232 0.975 255 255 255
0.144 -0.065 0.332 255 255 255
0.179 0.423 0.979 255 255 255
0.051 0.452 0.917 255 255 255
-0.381 0.029 0.976 255 255 255
-0.099 0.143 0.366 255 255 255
-0.255 0.087 0.995 255 255 255
-0.254 -0.153 1.114 0 0 0
-0.117 -0.191 0.348 255 255 255
0.092 0.021 1.157 255 255 255
0.016 0.317 0.974 0 0 0
-0.05 -0.227 0.338 255 255 255
-0.537 0.037 0.912 255 255 255
0.157 -0.164 1.284 255 255 255
-0.286 -0.139 1.101 255 255 255
0.153 0.022 1.183 255 255 255
-0.036 -0.147 0.358 255 255 255
0.407 0.265 1.146 255 255 255
-0.187 -0.223 0.345 255 255 255
-0.43 -0.22 1.089 255 255 255
0.487 0.065 1.287 255 255 255
-0.307 -0.141 1.094 0 0 0
0.197 -0.042 0.4 255 255 255
0.199 -0.197 0.418 255 255 255
-0.102 -0.159 0.444 255 255 255
-0.095 -0.15 0.396 255 255 255
0.114 -0.297 0.406 0 0 0
-0.32 -0.016 1.025 255 255 255
0.094 -0.059 0.401 255 255 255
-0.598 -0.092 0.913 255 255 255
0.296 0.361 1.054 0 0 0
-0.362 -0.268 1.139 255 255 255
0.473 0.143 1.239 255 255 255
0.077 -0.191 0.37 255 255 255
0.18 0.461 0.959 255 255 255
0.126 0.368 0.989 255 255 255
0.081 -0.163 0.356 255 255 255
0.222 -0.03 0.342 255 255 255
0.309 0.266 1.105 255 255 255
0.105 0.003 1.171 255 255 255
-0.056 0.248 0.983 255 255 255
0.012 -0.099 0.421 255 255 255
-0.492 -0.222 1.02 255 255 255
-0.132 0.106 0.468 0 0 0
0.103 -0.053 0.438 255 255 255
-0.044 -0.136 0.383 255 255 255
-0.211 -0.27 1.171 255 255 255
-0.027 0.426 0.9 0 0 0
0.2 -0.268 0.418 255 255 255
-0.027 -0.117 0.398 255 255 255
0.144 -0.058 0.341 0 0 0
-0.103 0.169 0.335 255 255 255
0.68 0.056 1.367 255 255 255
0.223 0.506 0.926 255 255 255
-0.009 -0.138 0.353 255 255 255
-0.038 0.307 0.962 255 255 255
0.005 -0.127 0.366 255 255 255
-0.083 -0.286 1.242 255 255 255
-0.066 0.251 0.979 255 255 255
0.165 -0.333 0.435 255 255 255
0.11 -0.138 0.355 255 255 255
0.174 -0.024 0.438 255 255 255
-0.441 -0.411 0.954 255 255 255
-0.35 -0.055 1.033 255 255 255
-0.262 0.129 0.97 255 255 255
-0.134 -0.057 1.116 255 255 255
0.771 0.157 1.312 255 255 255
0.308 0.367 1.055 255 255 255
0.135 -0.038 0.402 255 255 255
-0.193 0.113 0.383 255 255 255
0.645 0.053 1.364 255 255 255
-0.054 0.086 1.071 255 255 255
-0.237 -0.13 1.115 255 255 255
-0.089 -0.176 0.322 255 255 255
0.187 -0.046 1.232 255 255 255
-0.447 -0.132 1.029 0 0 0
-0.369 -0.153 1.071 0 0 0
0.623 0.123 1.302 0 0 0
0.372 0.298 1.113 0 0 0
0.135 -0.059 0.38 0 0 0
-0.236 -0.354 1.228 255 255 255
0.1 0.149 1.092 255 255 255
-0.143 0.089 0.474 255 255 255
-0.293 -0.242 1.157 255 255 255
-0.171 0.113 0.376 0 0 0
0.774 0.169 1.286 255 255 255
-0.072 0.26 0.973 255 255 255
-0.175 0.104 0.386 255 255 255
-0.289 0.089 0.979 0 0 0
-0.524 -0.049 0.936 255 255 255
0.393 0.14 1.206 255 255 255
-0.037 -0.267 0.365 0 0 0
0.152 0.19 1.091 255 255 255
0.159 -0.053 0.337 255 255 255
0.171 -0.051 0.335 255 255 255
0.272 -0.154 0.417 255 255 255
0.42 0.083 1.249 255 255 255
-0.024 0.347 0.944 255 255 255
-0.373 -0.002 0.997 255 255 255
0.165 0.278 1.05 0 0 0
-0.178 -0.197 0.373 255 255 255
-0.004 -0.137 0.315 255 255 255
0.273 0.406 1.009 255 255 255
0.012 0.369 0.946 255 255 255
-0.116 0 1.092 255 255 255
0.449 0.038 1.286 255 255 255
0.057 -0.205 0.369 255 255 255
0.154 -0.066 0.334 255 255 255
-0.32 -0.19 1.116 255 255 255
0.128 0.299 1.025 255 255 255
-0.456 -0.224 1.076 255 255 255
-0.106 0.173 1.006 255 255 255
0.101 -0.084 0.328 255 255 255
0.553 0.322 1.172 255 255 255
-0.21 -0.327 1.219 255 255 255
-0.15 -0.205 0.307 255 255 255
0.316 0.386 1.046 255 255 255
0.005 -0.211 0.353 255 255 255
-0.086 0.054 1.076 255 255 255
-0.206 -0.015 1.065 255 255 255
-0.019 -0.132 0.374 255 255 255
0.263 0.157 1.147 255 255 255
-0.511 -0.383 0.912 255 255 255
0.376 0.248 1.141 255 255 255
0.077 -0.102 0.322 255 255 255
-0.319 -0.213 1.128 255 255 255
-0.083 0.144 0.394 255 255 255
0.218 -0.225 0.412 255 255 255
-0.502 -0.459 0.96 255 255 255
0.152 -0.228 0.418 255 255 255
-0.005 -0.105 0.399 255 255 255
0.12 0.078 0.294 255 255 255
-0.185 0.216 0.952 255 255 255
-0.173 0.107 0.384 255 255 255
-0.114 0.163 1.007 255 255 255
-0.149 0.319 0.916 255 255 255
0.131 0.474 0.936 255 255 255
-0.066 -0.052 1.139 255 255 255
0.186 -0.078 0.35 255 255 255
0.18 0.32 1.036 255 255 255
-0.002 -0.113 0.388 255 255 255
-0.18 -0.077 1.108 0 0 0
0.017 -0.238 0.372 255 255 255
-0.149 0.155 0.348 0 0 0
-0.377 -0.153 0.564 255 255 255
0.096 0.334 0.996 255 255 255
0.039 -0.232 0.377 255 255 255
0.137 0.314 1.022 255 255 255
0.461 0.087 1.263 255 255 255
0.057 -0.189 0.362 255 255 255
-0.107 0.16 0.345 0 0 0
-0.526 0.092 0.883 0 0 0
0.182 0.176 1.111 255 255 255
-0.079 -0.172 0.308 255 255 255
0.11 0.453 0.939 255 255 255
0.118 -0.316 0.412 255 255 255
-0.377 0.051 0.965 0 0 0
-0.454 -0.256 1.001 255 255 255
-0.117 -0.194 0.304 255 255 255
0.121 -0.077 1.22 255 255 255
-0.119 -0.182 0.361 255 255 255
-0.056 -0.156 0.358 255 255 255
0.411 -0.029 1.31 255 255 255
-0.083 0.144 0.395 255 255 255
-0.183 0.013 1.059 255 255 255
0.006 -0.108 0.393 255 255 255
-0.355 -0.132 1.051 255 255 255
0.153 -0.103 0.353 255 255 255
-0.212 0.228 0.937 255 255 255
-0.071 0.067 1.073 255 255 255
-0.16 -0.242 1.197 255 255 255
-0.042 -0.11 1.176 0 0 0
-0.511 0.015 0.936 255 255 255
-0.054 -0.171 0.312 255 255 255
-0.353 -0.309 1.165 255 255 255
-0.313 0 1.018 255 255 255
-0.111 -0.112 1.152 255 255 255
0.255 -0.179 0.411 255 255 255
0.191 0.464 0.963 255 255 255
0.09 -0.124 0.339 255 255 255
-0.064 0.173 0.346 255 255 255
0.331 0.473 1.008 0 0 0
0.14 -0.065 0.367 255 255 255
0.174 0.073 1.162 255 255 255
0.111 -0.081 0.328 255 255 255
-0.385 0.101 0.938 255 255 255
0.326 0.476 1.004 255 255 255
0.215 0.213 1.1 255 255 255
-0.634 0.025 0.879 255 255 255
-0.1 0.152 0.357 255 255 255
0.32 0.161 1.167 255 255 255
0.35 0.376 1.058 255 255 255
0.391 0.525 1.005 255 255 255
0.402 0.202 1.179 0 0 0
0.208 0.002 0.424 255 255 255
-0.137 0.163 0.998 255 255 255
-0.139 0.094 0.426 255 255 255
0.133 -0.198 0.398 255 255 255
-0.301 -0.387 1.229 255 255 255
0.081 -0.117 1.229 255 255 255
0.248 0.04 1.209 255 255 255
-0.472 -0.12 0.968 0 0 0
-0.495 -0.115 0.975 0 0 0
-0.38 -0.178 1.013 255 255 255
0.367 0.498 1.009 255 255 255
-0.075 0.145 1.033 255 255 255
-0.055 0.173 0.373 0 0 0
0.193 -0.021 0.523 255 255 255
0.233 0.002 0.409 255 255 255
0.023 0.431 0.92 0 0 0
0.214 -0.188 0.42 255 255 255
0.097 -0.132 0.347 255 255 255
-0.102 -0.181 0.353 255 255 255
-0.017 -0.144 0.345 255 255 255
-0.443 -0.419 0.95 255 255 255
0.187 -0.126 0.377 255 255 255
0.204 0.379 1.012 0 0 0
0.094 -0.073 0.385 255 255 255
-0.117 -0.024 1.104 255 255 255
0.166 -0.319 0.431 0 0 0
0.094 0.436 0.942 0 0 0
0.448 0.432 1.074 255 255 255
0.013 -0.098 0.43 255 255 255
0.349 0.121 1.201 255 255 255
0.413 -0.076 1.327 0 0 0
0.179 -0.146 1.279 0 0 0
0.015 -0.236 0.369 255 255 255
0.555 0.135 1.275 255 255 255
-0.023 -0.013 1.133 255 255 255
0.186 -0.256 0.418 255 255 255
-0.061 0.432 0.889 255 255 255
-0.362 -0.192 1.074 0 0 0
0.124 -0.204 1.287 255 255 255
-0.509 0.039 0.918 255 255 255
0.023 0.138 1.072 255 255 255
0.041 -0.154 0.336 255 255 255
-0.139 0.097 0.423 0 0 0
-0.403 -0.368 1.13 255 255 255
0.392 0.147 1.203 255 255 255
-0.315 0.027 1.003 255 255 255
-0.162 0.152 0.353 255 255 255
-0.041 -0.043 1.142 255 255 255
0.082 -0.094 0.328 255 255 255
-0.187 -0.203 0.37 255 255 255
0.213 0.099 1.162 255 255 255
0.019 -0.296 0.404 0 0 0
0.076 -0.194 0.372 255 255 255
-0.156 0.096 0.402 255 255 255
0.58 0.003 1.322 255 255 255
0.028 0.295 0.988 255 255 255
-0.012 -0.132 0.371 255 255 255
0.305 -0.137 1.309 0 0 0
0.005 -0.141 0.318 255 255 255
-0.15 0.113 1.021 255 255 255
0.044 0.36 0.962 255 255 255
-0.425 -0.228 1.093 255 255 255
-0.031 -0.188 0.329 255 255 255
0.053 -0.164 0.346 255 255 255
0.226 -0.017 0.349 255 255 255
0.134 -0.222 0.413 255 255 255
0.235 -0.025 0.343 255 255 255
0.569 0.398 1.141 255 255 255
-0.323 -0.434 1.244 255 255 255
0.057 -0.104 0.358 255 255 255
0.213 -0.244 0.421 255 255 255
-0.104 -0.292 1.243 255 255 255
0.033 -0.099 0.386 255 255 255
-0.609 -0.039 0.925 255 255 255
-0.155 -0.216 0.301 0 0 0
0.543 0.315 1.171 255 255 255
-0.436 -0.26 1.034 255 255 255
0.176 -0.214 0.416 0 0 0
0.006 0.003 1.137 255 255 255
-0.246 -0.147 1.122 0 0 0
0.314 0.026 1.241 255 255 255
-0.175 -0.348 1.252 255 255 255
-0.059 0.035 1.095 255 255 255
-0.146 0.133 0.36 0 0 0
-0.453 -0.214 1.076 255 255 255
-0.111 -0.168 0.376 255 255 255
-0.404 -0.378 1.086 255 255 255
-0.392 -0.12 1.05 255 255 255
0.031 -0.272 1.29 255 255 255
