ply
format ascii 1.0
comment Created by Open3D
element vertex 1594
property double x
property double y
property double z
property uchar red
property uchar green
property uchar blue
end_header
-0.17 0.244 1.001 255 255 255
0.392 -0.379 0.682 255 255 255
0.036 0.28 1.058 255 255 255
0.069 -0.163 0.424 255 255 255
0.116 -0.161 0.439 255 255 255
0.031 0.027 1.222 255 255 255
-0.163 -0.15 0.321 255 255 255
-0.359 0.183 0.966 0 0 0
0.114 -0.257 0.461 255 255 255
-0.143 -0.268 0.404 255 255 255
-0.125 0.188 0.374 255 255 255
-0.393 -0.088 1.131 255 255 255
0.135 -0.282 0.477 255 255 255
0.222 0.495 0.993 255 255 255
-0.106 0.193 0.391 255 255 255
-0.461 -0.091 1.052 255 255 255
0.19 -0.21 0.46 255 255 255
0.201 -0.366 0.474 255 255 255
-0.527 -0.116 1.019 255 255 255
0.27 0.537 0.983 255 255 255
-0.037 -0.085 0.38 255 255 255
-0.024 0.492 0.904 255 255 255
0.107 0.159 1.164 255 255 255
0.161 0.383 1.04 255 255 255
0.047 -0.069 0.353 255 255 255
0.132 -0.056 0.372 255 255 255
0.236 -0.088 0.434 255 255 255
0.205 0.011 0.365 255 255 255
0.241 0.246 1.156 255 255 255
0.164 -0.008 0.359 0 0 0
-0.521 0.066 0.939 255 255 255
-0.13 -0.11 0.389 255 255 255
0.256 -0.031 0.404 0 0 0
0.261 0.168 1.213 255 255 255
-0.509 0.007 1.023 0 0 0
0.351 -0.383 0.688 255 255 255
-0.24 -0.15 0.382 255 255 255
0.415 0.442 1.096 255 255 255
-0.359 0.065 1.047 255 255 255
-0.033 -0.126 0.357 255 255 255
-0.149 0.123 1.091 255 255 255
0.162 -0.351 0.471 0 0 0
-0.243 -0.153 0.379 255 255 255
0.177 -0.07 0.398 255 255 255
0.303 0.285 1.155 255 255 255
-0.52 -0.198 0.916 255 255 255
-0.478 0.223 0.896 0 0 0
0.09 0.27 1.086 255 255 255
-0.097 0.06 1.153 255 255 255
0.631 0.186 1.356 255 255 255
-0.667 -0.184 0.998 255 255 255
-0.32 -0.018 1.112 255 255 255
0.121 0.399 1.012 255 255 255
0.318 -0.152 0.5 255 255 255
-0.169 0.46 0.868 255 255 255
0.31 0.222 1.199 255 255 255
-0.135 -0.251 0.397 255 255 255
-0.041 -0.179 0.385 255 255 255
-0.241 0.346 0.881 255 255 255
0.393 0.571 1.011 255 255 255
0.15 0.015 0.456 255 255 255
-0.038 0.182 1.092 255 255 255
0.117 0.277 1.088 255 255 255
0.233 -0.21 0.476 255 255 255
-0.382 0.055 1.045 255 255 255
-0.283 0.005 1.114 255 255 255
-0.41 0.239 0.913 255 255 255
0.24 -0.028 0.396 255 255 255
-0.069 -0.156 0.36 255 255 255
-0.08 0.486 0.891 255 255 255
0.135 -0.01 0.432 255 255 255
0.231 -0.156 0.442 255 255 255
-0.175 0.198 1.027 255 255 255
-0.214 -0.042 1.171 255 255 255
0.337 0.173 1.24 255 255 255
0.092 -0.242 0.451 0 0 0
0.073 -0.02 1.266 255 255 255
-0.492 -0.243 1.115 255 255 255
-0.136 0.326 0.962 255 255 255
-0.137 -0.203 0.364 255 255 255
0.087 -0.102 0.385 255 255 255
-0.417 0.111 0.994 255 255 255
0.085 -0.164 0.43 255 255 255
-0.15 -0.129 0.372 255 255 255
0.211 -0.365 0.474 255 255 255
-0.589 -0.008 0.939 255 255 255
0.204 -0.377 0.586 255 255 255
-0.052 -0.221 0.408 255 255 255
0.166 -0.076 0.401 255 255 255
-0.443 0.135 0.971 255 255 255
0.02 -0.107 0.361 255 255 255
-0.442 -0.054 1.033 0 0 0
0.049 0.428 0.968 0 0 0
-0.005 0.087 1.168 255 255 255
-0.07 -0.289 0.447 255 255 255
-0.246 0.003 1.128 255 255 255
-0.263 -0.103 1.193 255 255 255
-0.101 -0.194 0.371 0 0 0
-0.411 -0.08 0.579 255 255 255
0.274 -0.133 0.456 255 255 255
-0.028 0.284 1.031 255 255 255
-0.085 -0.109 0.364 255 255 255
-0.117 -0.177 0.354 255 255 255
-0.118 -0.212 0.378 255 255 255
-0.099 -0.264 0.419 255 255 255
-0.035 0.198 1.083 255 255 255
0.143 -0.169 0.45 0 0 0
-0.177 0.16 0.495 255 255 255
-0.16 0.16 0.401 255 255 255
0.264 -0.084 0.442 255 255 255
0.189 -0.354 0.474 0 0 0
-0.192 0.148 0.407 255 255 255
-0.089 -0.173 0.362 255 255 255
-0.206 0.286 0.963 255 255 255
-0.017 -0.089 0.338 255 255 255
0.074 -0.021 0.413 255 255 255
-0.312 0.091 1.049 255 255 255
-0.123 -0.305 0.436 255 255 255
-0.251 0.213 0.992 0 0 0
0.164 0.002 0.419 255 255 255
0.01 -0.055 1.264 255 255 255
0.006 -0.149 0.384 255 255 255
-0.003 0.076 1.179 255 255 255
0.065 -0.251 0.44 255 255 255
-0.052 -0.201 0.396 255 255 255
0.042 -0.027 0.418 255 255 255
-0.121 -0.226 0.386 255 255 255
0.126 -0.219 0.451 255 255 255
0.102 0.268 1.09 255 255 255
0.049 0.175 1.129 255 255 255
-0.372 0.179 0.965 255 255 255
0.164 -0.145 0.444 255 255 255
0.11 -0.181 0.446 255 255 255
-0.099 0.339 0.968 255 255 255
-0.272 0.003 1.12 255 255 255
0.086 -0.235 0.445 255 255 255
-0.045 -0.26 0.44 255 255 255
-0.13 0.424 0.905 0 0 0
-0.006 -0.124 0.364 255 255 255
-0.061 -0.031 1.223 255 255 255
0.037 -0.057 0.388 255 255 255
0.084 0.194 1.131 255 255 255
0.178 -0.242 0.481 255 255 255
0.455 0.465 1.097 255 255 255
-0.441 -0.04 1.08 0 0 0
0.148 -0.299 0.485 255 255 255
-0.528 -0.26 0.972 255 255 255
0.177 -0.245 0.482 255 255 255
-0.247 -0.146 0.387 255 255 255
-0.094 -0.11 0.371 255 255 255
0.053 -0.041 0.398 255 255 255
-0.123 0.183 0.389 0 0 0
0.184 0.245 1.135 255 255 255
-0.041 -0.129 0.354 255 255 255
0.022 -0.274 0.444 255 255 255
0.213 0.499 0.988 255 255 255
-0.037 -0.294 0.444 255 255 255
-0.174 -0.134 0.376 255 255 255
0.179 -0.421 0.594 255 255 255
0.294 0.497 1.017 255 255 255
0.012 0.425 0.956 0 0 0
0.317 0.489 1.03 0 0 0
0.104 -0.089 0.383 255 255 255
-0.217 0.245 0.984 255 255 255
0.153 0.504 0.951 255 255 255
-0.539 0.023 0.955 255 255 255
0.052 -0.223 0.449 0 0 0
0.021 0.282 1.048 255 255 255
0.134 -0.057 0.373 255 255 255
0.129 -0.033 1.295 0 0 0
-0.422 -0.182 1.183 0 0 0
0.51 0.31 1.225 255 255 255
0.138 -0.082 0.391 255 255 255
-0.034 -0.061 0.407 255 255 255
0.51 0.266 1.252 255 255 255
-0.041 -0.092 0.337 255 255 255
-0.192 -0.245 0.375 255 255 255
-0.13 -0.129 0.328 255 255 255
-0.578 0.084 0.936 255 255 255
0.226 0.037 0.428 255 255 255
-0.457 -0.079 1.021 255 255 255
-0.069 0.361 0.969 255 255 255
0.176 -0.162 0.442 255 255 255
0.038 -0.151 0.4 255 255 255
-0.136 0.195 1.047 255 255 255
-0.073 -0.096 0.383 255 255 255
0.289 -0.393 0.634 255 255 255
0.203 0.391 1.051 0 0 0
0.157 0.258 1.119 255 255 255
0.186 0.492 0.976 255 255 255
-0.11 -0.111 0.381 255 255 255
0.173 -0.221 0.47 0 0 0
-0.143 -0.105 0.399 255 255 255
-0.395 0.199 0.943 255 255 255
-0.099 -0.153 0.345 255 255 255
0.051 0.226 1.097 255 255 255
-0.156 0.176 0.372 0 0 0
0.137 -0.412 0.565 0 0 0
-0.074 -0.092 0.39 255 255 255
-0.133 -0.129 0.356 255 255 255
0.377 0.489 1.051 0 0 0
0.216 0.019 1.298 0 0 0
0.153 -0.099 0.409 255 255 255
-0.004 -0.208 0.423 255 255 255
-0.09 0.152 1.094 255 255 255
0.302 0.429 1.052 255 255 255
0.168 0.015 0.42 255 255 255
-0.132 -0.282 0.418 255 255 255
0.102 -0.294 0.473 255 255 255
-0.459 0.206 0.916 255 255 255
-0.114 0.201 0.359 255 255 255
-0.501 0.152 0.936 255 255 255
0.126 -0.019 0.422 0 0 0
0.009 0.01 1.226 255 255 255
0.272 -0.266 0.512 255 255 255
-0.15 -0.101 0.484 255 255 255
-0.026 -0.302 0.441 255 255 255
-0.172 0.426 0.894 0 0 0
-0.181 0.375 0.916 255 255 255
0.04 -0.23 0.449 0 0 0
-0.302 0.234 0.957 255 255 255
0.174 0.522 0.96 255 255 255
-0.112 0.477 0.881 255 255 255
-0.016 0.449 0.929 0 0 0
-0.022 0.239 1.062 255 255 255
-0.184 0.012 1.148 255 255 255
0.164 -0.061 0.388 255 255 255
-0.148 -0.143 0.324 255 255 255
0.278 0.132 1.247 255 255 255
-0.18 -0.016 1.168 255 255 255
0.266 0.065 1.283 255 255 255
-0.563 0.022 0.886 255 255 255
0.348 -0.166 0.521 255 255 255
0.111 0.417 0.999 255 255 255
0.009 -0.325 0.454 255 255 255
-0.449 0.226 0.907 255 255 255
-0.081 -0.31 0.439 255 255 255
-0.379 0.172 0.968 255 255 255
-0.489 0.155 0.936 0 0 0
0.011 -0.062 0.392 255 255 255
-0.107 0.199 0.368 255 255 255
-0.333 0.125 1.02 255 255 255
0.175 -0.364 0.473 255 255 255
-0.036 -0.214 0.411 255 255 255
-0.437 -0.073 1.069 0 0 0
-0.132 0.035 1.154 255 255 255
-0.112 0.033 1.165 0 0 0
-0.187 0.141 0.452 255 255 255
0.418 0.288 1.199 255 255 255
-0.356 0.231 0.938 255 255 255
0.18 -0.225 0.475 0 0 0
-0.015 -0.177 0.394 255 255 255
-0.09 -0.2 0.381 255 255 255
-0.34 0.061 1.058 255 255 255
-0.006 -0.042 0.424 255 255 255
0.07 -0.332 0.48 255 255 255
0.223 0.357 1.082 255 255 255
-0.074 -0.204 0.388 255 255 255
-0.136 0.367 0.935 255 255 255
0.131 -0.358 0.521 255 255 255
0.001 -0.139 0.376 255 255 255
-0.063 -0.283 0.445 255 255 255
-0.021 -0.172 0.387 255 255 255
0.309 -0.055 0.434 255 255 255
0.145 -0.206 0.445 255 255 255
-0.021 -0.136 0.365 255 255 255
0.098 -0.071 0.37 255 255 255
-0.042 0.166 1.103 255 255 255
-0.105 0.334 0.97 255 255 255
-0.025 -0.088 0.34 255 255 255
0.132 0.01 0.457 255 255 255
-0.202 0.233 0.996 255 255 255
-0.144 0.179 0.376 0 0 0
-0.167 -0.295 0.413 255 255 255
-0.41 -0.085 0.582 255 255 255
0.32 0.307 1.13 255 255 255
0.026 -0.126 0.379 255 255 255
-0.154 -0.323 0.434 0 0 0
-0.158 -0.24 0.38 255 255 255
-0.347 -0.13 1.181 255 255 255
-0.443 0.029 1.037 0 0 0
0.68 0.248 1.34 255 255 255
0.444 0.504 1.07 0 0 0
-0.141 -0.106 0.397 255 255 255
0.095 -0.022 0.405 0 0 0
0.19 0.33 1.084 255 255 255
-0.179 -0.199 0.348 255 255 255
0.064 0.303 1.051 255 255 255
-0.127 0.196 0.445 0 0 0
0.252 0.536 0.974 255 255 255
0.02 -0.239 0.446 0 0 0
0.061 -0.068 1.281 255 255 255
0.032 -0.118 0.375 255 255 255
0.463 0.351 1.177 255 255 255
0.189 0.305 1.098 255 255 255
0.137 0.05 1.25 255 255 255
-0.17 0.15 0.447 0 0 0
-0.107 -0.318 0.438 0 0 0
0.692 0.23 1.338 255 255 255
-0.145 -0.299 0.428 255 255 255
0.468 0.301 1.212 255 255 255
0.238 0.02 0.369 255 255 255
0.108 -0.222 0.452 255 255 255
0.026 -0.199 0.428 255 255 255
-0.156 0.336 0.948 255 255 255
-0.284 0.193 0.99 255 255 255
-0.095 -0.105 0.383 255 255 255
0.201 -0.173 0.456 255 255 255
0.215 -0.348 0.479 0 0 0
0.025 -0.215 0.436 255 255 255
-0.049 -0.147 0.361 255 255 255
-0.1 0.2 0.39 255 255 255
-0.522 0.127 0.946 255 255 255
0.182 -0.127 0.442 255 255 255
-0.098 -0.061 1.229 255 255 255
0.224 -0.045 0.401 255 255 255
0.107 -0.201 0.44 255 255 255
0.29 -0.13 0.477 0 0 0
0.239 0.029 0.385 255 255 255
0.02 0.355 1.003 255 255 255
-0.143 0.176 0.381 0 0 0
-0.147 0.166 0.404 255 255 255
-0.052 -0.183 0.384 255 255 255
0.103 0.45 0.973 0 0 0
0.183 -0.058 0.393 255 255 255
-0.127 0.134 1.092 255 255 255
-0.228 0.268 0.964 255 255 255
-0.167 -0.142 0.355 255 255 255
0.193 -0.102 0.427 255 255 255
-0.111 -0.156 0.343 255 255 255
0.045 -0.104 0.37 255 255 255
0.019 -0.17 0.405 255 255 255
-0.34 0.078 1.05 255 255 255
0.356 0.197 1.227 0 0 0
-0.041 -0.091 0.341 255 255 255
-0.073 -0.283 0.44 255 255 255
-0.162 0.313 0.961 255 255 255
-0.149 0.337 0.95 255 255 255
0.009 -0.169 0.4 255 255 255
0.099 -0.11 0.396 255 255 255
-0.077 -0.149 0.353 255 255 255
-0.576 -0.264 0.951 255 255 255
0.273 0.045 0.411 255 255 255
-0.186 -0.16 0.32 255 255 255
0.026 -0.081 0.35 255 255 255
-0.139 -0.218 0.373 255 255 255
-0.373 0.114 1.01 255 255 255
0.358 -0.186 0.539 255 255 255
0.131 -0.085 0.39 255 255 255
0.049 -0.038 0.401 255 255 255
-0.59 0.099 0.912 255 255 255
-0.385 -0.198 1.197 255 255 255
0.159 -0.068 0.39 255 255 255
-0.167 -0.129 1.24 255 255 255
-0.583 -0.01 0.91 255 255 255
-0.197 -0.34 0.423 255 255 255
-0.222 0.357 0.908 255 255 255
0.183 0.003 0.363 255 255 255
-0.356 0.038 1.065 255 255 255
-0.168 0.152 0.447 0 0 0
-0.055 -0.155 0.364 255 255 255
0.093 -0.203 0.439 255 255 255
-0.156 -0.129 0.377 255 255 255
0.211 -0.032 0.388 255 255 255
0.145 -0.186 0.442 255 255 255
-0.024 -0.176 0.39 255 255 255
0.406 0.126 1.301 255 255 255
-0.01 -0.14 0.371 255 255 255
-0.17 0.439 0.88 255 255 255
0.107 -0.065 0.37 255 255 255
0.192 -0.115 0.435 255 255 255
-0.181 0.344 0.935 255 255 255
-0.158 0.391 0.915 255 255 255
-0.064 -0.108 0.333 255 255 255
-0.042 -0.143 0.361 255 255 255
0.221 -0.047 0.401 255 255 255
0.078 0.464 0.958 0 0 0
-0.151 0.182 0.362 255 255 255
0.23 -0.134 0.443 255 255 255
-0.173 -0.334 0.427 0 0 0
0.131 0.375 1.033 255 255 255
-0.097 -0.113 0.364 255 255 255
0.259 0.345 1.1 255 255 255
-0.35 0.233 0.941 255 255 255
-0.622 -0.253 0.922 255 255 255
-0.101 -0.286 0.432 255 255 255
0.209 -0.163 0.454 0 0 0
0.057 -0.111 0.381 255 255 255
-0.022 -0.173 0.389 255 255 255
-0.159 0.157 1.065 255 255 255
-0.169 0.342 0.939 255 255 255
0.194 0.011 0.375 255 255 255
-0.072 -0.245 0.417 255 255 255
-0.199 0.198 1.019 255 255 255
0.008 0.278 1.044 255 255 255
0.443 0.107 1.327 255 255 255
-0.483 -0.041 0.636 255 255 255
-0.238 0.215 0.996 0 0 0
0.026 0.426 0.96 0 0 0
0.366 0.068 1.322 0 0 0
-0.088 0.193 1.065 255 255 255
0.15 -0.107 0.411 255 255 255
0.081 0.212 1.119 255 255 255
-0.03 -0.14 0.363 255 255 255
-0.109 -0.183 0.362 255 255 255
0.08 -0.296 0.468 255 255 255
-0.149 -0.118 0.386 255 255 255
-0.294 -0.176 1.222 255 255 255
-0.506 0.017 0.982 0 0 0
-0.092 0.25 1.026 0 0 0
-0.429 0.073 1.014 255 255 255
-0.327 0.208 0.965 255 255 255
-0.131 -0.332 0.454 0 0 0
-0.047 -0.156 0.365 255 255 255
0.102 0.508 0.939 255 255 255
-0.277 0.149 1.022 255 255 255
-0.144 -0.344 0.466 0 0 0
0.124 -0.37 0.485 255 255 255
0.111 0.422 0.995 255 255 255
-0.071 0.343 0.98 255 255 255
0.102 -0.268 0.457 255 255 255
0.431 0.133 1.307 255 255 255
0.25 0.087 1.266 255 255 255
0.242 -0.119 0.442 255 255 255
0.221 0.026 0.414 255 255 255
-0.534 -0.233 0.936 255 255 255
0.002 -0.152 0.385 255 255 255
0.622 0.306 1.279 255 255 255
-0.139 0.171 0.426 0 0 0
0.033 -0.08 0.351 255 255 255
0.01 -0.036 0.43 255 255 255
-0.042 -0.067 0.405 255 255 255
-0.13 0.179 0.385 0 0 0
0.107 -0.027 0.359 255 255 255
0.288 -0.047 0.421 255 255 255
-0.068 -0.101 0.35 255 255 255
-0.052 0.434 0.927 0 0 0
-0.068 -0.077 0.403 255 255 255
-0.247 0.22 0.989 255 255 255
0.235 -0.072 0.42 255 255 255
0.135 -0.359 0.474 0 0 0
0.075 0.238 1.099 0 0 0
-0.064 -0.207 0.396 255 255 255
-0.161 0.157 0.421 255 255 255
-0.28 -0.142 1.21 0 0 0
-0.018 -0.074 0.39 255 255 255
0.065 -0.06 0.351 255 255 255
0.452 0.321 1.189 255 255 255
-0.301 0.06 1.075 255 255 255
0.127 0.007 0.455 255 255 255
-0.515 -0.162 1.121 0 0 0
0.178 -0.072 0.4 255 255 255
0.401 0.106 1.314 255 255 255
-0.135 0.184 0.37 255 255 255
0.119 -0.084 0.384 255 255 255
-0.418 0.127 0.984 255 255 255
0.28 -0.246 0.503 255 255 255
-0.414 -0.098 1.13 255 255 255
0.041 -0.054 0.39 255 255 255
0.166 0.335 1.072 255 255 255
-0.025 0.377 0.972 255 255 255
0.292 0.032 1.314 0 0 0
0.087 -0.177 0.439 255 255 255
-0.19 0.309 0.952 255 255 255
0.189 -0.394 0.586 255 255 255
-0.198 -0.318 0.418 0 0 0
-0.44 0.131 0.975 255 255 255
0.08 -0.006 0.441 255 255 255
0.184 0.038 0.441 255 255 255
0.069 -0.309 0.469 255 255 255
0.036 -0.026 0.417 255 255 255
-0.107 -0.09 0.403 255 255 255
0.279 -0.08 0.439 0 0 0
-0.087 0.389 0.943 255 255 255
-0.108 0.249 1.02 0 0 0
-0.232 -0.178 1.244 255 255 255
-0.436 0.083 1.007 255 255 255
0.066 -0.042 0.391 255 255 255
0.103 -0.065 0.37 255 255 255
0.041 0.156 1.143 255 255 255
-0.021 0.372 0.976 255 255 255
-0.031 -0.302 0.451 255 255 255
0.185 -0.19 0.446 255 255 255
-0.034 -0.274 0.449 255 255 255
-0.08 -0.088 0.397 255 255 255
0.573 0.252 1.291 255 255 255
-0.119 0.197 0.361 255 255 255
-0.507 0.022 0.975 255 255 255
0.539 0.24 1.285 255 255 255
0.097 0.381 1.016 255 255 255
0.294 0.101 1.275 255 255 255
-0.27 -0.115 1.188 0 0 0
-0.412 -0.079 0.586 255 255 255
-0.118 -0.171 0.349 255 255 255
0.34 0.257 1.19 255 255 255
0.054 -0.221 0.45 0 0 0
0.176 -0.014 0.362 255 255 255
-0.028 0.09 1.158 255 255 255
0.078 -0.106 0.384 255 255 255
-0.001 -0.213 0.425 255 255 255
-0.079 -0.163 0.359 255 255 255
0.699 0.218 1.334 255 255 255
-0.534 0.178 0.905 255 255 255
0.023 -0.124 0.376 255 255 255
-0.104 -0.111 0.379 255 255 255
-0.017 0.318 1.012 255 255 255
-0.111 -0.085 0.422 255 255 255
-0.114 -0.202 0.373 255 255 255
-0.11 0.243 1.021 255 255 255
0.073 -0.071 0.358 255 255 255
-0.133 0.081 1.123 255 255 255
0.037 -0.034 0.411 255 255 255
-0.048 -0.248 0.429 255 255 255
0.005 0.008 1.225 255 255 255
0.245 -0.12 0.441 255 255 255
0.025 0.132 1.153 255 255 255
-0.572 0.054 0.916 0 0 0
-0.06 -0.191 0.385 255 255 255
-0.187 -0.194 0.338 255 255 255
-0.545 0.011 0.749 255 255 255
-0.402 -0.152 1.167 255 255 255
0.117 -0.017 1.284 255 255 255
0.118 -0.032 0.352 255 255 255
-0.177 0.377 0.916 255 255 255
0.129 -0.15 0.438 255 255 255
0.18 0.003 0.365 255 255 255
0.2 0.023 0.418 255 255 255
0.351 0.526 1.018 255 255 255
-0.426 0.065 1.019 255 255 255
-0.387 0.082 1.027 255 255 255
-0.004 0.407 0.963 255 255 255
0.086 -0.11 0.39 255 255 255
0.093 -0.083 0.375 255 255 255
0.17 -0.129 0.436 255 255 255
-0.042 -0.039 1.235 255 255 255
0.019 0.276 1.053 255 255 255
-0.201 0.415 0.885 0 0 0
-0.105 -0.105 0.385 255 255 255
-0.163 -0.111 1.234 255 255 255
-0.116 -0.121 0.334 255 255 255
-0.014 -0.08 0.349 255 255 255
-0.267 0.132 1.038 255 255 255
0.008 -0.081 0.343 255 255 255
-0.027 -0.187 0.396 255 255 255
-0.074 0.175 1.086 255 255 255
0.237 -0.319 0.478 255 255 255
-0.357 0.003 1.085 255 255 255
-0.321 0.111 1.032 255 255 255
-0.235 -0.156 0.372 255 255 255
0.098 -0.083 0.377 255 255 255
0.123 -0.152 0.434 255 255 255
0.176 -0.15 0.446 255 255 255
-0.007 -0.046 0.41 255 255 255
0.12 0.322 1.064 0 0 0
-0.009 -0.137 0.37 255 255 255
-0.094 -0.254 0.414 255 255 255
0.001 -0.139 0.375 255 255 255
-0.086 -0.232 0.402 255 255 255
0.449 0.404 1.135 255 255 255
-0.259 0.244 0.969 255 255 255
0.259 0.184 1.202 255 255 255
0.264 0.06 0.439 255 255 255
0.193 0.132 1.214 255 255 255
-0.133 0.176 0.404 255 255 255
-0.468 -0.051 1.02 255 255 255
-0.284 -0.182 1.232 255 255 255
0.142 -0.104 0.409 255 255 255
0.17 -0.155 0.441 255 255 255
0.155 0.349 1.058 255 255 255
-0.208 0.429 0.877 255 255 255
-0.294 0.207 0.978 255 255 255
-0.209 0.246 0.987 255 255 255
0.187 -0.057 0.394 255 255 255
-0.295 0.143 1.019 255 255 255
-0.03 -0.124 0.356 255 255 255
-0.623 -0.194 0.963 255 255 255
0.162 -0.001 0.422 0 0 0
0.196 -0.067 0.406 255 255 255
-0.173 0.152 0.408 255 255 255
-0.004 -0.181 0.402 255 255 255
-0.617 -0.269 0.917 255 255 255
0.108 -0.166 0.438 255 255 255
-0.3 0.135 1.022 255 255 255
-0.02 -0.082 0.347 255 255 255
-0.51 -0.216 1.015 255 255 255
-0.056 -0.063 0.425 255 255 255
0.088 -0.12 0.398 255 255 255
0.274 -0.051 0.419 255 255 255
0.04 -0.11 0.372 255 255 255
0.036 -0.242 0.441 255 255 255
-0.575 0.053 0.955 255 255 255
-0.534 -0.025 0.988 255 255 255
0.11 -0.204 0.438 255 255 255
0.083 -0.031 0.398 255 255 255
0.001 -0.081 0.34 255 255 255
0.075 -0.266 0.443 255 255 255
-0.3 -0.176 1.223 0 0 0
-0.081 -0.16 0.357 255 255 255
0.28 0.502 1.009 255 255 255
-0.407 0.19 0.946 255 255 255
-0.126 0.15 1.082 255 255 255
-0.601 -0.317 0.956 255 255 255
-0.039 -0.165 0.377 255 255 255
-0.504 0.02 0.998 0 0 0
-0.153 -0.235 0.379 255 255 255
-0.41 0.197 0.941 0 0 0
-0.468 0.146 0.952 255 255 255
-0.035 0.099 1.152 255 255 255
-0.162 0.171 0.472 0 0 0
0.26 0.533 0.977 255 255 255
0.131 -0.21 0.452 255 255 255
0.081 0.32 1.046 255 255 255
-0.259 0.277 0.945 255 255 255
0.09 0.476 0.954 255 255 255
0.198 0.024 0.422 255 255 255
-0.013 -0.169 0.389 255 255 255
0.14 -0.075 0.387 255 255 255
-0.159 0.17 0.375 0 0 0
-0.166 -0.185 0.342 255 255 255
-0.193 -0.154 0.337 255 255 255
0.129 -0.062 0.376 255 255 255
-0.18 -0.156 0.319 255 255 255
-0.121 0.107 1.113 255 255 255
-0.393 -0.113 1.144 0 0 0
-0.171 -0.211 0.361 255 255 255
0.616 0.396 1.217 255 255 255
0.048 -0.099 0.368 255 255 255
0.322 0.408 1.08 255 255 255
-0.408 0.186 0.948 255 255 255
-0.086 -0.246 0.413 255 255 255
-0.445 0.139 0.969 255 255 255
0.015 -0.058 0.395 255 255 255
0.208 -0.33 0.471 255 255 255
0.161 0.328 1.073 255 255 255
-0.138 -0.139 0.33 255 255 255
-0.36 0.151 0.99 255 255 255
0.467 0.385 1.157 255 255 255
0.572 0.256 1.287 255 255 255
-0.177 -0.115 0.389 255 255 255
-0.129 -0.119 0.377 255 255 255
0.157 -0.006 0.373 255 255 255
0.006 0.201 1.098 255 255 255
-0.06 -0.152 0.36 255 255 255
-0.099 -0.205 0.381 0 0 0
0.258 -0.046 0.416 0 0 0
-0.076 -0.069 0.454 255 255 255
-0.301 -0.138 1.192 0 0 0
-0.208 0.324 0.936 255 255 255
0.396 -0.374 0.683 255 255 255
0.006 -0.257 0.441 255 255 255
-0.457 0.131 0.97 255 255 255
0 0.258 1.058 255 255 255
0.172 -0.249 0.479 255 255 255
-0.101 0.155 1.087 255 255 255
-0.178 -0.134 0.377 255 255 255
-0.132 0.216 1.035 255 255 255
0.327 0.257 1.183 255 255 255
-0.062 -0.064 0.443 255 255 255
0.153 0.051 1.257 255 255 255
0.27 0.275 1.15 255 255 255
0.024 -0.106 0.362 255 255 255
-0.367 -0.168 1.186 0 0 0
-0.033 -0.064 1.255 255 255 255
-0.136 -0.114 0.385 255 255 255
-0.238 -0.064 1.181 255 255 255
0.386 0.224 1.226 255 255 255
0.027 -0.158 0.401 255 255 255
0.148 0.509 0.946 255 255 255
-0.344 0.105 1.028 255 255 255
-0.413 0.104 1.002 255 255 255
-0.057 -0.085 0.39 255 255 255
-0.205 -0.144 0.374 255 255 255
-0.026 -0.138 0.364 255 255 255
-0.139 0.06 1.139 255 255 255
0.032 -0.185 0.422 255 255 255
-0.413 0.156 0.968 255 255 255
0.033 0.065 1.197 255 255 255
0.124 -0.082 0.385 255 255 255
0.509 0.356 1.193 255 255 255
-0.35 -0.14 1.184 255 255 255
-0.317 0.121 1.025 255 255 255
-0.091 0.22 1.047 255 255 255
0.089 -0.025 1.278 255 255 255
-0.017 -0.09 0.34 255 255 255
-0.061 -0.217 0.403 255 255 255
0.221 -0.133 0.444 255 255 255
-0.578 -0.127 0.9 255 255 255
-0.101 -0.115 0.342 255 255 255
0.004 -0.072 0.346 255 255 255
-0.49 -0.248 1.011 255 255 255
0 0.462 0.928 255 255 255
0.093 0.04 1.238 255 255 255
0.105 -0.266 0.458 255 255 255
-0.053 0.482 0.899 255 255 255
-0.236 -0.113 1.194 0 0 0
0.264 -0.349 0.589 255 255 255
0.135 0.262 1.108 255 255 255
0.217 -0.369 0.471 255 255 255
-0.087 -0.208 0.385 255 255 255
0.186 -0.108 0.427 255 255 255
0.271 0.037 1.308 0 0 0
0.206 0.017 0.401 255 255 255
-0.481 -0.216 1.177 255 255 255
0.053 -0.06 0.352 255 255 255
-0.185 -0.064 1.196 255 255 255
-0.528 -0.118 1.057 0 0 0
0.411 0.38 1.136 255 255 255
0.044 -0.054 0.389 255 255 255
-0.04 0.275 1.032 0 0 0
-0.279 -0.056 1.155 255 255 255
0.358 -0.124 0.496 255 255 255
-0.362 -0.057 1.122 255 255 255
-0.523 -0.151 0.873 255 255 255
0.016 0.039 1.208 255 255 255
0.224 -0.093 0.434 255 255 255
-0.576 0.096 0.932 255 255 255
0.134 -0.415 0.562 0 0 0
0.03 0.298 1.043 0 0 0
-0.387 0.257 0.925 255 255 255
-0.456 -0.204 1.186 255 255 255
0.113 0.233 1.119 255 255 255
0.453 0.319 1.191 255 255 255
0.083 -0.235 0.448 255 255 255
-0.168 0.026 1.146 255 255 255
-0.162 -0.293 0.412 255 255 255
0.373 -0.361 0.683 255 255 255
0.22 -0.212 0.48 255 255 255
-0.412 -0.173 1.179 255 255 255
0.178 -0.082 0.406 255 255 255
0.198 -0.085 0.418 255 255 255
-0.57 0.045 0.817 255 255 255
-0.018 -0.069 0.394 255 255 255
0.073 0.18 1.135 255 255 255
0.236 -0.37 0.476 255 255 255
0.052 0.167 1.137 255 255 255
0.142 -0.223 0.451 255 255 255
-0.017 0.045 1.189 255 255 255
0.146 -0.058 0.378 255 255 255
-0.485 0.128 0.95 0 0 0
-0.169 -0.326 0.429 0 0 0
-0.162 -0.15 0.321 255 255 255
-0.121 0.2 0.355 255 255 255
-0.172 -0.186 0.339 255 255 255
0.309 0.092 1.282 255 255 255
0.075 -0.286 0.458 255 255 255
-0.185 0.01 1.15 255 255 255
-0.134 -0.004 1.178 255 255 255
-0.113 -0.087 0.41 255 255 255
0.024 -0.201 0.428 255 255 255
0.395 0.133 1.291 255 255 255
0.113 -0.062 0.369 255 255 255
-0.315 -0.05 1.136 0 0 0
-0.417 0.237 0.91 255 255 255
0.118 0.181 1.151 255 255 255
0.2 -0.162 0.45 255 255 255
-0.192 -0.256 0.387 255 255 255
0.007 -0.183 0.409 255 255 255
0.12 -0.084 0.383 255 255 255
-0.13 0.031 1.157 255 255 255
0.006 -0.25 0.448 0 0 0
0.076 -0.036 0.395 0 0 0
0.217 0.105 1.241 255 255 255
0.32 0.456 1.059 255 255 255
-0.124 -0.06 1.217 255 255 255
0.216 0.112 1.236 255 255 255
-0.388 -0.031 1.096 255 255 255
-0.001 -0.103 0.352 255 255 255
-0.427 0.208 0.927 255 255 255
-0.263 0.249 0.965 255 255 255
0.028 0.405 0.975 255 255 255
-0.051 -0.06 0.44 255 255 255
-0.275 0.016 1.111 255 255 255
-0.044 -0.062 0.411 255 255 255
0.137 -0.322 0.494 255 255 255
0.17 -0.064 0.391 255 255 255
-0.194 0.243 0.993 255 255 255
0.041 -0.076 0.352 255 255 255
-0.235 0.239 0.981 255 255 255
0.067 -0.114 0.385 255 255 255
-0.164 0.347 0.94 255 255 255
-0.135 0.186 0.371 255 255 255
0.086 0.368 1.019 255 255 255
-0.047 -0.134 0.356 255 255 255
-0.075 -0.106 0.334 255 255 255
0.345 0.476 1.047 0 0 0
0.104 -0.267 0.459 255 255 255
0.038 -0.11 0.372 255 255 255
-0.028 -0.12 0.354 255 255 255
0.198 -0.034 0.384 255 255 255
-0.191 0.138 0.423 255 255 255
-0.097 -0.102 0.387 255 255 255
-0.049 -0.154 0.365 255 255 255
-0.13 -0.139 0.324 255 255 255
0.105 -0.169 0.44 255 255 255
0.065 -0.057 0.344 255 255 255
0.003 -0.187 0.41 255 255 255
0.105 0.106 1.199 255 255 255
-0.003 -0.051 0.406 255 255 255
-0.044 0.097 1.149 255 255 255
0.591 0.292 1.276 255 255 255
0.141 0.013 0.458 255 255 255
-0.035 -0.176 0.386 255 255 255
-0.43 0.152 0.96 255 255 255
-0.135 0.234 1.019 255 255 255
-0.061 0.04 1.176 255 255 255
-0.182 0.238 1 255 255 255
-0.173 -0.21 0.36 255 255 255
0.642 0.176 1.345 255 255 255
-0.115 -0.117 0.374 255 255 255
0.344 -0.097 0.474 255 255 255
-0.358 0.09 1.034 255 255 255
-0.39 0.232 0.925 255 255 255
-0.017 0.377 0.977 255 255 255
-0.378 0.09 1.026 255 255 255
0.128 0.38 1.029 255 255 255
0.435 0.462 1.087 255 255 255
-0.257 0.467 0.985 0 0 0
0.294 -0.238 0.503 255 255 255
0.247 -0.361 0.59 255 255 255
-0.214 -0.16 0.362 255 255 255
-0.056 -0.085 0.39 255 255 255
-0.089 0.232 1.04 255 255 255
-0.493 -0.204 0.992 255 255 255
-0.29 0.296 0.925 255 255 255
0.034 0.467 0.938 255 255 255
-0.393 0.029 1.057 255 255 255
-0.332 0.173 0.985 255 255 255
0.453 0.196 1.264 255 255 255
0.155 -0.073 0.392 255 255 255
-0.539 0.071 0.94 255 255 255
0.094 -0.03 1.284 0 0 0
0.012 -0.162 0.397 255 255 255
0.126 0.484 0.962 255 255 255
-0.275 0.306 0.921 255 255 255
0.024 -0.16 0.4 255 255 255
0.1 -0.087 0.38 255 255 255
-0.231 -0.039 1.156 0 0 0
0.079 -0.218 0.441 255 255 255
0.098 -0.026 0.398 0 0 0
-0.132 0.287 0.989 255 255 255
-0.551 -0.245 0.934 255 255 255
-0.073 0.353 0.971 255 255 255
-0.516 -0.087 1.083 255 255 255
0.215 -0.125 0.449 0 0 0
-0.103 -0.206 0.379 0 0 0
-0.524 -0.264 0.97 255 255 255
0.147 0.063 1.246 255 255 255
0.287 -0.009 0.405 255 255 255
-0.152 0.38 0.922 255 255 255
-0.355 0.049 1.062 255 255 255
-0.011 -0.078 0.37 255 255 255
-0.267 0.225 0.976 255 255 255
-0.213 0.248 0.986 255 255 255
0.192 -0.361 0.475 255 255 255
0.335 -0.103 0.474 255 255 255
0.038 -0.056 0.386 255 255 255
0.182 -0.177 0.45 255 255 255
-0.064 -0.157 0.362 255 255 255
-0.464 -0.047 0.619 255 255 255
0.158 -0.432 0.59 0 0 0
0.072 0.122 0.281 255 255 255
0 -0.088 1.279 255 255 255
-0.12 -0.11 0.384 255 255 255
0.011 -0.285 0.438 255 255 255
0.414 0.419 1.113 255 255 255
0.122 -0.507 0.666 255 255 255
0.051 -0.095 0.366 255 255 255
0.178 0.446 1.006 0 0 0
-0.092 -0.12 0.33 255 255 255
-0.166 -0.119 0.39 255 255 255
-0.251 -0.088 1.184 0 0 0
0.043 -0.134 0.392 255 255 255
0.39 0.079 1.324 0 0 0
-0.152 0.28 0.985 255 255 255
-0.514 0.007 0.983 0 0 0
0.074 0.431 0.975 0 0 0
0.045 0.42 0.972 255 255 255
-0.174 -0.153 0.322 255 255 255
-0.055 -0.096 0.376 255 255 255
-0.498 -0.211 1.128 0 0 0
-0.012 -0.297 0.448 255 255 255
0.125 -0.031 0.354 255 255 255
-0.228 0.291 0.95 255 255 255
0.112 0.343 1.044 0 0 0
0.051 0.309 1.042 0 0 0
0.471 0.471 1.102 255 255 255
-0.347 0.2 0.962 255 255 255
-0.1 0.091 1.131 255 255 255
-0.083 -0.241 0.41 255 255 255
-0.524 -0.21 0.93 0 0 0
0.204 0.405 1.043 255 255 255
0.096 -0.028 0.398 0 0 0
-0.009 -0.043 0.434 255 255 255
0.715 0.229 1.261 255 255 255
-0.032 -0.154 0.37 255 255 255
-0.426 -0.098 1.095 0 0 0
0.294 -0.107 0.462 255 255 255
0.036 -0.165 0.409 255 255 255
-0.398 0.147 0.978 255 255 255
0.051 -0.143 0.399 255 255 255
-0.114 -0.216 0.38 255 255 255
0.143 0.032 0.364 255 255 255
0.019 -0.189 0.419 255 255 255
-0.183 -0.196 0.344 255 255 255
-0.133 0.27 0.998 255 255 255
-0.009 0.295 1.031 255 255 255
0.154 0.094 1.224 255 255 255
-0.031 0.045 1.186 255 255 255
-0.136 -0.244 0.391 255 255 255
-0.205 0.103 1.081 0 0 0
0.114 -0.036 0.354 255 255 255
-0.027 -0.277 0.441 255 255 255
-0.051 -0.103 0.335 255 255 255
0.248 -0.145 0.44 255 255 255
0.09 -0.314 0.472 255 255 255
-0.177 0.345 0.935 255 255 255
-0.011 -0.059 0.402 255 255 255
-0.128 0.291 0.99 255 255 255
-0.063 -0.183 0.38 255 255 255
-0.592 0.086 0.901 255 255 255
-0.113 0.165 1.076 255 255 255
0.245 0.057 1.284 255 255 255
-0.327 -0.075 1.15 255 255 255
-0.047 0.074 1.161 255 255 255
0.248 0.484 1.004 255 255 255
-0.138 -0.122 0.377 255 255 255
-0.01 0.388 0.971 255 255 255
0.165 0.002 0.415 255 255 255
0.251 -0.109 0.451 0 0 0
0.083 -0.216 0.441 255 255 255
0.158 -0.093 0.407 255 255 255
-0.013 -0.079 0.351 255 255 255
0.183 0.02 0.417 255 255 255
0.026 0.204 1.101 255 255 255
0.017 -0.033 0.428 255 255 255
-0.213 0.207 1.009 255 255 255
0.253 0.282 1.138 255 255 255
-0.168 -0.274 0.399 255 255 255
0.123 -0.193 0.442 255 255 255
-0.02 -0.15 0.375 255 255 255
-0.005 0.228 1.075 255 255 255
-0.473 0.24 0.888 255 255 255
0.376 0.192 1.241 255 255 255
-0.078 0.019 1.184 255 255 255
-0.095 -0.113 0.365 255 255 255
-0.444 -0.045 1.085 0 0 0
0.24 0.047 0.432 255 255 255
0.174 -0.061 0.391 255 255 255
-0.135 -0.189 0.355 255 255 255
-0.568 -0.156 1.018 255 255 255
0.177 -0.047 0.384 255 255 255
-0.37 -0.208 1.217 255 255 255
-0.114 -0.053 1.218 255 255 255
-0.455 -0.039 1.029 255 255 255
0.171 0.136 1.203 255 255 255
0.154 0.424 1.011 255 255 255
0.043 0.396 0.986 255 255 255
0.286 0.294 1.145 255 255 255
0.083 -0.237 0.445 255 255 255
-0.099 -0.105 0.385 255 255 255
-0.193 -0.157 0.319 255 255 255
0.154 0.51 0.952 255 255 255
-0.282 -0.167 1.215 255 255 255
-0.179 -0.332 0.428 0 0 0
0.163 0 0.419 0 0 0
-0.188 -0.298 0.411 0 0 0
-0.472 0.097 0.98 255 255 255
0.604 0.311 1.268 255 255 255
0.027 -0.061 0.361 255 255 255
-0.2 -0.013 1.156 255 255 255
0.022 -0.052 1.268 255 255 255
-0.058 -0.111 0.339 255 255 255
-0.316 0.164 0.998 255 255 255
0.372 0.183 1.249 0 0 0
0.285 -0.242 0.504 255 255 255
0.031 -0.129 0.384 255 255 255
0.332 0.09 1.297 255 255 255
-0.33 -0.041 1.12 255 255 255
0.343 -0.168 0.521 255 255 255
-0.172 0.362 0.929 255 255 255
0.178 -0.336 0.475 255 255 255
-0.209 0.124 0.429 255 255 255
-0.449 -0.046 1.061 0 0 0
-0.118 0.239 1.021 255 255 255
0.082 -0.275 0.46 255 255 255
-0.175 -0.317 0.421 0 0 0
-0.3 -0.092 1.169 255 255 255
-0.163 -0.213 0.364 255 255 255
-0.097 0.458 0.895 255 255 255
0.301 -0.238 0.5 255 255 255
-0.505 -0.175 1.047 255 255 255
0.102 -0.037 0.353 255 255 255
0.008 0.381 0.982 255 255 255
-0.167 0.35 0.936 255 255 255
0.443 0.459 1.097 255 255 255
-0.056 -0.009 1.211 255 255 255
-0.016 -0.194 0.406 255 255 255
0.055 -0.021 0.417 0 0 0
0.104 0.269 1.091 255 255 255
-0.574 0.007 0.963 0 0 0
0.121 -0.007 0.439 255 255 255
-0.079 -0.106 0.346 255 255 255
0.313 0.322 1.072 255 255 255
0.308 0.512 1.013 255 255 255
-0.226 0.344 0.911 255 255 255
-0.469 -0.214 1.183 255 255 255
-0.394 0.088 1.02 255 255 255
-0.243 -0.025 1.148 255 255 255
-0.293 0.123 1.035 255 255 255
-0.084 -0.159 0.357 255 255 255
-0.542 0.027 0.774 255 255 255
-0.486 0.23 0.887 255 255 255
0.158 -0.02 0.359 255 255 255
0.095 -0.25 0.453 255 255 255
0.174 -0.277 0.484 255 255 255
-0.078 -0.082 0.401 255 255 255
-0.226 -0.006 1.144 255 255 255
0.158 -0.362 0.471 255 255 255
0.095 -0.364 0.505 0 0 0
-0.085 -0.151 0.35 255 255 255
-0.166 -0.339 0.431 0 0 0
-0.26 0.291 0.937 255 255 255
-0.154 0.249 1.005 255 255 255
-0.547 -0.223 0.926 255 255 255
-0.131 -0.199 0.362 255 255 255
-0.166 0.366 0.928 255 255 255
-0.539 0.05 0.945 255 255 255
0.144 0.126 1.2 255 255 255
0.191 -0.104 0.427 255 255 255
-0.172 0.158 0.397 255 255 255
-0.022 -0.239 0.435 255 255 255
0.067 -0.012 1.26 255 255 255
-0.15 -0.221 0.371 255 255 255
0.148 0.321 1.075 255 255 255
0.434 0.304 1.196 255 255 255
-0.528 -0.208 0.929 0 0 0
0.601 0.416 1.2 255 255 255
0.15 0.181 1.166 255 255 255
0.181 -0.097 0.418 255 255 255
-0.046 -0.178 0.383 255 255 255
0.033 -0.047 0.398 255 255 255
0.082 -0.241 0.444 255 255 255
0.149 -0.233 0.453 255 255 255
0.046 -0.146 0.399 255 255 255
-0.403 0.192 0.946 255 255 255
0.006 0.245 1.07 255 255 255
-0.113 0.082 1.13 255 255 255
0.071 -0.134 0.402 255 255 255
-0.361 -0.122 1.17 255 255 255
0.269 0.043 0.41 255 255 255
-0.208 -0.158 0.359 255 255 255
-0.071 -0.296 0.447 0 0 0
-0.03 0.079 1.164 255 255 255
0.352 0.509 1.026 255 255 255
0.67 0.228 1.349 255 255 255
-0.086 -0.053 1.228 255 255 255
-0.586 0.038 0.882 255 255 255
0.05 -0.26 0.441 255 255 255
0.338 0.206 1.219 255 255 255
-0.011 0.273 1.04 255 255 255
-0.539 0.001 0.964 255 255 255
0.189 0.146 1.204 255 255 255
-0.122 0.146 1.085 255 255 255
-0.102 -0.11 0.378 255 255 255
-0.403 0.012 1.065 255 255 255
0.017 -0.169 0.404 255 255 255
0.259 0.067 0.448 255 255 255
-0.527 0.111 0.951 0 0 0
0.23 -0.091 0.432 255 255 255
0.187 0.02 0.417 255 255 255
-0.144 -0.227 0.377 255 255 255
0.271 -0.04 0.411 255 255 255
0.057 -0.182 0.43 255 255 255
0.123 0.011 0.529 0 0 0
0.106 -0.173 0.442 255 255 255
-0.102 -0.153 0.344 255 255 255
-0.103 -0.257 0.414 255 255 255
-0.556 -0.094 1.03 255 255 255
-0.56 0.037 0.918 0 0 0
0.283 -0.085 0.444 0 0 0
0.145 0.286 1.093 255 255 255
0.227 0.067 1.271 255 255 255
0.12 -0.071 0.377 255 255 255
0.246 -0.07 0.424 255 255 255
-0.116 0.456 0.889 255 255 255
-0.175 -0.11 1.225 255 255 255
0.038 -0.037 0.41 255 255 255
0.229 -0.12 0.439 255 255 255
0.125 0.448 0.982 0 0 0
-0.165 -0.121 0.388 255 255 255
-0.123 -0.11 0.385 255 255 255
0.157 0.008 0.438 0 0 0
-0.268 0.11 1.053 255 255 255
-0.084 -0.179 0.368 255 255 255
-0.141 0.183 0.452 0 0 0
0.385 0.184 1.255 255 255 255
0.024 -0.068 0.345 255 255 255
-0.452 0.236 0.898 255 255 255
0.042 -0.021 0.454 255 255 255
0.15 -0.3 0.486 255 255 255
0.238 -0.078 0.425 255 255 255
-0.574 0.054 0.89 255 255 255
0.258 -0.126 0.446 255 255 255
-0.456 -0.222 1.19 255 255 255
0.008 -0.034 0.467 0 0 0
-0.116 0.396 0.927 255 255 255
-0.038 0.063 1.172 255 255 255
-0.19 -0.319 0.42 0 0 0
0.111 -0.012 0.416 255 255 255
-0.023 -0.284 0.444 255 255 255
0.019 -0.119 0.37 255 255 255
0.034 -0.24 0.441 255 255 255
0.024 -0.039 0.414 255 255 255
-0.15 -0.348 0.468 0 0 0
-0.093 -0.242 0.408 255 255 255
0.263 0.042 0.41 255 255 255
0.038 -0.033 0.411 255 255 255
0.15 -0.062 0.382 255 255 255
0.148 -0.306 0.492 255 255 255
0.216 -0.072 0.415 255 255 255
0.16 0.01 0.427 255 255 255
-0.502 0.085 0.976 255 255 255
0.206 0.059 1.268 255 255 255
-0.399 0.001 1.073 255 255 255
0.187 -0.18 0.454 255 255 255
-0.175 -0.118 0.397 255 255 255
0.299 0.339 1.116 255 255 255
0.048 -0.055 0.348 255 255 255
0.008 -0.173 0.402 255 255 255
0.451 0.362 1.163 255 255 255
-0.197 -0.006 1.156 255 255 255
-0.184 -0.259 0.397 255 255 255
-0.171 -0.299 0.412 0 0 0
-0.499 0.132 0.943 255 255 255
0.345 0.432 1.077 255 255 255
-0.444 -0.214 1.189 255 255 255
-0.228 0.289 0.95 255 255 255
-0.17 0.159 0.468 255 255 255
0.045 -0.02 0.455 255 255 255
-0.174 -0.157 0.321 255 255 255
-0.198 0.337 0.933 255 255 255
-0.067 -0.073 0.405 255 255 255
0.186 -0.221 0.473 0 0 0
0.034 0.306 1.039 255 255 255
0.066 -0.056 1.288 0 0 0
0.519 0.316 1.225 255 255 255
-0.142 0.188 0.361 255 255 255
-0.034 0.459 0.917 255 255 255
-0.245 0.13 1.047 255 255 255
0.002 0.313 1.024 255 255 255
-0.523 0.111 0.954 0 0 0
0.272 0.338 1.107 255 255 255
0.428 0.198 1.265 255 255 255
-0.111 0.273 1.005 255 255 255
-0.087 -0.298 0.445 255 255 255
0.046 -0.095 0.363 255 255 255
-0.01 -0.212 0.42 255 255 255
0.281 0.272 1.155 0 0 0
-0.116 -0.122 0.329 255 255 255
0.006 0.333 1.011 255 255 255
0.361 -0.162 0.523 255 255 255
-0.606 -0.293 0.947 255 255 255
-0.06 0.313 1.002 255 255 255
-0.149 0.182 0.363 255 255 255
-0.108 -0.327 0.44 0 0 0
-0.046 -0.007 1.212 255 255 255
0.053 0.41 0.98 255 255 255
-0.486 -0.226 0.949 255 255 255
0.391 0.494 1.054 0 0 0
-0.13 0.196 0.354 255 255 255
-0.285 0.251 0.953 255 255 255
-0.478 0.033 1.02 255 255 255
-0.561 -0.108 1.038 255 255 255
-0.252 -0.148 0.387 255 255 255
0.194 0.384 1.052 255 255 255
-0.029 0.388 0.966 255 255 255
0.062 -0.014 0.426 255 255 255
0.208 0.187 1.181 255 255 255
-0.166 0.118 1.086 255 255 255
0.143 0.046 1.256 255 255 255
-0.575 -0.145 1.003 255 255 255
-0.181 0.377 0.916 255 255 255
0.298 -0.395 0.642 255 255 255
-0.065 0.347 0.979 255 255 255
0.183 -0.117 0.433 255 255 255
0.523 0.299 1.237 255 255 255
-0.134 -0.095 0.415 255 255 255
0.156 -0.048 0.379 255 255 255
0.015 -0.17 0.403 255 255 255
0.227 -0.057 0.409 255 255 255
-0.043 -0.093 0.336 255 255 255
0.043 0.181 1.124 255 255 255
-0.263 0.062 1.088 255 255 255
0.318 -0.061 0.441 255 255 255
-0.025 0.288 1.029 255 255 255
0.018 -0.031 0.45 255 255 255
-0.169 -0.062 1.202 255 255 255
-0.496 -0.221 1.146 0 0 0
-0.334 0.267 0.924 255 255 255
-0.185 0.427 0.881 255 255 255
-0.487 0.055 0.969 255 255 255
0.204 0.372 1.064 0 0 0
-0.16 0.173 1.053 255 255 255
-0.165 0.171 0.375 0 0 0
-0.003 -0.019 1.238 255 255 255
0.206 -0.113 0.44 255 255 255
-0.156 -0.266 0.398 255 255 255
-0.322 -0.05 1.126 255 255 255
-0.022 -0.282 0.443 255 255 255
-0.064 -0.036 1.226 255 255 255
0.732 0.226 1.215 255 255 255
0.102 -0.074 0.374 255 255 255
0.105 -0.348 0.502 255 255 255
-0.161 0.168 0.376 0 0 0
0.117 -0.023 0.362 255 255 255
-0.041 -0.078 0.393 255 255 255
-0.394 -0.015 1.087 0 0 0
0.297 -0.106 0.462 255 255 255
0.078 -0.03 1.276 255 255 255
0.122 -0.097 0.394 255 255 255
0.084 0.303 1.059 255 255 255
-0.172 -0.119 0.394 255 255 255
-0.096 0.368 0.951 255 255 255
-0.174 0.142 1.067 255 255 255
-0.53 0.009 0.967 255 255 255
-0.096 -0.079 0.414 255 255 255
0.058 0.486 0.933 255 255 255
-0.58 -0.238 0.922 255 255 255
0.352 0.52 1.022 255 255 255
0.057 -0.142 0.4 255 255 255
0.203 -0.274 0.488 255 255 255
-0.009 -0.064 0.395 255 255 255
0.042 0.097 1.177 255 255 255
-0.113 0.167 1.074 255 255 255
-0.642 -0.271 0.916 255 255 255
-0.12 -0.186 0.359 255 255 255
-0.063 -0.17 0.37 255 255 255
0.121 -0.173 0.444 255 255 255
0.217 0.444 1.018 255 255 255
-0.079 -0.213 0.394 255 255 255
0.125 -0.099 0.397 255 255 255
0.261 0.358 1.095 255 255 255
-0.146 -0.101 1.234 255 255 255
0.024 -0.198 0.426 255 255 255
-0.179 -0.129 0.383 255 255 255
-0.418 0.164 0.959 0 0 0
-0.121 -0.124 0.343 255 255 255
-0.081 -0.116 1.268 255 255 255
-0.486 -0.05 1.026 0 0 0
0.318 -0.062 0.442 255 255 255
-0.011 -0.057 0.406 255 255 255
0.018 0.37 0.994 255 255 255
0.25 0.351 1.091 255 255 255
0.097 -0.018 0.406 255 255 255
-0.001 -0.191 0.412 255 255 255
0.042 -0.051 0.39 255 255 255
0.031 0.196 1.109 255 255 255
-0.037 -0.166 0.379 255 255 255
0.245 0.055 0.44 255 255 255
-0.134 -0.339 0.457 0 0 0
0.064 -0.092 0.37 255 255 255
0.038 0.201 1.109 255 255 255
0.178 0.039 1.271 255 255 255
0.024 0.244 1.075 255 255 255
-0.47 0.22 0.904 255 255 255
0.146 -0.063 0.383 255 255 255
0.099 -0.017 0.404 255 255 255
-0.193 -0.337 0.424 255 255 255
0.037 -0.172 0.415 255 255 255
0.091 -0.09 0.379 255 255 255
-0.05 0.321 1.001 255 255 255
0.123 -0.08 0.384 255 255 255
-0.003 -0.054 0.404 255 255 255
-0.45 0.105 0.988 255 255 255
0.06 -0.168 0.421 255 255 255
0.264 0.186 1.203 255 255 255
0.195 0.018 0.418 255 255 255
-0.434 -0.063 0.582 255 255 255
0.195 -0.051 0.393 255 255 255
0.083 -0.006 0.429 255 255 255
-0.121 -0.267 0.414 0 0 0
-0.133 0.178 0.404 255 255 255
0.076 0.23 1.105 255 255 255
-0.237 0.094 1.075 0 0 0
-0.158 -0.221 0.368 255 255 255
0.164 -0.002 0.417 0 0 0
0.462 0.362 1.17 255 255 255
-0.06 0.157 1.102 255 255 255
-0.003 -0.121 0.361 255 255 255
0.186 -0.251 0.477 255 255 255
0.06 -0.063 0.352 255 255 255
0.118 0.359 1.037 255 255 255
-0.591 0.077 0.916 255 255 255
0.051 0.11 1.173 255 255 255
0.017 0.02 1.221 0 0 0
0.08 -0.002 1.259 255 255 255
0.135 0.351 1.051 255 255 255
-0.017 0.272 1.037 0 0 0
0.057 0.312 1.043 0 0 0
-0.053 0.375 0.966 255 255 255
-0.191 0.278 0.974 255 255 255
-0.255 0.271 0.953 255 255 255
-0.218 0.278 0.963 255 255 255
-0.033 -0.257 0.441 255 255 255
0.01 0.494 0.913 255 255 255
-0.089 -0.077 0.413 255 255 255
-0.177 -0.117 1.226 0 0 0
-0.214 -0.106 1.179 0 0 0
0.103 0.284 1.079 255 255 255
-0.575 -0.11 1.006 255 255 255
0.45 0.182 1.281 255 255 255
0.349 0.24 1.206 255 255 255
0.084 -0.299 0.471 255 255 255
-0.177 -0.1 1.221 255 255 255
0.204 -0.09 0.423 255 255 255
0.175 -0.315 0.505 255 255 255
0.03 -0.214 0.437 255 255 255
-0.182 -0.126 0.388 255 255 255
-0.388 -0.185 1.193 255 255 255
0.105 0.294 1.073 255 255 255
0.009 -0.106 0.357 255 255 255
0.028 -0.229 0.445 255 255 255
0.068 -0.028 0.407 255 255 255
-0.051 -0.257 0.434 255 255 255
0.556 0.342 1.223 255 255 255
-0.15 -0.348 0.454 0 0 0
0.272 -0.115 0.452 255 255 255
-0.386 -0.124 1.16 255 255 255
0.155 0.284 1.1 255 255 255
-0.122 -0.089 0.432 255 255 255
0.202 0.473 0.986 0 0 0
-0.487 -0.09 1.072 0 0 0
0.578 0.208 1.322 255 255 255
0.037 -0.078 0.351 255 255 255
0.062 -0.334 0.478 255 255 255
0.311 -0.154 0.5 255 255 255
-0.419 0.077 1.017 255 255 255
0.151 -0.085 0.398 255 255 255
0.014 -0.147 0.388 255 255 255
-0.049 -0.024 1.223 255 255 255
0.046 0.24 1.086 255 255 255
-0.589 0.104 0.902 255 255 255
0.367 0.258 1.153 255 255 255
-0.537 0.036 0.951 255 255 255
0.039 -0.212 0.438 255 255 255
0.087 -0.092 0.379 255 255 255
-0.319 -0.104 1.165 0 0 0
0.372 0.092 1.311 255 255 255
-0.524 -0.099 1.088 255 255 255
0.3 -0.081 0.447 255 255 255
0.237 -0.123 0.442 255 255 255
-0.382 0.078 1.031 255 255 255
-0.092 0.209 0.378 255 255 255
-0.405 0.151 0.973 255 255 255
-0.198 0.097 1.09 0 0 0
0.027 -0.047 0.401 255 255 255
-0.012 -0.079 0.35 255 255 255
-0.108 0.255 1.017 0 0 0
0.246 -0.035 0.403 255 255 255
-0.184 -0.26 0.397 255 255 255
-0.275 -0.046 1.15 255 255 255
0.382 0.392 1.117 255 255 255
-0.083 -0.073 0.444 255 255 255
0.168 -0.093 0.412 255 255 255
-0.531 0.012 0.74 255 255 255
-0.011 -0.124 0.362 255 255 255
-0.157 -0.152 0.322 255 255 255
0.035 0.205 1.105 255 255 255
0.192 0.004 0.364 255 255 255
-0.038 0.178 1.095 255 255 255
-0.101 0.443 0.905 255 255 255
0.017 -0.045 1.262 255 255 255
-0.501 0.007 1.028 0 0 0
0.222 0.336 1.092 0 0 0
-0.134 0.193 1.05 255 255 255
0.149 -0.259 0.469 255 255 255
0.082 -0.114 0.394 255 255 255
-0.167 0.033 1.142 255 255 255
0.244 -0.223 0.474 255 255 255
0.293 0.109 1.269 255 255 255
0.152 -0.088 0.402 255 255 255
-0.096 -0.233 0.4 255 255 255
0.116 -0.184 0.45 0 0 0
-0.484 -0.112 1.11 255 255 255
0.141 -0.022 0.355 255 255 255
-0.141 -0.132 0.325 255 255 255
0.081 -0.111 0.392 255 255 255
-0.121 0.191 0.378 255 255 255
-0.092 -0.226 0.396 255 255 255
-0.597 -0.223 0.914 255 255 255
-0.247 0.235 0.98 255 255 255
-0.377 0.164 0.974 255 255 255
0 -0.086 1.28 0 0 0
0.027 -0.037 1.26 255 255 255
0.176 0.002 0.366 255 255 255
-0.573 -0.304 0.961 255 255 255
-0.122 -0.223 0.382 255 255 255
0.248 0.256 1.154 255 255 255
0.197 -0.025 0.377 255 255 255
0.118 0.099 1.207 255 255 255
-0.578 -0.276 0.947 255 255 255
0.066 -0.221 0.44 255 255 255
-0.45 0.202 0.923 255 255 255
-0.178 -0.237 0.381 255 255 255
-0.024 -0.178 0.391 255 255 255
0.024 0.194 1.108 255 255 255
0.139 -0.05 0.372 255 255 255
-0.623 -0.249 0.916 255 255 255
-0.383 -0.218 1.198 0 0 0
-0.287 0.253 0.951 255 255 255
0.37 -0.399 0.696 255 255 255
-0.176 -0.297 0.411 0 0 0
-0.159 -0.132 0.372 255 255 255
0.002 -0.288 0.45 255 255 255
-0.073 0.333 0.983 255 255 255
-0.537 0.058 0.941 255 255 255
-0.147 0.185 0.363 255 255 255
0.336 -0.158 0.511 255 255 255
0.078 -0.153 0.418 255 255 255
-0.487 0.221 0.892 255 255 255
-0.275 0.314 0.921 255 255 255
-0.238 -0.149 0.383 255 255 255
-0.498 -0.232 1.124 255 255 255
-0.122 -0.092 0.404 255 255 255
0.144 -0.204 0.45 255 255 255
0.574 0.319 1.248 255 255 255
0.256 -0.025 0.401 255 255 255
-0.534 -0.087 1.076 255 255 255
0.028 -0.223 0.442 255 255 255
0.154 0.013 0.445 0 0 0
-0.295 -0.203 1.234 255 255 255
0.182 0.19 1.17 255 255 255
-0.013 -0.07 0.391 255 255 255
-0.066 -0.292 0.446 0 0 0
0.186 -0.101 0.424 255 255 255
0.318 -0.107 0.47 255 255 255
-0.044 -0.148 0.363 255 255 255
0.05 0.158 1.143 255 255 255
0.561 0.4 1.188 255 255 255
0.042 0.307 1.042 0 0 0
-0.07 -0.098 0.378 255 255 255
-0.016 -0.257 0.448 255 255 255
0.018 -0.154 0.396 255 255 255
-0.085 -0.212 0.391 255 255 255
0.085 0.113 0.299 255 255 255
0.201 -0.274 0.497 255 255 255
-0.106 0.206 1.052 255 255 255
-0.092 0.209 1.055 255 255 255
0.026 -0.128 0.382 255 255 255
-0.041 -0.231 0.419 255 255 255
0.149 -0.013 0.423 255 255 255
-0.259 0.049 1.094 0 0 0
0.074 -0.079 0.364 255 255 255
0.123 0.261 1.104 255 255 255
0.028 -0.061 0.373 0 0 0
0.223 0.466 0.994 0 0 0
0.029 -0.252 0.442 255 255 255
-0.061 0.137 1.117 255 255 255
0.129 0.004 0.451 255 255 255
-0.44 -0.083 1.07 0 0 0
0.057 -0.089 0.364 255 255 255
0.034 -0.213 0.44 255 255 255
-0.078 0.33 0.986 255 255 255
-0.444 0.238 0.9 255 255 255
0.105 0.46 0.969 0 0 0
-0.009 0.143 1.131 255 255 255
0.122 -0.222 0.446 255 255 255
-0.142 -0.178 0.345 255 255 255
0.167 -0.071 0.396 255 255 255
0.083 -0.033 0.395 255 255 255
-0.084 -0.243 0.412 255 255 255
-0.037 -0.198 0.4 255 255 255
0.023 -0.188 0.42 255 255 255
-0.164 -0.126 1.24 255 255 255
-0.354 -0.036 1.112 0 0 0
-0.502 -0.186 0.987 255 255 255
0.192 -0.209 0.459 255 255 255
-0.167 -0.129 0.378 255 255 255
-0.075 -0.172 0.368 255 255 255
0.278 0.332 1.114 255 255 255
0.095 0.098 0.33 255 255 255
-0.24 -0.132 1.212 255 255 255
0.55 0.17 1.318 0 0 0
0.111 0.097 1.207 255 255 255
0.287 0.511 1.005 255 255 255
0.507 0.281 1.243 255 255 255
0.379 0.523 1.032 255 255 255
0 -0.175 0.399 255 255 255
-0.159 -0.141 0.322 255 255 255
0.292 -0.119 0.47 0 0 0
-0.084 -0.164 0.359 255 255 255
0.046 -0.382 0.51 255 255 255
0.293 0.384 1.073 255 255 255
0.038 -0.265 0.45 255 255 255
-0.366 -0.011 1.09 255 255 255
-0.096 0.167 1.08 255 255 255
0.057 0.453 0.956 0 0 0
-0.072 -0.056 1.237 255 255 255
-0.423 -0.226 1.204 255 255 255
-0.045 -0.237 0.421 255 255 255
0.138 0.322 1.071 255 255 255
-0.022 -0.084 0.343 255 255 255
0.162 -0.363 0.468 255 255 255
0.345 0.337 1.134 255 255 255
0.141 0.016 0.463 255 255 255
-0.199 0.159 1.045 255 255 255
-0.128 0.361 0.941 255 255 255
0.157 -0.081 0.399 255 255 255
-0.219 0.139 1.05 255 255 255
-0.6 -0.237 0.92 255 255 255
0.158 -0.351 0.475 0 0 0
-0.312 0.249 0.945 255 255 255
0.02 -0.157 0.397 255 255 255
0.458 0.172 1.29 255 255 255
-0.095 -0.227 0.397 255 255 255
0.168 0.445 1.003 0 0 0
0.044 0.239 1.085 255 255 255
0.217 -0.072 0.416 255 255 255
0.174 -0.055 0.387 255 255 255
0.147 -0.015 0.359 255 255 255
-0.421 0.075 1.017 255 255 255
-0.175 -0.109 0.431 255 255 255
-0.178 0.146 0.428 255 255 255
-0.096 -0.106 0.38 255 255 255
-0.092 0.026 1.175 255 255 255
-0.541 0.026 0.954 255 255 255
-0.465 -0.013 1.026 0 0 0
-0.34 0.044 1.068 255 255 255
0.377 0.519 1.035 255 255 255
-0.091 -0.156 0.353 255 255 255
0.116 -0.239 0.451 255 255 255
-0.062 0.029 1.184 255 255 255
0.04 0.453 0.947 0 0 0
0.054 -0.352 0.488 0 0 0
0.068 -0.041 0.391 255 255 255
-0.371 0.232 0.931 0 0 0
-0.088 -0.002 1.193 255 255 255
0.501 0.419 1.152 255 255 255
-0.065 -0.075 0.405 255 255 255
-0.016 0.132 1.135 255 255 255
0.158 -0.187 0.449 255 255 255
0.274 -0.167 0.457 255 255 255
0.02 -0.096 0.354 255 255 255
-0.017 0.359 0.988 255 255 255
0.129 0.273 1.096 255 255 255
0.022 -0.063 0.386 255 255 255
0.389 0.211 1.238 255 255 255
0.181 -0.282 0.486 255 255 255
-0.04 0.423 0.937 0 0 0
0.02 -0.095 0.353 255 255 255
-0.053 -0.076 0.402 255 255 255
-0.187 0.099 1.091 255 255 255
0.003 -0.037 0.473 0 0 0
0.006 0.456 0.934 255 255 255
0.049 0.325 1.034 255 255 255
-0.209 0.315 0.94 255 255 255
0.014 -0.145 0.387 255 255 255
-0.514 -0.097 1.09 255 255 255
0.176 -0.398 0.583 255 255 255
0.132 0.233 1.125 255 255 255
0.178 -0.177 0.45 255 255 255
-0.164 -0.122 0.387 255 255 255
0.296 0.524 0.998 255 255 255
-0.115 -0.102 0.393 255 255 255
-0.21 -0.073 1.185 0 0 0
-0.34 0.057 1.061 255 255 255
0.038 -0.036 0.409 255 255 255
0.52 0.311 1.228 255 255 255
-0.338 0.258 0.927 255 255 255
0.186 -0.156 0.442 255 255 255
0.34 0.052 1.32 255 255 255
0.124 0.116 1.199 255 255 255
0.168 -0.169 0.443 255 255 255
0.149 -0.056 0.379 255 255 255
0.004 0.256 1.061 255 255 255
-0.067 -0.091 0.388 255 255 255
-0.583 0.057 0.946 0 0 0
-0.123 -0.32 0.445 255 255 255
0.477 0.364 1.173 255 255 255
0.062 0.399 0.992 255 255 255
-0.597 -0.225 0.917 255 255 255
-0.116 -0.123 0.329 255 255 255
-0.194 0.137 0.461 255 255 255
-0.138 0.107 1.108 255 255 255
-0.098 -0.114 0.356 255 255 255
0.315 -0.156 0.502 255 255 255
0.102 -0.04 0.352 255 255 255
-0.006 0.385 0.975 255 255 255
0.048 0.254 1.078 255 255 255
-0.168 0.141 1.07 255 255 255
-0.319 0.158 1 255 255 255
0.163 -0.059 0.386 255 255 255
-0.479 -0.032 1.018 0 0 0
-0.495 0.174 0.922 255 255 255
