ply
format ascii 1.0
comment Created by Open3D
element vertex 1599
property double x
property double y
property double z
property uchar red
property uchar green
property uchar blue
end_header
0.007 0.253 1.135 255 255 255
0.13 -0.36 0.479 0 0 0
-0.113 -0.279 0.487 255 255 255
0.188 0.017 0.391 255 255 255
-0.156 -0.26 0.482 255 255 255
0.009 0.155 1.209 255 255 255
-0.415 0.155 1.051 255 255 255
-0.037 0.335 1.052 255 255 255
0.264 -0.149 0.501 255 255 255
0.11 -0.143 0.467 255 255 255
0.115 0.103 0.364 255 255 255
-0.206 0.334 0.987 255 255 255
0.127 -0.049 0.42 255 255 255
-0.187 0.206 0.45 0 0 0
0.021 -0.085 0.41 255 255 255
-0.454 0.089 1.073 0 0 0
0.208 0.003 0.412 255 255 255
0.312 -0.328 0.722 255 255 255
-0.5 0.169 0.971 255 255 255
0.463 0.258 1.294 255 255 255
0.427 0.238 1.284 255 255 255
-0.544 0.178 0.94 255 255 255
0.04 0.331 1.082 255 255 255
0.086 -0.165 0.474 255 255 255
-0.175 -0.052 0.414 255 255 255
0.029 0.136 1.232 255 255 255
0.135 0.164 1.251 255 255 255
0.131 -0.092 0.46 255 255 255
0.223 0.078 0.431 255 255 255
0.313 -0.336 0.723 255 255 255
0.2 -0.138 0.476 255 255 255
0.231 0.008 0.418 255 255 255
-0.112 -0.146 0.405 255 255 255
-0.478 0.263 0.942 255 255 255
-0.227 -0.218 0.434 255 255 255
0.276 0.543 1.004 255 255 255
-0.322 0.235 1.022 255 255 255
0.164 -0.042 0.426 255 255 255
-0.155 -0.182 0.418 255 255 255
0.104 0.479 0.993 0 0 0
-0.22 -0.204 0.424 255 255 255
-0.067 -0.133 0.413 255 255 255
-0.523 -0.102 1.145 255 255 255
0.132 -0.156 0.477 0 0 0
0.223 0.349 1.136 255 255 255
0.173 -0.054 0.441 255 255 255
0.009 0.219 1.159 255 255 255
0.156 -0.341 0.626 255 255 255
0.479 0.403 1.193 255 255 255
0.214 -0.063 0.465 255 255 255
-0.117 -0.036 0.416 255 255 255
-0.061 0.467 0.941 255 255 255
0.041 -0.453 0.704 255 255 255
0.393 0.582 1.023 255 255 255
0.247 -0.149 0.493 255 255 255
-0.148 0.237 1.087 255 255 255
0.33 -0.03 0.475 255 255 255
-0.447 0.01 1.087 255 255 255
-0.006 -0.372 0.506 0 0 0
0.126 -0.012 0.392 255 255 255
-0.551 -0.128 0.999 255 255 255
-0.17 0.182 1.123 255 255 255
-0.06 -0.135 0.418 255 255 255
0.214 0.068 0.414 255 255 255
-0.513 0.153 0.973 255 255 255
0.124 0.482 0.999 255 255 255
-0.033 -0.089 0.389 255 255 255
-0.098 -0.37 0.54 255 255 255
0.087 0.036 0.429 255 255 255
0.048 0.367 1.057 255 255 255
-0.398 0.129 1.079 255 255 255
0.283 -0.097 0.51 0 0 0
0.395 -0.235 0.661 255 255 255
0.355 0.565 1.019 255 255 255
-0.408 -0.052 1.207 255 255 255
-0.204 0.279 1.032 255 255 255
0.065 -0.152 0.475 255 255 255
0.149 0.059 0.435 255 255 255
0.249 -0.179 0.515 255 255 255
-0.106 -0.39 0.543 255 255 255
-0.296 0.064 1.164 255 255 255
-0.03 -0.056 0.368 255 255 255
-0.474 0.192 1.001 255 255 255
0.477 0.344 1.239 255 255 255
0.213 -0.224 0.536 255 255 255
0.047 -0.026 0.373 255 255 255
0.042 -0.234 0.488 255 255 255
-0.063 -0.003 0.459 255 255 255
-0.442 0.194 1.01 255 255 255
0.059 -0.073 0.412 255 255 255
0.04 -0.034 0.375 255 255 255
0.105 -0.143 0.467 255 255 255
-0.094 -0.17 0.432 255 255 255
0.014 -0.011 0.403 255 255 255
0.552 0.306 1.3 255 255 255
-0.248 0.078 1.167 0 0 0
0.184 -0.131 0.483 255 255 255
-0.102 -0.187 0.443 255 255 255
-0.184 -0.058 0.416 255 255 255
-0.117 -0.178 0.429 255 255 255
0.363 -0.082 0.527 255 255 255
-0.343 0.14 1.088 255 255 255
0.248 0.364 1.133 0 0 0
-0.124 -0.106 0.367 255 255 255
0.454 0.348 1.228 255 255 255
-0.117 -0.168 0.418 255 255 255
-0.008 0.001 0.42 255 255 255
-0.167 -0.232 0.455 255 255 255
0.209 -0.25 0.555 255 255 255
-0.085 0.051 1.255 0 0 0
0.332 0.406 1.136 255 255 255
0.196 -0.01 0.416 255 255 255
-0.219 0.188 1.099 255 255 255
-0.706 -0.201 1.001 255 255 255
0.243 -0.071 0.462 255 255 255
0.447 0.255 1.282 255 255 255
0.213 -0.076 0.461 255 255 255
0.154 0.303 1.147 255 255 255
0.05 -0.014 0.36 255 255 255
-0.205 0.473 0.888 255 255 255
-0.542 -0.103 1.039 255 255 255
-0.286 -0.107 0.395 255 255 255
-0.192 0.465 0.897 255 255 255
-0.158 -0.228 0.454 255 255 255
-0.214 0.176 1.111 255 255 255
-0.355 0.017 1.172 0 0 0
-0.128 -0.043 0.414 255 255 255
0.11 0.144 1.257 255 255 255
0.018 -0.126 0.444 255 255 255
0.167 0.049 0.41 255 255 255
0.162 -0.311 0.515 0 0 0
-0.19 -0.349 0.512 255 255 255
0.263 -0.018 0.441 255 255 255
0.225 0.07 0.414 255 255 255
0.068 0.441 1.008 255 255 255
-0.042 -0.014 0.416 255 255 255
0.147 0.403 1.069 255 255 255
-0.125 -0.207 0.449 255 255 255
0.055 0.021 0.422 255 255 255
-0.04 -0.106 0.403 255 255 255
0.06 0.186 1.204 255 255 255
0.1 -0.04 0.4 255 255 255
-0.175 0.229 0.475 0 0 0
-0.159 0.49 0.892 255 255 255
0.22 -0.054 0.458 255 255 255
0.305 -0.123 0.538 255 255 255
0.036 -0.174 0.469 255 255 255
0.163 0.352 1.111 255 255 255
0.201 0.083 0.442 255 255 255
0.247 0.526 1.005 255 255 255
0.205 0.301 1.163 255 255 255
-0.536 -0.033 1.111 255 255 255
0.4 -0.204 0.639 255 255 255
-0.205 0.234 1.067 255 255 255
-0.186 -0.1 0.342 255 255 255
-0.224 -0.064 0.425 255 255 255
-0.399 -0.07 0.525 255 255 255
-0.513 0.137 0.985 0 0 0
-0.097 -0.053 0.39 255 255 255
0.126 0.398 1.064 255 255 255
0.244 0.354 1.141 255 255 255
-0.351 0.24 1.007 255 255 255
0.238 -0.365 0.487 0 0 0
0.133 0.29 1.148 255 255 255
0.296 0.415 1.11 255 255 255
0.076 -0.043 0.395 255 255 255
0.15 0.233 1.2 255 255 255
-0.023 -0.175 0.465 255 255 255
-0.54 -0.025 0.905 255 255 255
-0.344 0.352 0.923 255 255 255
0.003 -0.221 0.471 255 255 255
-0.015 -0.016 0.406 255 255 255
0.217 0.221 1.234 255 255 255
-0.178 -0.15 0.385 255 255 255
0.147 -0.344 0.494 255 255 255
-0.126 -0.248 0.478 0 0 0
-0.161 -0.33 0.529 255 255 255
-0.179 -0.164 0.394 255 255 255
-0.205 0.311 1.005 255 255 255
0.137 -0.204 0.504 0 0 0
0 -0.159 0.462 255 255 255
-0.093 -0.195 0.454 255 255 255
0.127 -0.005 0.387 255 255 255
-0.462 0.257 0.95 0 0 0
0.539 0.374 1.241 255 255 255
-0.206 -0.279 0.465 255 255 255
-0.621 -0.098 0.948 255 255 255
-0.361 0.137 1.084 0 0 0
-0.372 0.073 1.129 255 255 255
0.187 -0.044 0.439 255 255 255
-0.219 0.415 0.923 0 0 0
0.209 -0.272 0.513 255 255 255
0.188 0.004 0.402 255 255 255
-0.086 -0.259 0.484 255 255 255
-0.054 -0.031 0.401 255 255 255
0.091 -0.024 0.388 255 255 255
-0.279 -0.034 1.233 255 255 255
0.178 0.342 1.125 255 255 255
-0.03 0.388 1.012 255 255 255
0.197 0.334 1.138 255 255 255
-0.114 -0.105 0.373 255 255 255
-0.336 0.307 0.96 255 255 255
0.183 -0.171 0.505 255 255 255
0.207 0.065 0.415 255 255 255
0.443 0.54 1.071 255 255 255
0.314 -0.044 0.48 255 255 255
0.514 0.502 1.133 0 0 0
-0.168 -0.126 0.367 255 255 255
0.31 0.436 1.101 255 255 255
0.005 -0.188 0.467 255 255 255
-0.181 -0.323 0.527 255 255 255
0.313 -0.202 0.565 255 255 255
0.22 0.103 0.455 255 255 255
0.326 -0.103 0.531 255 255 255
-0.129 0.461 0.921 255 255 255
-0.103 0.239 1.101 255 255 255
0.498 0.514 1.118 0 0 0
-0.409 0.145 1.06 255 255 255
0.21 0.396 1.092 255 255 255
-0.042 -0.214 0.47 255 255 255
-0.298 0.013 1.194 0 0 0
-0.201 0.04 1.219 255 255 255
-0.271 0.427 0.881 255 255 255
0.234 -0.098 0.478 255 255 255
0.106 -0.125 0.472 0 0 0
0.104 -0.069 0.427 255 255 255
-0.27 -0.091 0.408 255 255 255
0.384 0.469 1.103 255 255 255
0.136 -0.014 0.397 255 255 255
-0.401 -0.065 0.528 255 255 255
0.068 -0.17 0.47 255 255 255
-0.037 -0.152 0.441 255 255 255
-0.207 -0.274 0.462 0 0 0
0.147 -0.069 0.442 255 255 255
-0.249 0.191 1.086 255 255 255
-0.52 -0.078 1.044 255 255 255
-0.287 0.346 0.948 255 255 255
0.123 0.151 1.256 255 255 255
-0.169 0.356 0.984 255 255 255
-0.046 -0.111 0.403 255 255 255
-0.191 0.241 1.063 255 255 255
-0.127 0.39 0.977 255 255 255
-0.138 0.319 1.025 255 255 255
-0.105 0.243 1.097 255 255 255
-0.167 0.217 0.416 255 255 255
0.051 -0.364 0.49 0 0 0
-0.071 0.276 1.085 255 255 255
0 -0.301 0.513 255 255 255
0.04 -0.004 0.37 255 255 255
0.06 -0.002 0.366 255 255 255
0.039 -0.165 0.48 0 0 0
0.133 0.029 0.374 255 255 255
-0.007 0.009 0.428 255 255 255
0.063 -0.081 0.423 255 255 255
0.329 -0.1 0.529 255 255 255
0.114 -0.356 0.597 255 255 255
0.397 0.561 1.034 255 255 255
0.233 -0.045 0.458 255 255 255
-0.205 -0.385 0.516 0 0 0
-0.514 0.143 1.017 255 255 255
-0.156 0.375 0.976 255 255 255
-0.201 0.061 1.206 255 255 255
0.346 -0.076 0.518 255 255 255
0.051 -0.362 0.493 0 0 0
0.081 -0.001 0.369 255 255 255
0.05 -0.197 0.471 255 255 255
-0.29 0.116 1.13 255 255 255
-0.256 0.223 1.054 255 255 255
0.143 -0.17 0.495 0 0 0
-0.122 -0.155 0.407 0 0 0
0.556 0.419 1.215 255 255 255
0.337 -0.34 0.736 0 0 0
0.019 -0.126 0.445 255 255 255
-0.073 -0.057 0.353 255 255 255
-0.531 -0.062 1.044 255 255 255
0.066 -0.157 0.471 255 255 255
0.04 -0.109 0.439 255 255 255
-0.496 0.026 1.088 255 255 255
-0.223 -0.061 0.422 255 255 255
0.056 -0.006 0.367 255 255 255
-0.31 0.043 1.173 255 255 255
0.294 -0.3 0.524 255 255 255
0.086 0.308 1.117 255 255 255
0.145 -0.001 0.391 255 255 255
-0.106 0.374 0.996 255 255 255
-0.131 -0.166 0.416 0 0 0
-0.012 -0.064 0.38 255 255 255
0.041 -0.31 0.537 255 255 255
-0.002 -0.174 0.47 255 255 255
-0.166 -0.224 0.447 255 255 255
0.047 -0.005 0.365 255 255 255
-0.117 -0.386 0.535 255 255 255
0.256 -0.285 0.532 0 0 0
-0.23 -0.325 0.49 255 255 255
-0.177 0.216 0.45 0 0 0
-0.083 -0.123 0.397 255 255 255
-0.087 -0.213 0.468 255 255 255
0.142 0.049 0.45 0 0 0
0.16 0.154 1.271 255 255 255
0.205 0.485 1.027 0 0 0
-0.12 -0.388 0.535 0 0 0
0.122 -0.198 0.487 255 255 255
-0.064 0.103 1.223 255 255 255
0.14 0.271 1.168 255 255 255
0.372 -0.152 0.587 255 255 255
0.45 0.522 1.09 0 0 0
-0.216 0.321 0.993 0 0 0
0.15 0.064 0.436 255 255 255
0.353 0.573 1.015 255 255 255
0.277 -0.271 0.532 255 255 255
-0.191 0.205 0.449 0 0 0
0.121 0.142 1.262 255 255 255
0.594 0.388 1.258 255 255 255
-0.444 0.151 1.043 255 255 255
0.009 0.157 1.207 255 255 255
0.018 0.025 0.45 255 255 255
-0.452 0.129 1.052 0 0 0
-0.059 0.243 1.114 255 255 255
-0.226 -0.166 0.379 255 255 255
-0.097 -0.2 0.454 255 255 255
0.054 -0.391 0.638 255 255 255
-0.04 -0.179 0.462 255 255 255
0.14 -0.1 0.468 255 255 255
0 0.478 0.956 255 255 255
-0.126 -0.16 0.41 0 0 0
-0.007 -0.012 0.408 255 255 255
0.362 -0.332 0.722 255 255 255
-0.181 0.242 1.067 255 255 255
-0.017 0.487 0.944 255 255 255
-0.238 -0.156 0.372 255 255 255
-0.048 -0.08 0.378 255 255 255
0.107 -0.019 0.392 255 255 255
-0.582 -0.114 0.953 255 255 255
0.228 -0.027 0.442 255 255 255
0.665 0.362 1.305 255 255 255
0.163 -0.135 0.479 255 255 255
0.142 0.019 0.372 255 255 255
0.422 -0.178 0.626 255 255 255
0.198 0.007 0.403 255 255 255
-0.021 -0.141 0.441 255 255 255
-0.131 -0.034 0.421 255 255 255
-0.143 -0.048 0.413 255 255 255
-0.541 0.153 0.96 255 255 255
0.222 0.49 1.004 255 255 255
-0.089 0.458 0.94 255 255 255
-0.116 -0.151 0.407 255 255 255
-0.061 -0.053 0.354 255 255 255
0.258 -0.22 0.55 255 255 255
0.128 -0.166 0.485 255 255 255
-0.02 -0.039 0.357 255 255 255
0.137 0.299 1.143 255 255 255
-0.029 -0.025 0.399 255 255 255
0.24 -0.322 0.508 0 0 0
0.543 0.278 1.288 255 255 255
-0.23 -0.352 0.483 0 0 0
0.293 -0.073 0.495 255 255 255
0.014 -0.024 0.363 255 255 255
0.006 -0.18 0.477 0 0 0
-0.217 -0.313 0.444 255 255 255
0.043 -0.183 0.471 255 255 255
0.189 0.079 0.443 255 255 255
0.105 -0.315 0.525 255 255 255
0.248 0.316 1.169 255 255 255
-0.597 -0.011 1.039 255 255 255
-0.226 -0.277 0.457 0 0 0
-0.212 -0.082 0.396 255 255 255
0.029 -0.031 0.369 255 255 255
0.441 -0.214 0.661 255 255 255
0.01 -0.217 0.473 255 255 255
-0.004 0.431 0.991 255 255 255
0.192 0.041 0.378 255 255 255
0.278 -0.077 0.492 255 255 255
0.216 -0.234 0.541 255 255 255
-0.165 0.219 0.421 255 255 255
-0.159 0.277 1.049 255 255 255
-0.071 -0.009 0.437 255 255 255
0.128 -0.085 0.452 255 255 255
0.221 -0.01 0.425 255 255 255
-0.519 -0.079 1.026 255 255 255
-0.108 0.428 0.955 0 0 0
-0.071 -0.08 0.372 255 255 255
-0.062 -0.044 0.359 255 255 255
-0.288 0.355 0.942 255 255 255
0.059 -0.283 0.519 255 255 255
-0.135 -0.185 0.427 0 0 0
-0.467 0.24 0.967 255 255 255
-0.225 0.176 1.108 255 255 255
-0.017 -0.075 0.386 255 255 255
-0.244 -0.073 0.404 255 255 255
0.213 0.482 1.031 0 0 0
0.154 -0.212 0.521 255 255 255
0.084 -0.188 0.481 0 0 0
-0.05 -0.074 0.376 255 255 255
-0.097 0.261 1.087 255 255 255
0.004 0.435 0.99 255 255 255
-0.462 -0.047 1.191 255 255 255
0.253 -0.033 0.455 0 0 0
-0.055 -0.295 0.498 255 255 255
-0.221 0.363 0.96 255 255 255
-0.554 -0.019 1.025 255 255 255
0.178 -0.199 0.504 255 255 255
0.068 0.034 0.431 255 255 255
0.23 -0.307 0.518 255 255 255
-0.538 0.086 1.016 255 255 255
0.169 0.011 0.389 255 255 255
-0.062 0.28 1.084 255 255 255
-0.115 -0.233 0.47 255 255 255
0.029 -0.147 0.465 255 255 255
0.329 0.476 1.075 0 0 0
0.267 0.302 1.191 255 255 255
-0.068 -0.174 0.448 255 255 255
0.324 -0.16 0.577 255 255 255
-0.319 0.237 1.021 255 255 255
0.309 0.005 0.439 255 255 255
0.223 0.051 0.38 255 255 255
-0.198 -0.339 0.501 255 255 255
0.008 -0.295 0.517 255 255 255
0.665 0.384 1.274 255 255 255
-0.158 0.371 0.977 255 255 255
-0.101 -0.192 0.448 255 255 255
0.09 -0.174 0.471 255 255 255
0.305 -0.339 0.719 255 255 255
-0.092 -0.03 0.416 255 255 255
0.154 0.052 0.415 255 255 255
-0.212 -0.499 0.643 0 0 0
-0.073 0.454 0.949 0 0 0
-0.375 0.209 1.025 255 255 255
0.05 -0.024 0.373 255 255 255
-0.247 0.121 1.14 255 255 255
-0.14 -0.367 0.55 255 255 255
-0.152 -0.077 0.348 255 255 255
0.064 0.012 0.411 255 255 255
-0.558 0.036 1.088 255 255 255
-0.245 -0.093 0.397 255 255 255
-0.115 -0.271 0.481 255 255 255
0.006 -0.087 0.407 255 255 255
-0.059 -0.017 0.42 255 255 255
0.213 -0.3 0.525 255 255 255
0.025 -0.318 0.536 255 255 255
0.272 -0.331 0.508 255 255 255
0.587 0.415 1.231 255 255 255
0.369 0.406 1.146 255 255 255
-0.085 0.385 0.995 255 255 255
-0.21 -0.094 0.382 255 255 255
-0.125 -0.038 0.417 255 255 255
-0.183 -0.281 0.495 255 255 255
-0.086 -0.064 0.355 255 255 255
0.182 0.529 0.981 255 255 255
-0.088 -0.023 0.418 255 255 255
-0.521 0.11 1.039 255 255 255
-0.011 -0.092 0.4 255 255 255
0.005 0.004 0.419 255 255 255
0.488 0.39 1.205 255 255 255
0.166 0.312 1.143 255 255 255
-0.112 -0.056 0.395 255 255 255
-0.045 0.159 1.186 255 255 255
-0.128 0.062 1.23 255 255 255
-0.189 -0.129 0.36 255 255 255
0.102 -0.033 0.397 255 255 255
0.171 -0.108 0.464 255 255 255
0.567 0.323 1.295 255 255 255
-0.268 -0.088 0.41 255 255 255
-0.415 0.305 0.933 0 0 0
-0.147 0.277 0.495 255 255 255
0.233 -0.324 0.505 0 0 0
0.118 -0.108 0.467 255 255 255
-0.312 0.231 1.028 255 255 255
-0.097 -0.054 0.383 255 255 255
-0.465 0.15 1.034 255 255 255
0.044 -0.007 0.365 255 255 255
-0.083 -0.232 0.469 255 255 255
-0.597 0.107 0.979 255 255 255
-0.432 0.195 1.015 255 255 255
-0.034 0.16 1.19 255 255 255
0.314 0.004 0.441 255 255 255
-0.081 0.194 1.147 255 255 255
0.143 -0.364 0.48 0 0 0
0.131 -0.359 0.479 0 0 0
0.139 -0.027 0.405 255 255 255
0.259 -0.283 0.531 0 0 0
-0.043 -0.093 0.389 255 255 255
0.338 -0.114 0.544 255 255 255
0.332 0.381 1.139 255 255 255
-0.291 0.226 1.04 255 255 255
0.156 -0.031 0.417 255 255 255
0.442 0.438 1.151 255 255 255
0.221 -0.106 0.471 255 255 255
0.16 -0.119 0.465 255 255 255
-0.533 -0.076 1.013 255 255 255
-0.219 -0.101 0.357 255 255 255
0.09 -0.054 0.409 255 255 255
-0.04 -0.062 0.37 255 255 255
-0.3 0.374 0.921 255 255 255
0.082 0.254 1.16 255 255 255
0.368 0.367 1.162 255 255 255
0.337 0.307 1.21 255 255 255
0.217 0.022 0.4 255 255 255
-0.076 -0.2 0.462 255 255 255
-0.036 -0.029 0.397 255 255 255
-0.424 0.294 0.936 0 0 0
0.139 -0.344 0.594 255 255 255
-0.192 -0.453 0.602 0 0 0
-0.611 -0.173 0.978 0 0 0
-0.128 -0.068 0.354 255 255 255
-0.204 -0.29 0.472 255 255 255
-0.097 -0.055 0.373 255 255 255
-0.203 0.124 1.154 255 255 255
-0.19 -0.05 0.436 255 255 255
0.331 0.216 1.282 0 0 0
-0.35 0.29 0.967 255 255 255
-0.046 -0.027 0.405 255 255 255
-0.042 0.291 1.083 255 255 255
-0.007 -0.011 0.408 255 255 255
0.037 0.51 0.947 255 255 255
0.18 -0.342 0.497 255 255 255
0.273 0.023 0.413 255 255 255
0.162 -0.177 0.503 255 255 255
-0.053 0.07 1.253 0 0 0
0.061 -0.042 0.388 255 255 255
0.03 -0.065 0.397 255 255 255
-0.509 -0.029 1.158 255 255 255
-0.046 -0.05 0.354 255 255 255
-0.169 -0.19 0.419 255 255 255
-0.093 0.132 1.192 255 255 255
0.521 0.35 1.252 255 255 255
0.344 0.433 1.115 255 255 255
0.163 0.156 1.27 255 255 255
0.303 0.011 0.432 255 255 255
0.043 -0.011 0.366 255 255 255
-0.04 -0.03 0.396 255 255 255
0.015 -0.374 0.496 0 0 0
0.544 0.423 1.206 255 255 255
0.228 0.096 0.45 255 255 255
0.48 0.427 1.174 255 255 255
-0.166 -0.206 0.433 255 255 255
0.696 0.332 1.254 255 255 255
-0.183 0.193 1.103 0 0 0
0.137 -0.019 0.4 255 255 255
0.245 -0.36 0.491 0 0 0
0.367 0.542 1.041 255 255 255
0.021 -0.166 0.471 255 255 255
0.244 -0.009 0.432 0 0 0
0.184 -0.016 0.416 255 255 255
-0.01 0.076 1.264 255 255 255
-0.384 0.326 0.925 0 0 0
0.216 -0.326 0.507 0 0 0
0.222 -0.351 0.491 255 255 255
0.099 0.167 1.237 255 255 255
0.242 0.113 0.467 255 255 255
0.163 -0.021 0.412 255 255 255
-0.143 0.185 1.128 0 0 0
0.18 -0.083 0.466 0 0 0
-0.227 0.022 1.188 0 0 0
0.392 -0.189 0.624 255 255 255
0.153 0.03 0.372 255 255 255
0.226 -0.343 0.495 255 255 255
-0.241 0.291 1.006 255 255 255
-0.082 -0.167 0.434 255 255 255
-0.069 -0.076 0.369 255 255 255
-0.155 0.443 0.924 0 0 0
0.145 -0.147 0.477 0 0 0
-0.58 0.039 1.022 255 255 255
0.135 0.044 0.445 255 255 255
0.013 -0.128 0.444 255 255 255
0.167 -0.015 0.408 255 255 255
0.211 -0.06 0.461 255 255 255
-0.295 0.317 0.967 255 255 255
0.086 -0.029 0.388 255 255 255
-0.051 -0.079 0.376 255 255 255
0.017 -0.051 0.379 255 255 255
0.189 -0.302 0.52 255 255 255
-0.063 0.387 1.002 255 255 255
0.259 -0.007 0.431 255 255 255
-0.04 -0.113 0.409 255 255 255
0.034 -0.053 0.387 255 255 255
0.058 -0.025 0.374 255 255 255
0.184 -0.029 0.426 255 255 255
0.013 0.347 1.061 255 255 255
0.371 0.248 1.274 255 255 255
0.38 -0.325 0.722 255 255 255
-0.094 -0.406 0.566 255 255 255
-0.027 0.313 1.071 255 255 255
0.243 -0.02 0.442 255 255 255
0.138 -0.336 0.499 255 255 255
0.032 0.029 0.44 255 255 255
-0.058 -0.25 0.488 255 255 255
-0.027 -0.211 0.471 255 255 255
-0.233 0.213 1.073 255 255 255
0.354 0.278 1.23 255 255 255
0.131 0.029 0.379 255 255 255
0.09 -0.152 0.468 255 255 255
0.301 0.297 1.207 0 0 0
-0.229 -0.363 0.509 255 255 255
0.056 -0.113 0.448 255 255 255
-0.456 0.175 1.022 255 255 255
-0.26 0.363 0.947 255 255 255
-0.417 0.072 1.113 255 255 255
0.157 0.185 1.239 255 255 255
-0.043 -0.003 0.426 255 255 255
0.166 -0.357 0.487 0 0 0
-0.065 -0.058 0.357 255 255 255
-0.083 -0.249 0.475 255 255 255
-0.171 0.239 0.485 255 255 255
-0.21 0.437 0.912 0 0 0
-0.003 -0.042 0.367 255 255 255
-0.123 0.444 0.938 0 0 0
0.055 -0.044 0.388 255 255 255
0.077 -0.376 0.632 255 255 255
-0.061 -0.217 0.479 0 0 0
-0.036 -0.212 0.471 255 255 255
-0.187 -0.098 0.342 255 255 255
-0.359 0.293 0.959 0 0 0
0.023 -0.047 0.378 255 255 255
-0.172 0.394 0.954 255 255 255
-0.178 -0.201 0.423 255 255 255
-0.68 -0.036 1.011 255 255 255
0.098 0.042 0.452 255 255 255
0.213 -0.007 0.421 255 255 255
0.279 -0.285 0.657 255 255 255
-0.528 -0.036 1.152 255 255 255
-0.139 -0.061 0.398 255 255 255
-0.025 0.439 0.977 0 0 0
-0.284 0.256 1.018 255 255 255
0.325 0.208 1.284 0 0 0
0.098 -0.161 0.474 0 0 0
0.165 -0.286 0.521 255 255 255
-0.2 -0.056 0.424 255 255 255
0.008 -0.159 0.463 255 255 255
-0.184 -0.35 0.509 255 255 255
-0.15 -0.116 0.365 255 255 255
-0.068 0.417 0.979 255 255 255
0.164 0.027 0.372 255 255 255
0.177 -0.316 0.517 255 255 255
0.073 -0.13 0.47 255 255 255
0.023 -0.233 0.485 255 255 255
-0.018 -0.18 0.469 255 255 255
-0.63 0.04 0.978 255 255 255
-0.121 -0.071 0.35 255 255 255
0.204 -0.102 0.47 255 255 255
0.038 0.313 1.095 255 255 255
0.331 0.459 1.09 255 255 255
-0.075 -0.098 0.382 255 255 255
0.18 -0.014 0.414 255 255 255
0.076 0.046 0.447 255 255 255
-0.341 0.08 1.139 0 0 0
-0.033 -0.18 0.465 255 255 255
-0.161 -0.094 0.343 255 255 255
0.097 0.479 0.993 0 0 0
-0.392 0.088 1.112 255 255 255
-0.143 -0.142 0.391 255 255 255
0.073 0.241 1.168 255 255 255
-0.132 -0.072 0.349 255 255 255
-0.252 0.179 1.093 255 255 255
-0.069 -0.08 0.373 255 255 255
-0.124 0.117 1.191 255 255 255
-0.034 0.285 1.093 255 255 255
-0.14 -0.383 0.542 255 255 255
-0.208 -0.074 0.406 255 255 255
-0.114 -0.171 0.425 255 255 255
-0.35 0.131 1.093 255 255 255
0.333 -0.104 0.534 255 255 255
-0.214 0.123 1.15 255 255 255
-0.45 0.196 1.006 255 255 255
-0.001 -0.361 0.498 0 0 0
-0.147 -0.231 0.463 255 255 255
0.061 -0.009 0.363 255 255 255
0.206 -0.317 0.511 255 255 255
0.217 -0.344 0.494 255 255 255
0.083 -0.151 0.467 255 255 255
0.021 0.462 0.976 0 0 0
-0.205 -0.074 0.404 255 255 255
-0.179 0.409 0.941 255 255 255
0.365 -0.086 0.531 255 255 255
0.054 0.233 1.165 255 255 255
-0.164 -0.258 0.481 255 255 255
0.232 -0.3 0.632 255 255 255
-0.087 -0.221 0.474 255 255 255
0.377 -0.1 0.546 255 255 255
-0.306 0.243 1.021 255 255 255
0.203 0.059 0.397 255 255 255
0.093 0.022 0.413 0 0 0
0.154 0.058 0.432 255 255 255
0.617 0.426 1.238 255 255 255
0.131 -0.355 0.484 0 0 0
0.049 0.016 0.42 255 255 255
0.114 -0.346 0.49 255 255 255
0.007 -0.348 0.552 255 255 255
0.067 -0.194 0.479 255 255 255
-0.011 0.39 1.018 255 255 255
-0.206 -0.321 0.5 0 0 0
-0.147 -0.223 0.454 0 0 0
-0.17 -0.203 0.429 255 255 255
-0.029 -0.014 0.413 255 255 255
-0.516 0.04 1.079 255 255 255
0.601 0.423 1.233 255 255 255
0.218 -0.324 0.624 255 255 255
0.186 -0.059 0.45 255 255 255
-0.022 0.182 1.177 255 255 255
0.126 0.026 0.374 255 255 255
0.339 0.235 1.269 255 255 255
0.252 0.016 0.412 255 255 255
-0.677 -0.02 1.015 255 255 255
-0.006 0.454 0.974 0 0 0
0.098 0.402 1.046 255 255 255
-0.632 -0.113 0.943 255 255 255
-0.08 0.109 1.213 255 255 255
-0.418 0.289 0.943 255 255 255
-0.043 -0.206 0.477 0 0 0
-0.138 0.17 1.139 0 0 0
0.18 -0.115 0.471 255 255 255
0.017 0.079 1.266 255 255 255
-0.097 -0.093 0.373 255 255 255
-0.012 -0.128 0.431 255 255 255
-0.035 -0.004 0.426 255 255 255
0.155 -0.22 0.521 255 255 255
-0.125 -0.05 0.406 255 255 255
-0.039 0.461 0.954 0 0 0
0.062 -0.071 0.414 255 255 255
-0.143 0.233 0.419 255 255 255
-0.181 -0.322 0.532 255 255 255
-0.226 -0.282 0.46 255 255 255
-0.075 -0.224 0.479 0 0 0
-0.172 -0.338 0.505 0 0 0
-0.156 0.223 0.418 255 255 255
-0.069 0.211 1.136 255 255 255
0.065 -0.095 0.438 255 255 255
0.384 0.45 1.117 255 255 255
0.28 0.235 1.249 255 255 255
-0.242 -0.221 0.42 255 255 255
-0.062 -0.041 0.378 255 255 255
0.034 -0.036 0.374 255 255 255
0.108 -0.354 0.484 0 0 0
0.045 -0.024 0.372 255 255 255
0.264 -0.282 0.532 0 0 0
0.014 0.461 0.974 0 0 0
-0.173 -0.357 0.532 0 0 0
0.297 0.288 1.211 0 0 0
-0.2 0.243 1.061 255 255 255
0.219 -0.346 0.492 255 255 255
0.277 0.003 0.429 255 255 255
0.02 -0.138 0.456 255 255 255
-0.181 0.231 0.495 0 0 0
0.014 -0.142 0.458 255 255 255
0.608 0.354 1.29 255 255 255
0.192 -0.087 0.459 255 255 255
-0.074 -0.092 0.377 255 255 255
0.375 0.296 1.233 255 255 255
0.142 0.369 1.091 255 255 255
0.202 -0.36 0.48 0 0 0
0.282 -0.056 0.477 255 255 255
-0.067 -0.155 0.43 255 255 255
-0.175 -0.327 0.531 255 255 255
0.16 -0.172 0.5 0 0 0
0.14 0.034 0.394 255 255 255
-0.067 -0.048 0.355 255 255 255
0.067 0.144 1.239 255 255 255
-0.033 -0.117 0.412 255 255 255
0.191 0.004 0.405 255 255 255
-0.045 -0.067 0.369 255 255 255
0.085 0.465 0.996 0 0 0
0.204 -0.164 0.507 255 255 255
-0.374 0.158 1.064 255 255 255
-0.616 -0.13 0.951 255 255 255
-0.093 -0.094 0.374 255 255 255
0.054 0.013 0.414 255 255 255
0.273 -0.047 0.467 255 255 255
-0.285 0.2 1.065 255 255 255
-0.017 -0.151 0.451 255 255 255
-0.556 0.136 0.961 255 255 255
0.259 -0.282 0.634 255 255 255
0.071 0.209 1.191 255 255 255
-0.127 0.467 0.919 255 255 255
0.146 -0.04 0.419 255 255 255
-0.17 -0.124 0.363 255 255 255
-0.024 -0.087 0.392 255 255 255
0.123 0.493 0.99 255 255 255
0.136 0.462 1.018 0 0 0
-0.562 -0.15 0.993 255 255 255
-0.614 0.091 0.986 255 255 255
-0.174 -0.351 0.531 0 0 0
0.007 -0.342 0.544 255 255 255
-0.368 0.192 1.042 255 255 255
0.3 0.503 1.041 255 255 255
-0.111 -0.383 0.536 255 255 255
0.15 0.079 0.44 255 255 255
-0.376 0.141 1.077 255 255 255
0.107 0.011 0.367 255 255 255
0.176 -0.338 0.502 255 255 255
-0.521 0.135 1.021 0 0 0
0.046 0.037 0.462 255 255 255
-0.378 0.341 0.918 255 255 255
-0.077 -0.006 0.457 255 255 255
-0.214 -0.308 0.424 0 0 0
-0.057 -0.03 0.404 255 255 255
0.227 -0.303 0.634 255 255 255
-0.001 -0.352 0.496 255 255 255
-0.385 0.167 1.052 255 255 255
-0.172 -0.082 0.378 0 0 0
0.019 -0.158 0.469 255 255 255
-0.462 0.132 1.052 255 255 255
0.205 -0.269 0.512 255 255 255
-0.231 -0.177 0.384 255 255 255
0.202 0.089 0.455 255 255 255
0.122 0.304 1.134 255 255 255
-0.046 -0.158 0.443 255 255 255
0.277 -0.321 0.513 255 255 255
-0.565 0.165 0.947 255 255 255
0.014 -0.212 0.484 255 255 255
0.238 -0.332 0.502 0 0 0
-0.535 0.167 0.956 255 255 255
-0.057 -0.125 0.409 255 255 255
0.035 -0.033 0.372 255 255 255
0.488 0.382 1.214 255 255 255
0.322 -0.08 0.51 255 255 255
0.44 0.348 1.221 255 255 255
0.008 -0.194 0.47 255 255 255
0.276 0.246 1.239 255 255 255
-0.223 0.45 0.877 255 255 255
-0.284 -0.102 0.401 255 255 255
0.223 -0.022 0.436 255 255 255
0.007 -0.015 0.394 255 255 255
0.291 0 0.437 255 255 255
0.062 -0.184 0.478 255 255 255
0.384 -0.161 0.599 255 255 255
0.106 -0.185 0.473 255 255 255
-0.16 -0.151 0.39 255 255 255
0.269 0.383 1.127 255 255 255
0.13 -0.346 0.491 255 255 255
0.196 -0.14 0.482 255 255 255
-0.095 -0.147 0.411 255 255 255
-0.074 0.349 1.023 255 255 255
0.23 -0.34 0.495 255 255 255
-0.447 0.067 1.098 255 255 255
-0.619 0.096 0.971 255 255 255
0.338 0.346 1.152 255 255 255
0.363 -0.16 0.59 255 255 255
0.126 0.091 0.388 255 255 255
0.244 -0.086 0.471 0 0 0
-0.52 0.103 1.041 255 255 255
-0.102 -0.048 0.4 255 255 255
0.157 0.466 1.024 0 0 0
0.048 0.275 1.13 255 255 255
0.029 -0.046 0.377 255 255 255
-0.272 0.087 1.157 255 255 255
0.004 0.285 1.104 255 255 255
0.515 0.449 1.172 255 255 255
0.114 -0.074 0.435 255 255 255
0.055 0.046 0.502 255 255 255
0.072 0.327 1.1 255 255 255
-0.342 0.291 0.97 255 255 255
-0.403 0.304 0.933 255 255 255
-0.514 -0.114 1.149 255 255 255
0.189 -0.123 0.466 255 255 255
0.082 -0.141 0.477 0 0 0
0.014 0.019 0.427 255 255 255
-0.42 0.296 0.937 255 255 255
-0.081 -0.05 0.362 255 255 255
-0.12 0.236 1.096 255 255 255
-0.265 0.411 0.896 0 0 0
0.417 -0.155 0.607 255 255 255
0.095 0.49 0.981 255 255 255
0.157 -0.015 0.405 255 255 255
-0.323 0.144 1.092 0 0 0
0.065 -0.361 0.489 0 0 0
0.111 -0.338 0.608 255 255 255
-0.205 -0.084 0.394 255 255 255
-0.362 0.365 0.904 255 255 255
-0.175 -0.249 0.468 255 255 255
0.025 -0.008 0.385 255 255 255
-0.169 -0.33 0.539 255 255 255
0.229 0.052 0.379 255 255 255
0.278 -0.319 0.512 255 255 255
0.115 -0.045 0.413 255 255 255
0.074 0.018 0.414 0 0 0
0.435 0.44 1.145 255 255 255
-0.238 0.41 0.919 0 0 0
-0.072 -0.094 0.38 255 255 255
0.403 -0.173 0.614 255 255 255
-0.264 0.351 0.956 255 255 255
0.297 0.015 0.427 255 255 255
-0.028 0.505 0.925 255 255 255
-0.313 0.389 0.911 255 255 255
-0.372 0.22 1.015 255 255 255
-0.533 -0.044 1.04 255 255 255
-0.29 0.155 1.097 255 255 255
0.116 0.041 0.451 255 255 255
-0.003 -0.165 0.466 255 255 255
-0.184 -0.048 0.434 255 255 255
0.066 0.358 1.072 255 255 255
-0.127 0.04 1.246 0 0 0
0.08 -0.081 0.431 255 255 255
-0.031 -0.043 0.354 255 255 255
-0.144 -0.053 0.407 255 255 255
-0.172 -0.178 0.409 255 255 255
-0.182 0.448 0.911 255 255 255
0.142 0.41 1.062 255 255 255
-0.131 0.396 0.969 255 255 255
0 0.285 1.103 255 255 255
-0.119 0.353 1.006 0 0 0
-0.102 0.422 0.963 255 255 255
0.223 -0.374 0.476 255 255 255
0.474 0.437 1.165 255 255 255
0.227 0.319 1.162 255 255 255
-0.283 0.2 1.065 255 255 255
0.123 0.261 1.168 255 255 255
-0.386 0.005 1.181 255 255 255
-0.177 -0.215 0.436 255 255 255
-0.388 0.212 1.016 255 255 255
0.208 -0.372 0.472 255 255 255
-0.077 -0.045 0.39 255 255 255
0.1 -0.14 0.472 255 255 255
0.036 0.031 0.446 255 255 255
-0.158 -0.377 0.544 255 255 255
0.099 -0.047 0.407 255 255 255
0.155 -0.236 0.52 0 0 0
-0.175 -0.079 0.39 255 255 255
-0.167 -0.147 0.384 255 255 255
0.093 0.368 1.072 255 255 255
-0.39 0.008 1.169 255 255 255
0.254 -0.325 0.665 255 255 255
0.185 -0.087 0.47 0 0 0
-0.456 0.046 1.073 0 0 0
0.141 0.026 0.37 255 255 255
0.258 0.102 0.448 255 255 255
-0.106 -0.092 0.366 255 255 255
0.22 -0.163 0.496 255 255 255
-0.414 0.36 0.896 255 255 255
0.408 -0.116 0.569 255 255 255
-0.005 0.229 1.147 255 255 255
-0.28 -0.096 0.407 255 255 255
0.238 -0.354 0.492 0 0 0
-0.04 -0.049 0.355 255 255 255
0.225 0.095 0.45 255 255 255
0.173 -0.367 0.48 0 0 0
0.67 0.352 1.311 255 255 255
-0.407 0.181 1.034 255 255 255
0.237 -0.072 0.462 255 255 255
0.087 0.468 0.997 0 0 0
-0.13 -0.079 0.35 255 255 255
0.027 -0.053 0.384 255 255 255
0.084 0.143 1.248 255 255 255
0.208 0.023 0.397 255 255 255
-0.275 0.322 0.973 255 255 255
0.218 0.468 1.039 0 0 0
0.031 -0.28 0.511 255 255 255
0.24 0.059 0.383 255 255 255
0.027 0.285 1.113 255 255 255
0.143 -0.222 0.507 255 255 255
0.011 0.211 1.164 255 255 255
0.018 -0.138 0.454 255 255 255
-0.016 -0.053 0.37 255 255 255
-0.149 0.221 1.098 255 255 255
-0.174 -0.119 0.361 255 255 255
-0.209 -0.161 0.388 255 255 255
0.096 -0.051 0.409 255 255 255
0.162 -0.006 0.398 255 255 255
-0.223 0.065 1.188 255 255 255
-0.273 0.409 0.909 0 0 0
-0.188 0.212 0.475 0 0 0
-0.011 -0.13 0.435 255 255 255
-0.396 0.068 1.124 255 255 255
0.026 -0.064 0.394 255 255 255
-0.214 -0.308 0.423 0 0 0
0.3 -0.009 0.448 255 255 255
-0.062 -0.049 0.354 255 255 255
0.098 -0.069 0.424 255 255 255
0.022 -0.019 0.364 255 255 255
0.382 0.223 1.286 255 255 255
0.192 -0.156 0.5 255 255 255
0.123 0.285 1.148 255 255 255
0.178 -0.235 0.534 255 255 255
-0.216 0.402 0.935 255 255 255
-0.166 0.364 0.98 255 255 255
0.34 0.528 1.04 255 255 255
-0.001 -0.176 0.471 255 255 255
-0.062 0.077 1.244 255 255 255
0.205 0.021 0.396 255 255 255
-0.381 0.127 1.086 0 0 0
0.126 -0.018 0.396 255 255 255
0.005 -0.183 0.472 255 255 255
0.159 0.305 1.147 255 255 255
-0.149 -0.07 0.393 255 255 255
-0.049 0.294 1.077 255 255 255
-0.402 0.041 1.142 0 0 0
0.251 0.55 0.996 255 255 255
-0.069 -0.044 0.381 255 255 255
0.202 0.007 0.406 255 255 255
0.217 0.058 0.378 255 255 255
-0.083 0.198 1.143 255 255 255
0.055 -0.192 0.476 255 255 255
0.022 -0.036 0.37 255 255 255
-0.388 0.341 0.915 255 255 255
-0.17 0.297 1.03 255 255 255
-0.11 -0.278 0.477 255 255 255
-0.543 0.107 1.001 255 255 255
-0.134 -0.292 0.495 255 255 255
0.075 -0.214 0.489 255 255 255
0.044 -0.009 0.366 255 255 255
0.03 -0.37 0.493 0 0 0
-0.223 -0.194 0.415 255 255 255
-0.441 0.112 1.058 0 0 0
-0.619 -0.078 0.968 255 255 255
-0.286 0.192 1.07 255 255 255
0.049 -0.068 0.406 255 255 255
-0.144 -0.356 0.56 255 255 255
-0.058 -0.009 0.425 255 255 255
-0.059 -0.105 0.391 255 255 255
0.01 0.444 0.984 0 0 0
-0.221 -0.199 0.419 255 255 255
-0.522 0.068 1.042 255 255 255
0.28 -0.041 0.465 255 255 255
0.119 -0.329 0.503 255 255 255
0.049 -0.014 0.361 255 255 255
-0.075 -0.184 0.452 255 255 255
0.201 0.076 0.435 255 255 255
-0.303 -0.096 0.409 255 255 255
-0.163 -0.227 0.453 255 255 255
0.007 -0.015 0.388 255 255 255
0.364 -0.172 0.6 255 255 255
0.029 -0.128 0.451 255 255 255
0.691 0.346 1.267 255 255 255
-0.082 -0.046 0.394 255 255 255
0.026 -0.148 0.465 255 255 255
0.007 -0.158 0.462 255 255 255
-0.226 -0.1 0.384 255 255 255
-0.08 -0.24 0.472 255 255 255
-0.178 0.395 0.951 255 255 255
-0.565 0.049 1.055 255 255 255
-0.127 -0.123 0.38 255 255 255
0.07 -0.326 0.504 255 255 255
0.197 0.41 1.078 255 255 255
0.13 -0.232 0.51 255 255 255
-0.381 0.242 0.993 255 255 255
-0.291 0.034 1.185 255 255 255
-0.062 0.497 0.921 255 255 255
0.341 0.407 1.131 255 255 255
-0.195 0.372 0.963 255 255 255
0.193 0.037 0.377 255 255 255
0.615 0.357 1.29 255 255 255
-0.619 -0.116 0.94 255 255 255
-0.47 -0.049 1.191 255 255 255
-0.171 0.356 0.984 255 255 255
-0.276 0.107 1.141 0 0 0
0.293 -0.275 0.533 255 255 255
-0.075 -0.253 0.482 255 255 255
-0.564 0.036 1.083 255 255 255
0.098 -0.099 0.452 255 255 255
-0.046 0.131 1.208 255 255 255
-0.005 0.148 1.211 255 255 255
0.185 0.191 1.245 255 255 255
-0.412 0.161 1.047 255 255 255
0.096 -0.162 0.474 255 255 255
0.19 -0.005 0.411 255 255 255
0.028 -0.177 0.469 255 255 255
0.186 0.085 0.452 255 255 255
0.195 0.071 0.432 255 255 255
-0.044 -0.218 0.47 255 255 255
-0.107 -0.022 0.43 255 255 255
-0.195 -0.164 0.402 255 255 255
0.266 -0.195 0.535 255 255 255
0.004 0.217 1.16 255 255 255
0.071 0.137 0.306 255 255 255
0.341 -0.116 0.547 255 255 255
-0.212 0.03 1.215 0 0 0
0.083 0.222 1.185 255 255 255
0.129 0.427 1.04 255 255 255
0.087 -0.185 0.48 255 255 255
-0.177 -0.147 0.382 255 255 255
-0.006 -0.13 0.436 255 255 255
0.073 -0.069 0.416 255 255 255
0.17 -0.335 0.64 255 255 255
-0.244 0.015 1.196 255 255 255
-0.181 0.456 0.905 255 255 255
0.125 0.06 0.468 255 255 255
0.247 0.022 0.412 255 255 255
-0.187 0.006 1.245 255 255 255
-0.252 -0.281 0.458 255 255 255
0.262 -0.055 0.471 0 0 0
-0.08 -0.255 0.483 255 255 255
-0.175 -0.231 0.449 255 255 255
0.333 0.267 1.241 0 0 0
-0.005 -0.084 0.399 255 255 255
-0.165 0.123 1.172 255 255 255
-0.007 -0.317 0.521 255 255 255
-0.049 -0.078 0.377 255 255 255
-0.208 -0.383 0.516 0 0 0
-0.305 0.104 1.132 255 255 255
-0.226 -0.319 0.489 255 255 255
0.037 -0.362 0.496 0 0 0
0.165 0.241 1.2 255 255 255
-0.095 -0.175 0.434 255 255 255
-0.429 0.31 0.922 255 255 255
-0.363 0.052 1.148 255 255 255
-0.087 -0.42 0.587 255 255 255
0.338 0.317 1.205 255 255 255
-0.607 -0.091 0.953 255 255 255
0.547 0.438 1.196 255 255 255
-0.268 0.213 1.058 255 255 255
-0.227 0.325 0.988 255 255 255
0.429 0.5 1.097 0 0 0
-0.147 -0.06 0.4 255 255 255
0.327 -0.174 0.586 255 255 255
0.233 -0.308 0.639 255 255 255
-0.611 0.117 0.94 255 255 255
-0.393 0.337 0.916 255 255 255
-0.23 0.134 1.136 0 0 0
0.139 -0.111 0.472 0 0 0
-0.138 -0.084 0.348 255 255 255
0.155 -0.358 0.486 0 0 0
-0.191 -0.39 0.517 0 0 0
-0.066 0.436 0.965 0 0 0
-0.581 0.142 0.959 0 0 0
-0.034 0.136 1.209 255 255 255
0.088 -0.125 0.467 255 255 255
0.084 -0.343 0.498 255 255 255
0.004 0.256 1.13 255 255 255
-0.038 -0.133 0.423 255 255 255
0.316 0.45 1.09 255 255 255
-0.136 0.312 1.031 255 255 255
-0.252 0.103 1.152 255 255 255
0.031 0.174 1.201 255 255 255
-0.304 0.268 1 255 255 255
-0.25 -0.087 0.404 255 255 255
0.528 0.312 1.283 255 255 255
0.039 -0.261 0.506 255 255 255
0.296 0.417 1.109 255 255 255
0.239 -0.245 0.568 255 255 255
0.243 0.231 1.233 255 255 255
-0.515 0.24 0.942 255 255 255
0.182 -0.37 0.479 0 0 0
-0.028 -0.088 0.391 255 255 255
-0.108 -0.13 0.393 0 0 0
0.338 0.224 1.28 255 255 255
0.42 -0.206 0.649 255 255 255
0.061 0 0.367 255 255 255
0.2 -0.372 0.681 255 255 255
0.095 0.118 0.348 0 0 0
0.136 -0.317 0.509 0 0 0
0.021 -0.143 0.46 255 255 255
-0.049 -0.069 0.37 255 255 255
0.247 -0.317 0.513 0 0 0
-0.12 -0.08 0.351 255 255 255
0.04 -0.085 0.418 255 255 255
0.188 -0.181 0.511 255 255 255
-0.186 0.296 1.024 255 255 255
-0.078 0.219 1.128 255 255 255
0.051 0.401 1.032 0 0 0
-0.121 0.398 0.97 255 255 255
0.234 0.089 0.442 255 255 255
0.258 -0.326 0.509 255 255 255
-0.522 0.104 1.041 255 255 255
-0.07 -0.125 0.404 255 255 255
0.152 0.511 0.988 255 255 255
-0.207 -0.175 0.404 255 255 255
-0.098 0.322 1.037 255 255 255
0.205 0.487 1.027 0 0 0
-0.304 0.207 1.05 255 255 255
-0.181 -0.146 0.38 255 255 255
0.094 -0.37 0.614 255 255 255
-0.022 -0.07 0.381 255 255 255
0.246 0.553 1.002 255 255 255
-0.14 -0.409 0.55 0 0 0
-0.524 0.033 1.097 255 255 255
-0.008 -0.077 0.39 255 255 255
0.021 0.032 0.484 255 255 255
-0.199 0.353 0.978 255 255 255
-0.195 0.426 0.926 0 0 0
-0.241 0.169 1.107 255 255 255
0.125 -0.254 0.531 255 255 255
0.171 0.344 1.119 255 255 255
-0.583 -0.082 0.953 255 255 255
0.084 -0.373 0.62 255 255 255
-0.18 -0.244 0.456 255 255 255
0.224 0.543 0.987 255 255 255
-0.387 0.351 0.908 255 255 255
0.129 0.036 0.441 255 255 255
0.044 -0.151 0.47 255 255 255
-0.581 0.179 0.963 255 255 255
0.006 -0.007 0.409 255 255 255
0.036 -0.143 0.464 255 255 255
-0.141 -0.374 0.55 255 255 255
-0.275 0.003 1.213 255 255 255
-0.222 0.077 1.182 255 255 255
0.289 -0.274 0.538 255 255 255
0.022 0.337 1.071 255 255 255
0.031 -0.072 0.405 255 255 255
0.192 0.075 0.437 255 255 255
-0.014 0.271 1.112 255 255 255
-0.137 0.187 1.13 255 255 255
-0.113 -0.131 0.393 0 0 0
0.237 0.54 0.994 255 255 255
0.09 0.491 0.979 255 255 255
-0.033 -0.134 0.427 255 255 255
-0.036 -0.139 0.431 255 255 255
-0.162 0.239 0.46 255 255 255
0.235 -0.116 0.47 255 255 255
0.152 -0.001 0.392 255 255 255
0.112 0.273 1.157 255 255 255
-0.047 -0.018 0.415 255 255 255
0.279 -0.284 0.531 255 255 255
-0.471 0.113 1.062 255 255 255
-0.149 -0.12 0.369 255 255 255
0.089 -0.035 0.394 255 255 255
0.172 -0.287 0.511 255 255 255
0.2 -0.324 0.509 255 255 255
-0.424 0.2 1.012 255 255 255
0.071 -0.174 0.476 255 255 255
-0.233 -0.198 0.411 255 255 255
-0.106 0.264 1.08 255 255 255
0.113 -0.148 0.467 255 255 255
-0.078 -0.369 0.541 255 255 255
0.07 -0.145 0.473 0 0 0
0.208 0.295 1.17 255 255 255
0.049 -0.269 0.504 255 255 255
0.351 -0.04 0.491 0 0 0
0.07 0.006 0.369 255 255 255
0.135 -0.007 0.393 255 255 255
0.063 -0.062 0.408 255 255 255
-0.127 0.201 1.12 255 255 255
-0.444 0.25 0.963 255 255 255
0.039 -0.198 0.477 255 255 255
0.197 0.355 1.12 255 255 255
0.309 0.339 1.177 255 255 255
-0.51 0.046 1.062 255 255 255
0.356 -0.324 0.731 0 0 0
0.24 0.431 1.068 255 255 255
-0.182 -0.303 0.503 0 0 0
0.049 -0.085 0.421 255 255 255
0.201 -0.074 0.469 0 0 0
-0.182 0.072 1.196 255 255 255
-0.189 0.453 0.906 255 255 255
0.099 -0.317 0.503 255 255 255
0.329 -0.01 0.46 255 255 255
0.374 -0.151 0.587 255 255 255
-0.306 0.35 0.938 255 255 255
0.221 -0.068 0.47 0 0 0
-0.124 -0.124 0.383 255 255 255
-0.04 0.007 0.461 255 255 255
-0.125 -0.059 0.395 255 255 255
-0.63 -0.1 0.949 255 255 255
0.039 -0.294 0.526 255 255 255
0.161 -0.347 0.495 255 255 255
0.217 -0.319 0.638 255 255 255
0.333 -0.1 0.531 255 255 255
0.033 -0.371 0.492 0 0 0
-0.119 -0.114 0.377 255 255 255
0.335 -0.11 0.54 255 255 255
0.004 0.334 1.069 255 255 255
0.251 -0.074 0.469 255 255 255
0.01 -0.117 0.433 255 255 255
0.567 0.29 1.3 255 255 255
-0.157 -0.132 0.375 255 255 255
-0.021 -0.086 0.392 255 255 255
-0.186 0.439 0.916 0 0 0
0.254 -0.305 0.52 255 255 255
0.146 -0.317 0.512 0 0 0
-0.096 -0.145 0.41 255 255 255
0.399 -0.258 0.683 255 255 255
-0.161 0.257 0.484 255 255 255
-0.049 0.48 0.94 255 255 255
0.249 0.015 0.414 0 0 0
0.034 -0.18 0.47 255 255 255
0.033 -0.035 0.375 255 255 255
0.282 -0.186 0.535 255 255 255
-0.077 0.06 1.25 255 255 255
0.191 -0.119 0.478 255 255 255
0.238 0.213 1.249 255 255 255
-0.482 0.285 0.925 255 255 255
-0.095 -0.101 0.377 255 255 255
0.392 -0.301 0.721 255 255 255
0.18 0.163 1.266 255 255 255
-0.212 0.385 0.948 255 255 255
-0.272 -0.112 0.385 255 255 255
-0.144 -0.126 0.377 255 255 255
-0.199 -0.163 0.4 255 255 255
0.022 -0.046 0.376 255 255 255
-0.082 0.262 1.091 255 255 255
-0.222 0.483 0.887 255 255 255
-0.306 0.376 0.919 255 255 255
0.168 0.267 1.182 255 255 255
-0.079 0.224 1.122 255 255 255
0.126 -0.358 0.624 255 255 255
0.339 0.5 1.062 0 0 0
0.014 -0.061 0.388 255 255 255
0.01 -0.029 0.359 255 255 255
0.167 -0.132 0.479 255 255 255
0.221 -0.357 0.485 0 0 0
-0.188 -0.091 0.348 255 255 255
-0.146 -0.213 0.447 0 0 0
0.15 0.146 1.27 0 0 0
-0.403 -0.054 0.537 255 255 255
0.124 0.318 1.126 255 255 255
0.091 -0.034 0.394 255 255 255
-0.142 -0.138 0.388 255 255 255
-0.084 0.132 1.195 255 255 255
-0.488 0.11 1.049 0 0 0
-0.176 0.23 0.47 255 255 255
0.152 -0.193 0.51 255 255 255
0.132 -0.303 0.505 255 255 255
-0.044 0.124 1.214 255 255 255
-0.047 -0.182 0.461 255 255 255
-0.359 0.243 1.001 255 255 255
-0.343 0.323 0.945 255 255 255
-0.356 0.315 0.946 255 255 255
-0.355 0.353 0.917 255 255 255
-0.172 0.244 1.068 255 255 255
0.408 0.453 1.127 255 255 255
0.22 -0.32 0.51 0 0 0
-0.364 0.19 1.045 255 255 255
-0.44 0.297 0.928 255 255 255
-0.114 -0.14 0.4 255 255 255
-0.184 0.001 1.242 255 255 255
0.141 0.425 1.051 255 255 255
0.256 -0.038 0.457 0 0 0
-0.137 -0.125 0.378 255 255 255
-0.062 0.487 0.926 255 255 255
0.135 -0.057 0.428 255 255 255
-0.15 -0.413 0.557 0 0 0
-0.206 0.059 1.206 255 255 255
0.18 -0.337 0.645 255 255 255
0.105 -0.357 0.482 0 0 0
-0.222 -0.153 0.37 255 255 255
0.369 0.257 1.265 255 255 255
-0.025 -0.016 0.409 255 255 255
0.299 0.295 1.207 0 0 0
0.003 -0.003 0.412 255 255 255
0.141 -0.043 0.42 255 255 255
0.078 -0.134 0.469 255 255 255
-0.161 -0.07 0.396 255 255 255
0.051 0.017 0.42 255 255 255
0.037 -0.035 0.375 255 255 255
-0.12 -0.107 0.37 255 255 255
-0.124 -0.245 0.476 0 0 0
0.066 0.511 0.956 255 255 255
0.388 -0.165 0.605 255 255 255
-0.541 0.112 1.026 0 0 0
-0.123 -0.05 0.404 255 255 255
-0.194 -0.38 0.509 0 0 0
-0.104 -0.181 0.436 255 255 255
0.294 0.545 1.01 255 255 255
0.224 0.002 0.418 255 255 255
0.212 -0.157 0.489 255 255 255
0.537 0.395 1.225 255 255 255
0.148 0.061 0.436 255 255 255
0.035 0.096 1.266 0 0 0
-0.034 -0.026 0.401 255 255 255
0.136 0.036 0.437 255 255 255
-0.6 -0.153 0.98 255 255 255
-0.593 0.131 0.98 255 255 255
0.11 0.502 0.98 255 255 255
0.146 -0.173 0.499 0 0 0
0.28 0.546 1.004 255 255 255
0.373 -0.19 0.618 255 255 255
-0.254 -0.096 0.397 255 255 255
-0.179 -0.131 0.367 255 255 255
0.082 -0.004 0.369 255 255 255
-0.154 -0.081 0.347 255 255 255
0.092 -0.063 0.418 255 255 255
0.008 -0.022 0.36 255 255 255
0.039 -0.135 0.46 255 255 255
-0.112 -0.055 0.396 255 255 255
-0.192 0.298 1.021 255 255 255
-0.111 0.133 1.182 0 0 0
-0.264 0.055 1.177 255 255 255
-0.037 -0.094 0.392 255 255 255
-0.39 0.024 1.161 0 0 0
0.323 0.539 1.024 255 255 255
0.252 0.104 0.45 255 255 255
0.357 -0.138 0.57 255 255 255
-0.068 0.372 1.012 255 255 255
0.117 -0.304 0.512 255 255 255
0.45 -0.235 0.687 255 255 255
-0.056 -0.249 0.475 255 255 255
-0.235 0.402 0.927 255 255 255
0.094 -0.015 0.384 255 255 255
0.23 -0.063 0.47 0 0 0
-0.138 -0.382 0.543 255 255 255
0.256 0.388 1.119 255 255 255
0.226 -0.304 0.521 255 255 255
-0.001 -0.196 0.47 255 255 255
-0.098 -0.29 0.492 255 255 255
-0.462 0.162 1.027 255 255 255
0.135 -0.151 0.47 255 255 255
-0.184 0.314 1.009 255 255 255
0.159 -0.331 0.63 255 255 255
0.229 -0.067 0.465 255 255 255
0.102 0.284 1.144 255 255 255
0.059 -0.12 0.456 255 255 255
0.193 -0.24 0.54 255 255 255
0.081 0.003 0.367 255 255 255
0.152 0.022 0.372 255 255 255
-0.06 0.073 1.249 255 255 255
-0.09 0.489 0.919 255 255 255
-0.05 -0.107 0.397 255 255 255
0.202 0.352 1.125 255 255 255
-0.11 -0.063 0.353 255 255 255
0.287 0.379 1.111 255 255 255
-0.226 -0.107 0.343 255 255 255
0.143 0.055 0.441 0 0 0
-0.198 0.198 1.095 0 0 0
0.398 -0.189 0.626 255 255 255
-0.021 -0.029 0.365 255 255 255
0.164 -0.306 0.514 255 255 255
-0.198 -0.215 0.431 255 255 255
0.253 0.409 1.081 255 255 255
-0.432 0.24 0.976 255 255 255
-0.134 -0.367 0.551 255 255 255
0.056 0.006 0.403 255 255 255
0.073 0.027 0.423 0 0 0
-0.017 -0.189 0.474 0 0 0
-0.041 -0.221 0.473 255 255 255
0.016 -0.035 0.365 255 255 255
-0.382 0.22 1.012 255 255 255
-0.043 0.331 1.052 255 255 255
0.064 -0.178 0.476 255 255 255
-0.058 -0.376 0.558 255 255 255
0.393 -0.206 0.638 255 255 255
-0.223 -0.104 0.347 255 255 255
-0.275 0.256 1.02 255 255 255
0.616 0.383 1.274 255 255 255
0.375 0.381 1.173 255 255 255
-0.358 0.38 0.9 255 255 255
-0.214 0.376 0.954 255 255 255
0.001 -0.17 0.469 255 255 255
0.06 -0.191 0.471 255 255 255
-0.142 -0.162 0.406 255 255 255
0.182 -0.28 0.577 255 255 255
-0.027 -0.016 0.41 255 255 255
-0.029 0.492 0.935 255 255 255
-0.559 0.12 0.967 0 0 0
-0.072 0.298 1.065 255 255 255
-0.16 0.404 0.953 255 255 255
0.057 0.428 1.012 255 255 255
-0.121 -0.057 0.397 255 255 255
-0.297 0.1 1.139 255 255 255
0.211 -0.1 0.472 255 255 255
0.23 -0.045 0.456 255 255 255
0.127 -0.222 0.51 255 255 255
0.045 -0.136 0.464 255 255 255
0.06 0.014 0.413 255 255 255
-0.043 -0.107 0.401 255 255 255
-0.276 0.227 1.044 255 255 255
-0.095 0.347 1.016 255 255 255
-0.128 -0.207 0.449 255 255 255
0.307 -0.112 0.53 255 255 255
-0.03 0.5 0.929 255 255 255
0.272 -0.033 0.456 255 255 255
-0.085 -0.099 0.378 255 255 255
-0.343 0.232 1.016 255 255 255
-0.063 0.201 1.148 255 255 255
-0.062 -0.227 0.471 255 255 255
0.061 -0.084 0.426 255 255 255
0.096 0.313 1.118 255 255 255
-0.022 -0.008 0.415 255 255 255
-0.094 -0.114 0.386 255 255 255
-0.678 -0.135 0.943 255 255 255
-0.148 -0.071 0.39 255 255 255
-0.398 0.227 0.998 255 255 255
-0.13 -0.265 0.474 255 255 255
-0.134 0.101 1.198 0 0 0
-0.07 0.492 0.921 255 255 255
-0.483 0.132 1.042 255 255 255
0.158 -0.093 0.467 255 255 255
0.139 0.021 0.371 255 255 255
0.044 -0.039 0.378 255 255 255
-0.264 0.366 0.943 255 255 255
-0.413 0.242 0.981 255 255 255
0.316 0.243 1.255 255 255 255
0.049 0.388 1.041 255 255 255
-0.343 0.21 1.035 255 255 255
-0.537 0.019 1.107 255 255 255
0.022 0.091 1.265 0 0 0
0.128 0.107 0.398 255 255 255
-0.274 -0.101 0.397 255 255 255
0.135 -0.07 0.441 255 255 255
0.149 -0.323 0.512 0 0 0
0.176 0.313 1.145 255 255 255
-0.225 0.136 1.136 255 255 255
-0.22 -0.103 0.346 255 255 255
0.197 -0.024 0.427 255 255 255
0.056 0.385 1.046 255 255 255
0.266 -0.013 0.439 255 255 255
0.411 0.392 1.174 255 255 255
-0.181 -0.163 0.394 255 255 255
-0.124 0.115 1.192 255 255 255
-0.469 0.234 0.969 255 255 255
-0.094 -0.138 0.406 255 255 255
0.146 0.066 0.443 255 255 255
0.113 -0.094 0.453 255 255 255
-0.164 -0.086 0.347 255 255 255
-0.131 0.356 1 255 255 255
0.254 -0.302 0.524 255 255 255
-0.208 -0.227 0.44 255 255 255
0.049 -0.349 0.505 255 255 255
0.044 -0.168 0.468 255 255 255
0.248 -0.29 0.528 0 0 0
-0.158 0.393 0.959 255 255 255
0.125 -0.111 0.468 255 255 255
-0.185 -0.163 0.397 255 255 255
-0.109 -0.042 0.409 255 255 255
-0.044 -0.042 0.355 255 255 255
-0.012 -0.259 0.486 255 255 255
0.103 -0.33 0.503 255 255 255
0.195 -0.007 0.414 255 255 255
-0.165 -0.257 0.482 255 255 255
-0.027 -0.131 0.428 255 255 255
0.212 -0.297 0.525 255 255 255
0.243 -0.344 0.496 255 255 255
0.039 -0.312 0.543 255 255 255
-0.236 0.207 1.077 0 0 0
-0.13 0.337 1.01 255 255 255
0.468 0.354 1.228 255 255 255
0.298 -0.086 0.507 255 255 255
-0.026 -0.027 0.394 255 255 255
-0.329 0.112 1.114 0 0 0
-0.243 -0.258 0.448 255 255 255
-0.045 0.162 1.185 255 255 255
-0.211 -0.182 0.407 255 255 255
0.227 -0.297 0.524 255 255 255
0.047 -0.08 0.415 255 255 255
-0.181 0.025 1.239 255 255 255
-0.104 -0.053 0.395 255 255 255
0.242 -0.045 0.46 255 255 255
-0.059 0.364 1.02 0 0 0
-0.094 -0.056 0.354 255 255 255
-0.028 -0.093 0.395 255 255 255
0.199 -0.2 0.515 255 255 255
0.111 0.429 1.034 255 255 255
-0.104 -0.245 0.473 255 255 255
0.126 -0.348 0.488 255 255 255
-0.156 -0.168 0.407 255 255 255
0.092 -0.17 0.471 255 255 255
-0.122 0.045 1.245 255 255 255
-0.103 -0.271 0.486 255 255 255
0.027 -0.145 0.464 255 255 255
-0.091 -0.101 0.379 255 255 255
-0.274 -0.1 0.399 255 255 255
-0.029 -0.053 0.365 255 255 255
0.279 -0.19 0.533 255 255 255
-0.417 0.163 1.043 255 255 255
0.421 0.543 1.059 255 255 255
-0.346 0.176 1.061 255 255 255
0.161 -0.126 0.473 255 255 255
0.517 0.389 1.22 255 255 255
-0.155 -0.126 0.372 255 255 255
0 0.1 1.251 255 255 255
-0.215 0.072 1.187 0 0 0
0.273 -0.302 0.521 0 0 0
0.101 -0.149 0.466 255 255 255
0.004 -0.028 0.361 255 255 255
-0.417 0.284 0.948 0 0 0
0.187 0.04 0.377 255 255 255
-0.617 0.098 0.942 255 255 255
-0.012 -0.046 0.365 255 255 255
-0.2 -0.348 0.503 255 255 255
0.197 -0.35 0.492 255 255 255
0.172 -0.052 0.439 255 255 255
-0.083 -0.056 0.353 255 255 255
0.141 0.071 0.458 255 255 255
-0.163 0.168 1.137 255 255 255
-0.515 -0.091 1.069 255 255 255
0.13 0.07 0.489 255 255 255
-0.372 0.141 1.079 255 255 255
0.316 -0.149 0.564 255 255 255
0.029 -0.18 0.469 255 255 255
0.006 -0.171 0.472 255 255 255
-0.028 0.332 1.056 255 255 255
-0.165 -0.07 0.397 255 255 255
-0.046 -0.2 0.472 255 255 255
-0.072 -0.366 0.544 255 255 255
0.195 -0.251 0.548 255 255 255
-0.159 -0.09 0.348 255 255 255
-0.03 0.083 1.251 255 255 255
-0.147 -0.376 0.545 255 255 255
0.23 0.27 1.198 255 255 255
-0.061 0.172 1.17 255 255 255
-0.602 0.007 1.033 255 255 255
-0.221 -0.118 0.339 255 255 255
-0.309 0.05 1.167 255 255 255
-0.195 0.203 0.442 0 0 0
0.127 -0.255 0.528 255 255 255
-0.169 0.241 0.486 255 255 255
0.144 -0.298 0.508 255 255 255
-0.673 -0.022 1.013 255 255 255
0.044 0.027 0.435 255 255 255
0.15 -0.077 0.451 255 255 255
0.311 0.261 1.24 255 255 255
-0.107 0.438 0.947 0 0 0
0.258 0.114 0.458 255 255 255
-0.641 -0.153 0.945 255 255 255
-0.324 0.242 1.013 255 255 255
0.056 -0.277 0.521 255 255 255
0.306 0.237 1.256 255 255 255
0.309 0.272 1.23 255 255 255
-0.46 0.117 1.061 0 0 0
0.249 -0.066 0.47 255 255 255
0.183 -0.239 0.531 255 255 255
-0.164 0.219 0.406 255 255 255
0.001 -0.031 0.36 255 255 255
