ply
format ascii 1.0
comment Created by Open3D
element vertex 1589
property double x
property double y
property double z
property uchar red
property uchar green
property uchar blue
end_header
0.01 -0.036 0.452 255 255 255
0.057 0.482 1.045 0 0 0
-0.143 0.513 0.945 255 255 255
0.016 0.045 0.374 255 255 255
0.174 -0.281 0.528 255 255 255
0.019 0.095 0.432 255 255 255
-0.072 0.515 0.968 255 255 255
-0.076 -0.149 0.505 255 255 255
-0.072 -0.117 0.5 255 255 255
-0.229 -0.31 0.465 255 255 255
-0.031 0.323 1.165 255 255 255
0.17 -0.213 0.553 255 255 255
0.254 -0.306 0.509 0 0 0
0.065 0.034 0.4 255 255 255
0.021 0.089 0.432 255 255 255
0.371 -0.06 0.602 255 255 255
0 -0.059 0.472 255 255 255
-0.12 0.363 1.096 255 255 255
-0.232 -0.104 0.442 255 255 255
-0.162 -0.334 0.61 255 255 255
0.101 -0.064 0.488 255 255 255
-0.068 -0.003 0.39 255 255 255
0.104 -0.155 0.543 255 255 255
0.045 0.019 0.407 255 255 255
0.144 -0.255 0.545 255 255 255
0.002 0.289 1.208 255 255 255
0.197 -0.009 0.475 255 255 255
0.147 -0.024 0.486 255 255 255
0.216 -0.333 0.493 255 255 255
-0.268 -0.207 0.493 0 0 0
-0.4 0.409 0.94 0 0 0
-0.056 -0.121 0.506 255 255 255
0.36 -0.137 0.553 255 255 255
-0.255 -0.328 0.572 255 255 255
-0.362 0.468 0.903 255 255 255
0.247 0.454 1.145 255 255 255
-0.265 -0.237 0.486 255 255 255
0.269 -0.303 0.513 255 255 255
0.085 0.081 0.379 255 255 255
-0.007 0.038 0.373 255 255 255
-0.146 -0.115 0.467 255 255 255
-0.004 -0.302 0.549 255 255 255
0.09 0.472 1.071 0 0 0
0.105 0.039 0.409 255 255 255
-0.211 -0.163 0.49 255 255 255
-0.035 -0.001 0.398 255 255 255
0.038 -0.043 0.469 255 255 255
-0.043 0.478 1.015 0 0 0
-0.254 0.388 1.015 255 255 255
0.33 -0.045 0.571 255 255 255
-0.028 0.495 1.004 255 255 255
-0.026 0.056 0.419 255 255 255
-0.205 0.424 1.001 255 255 255
0.137 0.515 1.044 255 255 255
-0.054 -0.053 0.44 255 255 255
-0.052 0.059 0.429 255 255 255
0.024 -0.275 0.554 255 255 255
0.101 -0.248 0.551 255 255 255
0.087 -0.235 0.541 255 255 255
0.074 -0.081 0.491 255 255 255
-0.014 0.434 1.067 255 255 255
0.403 -0.19 0.757 255 255 255
-0.501 0.305 0.96 255 255 255
0.127 0.013 0.447 255 255 255
0.119 -0.261 0.541 255 255 255
0.036 -0.315 0.521 255 255 255
-0.357 0.144 1.208 255 255 255
-0.212 0.319 1.101 255 255 255
0.113 0.118 0.456 255 255 255
-0.138 -0.347 0.561 255 255 255
0.315 0.049 0.475 255 255 255
0.352 -0.222 0.551 255 255 255
0.162 -0.156 0.572 255 255 255
0.199 0.131 0.402 255 255 255
0.033 -0.01 0.432 255 255 255
0.167 0.405 1.167 255 255 255
0.028 0.496 1.022 255 255 255
0.344 0.038 0.498 255 255 255
0.126 0.046 0.412 255 255 255
0.264 -0.303 0.513 255 255 255
-0.067 0.02 0.371 255 255 255
-0.203 -0.134 0.467 255 255 255
-0.127 -0.093 0.451 0 0 0
-0.031 -0.018 0.413 255 255 255
-0.272 -0.169 0.464 0 0 0
-0.003 0.316 1.183 255 255 255
0.14 -0.17 0.563 255 255 255
0.066 -0.054 0.492 255 255 255
0.017 -0.006 0.424 255 255 255
-0.031 -0.04 0.437 255 255 255
0.174 0.009 0.468 255 255 255
-0.062 -0.163 0.522 255 255 255
0.196 -0.195 0.547 255 255 255
0.223 -0.113 0.552 255 255 255
0.301 0.462 1.158 255 255 255
0.218 -0.328 0.496 255 255 255
-0.21 0.46 0.963 0 0 0
-0.403 0.19 1.15 255 255 255
0.265 -0.285 0.521 255 255 255
-0.092 -0.059 0.431 255 255 255
0.315 0.013 0.51 255 255 255
0.219 -0.049 0.497 255 255 255
0.176 0.485 1.088 0 0 0
-0.013 -0.026 0.431 255 255 255
0.219 0.088 0.412 255 255 255
-0.25 -0.273 0.457 255 255 255
-0.068 -0.008 0.392 255 255 255
0.377 0.467 1.149 255 255 255
0.246 0.419 1.175 255 255 255
0.053 -0.274 0.544 255 255 255
0.343 -0.141 0.667 255 255 255
-0.146 -0.061 0.411 255 255 255
0.221 -0.008 0.481 255 255 255
0.135 -0.21 0.549 255 255 255
-0.077 -0.059 0.438 255 255 255
-0.245 0.378 1.028 255 255 255
-0.279 -0.021 0.424 255 255 255
-0.252 -0.366 0.583 255 255 255
0.152 -0.296 0.514 255 255 255
0.141 0.01 0.456 255 255 255
0.246 -0.218 0.687 255 255 255
-0.297 0.195 1.189 255 255 255
0.205 -0.033 0.487 255 255 255
0.133 -0.292 0.515 255 255 255
0.069 -0.288 0.529 255 255 255
0.137 -0.321 0.499 255 255 255
-0.069 0.479 1.006 0 0 0
0.061 -0.009 0.443 255 255 255
-0.284 0.346 1.045 255 255 255
-0.088 -0.014 0.391 255 255 255
0.148 0.093 0.377 255 255 255
0.153 0.106 0.38 255 255 255
0.495 0.472 1.22 255 255 255
0.005 -0.03 0.442 255 255 255
-0.246 -0.225 0.494 255 255 255
-0.155 0.438 1.011 255 255 255
-0.253 -0.159 0.476 255 255 255
0.256 0.029 0.474 0 0 0
0.202 -0.137 0.566 255 255 255
0.135 -0.021 0.483 255 255 255
0.119 -0.269 0.533 255 255 255
0.11 -0.149 0.546 255 255 255
-0.171 -0.01 0.383 255 255 255
-0.27 -0.018 0.424 255 255 255
0.29 -0.171 0.676 255 255 255
-0.093 -0.204 0.521 255 255 255
-0.031 0.347 1.144 255 255 255
-0.02 0.055 0.417 255 255 255
0.01 0.01 0.402 255 255 255
0.251 0.05 0.449 0 0 0
0.094 0.049 0.397 255 255 255
-0.256 -0.151 0.462 255 255 255
-0.199 -0.076 0.41 255 255 255
-0.064 0.038 0.413 255 255 255
-0.12 -0.06 0.421 255 255 255
-0.295 -0.04 0.411 255 255 255
-0.03 0.005 0.393 255 255 255
0.059 0.039 0.392 255 255 255
-0.126 -0.046 0.405 255 255 255
0.4 -0.145 0.696 255 255 255
-0.268 -0.129 0.442 0 0 0
0.021 0.02 0.396 255 255 255
-0.11 0.014 0.388 255 255 255
0.246 0.462 1.138 255 255 255
0.024 -0.359 0.507 255 255 255
-0.226 -0.019 0.413 255 255 255
0.23 -0.093 0.528 255 255 255
0.28 -0.013 0.523 0 0 0
-0.243 -0.4 0.703 255 255 255
-0.029 0.31 1.18 255 255 255
-0.207 -0.181 0.501 0 0 0
0.212 -0.015 0.484 255 255 255
0.161 -0.048 0.494 255 255 255
0.297 0.028 0.489 255 255 255
-0.378 0.382 0.974 255 255 255
0.294 -0.217 0.555 255 255 255
-0.101 -0.044 0.412 0 0 0
0.006 0.435 1.071 255 255 255
0.031 -0.237 0.587 255 255 255
-0.402 0.205 1.139 255 255 255
-0.249 -0.349 0.565 255 255 255
-0.204 0.355 1.065 0 0 0
0.214 -0.305 0.51 255 255 255
-0.198 -0.249 0.558 255 255 255
0.086 0.463 1.075 255 255 255
0.085 -0.27 0.666 255 255 255
-0.618 0.058 0.994 255 255 255
-0.198 0.007 0.426 255 255 255
-0.4 0.312 1.033 255 255 255
-0.274 0.449 0.953 0 0 0
0.237 0.468 1.129 255 255 255
0.223 -0.279 0.526 0 0 0
-0.265 -0.111 0.429 0 0 0
-0.05 -0.37 0.528 255 255 255
-0.08 -0.381 0.528 255 255 255
-0.272 -0.242 0.484 255 255 255
0.049 -0.244 0.549 255 255 255
0.29 -0.162 0.562 255 255 255
0.018 0.05 0.376 255 255 255
0.341 -0.078 0.607 255 255 255
-0.224 -0.206 0.505 255 255 255
0.154 -0.05 0.493 255 255 255
-0.096 -0.02 0.393 255 255 255
-0.197 -0.005 0.416 255 255 255
0.177 -0.349 0.488 255 255 255
0.112 0.128 0.464 255 255 255
-0.031 -0.383 0.516 0 0 0
0.129 0.458 1.097 255 255 255
0.215 0.566 1.027 255 255 255
0.153 0.5 1.066 0 0 0
-0.26 -0.254 0.472 255 255 255
0.323 0.477 1.072 0 0 0
-0.107 0.037 0.428 255 255 255
-0.05 -0.191 0.525 255 255 255
-0.544 0.045 0.973 255 255 255
-0.457 0.237 1.076 255 255 255
0.044 -0.335 0.509 255 255 255
-0.204 -0.473 0.609 0 0 0
-0.239 -0.02 0.415 255 255 255
0.226 0.488 1.102 0 0 0
0.105 0.014 0.437 255 255 255
-0.021 0.354 1.141 255 255 255
-0.218 -0.121 0.463 0 0 0
-0.122 -0.356 0.553 0 0 0
-0.085 0.01 0.37 255 255 255
0.025 -0.347 0.51 255 255 255
0.234 0.051 0.449 255 255 255
-0.273 -0.492 0.624 255 255 255
0.236 0.069 0.433 255 255 255
0.449 0.527 1.156 0 0 0
0.076 0.057 0.381 255 255 255
0.247 0.002 0.483 255 255 255
0.097 -0.13 0.526 255 255 255
0.235 -0.368 0.482 0 0 0
0.156 -0.337 0.493 255 255 255
-0.258 -0.105 0.424 0 0 0
-0.026 0.058 0.42 255 255 255
-0.177 -0.27 0.56 255 255 255
-0.286 0.391 0.999 255 255 255
-0.046 -0.356 0.533 255 255 255
-0.013 -0.074 0.481 255 255 255
-0.158 0.026 0.431 255 255 255
0.279 -0.166 0.55 255 255 255
-0.327 0.331 1.044 255 255 255
0.022 0.078 0.421 255 255 255
0.153 0.063 0.406 255 255 255
-0.13 -0.06 0.416 255 255 255
-0.183 -0.101 0.441 255 255 255
-0.274 -0.023 0.421 255 255 255
-0.196 -0.08 0.415 255 255 255
0.109 0.022 0.43 255 255 255
-0.178 -0.255 0.548 255 255 255
-0.297 0.218 1.165 255 255 255
-0.149 0.376 1.068 255 255 255
0.337 -0.216 0.552 255 255 255
0.232 0.443 1.147 255 255 255
-0.262 -0.256 0.468 255 255 255
-0.026 -0.069 0.469 255 255 255
-0.096 -0.036 0.407 255 255 255
-0.143 -0.395 0.53 0 0 0
-0.548 0.111 1.035 255 255 255
-0.16 -0.144 0.489 255 255 255
-0.188 0.387 1.042 255 255 255
0.201 -0.072 0.503 255 255 255
0.244 0.035 0.467 255 255 255
-0.18 -0.003 0.412 255 255 255
-0.127 -0.337 0.623 255 255 255
0.431 0.448 1.215 255 255 255
-0.541 0.147 1.098 255 255 255
0.112 0.025 0.428 255 255 255
0.278 -0.311 0.513 255 255 255
0.251 0.406 1.191 255 255 255
0.048 0.019 0.409 255 255 255
0.24 -0.193 0.56 0 0 0
0.242 -0.137 0.572 255 255 255
-0.249 -0.355 0.571 255 255 255
0.143 -0.331 0.495 255 255 255
-0.41 0.267 1.074 0 0 0
-0.188 -0.008 0.409 255 255 255
-0.095 0.49 0.981 255 255 255
-0.053 0.036 0.395 255 255 255
0.166 -0.056 0.49 255 255 255
0.263 0.031 0.472 0 0 0
-0.001 -0.321 0.54 255 255 255
0.109 -0.023 0.478 255 255 255
0.137 0.096 0.377 255 255 255
-0.22 0.369 1.047 255 255 255
-0.119 -0.073 0.436 255 255 255
-0.054 0.267 1.209 255 255 255
-0.194 -0.034 0.366 255 255 255
0.166 -0.292 0.518 255 255 255
0.303 -0.288 0.529 255 255 255
0.211 -0.221 0.563 255 255 255
0.211 0.546 1.04 255 255 255
0.224 -0.25 0.545 0 0 0
-0.011 -0.072 0.481 255 255 255
-0.16 0.44 1.005 255 255 255
0.254 -0.344 0.497 255 255 255
0.166 0.06 0.414 255 255 255
0.091 -0.008 0.457 255 255 255
-0.251 -0.089 0.407 255 255 255
-0.239 -0.07 0.394 255 255 255
0.16 0.388 1.177 255 255 255
0.162 0.101 0.376 255 255 255
0.199 -0.341 0.491 255 255 255
0.034 0.412 1.107 255 255 255
-0.052 0.065 0.433 255 255 255
0.012 0.073 0.42 255 255 255
-0.179 0.458 0.978 0 0 0
0.064 -0.105 0.5 255 255 255
0.182 -0.309 0.512 255 255 255
-0.201 0.365 1.058 0 0 0
-0.227 0.255 1.154 0 0 0
0.31 0.02 0.501 255 255 255
0.123 -0.359 0.485 0 0 0
-0.138 -0.163 0.515 0 0 0
-0.054 0.005 0.388 255 255 255
-0.184 0.475 0.963 255 255 255
-0.147 -0.102 0.453 255 255 255
-0.37 0.461 0.902 255 255 255
-0.143 0.03 0.431 255 255 255
0.106 0.104 0.436 255 255 255
0.179 0.562 1.018 255 255 255
-0.207 0.305 1.114 255 255 255
0.246 -0.309 0.509 0 0 0
0.326 0.578 1.051 255 255 255
0.011 0.431 1.079 255 255 255
-0.084 -0.057 0.429 255 255 255
0.243 -0.299 0.513 0 0 0
0.122 0.42 1.131 255 255 255
-0.226 0.001 0.43 255 255 255
-0.222 0.397 1.019 255 255 255
0.181 -0.07 0.515 255 255 255
-0.144 -0.08 0.433 255 255 255
0.276 0.438 1.17 255 255 255
-0.034 -0.028 0.424 255 255 255
0.106 -0.046 0.494 255 255 255
0.232 -0.322 0.499 0 0 0
0.248 0.444 1.155 255 255 255
0.013 -0.039 0.455 255 255 255
-0.272 0.405 0.99 255 255 255
-0.268 -0.434 0.703 255 255 255
0.296 0.411 1.206 255 255 255
-0.11 -0.383 0.537 255 255 255
-0.035 0.004 0.394 255 255 255
-0.186 0.347 1.078 255 255 255
-0.275 -0.128 0.44 0 0 0
0.114 0.131 0.466 255 255 255
-0.078 -0.349 0.547 255 255 255
-0.095 -0.078 0.449 255 255 255
0.179 0.137 0.431 255 255 255
-0.203 0.381 1.042 255 255 255
0.259 -0.239 0.548 255 255 255
0.104 -0.105 0.511 255 255 255
0.065 -0.116 0.511 255 255 255
0.035 0.365 1.147 255 255 255
-0.029 -0.047 0.443 255 255 255
-0.418 0.231 1.107 255 255 255
0.159 0.022 0.451 255 255 255
0.101 0.14 0.486 255 255 255
-0.219 -0.195 0.504 255 255 255
-0.045 0.011 0.383 255 255 255
0.179 0.529 1.048 255 255 255
-0.177 -0.27 0.6 0 0 0
0.32 0.016 0.508 255 255 255
-0.13 -0.064 0.422 255 255 255
0.129 -0.361 0.483 0 0 0
-0.046 -0.068 0.459 255 255 255
0.255 0.475 1.129 255 255 255
-0.097 -0.121 0.493 255 255 255
0.203 -0.283 0.526 255 255 255
-0.232 -0.325 0.458 255 255 255
-0.129 -0.033 0.387 255 255 255
-0.399 0.4 0.946 255 255 255
0.313 -0.163 0.682 255 255 255
0.125 0.487 1.069 0 0 0
-0.098 -0.077 0.447 255 255 255
-0.018 0.094 0.464 255 255 255
-0.351 0.272 1.089 255 255 255
-0.344 0.38 0.989 255 255 255
-0.182 -0.188 0.538 255 255 255
0.207 -0.291 0.521 255 255 255
0.084 -0.266 0.667 255 255 255
-0.279 -0.114 0.412 255 255 255
-0.166 -0.327 0.624 255 255 255
0.248 -0.277 0.526 255 255 255
-0.575 0.18 1.064 255 255 255
-0.205 0.504 0.93 255 255 255
-0.028 -0.057 0.456 255 255 255
-0.058 -0.342 0.695 255 255 255
-0.011 -0.268 0.545 255 255 255
0.225 -0.279 0.525 0 0 0
0.009 -0.308 0.54 255 255 255
-0.558 0.173 1.069 255 255 255
-0.196 -0.029 0.366 255 255 255
0.02 0.028 0.388 255 255 255
0.018 -0.297 0.543 255 255 255
-0.235 -0.286 0.437 255 255 255
0.294 -0.259 0.534 255 255 255
-0.078 -0.007 0.387 255 255 255
-0.101 -0.034 0.402 255 255 255
-0.117 -0.095 0.457 255 255 255
-0.154 -0.317 0.608 255 255 255
0.115 0.055 0.399 255 255 255
-0.398 0.222 1.124 255 255 255
0.054 0.027 0.401 255 255 255
0.176 -0.19 0.612 255 255 255
0.147 -0.274 0.531 255 255 255
0.082 -0.271 0.538 255 255 255
0.06 0.46 1.068 255 255 255
-0.073 -0.381 0.526 0 0 0
-0.695 0.097 1.034 255 255 255
-0.201 -0.08 0.414 255 255 255
0.008 -0.352 0.515 255 255 255
0.284 -0.205 0.563 255 255 255
-0.019 0.332 1.162 255 255 255
0.198 0.02 0.466 255 255 255
0.028 -0.333 0.516 255 255 255
0.367 -0.029 0.57 255 255 255
0.274 -0.169 0.56 255 255 255
-0.468 0.256 1.064 255 255 255
-0.199 -0.15 0.481 255 255 255
0.229 -0.203 0.666 255 255 255
0.035 0.388 1.132 255 255 255
0.129 0.333 1.215 255 255 255
0.099 0.052 0.397 255 255 255
-0.235 -0.006 0.425 255 255 255
0.052 -0.071 0.498 255 255 255
-0.218 -0.275 0.432 255 255 255
-0.527 0.072 0.973 255 255 255
-0.173 -0.066 0.406 255 255 255
0.146 0.054 0.414 255 255 255
0.34 -0.062 0.593 255 255 255
0.307 0.5 1.122 0 0 0
0.167 0.1 0.379 255 255 255
0.057 0.423 1.103 255 255 255
0.356 -0.016 0.554 255 255 255
-0.269 -0.242 0.482 255 255 255
-0.263 0.505 0.905 255 255 255
0.135 0.414 1.143 255 255 255
0.033 0.021 0.4 255 255 255
0.461 0.529 1.158 0 0 0
0.071 0.313 1.211 255 255 255
-0.045 -0.207 0.539 255 255 255
0.187 0.041 0.439 255 255 255
-0.009 -0.03 0.437 255 255 255
-0.257 -0.081 0.387 255 255 255
-0.002 0.009 0.398 255 255 255
0.118 -0.051 0.489 255 255 255
0.047 -0.303 0.524 255 255 255
-0.206 -0.442 0.602 0 0 0
0.289 -0.265 0.528 255 255 255
0.095 -0.353 0.489 0 0 0
0.033 -0.045 0.47 255 255 255
-0.249 0.492 0.924 255 255 255
0.186 -0.1 0.528 255 255 255
0.116 0.051 0.403 255 255 255
0.047 -0.078 0.5 255 255 255
-0.501 0.301 0.961 255 255 255
0.244 -0.268 0.533 255 255 255
-0.09 0.301 1.163 255 255 255
-0.113 -0.173 0.514 255 255 255
0.027 -0.364 0.504 0 0 0
0.157 -0.078 0.497 255 255 255
0.43 -0.128 0.691 255 255 255
0.295 -0.217 0.555 255 255 255
0.098 -0.066 0.489 255 255 255
-0.066 -0.374 0.526 255 255 255
-0.159 -0.108 0.453 255 255 255
0.033 -0.358 0.504 255 255 255
0.149 -0.018 0.483 255 255 255
-0.267 -0.197 0.479 0 0 0
-0.228 -0.327 0.46 255 255 255
0.281 -0.1 0.56 255 255 255
0.288 0.051 0.462 255 255 255
0.143 0.151 0.458 255 255 255
0.104 -0.103 0.512 255 255 255
-0.329 0.361 1.012 255 255 255
-0.035 -0.09 0.488 255 255 255
0.349 -0.012 0.548 255 255 255
0.109 -0.346 0.49 255 255 255
-0.1 -0.112 0.482 255 255 255
-0.019 -0.308 0.554 255 255 255
0.198 -0.222 0.675 255 255 255
0.329 -0.225 0.754 255 255 255
0.048 0.059 0.377 255 255 255
0.262 -0.24 0.548 255 255 255
-0.058 -0.034 0.418 255 255 255
-0.045 0.409 1.079 255 255 255
0.13 -0.248 0.66 255 255 255
0.193 -0.034 0.493 255 255 255
-0.383 0.194 1.151 255 255 255
0.022 -0.315 0.529 255 255 255
-0.044 -0.043 0.436 255 255 255
-0.238 -0.152 0.482 255 255 255
0.2 -0.179 0.612 255 255 255
-0.103 0.008 0.371 255 255 255
0.107 0.119 0.457 255 255 255
-0.197 0.016 0.433 255 255 255
0.32 0.514 1.096 0 0 0
-0.161 0.488 0.961 255 255 255
-0.53 0.113 1.095 255 255 255
0.04 0.052 0.373 255 255 255
-0.171 -0.055 0.397 255 255 255
-0.091 0.496 0.978 255 255 255
0.286 -0.163 0.558 255 255 255
-0.225 -0.234 0.537 255 255 255
-0.088 -0.14 0.511 255 255 255
0.174 -0.004 0.479 255 255 255
0.272 -0.006 0.515 0 0 0
-0.146 0.01 0.414 255 255 255
-0.095 0.035 0.423 255 255 255
0.04 0.073 0.404 255 255 255
-0.117 -0.189 0.525 255 255 255
-0.095 -0.021 0.393 255 255 255
0.097 0.087 0.384 255 255 255
-0.191 0.506 0.936 255 255 255
0.294 0.418 1.196 255 255 255
-0.28 -0.165 0.457 255 255 255
-0.248 -0.265 0.473 255 255 255
-0.03 0.027 0.371 255 255 255
-0.282 -0.13 0.427 255 255 255
0.056 -0.073 0.499 255 255 255
-0.057 0.457 1.027 0 0 0
0.111 -0.103 0.508 255 255 255
-0.234 -0.414 0.739 255 255 255
0.098 -0.06 0.491 255 255 255
-0.19 -0.226 0.546 0 0 0
-0.181 -0.029 0.363 255 255 255
-0.475 0.235 1.036 255 255 255
-0.217 0.243 1.169 255 255 255
0 0.393 1.111 255 255 255
-0.155 -0.332 0.546 0 0 0
-0.206 0.51 0.923 255 255 255
-0.061 0.339 1.14 255 255 255
-0.103 -0.056 0.421 255 255 255
0.265 0.392 1.211 255 255 255
-0.163 -0.043 0.387 255 255 255
-0.261 0.259 1.134 255 255 255
0.07 0.064 0.373 255 255 255
0.349 0.557 1.089 255 255 255
0.044 -0.01 0.439 255 255 255
0.245 -0.217 0.563 255 255 255
-0.613 0.014 0.977 255 255 255
0.17 -0.295 0.518 255 255 255
-0.178 -0.263 0.575 0 0 0
-0.183 -0.071 0.409 255 255 255
-0.237 -0.453 0.615 0 0 0
-0.136 0.009 0.406 255 255 255
0.055 -0.002 0.435 255 255 255
-0.239 0.376 1.032 255 255 255
-0.001 -0.044 0.455 255 255 255
0.196 -0.314 0.506 0 0 0
-0.152 -0.139 0.488 255 255 255
0.131 -0.037 0.492 255 255 255
0.119 0.316 1.221 255 255 255
0.002 0.506 1.001 255 255 255
0.266 -0.325 0.505 255 255 255
-0.042 0.059 0.426 255 255 255
0.167 0.452 1.116 255 255 255
-0.201 -0.072 0.403 255 255 255
-0.379 0.386 0.97 255 255 255
0.084 -0.353 0.49 255 255 255
-0.225 -0.003 0.424 255 255 255
-0.156 -0.381 0.506 0 0 0
0.084 -0.36 0.488 0 0 0
-0.106 0.369 1.093 255 255 255
-0.031 -0.124 0.496 255 255 255
-0.34 0.366 1.004 255 255 255
-0.237 -0.171 0.489 255 255 255
0.137 0.035 0.427 255 255 255
-0.398 0.213 1.132 255 255 255
-0.121 -0.393 0.53 0 0 0
-0.119 -0.122 0.483 255 255 255
0.189 -0.134 0.545 255 255 255
0.166 -0.067 0.503 255 255 255
0.098 -0.145 0.534 255 255 255
-0.238 -0.073 0.394 255 255 255
0.031 -0.345 0.507 255 255 255
-0.014 0.377 1.121 255 255 255
-0.028 -0.049 0.448 255 255 255
0.338 0.416 1.215 255 255 255
0.02 -0.286 0.549 255 255 255
0.182 -0.17 0.582 255 255 255
0.326 -0.178 0.569 255 255 255
-0.251 -0.004 0.425 255 255 255
0.217 0.474 1.113 255 255 255
-0.119 -0.033 0.394 255 255 255
0.075 -0.027 0.471 255 255 255
0.077 -0.279 0.532 255 255 255
0.012 -0.071 0.489 255 255 255
-0.252 0.44 0.97 0 0 0
0.001 0.104 0.473 255 255 255
0.139 -0.026 0.488 255 255 255
0.536 0.507 1.209 255 255 255
-0.124 0.39 1.064 255 255 255
-0.371 0.41 0.946 255 255 255
0.272 -0.209 0.562 255 255 255
0.047 -0.326 0.511 255 255 255
0.182 -0.221 0.56 255 255 255
0.125 -0.304 0.507 255 255 255
-0.017 0.093 0.461 255 255 255
-0.112 -0.359 0.547 0 0 0
0.026 -0.346 0.51 255 255 255
0.462 0.463 1.218 255 255 255
0.234 0.392 1.2 255 255 255
-0.117 -0.089 0.453 255 255 255
-0.144 -0.254 0.595 255 255 255
0.194 -0.201 0.548 255 255 255
0.357 -0.215 0.549 255 255 255
0.008 -0.137 0.509 255 255 255
-0.09 -0.041 0.411 255 255 255
0.065 -0.333 0.5 255 255 255
0.186 0.045 0.435 255 255 255
0.349 -0.199 0.558 255 255 255
-0.447 0.341 0.99 255 255 255
0.32 0.453 1.174 255 255 255
-0.534 0.167 1.122 255 255 255
0.37 0.547 1.111 255 255 255
-0.057 -0.013 0.4 255 255 255
0.179 -0.285 0.525 255 255 255
0.14 -0.02 0.482 255 255 255
0.107 -0.326 0.495 255 255 255
0.116 0.019 0.434 255 255 255
0.192 0.14 0.431 255 255 255
-0.089 -0.012 0.388 255 255 255
-0.329 0.403 0.972 255 255 255
-0.132 -0.048 0.403 255 255 255
-0.077 -0.138 0.512 255 255 255
-0.128 -0.086 0.444 0 0 0
-0.252 -0.262 0.472 255 255 255
0.193 0.065 0.42 255 255 255
-0.175 0.356 1.077 255 255 255
-0.242 0.244 1.158 255 255 255
-0.062 0.373 1.107 255 255 255
0.172 -0.009 0.482 255 255 255
-0.532 0.122 1.044 255 255 255
-0.139 0.506 0.951 255 255 255
0.214 0.085 0.411 255 255 255
0.062 -0.084 0.493 255 255 255
0.077 -0.078 0.49 255 255 255
-0.177 -0.259 0.55 255 255 255
-0.141 -0.03 0.382 255 255 255
-0.279 0.398 0.995 255 255 255
-0.132 0.374 1.078 255 255 255
-0.246 -0.114 0.429 255 255 255
0.138 0.411 1.147 255 255 255
0.203 0.169 0.452 255 255 255
-0.268 -0.178 0.466 0 0 0
-0.022 0.081 0.431 255 255 255
0.186 -0.319 0.504 0 0 0
-0.19 -0.033 0.367 255 255 255
-0.278 -0.128 0.431 0 0 0
-0.022 0.502 0.993 255 255 255
0.012 -0.311 0.539 255 255 255
0.055 -0.341 0.501 255 255 255
-0.333 0.222 1.142 255 255 255
0.146 0.343 1.212 255 255 255
0.181 0.08 0.401 255 255 255
-0.19 -0.194 0.513 255 255 255
0.355 -0.147 0.679 255 255 255
-0.086 0.014 0.371 255 255 255
-0.36 0.166 1.181 255 255 255
-0.291 -0.166 0.443 255 255 255
-0.2 -0.079 0.414 255 255 255
0.038 0.538 0.99 255 255 255
0.288 -0.033 0.546 255 255 255
0.237 -0.319 0.501 0 0 0
-0.096 -0.014 0.387 255 255 255
0.107 -0.343 0.492 255 255 255
-0.181 0.44 0.997 0 0 0
-0.242 -0.475 0.686 255 255 255
0.121 -0.305 0.506 255 255 255
-0.345 0.498 0.881 255 255 255
0.06 -0.328 0.504 255 255 255
-0.145 -0.056 0.406 255 255 255
0.1 -0.258 0.662 255 255 255
-0.283 -0.143 0.441 255 255 255
0.104 0.325 1.215 255 255 255
-0.324 0.361 1.013 255 255 255
0.133 -0.042 0.49 255 255 255
-0.177 -0.259 0.552 255 255 255
-0.269 -0.099 0.404 255 255 255
-0.104 0.051 0.436 255 255 255
0.194 -0.255 0.545 255 255 255
-0.057 0.032 0.387 255 255 255
-0.07 -0.332 0.66 255 255 255
0.015 -0.378 0.501 0 0 0
-0.194 -0.236 0.553 0 0 0
-0.177 -0.169 0.51 255 255 255
-0.288 0.344 1.045 255 255 255
-0.085 -0.286 0.6 255 255 255
0.05 -0.011 0.442 255 255 255
-0.268 -0.116 0.425 0 0 0
0.04 -0.079 0.5 255 255 255
0.35 -0.164 0.566 255 255 255
-0.648 -0.002 0.976 255 255 255
0.241 -0.139 0.574 255 255 255
0.144 0.108 0.397 255 255 255
0.004 0.099 0.456 255 255 255
-0.64 0.04 0.98 255 255 255
0.215 -0.22 0.661 255 255 255
-0.381 0.156 1.199 255 255 255
-0.024 0.002 0.398 255 255 255
0.209 0.074 0.418 255 255 255
0.205 0.006 0.481 255 255 255
0.15 -0.348 0.49 255 255 255
0.317 -0.02 0.542 255 255 255
0.064 -0.216 0.581 255 255 255
-0.029 -0.13 0.504 255 255 255
-0.187 -0.143 0.477 255 255 255
0.104 -0.06 0.488 255 255 255
-0.268 0.501 0.909 255 255 255
0.088 -0.119 0.507 255 255 255
-0.399 0.217 1.127 255 255 255
-0.484 0.237 1.021 255 255 255
-0.069 -0.027 0.406 255 255 255
-0.144 -0.366 0.547 255 255 255
0.039 -0.31 0.523 255 255 255
0.165 -0.252 0.55 255 255 255
-0.117 -0.399 0.521 0 0 0
-0.147 0.425 1.021 255 255 255
-0.237 -0.14 0.472 255 255 255
0.126 0.408 1.147 255 255 255
-0.586 0.108 1.069 255 255 255
0.22 -0.289 0.521 0 0 0
-0.03 0.015 0.381 255 255 255
-0.017 0.512 0.989 255 255 255
-0.128 0.314 1.137 255 255 255
-0.181 -0.004 0.41 255 255 255
-0.018 0.095 0.468 255 255 255
-0.252 -0.331 0.543 255 255 255
-0.088 -0.325 0.557 255 255 255
-0.044 -0.059 0.45 255 255 255
0.066 0.3 1.219 255 255 255
0.156 0.062 0.407 255 255 255
-0.085 0.014 0.37 255 255 255
0.087 0.048 0.397 255 255 255
0.238 0.015 0.478 255 255 255
0.056 -0.247 0.567 255 255 255
0.066 0.379 1.149 255 255 255
0.087 0.432 1.105 255 255 255
-0.137 -0.346 0.56 255 255 255
0.241 -0.198 0.566 0 0 0
-0.052 -0.009 0.397 255 255 255
-0.274 -0.272 0.478 255 255 255
-0.085 -0.301 0.556 255 255 255
0.132 -0.054 0.484 255 255 255
0.08 0.49 1.049 0 0 0
-0.304 -0.021 0.427 255 255 255
-0.021 -0.333 0.541 255 255 255
0.002 -0.169 0.53 255 255 255
-0.238 -0.472 0.619 0 0 0
0.275 0.062 0.448 255 255 255
0.221 -0.192 0.548 255 255 255
-0.04 0.013 0.381 255 255 255
-0.216 0.445 0.976 0 0 0
-0.062 0.034 0.4 255 255 255
0.03 -0.223 0.576 255 255 255
-0.003 0.427 1.076 255 255 255
0.255 0.492 1.112 0 0 0
-0.316 0.206 1.163 255 255 255
-0.064 -0.316 0.558 255 255 255
0.344 -0.229 0.55 255 255 255
-0.041 -0.282 0.542 255 255 255
-0.005 -0.017 0.424 255 255 255
0.192 -0.287 0.523 255 255 255
-0.227 0.362 1.053 0 0 0
0.241 0.048 0.455 255 255 255
0.008 0.511 0.996 255 255 255
0.203 -0.191 0.549 255 255 255
0.203 -0.311 0.507 255 255 255
-0.034 0.404 1.087 255 255 255
0.299 -0.174 0.564 0 0 0
-0.252 -0.337 0.566 255 255 255
0.082 -0.364 0.487 0 0 0
-0.13 -0.013 0.366 255 255 255
0.105 0.004 0.448 255 255 255
-0.251 -0.124 0.439 255 255 255
-0.432 0.238 1.091 255 255 255
0.157 0.333 1.223 255 255 255
0.215 0.036 0.456 255 255 255
-0.038 -0.181 0.525 255 255 255
0.092 0.018 0.428 255 255 255
0.233 0.067 0.434 255 255 255
0.107 0.041 0.409 255 255 255
0.156 0.462 1.103 255 255 255
-0.106 0.517 0.956 255 255 255
-0.053 -0.128 0.511 255 255 255
-0.384 0.3 1.051 255 255 255
0.116 -0.042 0.493 255 255 255
-0.526 0.158 1.134 255 255 255
0.026 -0.235 0.587 255 255 255
-0.122 -0.389 0.532 0 0 0
-0.183 0.002 0.417 255 255 255
-0.182 -0.081 0.42 255 255 255
-0.242 -0.179 0.494 255 255 255
0.229 -0.222 0.562 255 255 255
-0.132 -0.344 0.557 255 255 255
0.27 0.028 0.477 255 255 255
-0.049 0.432 1.055 255 255 255
-0.157 -0.37 0.537 255 255 255
0.301 0.511 1.111 0 0 0
0.386 -0.032 0.579 255 255 255
-0.108 0.032 0.423 255 255 255
-0.227 -0.022 0.41 255 255 255
-0.252 0.28 1.123 0 0 0
-0.112 0.492 0.974 255 255 255
0.348 -0.16 0.567 255 255 255
0.08 0.134 0.482 255 255 255
0.029 0.032 0.389 255 255 255
-0.249 -0.142 0.455 255 255 255
0.233 -0.366 0.481 0 0 0
-0.155 0.332 1.103 255 255 255
-0.386 0.31 1.039 255 255 255
-0.458 0.32 1.004 255 255 255
-0.262 -0.211 0.435 255 255 255
0.179 -0.194 0.548 255 255 255
0.438 -0.086 0.653 255 255 255
0.262 -0.277 0.526 255 255 255
0.159 -0.159 0.564 255 255 255
0.323 0.042 0.485 255 255 255
0.286 0.045 0.468 255 255 255
0.112 -0.348 0.488 255 255 255
0.188 -0.37 0.474 0 0 0
0.139 0.119 0.445 255 255 255
0.071 -0.165 0.546 255 255 255
0.243 -0.107 0.551 255 255 255
0.216 -0.101 0.53 255 255 255
-0.266 -0.183 0.457 255 255 255
0.219 -0.077 0.515 255 255 255
0.236 0.054 0.447 255 255 255
0.26 0.059 0.444 255 255 255
-0.365 0.157 1.206 255 255 255
0.161 -0.127 0.533 255 255 255
0.137 0.454 1.106 255 255 255
0.2 -0.248 0.549 255 255 255
-0.066 -0.084 0.468 255 255 255
0.13 -0.252 0.655 255 255 255
-0.244 -0.102 0.42 255 255 255
-0.027 -0.035 0.436 255 255 255
-0.027 -0.071 0.47 255 255 255
-0.111 -0.257 0.582 255 255 255
-0.156 -0.377 0.54 255 255 255
-0.11 0.41 1.048 255 255 255
0.026 0.043 0.386 255 255 255
0.081 0.002 0.443 255 255 255
0.026 -0.255 0.558 255 255 255
0.263 0.033 0.47 0 0 0
-0.133 0.04 0.436 255 255 255
0.166 -0.017 0.486 255 255 255
-0.254 0.238 1.161 255 255 255
-0.233 -0.328 0.48 255 255 255
-0.175 0.261 1.163 255 255 255
0.285 -0.235 0.544 255 255 255
0.022 0.007 0.411 255 255 255
-0.12 0.47 0.984 0 0 0
-0.133 -0.19 0.52 255 255 255
-0.348 0.292 1.074 0 0 0
0.196 -0.361 0.477 0 0 0
-0.061 0.451 1.03 255 255 255
0.042 0.025 0.4 255 255 255
0.011 0.018 0.392 255 255 255
0.131 -0.303 0.507 255 255 255
-0.076 0.008 0.372 255 255 255
-0.209 -0.232 0.542 0 0 0
0.046 -0.301 0.526 255 255 255
-0.22 -0.279 0.432 255 255 255
-0.359 0.426 0.941 0 0 0
-0.268 -0.486 0.631 0 0 0
-0.265 -0.175 0.479 255 255 255
-0.024 -0.046 0.445 255 255 255
0.313 -0.175 0.568 0 0 0
0.129 -0.004 0.467 255 255 255
0.008 -0.116 0.502 255 255 255
-0.086 0.248 1.214 255 255 255
0.204 -0.013 0.481 255 255 255
0.133 0.15 0.484 255 255 255
-0.175 0.004 0.416 255 255 255
-0.247 -0.358 0.544 255 255 255
0.185 -0.191 0.549 255 255 255
-0.117 -0.09 0.453 255 255 255
0.382 -0.135 0.679 255 255 255
0.15 0.445 1.115 255 255 255
0.219 0.525 1.066 255 255 255
-0.251 0.353 1.051 255 255 255
-0.063 -0.082 0.468 255 255 255
-0.317 0.242 1.134 0 0 0
-0.31 -0.044 0.413 255 255 255
0.238 -0.222 0.677 255 255 255
0.275 -0.201 0.565 255 255 255
0.234 0.445 1.145 255 255 255
-0.035 -0.047 0.444 255 255 255
0.069 -0.332 0.5 255 255 255
-0.263 -0.206 0.447 255 255 255
0.303 0.511 1.041 255 255 255
-0.067 -0.055 0.438 255 255 255
0.142 -0.037 0.485 255 255 255
0.057 -0.005 0.438 255 255 255
0.2 0.036 0.451 255 255 255
0.02 -0.284 0.651 255 255 255
-0.09 -0.017 0.392 255 255 255
0.251 -0.216 0.564 255 255 255
0.229 -0.26 0.537 0 0 0
0.317 0.51 1.076 0 0 0
-0.209 -0.44 0.619 255 255 255
-0.041 0.315 1.17 255 255 255
0.15 0.13 0.432 255 255 255
0.128 -0.011 0.477 255 255 255
0.35 -0.21 0.551 255 255 255
0.002 0.068 0.42 255 255 255
-0.162 -0.05 0.393 255 255 255
0.015 -0.023 0.44 255 255 255
-0.383 0.396 0.959 255 255 255
0.265 0.041 0.462 255 255 255
-0.086 -0.383 0.525 0 0 0
-0.037 0.473 1.02 0 0 0
-0.259 0.49 0.922 255 255 255
-0.15 0.019 0.423 255 255 255
-0.088 0.262 1.2 255 255 255
-0.452 0.269 1.054 255 255 255
0.097 -0.012 0.46 255 255 255
-0.174 -0.375 0.54 255 255 255
0.092 -0.26 0.667 255 255 255
-0.026 -0.086 0.488 255 255 255
-0.199 -0.196 0.514 255 255 255
0.01 -0.019 0.434 255 255 255
-0.128 0.422 1.032 255 255 255
-0.243 -0.126 0.46 255 255 255
-0.19 -0.459 0.589 0 0 0
-0.165 -0.007 0.383 255 255 255
-0.07 -0.023 0.402 255 255 255
-0.076 0.04 0.419 255 255 255
-0.359 0.471 0.9 255 255 255
0.126 0.04 0.416 255 255 255
0.024 0.473 1.042 0 0 0
-0.146 -0.067 0.418 255 255 255
-0.527 0.257 1.038 255 255 255
0.07 0.005 0.434 255 255 255
-0.531 0.119 1.079 255 255 255
-0.384 0.263 1.085 255 255 255
0.337 0.027 0.505 255 255 255
-0.182 0.469 0.969 255 255 255
-0.209 -0.269 0.556 255 255 255
0.034 0.086 0.424 255 255 255
-0.126 -0.176 0.514 255 255 255
-0.031 0.016 0.382 255 255 255
0.006 -0.093 0.499 255 255 255
0.006 -0.335 0.528 255 255 255
-0.108 -0.004 0.372 255 255 255
0.109 -0.27 0.534 255 255 255
0.189 -0.251 0.549 255 255 255
0.039 -0.187 0.543 255 255 255
-0.269 -0.03 0.414 255 255 255
-0.237 -0.475 0.624 0 0 0
-0.108 0.272 1.184 0 0 0
-0.101 0.385 1.078 255 255 255
-0.037 -0.131 0.503 255 255 255
0.248 -0.355 0.49 0 0 0
-0.081 -0.063 0.439 255 255 255
0.025 -0.101 0.497 255 255 255
0.225 -0.248 0.546 0 0 0
0.353 0.591 1.054 255 255 255
0.02 0.081 0.423 255 255 255
0.292 -0.251 0.535 255 255 255
-0.19 -0.112 0.448 255 255 255
-0.191 -0.003 0.416 255 255 255
0.101 0.062 0.39 255 255 255
-0.404 0.375 0.972 255 255 255
-0.268 -0.192 0.441 255 255 255
0.244 -0.272 0.532 255 255 255
-0.331 0.299 1.071 0 0 0
-0.137 0.228 1.211 255 255 255
0.095 0.085 0.38 255 255 255
0.124 -0.129 0.527 255 255 255
0.183 0.436 1.135 255 255 255
0.279 0.425 1.186 255 255 255
0.07 -0.243 0.539 255 255 255
-0.081 0.026 0.393 255 255 255
0.011 -0.299 0.547 255 255 255
0.022 -0.083 0.497 255 255 255
0.177 0.066 0.416 255 255 255
-0.249 -0.358 0.539 255 255 255
-0.174 0.002 0.415 255 255 255
0.159 -0.359 0.484 0 0 0
-0.098 -0.021 0.393 255 255 255
-0.155 -0.373 0.515 0 0 0
-0.433 0.28 1.054 0 0 0
-0.541 0.14 1.081 255 255 255
0.497 0.479 1.215 255 255 255
0.319 -0.016 0.54 255 255 255
0.031 -0.122 0.505 255 255 255
-0.001 0 0.407 255 255 255
0.129 0.492 1.068 0 0 0
-0.395 -0.006 0.525 255 255 255
-0.113 -0.293 0.588 255 255 255
0.267 0.059 0.448 255 255 255
0.323 -0.043 0.566 255 255 255
-0.156 -0.085 0.433 255 255 255
0.2 -0.074 0.518 255 255 255
0.008 -0.323 0.533 255 255 255
-0.489 0.239 1.021 255 255 255
0.123 -0.216 0.619 255 255 255
-0.028 0.515 0.985 255 255 255
-0.149 -0.293 0.593 255 255 255
-0.058 0.002 0.385 255 255 255
-0.005 0.084 0.439 255 255 255
-0.143 -0.089 0.442 255 255 255
0.211 -0.01 0.48 255 255 255
0.339 -0.048 0.578 255 255 255
0.166 0.012 0.461 255 255 255
-0.361 0.441 0.922 0 0 0
-0.152 0.344 1.096 0 0 0
-0.106 0.053 0.442 255 255 255
0.337 -0.072 0.6 255 255 255
-0.233 -0.221 0.478 255 255 255
-0.175 0.508 0.937 255 255 255
-0.073 0.013 0.369 255 255 255
-0.148 -0.229 0.565 255 255 255
-0.171 -0.344 0.59 255 255 255
-0.123 0.017 0.412 255 255 255
0.262 -0.188 0.68 255 255 255
0.271 0.509 1.101 0 0 0
-0.107 0.008 0.369 255 255 255
-0.225 -0.048 0.365 255 255 255
-0.31 0.341 1.039 255 255 255
-0.464 0.352 0.976 255 255 255
0.158 0.499 1.07 0 0 0
-0.539 0.139 1.05 255 255 255
-0.237 -0.258 0.551 255 255 255
0.146 0.055 0.411 255 255 255
-0.189 -0.065 0.399 255 255 255
0.302 -0.156 0.551 255 255 255
0.383 -0.145 0.561 255 255 255
-0.125 -0.128 0.489 255 255 255
-0.095 0.042 0.427 255 255 255
-0.076 -0.1 0.481 255 255 255
-0.247 -0.221 0.494 255 255 255
-0.448 0.333 0.995 255 255 255
0.076 0.018 0.422 255 255 255
0.171 -0.313 0.509 255 255 255
0.251 -0.284 0.522 255 255 255
0.477 0.462 1.22 255 255 255
0.251 -0.189 0.56 0 0 0
0.196 -0.35 0.485 0 0 0
-0.012 -0.373 0.512 0 0 0
0.004 -0.126 0.51 255 255 255
-0.025 0.29 1.2 255 255 255
-0.033 -0.1 0.498 255 255 255
-0.376 0.454 0.909 255 255 255
-0.072 -0.274 0.593 255 255 255
-0.224 0.492 0.933 255 255 255
-0.02 -0.087 0.491 255 255 255
0.125 -0.218 0.548 255 255 255
0.078 -0.014 0.457 255 255 255
-0.14 -0.065 0.417 255 255 255
0.178 0.029 0.45 255 255 255
-0.009 -0.117 0.499 255 255 255
-0.155 0.319 1.124 255 255 255
-0.673 0.048 1.004 255 255 255
-0.064 -0.068 0.454 255 255 255
-0.087 -0.05 0.424 255 255 255
0.046 0.07 0.384 255 255 255
-0.067 -0.031 0.409 255 255 255
0.139 0.098 0.378 255 255 255
0.267 0.061 0.446 255 255 255
0.043 -0.079 0.501 255 255 255
0.402 -0.046 0.599 255 255 255
0.299 0.017 0.5 255 255 255
0.23 0.018 0.477 255 255 255
0.192 0.161 0.454 255 255 255
0.197 0.169 0.452 255 255 255
0.056 0.061 0.376 255 255 255
0.153 -0.37 0.479 0 0 0
-0.063 -0.33 0.554 255 255 255
0.09 0.042 0.403 255 255 255
-0.186 -0.188 0.515 0 0 0
0.016 0.054 0.372 255 255 255
-0.127 -0.278 0.602 255 255 255
0.198 0.465 1.114 255 255 255
-0.243 -0.27 0.474 255 255 255
-0.01 -0.306 0.551 255 255 255
-0.273 0.47 0.933 255 255 255
-0.125 -0.029 0.388 255 255 255
0.363 0.577 1.069 255 255 255
-0.215 -0.101 0.438 255 255 255
0.246 0.055 0.442 0 0 0
0.268 -0.171 0.553 255 255 255
0.07 -0.015 0.454 255 255 255
0.018 0.373 1.138 255 255 255
-0.344 0.466 0.909 255 255 255
-0.254 -0.017 0.421 255 255 255
0.095 -0.267 0.538 255 255 255
0.079 -0.098 0.502 255 255 255
0.293 -0.16 0.548 255 255 255
0.055 -0.164 0.54 255 255 255
-0.233 0.271 1.137 255 255 255
-0.107 -0.279 0.587 255 255 255
-0.114 -0.089 0.454 255 255 255
0.054 -0.269 0.546 255 255 255
0.115 -0.1 0.505 255 255 255
0.012 0.284 1.217 255 255 255
0.224 0.366 1.219 255 255 255
0.115 -0.311 0.502 255 255 255
-0.13 -0.156 0.509 0 0 0
-0.038 -0.309 0.558 255 255 255
-0.168 -0.02 0.373 255 255 255
0.265 -0.236 0.549 255 255 255
-0.187 -0.05 0.387 255 255 255
0.182 0.024 0.455 255 255 255
0.261 -0.319 0.506 255 255 255
0.035 0.013 0.409 255 255 255
-0.245 -0.225 0.493 255 255 255
0.058 -0.081 0.496 255 255 255
-0.251 -0.146 0.46 255 255 255
0.184 -0.03 0.487 255 255 255
-0.311 0.404 0.978 255 255 255
-0.111 -0.135 0.498 255 255 255
-0.366 0.446 0.916 255 255 255
0.11 -0.225 0.618 255 255 255
-0.494 0.154 1.155 255 255 255
0.471 -0.119 0.698 255 255 255
0.095 -0.032 0.48 255 255 255
-0.174 -0.129 0.47 255 255 255
-0.52 0.175 1.12 255 255 255
0.061 -0.217 0.58 255 255 255
0.107 -0.105 0.514 255 255 255
0.006 -0.332 0.53 255 255 255
0.061 0.003 0.431 255 255 255
0.436 -0.058 0.625 255 255 255
-0.064 -0.341 0.547 255 255 255
-0.208 0.244 1.174 255 255 255
-0.208 0.446 0.978 0 0 0
0.101 -0.247 0.552 255 255 255
0.065 -0.216 0.58 255 255 255
0.402 -0.127 0.679 255 255 255
-0.27 -0.107 0.411 255 255 255
0.07 -0.296 0.523 255 255 255
-0.136 0.497 0.962 255 255 255
0.097 -0.068 0.489 255 255 255
-0.214 0.263 1.148 0 0 0
0.088 -0.362 0.487 0 0 0
-0.071 -0.04 0.419 255 255 255
-0.116 -0.141 0.503 255 255 255
0.078 -0.046 0.488 255 255 255
0.019 0 0.422 255 255 255
0.088 -0.346 0.491 255 255 255
-0.193 -0.209 0.527 255 255 255
0.128 0.345 1.203 255 255 255
-0.399 0.159 1.179 255 255 255
-0.024 0.527 0.978 255 255 255
0.037 -0.018 0.444 255 255 255
0.056 -0.012 0.446 255 255 255
-0.341 0.382 0.988 255 255 255
-0.22 -0.017 0.412 255 255 255
0.489 -0.105 0.692 255 255 255
-0.252 0.238 1.161 255 255 255
-0.045 0.053 0.422 255 255 255
0.018 0.005 0.41 255 255 255
0.053 -0.16 0.537 255 255 255
0.192 0.115 0.382 255 255 255
0.239 -0.273 0.529 255 255 255
0.03 -0.283 0.545 255 255 255
-0.213 -0.249 0.452 255 255 255
-0.124 0.478 0.979 255 255 255
-0.266 -0.491 0.627 0 0 0
-0.231 -0.194 0.496 255 255 255
0.217 -0.291 0.519 255 255 255
-0.335 0.359 1.012 255 255 255
0.329 -0.207 0.554 255 255 255
0.193 0.059 0.426 255 255 255
-0.135 0.319 1.135 255 255 255
-0.066 -0.06 0.444 255 255 255
-0.135 0.438 1.013 255 255 255
0.336 -0.031 0.561 255 255 255
-0.049 0.071 0.436 255 255 255
0.069 0.299 1.218 255 255 255
-0.115 -0.055 0.416 0 0 0
0.075 -0.282 0.531 255 255 255
0.182 -0.206 0.645 255 255 255
-0.413 0.398 0.945 255 255 255
0.108 -0.152 0.54 255 255 255
0.02 -0.285 0.549 255 255 255
-0.276 -0.031 0.416 255 255 255
-0.087 0.356 1.114 255 255 255
0.01 -0.087 0.497 255 255 255
-0.227 -0.261 0.455 255 255 255
0.176 0.149 0.44 255 255 255
-0.178 -0.159 0.495 255 255 255
0.125 -0.127 0.533 255 255 255
0.059 0.028 0.403 255 255 255
-0.264 0.223 1.172 255 255 255
-0.136 -0.039 0.391 255 255 255
0.202 0.171 0.452 255 255 255
0.111 -0.004 0.459 255 255 255
-0.242 -0.078 0.394 255 255 255
0.221 -0.081 0.52 255 255 255
0.149 0.168 0.501 255 255 255
-0.259 -0.086 0.393 255 255 255
0.059 -0.006 0.44 255 255 255
0.006 -0.054 0.469 255 255 255
-0.14 0.435 1.017 255 255 255
-0.12 0.009 0.382 255 255 255
-0.191 0.403 1.026 255 255 255
-0.123 0.361 1.097 255 255 255
0.334 -0.079 0.606 255 255 255
0.224 -0.266 0.533 0 0 0
0.215 -0.025 0.495 255 255 255
0.205 -0.298 0.516 255 255 255
-0.049 -0.026 0.41 255 255 255
0.352 -0.165 0.567 255 255 255
0.263 -0.247 0.542 255 255 255
-0.019 -0.039 0.441 255 255 255
0.07 -0.023 0.465 255 255 255
-0.129 -0.049 0.406 255 255 255
0.159 -0.003 0.475 255 255 255
0.107 -0.363 0.484 0 0 0
-0.047 0.267 1.212 255 255 255
0.345 -0.158 0.564 255 255 255
-0.425 0.261 1.075 255 255 255
0.25 -0.194 0.677 255 255 255
0.213 -0.228 0.561 255 255 255
-0.013 -0.009 0.412 255 255 255
-0.018 -0.055 0.458 255 255 255
-0.254 -0.344 0.544 255 255 255
-0.126 -0.343 0.557 255 255 255
-0.112 -0.37 0.541 0 0 0
0.219 -0.069 0.513 255 255 255
-0.098 -0.147 0.512 0 0 0
0.022 0.052 0.376 255 255 255
-0.29 -0.14 0.432 255 255 255
0.057 -0.116 0.504 255 255 255
-0.035 0.461 1.032 0 0 0
-0.628 0.08 1.013 255 255 255
-0.471 0.231 1.033 255 255 255
0.212 0.049 0.444 255 255 255
0.014 -0.01 0.426 255 255 255
-0.007 -0.213 0.551 255 255 255
-0.235 -0.11 0.434 255 255 255
0.439 -0.055 0.624 255 255 255
-0.217 -0.254 0.476 0 0 0
-0.155 -0.008 0.367 255 255 255
0.165 -0.333 0.496 255 255 255
-0.375 0.425 0.935 0 0 0
-0.081 0.356 1.116 255 255 255
0.16 0.098 0.377 255 255 255
0.203 0.555 1.032 255 255 255
0.224 0.451 1.14 255 255 255
-0.06 -0.02 0.403 255 255 255
-0.099 -0.309 0.561 255 255 255
0.342 -0.083 0.612 255 255 255
0.071 0.328 1.199 255 255 255
-0.066 -0.144 0.503 255 255 255
0.016 -0.342 0.518 255 255 255
-0.003 -0.378 0.508 0 0 0
-0.295 0.419 0.967 255 255 255
0.047 0.042 0.384 255 255 255
0.036 -0.335 0.511 0 0 0
-0.094 -0.085 0.457 255 255 255
-0.251 0.355 1.049 255 255 255
-0.031 -0.028 0.426 255 255 255
-0.13 -0.281 0.596 255 255 255
-0.03 0.499 0.993 255 255 255
-0.048 -0.007 0.396 255 255 255
0.022 0.041 0.384 255 255 255
0.039 -0.25 0.545 255 255 255
-0.115 0.239 1.208 255 255 255
-0.263 -0.038 0.398 255 255 255
0.093 -0.042 0.487 255 255 255
-0.133 -0.175 0.516 255 255 255
0.033 -0.325 0.519 255 255 255
0.153 -0.242 0.673 255 255 255
0.197 0.081 0.406 255 255 255
-0.538 0.08 0.983 255 255 255
0.341 -0.228 0.55 255 255 255
0.176 0.457 1.115 255 255 255
0.2 0.118 0.38 255 255 255
0.18 -0.115 0.526 255 255 255
-0.148 -0.014 0.373 255 255 255
0.208 -0.273 0.53 255 255 255
-0.02 -0.344 0.533 255 255 255
0.046 -0.016 0.447 255 255 255
0.324 -0.208 0.555 255 255 255
-0.275 -0.178 0.445 255 255 255
0.301 -0.239 0.541 255 255 255
-0.16 0.461 0.982 0 0 0
-0.223 -0.17 0.497 255 255 255
0.108 0.368 1.175 255 255 255
-0.307 0.452 0.937 0 0 0
0.361 -0.026 0.566 255 255 255
0.315 -0.007 0.529 255 255 255
-0.052 -0.009 0.397 255 255 255
-0.188 -0.178 0.508 255 255 255
0.059 -0.286 0.535 0 0 0
-0.082 -0.333 0.556 255 255 255
-0.294 -0.134 0.426 255 255 255
-0.279 -0.035 0.415 255 255 255
-0.27 -0.227 0.472 255 255 255
-0.045 0.014 0.378 255 255 255
0.095 0.136 0.48 255 255 255
-0.41 0.371 0.974 255 255 255
0.093 -0.28 0.527 255 255 255
0.21 -0.074 0.511 255 255 255
0.207 0.028 0.462 255 255 255
0.039 0.06 0.376 255 255 255
-0.121 -0.396 0.523 0 0 0
-0.44 0.37 0.962 255 255 255
0.078 0.39 1.144 255 255 255
-0.152 -0.218 0.56 255 255 255
0.11 -0.138 0.532 255 255 255
0.124 -0.023 0.483 255 255 255
0.138 -0.07 0.495 255 255 255
0.232 -0.285 0.521 0 0 0
-0.26 -0.245 0.483 255 255 255
0.164 -0.214 0.551 255 255 255
-0.097 -0.352 0.55 255 255 255
-0.314 0.261 1.112 255 255 255
0.007 -0.048 0.462 255 255 255
0.277 -0.103 0.563 255 255 255
0.172 0.018 0.457 255 255 255
0.347 -0.113 0.636 255 255 255
-0.196 0.265 1.157 255 255 255
0.189 0.07 0.414 255 255 255
0.099 -0.363 0.485 0 0 0
0.227 -0.288 0.52 0 0 0
-0.25 -0.146 0.461 255 255 255
0.138 0.067 0.401 255 255 255
-0.113 -0.356 0.551 0 0 0
0.23 -0.34 0.491 255 255 255
0.255 0.437 1.163 255 255 255
0.316 -0.278 0.531 255 255 255
0.144 -0.059 0.498 255 255 255
0.203 -0.021 0.486 255 255 255
-0.15 -0.179 0.524 0 0 0
0.112 0.421 1.128 255 255 255
0.245 0.482 1.116 255 255 255
0.15 0.107 0.383 255 255 255
-0.591 0.124 1.067 255 255 255
0.247 0.039 0.466 255 255 255
0.11 -0.119 0.518 255 255 255
-0.042 0.041 0.402 255 255 255
-0.104 -0.047 0.411 0 0 0
0.096 -0.008 0.459 255 255 255
-0.183 -0.235 0.565 255 255 255
0.032 0.099 0.434 255 255 255
-0.07 -0.296 0.557 255 255 255
0.112 -0.271 0.532 255 255 255
-0.155 -0.067 0.414 255 255 255
-0.191 0.383 1.045 255 255 255
0.122 0.033 0.423 255 255 255
-0.049 -0.013 0.403 255 255 255
-0.207 0.403 1.02 255 255 255
-0.06 -0.119 0.502 255 255 255
-0.145 0.009 0.41 255 255 255
0.12 -0.261 0.541 255 255 255
-0.044 0.009 0.384 255 255 255
0.271 -0.297 0.519 255 255 255
-0.01 -0.304 0.553 255 255 255
0.104 -0.063 0.488 255 255 255
-0.143 -0.061 0.413 255 255 255
-0.133 -0.09 0.446 255 255 255
-0.035 -0.365 0.526 255 255 255
0.164 -0.26 0.543 255 255 255
-0.437 0.154 1.107 255 255 255
0.236 -0.259 0.536 255 255 255
0.003 -0.027 0.44 255 255 255
0.027 -0.368 0.502 0 0 0
0.031 -0.066 0.49 255 255 255
0.135 -0.35 0.489 255 255 255
0.103 -0.089 0.495 255 255 255
-0.225 0.329 1.084 255 255 255
0.097 -0.321 0.5 255 255 255
-0.018 -0.08 0.487 255 255 255
0 -0.186 0.542 255 255 255
-0.036 -0.341 0.542 255 255 255
0.331 -0.178 0.717 255 255 255
0.385 -0.186 0.748 255 255 255
0.042 -0.269 0.552 255 255 255
-0.262 -0.442 0.578 0 0 0
0.157 0.338 1.222 255 255 255
0.211 0.353 1.223 255 255 255
0.052 -0.337 0.504 255 255 255
-0.121 0.292 1.163 255 255 255
0.377 -0.161 0.566 255 255 255
-0.031 0.455 1.04 255 255 255
0.03 0.039 0.385 255 255 255
0.232 0.025 0.474 255 255 255
-0.169 -0.086 0.429 255 255 255
0.186 0.13 0.415 255 255 255
-0.071 0.058 0.432 255 255 255
-0.236 0.002 0.428 255 255 255
0.138 -0.352 0.487 0 0 0
0.015 0 0.417 255 255 255
-0.084 0.337 1.133 255 255 255
-0.225 -0.025 0.398 255 255 255
-0.061 0.005 0.379 255 255 255
0.488 0.478 1.214 255 255 255
0.199 -0.066 0.514 255 255 255
-0.262 -0.451 0.676 255 255 255
-0.515 0.208 1.058 255 255 255
-0.433 0.152 1.11 255 255 255
-0.108 -0.066 0.431 255 255 255
0.417 0.591 1.078 255 255 255
-0.264 -0.131 0.441 255 255 255
-0.264 -0.199 0.456 0 0 0
-0.131 -0.076 0.433 255 255 255
-0.165 -0.347 0.544 0 0 0
-0.123 -0.175 0.514 255 255 255
0.241 0.033 0.47 255 255 255
0.169 0.068 0.408 255 255 255
-0.18 -0.229 0.582 255 255 255
-0.244 -0.281 0.45 255 255 255
-0.123 -0.067 0.427 255 255 255
-0.357 0.424 0.942 0 0 0
0.188 -0.3 0.516 255 255 255
-0.052 -0.035 0.422 255 255 255
-0.404 0.182 1.162 255 255 255
-0.227 -0.163 0.488 255 255 255
0.353 -0.048 0.583 255 255 255
0.12 0.49 1.065 0 0 0
0.174 0.112 0.378 255 255 255
0.17 -0.251 0.549 255 255 255
-0.141 -0.349 0.559 255 255 255
0.069 -0.093 0.5 255 255 255
0.217 -0.316 0.502 255 255 255
-0.201 -0.088 0.426 255 255 255
-0.254 -0.208 0.499 255 255 255
-0.392 -0.017 0.523 255 255 255
0.162 0.06 0.412 255 255 255
-0.077 -0.146 0.502 255 255 255
0.012 -0.006 0.422 255 255 255
0.253 -0.285 0.522 255 255 255
0.1 -0.273 0.532 255 255 255
0.287 0.05 0.464 255 255 255
-0.264 0.352 1.047 255 255 255
0.042 -0.187 0.542 255 255 255
0.001 -0.322 0.539 255 255 255
0.093 -0.038 0.485 255 255 255
-0.219 -0.258 0.441 255 255 255
0.088 -0.257 0.548 255 255 255
0.209 -0.09 0.532 255 255 255
0.189 -0.252 0.548 255 255 255
0.121 0.33 1.215 255 255 255
-0.254 -0.192 0.499 255 255 255
-0.132 -0.36 0.548 255 255 255
0.251 0.044 0.456 0 0 0
-0.134 0.489 0.967 255 255 255
0.132 0.041 0.417 255 255 255
-0.147 -0.103 0.454 255 255 255
-0.174 -0.065 0.405 255 255 255
0.455 -0.185 0.793 255 255 255
0.071 0.067 0.373 255 255 255
-0.09 -0.025 0.398 255 255 255
-0.189 -0.123 0.459 255 255 255
0.321 -0.243 0.541 255 255 255
0.016 0.408 1.103 255 255 255
-0.493 0.125 1.182 255 255 255
0.242 0.023 0.48 255 255 255
-0.456 0.211 1.065 255 255 255
0.41 0.47 1.186 255 255 255
-0.29 0.193 1.192 255 255 255
-0.137 -0.336 0.615 255 255 255
-0.186 -0.125 0.462 255 255 255
-0.153 -0.376 0.513 0 0 0
0.162 -0.238 0.559 255 255 255
0.087 0.003 0.444 255 255 255
-0.112 -0.108 0.473 255 255 255
-0.273 -0.06 0.36 255 255 255
-0.042 -0.046 0.438 255 255 255
0.155 -0.12 0.533 255 255 255
0.243 -0.097 0.537 255 255 255
0.237 -0.222 0.56 255 255 255
0.011 0.37 1.138 255 255 255
0.005 0.3 1.201 255 255 255
-0.09 -0.026 0.399 255 255 255
0.051 0.038 0.389 255 255 255
-0.109 -0.151 0.51 0 0 0
-0.085 -0.356 0.543 255 255 255
0.183 -0.24 0.683 255 255 255
0.223 -0.179 0.631 255 255 255
0.138 -0.076 0.498 255 255 255
-0.019 -0.332 0.54 255 255 255
0.056 -0.298 0.523 255 255 255
-0.018 0.433 1.066 255 255 255
-0.405 0.125 1.202 255 255 255
0.104 0.112 0.451 255 255 255
-0.026 0.523 0.981 255 255 255
-0.245 -0.187 0.498 255 255 255
0.377 -0.177 0.561 255 255 255
-0.422 0.335 1.003 255 255 255
-0.121 -0.004 0.37 255 255 255
-0.171 -0.069 0.412 255 255 255
-0.383 0.288 1.063 255 255 255
-0.127 0.362 1.093 255 255 255
0.081 0.075 0.375 255 255 255
-0.063 -0.362 0.534 255 255 255
0.281 0.534 1.082 255 255 255
-0.213 -0.25 0.45 255 255 255
0.137 0.48 1.081 0 0 0
-0.241 -0.374 0.546 255 255 255
-0.07 -0.064 0.444 255 255 255
0.017 0.023 0.39 255 255 255
0.146 0.044 0.423 255 255 255
0.233 -0.222 0.56 255 255 255
0.171 0.083 0.396 255 255 255
0.237 -0.274 0.529 255 255 255
-0.007 -0.04 0.445 255 255 255
-0.018 -0.183 0.534 255 255 255
-0.134 -0.395 0.529 0 0 0
-0.047 -0.059 0.449 255 255 255
-0.156 -0.114 0.463 255 255 255
0.247 -0.303 0.511 0 0 0
-0.066 -0.025 0.405 255 255 255
-0.253 0.456 0.952 0 0 0
-0.326 0.353 1.022 255 255 255
-0.081 0.039 0.421 255 255 255
-0.059 -0.009 0.396 255 255 255
0.16 -0.228 0.662 255 255 255
-0.053 0.01 0.38 255 255 255
-0.166 -0.115 0.458 255 255 255
0.101 0.1 0.429 255 255 255
-0.001 0.079 0.429 255 255 255
0.059 -0.281 0.666 255 255 255
0.002 0.304 1.196 255 255 255
0.062 -0.328 0.505 255 255 255
-0.076 -0.372 0.53 255 255 255
0.304 -0.21 0.557 255 255 255
-0.097 0.021 0.4 255 255 255
-0.476 0.289 1.029 255 255 255
0.085 -0.177 0.565 255 255 255
-0.498 0.125 1.18 255 255 255
0.124 -0.262 0.54 255 255 255
0.059 -0.21 0.572 255 255 255
-0.234 -0.067 0.395 255 255 255
-0.276 -0.012 0.43 255 255 255
-0.388 0.336 1.014 255 255 255
0.095 0.012 0.435 255 255 255
0.36 0.548 1.103 255 255 255
0.258 -0.113 0.562 255 255 255
-0.014 -0.019 0.421 255 255 255
-0.2 -0.005 0.417 255 255 255
0.443 0.562 1.119 255 255 255
0.418 -0.059 0.62 255 255 255
-0.035 0.45 1.041 255 255 255
0.083 0.074 0.374 255 255 255
-0.308 0.505 0.891 255 255 255
-0.039 -0.276 0.55 255 255 255
-0.285 0.317 1.074 0 0 0
-0.179 0.37 1.061 255 255 255
0.325 -0.185 0.568 255 255 255
0.079 0.106 0.43 255 255 255
-0.04 -0.285 0.542 255 255 255
-0.16 -0.021 0.367 255 255 255
-0.2 -0.092 0.433 255 255 255
0.476 -0.088 0.672 255 255 255
-0.406 0.396 0.947 255 255 255
-0.264 -0.199 0.452 0 0 0
-0.279 -0.448 0.663 255 255 255
0.422 0.454 1.21 255 255 255
-0.258 -0.028 0.415 255 255 255
-0.152 -0.062 0.41 255 255 255
-0.016 -0.287 0.553 255 255 255
-0.09 -0.091 0.463 255 255 255
-0.015 0.054 0.412 255 255 255
0.151 -0.298 0.514 255 255 255
0.015 0.525 0.989 255 255 255
-0.09 -0.07 0.443 255 255 255
-0.332 0.417 0.955 0 0 0
0.289 -0.211 0.559 0 0 0
-0.127 0.325 1.122 255 255 255
0.048 -0.275 0.545 255 255 255
-0.068 -0.041 0.422 255 255 255
-0.272 -0.062 0.363 255 255 255
0.137 -0.265 0.538 255 255 255
0.008 0.039 0.373 255 255 255
0.072 0.018 0.419 255 255 255
-0.107 -0.08 0.446 255 255 255
0.084 -0.224 0.605 255 255 255
0.121 -0.325 0.496 255 255 255
0.047 0.115 0.46 255 255 255
-0.107 0.049 0.435 255 255 255
0.258 -0.34 0.495 255 255 255
0.359 -0.042 0.58 255 255 255
0.11 -0.184 0.576 255 255 255
-0.222 0.489 0.936 255 255 255
0.165 0.442 1.124 255 255 255
-0.314 0.286 1.089 255 255 255
-0.013 -0.308 0.676 255 255 255
-0.004 0.025 0.384 255 255 255
