ply
format ascii 1.0
comment Created by Open3D
element vertex 1604
property double x
property double y
property double z
property uchar red
property uchar green
property uchar blue
end_header
-0.278 -0.055 0.439 255 255 255
-0.506 0.275 1.143 255 255 255
-0.316 0.381 1.089 255 255 255
-0.29 -0.249 0.592 0 0 0
0.032 0.101 0.371 255 255 255
0.377 -0.079 0.699 255 255 255
-0.405 0.418 1.013 255 255 255
0.123 0.497 1.121 0 0 0
-0.022 -0.346 0.529 0 0 0
0.076 -0.195 0.574 255 255 255
-0.226 -0.17 0.574 0 0 0
-0.166 -0.357 0.55 255 255 255
-0.224 -0.164 0.566 0 0 0
-0.011 0.092 0.368 255 255 255
0.237 -0.063 0.569 255 255 255
-0.116 -0.01 0.437 255 255 255
-0.183 0.057 0.412 255 255 255
-0.216 0.471 1.024 0 0 0
0.023 -0.138 0.577 255 255 255
-0.165 -0.113 0.534 255 255 255
-0.119 0.528 0.996 255 255 255
-0.189 -0.097 0.516 255 255 255
0.438 -0.068 0.71 255 255 255
0.034 -0.052 0.516 255 255 255
-0.285 -0.285 0.564 255 255 255
0.271 -0.153 0.58 0 0 0
0.28 -0.27 0.526 255 255 255
-0.29 -0.165 0.45 255 255 255
-0.557 0.311 1.074 255 255 255
0.176 0.105 0.414 255 255 255
-0.295 -0.137 0.46 0 0 0
0.222 0.089 0.45 255 255 255
-0.209 -0.162 0.601 255 255 255
0.05 -0.192 0.573 0 0 0
-0.051 0.117 0.423 255 255 255
-0.17 -0.001 0.403 255 255 255
-0.429 0.423 0.999 255 255 255
-0.145 0.009 0.402 255 255 255
0.113 -0.039 0.528 255 255 255
-0.112 0.046 0.369 255 255 255
0.103 -0.175 0.573 0 0 0
0.148 -0.125 0.612 255 255 255
0.184 0.025 0.485 255 255 255
-0.085 -0.033 0.479 255 255 255
-0.241 0.429 1.061 255 255 255
0.066 0.469 1.134 255 255 255
-0.189 -0.078 0.491 255 255 255
0.117 0.051 0.457 255 255 255
0.146 -0.37 0.49 0 0 0
0.195 -0.233 0.546 0 0 0
0.299 -0.29 0.525 255 255 255
0.107 -0.287 0.515 255 255 255
-0.542 0.264 1.137 255 255 255
-0.228 0.502 0.982 255 255 255
0.112 0.108 0.388 255 255 255
0.161 -0.302 0.513 255 255 255
0.039 0.055 0.422 255 255 255
0.108 0.153 0.419 255 255 255
-0.276 0.017 0.393 255 255 255
0.167 0.007 0.498 255 255 255
0.022 0.067 0.399 255 255 255
0.175 -0.013 0.502 255 255 255
0.135 -0.158 0.566 0 0 0
0.233 -0.364 0.489 0 0 0
-0.545 0.264 1.102 255 255 255
-0.294 -0.351 0.59 255 255 255
0.167 -0.005 0.507 255 255 255
0.09 0.056 0.44 255 255 255
-0.025 -0.229 0.584 0 0 0
0.343 0.008 0.583 255 255 255
0.085 -0.313 0.512 255 255 255
-0.314 -0.103 0.466 255 255 255
0.395 0.022 0.588 255 255 255
0.171 -0.115 0.61 255 255 255
-0.036 -0.284 0.562 255 255 255
-0.259 0.324 1.167 255 255 255
0.155 0.201 0.434 0 0 0
-0.188 0.49 1.013 255 255 255
0.227 -0.151 0.585 0 0 0
-0.033 -0.169 0.591 255 255 255
-0.348 0.406 1.048 255 255 255
0.115 -0.253 0.529 255 255 255
-0.29 -0.355 0.624 255 255 255
-0.035 0.098 0.397 255 255 255
-0.269 -0.222 0.477 255 255 255
-0.183 -0.295 0.585 255 255 255
0.123 0.178 0.434 255 255 255
0.136 -0.017 0.504 255 255 255
0.038 0.067 0.404 255 255 255
-0.334 -0.086 0.444 255 255 255
0.108 0.179 0.453 255 255 255
0.198 0.501 1.149 255 255 255
0.092 0.086 0.403 255 255 255
0.259 -0.348 0.498 255 255 255
0.036 0.064 0.406 255 255 255
0.042 0.07 0.403 255 255 255
0.191 -0.254 0.539 0 0 0
0.223 -0.329 0.5 0 0 0
-0.224 -0.38 0.616 0 0 0
-0.327 0.438 1.019 255 255 255
0.212 0.099 0.436 255 255 255
0.049 0.496 1.098 0 0 0
-0.278 -0.079 0.46 255 255 255
-0.09 0.12 0.438 255 255 255
0.121 -0.281 0.519 255 255 255
-0.19 0.027 0.369 255 255 255
-0.103 0.047 0.379 255 255 255
-0.272 -0.031 0.412 255 255 255
0.026 -0.095 0.539 255 255 255
-0.293 -0.145 0.454 255 255 255
-0.247 -0.143 0.527 255 255 255
0.08 -0.213 0.56 255 255 255
-0.063 -0.004 0.453 255 255 255
0.034 -0.372 0.504 0 0 0
-0.059 0.052 0.387 255 255 255
-0.028 -0.085 0.521 255 255 255
-0.092 -0.394 0.522 0 0 0
-0.076 -0.006 0.449 255 255 255
-0.073 -0.213 0.621 255 255 255
-0.205 -0.011 0.406 255 255 255
0.045 -0.013 0.502 255 255 255
0.072 0.069 0.416 255 255 255
-0.162 -0.316 0.571 255 255 255
-0.321 -0.108 0.452 255 255 255
-0.46 0.385 1.03 255 255 255
-0.277 -0.378 0.678 0 0 0
-0.095 -0.363 0.537 255 255 255
0.015 0.096 0.368 255 255 255
0.121 0.099 0.399 255 255 255
-0.302 -0.079 0.45 0 0 0
0.155 0.112 0.398 255 255 255
0.041 -0.041 0.508 255 255 255
0.161 0.149 0.369 255 255 255
0.082 0.007 0.495 255 255 255
-0.104 0.061 0.367 255 255 255
0.21 -0.322 0.503 255 255 255
-0.065 -0.215 0.564 0 0 0
-0.2 -0.091 0.504 255 255 255
-0.352 0.48 0.958 255 255 255
0.116 0.041 0.472 255 255 255
0.231 -0.127 0.696 255 255 255
0.032 0.087 0.378 255 255 255
0.305 -0.273 0.531 255 255 255
0.326 -0.172 0.562 255 255 255
-0.172 0.007 0.392 255 255 255
-0.218 -0.068 0.47 255 255 255
-0.157 0.442 1.079 255 255 255
0.028 -0.234 0.56 0 0 0
-0.064 0.429 1.132 255 255 255
-0.05 0.051 0.394 255 255 255
0.369 -0.14 0.568 0 0 0
-0.063 -0.086 0.522 255 255 255
-0.283 -0.033 0.406 255 255 255
0.226 -0.349 0.492 255 255 255
-0.254 0.06 0.425 255 255 255
-0.197 -0.107 0.526 255 255 255
0.045 0.044 0.439 255 255 255
-0.286 0.52 0.942 255 255 255
0.069 0.521 1.077 255 255 255
0.119 -0.291 0.516 255 255 255
-0.237 0.485 1.001 255 255 255
-0.231 0.018 0.366 0 0 0
0.115 -0.228 0.546 255 255 255
-0.294 -0.115 0.48 0 0 0
-0.025 -0.384 0.513 0 0 0
-0.035 0.112 0.415 255 255 255
0.056 -0.348 0.509 255 255 255
0.048 -0.181 0.561 0 0 0
-0.196 -0.035 0.434 255 255 255
-0.053 -0.214 0.562 0 0 0
-0.128 -0.246 0.636 255 255 255
-0.441 0.358 1.066 255 255 255
0.053 -0.198 0.575 0 0 0
0.051 -0.11 0.556 255 255 255
-0.308 0.449 1.013 0 0 0
-0.149 0.088 0.427 255 255 255
-0.27 -0.108 0.504 0 0 0
-0.305 -0.381 0.695 255 255 255
-0.504 0.323 1.027 255 255 255
0.043 0.529 1.057 255 255 255
-0.451 0.412 1.002 255 255 255
-0.038 -0.381 0.517 0 0 0
-0.138 0.5 1.019 255 255 255
-0.259 -0.023 0.407 255 255 255
-0.153 0.52 0.992 255 255 255
0.25 0.584 1.07 255 255 255
0.159 0.102 0.411 255 255 255
0.118 0.081 0.42 255 255 255
0.145 -0.25 0.537 255 255 255
-0.239 -0.128 0.52 0 0 0
0.192 0.126 0.396 255 255 255
0.092 0.455 1.164 255 255 255
-0.015 -0.023 0.497 255 255 255
0.259 -0.198 0.562 255 255 255
0.086 -0.128 0.591 255 255 255
0.053 -0.199 0.574 0 0 0
-0.21 -0.224 0.625 255 255 255
-0.059 -0.097 0.531 255 255 255
0.012 -0.346 0.52 255 255 255
-0.161 0.428 1.096 255 255 255
-0.292 -0.208 0.48 255 255 255
0.173 -0.308 0.511 255 255 255
-0.162 0.495 1.017 255 255 255
0.008 0.052 0.412 255 255 255
0.044 0.087 0.382 255 255 255
-0.024 0.039 0.415 255 255 255
0.21 -0.186 0.572 255 255 255
-0.027 0.41 1.166 255 255 255
-0.247 -0.203 0.571 255 255 255
-0.216 0.066 0.426 255 255 255
0.234 -0.117 0.565 255 255 255
-0.465 0.372 1.039 255 255 255
0.043 0.081 0.387 255 255 255
-0.25 -0.214 0.579 255 255 255
-0.056 0.112 0.42 255 255 255
-0.163 -0.353 0.552 255 255 255
-0.247 -0.179 0.477 255 255 255
-0.206 0.461 1.036 0 0 0
0.273 0.093 0.458 255 255 255
-0.182 -0.185 0.617 255 255 255
0.083 -0.103 0.555 255 255 255
-0.156 -0.1 0.527 0 0 0
0.179 0.005 0.492 255 255 255
-0.064 -0.013 0.462 255 255 255
-0.315 -0.121 0.446 255 255 255
0.116 0.078 0.421 255 255 255
0.284 -0.1 0.566 255 255 255
0.236 -0.201 0.561 255 255 255
-0.08 -0.245 0.584 255 255 255
-0.105 0.427 1.118 255 255 255
-0.051 -0.366 0.525 255 255 255
0.061 -0.339 0.509 0 0 0
-0.253 -0.047 0.445 255 255 255
-0.279 -0.209 0.483 255 255 255
-0.226 -0.024 0.413 255 255 255
0.025 -0.29 0.534 0 0 0
0.138 -0.358 0.494 0 0 0
0.006 0.056 0.406 255 255 255
0.081 0.116 0.367 255 255 255
0.122 0.139 0.371 255 255 255
0.274 -0.179 0.567 255 255 255
-0.054 -0.286 0.566 255 255 255
0.182 -0.132 0.571 255 255 255
0.344 -0.13 0.575 0 0 0
0.061 0.038 0.453 255 255 255
0.04 0.138 0.415 255 255 255
0.087 -0.194 0.574 0 0 0
0.119 -0.203 0.564 255 255 255
0.262 0.066 0.484 255 255 255
0.21 0.12 0.413 255 255 255
-0.004 0.06 0.395 255 255 255
-0.278 -0.218 0.57 255 255 255
-0.089 0.035 0.396 255 255 255
0.172 -0.276 0.525 255 255 255
-0.302 -0.379 0.7 255 255 255
0.164 0.052 0.473 255 255 255
-0.154 -0.265 0.583 255 255 255
-0.037 0.073 0.368 255 255 255
0.085 -0.172 0.653 255 255 255
-0.141 0.038 0.372 255 255 255
-0.058 -0.327 0.545 255 255 255
-0.138 0.02 0.39 255 255 255
0.053 -0.196 0.576 0 0 0
-0.138 -0.296 0.577 255 255 255
0.114 -0.262 0.527 255 255 255
0.288 -0.186 0.56 255 255 255
-0.203 -0.018 0.414 255 255 255
0.174 -0.147 0.682 255 255 255
-0.195 -0.043 0.449 255 255 255
0.22 -0.377 0.48 255 255 255
-0.178 -0.368 0.515 255 255 255
-0.222 -0.026 0.42 255 255 255
-0.016 -0.05 0.501 255 255 255
-0.291 -0.178 0.503 255 255 255
-0.218 0.473 1.021 0 0 0
-0.121 -0.388 0.528 0 0 0
0.091 0.115 0.368 255 255 255
-0.151 0.038 0.37 255 255 255
0.187 -0.068 0.562 255 255 255
0.109 -0.041 0.528 255 255 255
-0.149 -0.053 0.476 0 0 0
-0.284 -0.086 0.463 255 255 255
-0.195 -0.032 0.431 255 255 255
-0.347 -0.573 0.823 255 255 255
0.365 -0.118 0.577 255 255 255
-0.148 -0.046 0.47 0 0 0
-0.285 -0.258 0.562 255 255 255
-0.085 0.005 0.432 255 255 255
-0.245 0.497 0.983 255 255 255
-0.262 0.039 0.416 255 255 255
-0.159 0.047 0.372 255 255 255
-0.53 0.245 1.164 255 255 255
-0.172 -0.027 0.436 255 255 255
-0.145 -0.208 0.617 0 0 0
0.129 -0.17 0.575 0 0 0
-0.314 -0.093 0.453 0 0 0
0.074 -0.31 0.513 255 255 255
0.174 -0.301 0.51 255 255 255
-0.07 -0.262 0.58 255 255 255
0.031 0.546 1.034 255 255 255
0.164 0.061 0.459 255 255 255
0.061 0.092 0.383 255 255 255
-0.176 -0.043 0.455 255 255 255
-0.216 0.423 1.077 255 255 255
0.138 0.095 0.41 255 255 255
-0.234 -0.138 0.53 255 255 255
-0.24 -0.296 0.635 0 0 0
-0.199 0.485 1.013 255 255 255
0.177 0.208 0.437 255 255 255
0.299 0.512 1.16 0 0 0
-0.41 0.326 1.119 255 255 255
0.212 -0.23 0.55 255 255 255
-0.249 -0.118 0.516 255 255 255
0.146 0.526 1.1 255 255 255
-0.207 -0.007 0.396 255 255 255
-0.128 -0.304 0.571 255 255 255
-0.023 -0.222 0.581 0 0 0
0.056 0.052 0.434 255 255 255
-0.173 -0.051 0.464 255 255 255
0.04 0.099 0.366 255 255 255
-0.105 -0.009 0.439 255 255 255
-0.114 0.107 0.431 255 255 255
-0.039 0.065 0.377 255 255 255
0.263 -0.126 0.577 0 0 0
-0.095 0.026 0.4 255 255 255
-0.071 -0.003 0.448 255 255 255
-0.013 -0.296 0.548 255 255 255
-0.079 -0.299 0.566 255 255 255
0.21 0.026 0.482 255 255 255
0.27 -0.249 0.534 255 255 255
-0.184 -0.324 0.537 0 0 0
-0.222 -0.089 0.494 255 255 255
-0.12 0.001 0.421 255 255 255
-0.292 -0.133 0.513 0 0 0
-0.044 0.099 0.405 255 255 255
-0.124 0.032 0.382 255 255 255
-0.16 -0.13 0.54 255 255 255
-0.464 0.314 1.05 0 0 0
-0.137 -0.019 0.44 0 0 0
0.227 0.076 0.466 255 255 255
-0.015 -0.228 0.58 255 255 255
-0.04 0.027 0.424 255 255 255
0.207 -0.098 0.604 255 255 255
-0.294 -0.142 0.451 255 255 255
0.108 0.028 0.485 255 255 255
-0.005 0.131 0.421 255 255 255
-0.166 -0.364 0.548 255 255 255
-0.04 0.005 0.45 255 255 255
0.294 -0.158 0.572 255 255 255
-0.179 -0.049 0.461 255 255 255
0.324 -0.09 0.693 255 255 255
0.148 0.082 0.429 255 255 255
-0.252 -0.167 0.485 255 255 255
-0.124 -0.382 0.536 255 255 255
0.125 -0.034 0.533 255 255 255
0.164 0.05 0.474 255 255 255
-0.074 0.466 1.088 255 255 255
0.021 -0.101 0.552 255 255 255
-0.076 0.038 0.394 255 255 255
-0.115 0.07 0.392 255 255 255
-0.085 -0.024 0.47 255 255 255
-0.228 0.379 1.126 255 255 255
-0.25 0.471 1.012 0 0 0
-0.075 -0.148 0.557 255 255 255
-0.293 -0.062 0.434 0 0 0
-0.161 -0.003 0.409 255 255 255
-0.37 0.389 1.056 255 255 255
-0.001 0.034 0.434 255 255 255
0.386 -0.067 0.565 255 255 255
-0.015 -0.028 0.5 255 255 255
-0.088 -0.338 0.548 255 255 255
-0.212 0.023 0.366 255 255 255
-0.071 0.023 0.411 255 255 255
-0.288 -0.179 0.504 255 255 255
-0.267 -0.055 0.439 255 255 255
-0.184 -0.337 0.528 0 0 0
0.187 -0.038 0.523 255 255 255
-0.243 -0.206 0.574 255 255 255
0.06 0.038 0.451 255 255 255
-0.026 0.451 1.122 255 255 255
0.093 0.084 0.405 255 255 255
-0.016 0.498 1.074 0 0 0
0.283 0.076 0.482 255 255 255
-0.066 -0.228 0.569 0 0 0
0.098 0.101 0.389 255 255 255
0.284 -0.12 0.579 0 0 0
-0.087 -0.047 0.495 255 255 255
0.33 -0.13 0.582 255 255 255
0.206 -0.324 0.5 255 255 255
0.079 0.075 0.412 255 255 255
0.16 -0.045 0.542 255 255 255
-0.18 0.065 0.416 255 255 255
0.049 -0.085 0.53 255 255 255
0.347 -0.118 0.58 255 255 255
-0.207 0.053 0.415 255 255 255
-0.164 0.496 1.014 255 255 255
0.269 -0.326 0.506 255 255 255
-0.004 -0.136 0.565 255 255 255
-0.087 0.468 1.08 255 255 255
0.051 -0.265 0.533 255 255 255
0.045 0.517 1.071 255 255 255
0.167 0.035 0.478 255 255 255
-0.176 -0.351 0.517 255 255 255
0.34 0.003 0.59 255 255 255
0.363 -0.139 0.569 0 0 0
-0.001 -0.328 0.532 0 0 0
-0.22 -0.132 0.534 0 0 0
0.153 -0.272 0.526 0 0 0
0.153 0.018 0.484 255 255 255
0.324 -0.017 0.606 255 255 255
0.082 0.49 1.119 255 255 255
-0.191 0.053 0.409 255 255 255
0.314 0.065 0.506 255 255 255
-0.24 0.02 0.37 0 0 0
0.22 -0.024 0.528 255 255 255
0.184 -0.294 0.516 255 255 255
-0.358 0.443 1.001 0 0 0
0.112 -0.178 0.577 0 0 0
-0.245 -0.148 0.538 255 255 255
0.234 -0.305 0.51 255 255 255
0.021 0.011 0.473 255 255 255
-0.386 0.415 1.023 255 255 255
-0.275 -0.41 0.662 255 255 255
0.037 -0.243 0.55 0 0 0
-0.15 0.386 1.148 255 255 255
-0.296 -0.172 0.503 255 255 255
-0.011 -0.384 0.51 0 0 0
0.222 -0.236 0.547 255 255 255
0.004 0.531 1.04 255 255 255
0.455 -0.01 0.648 255 255 255
-0.05 0.089 0.388 255 255 255
-0.019 0.121 0.417 255 255 255
0.085 -0.238 0.54 255 255 255
0.421 0.607 1.11 255 255 255
0.144 0.472 1.161 255 255 255
0.242 0.053 0.493 0 0 0
0.163 -0.357 0.492 0 0 0
-0.123 -0.017 0.443 255 255 255
-0.275 0.369 1.119 255 255 255
-0.116 -0.366 0.537 255 255 255
0.01 0.093 0.369 255 255 255
-0.149 -0.029 0.45 0 0 0
0.377 -0.169 0.562 0 0 0
0.098 0.54 1.065 255 255 255
-0.185 0.036 0.366 0 0 0
0.083 -0.159 0.636 255 255 255
-0.211 -0.261 0.633 255 255 255
-0.041 -0.216 0.657 255 255 255
0.001 0.085 0.367 255 255 255
0.077 -0.226 0.55 255 255 255
-0.204 0.389 1.122 255 255 255
0.393 0.022 0.587 255 255 255
0.222 -0.047 0.547 255 255 255
-0.07 0.046 0.392 255 255 255
-0.395 0.399 1.038 255 255 255
0.256 -0.249 0.535 0 0 0
0.002 -0.308 0.537 255 255 255
0.027 -0.035 0.499 255 255 255
-0.066 0.064 0.368 255 255 255
0.089 0.118 0.366 255 255 255
0.128 0.034 0.485 255 255 255
-0.247 -0.196 0.463 255 255 255
0.189 0.088 0.438 255 255 255
-0.058 0.12 0.425 255 255 255
-0.068 0.11 0.422 255 255 255
-0.204 -0.066 0.472 255 255 255
0.176 -0.214 0.56 255 255 255
0.029 0.06 0.409 255 255 255
0.025 0.016 0.467 255 255 255
-0.223 -0.254 0.651 255 255 255
0.325 0.533 1.152 0 0 0
-0.023 0.086 0.37 255 255 255
0.088 0.085 0.404 255 255 255
0.111 0.07 0.43 255 255 255
-0.213 0.507 0.984 255 255 255
0.18 0.105 0.416 255 255 255
-0.162 -0.349 0.555 255 255 255
0.248 0.04 0.513 0 0 0
0.128 -0.33 0.503 0 0 0
-0.117 0.009 0.415 0 0 0
0.136 0.13 0.371 255 255 255
0.12 -0.146 0.646 255 255 255
-0.165 -0.018 0.428 255 255 255
-0.614 0.233 1.067 255 255 255
-0.039 -0.248 0.731 255 255 255
0.075 0.481 1.124 255 255 255
0.149 -0.147 0.666 255 255 255
-0.4 0.349 1.094 255 255 255
0.041 0.108 0.368 255 255 255
0.092 0.105 0.385 255 255 255
0.051 0.493 1.103 0 0 0
0.01 -0.34 0.524 255 255 255
-0.344 0.43 1.021 255 255 255
0.2 -0.014 0.507 255 255 255
-0.033 0.103 0.407 255 255 255
0.136 -0.231 0.547 255 255 255
0.089 0.033 0.472 255 255 255
-0.062 0.028 0.412 255 255 255
-0.377 -0.605 0.808 0 0 0
-0.006 0.026 0.44 255 255 255
-0.252 0.406 1.085 255 255 255
-0.202 -0.263 0.631 255 255 255
-0.026 0.131 0.428 255 255 255
0.105 0.098 0.395 255 255 255
-0.045 -0.292 0.561 255 255 255
-0.058 -0.253 0.579 255 255 255
-0.09 0.063 0.367 0 0 0
-0.065 0.092 0.406 255 255 255
-0.149 -0.346 0.552 255 255 255
-0.209 -0.205 0.563 255 255 255
0.323 -0.242 0.538 255 255 255
-0.111 0.001 0.425 255 255 255
0.112 -0.36 0.495 0 0 0
-0.14 0.419 1.115 255 255 255
0.104 -0.173 0.571 0 0 0
-0.143 -0.271 0.587 255 255 255
-0.016 0.036 0.424 255 255 255
-0.118 -0.302 0.571 255 255 255
-0.133 -0.273 0.587 255 255 255
0.097 0.103 0.386 255 255 255
-0.264 -0.238 0.46 255 255 255
0.123 0.166 0.436 255 255 255
-0.56 0.304 1.087 255 255 255
-0.062 -0.057 0.511 255 255 255
0.194 -0.131 0.565 255 255 255
-0.547 0.233 1.014 255 255 255
-0.031 0.003 0.456 255 255 255
-0.024 -0.074 0.523 255 255 255
0.192 -0.34 0.494 255 255 255
0.102 -0.198 0.57 255 255 255
0.144 0.137 0.366 255 255 255
0.097 -0.235 0.542 255 255 255
-0.056 -0.37 0.524 255 255 255
-0.333 0.431 1.025 255 255 255
-0.118 -0.036 0.469 255 255 255
-0.114 0.402 1.147 255 255 255
0.06 0.037 0.454 255 255 255
-0.108 0.022 0.401 255 255 255
0.321 -0.256 0.537 255 255 255
-0.111 -0.114 0.536 255 255 255
-0.092 -0.277 0.577 255 255 255
-0.206 -0.058 0.461 255 255 255
0.193 -0.274 0.527 255 255 255
0.052 0.116 0.368 255 255 255
-0.066 -0.272 0.573 255 255 255
-0.128 0.012 0.406 255 255 255
0.186 -0.228 0.55 0 0 0
-0.235 -0.216 0.594 255 255 255
-0.14 -0.091 0.524 0 0 0
-0.462 0.275 1.109 255 255 255
0 0.126 0.416 255 255 255
0.254 -0.316 0.506 255 255 255
-0.095 0.478 1.063 0 0 0
-0.033 0.021 0.434 255 255 255
0.137 0.06 0.452 255 255 255
0.161 0.473 1.164 255 255 255
0.077 0.108 0.375 255 255 255
-0.012 0.093 0.369 255 255 255
-0.207 0.37 1.142 255 255 255
-0.244 -0.023 0.41 0 0 0
0.069 -0.046 0.51 255 255 255
-0.011 -0.006 0.477 255 255 255
0.124 -0.327 0.504 0 0 0
0.123 0.19 0.44 255 255 255
-0.218 -0.446 0.606 0 0 0
-0.093 -0.017 0.457 255 255 255
0.067 0.115 0.366 255 255 255
0.031 -0.372 0.506 0 0 0
-0.467 0.303 1.071 255 255 255
0.152 0.099 0.413 255 255 255
-0.085 -0.348 0.545 255 255 255
-0.034 0.066 0.378 255 255 255
-0.089 0.099 0.419 255 255 255
-0.048 0.006 0.447 255 255 255
0.066 -0.295 0.517 255 255 255
-0.281 -0.044 0.425 0 0 0
0.092 -0.304 0.513 255 255 255
-0.045 0.441 1.124 255 255 255
-0.172 -0.36 0.548 255 255 255
0.111 0.183 0.455 255 255 255
0.16 -0.088 0.573 255 255 255
0.211 -0.34 0.491 255 255 255
-0.07 -0.339 0.544 255 255 255
0.042 -0.085 0.536 255 255 255
0.192 0.105 0.419 255 255 255
-0.52 0.302 1.102 255 255 255
-0.024 -0.216 0.67 255 255 255
0.294 -0.215 0.547 0 0 0
-0.382 0.48 0.95 255 255 255
0.125 0.563 1.05 255 255 255
0.041 -0.274 0.532 255 255 255
0.062 -0.134 0.602 255 255 255
0.278 -0.232 0.54 0 0 0
-0.537 0.273 1.132 255 255 255
0.252 -0.19 0.566 255 255 255
0.231 -0.255 0.534 0 0 0
-0.221 -0.07 0.472 255 255 255
0.105 -0.158 0.573 255 255 255
0.271 0.085 0.467 255 255 255
0.087 -0.189 0.576 255 255 255
0.048 0.049 0.433 255 255 255
-0.301 -0.125 0.458 255 255 255
0.268 -0.228 0.543 0 0 0
0.052 -0.364 0.506 255 255 255
-0.052 -0.022 0.478 255 255 255
0.036 0.008 0.483 255 255 255
-0.271 -0.228 0.463 255 255 255
-0.223 -0.083 0.484 255 255 255
-0.172 -0.108 0.532 0 0 0
-0.067 -0.297 0.561 255 255 255
0.078 0.068 0.42 255 255 255
0.084 0.084 0.403 255 255 255
-0.262 -0.407 0.664 255 255 255
-0.238 0.487 0.995 255 255 255
0.434 -0.028 0.663 255 255 255
0.026 0.004 0.482 255 255 255
-0.173 -0.073 0.491 0 0 0
0.155 0.026 0.481 255 255 255
0.095 -0.163 0.579 255 255 255
-0.173 -0.027 0.436 255 255 255
-0.123 0.423 1.113 0 0 0
-0.103 0.529 1.003 255 255 255
-0.195 -0.119 0.543 255 255 255
-0.262 -0.172 0.561 0 0 0
-0.286 0.325 1.157 255 255 255
0.072 -0.364 0.501 0 0 0
-0.004 0.054 0.403 255 255 255
-0.134 -0.348 0.553 255 255 255
-0.254 0.421 1.066 0 0 0
-0.281 -0.28 0.503 255 255 255
-0.118 -0.339 0.554 0 0 0
0.257 -0.224 0.545 0 0 0
0.197 0.037 0.477 255 255 255
-0.339 -0.092 0.444 255 255 255
0.327 -0.148 0.574 255 255 255
0.149 0.104 0.406 255 255 255
0.089 -0.183 0.673 255 255 255
0.103 -0.275 0.52 255 255 255
-0.29 -0.168 0.442 255 255 255
-0.017 0.422 1.155 255 255 255
-0.34 0.458 0.993 0 0 0
0.045 -0.211 0.57 255 255 255
-0.16 -0.029 0.443 255 255 255
0.229 -0.343 0.493 255 255 255
0.213 -0.079 0.577 255 255 255
-0.238 0.465 1.023 0 0 0
-0.365 -0.588 0.833 255 255 255
0.421 0.589 1.133 255 255 255
-0.102 -0.101 0.522 255 255 255
0.12 -0.23 0.544 255 255 255
-0.143 -0.077 0.508 255 255 255
0.091 0.123 0.367 255 255 255
0.239 -0.022 0.53 255 255 255
-0.457 0.422 0.989 255 255 255
-0.236 -0.059 0.471 0 0 0
0.085 -0.009 0.493 255 255 255
0.098 -0.1 0.568 255 255 255
0.085 -0.327 0.507 255 255 255
0.491 -0.028 0.684 255 255 255
-0.013 0.106 0.401 255 255 255
0.242 0.049 0.501 0 0 0
-0.308 -0.409 0.672 255 255 255
-0.464 0.413 0.995 255 255 255
0.036 -0.06 0.521 255 255 255
0.348 -0.119 0.581 255 255 255
-0.074 -0.359 0.533 255 255 255
0.243 -0.276 0.523 0 0 0
-0.202 -0.271 0.63 255 255 255
0.152 -0.277 0.524 255 255 255
-0.015 0.041 0.416 255 255 255
-0.249 -0.126 0.519 0 0 0
-0.376 0.455 0.983 0 0 0
-0.17 -0.284 0.589 255 255 255
-0.029 -0.042 0.508 255 255 255
0.084 -0.096 0.552 255 255 255
0.118 0.073 0.429 255 255 255
0.138 0.018 0.486 255 255 255
-0.273 -0.078 0.47 255 255 255
-0.067 -0.185 0.589 255 255 255
-0.178 -0.318 0.572 255 255 255
-0.079 0.453 1.099 255 255 255
-0.177 -0.062 0.478 255 255 255
0.244 0.093 0.446 255 255 255
0.127 -0.17 0.692 255 255 255
-0.009 -0.024 0.498 255 255 255
-0.112 -0.281 0.58 255 255 255
0.285 -0.125 0.586 0 0 0
0.249 -0.143 0.734 255 255 255
0.249 0.012 0.529 255 255 255
-0.092 0.058 0.37 255 255 255
-0.068 0.044 0.394 255 255 255
0.086 -0.036 0.502 255 255 255
-0.308 -0.115 0.456 255 255 255
-0.151 -0.402 0.52 0 0 0
-0.421 0.417 1.011 255 255 255
0.001 -0.01 0.489 255 255 255
-0.292 -0.126 0.509 255 255 255
-0.131 -0.287 0.58 255 255 255
-0.099 0.516 1.019 255 255 255
0.195 -0.023 0.518 255 255 255
0.219 0.061 0.481 255 255 255
-0.069 -0.15 0.566 255 255 255
-0.269 -0.02 0.398 255 255 255
0.221 -0.149 0.706 255 255 255
-0.31 -0.072 0.435 255 255 255
0.058 0.115 0.368 255 255 255
0.31 0.069 0.499 255 255 255
0.086 -0.22 0.552 255 255 255
0.189 0.045 0.477 255 255 255
0.192 -0.246 0.542 0 0 0
0.27 -0.3 0.515 255 255 255
0.058 0.153 0.422 255 255 255
-0.11 0.504 1.025 255 255 255
0.32 0.027 0.552 255 255 255
0.28 -0.185 0.562 255 255 255
-0.161 -0.255 0.584 0 0 0
-0.26 -0.297 0.729 0 0 0
-0.206 0.062 0.421 255 255 255
-0.088 -0.249 0.584 255 255 255
0.335 0.052 0.528 255 255 255
0.001 -0.177 0.607 255 255 255
0.083 0.042 0.458 255 255 255
-0.155 -0.252 0.582 0 0 0
0.05 -0.306 0.52 255 255 255
0.264 -0.218 0.546 255 255 255
0.208 -0.246 0.542 0 0 0
-0.25 -0.012 0.4 255 255 255
-0.24 -0.031 0.424 255 255 255
0.207 -0.026 0.522 255 255 255
-0.222 0.402 1.099 255 255 255
-0.323 0.436 1.022 255 255 255
0.36 -0.144 0.568 0 0 0
0.214 -0.283 0.522 255 255 255
-0.23 -0.3 0.691 255 255 255
-0.24 -0.039 0.443 255 255 255
-0.292 -0.147 0.455 255 255 255
0.042 0.014 0.477 255 255 255
0.247 -0.303 0.511 255 255 255
0.239 -0.209 0.558 255 255 255
-0.184 -0.163 0.593 0 0 0
-0.248 0.346 1.158 255 255 255
0.152 -0.266 0.528 0 0 0
-0.094 -0.339 0.549 255 255 255
0.102 -0.335 0.503 0 0 0
-0.223 0.02 0.365 255 255 255
-0.177 -0.341 0.537 255 255 255
-0.003 -0.075 0.514 255 255 255
-0.465 0.324 1.025 255 255 255
-0.356 0.347 1.107 255 255 255
0.04 0.046 0.435 255 255 255
0.188 -0.134 0.671 255 255 255
0.335 -0.053 0.653 255 255 255
0.372 -0.012 0.619 255 255 255
-0.207 -0.005 0.398 255 255 255
-0.303 -0.081 0.451 0 0 0
-0.166 -0.381 0.526 0 0 0
-0.182 0.045 0.384 255 255 255
-0.217 0.058 0.42 255 255 255
0.132 0.114 0.388 255 255 255
-0.197 -0.29 0.555 0 0 0
-0.176 -0.365 0.513 255 255 255
-0.265 -0.241 0.458 255 255 255
-0.262 -0.038 0.423 255 255 255
0.158 0.079 0.437 255 255 255
-0.161 -0.082 0.508 255 255 255
-0.055 0.43 1.134 255 255 255
0.028 -0.21 0.686 255 255 255
0.106 0.466 1.157 255 255 255
0.212 0.057 0.476 255 255 255
-0.286 -0.192 0.452 255 255 255
-0.143 -0.126 0.539 255 255 255
-0.217 0.029 0.373 255 255 255
0.196 -0.347 0.494 255 255 255
-0.05 -0.336 0.54 255 255 255
0.393 0.596 1.111 255 255 255
0.372 -0.101 0.581 255 255 255
-0.113 0.108 0.432 255 255 255
-0.064 -0.386 0.52 0 0 0
-0.254 -0.138 0.52 255 255 255
0.269 0.593 1.064 255 255 255
0.231 -0.343 0.493 255 255 255
-0.145 0.415 1.116 255 255 255
0.125 0.169 0.426 255 255 255
0.187 -0.284 0.521 255 255 255
-0.016 0.045 0.41 255 255 255
-0.152 -0.015 0.43 255 255 255
0.027 -0.265 0.542 0 0 0
0.113 0.002 0.49 255 255 255
0.156 -0.374 0.486 255 255 255
-0.1 -0.04 0.482 255 255 255
-0.165 -0.257 0.581 0 0 0
0.316 0.021 0.558 255 255 255
0.155 0.096 0.417 255 255 255
-0.258 -0.172 0.562 0 0 0
0.136 -0.263 0.529 255 255 255
0.012 -0.146 0.58 255 255 255
-0.235 -0.191 0.572 255 255 255
-0.155 -0.122 0.533 255 255 255
0.075 -0.34 0.505 255 255 255
-0.091 -0.345 0.546 255 255 255
-0.169 -0.044 0.459 255 255 255
0.118 0.046 0.467 255 255 255
-0.239 -0.44 0.621 255 255 255
0.164 -0.282 0.523 255 255 255
0.156 0.121 0.386 255 255 255
0.007 -0.37 0.512 0 0 0
-0.114 -0.062 0.504 255 255 255
0.019 0.062 0.404 255 255 255
0.041 0.099 0.368 255 255 255
-0.203 -0.014 0.411 255 255 255
-0.057 0.007 0.44 255 255 255
-0.033 -0.037 0.505 255 255 255
-0.069 0.004 0.439 255 255 255
-0.154 0.037 0.369 255 255 255
-0.3 -0.341 0.571 255 255 255
-0.096 0.5 1.037 255 255 255
-0.168 -0.1 0.526 0 0 0
-0.192 -0.191 0.625 255 255 255
-0.226 0.489 1.002 255 255 255
0.188 -0.032 0.521 255 255 255
0.096 0.009 0.497 255 255 255
-0.341 0.415 1.04 255 255 255
-0.052 0.447 1.117 255 255 255
0.25 0.038 0.513 0 0 0
-0.339 -0.578 0.817 255 255 255
-0.112 -0.359 0.537 255 255 255
0.161 0.569 1.053 255 255 255
-0.193 0.526 0.974 255 255 255
0.14 -0.071 0.555 255 255 255
0.387 -0.121 0.575 255 255 255
-0.219 -0.039 0.441 255 255 255
0.152 -0.355 0.492 0 0 0
-0.136 -0.132 0.542 255 255 255
-0.386 0.361 1.088 255 255 255
0.179 -0.318 0.505 255 255 255
-0.215 0.489 1.003 255 255 255
0.249 0.078 0.464 255 255 255
-0.121 -0.317 0.565 255 255 255
0.002 0.536 1.034 255 255 255
0.282 -0.274 0.525 255 255 255
-0.009 0.526 1.041 255 255 255
-0.17 -0.005 0.409 255 255 255
0.331 -0.213 0.548 255 255 255
-0.131 -0.014 0.437 255 255 255
0.197 -0.062 0.564 255 255 255
0.166 -0.148 0.564 0 0 0
0.199 -0.333 0.495 255 255 255
-0.01 0.151 0.446 255 255 255
-0.037 0.114 0.417 255 255 255
-0.199 -0.033 0.433 255 255 255
-0.242 -0.02 0.406 255 255 255
0.253 -0.171 0.574 255 255 255
0.134 -0.291 0.516 255 255 255
-0.207 -0.112 0.526 255 255 255
0.012 -0.21 0.578 255 255 255
-0.149 0.456 1.066 255 255 255
-0.004 -0.03 0.504 255 255 255
-0.442 0.36 1.062 255 255 255
-0.329 0.4 1.061 255 255 255
0.296 0.043 0.524 255 255 255
-0.191 -0.138 0.564 0 0 0
-0.034 -0.064 0.509 255 255 255
-0.156 -0.212 0.61 255 255 255
-0.061 0.393 1.169 255 255 255
0.105 0.194 0.468 255 255 255
-0.174 0.007 0.392 255 255 255
-0.014 0.547 1.016 255 255 255
0.291 0.036 0.53 255 255 255
0.206 0.072 0.463 255 255 255
-0.306 -0.056 0.419 255 255 255
0.271 0.056 0.5 255 255 255
0.09 -0.096 0.562 255 255 255
-0.385 0.378 1.065 255 255 255
0.013 -0.195 0.563 0 0 0
0.067 -0.372 0.499 0 0 0
-0.34 -0.109 0.461 255 255 255
0.178 -0.09 0.576 255 255 255
0.155 0.044 0.477 255 255 255
0.115 -0.177 0.578 0 0 0
0.111 -0.199 0.567 255 255 255
-0.424 -0.589 0.846 255 255 255
0.216 0.531 1.115 255 255 255
0.169 0.201 0.433 0 0 0
-0.035 -0.077 0.521 255 255 255
-0.233 -0.022 0.409 255 255 255
-0.238 -0.078 0.487 255 255 255
-0.18 -0.018 0.422 255 255 255
-0.29 -0.2 0.482 255 255 255
0.112 0.055 0.451 255 255 255
0.02 -0.073 0.529 255 255 255
0.242 -0.335 0.496 0 0 0
-0.288 -0.265 0.584 255 255 255
-0.273 -0.129 0.517 0 0 0
0.129 -0.258 0.531 255 255 255
-0.145 -0.387 0.532 0 0 0
0.258 -0.175 0.571 255 255 255
-0.135 0.513 1.009 255 255 255
-0.068 -0.256 0.582 255 255 255
-0.145 0.095 0.429 255 255 255
-0.153 -0.369 0.543 255 255 255
-0.075 -0.016 0.462 255 255 255
-0.116 -0.326 0.558 255 255 255
0.386 0.008 0.6 255 255 255
-0.268 -0.065 0.449 0 0 0
-0.243 -0.209 0.459 255 255 255
-0.137 -0.03 0.454 255 255 255
0.187 0.479 1.169 255 255 255
-0.033 0.052 0.396 255 255 255
-0.07 -0.013 0.46 255 255 255
0.191 -0.368 0.484 0 0 0
0.37 0.011 0.59 255 255 255
0.183 0.116 0.405 255 255 255
0.213 0.011 0.498 255 255 255
-0.19 -0.265 0.639 255 255 255
-0.189 -0.001 0.397 255 255 255
0.313 -0.12 0.582 0 0 0
0.199 -0.031 0.531 255 255 255
-0.095 -0.003 0.437 255 255 255
-0.036 -0.041 0.507 255 255 255
0.228 0.088 0.453 0 0 0
-0.144 -0.092 0.524 0 0 0
-0.228 -0.455 0.632 0 0 0
0.04 -0.279 0.531 255 255 255
-0.257 -0.156 0.519 0 0 0
-0.161 -0.205 0.636 0 0 0
-0.17 0.084 0.429 255 255 255
-0.281 -0.197 0.497 255 255 255
0.12 -0.208 0.562 255 255 255
0.128 -0.371 0.492 0 0 0
-0.25 -0.171 0.502 255 255 255
-0.171 0.386 1.141 255 255 255
-0.082 -0.359 0.535 255 255 255
-0.044 0.014 0.436 255 255 255
-0.324 0.487 0.962 255 255 255
-0.25 0.058 0.432 255 255 255
-0.22 -0.114 0.519 0 0 0
0.141 -0.309 0.509 255 255 255
0.103 -0.271 0.521 255 255 255
0.092 0.19 0.468 255 255 255
0.187 0.096 0.428 255 255 255
-0.296 -0.03 0.394 255 255 255
0.221 -0.045 0.544 255 255 255
-0.03 -0.079 0.526 255 255 255
-0.045 0.06 0.383 255 255 255
-0.246 -0.111 0.513 255 255 255
0.061 -0.37 0.499 0 0 0
0.204 0.054 0.482 255 255 255
0.108 -0.332 0.503 0 0 0
0.307 -0.164 0.569 255 255 255
-0.516 0.284 1.132 255 255 255
0.05 0.037 0.448 255 255 255
-0.263 -0.273 0.495 255 255 255
-0.116 -0.282 0.582 255 255 255
-0.094 0.104 0.424 255 255 255
0.062 0.087 0.39 255 255 255
-0.245 -0.018 0.403 255 255 255
0.102 -0.283 0.517 255 255 255
0.134 -0.311 0.508 255 255 255
-0.002 -0.032 0.505 255 255 255
0.098 -0.163 0.565 0 0 0
0.115 0.045 0.467 255 255 255
0.19 -0.158 0.585 255 255 255
0.324 -0.135 0.769 255 255 255
0.528 -0.06 0.761 255 255 255
0.119 0.064 0.439 255 255 255
-0.097 0.105 0.422 255 255 255
0.202 0.574 1.063 255 255 255
0.341 0.043 0.541 255 255 255
0.302 -0.156 0.571 255 255 255
0.11 -0.316 0.509 255 255 255
0.126 -0.037 0.531 255 255 255
-0.128 -0.079 0.518 255 255 255
0.18 -0.308 0.509 255 255 255
-0.299 -0.074 0.449 0 0 0
0.099 0.133 0.375 255 255 255
-0.14 -0.061 0.491 255 255 255
0.257 -0.259 0.53 255 255 255
-0.377 0.439 0.998 0 0 0
-0.511 0.273 1.142 255 255 255
0.107 -0.339 0.502 255 255 255
0.042 -0.265 0.536 255 255 255
0.18 -0.358 0.49 0 0 0
0.155 -0.066 0.54 255 255 255
-0.003 0.488 1.088 0 0 0
-0.267 0.441 1.039 255 255 255
-0.287 -0.267 0.585 255 255 255
-0.225 -0.019 0.412 255 255 255
0.226 -0.127 0.695 255 255 255
-0.141 -0.135 0.535 255 255 255
-0.113 -0.01 0.438 255 255 255
-0.411 0.362 1.079 255 255 255
-0.176 0.504 1.002 255 255 255
-0.058 -0.046 0.504 255 255 255
0.196 -0.036 0.53 255 255 255
-0.01 0.066 0.386 255 255 255
0.018 0.062 0.402 255 255 255
-0.293 -0.167 0.509 255 255 255
0.244 -0.158 0.745 255 255 255
0.31 0.026 0.55 255 255 255
0.141 -0.071 0.544 255 255 255
0.01 0.117 0.407 255 255 255
0.13 -0.013 0.498 255 255 255
-0.454 0.28 1.087 255 255 255
0.065 -0.195 0.673 0 0 0
0.38 0.608 1.08 255 255 255
0.255 0.066 0.481 255 255 255
-0.038 0.044 0.402 255 255 255
-0.306 0.355 1.119 255 255 255
-0.428 -0.605 0.837 0 0 0
0.1 0.078 0.414 255 255 255
-0.18 -0.017 0.42 255 255 255
-0.273 -0.313 0.554 255 255 255
-0.074 0.127 0.44 255 255 255
-0.015 -0.049 0.499 255 255 255
-0.276 -0.225 0.466 255 255 255
-0.515 0.338 1.031 255 255 255
-0.291 -0.215 0.475 255 255 255
-0.157 0.007 0.399 255 255 255
0.194 -0.091 0.581 255 255 255
0.029 -0.237 0.558 0 0 0
-0.14 -0.012 0.43 0 0 0
-0.134 -0.018 0.441 0 0 0
-0.122 0.016 0.405 255 255 255
0.285 0.073 0.485 255 255 255
-0.315 -0.087 0.449 0 0 0
-0.154 0.094 0.432 255 255 255
0.37 -0.132 0.571 255 255 255
-0.339 -0.591 0.809 0 0 0
-0.076 -0.045 0.497 255 255 255
0.198 0.109 0.418 255 255 255
-0.128 0.073 0.408 255 255 255
0.091 -0.029 0.501 255 255 255
-0.124 0.085 0.418 255 255 255
-0.243 -0.397 0.647 0 0 0
-0.148 -0.009 0.422 255 255 255
-0.108 -0.374 0.533 255 255 255
0.055 -0.375 0.5 0 0 0
0.036 0.087 0.381 255 255 255
-0.081 -0.03 0.479 255 255 255
0.221 -0.122 0.566 255 255 255
0.054 0.149 0.421 255 255 255
0.14 0.021 0.488 255 255 255
-0.036 -0.301 0.552 255 255 255
-0.09 -0.061 0.508 255 255 255
0.447 -0.059 0.703 255 255 255
0.163 -0.369 0.489 0 0 0
-0.02 0.043 0.41 255 255 255
0.338 -0.232 0.541 255 255 255
-0.095 -0.386 0.524 0 0 0
0.029 0.051 0.423 255 255 255
-0.019 -0.289 0.552 255 255 255
0.112 0.045 0.464 255 255 255
0.34 0.529 1.152 0 0 0
-0.092 0.002 0.432 255 255 255
-0.219 -0.012 0.403 255 255 255
-0.198 -0.109 0.528 255 255 255
-0.023 -0.075 0.525 255 255 255
0.005 -0.337 0.527 0 0 0
-0.306 -0.097 0.464 0 0 0
0.025 0.086 0.379 255 255 255
0.363 -0.086 0.702 255 255 255
0.016 0.084 0.379 255 255 255
-0.009 -0.005 0.479 255 255 255
-0.127 0.007 0.411 0 0 0
0.301 -0.069 0.639 255 255 255
-0.182 -0.083 0.501 255 255 255
-0.239 -0.144 0.535 255 255 255
0.043 -0.226 0.557 255 255 255
-0.297 -0.299 0.707 255 255 255
0.189 -0.029 0.522 255 255 255
0.054 -0.307 0.518 255 255 255
-0.237 0.048 0.415 255 255 255
-0.155 0.38 1.154 255 255 255
-0.342 -0.605 0.754 255 255 255
0.009 0.449 1.137 255 255 255
0.096 -0.163 0.565 255 255 255
-0.041 -0.206 0.568 255 255 255
0.268 0.017 0.545 255 255 255
-0.088 -0.002 0.439 255 255 255
-0.174 -0.324 0.569 255 255 255
-0.15 -0.368 0.545 255 255 255
0.23 -0.371 0.486 0 0 0
-0.314 -0.079 0.441 0 0 0
0.157 0.031 0.487 255 255 255
-0.009 0.12 0.413 255 255 255
-0.165 0.515 0.995 255 255 255
-0.255 -0.17 0.485 255 255 255
-0.172 -0.096 0.52 255 255 255
0.023 0.073 0.391 255 255 255
0.199 -0.363 0.481 0 0 0
-0.317 -0.06 0.418 255 255 255
-0.084 0.436 1.116 255 255 255
-0.181 0.085 0.429 255 255 255
-0.14 -0.233 0.627 255 255 255
-0.261 -0.11 0.504 255 255 255
-0.087 -0.012 0.451 255 255 255
-0.188 -0.013 0.412 255 255 255
0.169 -0.34 0.497 0 0 0
0.086 -0.16 0.64 255 255 255
-0.04 0.023 0.429 255 255 255
0.026 0.039 0.44 255 255 255
0.084 0.06 0.432 255 255 255
-0.3 -0.083 0.461 255 255 255
0.361 -0.128 0.575 0 0 0
0.188 0.025 0.488 255 255 255
0.14 0.029 0.49 255 255 255
-0.032 -0.248 0.578 255 255 255
0.011 -0.07 0.515 255 255 255
0.03 -0.038 0.5 255 255 255
-0.127 -0.034 0.462 255 255 255
-0.188 0.056 0.413 255 255 255
-0.022 0.041 0.413 255 255 255
-0.384 0.361 1.088 255 255 255
0.174 -0.187 0.575 0 0 0
-0.41 -0.591 0.845 255 255 255
0.065 0.119 0.368 255 255 255
-0.264 -0.239 0.604 255 255 255
-0.061 -0.022 0.474 255 255 255
0.122 -0.106 0.584 255 255 255
0.064 0.01 0.488 255 255 255
-0.256 -0.022 0.406 255 255 255
0.112 0.124 0.368 255 255 255
0.212 -0.079 0.578 255 255 255
0.255 -0.359 0.497 0 0 0
-0.307 -0.586 0.755 255 255 255
0.248 -0.245 0.536 0 0 0
-0.209 -0.21 0.59 255 255 255
-0.241 -0.047 0.453 255 255 255
-0.107 0.492 1.042 0 0 0
-0.025 0.515 1.045 255 255 255
0.337 -0.172 0.561 255 255 255
0.171 0.215 0.45 255 255 255
0.029 -0.14 0.578 255 255 255
-0.449 -0.58 0.862 255 255 255
-0.239 0.064 0.421 255 255 255
-0.15 -0.326 0.569 0 0 0
-0.146 -0.127 0.539 255 255 255
0.064 0.093 0.385 255 255 255
-0.314 0.478 0.977 255 255 255
-0.205 -0.039 0.44 255 255 255
-0.28 -0.2 0.494 255 255 255
0.065 0.549 1.043 255 255 255
-0.189 -0.008 0.404 255 255 255
0.01 0.087 0.371 255 255 255
0.13 -0.37 0.491 0 0 0
0.166 -0.195 0.57 255 255 255
0.068 0.075 0.406 255 255 255
0.127 -0.098 0.573 255 255 255
-0.092 -0.175 0.573 255 255 255
-0.229 -0.053 0.466 255 255 255
0.124 -0.275 0.52 255 255 255
-0.058 -0.389 0.519 0 0 0
-0.206 -0.054 0.456 255 255 255
0.353 -0.039 0.644 255 255 255
0.123 0.092 0.407 255 255 255
0.182 -0.252 0.539 255 255 255
-0.309 -0.366 0.71 255 255 255
0.266 -0.279 0.52 255 255 255
0.118 -0.294 0.515 255 255 255
-0.199 0.023 0.368 255 255 255
0.204 0.022 0.494 255 255 255
0.052 0.143 0.416 0 0 0
0.265 -0.131 0.584 0 0 0
0.16 -0.11 0.589 255 255 255
0.225 -0.259 0.532 0 0 0
0.149 -0.363 0.492 0 0 0
-0.136 -0.041 0.468 255 255 255
0.32 -0.09 0.691 255 255 255
0.185 -0.284 0.521 255 255 255
0.447 -0.019 0.656 255 255 255
-0.178 -0.345 0.558 255 255 255
-0.01 0.419 1.162 255 255 255
-0.087 0.423 1.127 255 255 255
-0.188 -0.064 0.474 255 255 255
0.151 0.119 0.39 255 255 255
0.227 -0.358 0.489 0 0 0
0.407 0.569 1.149 255 255 255
0.01 -0.267 0.549 255 255 255
-0.025 0.06 0.39 255 255 255
-0.039 0.044 0.403 255 255 255
-0.295 -0.122 0.503 255 255 255
0.065 -0.054 0.518 255 255 255
-0.298 -0.068 0.437 0 0 0
0.487 -0.034 0.69 255 255 255
-0.168 -0.267 0.644 255 255 255
-0.291 -0.06 0.446 0 0 0
-0.337 0.412 1.045 255 255 255
0 -0.359 0.519 255 255 255
0.144 0.155 0.386 255 255 255
0.063 -0.347 0.506 0 0 0
-0.015 -0.197 0.569 255 255 255
0.189 -0.16 0.584 255 255 255
0.338 -0.064 0.668 255 255 255
0.163 -0.303 0.512 255 255 255
0.055 -0.261 0.534 255 255 255
-0.16 -0.063 0.486 0 0 0
-0.008 -0.305 0.541 255 255 255
0.051 0.138 0.413 255 255 255
-0.091 0.067 0.369 255 255 255
0.112 -0.165 0.563 0 0 0
0.233 -0.313 0.504 0 0 0
-0.082 -0.373 0.528 255 255 255
0.083 0.089 0.396 255 255 255
0.084 0.156 0.439 255 255 255
-0.057 0.06 0.374 255 255 255
-0.552 0.267 1.065 255 255 255
0.062 -0.01 0.503 255 255 255
0.269 -0.118 0.567 0 0 0
-0.105 -0.022 0.455 255 255 255
0.08 -0.339 0.505 0 0 0
-0.388 0.341 1.106 255 255 255
0 -0.245 0.566 255 255 255
-0.114 0.033 0.385 255 255 255
0.154 0.156 0.381 255 255 255
-0.208 -0.219 0.623 255 255 255
-0.257 0.426 1.059 0 0 0
0.13 -0.075 0.561 255 255 255
0.214 -0.212 0.557 255 255 255
-0.119 -0.364 0.539 255 255 255
-0.127 -0.012 0.436 255 255 255
0.167 -0.142 0.564 0 0 0
0.209 -0.255 0.535 255 255 255
-0.065 0.069 0.365 255 255 255
-0.359 -0.595 0.825 0 0 0
-0.003 -0.248 0.565 255 255 255
-0.138 0.008 0.406 255 255 255
-0.297 -0.13 0.457 255 255 255
-0.25 -0.102 0.501 255 255 255
0.453 0.558 1.141 255 255 255
0.174 -0.327 0.503 0 0 0
0.048 0.428 1.171 0 0 0
0.241 -0.19 0.567 255 255 255
0.077 0.503 1.101 0 0 0
0.127 -0.229 0.547 255 255 255
0.157 -0.254 0.535 255 255 255
-0.146 -0.039 0.462 0 0 0
0.119 -0.174 0.576 255 255 255
0.112 0.1 0.395 255 255 255
0.008 -0.292 0.539 255 255 255
-0.176 0.012 0.386 255 255 255
0.072 0.047 0.446 255 255 255
-0.052 0.076 0.369 255 255 255
-0.122 -0.021 0.447 255 255 255
0.034 -0.305 0.524 0 0 0
0.237 -0.352 0.493 255 255 255
-0.317 0.434 1.025 255 255 255
-0.144 -0.041 0.466 0 0 0
-0.102 0.079 0.403 255 255 255
0.2 -0.28 0.521 0 0 0
0.126 0.029 0.486 255 255 255
0.391 0.01 0.6 0 0 0
0.348 0.552 1.133 255 255 255
0.429 -0.031 0.664 255 255 255
0.082 -0.18 0.57 0 0 0
-0.121 -0.028 0.459 255 255 255
0.159 -0.355 0.494 255 255 255
-0.023 -0.344 0.53 255 255 255
-0.067 -0.317 0.552 255 255 255
0.007 0.086 0.371 255 255 255
0.196 -0.348 0.494 255 255 255
-0.242 -0.203 0.573 255 255 255
0.14 -0.159 0.683 255 255 255
0.437 -0.027 0.662 255 255 255
0.449 -0.007 0.643 255 255 255
-0.172 -0.364 0.542 255 255 255
0.062 -0.2 0.572 255 255 255
0.244 -0.226 0.547 255 255 255
0.235 0.051 0.494 0 0 0
0.15 -0.177 0.58 255 255 255
0.058 0.025 0.468 255 255 255
-0.188 -0.001 0.396 255 255 255
0.061 -0.1 0.56 255 255 255
-0.068 0.035 0.401 255 255 255
0.283 -0.187 0.559 255 255 255
-0.001 0.072 0.383 255 255 255
-0.288 -0.276 0.665 255 255 255
-0.415 0.312 1.131 255 255 255
-0.224 0.416 1.084 255 255 255
0.18 -0.027 0.528 255 255 255
-0.04 -0.215 0.565 0 0 0
-0.273 -0.573 0.749 0 0 0
-0.187 -0.298 0.583 255 255 255
-0.134 -0.317 0.566 255 255 255
-0.142 0.048 0.37 0 0 0
-0.003 -0.047 0.503 255 255 255
0.226 0.531 1.119 255 255 255
0.268 -0.044 0.567 0 0 0
-0.125 -0.002 0.423 0 0 0
-0.045 0.004 0.45 255 255 255
-0.129 -0.398 0.522 0 0 0
0.138 -0.165 0.69 255 255 255
-0.224 0.457 1.035 0 0 0
0.152 -0.122 0.608 255 255 255
-0.007 -0.01 0.488 255 255 255
-0.151 -0.022 0.439 255 255 255
-0.204 0.001 0.39 255 255 255
0.025 -0.12 0.562 255 255 255
0.106 0.101 0.393 255 255 255
0.342 -0.037 0.636 255 255 255
0.057 -0.27 0.528 255 255 255
-0.154 -0.285 0.587 0 0 0
0.34 -0.124 0.58 255 255 255
-0.121 0.017 0.404 255 255 255
-0.064 -0.28 0.57 255 255 255
0.149 0.149 0.373 255 255 255
-0.019 -0.317 0.542 255 255 255
-0.426 0.361 1.071 255 255 255
-0.101 -0.244 0.575 255 255 255
0.241 -0.262 0.53 0 0 0
-0.014 0.056 0.396 255 255 255
0.238 -0.341 0.493 255 255 255
-0.174 -0.264 0.644 255 255 255
-0.096 -0.06 0.508 255 255 255
0.036 -0.088 0.545 255 255 255
-0.172 -0.283 0.59 255 255 255
0.024 0.037 0.44 255 255 255
0.014 -0.209 0.578 255 255 255
0.129 -0.042 0.533 255 255 255
0.181 -0.068 0.555 255 255 255
0.189 -0.129 0.568 255 255 255
-0.048 0.138 0.441 255 255 255
-0.002 -0.049 0.505 255 255 255
0.101 -0.176 0.573 0 0 0
-0.523 0.269 1.144 255 255 255
-0.203 -0.153 0.596 255 255 255
-0.165 0.529 0.979 255 255 255
-0.134 0.103 0.434 255 255 255
0.226 -0.118 0.573 255 255 255
0.386 0.024 0.587 255 255 255
0.454 -0.006 0.644 255 255 255
0.247 -0.283 0.517 255 255 255
-0.099 0.118 0.439 255 255 255
0.178 0.103 0.417 255 255 255
-0.077 -0.078 0.511 255 255 255
-0.054 0.512 1.043 255 255 255
-0.036 0.062 0.385 255 255 255
-0.056 0.038 0.403 255 255 255
-0.167 -0.03 0.444 255 255 255
0.193 0.114 0.412 255 255 255
0.072 0.035 0.463 255 255 255
0.034 -0.217 0.57 255 255 255
0.293 -0.255 0.528 255 255 255
-0.134 -0.341 0.557 0 0 0
0.08 0.529 1.067 255 255 255
-0.062 -0.301 0.559 255 255 255
0.285 -0.158 0.574 255 255 255
-0.269 -0.021 0.401 255 255 255
0.244 -0.338 0.495 255 255 255
-0.141 0.072 0.413 255 255 255
-0.274 -0.202 0.498 255 255 255
0.049 0.046 0.436 255 255 255
-0.285 -0.139 0.514 0 0 0
0.129 0.051 0.465 255 255 255
0.008 0.124 0.414 255 255 255
0.234 0.111 0.423 255 255 255
0.084 0.461 1.153 255 255 255
0.311 -0.147 0.575 0 0 0
0.045 0.085 0.384 255 255 255
0.183 -0.296 0.515 255 255 255
0.023 0.502 1.084 0 0 0
0.092 -0.349 0.503 255 255 255
-0.113 0.012 0.412 0 0 0
-0.549 0.289 1.1 255 255 255
0.03 0.14 0.418 255 255 255
-0.156 -0.218 0.609 255 255 255
0.185 -0.031 0.524 255 255 255
-0.416 0.363 1.072 255 255 255
0.244 -0.352 0.492 0 0 0
-0.073 0.033 0.402 255 255 255
0.168 -0.265 0.531 255 255 255
0.145 -0.063 0.547 255 255 255
-0.098 0.089 0.414 255 255 255
-0.075 -0.1 0.535 255 255 255
0.255 -0.245 0.537 0 0 0
0.403 -0.147 0.565 255 255 255
-0.067 0.466 1.089 255 255 255
-0.23 0.049 0.416 255 255 255
-0.096 -0.002 0.434 255 255 255
-0.19 -0.014 0.412 255 255 255
-0.223 -0.135 0.532 0 0 0
0.146 -0.1 0.582 255 255 255
0.131 -0.174 0.667 255 255 255
0.103 -0.002 0.49 255 255 255
0.28 -0.161 0.573 255 255 255
-0.074 -0.057 0.508 255 255 255
0.176 0.116 0.402 255 255 255
-0.188 -0.116 0.537 255 255 255
-0.311 -0.112 0.454 255 255 255
0.101 -0.27 0.522 255 255 255
-0.063 0.042 0.398 255 255 255
-0.186 -0.333 0.531 0 0 0
-0.153 -0.329 0.565 0 0 0
-0.421 0.378 1.048 0 0 0
0.057 -0.279 0.525 255 255 255
0.274 -0.145 0.757 255 255 255
0.102 -0.09 0.552 255 255 255
-0.054 -0.007 0.46 255 255 255
-0.385 0.469 0.962 255 255 255
-0.157 -0.379 0.536 255 255 255
0.475 -0.026 0.676 0 0 0
-0.198 -0.264 0.575 0 0 0
-0.083 0.127 0.444 255 255 255
-0.053 0.473 1.088 255 255 255
0.176 -0.219 0.558 255 255 255
0.171 0.117 0.398 255 255 255
0.194 0.019 0.498 255 255 255
0.046 -0.279 0.529 255 255 255
-0.042 -0.032 0.496 255 255 255
-0.053 0.114 0.421 255 255 255
-0.07 0.024 0.412 255 255 255
0.156 0.016 0.484 255 255 255
-0.04 -0.006 0.464 255 255 255
-0.032 0.108 0.411 255 255 255
0.091 -0.369 0.495 0 0 0
-0.018 0.058 0.394 255 255 255
-0.109 0.409 1.138 255 255 255
0.228 0.064 0.482 255 255 255
0.132 -0.322 0.506 0 0 0
-0.299 -0.4 0.685 255 255 255
-0.192 0.408 1.106 255 255 255
-0.082 0.094 0.414 255 255 255
-0.036 0.011 0.445 255 255 255
-0.179 -0.079 0.496 255 255 255
0.011 -0.231 0.57 0 0 0
0.117 -0.283 0.518 255 255 255
-0.14 -0.129 0.541 255 255 255
-0.298 -0.142 0.513 0 0 0
0.023 -0.259 0.548 255 255 255
-0.1 0.005 0.426 255 255 255
0.177 -0.213 0.562 255 255 255
-0.112 -0.166 0.559 255 255 255
-0.035 -0.003 0.46 255 255 255
-0.272 -0.234 0.456 255 255 255
-0.125 -0.039 0.47 255 255 255
0.42 0.024 0.595 255 255 255
-0.05 -0.341 0.539 255 255 255
0.001 -0.368 0.514 255 255 255
-0.041 -0.288 0.56 255 255 255
-0.066 -0.082 0.516 255 255 255
0.179 -0.304 0.51 255 255 255
-0.279 0.047 0.428 255 255 255
0.025 -0.014 0.498 255 255 255
-0.558 0.234 1.015 255 255 255
-0.482 0.34 1.015 255 255 255
-0.408 0.337 1.105 255 255 255
-0.329 0.517 0.928 255 255 255
0.091 -0.052 0.512 255 255 255
0.149 -0.174 0.696 255 255 255
-0.14 0.051 0.371 0 0 0
-0.106 -0.314 0.565 255 255 255
0.054 0.075 0.401 255 255 255
-0.194 0.073 0.428 255 255 255
0.378 0.014 0.588 255 255 255
0.146 0.138 0.368 255 255 255
0.102 0.188 0.461 255 255 255
0.057 -0.217 0.56 255 255 255
0.231 0.038 0.494 255 255 255
0.294 -0.118 0.731 255 255 255
-0.056 0.096 0.408 255 255 255
-0.145 0.037 0.373 255 255 255
-0.261 0.005 0.364 255 255 255
0.176 0.106 0.413 255 255 255
0.007 0.101 0.369 255 255 255
-0.214 -0.128 0.539 255 255 255
-0.539 0.294 1.103 255 255 255
0.133 -0.177 0.696 255 255 255
0.3 -0.165 0.571 255 255 255
0.104 0.087 0.406 255 255 255
-0.075 -0.013 0.457 255 255 255
-0.064 -0.292 0.563 255 255 255
0.156 0.017 0.484 255 255 255
0.217 0.122 0.415 255 255 255
-0.013 0.115 0.412 255 255 255
0.056 -0.331 0.511 0 0 0
0.36 0.564 1.137 255 255 255
-0.169 -0.364 0.523 255 255 255
-0.273 -0.106 0.502 255 255 255
0.244 -0.289 0.515 255 255 255
-0.057 -0.254 0.737 255 255 255
0.164 -0.202 0.565 255 255 255
-0.098 -0.364 0.536 255 255 255
0.248 -0.33 0.499 0 0 0
0.128 -0.091 0.568 255 255 255
-0.249 0.015 0.369 255 255 255
-0.326 -0.089 0.447 0 0 0
0.213 -0.261 0.532 255 255 255
0.242 -0.323 0.499 0 0 0
0.197 -0.018 0.512 255 255 255
-0.383 0.348 1.103 255 255 255
0.048 -0.33 0.516 255 255 255
-0.479 0.308 1.014 255 255 255
-0.07 -0.239 0.687 255 255 255
-0.185 0.378 1.144 255 255 255
0.026 -0.283 0.534 255 255 255
0.362 0.594 1.103 255 255 255
-0.289 -0.082 0.459 255 255 255
0.459 -0.012 0.651 255 255 255
0.04 0.551 1.033 255 255 255
0.093 0.083 0.408 255 255 255
-0.082 0.015 0.421 255 255 255
-0.144 -0.255 0.646 255 255 255
-0.016 -0.063 0.514 255 255 255
-0.221 -0.017 0.408 255 255 255
0.008 -0.004 0.481 255 255 255
0.258 0.579 1.077 255 255 255
-0.145 0.101 0.437 255 255 255
0.033 -0.23 0.561 0 0 0
-0.277 -0.217 0.479 255 255 255
-0.013 0.006 0.463 255 255 255
0.333 0.061 0.517 255 255 255
-0.431 -0.578 0.857 255 255 255
0.313 -0.222 0.542 255 255 255
-0.355 0.475 0.967 255 255 255
0.232 -0.327 0.499 0 0 0
0.176 -0.168 0.582 255 255 255
-0.047 -0.378 0.519 0 0 0
0.063 0.48 1.121 255 255 255
-0.28 -0.286 0.587 255 255 255
0.046 0.09 0.378 255 255 255
-0.021 0.133 0.427 255 255 255
0.12 0.074 0.43 255 255 255
-0.053 -0.05 0.509 255 255 255
0.128 -0.095 0.577 255 255 255
-0.084 0.017 0.415 255 255 255
0.273 -0.209 0.552 255 255 255
0.002 -0.376 0.51 0 0 0
0.138 -0.162 0.569 0 0 0
-0.225 -0.028 0.422 255 255 255
0.112 -0.237 0.54 255 255 255
0.215 -0.047 0.543 255 255 255
-0.117 -0.118 0.54 255 255 255
-0.16 0.015 0.387 255 255 255
-0.266 0.39 1.096 255 255 255
-0.307 -0.339 0.559 255 255 255
0.216 -0.224 0.553 255 255 255
0.065 -0.061 0.514 255 255 255
-0.018 0.531 1.031 255 255 255
0.032 0.084 0.381 255 255 255
-0.139 -0.094 0.527 0 0 0
-0.391 0.446 0.988 0 0 0
-0.088 0.113 0.427 255 255 255
0.227 -0.043 0.545 255 255 255
0.024 -0.184 0.576 255 255 255
0.286 -0.092 0.673 255 255 255
0.087 -0.165 0.571 255 255 255
0.283 -0.041 0.583 255 255 255
0.234 -0.205 0.56 255 255 255
-0.067 0.109 0.421 255 255 255
0.061 -0.099 0.561 255 255 255
-0.088 -0.386 0.523 0 0 0
0.117 -0.213 0.557 255 255 255
0.212 -0.234 0.547 0 0 0
0.227 -0.042 0.544 255 255 255
0.024 -0.272 0.54 255 255 255
0.113 0.062 0.441 255 255 255
-0.058 0.003 0.446 255 255 255
0.083 0.095 0.388 255 255 255
0.085 0.015 0.488 255 255 255
-0.328 -0.077 0.428 255 255 255
-0.122 -0.052 0.488 255 255 255
-0.446 0.298 1.104 255 255 255
0.284 -0.102 0.56 255 255 255
0.046 0.08 0.39 255 255 255
0.485 0.587 1.151 255 255 255
-0.302 -0.332 0.653 255 255 255
-0.13 -0.131 0.534 255 255 255
-0.273 -0.319 0.732 255 255 255
0.183 0.112 0.407 255 255 255
-0.041 0.064 0.381 255 255 255
0.26 -0.22 0.548 255 255 255
0.198 0.106 0.422 255 255 255
0.008 -0.067 0.511 255 255 255
0.064 0.071 0.408 255 255 255
0.109 -0.33 0.504 0 0 0
-0.198 0.378 1.135 255 255 255
-0.086 0.04 0.392 255 255 255
0.011 -0.204 0.676 255 255 255
0.158 -0.301 0.512 255 255 255
0.068 -0.274 0.523 255 255 255
0.275 -0.308 0.514 255 255 255
-0.303 0.516 0.941 255 255 255
0.139 -0.333 0.503 255 255 255
-0.459 0.325 1.065 255 255 255
-0.037 -0.023 0.489 255 255 255
0.181 0.09 0.431 255 255 255
0.017 -0.22 0.573 0 0 0
0.232 -0.331 0.498 0 0 0
0.01 0.047 0.421 255 255 255
0.346 0.572 1.12 255 255 255
-0.057 0.022 0.424 255 255 255
0.097 -0.036 0.511 255 255 255
0.052 0.081 0.393 255 255 255
-0.032 0.087 0.37 255 255 255
0.064 0.532 1.062 255 255 255
-0.087 -0.281 0.577 255 255 255
0.013 -0.346 0.52 255 255 255
-0.014 0.125 0.419 255 255 255
0.01 0.065 0.395 255 255 255
-0.286 -0.437 0.672 255 255 255
0.263 -0.049 0.564 255 255 255
-0.143 -0.113 0.53 255 255 255
0.334 -0.109 0.583 255 255 255
0.207 0.507 1.142 0 0 0
0.295 -0.151 0.575 0 0 0
