ply
format ascii 1.0
comment Created by Open3D
element vertex 1613
property double x
property double y
property double z
property uchar red
property uchar green
property uchar blue
end_header
-0.166 0.028 0.409 255 255 255
-0.26 -0.369 0.519 255 255 255
0.038 -0.215 0.542 255 255 255
0.01 -0.375 0.502 0 0 0
-0.059 0.151 0.402 255 255 255
-0.008 -0.114 0.587 255 255 255
0.189 -0.246 0.552 0 0 0
-0.197 -0.26 0.564 255 255 255
-0.176 -0.313 0.54 255 255 255
-0.259 -0.076 0.509 255 255 255
-0.015 0.01 0.487 255 255 255
0.483 -0.211 0.896 255 255 255
0 0.08 0.394 255 255 255
0.122 -0.227 0.557 0 0 0
-0.079 0.089 0.356 255 255 255
-0.185 0.038 0.389 0 0 0
0.04 0.123 0.356 255 255 255
-0.076 -0.018 0.487 255 255 255
0.039 -0.31 0.519 255 255 255
0.087 0.073 0.441 255 255 255
0.108 0.022 0.485 255 255 255
-0.019 -0.209 0.552 255 255 255
-0.19 -0.379 0.512 0 0 0
-0.214 -0.296 0.55 255 255 255
0.063 -0.005 0.509 255 255 255
-0.173 -0.247 0.57 255 255 255
-0.308 -0.055 0.479 255 255 255
0.023 0.104 0.372 255 255 255
0.013 -0.174 0.571 255 255 255
0.3 -0.277 0.542 255 255 255
-0.006 -0.053 0.525 255 255 255
-0.056 0.068 0.393 255 255 255
-0.03 -0.019 0.498 255 255 255
0.214 0.03 0.531 255 255 255
-0.404 0.502 0.98 255 255 255
-0.023 0.057 0.425 255 255 255
0.202 -0.302 0.524 0 0 0
-0.042 0.067 0.403 255 255 255
-0.213 0.004 0.43 0 0 0
-0.276 -0.249 0.575 0 0 0
0.016 -0.11 0.591 255 255 255
-0.232 0.482 1.069 0 0 0
-0.327 -0.233 0.556 255 255 255
0.256 -0.354 0.509 255 255 255
-0.066 0.069 0.388 255 255 255
-0.228 -0.034 0.481 255 255 255
0.148 -0.143 0.768 255 255 255
0.378 0.581 1.127 255 255 255
0.103 -0.267 0.537 255 255 255
0.059 -0.262 0.53 255 255 255
-0.041 -0.016 0.488 255 255 255
0.042 -0.044 0.538 255 255 255
0.014 0.056 0.441 255 255 255
0.196 -0.153 0.59 0 0 0
-0.048 0.072 0.389 255 255 255
0.01 -0.248 0.531 255 255 255
-0.118 -0.302 0.54 0 0 0
-0.11 -0.037 0.494 255 255 255
-0.161 -0.061 0.51 255 255 255
0.207 -0.1 0.574 255 255 255
0.226 -0.344 0.508 255 255 255
-0.136 0.022 0.434 255 255 255
0.055 -0.352 0.509 255 255 255
0.486 -0.21 0.892 255 255 255
-0.329 -0.252 0.577 255 255 255
-0.236 -0.169 0.589 0 0 0
-0.311 -0.305 0.548 255 255 255
0.088 -0.256 0.538 255 255 255
-0.218 -0.071 0.505 255 255 255
0.155 0.058 0.472 255 255 255
0.057 0.128 0.348 255 255 255
-0.024 0.073 0.397 255 255 255
-0.035 -0.364 0.508 255 255 255
-0.066 0.058 0.408 255 255 255
-0.226 -0.282 0.559 255 255 255
0.264 -0.051 0.662 255 255 255
-0.081 -0.27 0.546 255 255 255
-0.004 -0.186 0.563 255 255 255
0.419 0.013 0.629 255 255 255
0.172 0.112 0.4 255 255 255
0.221 -0.314 0.521 255 255 255
-0.012 -0.027 0.498 255 255 255
-0.31 -0.281 0.564 255 255 255
0.119 -0.261 0.542 255 255 255
0.012 0.089 0.386 255 255 255
0.007 -0.096 0.586 255 255 255
0.284 -0.239 0.553 255 255 255
-0.237 0.019 0.397 255 255 255
-0.062 0.058 0.407 255 255 255
0.039 0.093 0.392 255 255 255
0.21 -0.314 0.52 255 255 255
-0.062 0.026 0.457 255 255 255
0.247 0.022 0.552 0 0 0
-0.098 -0.27 0.55 255 255 255
0.114 -0.282 0.532 255 255 255
0.049 -0.316 0.517 255 255 255
0.306 -0.296 0.535 255 255 255
0.065 -0.17 0.577 255 255 255
0.056 -0.022 0.525 255 255 255
0.172 0.178 0.391 0 0 0
0.012 -0.276 0.527 255 255 255
-0.182 -0.243 0.57 255 255 255
0.458 -0.084 0.818 0 0 0
0.535 -0.232 0.854 255 255 255
0.046 -0.274 0.526 255 255 255
0.045 -0.001 0.495 255 255 255
0.007 -0.282 0.526 255 255 255
0.351 0.019 0.595 255 255 255
0.15 0.045 0.498 0 0 0
0.4 0.027 0.6 255 255 255
-0.134 -0.212 0.578 255 255 255
0.154 0.154 0.36 255 255 255
-0.154 -0.023 0.487 255 255 255
0.505 -0.204 0.805 255 255 255
-0.017 -0.152 0.681 255 255 255
-0.019 -0.194 0.561 255 255 255
0.007 0.174 0.432 255 255 255
-0.119 0.128 0.392 255 255 255
-0.114 -0.028 0.495 255 255 255
0.233 -0.157 0.587 0 0 0
0.032 0.042 0.468 255 255 255
-0.242 -0.266 0.562 255 255 255
-0.169 -0.374 0.514 0 0 0
0.006 -0.007 0.493 255 255 255
0.018 -0.065 0.557 255 255 255
0.214 -0.356 0.499 255 255 255
-0.284 -0.031 0.45 255 255 255
-0.096 0.016 0.459 255 255 255
0.24 -0.252 0.548 255 255 255
-0.057 -0.055 0.512 255 255 255
0.131 -0.148 0.592 0 0 0
-0.134 0.068 0.364 255 255 255
0.079 -0.137 0.637 255 255 255
-0.263 -0.288 0.555 0 0 0
-0.161 0.047 0.387 255 255 255
0.374 0.595 1.119 255 255 255
-0.051 -0.216 0.558 255 255 255
-0.041 -0.155 0.561 0 0 0
-0.053 -0.318 0.527 255 255 255
-0.065 0.076 0.38 255 255 255
0.061 -0.152 0.585 255 255 255
0.124 -0.178 0.579 255 255 255
0.021 0.099 0.378 255 255 255
0.046 -0.008 0.496 255 255 255
-0.078 0.128 0.387 255 255 255
0.043 -0.266 0.527 255 255 255
-0.462 0.446 1.038 255 255 255
-0.023 0.053 0.431 255 255 255
-0.259 0.459 1.091 255 255 255
-0.19 0.006 0.433 255 255 255
-0.271 -0.057 0.496 0 0 0
-0.243 -0.304 0.548 255 255 255
0.02 -0.18 0.566 255 255 255
-0.213 -0.378 0.514 0 0 0
0.502 -0.232 0.874 255 255 255
-0.165 0.11 0.385 255 255 255
-0.074 -0.267 0.545 255 255 255
0.113 -0.23 0.553 0 0 0
0.075 0.005 0.49 255 255 255
-0.016 0.067 0.408 255 255 255
0.195 -0.371 0.498 0 0 0
-0.039 -0.216 0.554 255 255 255
0.033 0.02 0.479 255 255 255
0.121 -0.212 0.563 255 255 255
0.028 0.169 0.426 255 255 255
-0.258 -0.05 0.491 255 255 255
-0.237 0.5 1.044 255 255 255
0.05 -0.084 0.584 255 255 255
0.043 -0.234 0.535 255 255 255
0.06 0.083 0.415 255 255 255
0.001 0.115 0.351 255 255 255
-0.074 -0.247 0.551 255 255 255
-0.132 0.008 0.456 255 255 255
0.012 -0.247 0.531 255 255 255
0.126 0.084 0.434 255 255 255
0.216 -0.351 0.503 255 255 255
-0.084 0.077 0.373 255 255 255
0.02 -0.155 0.664 255 255 255
0.157 -0.225 0.56 255 255 255
-0.046 -0.167 0.569 0 0 0
-0.242 -0.367 0.521 255 255 255
0.123 -0.099 0.653 0 0 0
0.069 -0.23 0.542 255 255 255
-0.21 -0.072 0.506 255 255 255
0.106 0.514 1.135 0 0 0
-0.19 -0.343 0.529 255 255 255
0.164 0.099 0.416 255 255 255
0.493 -0.011 0.688 255 255 255
0.045 -0.183 0.564 0 0 0
0.178 -0.316 0.521 255 255 255
-0.332 0.488 1.03 255 255 255
-0.359 -0.072 0.486 255 255 255
-0.318 -0.176 0.6 255 255 255
0.033 -0.134 0.667 255 255 255
-0.12 -0.05 0.506 255 255 255
0.162 0.114 0.401 255 255 255
0.162 -0.34 0.512 255 255 255
0.052 0.075 0.422 255 255 255
-0.153 0.037 0.402 255 255 255
-0.118 0.105 0.36 255 255 255
-0.185 -0.107 0.535 255 255 255
0.12 0.103 0.406 255 255 255
0.158 -0.382 0.495 0 0 0
-0.333 -0.129 0.562 0 0 0
-0.228 0.466 1.093 255 255 255
-0.304 -0.008 0.423 255 255 255
0.493 -0.159 0.742 255 255 255
-0.072 -0.367 0.511 255 255 255
-0.302 -0.217 0.632 255 255 255
0.174 -0.384 0.495 0 0 0
-0.17 -0.013 0.469 255 255 255
0.095 0.06 0.46 255 255 255
-0.285 -0.181 0.591 255 255 255
0.095 -0.283 0.53 0 0 0
0.189 -0.233 0.555 255 255 255
-0.062 -0.026 0.494 255 255 255
-0.37 0.474 1.031 0 0 0
-0.059 0.163 0.409 255 255 255
-0.1 0.072 0.375 255 255 255
0.097 -0.032 0.531 255 255 255
-0.121 -0.006 0.478 255 255 255
0.075 -0.302 0.523 0 0 0
-0.009 0.119 0.351 255 255 255
0.13 0.094 0.424 255 255 255
0.161 -0.356 0.507 255 255 255
0.233 -0.315 0.521 0 0 0
-0.067 -0.057 0.518 255 255 255
0.127 0.182 0.404 0 0 0
-0.208 -0.31 0.544 255 255 255
0.075 -0.211 0.553 0 0 0
0.009 0.086 0.39 255 255 255
-0.25 0.536 0.99 255 255 255
-0.146 -0.351 0.521 255 255 255
-0.142 0.03 0.417 255 255 255
0.055 -0.201 0.556 0 0 0
0.13 -0.288 0.532 255 255 255
0.079 0.078 0.429 255 255 255
0.06 0.074 0.429 255 255 255
0.092 0.033 0.473 255 255 255
-0.079 -0.135 0.594 255 255 255
0.064 0.061 0.452 255 255 255
-0.18 -0.039 0.498 0 0 0
-0.157 0.064 0.368 255 255 255
0.164 -0.189 0.576 255 255 255
-0.137 0.513 1.061 255 255 255
-0.132 -0.031 0.502 255 255 255
0.077 -0.353 0.509 255 255 255
0.156 -0.079 0.619 255 255 255
-0.303 -0.045 0.465 255 255 255
0.246 -0.25 0.547 255 255 255
-0.107 -0.027 0.492 255 255 255
0.033 0.12 0.355 255 255 255
0.231 -0.265 0.542 0 0 0
-0.208 -0.078 0.516 255 255 255
-0.105 0.095 0.344 0 0 0
-0.221 -0.039 0.488 255 255 255
-0.135 -0.226 0.574 255 255 255
-0.238 -0.01 0.44 255 255 255
0.174 -0.25 0.553 255 255 255
0.04 0.03 0.48 0 0 0
-0.056 -0.038 0.501 255 255 255
-0.021 0.023 0.477 255 255 255
-0.166 -0.33 0.532 0 0 0
-0.036 0.159 0.407 255 255 255
0.352 0.03 0.58 255 255 255
-0.01 -0.109 0.584 255 255 255
0.117 -0.194 0.572 255 255 255
0.255 0.091 0.461 255 255 255
-0.052 0.091 0.36 255 255 255
-0.195 0.008 0.427 255 255 255
0.062 -0.372 0.5 0 0 0
0.092 0.12 0.375 255 255 255
-0.136 0.521 1.051 255 255 255
0.183 -0.383 0.495 0 0 0
0.191 0.023 0.534 255 255 255
0.109 -0.229 0.554 0 0 0
-0.077 0.024 0.452 255 255 255
-0.299 -0.062 0.492 255 255 255
-0.151 0.064 0.367 255 255 255
-0.229 -0.252 0.569 255 255 255
0.028 0.019 0.478 255 255 255
0.542 -0.193 0.736 255 255 255
-0.364 -0.071 0.482 255 255 255
-0.124 -0.237 0.566 255 255 255
0.193 -0.108 0.571 255 255 255
-0.007 0.035 0.464 255 255 255
0.279 -0.281 0.535 0 0 0
-0.203 0.01 0.421 0 0 0
-0.03 -0.133 0.625 255 255 255
-0.059 0.167 0.415 255 255 255
-0.135 0.063 0.372 255 255 255
-0.182 -0.206 0.58 255 255 255
-0.179 0.113 0.389 255 255 255
-0.085 0.044 0.42 255 255 255
0.125 0.062 0.467 255 255 255
-0.13 0.074 0.359 255 255 255
0.252 0.017 0.56 0 0 0
-0.071 -0.336 0.524 0 0 0
0.201 -0.086 0.69 255 255 255
0.007 -0.159 0.575 0 0 0
0.083 0.117 0.375 255 255 255
-0.036 0.005 0.491 0 0 0
0.466 0.008 0.652 255 255 255
0.146 0.049 0.49 0 0 0
0.177 -0.384 0.496 0 0 0
-0.212 -0.03 0.479 255 255 255
0.158 0.064 0.463 255 255 255
-0.1 -0.19 0.582 255 255 255
-0.246 0.446 1.112 255 255 255
0.262 -0.062 0.678 255 255 255
-0.238 -0.276 0.561 0 0 0
-0.142 0.118 0.388 255 255 255
-0.275 -0.08 0.511 0 0 0
-0.184 -0.066 0.504 255 255 255
-0.125 -0.35 0.521 255 255 255
-0.041 -0.163 0.567 0 0 0
-0.077 -0.18 0.577 0 0 0
0.086 0.021 0.477 255 255 255
0.127 0.037 0.471 255 255 255
0.147 0.073 0.456 255 255 255
-0.258 -0.075 0.509 255 255 255
0.114 -0.117 0.699 0 0 0
0.194 0.129 0.4 255 255 255
0.338 -0.057 0.7 255 255 255
0.211 0.086 0.451 255 255 255
-0.056 0.076 0.379 255 255 255
0.134 -0.266 0.542 0 0 0
0.023 -0.204 0.549 255 255 255
0.51 -0.18 0.839 255 255 255
0.327 -0.049 0.685 255 255 255
-0.253 -0.044 0.483 0 0 0
0.153 0.043 0.493 0 0 0
0.05 0.175 0.414 255 255 255
-0.253 -0.187 0.627 0 0 0
-0.115 0.058 0.388 255 255 255
0.048 0.018 0.478 255 255 255
0.156 -0.031 0.55 255 255 255
0.213 -0.327 0.516 255 255 255
0.192 -0.027 0.604 255 255 255
-0.048 -0.244 0.546 255 255 255
-0.139 -0.193 0.576 255 255 255
-0.183 0.071 0.343 255 255 255
-0.016 -0.011 0.491 255 255 255
0.244 0.104 0.442 255 255 255
0.071 0.195 0.417 255 255 255
-0.21 -0.058 0.505 255 255 255
0.04 0.146 0.382 255 255 255
0.025 0.558 1.052 255 255 255
-0.036 -0.303 0.529 255 255 255
0.023 0.022 0.485 255 255 255
-0.103 0.009 0.464 255 255 255
-0.157 0.097 0.359 255 255 255
-0.061 0.088 0.363 255 255 255
-0.333 -0.17 0.562 255 255 255
0.131 -0.337 0.512 0 0 0
0.167 -0.204 0.569 255 255 255
-0.288 -0.231 0.58 255 255 255
0.127 0.184 0.406 0 0 0
-0.147 0.009 0.449 255 255 255
-0.024 -0.103 0.572 255 255 255
-0.077 -0.172 0.565 0 0 0
0.161 -0.212 0.565 255 255 255
0.197 -0.253 0.549 255 255 255
-0.176 0.079 0.344 255 255 255
0.058 -0.265 0.529 255 255 255
0.163 0.066 0.462 255 255 255
-0.312 -0.086 0.536 0 0 0
-0.341 -0.069 0.49 255 255 255
0.371 -0.037 0.683 255 255 255
0.093 0.082 0.424 255 255 255
-0.144 -0.324 0.535 0 0 0
0.05 -0.075 0.566 255 255 255
0.1 0.095 0.409 255 255 255
-0.063 0.06 0.404 255 255 255
-0.137 -0.03 0.498 255 255 255
0.052 -0.093 0.582 255 255 255
-0.072 -0.28 0.541 255 255 255
0.222 -0.06 0.661 255 255 255
0.067 -0.179 0.573 0 0 0
0.228 -0.341 0.51 255 255 255
0.14 0.119 0.394 255 255 255
-0.086 -0.211 0.572 255 255 255
0.128 -0.186 0.576 255 255 255
-0.094 -0.019 0.494 255 255 255
0.037 -0.142 0.566 0 0 0
-0.058 0.066 0.395 255 255 255
0.124 -0.344 0.51 255 255 255
-0.219 -0.043 0.497 255 255 255
-0.028 -0.376 0.505 0 0 0
-0.474 0.405 1.086 255 255 255
-0.131 -0.355 0.521 255 255 255
-0.158 0.463 1.119 255 255 255
0.146 -0.044 0.557 255 255 255
-0.256 0.504 1.033 255 255 255
0 0.123 0.351 255 255 255
0.049 -0.353 0.509 255 255 255
0.176 0.086 0.44 255 255 255
-0.043 -0.154 0.564 0 0 0
0.032 0.054 0.452 255 255 255
0.189 -0.358 0.504 255 255 255
0.207 -0.041 0.63 255 255 255
-0.2 0.008 0.427 0 0 0
0.224 0.101 0.436 255 255 255
0.11 -0.003 0.497 255 255 255
0.087 -0.036 0.524 255 255 255
-0.184 0.503 1.058 255 255 255
-0.19 -0.011 0.462 255 255 255
-0.026 -0.167 0.676 255 255 255
0.195 -0.321 0.514 0 0 0
0.28 -0.168 0.583 255 255 255
-0.204 -0.157 0.577 255 255 255
-0.119 0.014 0.45 255 255 255
-0.039 0.076 0.389 255 255 255
0.1 0.02 0.488 255 255 255
-0.119 -0.185 0.57 0 0 0
-0.172 0.015 0.429 255 255 255
0.285 -0.062 0.686 255 255 255
0.072 -0.027 0.531 255 255 255
0.064 -0.031 0.534 255 255 255
-0.233 -0.258 0.567 255 255 255
0.402 0.615 1.107 255 255 255
0.043 -0.217 0.541 255 255 255
0.041 -0.361 0.505 255 255 255
0.061 -0.235 0.539 0 0 0
0.183 0.024 0.53 255 255 255
-0.067 0.079 0.374 255 255 255
0.218 -0.133 0.597 255 255 255
-0.021 -0.273 0.531 255 255 255
-0.14 0.033 0.415 255 255 255
-0.146 0.038 0.405 255 255 255
-0.097 0.097 0.345 255 255 255
-0.021 0.123 0.357 255 255 255
-0.024 0.052 0.433 255 255 255
-0.215 0.034 0.382 255 255 255
-0.102 0.122 0.386 255 255 255
0.12 0.091 0.422 255 255 255
-0.429 0.425 1.065 255 255 255
0.023 -0.002 0.492 255 255 255
-0.107 -0.309 0.537 0 0 0
-0.306 -0.059 0.485 255 255 255
-0.147 -0.374 0.516 0 0 0
0.01 -0.028 0.533 255 255 255
0.08 0.071 0.44 255 255 255
0.101 -0.248 0.543 255 255 255
-0.311 -0.076 0.511 255 255 255
0.568 -0.06 0.79 0 0 0
0.049 0.107 0.375 255 255 255
0.272 -0.309 0.526 0 0 0
0.097 -0.291 0.528 0 0 0
-0.32 -0.093 0.546 0 0 0
0.184 0.118 0.401 255 255 255
-0.156 -0.333 0.53 255 255 255
0.121 -0.166 0.584 0 0 0
-0.094 0.042 0.42 255 255 255
-0.118 0.072 0.366 255 255 255
0.016 0.051 0.452 255 255 255
-0.147 -0.251 0.567 255 255 255
-0.045 0.149 0.399 255 255 255
-0.014 -0.292 0.526 255 255 255
0.529 -0.333 0.813 255 255 255
-0.127 0.026 0.432 255 255 255
0.16 0.11 0.4 255 255 255
-0.058 0.045 0.432 255 255 255
0.18 0.092 0.432 255 255 255
0.082 -0.272 0.533 255 255 255
0.098 0.123 0.372 255 255 255
0.399 -0.014 0.66 255 255 255
-0.178 0.015 0.427 255 255 255
-0.097 0.072 0.374 255 255 255
0.11 0.095 0.411 255 255 255
0.101 -0.181 0.577 255 255 255
-0.293 -0.003 0.413 255 255 255
0.075 0.105 0.391 255 255 255
0.021 0.088 0.394 255 255 255
0.117 -0.263 0.54 255 255 255
0.153 0.072 0.451 255 255 255
-0.218 0.455 1.106 255 255 255
-0.144 -0.287 0.548 255 255 255
0.065 -0.288 0.526 0 0 0
0.228 0.11 0.427 255 255 255
-0.031 -0.091 0.552 255 255 255
-0.272 -0.209 0.575 0 0 0
0.225 -0.264 0.541 0 0 0
0.174 -0.324 0.516 255 255 255
-0.169 -0.05 0.498 255 255 255
0.468 0.006 0.655 255 255 255
0.092 0.137 0.355 255 255 255
0.147 0.152 0.358 255 255 255
-0.168 -0.028 0.488 255 255 255
-0.307 0.445 1.093 255 255 255
-0.324 0.463 1.058 0 0 0
0.331 0.61 1.089 255 255 255
0.018 -0.249 0.53 255 255 255
-0.087 0.089 0.354 255 255 255
-0.113 0.011 0.456 255 255 255
0.293 -0.327 0.53 255 255 255
0.532 -0.227 0.849 255 255 255
0.085 -0.366 0.504 0 0 0
-0.186 -0.219 0.582 255 255 255
0.206 0.075 0.465 255 255 255
-0.071 -0.006 0.489 0 0 0
-0.151 0.065 0.366 255 255 255
-0.061 0.084 0.37 255 255 255
0.207 -0.03 0.614 255 255 255
0.049 -0.047 0.527 255 255 255
-0.493 0.425 1.055 255 255 255
0.13 0.02 0.483 255 255 255
-0.058 -0.358 0.511 255 255 255
-0.14 -0.015 0.482 255 255 255
-0.108 0.071 0.372 255 255 255
-0.271 -0.167 0.599 0 0 0
-0.245 -0.379 0.513 0 0 0
-0.127 -0.324 0.532 0 0 0
-0.154 0.078 0.348 255 255 255
0.446 -0.055 0.73 255 255 255
-0.296 -0.272 0.565 0 0 0
0.224 -0.096 0.573 255 255 255
-0.081 0.024 0.452 255 255 255
0.233 -0.156 0.588 0 0 0
0.124 -0.189 0.574 255 255 255
0.188 -0.249 0.551 0 0 0
0.052 0.147 0.353 255 255 255
-0.079 -0.244 0.554 255 255 255
0.111 0.12 0.379 255 255 255
0.001 -0.28 0.527 255 255 255
0.205 -0.253 0.55 255 255 255
0.218 -0.122 0.597 0 0 0
-0.218 -0.209 0.572 255 255 255
0.015 -0.289 0.525 255 255 255
-0.17 0.053 0.373 255 255 255
0.049 0.177 0.416 255 255 255
0.117 -0.144 0.748 255 255 255
-0.159 0.053 0.378 255 255 255
-0.089 0.03 0.438 255 255 255
0.086 0.097 0.404 255 255 255
0.339 0.013 0.599 255 255 255
0.1 0.122 0.374 255 255 255
-0.052 0.116 0.356 255 255 255
-0.014 -0.331 0.517 0 0 0
0.373 -0.037 0.683 255 255 255
-0.341 -0.064 0.482 255 255 255
-0.448 0.466 1.016 0 0 0
0.087 0.127 0.359 255 255 255
0.321 -0.046 0.678 255 255 255
0.24 -0.206 0.567 0 0 0
0.022 -0.373 0.503 0 0 0
0.115 -0.242 0.548 255 255 255
-0.398 0.494 0.992 255 255 255
0.141 0.162 0.373 255 255 255
-0.254 -0.067 0.51 0 0 0
-0.466 -0.274 0.707 255 255 255
-0.118 0.129 0.393 255 255 255
0.039 -0.319 0.518 255 255 255
0.165 -0.116 0.569 255 255 255
0.067 0.014 0.483 255 255 255
-0.021 -0.016 0.496 255 255 255
-0.062 -0.324 0.525 0 0 0
0.165 -0.061 0.58 255 255 255
0.402 0.617 1.105 255 255 255
0.134 -0.183 0.578 255 255 255
0.102 0.006 0.498 255 255 255
-0.461 -0.252 0.696 0 0 0
-0.023 0.01 0.487 0 0 0
0.151 0.185 0.404 0 0 0
0.291 -0.088 0.723 255 255 255
0.107 -0.051 0.555 255 255 255
0.006 0.032 0.472 255 255 255
-0.281 -0.352 0.532 255 255 255
0.122 0.579 1.055 255 255 255
0.057 0.038 0.477 255 255 255
-0.229 0.018 0.402 255 255 255
0.131 -0.298 0.527 0 0 0
-0.206 -0.06 0.503 255 255 255
-0.075 0.07 0.383 255 255 255
-0.055 -0.283 0.536 255 255 255
-0.168 0.04 0.393 255 255 255
-0.032 0.014 0.482 255 255 255
0.04 0.176 0.43 255 255 255
0.052 0.082 0.41 255 255 255
-0.101 -0.079 0.526 255 255 255
0.105 0.172 0.399 255 255 255
0.399 0.584 1.127 255 255 255
0.19 0.125 0.403 255 255 255
0.172 -0.186 0.578 255 255 255
0.118 -0.138 0.589 0 0 0
0.094 -0.207 0.562 255 255 255
-0.178 -0.091 0.521 255 255 255
0 -0.271 0.528 255 255 255
-0.075 0.089 0.356 255 255 255
-0.066 0.075 0.379 255 255 255
-0.046 0.52 1.076 255 255 255
0.104 -0.227 0.554 0 0 0
-0.113 -0.356 0.518 255 255 255
0.113 0.125 0.372 255 255 255
0.035 -0.003 0.497 255 255 255
-0.048 -0.242 0.546 255 255 255
0.185 -0.259 0.546 255 255 255
-0.016 -0.248 0.536 255 255 255
0.18 -0.22 0.563 255 255 255
-0.015 -0.349 0.513 255 255 255
-0.03 -0.234 0.543 255 255 255
-0.237 -0.006 0.432 255 255 255
-0.215 -0.322 0.539 0 0 0
-0.235 -0.318 0.541 255 255 255
0.024 -0.002 0.492 255 255 255
-0.098 0.061 0.39 255 255 255
-0.13 -0.276 0.552 255 255 255
-0.382 -0.2 0.594 255 255 255
0.214 0.581 1.086 255 255 255
-0.013 0.088 0.379 255 255 255
-0.088 0.008 0.473 255 255 255
0.517 -0.183 0.901 255 255 255
-0.177 0.028 0.409 255 255 255
-0.208 -0.038 0.492 255 255 255
0.282 -0.295 0.533 0 0 0
-0.265 -0.029 0.456 255 255 255
-0.322 -0.055 0.474 255 255 255
0.09 0.141 0.355 255 255 255
0.028 -0.329 0.516 0 0 0
-0.262 -0.211 0.623 255 255 255
-0.163 -0.056 0.499 255 255 255
-0.242 0.038 0.367 255 255 255
-0.017 0.111 0.349 255 255 255
0.074 0.075 0.432 255 255 255
-0.037 -0.14 0.633 255 255 255
0.099 -0.128 0.57 255 255 255
-0.002 0.112 0.353 255 255 255
0.001 -0.012 0.497 255 255 255
-0.395 0.428 1.083 255 255 255
0.194 -0.28 0.536 0 0 0
-0.167 0.1 0.37 255 255 255
0.113 -0.135 0.58 0 0 0
-0.039 0.097 0.356 255 255 255
0.057 -0.139 0.566 0 0 0
-0.105 0.55 1.023 255 255 255
-0.013 0.083 0.387 255 255 255
-0.23 -0.274 0.56 0 0 0
0.155 0.12 0.394 255 255 255
-0.271 -0.168 0.598 0 0 0
-0.073 -0.234 0.557 255 255 255
0.111 -0.21 0.563 255 255 255
0.527 -0.039 0.74 0 0 0
0.218 -0.134 0.596 255 255 255
-0.15 0.039 0.401 255 255 255
-0.178 0.1 0.375 255 255 255
-0.012 0.007 0.481 255 255 255
0.016 0.172 0.428 255 255 255
0.021 0.519 1.108 255 255 255
-0.06 -0.095 0.555 255 255 255
-0.153 -0.299 0.545 255 255 255
0.068 -0.184 0.57 0 0 0
0.173 0.092 0.429 255 255 255
0.012 0.026 0.479 255 255 255
-0.258 -0.011 0.434 255 255 255
0.15 -0.251 0.55 255 255 255
0.232 -0.243 0.552 0 0 0
0.063 -0.015 0.522 255 255 255
-0.285 -0.045 0.472 255 255 255
-0.036 -0.297 0.53 255 255 255
0.04 -0.196 0.555 255 255 255
0.208 -0.379 0.495 0 0 0
0.053 0.039 0.477 255 255 255
-0.445 -0.273 0.719 255 255 255
-0.058 0.104 0.347 255 255 255
-0.12 0.115 0.381 255 255 255
-0.104 -0.01 0.486 255 255 255
0.111 0.047 0.476 255 255 255
0.241 -0.099 0.571 255 255 255
0.108 0.136 0.358 255 255 255
0.141 -0.207 0.567 0 0 0
0.06 -0.249 0.533 0 0 0
0.451 -0.026 0.697 255 255 255
0.523 -0.322 0.822 255 255 255
0.05 -0.101 0.588 255 255 255
0.009 -0.003 0.486 255 255 255
0.167 0.076 0.449 255 255 255
-0.071 0.135 0.393 255 255 255
0.25 0.003 0.583 255 255 255
0.01 0.119 0.351 255 255 255
0.194 0.03 0.526 255 255 255
0.069 0.185 0.413 0 0 0
0.109 0.053 0.472 255 255 255
0.073 0.077 0.429 255 255 255
-0.208 0.027 0.396 255 255 255
-0.181 0.039 0.39 0 0 0
-0.316 -0.218 0.585 0 0 0
-0.266 -0.295 0.554 0 0 0
-0.17 0.048 0.382 255 255 255
-0.011 0.012 0.486 0 0 0
-0.084 0.078 0.369 255 255 255
-0.296 -0.284 0.559 255 255 255
-0.2 -0.308 0.548 255 255 255
0.479 -0.124 0.908 255 255 255
-0.19 0.12 0.395 255 255 255
0.007 -0.33 0.516 0 0 0
-0.227 0.442 1.117 255 255 255
0.017 0.043 0.462 255 255 255
0.524 -0.195 0.894 255 255 255
-0.01 0.158 0.4 255 255 255
-0.246 0.022 0.388 255 255 255
-0.188 -0.069 0.507 255 255 255
0.217 0.085 0.456 255 255 255
0.212 -0.075 0.679 255 255 255
0.534 -0.047 0.767 255 255 255
0.016 -0.147 0.565 0 0 0
0.012 0.17 0.429 255 255 255
0.089 -0.323 0.518 0 0 0
-0.463 0.433 1.051 255 255 255
0.487 -0.224 0.883 255 255 255
-0.162 0.508 1.061 255 255 255
0.231 -0.275 0.537 255 255 255
0.269 -0.1 0.57 0 0 0
0.061 -0.278 0.528 255 255 255
0.104 -0.125 0.573 255 255 255
0.123 -0.022 0.523 255 255 255
0.095 0.142 0.356 255 255 255
0.091 0.105 0.394 255 255 255
-0.044 0.006 0.486 255 255 255
0.005 -0.35 0.512 255 255 255
-0.028 0.544 1.055 255 255 255
-0.07 -0.278 0.541 255 255 255
0.205 0.05 0.502 255 255 255
-0.171 0.107 0.383 255 255 255
-0.185 -0.33 0.534 0 0 0
0.05 0.026 0.48 255 255 255
-0.11 -0.361 0.516 255 255 255
0.044 -0.01 0.496 255 255 255
-0.228 -0.02 0.458 0 0 0
0.16 0.036 0.503 255 255 255
-0.154 0.483 1.093 0 0 0
0.129 -0.19 0.574 255 255 255
0.034 -0.156 0.581 255 255 255
-0.022 0.073 0.397 255 255 255
-0.326 -0.152 0.557 0 0 0
-0.05 -0.042 0.504 255 255 255
-0.191 -0.217 0.579 0 0 0
-0.214 -0.086 0.514 255 255 255
-0.145 -0.147 0.593 255 255 255
-0.083 0.045 0.42 255 255 255
-0.401 0.439 1.069 255 255 255
0.094 -0.271 0.535 255 255 255
-0.114 -0.203 0.582 0 0 0
0.168 -0.36 0.505 255 255 255
0.201 -0.136 0.597 0 0 0
0.226 0.05 0.508 255 255 255
-0.127 0.004 0.463 255 255 255
-0.229 -0.282 0.556 255 255 255
-0.043 0.136 0.389 255 255 255
-0.399 0.454 1.05 255 255 255
-0.118 0.546 1.025 255 255 255
0.071 -0.086 0.581 255 255 255
-0.019 0.082 0.386 255 255 255
-0.261 0.019 0.39 255 255 255
-0.181 -0.263 0.562 255 255 255
-0.097 -0.383 0.504 0 0 0
-0.015 0.148 0.391 255 255 255
-0.196 -0.368 0.518 255 255 255
-0.247 0.528 1 255 255 255
0.14 0.205 0.42 255 255 255
0.079 -0.037 0.538 255 255 255
0.089 -0.184 0.572 255 255 255
-0.18 0.032 0.4 255 255 255
0.234 0.019 0.554 255 255 255
0.107 0.017 0.491 255 255 255
-0.183 0.051 0.373 255 255 255
0.04 0.088 0.399 255 255 255
0.13 0.108 0.401 255 255 255
-0.217 -0.08 0.518 255 255 255
0.08 0.083 0.422 255 255 255
-0.109 0.5 1.086 0 0 0
0.134 -0.353 0.506 255 255 255
0.026 -0.319 0.517 0 0 0
0.276 -0.134 0.593 255 255 255
-0.102 -0.31 0.534 255 255 255
-0.041 0.062 0.411 255 255 255
-0.088 -0.256 0.553 0 0 0
0.026 0.085 0.398 255 255 255
0.528 -0.192 0.832 255 255 255
-0.028 0.113 0.352 255 255 255
-0.128 -0.245 0.566 255 255 255
0.226 -0.189 0.575 255 255 255
0.068 0.111 0.376 255 255 255
0.175 -0.071 0.619 255 255 255
0.281 -0.187 0.572 255 255 255
-0.072 0.087 0.361 255 255 255
0.189 0.005 0.56 255 255 255
0.2 -0.226 0.56 255 255 255
-0.006 -0.144 0.574 255 255 255
0.054 -0.136 0.566 0 0 0
0.101 -0.199 0.568 255 255 255
0.02 -0.354 0.507 255 255 255
-0.027 0.115 0.35 255 255 255
0.347 0.055 0.542 255 255 255
-0.155 0.49 1.085 0 0 0
0.247 -0.146 0.591 0 0 0
-0.23 0.457 1.103 255 255 255
-0.044 -0.295 0.531 255 255 255
0.028 0.505 1.131 0 0 0
0.218 -0.096 0.576 255 255 255
-0.143 0.021 0.432 255 255 255
-0.24 -0.129 0.549 255 255 255
0.093 0.146 0.358 255 255 255
-0.096 0.095 0.346 0 0 0
0.073 -0.198 0.561 255 255 255
0.123 -0.037 0.537 255 255 255
0.035 0.537 1.083 255 255 255
0.021 0.012 0.48 255 255 255
-0.192 0.057 0.366 255 255 255
0.023 0.558 1.056 255 255 255
-0.326 -0.134 0.57 0 0 0
-0.248 0.009 0.407 255 255 255
-0.018 -0.115 0.584 255 255 255
0.448 -0.004 0.663 255 255 255
0.1 0.057 0.466 255 255 255
-0.018 0.036 0.46 255 255 255
-0.311 -0.253 0.575 255 255 255
0.062 -0.077 0.569 255 255 255
-0.026 0.002 0.483 255 255 255
0.113 0.059 0.467 255 255 255
-0.281 -0.269 0.566 0 0 0
0.549 -0.312 0.824 255 255 255
0.128 -0.173 0.581 255 255 255
0.028 -0.133 0.664 255 255 255
0.035 -0.29 0.524 0 0 0
-0.008 -0.172 0.573 0 0 0
0.352 0.046 0.556 255 255 255
0.036 -0.332 0.513 0 0 0
-0.249 -0.221 0.686 255 255 255
0.21 -0.098 0.575 255 255 255
-0.078 -0.3 0.536 0 0 0
-0.297 -0.041 0.462 255 255 255
0.515 -0.261 0.854 255 255 255
-0.102 -0.15 0.606 255 255 255
0.06 0.088 0.406 255 255 255
0.039 -0.331 0.514 0 0 0
-0.046 -0.369 0.509 0 0 0
-0.172 -0.394 0.506 0 0 0
0.048 -0.127 0.666 255 255 255
0.246 -0.204 0.57 255 255 255
-0.342 -0.186 0.585 0 0 0
0.308 -0.26 0.548 255 255 255
-0.07 -0.298 0.534 255 255 255
-0.2 -0.298 0.548 255 255 255
0.068 -0.221 0.546 0 0 0
-0.039 0.015 0.477 255 255 255
-0.296 0.461 1.075 255 255 255
-0.059 -0.201 0.567 255 255 255
0.48 -0.188 0.906 255 255 255
0.043 -0.183 0.564 255 255 255
-0.217 -0.222 0.736 255 255 255
-0.05 -0.072 0.533 255 255 255
0.05 -0.106 0.599 255 255 255
-0.108 -0.276 0.55 0 0 0
-0.081 -0.165 0.561 0 0 0
-0.071 -0.047 0.501 255 255 255
-0.067 -0.171 0.687 0 0 0
-0.185 0.517 1.039 255 255 255
0.117 0.043 0.47 255 255 255
0.063 -0.096 0.583 255 255 255
0.127 0.1 0.413 255 255 255
0.1 -0.302 0.525 0 0 0
-0.011 0.155 0.398 255 255 255
0.159 0.099 0.415 255 255 255
-0.122 -0.387 0.504 0 0 0
-0.064 0.068 0.392 255 255 255
-0.167 -0.067 0.511 255 255 255
0.125 -0.02 0.521 255 255 255
-0.164 -0.252 0.565 255 255 255
0 -0.159 0.685 0 0 0
-0.063 0.137 0.392 255 255 255
-0.028 0.139 0.39 255 255 255
-0.205 -0.267 0.563 255 255 255
0.053 0.056 0.455 255 255 255
-0.172 0.008 0.438 255 255 255
-0.061 0.088 0.363 255 255 255
0.234 -0.021 0.612 255 255 255
0.13 0.187 0.408 0 0 0
0.104 0.557 1.016 255 255 255
-0.292 0.457 1.079 255 255 255
0.201 -0.06 0.65 255 255 255
-0.293 -0.338 0.536 255 255 255
-0.16 -0.349 0.523 255 255 255
0.155 -0.372 0.502 0 0 0
-0.236 0.024 0.388 255 255 255
0.075 0.187 0.415 0 0 0
-0.136 0.05 0.391 255 255 255
-0.039 -0.199 0.563 255 255 255
0.382 -0.062 0.723 255 255 255
-0.134 0.067 0.369 255 255 255
0.07 -0.289 0.527 0 0 0
-0.027 -0.021 0.5 255 255 255
-0.042 -0.036 0.498 255 255 255
-0.042 0.114 0.351 255 255 255
-0.4 0.51 0.972 255 255 255
-0.039 -0.259 0.537 255 255 255
0.209 0.124 0.402 255 255 255
-0.464 0.395 1.097 255 255 255
0.462 0 0.661 255 255 255
0.129 -0.17 0.582 0 0 0
0.353 -0.049 0.695 255 255 255
-0.302 -0.002 0.41 255 255 255
0.061 0.106 0.38 255 255 255
-0.187 -0.337 0.53 0 0 0
-0.181 0.466 1.11 255 255 255
0.173 -0.27 0.54 0 0 0
0.532 -0.217 0.88 255 255 255
0.02 -0.339 0.512 255 255 255
0.171 -0.109 0.598 255 255 255
-0.181 -0.161 0.593 255 255 255
-0.091 -0.374 0.511 0 0 0
0.028 0.187 0.438 255 255 255
0.181 -0.254 0.547 0 0 0
0.126 0.526 1.119 255 255 255
-0.046 -0.022 0.495 255 255 255
0.152 0.04 0.506 0 0 0
0.099 -0.132 0.569 0 0 0
0.276 -0.336 0.518 255 255 255
-0.151 0.458 1.119 255 255 255
-0.089 0.025 0.447 255 255 255
0.051 -0.247 0.532 255 255 255
-0.14 -0.184 0.561 0 0 0
0.328 -0.068 0.711 255 255 255
0.438 -0.013 0.672 255 255 255
-0.188 -0.194 0.561 0 0 0
0.059 -0.187 0.566 0 0 0
0.032 -0.136 0.669 255 255 255
-0.208 0.036 0.387 255 255 255
0.491 -0.025 0.709 255 255 255
-0.075 -0.373 0.511 0 0 0
0.119 0.047 0.473 255 255 255
-0.164 -0.355 0.521 255 255 255
0.041 -0.157 0.579 255 255 255
-0.111 0.498 1.088 0 0 0
0.065 -0.019 0.523 255 255 255
0.139 0.047 0.484 255 255 255
-0.375 -0.094 0.495 255 255 255
-0.135 -0.051 0.503 255 255 255
0.027 0.077 0.413 255 255 255
0.197 -0.364 0.499 0 0 0
0.299 -0.204 0.52 0 0 0
0.037 -0.037 0.538 255 255 255
0.03 -0.353 0.509 255 255 255
0.006 0.078 0.401 255 255 255
-0.26 0.028 0.379 255 255 255
0.283 -0.317 0.527 255 255 255
0.042 0.089 0.397 255 255 255
0.352 0.002 0.621 255 255 255
0.145 -0.182 0.578 255 255 255
-0.085 -0.015 0.495 255 255 255
-0.311 -0.273 0.566 255 255 255
0.056 0.113 0.371 255 255 255
-0.177 0.462 1.114 255 255 255
0.087 -0.288 0.529 0 0 0
-0.219 -0.284 0.553 255 255 255
0.233 -0.357 0.505 255 255 255
0.084 0.111 0.382 255 255 255
-0.375 0.445 1.071 255 255 255
0.107 -0.246 0.546 255 255 255
0.235 0.094 0.45 255 255 255
-0.413 0.472 1.015 0 0 0
-0.357 -0.142 0.545 255 255 255
0.064 -0.259 0.532 0 0 0
-0.366 -0.115 0.532 0 0 0
-0.013 0.091 0.376 255 255 255
0.263 -0.097 0.722 0 0 0
-0.019 -0.298 0.526 255 255 255
0.153 -0.213 0.564 255 255 255
0.246 -0.171 0.58 0 0 0
0.053 0.021 0.478 255 255 255
-0.079 0.01 0.472 255 255 255
-0.065 0.046 0.423 255 255 255
-0.028 -0.143 0.662 255 255 255
-0.198 -0.351 0.525 0 0 0
0.09 -0.041 0.535 255 255 255
0.228 -0.232 0.557 0 0 0
0.224 -0.151 0.59 0 0 0
-0.243 -0.315 0.544 255 255 255
-0.072 0.026 0.451 255 255 255
0.171 0.043 0.499 255 255 255
-0.178 0.545 1.002 255 255 255
-0.198 0.014 0.418 0 0 0
0.184 -0.19 0.576 255 255 255
0.117 0.21 0.426 255 255 255
0.292 -0.173 0.57 255 255 255
0.153 0.028 0.521 0 0 0
-0.059 0.101 0.346 255 255 255
-0.001 0.091 0.378 255 255 255
-0.452 -0.294 0.709 255 255 255
0.167 -0.161 0.589 0 0 0
0.021 0.096 0.382 255 255 255
0.119 -0.272 0.536 255 255 255
-0.092 0.097 0.346 255 255 255
-0.046 -0.24 0.546 255 255 255
0.159 0.033 0.509 255 255 255
-0.014 -0.098 0.574 255 255 255
-0.039 -0.373 0.507 0 0 0
-0.006 0.08 0.392 255 255 255
0.146 -0.173 0.583 255 255 255
-0.209 -0.274 0.559 255 255 255
0.005 0.013 0.484 255 255 255
-0.097 -0.033 0.493 255 255 255
0.055 -0.281 0.526 255 255 255
-0.128 0.051 0.394 255 255 255
-0.067 0.137 0.393 255 255 255
0.167 0.114 0.4 255 255 255
-0.278 -0.069 0.508 0 0 0
0.143 -0.036 0.547 255 255 255
-0.173 -0.251 0.566 255 255 255
0.152 -0.127 0.582 0 0 0
-0.024 0.512 1.1 255 255 255
0.066 0.066 0.443 255 255 255
-0.028 -0.106 0.58 255 255 255
0.13 -0.134 0.585 0 0 0
0.026 -0.191 0.558 255 255 255
-0.153 -0.013 0.476 255 255 255
0.026 0.058 0.442 255 255 255
-0.109 -0.255 0.557 255 255 255
0.157 -0.175 0.583 255 255 255
0.116 0.146 0.355 255 255 255
-0.23 -0.005 0.435 255 255 255
-0.24 0.531 1.001 255 255 255
-0.074 -0.282 0.54 255 255 255
-0.029 -0.286 0.53 255 255 255
0.144 -0.259 0.545 255 255 255
0.042 -0.292 0.524 255 255 255
-0.06 -0.282 0.538 255 255 255
0.418 -0.059 0.73 255 255 255
0.071 -0.374 0.499 0 0 0
-0.243 0.012 0.404 255 255 255
0.12 0.174 0.399 255 255 255
-0.018 0.115 0.35 255 255 255
0.107 0.067 0.452 255 255 255
-0.517 0.408 1.072 255 255 255
0.268 -0.1 0.73 255 255 255
-0.115 0.486 1.103 0 0 0
0.185 -0.107 0.572 255 255 255
0.219 0.115 0.417 255 255 255
-0.036 -0.327 0.522 0 0 0
-0.259 0.006 0.409 255 255 255
0.242 -0.34 0.513 0 0 0
0.035 -0.144 0.565 0 0 0
-0.177 -0.055 0.498 255 255 255
0.175 -0.27 0.54 0 0 0
0.274 -0.32 0.526 255 255 255
0.046 -0.164 0.579 0 0 0
0.068 -0.033 0.533 255 255 255
-0.115 -0.288 0.546 255 255 255
0.026 0.131 0.356 255 255 255
-0.048 0.099 0.35 255 255 255
-0.185 0.114 0.389 255 255 255
-0.069 -0.006 0.49 0 0 0
-0.161 0.012 0.438 255 255 255
-0.156 -0.007 0.469 255 255 255
0.353 0.029 0.581 255 255 255
0.066 0.08 0.42 255 255 255
-0.085 0.046 0.416 255 255 255
0.212 0.054 0.497 255 255 255
0.228 -0.245 0.551 0 0 0
-0.201 -0.369 0.518 255 255 255
0.02 -0.007 0.495 255 255 255
-0.119 0.123 0.389 255 255 255
-0.171 -0.22 0.577 255 255 255
-0.013 -0.005 0.485 255 255 255
-0.227 -0.206 0.562 0 0 0
-0.327 0.537 0.961 255 255 255
0.288 -0.213 0.56 255 255 255
-0.089 -0.328 0.527 255 255 255
-0.087 -0.229 0.564 255 255 255
-0.005 0.531 1.082 255 255 255
-0.017 -0.278 0.53 255 255 255
-0.418 -0.209 0.615 255 255 255
0.226 -0.23 0.559 0 0 0
0.284 -0.267 0.539 255 255 255
-0.1 -0.128 0.57 255 255 255
0.251 0.084 0.468 255 255 255
-0.036 0.16 0.406 255 255 255
0.204 0.58 1.085 255 255 255
0.015 -0.183 0.564 255 255 255
0.389 0.003 0.629 255 255 255
0.148 -0.355 0.505 255 255 255
0.131 0.189 0.409 0 0 0
-0.107 0.088 0.347 255 255 255
-0.428 -0.251 0.723 255 255 255
0.449 -0.106 0.899 0 0 0
-0.143 -0.189 0.566 0 0 0
0.007 0.005 0.482 255 255 255
0.042 0.04 0.476 255 255 255
-0.154 0.001 0.456 255 255 255
0.257 -0.094 0.575 255 255 255
0.149 -0.337 0.511 255 255 255
0.095 0.026 0.474 255 255 255
-0.314 -0.016 0.434 0 0 0
-0.09 -0.366 0.514 255 255 255
0.285 -0.047 0.666 255 255 255
0.033 0.102 0.378 255 255 255
-0.35 0.419 1.112 255 255 255
0.222 -0.348 0.506 255 255 255
0.171 0.219 0.427 255 255 255
0.075 -0.334 0.512 255 255 255
-0.123 0.473 1.115 255 255 255
-0.195 0.127 0.4 255 255 255
0.008 -0.25 0.532 255 255 255
-0.202 -0.005 0.446 255 255 255
0.069 -0.089 0.583 255 255 255
0.114 -0.033 0.534 255 255 255
0.218 0.072 0.473 255 255 255
0.101 0.136 0.358 255 255 255
-0.226 0.015 0.408 255 255 255
0.134 -0.335 0.515 0 0 0
0.125 0.14 0.36 255 255 255
-0.442 0.419 1.081 255 255 255
0.304 -0.266 0.547 255 255 255
0.087 0.196 0.417 0 0 0
-0.211 -0.014 0.456 255 255 255
-0.166 -0.263 0.56 255 255 255
-0.113 0.005 0.466 255 255 255
-0.099 0.075 0.37 255 255 255
0.289 -0.152 0.548 0 0 0
0.157 0.017 0.533 0 0 0
-0.044 -0.373 0.507 0 0 0
0.237 -0.317 0.518 255 255 255
-0.048 -0.3 0.529 255 255 255
-0.027 -0.357 0.511 255 255 255
0.544 -0.275 0.835 255 255 255
-0.159 0.545 1.009 255 255 255
-0.273 -0.04 0.47 255 255 255
-0.109 0.069 0.373 255 255 255
0.517 -0.151 0.75 255 255 255
-0.017 0.15 0.394 255 255 255
-0.126 0.058 0.383 255 255 255
0.298 -0.2 0.53 0 0 0
0.122 -0.073 0.578 255 255 255
0.073 0.541 1.096 255 255 255
0.076 0.066 0.445 255 255 255
-0.087 -0.022 0.489 255 255 255
-0.528 0.399 1.075 255 255 255
0.053 -0.242 0.534 255 255 255
-0.149 0.485 1.091 0 0 0
0.183 0.12 0.402 255 255 255
-0.337 0.513 0.988 255 255 255
0.429 -0.003 0.655 255 255 255
-0.341 -0.244 0.56 255 255 255
0.237 -0.32 0.516 255 255 255
0.144 0.1 0.41 255 255 255
0.449 -0.105 0.89 255 255 255
0.165 -0.165 0.585 0 0 0
0.1 -0.216 0.558 255 255 255
-0.075 -0.205 0.571 255 255 255
0.028 0.103 0.379 255 255 255
-0.305 0.54 0.962 255 255 255
0.278 -0.011 0.613 255 255 255
-0.237 0.016 0.4 255 255 255
0.069 -0.302 0.521 255 255 255
0.013 0.005 0.481 255 255 255
-0.126 -0.376 0.513 0 0 0
0.042 -0.16 0.579 255 255 255
-0.148 -0.013 0.477 255 255 255
0.07 -0.24 0.539 255 255 255
-0.053 0.037 0.446 255 255 255
-0.143 0.501 1.074 0 0 0
0.117 -0.063 0.573 0 0 0
-0.256 -0.205 0.624 255 255 255
0.223 0.046 0.512 255 255 255
-0.132 -0.038 0.494 255 255 255
0.248 -0.223 0.563 255 255 255
0.051 0.062 0.444 255 255 255
0.12 0.123 0.377 255 255 255
0.508 -0.351 0.804 255 255 255
0.082 -0.191 0.569 255 255 255
-0.056 -0.02 0.488 255 255 255
-0.097 0.001 0.479 255 255 255
-0.344 -0.103 0.521 0 0 0
0.391 0.042 0.575 255 255 255
0.024 -0.205 0.549 255 255 255
0.188 -0.28 0.537 0 0 0
-0.149 0.032 0.409 255 255 255
-0.301 -0.008 0.423 255 255 255
0.115 0.131 0.367 255 255 255
0.06 -0.001 0.505 255 255 255
0.242 0 0.583 255 255 255
-0.04 -0.001 0.49 255 255 255
-0.247 -0.044 0.486 255 255 255
0.241 -0.024 0.618 255 255 255
-0.034 0.088 0.375 255 255 255
-0.072 0.096 0.35 255 255 255
-0.103 -0.102 0.546 255 255 255
0.12 0.134 0.367 255 255 255
-0.206 0.002 0.434 0 0 0
-0.148 0.143 0.405 255 255 255
-0.027 0.058 0.423 255 255 255
-0.122 -0.052 0.506 255 255 255
-0.115 -0.377 0.509 0 0 0
-0.209 -0.375 0.515 0 0 0
-0.203 -0.025 0.475 255 255 255
0.152 -0.368 0.503 0 0 0
0.202 0.049 0.503 255 255 255
0.135 0.123 0.383 255 255 255
0.311 -0.03 0.651 255 255 255
-0.01 -0.167 0.577 0 0 0
-0.026 -0.184 0.571 255 255 255
0.066 0.194 0.416 255 255 255
0.012 0.171 0.43 255 255 255
0.483 -0.019 0.697 255 255 255
-0.187 0.544 1.004 255 255 255
-0.043 -0.246 0.543 255 255 255
-0.325 -0.22 0.562 0 0 0
-0.161 0.038 0.399 255 255 255
0.037 0.091 0.394 255 255 255
-0.057 0.096 0.349 255 255 255
0.058 0.061 0.448 255 255 255
-0.289 -0.086 0.514 0 0 0
-0.111 -0.303 0.54 255 255 255
0.201 -0.002 0.573 255 255 255
0.2 0.123 0.404 255 255 255
-0.117 0.093 0.343 0 0 0
-0.27 -0.251 0.573 255 255 255
-0.165 -0.215 0.579 255 255 255
0.043 -0.154 0.692 255 255 255
-0.158 -0.186 0.555 0 0 0
-0.095 0.541 1.037 255 255 255
0.158 -0.035 0.556 255 255 255
0.216 -0.1 0.572 255 255 255
0.026 -0.051 0.538 255 255 255
-0.014 -0.19 0.563 255 255 255
0.17 -0.285 0.535 0 0 0
-0.184 -0.376 0.511 0 0 0
-0.1 -0.275 0.548 255 255 255
-0.028 -0.283 0.53 255 255 255
-0.295 -0.249 0.574 0 0 0
-0.128 -0.007 0.476 255 255 255
0.127 -0.191 0.573 255 255 255
0.228 -0.332 0.51 255 255 255
0.496 -0.286 0.84 255 255 255
-0.008 -0.33 0.518 0 0 0
-0.112 0.021 0.444 255 255 255
0.375 -0.001 0.635 255 255 255
-0.048 -0.196 0.569 255 255 255
-0.217 -0.131 0.552 255 255 255
-0.077 0.547 1.038 255 255 255
0.133 0.057 0.478 255 255 255
-0.049 -0.225 0.553 255 255 255
0.016 0.098 0.377 255 255 255
0.122 0.119 0.384 255 255 255
-0.186 0.537 1.011 255 255 255
-0.198 0.052 0.36 255 255 255
-0.061 -0.278 0.538 255 255 255
0.005 -0.177 0.569 255 255 255
-0.006 0.101 0.366 255 255 255
-0.071 0.018 0.465 255 255 255
-0.186 0.079 0.342 255 255 255
-0.236 -0.243 0.573 255 255 255
-0.174 0.512 1.05 255 255 255
-0.088 -0.145 0.604 255 255 255
0.055 -0.132 0.569 255 255 255
0.023 -0.288 0.525 255 255 255
0.236 -0.226 0.56 0 0 0
-0.164 -0.146 0.572 255 255 255
-0.065 -0.158 0.564 0 0 0
-0.214 -0.354 0.525 255 255 255
-0.245 -0.03 0.466 0 0 0
-0.224 -0.051 0.502 0 0 0
-0.016 0.096 0.37 255 255 255
0.113 0.051 0.475 0 0 0
-0.163 0.497 1.075 0 0 0
0.07 -0.018 0.519 255 255 255
0.118 0.089 0.423 255 255 255
-0.158 -0.056 0.501 255 255 255
0.009 -0.14 0.579 255 255 255
0.243 -0.119 0.76 255 255 255
-0.023 0.546 1.055 255 255 255
0.088 0.19 0.415 0 0 0
-0.255 -0.235 0.576 255 255 255
-0.289 -0.322 0.543 255 255 255
-0.069 0.481 1.124 255 255 255
-0.082 -0.365 0.512 255 255 255
-0.106 -0.083 0.528 255 255 255
0.163 0.02 0.528 255 255 255
0.049 -0.03 0.535 255 255 255
0.126 -0.191 0.573 255 255 255
-0.184 -0.34 0.528 255 255 255
0.207 0.094 0.439 255 255 255
0.465 -0.042 0.722 255 255 255
0.26 0.087 0.467 255 255 255
0.188 0.107 0.414 255 255 255
-0.03 0.05 0.432 255 255 255
-0.118 0.085 0.345 255 255 255
-0.154 0.067 0.366 255 255 255
-0.003 -0.003 0.484 255 255 255
-0.066 0.06 0.398 255 255 255
0.199 -0.125 0.765 255 255 255
-0.115 -0.326 0.532 255 255 255
-0.21 -0.298 0.549 255 255 255
-0.045 -0.026 0.501 255 255 255
-0.212 -0.228 0.578 255 255 255
-0.143 0.135 0.4 255 255 255
-0.031 -0.181 0.572 255 255 255
0.08 0.072 0.439 255 255 255
-0.042 0.084 0.375 255 255 255
-0.387 -0.155 0.546 255 255 255
0.121 -0.256 0.545 255 255 255
0.219 -0.349 0.506 255 255 255
-0.072 -0.338 0.523 0 0 0
-0.029 -0.021 0.5 255 255 255
0.027 -0.373 0.501 0 0 0
-0.441 -0.303 0.698 255 255 255
0.416 0.624 1.097 255 255 255
0.279 -0.022 0.629 255 255 255
-0.134 0.072 0.359 255 255 255
0.057 0.034 0.482 255 255 255
0.127 0.079 0.444 255 255 255
0.098 0.01 0.494 255 255 255
0.187 -0.29 0.533 255 255 255
-0.243 -0.019 0.449 255 255 255
0.364 0.008 0.614 255 255 255
0.116 -0.061 0.576 255 255 255
0.184 -0.163 0.586 255 255 255
-0.117 -0.232 0.57 0 0 0
0.274 -0.214 0.563 255 255 255
0.178 0.115 0.4 255 255 255
0.031 -0.036 0.531 255 255 255
0.496 -0.246 0.866 255 255 255
-0.183 0.089 0.354 255 255 255
0.266 -0.086 0.577 255 255 255
0.014 0.499 1.13 0 0 0
0.166 -0.005 0.561 255 255 255
-0.237 -0.171 0.592 0 0 0
-0.169 -0.348 0.524 255 255 255
-0.31 -0.18 0.6 255 255 255
-0.07 -0.352 0.516 0 0 0
-0.303 -0.044 0.463 255 255 255
-0.083 0.042 0.425 255 255 255
0.508 -0.168 0.814 0 0 0
0.049 0.187 0.419 255 255 255
-0.004 0.007 0.479 255 255 255
0.053 0.166 0.405 255 255 255
-0.19 0.048 0.374 255 255 255
0.098 -0.365 0.505 0 0 0
-0.237 -0.405 0.503 255 255 255
-0.246 -0.221 0.578 255 255 255
-0.204 0.028 0.397 255 255 255
-0.424 0.484 0.999 255 255 255
0.184 -0.223 0.563 255 255 255
-0.137 0.034 0.415 255 255 255
-0.182 0.551 0.997 255 255 255
-0.138 0.015 0.443 255 255 255
0.201 -0.339 0.51 255 255 255
0.139 0.133 0.371 255 255 255
-0.102 -0.106 0.551 255 255 255
-0.005 0.147 0.393 255 255 255
0.375 0.022 0.599 255 255 255
0.515 -0.266 0.85 255 255 255
0.128 -0.067 0.574 255 255 255
-0.177 -0.296 0.55 255 255 255
-0.239 -0.216 0.577 255 255 255
0.145 -0.23 0.558 255 255 255
0.081 -0.159 0.584 255 255 255
-0.112 0.491 1.097 0 0 0
0.009 0.522 1.103 255 255 255
0.076 -0.203 0.559 255 255 255
0.518 -0.298 0.831 255 255 255
0.023 -0.152 0.571 0 0 0
0.099 0.043 0.476 255 255 255
0 0.122 0.35 255 255 255
0.134 0.07 0.459 255 255 255
-0.07 -0.277 0.542 255 255 255
-0.321 -0.087 0.519 255 255 255
0.101 0.089 0.417 255 255 255
0.019 -0.268 0.526 255 255 255
0.009 -0.011 0.495 255 255 255
-0.112 0.15 0.407 255 255 255
-0.015 -0.038 0.514 255 255 255
0.153 0.569 1.087 255 255 255
0.223 -0.307 0.523 255 255 255
-0.094 -0.066 0.514 255 255 255
-0.249 -0.018 0.448 255 255 255
-0.062 -0.157 0.59 255 255 255
-0.11 -0.152 0.605 255 255 255
0.222 0.102 0.433 255 255 255
0.052 0.51 1.13 0 0 0
-0.111 -0.17 0.561 0 0 0
0.261 -0.042 0.649 255 255 255
0.085 -0.216 0.554 0 0 0
0.044 -0.157 0.58 255 255 255
0.214 -0.348 0.506 255 255 255
0.112 0.001 0.496 255 255 255
-0.163 0.035 0.4 255 255 255
0.301 -0.184 0.531 255 255 255
-0.011 -0.197 0.558 255 255 255
0.101 0.178 0.404 255 255 255
0.253 -0.011 0.603 255 255 255
0.156 -0.242 0.554 255 255 255
-0.167 -0.2 0.576 255 255 255
0.174 0.049 0.49 255 255 255
0.211 -0.202 0.57 255 255 255
-0.126 0.13 0.395 255 255 255
0.251 0.081 0.472 255 255 255
-0.204 -0.007 0.448 255 255 255
0.046 0.009 0.483 255 255 255
-0.2 0.031 0.392 255 255 255
-0.098 0.096 0.344 0 0 0
0.056 -0.043 0.538 255 255 255
0.136 -0.009 0.51 255 255 255
0.048 0.005 0.493 255 255 255
0.009 -0.113 0.591 255 255 255
-0.05 0.04 0.441 255 255 255
0.174 0.09 0.432 255 255 255
0.266 -0.091 0.718 255 255 255
-0.471 0.395 1.094 255 255 255
0.122 -0.34 0.511 255 255 255
-0.054 -0.168 0.659 255 255 255
-0.284 -0.298 0.554 255 255 255
0.2 -0.156 0.588 0 0 0
0.077 0.077 0.428 255 255 255
0.172 -0.31 0.525 255 255 255
-0.172 0.025 0.41 255 255 255
-0.09 -0.012 0.493 0 0 0
0.204 -0.091 0.699 255 255 255
-0.134 0.143 0.403 255 255 255
0.033 -0.055 0.533 255 255 255
0.297 -0.245 0.551 255 255 255
0.184 -0.329 0.515 255 255 255
0.074 0.064 0.449 255 255 255
-0.117 -0.321 0.533 0 0 0
-0.036 0.164 0.405 255 255 255
-0.272 0.527 0.993 255 255 255
0.302 -0.05 0.676 255 255 255
0.142 0.147 0.358 255 255 255
-0.299 -0.04 0.459 255 255 255
-0.08 -0.276 0.544 255 255 255
-0.399 0.488 0.997 255 255 255
-0.325 -0.268 0.564 255 255 255
-0.063 -0.291 0.534 255 255 255
0.048 -0.165 0.578 255 255 255
-0.276 -0.057 0.494 0 0 0
-0.002 0.069 0.414 255 255 255
-0.255 0.478 1.067 0 0 0
-0.204 0.027 0.399 255 255 255
-0.051 0.085 0.371 255 255 255
-0.297 0.453 1.081 255 255 255
-0.035 -0.294 0.531 255 255 255
0.304 -0.01 0.62 255 255 255
-0.132 0.069 0.366 255 255 255
-0.122 0.038 0.417 255 255 255
-0.013 -0.176 0.571 255 255 255
-0.341 -0.109 0.53 0 0 0
0.14 0.077 0.45 0 0 0
0.171 -0.118 0.744 255 255 255
0.013 0.102 0.373 255 255 255
0.24 0.095 0.45 255 255 255
-0.15 0.052 0.383 255 255 255
0.216 -0.2 0.57 255 255 255
0.118 0.051 0.475 0 0 0
0.06 0.133 0.351 255 255 255
0.129 0.109 0.4 255 255 255
-0.19 0.029 0.4 0 0 0
-0.33 -0.164 0.601 255 255 255
0.4 0.041 0.577 255 255 255
-0.041 0.009 0.485 255 255 255
0.074 0.031 0.476 255 255 255
0.12 -0.305 0.523 255 255 255
0.169 -0.357 0.505 255 255 255
0.034 -0.036 0.534 255 255 255
-0.095 0.086 0.353 255 255 255
0.176 -0.373 0.497 0 0 0
-0.218 -0.078 0.517 255 255 255
0.233 -0.053 0.655 255 255 255
-0.223 -0.265 0.564 255 255 255
-0.269 0.015 0.392 255 255 255
-0.287 -0.021 0.439 255 255 255
0.378 0.034 0.58 255 255 255
0.084 0.075 0.438 255 255 255
-0.027 0.116 0.35 255 255 255
-0.177 0.049 0.378 255 255 255
0.163 -0.284 0.534 0 0 0
-0.03 -0.202 0.559 255 255 255
0.067 0.184 0.41 0 0 0
-0.263 -0.316 0.545 255 255 255
0.212 -0.34 0.511 255 255 255
0.173 0.019 0.534 255 255 255
-0.236 -0.232 0.576 255 255 255
0.058 0.036 0.481 255 255 255
-0.217 -0.346 0.525 255 255 255
-0.464 -0.274 0.707 255 255 255
0.165 -0.25 0.551 255 255 255
-0.151 -0.284 0.552 255 255 255
0.178 -0.359 0.506 255 255 255
0.278 -0.091 0.574 255 255 255
-0.007 -0.197 0.557 255 255 255
0.057 -0.256 0.53 255 255 255
0.015 -0.052 0.543 255 255 255
-0.05 0.141 0.395 255 255 255
0.21 -0.216 0.564 255 255 255
-0.153 0.068 0.365 255 255 255
0.142 0.144 0.361 255 255 255
0.109 0.107 0.397 255 255 255
0.179 0.082 0.445 255 255 255
-0.325 -0.266 0.57 255 255 255
-0.319 -0.131 0.584 255 255 255
-0.02 0.012 0.487 0 0 0
0.001 0.101 0.365 255 255 255
-0.12 -0.018 0.493 255 255 255
0.221 -0.131 0.756 255 255 255
0.156 0.112 0.401 255 255 255
-0.305 -0.18 0.601 255 255 255
0.029 0.094 0.387 255 255 255
-0.161 0.037 0.4 255 255 255
-0.116 -0.277 0.548 255 255 255
-0.073 0.014 0.469 255 255 255
0.135 -0.355 0.506 255 255 255
0.212 0.103 0.43 255 255 255
-0.034 0.052 0.428 255 255 255
-0.242 -0.053 0.5 255 255 255
-0.239 0.004 0.418 255 255 255
0.023 -0.357 0.507 255 255 255
0.062 0.129 0.351 255 255 255
-0.235 0.508 1.03 255 255 255
-0.037 -0.064 0.526 255 255 255
0.132 0.143 0.356 255 255 255
-0.057 -0.049 0.51 255 255 255
-0.207 0.05 0.365 255 255 255
0.292 -0.046 0.665 255 255 255
-0.088 0.539 1.043 255 255 255
0.011 0.107 0.362 255 255 255
0.188 -0.375 0.499 0 0 0
-0.229 -0.002 0.43 255 255 255
0.123 -0.286 0.531 255 255 255
-0.198 0.109 0.388 255 255 255
0.131 0.14 0.359 255 255 255
-0.222 -0.193 0.647 255 255 255
-0.163 0.039 0.398 255 255 255
0.135 0.188 0.407 0 0 0
0.159 -0.265 0.543 0 0 0
0.204 -0.205 0.569 255 255 255
0.12 -0.05 0.556 255 255 255
-0.292 -0.048 0.473 255 255 255
-0.116 -0.217 0.574 0 0 0
0.04 0.074 0.421 255 255 255
-0.235 -0.183 0.614 255 255 255
0.098 -0.359 0.508 0 0 0
0.263 -0.173 0.579 255 255 255
0.01 0.052 0.445 255 255 255
-0.126 0.043 0.406 255 255 255
-0.286 -0.317 0.547 255 255 255
-0.155 0.122 0.39 255 255 255
-0.114 0.124 0.39 255 255 255
-0.019 0.089 0.376 255 255 255
0.198 -0.162 0.587 255 255 255
-0.171 0.053 0.373 255 255 255
0.013 -0.028 0.532 255 255 255
-0.33 -0.25 0.572 255 255 255
-0.043 -0.222 0.551 255 255 255
-0.01 0.094 0.371 255 255 255
0.094 0.114 0.382 255 255 255
-0.3 -0.218 0.633 255 255 255
0.028 0.13 0.354 255 255 255
-0.085 0.042 0.424 255 255 255
-0.095 -0.034 0.493 255 255 255
-0.095 0.085 0.357 255 255 255
-0.108 0.051 0.401 255 255 255
0.137 0.187 0.407 0 0 0
0.129 0.535 1.07 255 255 255
0.032 0.033 0.478 255 255 255
-0.253 -0.302 0.55 0 0 0
-0.111 -0.293 0.543 255 255 255
0.548 -0.05 0.78 255 255 255
0.107 -0.26 0.541 255 255 255
0.125 0.163 0.379 255 255 255
0.027 0.014 0.479 255 255 255
0.008 -0.299 0.523 255 255 255
-0.087 0.069 0.383 255 255 255
0.128 -0.163 0.586 0 0 0
-0.202 -0.009 0.454 255 255 255
-0.279 -0.172 0.596 255 255 255
0.031 -0.044 0.539 255 255 255
-0.275 -0.004 0.414 255 255 255
-0.012 0.035 0.463 255 255 255
0.507 -0.242 0.865 255 255 255
0.001 0.081 0.393 255 255 255
-0.196 -0.01 0.457 255 255 255
-0.098 0.018 0.455 255 255 255
0.185 -0.019 0.591 255 255 255
-0.09 0.025 0.446 255 255 255
0.221 0.091 0.447 255 255 255
0.245 -0.192 0.572 255 255 255
0.42 0.603 1.125 255 255 255
-0.017 0.081 0.388 255 255 255
-0.086 -0.304 0.536 255 255 255
-0.031 -0.315 0.523 255 255 255
-0.251 -0.053 0.497 255 255 255
-0.01 -0.067 0.54 255 255 255
0.102 -0.002 0.504 255 255 255
-0.248 -0.03 0.465 0 0 0
0.133 -0.262 0.544 0 0 0
-0.014 0.036 0.462 255 255 255
0.136 -0.064 0.571 255 255 255
-0.193 -0.366 0.518 255 255 255
-0.093 0.088 0.354 255 255 255
0.095 -0.268 0.537 255 255 255
-0.234 -0.384 0.514 0 0 0
0.523 -0.321 0.823 255 255 255
-0.131 0.046 0.4 255 255 255
-0.259 -0.351 0.527 255 255 255
0.234 -0.203 0.57 255 255 255
-0.18 0.042 0.386 0 0 0
0.19 -0.019 0.593 255 255 255
-0.282 -0.01 0.424 255 255 255
0.049 -0.173 0.574 255 255 255
-0.126 0.119 0.387 255 255 255
-0.086 -0.016 0.496 255 255 255
0.158 0.118 0.398 255 255 255
-0.285 0.002 0.407 255 255 255
-0.081 -0.155 0.641 255 255 255
0.17 -0.17 0.586 255 255 255
