ply
format ascii 1.0
comment Created by Open3D
element vertex 1580
property double x
property double y
property double z
property uchar red
property uchar green
property uchar blue
end_header
-0.8 -0.272 1.722 0 0 0
0.193 -0.544 1.848 255 255 255
0.466 -1.106 1.553 255 255 255
-0.398 0.565 1.694 255 255 255
-0.167 -1.042 2.311 255 255 255
0.286 -1.211 1.862 255 255 255
0.405 -0.784 1.693 0 0 0
-0.58 -0.857 2.415 255 255 255
0.412 0.083 1.838 255 255 255
-0.559 0.496 1.897 255 255 255
-0.683 -0.491 2.491 255 255 255
-0.567 0.238 2.283 255 255 255
-0.77 -0.238 1.643 255 255 255
-0.363 0.056 0.693 255 255 255
-0.705 -0.54 2.466 255 255 255
0.365 -0.642 1.818 255 255 255
-0.644 -1.165 2.288 255 255 255
0.666 -0.066 1.112 255 255 255
-0.831 -1.127 2.229 255 255 255
-0.382 0.055 0.65 255 255 255
-0.654 -1.185 2.278 255 255 255
-0.149 0.623 1.537 255 255 255
0.407 -0.486 1.741 0 0 0
-0.24 0.167 0.615 255 255 255
0.531 0.227 1.511 255 255 255
-1.024 -1.041 2.173 255 255 255
-0.303 -1.407 2.351 255 255 255
0.653 0.37 1.233 255 255 255
-1.029 -0.584 2.014 255 255 255
-0.644 -0.012 0.886 255 255 255
0.623 0.215 1.274 255 255 255
0.007 -0.746 1.711 255 255 255
-0.36 0.072 0.639 0 0 0
0.063 0.471 2.096 255 255 255
-0.916 -0.266 2.469 255 255 255
0.081 -0.964 1.686 255 255 255
-0.076 -1.687 2.354 255 255 255
0.173 0.653 1.52 255 255 255
-0.892 -0.201 2.501 255 255 255
0.584 0.02 1.338 255 255 255
0.381 -0.612 1.789 0 0 0
-0.892 -0.347 1.762 255 255 255
-1.058 -0.647 2.082 255 255 255
0.423 0.439 1.853 255 255 255
-0.818 -0.113 1.151 255 255 255
0.361 -0.154 1.929 255 255 255
0.575 -0.067 1.346 255 255 255
-0.419 -0.422 2.622 255 255 255
0.402 0.603 1.728 255 255 255
0.168 0.428 1.766 255 255 255
-0.206 0.514 1.788 255 255 255
-0.426 0.479 1.971 255 255 255
-0.339 -1.497 2.303 255 255 255
-0.008 -0.129 1.917 255 255 255
0.109 0.463 1.79 255 255 255
0.556 0.241 1.448 255 255 255
0.307 -1.157 1.759 255 255 255
-0.96 -0.478 2.386 0 0 0
0.012 0.126 2.029 255 255 255
-0.077 0.642 1.508 255 255 255
0.263 -0.098 2.062 255 255 255
-0.553 -0.128 2.661 255 255 255
0.726 -0.161 1.035 255 255 255
0.484 0.603 1.692 255 255 255
-0.604 -0.221 2.611 255 255 255
-0.098 -0.439 2.21 255 255 255
-0.167 -0.532 2.492 255 255 255
0.304 -0.27 2.042 255 255 255
-0.434 0.599 1.58 255 255 255
0.66 0.115 1.161 255 255 255
0.341 -0.286 1.943 255 255 255
0.567 0.539 1.492 255 255 255
-0.378 -1.27 2.369 255 255 255
0.074 0.196 2.079 255 255 255
0.073 -0.794 1.735 255 255 255
-0.941 -0.624 2.344 255 255 255
0.411 -1.142 1.587 0 0 0
0.135 0.22 2.114 255 255 255
-0.275 0.277 0.777 255 255 255
-0.321 0.689 1.318 255 255 255
0.609 0.619 1.404 0 0 0
0.566 -0.022 1.379 255 255 255
-0.649 -0.758 2.417 255 255 255
0.4 -0.157 1.816 255 255 255
0.302 0.195 2.154 255 255 255
0.599 -0.089 1.28 255 255 255
-0.392 -1.163 2.394 255 255 255
-0.512 0.012 0.835 255 255 255
-0.065 0.255 2.155 255 255 255
0.675 0.19 1.138 255 255 255
-0.58 -0.074 1.113 255 255 255
-0.039 0.512 1.876 255 255 255
0.008 0.902 2.075 255 255 255
-0.644 -1.427 2.21 255 255 255
0.703 -0.231 1.216 255 255 255
0.467 -0.262 1.597 255 255 255
0.544 -0.606 1.716 255 255 255
-0.943 -1.567 2.043 255 255 255
0.335 0.21 2.084 255 255 255
-0.501 -1.337 2.295 255 255 255
-0.263 0.193 0.708 255 255 255
0.49 -0.761 1.661 255 255 255
0.365 0.076 1.977 255 255 255
-0.574 -1.318 2.272 255 255 255
0.576 -0.204 1.19 0 0 0
-0.459 0.045 0.687 255 255 255
0.079 0.908 2.089 255 255 255
-0.277 -1.241 2.416 255 255 255
0.195 -0.666 1.811 255 255 255
-0.211 -1.022 2.314 0 0 0
-0.961 -1.226 2.147 255 255 255
-0.179 0.159 2.559 255 255 255
-0.545 -1.015 2.381 255 255 255
-0.157 0.084 0.309 255 255 255
0.029 -0.427 1.841 255 255 255
-0.599 0.147 2.569 255 255 255
-0.384 0.031 0.784 0 0 0
0.321 -0.344 1.984 255 255 255
-0.947 -0.338 1.713 0 0 0
-0.318 0.095 0.625 255 255 255
-0.785 0.21 2.547 255 255 255
-0.021 0.308 2.076 255 255 255
0.599 0.158 1.324 255 255 255
0.379 0.224 1.976 255 255 255
0.335 -1.149 1.784 0 0 0
0.405 -0.671 1.723 0 0 0
-0.608 0.298 2.267 255 255 255
0.28 0.605 1.727 255 255 255
0.103 0.602 1.721 255 255 255
-1.062 -1.237 2.103 255 255 255
0.135 0.581 1.773 255 255 255
-0.397 0.033 0.971 255 255 255
-0.296 0.194 2.687 255 255 255
0.414 0.304 1.884 255 255 255
0.44 -0.299 1.678 255 255 255
0.037 0.203 2.069 255 255 255
0.216 -1.442 1.997 0 0 0
-0.895 -1.296 2.151 255 255 255
-0.048 0.674 1.402 255 255 255
-1.127 -0.693 2.103 0 0 0
-0.357 0.062 0.811 255 255 255
-0.279 0.123 0.703 255 255 255
-0.376 0.038 0.807 0 0 0
-0.199 0.476 1.838 255 255 255
0.75 -0.275 1.069 255 255 255
-0.796 -0.08 1.052 255 255 255
-0.267 0.188 0.715 255 255 255
-0.092 -1.603 2.376 255 255 255
-0.222 -1.487 2.36 255 255 255
0.367 -0.332 1.884 255 255 255
-0.184 0.635 1.502 255 255 255
0.707 -0.039 1.02 255 255 255
0.328 0.626 1.661 255 255 255
-0.674 -0.581 2.465 255 255 255
0.394 0.716 1.374 255 255 255
0.006 0.681 1.369 255 255 255
-0.995 -0.456 1.793 0 0 0
0.344 0.653 1.572 255 255 255
-0.788 -1.234 2.208 255 255 255
0.507 -0.733 1.688 255 255 255
0.555 -0.15 1.379 255 255 255
-0.192 0.278 2.388 255 255 255
-0.337 0.214 2.469 255 255 255
-0.515 -0.513 2.549 255 255 255
0.085 -0.177 1.943 255 255 255
-0.886 0.184 2.531 0 0 0
-0.855 -0.238 1.562 255 255 255
-0.515 0.541 1.762 255 255 255
-0.184 0.697 1.317 255 255 255
-0.194 -1.729 2.299 255 255 255
-0.113 0.025 2.365 255 255 255
-0.802 -0.644 2.396 255 255 255
-0.08 -1.189 2.312 255 255 255
0.328 0.203 2.095 255 255 255
0.74 -0.233 1.11 255 255 255
0.451 0.389 1.798 255 255 255
-0.34 0.621 1.521 255 255 255
-0.966 -0.382 1.733 255 255 255
0.012 0.448 2.09 0 0 0
0.679 0.219 1.141 255 255 255
-0.234 0.185 0.571 255 255 255
0.517 0.067 1.519 255 255 255
0.147 0.478 1.76 255 255 255
0.093 -0.178 1.947 255 255 255
0.412 -0.341 1.631 0 0 0
0.377 0.334 2.002 255 255 255
-0.645 -0.105 2.629 255 255 255
-0.332 0.102 2.809 255 255 255
-0.049 0.693 1.338 255 255 255
-0.474 -0.581 2.547 255 255 255
0.362 -0.651 1.821 255 255 255
-0.846 -0.132 1.115 255 255 255
-0.325 0.08 0.793 255 255 255
-0.696 -0.644 2.437 255 255 255
0.184 0.579 1.787 255 255 255
0.415 -1.1 1.583 255 255 255
-0.309 0.098 0.708 255 255 255
-0.164 0.063 0.324 0 0 0
0.532 0.016 1.469 255 255 255
-0.03 0.324 2.07 255 255 255
-0.956 -0.664 2.159 0 0 0
-0.051 0.565 1.773 255 255 255
0.432 0.306 1.826 255 255 255
-0.558 0.423 2.117 255 255 255
0.405 0.188 1.889 255 255 255
-0.623 -0.894 2.386 255 255 255
-0.525 -0.039 1.013 255 255 255
-0.416 0.018 0.827 255 255 255
-0.623 -0.161 1.412 255 255 255
-0.011 -1.573 2.405 255 255 255
0.003 -0.665 1.74 255 255 255
-1.177 -1.155 2.073 255 255 255
0.026 0.796 2.089 255 255 255
-0.158 0.07 0.332 0 0 0
0.504 -0.265 1.41 0 0 0
-0.455 0.491 1.913 255 255 255
-0.506 0.529 1.804 255 255 255
-0.464 0.623 1.503 255 255 255
-0.637 -0.333 2.56 255 255 255
0.445 0.011 1.712 255 255 255
0.572 0.328 1.427 255 255 255
-0.417 -1.222 2.365 255 255 255
0.698 -0.116 0.994 255 255 255
-0.585 -0.058 1.07 255 255 255
0.509 -0.592 1.731 255 255 255
-0.162 0.251 2.455 255 255 255
0.483 -0.652 1.692 0 0 0
0.56 -0.074 1.379 255 255 255
-0.884 -1.23 2.175 255 255 255
0 -0.694 1.733 255 255 255
0.352 0.181 2.037 255 255 255
0.29 -1.134 1.765 255 255 255
-0.343 0.091 2.809 255 255 255
0.309 -0.353 2.012 255 255 255
-0.405 0.6 1.578 255 255 255
-0.772 -0.458 2.465 255 255 255
-0.59 -0.008 0.916 255 255 255
0.636 -0.257 1.331 255 255 255
0.517 0.237 1.56 255 255 255
0.599 0.127 1.318 255 255 255
-0.679 -0.728 2.416 255 255 255
0.495 0.372 1.657 255 255 255
-0.314 0.675 1.36 255 255 255
-1.121 -0.546 1.956 255 255 255
-0.046 0.279 2.049 255 255 255
-0.559 0.295 2.412 255 255 255
0.318 -0.118 2.039 255 255 255
-0.186 -0.546 2.482 255 255 255
0.305 -1.116 1.759 255 255 255
0.413 -0.825 1.662 0 0 0
0.321 -0.272 1.995 255 255 255
-0.431 0.591 1.6 255 255 255
-0.264 0.188 0.722 255 255 255
-0.406 0.674 1.357 255 255 255
0.709 0.061 1.027 255 255 255
0.376 -0.503 1.824 0 0 0
-0.827 -0.02 2.58 255 255 255
-0.095 0.238 2.378 255 255 255
-0.944 -0.689 2.311 255 255 255
0.47 0.529 1.741 255 255 255
0.201 -0.344 1.925 255 255 255
-0.468 0.015 0.826 255 255 255
-0.202 0.382 2.177 255 255 255
0.651 0.322 1.226 255 255 255
-0.235 0.129 2.669 255 255 255
0.389 -0.352 1.799 255 255 255
0.499 -0.255 1.482 0 0 0
-0.326 0.09 0.639 255 255 255
0.452 0.056 1.699 255 255 255
0.412 -1.055 1.608 0 0 0
0.415 -0.784 1.653 0 0 0
-0.152 -0.009 2.448 255 255 255
0.112 -0.569 1.828 255 255 255
0.507 -0.725 1.689 255 255 255
0.669 0.076 1.136 255 255 255
-1.119 -1.25 2.062 255 255 255
-0.371 -0.326 2.672 255 255 255
0.427 0.203 1.813 255 255 255
0.157 -0.969 1.716 255 255 255
0.392 -0.145 1.85 255 255 255
-0.242 -0.768 2.395 255 255 255
-0.257 0.183 2.676 255 255 255
-0.448 -0.617 2.541 255 255 255
0.235 -0.438 1.897 255 255 255
0.482 -0.192 1.564 255 255 255
-0.278 -1.002 2.49 255 255 255
-0.746 -1.58 2.123 0 0 0
0.007 -0.065 1.958 255 255 255
-0.004 0.547 1.843 255 255 255
-0.88 0.022 2.569 255 255 255
-0.234 0.594 1.626 255 255 255
-0.294 0.115 0.671 255 255 255
0.514 -0.802 1.666 255 255 255
0.52 0.266 1.555 255 255 255
0.223 -1.361 2.002 255 255 255
0.427 -0.102 1.741 255 255 255
0.107 -0.987 1.687 255 255 255
-0.393 0.067 0.639 255 255 255
0.641 -0.035 1.176 255 255 255
-1.099 -0.324 1.656 255 255 255
0.183 -0.45 1.882 255 255 255
0.434 0.7 1.422 255 255 255
-0.162 -1.08 2.297 255 255 255
-0.292 0.635 1.492 255 255 255
0.42 -0.401 1.761 255 255 255
0.591 0.574 1.417 255 255 255
-0.305 0.703 1.288 255 255 255
0.274 -0.208 2.046 255 255 255
-0.522 0.53 1.802 255 255 255
0.007 -0.845 1.686 255 255 255
0.158 0.616 1.66 255 255 255
0.353 0.429 2.042 255 255 255
0.531 -0.985 1.606 255 255 255
-0.248 -0.722 2.415 255 255 255
-0.27 0.591 1.634 255 255 255
-0.258 0.301 2.132 255 255 255
-0.84 -0.159 1.316 255 255 255
-0.337 0.522 1.833 255 255 255
0.552 0.669 1.509 0 0 0
0.663 -0.241 1.274 255 255 255
0.413 -0.538 1.723 255 255 255
-0.471 0.633 1.466 255 255 255
-0.188 0.662 1.414 255 255 255
0.19 0.69 1.406 255 255 255
0.151 0.629 1.608 255 255 255
0.68 -0.036 1.086 255 255 255
0.654 -0.09 1.141 255 255 255
-0.748 -1.64 2.101 255 255 255
-0.948 -0.742 2.188 0 0 0
-0.394 -0.617 2.57 255 255 255
-0.506 0.603 1.558 0 0 0
-0.305 0.525 1.804 0 0 0
-0.694 -0.57 2.46 255 255 255
-0.084 0.505 1.861 255 255 255
-1.271 -0.669 2.051 255 255 255
0.684 0.03 1.082 255 255 255
-0.409 0.701 1.278 255 255 255
0.518 0.263 1.562 255 255 255
-0.138 0.491 1.821 255 255 255
0.04 -0.478 1.829 255 255 255
0.021 -1.632 2.399 255 255 255
-0.851 -0.161 2.53 255 255 255
0.674 -0.239 1.257 255 255 255
-0.376 0.688 1.32 255 255 255
-0.814 -0.28 1.724 0 0 0
-0.832 -0.623 2.39 255 255 255
0.183 0.428 1.767 255 255 255
0.496 0.396 1.669 255 255 255
-0.228 0.244 0.604 255 255 255
-0.049 -1.499 2.418 255 255 255
0.6 -0.454 1.775 255 255 255
0.561 0.164 1.417 255 255 255
-0.822 -0.094 2.563 255 255 255
0.544 0.673 1.503 0 0 0
-0.857 -0.825 2.312 255 255 255
-0.542 -0.079 1.163 255 255 255
-0.917 -0.634 2.351 255 255 255
-1.448 -0.444 1.986 255 255 255
-0.268 0.682 1.352 255 255 255
0.434 -0.222 1.704 255 255 255
-0.25 -0.319 2.538 255 255 255
-0.171 0.065 0.308 255 255 255
-0.753 -1.523 2.135 255 255 255
-0.012 -0.75 1.75 255 255 255
0.574 0.706 1.425 255 255 255
-0.649 -1.529 2.166 255 255 255
-0.373 0.565 1.7 255 255 255
-0.462 -1.347 2.307 255 255 255
-1.032 -0.886 2.223 255 255 255
0.636 0.144 1.231 255 255 255
-0.235 -0.508 2.473 255 255 255
0.695 0.104 1.073 255 255 255
-0.246 0.528 1.756 255 255 255
0.245 0.291 2.187 255 255 255
-0.036 0.104 1.995 255 255 255
-0.355 -0.342 2.671 255 255 255
-0.49 -0.735 2.489 255 255 255
0.148 0.57 1.811 255 255 255
-1.263 -0.814 2.002 255 255 255
0.629 0.208 1.26 255 255 255
0.343 -0.311 1.929 255 255 255
0.312 -0.299 2.012 255 255 255
-0.493 0.368 2.041 255 255 255
0.56 0.529 1.516 255 255 255
0.51 -0.888 1.635 255 255 255
0.059 0.595 1.692 255 255 255
-0.275 -0.139 2.595 255 255 255
-0.441 -1.177 2.368 255 255 255
0.275 -0.542 1.888 255 255 255
-0.094 0.323 2.234 255 255 255
-0.446 0.675 1.343 255 255 255
0.139 -0.59 1.831 255 255 255
-0.805 -0.355 1.791 255 255 255
0.133 -0.398 1.883 255 255 255
-0.001 -1.765 2.362 0 0 0
-1.083 -1.003 2.168 255 255 255
-0.032 0.711 1.302 255 255 255
-0.507 -0.233 2.646 255 255 255
0.543 0.458 1.553 255 255 255
0.668 0.142 1.142 255 255 255
-0.675 -0.145 1.324 255 255 255
0.453 -0.037 1.674 255 255 255
-0.373 -1.27 2.369 255 255 255
0.206 -1.038 1.72 255 255 255
0.426 -1.061 1.564 255 255 255
0.022 -0.183 1.921 255 255 255
0.48 -0.244 1.561 255 255 255
-0.224 0.213 0.538 255 255 255
0.322 -0.241 2 255 255 255
-0.248 0.655 1.43 0 0 0
-0.427 0.599 1.581 255 255 255
-1.052 -0.774 2.099 255 255 255
-0.382 0.041 0.73 255 255 255
-0.607 -1.221 2.288 255 255 255
-1.417 -0.39 2.019 255 255 255
0.605 0.251 1.327 255 255 255
-0.503 -0.829 2.457 255 255 255
0.429 0.613 1.695 255 255 255
0.074 0.166 2.072 255 255 255
0.563 0.425 1.485 255 255 255
0.429 -0.33 1.659 0 0 0
-0.813 -1.308 2.173 255 255 255
0.339 0.344 2.071 255 255 255
-0.458 0.319 2.381 255 255 255
0.348 0.391 2.047 255 255 255
0.647 -0.017 1.169 255 255 255
-0.329 0.089 0.714 255 255 255
-1.394 -0.549 2.053 255 255 255
-1.463 -0.485 1.966 255 255 255
-0.838 -1.512 2.098 0 0 0
-0.224 0.23 0.547 255 255 255
-0.767 -0.339 1.847 255 255 255
-0.436 0.47 2.003 255 255 255
0.401 0.05 1.862 255 255 255
0.007 0.073 2.011 255 255 255
0.03 -0.191 1.922 255 255 255
0.55 -1 1.597 255 255 255
-0.427 0.055 0.639 255 255 255
-1.083 -0.425 1.725 255 255 255
-1.038 -0.646 2.24 0 0 0
-0.004 0.511 1.899 255 255 255
0.45 -0.206 1.655 255 255 255
-0.182 -1.642 2.328 255 255 255
-0.042 0.319 2.06 255 255 255
0.411 0.071 1.836 255 255 255
0.54 0.092 1.462 255 255 255
0.489 0.339 1.667 255 255 255
0.388 -0.994 1.687 255 255 255
0.684 0.106 1.098 255 255 255
-0.315 0.451 2.009 0 0 0
0.669 0.09 1.13 255 255 255
-0.171 0.102 2.524 255 255 255
0.458 0.577 1.761 255 255 255
0.714 -0.022 1.004 255 255 255
0.402 0.533 1.908 255 255 255
-0.432 0.007 1.102 255 255 255
0.665 -0.014 1.126 255 255 255
-0.348 0.629 1.495 255 255 255
-0.326 -1.593 2.287 255 255 255
-1.109 -1.151 2.1 255 255 255
0.201 0.144 2.105 255 255 255
-0.649 -1.014 2.333 255 255 255
0.581 -0.1 1.322 255 255 255
-0.456 -0.224 2.665 255 255 255
-0.271 0.693 1.319 255 255 255
-1.39 -0.358 1.842 255 255 255
0.047 -0.717 1.748 255 255 255
-1.096 -1.065 2.139 255 255 255
-0.737 -1.28 2.216 255 255 255
0.056 -0.287 1.891 255 255 255
0.533 0.204 1.508 255 255 255
0.082 -0.508 1.835 255 255 255
-0.815 -0.457 2.445 255 255 255
-0.408 0.509 1.88 255 255 255
0.52 -0.585 1.719 255 255 255
0.382 -0.367 1.821 255 255 255
0.429 0.249 1.82 255 255 255
0.443 0.099 1.733 255 255 255
-0.291 0.116 0.627 255 255 255
0.191 -0.89 1.742 255 255 255
-0.476 -0.007 0.92 0 0 0
-0.269 0.226 2.158 255 255 255
-0.963 -0.851 2.158 0 0 0
0.018 -0.751 1.714 255 255 255
0.197 0.43 1.761 255 255 255
-0.138 0.221 2.456 255 255 255
-0.321 -0.474 2.645 255 255 255
-0.059 0.6 1.673 255 255 255
-0.144 0.642 1.481 255 255 255
0.625 0.027 1.238 255 255 255
0.142 -0.133 1.981 255 255 255
0.216 -0.259 1.96 255 255 255
0.521 -0.856 1.646 255 255 255
-0.168 0.066 0.31 255 255 255
0.682 -0.122 0.95 0 0 0
-0.334 0.452 2.072 255 255 255
0.307 0.33 2.118 255 255 255
0.449 0.046 1.7 255 255 255
-0.188 -1.007 2.332 0 0 0
-0.165 -0.789 2.414 255 255 255
-0.1 -1.116 2.316 255 255 255
-0.437 -1.163 2.377 255 255 255
0.382 -0.674 1.779 0 0 0
0.315 -0.867 1.868 0 0 0
-0.698 -0.214 2.573 255 255 255
0.22 -1.424 1.997 255 255 255
0.517 -0.255 1.422 0 0 0
0.51 0.039 1.53 255 255 255
-0.17 0.056 0.322 0 0 0
0.073 0.529 1.906 255 255 255
-0.435 0.052 0.651 255 255 255
0.46 0.001 1.664 255 255 255
0.069 -0.797 1.733 255 255 255
0.139 0.229 2.119 255 255 255
0.272 -0.091 2.101 255 255 255
-0.973 -1.283 2.127 255 255 255
0.595 0.168 1.336 255 255 255
0.673 -0.133 0.996 0 0 0
0.083 0.473 1.861 255 255 255
0.043 -0.884 1.695 255 255 255
-0.702 -0.985 2.321 255 255 255
0.493 -0.111 1.548 255 255 255
0.528 -0.015 1.475 255 255 255
0.373 -1.205 1.67 0 0 0
-0.721 0.37 2.083 0 0 0
-0.351 0.688 1.317 255 255 255
-1.102 -0.834 2.064 0 0 0
-1.153 -0.902 2.151 255 255 255
-0.022 0.913 2.066 255 255 255
0.566 0.285 1.434 255 255 255
0.278 -1.261 1.889 255 255 255
-0.549 -1.272 2.293 255 255 255
-0.432 0.704 1.272 255 255 255
-0.283 0.639 1.476 255 255 255
0.211 -0.665 1.818 255 255 255
0.33 -0.088 2.012 255 255 255
0.081 -0.981 1.677 255 255 255
0.599 0.098 1.314 255 255 255
-0.319 0.087 0.735 255 255 255
0.618 -0.037 1.243 255 255 255
0.592 0.565 1.422 255 255 255
0.556 0.024 1.41 255 255 255
0.594 -0.033 1.304 255 255 255
-0.228 0.208 0.51 255 255 255
-0.349 -0.858 2.51 255 255 255
0.334 -0.381 1.94 255 255 255
0.186 0.664 1.487 255 255 255
-0.662 -0.817 2.394 255 255 255
0.406 -1.044 1.621 0 0 0
0.286 -1.032 1.743 0 0 0
0.682 0.203 1.132 255 255 255
0.295 0.609 1.726 255 255 255
-0.226 0.625 1.528 255 255 255
0.093 0.501 1.846 255 255 255
0.528 0.322 1.552 255 255 255
-0.58 -1.38 2.249 255 255 255
-0.64 0.065 2.607 255 255 255
0.656 0.155 1.174 255 255 255
-0.528 0.008 0.858 255 255 255
0.674 0.262 1.16 255 255 255
-0.441 -0.492 2.586 255 255 255
0.354 0.653 1.571 255 255 255
-0.961 -1.432 2.079 255 255 255
0.222 -0.498 1.879 255 255 255
0.421 -0.003 1.779 255 255 255
0.197 -0.088 2.021 255 255 255
-0.807 -1.406 2.151 255 255 255
-0.5 -1.119 2.361 255 255 255
-0.429 0.451 2.055 255 255 255
0.421 -0.237 1.74 255 255 255
-0.338 -1.047 2.454 255 255 255
-0.022 -1.681 2.377 255 255 255
0.602 0.335 1.352 255 255 255
-0.542 0.103 2.66 255 255 255
0.608 0.273 1.323 255 255 255
0.482 0.612 1.684 255 255 255
-0.441 -0.729 2.514 255 255 255
-0.375 0.306 2.157 255 255 255
-0.858 -0.252 2.495 255 255 255
-0.189 0.433 1.978 255 255 255
0.593 0.154 1.34 255 255 255
0.27 -0.789 1.797 255 255 255
-1.041 -0.692 2.238 0 0 0
-0.731 -0.964 2.318 255 255 255
-1.435 -0.464 2.054 0 0 0
-0.12 0.03 2.395 255 255 255
0.212 0.607 1.705 255 255 255
0.573 0.216 1.401 255 255 255
0.662 0.104 1.15 255 255 255
0.415 -0.612 1.7 255 255 255
-0.091 -0.785 2.439 255 255 255
-0.113 0.657 1.438 0 0 0
-0.192 0.504 1.797 255 255 255
0.033 0.492 2.056 255 255 255
0.059 -0.6 1.791 255 255 255
-0.389 -0.57 2.58 255 255 255
-0.787 -0.235 1.61 255 255 255
-0.342 0.071 0.782 255 255 255
-0.898 -0.523 2.393 255 255 255
-0.44 0.567 1.684 255 255 255
-1.045 -0.435 1.732 255 255 255
-1.085 -0.599 1.978 255 255 255
0.47 0.417 1.748 255 255 255
0.55 -0.194 1.386 255 255 255
-1.171 -0.796 2.046 255 255 255
0.508 -0.614 1.724 255 255 255
-0.674 -0.596 2.462 255 255 255
-0.249 -0.348 2.525 255 255 255
0.46 -0.156 1.631 255 255 255
-0.305 0.098 0.76 255 255 255
-0.079 0.686 1.363 255 255 255
-0.401 0.625 1.511 255 255 255
0.078 -0.112 1.964 255 255 255
0.643 0.264 1.231 255 255 255
0.123 0.649 1.743 255 255 255
0.259 -1.348 1.912 255 255 255
0.181 0.187 2.12 255 255 255
0.025 -0.596 1.78 255 255 255
0.489 -1.044 1.568 0 0 0
0.639 0.231 1.233 255 255 255
0.541 -0.235 1.367 0 0 0
-0.491 -0.041 1.087 255 255 255
0.496 0.023 1.562 255 255 255
-0.942 -0.803 2.158 0 0 0
-0.292 0.697 1.299 255 255 255
0.695 -0.107 1.004 255 255 255
0.065 0.107 2.046 255 255 255
-0.379 0.567 1.693 255 255 255
0.32 0.367 2.083 255 255 255
0.389 0.644 1.59 255 255 255
0.528 0.642 1.578 255 255 255
0.187 0.7 1.376 255 255 255
-0.177 0.456 1.934 255 255 255
-0.718 0.306 2.241 0 0 0
0.223 -0.9 1.751 255 255 255
0.419 -0.873 1.622 0 0 0
-0.806 -0.246 1.607 255 255 255
-0.945 -0.914 2.163 0 0 0
0.689 0.181 1.101 255 255 255
-0.138 -0.308 2.375 255 255 255
-0.812 -0.959 2.288 255 255 255
0.093 0.284 2.115 255 255 255
-0.817 -0.989 2.277 255 255 255
0.223 -0.888 1.753 255 255 255
-0.219 0.653 1.443 0 0 0
-0.26 0.196 0.691 255 255 255
-0.847 -0.85 2.308 255 255 255
0.543 0.595 1.557 255 255 255
-0.76 -0.591 2.424 255 255 255
0.463 0.325 1.736 255 255 255
0.457 -0.077 1.65 255 255 255
-0.295 0.113 0.633 255 255 255
0.527 -0.248 1.397 0 0 0
0.54 -0.617 1.714 255 255 255
-0.159 0.121 0.33 0 0 0
0.031 -0.031 1.984 255 255 255
0.638 0.518 1.321 255 255 255
0.397 0.442 1.921 255 255 255
-0.115 0.636 1.509 255 255 255
-0.712 -0.192 1.474 255 255 255
-0.193 -0.832 2.382 255 255 255
0.348 0.636 1.615 255 255 255
-1.243 -0.79 2.014 255 255 255
-0.162 0.074 0.311 255 255 255
-0.209 0.643 1.469 255 255 255
0.33 -1.095 1.804 0 0 0
0.464 -1.021 1.581 255 255 255
-0.247 0.373 2.146 255 255 255
0.319 0.611 1.717 255 255 255
-0.869 -0.297 2.477 255 255 255
-0.35 0.548 1.757 255 255 255
0.106 -0.341 1.892 255 255 255
0.578 0.479 1.46 255 255 255
-0.298 0.638 1.489 255 255 255
-0.136 0.518 1.794 255 255 255
-0.123 -1.004 2.314 255 255 255
-0.836 -0.734 2.35 255 255 255
0.59 -0.305 1.459 255 255 255
0.568 0.237 1.419 255 255 255
-0.138 -0.077 2.302 255 255 255
-0.389 0.088 0.651 255 255 255
0.535 -0.611 1.711 255 255 255
-0.405 -0.828 2.498 255 255 255
0.021 -1.783 2.365 255 255 255
0.352 0.478 2.032 255 255 255
0.191 -0.135 1.998 255 255 255
-0.688 -1.112 2.29 255 255 255
0.423 -0.214 1.734 255 255 255
-0.906 -0.624 2.354 255 255 255
0.266 0.333 2.174 255 255 255
-0.493 -0.023 0.981 255 255 255
-0.53 -0.07 1.144 255 255 255
-0.366 0.091 0.623 255 255 255
0.655 0.37 1.224 255 255 255
0.504 -0.17 1.505 255 255 255
0.472 0.38 1.734 255 255 255
0.136 -0.023 2.021 255 255 255
0.545 0.226 1.475 255 255 255
0.158 0.009 2.038 255 255 255
0.565 0.436 1.479 255 255 255
0.263 0.617 1.709 255 255 255
0.353 0.057 2.002 255 255 255
-0.584 -1.348 2.258 255 255 255
0.335 -0.805 1.858 0 0 0
-1.282 -0.8 1.999 255 255 255
0.437 -0.952 1.59 255 255 255
0.116 0.181 2.096 255 255 255
-0.727 -1.511 2.143 255 255 255
-0.175 0.06 0.309 255 255 255
-0.659 -1.606 2.149 0 0 0
0.184 -0.643 1.815 255 255 255
-0.127 0.564 1.756 255 255 255
0.084 -0.278 1.908 255 255 255
0.037 0.354 2.098 255 255 255
-0.198 -0.769 2.401 255 255 255
-0.298 -0.876 2.519 255 255 255
0.072 -0.222 1.924 255 255 255
-0.201 -0.53 2.481 255 255 255
0.22 -0.254 1.959 255 255 255
-0.211 0.409 1.999 0 0 0
0.713 -0.087 0.996 255 255 255
-0.861 -0.416 2.442 255 255 255
0.419 0.126 1.817 255 255 255
-0.44 0.683 1.331 255 255 255
-0.437 -1.153 2.381 255 255 255
0.535 0.513 1.573 255 255 255
0.422 -0.138 1.75 255 255 255
0.146 -0.936 1.722 255 255 255
-0.299 0.691 1.311 255 255 255
0.199 -0.007 2.046 255 255 255
-0.635 -0.74 2.429 255 255 255
-0.134 -1.468 2.397 255 255 255
0.12 -0.516 1.85 255 255 255
-0.994 -0.551 2.022 255 255 255
-0.952 -1.267 2.137 255 255 255
-0.68 -0.89 2.365 255 255 255
0.44 -0.865 1.619 255 255 255
-0.388 0.054 0.652 255 255 255
0.47 -0.257 1.586 255 255 255
-0.457 -0.663 2.528 255 255 255
-0.814 0.033 2.573 255 255 255
-0.141 0.375 2.191 255 255 255
-0.847 -0.83 2.313 255 255 255
-0.992 -1.352 2.093 255 255 255
0.424 -0.046 1.761 255 255 255
-0.062 -0.914 2.269 255 255 255
0.376 -0.889 1.747 255 255 255
-0.371 -1.585 2.27 255 255 255
0.047 0.869 2.078 255 255 255
0.65 0.279 1.217 255 255 255
0.568 0.256 1.425 255 255 255
0.12 -0.19 1.953 255 255 255
-0.389 -0.097 2.734 255 255 255
0.598 0.663 1.429 255 255 255
-0.257 -1.331 2.388 255 255 255
-0.555 -1.001 2.386 255 255 255
-0.319 0.32 2.107 255 255 255
-0.538 -0.052 1.065 0 0 0
-0.189 0.499 1.805 255 255 255
-1.174 -0.519 1.96 255 255 255
-0.752 -0.454 2.473 255 255 255
-0.626 -0.1 2.64 255 255 255
0.529 0.592 1.593 255 255 255
0.007 -0.924 1.665 255 255 255
0.711 -0.078 1.002 255 255 255
-0.803 0.064 2.538 255 255 255
-0.814 -0.585 2.409 255 255 255
-0.169 0.07 0.305 255 255 255
-0.858 -0.127 1.202 255 255 255
-0.976 -0.517 2.042 255 255 255
-0.379 0.61 1.552 255 255 255
0.643 -0.073 1.172 255 255 255
-0.915 -0.357 1.744 255 255 255
-0.636 -0.578 2.482 255 255 255
0.227 -0.843 1.768 255 255 255
0.549 0.283 1.479 255 255 255
0.132 -1.074 1.683 255 255 255
-0.166 0.06 0.326 0 0 0
0.211 -0.739 1.795 255 255 255
-0.798 -0.346 1.805 255 255 255
0.576 -0.207 1.19 0 0 0
0.373 -0.599 1.811 255 255 255
-0.331 0.654 1.423 255 255 255
0.507 0.145 1.559 255 255 255
0.133 0.474 1.775 255 255 255
-0.252 0.148 0.655 255 255 255
-0.697 0.165 2.592 255 255 255
-0.283 0.124 0.694 255 255 255
0.197 0.681 1.438 255 255 255
-0.126 -0.854 2.232 255 255 255
-0.27 0.394 0.744 255 255 255
-0.228 0.684 1.347 255 255 255
-1.236 -1.044 2.079 255 255 255
-1.057 -0.293 1.732 0 0 0
-0.898 -0.891 2.273 255 255 255
0.293 -0.284 2.054 255 255 255
0.107 -0.909 1.716 255 255 255
0.706 0.001 1.024 255 255 255
0.497 -0.128 1.53 255 255 255
-0.864 -0.926 2.275 255 255 255
0.401 -0.513 1.758 0 0 0
0.516 -0.021 1.5 255 255 255
-0.152 -0.344 2.431 255 255 255
0.184 -0.997 1.708 255 255 255
0.397 0.573 1.821 255 255 255
0.666 -0.276 1.342 255 255 255
0.025 -0.593 1.781 255 255 255
-0.421 -0.371 2.636 255 255 255
0.124 -0.542 1.842 255 255 255
0.137 0.488 1.768 255 255 255
0.534 0.354 1.545 255 255 255
0.352 -1.267 1.708 0 0 0
0.189 -0.072 2.02 255 255 255
0.417 -0.774 1.649 255 255 255
0.703 0.005 1.033 255 255 255
-0.973 -1.139 2.166 255 255 255
-0.113 0.694 1.337 255 255 255
0.077 -0.73 1.76 255 255 255
0.557 0.372 1.487 255 255 255
0.096 -0.955 1.695 0 0 0
-0.581 -0.158 2.635 255 255 255
-0.289 0.116 0.63 255 255 255
0.644 -0.146 1.126 255 255 255
-0.671 0.332 2.264 255 255 255
0.35 0.057 2.009 255 255 255
0.044 -1.051 1.665 255 255 255
0.315 -1.107 1.776 255 255 255
0.212 0.001 2.051 255 255 255
-0.683 -0.967 2.335 255 255 255
-1.305 -0.772 1.996 255 255 255
-0.475 0.535 1.789 255 255 255
-0.412 0.043 0.713 255 255 255
-0.154 0.105 0.324 255 255 255
-1.053 -1.288 2.09 255 255 255
-0.446 -0.492 2.584 255 255 255
0.284 0.584 1.781 255 255 255
-0.257 -0.651 2.461 255 255 255
-0.227 0.202 0.514 0 0 0
0.228 -0.634 1.835 255 255 255
-0.127 -0.952 2.321 255 255 255
0.565 0.683 1.477 255 255 255
0.639 0.234 1.233 255 255 255
-0.756 -0.182 2.564 255 255 255
-0.35 0.363 2.131 255 255 255
-0.035 0.529 1.863 255 255 255
0.227 0.721 1.308 255 255 255
-0.128 0.442 1.967 255 255 255
0.233 -0.542 1.864 255 255 255
-0.754 -0.203 2.555 255 255 255
0.438 0.619 1.669 255 255 255
0.745 -0.192 1.093 255 255 255
0.13 -0.735 1.781 255 255 255
-0.164 0.13 0.341 0 0 0
-0.489 0.477 1.954 255 255 255
-0.522 -0.346 2.602 255 255 255
0.564 0.523 1.509 255 255 255
-0.268 -0.204 2.572 255 255 255
-0.351 0.081 0.914 255 255 255
-0.398 -1.226 2.375 255 255 255
-0.294 -0.409 2.649 255 255 255
-0.763 -0.64 2.408 255 255 255
0.208 0.586 1.77 255 255 255
-0.72 -0.647 2.424 255 255 255
-0.525 -0.074 2.686 255 255 255
0.421 -0.337 1.681 0 0 0
-0.871 -0.169 1.346 255 255 255
-0.253 0.646 1.463 0 0 0
0.426 -1.105 1.545 255 255 255
-0.546 -0.095 1.261 255 255 255
0.653 0.382 1.237 255 255 255
-0.818 -1.587 2.087 255 255 255
0.217 0.703 1.353 255 255 255
0.536 -0.622 1.697 255 255 255
-0.935 -0.943 2.243 255 255 255
-0.595 -0.01 2.674 255 255 255
-0.579 -0.122 2.65 255 255 255
-0.309 0.411 2.088 255 255 255
0.399 0.042 1.867 255 255 255
0.35 0.347 2.062 255 255 255
-0.679 0.189 2.564 255 255 255
-0.864 -1.456 2.105 255 255 255
-0.012 -0.049 1.948 255 255 255
-0.745 -0.256 1.887 255 255 255
-0.579 -1.611 2.142 0 0 0
0.588 0.431 1.416 255 255 255
-0.428 0.584 1.633 255 255 255
-0.255 -0.623 2.454 255 255 255
0.407 -1.176 1.587 0 0 0
-0.553 -1.064 2.359 255 255 255
0.466 -0.429 1.761 0 0 0
-0.723 -1.545 2.135 0 0 0
0.041 -0.387 1.849 255 255 255
-0.629 -0.002 0.876 255 255 255
0.52 -0.672 1.696 255 255 255
-0.137 0.254 2.436 255 255 255
-0.551 -0.626 2.498 255 255 255
-0.882 -1.093 2.216 255 255 255
0.405 -0.43 1.759 255 255 255
0.193 -0.084 2.021 255 255 255
0.19 0.585 1.77 255 255 255
-0.046 0.297 2.058 255 255 255
0.005 -1.746 2.366 0 0 0
0.417 0.441 1.863 255 255 255
-0.446 -0.245 2.666 255 255 255
-0.608 -0.509 2.511 255 255 255
0.497 0.026 1.563 255 255 255
0.242 0.239 2.165 255 255 255
0.525 0.636 1.592 255 255 255
-1.098 -1.169 2.107 255 255 255
0.441 0.271 1.787 255 255 255
-0.522 0.432 2.079 255 255 255
-0.506 -0.377 2.597 255 255 255
0.411 -0.197 1.777 255 255 255
0.636 -0.12 1.179 255 255 255
-0.304 0.24 2.128 255 255 255
0.026 0.549 1.836 255 255 255
0.329 -0.124 2.004 255 255 255
-0.064 0.63 1.523 255 255 255
-0.686 -0.825 2.381 255 255 255
-0.568 -1.485 2.224 255 255 255
-0.242 -1.357 2.39 255 255 255
0.168 -0.866 1.748 255 255 255
0.255 -0.459 1.9 255 255 255
0.199 0.569 1.828 255 255 255
-0.655 -0.995 2.34 255 255 255
-0.189 0.05 0.327 0 0 0
-0.019 -0.807 1.737 255 255 255
0.428 0.586 1.781 255 255 255
-0.329 0.08 0.738 255 255 255
0.098 -0.455 1.86 255 255 255
-1.064 -1.155 2.124 255 255 255
0.433 -0.329 1.568 0 0 0
-0.023 0.709 1.305 255 255 255
0.238 0.322 2.162 255 255 255
0.249 -1.007 1.704 0 0 0
0.314 -0.435 1.984 255 255 255
-0.234 0.195 0.498 255 255 255
0.306 0.61 1.727 255 255 255
0.022 -0.563 1.786 255 255 255
0.172 0.152 2.104 255 255 255
0.097 -0.556 1.826 255 255 255
-0.349 -0.94 2.488 255 255 255
-0.373 0.227 2.442 255 255 255
-0.395 0.035 0.967 255 255 255
-1.232 -1.073 2.072 255 255 255
-0.912 -1.157 2.186 255 255 255
0.565 -0.211 1.314 0 0 0
-0.3 -0.739 2.562 255 255 255
-0.229 0.201 0.505 255 255 255
0.538 -0.759 1.666 255 255 255
-0.176 -1.581 2.35 255 255 255
0.544 0.058 1.446 255 255 255
0.649 0.003 1.173 255 255 255
0.211 -0.695 1.81 255 255 255
0.381 0.611 1.697 255 255 255
-0.391 0.614 1.541 255 255 255
0.049 -0.184 1.929 255 255 255
-0.473 0.261 2.387 255 255 255
0.651 -0.146 1.102 0 0 0
0.522 0.072 1.506 255 255 255
-0.333 -1.161 2.42 255 255 255
-0.344 -0.363 2.668 255 255 255
0.212 0.487 1.762 255 255 255
-0.787 -0.346 1.811 255 255 255
0.663 -0.138 0.998 0 0 0
-0.166 0.675 1.377 255 255 255
-0.167 -0.508 2.501 255 255 255
-1.418 -0.601 2.014 255 255 255
0.468 -0.134 1.611 255 255 255
0.615 0.265 1.305 255 255 255
0.437 0.057 1.74 255 255 255
-0.388 0.076 0.645 0 0 0
-0.531 -1.36 2.276 255 255 255
-0.874 -0.252 2.493 255 255 255
-0.218 0.706 1.286 255 255 255
-0.023 0.519 1.872 255 255 255
-1.051 -0.259 1.678 255 255 255
-0.797 -1.069 2.259 255 255 255
-0.211 -0.998 2.322 0 0 0
0.591 -0.2 1.228 0 0 0
0.314 -0.057 2.065 255 255 255
0.371 -0.788 1.773 255 255 255
-0.901 -0.358 1.752 255 255 255
-0.327 0.088 0.841 255 255 255
-0.483 -0.434 2.588 255 255 255
-0.394 0.441 2.074 255 255 255
-0.006 -1.662 2.391 255 255 255
-0.75 -0.523 2.454 255 255 255
0.652 0.124 1.18 255 255 255
-0.033 0.149 2.009 255 255 255
-0.899 -0.838 2.29 255 255 255
-0.383 0.666 1.38 255 255 255
-1.325 -0.628 2.042 255 255 255
0.123 0.468 1.782 255 255 255
-0.49 0.565 1.691 255 255 255
-0.123 -1.453 2.405 255 255 255
0.495 -0.406 1.771 0 0 0
-0.939 -0.395 1.749 255 255 255
-0.135 -0.776 2.424 255 255 255
0.717 -0.059 0.994 255 255 255
-0.587 0.246 2.264 255 255 255
-0.234 -1.677 2.294 0 0 0
0.444 -0.157 1.679 255 255 255
-0.393 0.582 1.634 255 255 255
0.347 -0.889 1.806 255 255 255
-0.604 0.254 2.255 255 255 255
0.434 -0.319 1.547 0 0 0
-0.42 0.566 1.694 255 255 255
0.029 -0.742 1.73 255 255 255
-0.095 0.677 1.385 255 255 255
-0.493 -0.584 2.534 255 255 255
-0.464 -0.155 2.684 255 255 255
0.111 -0.959 1.7 255 255 255
-0.136 -0.888 2.239 255 255 255
0.61 0.379 1.342 255 255 255
0.261 0.311 2.204 255 255 255
-0.068 0.579 1.722 255 255 255
-0.451 -1.578 2.241 255 255 255
0.597 0.627 1.427 0 0 0
-0.375 -0.048 2.754 255 255 255
0.44 0.28 1.798 255 255 255
-0.049 0.699 1.323 255 255 255
0.398 -0.419 1.778 0 0 0
0.362 0.134 2.003 255 255 255
-0.335 -0.844 2.521 255 255 255
0.689 0.13 1.085 255 255 255
-0.215 0.489 1.811 255 255 255
-0.513 -1.479 2.244 255 255 255
-0.108 -0.33 2.327 255 255 255
0.519 0.246 1.555 255 255 255
-0.517 -0.888 2.433 255 255 255
-0.782 -0.8 2.352 255 255 255
0.644 0.105 1.2 255 255 255
0.451 -0.591 1.713 255 255 255
0.688 0.037 1.078 255 255 255
-0.639 -0.478 2.51 255 255 255
-0.537 -0.248 2.629 255 255 255
0.431 -0.603 1.705 255 255 255
-0.255 0.359 2.143 255 255 255
0.458 0.083 1.68 255 255 255
0.162 -1.486 2.162 255 255 255
0.366 0.368 2.031 255 255 255
-0.785 -0.172 1.352 255 255 255
-0.717 -1.471 2.163 255 255 255
-0.185 -0.628 2.455 255 255 255
-0.758 0.117 2.572 255 255 255
-0.287 0.122 0.667 255 255 255
-0.382 0.303 2.171 255 255 255
-0.438 0.062 2.765 255 255 255
-0.084 -0.81 2.238 255 255 255
0.014 0.689 1.364 255 255 255
0.378 0.684 1.467 255 255 255
0.095 -0.252 1.919 255 255 255
-0.44 0.032 0.762 255 255 255
0.575 -0.277 1.408 255 255 255
0.458 0.028 1.668 255 255 255
-0.362 -0.7 2.556 255 255 255
0.111 0.717 1.309 255 255 255
-0.803 -0.751 2.36 255 255 255
-0.332 -0.666 2.575 255 255 255
-0.684 -1.324 2.219 255 255 255
-0.844 -0.123 1.197 255 255 255
0.482 0.689 1.467 255 255 255
0.379 0.595 1.744 255 255 255
-0.376 -0.021 2.763 255 255 255
0.364 -0.523 1.841 255 255 255
0.529 -0.918 1.622 255 255 255
-0.255 0.205 0.679 255 255 255
-0.974 -1.501 2.053 0 0 0
-0.55 -0.631 2.495 255 255 255
-0.461 -1.14 2.374 255 255 255
-0.861 -0.211 2.508 255 255 255
-0.933 -0.185 2.49 255 255 255
-1.123 -1.209 2.072 255 255 255
0.651 0.382 1.239 255 255 255
0.082 -0.471 1.844 255 255 255
0.155 0.633 1.58 255 255 255
-0.414 0.619 1.521 255 255 255
0.645 0.221 1.216 255 255 255
0.613 -0.53 1.764 255 255 255
-0.46 -0.732 2.502 255 255 255
-0.929 -0.677 2.331 255 255 255
-0.768 -0.542 2.44 255 255 255
-0.643 -0.082 1.106 255 255 255
0.224 0.286 2.151 255 255 255
-0.286 0.118 0.63 255 255 255
-0.149 0.089 0.32 0 0 0
0.538 -0.243 1.29 255 255 255
0.456 0.069 1.687 255 255 255
0.546 0.184 1.463 255 255 255
0.437 0.393 1.838 255 255 255
-0.532 0.301 2.232 255 255 255
0.274 -0.994 1.726 255 255 255
-0.718 -0.104 1.173 255 255 255
0.097 -1.069 1.676 255 255 255
-0.481 -1.275 2.32 255 255 255
0.434 -0.256 1.7 255 255 255
0.522 -0.492 1.744 255 255 255
-0.267 0.14 0.652 255 255 255
0.065 -0.177 1.937 255 255 255
0.063 -0.035 1.991 255 255 255
0.159 0.706 1.338 255 255 255
0.022 -0.334 1.856 255 255 255
-0.493 0.598 1.577 255 255 255
0.556 0.153 1.431 255 255 255
-0.817 -0.614 2.397 255 255 255
-0.49 -1.06 2.386 255 255 255
-0.429 0.013 0.85 255 255 255
-0.484 0.533 1.794 255 255 255
-0.852 -0.895 2.296 255 255 255
-0.623 -0.006 0.898 255 255 255
-0.362 0.682 1.338 255 255 255
-0.77 -0.488 2.455 255 255 255
-0.436 0.581 1.636 255 255 255
0.716 -0.198 1.147 255 255 255
0.229 -1.447 1.977 0 0 0
0.315 -0.093 2.046 255 255 255
-0.22 0.36 2.18 255 255 255
-0.364 0.683 1.333 255 255 255
0.19 0.682 1.433 255 255 255
-1.175 -0.743 2.067 255 255 255
0.601 0.186 1.318 255 255 255
0.513 -0.147 1.485 255 255 255
0.169 0.647 1.542 255 255 255
0.12 0.138 2.082 255 255 255
-0.165 0.067 0.311 255 255 255
-0.163 0.196 0.388 255 255 255
0.547 0.319 1.498 255 255 255
-0.394 -0.914 2.473 255 255 255
0.315 -0.874 1.865 0 0 0
-0.251 0.226 0.695 255 255 255
-0.386 0.704 1.269 255 255 255
-0.359 0.054 0.858 255 255 255
0.003 -0.538 1.781 255 255 255
-0.154 0.077 0.333 0 0 0
0.408 -0.988 1.635 0 0 0
0.761 -0.229 1.064 255 255 255
0.266 -1.08 1.753 255 255 255
-1.232 -0.942 2.113 255 255 255
-0.012 -0.879 1.736 255 255 255
-0.902 -0.191 1.398 255 255 255
0.253 0.018 2.083 255 255 255
0.428 0.44 1.84 255 255 255
0.578 0.064 1.362 255 255 255
0.452 -0.86 1.624 255 255 255
-0.313 -1 2.482 255 255 255
-0.391 0.632 1.479 255 255 255
-0.775 -0.065 1.046 0 0 0
0.037 -0.454 1.84 255 255 255
0.664 -0.071 1.118 255 255 255
0.329 0.662 1.544 255 255 255
-0.122 -0.35 2.334 255 255 255
-0.316 0.696 1.305 255 255 255
-0.572 -1.466 2.225 255 255 255
0.384 0.247 1.961 255 255 255
0.616 -0.251 1.337 255 255 255
-0.043 0.454 1.93 255 255 255
-0.84 -1.051 2.247 255 255 255
-0.17 0.057 0.32 0 0 0
-0.618 -0.889 2.39 255 255 255
0.08 -0.215 1.929 255 255 255
-0.71 -1.376 2.197 255 255 255
0.522 -0.898 1.634 255 255 255
0.13 -0.887 1.731 255 255 255
0.084 0.266 2.108 255 255 255
0.512 0.534 1.624 255 255 255
-0.056 -1.194 2.322 255 255 255
-0.519 0.6 1.567 0 0 0
0.501 0.36 1.631 255 255 255
0.443 -0.457 1.755 255 255 255
0.575 0.34 1.424 255 255 255
0.295 -0.813 1.829 255 255 255
0.357 -0.567 1.855 255 255 255
-0.444 -0.006 1.016 255 255 255
-0.469 -0.797 2.48 255 255 255
0.666 0.195 1.16 255 255 255
0.467 -1.021 1.58 255 255 255
-0.861 -1.469 2.106 255 255 255
-0.477 -0.981 2.418 255 255 255
0.214 -0.068 2.026 255 255 255
-0.414 0.708 1.259 255 255 255
0.651 0.13 1.184 255 255 255
-0.539 -0.041 1.015 255 255 255
0.682 0.16 1.116 255 255 255
-0.947 -0.139 2.498 255 255 255
0.529 0.131 1.502 255 255 255
0.651 0.078 1.176 255 255 255
-0.485 -1.208 2.34 255 255 255
0.407 -0.731 1.701 0 0 0
-0.018 0.587 1.701 255 255 255
-0.394 -1.459 2.3 255 255 255
-1.074 -0.753 2.224 255 255 255
-0.238 0.701 1.293 255 255 255
0.262 -1.344 1.905 255 255 255
0.509 -0.209 1.489 255 255 255
-0.505 -0.002 0.907 255 255 255
0.584 0.049 1.346 255 255 255
0.251 0.601 1.731 255 255 255
-0.233 0.18 0.594 255 255 255
-0.023 -0.342 1.835 255 255 255
-0.123 0.654 1.446 0 0 0
0.162 0.562 1.847 0 0 0
-0.254 0.392 2.13 255 255 255
0.524 0.178 1.526 255 255 255
0.282 -0.532 1.912 255 255 255
0.69 -0.229 1.227 255 255 255
0.428 -0.735 1.66 255 255 255
-1.029 -0.568 2.006 255 255 255
-0.5 -1.16 2.35 255 255 255
-0.257 -0.229 2.562 255 255 255
-0.397 0.04 0.734 255 255 255
-0.012 -1.69 2.38 255 255 255
0.423 -0.014 1.773 255 255 255
0.266 -1.331 1.903 255 255 255
-0.692 -0.056 0.993 255 255 255
-0.839 -1.08 2.236 255 255 255
0.254 -0.835 1.776 255 255 255
0.403 -0.839 1.685 0 0 0
0.657 -0.039 1.139 255 255 255
0.682 -0.464 1.92 255 255 255
-0.469 -1.444 2.277 255 255 255
-0.639 -1.524 2.171 255 255 255
0.437 -0.672 1.681 255 255 255
0.418 -0.096 1.768 255 255 255
0.418 0.45 1.866 255 255 255
0.109 -0.476 1.862 255 255 255
0.555 -0.037 1.399 255 255 255
0.166 -0.599 1.832 255 255 255
-0.47 0.673 1.348 255 255 255
-0.845 -1.141 2.218 255 255 255
-0.365 0.091 2.804 255 255 255
-0.548 -0.036 0.98 255 255 255
-0.222 0.66 1.421 255 255 255
-0.32 0.093 0.714 255 255 255
-0.708 -1.001 2.318 255 255 255
-0.085 -0.473 2.197 255 255 255
0.167 -0.487 1.871 255 255 255
-0.851 -0.172 1.35 255 255 255
0.452 0.631 1.635 255 255 255
0.532 -0.796 1.65 255 255 255
0.059 -0.418 1.852 255 255 255
0.68 -0.126 0.963 0 0 0
-0.276 0.666 1.389 255 255 255
0.61 0.091 1.283 255 255 255
0.262 -0.493 1.887 255 255 255
-0.624 -0.8 2.415 255 255 255
-0.516 -1.372 2.277 255 255 255
-0.34 0.574 1.674 255 255 255
0.597 -0.057 1.29 255 255 255
0.553 0.429 1.516 255 255 255
-0.797 -0.985 2.285 255 255 255
-0.941 -0.685 2.319 255 255 255
-0.887 -0.025 2.555 255 255 255
-0.745 -1.082 2.275 255 255 255
0.358 -0.124 1.938 255 255 255
-0.192 -0.967 2.341 255 255 255
0.032 0.51 1.992 255 255 255
0.437 -0.695 1.678 255 255 255
-0.624 -1.479 2.194 255 255 255
0.052 -0.447 1.845 255 255 255
0.643 0.164 1.212 255 255 255
0.571 -0.039 1.361 255 255 255
0.217 -0.371 1.921 255 255 255
-0.632 0.236 2.254 255 255 255
0.43 -0.188 1.721 255 255 255
-0.674 -1.024 2.325 255 255 255
0.566 0.529 1.503 255 255 255
0.65 -0.255 1.311 255 255 255
0.436 -0.173 1.703 255 255 255
0.391 -0.163 1.844 255 255 255
0.644 0.372 1.259 255 255 255
0.219 -0.896 1.751 255 255 255
-0.116 0.598 1.635 255 255 255
-0.567 -1.545 2.195 255 255 255
0.373 -1.195 1.671 255 255 255
0.081 0.107 2.052 255 255 255
0.021 -0.661 1.751 255 255 255
-0.968 -1.074 2.188 255 255 255
-0.402 0.024 0.925 255 255 255
0.28 -1.305 1.88 255 255 255
0.609 0.501 1.385 255 255 255
0.129 0.904 2.113 255 255 255
-0.329 -0.57 2.61 255 255 255
0.315 -0.391 1.994 255 255 255
-0.945 -0.417 1.758 255 255 255
-0.65 -0.734 2.425 255 255 255
-0.069 0.488 1.887 255 255 255
-0.443 0.46 2.034 255 255 255
-0.602 -0.909 2.386 255 255 255
0.369 -0.034 1.935 255 255 255
-0.453 -0.198 2.681 255 255 255
0.444 -0.256 1.671 255 255 255
-1.263 -0.273 1.701 255 255 255
-0.783 -1.428 2.152 255 255 255
-0.222 0.309 2.164 255 255 255
0.577 0.035 1.353 255 255 255
-0.009 0.291 2.074 255 255 255
0.605 0.111 1.299 255 255 255
-0.782 -0.805 2.35 255 255 255
0.595 -0.114 1.282 255 255 255
-0.604 -0.535 2.511 255 255 255
-0.982 -1.142 2.159 255 255 255
-0.968 -1.338 2.108 255 255 255
-0.442 -0.004 1.006 255 255 255
-0.967 -1.248 2.141 255 255 255
0.188 -0.905 1.737 0 0 0
-0.827 -0.108 1.082 255 255 255
0.183 0.569 1.819 255 255 255
-0.818 -0.896 2.306 255 255 255
-0.914 -0.377 1.747 255 255 255
-0.156 0.099 0.332 255 255 255
0.185 0.924 2.144 255 255 255
0.617 -0.134 1.225 255 255 255
0.471 -0.026 1.625 255 255 255
0.105 0.258 2.112 255 255 255
-0.055 -1.2 2.312 255 255 255
0.665 -0.526 1.87 255 255 255
-0.479 0.433 2.045 255 255 255
-1.233 -0.759 2.034 255 255 255
-0.229 0.259 0.588 0 0 0
-0.256 0.124 2.671 255 255 255
-0.663 -1.118 2.295 255 255 255
-0.148 0.084 0.318 255 255 255
0.415 0.332 1.888 255 255 255
-0.332 -1.258 2.385 255 255 255
-0.718 -0.078 2.609 255 255 255
-0.329 0.608 1.572 255 255 255
0.334 0.369 2.068 255 255 255
0.585 0.168 1.363 255 255 255
-0.801 -1.364 2.166 255 255 255
0.557 0.027 1.406 255 255 255
-0.067 -0.463 2.191 255 255 255
-1.03 -0.791 2.242 0 0 0
0.406 -0.003 1.829 255 255 255
0.629 0.21 1.255 255 255 255
0.399 0.318 1.929 255 255 255
0.418 0.339 1.882 255 255 255
0.516 0.429 1.62 255 255 255
0.547 -1.083 1.566 255 255 255
0.335 -0.776 1.863 0 0 0
-0.698 0.371 2.266 255 255 255
-0.413 -0.304 2.661 255 255 255
-0.488 0.026 0.774 255 255 255
0.406 -0.634 1.72 0 0 0
-0.797 -0.358 2.487 255 255 255
0.565 0.112 1.398 255 255 255
0.204 0.118 2.093 255 255 255
-0.902 -1.531 2.07 0 0 0
-0.355 0.704 1.275 255 255 255
-0.879 -1.17 2.197 255 255 255
0.429 -1.179 1.526 255 255 255
-0.832 -1.477 2.115 255 255 255
0.262 0.595 1.756 255 255 255
0.203 0.191 2.119 255 255 255
0.01 -0.834 1.688 255 255 255
0.513 -0.45 1.761 255 255 255
0.472 -1.044 1.573 255 255 255
-0.365 0.057 0.732 0 0 0
-0.694 -0.461 2.495 255 255 255
-0.677 -0.321 2.547 255 255 255
-0.388 -1.257 2.366 255 255 255
-0.642 -0.171 1.448 255 255 255
0.689 -0.038 1.062 255 255 255
-0.864 -0.445 2.43 255 255 255
0.541 -1.031 1.581 255 255 255
-0.792 -1.148 2.233 255 255 255
-0.797 -0.094 1.07 255 255 255
0.439 -0.572 1.716 255 255 255
0.489 0.254 1.637 255 255 255
-0.876 -0.142 1.274 255 255 255
-0.561 -0.381 2.576 255 255 255
0.553 -0.095 1.393 255 255 255
0.191 -0.728 1.79 255 255 255
0.23 -0.468 1.889 255 255 255
0.379 -0.653 1.79 255 255 255
0.463 0.374 1.756 255 255 255
-0.836 -0.352 2.471 255 255 255
-0.666 -0.846 2.383 255 255 255
-0.311 0.354 2.108 255 255 255
0.345 -0.93 1.805 255 255 255
0.317 -0.02 2.059 255 255 255
0.708 0.012 1.022 255 255 255
-0.222 -1.135 2.29 255 255 255
0.46 0.502 1.77 255 255 255
0.376 0.519 1.971 255 255 255
0.574 -0.211 1.198 0 0 0
-0.722 0.171 2.599 255 255 255
-0.674 -1.29 2.236 255 255 255
-0.648 -1.574 2.164 0 0 0
-0.688 -1.483 2.169 255 255 255
-0.722 -0.146 2.581 255 255 255
-0.849 -0.306 1.614 0 0 0
0.533 0.162 1.493 255 255 255
-1.133 -0.752 2.08 255 255 255
-0.593 -0.733 2.451 255 255 255
0.745 -0.216 1.099 255 255 255
0.392 -0.632 1.762 0 0 0
0.143 -0.247 1.94 255 255 255
0.54 -0.236 1.28 0 0 0
0.028 0.502 2.028 255 255 255
-0.231 0.335 2.16 255 255 255
0.095 -0.267 1.913 255 255 255
0.22 0.585 1.778 255 255 255
0.239 -0.405 1.909 255 255 255
0.441 -0.048 1.712 255 255 255
-0.783 -0.433 2.468 255 255 255
-0.229 0.649 1.45 0 0 0
0.276 -0.689 1.833 255 255 255
0.637 -0.281 1.366 255 255 255
-0.23 0.196 0.564 255 255 255
0.004 0.486 2.049 255 255 255
-0.163 0.068 0.315 255 255 255
-0.012 -0.053 1.947 255 255 255
0.431 0.406 1.861 255 255 255
0.428 0.076 1.776 255 255 255
-0.396 -0.504 2.6 255 255 255
0.529 -0.221 1.432 255 255 255
-1.091 -0.942 2.178 255 255 255
0.211 0.669 1.457 255 255 255
0.514 0.609 1.625 255 255 255
-0.546 -0.008 0.923 255 255 255
-0.953 -1.552 2.048 255 255 255
-0.772 -0.161 2.562 255 255 255
-0.585 -0.083 1.133 255 255 255
-0.789 -0.59 2.415 255 255 255
-0.207 0.503 1.804 255 255 255
0.204 -0.608 1.832 255 255 255
-0.822 -1.322 2.163 255 255 255
-0.024 0.036 1.97 255 255 255
-0.222 0.463 1.911 255 255 255
-0.266 0.144 0.632 255 255 255
-0.437 -1.661 2.214 0 0 0
0.392 -0.029 1.872 255 255 255
-0.593 0.017 2.668 255 255 255
0.025 -0.509 1.812 255 255 255
0.353 0.206 2.04 255 255 255
-1.041 -0.812 2.238 255 255 255
0.622 0.344 1.307 255 255 255
0.552 -0.156 1.388 255 255 255
0.448 -0.735 1.666 255 255 255
-0.59 -0.801 2.424 255 255 255
0.455 0.501 1.781 255 255 255
-0.061 0.511 1.87 255 255 255
0.086 -0.387 1.866 255 255 255
0.645 0.097 1.192 255 255 255
0.043 -0.826 1.714 255 255 255
-0.011 -0.67 1.752 0 0 0
0.204 0.398 2.029 255 255 255
-0.576 -0.242 2.61 255 255 255
0.068 -0.284 1.9 255 255 255
-0.516 0.516 1.843 255 255 255
-0.235 -1.703 2.29 0 0 0
-0.221 -0.245 2.565 255 255 255
-0.582 0.081 2.619 255 255 255
0.593 -0.155 1.283 255 255 255
-0.467 -0.019 1.002 255 255 255
-0.542 -1.474 2.231 255 255 255
0.624 0.089 1.248 255 255 255
-0.154 0.077 0.332 0 0 0
-0.193 0.049 0.315 255 255 255
-0.092 -1.638 2.365 255 255 255
0.385 -1.004 1.69 255 255 255
0.442 0.314 1.803 255 255 255
-0.572 -0.153 2.642 255 255 255
-0.69 -1.524 2.161 255 255 255
-0.095 0.506 1.851 255 255 255
-0.523 0.017 0.808 255 255 255
0.568 0.533 1.496 255 255 255
0.224 -0.115 2.004 255 255 255
-0.852 -0.267 1.591 0 0 0
-0.103 -1.751 2.322 255 255 255
-0.175 -0.889 2.321 255 255 255
-0.38 0.034 0.847 0 0 0
-0.15 0.078 0.331 0 0 0
0.389 0.538 1.927 255 255 255
0.321 0.483 1.966 255 255 255
0.014 -0.726 1.722 255 255 255
-0.063 -0.574 2.178 255 255 255
-0.608 -0.124 1.262 255 255 255
-0.586 -0.778 2.438 255 255 255
0.662 -0.134 1.08 255 255 255
-0.103 -0.204 2.34 255 255 255
-0.826 -1.212 2.201 255 255 255
-0.973 -1.025 2.202 255 255 255
-0.527 -0.029 0.952 255 255 255
-0.307 0.103 0.68 255 255 255
-0.314 0.103 0.819 255 255 255
0.686 0.056 1.084 255 255 255
-0.616 -0.031 0.948 255 255 255
-0.058 -0.622 2.167 255 255 255
-0.255 0.511 1.773 255 255 255
0.542 -0.232 1.363 0 0 0
0.654 -0.057 1.148 255 255 255
-0.285 -0.546 2.603 255 255 255
-0.244 0.701 1.293 255 255 255
0.393 0.231 1.928 255 255 255
-0.013 0.109 2.01 255 255 255
-0.126 0.629 1.528 255 255 255
0.522 0.324 1.566 255 255 255
-0.743 -0.146 2.579 255 255 255
-0.37 -0.547 2.599 255 255 255
-0.723 -0.455 2.484 255 255 255
0.578 0.293 1.404 255 255 255
-0.273 0.673 1.369 255 255 255
-0.801 -0.036 2.588 255 255 255
-0.473 -0.872 2.457 255 255 255
-0.858 -0.675 2.361 255 255 255
-0.061 0.635 1.509 255 255 255
-0.65 -1.535 2.145 255 255 255
0.447 0.223 1.755 255 255 255
0.456 -0.137 1.644 255 255 255
0.752 -0.292 1.064 255 255 255
0.181 -0.972 1.728 255 255 255
0.38 -1.042 1.691 255 255 255
-0.334 -0.015 2.779 255 255 255
0.021 -0.753 1.718 255 255 255
-0.102 0.421 2.003 255 255 255
-1.073 -0.683 2.119 255 255 255
0.746 -0.222 1.09 255 255 255
-1.339 -0.53 2.083 255 255 255
-0.271 0.65 1.438 0 0 0
-0.867 -0.327 2.469 255 255 255
0.467 0.173 1.681 255 255 255
-0.16 -0.798 2.271 255 255 255
-0.383 0.033 0.849 0 0 0
-0.532 0.484 1.94 255 255 255
0.631 0.27 1.264 255 255 255
-1.104 -0.273 1.708 0 0 0
0.335 0.56 1.868 255 255 255
-0.488 -1.446 2.267 255 255 255
0.38 -0.768 1.765 255 255 255
-0.414 0.589 1.619 255 255 255
-0.581 0.044 2.637 255 255 255
-0.337 0.549 1.763 255 255 255
0.29 -1.202 1.831 255 255 255
0.018 -0.636 1.758 255 255 255
0.564 0.29 1.445 255 255 255
0.211 0.708 1.349 255 255 255
-0.552 -0.093 1.229 255 255 255
-1.224 -1.085 2.076 255 255 255
-0.45 0.048 0.674 255 255 255
-1.291 -0.763 2.005 255 255 255
0.074 -0.702 1.771 255 255 255
0.503 -0.381 1.722 0 0 0
0.341 -0.282 1.944 255 255 255
0.575 0.592 1.472 255 255 255
0.474 -1.006 1.584 255 255 255
0.591 0.395 1.388 255 255 255
0.528 -0.174 1.443 255 255 255
-0.125 -0.403 2.208 255 255 255
-0.87 -1.28 2.162 255 255 255
-0.5 -1.059 2.382 255 255 255
-0.242 -1.401 2.378 255 255 255
0.661 -0.064 1.124 255 255 255
-0.321 -0.421 2.656 255 255 255
-0.442 -1.234 2.35 255 255 255
0.015 0.537 1.877 255 255 255
0.471 0.058 1.639 255 255 255
-0.363 -0.274 2.694 255 255 255
0.448 -0.827 1.635 255 255 255
-0.243 0.679 1.35 255 255 255
-0.376 0.044 0.893 255 255 255
-0.257 0.144 0.674 255 255 255
-0.286 0.116 0.724 255 255 255
0.402 -0.609 1.741 0 0 0
-0.057 -0.103 2.184 255 255 255
-0.61 -0.105 1.198 255 255 255
-0.613 -0.014 0.919 255 255 255
0.105 0.267 2.115 255 255 255
0.257 -0.085 2.045 255 255 255
0.529 0.272 1.529 255 255 255
-0.516 -0.932 2.417 255 255 255
-0.935 -0.435 1.789 255 255 255
-0.598 -0.082 1.125 255 255 255
0.076 0.305 2.113 255 255 255
0.663 -0.012 1.133 255 255 255
0.751 -0.447 1.941 255 255 255
0.109 -0.446 1.87 255 255 255
-0.905 -0.848 2.288 255 255 255
0.214 0.483 1.775 255 255 255
