ply
format ascii 1.0
comment Created by Open3D
element vertex 1603
property double x
property double y
property double z
property uchar red
property uchar green
property uchar blue
end_header
-0.062 0.126 0.338 255 255 255
0.179 -0.238 0.563 255 255 255
0.073 -0.115 0.729 255 255 255
-0.193 -0.181 0.562 255 255 255
0.167 -0.339 0.517 255 255 255
-0.032 0.066 0.427 255 255 255
0.042 -0.29 0.524 255 255 255
-0.087 0.064 0.409 255 255 255
0.033 -0.124 0.563 0 0 0
0.393 -0.049 0.727 255 255 255
-0.004 0.082 0.41 255 255 255
-0.001 0.127 0.345 255 255 255
-0.078 -0.136 0.675 255 255 255
0.351 -0.125 0.922 0 0 0
-0.077 0.104 0.349 255 255 255
0.173 0.114 0.407 255 255 255
-0.42 0.497 1.012 255 255 255
-0.356 -0.058 0.475 255 255 255
0.378 0.585 1.128 255 255 255
-0.254 0.01 0.43 255 255 255
-0.021 0.119 0.35 255 255 255
-0.023 0.053 0.449 255 255 255
0.055 -0.275 0.531 0 0 0
-0.125 0.112 0.329 255 255 255
-0.183 0.067 0.373 255 255 255
-0.109 -0.374 0.491 255 255 255
0.395 -0.408 0.798 255 255 255
0.15 -0.241 0.559 0 0 0
-0.207 -0.242 0.54 255 255 255
0.241 0.08 0.478 255 255 255
0.119 0.042 0.497 255 255 255
-0.092 0.002 0.469 255 255 255
-0.192 -0.002 0.471 0 0 0
-0.037 0.186 0.421 255 255 255
0.173 -0.377 0.507 0 0 0
-0.193 0.001 0.467 255 255 255
0.197 -0.319 0.527 255 255 255
0.409 -0.204 0.765 255 255 255
0.034 -0.138 0.583 0 0 0
0.054 -0.025 0.524 255 255 255
-0.173 0.031 0.426 255 255 255
-0.196 0.074 0.353 255 255 255
-0.14 -0.34 0.501 255 255 255
-0.275 -0.175 0.536 0 0 0
0.181 -0.12 0.6 0 0 0
0.318 -0.008 0.637 255 255 255
-0.046 -0.006 0.48 255 255 255
-0.134 -0.198 0.553 255 255 255
-0.053 0.068 0.416 255 255 255
0.147 -0.139 0.6 255 255 255
-0.073 -0.238 0.525 255 255 255
0.462 -0.386 0.809 255 255 255
-0.091 -0.184 0.554 255 255 255
0.107 0.122 0.386 255 255 255
-0.137 -0.146 0.656 0 0 0
-0.139 0.042 0.428 255 255 255
-0.281 0.52 1.031 255 255 255
-0.003 -0.051 0.551 255 255 255
0.103 -0.163 0.589 0 0 0
0.049 0.087 0.416 255 255 255
-0.197 -0.125 0.569 255 255 255
0.017 -0.165 0.574 0 0 0
0.055 0.084 0.426 255 255 255
0.052 -0.32 0.516 255 255 255
-0.113 0.112 0.331 255 255 255
-0.014 0.023 0.467 255 255 255
-0.227 0.006 0.448 255 255 255
0.063 0.14 0.35 255 255 255
0.004 -0.13 0.707 255 255 255
-0.3 -0.037 0.477 255 255 255
0.166 0.033 0.525 255 255 255
-0.358 0.543 0.971 255 255 255
-0.095 -0.073 0.536 255 255 255
-0.13 0.513 1.085 255 255 255
-0.056 -0.118 0.648 255 255 255
0.152 -0.147 0.598 255 255 255
-0.078 0.039 0.452 255 255 255
0.092 -0.217 0.564 255 255 255
0.115 -0.041 0.617 255 255 255
-0.038 -0.365 0.491 0 0 0
0.081 0.094 0.406 255 255 255
-0.085 0.018 0.471 255 255 255
-0.205 -0.156 0.658 255 255 255
-0.008 -0.317 0.511 0 0 0
-0.212 0.003 0.456 255 255 255
0.175 -0.145 0.599 255 255 255
-0.183 -0.338 0.5 255 255 255
0.158 -0.362 0.512 255 255 255
0.411 -0.247 0.899 255 255 255
0.011 0.049 0.462 255 255 255
0.167 0.049 0.501 255 255 255
-0.026 0.107 0.361 255 255 255
-0.113 -0.008 0.471 255 255 255
-0.176 0.043 0.409 255 255 255
-0.008 0.106 0.368 255 255 255
0.122 -0.298 0.53 255 255 255
0.09 0.055 0.468 255 255 255
-0.041 -0.348 0.498 255 255 255
0.032 0.049 0.467 255 255 255
-0.08 0.068 0.405 255 255 255
-0.087 0.102 0.354 255 255 255
-0.132 -0.018 0.484 255 255 255
-0.178 -0.339 0.499 0 0 0
-0.21 0.025 0.424 255 255 255
0.146 -0.19 0.581 0 0 0
0.107 -0.196 0.573 255 255 255
0.067 0.146 0.35 255 255 255
0.134 0.011 0.547 255 255 255
0.007 0.179 0.396 0 0 0
0.305 -0.081 0.745 255 255 255
-0.239 -0.146 0.586 255 255 255
-0.043 0.094 0.373 255 255 255
0.383 -0.258 0.894 255 255 255
-0.001 -0.152 0.575 255 255 255
0.242 -0.006 0.608 255 255 255
-0.278 -0.019 0.466 255 255 255
-0.042 -0.112 0.635 255 255 255
-0.023 0.555 1.066 255 255 255
-0.12 0.046 0.427 255 255 255
0.063 -0.151 0.588 255 255 255
-0.364 -0.054 0.476 0 0 0
-0.059 -0.156 0.564 0 0 0
-0.053 0.114 0.343 255 255 255
0.184 -0.125 0.571 0 0 0
0.057 -0.294 0.525 255 255 255
0.401 -0.395 0.806 255 255 255
0.045 -0.116 0.572 255 255 255
0.007 0.111 0.362 255 255 255
-0.032 0.555 1.061 255 255 255
-0.22 -0.161 0.535 0 0 0
-0.129 0.013 0.467 0 0 0
-0.181 -0.182 0.562 255 255 255
-0.173 -0.009 0.473 255 255 255
-0.157 0.087 0.346 255 255 255
-0.137 -0.374 0.492 255 255 255
-0.141 0.051 0.413 255 255 255
0.14 0.126 0.392 255 255 255
-0.188 0.084 0.345 255 255 255
0.094 0.035 0.499 255 255 255
-0.12 -0.134 0.661 255 255 255
-0.165 -0.368 0.489 0 0 0
-0.295 0.006 0.42 255 255 255
0.019 -0.273 0.524 255 255 255
0.181 0.096 0.434 255 255 255
-0.194 0.045 0.4 255 255 255
0.104 0.122 0.383 255 255 255
0.11 0.141 0.358 255 255 255
0.075 0.082 0.431 255 255 255
-0.304 -0.007 0.438 255 255 255
0.067 0.193 0.409 255 255 255
0.357 -0.088 0.78 0 0 0
0.057 -0.116 0.57 255 255 255
0.163 0.066 0.474 255 255 255
-0.234 -0.271 0.526 0 0 0
-0.189 -0.223 0.549 255 255 255
0.173 -0.001 0.579 255 255 255
0.086 -0.35 0.508 255 255 255
0.066 -0.36 0.506 255 255 255
-0.122 0.083 0.364 255 255 255
-0.042 0.133 0.342 255 255 255
0.206 -0.395 0.5 255 255 255
0.254 0.092 0.465 255 255 255
0.386 -0.215 0.76 255 255 255
0.626 -0.082 0.87 0 0 0
-0.105 -0.154 0.559 0 0 0
-0.05 0.109 0.348 255 255 255
0.112 -0.261 0.546 0 0 0
0.09 0.041 0.489 255 255 255
-0.031 -0.32 0.507 255 255 255
0.13 -0.269 0.543 255 255 255
0.345 -0.243 0.903 255 255 255
-0.163 0.011 0.463 255 255 255
-0.019 -0.341 0.501 0 0 0
0.109 -0.149 0.592 255 255 255
-0.143 -0.172 0.566 255 255 255
-0.365 -0.184 0.569 0 0 0
-0.127 -0.106 0.559 255 255 255
0.219 0.569 1.09 255 255 255
0.08 -0.368 0.501 0 0 0
0.081 0.146 0.352 255 255 255
-0.364 0.503 1.026 255 255 255
-0.178 -0.262 0.53 255 255 255
-0.049 -0.023 0.499 255 255 255
0.028 0.086 0.408 255 255 255
-0.087 0.027 0.464 255 255 255
-0.044 0.091 0.377 255 255 255
0.252 0.049 0.529 255 255 255
0.334 0.067 0.528 255 255 255
0.654 -0.211 0.92 255 255 255
0.17 -0.213 0.573 255 255 255
-0.258 -0.017 0.466 0 0 0
-0.191 -0.331 0.502 255 255 255
0.111 0.115 0.396 0 0 0
-0.022 -0.341 0.503 0 0 0
0.158 -0.327 0.524 255 255 255
-0.009 -0.178 0.557 255 255 255
0.011 0.13 0.344 255 255 255
0.098 -0.318 0.525 255 255 255
0.113 0.131 0.376 255 255 255
0.403 -0.324 0.851 255 255 255
0.225 0.091 0.457 255 255 255
0.511 -0.235 0.783 255 255 255
0.375 -0.178 0.83 255 255 255
-0.195 0.001 0.466 255 255 255
-0.25 0.043 0.381 255 255 255
0.513 -0.175 0.842 255 255 255
-0.248 -0.204 0.554 255 255 255
-0.034 -0.318 0.507 255 255 255
0.045 0.166 0.386 255 255 255
-0.098 -0.172 0.561 255 255 255
-0.076 0.067 0.41 255 255 255
0.172 0.129 0.396 255 255 255
-0.239 -0.338 0.5 255 255 255
-0.209 -0.26 0.533 255 255 255
0.383 -0.42 0.788 255 255 255
0.664 -0.218 0.917 255 255 255
0.175 -0.197 0.579 255 255 255
-0.244 0.016 0.426 255 255 255
-0.158 -0.253 0.533 255 255 255
-0.096 0.084 0.375 255 255 255
-0.134 -0.259 0.529 255 255 255
0.161 -0.038 0.629 255 255 255
0.015 0.082 0.42 255 255 255
-0.176 -0.247 0.537 255 255 255
0.056 0.067 0.451 255 255 255
0.379 -0.364 0.827 255 255 255
0.14 -0.199 0.576 255 255 255
0.047 0.105 0.391 255 255 255
0.301 0.03 0.573 0 0 0
0.164 0.041 0.512 255 255 255
0.193 0.072 0.475 255 255 255
-0.147 0.149 0.374 255 255 255
0.131 0.055 0.481 255 255 255
-0.092 -0.097 0.563 255 255 255
-0.237 -0.04 0.481 255 255 255
0.337 -0.214 0.919 255 255 255
-0.102 -0.143 0.677 255 255 255
-0.035 0.076 0.408 255 255 255
-0.187 0.084 0.346 255 255 255
-0.14 -0.305 0.515 255 255 255
0.157 -0.06 0.661 255 255 255
-0.122 -0.138 0.552 255 255 255
-0.005 0 0.48 255 255 255
-0.255 -0.272 0.526 255 255 255
0.182 -0.279 0.543 255 255 255
0.114 0.077 0.441 255 255 255
-0.044 0.02 0.464 255 255 255
-0.104 0.063 0.405 255 255 255
-0.029 -0.349 0.499 255 255 255
-0.158 0.055 0.399 255 255 255
0.067 0.559 1.083 255 255 255
-0.387 -0.137 0.575 0 0 0
-0.192 -0.231 0.544 0 0 0
0.045 0.097 0.4 255 255 255
0.134 -0.367 0.506 0 0 0
-0.023 -0.165 0.562 0 0 0
0.429 -0.395 0.807 255 255 255
0.177 0.125 0.402 255 255 255
0.138 0.09 0.431 255 255 255
-0.038 0.102 0.365 255 255 255
-0.176 0.024 0.439 255 255 255
-0.194 -0.156 0.537 0 0 0
0.161 0.1 0.422 255 255 255
-0.181 -0.23 0.544 255 255 255
0.085 -0.158 0.589 0 0 0
-0.225 0.053 0.376 255 255 255
-0.037 -0.125 0.672 255 255 255
0.033 0.109 0.379 255 255 255
-0.066 -0.25 0.521 0 0 0
-0.127 -0.296 0.516 255 255 255
-0.116 0.055 0.414 255 255 255
0.104 0.091 0.417 255 255 255
0.516 -0.14 0.883 255 255 255
-0.214 -0.125 0.559 255 255 255
-0.315 -0.194 0.55 255 255 255
0.109 0.131 0.376 255 255 255
-0.052 -0.031 0.523 255 255 255
0.127 -0.106 0.578 255 255 255
0.029 0.077 0.432 255 255 255
0.13 0.146 0.362 255 255 255
0.179 -0.083 0.703 255 255 255
-0.16 -0.214 0.549 255 255 255
0.179 0.007 0.564 255 255 255
-0.054 0.082 0.391 255 255 255
-0.172 -0.268 0.528 255 255 255
0.031 0.115 0.369 255 255 255
0.385 -0.239 0.907 255 255 255
0.244 0.062 0.504 255 255 255
-0.098 -0.012 0.484 255 255 255
0.254 0.589 1.102 255 255 255
-0.155 -0.115 0.565 255 255 255
0.022 0.092 0.4 255 255 255
0.129 0.576 1.085 255 255 255
-0.149 0.115 0.327 0 0 0
0.43 -0.261 0.737 255 255 255
0.18 0.104 0.423 255 255 255
-0.041 -0.03 0.517 255 255 255
-0.23 0.002 0.453 255 255 255
0.05 0.082 0.425 255 255 255
0.061 0.129 0.359 255 255 255
-0.262 -0.185 0.559 255 255 255
0.374 -0.371 0.822 255 255 255
0.089 0.192 0.407 0 0 0
-0.039 0.095 0.375 255 255 255
-0.044 -0.161 0.563 255 255 255
-0.107 -0.292 0.516 255 255 255
-0.372 -0.168 0.606 255 255 255
0.122 0.098 0.413 255 255 255
-0.163 -0.296 0.519 255 255 255
-0.223 -0.02 0.473 255 255 255
0.101 -0.249 0.553 0 0 0
0.085 -0.352 0.509 255 255 255
-0.031 -0.139 0.659 255 255 255
-0.031 -0.153 0.57 255 255 255
-0.083 -0.237 0.528 255 255 255
-0.28 -0.005 0.444 255 255 255
0.078 0.087 0.414 255 255 255
0.04 -0.207 0.557 255 255 255
0.38 -0.017 0.674 255 255 255
-0.225 0.049 0.384 255 255 255
-0.087 0.091 0.365 255 255 255
0.218 -0.397 0.5 255 255 255
0.217 -0.293 0.534 0 0 0
-0.049 0.082 0.392 255 255 255
0.201 -0.285 0.544 255 255 255
-0.022 -0.37 0.492 0 0 0
0.284 0.026 0.573 255 255 255
-0.223 -0.255 0.534 255 255 255
-0.113 -0.194 0.552 255 255 255
0.351 0.584 1.126 255 255 255
-0.251 -0.199 0.555 255 255 255
0.245 0.585 1.107 255 255 255
-0.31 -0.175 0.539 0 0 0
-0.23 -0.311 0.512 255 255 255
0.119 0.157 0.36 255 255 255
0.104 0.1 0.405 255 255 255
-0.053 0.089 0.377 255 255 255
-0.019 -0.275 0.516 0 0 0
0.127 0.013 0.541 255 255 255
-0.062 -0.176 0.555 255 255 255
-0.174 -0.294 0.519 255 255 255
0.346 0.047 0.563 255 255 255
-0.297 -0.241 0.537 255 255 255
0.148 0.121 0.4 0 0 0
-0.32 -0.023 0.457 255 255 255
0.2 -0.229 0.566 255 255 255
-0.197 -0.316 0.511 255 255 255
0.227 -0.074 0.707 255 255 255
0.053 -0.339 0.51 255 255 255
0.075 0.095 0.413 255 255 255
-0.156 -0.286 0.521 255 255 255
0.255 0.068 0.5 255 255 255
-0.021 -0.109 0.643 255 255 255
0.012 0.002 0.486 255 255 255
0.265 0.099 0.459 255 255 255
0.386 -0.059 0.738 255 255 255
0.08 -0.37 0.499 0 0 0
-0.124 0.016 0.466 255 255 255
0.378 -0.444 0.773 255 255 255
0.004 -0.068 0.568 255 255 255
0.181 0.109 0.417 255 255 255
-0.05 -0.153 0.567 255 255 255
-0.162 0.106 0.327 255 255 255
0.05 -0.15 0.585 255 255 255
0.086 0.015 0.531 255 255 255
-0.173 -0.361 0.491 0 0 0
-0.082 0.035 0.458 255 255 255
-0.08 0.102 0.352 255 255 255
-0.032 -0.145 0.567 255 255 255
0.379 -0.209 0.923 255 255 255
0.064 0.043 0.481 255 255 255
-0.032 0.109 0.359 255 255 255
-0.092 0.036 0.451 255 255 255
-0.031 0.075 0.411 255 255 255
0.088 0.057 0.464 255 255 255
-0.057 -0.203 0.535 255 255 255
-0.355 -0.195 0.651 255 255 255
0.096 0.033 0.504 255 255 255
0.023 0.16 0.379 255 255 255
-0.173 0.085 0.345 255 255 255
-0.131 0.105 0.328 255 255 255
-0.313 0.545 0.985 255 255 255
0.032 -0.079 0.576 255 255 255
-0.262 -0.249 0.535 255 255 255
0.012 0.115 0.364 255 255 255
-0.135 -0.357 0.495 255 255 255
0.063 -0.099 0.68 255 255 255
0.375 -0.375 0.82 255 255 255
0.17 -0.244 0.556 255 255 255
0.101 0.563 1.089 255 255 255
0.051 -0.047 0.555 255 255 255
-0.07 0.103 0.354 255 255 255
-0.175 0.081 0.351 255 255 255
-0.027 0.022 0.465 255 255 255
-0.203 0.06 0.375 255 255 255
-0.246 -0.161 0.637 255 255 255
0.22 -0.073 0.703 255 255 255
-0.126 -0.052 0.504 255 255 255
0.038 0.073 0.431 255 255 255
-0.223 -0.227 0.545 255 255 255
0.089 0.03 0.505 255 255 255
-0.032 -0.258 0.519 255 255 255
0.532 -0.242 0.785 255 255 255
0.027 0.177 0.395 0 0 0
0.12 0.042 0.497 255 255 255
-0.162 -0.332 0.504 0 0 0
0.222 0.092 0.455 255 255 255
-0.011 -0.296 0.515 255 255 255
0.192 -0.163 0.588 0 0 0
-0.156 -0.283 0.52 255 255 255
0.062 -0.156 0.586 0 0 0
0.053 -0.227 0.548 255 255 255
0.124 0.149 0.356 255 255 255
0.162 0.15 0.366 255 255 255
-0.072 -0.138 0.553 0 0 0
-0.109 -0.217 0.541 255 255 255
0.473 -0.283 0.741 255 255 255
-0.2 -0.014 0.473 255 255 255
-0.084 0.052 0.431 255 255 255
0.008 0.003 0.481 255 255 255
0.122 -0.248 0.555 0 0 0
-0.247 -0.008 0.458 255 255 255
0.082 -0.209 0.564 255 255 255
0.418 -0.152 0.771 255 255 255
0.429 -0.272 0.739 255 255 255
0.037 -0.183 0.567 255 255 255
-0.048 -0.314 0.508 255 255 255
0.099 0.135 0.359 255 255 255
0.075 0.147 0.352 255 255 255
-0.257 -0.161 0.534 0 0 0
-0.153 -0.286 0.521 255 255 255
0.028 -0.143 0.583 0 0 0
0.145 -0.284 0.542 255 255 255
-0.063 0.174 0.398 255 255 255
0.106 0.141 0.358 255 255 255
-0.254 -0.237 0.541 255 255 255
-0.036 -0.045 0.525 255 255 255
0.421 -0.287 0.829 0 0 0
-0.377 0.532 0.981 255 255 255
0.012 0.16 0.382 255 255 255
0.051 0.134 0.352 255 255 255
0.425 -0.371 0.82 255 255 255
0.076 -0.237 0.55 255 255 255
-0.112 0.114 0.331 255 255 255
0.003 0.024 0.469 255 255 255
-0.167 -0.004 0.474 255 255 255
-0.074 -0.356 0.496 255 255 255
0.037 0.062 0.454 255 255 255
0.258 0.033 0.558 255 255 255
-0.064 -0.008 0.482 255 255 255
-0.049 0.043 0.456 255 255 255
-0.019 -0.102 0.615 255 255 255
-0.276 0.51 1.044 255 255 255
-0.1 0.085 0.37 255 255 255
-0.159 0.12 0.337 255 255 255
0.428 -0.172 0.772 0 0 0
0.041 0.187 0.404 0 0 0
-0.139 -0.01 0.47 255 255 255
0.008 -0.185 0.557 255 255 255
0.226 -0.373 0.512 0 0 0
-0.053 -0.189 0.543 255 255 255
-0.253 -0.238 0.54 255 255 255
0.008 0.183 0.402 0 0 0
0.12 -0.191 0.577 255 255 255
-0.032 0.048 0.456 255 255 255
0.1 0.571 1.078 255 255 255
-0.104 -0.156 0.562 0 0 0
-0.098 -0.283 0.519 255 255 255
-0.091 -0.006 0.48 255 255 255
-0.137 -0.305 0.515 255 255 255
-0.133 0.022 0.459 255 255 255
-0.235 -0.308 0.511 255 255 255
0.036 0.077 0.425 255 255 255
0.042 0.074 0.435 255 255 255
-0.028 -0.195 0.541 255 255 255
-0.195 -0.026 0.474 255 255 255
0.064 0.089 0.42 255 255 255
-0.096 0.115 0.332 255 255 255
-0.182 0.547 1.026 255 255 255
-0.197 0.538 1.036 255 255 255
-0.119 0.002 0.469 255 255 255
0.161 0.022 0.54 255 255 255
0.122 0.129 0.379 255 255 255
0.285 -0.089 0.755 0 0 0
-0.059 0.028 0.469 255 255 255
-0.082 -0.242 0.526 0 0 0
-0.062 -0.074 0.568 255 255 255
-0.359 -0.182 0.553 0 0 0
-0.176 0 0.47 255 255 255
0.092 -0.312 0.526 255 255 255
0.087 -0.33 0.516 0 0 0
-0.067 -0.001 0.481 255 255 255
0.002 0.126 0.342 255 255 255
0.174 -0.297 0.537 0 0 0
-0.035 0.166 0.405 255 255 255
0.181 0.129 0.4 255 255 255
0.357 -0.247 0.9 255 255 255
0.198 -0.2 0.543 0 0 0
-0.229 -0.24 0.542 255 255 255
0.132 0.084 0.438 255 255 255
-0.098 -0.214 0.54 255 255 255
0.172 -0.049 0.65 255 255 255
0.149 -0.277 0.545 255 255 255
-0.047 -0.246 0.52 255 255 255
0.273 0.036 0.554 255 255 255
-0.071 -0.336 0.502 0 0 0
-0.022 0.054 0.449 255 255 255
0.067 -0.369 0.501 0 0 0
0.091 -0.01 0.566 255 255 255
-0.445 0.475 1.038 255 255 255
0.067 0.078 0.439 255 255 255
0.285 0.017 0.589 255 255 255
-0.349 -0.18 0.545 0 0 0
0.08 0.193 0.41 255 255 255
0.087 0.111 0.394 0 0 0
0.047 0.025 0.479 255 255 255
-0.276 -0.171 0.661 255 255 255
0.087 0.123 0.381 255 255 255
-0.263 -0.231 0.54 255 255 255
0.151 0.04 0.509 255 255 255
-0.232 -0.188 0.56 0 0 0
-0.154 0.054 0.399 255 255 255
-0.317 0.498 1.049 255 255 255
0.156 0.103 0.417 255 255 255
-0.06 0.105 0.356 255 255 255
-0.048 -0.174 0.554 0 0 0
0.33 0.587 1.125 255 255 255
0.057 -0.171 0.578 255 255 255
0.076 -0.239 0.55 255 255 255
0.494 -0.001 0.695 255 255 255
0.262 -0.005 0.614 255 255 255
0.147 -0.144 0.598 255 255 255
-0.161 0.054 0.397 255 255 255
0.099 0.004 0.549 255 255 255
0.33 0.059 0.541 0 0 0
-0.201 -0.167 0.67 255 255 255
-0.247 -0.351 0.489 0 0 0
0.474 -0.073 0.812 255 255 255
0.059 -0.101 0.682 255 255 255
0.215 0.121 0.413 255 255 255
0.016 -0.326 0.512 255 255 255
0.037 -0.347 0.505 255 255 255
-0.036 -0.043 0.524 255 255 255
-0.173 -0.333 0.504 0 0 0
-0.127 0.112 0.329 0 0 0
0.358 -0.306 0.864 255 255 255
-0.038 0.007 0.479 255 255 255
0.174 0.121 0.403 255 255 255
0.185 -0.378 0.504 0 0 0
0.622 -0.171 0.944 255 255 255
-0.03 0.08 0.403 255 255 255
-0.023 0.014 0.474 255 255 255
-0.21 -0.005 0.468 255 255 255
0.225 -0.378 0.51 0 0 0
0.045 0.093 0.408 255 255 255
0.271 -0.056 0.694 255 255 255
0.026 -0.045 0.533 255 255 255
-0.226 0.035 0.402 255 255 255
0.057 -0.185 0.57 255 255 255
0.185 0.054 0.474 255 255 255
0.103 -0.343 0.516 0 0 0
0.034 -0.344 0.507 255 255 255
-0.049 -0.331 0.503 255 255 255
-0.279 -0.201 0.554 255 255 255
-0.147 -0.087 0.531 255 255 255
0.187 0.114 0.41 255 255 255
0.552 -0.092 0.793 255 255 255
0.085 -0.164 0.586 0 0 0
0.078 -0.278 0.535 0 0 0
-0.138 -0.155 0.551 0 0 0
-0.042 0.188 0.422 0 0 0
-0.048 0.03 0.47 255 255 255
0.2 0.07 0.472 255 255 255
-0.216 -0.335 0.502 0 0 0
0.069 -0.07 0.578 255 255 255
0.062 -0.315 0.52 255 255 255
0.004 -0.125 0.562 255 255 255
0.194 0.125 0.406 255 255 255
0.425 -0.467 0.768 255 255 255
0.188 0.083 0.456 255 255 255
-0.09 -0.306 0.509 0 0 0
0.277 -0.002 0.616 255 255 255
-0.12 0.172 0.39 255 255 255
-0.392 -0.141 0.574 255 255 255
-0.01 0.092 0.39 255 255 255
-0.122 0.043 0.431 255 255 255
-0.015 -0.14 0.685 255 255 255
0.271 0.088 0.478 255 255 255
-0.26 -0.136 0.565 255 255 255
-0.032 0.09 0.385 255 255 255
0.012 -0.272 0.524 255 255 255
0.07 -0.335 0.514 255 255 255
0.087 -0.18 0.58 255 255 255
-0.058 -0.262 0.518 255 255 255
0.4 -0.13 0.767 255 255 255
0.086 -0.208 0.566 255 255 255
-0.192 -0.15 0.646 255 255 255
-0.037 -0.031 0.519 255 255 255
-0.255 -0.05 0.49 255 255 255
0.105 0.009 0.543 255 255 255
0.163 0.111 0.407 255 255 255
-0.009 0.041 0.467 255 255 255
-0.371 -0.186 0.567 0 0 0
0.06 0.161 0.375 255 255 255
-0.24 0.011 0.435 255 255 255
-0.247 -0.196 0.557 255 255 255
-0.346 0.548 0.974 255 255 255
0.18 0.062 0.476 255 255 255
0.069 0.105 0.394 255 255 255
0.134 -0.262 0.548 255 255 255
0.07 0.076 0.441 255 255 255
0.443 -0.191 0.766 0 0 0
-0.405 -0.15 0.564 255 255 255
-0.199 0.013 0.449 255 255 255
0.106 -0.117 0.577 0 0 0
-0.099 0.072 0.394 255 255 255
-0.035 -0.194 0.54 0 0 0
-0.111 -0.357 0.495 0 0 0
0.069 0.19 0.407 0 0 0
0.113 0.174 0.391 255 255 255
-0.017 0.077 0.411 255 255 255
-0.23 0.055 0.369 255 255 255
-0.061 -0.161 0.562 255 255 255
-0.171 0.077 0.359 255 255 255
-0.219 -0.028 0.472 255 255 255
0.27 0.041 0.545 255 255 255
-0.01 -0.138 0.665 255 255 255
-0.011 0.128 0.343 255 255 255
-0.091 0.161 0.384 255 255 255
-0.33 0.509 1.031 255 255 255
0.074 0.059 0.467 255 255 255
-0.105 0.116 0.329 255 255 255
-0.189 0.04 0.408 255 255 255
-0.192 -0.07 0.504 255 255 255
-0.15 0.045 0.419 255 255 255
-0.067 -0.099 0.574 255 255 255
-0.29 -0.19 0.554 0 0 0
0.395 -0.454 0.766 255 255 255
-0.158 -0.248 0.535 255 255 255
-0.339 -0.178 0.542 0 0 0
0.198 -0.194 0.578 0 0 0
0.365 -0.178 0.942 255 255 255
-0.246 0.02 0.417 255 255 255
0.078 0.019 0.53 255 255 255
-0.132 -0.149 0.544 0 0 0
-0.145 0.143 0.371 255 255 255
0.064 -0.265 0.539 0 0 0
-0.13 0.066 0.391 255 255 255
-0.066 -0.209 0.534 255 255 255
-0.125 0.098 0.343 255 255 255
0.077 -0.241 0.55 255 255 255
-0.177 -0.248 0.536 255 255 255
0.068 0.138 0.353 255 255 255
-0.036 -0.147 0.569 255 255 255
-0.032 0.065 0.428 255 255 255
-0.271 -0.048 0.481 255 255 255
0.457 -0.006 0.686 255 255 255
-0.175 0.054 0.394 255 255 255
0.015 -0.034 0.526 255 255 255
0.411 -0.398 0.804 255 255 255
0.17 0.194 0.411 0 0 0
0.527 -0.045 0.777 0 0 0
-0.006 -0.128 0.561 255 255 255
0.075 -0.294 0.528 255 255 255
-0.124 -0.24 0.536 255 255 255
-0.392 0.497 1.024 255 255 255
-0.196 -0.011 0.476 255 255 255
0.008 -0.056 0.555 255 255 255
0.147 -0.376 0.504 0 0 0
0.203 -0.33 0.525 255 255 255
-0.139 -0.186 0.56 255 255 255
0.116 0.061 0.467 255 255 255
-0.107 0.098 0.348 255 255 255
0.242 -0.103 0.773 255 255 255
-0.109 0.119 0.329 255 255 255
-0.108 -0.002 0.47 255 255 255
-0.216 0.021 0.43 255 255 255
0.138 -0.27 0.543 255 255 255
0.439 -0.369 0.821 255 255 255
-0.131 -0.355 0.497 255 255 255
0.498 -0.228 0.789 255 255 255
-0.045 -0.276 0.515 255 255 255
0.076 -0.186 0.575 255 255 255
-0.03 0.529 1.073 255 255 255
0.495 -0.031 0.742 255 255 255
0.141 -0.211 0.571 255 255 255
-0.101 0.133 0.352 255 255 255
-0.096 0.092 0.362 255 255 255
-0.064 0.544 1.064 255 255 255
-0.011 0.091 0.391 255 255 255
-0.213 -0.014 0.479 255 255 255
0.245 0.075 0.487 255 255 255
0.093 -0.127 0.587 0 0 0
0.046 0.109 0.383 255 255 255
0.198 0.584 1.094 255 255 255
-0.121 0.115 0.328 255 255 255
0.461 -0.266 0.743 255 255 255
0.034 -0.132 0.738 255 255 255
0.075 -0.332 0.513 0 0 0
-0.139 0.521 1.074 255 255 255
-0.21 0.549 1.016 255 255 255
-0.005 0.071 0.428 255 255 255
-0.178 0.014 0.455 255 255 255
0.053 0.06 0.46 255 255 255
-0.144 0.03 0.442 255 255 255
0.128 -0.161 0.592 0 0 0
0.329 0.072 0.522 255 255 255
-0.294 -0.229 0.542 255 255 255
-0.099 0.151 0.377 255 255 255
0.201 -0.158 0.562 255 255 255
-0.226 -0.162 0.535 0 0 0
0.295 0.029 0.573 255 255 255
-0.111 0.051 0.422 255 255 255
-0.209 -0.246 0.538 255 255 255
0.167 -0.25 0.557 255 255 255
0.082 -0.065 0.577 255 255 255
-0.037 0.141 0.358 255 255 255
0.105 0.057 0.468 255 255 255
0.04 -0.078 0.574 255 255 255
-0.158 0.11 0.323 255 255 255
0.142 0.057 0.482 255 255 255
0.075 -0.163 0.585 0 0 0
0.116 -0.254 0.55 0 0 0
0.075 0.141 0.351 255 255 255
-0.198 0.069 0.361 255 255 255
0.391 -0.391 0.809 255 255 255
0.354 -0.214 0.921 255 255 255
0.36 0.031 0.592 255 255 255
0.006 -0.125 0.562 255 255 255
0.156 -0.073 0.681 255 255 255
0.094 -0.114 0.573 255 255 255
0.161 0.053 0.493 255 255 255
0.232 -0.314 0.498 255 255 255
-0.259 -0.304 0.512 255 255 255
-0.136 0.134 0.359 255 255 255
0.167 -0.004 0.581 255 255 255
0.094 0.054 0.471 255 255 255
-0.349 -0.048 0.481 0 0 0
-0.001 0.167 0.384 255 255 255
-0.131 0.099 0.339 255 255 255
-0.073 -0.346 0.499 255 255 255
-0.101 0.067 0.401 255 255 255
0.425 -0.425 0.788 255 255 255
-0.012 0.125 0.344 255 255 255
-0.043 0.093 0.373 255 255 255
0.183 -0.106 0.578 255 255 255
0.014 -0.342 0.507 255 255 255
0.183 0.077 0.465 255 255 255
-0.134 0.104 0.331 255 255 255
-0.209 0.056 0.377 255 255 255
-0.014 0.085 0.399 255 255 255
-0.128 0.075 0.376 255 255 255
0.397 -0.241 0.905 255 255 255
-0.199 0.052 0.39 255 255 255
0.409 -0.287 0.835 255 255 255
0.037 0.111 0.378 255 255 255
-0.211 -0.209 0.552 0 0 0
0.525 -0.153 0.844 255 255 255
0.004 0.562 1.07 255 255 255
-0.017 -0.24 0.524 255 255 255
0.144 0.119 0.4 0 0 0
-0.013 0.064 0.436 255 255 255
-0.332 -0.206 0.547 255 255 255
-0.282 -0.028 0.476 255 255 255
-0.091 0.071 0.398 255 255 255
-0.037 -0.152 0.57 255 255 255
0.412 -0.027 0.701 255 255 255
-0.233 -0.232 0.544 255 255 255
-0.182 0.003 0.466 255 255 255
-0.393 0.531 0.979 255 255 255
0.194 0.056 0.476 255 255 255
0.079 0.082 0.421 255 255 255
0.008 0.123 0.351 255 255 255
-0.109 0.1 0.347 255 255 255
0.177 -0.143 0.6 255 255 255
-0.002 0.109 0.366 255 255 255
-0.251 0.001 0.444 255 255 255
0.58 -0.139 0.829 255 255 255
0.018 0.053 0.461 255 255 255
-0.033 -0.188 0.545 0 0 0
-0.109 0.082 0.37 255 255 255
-0.096 0.106 0.342 255 255 255
-0.152 0.005 0.471 255 255 255
0.044 0.151 0.358 255 255 255
0.442 -0.26 0.736 255 255 255
-0.22 -0.151 0.619 255 255 255
-0.026 -0.144 0.568 0 0 0
0.557 -0.118 0.792 255 255 255
0.373 0.601 1.121 255 255 255
0.477 -0.045 0.754 255 255 255
0.174 -0.025 0.613 255 255 255
0.162 -0.23 0.566 0 0 0
-0.015 -0.324 0.508 0 0 0
0.052 0.128 0.358 255 255 255
0.243 0.078 0.483 255 255 255
0.086 -0.324 0.521 255 255 255
-0.089 -0.141 0.676 255 255 255
-0.125 0.072 0.381 255 255 255
-0.068 0.088 0.375 255 255 255
0.045 0.004 0.497 255 255 255
-0.164 0.047 0.409 255 255 255
0.211 -0.224 0.532 0 0 0
-0.349 0.502 1.034 255 255 255
0.303 -0.046 0.693 255 255 255
-0.062 0.081 0.383 255 255 255
-0.175 0.076 0.359 255 255 255
-0.145 -0.259 0.53 255 255 255
0.065 -0.055 0.574 255 255 255
0.163 -0.187 0.582 255 255 255
-0.033 0.014 0.468 255 255 255
0.038 0.117 0.366 255 255 255
-0.173 -0.336 0.5 0 0 0
-0.16 -0.359 0.493 0 0 0
0.218 -0.073 0.703 255 255 255
-0.071 -0.054 0.534 255 255 255
0.177 -0.013 0.598 255 255 255
-0.161 0.084 0.351 255 255 255
0.214 0.563 1.095 255 255 255
0.046 0.06 0.454 255 255 255
-0.05 -0.139 0.557 0 0 0
0.186 -0.194 0.582 255 255 255
-0.045 -0.036 0.523 255 255 255
-0.088 0.105 0.346 255 255 255
0.138 -0.02 0.595 255 255 255
0.084 0.114 0.391 255 255 255
-0.011 0.068 0.429 255 255 255
0.028 -0.119 0.576 255 255 255
0.106 0.096 0.409 255 255 255
0.196 -0.231 0.567 255 255 255
0.375 -0.175 0.858 255 255 255
-0.319 -0.214 0.544 255 255 255
-0.181 0.054 0.395 255 255 255
-0.156 -0.247 0.534 255 255 255
0.181 -0.145 0.6 255 255 255
0.064 0.123 0.37 255 255 255
-0.026 0.128 0.34 255 255 255
-0.262 0.496 1.072 255 255 255
0.13 0.033 0.514 255 255 255
-0.053 0.064 0.422 255 255 255
-0.014 0.077 0.412 255 255 255
-0.189 -0.156 0.538 0 0 0
0.613 -0.154 0.954 255 255 255
-0.22 0.056 0.37 255 255 255
0.436 -0.184 0.767 0 0 0
0.039 0.07 0.432 255 255 255
-0.036 0.13 0.34 255 255 255
-0.052 -0.325 0.504 255 255 255
0.407 -0.396 0.805 255 255 255
-0.296 -0.2 0.548 255 255 255
-0.204 -0.181 0.562 0 0 0
0.232 0.071 0.487 255 255 255
0.07 0.079 0.435 255 255 255
-0.392 -0.19 0.59 255 255 255
-0.004 -0.012 0.492 255 255 255
-0.166 -0.247 0.535 255 255 255
0.006 0.126 0.345 255 255 255
-0.081 -0.262 0.52 0 0 0
0.08 0.201 0.412 255 255 255
0.029 -0.284 0.524 255 255 255
0.216 -0.049 0.665 255 255 255
0.048 0.175 0.395 255 255 255
0 -0.177 0.56 255 255 255
0.091 0.025 0.514 255 255 255
0.018 0.026 0.469 255 255 255
0.213 -0.108 0.765 255 255 255
-0.066 0.086 0.379 255 255 255
0.1 -0.027 0.593 255 255 255
0.072 0.132 0.36 255 255 255
-0.07 -0.037 0.522 255 255 255
-0.07 -0.019 0.516 255 255 255
0.075 0.023 0.523 0 0 0
-0.104 -0.335 0.501 255 255 255
0.11 0.211 0.421 255 255 255
-0.179 -0.18 0.563 255 255 255
0.004 -0.046 0.54 255 255 255
0.034 -0.168 0.576 0 0 0
-0.075 0.072 0.4 255 255 255
-0.316 -0.036 0.475 0 0 0
0.107 -0.232 0.56 255 255 255
0.237 0.58 1.109 255 255 255
-0.184 0.069 0.368 255 255 255
-0.142 -0.108 0.573 255 255 255
-0.249 -0.221 0.548 255 255 255
-0.081 0.14 0.361 255 255 255
0.133 -0.206 0.571 255 255 255
-0.117 0.118 0.329 255 255 255
-0.077 0.036 0.459 255 255 255
0.162 -0.021 0.604 255 255 255
0.136 0.106 0.408 255 255 255
-0.011 0.163 0.351 255 255 255
0.105 -0.271 0.544 0 0 0
-0.361 0.549 0.962 255 255 255
0.045 -0.157 0.582 255 255 255
0.013 0.075 0.427 255 255 255
-0.038 0.076 0.407 255 255 255
0.14 0.116 0.403 255 255 255
-0.082 0.058 0.423 255 255 255
0.236 0.098 0.453 255 255 255
-0.188 0.036 0.416 255 255 255
0.08 0.04 0.493 255 255 255
-0.347 -0.184 0.531 0 0 0
0.03 -0.029 0.518 255 255 255
0.2 0.094 0.447 255 255 255
0.073 0.051 0.481 0 0 0
0.134 0.013 0.544 255 255 255
-0.079 -0.024 0.5 255 255 255
-0.114 0.072 0.386 255 255 255
-0.024 0.091 0.385 255 255 255
-0.001 0.104 0.372 255 255 255
-0.122 -0.089 0.54 255 255 255
0.091 0.114 0.392 255 255 255
-0.082 -0.352 0.495 255 255 255
-0.099 -0.291 0.516 255 255 255
-0.162 -0.027 0.482 255 255 255
-0.326 -0.21 0.547 255 255 255
-0.146 -0.273 0.526 255 255 255
-0.259 -0.247 0.534 255 255 255
-0.062 -0.179 0.553 255 255 255
-0.221 -0.302 0.517 255 255 255
0.095 0.184 0.402 0 0 0
0.025 0.026 0.471 255 255 255
-0.094 0.076 0.386 255 255 255
-0.296 -0.257 0.529 255 255 255
0.021 0.035 0.461 255 255 255
-0.049 -0.167 0.559 255 255 255
-0.241 -0.32 0.506 255 255 255
-0.188 -0.337 0.498 255 255 255
0.042 0.117 0.37 255 255 255
-0.019 0.184 0.421 255 255 255
-0.228 -0.011 0.47 0 0 0
0.074 0.14 0.352 255 255 255
-0.156 0.112 0.323 255 255 255
0.225 0.086 0.464 255 255 255
0.139 0.004 0.56 255 255 255
0.056 -0.242 0.544 255 255 255
-0.388 -0.182 0.598 255 255 255
-0.259 0.022 0.408 255 255 255
0.161 0.097 0.428 255 255 255
0.004 -0.12 0.7 255 255 255
0.11 0.151 0.355 255 255 255
-0.012 -0.012 0.513 255 255 255
0.182 -0.092 0.715 255 255 255
0.259 0.051 0.528 255 255 255
0.363 -0.251 0.899 255 255 255
0.151 -0.228 0.565 255 255 255
-0.09 -0.287 0.517 255 255 255
-0.062 0.033 0.464 255 255 255
0.027 -0.37 0.492 0 0 0
0.049 -0.291 0.525 255 255 255
-0.079 0.076 0.388 255 255 255
-0.132 0.113 0.327 0 0 0
-0.122 -0.14 0.549 0 0 0
-0.158 0.016 0.458 255 255 255
-0.28 0.516 1.038 255 255 255
-0.142 0.029 0.448 255 255 255
-0.092 0.007 0.467 255 255 255
0.023 -0.188 0.561 255 255 255
0.083 0.128 0.369 255 255 255
0.027 0.074 0.43 255 255 255
0.155 0.091 0.436 255 255 255
-0.218 -0.379 0.48 255 255 255
-0.177 -0.151 0.659 255 255 255
0.1 -0.054 0.63 255 255 255
0.551 -0.093 0.805 255 255 255
0.078 -0.35 0.506 255 255 255
0.115 -0.178 0.583 255 255 255
0.38 -0.154 0.886 255 255 255
-0.116 0.038 0.441 255 255 255
0.068 -0.148 0.588 255 255 255
0.117 -0.31 0.529 255 255 255
-0.051 -0.182 0.548 255 255 255
-0.162 0.031 0.434 255 255 255
-0.116 0.099 0.343 255 255 255
0.024 -0.185 0.563 255 255 255
-0.113 -0.277 0.521 255 255 255
0.334 0.595 1.117 255 255 255
0.225 -0.337 0.513 0 0 0
-0.323 0.501 1.044 255 255 255
0.097 -0.205 0.569 255 255 255
0.091 0.088 0.418 255 255 255
0.166 -0.288 0.541 0 0 0
-0.186 -0.12 0.567 255 255 255
0.072 -0.188 0.573 255 255 255
-0.01 0.078 0.411 255 255 255
-0.067 -0.216 0.53 255 255 255
0.043 0.04 0.464 255 255 255
-0.474 0.46 1.044 255 255 255
-0.25 -0.255 0.53 255 255 255
0.026 0.122 0.362 255 255 255
0.046 -0.198 0.563 255 255 255
0.085 -0.254 0.546 0 0 0
-0.039 0.033 0.467 255 255 255
0.172 0.117 0.401 255 255 255
-0.396 -0.189 0.587 255 255 255
-0.148 0.514 1.08 255 255 255
0.132 0.108 0.402 255 255 255
0.309 0.046 0.55 255 255 255
0.031 -0.141 0.584 0 0 0
-0.124 -0.158 0.56 0 0 0
0.023 0.138 0.345 255 255 255
0.062 -0.174 0.578 255 255 255
0.408 -0.404 0.799 255 255 255
0.291 0.002 0.613 255 255 255
0.383 -0.438 0.777 255 255 255
0.028 0.034 0.465 255 255 255
0.058 -0.118 0.568 255 255 255
0.05 -0.187 0.569 255 255 255
-0.312 -0.016 0.45 255 255 255
-0.133 -0.176 0.564 255 255 255
0.37 -0.01 0.659 255 255 255
0.58 -0.139 0.928 255 255 255
-0.188 -0.157 0.665 255 255 255
0.184 -0.274 0.547 255 255 255
0.277 0.055 0.528 255 255 255
-0.188 -0.153 0.541 0 0 0
0.148 -0.314 0.529 255 255 255
0.38 -0.011 0.664 255 255 255
0.09 0.044 0.484 255 255 255
-0.216 -0.226 0.547 255 255 255
0.102 0.138 0.356 255 255 255
-0.081 -0.189 0.549 0 0 0
-0.211 -0.259 0.531 255 255 255
0.033 0.055 0.459 255 255 255
-0.222 -0.331 0.503 255 255 255
0.101 -0.277 0.539 255 255 255
-0.126 0.077 0.374 255 255 255
0.013 0.11 0.372 255 255 255
0.21 -0.287 0.543 255 255 255
-0.157 0.133 0.361 255 255 255
0.518 -0.103 0.842 255 255 255
-0.196 -0.314 0.511 255 255 255
0.103 0.198 0.413 255 255 255
-0.256 -0.318 0.503 255 255 255
0.157 0.572 1.098 255 255 255
-0.195 -0.267 0.529 0 0 0
0.244 -0.05 0.676 0 0 0
-0.274 -0.17 0.536 0 0 0
0.106 0.186 0.404 0 0 0
0.094 -0.204 0.569 255 255 255
0.139 0.185 0.402 0 0 0
0.081 0.004 0.549 255 255 255
-0.099 -0.141 0.548 0 0 0
-0.3 -0.229 0.543 255 255 255
-0.075 -0.212 0.535 255 255 255
-0.059 -0.372 0.491 0 0 0
-0.011 0.094 0.386 255 255 255
0.004 -0.03 0.519 255 255 255
-0.114 0.107 0.331 255 255 255
0 -0.244 0.527 255 255 255
0.327 -0.1 0.825 255 255 255
0.219 0.074 0.475 255 255 255
0.002 0.058 0.45 255 255 255
0.044 -0.105 0.682 255 255 255
0.202 -0.395 0.498 255 255 255
0.19 -0.095 0.588 255 255 255
-0.044 -0.131 0.679 255 255 255
-0.032 0.075 0.411 255 255 255
-0.26 0.547 1.003 255 255 255
-0.078 -0.331 0.504 0 0 0
0.167 0.093 0.435 255 255 255
-0.129 -0.009 0.47 255 255 255
-0.153 -0.246 0.535 255 255 255
0.038 0.178 0.397 0 0 0
0.092 0.218 0.432 255 255 255
0.057 0.09 0.417 255 255 255
-0.094 0.079 0.38 255 255 255
0.194 -0.147 0.563 0 0 0
0.136 0.046 0.496 255 255 255
0.164 -0.258 0.551 0 0 0
0.141 -0.124 0.757 255 255 255
-0.2 0.014 0.444 255 255 255
0.144 0.036 0.514 255 255 255
0.139 -0.021 0.597 255 255 255
-0.126 -0.173 0.564 255 255 255
-0.206 -0.27 0.53 0 0 0
0.4 -0.255 0.733 255 255 255
-0.078 -0.311 0.51 0 0 0
-0.08 0.109 0.343 255 255 255
-0.303 -0.042 0.469 255 255 255
0.352 -0.176 0.943 255 255 255
-0.17 0.014 0.457 255 255 255
0.194 -0.229 0.567 255 255 255
-0.157 0.05 0.408 255 255 255
0.067 0.048 0.483 255 255 255
-0.03 0.064 0.429 255 255 255
0.497 -0.023 0.729 255 255 255
-0.166 0.15 0.374 255 255 255
0.082 -0.009 0.565 255 255 255
-0.02 -0.33 0.507 0 0 0
0.19 -0.181 0.587 255 255 255
-0.333 -0.19 0.679 255 255 255
-0.122 0.059 0.407 255 255 255
-0.041 -0.006 0.481 255 255 255
0.054 -0.372 0.498 0 0 0
0.007 -0.216 0.538 255 255 255
0.392 0 0.652 255 255 255
-0.201 0.037 0.409 255 255 255
-0.254 0.039 0.385 255 255 255
0.078 0.135 0.354 255 255 255
-0.021 -0.276 0.516 0 0 0
-0.013 -0.197 0.543 255 255 255
0.307 -0.065 0.721 255 255 255
-0.04 -0.316 0.508 255 255 255
-0.168 -0.157 0.542 0 0 0
0.147 -0.053 0.648 255 255 255
0.257 0.082 0.48 255 255 255
-0.131 0.166 0.385 255 255 255
0.214 0.089 0.458 255 255 255
-0.083 -0.247 0.525 255 255 255
-0.133 0.025 0.454 255 255 255
0.379 -0.295 0.871 255 255 255
-0.017 0.076 0.411 255 255 255
0.363 0.595 1.127 255 255 255
0.187 0.061 0.473 255 255 255
-0.19 0.054 0.389 255 255 255
-0.342 -0.186 0.656 255 255 255
0.212 0.105 0.434 255 255 255
-0.084 -0.198 0.544 255 255 255
-0.089 0.068 0.401 255 255 255
0.081 -0.361 0.504 255 255 255
-0.101 0.098 0.348 255 255 255
0.13 -0.28 0.539 255 255 255
0.146 0.015 0.545 255 255 255
-0.038 0.118 0.34 255 255 255
0.003 -0.171 0.565 0 0 0
0.034 -0.149 0.583 255 255 255
-0.038 0.106 0.36 255 255 255
-0.082 0.1 0.355 255 255 255
-0.038 -0.35 0.499 255 255 255
0.044 -0.21 0.555 255 255 255
-0.147 -0.262 0.53 255 255 255
0.038 0.011 0.479 255 255 255
0.461 -0.382 0.814 255 255 255
-0.102 0.063 0.406 255 255 255
-0.252 0.015 0.423 255 255 255
0.19 0.584 1.089 255 255 255
0.237 0.063 0.5 255 255 255
-0.295 -0.203 0.549 255 255 255
0.06 0.198 0.412 255 255 255
-0.145 0.071 0.375 255 255 255
0.205 -0.265 0.55 255 255 255
0.122 0.094 0.417 255 255 255
0.099 -0.141 0.598 255 255 255
0.03 0.026 0.474 255 255 255
0.061 0.175 0.396 255 255 255
-0.18 -0.159 0.67 255 255 255
0.025 0.127 0.344 255 255 255
-0.243 -0.238 0.542 255 255 255
0.159 -0.349 0.514 255 255 255
0.025 0.204 0.413 255 255 255
-0.091 -0.19 0.55 0 0 0
0.168 -0.254 0.556 255 255 255
-0.1 0.057 0.417 255 255 255
0.09 -0.294 0.53 255 255 255
0.615 -0.225 0.909 255 255 255
0.224 0.114 0.424 255 255 255
0.468 0.015 0.658 255 255 255
-0.369 -0.151 0.563 255 255 255
-0.096 -0.355 0.496 255 255 255
0.153 0.03 0.525 255 255 255
0.016 0.093 0.402 255 255 255
0.139 -0.24 0.559 255 255 255
-0.043 0.009 0.473 255 255 255
0.164 -0.035 0.627 255 255 255
-0.191 -0.009 0.475 255 255 255
0.463 -0.378 0.815 255 255 255
0.037 0.074 0.429 255 255 255
-0.019 0.182 0.419 255 255 255
0.018 -0.256 0.529 0 0 0
-0.015 0.114 0.359 255 255 255
-0.313 -0.161 0.599 255 255 255
0.127 0.146 0.358 255 255 255
-0.043 0.129 0.339 255 255 255
-0.173 -0.329 0.504 0 0 0
-0.289 -0.043 0.472 255 255 255
0.002 0.095 0.387 255 255 255
-0.018 0.13 0.34 255 255 255
0.205 0.104 0.432 255 255 255
-0.09 0.062 0.413 255 255 255
-0.05 -0.169 0.557 0 0 0
-0.087 -0.07 0.533 255 255 255
-0.172 -0.217 0.551 255 255 255
-0.174 0.083 0.348 255 255 255
0.363 0.034 0.589 255 255 255
-0.147 -0.27 0.526 255 255 255
-0.289 -0.011 0.45 255 255 255
-0.045 -0.041 0.532 255 255 255
0.046 0.12 0.367 255 255 255
-0.34 -0.204 0.548 255 255 255
0.007 -0.317 0.512 255 255 255
-0.023 0.064 0.432 255 255 255
0 -0.327 0.509 0 0 0
0.091 0.137 0.356 255 255 255
-0.06 -0.196 0.54 255 255 255
-0.059 -0.177 0.553 255 255 255
-0.065 0.095 0.365 255 255 255
-0.277 -0.312 0.508 255 255 255
0.09 0.049 0.476 255 255 255
0.172 -0.124 0.603 255 255 255
0.343 -0.259 0.895 255 255 255
-0.019 0.074 0.415 255 255 255
-0.015 -0.353 0.499 255 255 255
-0.396 -0.165 0.566 255 255 255
-0.067 -0.042 0.525 255 255 255
0.215 -0.34 0.522 255 255 255
-0.254 -0.289 0.518 0 0 0
0.103 0.103 0.403 255 255 255
0.382 -0.429 0.784 255 255 255
0.36 -0.191 0.935 255 255 255
-0.07 0.051 0.439 255 255 255
0.597 -0.134 0.938 0 0 0
-0.099 0.074 0.39 255 255 255
-0.147 0.157 0.381 255 255 255
-0.114 0.065 0.4 255 255 255
0.372 0.025 0.607 255 255 255
0.182 -0.183 0.586 255 255 255
-0.126 -0.261 0.527 255 255 255
-0.146 -0.333 0.503 0 0 0
0.124 -0.35 0.512 255 255 255
-0.073 0.097 0.363 255 255 255
0.008 0.154 0.371 255 255 255
-0.359 0.486 1.049 255 255 255
0.091 -0.211 0.567 255 255 255
-0.055 -0.368 0.491 0 0 0
0.103 0.082 0.43 255 255 255
-0.188 -0.259 0.531 0 0 0
-0.023 -0.019 0.514 255 255 255
-0.064 -0.19 0.544 255 255 255
-0.106 0.099 0.347 255 255 255
0.173 -0.37 0.505 0 0 0
-0.088 0.17 0.387 255 255 255
0.004 -0.284 0.519 255 255 255
0.082 0.002 0.548 255 255 255
0.256 0.103 0.451 255 255 255
-0.135 0.121 0.335 255 255 255
-0.242 -0.006 0.459 255 255 255
-0.318 -0.025 0.458 255 255 255
0.233 -0.38 0.504 0 0 0
-0.37 -0.188 0.645 255 255 255
0.031 0.181 0.4 0 0 0
0.135 -0.278 0.541 255 255 255
-0.16 0.074 0.367 255 255 255
0.03 0.012 0.477 255 255 255
-0.41 -0.154 0.568 255 255 255
-0.045 0.063 0.425 255 255 255
-0.009 -0.191 0.548 255 255 255
0.091 0.037 0.495 255 255 255
-0.269 0.524 1.029 255 255 255
0.431 0.009 0.653 255 255 255
-0.208 -0.002 0.465 255 255 255
-0.036 -0.14 0.681 255 255 255
-0.008 0.092 0.388 255 255 255
-0.32 0.505 1.04 255 255 255
-0.242 0.018 0.425 255 255 255
-0.273 0.001 0.438 255 255 255
-0.111 0.075 0.382 255 255 255
-0.125 -0.156 0.557 0 0 0
0.124 0.073 0.452 255 255 255
0.372 0.616 1.104 255 255 255
-0.092 -0.01 0.486 255 255 255
-0.1 0.112 0.331 255 255 255
-0.193 0.035 0.415 255 255 255
0.041 0.073 0.435 255 255 255
-0.344 -0.182 0.648 255 255 255
-0.139 -0.237 0.536 255 255 255
-0.274 -0.271 0.527 255 255 255
-0.195 0.503 1.079 255 255 255
0.106 0.051 0.477 255 255 255
-0.112 -0.027 0.482 255 255 255
0.168 -0.257 0.554 255 255 255
-0.219 0.03 0.411 255 255 255
-0.005 0.147 0.36 255 255 255
0.114 0.014 0.538 255 255 255
-0.083 -0.208 0.538 255 255 255
-0.156 0.171 0.391 255 255 255
-0.169 -0.287 0.523 255 255 255
-0.146 0.023 0.455 255 255 255
0.414 -0.405 0.799 255 255 255
0.048 -0.073 0.569 255 255 255
0.221 -0.077 0.708 255 255 255
0.054 0.144 0.348 255 255 255
-0.042 0.098 0.368 255 255 255
-0.003 0.023 0.469 255 255 255
-0.087 0.097 0.357 255 255 255
0.03 0.565 1.065 255 255 255
-0.175 -0.245 0.537 255 255 255
-0.083 0.082 0.379 255 255 255
-0.316 -0.031 0.469 0 0 0
0.171 0.091 0.439 255 255 255
0.005 0.072 0.427 255 255 255
-0.264 -0.314 0.507 255 255 255
-0.2 0.019 0.437 255 255 255
-0.1 -0.281 0.52 255 255 255
0.399 -0.325 0.85 255 255 255
0.023 -0.204 0.55 255 255 255
0.001 0.093 0.393 255 255 255
0.171 -0.084 0.7 255 255 255
0.002 -0.159 0.571 255 255 255
-0.021 -0.02 0.516 255 255 255
-0.228 -0.287 0.522 0 0 0
-0.13 0.01 0.472 255 255 255
0.127 0.101 0.41 255 255 255
0.359 -0.032 0.69 255 255 255
-0.038 0.047 0.457 255 255 255
-0.316 -0.173 0.635 255 255 255
-0.029 0.115 0.354 255 255 255
-0.072 -0.204 0.536 255 255 255
-0.247 -0.179 0.557 255 255 255
-0.099 0.014 0.472 255 255 255
0.002 -0.201 0.545 0 0 0
-0.077 0.097 0.361 255 255 255
-0.353 -0.193 0.653 255 255 255
0.383 -0.479 0.751 255 255 255
-0.073 0.089 0.372 255 255 255
0.125 -0.166 0.589 0 0 0
-0.116 0.099 0.344 255 255 255
0.066 -0.114 0.582 255 255 255
0.175 -0.239 0.562 255 255 255
-0.17 0.071 0.37 255 255 255
-0.016 0.128 0.341 255 255 255
0.001 -0.268 0.522 255 255 255
-0.096 -0.162 0.567 0 0 0
0.447 -0.06 0.766 0 0 0
-0.198 0.068 0.363 255 255 255
-0.142 0.019 0.46 255 255 255
0.216 -0.276 0.511 0 0 0
0.513 -0.181 0.84 255 255 255
0.462 -0.39 0.808 255 255 255
0 0.114 0.359 255 255 255
-0.196 0.052 0.391 255 255 255
-0.164 0.005 0.469 0 0 0
0.078 0.188 0.404 0 0 0
0.093 -0.323 0.52 255 255 255
0.33 -0.173 0.942 255 255 255
-0.18 -0.15 0.545 0 0 0
0.394 -0.494 0.747 255 255 255
0.007 -0.096 0.625 255 255 255
0.471 -0.376 0.817 255 255 255
-0.149 0.11 0.326 0 0 0
0.325 -0.041 0.69 255 255 255
-0.061 0.065 0.42 255 255 255
-0.019 -0.263 0.519 0 0 0
0.097 0.093 0.412 255 255 255
0.332 0.07 0.524 255 255 255
0.197 0.589 1.087 255 255 255
-0.213 -0.242 0.541 255 255 255
-0.047 0.123 0.337 255 255 255
0.174 -0.156 0.595 255 255 255
0.12 0.186 0.404 0 0 0
-0.22 0.051 0.381 255 255 255
0.047 0.138 0.348 255 255 255
0.519 -0.185 0.839 255 255 255
-0.058 -0.309 0.508 255 255 255
0.007 0.107 0.377 255 255 255
0.416 -0.297 0.866 255 255 255
0.304 0.028 0.576 255 255 255
0.163 0.155 0.362 255 255 255
0.435 -0.191 0.768 0 0 0
0.118 0.199 0.413 255 255 255
-0.244 -0.162 0.531 0 0 0
-0.118 0.072 0.385 255 255 255
0.029 0.086 0.407 255 255 255
-0.03 0.113 0.353 255 255 255
0.361 0.015 0.617 255 255 255
-0.012 -0.211 0.534 255 255 255
-0.261 -0.001 0.446 255 255 255
0.045 0.124 0.36 255 255 255
0.093 -0.015 0.572 255 255 255
-0.077 -0.137 0.552 0 0 0
-0.086 -0.181 0.555 255 255 255
-0.186 -0.029 0.482 255 255 255
0.125 0.077 0.446 255 255 255
0.11 0.074 0.445 255 255 255
0.074 -0.355 0.505 255 255 255
-0.103 -0.292 0.516 255 255 255
0.2 -0.323 0.528 255 255 255
-0.143 0.166 0.385 255 255 255
0.517 -0.196 0.837 255 255 255
-0.059 0.067 0.414 255 255 255
0.016 0.146 0.354 255 255 255
0.162 -0.099 0.588 255 255 255
-0.289 -0.232 0.541 255 255 255
-0.263 -0.15 0.586 255 255 255
0.072 0.056 0.474 0 0 0
0.211 0.115 0.421 255 255 255
0.171 0.031 0.53 255 255 255
0.21 0.088 0.457 255 255 255
0.054 0.09 0.413 255 255 255
0.008 0.133 0.342 255 255 255
0.101 -0.239 0.554 255 255 255
-0.039 -0.3 0.512 255 255 255
-0.131 -0.034 0.487 255 255 255
-0.018 -0.361 0.497 0 0 0
0.05 0.132 0.35 255 255 255
0.543 -0.098 0.841 255 255 255
-0.149 0.548 1.035 255 255 255
0.112 -0.164 0.587 0 0 0
0.047 0.095 0.405 255 255 255
-0.196 -0.136 0.585 255 255 255
-0.257 -0.023 0.475 255 255 255
-0.205 -0.355 0.491 0 0 0
0.012 0.116 0.36 255 255 255
-0.002 -0.056 0.557 255 255 255
-0.223 -0.304 0.515 255 255 255
-0.129 0.106 0.335 255 255 255
0.161 0.09 0.438 255 255 255
-0.156 -0.245 0.536 255 255 255
0.101 0.131 0.369 255 255 255
0.348 -0.318 0.855 255 255 255
-0.099 0.557 1.036 255 255 255
0.379 -0.336 0.845 255 255 255
0.129 -0.137 0.598 255 255 255
-0.007 -0.003 0.498 255 255 255
-0.331 -0.195 0.696 255 255 255
0.184 -0.164 0.592 255 255 255
0.039 -0.106 0.68 255 255 255
-0.097 -0.072 0.529 255 255 255
0.424 0.593 1.134 255 255 255
-0.065 -0.336 0.5 0 0 0
0.065 0.125 0.366 255 255 255
-0.223 0.534 1.03 255 255 255
-0.002 0.071 0.429 255 255 255
-0.199 0.03 0.421 255 255 255
-0.023 0.119 0.347 255 255 255
-0.062 -0.078 0.564 255 255 255
0.212 -0.082 0.714 255 255 255
-0.039 -0.18 0.548 0 0 0
-0.171 -0.018 0.473 255 255 255
-0.4 -0.091 0.536 255 255 255
-0.074 -0.136 0.552 0 0 0
-0.147 -0.102 0.569 255 255 255
0.228 -0.308 0.497 0 0 0
-0.094 0.081 0.377 255 255 255
0.022 0.118 0.362 255 255 255
-0.111 0.118 0.331 255 255 255
0.01 -0.369 0.493 0 0 0
-0.078 0.064 0.411 255 255 255
0.339 -0.015 0.659 255 255 255
-0.045 -0.131 0.557 0 0 0
0.154 -0.189 0.582 0 0 0
0.014 -0.349 0.502 255 255 255
-0.004 0.108 0.367 255 255 255
0.361 -0.174 0.943 255 255 255
0.012 -0.152 0.577 255 255 255
0.016 0.16 0.38 255 255 255
-0.253 -0.037 0.473 255 255 255
0.033 0.193 0.408 255 255 255
-0.204 -0.287 0.521 255 255 255
-0.224 -0.214 0.55 255 255 255
-0.161 -0.36 0.493 0 0 0
0.265 0.588 1.109 255 255 255
0.115 -0.015 0.58 255 255 255
-0.079 -0.307 0.511 0 0 0
0.151 -0.331 0.52 255 255 255
0.21 0.59 1.087 255 255 255
0.074 -0.326 0.515 255 255 255
0.374 -0.272 0.884 255 255 255
0.013 -0.231 0.535 255 255 255
-0.066 0.127 0.348 255 255 255
-0.11 0.079 0.374 255 255 255
-0.144 0.116 0.328 255 255 255
0.03 0.092 0.403 255 255 255
-0.132 -0.223 0.543 255 255 255
0.229 -0.109 0.78 255 255 255
-0.079 0.046 0.441 255 255 255
-0.011 -0.284 0.516 255 255 255
0.075 -0.22 0.559 255 255 255
0.299 0.067 0.518 255 255 255
-0.09 0.093 0.363 255 255 255
-0.038 -0.166 0.56 255 255 255
-0.224 -0.258 0.531 0 0 0
0.05 -0.283 0.528 0 0 0
-0.233 -0.244 0.539 255 255 255
0.227 -0.347 0.514 255 255 255
0.086 0.143 0.353 255 255 255
-0.186 0.07 0.365 255 255 255
-0.242 0.496 1.07 255 255 255
0.107 -0.214 0.566 255 255 255
-0.008 -0.344 0.504 255 255 255
0.135 -0.31 0.529 255 255 255
-0.176 0.036 0.42 255 255 255
0.173 -0.027 0.617 255 255 255
-0.181 -0.282 0.524 255 255 255
0.061 -0.26 0.538 0 0 0
0.634 -0.136 0.933 255 255 255
-0.113 0.09 0.356 255 255 255
-0.154 0.083 0.355 255 255 255
-0.099 -0.257 0.525 255 255 255
0.186 0.08 0.461 255 255 255
0.457 -0.036 0.733 255 255 255
0.293 0.09 0.482 255 255 255
0.077 -0.215 0.56 255 255 255
-0.083 -0.307 0.512 0 0 0
0.399 -0.437 0.777 255 255 255
-0.026 -0.071 0.545 255 255 255
-0.092 -0.139 0.553 0 0 0
0.045 0.195 0.41 255 255 255
0.088 -0.07 0.6 255 255 255
0.123 0.143 0.358 255 255 255
-0.116 -0.165 0.566 255 255 255
0.079 0.139 0.355 255 255 255
-0.003 -0.248 0.525 255 255 255
0.089 -0.09 0.679 255 255 255
-0.122 0.08 0.37 255 255 255
0.169 -0.352 0.514 255 255 255
-0.089 0.131 0.346 255 255 255
0.12 0.11 0.4 255 255 255
-0.09 -0.204 0.541 255 255 255
-0.151 0.152 0.377 255 255 255
0.561 -0.055 0.809 0 0 0
0.116 0.114 0.398 0 0 0
0.431 0.611 1.132 255 255 255
-0.05 0.165 0.405 255 255 255
-0.326 -0.176 0.552 0 0 0
0.123 0.14 0.357 255 255 255
0.108 -0.209 0.568 255 255 255
0.038 -0.089 0.612 255 255 255
-0.358 0.516 1.011 255 255 255
-0.096 0.104 0.343 255 255 255
0.032 0.078 0.419 255 255 255
-0.155 -0.005 0.472 255 255 255
-0.04 0.11 0.354 255 255 255
0.406 -0.137 0.77 255 255 255
0.085 0.156 0.362 255 255 255
-0.025 0.116 0.352 255 255 255
-0.136 0.1 0.336 255 255 255
0.181 0.086 0.451 255 255 255
-0.359 0.477 1.059 0 0 0
0.4 -0.312 0.86 255 255 255
-0.141 0.023 0.454 255 255 255
-0.125 -0.283 0.52 255 255 255
0.096 -0.057 0.622 255 255 255
-0.251 -0.035 0.472 255 255 255
-0.126 -0.331 0.503 255 255 255
0.038 -0.368 0.498 0 0 0
0.138 0.124 0.393 255 255 255
0.157 -0.27 0.548 255 255 255
-0.147 -0.33 0.504 0 0 0
-0.064 0.098 0.362 255 255 255
-0.058 0.06 0.425 255 255 255
0.02 -0.055 0.556 255 255 255
0.181 0.089 0.446 255 255 255
-0.239 -0.326 0.505 255 255 255
-0.071 -0.05 0.534 255 255 255
0.115 0.054 0.477 255 255 255
-0.155 0.152 0.377 255 255 255
-0.072 -0.133 0.554 255 255 255
-0.319 -0.056 0.476 255 255 255
0.041 0.036 0.465 255 255 255
-0.216 -0.195 0.559 0 0 0
-0.124 0.038 0.439 255 255 255
-0.12 0.098 0.342 255 255 255
-0.269 0.016 0.414 255 255 255
0 -0.218 0.534 255 255 255
0.069 0.067 0.457 255 255 255
0.17 -0.101 0.578 255 255 255
0.086 0.197 0.412 255 255 255
-0.084 -0.136 0.555 255 255 255
-0.134 0.102 0.336 255 255 255
0.063 0.065 0.456 255 255 255
0.018 -0.327 0.511 255 255 255
0.218 -0.26 0.518 0 0 0
-0.101 -0.017 0.483 255 255 255
0.542 -0.074 0.829 0 0 0
0.017 0.077 0.426 255 255 255
0.089 -0.367 0.503 0 0 0
0.349 -0.197 0.931 255 255 255
0.215 -0.278 0.51 0 0 0
0.006 0.031 0.464 255 255 255
-0.25 0.039 0.388 255 255 255
0.115 0.107 0.398 255 255 255
0.082 -0.114 0.574 255 255 255
-0.305 -0.193 0.701 255 255 255
-0.018 0.114 0.358 255 255 255
-0.183 -0.228 0.545 255 255 255
0.4 -0.336 0.845 255 255 255
-0.29 -0.024 0.468 0 0 0
-0.227 0.031 0.407 255 255 255
-0.001 -0.206 0.54 0 0 0
-0.103 -0.147 0.63 255 255 255
0.129 -0.167 0.59 0 0 0
0.408 0.008 0.648 255 255 255
0.072 -0.313 0.521 255 255 255
0.039 0.008 0.489 255 255 255
-0.013 -0.313 0.511 0 0 0
0.138 -0.055 0.647 255 255 255
0.374 -0.381 0.816 255 255 255
-0.094 -0.246 0.527 255 255 255
-0.266 -0.242 0.54 255 255 255
0.222 0.1 0.444 255 255 255
0.299 0.071 0.511 255 255 255
-0.15 0.076 0.367 255 255 255
0.473 0.603 1.142 255 255 255
0.031 -0.305 0.519 255 255 255
0.196 0.102 0.431 255 255 255
-0.344 -0.196 0.547 255 255 255
-0.068 -0.345 0.497 0 0 0
-0.176 -0.305 0.515 0 0 0
0.023 -0.328 0.51 255 255 255
0.155 0.079 0.452 255 255 255
0.111 -0.004 0.563 255 255 255
-0.211 -0.37 0.486 0 0 0
-0.298 -0.174 0.533 0 0 0
