ply
format ascii 1.0
comment Created by Open3D
element vertex 1611
property double x
property double y
property double z
property uchar red
property uchar green
property uchar blue
end_header
-0.189 -0.21 0.541 255 255 255
-0.164 0.057 0.454 255 255 255
-0.099 0.088 0.421 255 255 255
-0.075 -0.05 0.573 255 255 255
0.092 0.169 0.351 255 255 255
0.279 0.048 0.602 0 0 0
-0.171 -0.3 0.515 255 255 255
0.142 0.097 0.468 0 0 0
-0.219 0.041 0.457 255 255 255
0.137 -0.328 0.537 255 255 255
0.403 -0.387 0.827 255 255 255
0.027 0.053 0.509 255 255 255
-0.256 -0.203 0.541 255 255 255
-0.257 0.056 0.422 255 255 255
0.035 0.181 0.358 255 255 255
-0.107 -0.231 0.529 255 255 255
-0.096 -0.09 0.56 255 255 255
-0.113 -0.152 0.555 0 0 0
0.102 -0.24 0.564 0 0 0
-0.234 0.021 0.458 255 255 255
-0.328 0.006 0.455 255 255 255
-0.147 0.031 0.466 255 255 255
0.154 0.109 0.453 255 255 255
0.468 -0.405 0.821 255 255 255
-0.044 -0.113 0.579 0 0 0
0.355 -0.29 0.847 0 0 0
0.076 0.155 0.368 255 255 255
-0.234 0.033 0.461 255 255 255
0.45 -0.276 0.775 255 255 255
-0.187 -0.32 0.508 255 255 255
-0.083 -0.099 0.562 0 0 0
0.046 0.079 0.471 255 255 255
0.038 -0.023 0.641 255 255 255
-0.09 0.175 0.357 255 255 255
-0.107 0.044 0.461 255 255 255
0.104 -0.196 0.58 255 255 255
0.004 -0.281 0.534 255 255 255
0.032 0.154 0.351 255 255 255
0.257 0.026 0.638 255 255 255
-0.094 -0.215 0.53 255 255 255
0.43 -0.028 0.807 0 0 0
-0.282 0.001 0.47 255 255 255
0.118 0.172 0.352 255 255 255
0.343 -0.263 0.818 0 0 0
0.112 0.138 0.396 255 255 255
0.323 -0.369 0.835 255 255 255
-0.054 0.035 0.472 255 255 255
0.073 0.118 0.412 255 255 255
0.406 -0.434 0.8 255 255 255
-0.051 0.136 0.352 255 255 255
0.458 0.005 0.754 255 255 255
-0.035 -0.247 0.531 0 0 0
-0.008 0.141 0.358 255 255 255
-0.191 -0.1 0.669 0 0 0
0.297 -0.038 0.762 255 255 255
-0.32 -0.116 0.536 0 0 0
0.055 0.136 0.386 255 255 255
0.447 -0.199 0.812 255 255 255
-0.214 0.01 0.477 255 255 255
-0.172 -0.318 0.509 255 255 255
-0.002 0.195 0.379 255 255 255
-0.097 0.101 0.397 255 255 255
-0.131 -0.371 0.496 0 0 0
0.023 0.114 0.415 255 255 255
0.049 0.104 0.428 255 255 255
-0.04 0.133 0.358 255 255 255
0.348 -0.465 0.777 255 255 255
-0.007 -0.181 0.555 255 255 255
0.374 -0.239 0.767 0 0 0
-0.096 -0.125 0.57 255 255 255
-0.161 0.045 0.464 255 255 255
0.452 -0.312 0.786 0 0 0
0.324 -0.203 0.926 255 255 255
-0.143 0.054 0.461 0 0 0
-0.017 -0.119 0.586 255 255 255
-0.014 -0.351 0.512 255 255 255
0.609 -0.06 0.889 255 255 255
0.012 0.051 0.495 255 255 255
0.004 -0.038 0.577 255 255 255
-0.018 0.14 0.355 255 255 255
-0.119 -0.18 0.543 0 0 0
0.246 0.121 0.463 255 255 255
-0.12 0.111 0.367 255 255 255
0.015 -0.163 0.575 255 255 255
0.043 0.058 0.507 255 255 255
-0.027 0.187 0.369 255 255 255
-0.024 0.159 0.333 255 255 255
0.312 -0.151 0.898 255 255 255
-0.113 0.03 0.478 255 255 255
-0.229 -0.223 0.535 255 255 255
-0.086 -0.285 0.521 0 0 0
0.054 0.096 0.444 255 255 255
0.176 0.137 0.411 255 255 255
0.111 -0.227 0.567 255 255 255
-0.008 -0.22 0.542 0 0 0
0.332 -0.092 0.793 255 255 255
-0.129 0.059 0.459 255 255 255
-0.07 0.148 0.333 255 255 255
-0.338 -0.003 0.461 255 255 255
0.472 -0.314 0.766 255 255 255
0.003 0.144 0.354 255 255 255
-0.251 -0.272 0.517 0 0 0
-0.103 0.097 0.401 255 255 255
-0.002 0.148 0.349 255 255 255
0.606 -0.015 0.86 255 255 255
-0.323 -0.168 0.545 255 255 255
-0.036 -0.282 0.526 255 255 255
0.071 -0.229 0.563 255 255 255
-0.132 -0.202 0.537 255 255 255
-0.261 0.005 0.471 255 255 255
0.273 -0.391 0.816 255 255 255
0.606 -0.003 0.849 255 255 255
0.058 -0.003 0.617 255 255 255
0.522 -0.021 0.868 0 0 0
0.159 -0.332 0.501 0 0 0
0.088 -0.259 0.556 255 255 255
0.147 0.147 0.398 255 255 255
-0.115 -0.304 0.516 255 255 255
-0.177 0.016 0.476 255 255 255
-0.361 -0.127 0.567 0 0 0
-0.159 -0.222 0.536 255 255 255
-0.102 0.15 0.322 255 255 255
-0.004 -0.166 0.565 255 255 255
-0.054 0.095 0.427 255 255 255
0.441 -0.112 0.9 255 255 255
0.133 0.008 0.622 255 255 255
0.13 -0.147 0.565 0 0 0
-0.306 -0.152 0.553 255 255 255
-0.018 -0.113 0.587 255 255 255
-0.095 0.115 0.371 255 255 255
-0.078 -0.247 0.526 255 255 255
0.309 0.071 0.564 0 0 0
0.373 -0.14 0.789 0 0 0
-0.214 -0.214 0.539 255 255 255
0.097 0.048 0.541 255 255 255
-0.182 -0.256 0.525 255 255 255
-0.127 -0.106 0.558 0 0 0
0.139 0.134 0.405 255 255 255
-0.202 0.096 0.369 255 255 255
-0.116 0.028 0.481 255 255 255
-0.144 0.119 0.348 255 255 255
-0.248 -0.29 0.513 0 0 0
0.591 -0.278 0.903 255 255 255
-0.106 0.128 0.346 255 255 255
-0.158 -0.208 0.54 255 255 255
0.004 -0.173 0.564 255 255 255
0.042 0.075 0.476 255 255 255
0.131 -0.265 0.558 255 255 255
0.088 -0.021 0.656 255 255 255
-0.062 0.136 0.347 255 255 255
-0.115 0.093 0.407 255 255 255
-0.132 0.119 0.351 255 255 255
0.287 -0.097 0.933 255 255 255
0.395 -0.062 0.835 255 255 255
-0.209 -0.302 0.511 255 255 255
0.512 -0.167 0.774 255 255 255
-0.014 0.155 0.337 0 0 0
-0.142 0.2 0.371 255 255 255
-0.046 -0.318 0.519 0 0 0
0.149 0.091 0.467 255 255 255
-0.187 0.023 0.466 255 255 255
0.264 -0.119 0.956 0 0 0
-0.015 0.101 0.422 255 255 255
0.078 -0.253 0.556 255 255 255
0.344 -0.369 0.835 255 255 255
0.285 -0.083 0.906 255 255 255
0.004 0.112 0.414 255 255 255
0.114 0.042 0.555 0 0 0
0.001 0.128 0.381 255 255 255
-0.049 0.067 0.46 255 255 255
0.011 -0.011 0.563 255 255 255
0.064 -0.119 0.603 0 0 0
-0.297 -0.197 0.539 255 255 255
-0.078 0.155 0.328 255 255 255
-0.098 0.139 0.33 255 255 255
0.039 -0.312 0.533 255 255 255
0.175 0.103 0.469 255 255 255
0.018 -0.119 0.591 0 0 0
0.242 0.128 0.45 255 255 255
-0.035 0.048 0.476 255 255 255
0.047 -0.238 0.555 255 255 255
-0.183 0.087 0.392 255 255 255
0.009 -0.251 0.541 255 255 255
0.283 0.041 0.617 255 255 255
0.125 0.106 0.452 255 255 255
-0.139 0.132 0.332 255 255 255
-0.17 -0.271 0.522 0 0 0
-0.16 -0.099 0.677 255 255 255
0.078 0.119 0.413 255 255 255
0.137 -0.282 0.554 255 255 255
-0.064 -0.108 0.578 0 0 0
-0.029 0.047 0.478 255 255 255
0.124 -0.126 0.606 255 255 255
-0.03 0.029 0.49 255 255 255
-0.209 -0.226 0.535 255 255 255
-0.129 0.084 0.418 255 255 255
-0.059 0.142 0.343 255 255 255
-0.188 -0.28 0.52 0 0 0
-0.217 -0.192 0.545 255 255 255
-0.076 -0.095 0.685 255 255 255
0.086 0.139 0.393 0 0 0
-0.221 -0.294 0.511 0 0 0
0.404 -0.437 0.798 255 255 255
0.133 -0.287 0.55 255 255 255
-0.091 0.072 0.454 255 255 255
-0.109 -0.372 0.498 0 0 0
0.367 0.017 0.695 255 255 255
-0.155 0.09 0.395 255 255 255
0.326 -0.12 0.792 255 255 255
-0.191 -0.26 0.525 255 255 255
-0.254 -0.327 0.497 255 255 255
0.183 0.023 0.614 255 255 255
-0.092 -0.01 0.513 255 255 255
0.208 0.084 0.513 255 255 255
-0.139 -0.094 0.587 0 0 0
0.028 0.119 0.399 255 255 255
-0.036 -0.13 0.574 0 0 0
-0.096 -0.124 0.57 255 255 255
-0.149 -0.048 0.541 255 255 255
-0.291 0.026 0.454 0 0 0
0.121 -0.115 0.608 255 255 255
-0.19 -0.183 0.551 255 255 255
-0.046 -0.017 0.537 255 255 255
0.402 -0.392 0.824 255 255 255
0.453 -0.056 0.845 255 255 255
-0.143 -0.134 0.566 255 255 255
-0.112 -0.174 0.542 255 255 255
-0.23 -0.217 0.535 255 255 255
-0.182 0.047 0.462 0 0 0
-0.219 -0.289 0.513 0 0 0
0.144 0.007 0.63 255 255 255
0.437 -0.397 0.823 255 255 255
0.291 0.103 0.511 255 255 255
0.097 0.101 0.448 255 255 255
0.305 -0.283 0.881 255 255 255
-0.045 0.155 0.328 255 255 255
0.137 0.153 0.387 255 255 255
0.393 -0.218 0.771 255 255 255
-0.074 -0.327 0.513 255 255 255
-0.131 -0.143 0.56 255 255 255
-0.031 -0.081 0.732 255 255 255
-0.062 -0.007 0.54 255 255 255
0.398 -0.042 0.834 255 255 255
-0.085 -0.06 0.599 255 255 255
-0.161 -0.383 0.491 255 255 255
0.429 -0.035 0.833 255 255 255
0.245 0.061 0.566 255 255 255
0.604 -0.089 0.928 0 0 0
0.153 0.136 0.407 255 255 255
-0.313 -0.131 0.544 0 0 0
0.067 0.098 0.443 255 255 255
0.364 -0.449 0.787 255 255 255
-0.1 -0.199 0.534 255 255 255
0.13 -0.346 0.531 255 255 255
-0.099 0.123 0.358 255 255 255
-0.019 0.038 0.485 255 255 255
0.601 0.03 0.845 255 255 255
0.03 -0.35 0.519 255 255 255
-0.266 -0.182 0.548 0 0 0
0.488 -0.094 0.82 255 255 255
-0.225 0.073 0.403 255 255 255
0.326 0.085 0.538 0 0 0
0.065 -0.139 0.595 0 0 0
-0.143 -0.183 0.545 0 0 0
-0.045 -0.084 0.589 255 255 255
-0.047 -0.073 0.694 255 255 255
-0.033 0.132 0.365 255 255 255
-0.086 -0.359 0.503 255 255 255
0.025 -0.288 0.536 255 255 255
-0.076 -0.361 0.502 255 255 255
0.022 -0.346 0.518 255 255 255
-0.443 -0.122 0.583 255 255 255
-0.075 -0.258 0.525 255 255 255
-0.214 -0.29 0.515 0 0 0
-0.019 -0.031 0.567 255 255 255
0.179 0.119 0.443 255 255 255
0.225 0.093 0.503 255 255 255
-0.067 -0.086 0.696 255 255 255
-0.138 -0.37 0.495 0 0 0
0.449 -0.239 0.793 255 255 255
0.024 -0.182 0.569 255 255 255
0.006 0.067 0.463 255 255 255
0.285 -0.135 0.958 255 255 255
-0.327 -0.138 0.552 255 255 255
0.338 0.078 0.543 255 255 255
0.229 -0.019 0.705 255 255 255
-0.127 0.131 0.336 255 255 255
0.237 0.02 0.639 255 255 255
0.166 0.105 0.464 255 255 255
0.389 -0.009 0.753 255 255 255
0.095 -0.129 0.602 255 255 255
-0.017 0.087 0.453 255 255 255
0.299 0.05 0.604 255 255 255
0.151 -0.323 0.539 255 255 255
-0.089 -0.26 0.523 0 0 0
0.357 -0.357 0.842 255 255 255
0.471 0 0.769 255 255 255
-0.092 -0.3 0.518 0 0 0
-0.113 0.136 0.33 255 255 255
-0.106 0.18 0.361 255 255 255
0.083 0.059 0.516 255 255 255
-0.053 -0.33 0.514 255 255 255
-0.026 -0.015 0.545 255 255 255
0.052 0.074 0.482 255 255 255
0.607 -0.052 0.891 255 255 255
0.067 0.207 0.393 255 255 255
-0.076 0.095 0.417 255 255 255
0.022 -0.205 0.558 255 255 255
0.005 0.135 0.372 255 255 255
0.194 -0.007 0.671 255 255 255
0.159 -0.337 0.526 0 0 0
-0.017 -0.38 0.506 0 0 0
0.113 -0.334 0.533 255 255 255
-0.256 -0.156 0.556 255 255 255
-0.226 0.079 0.393 255 255 255
-0.039 0.099 0.425 255 255 255
0.066 0.155 0.361 255 255 255
-0.208 0.045 0.455 255 255 255
0.501 -0.108 0.778 255 255 255
0.195 0.133 0.427 255 255 255
-0.21 0.078 0.4 255 255 255
-0.029 0.058 0.461 255 255 255
-0.213 -0.302 0.511 255 255 255
-0.093 0.007 0.515 255 255 255
-0.156 -0.322 0.507 255 255 255
0.275 0.088 0.529 0 0 0
0.159 0.099 0.47 255 255 255
0.217 0.101 0.486 0 0 0
0.04 0.093 0.442 255 255 255
-0.241 -0.104 0.664 255 255 255
-0.135 0.075 0.434 255 255 255
0.064 -0.032 0.667 255 255 255
-0.092 -0.092 0.678 0 0 0
-0.172 0.017 0.477 255 255 255
-0.247 -0.197 0.543 255 255 255
0.118 -0.388 0.517 0 0 0
-0.097 -0.119 0.571 255 255 255
-0.111 -0.202 0.534 255 255 255
-0.241 -0.201 0.543 255 255 255
0.312 -0.4 0.814 255 255 255
-0.149 -0.103 0.551 0 0 0
-0.119 -0.242 0.527 255 255 255
-0.21 -0.196 0.546 255 255 255
-0.264 0.027 0.463 255 255 255
-0.041 0.098 0.427 255 255 255
-0.164 0.087 0.397 255 255 255
-0.184 -0.375 0.493 255 255 255
0.065 0.164 0.347 255 255 255
0.03 -0.323 0.528 255 255 255
-0.205 -0.349 0.495 255 255 255
-0.018 0.011 0.513 255 255 255
-0.234 -0.238 0.529 255 255 255
0.035 -0.121 0.598 0 0 0
-0.107 -0.096 0.554 0 0 0
0.054 0.139 0.381 255 255 255
-0.232 -0.241 0.532 255 255 255
0.434 -0.155 0.864 255 255 255
-0.352 -0.168 0.542 255 255 255
0.012 0.08 0.472 255 255 255
-0.015 0.029 0.485 255 255 255
-0.139 0.07 0.439 255 255 255
0.263 -0.424 0.797 255 255 255
-0.005 -0.152 0.572 255 255 255
-0.089 0.018 0.505 255 255 255
-0.195 0.063 0.435 255 255 255
-0.084 -0.092 0.562 255 255 255
0.035 0.09 0.444 255 255 255
0.291 -0.487 0.761 255 255 255
0.083 -0.326 0.534 255 255 255
-0.126 -0.319 0.514 255 255 255
-0.112 0.039 0.461 255 255 255
-0.082 -0.096 0.561 0 0 0
0.106 0.147 0.385 255 255 255
-0.278 -0.195 0.542 0 0 0
0.132 -0.257 0.563 255 255 255
-0.204 -0.174 0.554 255 255 255
0.222 0.101 0.488 255 255 255
0.282 -0.335 0.851 255 255 255
0.066 -0.284 0.545 255 255 255
-0.233 -0.072 0.563 255 255 255
-0.065 -0.003 0.532 255 255 255
-0.003 0.203 0.386 255 255 255
-0.198 -0.294 0.515 255 255 255
-0.069 0.076 0.454 255 255 255
0.062 0.144 0.377 255 255 255
-0.082 0.148 0.326 0 0 0
-0.182 0.018 0.476 255 255 255
0.378 -0.372 0.833 255 255 255
-0.08 -0.16 0.548 255 255 255
0.35 -0.115 0.798 255 255 255
0.035 0.147 0.361 255 255 255
-0.238 -0.249 0.526 255 255 255
0.125 0.074 0.499 255 255 255
0.424 -0.325 0.853 0 0 0
-0.234 -0.351 0.49 255 255 255
0.04 -0.217 0.559 0 0 0
-0.367 -0.143 0.545 0 0 0
0.018 -0.263 0.541 255 255 255
0.002 -0.008 0.548 255 255 255
0.001 0.151 0.34 255 255 255
-0.119 -0.207 0.535 255 255 255
0.231 0.026 0.626 255 255 255
0.631 -0.16 0.874 255 255 255
0.127 -0.271 0.554 255 255 255
-0.036 0.135 0.363 255 255 255
-0.21 0.049 0.45 255 255 255
0.476 0.006 0.764 0 0 0
0.332 -0.287 0.825 0 0 0
0.248 0.099 0.501 0 0 0
0.101 0.133 0.397 255 255 255
0.32 -0.162 0.944 255 255 255
0.463 -0.451 0.804 255 255 255
-0.03 0.126 0.376 255 255 255
0.412 -0.507 0.771 255 255 255
0.429 -0.13 0.866 255 255 255
0.29 0.107 0.507 255 255 255
0.155 -0.025 0.691 255 255 255
-0.024 0.207 0.386 255 255 255
-0.017 -0.268 0.532 255 255 255
0.05 0.117 0.406 255 255 255
-0.115 -0.028 0.534 255 255 255
-0.038 0.12 0.383 255 255 255
-0.153 -0.181 0.547 255 255 255
-0.327 -0.183 0.541 255 255 255
0.281 -0.247 0.901 255 255 255
-0.133 0.13 0.331 255 255 255
-0.049 -0.361 0.504 255 255 255
0.029 -0.192 0.566 255 255 255
-0.019 -0.241 0.535 0 0 0
-0.251 -0.216 0.537 255 255 255
0.041 -0.178 0.574 0 0 0
-0.062 0.113 0.388 255 255 255
0.227 -0.029 0.724 255 255 255
0.06 0.117 0.409 255 255 255
0.201 0.136 0.424 255 255 255
-0.215 0.072 0.41 255 255 255
-0.303 -0.242 0.52 255 255 255
0.057 -0.007 0.623 255 255 255
-0.087 0.142 0.334 255 255 255
0.156 -0.245 0.536 0 0 0
0.116 -0.235 0.566 255 255 255
0.014 -0.309 0.529 255 255 255
0.322 -0.22 0.773 255 255 255
0.356 -0.32 0.854 0 0 0
0.402 0.005 0.734 255 255 255
0.054 -0.002 0.614 255 255 255
-0.156 0.119 0.34 255 255 255
0.474 -0.372 0.778 255 255 255
-0.05 0.035 0.474 255 255 255
-0.051 0.138 0.349 255 255 255
0.07 -0.319 0.535 255 255 255
0.013 -0.193 0.56 255 255 255
0.361 -0.223 0.767 0 0 0
0.313 -0.174 0.942 255 255 255
-0.258 -0.114 0.534 0 0 0
0.065 0.148 0.37 255 255 255
-0.022 0.041 0.474 255 255 255
-0.063 0.003 0.53 255 255 255
0.046 -0.184 0.573 255 255 255
-0.184 0.088 0.389 255 255 255
-0.188 -0.159 0.559 255 255 255
-0.177 0.045 0.463 255 255 255
0 -0.275 0.533 255 255 255
-0.126 -0.347 0.506 0 0 0
0.175 0.013 0.628 255 255 255
0.084 0.106 0.435 255 255 255
0.467 -0.368 0.803 255 255 255
0.185 0.014 0.628 255 255 255
-0.03 0.115 0.394 255 255 255
0.152 0.115 0.443 255 255 255
0.016 -0.181 0.566 255 255 255
0.505 -0.078 0.801 255 255 255
-0.094 -0.094 0.557 0 0 0
-0.096 0.15 0.324 0 0 0
-0.148 -0.108 0.554 0 0 0
0.114 -0.141 0.6 255 255 255
0.047 0.101 0.431 255 255 255
0.001 -0.324 0.521 255 255 255
-0.218 0.018 0.463 255 255 255
0.204 0.117 0.458 255 255 255
0.235 0.039 0.603 255 255 255
-0.092 -0.276 0.522 0 0 0
0.616 -0.187 0.896 255 255 255
0.297 -0.182 0.937 255 255 255
0.299 -0.332 0.855 255 255 255
-0.15 0.116 0.348 255 255 255
-0.054 0.12 0.378 255 255 255
-0.252 0.056 0.422 255 255 255
0.487 0.016 0.757 0 0 0
-0.142 -0.243 0.528 255 255 255
-0.398 -0.132 0.656 0 0 0
0.114 -0.261 0.558 255 255 255
0.334 -0.508 0.754 255 255 255
0.266 0.101 0.507 0 0 0
0.021 -0.178 0.568 255 255 255
0.005 0.068 0.461 255 255 255
0.004 -0.238 0.541 255 255 255
-0.05 -0.099 0.574 0 0 0
-0.43 -0.129 0.614 255 255 255
-0.054 -0.32 0.517 0 0 0
0.315 -0.238 0.907 255 255 255
-0.045 -0.335 0.511 255 255 255
-0.087 0.123 0.362 255 255 255
0.02 0.124 0.397 255 255 255
-0.191 -0.338 0.501 255 255 255
0.012 -0.146 0.58 255 255 255
-0.025 0.024 0.502 255 255 255
-0.136 -0.008 0.523 255 255 255
0.3 -0.376 0.828 255 255 255
-0.069 0.114 0.38 255 255 255
0.331 -0.194 0.835 0 0 0
0.331 -0.458 0.781 255 255 255
-0.183 -0.157 0.559 255 255 255
-0.06 -0.083 0.709 255 255 255
0.075 0.112 0.423 255 255 255
0.077 0.006 0.606 255 255 255
-0.037 -0.089 0.742 255 255 255
0.33 -0.44 0.791 255 255 255
0.072 0.127 0.398 255 255 255
-0.236 -0.323 0.5 0 0 0
-0.063 0.132 0.353 255 255 255
0.241 0.061 0.565 255 255 255
0.128 -0.348 0.531 255 255 255
0.003 -0.018 0.565 255 255 255
-0.026 0.086 0.452 255 255 255
-0.165 0.124 0.338 255 255 255
0.063 0.166 0.346 255 255 255
-0.336 0.012 0.462 255 255 255
-0.202 0.073 0.414 255 255 255
-0.138 0.045 0.46 255 255 255
0.261 -0.374 0.826 255 255 255
-0.058 -0.215 0.531 255 255 255
-0.088 0.16 0.331 255 255 255
0.064 0.06 0.511 255 255 255
-0.264 -0.117 0.534 0 0 0
0.053 0.151 0.357 255 255 255
0.308 -0.335 0.852 255 255 255
0.15 -0.318 0.543 255 255 255
0.18 0.131 0.423 255 255 255
-0.235 -0.11 0.617 255 255 255
-0.108 -0.269 0.522 255 255 255
0.042 0.096 0.439 255 255 255
0.274 -0.279 0.882 255 255 255
-0.237 0.06 0.423 255 255 255
-0.07 -0.158 0.549 255 255 255
-0.066 -0.327 0.515 255 255 255
-0.029 0.106 0.416 255 255 255
0.036 0.025 0.562 255 255 255
-0.114 -0.07 0.633 255 255 255
0.167 0.134 0.412 255 255 255
-0.048 0.11 0.401 255 255 255
-0.001 0.136 0.369 255 255 255
0.134 -0.298 0.547 255 255 255
0.076 0.095 0.452 255 255 255
0.04 -0.077 0.58 255 255 255
-0.008 0.077 0.462 255 255 255
-0.002 0.003 0.533 255 255 255
-0.374 -0.132 0.686 255 255 255
-0.235 0.063 0.417 255 255 255
-0.1 -0.057 0.579 255 255 255
-0.144 -0.287 0.518 0 0 0
-0.128 0.078 0.432 255 255 255
0.137 0.169 0.361 255 255 255
0.115 0.152 0.38 255 255 255
0.061 0.147 0.368 255 255 255
-0.232 -0.06 0.54 255 255 255
0.314 -0.104 0.902 0 0 0
0.047 0.024 0.568 255 255 255
-0.039 0.047 0.475 255 255 255
-0.079 0.052 0.46 255 255 255
0.194 0.037 0.592 255 255 255
0.078 0.027 0.572 255 255 255
0.07 0.006 0.605 255 255 255
-0.199 -0.261 0.526 255 255 255
0.547 -0.007 0.882 0 0 0
-0.174 0.096 0.377 255 255 255
-0.134 0.185 0.363 255 255 255
-0.131 -0.365 0.496 0 0 0
-0.008 0.063 0.461 255 255 255
0.035 -0.005 0.61 255 255 255
0.321 -0.542 0.732 0 0 0
0.252 0.05 0.589 255 255 255
0.334 -0.365 0.837 255 255 255
0.578 0.035 0.844 0 0 0
-0.246 -0.117 0.537 0 0 0
0.105 -0.348 0.526 255 255 255
-0.171 0.115 0.344 255 255 255
-0.238 -0.144 0.561 255 255 255
0.114 0.121 0.419 255 255 255
0.447 0.027 0.71 255 255 255
0.068 -0.196 0.574 255 255 255
0.088 0.171 0.349 255 255 255
-0.064 -0.136 0.563 0 0 0
0.464 -0.45 0.806 255 255 255
0.139 -0.152 0.564 0 0 0
-0.092 0.126 0.356 255 255 255
0.285 -0.436 0.791 255 255 255
-0.005 0.124 0.386 255 255 255
0.141 -0.272 0.558 255 255 255
-0.088 0.101 0.398 255 255 255
0.022 -0.246 0.544 0 0 0
0.243 -0.118 0.953 0 0 0
0.452 -0.435 0.81 255 255 255
0.015 0.049 0.519 255 255 255
-0.056 -0.092 0.564 0 0 0
0.066 0.159 0.349 0 0 0
-0.012 0.124 0.385 255 255 255
-0.325 -0.042 0.495 255 255 255
0.241 0.085 0.523 255 255 255
0.356 -0.546 0.735 0 0 0
-0.036 0.143 0.344 255 255 255
0.098 0.174 0.351 255 255 255
-0.051 0.113 0.39 255 255 255
-0.222 -0.264 0.52 255 255 255
0.411 -0.375 0.835 255 255 255
0.302 0.047 0.609 255 255 255
-0.026 0.033 0.492 255 255 255
0.006 -0.274 0.535 255 255 255
0.209 0.112 0.467 255 255 255
0.092 0.06 0.519 255 255 255
-0.184 -0.315 0.508 255 255 255
0.092 0.068 0.503 255 255 255
0.272 -0.093 0.95 255 255 255
0.021 -0.16 0.578 255 255 255
-0.047 0.096 0.424 255 255 255
0.053 0.124 0.396 255 255 255
0.081 0.127 0.399 255 255 255
-0.037 -0.09 0.745 255 255 255
0.502 -0.19 0.912 255 255 255
-0.234 -0.301 0.511 0 0 0
-0.135 -0.156 0.557 255 255 255
-0.32 -0.233 0.524 255 255 255
-0.077 0.156 0.329 255 255 255
0.617 -0.224 0.921 255 255 255
0.124 -0.054 0.727 255 255 255
0.085 0.13 0.395 255 255 255
0.066 -0.287 0.543 255 255 255
0.015 0.148 0.353 255 255 255
-0.039 -0.22 0.532 0 0 0
0.045 0.142 0.375 255 255 255
-0.094 -0.274 0.523 0 0 0
0.327 -0.307 0.869 255 255 255
-0.105 0.059 0.463 255 255 255
0.034 0.067 0.487 255 255 255
-0.033 -0.115 0.583 255 255 255
-0.265 -0.226 0.532 0 0 0
-0.079 0.103 0.398 255 255 255
-0.331 -0.125 0.53 0 0 0
-0.17 -0.306 0.513 255 255 255
-0.044 -0.003 0.524 255 255 255
0.016 -0.145 0.582 255 255 255
-0.165 -0.248 0.529 255 255 255
0.092 0.026 0.579 255 255 255
0.049 0.165 0.345 255 255 255
0.041 -0.116 0.601 255 255 255
-0.174 -0.317 0.509 255 255 255
-0.053 0.127 0.364 255 255 255
0.062 -0.084 0.582 0 0 0
0.206 0.084 0.512 255 255 255
0.311 -0.367 0.834 255 255 255
-0.311 -0.201 0.537 0 0 0
-0.246 -0.146 0.561 255 255 255
0.074 -0.279 0.548 255 255 255
-0.316 -0.202 0.536 0 0 0
-0.094 0.033 0.481 255 255 255
-0.153 0.074 0.428 255 255 255
0.262 -0.272 0.886 255 255 255
-0.081 0.103 0.399 255 255 255
0.055 0.059 0.509 255 255 255
-0.024 -0.226 0.536 0 0 0
-0.378 0.563 1.011 255 255 255
0.177 0.111 0.456 255 255 255
-0.127 0.01 0.505 255 255 255
-0.254 -0.347 0.492 255 255 255
-0.091 0.134 0.343 255 255 255
-0.125 -0.324 0.51 255 255 255
0.105 -0.185 0.584 255 255 255
0.034 0.201 0.388 255 255 255
0.271 -0.544 0.731 0 0 0
0.288 -0.275 0.886 255 255 255
-0.284 -0.157 0.554 0 0 0
-0.099 0.058 0.463 255 255 255
0.126 -0.064 0.599 255 255 255
-0.143 0.105 0.376 255 255 255
-0.215 0.052 0.443 255 255 255
0.066 -0.107 0.606 255 255 255
0.217 0.13 0.438 255 255 255
0.087 0.066 0.505 255 255 255
-0.018 -0.25 0.533 255 255 255
0.266 -0.204 0.924 255 255 255
0.125 -0.329 0.535 255 255 255
-0.043 0.048 0.473 255 255 255
-0.107 0.149 0.32 255 255 255
-0.238 -0.312 0.504 255 255 255
-0.069 0.087 0.434 255 255 255
0.431 -0.102 0.904 255 255 255
-0.228 -0.21 0.538 255 255 255
0.574 -0.12 0.871 0 0 0
0.172 0.136 0.41 255 255 255
-0.104 0.153 0.323 255 255 255
-0.201 0.077 0.405 255 255 255
-0.102 0.153 0.324 255 255 255
-0.229 -0.196 0.544 255 255 255
-0.305 -0.115 0.57 255 255 255
0.162 -0.028 0.697 255 255 255
-0.2 -0.043 0.521 255 255 255
0.098 -0.182 0.585 255 255 255
-0.339 -0.193 0.536 255 255 255
-0.149 0.19 0.365 255 255 255
0.339 -0.481 0.768 255 255 255
0.063 -0.183 0.578 0 0 0
0.091 0.19 0.37 255 255 255
-0.019 0.057 0.465 255 255 255
-0.115 0.135 0.332 255 255 255
0.045 -0.368 0.517 255 255 255
-0.066 0.001 0.528 255 255 255
-0.025 -0.022 0.559 255 255 255
0.094 0.092 0.462 255 255 255
-0.188 -0.246 0.529 255 255 255
-0.161 0.125 0.336 255 255 255
-0.33 -0.068 0.518 255 255 255
-0.102 -0.146 0.557 0 0 0
0.099 0.115 0.424 255 255 255
0.337 -0.286 0.872 255 255 255
0.058 0.025 0.568 255 255 255
-0.056 -0.247 0.527 255 255 255
0.02 -0.285 0.536 255 255 255
0.6 -0.02 0.896 255 255 255
0.075 0.22 0.401 255 255 255
-0.104 -0.167 0.546 0 0 0
-0.3 -0.195 0.54 255 255 255
0.306 -0.01 0.72 255 255 255
0.055 0.182 0.359 255 255 255
0.152 -0.298 0.519 0 0 0
0.069 -0.018 0.646 255 255 255
0.327 -0.535 0.737 0 0 0
-0.072 0.137 0.345 255 255 255
-0.094 -0.213 0.53 255 255 255
0.262 -0.32 0.858 255 255 255
0.011 0.103 0.431 255 255 255
-0.108 -0.124 0.57 255 255 255
0.049 0.111 0.417 255 255 255
-0.343 -0.187 0.537 255 255 255
0.015 -0.379 0.507 0 0 0
-0.041 0.025 0.484 255 255 255
0.323 -0.277 0.885 255 255 255
0.308 -0.151 0.953 255 255 255
-0.114 0.089 0.416 255 255 255
-0.122 0.132 0.331 255 255 255
-0.101 0.1 0.397 255 255 255
-0.013 -0.334 0.519 255 255 255
0.328 -0.19 0.916 255 255 255
-0.087 0.002 0.52 255 255 255
0.312 -0.142 0.784 255 255 255
0.051 -0.3 0.536 255 255 255
0.494 -0.096 0.785 255 255 255
0.19 0.124 0.439 255 255 255
0.108 0.142 0.393 0 0 0
0.314 -0.125 0.93 0 0 0
-0.119 0.092 0.408 255 255 255
-0.297 -0.102 0.6 255 255 255
-0.247 0.062 0.415 255 255 255
-0.25 -0.271 0.519 0 0 0
0.285 -0.305 0.869 255 255 255
-0.118 0.133 0.335 255 255 255
0.225 0.049 0.58 255 255 255
-0.046 0.035 0.478 255 255 255
0.33 -0.157 0.897 0 0 0
-0.16 0.107 0.362 255 255 255
0.076 0.048 0.534 255 255 255
0.277 -0.245 0.901 255 255 255
-0.162 -0.265 0.525 0 0 0
0.165 0.015 0.62 255 255 255
-0.078 -0.229 0.527 255 255 255
-0.194 -0.108 0.542 0 0 0
-0.217 0.023 0.46 255 255 255
-0.024 -0.131 0.578 0 0 0
0.278 -0.334 0.85 255 255 255
-0.158 -0.114 0.566 255 255 255
0.091 -0.002 0.625 255 255 255
-0.044 0.152 0.328 0 0 0
-0.018 0.099 0.43 255 255 255
-0.232 0.024 0.456 255 255 255
0.041 -0.243 0.551 255 255 255
0.05 0.087 0.46 255 255 255
0.397 -0.361 0.841 255 255 255
0.395 -0.272 0.763 255 255 255
-0.091 -0.351 0.504 255 255 255
-0.091 -0.059 0.59 255 255 255
0.182 0.002 0.652 255 255 255
0.116 -0.147 0.598 255 255 255
-0.143 -0.253 0.526 255 255 255
-0.234 0.054 0.433 255 255 255
-0.255 -0.18 0.55 255 255 255
0.253 -0.187 0.93 255 255 255
-0.009 0.097 0.431 255 255 255
-0.044 -0.042 0.573 255 255 255
-0.158 -0.114 0.564 255 255 255
0.02 -0.012 0.574 0 0 0
0.351 -0.179 0.783 0 0 0
0.396 0.065 0.616 255 255 255
-0.082 -0.302 0.518 0 0 0
0.144 -0.239 0.536 0 0 0
0.084 -0.323 0.534 255 255 255
-0.31 -0.007 0.477 255 255 255
0.05 0.118 0.404 255 255 255
0.316 -0.142 0.785 255 255 255
-0.247 -0.08 0.565 255 255 255
0.004 -0.207 0.552 255 255 255
-0.29 -0.113 0.657 255 255 255
-0.107 -0.215 0.53 255 255 255
-0.196 0.022 0.464 255 255 255
0.311 0.047 0.615 255 255 255
0.26 0.107 0.493 255 255 255
0.363 -0.267 0.758 0 0 0
-0.09 0.115 0.373 255 255 255
0.209 0.134 0.431 255 255 255
0.031 0.106 0.417 255 255 255
-0.133 -0.099 0.678 255 255 255
0.113 -0.343 0.53 255 255 255
-0.194 -0.059 0.554 255 255 255
-0.1 0.091 0.415 255 255 255
0.048 -0.272 0.544 255 255 255
0.031 0.095 0.437 255 255 255
-0.061 -0.338 0.507 255 255 255
0.182 -0.005 0.664 255 255 255
-0.143 0.123 0.34 255 255 255
-0.007 0.112 0.412 255 255 255
-0.084 -0.219 0.529 255 255 255
0.08 -0.215 0.569 255 255 255
-0.112 -0.091 0.557 255 255 255
0.068 -0.25 0.553 255 255 255
0.142 0.125 0.424 255 255 255
0.405 -0.331 0.854 0 0 0
0.045 0.061 0.501 255 255 255
-0.03 -0.092 0.57 0 0 0
0.293 0.087 0.535 0 0 0
-0.254 0.047 0.442 255 255 255
0.004 0.158 0.339 0 0 0
0.308 -0.11 0.902 255 255 255
-0.112 0.146 0.319 0 0 0
0.056 -0.149 0.589 255 255 255
0.085 -0.202 0.575 0 0 0
0.118 0.218 0.402 255 255 255
-0.098 0.123 0.358 255 255 255
0.177 0.094 0.489 255 255 255
0.274 -0.36 0.835 255 255 255
0.035 0.16 0.345 0 0 0
-0.225 -0.182 0.551 255 255 255
0.367 -0.227 0.767 0 0 0
-0.335 0.571 1.02 255 255 255
0.411 0 0.746 255 255 255
-0.038 0.014 0.498 255 255 255
-0.055 0.131 0.358 255 255 255
-0.184 -0.011 0.495 255 255 255
-0.068 0.216 0.408 255 255 255
-0.094 -0.092 0.559 255 255 255
0.374 -0.526 0.75 255 255 255
-0.028 0.093 0.436 255 255 255
0.063 0.135 0.391 0 0 0
-0.184 0.045 0.464 0 0 0
-0.231 0.008 0.474 255 255 255
-0.015 -0.338 0.516 255 255 255
-0.005 -0.09 0.572 0 0 0
-0.163 0.087 0.397 255 255 255
-0.062 -0.015 0.548 255 255 255
-0.229 -0.1 0.655 255 255 255
-0.011 0.073 0.457 255 255 255
-0.103 0.09 0.415 255 255 255
-0.216 -0.102 0.551 0 0 0
0.341 -0.428 0.799 255 255 255
-0.101 0.119 0.363 255 255 255
-0.108 0.053 0.461 255 255 255
0.017 0.071 0.489 255 255 255
0.068 0.082 0.471 255 255 255
-0.059 0.051 0.461 255 255 255
0.07 -0.077 0.586 255 255 255
-0.112 -0.128 0.569 255 255 255
0.546 -0.087 0.976 0 0 0
0.076 -0.256 0.554 255 255 255
0.46 -0.322 0.761 255 255 255
-0.413 -0.091 0.551 0 0 0
-0.1 -0.328 0.509 0 0 0
-0.109 0.067 0.453 255 255 255
-0.039 0.105 0.414 255 255 255
0.023 -0.27 0.54 255 255 255
-0.046 -0.162 0.55 255 255 255
0.092 -0.003 0.628 255 255 255
-0.058 0.11 0.395 255 255 255
0.065 -0.042 0.685 255 255 255
-0.164 -0.356 0.497 255 255 255
-0.28 -0.026 0.478 255 255 255
-0.052 0.024 0.484 255 255 255
-0.103 -0.343 0.504 255 255 255
0.229 0.096 0.5 255 255 255
0.135 -0.181 0.573 0 0 0
0.061 0.091 0.454 255 255 255
-0.115 0.134 0.334 255 255 255
0.048 0.033 0.551 255 255 255
0.289 -0.306 0.869 255 255 255
-0.106 0.079 0.437 255 255 255
-0.226 -0.37 0.484 255 255 255
0.049 -0.29 0.541 255 255 255
0.48 -0.388 0.801 255 255 255
0.032 0.107 0.416 255 255 255
-0.214 0.064 0.423 255 255 255
-0.115 -0.217 0.531 255 255 255
0.046 0.157 0.348 0 0 0
0.434 -0.256 0.797 0 0 0
0.31 -0.426 0.799 255 255 255
0.161 -0.391 0.521 0 0 0
-0.173 0.093 0.383 255 255 255
0.462 -0.354 0.824 0 0 0
-0.25 -0.292 0.508 0 0 0
-0.139 -0.132 0.568 255 255 255
-0.061 -0.326 0.514 255 255 255
0.279 0.058 0.583 0 0 0
-0.111 -0.278 0.521 255 255 255
-0.004 -0.216 0.545 0 0 0
0.05 -0.36 0.519 255 255 255
0.347 -0.391 0.821 255 255 255
0.465 -0.333 0.809 0 0 0
0.026 0.091 0.446 255 255 255
0.004 -0.291 0.531 0 0 0
-0.033 -0.334 0.515 255 255 255
-0.038 -0.028 0.565 255 255 255
-0.112 0.145 0.32 0 0 0
-0.192 -0.316 0.508 255 255 255
0.16 -0.261 0.534 0 0 0
-0.213 -0.321 0.504 255 255 255
0.097 0.16 0.362 255 255 255
-0.177 -0.014 0.501 255 255 255
-0.312 -0.194 0.541 0 0 0
0.161 0.132 0.415 255 255 255
-0.235 -0.144 0.563 255 255 255
0.032 0.17 0.343 255 255 255
0.092 -0.352 0.526 255 255 255
0.384 -0.38 0.83 255 255 255
0.432 -0.1 0.901 255 255 255
-0.119 0.139 0.325 255 255 255
0.269 0.042 0.61 255 255 255
-0.218 -0.289 0.514 0 0 0
0.044 0.141 0.374 255 255 255
-0.144 0.177 0.358 255 255 255
0.108 -0.197 0.581 255 255 255
-0.04 0.118 0.384 255 255 255
0.134 0.171 0.359 255 255 255
0.488 -0.187 0.873 0 0 0
-0.126 -0.316 0.513 255 255 255
0.149 0.18 0.358 255 255 255
-0.09 0.15 0.324 0 0 0
0.159 -0.323 0.505 0 0 0
0.1 0.078 0.489 255 255 255
0.286 -0.33 0.854 255 255 255
0.066 0.106 0.43 255 255 255
0.29 -0.261 0.893 255 255 255
0.123 0.171 0.353 255 255 255
-0.342 -0.157 0.549 255 255 255
0.587 -0.189 0.937 0 0 0
0.009 -0.291 0.531 0 0 0
0.016 0.009 0.551 0 0 0
0.193 0.136 0.421 255 255 255
0.086 -0.035 0.681 255 255 255
0.622 -0.249 0.916 255 255 255
-0.28 -0.159 0.554 0 0 0
0.139 -0.207 0.542 0 0 0
0.386 -0.45 0.79 255 255 255
-0.021 0.092 0.441 255 255 255
0.026 -0.346 0.521 255 255 255
0.12 -0.281 0.554 255 255 255
-0.12 -0.282 0.519 255 255 255
0.402 -0.492 0.773 255 255 255
0.329 -0.368 0.835 255 255 255
0.409 0.007 0.735 255 255 255
0.112 0.049 0.544 0 0 0
0.298 0.044 0.617 255 255 255
0.366 -0.335 0.854 255 255 255
0.052 -0.342 0.522 255 255 255
-0.364 -0.128 0.531 0 0 0
0.2 0.114 0.459 255 255 255
0.113 -0.319 0.54 255 255 255
-0.22 -0.375 0.481 255 255 255
0.001 0.047 0.475 255 255 255
-0.202 -0.171 0.556 255 255 255
0.072 -0.139 0.596 0 0 0
-0.234 -0.205 0.542 255 255 255
-0.01 0.058 0.466 255 255 255
0.341 -0.219 0.853 0 0 0
-0.028 -0.109 0.585 0 0 0
-0.143 -0.119 0.57 255 255 255
0.129 0.105 0.453 255 255 255
0.048 0.081 0.467 255 255 255
-0.36 -0.163 0.541 255 255 255
-0.019 -0.104 0.589 0 0 0
0.082 -0.246 0.56 255 255 255
-0.092 0.019 0.501 255 255 255
0.007 -0.374 0.509 0 0 0
-0.17 0.06 0.448 255 255 255
0.019 0.04 0.542 0 0 0
0.037 -0.294 0.538 255 255 255
-0.055 -0.033 0.568 0 0 0
0.04 -0.343 0.524 255 255 255
0.026 0.151 0.352 255 255 255
-0.062 -0.079 0.704 0 0 0
0.038 -0.378 0.511 0 0 0
0.378 -0.497 0.762 255 255 255
0.059 0.129 0.391 255 255 255
0.126 0.128 0.411 255 255 255
-0.137 -0.146 0.561 255 255 255
-0.066 0.12 0.371 255 255 255
-0.143 -0.185 0.546 0 0 0
0.296 -0.323 0.86 255 255 255
-0.187 0.031 0.46 255 255 255
-0.233 0.033 0.462 255 255 255
-0.086 0.036 0.477 255 255 255
-0.3 -0.08 0.568 255 255 255
-0.048 -0.121 0.574 255 255 255
-0.14 -0.071 0.605 255 255 255
0.046 -0.331 0.527 255 255 255
-0.316 -0.234 0.525 255 255 255
-0.065 -0.011 0.54 255 255 255
0.336 -0.475 0.771 255 255 255
0.046 -0.033 0.663 255 255 255
0.437 -0.18 0.854 255 255 255
0.176 -0.005 0.66 255 255 255
-0.117 0.1 0.394 255 255 255
-0.134 0.122 0.345 255 255 255
-0.137 -0.16 0.554 255 255 255
-0.13 -0.343 0.504 0 0 0
0.233 -0.014 0.699 255 255 255
-0.072 -0.217 0.53 255 255 255
-0.152 -0.136 0.566 255 255 255
-0.185 0.092 0.383 255 255 255
0.016 -0.217 0.554 0 0 0
-0.25 0.048 0.44 255 255 255
-0.241 -0.172 0.552 255 255 255
0.118 -0.148 0.598 255 255 255
-0.016 0.052 0.475 255 255 255
-0.033 0.13 0.371 255 255 255
-0.237 -0.268 0.52 255 255 255
0.123 -0.143 0.599 255 255 255
0.055 -0.165 0.583 255 255 255
-0.088 0.144 0.327 255 255 255
-0.172 -0.349 0.497 255 255 255
0.213 0.125 0.446 255 255 255
-0.127 0.111 0.363 255 255 255
-0.057 -0.054 0.606 255 255 255
-0.248 -0.284 0.515 0 0 0
-0.084 -0.374 0.498 0 0 0
-0.005 -0.219 0.543 0 0 0
-0.136 0.131 0.331 255 255 255
0.075 -0.076 0.587 0 0 0
-0.167 -0.351 0.499 255 255 255
-0.197 0.037 0.462 255 255 255
-0.058 0.063 0.459 255 255 255
-0.22 0.064 0.42 255 255 255
-0.217 -0.199 0.543 255 255 255
-0.139 0.105 0.375 255 255 255
-0.106 0.137 0.328 255 255 255
-0.191 -0.367 0.489 0 0 0
0.132 0.217 0.404 255 255 255
0.223 0.122 0.455 255 255 255
-0.328 -0.197 0.537 255 255 255
0.276 -0.126 0.963 255 255 255
-0.097 0.121 0.361 255 255 255
-0.141 0.023 0.48 255 255 255
-0.152 -0.219 0.536 0 0 0
0.631 -0.211 0.903 255 255 255
0.018 -0.019 0.569 0 0 0
-0.13 0.137 0.323 255 255 255
-0.24 -0.234 0.532 255 255 255
-0.204 -0.145 0.564 255 255 255
-0.136 -0.008 0.506 255 255 255
0.451 -0.228 0.799 255 255 255
-0.015 -0.371 0.509 0 0 0
-0.071 0.14 0.336 255 255 255
-0.291 -0.259 0.518 255 255 255
-0.195 -0.261 0.525 255 255 255
-0.2 -0.312 0.509 255 255 255
0.052 -0.317 0.531 255 255 255
0.26 0.087 0.527 255 255 255
0.457 -0.316 0.762 255 255 255
0.127 0.087 0.476 255 255 255
0.497 -0.119 0.809 0 0 0
-0.042 0.109 0.402 255 255 255
-0.197 -0.112 0.545 0 0 0
-0.19 -0.113 0.552 0 0 0
0.301 -0.492 0.759 255 255 255
-0.141 -0.064 0.574 255 255 255
0.521 -0.17 0.773 0 0 0
-0.035 -0.175 0.547 255 255 255
0.019 -0.069 0.723 0 0 0
-0.073 -0.163 0.547 255 255 255
-0.263 -0.325 0.493 255 255 255
0.003 0.08 0.461 255 255 255
0.063 -0.244 0.555 255 255 255
0.001 -0.089 0.573 0 0 0
-0.212 -0.221 0.537 255 255 255
0.256 0.108 0.489 255 255 255
0.405 0.019 0.708 255 255 255
-0.018 -0.37 0.508 0 0 0
0.14 0.212 0.4 255 255 255
-0.27 0.036 0.447 255 255 255
0.16 0.116 0.442 255 255 255
-0.17 -0.372 0.492 255 255 255
-0.167 0.111 0.353 255 255 255
0.11 -0.076 0.773 255 255 255
-0.116 0.128 0.34 255 255 255
0.443 0 0.76 255 255 255
0.341 -0.266 0.748 255 255 255
-0.026 -0.209 0.538 255 255 255
0.052 -0.127 0.598 0 0 0
0.095 -0.051 0.712 255 255 255
0.304 -0.466 0.774 255 255 255
0.225 0.055 0.568 255 255 255
0.002 -0.215 0.549 0 0 0
-0.033 0.184 0.364 255 255 255
0.106 -0.148 0.597 255 255 255
0.228 0.122 0.457 255 255 255
0.24 -0.249 0.903 255 255 255
0.336 -0.039 0.778 0 0 0
-0.03 0.138 0.354 255 255 255
-0.053 0.14 0.344 255 255 255
0.205 0.035 0.599 255 255 255
-0.369 -0.128 0.541 0 0 0
-0.057 -0.363 0.507 255 255 255
0.575 -0.171 0.951 0 0 0
0.068 -0.26 0.551 0 0 0
0.273 -0.243 0.902 255 255 255
0.446 -0.264 0.781 255 255 255
-0.007 0.208 0.388 255 255 255
-0.143 -0.06 0.567 255 255 255
-0.189 -0.139 0.567 255 255 255
0.018 0.096 0.445 255 255 255
-0.018 -0.186 0.548 255 255 255
0.322 -0.421 0.802 255 255 255
0.082 0.053 0.527 255 255 255
0.479 -0.301 0.771 255 255 255
-0.159 -0.199 0.542 255 255 255
0.115 -0.03 0.682 255 255 255
0.22 -0.113 0.95 255 255 255
-0.099 0.124 0.354 255 255 255
0.295 0.089 0.528 255 255 255
0.003 -0.008 0.549 255 255 255
-0.188 0.055 0.451 255 255 255
-0.053 0.138 0.348 255 255 255
0.005 0.133 0.376 255 255 255
0.019 0.096 0.445 255 255 255
0.304 -0.106 0.809 255 255 255
0.079 -0.33 0.533 255 255 255
0.009 -0.262 0.538 0 0 0
-0.058 -0.333 0.511 255 255 255
-0.036 0.14 0.351 255 255 255
0.134 -0.027 0.687 255 255 255
0.623 -0.167 0.897 0 0 0
-0.165 -0.227 0.535 255 255 255
0.039 -0.369 0.516 255 255 255
-0.356 -0.088 0.543 255 255 255
-0.089 0.043 0.464 255 255 255
0.196 0.127 0.437 255 255 255
0.003 -0.11 0.592 255 255 255
-0.072 -0.16 0.549 255 255 255
0.552 -0.268 0.896 0 0 0
0.094 -0.12 0.606 255 255 255
0.068 -0.008 0.629 255 255 255
0.391 -0.484 0.774 255 255 255
-0.079 -0.033 0.562 255 255 255
-0.215 0.089 0.38 255 255 255
0.039 -0.356 0.52 255 255 255
-0.006 0.057 0.472 255 255 255
-0.036 -0.291 0.524 255 255 255
0.042 0.123 0.395 255 255 255
-0.219 0.026 0.456 255 255 255
-0.115 -0.131 0.566 0 0 0
-0.135 -0.364 0.497 0 0 0
0.347 -0.317 0.852 255 255 255
0.033 -0.331 0.524 255 255 255
0.122 -0.038 0.699 255 255 255
-0.016 -0.354 0.512 255 255 255
-0.181 -0.254 0.527 255 255 255
0.102 0.09 0.469 255 255 255
-0.203 0.037 0.464 255 255 255
-0.001 -0.336 0.519 255 255 255
-0.091 0.168 0.343 255 255 255
0.439 -0.118 0.869 255 255 255
-0.235 -0.37 0.484 255 255 255
0.075 -0.233 0.563 255 255 255
-0.166 -0.149 0.563 255 255 255
-0.005 0.027 0.508 255 255 255
-0.078 -0.304 0.517 0 0 0
0.159 -0.337 0.535 0 0 0
0.191 0.082 0.512 255 255 255
-0.034 -0.092 0.746 255 255 255
-0.213 -0.199 0.545 255 255 255
0.267 0.116 0.481 255 255 255
0.084 0.204 0.392 255 255 255
-0.212 0.08 0.395 255 255 255
-0.34 -0.165 0.546 255 255 255
0.305 -0.114 0.904 255 255 255
-0.214 0.09 0.374 255 255 255
0.002 0.119 0.399 255 255 255
0.085 -0.148 0.596 0 0 0
-0.025 -0.217 0.537 0 0 0
0.122 -0.342 0.532 255 255 255
-0.104 -0.27 0.522 255 255 255
0.029 -0.278 0.538 255 255 255
-0.389 -0.099 0.565 255 255 255
-0.041 0.01 0.511 255 255 255
-0.046 0.123 0.374 255 255 255
0.45 -0.266 0.78 255 255 255
0.149 -0.273 0.528 0 0 0
-0.148 0.205 0.373 255 255 255
-0.094 -0.098 0.558 0 0 0
0.212 -0.053 0.766 0 0 0
0.07 0.057 0.515 255 255 255
-0.015 -0.004 0.531 0 0 0
0.015 -0.205 0.556 255 255 255
0.016 0.086 0.463 255 255 255
0.31 -0.416 0.804 255 255 255
0.023 -0.047 0.676 255 255 255
-0.134 0.1 0.386 255 255 255
-0.045 0.069 0.462 255 255 255
-0.18 -0.379 0.489 255 255 255
0.237 0.065 0.556 255 255 255
-0.267 0.039 0.445 255 255 255
0.02 -0.14 0.584 255 255 255
-0.266 -0.242 0.525 255 255 255
-0.085 0.021 0.504 255 255 255
0.311 -0.283 0.88 255 255 255
0.137 -0.163 0.553 0 0 0
0.224 0.077 0.529 255 255 255
-0.198 0.064 0.429 255 255 255
-0.168 -0.243 0.532 255 255 255
0.024 0.106 0.429 255 255 255
0.08 0.072 0.493 255 255 255
-0.29 -0.255 0.518 255 255 255
-0.229 -0.143 0.563 255 255 255
-0.078 -0.277 0.524 0 0 0
-0.243 -0.084 0.577 255 255 255
-0.004 0.159 0.337 255 255 255
-0.101 0.056 0.463 255 255 255
-0.005 -0.082 0.572 255 255 255
0.036 0.141 0.375 255 255 255
0.581 -0.23 0.926 255 255 255
-0.177 -0.156 0.561 255 255 255
0.305 -0.37 0.832 255 255 255
0.129 0.172 0.356 255 255 255
-0.076 0.11 0.385 255 255 255
-0.043 0.154 0.325 255 255 255
-0.356 -0.138 0.544 0 0 0
0.128 -0.192 0.586 255 255 255
0.082 -0.202 0.575 255 255 255
0.154 -0.31 0.544 0 0 0
0.287 0.005 0.687 255 255 255
-0.012 -0.121 0.586 0 0 0
0.183 0.097 0.483 255 255 255
0.646 -0.224 0.886 255 255 255
-0.208 0.026 0.459 255 255 255
-0.069 -0.01 0.53 255 255 255
-0.119 0.122 0.348 255 255 255
-0.304 -0.001 0.468 255 255 255
0.258 -0.027 0.731 255 255 255
0.26 0.092 0.517 255 255 255
0.039 -0.17 0.577 0 0 0
0.118 -0.062 0.736 255 255 255
0.163 -0.315 0.51 0 0 0
0.196 0.117 0.451 255 255 255
0.511 -0.09 0.944 255 255 255
0.113 0.068 0.512 255 255 255
0.064 -0.298 0.54 255 255 255
-0.27 0.015 0.457 255 255 255
0.21 -0.051 0.757 255 255 255
-0.036 0.025 0.485 255 255 255
0.126 -0.102 0.577 0 0 0
-0.117 0.063 0.456 255 255 255
0.339 -0.318 0.863 255 255 255
-0.142 -0.203 0.539 255 255 255
-0.04 0.135 0.358 255 255 255
-0.014 0.133 0.369 255 255 255
-0.078 0.12 0.368 255 255 255
-0.031 0.12 0.385 255 255 255
-0.041 0.109 0.402 255 255 255
-0.267 -0.289 0.508 255 255 255
0.484 -0.034 0.819 255 255 255
-0.136 -0.245 0.527 255 255 255
-0.204 -0.284 0.516 0 0 0
0.125 -0.36 0.527 255 255 255
-0.127 -0.099 0.683 255 255 255
-0.308 -0.002 0.466 255 255 255
0.588 -0.314 0.891 255 255 255
0.384 -0.475 0.776 255 255 255
-0.049 0.15 0.335 0 0 0
-0.035 -0.304 0.524 0 0 0
-0.11 0.013 0.504 255 255 255
-0.034 0.071 0.461 255 255 255
0.336 -0.293 0.874 255 255 255
-0.006 -0.186 0.555 255 255 255
-0.054 -0.262 0.526 255 255 255
-0.345 -0.178 0.539 255 255 255
-0.087 0.142 0.327 255 255 255
-0.058 -0.101 0.574 0 0 0
-0.161 0.092 0.392 255 255 255
0.042 -0.023 0.644 255 255 255
0.334 -0.516 0.749 255 255 255
0.214 -0.009 0.684 255 255 255
-0.182 -0.06 0.563 255 255 255
0.434 0.009 0.738 255 255 255
0.113 0.124 0.414 255 255 255
-0.232 -0.359 0.491 0 0 0
-0.13 0.072 0.443 255 255 255
0.195 0.104 0.477 255 255 255
-0.209 -0.102 0.567 0 0 0
-0.198 0.077 0.405 255 255 255
0.04 -0.082 0.753 255 255 255
-0.083 0.131 0.352 255 255 255
0.038 0.091 0.446 255 255 255
0.039 0.109 0.415 255 255 255
-0.066 0.162 0.334 255 255 255
-0.2 -0.306 0.511 255 255 255
0.036 -0.226 0.557 0 0 0
0.04 0.136 0.382 255 255 255
-0.165 0.112 0.351 255 255 255
0.041 0.019 0.574 255 255 255
-0.153 0.074 0.43 255 255 255
-0.13 -0.221 0.533 255 255 255
-0.145 -0.099 0.551 255 255 255
0.286 -0.104 0.943 255 255 255
0.441 -0.397 0.823 255 255 255
-0.17 0.088 0.396 255 255 255
0.107 0.085 0.48 255 255 255
0.006 -0.217 0.549 255 255 255
0.104 -0.215 0.573 255 255 255
0.558 -0.245 0.915 255 255 255
-0.03 0.025 0.492 255 255 255
-0.064 -0.014 0.545 255 255 255
-0.014 -0.173 0.556 255 255 255
0.007 0.154 0.339 0 0 0
-0.115 0.14 0.324 255 255 255
0.422 -0.419 0.811 255 255 255
0.12 0.102 0.454 255 255 255
0.053 -0.215 0.565 0 0 0
-0.024 0.117 0.391 255 255 255
0.063 0.065 0.501 255 255 255
-0.117 0.114 0.365 255 255 255
-0.083 -0.029 0.549 255 255 255
0.088 -0.337 0.529 255 255 255
0.118 0.115 0.431 255 255 255
-0.042 0.089 0.442 255 255 255
0.01 0.038 0.51 255 255 255
0.099 0.14 0.397 0 0 0
0.075 -0.385 0.511 0 0 0
-0.018 -0.378 0.505 0 0 0
0.364 -0.349 0.847 255 255 255
-0.061 -0.13 0.568 0 0 0
0.061 0.09 0.455 255 255 255
-0.225 -0.136 0.566 0 0 0
0.009 0.163 0.338 255 255 255
-0.042 -0.342 0.511 255 255 255
0.274 -0.039 0.757 255 255 255
-0.205 -0.297 0.512 255 255 255
-0.033 0.111 0.401 255 255 255
-0.028 -0.369 0.504 0 0 0
0.099 0.168 0.351 255 255 255
-0.043 0.101 0.416 255 255 255
0.026 -0.123 0.595 0 0 0
-0.173 -0.126 0.57 0 0 0
0.453 -0.268 0.778 255 255 255
-0.229 -0.225 0.534 255 255 255
0.467 -0.167 0.87 255 255 255
0.127 -0.385 0.518 0 0 0
-0.234 -0.175 0.552 255 255 255
0.367 0.012 0.702 255 255 255
-0.132 0.201 0.373 255 255 255
0.01 0.104 0.429 255 255 255
0.08 0.132 0.394 255 255 255
-0.246 0.019 0.457 255 255 255
0.369 0.044 0.642 255 255 255
-0.232 -0.244 0.53 255 255 255
-0.117 0.141 0.323 255 255 255
0.029 -0.207 0.562 255 255 255
-0.264 -0.08 0.561 255 255 255
-0.097 -0.272 0.523 0 0 0
-0.085 -0.12 0.572 255 255 255
-0.022 -0.168 0.554 255 255 255
0.146 -0.331 0.54 255 255 255
-0.02 0.125 0.38 255 255 255
-0.179 -0.309 0.511 255 255 255
-0.142 0.11 0.363 255 255 255
-0.123 0.106 0.38 255 255 255
0.283 -0.041 0.762 255 255 255
0.313 0.07 0.568 0 0 0
-0.176 -0.156 0.561 255 255 255
-0.017 0.11 0.404 255 255 255
0.076 -0.361 0.522 255 255 255
0.106 0.121 0.416 255 255 255
-0.059 0.13 0.359 255 255 255
0.344 0.061 0.602 255 255 255
0.073 -0.245 0.556 255 255 255
0.114 0.144 0.393 255 255 255
-0.089 -0.207 0.531 255 255 255
-0.023 -0.107 0.589 0 0 0
0.323 -0.15 0.788 0 0 0
0.002 -0.296 0.53 0 0 0
0.072 -0.387 0.51 0 0 0
-0.126 -0.006 0.522 255 255 255
-0.076 -0.049 0.573 255 255 255
-0.118 0.043 0.461 255 255 255
-0.155 0.097 0.384 255 255 255
-0.214 -0.136 0.567 255 255 255
-0.201 0.024 0.46 255 255 255
0.228 0.047 0.584 255 255 255
-0.267 0.008 0.463 255 255 255
0.258 -0.341 0.846 255 255 255
-0.2 -0.308 0.51 255 255 255
-0.251 -0.236 0.528 0 0 0
-0.217 0.082 0.391 255 255 255
0.288 -0.516 0.744 255 255 255
-0.097 -0.13 0.567 0 0 0
0.017 0.109 0.425 255 255 255
-0.324 -0.216 0.528 255 255 255
0.098 -0.175 0.588 255 255 255
0.361 0.006 0.713 255 255 255
0.286 -0.244 0.903 255 255 255
0.016 -0.335 0.523 255 255 255
0.444 -0.047 0.842 0 0 0
-0.128 -0.107 0.56 0 0 0
0.452 0.013 0.735 255 255 255
0.151 -0.245 0.533 0 0 0
0.029 -0.196 0.565 255 255 255
-0.304 -0.13 0.547 255 255 255
-0.075 -0.281 0.523 0 0 0
-0.103 0.181 0.362 255 255 255
-0.021 0.16 0.335 255 255 255
0.165 0.131 0.419 255 255 255
0.146 -0.35 0.534 255 255 255
0.375 -0.399 0.818 255 255 255
-0.09 -0.01 0.513 255 255 255
0.437 -0.22 0.801 255 255 255
-0.171 -0.214 0.54 255 255 255
-0.094 -0.107 0.571 255 255 255
0.033 0.044 0.527 255 255 255
-0.204 0.093 0.374 255 255 255
0.034 0.216 0.396 255 255 255
0.163 -0.358 0.517 0 0 0
0.14 -0.216 0.561 0 0 0
-0.18 -0.013 0.502 255 255 255
-0.262 0.049 0.428 255 255 255
-0.051 0.126 0.367 255 255 255
-0.062 0.112 0.391 255 255 255
0.052 0.12 0.401 255 255 255
-0.171 -0.262 0.524 255 255 255
0.32 -0.323 0.86 255 255 255
0.386 -0.256 0.76 0 0 0
0.002 -0.236 0.542 0 0 0
-0.055 -0.213 0.532 255 255 255
-0.125 -0.35 0.504 255 255 255
-0.063 -0.23 0.528 255 255 255
0.011 -0.167 0.57 255 255 255
-0.151 -0.095 0.566 255 255 255
-0.292 -0.099 0.59 255 255 255
-0.092 -0.207 0.531 255 255 255
-0.095 0.13 0.348 255 255 255
0.104 -0.216 0.573 255 255 255
0.419 0.031 0.69 255 255 255
-0.231 -0.268 0.521 255 255 255
-0.345 -0.124 0.557 0 0 0
0.008 -0.052 0.676 255 255 255
-0.137 0.031 0.473 255 255 255
-0.102 -0.092 0.558 0 0 0
0.06 -0.101 0.607 0 0 0
-0.204 0.054 0.447 255 255 255
0.348 0.046 0.634 0 0 0
0.036 0.137 0.377 255 255 255
-0.017 0.129 0.375 255 255 255
0.044 -0.383 0.514 0 0 0
-0.13 0.115 0.357 255 255 255
0.303 0.05 0.606 255 255 255
-0.179 0.074 0.418 255 255 255
0.042 0.049 0.523 255 255 255
0.075 -0.081 0.583 0 0 0
0.029 0.023 0.565 255 255 255
0.14 -0.032 0.696 255 255 255
0.018 0.084 0.467 255 255 255
-0.282 -0.217 0.532 255 255 255
0.111 0.15 0.383 255 255 255
0.262 -0.293 0.872 255 255 255
0.053 0.129 0.39 255 255 255
-0.01 -0.191 0.551 255 255 255
-0.229 0.056 0.431 255 255 255
0.057 0.206 0.391 255 255 255
-0.043 -0.173 0.545 255 255 255
-0.068 -0.299 0.52 0 0 0
0.023 0.14 0.371 255 255 255
-0.126 0.143 0.319 0 0 0
-0.176 0.106 0.359 255 255 255
0.398 -0.251 0.763 255 255 255
0.352 -0.45 0.788 255 255 255
-0.054 -0.366 0.503 0 0 0
0.452 0.023 0.718 255 255 255
0.165 -0.383 0.525 0 0 0
0.051 0.154 0.355 255 255 255
-0.201 0.069 0.421 255 255 255
-0.039 -0.07 0.688 255 255 255
0.058 0.019 0.579 255 255 255
-0.101 0.051 0.459 255 255 255
0.128 -0.328 0.538 255 255 255
-0.229 -0.069 0.557 255 255 255
-0.065 0.096 0.424 255 255 255
0.01 0.097 0.443 255 255 255
-0.145 0.124 0.338 255 255 255
0.142 -0.395 0.516 0 0 0
0.03 -0.253 0.545 255 255 255
-0.221 0.015 0.469 255 255 255
0.045 0.126 0.39 255 255 255
-0.153 -0.339 0.505 255 255 255
0.346 -0.555 0.727 0 0 0
0.092 0.147 0.383 255 255 255
0.327 -0.279 0.885 255 255 255
-0.266 -0.107 0.541 0 0 0
0.054 -0.337 0.527 255 255 255
0.195 0.083 0.511 255 255 255
0.149 -0.382 0.522 0 0 0
-0.136 -0.274 0.522 0 0 0
-0.102 0.04 0.465 255 255 255
0.392 -0.522 0.756 255 255 255
0.138 0.118 0.434 255 255 255
-0.115 0.029 0.477 255 255 255
0.305 -0.136 0.872 255 255 255
-0.013 0.126 0.381 255 255 255
-0.043 0.123 0.375 255 255 255
-0.179 -0.254 0.527 255 255 255
-0.006 0.032 0.504 255 255 255
-0.013 -0.252 0.535 255 255 255
-0.213 0.086 0.385 255 255 255
-0.146 -0.25 0.528 255 255 255
-0.243 -0.295 0.508 0 0 0
0.306 -0.177 0.939 255 255 255
-0.028 0.143 0.35 255 255 255
-0.358 -0.015 0.472 255 255 255
0.157 0.026 0.603 255 255 255
0.066 -0.333 0.53 255 255 255
-0.089 0.15 0.325 0 0 0
-0.024 -0.179 0.549 255 255 255
-0.313 -0.135 0.552 0 0 0
0.1 0.219 0.401 255 255 255
-0.131 -0.092 0.573 255 255 255
-0.095 0.03 0.483 255 255 255
0.138 -0.24 0.569 255 255 255
0.025 -0.158 0.58 255 255 255
-0.098 -0.301 0.518 255 255 255
0.402 -0.494 0.772 255 255 255
-0.216 -0.165 0.558 255 255 255
0.322 -0.507 0.753 255 255 255
-0.249 -0.175 0.552 255 255 255
0.08 0.059 0.515 255 255 255
-0.101 0.091 0.414 255 255 255
0.297 0 0.699 255 255 255
0.03 0.067 0.486 255 255 255
-0.071 -0.35 0.505 255 255 255
-0.236 -0.262 0.524 255 255 255
-0.035 -0.141 0.567 255 255 255
0.237 0.088 0.515 0 0 0
-0.087 -0.033 0.539 255 255 255
-0.066 -0.093 0.565 0 0 0
-0.291 -0.158 0.554 0 0 0
0.372 -0.199 0.78 0 0 0
-0.269 -0.118 0.535 0 0 0
0.038 0.117 0.401 255 255 255
0.139 -0.209 0.546 0 0 0
0.278 0.036 0.623 255 255 255
-0.134 -0.337 0.506 0 0 0
-0.11 -0.241 0.526 255 255 255
-0.166 0.102 0.369 255 255 255
-0.129 -0.157 0.553 255 255 255
0.322 -0.304 0.87 255 255 255
-0.298 0.008 0.458 255 255 255
-0.123 -0.243 0.528 255 255 255
0.12 -0.256 0.56 255 255 255
0.528 -0.126 0.793 255 255 255
-0.143 0.184 0.364 255 255 255
-0.307 -0.04 0.496 255 255 255
0.607 -0.015 0.854 255 255 255
0.078 -0.282 0.545 255 255 255
-0.23 -0.301 0.51 0 0 0
0.206 0.098 0.489 0 0 0
0.13 0.104 0.456 255 255 255
0.343 -0.195 0.881 0 0 0
0.099 0.025 0.583 255 255 255
0.041 -0.301 0.538 255 255 255
0.097 -0.042 0.697 255 255 255
0.31 0.013 0.678 255 255 255
-0.118 0.064 0.455 255 255 255
-0.012 0.134 0.369 255 255 255
0.256 -0.364 0.832 255 255 255
-0.139 0.085 0.416 255 255 255
0.37 -0.03 0.78 255 255 255
-0.066 -0.079 0.698 0 0 0
-0.13 -0.092 0.559 255 255 255
-0.051 -0.286 0.523 255 255 255
-0.082 0.058 0.461 255 255 255
-0.027 0.103 0.422 255 255 255
0.069 0.183 0.359 255 255 255
-0.353 -0.127 0.688 255 255 255
0.019 -0.131 0.587 255 255 255
-0.032 0.04 0.477 255 255 255
0.044 0.162 0.346 0 0 0
-0.128 0.096 0.397 255 255 255
-0.107 0.139 0.326 255 255 255
0.167 0.108 0.459 255 255 255
0.429 -0.339 0.856 255 255 255
-0.335 -0.223 0.524 255 255 255
