ply
format ascii 1.0
comment Created by Open3D
element vertex 1614
property double x
property double y
property double z
property uchar red
property uchar green
property uchar blue
end_header
-0.132 -0.064 0.568 255 255 255
-0.183 0.102 0.36 255 255 255
0.027 0.141 0.358 255 255 255
-0.12 0.103 0.377 255 255 255
0.199 -0.298 0.88 255 255 255
0.266 -0.307 0.878 255 255 255
0.098 0.14 0.381 255 255 255
0.033 -0.194 0.571 0 0 0
-0.128 -0.351 0.492 255 255 255
0.558 -0.14 0.876 255 255 255
-0.077 0.123 0.355 255 255 255
0.02 -0.352 0.513 255 255 255
0.458 -0.195 0.968 255 255 255
0 0.176 0.358 255 255 255
0.092 -0.331 0.534 255 255 255
0.32 -0.577 0.725 255 255 255
0.525 -0.251 0.923 0 0 0
0.121 -0.033 0.669 0 0 0
0.109 -0.35 0.489 255 255 255
0.505 -0.262 0.933 255 255 255
0.281 -0.186 0.792 255 255 255
0.054 -0.282 0.544 255 255 255
-0.111 0.111 0.364 255 255 255
-0.028 0.158 0.33 255 255 255
0.211 0.069 0.517 255 255 255
-0.063 0.07 0.45 255 255 255
-0.196 -0.271 0.508 0 0 0
0.13 0.213 0.408 255 255 255
-0.04 0.057 0.449 255 255 255
-0.012 0.055 0.478 255 255 255
0.55 -0.056 0.862 255 255 255
-0.121 -0.208 0.519 255 255 255
0.389 -0.001 0.704 255 255 255
-0.053 -0.165 0.549 255 255 255
0.35 -0.429 0.817 255 255 255
-0.03 -0.207 0.539 255 255 255
-0.113 0.11 0.363 255 255 255
-0.204 -0.196 0.529 255 255 255
0.085 0.122 0.395 255 255 255
-0.077 -0.011 0.508 255 255 255
0.024 -0.222 0.557 0 0 0
-0.028 0.132 0.354 255 255 255
0.562 -0.264 0.91 255 255 255
0.44 -0.252 0.861 255 255 255
-0.221 -0.262 0.508 255 255 255
0.239 0.094 0.484 0 0 0
-0.269 0.036 0.44 0 0 0
0.347 -0.375 0.849 255 255 255
0.553 0.027 0.784 255 255 255
0.57 -0.164 0.834 255 255 255
0.406 -0.368 0.748 255 255 255
0.139 0.003 0.611 255 255 255
-0.276 -0.223 0.516 255 255 255
-0.108 0.192 0.382 255 255 255
-0.088 0.002 0.492 255 255 255
-0.156 0.024 0.465 255 255 255
-0.301 -0.134 0.54 0 0 0
0.324 -0.327 0.789 255 255 255
0.177 -0.103 0.913 255 255 255
0.102 0.155 0.353 255 255 255
0.255 -0.207 0.937 255 255 255
-0.008 -0.203 0.552 0 0 0
-0.287 -0.224 0.515 255 255 255
-0.054 0.131 0.345 255 255 255
-0.141 -0.095 0.553 0 0 0
0.076 0.082 0.459 255 255 255
-0.212 0.026 0.444 255 255 255
-0.038 0.105 0.397 255 255 255
0.014 -0.236 0.548 255 255 255
-0.331 -0.2 0.513 255 255 255
-0.007 0.04 0.504 255 255 255
-0.162 0.093 0.379 255 255 255
-0.02 0.094 0.42 255 255 255
0.014 -0.177 0.573 255 255 255
-0.062 -0.031 0.552 255 255 255
-0.256 0.036 0.443 0 0 0
-0.032 0.025 0.497 255 255 255
-0.121 0.097 0.387 255 255 255
-0.137 0.127 0.331 255 255 255
-0.28 -0.179 0.53 255 255 255
0.069 0.215 0.404 255 255 255
-0.025 0.153 0.329 0 0 0
0.039 0.196 0.386 255 255 255
-0.065 -0.157 0.548 255 255 255
0.239 -0.001 0.651 255 255 255
0.148 0.138 0.396 255 255 255
0.039 0.103 0.41 255 255 255
0.037 -0.327 0.526 255 255 255
-0.35 -0.116 0.509 255 255 255
-0.02 -0.174 0.557 255 255 255
0.415 -0.151 0.912 255 255 255
0.034 0.123 0.386 0 0 0
-0.098 0.16 0.329 255 255 255
-0.113 -0.195 0.522 255 255 255
0.229 -0.152 0.959 0 0 0
0.126 0.141 0.384 255 255 255
-0.195 -0.348 0.483 0 0 0
-0.072 0.043 0.462 255 255 255
-0.179 -0.101 0.535 255 255 255
0.079 0.16 0.347 0 0 0
-0.082 -0.297 0.511 0 0 0
-0.004 -0.314 0.52 255 255 255
-0.023 -0.227 0.538 0 0 0
0.03 -0.055 0.677 255 255 255
-0.08 0.119 0.36 255 255 255
0.181 0.112 0.436 255 255 255
0.561 -0.095 0.821 255 255 255
-0.247 0.009 0.459 255 255 255
0.481 -0.141 0.996 0 0 0
0.139 0.078 0.499 255 255 255
-0.102 0.117 0.356 255 255 255
-0.247 0.011 0.459 255 255 255
0.019 0.049 0.497 255 255 255
-0.082 -0.325 0.504 255 255 255
0.097 -0.045 0.682 255 255 255
0.338 -0.423 0.82 255 255 255
-0.173 -0.04 0.539 255 255 255
0.034 -0.219 0.559 0 0 0
0.38 -0.393 0.843 255 255 255
0.292 -0.281 0.764 255 255 255
0.215 -0.424 0.806 255 255 255
-0.038 0.047 0.461 255 255 255
-0.279 -0.116 0.518 0 0 0
0.507 -0.22 0.955 255 255 255
-0.025 0.025 0.533 0 0 0
0.407 0 0.708 255 255 255
0.475 -0.317 0.883 0 0 0
0.148 0.014 0.596 255 255 255
0.407 -0.432 0.783 255 255 255
0.289 0.024 0.621 255 255 255
-0.041 -0.213 0.533 0 0 0
0.541 0.028 0.808 0 0 0
-0.172 -0.327 0.492 255 255 255
-0.035 0.158 0.329 255 255 255
-0.23 0.063 0.411 255 255 255
0.053 0.06 0.489 255 255 255
-0.119 0.055 0.449 255 255 255
0.016 -0.048 0.662 255 255 255
0.07 0.007 0.582 255 255 255
0.179 -0.328 0.861 255 255 255
0.305 -0.571 0.728 255 255 255
-0.164 -0.155 0.545 0 0 0
-0.033 0.029 0.49 255 255 255
-0.1 -0.101 0.548 0 0 0
0.076 0.079 0.462 255 255 255
0.028 -0.26 0.544 0 0 0
0.242 -0.269 0.9 255 255 255
-0.128 -0.27 0.51 255 255 255
0.142 0.167 0.359 0 0 0
-0.196 -0.309 0.495 0 0 0
0.191 0.102 0.456 255 255 255
0.241 0.027 0.6 255 255 255
-0.083 0.062 0.451 0 0 0
-0.004 -0.202 0.554 0 0 0
0.242 0.042 0.572 255 255 255
-0.026 -0.175 0.554 255 255 255
-0.19 -0.103 0.591 0 0 0
-0.126 0.137 0.315 255 255 255
-0.062 0.12 0.362 255 255 255
0.056 0.15 0.346 255 255 255
0.072 -0.125 0.58 0 0 0
-0.082 0.144 0.324 255 255 255
-0.113 -0.26 0.513 0 0 0
0.366 0.031 0.634 255 255 255
0.022 -0.087 0.573 255 255 255
0.455 -0.097 0.83 255 255 255
0.025 0.14 0.355 255 255 255
-0.302 -0.167 0.529 255 255 255
-0.212 -0.323 0.49 255 255 255
0.553 -0.069 0.854 255 255 255
0.083 -0.33 0.532 255 255 255
-0.229 -0.125 0.551 0 0 0
0.297 0.069 0.507 255 255 255
-0.014 0.073 0.451 255 255 255
-0.239 -0.123 0.548 0 0 0
-0.081 -0.253 0.516 255 255 255
-0.029 -0.045 0.565 255 255 255
-0.187 -0.188 0.532 255 255 255
-0.117 0.061 0.448 255 255 255
-0.04 -0.05 0.574 255 255 255
-0.099 0.127 0.34 255 255 255
-0.125 0.1 0.378 255 255 255
-0.01 0.116 0.387 255 255 255
0.217 -0.312 0.873 255 255 255
-0.045 -0.163 0.553 255 255 255
0.173 -0.125 0.94 255 255 255
0.078 -0.132 0.566 0 0 0
0.092 -0.212 0.536 0 0 0
-0.017 0.104 0.404 255 255 255
0.072 0.055 0.502 255 255 255
-0.064 0.071 0.449 255 255 255
-0.076 0.092 0.411 255 255 255
-0.207 0.082 0.39 255 255 255
0.226 0.098 0.474 255 255 255
-0.276 0.016 0.442 255 255 255
-0.413 -0.097 0.543 255 255 255
0.383 -0.127 0.901 255 255 255
-0.22 -0.169 0.541 255 255 255
-0.143 0.125 0.331 255 255 255
0.296 -0.415 0.822 255 255 255
0.245 -0.492 0.768 255 255 255
0.222 -0.216 0.93 255 255 255
0.182 0.028 0.581 255 255 255
0.123 0.11 0.422 255 255 255
0.015 -0.184 0.57 255 255 255
-0.07 0.124 0.349 255 255 255
-0.022 -0.088 0.573 0 0 0
-0.156 -0.24 0.517 0 0 0
0.026 0.084 0.438 255 255 255
-0.111 -0.099 0.547 255 255 255
-0.047 -0.096 0.559 0 0 0
-0.238 0.053 0.427 255 255 255
0.199 0.071 0.511 0 0 0
-0.006 -0.257 0.536 255 255 255
-0.132 -0.015 0.498 255 255 255
-0.222 -0.348 0.48 0 0 0
-0.028 -0.333 0.509 255 255 255
-0.024 -0.123 0.584 255 255 255
-0.068 0 0.503 255 255 255
-0.241 -0.306 0.492 255 255 255
-0.096 0.094 0.402 255 255 255
-0.259 0.019 0.444 255 255 255
0.553 -0.076 0.854 255 255 255
-0.019 0.141 0.341 255 255 255
0.291 -0.372 0.846 255 255 255
0.392 -0.372 0.778 255 255 255
0.127 -0.018 0.645 255 255 255
-0.197 -0.309 0.497 0 0 0
0.302 -0.229 0.771 255 255 255
-0.102 0.146 0.315 255 255 255
0.071 -0.025 0.639 255 255 255
-0.015 -0.161 0.569 255 255 255
0.303 -0.198 0.786 0 0 0
0.213 0.128 0.417 255 255 255
-0.034 -0.37 0.5 0 0 0
0.035 -0.092 0.573 255 255 255
-0.295 0.007 0.456 255 255 255
0.165 0.007 0.612 255 255 255
-0.002 -0.151 0.577 0 0 0
0.195 -0.385 0.828 255 255 255
-0.128 -0.043 0.544 255 255 255
-0.28 -0.136 0.544 255 255 255
-0.03 -0.322 0.514 0 0 0
0.062 0.028 0.547 255 255 255
0.506 -0.228 0.952 255 255 255
0.269 0.053 0.557 0 0 0
-0.356 -0.118 0.506 255 255 255
0.553 0.042 0.781 255 255 255
0.052 0.056 0.496 255 255 255
-0.149 -0.306 0.5 0 0 0
0.384 -0.097 0.853 255 255 255
0.012 0.111 0.39 255 255 255
-0.202 -0.174 0.539 255 255 255
-0.067 0.058 0.448 255 255 255
0.258 -0.367 0.845 255 255 255
-0.115 0.069 0.441 255 255 255
0.208 -0.061 0.746 255 255 255
0.274 -0.272 0.872 0 0 0
-0.159 0.097 0.373 255 255 255
-0.136 0.097 0.38 255 255 255
0.414 -0.066 0.835 0 0 0
-0.056 -0.138 0.562 0 0 0
0.551 -0.124 0.898 255 255 255
0.244 -0.275 0.896 255 255 255
0.181 -0.196 0.935 255 255 255
0.131 0.209 0.396 255 255 255
-0.301 -0.253 0.501 255 255 255
0.513 -0.228 0.928 0 0 0
-0.285 -0.191 0.526 255 255 255
0.02 -0.134 0.59 0 0 0
-0.094 -0.235 0.516 0 0 0
-0.042 -0.336 0.506 255 255 255
-0.018 -0.141 0.576 0 0 0
0.196 -0.39 0.825 255 255 255
0.256 0.07 0.507 255 255 255
0.076 -0.325 0.532 255 255 255
0.381 -0.093 0.848 255 255 255
-0.106 0.143 0.317 0 0 0
-0.034 -0.303 0.518 255 255 255
0.036 -0.197 0.568 0 0 0
0.402 -0.07 0.844 0 0 0
-0.076 -0.11 0.569 0 0 0
-0.176 -0.373 0.478 0 0 0
0.034 0.094 0.424 255 255 255
0.101 0.096 0.44 255 255 255
-0.168 0.051 0.45 0 0 0
0.235 -0.31 0.876 255 255 255
-0.01 -0.292 0.525 0 0 0
-0.182 -0.161 0.545 255 255 255
0.137 0.138 0.394 255 255 255
0.236 -0.277 0.895 0 0 0
-0.245 -0.311 0.486 255 255 255
-0.121 0.145 0.312 255 255 255
0.069 -0.058 0.694 255 255 255
0.57 -0.094 0.788 255 255 255
0.014 -0.21 0.557 255 255 255
0.173 0.12 0.417 255 255 255
0.146 0.169 0.36 0 0 0
0.001 0.104 0.394 255 255 255
0.277 -0.289 0.814 255 255 255
0.221 -0.052 0.735 255 255 255
0.34 -0.371 0.852 255 255 255
0.184 -0.428 0.799 255 255 255
0.016 -0.198 0.562 255 255 255
-0.083 -0.214 0.521 255 255 255
0.444 -0.155 0.773 255 255 255
0.234 -0.106 0.883 0 0 0
0.555 0.015 0.781 255 255 255
0.176 0.106 0.444 255 255 255
-0.205 0.029 0.444 255 255 255
-0.041 0.187 0.37 255 255 255
-0.125 -0.094 0.555 0 0 0
-0.123 -0.218 0.517 255 255 255
0.063 0.209 0.398 255 255 255
-0.106 0.137 0.315 255 255 255
0.06 -0.231 0.561 255 255 255
0.084 -0.308 0.54 255 255 255
0.287 0.073 0.516 0 0 0
0.093 0.119 0.398 255 255 255
0.294 0.056 0.52 255 255 255
-0.125 -0.32 0.499 255 255 255
0.198 -0.153 0.955 0 0 0
-0.208 -0.356 0.479 0 0 0
-0.047 0.14 0.334 255 255 255
-0.174 -0.33 0.491 255 255 255
0.285 -0.499 0.767 255 255 255
0.34 -0.416 0.823 255 255 255
0.063 -0.126 0.601 255 255 255
0.568 -0.245 0.89 255 255 255
0.564 -0.117 0.827 255 255 255
-0.341 -0.1 0.582 255 255 255
0.194 0.097 0.464 255 255 255
0.096 -0.371 0.521 255 255 255
-0.052 0.059 0.447 255 255 255
-0.039 -0.083 0.718 0 0 0
0.011 0.103 0.403 255 255 255
0.008 -0.018 0.608 255 255 255
0.393 -0.346 0.757 255 255 255
-0.186 -0.163 0.544 255 255 255
0.274 -0.333 0.832 0 0 0
0.036 -0.033 0.641 255 255 255
-0.065 -0.042 0.554 0 0 0
-0.164 0.122 0.332 255 255 255
-0.239 -0.173 0.539 255 255 255
0.587 -0.289 0.878 255 255 255
-0.108 -0.258 0.512 255 255 255
-0.049 0.209 0.384 255 255 255
0.402 -0.479 0.799 255 255 255
-0.228 -0.362 0.469 255 255 255
0.19 0.033 0.573 255 255 255
-0.18 0.051 0.448 0 0 0
0.07 0.024 0.547 0 0 0
0.41 -0.447 0.785 255 255 255
0.078 -0.083 0.583 255 255 255
-0.27 -0.265 0.501 255 255 255
-0.295 -0.108 0.644 255 255 255
-0.054 0.138 0.338 255 255 255
0.221 -0.434 0.8 255 255 255
-0.023 0.126 0.365 255 255 255
-0.025 -0.101 0.565 0 0 0
-0.003 0.09 0.418 255 255 255
-0.108 -0.202 0.52 255 255 255
-0.117 -0.166 0.534 255 255 255
-0.157 -0.153 0.544 0 0 0
0.193 0.071 0.506 255 255 255
0.306 -0.373 0.848 255 255 255
0.538 -0.106 0.951 0 0 0
-0.319 -0.205 0.517 255 255 255
-0.272 -0.156 0.538 255 255 255
-0.006 -0.336 0.514 255 255 255
-0.272 0.02 0.44 255 255 255
-0.238 -0.213 0.522 255 255 255
-0.186 -0.159 0.546 255 255 255
-0.136 -0.054 0.548 255 255 255
-0.231 -0.179 0.537 255 255 255
0.535 -0.39 0.877 255 255 255
-0.214 0.059 0.426 255 255 255
0.021 -0.098 0.576 0 0 0
-0.033 -0.225 0.535 255 255 255
0.565 -0.09 0.802 255 255 255
-0.052 0.167 0.339 255 255 255
0.251 0.089 0.493 255 255 255
-0.072 0.142 0.327 255 255 255
0.195 -0.12 0.946 255 255 255
0.196 0.086 0.483 255 255 255
-0.107 -0.257 0.512 255 255 255
0.134 0.139 0.39 255 255 255
0.34 -0.383 0.844 255 255 255
-0.265 -0.185 0.53 255 255 255
0.576 -0.201 0.842 255 255 255
-0.258 0.012 0.457 255 255 255
-0.008 -0.343 0.511 255 255 255
-0.049 0.091 0.421 255 255 255
-0.325 -0.11 0.511 255 255 255
0.052 -0.257 0.552 255 255 255
0.417 -0.024 0.758 255 255 255
-0.146 -0.317 0.498 0 0 0
0.287 -0.137 0.8 255 255 255
-0.116 0.145 0.314 0 0 0
-0.057 -0.193 0.535 255 255 255
0.047 0.096 0.423 255 255 255
-0.165 -0.007 0.504 255 255 255
0.281 -0.445 0.801 255 255 255
-0.262 -0.064 0.527 255 255 255
-0.017 0.087 0.436 255 255 255
0.007 0.081 0.439 255 255 255
0.235 -0.103 0.872 0 0 0
0.16 0.161 0.368 255 255 255
-0.275 -0.139 0.543 0 0 0
0.045 0.096 0.424 255 255 255
0.03 0.148 0.343 255 255 255
-0.23 0.074 0.392 255 255 255
-0.304 -0.156 0.534 255 255 255
0.301 -0.279 0.763 255 255 255
-0.182 -0.253 0.512 255 255 255
0.07 -0.329 0.53 255 255 255
0.028 -0.009 0.599 255 255 255
0.502 -0.359 0.879 255 255 255
-0.149 -0.277 0.506 0 0 0
-0.183 -0.153 0.546 255 255 255
0.026 -0.122 0.596 255 255 255
-0.037 0.115 0.38 255 255 255
0.082 0.042 0.52 255 255 255
0.312 -0.007 0.689 255 255 255
-0.093 0.13 0.337 255 255 255
-0.301 -0.239 0.508 255 255 255
-0.278 -0.185 0.529 255 255 255
-0.149 -0.076 0.624 255 255 255
-0.128 -0.268 0.51 255 255 255
-0.067 0.008 0.492 255 255 255
-0.292 -0.119 0.519 0 0 0
-0.018 0.1 0.413 255 255 255
-0.072 -0.146 0.552 255 255 255
0.22 -0.006 0.656 255 255 255
0.377 -0.365 0.858 0 0 0
-0.068 -0.027 0.532 255 255 255
0.083 -0.1 0.578 255 255 255
0.169 0.078 0.488 255 255 255
0.213 -0.337 0.859 255 255 255
0.198 -0.49 0.763 255 255 255
0.479 -0.179 0.978 0 0 0
0.539 -0.056 0.92 255 255 255
-0.18 -0.204 0.527 255 255 255
0.271 -0.4 0.827 255 255 255
0.042 -0.191 0.572 255 255 255
-0.033 -0.027 0.554 255 255 255
-0.126 -0.289 0.506 0 0 0
0.209 0.053 0.541 255 255 255
0.098 -0.369 0.522 255 255 255
-0.082 0.032 0.464 255 255 255
-0.136 -0.229 0.515 0 0 0
-0.196 -0.122 0.556 0 0 0
0.539 -0.065 0.932 255 255 255
0.422 -0.019 0.752 255 255 255
0.35 -0.369 0.853 255 255 255
-0.192 -0.293 0.5 255 255 255
-0.227 -0.128 0.552 0 0 0
0.091 -0.206 0.539 0 0 0
-0.212 -0.23 0.52 0 0 0
-0.07 -0.228 0.521 255 255 255
-0.158 -0.082 0.642 255 255 255
-0.09 -0.01 0.501 255 255 255
-0.284 0.011 0.449 255 255 255
0.107 0.128 0.394 0 0 0
0.24 0.045 0.564 255 255 255
-0.194 0.053 0.44 255 255 255
-0.204 -0.171 0.54 255 255 255
0.045 -0.158 0.587 255 255 255
0.15 0.072 0.493 255 255 255
0.388 -0.359 0.777 255 255 255
0.107 0.157 0.355 255 255 255
0.004 0.128 0.37 255 255 255
0.03 -0.085 0.722 255 255 255
0.533 0.035 0.796 0 0 0
0.568 -0.121 0.81 255 255 255
-0.086 -0.139 0.556 0 0 0
-0.069 -0.122 0.569 0 0 0
0.225 -0.124 0.928 255 255 255
-0.083 0.086 0.422 255 255 255
0.152 0.117 0.419 255 255 255
0.016 0.124 0.382 255 255 255
0.128 0.005 0.604 255 255 255
-0.013 -0.203 0.55 0 0 0
0.002 0.15 0.335 0 0 0
-0.252 0.011 0.457 255 255 255
0.088 -0.304 0.54 255 255 255
0.083 0.128 0.393 0 0 0
-0.309 0.006 0.449 255 255 255
0.361 -0.366 0.855 0 0 0
-0.029 0.002 0.527 255 255 255
-0.212 -0.142 0.55 255 255 255
0.198 -0.338 0.858 255 255 255
0.3 -0.544 0.745 0 0 0
-0.329 -0.201 0.515 255 255 255
0.079 0.102 0.424 255 255 255
-0.056 -0.221 0.526 255 255 255
0.075 -0.213 0.571 255 255 255
-0.294 -0.193 0.524 255 255 255
-0.243 -0.155 0.542 255 255 255
-0.059 0.128 0.35 255 255 255
-0.214 -0.121 0.551 0 0 0
0.321 -0.299 0.753 255 255 255
0.511 -0.376 0.872 255 255 255
-0.099 -0.242 0.515 255 255 255
0.56 -0.289 0.915 255 255 255
0.003 -0.084 0.718 255 255 255
0.376 -0.137 0.905 255 255 255
0.086 0.14 0.376 255 255 255
0.231 -0.054 0.742 255 255 255
-0.017 -0.173 0.56 255 255 255
0.069 0.031 0.538 0 0 0
0.452 -0.181 0.841 255 255 255
-0.057 -0.045 0.558 255 255 255
-0.225 -0.102 0.554 255 255 255
-0.093 0.101 0.39 255 255 255
0.258 -0.382 0.836 255 255 255
0.031 -0.331 0.522 255 255 255
0.101 -0.326 0.501 0 0 0
0.272 -0.258 0.818 255 255 255
0.003 -0.018 0.606 255 255 255
-0.001 -0.027 0.619 255 255 255
-0.047 0.147 0.328 0 0 0
-0.129 0.193 0.381 255 255 255
0.291 -0.246 0.767 0 0 0
-0.172 -0.004 0.498 255 255 255
0.444 -0.092 0.819 255 255 255
0.063 0.127 0.388 255 255 255
0.063 -0.033 0.65 255 255 255
-0.209 -0.282 0.5 0 0 0
0.286 0.05 0.551 255 255 255
0.149 -0.126 0.937 255 255 255
-0.038 0.143 0.33 255 255 255
-0.076 0.004 0.486 255 255 255
-0.167 -0.14 0.553 0 0 0
0.05 -0.03 0.64 255 255 255
-0.024 0.121 0.373 255 255 255
0.084 0.08 0.462 255 255 255
0.006 -0.254 0.539 0 0 0
-0.127 -0.002 0.506 255 255 255
0.086 -0.172 0.552 0 0 0
0 -0.002 0.578 255 255 255
-0.11 0.108 0.372 255 255 255
-0.114 0.035 0.462 255 255 255
0.226 0.12 0.435 255 255 255
0.339 -0.313 0.776 255 255 255
0.083 0.17 0.354 255 255 255
-0.208 -0.105 0.53 255 255 255
-0.088 0.128 0.344 255 255 255
0.371 0.048 0.607 0 0 0
-0.023 -0.093 0.566 255 255 255
0.413 0.008 0.697 255 255 255
-0.028 0.137 0.344 255 255 255
-0.099 -0.114 0.564 0 0 0
0.047 -0.257 0.549 0 0 0
0.291 0.06 0.528 255 255 255
-0.277 -0.197 0.524 255 255 255
0.131 0.165 0.356 0 0 0
0.007 0.193 0.381 255 255 255
-0.091 -0.15 0.546 255 255 255
0.287 -0.007 0.676 255 255 255
-0.162 0.082 0.402 255 255 255
0.205 0.131 0.409 255 255 255
0.037 0.014 0.563 255 255 255
0.558 -0.074 0.824 255 255 255
-0.314 -0.089 0.552 255 255 255
-0.206 0.029 0.444 255 255 255
-0.079 -0.002 0.504 255 255 255
-0.066 -0.018 0.526 0 0 0
0.035 -0.06 0.688 255 255 255
-0.101 0.08 0.427 255 255 255
0.071 -0.26 0.552 255 255 255
0.013 0.131 0.369 255 255 255
-0.207 -0.338 0.486 255 255 255
0.067 -0.251 0.555 255 255 255
-0.14 0.038 0.449 255 255 255
0.243 -0.349 0.854 255 255 255
0.385 -0.24 0.81 255 255 255
0.163 0.075 0.493 255 255 255
-0.109 0.106 0.373 255 255 255
-0.204 -0.102 0.529 255 255 255
-0.123 -0.075 0.635 255 255 255
-0.041 -0.115 0.579 0 0 0
0.081 0.091 0.442 255 255 255
0.002 0.204 0.388 255 255 255
-0.108 0.085 0.413 255 255 255
-0.118 0.218 0.395 255 255 255
0.22 0.069 0.519 255 255 255
-0.09 0.028 0.462 255 255 255
0.245 -0.48 0.774 255 255 255
0.041 -0.341 0.522 255 255 255
0.128 0.213 0.394 255 255 255
0.063 0.043 0.52 255 255 255
-0.167 -0.304 0.498 255 255 255
-0.079 0.082 0.431 255 255 255
-0.206 -0.3 0.498 0 0 0
-0.208 -0.135 0.552 255 255 255
-0.077 0.107 0.382 255 255 255
-0.042 0.121 0.366 255 255 255
-0.216 -0.36 0.474 255 255 255
-0.139 0.099 0.375 255 255 255
0.294 -0.16 0.795 255 255 255
0.003 -0.27 0.535 255 255 255
-0.107 0.142 0.316 0 0 0
0.23 0.125 0.426 255 255 255
0.1 0.163 0.35 0 0 0
-0.101 0.105 0.38 255 255 255
0.228 0.088 0.49 255 255 255
0.09 0.161 0.348 0 0 0
0.059 -0.158 0.591 255 255 255
-0.144 -0.218 0.518 0 0 0
-0.124 -0.308 0.503 0 0 0
0.049 0.07 0.469 255 255 255
-0.122 0.135 0.318 255 255 255
0.03 0.197 0.386 255 255 255
0.323 -0.507 0.768 255 255 255
0.06 0.032 0.54 255 255 255
-0.104 -0.367 0.486 0 0 0
-0.26 -0.143 0.544 255 255 255
-0.132 0.141 0.313 0 0 0
0.186 0.061 0.523 255 255 255
0.016 0.049 0.497 255 255 255
0.281 -0.527 0.752 255 255 255
-0.23 -0.284 0.501 0 0 0
0.255 -0.232 0.924 255 255 255
0.128 -0.052 0.706 255 255 255
-0.074 -0.264 0.517 255 255 255
0.367 -0.07 0.836 255 255 255
0.042 -0.123 0.598 255 255 255
0.043 0.094 0.426 255 255 255
0.044 -0.29 0.539 0 0 0
-0.044 -0.09 0.733 255 255 255
0.05 0.144 0.358 255 255 255
0.007 -0.333 0.518 0 0 0
-0.12 0 0.505 255 255 255
0.116 0.164 0.352 0 0 0
-0.252 -0.25 0.508 255 255 255
0.065 0.155 0.347 255 255 255
0.096 0.08 0.463 0 0 0
0.504 -0.043 0.902 0 0 0
-0.029 -0.061 0.666 255 255 255
0.162 0.087 0.47 255 255 255
0.021 -0.325 0.524 255 255 255
0.06 0.153 0.348 255 255 255
0.129 0.099 0.441 255 255 255
0.014 0.099 0.412 255 255 255
0.063 -0.309 0.534 255 255 255
-0.21 0.027 0.444 255 255 255
0.128 0.091 0.455 255 255 255
0.296 -0.203 0.785 0 0 0
0.252 -0.195 0.875 255 255 255
0.535 -0.412 0.87 255 255 255
0.2 -0.254 0.905 255 255 255
-0.323 0.007 0.443 255 255 255
0.035 0.214 0.399 255 255 255
-0.169 0.057 0.443 255 255 255
0.183 -0.392 0.822 255 255 255
0.26 -0.066 0.768 255 255 255
0.096 -0.235 0.528 0 0 0
0.437 -0.259 0.85 255 255 255
0.249 0.036 0.585 255 255 255
0.237 -0.16 0.912 255 255 255
-0.049 -0.252 0.524 0 0 0
0.469 -0.161 0.798 255 255 255
0.222 -0.133 0.94 255 255 255
-0.073 -0.098 0.73 255 255 255
-0.154 -0.104 0.54 0 0 0
-0.089 0.133 0.334 255 255 255
0.42 -0.093 0.83 255 255 255
0.176 0.127 0.408 255 255 255
-0.015 -0.15 0.572 255 255 255
0.452 -0.16 0.777 255 255 255
-0.23 -0.223 0.521 255 255 255
-0.144 0.087 0.397 255 255 255
0.018 0.138 0.359 255 255 255
0.001 0.21 0.392 255 255 255
0.009 -0.1 0.741 255 255 255
0.099 -0.246 0.526 255 255 255
-0.132 -0.046 0.53 255 255 255
-0.103 -0.017 0.525 255 255 255
0.419 -0.087 0.832 255 255 255
0.147 0.121 0.412 255 255 255
-0.129 0.15 0.313 255 255 255
-0.177 0.086 0.388 255 255 255
-0.062 0.153 0.324 255 255 255
-0.069 -0.152 0.55 255 255 255
-0.018 -0.154 0.57 0 0 0
-0.171 -0.213 0.524 255 255 255
0.087 0.219 0.409 255 255 255
-0.116 -0.285 0.509 255 255 255
-0.043 0.117 0.375 255 255 255
-0.118 0.129 0.331 255 255 255
0.217 -0.201 0.936 255 255 255
-0.281 0.024 0.438 255 255 255
0.565 -0.279 0.907 255 255 255
-0.152 -0.034 0.513 255 255 255
0.563 -0.063 0.784 255 255 255
0.414 -0.143 0.936 255 255 255
-0.184 -0.207 0.526 255 255 255
0.062 0.11 0.404 255 255 255
0.092 -0.23 0.531 0 0 0
0.029 -0.361 0.514 255 255 255
0.266 -0.389 0.833 255 255 255
0.294 -0.391 0.835 255 255 255
0.091 -0.322 0.536 255 255 255
-0.145 -0.146 0.546 0 0 0
0.186 0.116 0.431 255 255 255
-0.008 -0.276 0.529 255 255 255
0.054 -0.288 0.542 255 255 255
0.052 0.159 0.343 0 0 0
-0.084 0.044 0.452 255 255 255
-0.11 0.043 0.448 255 255 255
0.084 -0.226 0.546 0 0 0
0.389 -0.508 0.781 255 255 255
0.046 -0.113 0.603 0 0 0
-0.269 -0.273 0.497 255 255 255
-0.097 0.135 0.33 255 255 255
-0.03 0.186 0.37 255 255 255
-0.096 0.047 0.449 255 255 255
0.186 -0.489 0.764 255 255 255
0.275 -0.418 0.816 255 255 255
0.263 0.067 0.514 255 255 255
0.273 0.092 0.478 255 255 255
-0.157 -0.14 0.549 0 0 0
-0.163 0.106 0.356 255 255 255
0.065 0.148 0.357 255 255 255
0.348 -0.286 0.777 255 255 255
0.385 -0.073 0.848 255 255 255
-0.158 -0.332 0.493 0 0 0
0.179 0.068 0.509 255 255 255
-0.144 0.035 0.449 255 255 255
0.073 0.063 0.489 255 255 255
0.066 0.105 0.415 255 255 255
0.273 -0.275 0.868 0 0 0
-0.272 0.012 0.448 255 255 255
0.118 0.085 0.462 255 255 255
0.155 0.126 0.406 255 255 255
0.141 0.019 0.603 255 255 255
0.216 -0.375 0.837 255 255 255
0.276 -0.498 0.768 255 255 255
-0.124 -0.104 0.672 255 255 255
0.397 -0.453 0.812 255 255 255
-0.089 -0.097 0.724 255 255 255
-0.028 -0.074 0.693 255 255 255
0.08 -0.321 0.535 255 255 255
0.016 0.1 0.409 255 255 255
0.417 0.023 0.671 255 255 255
0.081 -0.269 0.552 255 255 255
-0.222 -0.35 0.474 0 0 0
-0.277 -0.254 0.506 255 255 255
0.242 -0.344 0.857 255 255 255
0.036 -0.307 0.531 0 0 0
-0.116 -0.338 0.495 255 255 255
-0.012 0.101 0.41 255 255 255
0.369 0.056 0.593 255 255 255
0.188 -0.526 0.744 255 255 255
0.233 -0.386 0.831 255 255 255
-0.017 0.013 0.545 255 255 255
-0.1 -0.208 0.519 255 255 255
-0.1 0.116 0.358 255 255 255
-0.061 0.003 0.495 255 255 255
0.176 -0.047 0.71 255 255 255
-0.035 -0.019 0.55 255 255 255
0.012 -0.107 0.591 0 0 0
-0.141 0.086 0.402 255 255 255
-0.061 0.006 0.486 255 255 255
-0.052 -0.1 0.745 255 255 255
-0.208 -0.174 0.539 255 255 255
0.092 -0.279 0.521 0 0 0
-0.028 -0.225 0.536 255 255 255
0.202 -0.352 0.847 255 255 255
0.077 -0.11 0.575 0 0 0
0.009 -0.136 0.587 0 0 0
0.302 -0.331 0.794 255 255 255
0.003 0.095 0.413 255 255 255
-0.043 0.129 0.352 255 255 255
-0.132 0.099 0.38 255 255 255
-0.022 -0.376 0.499 0 0 0
-0.016 0.022 0.53 255 255 255
-0.117 0.133 0.326 255 255 255
-0.027 -0.216 0.539 255 255 255
0.08 0.104 0.422 255 255 255
0.403 -0.427 0.819 0 0 0
-0.125 0.027 0.466 255 255 255
0.256 -0.179 0.781 255 255 255
0.069 -0.192 0.579 255 255 255
-0.035 0.073 0.449 255 255 255
-0.003 0.092 0.416 255 255 255
-0.116 -0.097 0.547 255 255 255
0.195 -0.433 0.798 255 255 255
-0.155 -0.358 0.482 0 0 0
-0.301 -0.116 0.617 255 255 255
0.129 0.214 0.41 255 255 255
0.109 0.152 0.364 255 255 255
-0.074 0.133 0.337 255 255 255
-0.228 -0.237 0.517 255 255 255
0.232 -0.148 0.957 0 0 0
0.187 -0.014 0.657 255 255 255
-0.222 0.075 0.397 255 255 255
-0.238 -0.097 0.65 255 255 255
0.281 -0.041 0.739 255 255 255
0.13 -0.037 0.681 255 255 255
0.144 0.16 0.363 255 255 255
0.061 -0.096 0.585 255 255 255
-0.036 0.124 0.365 255 255 255
0.199 -0.318 0.869 255 255 255
0.174 0.096 0.462 255 255 255
0.011 -0.122 0.594 255 255 255
-0.152 -0.205 0.523 255 255 255
0.246 -0.36 0.846 255 255 255
0.006 0 0.577 255 255 255
-0.189 -0.061 0.545 255 255 255
0.371 -0.184 0.866 255 255 255
-0.089 0.083 0.425 255 255 255
-0.02 0.188 0.373 255 255 255
-0.24 -0.109 0.525 0 0 0
-0.153 0.113 0.347 255 255 255
-0.13 0.115 0.35 255 255 255
-0.108 -0.059 0.563 255 255 255
0.055 0.122 0.389 0 0 0
0.027 -0.219 0.559 0 0 0
-0.015 -0.294 0.524 0 0 0
0.253 -0.187 0.918 255 255 255
0.101 0.095 0.441 255 255 255
0.025 0.215 0.395 255 255 255
0.115 0.092 0.451 255 255 255
-0.341 -0.115 0.507 255 255 255
0.127 0.104 0.433 255 255 255
-0.063 0.142 0.331 255 255 255
-0.154 -0.185 0.529 0 0 0
0.033 -0.317 0.527 255 255 255
0.151 -0.159 0.95 255 255 255
-0.091 -0.131 0.559 255 255 255
0.167 0.111 0.432 255 255 255
-0.181 0.039 0.443 255 255 255
0.286 -0.251 0.762 255 255 255
0.065 -0.308 0.535 255 255 255
0.147 0.13 0.401 0 0 0
0.098 0.004 0.598 255 255 255
-0.061 0.106 0.383 255 255 255
-0.171 -0.032 0.53 255 255 255
-0.029 0.144 0.332 255 255 255
0.39 -0.368 0.808 0 0 0
0.075 0.157 0.348 0 0 0
0.263 0.078 0.495 255 255 255
-0.062 -0.354 0.496 255 255 255
0.266 -0.441 0.801 255 255 255
0.288 -0.271 0.764 255 255 255
0.28 -0.404 0.825 255 255 255
0.317 -0.367 0.853 0 0 0
-0.165 0.002 0.493 255 255 255
-0.188 0.084 0.39 255 255 255
-0.009 0.147 0.335 255 255 255
-0.16 0.097 0.375 255 255 255
0.061 -0.244 0.555 255 255 255
0.142 0.088 0.463 255 255 255
-0.212 0.054 0.432 255 255 255
-0.118 0.141 0.314 0 0 0
0.156 0.031 0.566 255 255 255
0.024 0.106 0.402 255 255 255
0.083 0.117 0.399 255 255 255
0.039 -0.196 0.57 0 0 0
-0.114 -0.364 0.485 0 0 0
0.07 0.116 0.398 255 255 255
0.517 -0.358 0.884 255 255 255
0.21 0.085 0.487 255 255 255
-0.152 -0.05 0.539 255 255 255
0.04 -0.208 0.566 0 0 0
-0.132 0.178 0.354 255 255 255
0.049 0.112 0.398 255 255 255
0.037 0.075 0.455 255 255 255
-0.22 -0.151 0.546 255 255 255
-0.077 -0.072 0.653 255 255 255
-0.207 -0.108 0.63 0 0 0
0.368 -0.488 0.788 255 255 255
0.319 -0.225 0.778 0 0 0
-0.34 -0.149 0.533 0 0 0
0.039 0.156 0.341 0 0 0
-0.14 -0.138 0.551 0 0 0
-0.169 0.098 0.367 255 255 255
-0.213 -0.263 0.509 255 255 255
0.111 0.125 0.394 0 0 0
0.148 0.127 0.403 255 255 255
0.065 -0.068 0.709 255 255 255
-0.219 0.039 0.445 255 255 255
-0.123 0.1 0.378 255 255 255
-0.196 -0.108 0.533 0 0 0
-0.112 -0.015 0.52 255 255 255
0.011 0.043 0.504 255 255 255
-0.291 -0.193 0.525 255 255 255
-0.004 0.107 0.393 255 255 255
0.283 0.072 0.519 0 0 0
-0.024 -0.303 0.52 255 255 255
-0.001 0.038 0.511 255 255 255
0.415 -0.028 0.765 255 255 255
-0.228 0.063 0.415 255 255 255
0.048 -0.258 0.549 255 255 255
-0.099 0.112 0.366 255 255 255
-0.164 -0.131 0.556 255 255 255
0.002 0.075 0.449 255 255 255
0.22 0.06 0.533 255 255 255
-0.011 0.16 0.334 255 255 255
0.019 -0.089 0.574 255 255 255
-0.057 0.198 0.379 255 255 255
0.556 -0.263 0.918 255 255 255
-0.023 -0.35 0.507 255 255 255
-0.265 -0.237 0.512 255 255 255
0.101 -0.358 0.509 0 0 0
-0.131 -0.249 0.514 255 255 255
-0.107 -0.286 0.51 0 0 0
0.029 0.074 0.457 255 255 255
0.543 -0.015 0.875 255 255 255
0.303 -0.035 0.737 255 255 255
0.54 -0.042 0.909 255 255 255
0.174 -0.024 0.669 255 255 255
-0.013 0.14 0.344 255 255 255
-0.059 0.136 0.338 255 255 255
-0.154 0.067 0.434 255 255 255
-0.259 -0.26 0.503 255 255 255
0.043 -0.199 0.569 255 255 255
-0.01 0.058 0.472 255 255 255
0.262 0.031 0.598 255 255 255
-0.137 -0.178 0.531 255 255 255
-0.146 0.086 0.398 255 255 255
0.379 0.038 0.626 255 255 255
0.166 -0.278 0.889 255 255 255
-0.009 0.037 0.508 255 255 255
0.485 -0.185 0.974 255 255 255
-0.176 -0.103 0.535 0 0 0
-0.184 -0.34 0.487 255 255 255
0.055 -0.077 0.721 255 255 255
0.007 -0.257 0.539 0 0 0
0.199 0.065 0.52 0 0 0
-0.047 -0.122 0.575 0 0 0
-0.102 0.104 0.382 255 255 255
-0.061 0.19 0.371 255 255 255
0.256 -0.252 0.911 255 255 255
-0.073 -0.316 0.508 255 255 255
-0.135 0.111 0.355 255 255 255
0.318 -0.497 0.774 255 255 255
-0.096 -0.145 0.549 0 0 0
-0.298 -0.099 0.629 255 255 255
-0.126 -0.186 0.526 255 255 255
0.061 0.105 0.412 255 255 255
-0.02 0.043 0.509 0 0 0
-0.027 0.065 0.472 255 255 255
0.315 -0.448 0.803 255 255 255
0.21 0.122 0.426 255 255 255
-0.294 -0.11 0.515 0 0 0
0.342 -0.233 0.803 0 0 0
0.544 -0.128 0.937 0 0 0
0.007 0.064 0.468 255 255 255
0.184 -0.023 0.67 255 255 255
0.062 -0.241 0.558 255 255 255
-0.203 -0.179 0.538 255 255 255
-0.113 0.134 0.329 255 255 255
0.173 0.059 0.524 255 255 255
0.566 -0.175 0.865 255 255 255
0.243 -0.354 0.85 255 255 255
-0.117 0.192 0.381 255 255 255
-0.163 0.082 0.4 255 255 255
0.338 -0.426 0.818 255 255 255
0.336 0.066 0.522 255 255 255
-0.275 -0.145 0.543 255 255 255
-0.015 -0.299 0.523 255 255 255
-0.098 0.12 0.352 255 255 255
0.173 -0.256 0.901 255 255 255
-0.215 -0.274 0.504 0 0 0
0.076 0.015 0.579 0 0 0
0.099 0.214 0.405 255 255 255
0.459 -0.205 0.962 255 255 255
0.012 0.059 0.478 255 255 255
-0.124 0.073 0.432 255 255 255
0.256 -0.393 0.83 255 255 255
0.063 -0.118 0.604 255 255 255
0.008 0.132 0.364 255 255 255
-0.139 0.174 0.347 255 255 255
0.584 -0.225 0.849 255 255 255
0.094 0.117 0.403 255 255 255
-0.075 -0.054 0.565 255 255 255
0.003 0.129 0.369 255 255 255
0.54 -0.031 0.901 255 255 255
0.065 -0.226 0.565 255 255 255
0.265 -0.163 0.783 255 255 255
0.043 -0.169 0.584 255 255 255
0.023 -0.221 0.558 0 0 0
0.189 -0.511 0.753 255 255 255
-0.216 -0.111 0.53 0 0 0
-0.087 0.012 0.488 255 255 255
-0.116 0.092 0.399 255 255 255
-0.32 -0.16 0.531 0 0 0
0.146 0.142 0.388 255 255 255
0.342 -0.246 0.791 0 0 0
-0.448 -0.132 0.601 255 255 255
-0.275 -0.23 0.514 255 255 255
-0.246 0.009 0.459 255 255 255
-0.258 -0.167 0.537 255 255 255
-0.258 0.018 0.445 255 255 255
0.107 0.12 0.4 255 255 255
0.384 0.023 0.653 255 255 255
0.398 -0.321 0.77 255 255 255
0.041 0.142 0.359 255 255 255
-0.024 0.054 0.491 0 0 0
0.477 -0.254 0.933 255 255 255
-0.21 0.076 0.396 255 255 255
0.009 0.141 0.35 255 255 255
-0.11 0.12 0.348 255 255 255
0.04 0.09 0.431 255 255 255
0.495 -0.214 0.961 255 255 255
0.04 -0.209 0.566 0 0 0
0.003 0.011 0.557 255 255 255
-0.094 -0.245 0.516 0 0 0
-0.188 -0.157 0.546 255 255 255
0.069 0.117 0.396 255 255 255
-0.026 0.12 0.375 255 255 255
0.194 0.112 0.438 255 255 255
0.314 -0.543 0.747 0 0 0
0.055 0.092 0.433 255 255 255
0.091 0.137 0.38 255 255 255
0.06 -0.279 0.546 255 255 255
0.195 -0.006 0.645 255 255 255
0.548 -0.371 0.888 255 255 255
-0.362 -0.128 0.516 255 255 255
0.164 0.131 0.402 0 0 0
0.049 0.074 0.463 255 255 255
-0.03 -0.176 0.553 255 255 255
0.348 0.019 0.65 255 255 255
0.354 -0.374 0.85 255 255 255
-0.062 0.079 0.437 255 255 255
-0.243 -0.298 0.492 255 255 255
-0.137 0.211 0.393 255 255 255
0.243 0.045 0.568 255 255 255
-0.198 0.03 0.443 255 255 255
0.041 0.161 0.342 255 255 255
-0.02 0.085 0.438 255 255 255
0.016 0.146 0.339 255 255 255
-0.012 -0.143 0.576 0 0 0
-0.295 -0.119 0.518 0 0 0
0.396 -0.196 0.869 255 255 255
0.287 0.063 0.526 0 0 0
-0.121 -0.369 0.482 0 0 0
-0.356 -0.167 0.519 255 255 255
-0.109 -0.215 0.517 255 255 255
0.19 -0.235 0.915 255 255 255
-0.256 -0.253 0.507 255 255 255
0.068 0.009 0.578 255 255 255
-0.041 0.132 0.348 255 255 255
0.241 0.016 0.621 255 255 255
-0.041 0.102 0.403 255 255 255
0.202 -0.043 0.714 255 255 255
-0.101 0.111 0.367 255 255 255
0.401 -0.543 0.769 255 255 255
-0.098 0.206 0.388 255 255 255
-0.336 -0.047 0.489 255 255 255
0.28 0.016 0.631 255 255 255
-0.057 0.129 0.348 255 255 255
0.178 -0.35 0.846 255 255 255
0.284 -0.282 0.754 255 255 255
0.232 0.08 0.505 0 0 0
0.369 0.027 0.643 255 255 255
0.041 -0.203 0.568 255 255 255
0.129 -0.006 0.623 255 255 255
-0.039 0.091 0.422 255 255 255
-0.105 -0.203 0.519 255 255 255
-0.01 -0.018 0.601 255 255 255
0.131 -0.035 0.674 255 255 255
-0.016 -0.197 0.55 255 255 255
0.166 0.036 0.561 255 255 255
0.053 -0.334 0.528 255 255 255
-0.158 0.09 0.39 255 255 255
0.212 0.128 0.419 255 255 255
-0.215 -0.189 0.533 255 255 255
0.547 -0.336 0.899 255 255 255
0.005 -0.164 0.576 255 255 255
0.048 0.153 0.346 255 255 255
-0.035 -0.152 0.563 255 255 255
-0.114 -0.328 0.497 255 255 255
0.045 -0.108 0.6 255 255 255
0.057 -0.137 0.596 255 255 255
0.184 -0.438 0.794 255 255 255
-0.104 0.139 0.317 255 255 255
-0.117 -0.246 0.513 255 255 255
0.032 0.109 0.398 255 255 255
0.01 0.122 0.383 0 0 0
0.43 -0.396 0.75 255 255 255
-0.11 -0.075 0.664 255 255 255
-0.2 -0.366 0.474 255 255 255
-0.115 -0.23 0.514 0 0 0
-0.069 -0.15 0.552 255 255 255
-0.127 0.127 0.331 255 255 255
-0.064 -0.028 0.548 255 255 255
0.164 0.031 0.57 255 255 255
0.077 -0.086 0.581 255 255 255
0.018 -0.014 0.602 255 255 255
0.079 0.03 0.535 255 255 255
-0.189 -0.247 0.515 255 255 255
0.053 0.049 0.507 255 255 255
-0.222 0.014 0.46 255 255 255
0.339 0.003 0.678 255 255 255
0.117 0.158 0.354 0 0 0
0.488 -0.318 0.899 0 0 0
-0.346 -0.157 0.529 0 0 0
0.044 -0.095 0.578 0 0 0
0.42 -0.485 0.788 255 255 255
-0.149 -0.347 0.487 255 255 255
-0.27 -0.098 0.633 255 255 255
-0.157 0.067 0.434 255 255 255
0.296 -0.388 0.838 255 255 255
0.04 -0.258 0.548 0 0 0
0.145 -0.003 0.624 255 255 255
-0.056 0.131 0.344 255 255 255
0.012 -0.18 0.57 255 255 255
-0.138 0.007 0.5 255 255 255
0.142 0.11 0.429 255 255 255
0.342 -0.487 0.783 255 255 255
-0.107 -0.169 0.532 255 255 255
0.217 -0.489 0.766 255 255 255
0.221 0.051 0.549 0 0 0
-0.176 -0.321 0.495 255 255 255
-0.02 -0.119 0.585 0 0 0
0.225 -0.512 0.754 255 255 255
-0.015 0.1 0.414 255 255 255
-0.045 0.211 0.386 255 255 255
-0.054 -0.216 0.528 255 255 255
0.313 -0.124 0.811 255 255 255
-0.291 -0.258 0.502 255 255 255
-0.103 -0.35 0.494 255 255 255
-0.119 0.106 0.368 255 255 255
0.032 -0.285 0.538 0 0 0
0.298 0.087 0.492 255 255 255
-0.076 -0.314 0.508 255 255 255
0.131 -0.077 0.751 255 255 255
0.365 -0.373 0.854 255 255 255
-0.229 -0.281 0.503 0 0 0
-0.237 -0.205 0.525 255 255 255
0.207 -0.11 0.938 0 0 0
0.068 0.154 0.347 255 255 255
-0.025 -0.068 0.684 255 255 255
-0.127 -0.097 0.545 255 255 255
0.231 -0.024 0.688 255 255 255
0.296 0.065 0.506 255 255 255
-0.228 -0.246 0.512 255 255 255
-0.202 -0.365 0.476 255 255 255
-0.308 -0.228 0.511 255 255 255
0.229 -0.244 0.914 255 255 255
0.02 -0.047 0.661 255 255 255
-0.086 0.118 0.359 255 255 255
-0.001 -0.119 0.591 0 0 0
-0.141 -0.066 0.568 255 255 255
0.235 0.072 0.519 255 255 255
0.594 -0.274 0.859 255 255 255
-0.08 -0.114 0.57 0 0 0
-0.105 -0.292 0.509 255 255 255
-0.07 0.1 0.399 255 255 255
0.336 -0.468 0.793 255 255 255
-0.083 0.125 0.35 255 255 255
0.559 -0.194 0.9 255 255 255
0.411 -0.436 0.776 255 255 255
-0.03 0.066 0.47 255 255 255
-0.055 0.209 0.384 255 255 255
-0.097 0.013 0.477 255 255 255
0.004 0.214 0.392 255 255 255
-0.075 -0.02 0.517 255 255 255
0.009 0.141 0.35 255 255 255
-0.249 0.061 0.411 255 255 255
0.211 0.083 0.493 255 255 255
-0.267 -0.124 0.541 0 0 0
0.051 0.149 0.345 255 255 255
0.27 0.035 0.59 255 255 255
-0.292 -0.195 0.524 255 255 255
-0.103 -0.096 0.55 255 255 255
0.257 -0.382 0.837 255 255 255
-0.464 -0.122 0.614 255 255 255
0.054 0.144 0.354 255 255 255
0.553 -0.025 0.809 255 255 255
-0.33 -0.21 0.514 255 255 255
0.406 -0.39 0.74 255 255 255
-0.118 -0.158 0.538 255 255 255
0.309 -0.515 0.762 255 255 255
-0.262 0.023 0.441 255 255 255
-0.132 -0.312 0.501 0 0 0
-0.3 0.012 0.442 255 255 255
0.097 0.081 0.462 255 255 255
0.038 0.175 0.36 255 255 255
0.106 -0.04 0.677 255 255 255
-0.135 0.122 0.337 255 255 255
-0.121 0.123 0.341 255 255 255
0.161 -0.265 0.899 255 255 255
-0.221 -0.371 0.469 255 255 255
-0.133 -0.36 0.483 0 0 0
-0.023 0.136 0.35 255 255 255
0.119 0.009 0.598 255 255 255
0.225 -0.087 0.824 0 0 0
-0.002 -0.226 0.546 0 0 0
-0.229 -0.101 0.651 255 255 255
-0.015 -0.032 0.622 255 255 255
0.152 0.078 0.483 255 255 255
0.236 0.066 0.53 0 0 0
0.123 0.155 0.367 255 255 255
0.084 0.003 0.595 255 255 255
-0.329 -0.037 0.468 255 255 255
0.394 -0.036 0.776 255 255 255
-0.279 -0.248 0.506 255 255 255
0.212 -0.545 0.735 0 0 0
-0.005 0.199 0.384 255 255 255
-0.254 -0.112 0.524 0 0 0
0.574 -0.334 0.898 255 255 255
-0.042 -0.296 0.518 255 255 255
-0.127 0.151 0.313 255 255 255
0.018 0.063 0.472 255 255 255
0.253 -0.401 0.824 255 255 255
-0.136 0.107 0.36 255 255 255
0.117 0.106 0.427 255 255 255
-0.158 -0.141 0.549 0 0 0
0.291 -0.253 0.762 255 255 255
0.239 -0.084 0.794 0 0 0
-0.039 0.044 0.462 255 255 255
-0.063 -0.297 0.513 255 255 255
-0.088 -0.133 0.559 255 255 255
-0.194 -0.316 0.493 0 0 0
0.574 -0.322 0.9 255 255 255
-0.001 0.074 0.449 255 255 255
0.294 0.061 0.527 255 255 255
-0.073 -0.267 0.517 255 255 255
-0.107 0.137 0.321 255 255 255
0.246 -0.023 0.692 255 255 255
-0.146 0.099 0.374 255 255 255
-0.21 -0.143 0.55 255 255 255
0.307 0.002 0.67 255 255 255
0.542 -0.068 0.912 255 255 255
-0.175 0.094 0.373 255 255 255
-0.01 0.081 0.43 255 255 255
-0.123 -0.038 0.534 255 255 255
0 -0.326 0.519 0 0 0
-0.069 0.145 0.327 255 255 255
0.371 -0.288 0.78 255 255 255
0.538 -0.078 0.947 255 255 255
0.266 -0.314 0.874 255 255 255
0.255 -0.179 0.783 255 255 255
0.087 0.095 0.438 255 255 255
0.002 -0.087 0.587 255 255 255
0.073 -0.29 0.545 255 255 255
-0.101 0.061 0.452 0 0 0
0.204 -0.002 0.641 255 255 255
0.582 -0.205 0.835 255 255 255
-0.049 0.2 0.379 255 255 255
0.529 0.022 0.812 0 0 0
-0.205 0.088 0.379 255 255 255
0.105 -0.311 0.508 0 0 0
0.306 -0.074 0.812 0 0 0
-0.115 -0.195 0.522 255 255 255
-0.095 0.014 0.474 255 255 255
0.284 0.1 0.479 255 255 255
0.023 -0.297 0.534 255 255 255
-0.183 -0.005 0.495 255 255 255
0.249 -0.072 0.776 0 0 0
-0.012 -0.184 0.559 255 255 255
-0.307 -0.19 0.525 255 255 255
-0.002 -0.198 0.557 0 0 0
0.55 -0.318 0.905 255 255 255
-0.31 -0.101 0.614 255 255 255
0.198 -0.311 0.873 255 255 255
-0.454 -0.131 0.618 255 255 255
-0.014 -0.285 0.526 255 255 255
0.014 -0.17 0.574 255 255 255
-0.215 -0.224 0.52 255 255 255
0.074 0.119 0.395 255 255 255
-0.242 -0.112 0.524 0 0 0
-0.172 -0.109 0.538 0 0 0
0.131 0.124 0.401 255 255 255
0.025 0.019 0.55 255 255 255
-0.076 0.094 0.41 255 255 255
-0.059 -0.206 0.53 255 255 255
0.057 -0.144 0.594 255 255 255
-0.03 0.202 0.381 255 255 255
-0.138 -0.031 0.512 255 255 255
-0.068 0.005 0.497 255 255 255
0.58 -0.194 0.834 255 255 255
-0.052 0.119 0.369 255 255 255
-0.152 0.037 0.447 255 255 255
0.024 -0.347 0.518 255 255 255
0.202 0.065 0.523 255 255 255
0.3 -0.039 0.743 255 255 255
0.277 -0.322 0.844 0 0 0
-0.055 -0.145 0.558 255 255 255
0.041 0.207 0.393 255 255 255
0.154 0.089 0.465 255 255 255
-0.143 -0.181 0.529 255 255 255
0.557 -0.266 0.919 255 255 255
-0.095 0.048 0.448 255 255 255
-0.205 -0.101 0.657 255 255 255
-0.035 0.153 0.328 0 0 0
0.061 -0.311 0.535 255 255 255
0.085 0.166 0.35 255 255 255
-0.065 0.089 0.418 255 255 255
-0.098 0.112 0.365 255 255 255
0.251 -0.084 0.792 0 0 0
0.161 0.17 0.364 255 255 255
0.029 0.183 0.372 255 255 255
0.211 -0.039 0.708 255 255 255
0.196 0.103 0.454 255 255 255
-0.199 -0.074 0.569 255 255 255
-0.128 0.109 0.359 255 255 255
-0.193 -0.211 0.525 255 255 255
-0.109 0.218 0.395 255 255 255
0.071 0.078 0.463 255 255 255
-0.228 0.07 0.399 255 255 255
0.558 -0.047 0.798 255 255 255
0.017 -0.001 0.582 255 255 255
0.268 0.082 0.49 255 255 255
-0.003 -0.032 0.627 255 255 255
0.257 -0.233 0.866 255 255 255
0.295 -0.351 0.849 0 0 0
-0.254 0.058 0.417 255 255 255
0.547 -0.28 0.926 255 255 255
0.091 0.207 0.401 255 255 255
0.277 -0.277 0.875 0 0 0
0.558 -0.074 0.821 255 255 255
-0.103 0.083 0.421 255 255 255
0.178 0.12 0.419 255 255 255
0.12 0.058 0.467 255 255 255
0.011 0.185 0.374 255 255 255
0.07 0.049 0.511 255 255 255
-0.079 -0.332 0.503 0 0 0
0.332 -0.099 0.829 255 255 255
-0.037 0.053 0.451 255 255 255
0.165 -0.161 0.949 255 255 255
0.253 0.046 0.57 255 255 255
-0.068 -0.253 0.519 255 255 255
0.227 -0.036 0.71 255 255 255
0.016 -0.376 0.503 0 0 0
-0.211 0.079 0.393 255 255 255
-0.169 -0.146 0.55 0 0 0
0.451 -0.152 0.78 255 255 255
0.316 -0.44 0.808 255 255 255
0.031 -0.053 0.675 255 255 255
0.025 0.14 0.36 255 255 255
-0.091 0.055 0.446 255 255 255
-0.044 -0.267 0.521 255 255 255
0.19 -0.53 0.74 255 255 255
0.245 0.111 0.458 255 255 255
0.017 -0.221 0.557 0 0 0
-0.01 -0.316 0.517 255 255 255
0.036 -0.006 0.593 255 255 255
0.195 0.105 0.451 255 255 255
0.03 0.078 0.45 255 255 255
0.082 0.121 0.394 255 255 255
-0.058 -0.093 0.56 255 255 255
0.534 -0.313 0.909 255 255 255
-0.215 0.085 0.376 255 255 255
0.197 -0.006 0.646 255 255 255
0.096 -0.264 0.52 0 0 0
-0.098 0.149 0.316 255 255 255
-0.096 0.098 0.395 255 255 255
0.051 0.155 0.343 0 0 0
0.561 -0.093 0.821 255 255 255
0.035 -0.262 0.547 255 255 255
0.017 -0.328 0.522 255 255 255
0.024 -0.056 0.678 255 255 255
-0.145 -0.187 0.528 255 255 255
0.143 0.093 0.456 255 255 255
0.247 0.056 0.549 0 0 0
0.396 -0.038 0.78 255 255 255
0.033 -0.147 0.59 255 255 255
-0.123 0.04 0.449 255 255 255
-0.015 -0.173 0.561 255 255 255
-0.099 0.015 0.473 255 255 255
0.004 -0.22 0.55 255 255 255
-0.106 -0.371 0.485 0 0 0
-0.135 0.101 0.373 255 255 255
0.591 -0.224 0.838 255 255 255
-0.042 0.133 0.349 255 255 255
-0.204 -0.183 0.536 255 255 255
-0.159 -0.097 0.546 255 255 255
-0.26 -0.062 0.548 255 255 255
-0.059 0.188 0.368 255 255 255
0.558 0.024 0.774 255 255 255
0.057 -0.003 0.596 255 255 255
0.555 -0.058 0.832 255 255 255
-0.088 0.064 0.451 0 0 0
-0.004 0.139 0.348 255 255 255
-0.089 -0.226 0.516 255 255 255
-0.234 -0.184 0.534 255 255 255
-0.154 -0.058 0.552 255 255 255
0.064 -0.341 0.524 255 255 255
0.158 0.068 0.501 255 255 255
0.034 0.145 0.352 255 255 255
-0.12 -0.201 0.52 255 255 255
-0.102 0.048 0.448 255 255 255
0.075 0.099 0.428 255 255 255
-0.055 0.036 0.465 255 255 255
0.307 -0.222 0.776 255 255 255
0.258 -0.161 0.946 0 0 0
0.116 0.1 0.437 255 255 255
0.239 0.099 0.476 0 0 0
-0.298 -0.108 0.546 255 255 255
-0.139 -0.041 0.528 255 255 255
0.297 0.033 0.607 255 255 255
-0.026 0.141 0.34 255 255 255
-0.289 -0.127 0.541 0 0 0
-0.095 -0.357 0.494 0 0 0
-0.048 0.144 0.328 255 255 255
0.404 -0.409 0.783 255 255 255
-0.106 0.089 0.41 255 255 255
-0.026 0.098 0.413 255 255 255
-0.201 -0.252 0.514 255 255 255
-0.208 -0.059 0.538 255 255 255
0.033 0.123 0.388 0 0 0
0.036 -0.212 0.565 0 0 0
-0.06 -0.371 0.492 0 0 0
-0.083 -0.045 0.551 255 255 255
-0.146 -0.065 0.564 255 255 255
0.074 -0.258 0.554 255 255 255
0.302 0.078 0.493 255 255 255
0.101 -0.364 0.517 255 255 255
0.407 -0.337 0.763 255 255 255
0.095 0.076 0.468 0 0 0
0.029 0.038 0.518 255 255 255
0.071 0.184 0.377 255 255 255
-0.122 -0.007 0.509 255 255 255
-0.033 0.046 0.469 255 255 255
0.176 -0.321 0.864 255 255 255
-0.034 -0.263 0.526 255 255 255
-0.362 -0.047 0.482 255 255 255
-0.044 -0.146 0.563 255 255 255
-0.046 0.191 0.373 255 255 255
0.248 -0.446 0.797 255 255 255
0.068 0.098 0.428 255 255 255
0.356 -0.088 0.837 0 0 0
-0.125 -0.137 0.55 0 0 0
-0.007 0.175 0.356 255 255 255
-0.095 -0.22 0.517 255 255 255
0.349 -0.362 0.853 255 255 255
-0.024 -0.164 0.562 0 0 0
-0.167 0.112 0.348 255 255 255
-0.166 -0.11 0.541 0 0 0
-0.332 -0.002 0.457 255 255 255
-0.163 -0.079 0.624 255 255 255
0.27 0.067 0.514 255 255 255
-0.156 0.05 0.45 255 255 255
0.378 0.018 0.665 255 255 255
-0.25 0.056 0.417 255 255 255
-0.112 -0.106 0.721 255 255 255
-0.063 -0.181 0.537 255 255 255
-0.109 0.206 0.393 255 255 255
0.306 -0.283 0.761 0 0 0
0.053 -0.187 0.578 255 255 255
0.283 -0.445 0.801 255 255 255
0.284 -0.294 0.748 255 255 255
-0.284 0.009 0.453 255 255 255
-0.092 -0.244 0.515 0 0 0
-0.193 -0.288 0.502 0 0 0
-0.314 -0.228 0.509 255 255 255
0.399 -0.447 0.813 255 255 255
0.167 0.068 0.504 0 0 0
0.385 -0.35 0.821 0 0 0
0.105 -0.285 0.517 255 255 255
-0.096 -0.247 0.516 0 0 0
0.205 -0.374 0.837 255 255 255
-0.057 -0.043 0.558 255 255 255
-0.126 -0.012 0.504 255 255 255
-0.176 -0.133 0.554 255 255 255
0.109 0.073 0.462 255 255 255
0.257 -0.21 0.863 0 0 0
-0.212 0.077 0.395 255 255 255
-0.076 0.142 0.323 255 255 255
-0.008 -0.288 0.528 255 255 255
-0.087 -0.137 0.557 0 0 0
-0.267 -0.15 0.542 255 255 255
0.096 -0.341 0.527 255 255 255
0.391 -0.142 0.909 255 255 255
0.062 0.165 0.346 255 255 255
-0.115 -0.154 0.54 255 255 255
0.382 -0.208 0.86 255 255 255
0.044 -0.15 0.59 255 255 255
0.318 -0.008 0.695 255 255 255
-0.129 -0.344 0.492 255 255 255
0.248 -0.185 0.871 255 255 255
-0.103 -0.215 0.517 255 255 255
-0.213 0.024 0.446 255 255 255
-0.006 0.105 0.393 255 255 255
0.392 -0.394 0.841 255 255 255
0.297 -0.162 0.795 255 255 255
0.014 -0.09 0.575 255 255 255
-0.076 0.101 0.393 255 255 255
0.229 0.082 0.502 0 0 0
-0.121 0.142 0.311 0 0 0
0.066 0.075 0.466 255 255 255
0.541 -0.015 0.879 255 255 255
0.487 -0.3 0.91 0 0 0
-0.103 0.173 0.352 255 255 255
-0.271 -0.195 0.526 255 255 255
-0.069 0.09 0.417 255 255 255
0.526 -0.402 0.87 255 255 255
-0.249 0.047 0.433 255 255 255
0.193 -0.166 0.95 255 255 255
-0.121 -0.103 0.714 255 255 255
-0.108 0.113 0.359 255 255 255
-0.023 -0.344 0.508 255 255 255
-0.21 -0.26 0.509 255 255 255
-0.179 0.014 0.473 255 255 255
0.053 -0.109 0.605 255 255 255
-0.192 0.077 0.401 255 255 255
-0.141 0.124 0.333 255 255 255
-0.102 -0.358 0.493 0 0 0
-0.111 -0.103 0.543 0 0 0
0.046 -0.09 0.575 255 255 255
-0.027 -0.119 0.584 0 0 0
-0.081 -0.29 0.511 255 255 255
0.1 0.106 0.423 255 255 255
-0.044 -0.253 0.525 255 255 255
0.557 -0.073 0.83 255 255 255
0.044 0.021 0.552 255 255 255
-0.019 -0.131 0.581 0 0 0
0.039 -0.009 0.6 255 255 255
-0.077 -0.337 0.502 0 0 0
-0.084 0.135 0.334 255 255 255
-0.35 -0.172 0.523 255 255 255
0.017 0.029 0.532 255 255 255
-0.234 -0.249 0.51 255 255 255
0.426 -0.116 0.823 0 0 0
0.089 0.151 0.358 255 255 255
0.071 0.111 0.406 255 255 255
-0.023 -0.208 0.543 255 255 255
-0.162 -0.245 0.516 255 255 255
0.327 -0.078 0.832 255 255 255
-0.097 -0.229 0.515 255 255 255
-0.164 -0.012 0.508 255 255 255
-0.145 0.117 0.342 255 255 255
0.047 -0.221 0.563 255 255 255
-0.131 -0.089 0.666 255 255 255
0.104 0.108 0.42 255 255 255
-0.171 -0.291 0.503 255 255 255
0.045 -0.004 0.594 255 255 255
0.3 -0.374 0.847 255 255 255
-0.072 0.139 0.33 255 255 255
-0.095 0.113 0.364 255 255 255
0.267 -0.16 0.786 255 255 255
-0.113 0.078 0.428 255 255 255
0.523 -0.337 0.897 255 255 255
0.103 0.122 0.397 255 255 255
0.385 -0.563 0.757 0 0 0
0.21 -0.157 0.957 255 255 255
0.17 0.127 0.407 255 255 255
0.558 -0.131 0.869 255 255 255
-0.032 0.07 0.457 255 255 255
-0.052 -0.2 0.533 255 255 255
0.212 0.089 0.483 255 255 255
0.296 0.037 0.597 255 255 255
0.561 -0.1 0.831 255 255 255
-0.144 0.115 0.345 255 255 255
-0.315 -0.203 0.517 255 255 255
0.167 -0.062 0.738 255 255 255
-0.27 -0.111 0.598 0 0 0
0.041 0.136 0.368 255 255 255
-0.125 0.107 0.365 255 255 255
0.361 0.051 0.597 0 0 0
-0.052 0.095 0.415 255 255 255
0.015 0.035 0.522 255 255 255
0.444 -0.02 0.78 0 0 0
0.106 0.123 0.395 255 255 255
-0.097 -0.01 0.5 255 255 255
0.006 0.133 0.361 255 255 255
0.143 0.11 0.429 255 255 255
0.12 0.117 0.408 255 255 255
0.07 0.141 0.369 255 255 255
0.163 -0.256 0.901 255 255 255
-0.018 0.081 0.446 255 255 255
0.553 -0.203 0.918 0 0 0
0.426 -0.115 0.819 0 0 0
0.544 -0.011 0.872 255 255 255
0.036 -0.173 0.581 255 255 255
-0.168 -0.056 0.55 255 255 255
-0.007 0.108 0.393 255 255 255
0.581 -0.2 0.834 255 255 255
0.143 0.123 0.407 255 255 255
-0.162 -0.105 0.539 0 0 0
0.012 0.207 0.392 255 255 255
0.244 -0.145 0.908 255 255 255
0.317 0.025 0.628 0 0 0
0.276 -0.309 0.851 0 0 0
0.286 -0.048 0.751 255 255 255
-0.159 -0.25 0.513 0 0 0
-0.067 -0.143 0.557 0 0 0
-0.186 -0.294 0.5 255 255 255
0.528 -0.254 0.918 0 0 0
-0.21 -0.281 0.501 0 0 0
-0.096 -0.06 0.576 255 255 255
0.349 -0.396 0.837 255 255 255
0.365 -0.149 0.875 255 255 255
0.312 -0.569 0.729 255 255 255
0.172 0.095 0.462 255 255 255
0.314 -0.057 0.777 255 255 255
0.141 0.13 0.399 0 0 0
-0.203 -0.321 0.489 0 0 0
0.116 0.152 0.363 255 255 255
-0.253 0.049 0.43 255 255 255
-0.08 0.032 0.465 255 255 255
0.343 -0.5 0.777 255 255 255
0.372 -0.524 0.767 255 255 255
0.211 -0.224 0.923 255 255 255
-0.002 0.095 0.411 255 255 255
-0.013 -0.185 0.558 255 255 255
0.402 -0.145 0.915 255 255 255
-0.201 0.066 0.419 255 255 255
-0.239 0.022 0.443 255 255 255
0.076 -0.325 0.531 255 255 255
-0.185 0.05 0.446 0 0 0
-0.045 -0.189 0.539 255 255 255
-0.133 0.211 0.393 255 255 255
0.421 -0.102 0.865 0 0 0
-0.165 0.036 0.446 255 255 255
-0.045 0.127 0.356 255 255 255
-0.01 -0.092 0.567 255 255 255
0.255 -0.243 0.915 255 255 255
