ply
format ascii 1.0
comment Created by Open3D
element vertex 1610
property double x
property double y
property double z
property uchar red
property uchar green
property uchar blue
end_header
-0.128 0.088 0.35 255 255 255
-0.186 -0.337 0.463 0 0 0
-0.099 0.02 0.434 255 255 255
0 0.149 0.36 255 255 255
0.224 0.014 0.534 255 255 255
0.406 0.448 0.97 255 255 255
-0.259 -0.257 0.478 255 255 255
-0.294 0.012 0.41 255 255 255
-0.286 -0.218 0.489 255 255 255
-0.095 0.558 1.039 255 255 255
-0.094 0.174 0.369 255 255 255
-0.277 -0.155 0.514 255 255 255
-0.024 -0.103 0.669 255 255 255
0.18 -0.008 0.583 255 255 255
-0.129 0.109 0.319 255 255 255
0.029 -0.332 0.485 255 255 255
0.176 -0.076 0.696 255 255 255
0.126 0.074 0.438 255 255 255
-0.269 -0.268 0.472 255 255 255
-0.177 0.089 0.336 255 255 255
0.123 0.131 0.37 255 255 255
0.483 -0.215 0.788 255 255 255
-0.171 -0.176 0.515 0 0 0
0.497 -0.206 0.747 255 255 255
-0.073 -0.348 0.485 255 255 255
0.087 -0.274 0.91 255 255 255
0.049 0.077 0.411 255 255 255
-0.103 -0.333 0.481 255 255 255
-0.006 0.104 0.365 255 255 255
0.019 -0.101 0.682 255 255 255
-0.207 -0.13 0.507 255 255 255
0.11 0.174 0.416 255 255 255
0.006 -0.327 0.513 255 255 255
-0.194 -0.276 0.479 0 0 0
0.281 -0.381 0.81 255 255 255
-0.271 -0.166 0.512 0 0 0
0.06 0.088 0.398 255 255 255
0.057 0.101 0.391 255 255 255
-0.2 -0.082 0.517 255 255 255
-0.12 -0.259 0.491 0 0 0
-0.142 -0.168 0.524 0 0 0
0.28 0.002 0.605 0 0 0
0.01 0.028 0.478 0 0 0
-0.004 -0.004 0.521 255 255 255
0.102 -0.423 0.814 255 255 255
-0.161 0.555 1.023 255 255 255
0.238 0.083 0.457 255 255 255
0.032 0.116 0.361 255 255 255
-0.154 0.06 0.393 255 255 255
0.489 -0.214 0.773 255 255 255
0.064 0.119 0.364 255 255 255
-0.127 0.021 0.429 255 255 255
0.145 0.049 0.484 255 255 255
0.239 0.103 0.434 0 0 0
0.074 0.057 0.45 255 255 255
-0.183 0.019 0.417 255 255 255
0.043 -0.324 0.867 255 255 255
0.292 -0.378 0.762 255 255 255
0.085 0.12 0.37 255 255 255
-0.167 -0.24 0.488 255 255 255
0.285 -0.561 0.766 0 0 0
-0.069 -0.172 0.555 0 0 0
-0.261 -0.01 0.422 255 255 255
-0.21 -0.184 0.51 0 0 0
0.178 -0.396 0.827 0 0 0
0.191 0.164 0.426 255 255 255
0.017 -0.319 0.488 0 0 0
-0.099 0.079 0.377 255 255 255
-0.005 -0.071 0.624 255 255 255
-0.064 0.114 0.331 255 255 255
0.304 -0.445 0.724 255 255 255
-0.125 0.15 0.31 255 255 255
-0.097 0.111 0.325 255 255 255
0.451 -0.074 0.858 255 255 255
0.061 0.068 0.43 255 255 255
-0.141 0.111 0.312 255 255 255
-0.101 0.031 0.429 255 255 255
0.211 -0.204 0.796 255 255 255
0.483 -0.101 0.746 255 255 255
0.107 -0.188 0.934 0 0 0
0.227 0.009 0.53 0 0 0
-0.011 0.053 0.432 255 255 255
-0.208 -0.196 0.505 255 255 255
-0.129 0.117 0.31 255 255 255
-0.079 0.044 0.439 255 255 255
0.015 0.166 0.39 255 255 255
-0.205 -0.178 0.513 0 0 0
0.49 -0.397 0.848 255 255 255
-0.051 0.007 0.49 255 255 255
0.464 -0.19 0.857 255 255 255
-0.15 -0.176 0.515 0 0 0
0.016 0.125 0.343 255 255 255
-0.055 0.063 0.404 255 255 255
-0.075 -0.213 0.526 255 255 255
0.464 0.045 0.698 255 255 255
0.437 -0.168 0.949 255 255 255
0.003 0.16 0.38 255 255 255
-0.011 0.101 0.368 255 255 255
0.216 -0.477 0.801 255 255 255
-0.167 -0.173 0.517 0 0 0
-0.046 0.077 0.384 255 255 255
0.155 -0.414 0.833 255 255 255
0.106 -0.052 0.63 255 255 255
-0.231 -0.198 0.504 0 0 0
-0.117 -0.353 0.467 0 0 0
-0.087 -0.213 0.52 0 0 0
-0.086 -0.174 0.545 0 0 0
-0.131 -0.296 0.481 0 0 0
0.433 -0.372 0.919 255 255 255
-0.075 -0.361 0.479 0 0 0
0.172 -0.033 0.62 255 255 255
-0.017 -0.16 0.578 255 255 255
0.122 0.012 0.533 255 255 255
0.487 -0.43 0.855 255 255 255
0.324 -0.578 0.757 0 0 0
0.089 0.121 0.369 255 255 255
-0.021 -0.323 0.509 255 255 255
0.479 0.015 0.719 0 0 0
0.011 -0.179 0.544 255 255 255
0.463 -0.325 0.894 255 255 255
-0.173 -0.28 0.48 255 255 255
-0.118 0.075 0.378 255 255 255
-0.147 0.017 0.426 255 255 255
0.462 -0.368 0.905 255 255 255
-0.105 0.013 0.446 255 255 255
-0.075 -0.132 0.541 0 0 0
0.012 -0.257 0.509 0 0 0
0.033 0.116 0.362 255 255 255
-0.099 0.017 0.442 255 255 255
0.184 -0.562 0.741 0 0 0
-0.162 0.106 0.317 255 255 255
0.079 -0.059 0.634 255 255 255
-0.078 -0.165 0.554 255 255 255
-0.084 0.095 0.355 255 255 255
-0.164 -0.29 0.478 255 255 255
-0.207 0.068 0.359 255 255 255
-0.128 -0.145 0.54 0 0 0
0.374 0.555 1.034 255 255 255
0.072 0.167 0.403 255 255 255
0.142 0.094 0.414 255 255 255
-0.193 -0.28 0.477 0 0 0
0.121 0.093 0.408 255 255 255
0.287 -0.258 0.867 255 255 255
-0.047 0.052 0.423 255 255 255
0.375 -0.261 0.796 255 255 255
0.002 -0.285 0.529 255 255 255
0.059 0.133 0.351 255 255 255
0.159 0.096 0.415 255 255 255
-0.041 0.103 0.353 255 255 255
-0.145 -0.042 0.476 255 255 255
-0.041 0.035 0.45 255 255 255
0.317 -0.547 0.755 0 0 0
0.498 -0.092 0.691 255 255 255
-0.094 -0.226 0.508 0 0 0
-0.034 0.017 0.479 255 255 255
-0.155 0.107 0.315 255 255 255
-0.042 0.164 0.374 255 255 255
-0.218 0.554 1.008 255 255 255
0.384 -0.293 0.964 255 255 255
0.291 -0.459 0.817 0 0 0
-0.083 -0.072 0.603 255 255 255
-0.158 -0.16 0.526 255 255 255
0.284 0.581 1.126 255 255 255
0.291 -0.389 0.755 255 255 255
-0.02 0.188 0.393 255 255 255
0.049 -0.129 0.739 255 255 255
-0.182 -0.081 0.525 255 255 255
0.023 -0.335 0.48 255 255 255
-0.161 -0.058 0.491 255 255 255
-0.126 0.048 0.417 255 255 255
-0.3 -0.178 0.502 255 255 255
0.474 -0.201 0.821 255 255 255
0.125 -0.268 0.922 255 255 255
0.09 0.094 0.4 255 255 255
-0.12 -0.272 0.489 0 0 0
0.16 0.102 0.416 255 255 255
-0.085 -0.297 0.496 0 0 0
0.175 -0.053 0.656 255 255 255
0.062 0.172 0.403 255 255 255
-0.026 0.027 0.467 255 255 255
-0.115 0.08 0.371 255 255 255
-0.171 -0.283 0.479 255 255 255
-0.004 0.107 0.361 255 255 255
-0.109 -0.31 0.485 255 255 255
0.34 0.049 0.551 255 255 255
0.074 -0.493 0.762 255 255 255
0.02 0.115 0.359 255 255 255
-0.086 0.026 0.465 255 255 255
0.116 0.133 0.365 255 255 255
0.481 0.045 0.702 255 255 255
-0.008 -0.263 0.536 255 255 255
-0.069 0.106 0.34 255 255 255
0.067 -0.247 0.921 255 255 255
-0.057 0.114 0.332 255 255 255
-0.119 0.023 0.429 255 255 255
0.03 0.078 0.406 255 255 255
-0.079 -0.036 0.548 255 255 255
0.431 -0.341 0.933 255 255 255
-0.233 -0.189 0.509 0 0 0
0.126 0.112 0.395 255 255 255
-0.067 0.011 0.48 255 255 255
-0.073 -0.095 0.639 255 255 255
0.497 -0.344 0.824 255 255 255
0.056 0.021 0.464 255 255 255
0.28 -0.052 0.694 255 255 255
0.422 -0.496 0.84 255 255 255
0.035 0.076 0.41 255 255 255
0.383 -0.137 0.928 0 0 0
-0.088 -0.064 0.588 255 255 255
-0.042 -0.128 0.701 255 255 255
0.452 -0.087 0.862 255 255 255
-0.065 0.104 0.345 255 255 255
0.037 -0.076 0.646 0 0 0
0.056 -0.065 0.636 255 255 255
0.295 -0.476 0.815 0 0 0
-0.014 -0.348 0.502 255 255 255
-0.088 0.182 0.376 255 255 255
0.119 0.167 0.414 255 255 255
0.399 -0.397 0.901 255 255 255
0.086 0.07 0.432 255 255 255
-0.124 0.132 0.308 255 255 255
-0.11 0.016 0.438 255 255 255
0.472 -0.008 0.76 0 0 0
-0.206 0.042 0.402 255 255 255
0.019 -0.234 0.518 255 255 255
0.16 0.078 0.443 255 255 255
-0.117 0.074 0.38 255 255 255
0.062 -0.447 0.789 255 255 255
-0.047 -0.083 0.63 255 255 255
0.495 -0.098 0.698 255 255 255
0.001 0.053 0.437 255 255 255
-0.022 0.135 0.331 255 255 255
-0.118 -0.3 0.485 0 0 0
-0.014 0.077 0.392 255 255 255
-0.258 -0.003 0.422 255 255 255
-0.252 -0.291 0.463 255 255 255
-0.144 -0.344 0.466 0 0 0
-0.048 -0.192 0.551 0 0 0
-0.157 -0.2 0.503 255 255 255
0.075 0.144 0.367 0 0 0
-0.115 -0.197 0.513 255 255 255
-0.257 -0.197 0.5 255 255 255
0.139 0.012 0.538 255 255 255
-0.102 0.114 0.321 255 255 255
0.337 0.027 0.57 255 255 255
-0.017 -0.307 0.515 255 255 255
-0.051 -0.013 0.521 255 255 255
0.085 -0.222 0.936 0 0 0
0.189 -0.007 0.584 0 0 0
0.21 -0.26 0.779 0 0 0
0.017 0.172 0.393 255 255 255
-0.127 -0.144 0.539 0 0 0
-0.146 -0.172 0.52 0 0 0
0.097 0.132 0.361 255 255 255
0.054 0.14 0.355 255 255 255
-0.097 -0.062 0.55 255 255 255
0.067 0.116 0.37 255 255 255
-0.1 -0.302 0.491 255 255 255
-0.144 -0.255 0.487 255 255 255
0.27 -0.183 0.886 255 255 255
0.112 0.058 0.459 255 255 255
0.24 -0.06 0.694 255 255 255
-0.073 -0.261 0.511 0 0 0
-0.272 -0.187 0.504 255 255 255
-0.197 0.061 0.375 255 255 255
-0.142 -0.093 0.551 255 255 255
-0.189 -0.021 0.466 255 255 255
0.178 -0.502 0.778 255 255 255
0.229 0.048 0.499 0 0 0
0.315 -0.587 0.75 255 255 255
-0.225 -0.023 0.457 255 255 255
0.295 0.044 0.539 0 0 0
-0.104 0.556 1.039 255 255 255
-0.106 -0.277 0.493 255 255 255
-0.068 -0.183 0.548 0 0 0
0.244 0.059 0.491 0 0 0
-0.076 -0.305 0.497 255 255 255
0.015 0.132 0.339 255 255 255
0.4 -0.369 0.921 255 255 255
0.038 0.064 0.428 255 255 255
0.342 0.547 1.142 255 255 255
0.158 -0.102 0.729 255 255 255
-0.342 0.53 1.001 255 255 255
-0.103 -0.213 0.51 255 255 255
0.032 0.137 0.348 255 255 255
0.448 -0.047 0.836 0 0 0
-0.108 -0.15 0.547 0 0 0
0 0.068 0.412 255 255 255
0.164 0.025 0.527 255 255 255
-0.232 -0.206 0.498 0 0 0
-0.1 0.056 0.415 255 255 255
-0.046 0.054 0.42 255 255 255
-0.069 0.065 0.408 255 255 255
-0.117 -0.265 0.491 0 0 0
0.409 -0.1 0.905 0 0 0
-0.088 -0.062 0.585 255 255 255
-0.004 0.083 0.386 255 255 255
0.457 -0.097 0.846 255 255 255
-0.016 -0.187 0.566 255 255 255
0.081 -0.403 0.822 255 255 255
-0.215 -0.126 0.618 255 255 255
-0.15 -0.158 0.709 255 255 255
0.316 -0.578 0.758 0 0 0
0.234 -0.478 0.804 255 255 255
-0.242 -0.004 0.427 255 255 255
0.15 -0.065 0.668 255 255 255
-0.015 -0.186 0.567 255 255 255
0.111 0.049 0.473 255 255 255
0.352 -0.004 0.642 0 0 0
0.232 0.049 0.501 0 0 0
0.066 0.092 0.394 255 255 255
0.189 0.166 0.428 255 255 255
0.174 -0.026 0.609 255 255 255
-0.075 0.142 0.331 255 255 255
-0.041 -0.29 0.514 255 255 255
0.467 -0.392 0.885 255 255 255
-0.021 0.104 0.362 255 255 255
0.495 -0.303 0.802 255 255 255
-0.138 0.055 0.406 255 255 255
-0.021 0.023 0.476 255 255 255
-0.195 -0.168 0.519 255 255 255
0.153 0.113 0.404 255 255 255
-0.145 -0.047 0.485 255 255 255
-0.039 0.076 0.389 255 255 255
-0.058 -0.127 0.695 255 255 255
-0.22 -0.081 0.497 255 255 255
-0.207 -0.04 0.479 255 255 255
0.14 0.067 0.455 255 255 255
-0.223 -0.143 0.628 255 255 255
0.065 -0.324 0.872 255 255 255
-0.038 0.106 0.351 255 255 255
0.327 -0.124 0.834 0 0 0
0.341 -0.221 0.797 255 255 255
0.136 -0.309 0.896 255 255 255
0.03 0.073 0.412 255 255 255
0.077 0.137 0.356 255 255 255
0.229 0.037 0.504 255 255 255
-0.028 0.175 0.384 255 255 255
0.146 -0.239 0.844 0 0 0
0.19 -0.046 0.647 255 255 255
-0.17 0.09 0.335 255 255 255
-0.057 -0.309 0.503 255 255 255
-0.167 0.096 0.329 255 255 255
0.486 0.037 0.692 255 255 255
-0.183 -0.247 0.486 0 0 0
0.245 -0.538 0.769 255 255 255
-0.001 -0.188 0.547 0 0 0
0.262 -0.222 0.865 255 255 255
-0.18 -0.164 0.522 255 255 255
-0.149 -0.332 0.469 255 255 255
0.192 0.022 0.522 255 255 255
-0.104 0.125 0.308 255 255 255
-0.088 -0.129 0.542 255 255 255
0.123 0.092 0.41 255 255 255
0.505 -0.28 0.781 255 255 255
0.134 -0.3 0.902 255 255 255
-0.054 0.132 0.324 255 255 255
0.283 -0.155 0.852 255 255 255
-0.002 -0.006 0.525 0 0 0
0.113 0.051 0.471 255 255 255
0.1 0.111 0.388 255 255 255
0.325 -0.414 0.749 255 255 255
-0.012 0.001 0.511 255 255 255
-0.072 0.166 0.368 0 0 0
0.08 -0.085 0.678 255 255 255
0.195 0.086 0.442 255 255 255
-0.075 -0.29 0.5 0 0 0
0.347 -0.225 0.779 255 255 255
0.269 -0.431 0.844 0 0 0
-0.205 -0.17 0.518 255 255 255
0.095 0.04 0.482 255 255 255
-0.326 -0.132 0.477 255 255 255
0.153 -0.285 0.836 0 0 0
-0.028 0.128 0.329 255 255 255
-0.1 -0.257 0.498 0 0 0
-0.054 -0.319 0.499 255 255 255
0.104 0.172 0.413 255 255 255
-0.181 0.039 0.413 255 255 255
0.288 -0.017 0.639 255 255 255
-0.229 -0.246 0.484 0 0 0
-0.149 0.059 0.393 255 255 255
0.111 0.104 0.401 255 255 255
0.193 0.128 0.389 255 255 255
0.079 0.118 0.375 255 255 255
0.226 -0.326 0.752 0 0 0
-0.073 0.1 0.35 255 255 255
-0.187 0.064 0.373 255 255 255
0.47 -0.408 0.877 255 255 255
-0.332 -0.144 0.605 0 0 0
0.046 -0.12 0.721 255 255 255
-0.059 -0.001 0.5 255 255 255
0.105 -0.305 0.894 255 255 255
-0.189 -0.296 0.473 255 255 255
0.022 0.081 0.4 255 255 255
0.05 0.064 0.432 255 255 255
-0.295 -0.145 0.49 0 0 0
-0.241 -0.217 0.493 0 0 0
-0.139 -0.166 0.526 255 255 255
0.004 -0.239 0.526 0 0 0
-0.059 0.006 0.489 255 255 255
-0.03 0.007 0.498 255 255 255
-0.147 -0.136 0.585 255 255 255
-0.218 -0.078 0.492 255 255 255
0.314 0.012 0.573 255 255 255
-0.013 0.094 0.377 0 0 0
-0.062 -0.146 0.733 255 255 255
-0.228 -0.139 0.626 0 0 0
-0.037 0.093 0.37 255 255 255
-0.01 -0.294 0.522 255 255 255
0.352 -0.246 0.787 0 0 0
-0.107 0.086 0.359 255 255 255
0.036 0.132 0.345 255 255 255
-0.156 -0.011 0.448 255 255 255
0.454 -0.247 0.911 255 255 255
-0.131 0.061 0.397 255 255 255
0.019 -0.241 0.519 255 255 255
0.102 -0.204 0.933 255 255 255
0.026 0.132 0.341 255 255 255
0.157 0.05 0.485 255 255 255
0.074 -0.352 0.857 255 255 255
0.312 0.01 0.586 255 255 255
0.299 -0.407 0.746 255 255 255
0.027 -0.049 0.599 255 255 255
-0.101 -0.082 0.539 255 255 255
-0.137 0.082 0.359 255 255 255
0.003 0.116 0.348 255 255 255
-0.054 0.024 0.463 255 255 255
-0.012 -0.316 0.516 255 255 255
-0.136 -0.04 0.475 255 255 255
0.134 -0.08 0.686 255 255 255
0.01 -0.188 0.536 255 255 255
0.038 0.076 0.411 255 255 255
-0.108 0.159 0.354 0 0 0
-0.07 -0.28 0.508 0 0 0
-0.053 -0.326 0.497 255 255 255
-0.151 0.058 0.394 255 255 255
0.425 -0.168 0.98 0 0 0
0.023 0.119 0.353 255 255 255
-0.224 -0.089 0.511 255 255 255
0.114 0.15 0.385 0 0 0
-0.151 0.109 0.311 255 255 255
-0.158 0.082 0.355 255 255 255
-0.09 -0.214 0.517 0 0 0
0.407 -0.087 0.877 0 0 0
0.082 0.123 0.365 255 255 255
-0.001 0.179 0.394 0 0 0
0.158 -0.045 0.637 255 255 255
0.051 0.131 0.348 255 255 255
0.064 0.171 0.404 255 255 255
-0.127 -0.306 0.482 0 0 0
-0.044 0.139 0.332 255 255 255
0.082 -0.313 0.884 255 255 255
0.155 -0.199 0.804 255 255 255
-0.165 -0.156 0.528 0 0 0
-0.219 -0.179 0.512 0 0 0
0.087 -0.029 0.588 255 255 255
-0.042 -0.06 0.595 255 255 255
-0.044 0.086 0.369 255 255 255
-0.064 -0.175 0.553 0 0 0
0.148 -0.293 0.909 255 255 255
-0.033 0.079 0.385 255 255 255
-0.224 -0.317 0.461 0 0 0
0.318 -0.583 0.755 0 0 0
0.071 0.091 0.397 255 255 255
-0.154 0.06 0.394 255 255 255
0.141 0.18 0.429 255 255 255
-0.037 -0.271 0.521 0 0 0
0.1 -0.251 0.925 255 255 255
0.011 0.082 0.392 255 255 255
0.197 0.027 0.514 255 255 255
0.468 -0.059 0.788 255 255 255
-0.137 -0.332 0.471 255 255 255
0.173 0.168 0.427 255 255 255
0.227 -0.46 0.816 255 255 255
-0.241 -0.242 0.486 255 255 255
0.07 -0.112 0.717 255 255 255
0.071 0.165 0.401 255 255 255
0.379 -0.344 0.932 255 255 255
-0.14 0.117 0.3 255 255 255
0.165 -0.177 0.782 255 255 255
0.057 -0.039 0.593 255 255 255
-0.012 -0.042 0.576 255 255 255
-0.092 0.092 0.355 255 255 255
0.479 -0.011 0.728 255 255 255
0.041 0.074 0.414 255 255 255
0.141 -0.316 0.894 255 255 255
0.361 0.524 1.079 255 255 255
-0.032 -0.137 0.721 255 255 255
-0.139 -0.127 0.541 0 0 0
0.27 -0.097 0.77 255 255 255
0.496 -0.08 0.694 255 255 255
0.067 -0.398 0.824 255 255 255
0.235 0.045 0.494 255 255 255
0.159 0.193 0.436 255 255 255
0.316 0.598 1.114 255 255 255
0.148 0.085 0.43 255 255 255
0.01 -0.3 0.514 0 0 0
0.438 -0.383 0.911 255 255 255
0.088 -0.028 0.586 255 255 255
-0.008 -0.129 0.561 255 255 255
0.14 -0.498 0.773 255 255 255
-0.144 -0.198 0.505 255 255 255
-0.089 0.117 0.321 255 255 255
-0.054 -0.176 0.558 0 0 0
0.325 0.019 0.553 255 255 255
-0.133 -0.007 0.452 255 255 255
0.25 0.065 0.482 0 0 0
0.098 -0.381 0.843 255 255 255
0.379 0.5 1.039 255 255 255
-0.118 0.55 1.038 255 255 255
-0.08 -0.343 0.483 0 0 0
-0.078 -0.303 0.498 255 255 255
0.158 -0.014 0.584 0 0 0
0.162 -0.145 0.796 0 0 0
0.492 -0.175 0.738 255 255 255
-0.196 -0.099 0.538 255 255 255
0.032 -0.339 0.476 255 255 255
0.474 -0.062 0.762 255 255 255
-0.034 0.096 0.368 255 255 255
-0.163 -0.204 0.499 255 255 255
-0.06 -0.353 0.486 0 0 0
0.164 -0.379 0.804 0 0 0
-0.097 -0.064 0.579 255 255 255
-0.184 -0.158 0.525 0 0 0
-0.054 -0.134 0.545 0 0 0
0.268 -0.232 0.866 255 255 255
-0.085 -0.249 0.507 255 255 255
0.117 0.075 0.434 255 255 255
-0.023 0.187 0.392 255 255 255
0.035 0.191 0.409 255 255 255
-0.128 0.012 0.441 255 255 255
-0.07 0.08 0.382 255 255 255
0.038 0.101 0.386 255 255 255
0.118 0.13 0.367 255 255 255
-0.02 -0.126 0.707 255 255 255
-0.159 0.168 0.367 255 255 255
-0.101 0.098 0.342 255 255 255
0.234 -0.01 0.601 255 255 255
0.047 0.127 0.347 255 255 255
0.046 0.048 0.456 255 255 255
0.17 -0.292 0.89 0 0 0
-0.191 -0.343 0.458 0 0 0
-0.075 0.004 0.487 255 255 255
0.123 0.199 0.44 0 0 0
-0.091 0.128 0.315 255 255 255
-0.016 -0.031 0.558 255 255 255
-0.213 -0.262 0.48 0 0 0
0.075 0.084 0.408 255 255 255
0.474 -0.195 0.822 255 255 255
-0.321 -0.125 0.588 255 255 255
-0.089 -0.034 0.537 255 255 255
0.011 -0.236 0.515 0 0 0
-0.006 -0.057 0.603 255 255 255
-0.151 -0.192 0.506 255 255 255
0.183 0.089 0.432 255 255 255
0.055 0.12 0.36 255 255 255
-0.314 -0.187 0.492 255 255 255
0.287 0.06 0.512 255 255 255
0.062 -0.252 0.918 255 255 255
0.325 0.01 0.569 255 255 255
-0.313 0.542 0.995 255 255 255
0.453 -0.13 0.874 255 255 255
-0.076 -0.298 0.499 255 255 255
0.017 -0.248 0.514 255 255 255
0.405 -0.362 0.925 255 255 255
-0.2 -0.29 0.474 255 255 255
0.284 0.074 0.486 255 255 255
0.065 -0.376 0.838 255 255 255
0.265 0.006 0.582 255 255 255
0.185 0.137 0.384 255 255 255
-0.109 0.103 0.333 255 255 255
-0.128 0.113 0.318 255 255 255
-0.218 -0.339 0.451 0 0 0
-0.069 -0.24 0.52 255 255 255
0.371 0.506 1.043 255 255 255
-0.19 -0.153 0.662 255 255 255
0.502 -0.216 0.75 255 255 255
0.457 -0.262 0.904 255 255 255
0.114 0.101 0.404 255 255 255
0.405 0.458 0.965 255 255 255
0.063 0.045 0.466 255 255 255
0.249 0.095 0.447 255 255 255
0.091 0.027 0.503 255 255 255
-0.295 -0.138 0.484 0 0 0
-0.138 0.121 0.301 255 255 255
0.231 -0.027 0.633 0 0 0
0.463 -0.017 0.791 0 0 0
-0.146 -0.157 0.53 0 0 0
-0.065 -0.172 0.557 0 0 0
0.221 -0.001 0.577 255 255 255
0.49 -0.281 0.799 255 255 255
0.119 -0.03 0.6 0 0 0
-0.051 0.097 0.359 255 255 255
-0.064 0.109 0.34 255 255 255
-0.199 -0.18 0.512 0 0 0
-0.137 0.105 0.323 255 255 255
-0.063 0.07 0.39 255 255 255
0.403 -0.516 0.82 255 255 255
-0.248 -0.12 0.596 255 255 255
-0.132 0.107 0.322 255 255 255
-0.216 -0.223 0.494 255 255 255
-0.118 0.052 0.418 255 255 255
-0.082 0.052 0.424 255 255 255
-0.148 0.073 0.373 255 255 255
-0.079 -0.348 0.482 0 0 0
0.153 0.167 0.421 255 255 255
0.146 0.045 0.489 255 255 255
-0.152 0.038 0.423 255 255 255
-0.299 -0.147 0.593 0 0 0
-0.204 -0.266 0.479 0 0 0
0.213 -0.359 0.737 255 255 255
-0.01 -0.083 0.642 255 255 255
0.204 -0.258 0.778 0 0 0
0.053 -0.077 0.654 255 255 255
0.128 -0.376 0.852 255 255 255
0.219 0.073 0.469 255 255 255
0.282 0.081 0.476 255 255 255
0.351 0.047 0.561 255 255 255
-0.027 -0.244 0.535 255 255 255
-0.048 -0.081 0.628 255 255 255
-0.224 -0.139 0.503 0 0 0
-0.017 -0.018 0.538 255 255 255
-0.101 -0.214 0.51 255 255 255
-0.179 -0.019 0.463 255 255 255
-0.103 0.079 0.372 255 255 255
0.443 -0.073 0.88 0 0 0
0.209 -0.463 0.809 255 255 255
-0.034 -0.193 0.559 255 255 255
0.464 -0.196 0.857 255 255 255
-0.181 0.066 0.375 255 255 255
0.208 0.03 0.513 0 0 0
-0.002 -0.127 0.562 255 255 255
-0.116 -0.155 0.72 0 0 0
0.003 -0.318 0.517 255 255 255
-0.066 0.096 0.356 255 255 255
-0.056 -0.024 0.537 255 255 255
-0.097 -0.063 0.578 255 255 255
0.145 0.071 0.45 255 255 255
-0.278 -0.005 0.42 255 255 255
-0.26 0.009 0.408 255 255 255
-0.022 -0.275 0.526 255 255 255
0.298 0.584 1.13 255 255 255
0.077 0.166 0.402 255 255 255
-0.079 0.102 0.344 255 255 255
-0.203 -0.214 0.496 255 255 255
-0.209 0.031 0.414 255 255 255
0.423 -0.168 0.982 0 0 0
-0.097 0.111 0.326 255 255 255
0.078 0.04 0.477 255 255 255
0.302 -0.452 0.72 255 255 255
-0.186 0.071 0.365 255 255 255
0.172 0.004 0.562 255 255 255
-0.095 0.092 0.355 255 255 255
-0.088 0.115 0.323 255 255 255
-0.314 -0.138 0.609 255 255 255
-0.142 0.115 0.298 255 255 255
0.354 0.61 1.079 255 255 255
-0.047 0.033 0.452 255 255 255
-0.166 0.049 0.406 255 255 255
-0.088 -0.163 0.549 255 255 255
-0.192 -0.215 0.495 255 255 255
0.133 -0.318 0.89 255 255 255
-0.113 -0.149 0.544 0 0 0
0.168 -0.309 0.877 0 0 0
0.05 -0.273 0.903 255 255 255
0.252 -0.018 0.625 0 0 0
-0.018 0.117 0.341 255 255 255
0.169 0.031 0.519 255 255 255
0.394 0.49 1.013 255 255 255
-0.034 -0.064 0.603 255 255 255
0.272 0.013 0.539 255 255 255
0.375 0.017 0.59 255 255 255
0.156 -0.362 0.865 255 255 255
0.256 -0.058 0.696 255 255 255
-0.158 0.104 0.317 255 255 255
-0.123 -0.323 0.477 0 0 0
0.128 0.13 0.371 255 255 255
0.024 -0.114 0.704 255 255 255
-0.129 -0.049 0.492 255 255 255
-0.265 -0.225 0.489 255 255 255
0.09 0.1 0.398 255 255 255
0.228 -0.144 0.837 255 255 255
0.108 -0.455 0.795 255 255 255
-0.195 -0.097 0.533 255 255 255
-0.241 -0.301 0.461 255 255 255
-0.285 -0.165 0.509 0 0 0
-0.194 -0.224 0.492 255 255 255
0.007 0.109 0.363 255 255 255
0.213 0.561 1.131 255 255 255
0.35 -0.486 0.724 255 255 255
-0.098 -0.082 0.54 255 255 255
0.369 -0.237 0.995 0 0 0
0.055 0.181 0.409 255 255 255
-0.328 -0.103 0.501 255 255 255
-0.049 -0.127 0.696 255 255 255
-0.042 -0.181 0.561 255 255 255
-0.073 -0.271 0.507 255 255 255
0.087 -0.222 0.937 0 0 0
0.059 -0.266 0.91 255 255 255
0.285 -0.581 0.75 0 0 0
-0.101 0.564 1.03 255 255 255
0.016 0.094 0.387 0 0 0
0.046 0.161 0.391 255 255 255
0.449 -0.244 0.929 0 0 0
0.189 -0.492 0.789 255 255 255
-0.178 0.067 0.372 255 255 255
-0.152 0.075 0.366 255 255 255
-0.121 -0.173 0.527 0 0 0
-0.03 0.128 0.329 255 255 255
0.11 0.048 0.473 0 0 0
-0.119 0.538 1.055 255 255 255
0.013 0.096 0.386 0 0 0
-0.01 0.12 0.342 255 255 255
-0.13 0.04 0.428 255 255 255
-0.023 0.192 0.396 255 255 255
-0.003 0.117 0.347 255 255 255
-0.158 -0.129 0.521 255 255 255
0.054 -0.065 0.636 255 255 255
-0.103 0.177 0.369 255 255 255
0.117 0.034 0.5 255 255 255
0.223 -0.004 0.549 0 0 0
0.091 -0.279 0.906 255 255 255
0.1 0.037 0.488 255 255 255
-0.209 0.554 1.009 255 255 255
-0.14 -0.101 0.59 255 255 255
0.034 -0.058 0.617 255 255 255
-0.045 -0.338 0.493 0 0 0
-0.075 0.171 0.371 255 255 255
0.062 0.122 0.353 255 255 255
-0.153 0.069 0.378 255 255 255
-0.017 -0.355 0.498 255 255 255
0.174 -0.331 0.871 0 0 0
0.026 0.119 0.352 255 255 255
0.186 0.053 0.492 255 255 255
0.352 0.551 1.111 255 255 255
0.451 -0.44 0.88 255 255 255
-0.158 0.066 0.382 255 255 255
0.297 -0.449 0.789 255 255 255
-0.087 0.04 0.444 255 255 255
0.076 -0.088 0.68 255 255 255
-0.044 0.125 0.328 255 255 255
-0.048 0.139 0.331 255 255 255
-0.186 0.067 0.369 255 255 255
-0.015 0.073 0.399 255 255 255
0.135 0.546 1.125 255 255 255
0.495 -0.085 0.699 255 255 255
0.189 -0.068 0.687 255 255 255
-0.148 -0.294 0.479 0 0 0
0.264 -0.432 0.843 0 0 0
0.086 -0.367 0.849 255 255 255
0.433 -0.541 0.822 255 255 255
0.187 0.05 0.495 255 255 255
-0.19 -0.047 0.468 255 255 255
0.037 0.064 0.428 255 255 255
-0.024 -0.282 0.523 255 255 255
0.019 0.084 0.393 255 255 255
-0.102 -0.342 0.477 0 0 0
-0.04 -0.23 0.538 255 255 255
0.054 -0.238 0.925 255 255 255
-0.059 0.04 0.439 255 255 255
0.05 -0.21 0.928 255 255 255
0.215 -0.033 0.637 0 0 0
-0.034 0.083 0.377 255 255 255
-0.038 0.086 0.371 255 255 255
0.335 -0.445 0.734 255 255 255
0.2 0.188 0.447 255 255 255
-0.093 0.1 0.343 255 255 255
-0.153 0.053 0.403 255 255 255
0.497 -0.123 0.701 255 255 255
-0.195 -0.247 0.485 0 0 0
0.283 0.003 0.603 0 0 0
0.11 0.015 0.527 255 255 255
0.016 -0.097 0.674 255 255 255
0.129 0.077 0.436 255 255 255
0.483 -0.107 0.746 255 255 255
-0.189 0.063 0.375 255 255 255
-0.129 -0.003 0.445 255 255 255
0.083 -0.243 0.927 255 255 255
0.464 -0.185 0.851 255 255 255
-0.096 -0.019 0.487 255 255 255
0.334 -0.035 0.692 255 255 255
-0.167 -0.155 0.679 255 255 255
-0.133 -0.291 0.483 0 0 0
-0.046 0.115 0.338 255 255 255
0.038 0.097 0.391 0 0 0
-0.047 0.092 0.369 255 255 255
0.327 0.062 0.524 255 255 255
-0.053 0.065 0.4 255 255 255
-0.264 -0.21 0.495 255 255 255
-0.107 0.097 0.343 255 255 255
-0.106 0.135 0.313 255 255 255
0.455 -0.069 0.844 255 255 255
0.275 -0.126 0.824 0 0 0
-0.055 -0.17 0.56 0 0 0
0.47 -0.165 0.819 255 255 255
0.115 -0.469 0.786 255 255 255
-0.014 0.549 1.075 255 255 255
0.025 -0.289 0.499 255 255 255
0.42 -0.485 0.846 255 255 255
0.081 0.129 0.357 255 255 255
-0.168 -0.131 0.672 255 255 255
-0.093 -0.229 0.508 0 0 0
-0.044 -0.159 0.57 255 255 255
-0.057 -0.007 0.51 255 255 255
-0.033 0.106 0.353 255 255 255
0.434 -0.483 0.852 255 255 255
0.097 0.024 0.509 255 255 255
-0.038 -0.302 0.511 0 0 0
0.112 -0.492 0.77 255 255 255
0.282 -0.075 0.738 255 255 255
0.453 -0.305 0.917 255 255 255
-0.041 -0.249 0.529 0 0 0
-0.25 -0.005 0.427 255 255 255
0.179 0.092 0.428 255 255 255
-0.209 0.047 0.391 255 255 255
-0.234 -0.32 0.456 255 255 255
-0.014 -0.111 0.685 255 255 255
-0.349 -0.107 0.5 255 255 255
0.004 -0.177 0.545 0 0 0
0.352 -0.58 0.762 0 0 0
0.172 0.062 0.473 255 255 255
-0.009 -0.368 0.495 0 0 0
-0.161 -0.292 0.477 255 255 255
0.025 -0.166 0.882 255 255 255
0.01 0.079 0.398 255 255 255
0.288 -0.414 0.809 255 255 255
-0.004 -0.006 0.524 255 255 255
-0.068 0.191 0.382 255 255 255
-0.093 0.054 0.418 255 255 255
-0.164 0.059 0.391 255 255 255
0.483 -0.472 0.857 255 255 255
0.217 0.055 0.487 255 255 255
-0.16 -0.348 0.462 0 0 0
-0.162 0.072 0.371 255 255 255
-0.063 -0.265 0.513 255 255 255
-0.013 -0.167 0.576 255 255 255
0.275 0.03 0.533 255 255 255
0.468 -0.115 0.802 255 255 255
0.122 0.044 0.485 255 255 255
0.175 0.126 0.383 255 255 255
0.023 0.103 0.378 255 255 255
0.384 -0.328 0.943 255 255 255
-0.092 0.018 0.446 255 255 255
0.244 0.073 0.477 0 0 0
-0.04 -0.038 0.561 255 255 255
0.397 0.524 1.002 255 255 255
-0.073 0.104 0.343 255 255 255
-0.071 -0.03 0.54 255 255 255
0.264 -0.579 0.745 255 255 255
-0.109 0.14 0.32 255 255 255
-0.143 -0.283 0.481 0 0 0
0.139 0.064 0.458 255 255 255
-0.03 0.117 0.339 255 255 255
0.078 0.041 0.475 255 255 255
-0.297 -0.166 0.507 0 0 0
0.013 0.046 0.45 255 255 255
-0.21 0.546 1.019 255 255 255
-0.036 -0.004 0.512 255 255 255
-0.28 0.024 0.401 255 255 255
0.098 -0.076 0.667 255 255 255
0.018 0.549 1.086 255 255 255
-0.145 0.061 0.393 255 255 255
-0.037 0.057 0.42 255 255 255
-0.08 0.08 0.379 255 255 255
-0.15 -0.32 0.472 255 255 255
0.345 0.569 1.126 255 255 255
0.148 -0.305 0.902 255 255 255
-0.278 -0.202 0.497 255 255 255
0.221 -0.268 0.769 255 255 255
0.003 0.047 0.447 255 255 255
-0.159 -0.271 0.483 0 0 0
-0.064 0.156 0.361 255 255 255
0.008 0.089 0.381 255 255 255
0.02 0.079 0.402 255 255 255
0.106 0.111 0.388 255 255 255
0.114 -0.043 0.618 255 255 255
0.036 0.125 0.35 255 255 255
0.481 -0.201 0.791 255 255 255
0.198 0.05 0.482 255 255 255
0.171 0.138 0.379 255 255 255
-0.026 0.049 0.433 255 255 255
-0.175 -0.156 0.682 255 255 255
-0.071 -0.232 0.521 255 255 255
0.483 -0.099 0.743 255 255 255
-0.265 0.001 0.41 255 255 255
0.34 -0.029 0.684 255 255 255
0.475 -0.335 0.855 255 255 255
0.495 -0.063 0.691 255 255 255
-0.05 -0.219 0.536 0 0 0
0.455 -0.363 0.913 255 255 255
0.093 -0.081 0.672 255 255 255
-0.168 0.08 0.354 255 255 255
-0.026 0.127 0.329 255 255 255
-0.105 0.114 0.318 255 255 255
-0.092 0.014 0.458 255 255 255
0.163 0.072 0.453 255 255 255
0.454 -0.423 0.888 255 255 255
0.293 -0.237 0.876 255 255 255
-0.082 0.172 0.369 255 255 255
-0.024 0.067 0.404 255 255 255
0.119 -0.064 0.656 255 255 255
-0.192 -0.153 0.693 255 255 255
0.256 -0.16 0.85 255 255 255
0.296 0.04 0.547 0 0 0
-0.013 0.07 0.404 255 255 255
0.183 0.044 0.505 255 255 255
0.118 0.113 0.394 255 255 255
-0.341 0.536 0.993 255 255 255
0.386 0.531 1.003 255 255 255
0.152 -0.363 0.866 255 255 255
0.475 0.048 0.7 255 255 255
-0.335 -0.129 0.57 255 255 255
0.016 -0.228 0.522 255 255 255
-0.066 -0.241 0.521 255 255 255
-0.072 0.09 0.367 255 255 255
-0.074 -0.19 0.541 0 0 0
0.115 -0.462 0.792 255 255 255
0.189 0.056 0.485 255 255 255
0.189 -0.09 0.723 255 255 255
0.211 0.039 0.5 0 0 0
-0.051 0.144 0.341 255 255 255
0.339 0.517 1.132 0 0 0
-0.183 -0.07 0.505 255 255 255
0.408 -0.434 0.879 255 255 255
-0.145 -0.047 0.486 255 255 255
0.193 -0.426 0.827 0 0 0
0.286 0.048 0.53 255 255 255
-0.112 0.534 1.063 255 255 255
0.067 0.098 0.394 0 0 0
-0.034 0.126 0.329 255 255 255
-0.05 0.112 0.338 255 255 255
-0.179 0.071 0.366 255 255 255
0.05 0.048 0.456 255 255 255
0.288 -0.093 0.772 255 255 255
0.501 -0.425 0.843 255 255 255
-0.206 -0.217 0.494 255 255 255
0.052 -0.409 0.815 255 255 255
0.224 -0.328 0.752 0 0 0
0.463 -0.04 0.802 255 255 255
0.152 -0.323 0.889 255 255 255
0.003 0.052 0.438 255 255 255
-0.12 -0.312 0.48 255 255 255
-0.169 -0.131 0.517 255 255 255
-0.18 -0.06 0.49 255 255 255
-0.007 -0.175 0.57 0 0 0
0.092 0.189 0.407 255 255 255
-0.11 -0.237 0.497 255 255 255
-0.011 0.12 0.341 255 255 255
0.002 0.068 0.413 255 255 255
0.462 -0.128 0.837 255 255 255
-0.127 0.061 0.398 255 255 255
0.106 0.068 0.442 255 255 255
0.002 0.036 0.463 255 255 255
-0.11 -0.223 0.502 255 255 255
0.007 0.004 0.513 255 255 255
-0.088 0.175 0.37 255 255 255
-0.088 0.108 0.331 255 255 255
-0.043 -0.178 0.563 255 255 255
0.095 -0.548 0.729 0 0 0
0.449 -0.375 0.916 255 255 255
-0.128 0.111 0.319 255 255 255
-0.146 0.093 0.338 255 255 255
0.015 0.075 0.405 255 255 255
-0.132 0.054 0.41 255 255 255
-0.271 -0.11 0.542 255 255 255
0.225 -0.237 0.791 255 255 255
0.076 0.081 0.412 255 255 255
-0.206 -0.058 0.48 255 255 255
0.157 -0.446 0.812 255 255 255
-0.166 -0.043 0.475 255 255 255
-0.113 -0.179 0.525 255 255 255
-0.055 0.19 0.385 255 255 255
0.205 -0.237 0.785 0 0 0
0.173 0.017 0.541 0 0 0
-0.215 -0.264 0.478 0 0 0
-0.139 -0.038 0.473 255 255 255
0.08 0.552 1.102 255 255 255
-0.2 -0.025 0.465 255 255 255
-0.072 -0.238 0.519 255 255 255
-0.039 0.017 0.478 255 255 255
-0.018 -0.016 0.534 255 255 255
0.479 -0.167 0.788 255 255 255
-0.148 -0.194 0.506 255 255 255
0.111 0.035 0.495 255 255 255
0.066 0.079 0.413 255 255 255
-0.132 0.112 0.313 255 255 255
0.178 0.104 0.421 255 255 255
0.203 0.168 0.432 255 255 255
-0.096 0.104 0.334 255 255 255
0.183 0.034 0.517 255 255 255
0.495 -0.287 0.797 255 255 255
-0.205 -0.125 0.622 255 255 255
-0.226 -0.156 0.523 255 255 255
0.476 -0.216 0.822 255 255 255
0.019 -0.356 0.484 0 0 0
-0.049 0.061 0.409 255 255 255
0.16 -0.422 0.828 255 255 255
0.119 0.126 0.367 255 255 255
0.473 -0.298 0.856 255 255 255
0.017 0.125 0.343 255 255 255
-0.005 -0.209 0.558 0 0 0
0.064 0.103 0.387 255 255 255
0.189 0.012 0.556 255 255 255
0.206 0.069 0.474 255 255 255
-0.054 0.117 0.33 255 255 255
-0.133 -0.135 0.526 0 0 0
-0.157 0.015 0.424 255 255 255
-0.12 -0.055 0.5 255 255 255
0.086 0.036 0.486 255 255 255
-0.147 0.076 0.368 255 255 255
-0.061 -0.307 0.5 255 255 255
0.319 0.029 0.565 0 0 0
0.102 -0.475 0.78 255 255 255
0.37 0.491 1.052 255 255 255
-0.166 -0.025 0.465 255 255 255
0.188 0.097 0.423 255 255 255
-0.085 -0.057 0.578 255 255 255
-0.083 0.04 0.446 255 255 255
0.043 -0.116 0.714 255 255 255
-0.281 -0.165 0.51 0 0 0
0.283 -0.48 0.813 0 0 0
-0.144 0.094 0.337 255 255 255
0.155 -0.448 0.809 255 255 255
-0.137 -0.068 0.522 255 255 255
-0.002 0.109 0.36 255 255 255
0.112 -0.29 0.904 255 255 255
0.455 -0.156 0.875 255 255 255
-0.036 -0.131 0.554 255 255 255
0.15 -0.43 0.82 255 255 255
-0.116 0.107 0.316 255 255 255
-0.192 -0.135 0.507 255 255 255
0.044 0.103 0.382 255 255 255
-0.088 -0.174 0.544 0 0 0
-0.139 -0.155 0.533 0 0 0
-0.066 -0.003 0.501 255 255 255
0.14 0.031 0.509 0 0 0
0.061 0.134 0.351 255 255 255
-0.046 0.075 0.388 255 255 255
-0.197 -0.295 0.472 255 255 255
0.481 -0.209 0.801 255 255 255
-0.114 0.016 0.438 255 255 255
-0.093 -0.133 0.692 255 255 255
0.307 -0.155 0.855 255 255 255
-0.184 0.035 0.417 255 255 255
0.142 -0.165 0.842 0 0 0
0.1 0.085 0.416 255 255 255
-0.012 0.069 0.405 255 255 255
-0.14 -0.084 0.533 255 255 255
0.278 0.042 0.534 0 0 0
-0.215 -0.196 0.505 0 0 0
0.187 0.005 0.565 255 255 255
-0.024 -0.157 0.578 0 0 0
-0.182 -0.134 0.51 255 255 255
-0.089 -0.18 0.539 0 0 0
-0.225 -0.024 0.459 255 255 255
-0.194 -0.322 0.462 255 255 255
-0.039 -0.205 0.548 255 255 255
-0.312 -0.153 0.501 0 0 0
0.023 0.049 0.449 255 255 255
-0.066 -0.311 0.499 255 255 255
0.123 -0.149 0.832 0 0 0
-0.03 -0.318 0.507 0 0 0
-0.151 -0.045 0.484 255 255 255
0.338 0.008 0.589 255 255 255
0.079 -0.491 0.765 255 255 255
0.07 0.045 0.471 255 255 255
-0.174 -0.093 0.534 255 255 255
0.004 -0.242 0.527 0 0 0
-0.114 -0.288 0.489 255 255 255
0.001 0.1 0.373 255 255 255
0.007 -0.32 0.516 255 255 255
-0.237 -0.093 0.515 255 255 255
-0.013 0.048 0.438 255 255 255
-0.001 -0.005 0.523 0 0 0
0.073 0.15 0.378 0 0 0
0.483 -0.417 0.857 255 255 255
-0.183 0.02 0.416 255 255 255
0.489 0.007 0.691 255 255 255
-0.037 0.557 1.059 255 255 255
0.163 -0.038 0.627 255 255 255
-0.213 -0.047 0.471 255 255 255
0.2 0.052 0.483 255 255 255
-0.093 -0.164 0.548 255 255 255
0.336 -0.194 0.813 255 255 255
0.089 0.083 0.414 255 255 255
0.303 0.606 1.099 255 255 255
0.031 -0.21 0.92 255 255 255
-0.01 -0.056 0.599 255 255 255
0.139 0.082 0.431 255 255 255
0.463 -0.064 0.812 255 255 255
0.086 0.025 0.505 255 255 255
0.33 -0.09 0.783 255 255 255
0.342 -0.203 0.789 255 255 255
-0.062 -0.344 0.488 255 255 255
-0.148 -0.293 0.479 0 0 0
0.028 -0.342 0.473 0 0 0
0.48 -0.178 0.788 255 255 255
-0.273 -0.228 0.489 255 255 255
0.179 -0.354 0.831 255 255 255
0.156 0 0.561 255 255 255
0.003 -0.118 0.703 255 255 255
0.035 0.104 0.38 255 255 255
-0.085 0.078 0.382 255 255 255
-0.107 0.113 0.32 255 255 255
-0.165 -0.18 0.513 255 255 255
0.151 -0.353 0.872 255 255 255
0.449 -0.414 0.894 255 255 255
0.023 0.03 0.476 255 255 255
-0.019 0.075 0.393 255 255 255
0.097 0.044 0.477 255 255 255
-0.199 0.046 0.398 255 255 255
0.061 0.099 0.391 255 255 255
0.307 0.609 1.097 255 255 255
0.432 -0.529 0.826 255 255 255
0.083 0.169 0.401 255 255 255
0.19 0.045 0.495 255 255 255
0.095 -0.421 0.816 255 255 255
0.156 0.076 0.446 255 255 255
-0.137 -0.174 0.519 0 0 0
-0.196 -0.248 0.485 0 0 0
-0.27 -0.239 0.485 255 255 255
-0.044 -0.228 0.537 0 0 0
-0.269 -0.103 0.52 255 255 255
-0.157 -0.041 0.47 255 255 255
-0.31 -0.007 0.415 255 255 255
0.25 0.078 0.469 255 255 255
0.163 -0.425 0.825 255 255 255
0.303 -0.472 0.711 255 255 255
-0.01 0.161 0.378 255 255 255
-0.186 -0.221 0.493 255 255 255
0.223 -0.442 0.828 255 255 255
-0.128 0.11 0.32 255 255 255
0.077 0.163 0.401 255 255 255
-0.086 0.128 0.313 255 255 255
-0.037 0.06 0.414 255 255 255
0.168 -0.308 0.78 255 255 255
0.064 0.13 0.352 255 255 255
-0.123 0.103 0.339 255 255 255
0.278 -0.322 0.792 255 255 255
0.058 0.085 0.401 255 255 255
0.194 0.071 0.467 255 255 255
0.466 -0.244 0.862 255 255 255
-0.085 0.155 0.355 255 255 255
-0.225 0.55 1.01 255 255 255
-0.252 0.535 1.022 255 255 255
-0.094 -0.334 0.481 255 255 255
0.432 -0.432 0.883 255 255 255
0.487 -0.103 0.732 255 255 255
-0.142 -0.09 0.539 255 255 255
0.296 -0.114 0.807 255 255 255
-0.061 0.129 0.319 255 255 255
0.138 -0.062 0.659 255 255 255
-0.03 0.034 0.456 255 255 255
-0.177 0.076 0.358 255 255 255
0.482 -0.298 0.825 255 255 255
-0.246 -0.139 0.497 0 0 0
0.011 0.119 0.351 255 255 255
-0.028 0.027 0.467 255 255 255
0.106 -0.065 0.652 255 255 255
0.491 -0.118 0.721 255 255 255
-0.048 -0.151 0.57 255 255 255
-0.2 -0.34 0.456 0 0 0
0.448 -0.458 0.868 255 255 255
-0.09 0.054 0.42 255 255 255
0.467 -0.251 0.863 255 255 255
0.496 -0.202 0.747 255 255 255
-0.021 0.567 1.053 255 255 255
0.135 -0.119 0.748 255 255 255
-0.05 -0.278 0.513 255 255 255
-0.051 0.116 0.335 255 255 255
-0.132 -0.297 0.481 0 0 0
-0.135 -0.257 0.488 255 255 255
0.016 0.119 0.347 255 255 255
0.15 -0.432 0.819 255 255 255
-0.158 -0.25 0.486 255 255 255
0.265 -0.286 0.813 255 255 255
0.06 -0.175 0.91 255 255 255
0.153 0.072 0.452 255 255 255
-0.16 -0.148 0.531 0 0 0
-0.176 -0.275 0.481 0 0 0
-0.089 0.032 0.454 255 255 255
0.044 -0.37 0.84 255 255 255
0.155 -0.31 0.865 255 255 255
-0.165 -0.21 0.498 255 255 255
0.287 -0.391 0.753 255 255 255
-0.106 -0.181 0.527 0 0 0
-0.279 -0.173 0.509 255 255 255
0 0.103 0.367 255 255 255
-0.123 0.09 0.348 255 255 255
0.213 -0.323 0.751 255 255 255
-0.066 -0.094 0.641 255 255 255
-0.283 -0.13 0.605 255 255 255
-0.101 0.105 0.331 255 255 255
-0.193 -0.037 0.479 255 255 255
0.129 0.103 0.407 255 255 255
0.141 0.043 0.493 0 0 0
0.203 0.086 0.445 255 255 255
-0.16 0.093 0.333 255 255 255
0.201 -0.083 0.718 255 255 255
0.014 -0.216 0.526 255 255 255
0.025 0.079 0.401 255 255 255
-0.286 -0.184 0.503 255 255 255
-0.098 -0.227 0.507 0 0 0
-0.055 -0.033 0.55 255 255 255
-0.1 0.013 0.451 255 255 255
0.351 0.525 1.115 255 255 255
0.234 -0.344 0.745 255 255 255
0.083 0.086 0.408 255 255 255
0.447 -0.079 0.876 255 255 255
0.246 -0.014 0.609 255 255 255
-0.03 -0.196 0.558 255 255 255
-0.186 -0.096 0.537 255 255 255
-0.006 -0.124 0.569 255 255 255
0.015 -0.084 0.653 255 255 255
-0.003 0.176 0.391 0 0 0
-0.158 0.189 0.379 255 255 255
0.48 -0.196 0.793 255 255 255
0.443 -0.104 0.902 255 255 255
-0.122 -0.346 0.469 0 0 0
0.294 0.047 0.533 255 255 255
-0.077 -0.294 0.5 255 255 255
0.348 -0.054 0.731 0 0 0
-0.034 0.067 0.402 255 255 255
0.45 -0.188 0.907 255 255 255
0.169 0.018 0.539 0 0 0
0.227 -0.039 0.651 0 0 0
0.386 0.546 0.985 255 255 255
-0.02 0.106 0.355 255 255 255
0.17 -0.515 0.768 255 255 255
0.458 -0.123 0.847 255 255 255
-0.064 0.112 0.334 255 255 255
-0.131 0.064 0.392 255 255 255
-0.159 -0.309 0.474 255 255 255
0.253 0.595 1.092 255 255 255
-0.17 0.097 0.323 255 255 255
-0.071 -0.198 0.538 255 255 255
0.377 -0.357 0.924 255 255 255
0.339 -0.503 0.708 255 255 255
-0.111 -0.238 0.497 255 255 255
0.322 0.017 0.552 255 255 255
0.355 0.577 1.093 255 255 255
-0.165 -0.251 0.487 255 255 255
0.027 -0.091 0.668 255 255 255
-0.287 -0.148 0.632 255 255 255
-0.177 0.091 0.33 255 255 255
0.274 0.08 0.473 255 255 255
-0.126 0.058 0.406 255 255 255
-0.099 0.148 0.338 255 255 255
-0.096 -0.028 0.532 255 255 255
-0.039 -0.186 0.558 255 255 255
0.306 -0.419 0.74 255 255 255
-0.132 0.181 0.365 255 255 255
0.064 -0.518 0.743 255 255 255
0.124 0.095 0.406 255 255 255
-0.07 0.179 0.379 255 255 255
0.015 0.119 0.339 255 255 255
-0.067 -0.036 0.552 255 255 255
0.064 -0.074 0.653 255 255 255
-0.1 -0.298 0.492 255 255 255
0.095 0.15 0.382 255 255 255
-0.077 -0.183 0.543 0 0 0
-0.084 0.06 0.412 255 255 255
-0.014 -0.183 0.572 255 255 255
-0.02 0.037 0.454 255 255 255
0.094 -0.004 0.551 255 255 255
-0.163 -0.153 0.53 0 0 0
-0.203 -0.114 0.596 255 255 255
-0.224 0.04 0.399 255 255 255
-0.067 -0.31 0.5 255 255 255
0.087 0.124 0.362 255 255 255
-0.1 -0.16 0.546 255 255 255
-0.298 -0.145 0.575 255 255 255
0.484 -0.169 0.767 255 255 255
0.443 -0.489 0.851 255 255 255
0.492 -0.281 0.797 255 255 255
0.291 -0.444 0.788 0 0 0
0.331 -0.041 0.701 255 255 255
-0.258 -0.229 0.488 255 255 255
0.019 -0.058 0.613 0 0 0
-0.192 0.056 0.387 255 255 255
-0.33 -0.1 0.499 255 255 255
0.354 -0.482 0.738 255 255 255
0.028 -0.043 0.592 255 255 255
0.371 0.507 1.041 255 255 255
-0.142 -0.158 0.53 255 255 255
-0.061 0.118 0.329 255 255 255
-0.228 0.03 0.407 255 255 255
0.177 0.027 0.527 0 0 0
0.133 -0.533 0.749 255 255 255
0.111 0.104 0.4 255 255 255
-0.07 0.016 0.471 255 255 255
-0.02 -0.02 0.541 255 255 255
-0.095 0.036 0.43 255 255 255
-0.234 0.052 0.376 255 255 255
0.296 -0.384 0.76 255 255 255
-0.254 -0.219 0.492 255 255 255
-0.14 -0.282 0.483 255 255 255
-0.167 -0.157 0.527 0 0 0
-0.216 -0.332 0.456 0 0 0
0.159 -0.407 0.836 255 255 255
0.407 -0.516 0.824 255 255 255
-0.138 0.105 0.324 255 255 255
-0.114 -0.196 0.513 255 255 255
0.24 -0.014 0.612 0 0 0
-0.104 0.055 0.416 255 255 255
-0.106 0.554 1.04 255 255 255
0.113 -0.03 0.598 255 255 255
-0.025 0.047 0.437 255 255 255
-0.236 0.009 0.414 255 255 255
0.38 -0.31 0.955 255 255 255
-0.118 0.08 0.369 255 255 255
0.011 0.114 0.362 255 255 255
0.051 0.107 0.38 255 255 255
0.058 0.183 0.411 255 255 255
-0.074 0.12 0.32 255 255 255
0.167 0.107 0.406 255 255 255
0.267 -0.284 0.826 255 255 255
-0.051 0.144 0.341 255 255 255
0.107 -0.058 0.641 255 255 255
-0.295 -0.174 0.504 255 255 255
-0.103 0.091 0.353 255 255 255
-0.069 0.008 0.483 255 255 255
0.212 0.071 0.471 255 255 255
-0.173 0.077 0.356 255 255 255
0.096 0.039 0.484 255 255 255
0.029 0.057 0.438 255 255 255
-0.247 -0.274 0.472 255 255 255
0.414 0.444 0.941 255 255 255
0.175 0.096 0.418 255 255 255
-0.205 -0.26 0.481 0 0 0
0.29 0.018 0.537 0 0 0
-0.34 0.549 0.977 255 255 255
0.163 -0.208 0.786 255 255 255
0.301 -0.479 0.771 0 0 0
0.14 0.571 1.097 255 255 255
0.265 -0.216 0.871 255 255 255
-0.094 -0.33 0.482 255 255 255
0.343 -0.219 0.784 255 255 255
-0.028 -0.344 0.497 255 255 255
-0.069 -0.113 0.67 255 255 255
0.074 0.101 0.395 255 255 255
0.016 0.125 0.341 255 255 255
-0.083 -0.277 0.501 0 0 0
0.196 0.06 0.486 0 0 0
-0.136 0.545 1.046 255 255 255
-0.004 0.027 0.476 255 255 255
0.093 0.085 0.413 255 255 255
-0.152 -0.236 0.491 255 255 255
-0.167 0.068 0.376 255 255 255
0.147 -0.318 0.894 255 255 255
0.061 0.092 0.392 255 255 255
-0.046 -0.357 0.487 0 0 0
-0.012 -0.234 0.548 255 255 255
0.202 0.055 0.485 255 255 255
0.211 -0.558 0.75 0 0 0
0.104 -0.244 0.93 255 255 255
-0.101 -0.135 0.596 0 0 0
-0.015 -0.277 0.53 255 255 255
-0.311 0.554 0.982 255 255 255
0.434 -0.189 0.962 0 0 0
0.281 -0.03 0.658 255 255 255
-0.031 -0.117 0.689 255 255 255
-0.144 -0.037 0.475 255 255 255
0.1 -0.203 0.932 255 255 255
0.225 -0.113 0.776 255 255 255
-0.025 0.174 0.384 0 0 0
0.103 -0.276 0.91 255 255 255
0.018 0.061 0.429 255 255 255
0.123 -0.186 0.892 255 255 255
-0.079 -0.289 0.5 0 0 0
-0.387 0.515 1.003 255 255 255
0.194 0.566 1.12 255 255 255
0.083 0.007 0.532 255 255 255
0.112 -0.447 0.8 255 255 255
0.009 0.103 0.37 255 255 255
-0.125 -0.295 0.485 0 0 0
0.302 -0.455 0.72 255 255 255
-0.034 0.121 0.329 255 255 255
-0.007 0.099 0.37 255 255 255
-0.095 -0.081 0.61 255 255 255
-0.023 0.17 0.382 255 255 255
-0.111 0.085 0.356 255 255 255
0.128 0.048 0.48 255 255 255
0.45 -0.132 0.886 255 255 255
0.014 -0.305 0.498 0 0 0
0.102 -0.372 0.849 255 255 255
-0.034 0.102 0.36 255 255 255
-0.28 0.018 0.411 255 255 255
0.088 -0.1 0.704 255 255 255
0.123 0.078 0.432 255 255 255
0.101 0.077 0.426 255 255 255
0.083 0.1 0.398 255 255 255
0.185 0.192 0.439 255 255 255
0.129 0.086 0.422 255 255 255
-0.174 -0.125 0.646 255 255 255
0.327 -0.146 0.83 255 255 255
-0.302 -0.132 0.502 255 255 255
0.065 0.135 0.352 255 255 255
0.339 -0.162 0.815 255 255 255
0.47 -0.232 0.853 255 255 255
-0.202 0.067 0.364 255 255 255
-0.048 0.12 0.327 255 255 255
-0.118 -0.054 0.51 255 255 255
-0.123 -0.168 0.53 0 0 0
-0.233 -0.143 0.505 0 0 0
-0.228 0.053 0.375 255 255 255
-0.11 -0.219 0.504 255 255 255
0.282 -0.29 0.812 255 255 255
0.445 -0.224 0.934 0 0 0
0.085 0.04 0.48 255 255 255
0.092 0.057 0.457 255 255 255
0.039 0.138 0.349 255 255 255
0.103 0.029 0.503 0 0 0
0.004 0.009 0.504 255 255 255
-0.205 -0.285 0.476 0 0 0
-0.066 -0.028 0.539 255 255 255
-0.16 0.011 0.429 255 255 255
0.162 0.1 0.416 0 0 0
0.232 0.099 0.434 255 255 255
0.283 -0.024 0.648 255 255 255
0.486 -0.008 0.704 255 255 255
-0.252 0.032 0.397 255 255 255
-0.246 0.03 0.403 255 255 255
0.015 0.105 0.374 255 255 255
0.213 0.052 0.486 255 255 255
-0.206 -0.229 0.492 255 255 255
0.397 -0.532 0.809 255 255 255
-0.034 0.131 0.326 255 255 255
0.272 0.031 0.53 255 255 255
-0.01 -0.347 0.501 255 255 255
0.484 -0.16 0.762 255 255 255
0.175 0.103 0.42 255 255 255
-0.002 -0.295 0.524 255 255 255
-0.08 -0.012 0.509 255 255 255
0.342 -0.074 0.76 0 0 0
-0.135 0.107 0.323 255 255 255
-0.055 0.054 0.418 255 255 255
0.125 -0.048 0.632 255 255 255
-0.228 -0.324 0.454 255 255 255
-0.061 0.04 0.438 255 255 255
-0.117 0.169 0.356 255 255 255
0.035 0.114 0.365 255 255 255
-0.015 0.171 0.384 255 255 255
0.351 -0.504 0.714 255 255 255
0.346 -0.165 0.819 255 255 255
-0.104 -0.154 0.547 0 0 0
0.007 0.072 0.409 255 255 255
0.178 0.135 0.381 255 255 255
-0.065 0.064 0.4 255 255 255
-0.091 0.103 0.338 255 255 255
-0.108 0.111 0.323 255 255 255
0.407 0.491 0.973 255 255 255
-0.095 -0.299 0.492 255 255 255
-0.186 -0.272 0.478 0 0 0
0.412 -0.423 0.885 255 255 255
0.387 -0.293 0.964 255 255 255
-0.168 0.057 0.395 255 255 255
0.458 -0.36 0.909 255 255 255
0.29 -0.115 0.806 255 255 255
-0.189 0.027 0.422 0 0 0
-0.159 -0.076 0.524 255 255 255
-0.135 -0.162 0.531 255 255 255
-0.134 -0.13 0.527 255 255 255
-0.058 -0.271 0.513 255 255 255
0.176 0.087 0.435 255 255 255
-0.045 0.119 0.332 255 255 255
-0.038 -0.194 0.556 255 255 255
0.194 -0.328 0.754 255 255 255
0.085 0.088 0.406 255 255 255
0.047 -0.105 0.698 255 255 255
0.083 0.06 0.448 255 255 255
-0.123 -0.262 0.49 0 0 0
0.054 -0.264 0.91 255 255 255
-0.15 -0.167 0.522 255 255 255
-0.15 0.099 0.325 255 255 255
0.1 0.539 1.118 255 255 255
-0.015 0.194 0.401 255 255 255
-0.071 -0.345 0.487 255 255 255
0.057 -0.104 0.7 255 255 255
0.274 -0.016 0.631 0 0 0
-0.03 0.19 0.391 255 255 255
-0.089 -0.145 0.555 0 0 0
-0.018 0.109 0.354 255 255 255
0.13 -0.037 0.614 255 255 255
0.475 0.004 0.741 0 0 0
0.096 -0.189 0.936 0 0 0
-0.22 0.04 0.4 255 255 255
-0.161 0.059 0.39 255 255 255
0.325 -0.155 0.831 255 255 255
0.103 0.066 0.443 255 255 255
0.024 0.058 0.434 255 255 255
0.033 -0.274 0.9 255 255 255
0.12 0.066 0.45 255 255 255
0.192 -0.256 0.784 255 255 255
-0.144 0.089 0.342 255 255 255
-0.158 -0.142 0.702 255 255 255
0.086 -0.098 0.7 255 255 255
0.158 -0.489 0.782 255 255 255
-0.282 -0.149 0.503 0 0 0
0.099 -0.454 0.794 255 255 255
-0.071 0.036 0.441 255 255 255
0.235 0.538 1.126 255 255 255
0.488 -0.183 0.761 255 255 255
0.125 0.172 0.419 255 255 255
-0.196 0.062 0.373 255 255 255
0.013 0.072 0.41 255 255 255
-0.202 -0.061 0.478 255 255 255
0.461 -0.111 0.833 255 255 255
-0.038 0.025 0.466 255 255 255
0.203 -0.33 0.757 255 255 255
0.485 -0.154 0.757 255 255 255
-0.069 -0.199 0.539 255 255 255
-0.121 0.189 0.367 255 255 255
0.02 0.095 0.388 0 0 0
0.277 -0.46 0.827 255 255 255
0.231 -0.464 0.815 255 255 255
-0.079 0.113 0.328 255 255 255
0.06 -0.039 0.595 255 255 255
-0.22 -0.146 0.515 0 0 0
0.358 0.017 0.574 255 255 255
0.323 -0.5 0.701 255 255 255
0.127 0.126 0.37 255 255 255
0.245 -0.525 0.778 255 255 255
-0.145 -0.33 0.469 255 255 255
-0.097 0.113 0.323 255 255 255
-0.087 0.159 0.36 255 255 255
-0.153 -0.328 0.468 255 255 255
0.051 -0.235 0.926 255 255 255
-0.029 -0.161 0.574 255 255 255
0.014 0.118 0.355 255 255 255
0.214 0.046 0.491 0 0 0
0.265 -0.464 0.82 255 255 255
-0.027 0.019 0.479 255 255 255
0.065 -0.028 0.582 255 255 255
0.033 -0.084 0.658 255 255 255
-0.03 -0.018 0.535 255 255 255
0.016 0.125 0.339 255 255 255
-0.223 -0.143 0.624 255 255 255
-0.117 0.073 0.383 255 255 255
-0.199 -0.117 0.608 255 255 255
-0.11 -0.35 0.474 0 0 0
0.153 0.081 0.436 255 255 255
-0.035 0.117 0.338 255 255 255
0.464 -0.324 0.896 255 255 255
0.071 0.095 0.395 0 0 0
0.065 -0.266 0.91 255 255 255
0.077 0.074 0.424 255 255 255
0.483 -0.189 0.778 255 255 255
-0.198 -0.077 0.499 255 255 255
-0.07 0.108 0.338 255 255 255
-0.239 0.047 0.381 255 255 255
-0.053 0.08 0.38 255 255 255
0.026 0.076 0.407 255 255 255
0.26 0.072 0.475 255 255 255
-0.166 -0.238 0.489 255 255 255
0.443 -0.005 0.767 0 0 0
-0.217 -0.153 0.523 0 0 0
0.145 0.124 0.384 255 255 255
-0.129 0.05 0.415 255 255 255
0.169 -0.091 0.717 255 255 255
0.132 0.056 0.469 255 255 255
-0.125 -0.35 0.467 0 0 0
0.481 -0.257 0.819 255 255 255
0.027 -0.189 0.915 255 255 255
0.184 -0.236 0.783 255 255 255
-0.1 -0.139 0.702 255 255 255
0.422 -0.488 0.843 255 255 255
-0.085 -0.149 0.558 0 0 0
-0.087 0.054 0.422 255 255 255
0.065 0.12 0.359 255 255 255
-0.042 -0.323 0.501 0 0 0
0.486 -0.095 0.728 255 255 255
-0.028 0.139 0.336 255 255 255
0.008 0.077 0.4 255 255 255
0.435 -0.346 0.935 255 255 255
0.105 -0.312 0.89 255 255 255
0.219 -0.044 0.657 255 255 255
0.111 0.119 0.378 255 255 255
-0.147 0.04 0.422 255 255 255
0.172 -0.286 0.879 255 255 255
-0.146 -0.337 0.466 0 0 0
0.479 -0.079 0.749 255 255 255
-0.208 -0.171 0.518 255 255 255
-0.148 -0.232 0.492 255 255 255
0.388 -0.38 0.911 255 255 255
-0.089 0.074 0.391 255 255 255
-0.154 -0.01 0.449 255 255 255
0.063 -0.053 0.62 255 255 255
0.056 0.138 0.354 255 255 255
0.502 -0.345 0.819 255 255 255
-0.026 0.041 0.446 255 255 255
0.216 0.063 0.485 0 0 0
0.155 -0.344 0.876 255 255 255
0.405 -0.548 0.804 255 255 255
-0.023 -0.246 0.538 255 255 255
0.43 -0.347 0.934 255 255 255
-0.201 -0.076 0.494 255 255 255
0.027 -0.053 0.608 255 255 255
-0.021 0.113 0.346 255 255 255
0.457 -0.196 0.891 255 255 255
0.244 0.588 1.101 255 255 255
0.174 -0.188 0.784 255 255 255
-0.037 -0.226 0.538 255 255 255
-0.222 0.051 0.38 255 255 255
0.402 0.496 0.991 255 255 255
0.381 -0.262 0.98 255 255 255
-0.03 0.079 0.386 255 255 255
0.349 0.611 1.088 255 255 255
0.311 -0.432 0.733 255 255 255
0.131 -0.401 0.834 255 255 255
