ply
format ascii 1.0
comment Created by Open3D
element vertex 1594
property double x
property double y
property double z
property uchar red
property uchar green
property uchar blue
end_header
-0.186 -0.156 0.513 0 0 0
-0.134 0.074 0.364 255 255 255
-0.07 -0.204 0.902 255 255 255
0.125 0.067 0.451 255 255 255
0.113 -0.389 0.747 255 255 255
-0.12 0.181 0.362 255 255 255
0.123 0.075 0.435 255 255 255
0.145 0.035 0.486 0 0 0
-0.114 0.087 0.347 0 0 0
0.388 -0.442 0.814 255 255 255
-0.142 -0.192 0.511 0 0 0
-0.054 0.081 0.37 255 255 255
-0.196 -0.247 0.466 255 255 255
0.368 -0.22 0.849 255 255 255
0.272 0.529 1.078 255 255 255
-0.144 -0.26 0.483 255 255 255
-0.195 -0.136 0.499 0 0 0
0.002 -0.345 0.865 255 255 255
-0.145 -0.275 0.479 255 255 255
-0.144 -0.335 0.463 0 0 0
0.336 -0.583 0.818 255 255 255
0.239 0.589 1.115 255 255 255
0.198 0.133 0.415 255 255 255
0.206 -0.503 0.711 255 255 255
-0.066 0.11 0.333 255 255 255
0.207 0.148 0.448 255 255 255
0.369 -0.57 0.828 255 255 255
-0.142 -0.264 0.483 255 255 255
-0.163 0.015 0.415 255 255 255
-0.005 -0.48 0.768 255 255 255
0.439 -0.256 0.689 255 255 255
0.055 0.059 0.439 255 255 255
0.327 -0.232 0.964 255 255 255
0.365 -0.32 0.868 255 255 255
0.008 0.036 0.458 255 255 255
-0.241 -0.084 0.494 255 255 255
-0.109 -0.242 0.509 255 255 255
-0.103 -0.216 0.886 255 255 255
-0.226 -0.232 0.465 0 0 0
-0.198 -0.284 0.459 255 255 255
-0.15 -0.347 0.457 0 0 0
0.157 0.545 1.15 255 255 255
-0.121 -0.069 0.581 255 255 255
0.043 0.534 1.128 255 255 255
0.41 -0.14 0.709 255 255 255
-0.31 -0.149 0.48 255 255 255
0.245 0.573 1.127 255 255 255
0.051 0.131 0.358 255 255 255
-0.152 0.086 0.34 255 255 255
-0.088 -0.297 0.5 255 255 255
-0.16 -0.074 0.575 255 255 255
-0.017 0.121 0.336 255 255 255
0.387 -0.462 0.815 255 255 255
-0.154 -0.043 0.528 255 255 255
0.388 -0.327 0.8 255 255 255
0.193 -0.407 0.764 255 255 255
-0.162 0.014 0.416 255 255 255
0.028 0.085 0.391 255 255 255
-0.305 -0.035 0.43 255 255 255
0.295 -0.549 0.828 255 255 255
-0.013 0.072 0.396 255 255 255
0.095 -0.084 0.689 255 255 255
0.09 0.094 0.411 255 255 255
0.078 0.081 0.413 255 255 255
0.092 0.066 0.44 255 255 255
0.103 -0.306 0.756 255 255 255
0.181 0.558 1.14 255 255 255
-0.04 -0.048 0.575 255 255 255
-0.187 0.048 0.39 255 255 255
0.201 -0.583 0.773 0 0 0
-0.194 -0.154 0.509 0 0 0
0.276 0.007 0.594 255 255 255
-0.191 -0.316 0.452 255 255 255
-0.147 0.087 0.34 255 255 255
0.07 -0.006 0.546 255 255 255
0.009 -0.263 0.923 255 255 255
0.09 0.138 0.385 0 0 0
0.241 0.091 0.458 0 0 0
0.082 -0.452 0.819 255 255 255
-0.125 0.548 1.048 255 255 255
0.166 0.177 0.457 255 255 255
-0.07 0.086 0.36 255 255 255
0.009 0.156 0.388 255 255 255
0.034 0.162 0.401 255 255 255
-0.243 -0.127 0.486 255 255 255
0.015 -0.042 0.585 255 255 255
0.407 -0.07 0.709 255 255 255
0.045 -0.159 0.798 0 0 0
0.051 -0.477 0.793 255 255 255
-0.054 0.119 0.324 255 255 255
-0.06 0.189 0.386 255 255 255
0.398 -0.062 0.735 255 255 255
-0.123 -0.318 0.476 0 0 0
0.135 -0.33 0.757 255 255 255
-0.106 0.045 0.41 255 255 255
0.439 -0.063 0.624 255 255 255
-0.209 -0.202 0.479 255 255 255
0.064 0.069 0.426 255 255 255
-0.196 -0.15 0.513 0 0 0
0.404 -0.088 0.723 255 255 255
0.054 0.143 0.381 255 255 255
-0.006 0.059 0.42 255 255 255
-0.165 -0.14 0.676 255 255 255
-0.148 -0.121 0.654 255 255 255
-0.109 -0.252 0.505 255 255 255
0.389 -0.063 0.758 255 255 255
-0.159 0.556 1.025 255 255 255
0.133 -0.174 0.833 255 255 255
-0.231 -0.135 0.487 0 0 0
-0.017 -0.514 0.743 255 255 255
0.126 -0.541 0.772 255 255 255
-0.171 -0.063 0.512 255 255 255
0.093 0.103 0.395 255 255 255
0.148 -0.019 0.593 255 255 255
0.449 -0.182 0.649 255 255 255
0.074 0.052 0.457 255 255 255
-0.049 0.078 0.375 255 255 255
0.325 -0.243 0.968 0 0 0
-0.243 -0.012 0.426 255 255 255
0.254 0.485 1.123 255 255 255
-0.053 0.069 0.388 255 255 255
-0.194 -0.192 0.486 255 255 255
-0.257 -0.078 0.473 255 255 255
-0.059 0.018 0.467 255 255 255
-0.219 -0.013 0.421 255 255 255
-0.102 0.131 0.303 255 255 255
0.345 -0.295 0.922 255 255 255
-0.302 -0.13 0.591 255 255 255
-0.049 0.125 0.321 255 255 255
0.162 -0.51 0.809 0 0 0
0.39 -0.406 0.805 255 255 255
0.116 -0.485 0.806 255 255 255
0.06 -0.038 0.594 255 255 255
-0.02 0.07 0.397 255 255 255
-0.1 0.154 0.346 0 0 0
-0.088 -0.328 0.84 255 255 255
-0.149 0.085 0.343 255 255 255
-0.285 -0.079 0.469 255 255 255
0.067 -0.119 0.732 255 255 255
0.348 -0.082 0.871 255 255 255
0.312 0.419 0.981 255 255 255
0.188 0.094 0.441 0 0 0
0.178 -0.171 0.855 255 255 255
0.201 0.581 1.115 255 255 255
-0.184 0.016 0.406 255 255 255
-0.128 -0.272 0.489 255 255 255
-0.279 -0.196 0.473 255 255 255
0.275 0.546 1.073 255 255 255
0.198 -0.245 0.955 255 255 255
0.11 0.079 0.426 255 255 255
0.135 0.13 0.388 0 0 0
0.063 -0.133 0.752 255 255 255
0.024 0.013 0.5 255 255 255
-0.124 0.03 0.428 255 255 255
0.35 -0.38 0.91 255 255 255
0.283 0.065 0.514 0 0 0
0.18 0.063 0.476 0 0 0
-0.006 0.038 0.451 255 255 255
-0.055 0.113 0.328 255 255 255
0.435 -0.389 0.742 255 255 255
-0.072 -0.142 0.549 255 255 255
0.145 -0.456 0.837 255 255 255
-0.113 0.101 0.328 255 255 255
-0.245 -0.042 0.454 255 255 255
-0.371 0.54 0.973 255 255 255
0.117 -0.377 0.738 255 255 255
-0.148 -0.22 0.491 255 255 255
-0.069 -0.303 0.503 0 0 0
0.335 -0.345 0.944 255 255 255
0.38 -0.269 0.823 255 255 255
0.03 0.11 0.365 255 255 255
0.069 -0.554 0.746 0 0 0
0.22 0.079 0.464 255 255 255
0.173 0.028 0.499 255 255 255
0.166 -0.181 0.866 255 255 255
-0.196 -0.011 0.424 255 255 255
0.224 0.03 0.545 0 0 0
-0.088 -0.265 0.887 255 255 255
0.343 -0.347 0.929 255 255 255
0.363 -0.416 0.875 255 255 255
0.114 0.076 0.431 255 255 255
0.214 -0.464 0.735 255 255 255
-0.276 -0.229 0.46 255 255 255
-0.019 0.05 0.43 255 255 255
0.239 0.051 0.517 255 255 255
0.124 0.008 0.523 255 255 255
-0.225 -0.113 0.609 255 255 255
-0.019 -0.439 0.794 255 255 255
0.021 0.051 0.441 255 255 255
0.268 -0.602 0.78 0 0 0
0.375 -0.248 0.835 255 255 255
0.068 -0.064 0.643 255 255 255
-0.171 -0.038 0.521 255 255 255
0.137 -0.295 0.798 255 255 255
-0.151 0.105 0.308 255 255 255
-0.113 0.188 0.365 255 255 255
-0.141 -0.103 0.628 255 255 255
0.393 -0.292 0.781 255 255 255
0.026 0.062 0.425 255 255 255
0.357 -0.426 0.886 255 255 255
0.384 -0.517 0.825 255 255 255
0.407 0.081 0.629 255 255 255
0.25 -0.187 0.836 255 255 255
0.027 0.019 0.494 255 255 255
0.382 -0.285 0.815 255 255 255
-0.057 -0.122 0.692 255 255 255
0.421 -0.078 0.67 255 255 255
-0.202 0.035 0.399 0 0 0
0.167 -0.201 0.889 255 255 255
-0.265 -0.074 0.468 255 255 255
0.404 -0.219 0.741 255 255 255
0.094 0.013 0.524 0 0 0
-0.085 -0.247 0.522 255 255 255
0.041 -0.037 0.586 0 0 0
-0.15 0.049 0.403 255 255 255
-0.106 -0.179 0.543 255 255 255
-0.022 0.07 0.397 255 255 255
0.046 0.129 0.355 255 255 255
0.269 -0.314 0.978 255 255 255
0.07 -0.067 0.648 255 255 255
0.149 0.082 0.435 255 255 255
0.048 -0.013 0.55 255 255 255
0.099 -0.51 0.786 255 255 255
0.076 0.107 0.382 255 255 255
-0.135 -0.288 0.483 255 255 255
0.034 0.07 0.416 255 255 255
-0.135 -0.134 0.521 255 255 255
-0.08 -0.276 0.884 255 255 255
-0.256 -0.214 0.47 255 255 255
0.326 0.433 0.933 255 255 255
0.191 -0.47 0.735 255 255 255
0.385 -0.552 0.818 255 255 255
-0.1 -0.177 0.548 255 255 255
0.398 -0.397 0.783 255 255 255
-0.221 -0.328 0.439 0 0 0
0.14 -0.063 0.668 255 255 255
-0.178 -0.061 0.494 255 255 255
-0.15 0.558 1.024 255 255 255
-0.037 0.089 0.371 0 0 0
-0.059 0.094 0.356 255 255 255
-0.221 -0.293 0.45 0 0 0
0.232 0.095 0.455 255 255 255
-0.036 0.121 0.329 255 255 255
0.012 -0.061 0.616 255 255 255
-0.028 -0.048 0.58 255 255 255
0.074 -0.121 0.739 255 255 255
0.256 0.488 1.117 255 255 255
0.228 0.019 0.564 255 255 255
-0.276 -0.212 0.466 255 255 255
0.099 -0.042 0.615 255 255 255
0.25 0.038 0.545 0 0 0
-0.171 0.06 0.379 255 255 255
-0.153 0.046 0.402 255 255 255
-0.048 0.163 0.373 255 255 255
0.37 -0.288 0.855 255 255 255
-0.323 -0.095 0.48 255 255 255
-0.158 0.011 0.456 255 255 255
-0.057 -0.13 0.704 255 255 255
-0.282 0.533 1.013 255 255 255
0.292 0.064 0.521 0 0 0
0.362 -0.434 0.877 255 255 255
0.054 0 0.532 255 255 255
-0.079 -0.026 0.528 0 0 0
0.09 0.129 0.371 255 255 255
-0.222 -0.169 0.494 0 0 0
-0.022 0.103 0.357 255 255 255
-0.181 -0.128 0.522 255 255 255
0.181 0.579 1.109 255 255 255
-0.11 0.108 0.319 255 255 255
-0.099 0.093 0.345 255 255 255
0.422 -0.281 0.714 255 255 255
0.017 0.102 0.374 255 255 255
-0.021 -0.228 0.923 0 0 0
0.387 -0.381 0.811 255 255 255
0.417 -0.124 0.689 255 255 255
0.073 -0.332 0.735 255 255 255
0.216 -0.133 0.824 0 0 0
0.371 -0.574 0.825 255 255 255
0.439 -0.065 0.621 255 255 255
0.405 -0.018 0.711 255 255 255
-0.243 -0.089 0.499 255 255 255
-0.181 -0.345 0.445 0 0 0
0.132 0.16 0.435 255 255 255
-0.29 -0.206 0.464 255 255 255
0.173 -0.435 0.806 0 0 0
-0.175 -0.074 0.502 255 255 255
-0.004 -0.49 0.763 255 255 255
0.185 -0.517 0.809 0 0 0
0.048 -0.513 0.766 255 255 255
0.227 0.064 0.491 255 255 255
-0.034 -0.045 0.571 255 255 255
0.403 -0.132 0.725 255 255 255
0.295 -0.598 0.793 0 0 0
0.017 -0.449 0.798 255 255 255
0.049 0.003 0.526 255 255 255
0.018 -0.317 0.892 255 255 255
0.022 -0.038 0.581 255 255 255
0.101 -0.304 0.763 255 255 255
-0.041 -0.121 0.697 255 255 255
-0.184 0.081 0.338 255 255 255
-0.144 0.047 0.407 255 255 255
-0.212 -0.04 0.442 255 255 255
-0.371 0.537 0.976 255 255 255
0.259 0.022 0.575 255 255 255
0.265 0.533 1.099 255 255 255
0.385 -0.043 0.773 255 255 255
0.08 0.078 0.418 255 255 255
-0.239 -0.142 0.493 0 0 0
-0.072 0.094 0.353 255 255 255
-0.116 -0.072 0.589 255 255 255
0.016 0.07 0.413 255 255 255
-0.005 0.101 0.368 255 255 255
0.18 -0.175 0.859 255 255 255
0.444 -0.301 0.705 255 255 255
0.41 -0.364 0.753 255 255 255
0.436 -0.074 0.629 255 255 255
0.377 -0.438 0.837 255 255 255
0.093 0.07 0.434 255 255 255
0.096 0.097 0.407 255 255 255
-0.137 -0.243 0.493 255 255 255
-0.145 -0.263 0.482 255 255 255
0.105 0.044 0.482 0 0 0
0.033 0.023 0.489 0 0 0
-0.09 0.1 0.338 255 255 255
0.102 0.088 0.412 0 0 0
0.052 -0.226 0.863 255 255 255
-0.298 -0.141 0.471 0 0 0
-0.246 -0.124 0.627 255 255 255
-0.017 -0.54 0.725 0 0 0
-0.213 0.025 0.391 255 255 255
-0.09 0.075 0.367 255 255 255
-0.185 0.051 0.389 255 255 255
-0.094 0.184 0.37 255 255 255
-0.082 -0.359 0.478 0 0 0
0.365 -0.501 0.858 255 255 255
0.179 0.069 0.458 255 255 255
-0.148 -0.196 0.504 0 0 0
0.437 -0.194 0.665 255 255 255
0.245 0.087 0.461 255 255 255
-0.06 0.013 0.474 255 255 255
0.358 -0.352 0.892 255 255 255
-0.082 0.08 0.362 255 255 255
-0.077 0.112 0.325 255 255 255
0.164 -0.509 0.81 0 0 0
0.096 0.577 1.085 255 255 255
-0.025 0.083 0.376 255 255 255
0.398 -0.156 0.745 255 255 255
-0.105 0.118 0.305 255 255 255
-0.148 0.031 0.432 255 255 255
-0.128 -0.206 0.513 0 0 0
-0.145 0.085 0.342 255 255 255
-0.043 -0.37 0.834 255 255 255
-0.097 -0.085 0.616 255 255 255
0.052 -0.068 0.642 255 255 255
-0.119 -0.355 0.465 0 0 0
-0.406 -0.14 0.56 255 255 255
-0.405 -0.132 0.561 255 255 255
0.24 -0.523 0.711 0 0 0
-0.084 0.084 0.356 255 255 255
0.294 -0.583 0.804 0 0 0
0.194 0.087 0.444 0 0 0
0.42 -0.001 0.667 255 255 255
0.328 0.387 0.926 255 255 255
0.297 0.499 1.021 255 255 255
-0.007 -0.357 0.856 255 255 255
-0.042 -0.519 0.733 255 255 255
-0.352 -0.13 0.572 255 255 255
0.406 -0.362 0.758 255 255 255
-0.114 0.185 0.364 255 255 255
-0.011 0.11 0.354 255 255 255
-0.198 -0.328 0.447 0 0 0
-0.051 0.067 0.391 255 255 255
-0.162 -0.003 0.469 255 255 255
0.183 -0.362 0.787 255 255 255
0.323 -0.603 0.801 0 0 0
0.157 0.015 0.52 255 255 255
0.007 -0.472 0.779 255 255 255
-0.223 0.048 0.377 255 255 255
-0.128 0.038 0.415 255 255 255
-0.117 -0.009 0.488 255 255 255
0.318 0.506 0.967 255 255 255
-0.363 0.538 0.98 255 255 255
0.388 -0.44 0.814 255 255 255
0.386 -0.306 0.802 255 255 255
-0.041 -0.473 0.765 255 255 255
0.139 -0.158 0.849 255 255 255
0.124 0.181 0.445 255 255 255
-0.149 -0.055 0.549 255 255 255
-0.164 0.041 0.405 255 255 255
-0.175 0.536 1.046 255 255 255
-0.08 0.008 0.475 255 255 255
0.058 0.014 0.512 255 255 255
-0.137 -0.141 0.524 0 0 0
0.352 -0.205 0.898 255 255 255
-0.07 -0.246 0.499 0 0 0
0.131 0.519 1.145 255 255 255
-0.26 0.016 0.384 255 255 255
0.072 0.051 0.458 255 255 255
-0.008 0.068 0.405 255 255 255
-0.112 -0.272 0.498 255 255 255
0.408 0.017 0.694 255 255 255
-0.127 0.04 0.41 255 255 255
0.398 -0.141 0.742 255 255 255
0.045 0.034 0.475 0 0 0
-0.154 -0.146 0.526 0 0 0
-0.129 0.103 0.321 255 255 255
-0.312 -0.177 0.472 255 255 255
0.392 -0.559 0.807 255 255 255
-0.186 -0.309 0.455 255 255 255
0.052 0.036 0.474 255 255 255
0.383 -0.19 0.797 255 255 255
-0.109 0.039 0.42 255 255 255
-0.003 0.168 0.394 255 255 255
0.086 0.045 0.472 255 255 255
0.136 0.181 0.448 255 255 255
-0.262 0.549 1.002 255 255 255
-0.01 0.112 0.345 255 255 255
-0.123 -0.115 0.653 255 255 255
-0.254 -0.152 0.676 255 255 255
-0.045 0.163 0.376 255 255 255
0.186 -0.264 0.88 255 255 255
-0.106 -0.056 0.565 255 255 255
-0.253 -0.098 0.515 255 255 255
-0.201 0.036 0.398 0 0 0
0.358 -0.091 0.855 255 255 255
-0.011 -0.268 0.912 255 255 255
-0.148 -0.267 0.48 255 255 255
0.063 -0.479 0.796 255 255 255
0.139 0.129 0.388 255 255 255
-0.039 0.19 0.395 255 255 255
-0.139 -0.137 0.52 0 0 0
-0.037 0.037 0.445 0 0 0
-0.152 -0.132 0.517 255 255 255
0.097 0.1 0.403 255 255 255
0.052 0.075 0.413 255 255 255
0.15 0.146 0.423 0 0 0
0.368 -0.093 0.827 255 255 255
-0.083 0.119 0.311 255 255 255
0.367 -0.215 0.853 255 255 255
-0.257 -0.158 0.674 255 255 255
-0.01 0.04 0.448 0 0 0
-0.282 -0.039 0.444 255 255 255
0.032 0.058 0.434 255 255 255
0.341 -0.534 0.85 255 255 255
-0.301 -0.027 0.422 255 255 255
-0.108 -0.19 0.536 255 255 255
-0.066 -0.22 0.907 255 255 255
0.207 -0.199 0.909 255 255 255
0.389 0.079 0.615 255 255 255
-0.18 0.004 0.41 255 255 255
-0.103 0.094 0.34 255 255 255
0.166 0.094 0.43 255 255 255
0.185 -0.088 0.739 255 255 255
0.147 0.012 0.53 0 0 0
0.306 -0.582 0.811 0 0 0
-0.205 -0.132 0.497 255 255 255
-0.093 -0.117 0.669 255 255 255
-0.166 -0.334 0.453 0 0 0
0.056 0.15 0.397 0 0 0
-0.084 0.177 0.371 255 255 255
0.103 0.057 0.458 255 255 255
-0.133 0.537 1.062 255 255 255
0.138 0.12 0.387 255 255 255
-0.206 -0.166 0.497 0 0 0
0.43 0.018 0.634 255 255 255
-0.011 0.059 0.418 255 255 255
0.061 0.166 0.416 255 255 255
0.049 -0.456 0.808 255 255 255
-0.054 -0.289 0.499 255 255 255
-0.281 -0.209 0.466 255 255 255
-0.058 0.062 0.396 255 255 255
0.01 0.121 0.343 255 255 255
0.207 -0.403 0.77 255 255 255
0.174 0.096 0.429 255 255 255
0.15 -0.008 0.548 255 255 255
-0.065 0.089 0.362 0 0 0
-0.261 -0.226 0.465 255 255 255
0.375 -0.115 0.805 255 255 255
-0.141 -0.224 0.495 255 255 255
-0.155 0.014 0.455 255 255 255
0.446 -0.334 0.716 255 255 255
0.248 -0.562 0.749 0 0 0
-0.116 -0.311 0.484 0 0 0
0.337 -0.53 0.852 255 255 255
-0.1 0.086 0.352 255 255 255
-0.096 -0.012 0.5 255 255 255
0.418 0.055 0.66 255 255 255
0.265 -0.33 0.969 255 255 255
0.319 -0.098 0.893 0 0 0
-0.27 -0.04 0.441 255 255 255
-0.037 0.169 0.382 255 255 255
0 -0.183 0.902 255 255 255
0.191 -0.503 0.775 255 255 255
-0.071 -0.033 0.572 255 255 255
0.388 -0.134 0.769 255 255 255
0.123 0.007 0.526 255 255 255
0.386 -0.285 0.798 255 255 255
-0.005 -0.092 0.659 255 255 255
0.221 -0.015 0.625 0 0 0
-0.188 -0.286 0.461 255 255 255
0.215 -0.394 0.778 255 255 255
-0.053 0.123 0.321 255 255 255
0.065 0.054 0.45 255 255 255
0.365 -0.495 0.864 255 255 255
-0.128 -0.354 0.463 0 0 0
-0.039 -0.277 0.897 255 255 255
0.202 -0.191 0.888 255 255 255
0.088 0.036 0.486 255 255 255
-0.207 -0.235 0.466 255 255 255
-0.127 0.186 0.359 255 255 255
-0.193 -0.075 0.499 255 255 255
-0.231 0.014 0.393 255 255 255
0.02 0.15 0.383 0 0 0
-0.145 0.073 0.366 255 255 255
-0.227 0.551 1.007 255 255 255
-0.235 0.031 0.392 255 255 255
0.115 0.167 0.435 255 255 255
-0.208 -0.043 0.451 255 255 255
-0.086 0.13 0.309 255 255 255
-0.11 0.11 0.316 255 255 255
-0.035 -0.45 0.781 255 255 255
-0.028 -0.445 0.787 255 255 255
-0.123 0.005 0.465 255 255 255
0.326 -0.615 0.791 255 255 255
0.264 0.09 0.467 255 255 255
0.317 0.418 0.966 255 255 255
-0.318 -0.119 0.568 255 255 255
0.442 -0.068 0.616 255 255 255
-0.3 -0.161 0.484 255 255 255
0.064 0.131 0.363 255 255 255
0.437 -0.231 0.676 255 255 255
-0.023 0.095 0.37 255 255 255
-0.187 -0.143 0.675 255 255 255
0.14 0.556 1.128 255 255 255
-0.037 0.161 0.375 255 255 255
-0.057 0.087 0.364 255 255 255
-0.088 -0.211 0.535 255 255 255
0.125 0.102 0.404 255 255 255
-0.073 -0.088 0.628 255 255 255
-0.277 -0.192 0.479 255 255 255
-0.122 -0.326 0.475 0 0 0
0.418 0.037 0.663 255 255 255
0.348 -0.227 0.908 255 255 255
-0.111 0.068 0.371 255 255 255
-0.214 -0.233 0.465 255 255 255
-0.013 0.098 0.368 255 255 255
-0.016 -0.459 0.781 255 255 255
-0.116 0.052 0.396 255 255 255
-0.106 0.116 0.307 255 255 255
0.168 -0.171 0.851 255 255 255
0.17 0.123 0.397 255 255 255
0.323 -0.542 0.843 255 255 255
0.428 -0.004 0.64 255 255 255
0.065 0.077 0.414 255 255 255
0.353 -0.372 0.901 255 255 255
-0.052 -0.271 0.895 255 255 255
-0.145 -0.064 0.564 255 255 255
-0.145 0.109 0.304 255 255 255
-0.202 0.057 0.367 255 255 255
0.025 0.116 0.356 255 255 255
-0.415 -0.13 0.551 255 255 255
0.172 -0.506 0.816 0 0 0
-0.018 0.021 0.452 255 255 255
0.293 0.52 1.007 255 255 255
-0.103 0.07 0.371 255 255 255
-0.178 -0.299 0.463 0 0 0
0.377 -0.417 0.838 255 255 255
0.115 -0.39 0.749 255 255 255
-0.15 0.061 0.382 255 255 255
0.005 0.175 0.401 255 255 255
-0.234 -0.174 0.491 0 0 0
0.155 -0.216 0.905 255 255 255
-0.009 -0.365 0.848 255 255 255
-0.223 -0.31 0.443 255 255 255
-0.048 0.177 0.384 255 255 255
0.22 -0.028 0.646 255 255 255
0.441 -0.187 0.656 255 255 255
-0.154 -0.29 0.473 0 0 0
-0.282 0.007 0.384 255 255 255
0.151 0.18 0.453 255 255 255
0.421 -0.378 0.745 255 255 255
0.335 -0.573 0.826 255 255 255
0 -0.492 0.763 255 255 255
0.262 -0.419 0.907 255 255 255
0.174 -0.44 0.807 0 0 0
-0.037 0.054 0.419 255 255 255
0.42 -0.147 0.682 255 255 255
-0.206 0.063 0.36 255 255 255
-0.003 0.05 0.436 255 255 255
-0.099 0.077 0.362 255 255 255
-0.147 -0.091 0.607 255 255 255
0.373 -0.239 0.838 255 255 255
0.015 0.005 0.51 255 255 255
0.366 -0.375 0.871 255 255 255
-0.033 0.093 0.368 0 0 0
0.095 -0.019 0.576 255 255 255
0.173 -0.417 0.812 255 255 255
-0.22 -0.082 0.497 255 255 255
-0.348 -0.132 0.581 255 255 255
-0.186 -0.27 0.464 0 0 0
0.026 0.018 0.495 255 255 255
0.236 -0.115 0.804 0 0 0
0.044 0.053 0.445 255 255 255
-0.037 -0.249 0.915 255 255 255
-0.202 -0.037 0.443 255 255 255
-0.121 0.03 0.429 255 255 255
-0.251 0.542 1.016 255 255 255
-0.32 -0.117 0.564 255 255 255
-0.11 -0.224 0.517 255 255 255
0.189 -0.537 0.8 255 255 255
-0.15 -0.167 0.523 255 255 255
-0.109 0.097 0.335 255 255 255
0.11 -0.336 0.75 255 255 255
0.252 0.539 1.132 255 255 255
-0.167 -0.058 0.504 255 255 255
-0.025 0.127 0.329 255 255 255
-0.149 -0.286 0.474 0 0 0
0.063 0.103 0.386 255 255 255
-0.024 0.031 0.441 255 255 255
-0.182 0.056 0.381 255 255 255
-0.065 0.04 0.432 255 255 255
0.388 -0.629 0.798 255 255 255
-0.127 -0.309 0.479 255 255 255
-0.183 -0.001 0.415 255 255 255
-0.111 -0.238 0.509 255 255 255
-0.003 0.064 0.411 255 255 255
-0.066 -0.399 0.806 255 255 255
-0.286 -0.204 0.467 255 255 255
0.259 -0.058 0.717 0 0 0
-0.326 -0.095 0.478 255 255 255
-0.13 -0.319 0.474 255 255 255
-0.146 -0.001 0.469 255 255 255
-0.087 0.101 0.338 255 255 255
-0.15 0.105 0.309 255 255 255
-0.26 -0.19 0.478 255 255 255
0.314 0.467 0.974 255 255 255
0.193 -0.514 0.774 255 255 255
-0.1 0.168 0.359 255 255 255
0.089 -0.046 0.618 255 255 255
-0.131 -0.272 0.487 255 255 255
0.003 -0.186 0.907 255 255 255
0.099 -0.501 0.79 255 255 255
-0.034 0.122 0.328 255 255 255
0.076 0.022 0.507 0 0 0
0.089 -0.188 0.802 255 255 255
0.08 0.097 0.404 255 255 255
-0.193 -0.128 0.518 255 255 255
0.159 -0.526 0.797 255 255 255
-0.086 -0.333 0.487 255 255 255
-0.198 0.042 0.392 255 255 255
0.013 -0.075 0.636 255 255 255
-0.002 0.041 0.45 255 255 255
0.304 0.524 0.987 255 255 255
-0.04 0.033 0.449 0 0 0
-0.133 0.107 0.311 255 255 255
-0.095 -0.22 0.529 255 255 255
-0.22 -0.016 0.412 255 255 255
0.131 0.051 0.483 0 0 0
-0.389 -0.142 0.566 255 255 255
-0.144 0.038 0.422 255 255 255
0.001 0.095 0.378 255 255 255
-0.146 -0.112 0.64 255 255 255
-0.01 -0.254 0.92 255 255 255
0.29 -0.053 0.753 0 0 0
0.383 -0.335 0.815 255 255 255
-0.333 0.545 0.98 255 255 255
0.02 -0.531 0.744 255 255 255
0.203 0.074 0.456 255 255 255
0.195 0.083 0.449 255 255 255
-0.089 0.056 0.399 255 255 255
0.238 0.084 0.463 255 255 255
0.203 0.043 0.515 255 255 255
-0.019 0.114 0.344 255 255 255
-0.186 0.022 0.4 255 255 255
-0.297 -0.192 0.469 255 255 255
-0.054 0.055 0.412 255 255 255
-0.008 0.112 0.353 255 255 255
0.048 0.083 0.4 255 255 255
-0.113 0.118 0.303 255 255 255
-0.192 -0.338 0.446 0 0 0
0.209 0.04 0.523 255 255 255
0.192 0.062 0.479 0 0 0
-0.084 -0.261 0.518 255 255 255
-0.211 0.535 1.029 255 255 255
0.341 -0.038 0.799 0 0 0
-0.088 -0.194 0.549 0 0 0
-0.259 0.006 0.397 255 255 255
0.084 0.086 0.408 255 255 255
0.117 0.019 0.521 255 255 255
0.197 -0.384 0.778 255 255 255
0.148 -0.011 0.553 255 255 255
0.241 -0.012 0.634 255 255 255
-0.169 0.044 0.402 255 255 255
0.135 -0.131 0.785 255 255 255
-0.049 0.123 0.323 255 255 255
0.137 -0.07 0.68 255 255 255
0.127 0.063 0.458 255 255 255
-0.199 -0.024 0.44 255 255 255
0.103 -0.502 0.791 255 255 255
0.373 -0.361 0.854 255 255 255
-0.124 -0.208 0.515 0 0 0
0.215 0.083 0.453 255 255 255
0.121 0.129 0.381 255 255 255
0.085 -0.017 0.569 255 255 255
-0.164 -0.142 0.517 0 0 0
0.269 -0.276 0.81 255 255 255
-0.156 0.533 1.057 255 255 255
-0.115 -0.152 0.723 255 255 255
0.264 -0.035 0.685 255 255 255
-0.08 0.12 0.313 255 255 255
-0.245 -0.244 0.461 255 255 255
-0.236 -0.175 0.489 0 0 0
-0.049 0.067 0.394 255 255 255
-0.242 -0.129 0.485 255 255 255
0.18 -0.27 0.876 255 255 255
0.251 0.272 0.585 255 255 255
-0.199 -0.021 0.432 255 255 255
0.308 -0.226 0.988 0 0 0
-0.134 -0.213 0.506 0 0 0
-0.182 0.077 0.346 255 255 255
0.374 -0.313 0.845 255 255 255
0.253 -0.08 0.752 0 0 0
0.099 0.013 0.527 0 0 0
0.421 -0.207 0.693 255 255 255
0.084 0.161 0.419 255 255 255
-0.109 -0.157 0.553 0 0 0
0.389 -0.301 0.792 255 255 255
-0.065 -0.313 0.864 255 255 255
-0.237 -0.153 0.501 0 0 0
-0.131 0.118 0.294 255 255 255
-0.252 0.012 0.388 255 255 255
0.083 0.122 0.368 255 255 255
0.163 -0.528 0.796 255 255 255
-0.104 -0.021 0.512 255 255 255
-0.077 -0.146 0.536 255 255 255
0.423 -0.065 0.667 255 255 255
-0.066 0.061 0.396 255 255 255
0.375 -0.101 0.806 255 255 255
0.36 -0.078 0.847 255 255 255
0.041 0.087 0.394 255 255 255
0.033 0.12 0.352 255 255 255
0.215 -0.028 0.644 255 255 255
0.031 0.084 0.395 255 255 255
-0.045 -0.109 0.675 255 255 255
-0.077 0.116 0.321 255 255 255
-0.086 -0.254 0.52 255 255 255
0.355 -0.037 0.805 255 255 255
-0.171 -0.153 0.522 0 0 0
0.118 0.115 0.381 255 255 255
0.009 -0.384 0.84 255 255 255
-0.101 -0.18 0.546 255 255 255
-0.046 0.034 0.446 255 255 255
-0.085 -0.333 0.842 255 255 255
0.013 -0.272 0.918 255 255 255
0.104 -0.069 0.666 255 255 255
-0.024 0.543 1.091 255 255 255
0.384 -0.089 0.774 255 255 255
0.22 0.081 0.461 255 255 255
-0.299 -0.022 0.416 255 255 255
-0.062 0.089 0.362 0 0 0
0.073 0.053 0.455 255 255 255
0.29 0.458 1.052 255 255 255
-0.046 0.067 0.393 255 255 255
-0.09 0.143 0.329 255 255 255
0.118 0.096 0.413 255 255 255
-0.273 0.533 1.016 255 255 255
-0.152 0.032 0.428 255 255 255
0.069 -0.544 0.754 0 0 0
-0.064 0.183 0.381 255 255 255
-0.053 0.546 1.069 255 255 255
0.368 -0.108 0.822 255 255 255
0.42 -0.496 0.779 255 255 255
-0.06 -0.254 0.496 255 255 255
0.381 -0.033 0.781 0 0 0
-0.111 0.087 0.349 255 255 255
-0.109 0.039 0.419 255 255 255
-0.072 0.071 0.378 255 255 255
-0.182 -0.155 0.516 0 0 0
-0.052 -0.308 0.476 255 255 255
-0.142 -0.293 0.477 255 255 255
-0.254 -0.145 0.669 255 255 255
-0.267 -0.074 0.461 255 255 255
-0.002 -0.326 0.878 255 255 255
0.215 0.538 1.186 0 0 0
-0.11 0.095 0.338 255 255 255
-0.127 -0.217 0.508 0 0 0
0.276 0.478 1.059 0 0 0
0.03 0.007 0.513 255 255 255
0.156 -0.468 0.833 255 255 255
0.217 0.567 1.143 255 255 255
-0.221 -0.038 0.448 255 255 255
-0.075 0.128 0.313 255 255 255
-0.2 -0.155 0.509 0 0 0
-0.022 -0.36 0.848 255 255 255
-0.248 -0.177 0.487 0 0 0
0.106 0.575 1.086 255 255 255
-0.136 0.118 0.301 255 255 255
-0.293 -0.201 0.466 255 255 255
0.11 -0.503 0.792 255 255 255
-0.039 0.572 1.051 255 255 255
0.185 0.554 1.15 255 255 255
-0.07 0.158 0.361 255 255 255
0.173 -0.519 0.806 0 0 0
-0.224 -0.241 0.462 0 0 0
-0.052 -0.441 0.782 255 255 255
0.431 -0.084 0.644 255 255 255
-0.062 -0.002 0.497 255 255 255
-0.098 0.058 0.391 255 255 255
0.233 0.344 0.637 255 255 255
0.228 0.119 0.42 255 255 255
0.315 0.036 0.593 255 255 255
0.16 -0.05 0.656 255 255 255
0.305 0.531 0.979 255 255 255
0.112 0.122 0.378 255 255 255
0.423 -0.031 0.657 255 255 255
-0.134 -0.133 0.675 255 255 255
0.24 -0.23 0.809 255 255 255
0 -0.069 0.624 255 255 255
0.018 0.123 0.344 255 255 255
-0.172 -0.048 0.475 255 255 255
0.462 -0.161 0.629 255 255 255
0.087 -0.47 0.809 255 255 255
-0.084 -0.018 0.513 255 255 255
-0.125 -0.131 0.527 255 255 255
0.186 0.029 0.514 255 255 255
0.289 -0.513 0.851 255 255 255
-0.053 0.527 1.079 255 255 255
0.002 0.058 0.426 255 255 255
0.153 0.558 1.131 255 255 255
0.072 -0.485 0.794 255 255 255
-0.279 -0.12 0.602 255 255 255
0.387 -0.059 0.765 255 255 255
0.383 -0.421 0.826 255 255 255
-0.221 -0.036 0.45 255 255 255
-0.124 0.075 0.368 255 255 255
-0.028 -0.114 0.689 0 0 0
0.354 0.068 0.595 255 255 255
-0.024 0.084 0.374 255 255 255
0.203 0.586 1.109 255 255 255
-0.075 0.002 0.486 255 255 255
-0.182 -0.077 0.501 255 255 255
-0.314 -0.142 0.586 255 255 255
-0.08 0.561 1.045 255 255 255
-0.098 -0.221 0.893 255 255 255
0.066 -0.544 0.754 255 255 255
-0.027 -0.12 0.698 255 255 255
-0.181 0.026 0.4 255 255 255
0.232 -0.07 0.728 255 255 255
-0.098 -0.352 0.476 0 0 0
-0.219 -0.01 0.419 255 255 255
-0.209 -0.208 0.475 255 255 255
-0.108 -0.246 0.509 255 255 255
-0.22 -0.236 0.464 0 0 0
-0.085 0.068 0.38 255 255 255
-0.04 -0.414 0.805 255 255 255
0.393 -0.079 0.747 255 255 255
-0.015 -0.312 0.883 255 255 255
0.015 -0.312 0.894 255 255 255
0.393 -0.503 0.809 255 255 255
0.367 -0.352 0.865 255 255 255
0.444 -0.121 0.625 255 255 255
0.07 -0.034 0.591 0 0 0
-0.053 -0.33 0.465 255 255 255
0.411 -0.311 0.741 255 255 255
0.364 -0.327 0.878 255 255 255
-0.086 -0.023 0.52 255 255 255
0.337 -0.13 0.919 255 255 255
-0.044 0.066 0.396 255 255 255
-0.158 -0.17 0.516 0 0 0
0.077 -0.192 0.777 255 255 255
-0.22 -0.277 0.454 255 255 255
0.077 0.051 0.46 255 255 255
-0.181 0.005 0.415 255 255 255
-0.122 -0.03 0.52 255 255 255
-0.082 -0.008 0.499 255 255 255
-0.153 -0.266 0.48 0 0 0
0.249 0.275 0.608 255 255 255
0.145 -0.501 0.807 255 255 255
0.368 0.022 0.704 255 255 255
-0.068 0.123 0.317 255 255 255
0.182 0.054 0.491 0 0 0
0.244 -0.097 0.776 0 0 0
0.298 0.534 0.986 255 255 255
-0.133 -0.295 0.48 255 255 255
-0.26 -0.253 0.454 255 255 255
-0.226 -0.292 0.451 255 255 255
-0.326 -0.15 0.474 255 255 255
0.316 -0.542 0.84 255 255 255
0.399 -0.02 0.722 255 255 255
-0.123 0.105 0.318 255 255 255
0.089 0.009 0.529 0 0 0
0.327 -0.472 0.889 255 255 255
0.358 -0.348 0.892 255 255 255
-0.371 0.539 0.975 255 255 255
0.321 -0.209 0.974 255 255 255
0.04 -0.337 0.877 255 255 255
-0.133 0.118 0.295 255 255 255
0.432 0.022 0.626 255 255 255
0.383 -0.098 0.779 255 255 255
-0.059 0.067 0.391 255 255 255
0.072 -0.085 0.679 255 255 255
0.115 -0.474 0.814 255 255 255
0.393 -0.238 0.771 255 255 255
0.156 -0.007 0.54 0 0 0
-0.204 -0.257 0.461 0 0 0
0.007 -0.291 0.904 255 255 255
0.319 -0.623 0.786 255 255 255
-0.145 0.081 0.352 255 255 255
-0.284 -0.18 0.48 0 0 0
-0.046 0.181 0.387 255 255 255
0.361 -0.425 0.877 255 255 255
0.048 -0.26 0.904 255 255 255
0.066 0.068 0.429 255 255 255
0.235 -0.461 0.75 255 255 255
-0.098 -0.169 0.555 255 255 255
0.201 -0.429 0.752 255 255 255
-0.189 -0.127 0.648 255 255 255
-0.184 -0.03 0.444 255 255 255
0.375 -0.471 0.842 255 255 255
0.359 -0.572 0.829 255 255 255
-0.008 0.12 0.34 255 255 255
-0.033 0.063 0.404 255 255 255
-0.163 -0.279 0.471 0 0 0
-0.231 0.041 0.383 255 255 255
-0.129 0.19 0.358 255 255 255
0.031 0.032 0.474 255 255 255
-0.16 0.044 0.398 255 255 255
-0.11 -0.088 0.615 255 255 255
0.291 0.504 1.023 255 255 255
0.221 -0.36 0.82 255 255 255
0.233 -0.221 0.837 255 255 255
-0.294 0.544 0.992 255 255 255
-0.167 -0.318 0.46 255 255 255
0.005 -0.27 0.918 255 255 255
-0.192 -0.286 0.459 255 255 255
-0.038 0.084 0.37 255 255 255
-0.078 -0.326 0.492 255 255 255
-0.09 0.119 0.308 255 255 255
0.41 0.031 0.69 255 255 255
-0.143 0.046 0.411 255 255 255
0.199 -0.031 0.64 255 255 255
-0.281 -0.059 0.438 255 255 255
-0.009 -0.484 0.767 255 255 255
-0.043 0.07 0.39 255 255 255
-0.091 0.109 0.323 255 255 255
0.036 0.098 0.388 255 255 255
0.167 -0.033 0.628 0 0 0
-0.298 -0.127 0.473 255 255 255
-0.079 0.082 0.361 255 255 255
0.05 0.109 0.377 255 255 255
0.265 0.049 0.532 0 0 0
0.105 -0.188 0.819 255 255 255
-0.24 -0.19 0.48 255 255 255
-0.306 -0.175 0.476 0 0 0
-0.212 -0.276 0.455 255 255 255
-0.257 -0.026 0.435 255 255 255
-0.02 -0.536 0.726 0 0 0
0.263 -0.017 0.652 255 255 255
0.099 -0.37 0.76 255 255 255
-0.099 -0.104 0.644 255 255 255
0.399 -0.167 0.745 255 255 255
0.029 -0.037 0.58 255 255 255
-0.098 -0.294 0.499 255 255 255
0.246 -0.26 0.871 0 0 0
-0.063 0.129 0.317 255 255 255
0.278 0.018 0.589 255 255 255
-0.191 0.065 0.362 255 255 255
-0.165 -0.142 0.682 255 255 255
-0.08 0.046 0.416 255 255 255
-0.009 -0.072 0.627 255 255 255
0.028 0.121 0.349 255 255 255
-0.17 -0.065 0.514 255 255 255
-0.105 0.076 0.361 255 255 255
-0.1 -0.31 0.491 255 255 255
-0.162 0.086 0.333 255 255 255
0.166 -0.045 0.649 255 255 255
-0.172 0.032 0.402 255 255 255
0.176 -0.393 0.767 255 255 255
-0.094 -0.2 0.54 255 255 255
0.047 0.157 0.404 255 255 255
-0.091 0.17 0.363 255 255 255
-0.088 0.19 0.375 255 255 255
0.261 0.036 0.555 255 255 255
-0.193 -0.128 0.512 255 255 255
0.397 -0.539 0.805 255 255 255
0.071 -0.119 0.734 255 255 255
-0.078 -0.303 0.868 255 255 255
-0.124 0.162 0.345 255 255 255
0.158 -0.044 0.645 0 0 0
-0.197 -0.128 0.643 255 255 255
-0.234 -0.128 0.489 255 255 255
0.011 -0.075 0.636 255 255 255
0.099 0.084 0.415 255 255 255
-0.123 0.037 0.417 255 255 255
-0.214 -0.236 0.464 255 255 255
0.052 0.546 1.112 255 255 255
0.02 0.077 0.401 255 255 255
0.16 -0.28 0.865 255 255 255
0.029 0.1 0.381 255 255 255
-0.057 0.082 0.366 255 255 255
0.234 0.372 0.665 255 255 255
-0.074 -0.36 0.829 255 255 255
-0.066 0.075 0.374 255 255 255
-0.099 -0.202 0.536 255 255 255
0.051 0.118 0.36 255 255 255
-0.236 -0.258 0.457 255 255 255
0.148 0.117 0.392 255 255 255
0.081 -0.103 0.712 255 255 255
0.356 -0.239 0.889 255 255 255
0.265 -0.265 0.811 255 255 255
0.127 0.525 1.147 255 255 255
0.017 -0.491 0.771 255 255 255
-0.114 -0.188 0.533 255 255 255
-0.286 -0.129 0.468 255 255 255
0.424 -0.372 0.742 255 255 255
0.22 -0.406 0.773 255 255 255
0.012 0.004 0.509 255 255 255
-0.212 0.031 0.399 255 255 255
0.36 -0.31 0.884 255 255 255
0.052 0.076 0.41 255 255 255
0.41 -0.269 0.731 255 255 255
0.109 0.012 0.532 255 255 255
0.353 -0.054 0.831 255 255 255
0.137 0.031 0.491 255 255 255
0.418 -0.205 0.698 255 255 255
0.035 0.126 0.35 255 255 255
0.098 -0.484 0.802 255 255 255
-0.026 0.101 0.357 255 255 255
0.09 -0.244 0.786 255 255 255
-0.078 -0.048 0.564 255 255 255
-0.036 -0.179 0.884 255 255 255
0.115 -0.234 0.787 255 255 255
0.349 -0.492 0.877 255 255 255
-0.136 0.063 0.385 255 255 255
-0.13 -0.304 0.479 255 255 255
0.265 0.505 1.098 0 0 0
0.008 0.121 0.341 255 255 255
0.281 0.02 0.589 255 255 255
0.416 -0.34 0.739 255 255 255
0.156 0.086 0.43 0 0 0
-0.145 -0.331 0.464 255 255 255
-0.158 0.099 0.315 255 255 255
0.053 -0.476 0.795 255 255 255
-0.063 0.008 0.48 255 255 255
-0.165 -0.193 0.495 255 255 255
0.165 -0.454 0.847 255 255 255
-0.008 0.149 0.372 255 255 255
0.029 -0.02 0.554 255 255 255
-0.126 0.094 0.334 255 255 255
0.42 -0.003 0.665 255 255 255
-0.184 0.037 0.402 0 0 0
-0.096 0.065 0.382 255 255 255
-0.08 0.111 0.325 255 255 255
0.036 0.106 0.374 255 255 255
-0.026 -0.404 0.817 255 255 255
0.046 0.129 0.355 255 255 255
-0.051 0.127 0.32 255 255 255
0.258 -0.237 0.799 255 255 255
0.376 -0.34 0.842 255 255 255
0.352 -0.204 0.895 255 255 255
0.308 0.477 0.999 255 255 255
0.161 0.536 1.167 255 255 255
-0.255 -0.187 0.481 255 255 255
0.08 0.1 0.399 255 255 255
-0.106 -0.225 0.518 255 255 255
0.025 0.052 0.441 255 255 255
0.059 -0.132 0.75 255 255 255
0.434 0.036 0.621 255 255 255
-0.111 0.072 0.363 255 255 255
0.277 0.069 0.505 255 255 255
0.033 -0.316 0.895 255 255 255
0.09 -0.3 0.767 255 255 255
-0.037 -0.396 0.818 255 255 255
0.097 0.09 0.412 0 0 0
0.004 0.527 1.12 255 255 255
0.028 -0.19 0.876 0 0 0
0.085 -0.162 0.81 255 255 255
0.279 -0.479 0.872 255 255 255
-0.196 -0.177 0.494 255 255 255
0.173 -0.52 0.805 0 0 0
-0.03 -0.275 0.902 255 255 255
0.067 -0.024 0.574 255 255 255
-0.251 -0.216 0.47 255 255 255
-0.054 -0.48 0.756 255 255 255
-0.136 0.071 0.369 255 255 255
-0.068 0.002 0.489 255 255 255
0.017 0.041 0.456 255 255 255
0.378 -0.52 0.836 255 255 255
0.038 0.143 0.376 255 255 255
0.063 0.075 0.417 255 255 255
-0.282 -0.206 0.468 255 255 255
0.413 -0.056 0.686 255 255 255
0.428 -0.302 0.716 255 255 255
0.161 -0.486 0.825 0 0 0
0.324 -0.44 0.911 255 255 255
0.067 0.076 0.416 255 255 255
-0.118 0.002 0.47 255 255 255
0.029 0.124 0.348 255 255 255
-0.24 0.031 0.39 255 255 255
0.082 0.117 0.371 255 255 255
0.073 -0.542 0.755 255 255 255
0.409 -0.335 0.747 255 255 255
-0.197 0.053 0.377 255 255 255
-0.146 -0.162 0.529 255 255 255
0.404 -0.035 0.712 255 255 255
0.055 -0.528 0.761 255 255 255
0.046 0.124 0.355 255 255 255
0.25 -0.364 0.941 255 255 255
0.177 0.058 0.484 0 0 0
-0.104 -0.057 0.567 255 255 255
0.098 -0.199 0.803 255 255 255
0.402 0.068 0.642 255 255 255
0.247 -0.177 0.841 255 255 255
-0.133 0.089 0.34 255 255 255
0.246 -0.472 0.779 255 255 255
-0.094 -0.242 0.52 255 255 255
-0.232 0.052 0.366 255 255 255
0.413 -0.196 0.711 255 255 255
0.398 -0.031 0.732 255 255 255
0.107 -0.001 0.551 255 255 255
0.198 0.11 0.408 255 255 255
-0.245 0.547 1.007 255 255 255
-0.109 0.087 0.349 255 255 255
0.263 -0.271 0.803 255 255 255
-0.09 0.058 0.395 255 255 255
-0.138 0.076 0.358 255 255 255
0.109 0.116 0.379 255 255 255
0.359 -0.249 0.883 255 255 255
0.118 -0.554 0.761 0 0 0
-0.179 -0.3 0.462 0 0 0
-0.148 0.08 0.352 255 255 255
0.416 0.014 0.676 255 255 255
-0.099 -0.267 0.509 255 255 255
0.126 0.093 0.418 255 255 255
-0.046 -0.109 0.675 255 255 255
-0.067 0.18 0.379 255 255 255
-0.011 0.168 0.39 255 255 255
0.122 0.081 0.426 255 255 255
0.311 0.479 0.991 255 255 255
0.033 -0.098 0.684 255 255 255
0.37 -0.088 0.818 255 255 255
0.223 -0.176 0.846 255 255 255
-0.282 -0.173 0.483 0 0 0
0.091 -0.356 0.759 255 255 255
-0.09 -0.28 0.509 255 255 255
0.389 -0.422 0.809 255 255 255
0.015 0.142 0.365 255 255 255
-0.135 0.03 0.427 255 255 255
-0.294 -0.026 0.422 255 255 255
-0.141 -0.339 0.466 0 0 0
-0.148 -0.079 0.586 255 255 255
0.054 -0.088 0.675 255 255 255
0.362 -0.477 0.87 255 255 255
0.236 -0.449 0.762 255 255 255
0.407 -0.393 0.76 255 255 255
0.019 0.101 0.375 255 255 255
-0.075 0.047 0.415 255 255 255
-0.19 0.047 0.39 255 255 255
0.084 -0.552 0.752 0 0 0
-0.19 -0.266 0.463 0 0 0
0.152 -0.164 0.859 255 255 255
0.329 0.449 0.932 255 255 255
0.408 -0.052 0.703 255 255 255
0.208 -0.422 0.76 255 255 255
0.147 -0.388 0.773 255 255 255
-0.135 -0.133 0.522 255 255 255
-0.082 0.177 0.372 255 255 255
-0.116 0.069 0.363 255 255 255
-0.126 0.127 0.295 255 255 255
-0.076 -0.337 0.49 255 255 255
0.11 0.032 0.505 0 0 0
0.1 -0.262 0.779 255 255 255
0.057 0.155 0.405 255 255 255
0.397 -0.193 0.752 255 255 255
-0.06 -0.112 0.674 255 255 255
-0.085 -0.198 0.893 255 255 255
-0.073 0.115 0.321 255 255 255
-0.004 0.058 0.423 255 255 255
0.321 -0.618 0.789 255 255 255
-0.228 -0.221 0.467 255 255 255
0.07 0.044 0.469 255 255 255
0.267 0.047 0.539 0 0 0
-0.199 -0.157 0.689 255 255 255
0.208 0.013 0.546 0 0 0
-0.02 -0.321 0.872 255 255 255
-0.065 -0.106 0.662 255 255 255
0.303 0.072 0.512 255 255 255
0.191 0.155 0.451 255 255 255
0.084 0.027 0.499 0 0 0
-0.044 0.542 1.061 255 255 255
-0.168 -0.145 0.521 0 0 0
0.278 -0.466 0.883 255 255 255
0.069 0.101 0.392 255 255 255
0.119 0.1 0.406 255 255 255
0.173 0.527 1.178 0 0 0
-0.122 0.152 0.334 0 0 0
0.015 -0.06 0.614 255 255 255
-0.293 -0.172 0.481 0 0 0
-0.079 0.062 0.391 255 255 255
0.19 -0.28 0.88 255 255 255
0.411 -0.047 0.695 255 255 255
-0.062 -0.299 0.478 0 0 0
-0.146 -0.28 0.478 255 255 255
0.17 -0.211 0.906 255 255 255
0.035 0.103 0.378 255 255 255
0.043 0.059 0.435 255 255 255
-0.152 0.026 0.438 255 255 255
-0.385 -0.143 0.538 255 255 255
0.369 -0.483 0.852 255 255 255
-0.004 0.106 0.361 255 255 255
-0.11 0.051 0.401 255 255 255
-0.262 0.01 0.388 255 255 255
0.42 -0.04 0.667 255 255 255
-0.158 -0.343 0.455 0 0 0
0.223 -0.454 0.744 255 255 255
-0.195 -0.274 0.461 255 255 255
0.097 -0.016 0.57 255 255 255
-0.155 0.017 0.429 255 255 255
-0.103 -0.241 0.514 255 255 255
-0.147 0.005 0.464 255 255 255
0.195 0.085 0.447 255 255 255
-0.007 0.101 0.366 255 255 255
-0.122 0.058 0.382 255 255 255
-0.085 0.075 0.369 255 255 255
0.352 -0.233 0.9 255 255 255
-0.058 0.109 0.336 255 255 255
0.321 -0.152 0.967 255 255 255
-0.057 -0.26 0.499 255 255 255
-0.218 -0.082 0.501 255 255 255
0.256 -0.295 0.811 255 255 255
-0.245 -0.183 0.485 255 255 255
-0.201 0.024 0.395 255 255 255
-0.174 -0.28 0.467 255 255 255
-0.172 -0.075 0.503 255 255 255
0.027 0.063 0.425 255 255 255
0.089 0.174 0.43 255 255 255
0.055 -0.437 0.821 255 255 255
0.008 0.097 0.376 255 255 255
-0.293 -0.161 0.486 255 255 255
0.302 0.487 1.016 255 255 255
-0.02 0.171 0.389 255 255 255
-0.016 0.084 0.378 255 255 255
-0.04 0.07 0.392 255 255 255
-0.071 -0.083 0.621 255 255 255
-0.247 0.015 0.387 255 255 255
-0.202 0.048 0.383 255 255 255
0.215 0.04 0.527 255 255 255
0.049 0.078 0.408 255 255 255
-0.021 -0.436 0.796 255 255 255
0.001 0.157 0.387 255 255 255
-0.087 0.109 0.326 255 255 255
0.232 -0.183 0.83 255 255 255
-0.187 -0.295 0.46 255 255 255
-0.157 -0.111 0.635 255 255 255
0.041 0.114 0.362 255 255 255
0.001 -0.503 0.756 255 255 255
-0.216 -0.243 0.463 0 0 0
-0.126 0.103 0.322 255 255 255
-0.111 0.11 0.316 255 255 255
0.131 0.034 0.486 255 255 255
0.231 -0.292 0.984 255 255 255
-0.122 -0.029 0.518 255 255 255
0.036 0.104 0.378 255 255 255
-0.155 -0.133 0.516 255 255 255
0.103 0.063 0.449 255 255 255
0.419 -0.122 0.686 255 255 255
0.088 0.549 1.118 255 255 255
0.249 0.252 0.601 255 255 255
-0.091 0.032 0.434 255 255 255
0.185 -0.307 0.82 255 255 255
0.011 0.125 0.342 255 255 255
0.419 -0.061 0.671 255 255 255
-0.158 -0.2 0.494 255 255 255
-0.262 -0.207 0.472 255 255 255
0.22 -0.059 0.7 255 255 255
-0.125 -0.35 0.464 0 0 0
0.393 -0.188 0.768 255 255 255
-0.046 0.058 0.41 255 255 255
-0.15 0.035 0.425 255 255 255
0.009 0.112 0.354 255 255 255
0.294 -0.53 0.842 255 255 255
0.168 -0.129 0.798 255 255 255
0.246 -0.236 0.796 255 255 255
-0.179 -0.18 0.498 255 255 255
0.434 -0.041 0.634 255 255 255
0.431 -0.109 0.647 255 255 255
0.315 -0.509 0.863 255 255 255
0.061 -0.496 0.784 255 255 255
0.315 0.026 0.618 255 255 255
0.148 0.179 0.453 255 255 255
0.094 0.538 1.135 255 255 255
0.363 -0.074 0.839 255 255 255
0.09 0.066 0.44 255 255 255
0.455 -0.233 0.666 255 255 255
0.18 -0.258 0.879 255 255 255
0.097 -0.321 0.754 255 255 255
0.387 -0.295 0.798 255 255 255
0.226 0.095 0.453 255 255 255
-0.041 0.114 0.332 255 255 255
-0.129 -0.188 0.523 0 0 0
0.176 -0.062 0.686 255 255 255
0.04 0.08 0.401 255 255 255
-0.129 -0.126 0.668 255 255 255
-0.22 0.024 0.389 255 255 255
-0.132 -0.302 0.48 255 255 255
0.428 -0.058 0.652 255 255 255
-0.163 0.071 0.353 255 255 255
0.175 -0.432 0.804 255 255 255
0.181 0.065 0.472 0 0 0
0.377 -0.303 0.833 255 255 255
-0.058 -0.132 0.705 255 255 255
-0.079 -0.265 0.521 0 0 0
-0.287 -0.126 0.475 255 255 255
-0.271 -0.104 0.533 255 255 255
-0.098 0.118 0.312 255 255 255
-0.012 0.169 0.39 255 255 255
0.109 -0.001 0.551 255 255 255
-0.07 0.122 0.317 255 255 255
0.391 -0.098 0.756 255 255 255
0.278 0.057 0.525 0 0 0
-0.189 0.038 0.4 0 0 0
0.403 -0.034 0.718 255 255 255
0.178 -0.463 0.81 0 0 0
-0.016 0.111 0.348 255 255 255
-0.157 0.018 0.411 255 255 255
0.394 -0.258 0.773 255 255 255
0.25 -0.226 0.8 255 255 255
-0.11 -0.103 0.639 255 255 255
-0.16 -0.248 0.478 255 255 255
-0.101 -0.22 0.527 255 255 255
0.412 -0.194 0.711 255 255 255
-0.048 0.57 1.052 255 255 255
-0.102 0.109 0.319 255 255 255
-0.041 -0.075 0.618 255 255 255
-0.03 -0.294 0.89 255 255 255
-0.141 -0.063 0.564 255 255 255
0.401 -0.398 0.775 255 255 255
0.107 0.069 0.441 255 255 255
-0.055 0.083 0.367 255 255 255
-0.122 -0.182 0.533 255 255 255
-0.09 0.067 0.381 255 255 255
-0.127 0.118 0.303 255 255 255
-0.129 0.003 0.466 255 255 255
-0.224 0.555 1.004 255 255 255
0.326 -0.579 0.817 255 255 255
0.201 -0.143 0.835 0 0 0
-0.081 0.123 0.312 255 255 255
-0.089 0.118 0.309 255 255 255
0.196 0.062 0.466 255 255 255
-0.131 -0.029 0.516 255 255 255
-0.063 -0.108 0.666 255 255 255
-0.101 0.029 0.436 255 255 255
0.332 -0.322 0.949 255 255 255
-0.136 0.008 0.458 255 255 255
0.217 0.083 0.455 255 255 255
-0.297 -0.16 0.484 255 255 255
-0.273 -0.14 0.647 255 255 255
-0.028 0.157 0.376 255 255 255
0.407 -0.389 0.76 255 255 255
-0.069 -0.039 0.559 255 255 255
-0.222 -0.076 0.497 0 0 0
-0.349 0.538 0.989 255 255 255
-0.139 -0.321 0.471 255 255 255
-0.092 0.12 0.309 255 255 255
-0.049 -0.317 0.869 255 255 255
0.185 -0.529 0.803 255 255 255
0.199 -0.438 0.746 255 255 255
-0.196 -0.128 0.513 255 255 255
0.123 -0.501 0.799 255 255 255
0.322 -0.579 0.815 255 255 255
-0.137 0.182 0.356 255 255 255
0.029 -0.316 0.895 255 255 255
0.079 0.11 0.381 255 255 255
-0.272 -0.208 0.469 255 255 255
0.087 -0.065 0.651 255 255 255
-0.063 0.152 0.357 255 255 255
0.065 -0.02 0.566 255 255 255
-0.006 -0.333 0.872 255 255 255
0.173 -0.532 0.798 255 255 255
-0.224 -0.225 0.468 0 0 0
0.162 0.067 0.461 255 255 255
0.411 -0.255 0.729 255 255 255
0.017 -0.237 0.928 255 255 255
-0.009 -0.085 0.65 255 255 255
0.356 -0.465 0.882 255 255 255
0.192 0.063 0.465 0 0 0
0.43 0.009 0.637 255 255 255
0.273 -0.274 0.822 255 255 255
-0.373 0.549 0.963 255 255 255
-0.002 -0.25 0.926 255 255 255
-0.149 0.065 0.375 255 255 255
0.089 -0.017 0.571 255 255 255
0.411 -0.482 0.784 255 255 255
-0.092 0.123 0.307 255 255 255
0.087 -0.277 0.778 255 255 255
0.395 -0.426 0.791 255 255 255
-0.033 0.091 0.372 0 0 0
0.389 -0.606 0.806 0 0 0
0.262 -0.449 0.883 0 0 0
0.031 -0.529 0.748 255 255 255
-0.132 -0.272 0.485 255 255 255
0.072 0.017 0.512 255 255 255
-0.018 0.085 0.375 255 255 255
-0.235 -0.109 0.583 255 255 255
-0.096 0.083 0.352 255 255 255
-0.124 0.045 0.405 255 255 255
-0.084 -0.285 0.507 255 255 255
-0.155 0.036 0.407 255 255 255
-0.062 -0.074 0.609 255 255 255
-0.103 -0.06 0.573 255 255 255
0.126 -0.031 0.606 255 255 255
0.405 0.076 0.633 255 255 255
0 0.042 0.449 255 255 255
0.148 0.057 0.476 0 0 0
-0.221 -0.165 0.497 255 255 255
0.186 0.153 0.447 255 255 255
-0.104 0.529 1.076 255 255 255
-0.145 -0.079 0.588 255 255 255
0.163 0.087 0.433 0 0 0
-0.083 -0.324 0.493 255 255 255
-0.069 0.1 0.346 255 255 255
0.428 0.031 0.636 255 255 255
-0.286 -0.081 0.47 255 255 255
-0.201 -0.31 0.45 255 255 255
-0.123 -0.261 0.495 0 0 0
0.306 -0.609 0.791 0 0 0
0.334 -0.581 0.819 255 255 255
-0.187 -0.129 0.504 255 255 255
0.066 0.123 0.362 255 255 255
0.023 0.16 0.396 255 255 255
0.07 -0.389 0.806 255 255 255
0.05 -0.098 0.693 255 255 255
-0.313 0.547 0.983 255 255 255
0.053 -0.468 0.799 255 255 255
0.397 -0.377 0.783 255 255 255
-0.065 -0.22 0.508 255 255 255
-0.236 -0.274 0.451 255 255 255
-0.009 -0.43 0.805 255 255 255
0.42 -0.059 0.669 255 255 255
0.386 -0.161 0.782 255 255 255
-0.201 -0.343 0.442 0 0 0
-0.14 0.153 0.329 255 255 255
-0.125 0.169 0.351 255 255 255
-0.021 0.091 0.377 0 0 0
0.015 0.125 0.343 255 255 255
-0.012 0.045 0.44 255 255 255
-0.138 -0.313 0.472 255 255 255
-0.166 -0.298 0.466 255 255 255
-0.149 0.552 1.034 255 255 255
0.111 0.083 0.42 255 255 255
0.004 0.536 1.111 255 255 255
-0.111 -0.277 0.496 255 255 255
-0.213 -0.195 0.481 255 255 255
-0.195 -0.131 0.501 255 255 255
-0.121 0.107 0.316 255 255 255
0.251 -0.521 0.736 255 255 255
-0.179 -0.014 0.475 255 255 255
-0.176 -0.122 0.644 255 255 255
0.079 0.092 0.408 0 0 0
-0.062 -0.262 0.49 0 0 0
0.049 0.107 0.377 255 255 255
0.208 0.085 0.441 255 255 255
-0.096 -0.004 0.488 255 255 255
-0.044 -0.312 0.873 255 255 255
0.347 -0.49 0.878 255 255 255
-0.26 -0.128 0.479 255 255 255
-0.053 -0.327 0.467 255 255 255
0.446 -0.099 0.614 255 255 255
-0.171 0.065 0.377 255 255 255
0.123 -0.219 0.84 255 255 255
-0.265 -0.124 0.612 255 255 255
-0.189 -0.03 0.447 255 255 255
-0.076 -0.243 0.905 255 255 255
-0.033 -0.116 0.689 255 255 255
-0.11 -0.289 0.494 255 255 255
0.134 -0.539 0.778 255 255 255
0.418 -0.004 0.668 255 255 255
0.429 -0.12 0.657 255 255 255
0.376 -0.417 0.84 255 255 255
0.144 0.057 0.475 255 255 255
-0.032 0.124 0.328 255 255 255
-0.123 0.113 0.307 255 255 255
-0.176 0.084 0.336 255 255 255
0.141 -0.113 0.759 255 255 255
0.201 0.098 0.419 255 255 255
-0.229 -0.231 0.466 255 255 255
0.433 -0.074 0.639 255 255 255
0.421 0.017 0.655 255 255 255
-0.014 0.153 0.376 255 255 255
0.359 -0.549 0.845 255 255 255
0.073 -0.002 0.541 0 0 0
-0.137 0.091 0.336 255 255 255
-0.147 -0.32 0.466 255 255 255
-0.248 -0.078 0.49 255 255 255
-0.255 -0.032 0.445 255 255 255
0.094 -0.064 0.65 255 255 255
0.115 0.172 0.438 255 255 255
0.382 -0.113 0.784 255 255 255
0.008 -0.039 0.577 255 255 255
0.215 0.116 0.414 255 255 255
0.167 -0.131 0.8 255 255 255
-0.274 -0.204 0.469 255 255 255
-0.143 -0.334 0.464 255 255 255
-0.134 0.002 0.466 255 255 255
-0.343 -0.138 0.533 0 0 0
-0.044 0.119 0.326 255 255 255
0.289 -0.055 0.755 0 0 0
-0.217 -0.271 0.456 0 0 0
0.207 0.087 0.442 255 255 255
0.395 -0.144 0.755 255 255 255
-0.222 -0.316 0.443 255 255 255
0.171 -0.243 0.876 255 255 255
-0.009 -0.397 0.828 255 255 255
0.143 0.142 0.413 0 0 0
-0.228 -0.038 0.437 255 255 255
0.414 0.009 0.682 255 255 255
-0.11 0.036 0.422 255 255 255
0.408 -0.092 0.709 255 255 255
-0.149 -0.151 0.531 0 0 0
0.196 0.123 0.407 255 255 255
-0.074 0.178 0.376 255 255 255
-0.179 -0.135 0.664 255 255 255
0.27 -0.018 0.655 255 255 255
0.348 -0.349 0.917 255 255 255
-0.178 -0.076 0.566 255 255 255
0.046 -0.063 0.631 255 255 255
0.332 -0.152 0.939 255 255 255
0.316 -0.24 0.983 0 0 0
-0.045 0.036 0.444 255 255 255
-0.233 -0.115 0.608 255 255 255
-0.063 -0.307 0.869 255 255 255
-0.207 -0.265 0.46 0 0 0
0.272 0.015 0.589 255 255 255
-0.071 -0.046 0.563 255 255 255
0.019 -0.406 0.83 255 255 255
-0.076 -0.172 0.523 0 0 0
0.116 -0.03 0.599 255 255 255
0.017 -0.243 0.923 255 255 255
-0.18 0.058 0.378 255 255 255
-0.11 0.086 0.35 255 255 255
0.045 -0.371 0.856 255 255 255
0.009 -0.021 0.55 255 255 255
0.219 -0.122 0.81 255 255 255
-0.078 -0.024 0.525 0 0 0
0.089 -0.072 0.663 255 255 255
0.077 -0.214 0.789 255 255 255
-0.08 -0.066 0.591 255 255 255
-0.114 -0.298 0.488 0 0 0
-0.094 0.01 0.469 255 255 255
-0.046 0.08 0.373 255 255 255
-0.051 0.167 0.376 255 255 255
-0.107 -0.012 0.497 255 255 255
-0.052 0.11 0.337 255 255 255
0.384 -0.282 0.807 255 255 255
0.026 -0.5 0.768 255 255 255
-0.173 0.059 0.38 255 255 255
0.243 -0.069 0.731 255 255 255
0.219 -0.017 0.627 0 0 0
-0.156 -0.264 0.477 0 0 0
-0.327 -0.156 0.476 255 255 255
0.458 -0.187 0.646 255 255 255
-0.073 -0.32 0.503 0 0 0
0.399 -0.227 0.753 255 255 255
-0.262 0.023 0.384 255 255 255
-0.037 -0.059 0.595 255 255 255
-0.012 0.012 0.445 255 255 255
-0.118 -0.334 0.475 0 0 0
-0.284 -0.165 0.487 255 255 255
0.201 -0.564 0.781 0 0 0
0.074 0.069 0.43 255 255 255
-0.229 -0.252 0.46 0 0 0
-0.125 -0.232 0.503 255 255 255
0.336 -0.065 0.847 0 0 0
0.029 -0.038 0.583 255 255 255
0.051 -0.263 0.901 255 255 255
0.241 -0.055 0.707 255 255 255
0.43 -0.316 0.718 255 255 255
0.357 -0.097 0.861 255 255 255
0.4 -0.095 0.73 255 255 255
-0.171 -0.186 0.496 255 255 255
-0.197 -0.033 0.45 255 255 255
-0.089 0.054 0.401 255 255 255
0.399 -0.553 0.798 255 255 255
-0.142 -0.297 0.476 255 255 255
0.411 0.041 0.68 255 255 255
0.156 0.024 0.51 0 0 0
-0.161 -0.083 0.589 255 255 255
0.36 -0.557 0.838 255 255 255
0.038 0.18 0.399 255 255 255
-0.08 -0.282 0.512 255 255 255
-0.075 -0.047 0.564 255 255 255
-0.074 0.138 0.324 255 255 255
0.179 0.57 1.119 255 255 255
0.215 0.011 0.552 255 255 255
