ply
format ascii 1.0
comment Created by Open3D
element vertex 1597
property double x
property double y
property double z
property uchar red
property uchar green
property uchar blue
end_header
-0.114 0.135 0.304 0 0 0
0.092 0.01 0.532 0 0 0
-0.232 0.05 0.378 255 255 255
0.249 -0.598 0.782 0 0 0
0.171 -0.327 0.959 255 255 255
-0.157 0.1 0.329 255 255 255
-0.079 0.115 0.335 255 255 255
0.042 0.059 0.468 255 255 255
0.285 0.335 0.771 255 255 255
0.191 0.032 0.603 255 255 255
0.032 -0.43 0.77 255 255 255
-0.117 0.187 0.37 255 255 255
-0.202 -0.336 0.455 0 0 0
-0.102 0.105 0.342 255 255 255
0.273 -0.088 0.76 255 255 255
0.129 0.117 0.43 255 255 255
-0.125 0.062 0.398 255 255 255
0.281 -0.236 0.742 255 255 255
-0.2 -0.426 0.772 255 255 255
0.218 -0.48 0.854 255 255 255
0.095 -0.092 0.781 255 255 255
0.105 0.06 0.476 255 255 255
-0.038 0.105 0.375 255 255 255
-0.377 -0.101 0.562 255 255 255
-0.194 -0.233 0.496 255 255 255
0.067 -0.527 0.731 255 255 255
0.354 0.019 0.605 255 255 255
-0.184 -0.297 0.869 255 255 255
0.082 -0.33 0.996 255 255 255
0.045 -0.057 0.682 255 255 255
-0.134 -0.36 0.852 255 255 255
0.186 0.027 0.61 255 255 255
-0.277 -0.198 0.849 255 255 255
0.309 -0.31 0.678 255 255 255
-0.046 0.119 0.343 255 255 255
-0.228 -0.32 0.445 0 0 0
0.213 -0.243 0.885 255 255 255
-0.08 0.086 0.377 255 255 255
0.149 -0.191 1.009 255 255 255
0.168 0.05 0.551 255 255 255
-0.222 -0.249 0.881 255 255 255
-0.032 0.028 0.489 255 255 255
-0.16 -0.311 0.453 255 255 255
0.265 -0.127 0.774 255 255 255
-0.086 0.07 0.399 255 255 255
0.124 -0.079 0.77 0 0 0
-0.106 0.56 1.093 255 255 255
0.312 0.118 0.561 0 0 0
0.309 0.006 0.693 255 255 255
-0.098 0.065 0.403 255 255 255
-0.272 -0.186 0.456 255 255 255
0.063 0.056 0.485 255 255 255
0.355 -0.126 0.601 255 255 255
0.089 -0.043 0.682 255 255 255
0.189 -0.17 0.929 255 255 255
-0.207 -0.263 0.475 255 255 255
0.171 0.131 0.481 255 255 255
0.331 0.079 0.653 255 255 255
0.364 0.083 0.591 255 255 255
-0.097 0.116 0.328 255 255 255
-0.08 -0.365 0.748 255 255 255
0.239 0.119 0.508 255 255 255
0.004 0.181 0.433 255 255 255
0.232 -0.474 0.829 255 255 255
-0.272 -0.136 0.488 0 0 0
0.09 -0.043 0.683 255 255 255
-0.234 -0.137 0.515 255 255 255
0.281 -0.032 0.747 255 255 255
-0.01 -0.035 0.609 255 255 255
0.351 -0.047 0.61 255 255 255
0.003 0.129 0.366 255 255 255
-0.166 -0.373 0.826 255 255 255
0.259 -0.061 0.79 255 255 255
0.253 -0.551 0.781 255 255 255
-0.09 -0.122 0.733 255 255 255
0.085 -0.372 0.972 255 255 255
-0.181 -0.102 0.653 255 255 255
0.293 -0.508 0.702 0 0 0
-0.18 -0.004 0.485 255 255 255
0.258 0.463 0.843 255 255 255
0.3 -0.139 0.707 255 255 255
0.385 -0.21 0.579 255 255 255
-0.172 -0.032 0.539 255 255 255
-0.207 -0.417 0.773 255 255 255
-0.191 -0.317 0.467 255 255 255
-0.201 -0.216 0.497 255 255 255
0.08 0.039 0.519 255 255 255
0.31 -0.425 0.672 255 255 255
0.119 0.149 0.417 255 255 255
0.338 -0.064 0.633 255 255 255
0.313 -0.024 0.681 255 255 255
0.12 0.146 0.417 255 255 255
0.01 0.112 0.382 255 255 255
-0.159 0.07 0.37 255 255 255
0.146 -0.001 0.629 255 255 255
0.34 -0.282 0.627 255 255 255
-0.215 -0.12 0.507 255 255 255
-0.043 -0.19 0.85 255 255 255
-0.194 0.037 0.411 255 255 255
0.171 -0.228 0.966 255 255 255
0.011 0.097 0.405 255 255 255
-0.186 0.07 0.359 255 255 255
0.017 0.539 1.176 255 255 255
-0.07 0.11 0.353 255 255 255
-0.205 -0.198 0.501 255 255 255
-0.091 0.572 1.075 255 255 255
0.001 -0.094 0.73 255 255 255
0.238 -0.171 0.83 255 255 255
0.269 -0.089 0.767 255 255 255
-0.005 0.031 0.497 0 0 0
0.137 0.474 1.079 255 255 255
-0.167 -0.265 0.472 0 0 0
0.277 -0.135 0.753 255 255 255
0.151 -0.452 0.941 255 255 255
0.135 0.463 1.089 255 255 255
0.036 0.1 0.408 255 255 255
-0.053 0.099 0.374 255 255 255
0.114 -0.613 0.818 0 0 0
-0.18 0.088 0.332 255 255 255
-0.061 0.097 0.376 0 0 0
-0.11 -0.472 0.788 255 255 255
-0.016 -0.14 0.804 255 255 255
0.351 -0.067 0.609 255 255 255
-0.153 0.101 0.328 0 0 0
0.162 0.552 1.031 255 255 255
0.087 0.596 1.111 255 255 255
0.362 0.041 0.588 255 255 255
-0.174 0.007 0.47 255 255 255
-0.132 -0.214 0.87 0 0 0
0.177 -0.616 0.845 0 0 0
0.259 -0.132 0.787 255 255 255
0.29 -0.402 0.71 255 255 255
-0.207 -0.21 0.494 255 255 255
-0.28 -0.12 0.472 0 0 0
-0.265 -0.008 0.414 255 255 255
-0.208 0.551 1.06 255 255 255
-0.016 0.108 0.377 255 255 255
-0.158 0.024 0.449 255 255 255
0.021 0.097 0.409 255 255 255
-0.24 -0.216 0.463 255 255 255
-0.068 0 0.522 255 255 255
0.253 -0.578 0.777 0 0 0
0.353 -0.344 0.628 255 255 255
0.266 -0.035 0.776 255 255 255
-0.185 -0.229 0.909 255 255 255
0.295 -0.323 0.71 255 255 255
0.14 -0.244 1.016 0 0 0
0.16 -0.31 0.98 255 255 255
0.083 0.167 0.469 255 255 255
-0.107 -0.127 0.732 255 255 255
0.04 0.024 0.504 255 255 255
0.347 -0.259 0.617 255 255 255
-0.233 -0.243 0.88 255 255 255
-0.122 0.079 0.369 255 255 255
0.079 -0.213 0.845 255 255 255
-0.241 0.025 0.42 0 0 0
-0.108 0.094 0.356 255 255 255
0.324 0.242 0.687 255 255 255
0.333 -0.177 0.638 255 255 255
0.175 -0.131 0.955 255 255 255
-0.02 -0.146 0.819 255 255 255
-0.333 -0.091 0.561 255 255 255
0.196 0.369 0.961 255 255 255
0.333 -0.131 0.641 255 255 255
-0.279 -0.017 0.467 255 255 255
0.048 -0.041 0.652 255 255 255
-0.105 -0.179 0.817 255 255 255
-0.034 0.099 0.384 255 255 255
0.268 -0.304 0.766 255 255 255
-0.292 -0.123 0.47 0 0 0
0.279 0.375 0.786 255 255 255
0.138 -0.481 0.92 255 255 255
0.136 0.077 0.475 255 255 255
0.342 -0.382 0.642 255 255 255
-0.105 -0.498 0.774 255 255 255
-0.132 0.125 0.31 255 255 255
-0.193 0.086 0.344 255 255 255
-0.101 -0.369 0.838 255 255 255
-0.128 0.083 0.36 255 255 255
-0.078 0.133 0.326 255 255 255
-0.208 0.037 0.405 255 255 255
0.034 -0.073 0.706 255 255 255
0.098 -0.213 0.845 255 255 255
0.143 0.298 0.66 255 255 255
0.377 -0.098 0.556 255 255 255
0.315 -0.095 0.677 255 255 255
0.047 0.073 0.446 255 255 255
0.269 0.051 0.669 255 255 255
0.379 -0.074 0.553 255 255 255
-0.134 -0.512 0.748 255 255 255
-0.261 0.026 0.384 255 255 255
-0.132 0.078 0.369 255 255 255
0.245 -0.309 0.813 255 255 255
0.005 -0.567 0.791 255 255 255
0.078 -0.037 0.66 255 255 255
0.137 -0.048 0.726 255 255 255
-0.112 0.112 0.325 255 255 255
0.058 -0.361 0.86 0 0 0
-0.153 0.047 0.411 255 255 255
-0.009 -0.045 0.629 255 255 255
0.19 -0.011 0.667 255 255 255
0.287 -0.238 0.729 255 255 255
0.304 -0.161 0.696 255 255 255
-0.08 0.068 0.403 255 255 255
-0.138 0.1 0.339 0 0 0
0.356 -0.219 0.601 255 255 255
0.314 0.265 0.708 255 255 255
-0.207 -0.006 0.478 255 255 255
-0.234 -0.057 0.551 255 255 255
0.341 -0.221 0.624 255 255 255
0.338 0.021 0.635 255 255 255
-0.261 0.007 0.389 255 255 255
-0.173 0.098 0.327 255 255 255
-0.232 -0.374 0.792 255 255 255
0.024 -0.295 0.887 255 255 255
0.348 -0.204 0.613 255 255 255
0.016 0.072 0.436 255 255 255
-0.282 -0.032 0.426 255 255 255
-0.238 -0.259 0.457 0 0 0
0.334 -0.055 0.644 255 255 255
0.058 0.003 0.541 255 255 255
0.144 -0.276 1.006 0 0 0
0.348 -0.219 0.613 255 255 255
0.097 0.059 0.481 0 0 0
-0.116 -0.323 0.84 0 0 0
-0.178 0.02 0.447 255 255 255
0.007 0.526 1.185 0 0 0
0.365 -0.16 0.584 255 255 255
-0.187 -0.123 0.525 255 255 255
0.01 0.006 0.543 0 0 0
-0.163 -0.347 0.846 0 0 0
-0.057 0.538 1.16 255 255 255
0.328 -0.095 0.652 255 255 255
0.369 -0.153 0.576 255 255 255
0.321 0.032 0.666 255 255 255
-0.035 0.072 0.414 255 255 255
-0.235 -0.272 0.457 255 255 255
0.134 -0.092 0.824 0 0 0
0.167 0.056 0.538 255 255 255
0.208 -0.217 0.894 255 255 255
0.245 -0.204 0.816 255 255 255
-0.226 -0.21 0.475 0 0 0
0.165 -0.153 0.974 255 255 255
0.041 0.12 0.385 255 255 255
0.048 -0.361 0.822 255 255 255
-0.149 0.1 0.335 255 255 255
-0.251 -0.154 0.493 0 0 0
0.116 0.18 0.425 255 255 255
0.234 -0.009 0.767 255 255 255
-0.244 -0.069 0.568 255 255 255
0.089 0.552 1.17 255 255 255
0.102 0.066 0.476 255 255 255
-0.209 -0.209 0.494 255 255 255
0.109 -0.031 0.673 255 255 255
0.267 -0.225 0.77 255 255 255
-0.105 -0.125 0.73 255 255 255
-0.216 -0.092 0.619 255 255 255
0.07 -0.473 0.764 255 255 255
0.16 -0.177 0.987 255 255 255
0.131 -0.035 0.696 255 255 255
-0.067 -0.13 0.755 255 255 255
-0.108 -0.45 0.805 255 255 255
0.127 0.463 1.096 255 255 255
-0.139 0.092 0.341 255 255 255
0.106 0.06 0.475 255 255 255
0.159 -0.209 0.99 255 255 255
-0.097 -0.099 0.686 255 255 255
-0.006 0.025 0.506 255 255 255
0.17 0.161 0.533 255 255 255
-0.148 0.042 0.423 255 255 255
-0.031 0.033 0.483 255 255 255
0.285 -0.422 0.72 255 255 255
-0.198 -0.294 0.47 255 255 255
-0.1 0.097 0.359 255 255 255
-0.027 0.083 0.399 255 255 255
0.318 -0.149 0.67 255 255 255
0.175 -0.271 0.956 255 255 255
0.056 -0.422 0.788 255 255 255
0.344 -0.176 0.623 255 255 255
-0.149 0.111 0.313 255 255 255
0.148 -0.332 0.99 255 255 255
0.21 -0.639 0.834 0 0 0
-0.195 -0.119 0.679 255 255 255
0.253 -0.36 0.791 255 255 255
-0.117 -0.087 0.656 255 255 255
0.286 -0.413 0.719 255 255 255
0.263 -0.565 0.756 0 0 0
0.193 -0.275 0.923 255 255 255
-0.022 0.567 1.116 255 255 255
-0.182 -0.109 0.667 255 255 255
-0.15 0.105 0.324 255 255 255
0.141 0.31 0.662 255 255 255
-0.196 -0.012 0.492 255 255 255
0.014 0.117 0.374 0 0 0
0.175 0.171 0.545 255 255 255
0.002 -0.005 0.56 255 255 255
0.13 -0.146 0.967 255 255 255
-0.267 -0.181 0.849 255 255 255
0.052 -0.49 0.745 255 255 255
-0.308 -0.121 0.462 255 255 255
0.019 0.559 1.141 255 255 255
-0.025 -0.05 0.633 255 255 255
0.379 -0.124 0.553 255 255 255
-0.24 -0.251 0.455 0 0 0
0.023 0.033 0.508 255 255 255
0.338 0.186 0.652 255 255 255
-0.23 -0.153 0.509 255 255 255
-0.116 0.176 0.364 255 255 255
-0.14 -0.397 0.824 255 255 255
0.032 -0.119 0.792 255 255 255
-0.163 -0.077 0.617 0 0 0
-0.231 -0.337 0.815 255 255 255
0.366 0.093 0.59 255 255 255
-0.166 0.039 0.42 255 255 255
0.308 0.098 0.621 0 0 0
0.262 -0.564 0.759 0 0 0
-0.259 -0.167 0.477 0 0 0
0.294 -0.529 0.696 0 0 0
-0.013 0.17 0.417 255 255 255
0.331 -0.099 0.645 255 255 255
-0.024 -0.517 0.805 255 255 255
-0.078 0.137 0.329 255 255 255
0.22 0.062 0.544 255 255 255
-0.003 0.578 1.105 255 255 255
0.325 -0.149 0.656 255 255 255
-0.305 -0.155 0.463 0 0 0
0.037 0.114 0.385 255 255 255
0.227 0.106 0.485 255 255 255
-0.065 -0.551 0.761 0 0 0
-0.114 0.036 0.434 255 255 255
0.159 -0.486 0.923 255 255 255
-0.087 0.163 0.371 255 255 255
-0.237 0.032 0.4 255 255 255
-0.13 0.13 0.303 255 255 255
-0.079 0.091 0.371 255 255 255
0.127 -0.527 0.884 255 255 255
0.247 -0.309 0.808 255 255 255
0.152 0.297 0.643 255 255 255
-0.203 -0.188 0.885 255 255 255
0.106 -0.167 0.977 0 0 0
-0.05 0.025 0.487 255 255 255
0.034 0.163 0.439 255 255 255
0.184 -0.493 0.91 255 255 255
-0.323 -0.133 0.466 255 255 255
0.275 -0.27 0.752 255 255 255
0.046 0.143 0.424 0 0 0
0.272 -0.034 0.764 255 255 255
0.079 -0.22 0.845 255 255 255
-0.082 -0.547 0.754 0 0 0
-0.229 0.028 0.419 255 255 255
-0.253 -0.015 0.472 255 255 255
-0.213 -0.155 0.521 255 255 255
0.366 -0.331 0.62 255 255 255
0.022 0.169 0.435 255 255 255
0.073 -0.425 0.903 0 0 0
-0.228 0.557 1.049 255 255 255
0.3 -0.056 0.705 255 255 255
0.332 0.03 0.645 255 255 255
0.221 -0.559 0.839 255 255 255
-0.014 0.097 0.394 255 255 255
0.251 -0.15 0.804 255 255 255
0.074 0.118 0.401 255 255 255
-0.203 -0.264 0.479 255 255 255
-0.085 0.063 0.411 255 255 255
0.299 -0.422 0.692 255 255 255
0.302 0.089 0.623 255 255 255
-0.177 0.047 0.402 255 255 255
-0.028 -0.312 0.788 255 255 255
0.244 0.476 0.871 255 255 255
0.039 0.063 0.459 255 255 255
0.389 -0.099 0.542 255 255 255
0.279 -0.209 0.746 255 255 255
0.218 0.3 0.683 255 255 255
0.172 0.524 1.017 255 255 255
0.024 -0.262 0.899 255 255 255
0.014 0.04 0.489 0 0 0
0.014 -0.043 0.635 255 255 255
0.007 0.13 0.369 255 255 255
-0.2 -0.157 0.526 0 0 0
-0.2 -0.243 0.486 255 255 255
0.018 0.087 0.414 255 255 255
-0.177 0.016 0.453 255 255 255
0.295 -0.207 0.715 255 255 255
0.005 -0.054 0.652 255 255 255
-0.047 -0.034 0.589 255 255 255
0.01 -0.42 0.826 255 255 255
0.298 -0.01 0.714 255 255 255
-0.274 -0.032 0.426 255 255 255
0.192 -0.593 0.862 255 255 255
0.192 -0.119 0.923 255 255 255
0.336 0.073 0.643 255 255 255
-0.132 0.132 0.296 255 255 255
-0.064 -0.021 0.56 255 255 255
0.154 0.57 1.056 255 255 255
-0.204 -0.04 0.534 255 255 255
0.287 -0.539 0.71 0 0 0
0.195 0.038 0.591 255 255 255
0.376 0.06 0.565 255 255 255
0.372 -0.056 0.569 255 255 255
0.264 0.434 0.824 255 255 255
0.244 -0.333 0.812 255 255 255
0.154 0.48 1.063 0 0 0
0.292 -0.536 0.698 0 0 0
0.295 -0.161 0.716 255 255 255
0.159 0.218 0.582 255 255 255
-0.132 0.072 0.377 255 255 255
0.103 0.556 1.148 255 255 255
0.239 -0.476 0.811 255 255 255
-0.077 -0.376 0.747 0 0 0
-0.065 0.041 0.457 255 255 255
-0.397 -0.107 0.574 255 255 255
0.048 -0.072 0.713 255 255 255
0.369 -0.149 0.574 255 255 255
0.378 -0.039 0.559 255 255 255
0.368 0.087 0.584 255 255 255
-0.114 -0.084 0.651 255 255 255
0.34 -0.277 0.626 255 255 255
0.056 0.008 0.541 255 255 255
-0.136 -0.327 0.875 255 255 255
-0.251 -0.118 0.491 255 255 255
-0.099 -0.039 0.577 255 255 255
-0.003 0.131 0.365 255 255 255
0.137 -0.614 0.828 0 0 0
-0.182 -0.323 0.852 255 255 255
-0.141 0.171 0.347 255 255 255
0.293 -0.152 0.721 255 255 255
-0.204 0.038 0.407 255 255 255
0.037 -0.396 0.793 255 255 255
0.037 -0.048 0.66 255 255 255
-0.22 -0.253 0.469 255 255 255
-0.063 -0.315 0.75 255 255 255
0.209 -0.348 0.888 255 255 255
0.299 0.09 0.622 0 0 0
-0.123 0.182 0.363 255 255 255
0.282 -0.156 0.743 255 255 255
-0.19 -0.197 0.893 255 255 255
0.293 -0.025 0.719 255 255 255
0.345 -0.001 0.621 255 255 255
-0.197 -0.254 0.889 255 255 255
0.21 -0.54 0.859 255 255 255
0.031 -0.351 0.819 255 255 255
-0.189 -0.383 0.809 255 255 255
0.237 0.254 0.665 255 255 255
-0.23 -0.036 0.518 255 255 255
0.013 -0.232 0.939 255 255 255
0.161 0.415 1.054 255 255 255
0.014 -0.434 0.82 255 255 255
-0.087 0.056 0.421 255 255 255
-0.073 -0.191 0.777 255 255 255
0.3 -0.425 0.69 255 255 255
0.343 -0.072 0.623 255 255 255
-0.243 -0.1 0.621 255 255 255
0.129 -0.485 0.914 255 255 255
-0.018 0.007 0.533 0 0 0
-0.14 0.12 0.303 255 255 255
0.239 -0.008 0.773 255 255 255
0.15 -0.162 1.004 255 255 255
0.286 -0.381 0.72 255 255 255
-0.085 0.126 0.323 255 255 255
0.075 -0.434 0.904 0 0 0
-0.264 -0.131 0.669 255 255 255
-0.139 0.075 0.37 255 255 255
0.013 0.102 0.398 255 255 255
-0.025 0.061 0.436 255 255 255
-0.131 0.054 0.411 255 255 255
-0.032 0.032 0.484 255 255 255
0.121 0.024 0.57 255 255 255
0.185 0.075 0.501 255 255 255
0.007 0.08 0.416 255 255 255
-0.267 -0.03 0.459 255 255 255
0.084 0.05 0.502 0 0 0
-0.249 -0.176 0.846 255 255 255
-0.255 0.03 0.374 255 255 255
0.14 0.454 1.092 255 255 255
-0.206 0.047 0.387 255 255 255
-0.082 0.115 0.335 255 255 255
0.069 -0.177 0.863 255 255 255
0.404 -0.153 0.554 255 255 255
-0.183 -0.039 0.54 255 255 255
-0.096 -0.031 0.564 255 255 255
-0.253 -0.222 0.455 255 255 255
-0.177 0.077 0.353 255 255 255
-0.276 -0.22 0.873 255 255 255
-0.307 -0.158 0.46 255 255 255
0.272 0.058 0.653 255 255 255
0.075 -0.454 0.792 255 255 255
-0.07 -0.004 0.528 0 0 0
0.051 0.039 0.5 255 255 255
0.034 0.097 0.409 255 255 255
0.147 0.055 0.526 0 0 0
0.023 0.15 0.42 0 0 0
-0.122 -0.082 0.644 255 255 255
-0.034 -0.03 0.59 0 0 0
0.248 -0.068 0.811 255 255 255
-0.175 0.024 0.441 255 255 255
-0.333 -0.137 0.657 255 255 255
-0.012 0.018 0.516 255 255 255
0.22 -0.074 0.866 255 255 255
-0.183 -0.363 0.459 255 255 255
0.047 -0.45 0.766 255 255 255
0.042 0.037 0.496 255 255 255
0.24 -0.299 0.825 255 255 255
0.08 0.077 0.453 255 255 255
0.306 -0.218 0.69 255 255 255
0.214 -0.091 0.878 255 255 255
-0.167 0.076 0.357 255 255 255
0.129 0.05 0.526 255 255 255
-0.052 0.131 0.338 255 255 255
0.008 0.04 0.486 255 255 255
-0.041 0.564 1.111 255 255 255
0.18 -0.6 0.855 255 255 255
0.271 -0.388 0.754 255 255 255
0.082 0.137 0.433 0 0 0
0.075 -0.414 0.937 0 0 0
0.169 -0.246 0.97 255 255 255
0.185 0.39 0.987 255 255 255
-0.131 0.053 0.412 255 255 255
-0.284 0.548 1.037 255 255 255
-0.152 -0.314 0.876 255 255 255
-0.225 -0.17 0.502 255 255 255
-0.115 -0.191 0.856 255 255 255
0.385 -0.027 0.544 255 255 255
0.217 -0.483 0.856 255 255 255
0.311 -0.154 0.683 255 255 255
0.181 -0.469 0.918 255 255 255
0.074 -0.389 0.953 255 255 255
-0.165 -0.294 0.461 0 0 0
0.258 -0.243 0.788 255 255 255
-0.02 -0.031 0.596 255 255 255
0.32 0.012 0.67 255 255 255
-0.102 0.099 0.355 0 0 0
0.272 -0.122 0.76 255 255 255
-0.35 -0.093 0.551 255 255 255
0.348 -0.025 0.617 255 255 255
-0.147 0.038 0.429 255 255 255
0.294 0.025 0.724 255 255 255
-0.155 0.039 0.425 255 255 255
0.212 -0.252 0.888 255 255 255
-0.209 0.031 0.414 255 255 255
-0.09 -0.369 0.792 255 255 255
0.393 -0.112 0.541 255 255 255
0.355 -0.069 0.602 255 255 255
0.343 -0.142 0.619 255 255 255
0.383 -0.077 0.545 255 255 255
-0.104 0.07 0.394 255 255 255
-0.057 -0.34 0.766 255 255 255
-0.087 0.183 0.385 255 255 255
0.001 0.063 0.446 255 255 255
0.279 0.071 0.634 255 255 255
0.314 -0.15 0.679 255 255 255
-0.055 0.101 0.37 255 255 255
-0.049 -0.049 0.616 255 255 255
0.369 -0.121 0.575 255 255 255
0.259 -0.294 0.786 255 255 255
-0.146 0.042 0.425 255 255 255
-0.296 -0.039 0.425 255 255 255
0.271 -0.502 0.743 255 255 255
-0.123 -0.402 0.829 255 255 255
0.054 -0.445 0.774 255 255 255
-0.282 -0.047 0.451 255 255 255
0.267 -0.242 0.766 255 255 255
-0.213 0.059 0.379 255 255 255
0.207 0.233 0.615 255 255 255
-0.187 -0.083 0.617 255 255 255
-0.279 -0.136 0.484 0 0 0
0.229 0.012 0.714 255 255 255
0.24 -0.118 0.824 255 255 255
0.033 -0.586 0.79 0 0 0
0.249 -0.066 0.808 255 255 255
-0.048 0.014 0.507 255 255 255
-0.143 0.08 0.359 255 255 255
0.179 0.211 0.579 255 255 255
0.016 0.069 0.44 255 255 255
-0.109 0.136 0.308 255 255 255
0.326 -0.508 0.669 0 0 0
-0.162 -0.267 0.473 255 255 255
-0.013 0.132 0.36 255 255 255
-0.163 -0.057 0.58 0 0 0
0.366 -0.109 0.583 255 255 255
0.228 -0.525 0.83 255 255 255
-0.099 0.046 0.434 255 255 255
-0.106 -0.11 0.702 255 255 255
-0.027 0.092 0.396 255 255 255
-0.293 -0.071 0.553 255 255 255
-0.134 0.074 0.372 255 255 255
0.057 -0.47 0.76 255 255 255
-0.168 -0.071 0.603 255 255 255
0.358 0.068 0.601 255 255 255
0.144 -0.041 0.714 255 255 255
0.039 -0.55 0.77 255 255 255
-0.263 -0.124 0.484 0 0 0
0.075 0.086 0.447 255 255 255
0.257 -0.562 0.771 0 0 0
-0.12 -0.44 0.805 255 255 255
0.383 -0.037 0.549 255 255 255
0.129 0.594 1.099 255 255 255
-0.18 -0.055 0.571 255 255 255
0.306 0.192 0.708 255 255 255
0.379 -0.063 0.556 255 255 255
-0.28 -0.241 0.863 255 255 255
0.178 -0.191 0.952 255 255 255
-0.181 0.56 1.045 255 255 255
-0.189 -0.298 0.476 255 255 255
0.283 -0.252 0.738 255 255 255
0.336 -0.141 0.634 255 255 255
0.295 -0.189 0.714 255 255 255
-0.09 0.155 0.358 255 255 255
-0.172 0.081 0.347 255 255 255
-0.059 -0.051 0.617 255 255 255
-0.107 0.029 0.433 255 255 255
0.131 -0.247 1.02 0 0 0
-0.174 -0.178 0.502 255 255 255
-0.017 -0.122 0.772 255 255 255
0.108 0.106 0.42 255 255 255
0.116 -0.391 0.971 255 255 255
0.081 0.037 0.519 255 255 255
-0.287 -0.078 0.529 255 255 255
-0.231 -0.173 0.85 255 255 255
0.315 -0.434 0.663 255 255 255
-0.16 0.092 0.334 255 255 255
-0.17 -0.542 0.709 0 0 0
0.031 0.591 1.102 255 255 255
-0.192 0.072 0.353 255 255 255
-0.058 0.045 0.452 255 255 255
-0.137 -0.457 0.782 255 255 255
0.026 0.103 0.403 255 255 255
0.37 -0.176 0.579 255 255 255
-0.018 -0.574 0.771 0 0 0
-0.214 -0.283 0.464 255 255 255
0.145 -0.418 0.963 255 255 255
0.337 -0.044 0.636 255 255 255
-0.14 0.114 0.31 255 255 255
0.258 -0.423 0.775 255 255 255
0.324 0.046 0.664 255 255 255
0.318 0.061 0.675 255 255 255
0.117 -0.028 0.672 255 255 255
-0.389 -0.113 0.586 255 255 255
-0.097 0.022 0.442 255 255 255
0.382 -0.094 0.548 255 255 255
0.042 0.088 0.427 255 255 255
0.189 0.051 0.561 0 0 0
0.36 -0.214 0.596 255 255 255
-0.164 -0.099 0.658 255 255 255
0.188 -0.594 0.86 255 255 255
0.206 -0.189 0.897 255 255 255
-0.071 0.116 0.339 255 255 255
-0.22 -0.293 0.46 0 0 0
-0.187 -0.283 0.877 255 255 255
-0.134 0.125 0.3 255 255 255
0.031 -0.099 0.754 255 255 255
0.239 0.185 0.603 0 0 0
-0.12 0.561 1.089 255 255 255
-0.088 -0.56 0.739 0 0 0
0.244 -0.526 0.802 255 255 255
-0.226 -0.22 0.474 0 0 0
-0.319 -0.126 0.459 255 255 255
0.255 -0.27 0.796 255 255 255
0.128 0.165 0.494 255 255 255
0.15 0.065 0.508 0 0 0
-0.125 0.093 0.347 255 255 255
0.301 0.029 0.709 255 255 255
0.12 0.143 0.421 255 255 255
-0.076 0.099 0.367 0 0 0
-0.234 -0.022 0.493 255 255 255
0.255 -0.395 0.786 255 255 255
0.16 0.259 0.623 255 255 255
0.237 0.404 0.805 255 255 255
0.003 -0.174 0.859 255 255 255
-0.206 -0.234 0.486 255 255 255
-0.26 0.008 0.428 255 255 255
0.316 -0.508 0.672 0 0 0
0.022 0.153 0.424 0 0 0
0.308 -0.381 0.676 255 255 255
0.178 -0.05 0.796 0 0 0
-0.083 -0.265 0.767 255 255 255
0.078 -0.399 0.95 255 255 255
-0.173 -0.168 0.506 255 255 255
-0.018 0.059 0.444 255 255 255
-0.134 0.195 0.364 255 255 255
0.345 -0.046 0.623 255 255 255
0.226 -0.611 0.819 0 0 0
0.318 0.107 0.603 255 255 255
-0.11 -0.494 0.777 255 255 255
-0.169 -0.241 0.481 255 255 255
-0.087 0.115 0.338 255 255 255
-0.246 0.015 0.431 0 0 0
0.333 0.236 0.668 255 255 255
-0.336 0.548 1.006 255 255 255
-0.253 -0.117 0.49 255 255 255
0.242 0.104 0.501 255 255 255
0.011 -0.506 0.834 0 0 0
-0.151 0.038 0.43 255 255 255
-0.198 -0.293 0.472 255 255 255
0.324 -0.213 0.653 255 255 255
0.297 0.276 0.742 255 255 255
-0.148 0.087 0.342 255 255 255
0.256 -0.525 0.773 255 255 255
-0.155 0.076 0.362 255 255 255
0.032 0.175 0.447 255 255 255
0.278 -0.176 0.748 255 255 255
0.313 -0.428 0.669 255 255 255
-0.081 -0.502 0.785 255 255 255
-0.017 -0.511 0.813 255 255 255
0.129 0.468 1.09 255 255 255
0.092 -0.538 0.757 255 255 255
0.134 0.485 1.074 0 0 0
0.011 -0.27 0.887 255 255 255
0.343 -0.103 0.621 255 255 255
0.313 -0.247 0.676 255 255 255
0.209 -0.612 0.845 0 0 0
0.343 -0.403 0.642 255 255 255
-0.084 0.187 0.387 255 255 255
-0.182 -0.471 0.749 255 255 255
-0.103 0.117 0.325 255 255 255
-0.14 0.123 0.3 255 255 255
0.27 -0.137 0.765 255 255 255
-0.015 -0.526 0.805 255 255 255
0.325 0.072 0.664 255 255 255
0.051 -0.115 0.798 255 255 255
0.234 -0.236 0.838 255 255 255
0.308 0.008 0.695 255 255 255
0.322 -0.241 0.656 255 255 255
-0.245 -0.047 0.531 255 255 255
-0.114 -0.468 0.791 255 255 255
-0.042 0.048 0.451 255 255 255
-0.003 0.053 0.461 255 255 255
0.309 -0.107 0.688 255 255 255
-0.221 0.053 0.387 255 255 255
-0.196 -0.105 0.652 255 255 255
-0.102 0.563 1.09 255 255 255
-0.213 -0.175 0.509 255 255 255
0.01 0.028 0.509 0 0 0
0.343 -0.128 0.621 255 255 255
0.006 0.111 0.382 255 255 255
-0.09 0.179 0.381 255 255 255
0.328 -0.145 0.649 255 255 255
0.069 -0.055 0.69 255 255 255
-0.178 0.028 0.432 255 255 255
0 -0.022 0.588 255 255 255
0.3 -0.201 0.704 255 255 255
-0.198 -0.122 0.517 255 255 255
-0.266 -0.041 0.513 255 255 255
0.378 -0.109 0.555 255 255 255
-0.053 -0.049 0.614 255 255 255
0.306 -0.075 0.696 255 255 255
0.121 -0.215 1.034 0 0 0
0.267 0.084 0.606 255 255 255
0.073 -0.487 0.759 255 255 255
-0.208 -0.224 0.489 255 255 255
0.157 0.276 0.625 255 255 255
-0.169 -0.018 0.521 255 255 255
-0.204 0.039 0.406 255 255 255
0.006 0.178 0.435 255 255 255
0.121 -0.593 0.837 255 255 255
0.38 -0.054 0.554 255 255 255
0.159 -0.235 0.988 255 255 255
-0.192 -0.22 0.502 0 0 0
0.117 0.004 0.588 255 255 255
0.096 -0.485 0.9 0 0 0
-0.313 -0.057 0.449 255 255 255
0.333 -0.061 0.643 255 255 255
0.258 0.01 0.75 0 0 0
0.013 0.096 0.409 255 255 255
-0.093 -0.45 0.814 255 255 255
0.116 -0.08 0.77 255 255 255
0.303 -0.251 0.698 255 255 255
0.135 -0.615 0.826 0 0 0
-0.102 -0.501 0.775 255 255 255
0.297 0.366 0.753 255 255 255
-0.187 0.03 0.427 255 255 255
-0.057 0.079 0.394 255 255 255
-0.114 0.037 0.436 255 255 255
-0.039 0.057 0.438 255 255 255
0.348 -0.268 0.616 255 255 255
-0.267 -0.155 0.478 0 0 0
-0.254 -0.396 0.779 255 255 255
-0.002 -0.235 0.92 255 255 255
-0.192 -0.032 0.526 255 255 255
0.037 -0.027 0.617 255 255 255
-0.23 -0.003 0.463 255 255 255
0.244 -0.158 0.815 255 255 255
-0.066 0.574 1.086 255 255 255
-0.108 -0.422 0.817 0 0 0
0.091 -0.23 0.824 255 255 255
-0.199 -0.211 0.894 0 0 0
0.203 -0.458 0.884 255 255 255
0.239 0.106 0.488 255 255 255
0.046 -0.219 0.962 255 255 255
0.374 -0.148 0.569 255 255 255
-0.164 0.065 0.377 255 255 255
-0.007 0.071 0.428 255 255 255
0.098 -0.525 0.871 0 0 0
-0.12 0.11 0.328 255 255 255
-0.031 0.184 0.398 255 255 255
0.273 -0.168 0.757 255 255 255
0.349 -0.196 0.611 255 255 255
0.326 -0.217 0.652 255 255 255
0.05 0.028 0.502 255 255 255
-0.282 -0.159 0.469 0 0 0
-0.133 -0.053 0.586 255 255 255
-0.2 -0.124 0.514 255 255 255
0.366 0.094 0.59 255 255 255
-0.078 0.088 0.373 255 255 255
-0.011 0.16 0.412 255 255 255
-0.002 -0.019 0.583 255 255 255
0.071 -0.441 0.789 255 255 255
-0.345 -0.068 0.451 255 255 255
0.014 -0.307 0.875 255 255 255
-0.135 -0.374 0.843 255 255 255
0.033 -0.004 0.543 255 255 255
0.286 -0.033 0.737 255 255 255
0.024 -0.043 0.641 0 0 0
-0.101 0.134 0.31 255 255 255
-0.212 -0.431 0.76 255 255 255
-0.179 0.03 0.428 255 255 255
0.147 0.085 0.484 255 255 255
-0.138 0.179 0.353 255 255 255
-0.087 0.102 0.356 255 255 255
0.202 -0.161 0.902 255 255 255
0.187 -0.278 0.935 255 255 255
-0.194 -0.164 0.518 0 0 0
0.095 -0.297 0.832 0 0 0
-0.12 -0.353 0.85 0 0 0
-0.062 -0.007 0.537 255 255 255
-0.034 -0.161 0.836 0 0 0
0.329 -0.06 0.653 255 255 255
-0.244 -0.232 0.88 255 255 255
0.252 0.453 0.85 255 255 255
-0.258 -0.151 0.488 255 255 255
0.276 -0.3 0.752 255 255 255
0.124 -0.401 0.968 255 255 255
-0.077 0 0.517 255 255 255
0.131 0.061 0.506 255 255 255
0.131 0.063 0.502 255 255 255
0.294 -0.427 0.702 255 255 255
-0.168 -0.196 0.497 255 255 255
0.26 -0.578 0.765 0 0 0
-0.115 -0.302 0.862 0 0 0
-0.18 -0.206 0.495 0 0 0
0.346 0.092 0.624 255 255 255
-0.063 -0.114 0.731 255 255 255
0.307 0.353 0.733 255 255 255
0.297 -0.013 0.715 255 255 255
-0.184 -0.301 0.476 0 0 0
-0.079 0.104 0.357 255 255 255
0.185 0.028 0.608 255 255 255
0.009 0.089 0.41 255 255 255
-0.338 -0.054 0.447 255 255 255
0.174 0.466 1.022 0 0 0
-0.135 0.123 0.307 255 255 255
-0.057 0.135 0.34 255 255 255
0.164 0.537 1.018 255 255 255
0.097 0.127 0.422 255 255 255
-0.127 0.113 0.322 255 255 255
-0.067 0.098 0.372 0 0 0
0.034 -0.552 0.784 255 255 255
-0.244 -0.234 0.879 255 255 255
-0.226 -0.31 0.451 0 0 0
-0.077 0.573 1.078 255 255 255
0.373 -0.046 0.568 255 255 255
0.003 -0.4 0.839 255 255 255
0.078 0.526 1.19 0 0 0
-0.232 -0.026 0.503 255 255 255
0.327 0.034 0.657 255 255 255
0.134 -0.569 0.859 255 255 255
-0.094 0.129 0.318 255 255 255
-0.295 -0.079 0.51 255 255 255
0.319 0.281 0.7 255 255 255
0.231 -0.27 0.847 255 255 255
-0.278 -0.089 0.589 255 255 255
-0.281 -0.155 0.472 0 0 0
0.107 -0.29 0.816 255 255 255
0.085 0.154 0.461 0 0 0
0.083 -0.432 0.928 255 255 255
0.128 -0.111 0.864 0 0 0
0.066 0.023 0.531 255 255 255
-0.167 -0.431 0.787 255 255 255
0.25 0.072 0.582 255 255 255
0.259 0.449 0.837 255 255 255
0.275 -0.022 0.759 255 255 255
-0.013 0.038 0.481 255 255 255
-0.009 -0.481 0.839 255 255 255
-0.207 -0.149 0.53 0 0 0
0.339 -0.227 0.629 255 255 255
0.246 0.459 0.864 255 255 255
0.276 -0.044 0.756 255 255 255
-0.244 -0.024 0.494 255 255 255
0.291 -0.295 0.721 255 255 255
-0.25 -0.086 0.595 255 255 255
-0.045 0.018 0.5 255 255 255
0.253 -0.237 0.801 255 255 255
0.333 -0.086 0.643 255 255 255
-0.087 0.542 1.125 255 255 255
0.299 -0.328 0.7 255 255 255
0.006 -0.035 0.617 255 255 255
0.114 -0.491 0.906 255 255 255
0.019 -0.061 0.673 255 255 255
-0.191 -0.451 0.759 255 255 255
0.088 0.055 0.494 0 0 0
-0.101 0.068 0.397 255 255 255
-0.208 0.011 0.449 255 255 255
0.093 0.121 0.413 255 255 255
-0.283 -0.134 0.482 0 0 0
0.055 -0.387 0.81 255 255 255
-0.14 0.118 0.312 255 255 255
-0.034 -0.529 0.788 255 255 255
0.383 0.012 0.552 255 255 255
0.017 0.079 0.424 255 255 255
0.27 0.384 0.808 255 255 255
0.03 0.125 0.378 255 255 255
0.198 -0.305 0.913 255 255 255
0.292 -0.027 0.724 255 255 255
-0.025 -0.001 0.541 255 255 255
0.2 0.069 0.528 255 255 255
-0.075 -0.009 0.535 255 255 255
0.331 0.169 0.665 255 255 255
-0.013 0.054 0.453 255 255 255
0.237 -0.256 0.832 255 255 255
0.023 0.077 0.429 255 255 255
0.036 -0.329 0.834 255 255 255
0.182 -0.18 0.943 255 255 255
0.02 0.1 0.405 255 255 255
-0.181 -0.536 0.706 0 0 0
-0.232 -0.211 0.883 0 0 0
-0.084 0.043 0.441 255 255 255
0.039 0.053 0.48 0 0 0
-0.181 -0.334 0.467 255 255 255
0.132 -0.041 0.708 255 255 255
-0.204 0.053 0.376 255 255 255
0.194 0.147 0.528 0 0 0
-0.176 -0.315 0.465 0 0 0
0.019 0.007 0.531 255 255 255
-0.219 0.06 0.378 255 255 255
0.021 -0.503 0.804 0 0 0
0.27 -0.194 0.764 255 255 255
-0.136 -0.386 0.833 255 255 255
0.27 0.399 0.81 255 255 255
0.115 0.151 0.474 0 0 0
-0.162 0.096 0.331 255 255 255
-0.267 -0.153 0.481 0 0 0
0.349 0.06 0.614 255 255 255
0.207 0.378 0.938 255 255 255
0.293 -0.062 0.721 255 255 255
-0.251 -0.118 0.649 255 255 255
0.114 0.582 1.125 255 255 255
0.152 -0.614 0.837 0 0 0
0.302 -0.438 0.69 255 255 255
-0.274 -0.154 0.476 0 0 0
0.308 -0.155 0.69 255 255 255
-0.21 -0.386 0.795 255 255 255
0.333 -0.322 0.639 255 255 255
-0.065 0.165 0.384 255 255 255
-0.017 -0.105 0.743 255 255 255
0.307 0.352 0.735 255 255 255
-0.073 0.158 0.372 255 255 255
0.16 -0.566 0.871 255 255 255
-0.095 0.119 0.326 255 255 255
-0.226 0.55 1.056 255 255 255
-0.34 -0.084 0.519 255 255 255
-0.236 -0.206 0.47 255 255 255
0.178 0.076 0.493 255 255 255
-0.093 0.113 0.338 255 255 255
0.278 -0.029 0.753 255 255 255
-0.28 -0.149 0.477 255 255 255
0.195 -0.187 0.919 255 255 255
-0.226 -0.323 0.829 255 255 255
-0.159 -0.127 0.707 255 255 255
-0.063 0.127 0.331 255 255 255
0.076 0.164 0.464 255 255 255
0.036 0.087 0.422 255 255 255
0.227 0.106 0.502 255 255 255
0.029 0.566 1.136 255 255 255
-0.206 -0.053 0.556 255 255 255
0.265 -0.067 0.774 255 255 255
0.231 -0.438 0.832 255 255 255
-0.18 -0.339 0.465 0 0 0
-0.248 -0.045 0.527 255 255 255
0.288 -0.038 0.73 255 255 255
0.055 0.05 0.492 0 0 0
0.238 -0.1 0.829 255 255 255
-0.184 0.071 0.36 255 255 255
-0.255 -0.022 0.447 255 255 255
0.348 0.092 0.621 255 255 255
0.344 -0.244 0.618 255 255 255
0.264 -0.096 0.777 255 255 255
0.27 -0.372 0.757 255 255 255
0.157 -0.063 0.788 0 0 0
0.362 -0.147 0.59 255 255 255
-0.132 -0.219 0.882 0 0 0
-0.276 -0.096 0.6 255 255 255
-0.03 0.115 0.358 255 255 255
-0.129 0.054 0.41 255 255 255
-0.065 0.557 1.113 255 255 255
0.361 0.006 0.59 255 255 255
-0.238 -0.024 0.495 255 255 255
0.036 0.018 0.514 255 255 255
-0.031 0.186 0.4 255 255 255
-0.195 -0.224 0.904 255 255 255
-0.131 0.568 1.071 255 255 255
0.156 0.543 1.041 255 255 255
-0.208 -0.458 0.744 255 255 255
0.319 -0.314 0.664 255 255 255
0.1 -0.542 0.859 0 0 0
-0.026 -0.11 0.748 255 255 255
0.121 0.163 0.436 255 255 255
0.369 -0.192 0.583 255 255 255
-0.121 -0.527 0.746 255 255 255
-0.152 0.092 0.335 255 255 255
-0.205 -0.343 0.45 0 0 0
-0.209 -0.332 0.452 0 0 0
0.19 -0.528 0.89 255 255 255
-0.197 -0.299 0.86 255 255 255
-0.17 -0.126 0.702 255 255 255
0.211 -0.14 0.883 255 255 255
0.257 -0.063 0.792 255 255 255
-0.187 -0.464 0.754 255 255 255
-0.233 -0.463 0.73 255 255 255
0.174 0.106 0.458 255 255 255
-0.252 -0.01 0.406 255 255 255
-0.209 -0.258 0.882 255 255 255
0.308 0.302 0.723 255 255 255
0.299 -0.035 0.709 255 255 255
0.263 -0.181 0.781 255 255 255
0.121 -0.312 0.852 255 255 255
0.225 -0.198 0.858 255 255 255
-0.067 -0.08 0.666 255 255 255
0.265 0.076 0.607 255 255 255
-0.122 -0.198 0.871 255 255 255
0.355 0.037 0.598 255 255 255
0.05 0.091 0.419 255 255 255
-0.015 -0.337 0.761 255 255 255
-0.011 0.039 0.481 255 255 255
0.044 0.051 0.487 0 0 0
0.383 -0.111 0.546 255 255 255
0.09 -0.608 0.803 0 0 0
-0.283 -0.133 0.482 0 0 0
0.122 -0.566 0.853 255 255 255
0.24 -0.541 0.804 255 255 255
-0.112 -0.096 0.675 255 255 255
0.011 0.101 0.4 255 255 255
-0.144 0.097 0.339 255 255 255
-0.048 -0.144 0.789 0 0 0
-0.064 0.158 0.378 255 255 255
-0.049 -0.224 0.791 255 255 255
0.354 -0.016 0.605 255 255 255
-0.26 -0.348 0.803 255 255 255
0.333 0.153 0.651 255 255 255
-0.029 0.006 0.53 255 255 255
-0.238 -0.186 0.48 0 0 0
-0.16 0.106 0.32 255 255 255
-0.194 -0.275 0.878 255 255 255
0.208 0.058 0.552 0 0 0
0.221 -0.407 0.858 255 255 255
0.193 0.06 0.545 0 0 0
-0.273 -0.231 0.863 255 255 255
0.189 0.035 0.598 255 255 255
-0.189 0.087 0.338 255 255 255
0.314 -0.254 0.673 255 255 255
-0.064 -0.015 0.551 255 255 255
-0.053 0.017 0.499 255 255 255
0.079 0.162 0.464 255 255 255
-0.193 -0.337 0.461 0 0 0
0.334 -0.317 0.637 255 255 255
-0.259 -0.235 0.448 255 255 255
-0.156 -0.331 0.861 255 255 255
-0.367 -0.123 0.625 255 255 255
-0.014 0.049 0.461 255 255 255
-0.215 -0.178 0.506 255 255 255
0.355 0.089 0.608 255 255 255
0.313 -0.275 0.674 255 255 255
0.289 0.366 0.763 255 255 255
0.017 -0.156 0.866 255 255 255
0.025 0.059 0.46 255 255 255
-0.087 0.061 0.413 255 255 255
-0.058 0.098 0.376 0 0 0
-0.116 0.051 0.422 255 255 255
0.32 0.262 0.694 255 255 255
0.177 -0.014 0.659 255 255 255
0.258 -0.431 0.778 255 255 255
0.067 0.048 0.499 255 255 255
0.082 -0.231 0.84 255 255 255
0.376 -0.105 0.556 255 255 255
0.036 0.044 0.493 255 255 255
-0.172 0.096 0.328 255 255 255
-0.141 -0.344 0.86 255 255 255
-0.201 -0.122 0.515 255 255 255
-0.214 -0.473 0.729 255 255 255
0.304 -0.139 0.695 255 255 255
0.045 -0.36 0.82 255 255 255
0.106 -0.009 0.57 255 255 255
0.29 0.011 0.732 255 255 255
0.23 -0.096 0.842 255 255 255
0.22 -0.422 0.858 255 255 255
0.04 -0.027 0.617 255 255 255
-0.173 0.003 0.476 255 255 255
-0.213 -0.012 0.487 255 255 255
0.324 -0.053 0.661 255 255 255
0.379 -0.219 0.585 255 255 255
-0.169 0.088 0.333 255 255 255
0.253 -0.041 0.802 0 0 0
-0.159 -0.493 0.747 255 255 255
-0.041 -0.116 0.745 255 255 255
0.08 -0.387 0.959 255 255 255
-0.057 -0.15 0.804 0 0 0
0.278 -0.02 0.753 255 255 255
0.033 -0.506 0.774 255 255 255
0.35 -0.173 0.611 255 255 255
-0.309 -0.067 0.466 255 255 255
-0.25 0.015 0.4 255 255 255
0.137 0.011 0.6 255 255 255
-0.063 0.092 0.381 255 255 255
-0.033 -0.04 0.608 255 255 255
-0.132 -0.331 0.875 255 255 255
0.228 0.028 0.669 255 255 255
0.005 0.116 0.379 255 255 255
-0.042 -0.494 0.81 255 255 255
-0.141 -0.062 0.599 255 255 255
0.155 0.046 0.55 0 0 0
-0.09 0.116 0.331 255 255 255
0.204 -0.523 0.875 255 255 255
-0.071 0.089 0.373 255 255 255
0.043 -0.279 1.01 0 0 0
-0.152 -0.057 0.586 255 255 255
-0.21 0.073 0.358 255 255 255
0.283 -0.335 0.733 255 255 255
0.052 0.069 0.455 255 255 255
0.166 -0.574 0.868 255 255 255
-0.086 0.058 0.42 255 255 255
-0.231 -0.22 0.468 0 0 0
0.117 -0.053 0.723 255 255 255
-0.131 0.091 0.344 255 255 255
-0.249 -0.052 0.539 255 255 255
-0.14 -0.475 0.771 255 255 255
-0.115 -0.45 0.801 255 255 255
-0.293 -0.101 0.602 255 255 255
-0.237 -0.137 0.513 0 0 0
0.036 0.109 0.399 255 255 255
-0.164 0.092 0.331 255 255 255
-0.032 -0.312 0.765 255 255 255
-0.279 -0.161 0.468 0 0 0
-0.115 0.101 0.343 255 255 255
-0.024 -0.345 0.754 255 255 255
-0.103 0.121 0.32 255 255 255
0.286 0.083 0.627 255 255 255
-0.319 -0.068 0.461 255 255 255
0.125 -0.031 0.687 255 255 255
0.284 -0.442 0.718 255 255 255
0.355 0.01 0.602 255 255 255
0.002 0.092 0.409 0 0 0
-0.16 0.063 0.383 255 255 255
-0.239 -0.18 0.482 0 0 0
0.055 0.062 0.47 255 255 255
0.267 0.354 0.8 0 0 0
0.308 -0.393 0.676 255 255 255
-0.018 -0.5 0.817 255 255 255
0.278 -0.11 0.752 255 255 255
-0.079 -0.086 0.67 255 255 255
0.206 0.316 0.68 255 255 255
-0.023 -0.019 0.574 0 0 0
0.276 -0.174 0.753 255 255 255
0.038 -0.133 0.822 255 255 255
-0.255 -0.34 0.802 255 255 255
0.372 -0.005 0.573 255 255 255
-0.067 0.167 0.386 255 255 255
0.229 -0.469 0.836 255 255 255
-0.208 0.041 0.398 255 255 255
-0.119 -0.243 0.835 0 0 0
-0.222 -0.014 0.487 255 255 255
0.297 0.413 0.76 255 255 255
0.296 -0.223 0.71 255 255 255
0.095 0.039 0.521 255 255 255
-0.042 0.11 0.363 255 255 255
0.093 -0.196 0.855 255 255 255
0.266 -0.53 0.753 255 255 255
-0.203 -0.213 0.495 255 255 255
0.216 -0.044 0.831 255 255 255
-0.264 -0.135 0.495 0 0 0
0.316 -0.238 0.667 255 255 255
0.346 -0.241 0.614 255 255 255
0.011 -0.244 0.889 255 255 255
0.343 -0.393 0.644 255 255 255
0.121 0.082 0.466 255 255 255
-0.084 0.119 0.33 255 255 255
-0.032 0.035 0.48 255 255 255
0.228 -0.084 0.849 255 255 255
0.356 -0.206 0.601 255 255 255
0.076 0.144 0.444 0 0 0
-0.038 -0.132 0.775 255 255 255
-0.365 -0.094 0.556 255 255 255
0.147 0.31 0.655 255 255 255
-0.222 -0.263 0.465 255 255 255
0.122 -0.396 0.971 255 255 255
0.145 -0.304 0.993 0 0 0
-0.34 -0.091 0.548 255 255 255
0.156 0.023 0.596 255 255 255
-0.016 -0.055 0.645 255 255 255
-0.084 0.578 1.071 255 255 255
0.303 -0.017 0.705 255 255 255
0.375 -0.192 0.579 255 255 255
-0.138 0.083 0.356 255 255 255
0.37 -0.123 0.572 255 255 255
-0.121 0.055 0.413 255 255 255
-0.26 -0.218 0.453 255 255 255
-0.272 -0.061 0.544 255 255 255
0.192 0.466 0.994 255 255 255
0.109 0.119 0.42 255 255 255
0.371 -0.097 0.566 255 255 255
-0.05 -0.23 0.789 255 255 255
0.16 0.24 0.602 255 255 255
0.285 -0.396 0.723 255 255 255
0.25 -0.539 0.784 255 255 255
0.294 -0.174 0.716 255 255 255
0.097 -0.374 0.974 255 255 255
-0.199 -0.238 0.491 255 255 255
-0.055 0.114 0.347 255 255 255
-0.096 0.019 0.442 255 255 255
0.097 -0.084 0.767 255 255 255
0.279 -0.512 0.726 255 255 255
-0.199 -0.202 0.506 255 255 255
-0.386 -0.128 0.61 255 255 255
-0.037 0.032 0.482 255 255 255
-0.009 0.036 0.486 255 255 255
0.271 -0.084 0.763 255 255 255
-0.172 -0.304 0.461 0 0 0
0.325 -0.007 0.658 255 255 255
0.264 -0.152 0.777 255 255 255
0.175 -0.407 0.945 255 255 255
0.242 -0.042 0.823 0 0 0
0.313 -0.165 0.679 255 255 255
-0.207 -0.324 0.457 255 255 255
-0.027 0.021 0.504 255 255 255
0.315 -0.466 0.669 255 255 255
0.298 -0.479 0.696 255 255 255
0.12 0.023 0.572 0 0 0
0.003 -0.085 0.715 255 255 255
-0.18 0.027 0.433 255 255 255
-0.112 -0.043 0.578 255 255 255
-0.166 -0.334 0.445 0 0 0
-0.077 -0.253 0.777 255 255 255
0.257 -0.181 0.789 255 255 255
0.092 -0.052 0.701 255 255 255
0.103 -0.105 0.806 0 0 0
0.336 0.049 0.639 255 255 255
-0.083 -0.254 0.77 255 255 255
-0.063 0.056 0.432 255 255 255
0.157 0.224 0.613 255 255 255
-0.175 -0.177 0.502 255 255 255
0.033 0.182 0.45 255 255 255
0.04 0.06 0.466 255 255 255
-0.242 -0.293 0.84 255 255 255
-0.136 0.535 1.109 255 255 255
-0.022 -0.544 0.786 255 255 255
0.018 -0.534 0.82 255 255 255
0.304 -0.44 0.68 255 255 255
-0.203 -0.036 0.529 255 255 255
-0.155 -0.463 0.772 255 255 255
-0.245 -0.205 0.869 0 0 0
0.144 -0.265 1.008 0 0 0
0.162 0.168 0.531 255 255 255
0.279 -0.327 0.743 255 255 255
0.314 -0.237 0.671 255 255 255
0.248 -0.329 0.806 255 255 255
0.25 -0.456 0.788 255 255 255
-0.077 0.186 0.39 255 255 255
-0.168 0.057 0.389 255 255 255
0.106 0.046 0.524 255 255 255
-0.212 -0.257 0.473 255 255 255
0.375 -0.237 0.593 255 255 255
-0.16 0.018 0.457 255 255 255
-0.114 0.106 0.336 255 255 255
-0.159 0.052 0.402 255 255 255
0.04 0.046 0.493 255 255 255
-0.054 0.056 0.435 255 255 255
0.221 -0.1 0.863 255 255 255
0.022 0.035 0.503 0 0 0
-0.179 -0.059 0.577 255 255 255
0.108 0.508 1.14 0 0 0
-0.053 0.076 0.401 255 255 255
0.268 -0.369 0.763 255 255 255
-0.176 -0.439 0.777 255 255 255
-0.111 0.06 0.407 255 255 255
-0.062 0.112 0.35 255 255 255
-0.191 -0.423 0.78 255 255 255
-0.184 0.017 0.448 255 255 255
-0.094 0.11 0.343 255 255 255
-0.037 -0.269 0.781 255 255 255
-0.026 -0.454 0.846 255 255 255
-0.033 0.163 0.397 255 255 255
-0.038 0.134 0.35 255 255 255
-0.259 -0.14 0.497 0 0 0
0.024 0.561 1.139 255 255 255
-0.089 -0.028 0.562 255 255 255
0.379 0.003 0.557 255 255 255
-0.018 -0.143 0.81 255 255 255
-0.245 -0.248 0.453 0 0 0
-0.255 -0.005 0.464 255 255 255
0.092 -0.407 0.952 255 255 255
0.092 0.234 0.436 255 255 255
-0.089 0.061 0.414 255 255 255
0.361 -0.022 0.594 255 255 255
0.354 0.078 0.608 255 255 255
0.309 -0.153 0.689 255 255 255
-0.194 -0.185 0.512 0 0 0
0.077 -0.443 0.899 0 0 0
-0.075 -0.551 0.754 0 0 0
-0.366 -0.103 0.575 255 255 255
0.299 -0.384 0.696 255 255 255
0.138 -0.515 0.895 255 255 255
0.278 0.085 0.619 255 255 255
-0.036 -0.072 0.668 255 255 255
0.085 -0.367 0.975 255 255 255
0.152 -0.615 0.835 0 0 0
-0.268 -0.181 0.461 255 255 255
0.309 0.279 0.722 255 255 255
-0.008 -0.114 0.763 255 255 255
0.177 0.175 0.549 255 255 255
0.28 0.069 0.639 0 0 0
0.291 -0.164 0.723 255 255 255
0.176 -0.38 0.948 255 255 255
0.09 -0.408 0.95 255 255 255
-0.042 -0.231 0.792 255 255 255
-0.16 0.08 0.352 255 255 255
0.327 -0.077 0.656 255 255 255
0.319 0.196 0.687 255 255 255
-0.15 0.065 0.382 255 255 255
0.079 0.059 0.482 255 255 255
0.007 0.07 0.435 255 255 255
0.393 -0.121 0.544 255 255 255
0.019 -0.222 0.949 255 255 255
0.156 0.508 1.039 255 255 255
0.264 0.022 0.73 255 255 255
-0.241 -0.127 0.496 0 0 0
-0.191 0.063 0.368 255 255 255
0.176 -0.33 0.95 255 255 255
-0.183 -0.262 0.483 0 0 0
-0.185 -0.225 0.492 0 0 0
-0.131 0.126 0.312 255 255 255
0.353 0.112 0.61 255 255 255
0.272 -0.35 0.755 255 255 255
-0.25 -0.227 0.454 255 255 255
0.297 -0.191 0.71 255 255 255
0.348 -0.066 0.615 255 255 255
0.355 0.075 0.604 255 255 255
0.182 0.059 0.54 255 255 255
-0.124 0.081 0.366 255 255 255
-0.12 0.109 0.329 255 255 255
-0.184 -0.212 0.494 0 0 0
0.011 0.111 0.385 255 255 255
0.101 0.215 0.424 255 255 255
-0.188 -0.423 0.781 255 255 255
0.277 -0.26 0.749 255 255 255
0.037 0.126 0.383 255 255 255
-0.126 0.044 0.429 255 255 255
0.228 -0.474 0.838 255 255 255
-0.209 -0.21 0.494 255 255 255
-0.034 0.162 0.379 255 255 255
0.031 0.035 0.502 255 255 255
0.266 -0.423 0.758 255 255 255
-0.267 -0.167 0.47 255 255 255
-0.059 0.077 0.397 255 255 255
0.233 0.107 0.486 255 255 255
-0.211 -0.434 0.759 255 255 255
-0.094 0.09 0.363 255 255 255
-0.06 0.024 0.484 255 255 255
-0.067 0.098 0.372 0 0 0
0.137 0.071 0.487 255 255 255
0.373 0.038 0.569 255 255 255
0.148 0.283 0.648 255 255 255
0.112 0.092 0.459 255 255 255
0.076 -0.069 0.721 255 255 255
0.208 -0.228 0.893 255 255 255
-0.06 -0.565 0.751 0 0 0
0.219 -0.565 0.842 255 255 255
-0.174 -0.152 0.805 0 0 0
-0.033 -0.005 0.547 255 255 255
0.316 -0.509 0.671 0 0 0
0.325 0.044 0.662 255 255 255
0.316 0.031 0.679 255 255 255
-0.086 0.075 0.391 255 255 255
0.31 -0.185 0.686 255 255 255
-0.129 0.102 0.34 255 255 255
-0.179 -0.022 0.513 255 255 255
0.011 -0.219 0.927 255 255 255
0.007 0.533 1.175 255 255 255
0.211 -0.195 0.888 255 255 255
-0.063 0.112 0.349 255 255 255
-0.057 -0.489 0.806 255 255 255
-0.045 -0.042 0.607 255 255 255
-0.282 -0.066 0.55 255 255 255
0.34 -0.34 0.631 255 255 255
0.03 -0.282 0.938 255 255 255
0.382 -0.015 0.553 255 255 255
0.009 0.107 0.391 255 255 255
0.252 0.003 0.757 0 0 0
-0.251 -0.245 0.868 255 255 255
0.108 -0.037 0.685 255 255 255
0.296 0.289 0.743 255 255 255
0.138 -0.06 0.745 0 0 0
0.34 -0.149 0.627 255 255 255
-0.214 -0.18 0.506 255 255 255
-0.273 -0.121 0.643 255 255 255
0.125 0.007 0.596 255 255 255
0.123 0.146 0.475 0 0 0
-0.004 0.167 0.421 255 255 255
-0.227 -0.128 0.501 0 0 0
0.294 -0.393 0.704 255 255 255
-0.005 0.13 0.362 255 255 255
0.173 -0.444 0.936 255 255 255
-0.111 0.567 1.085 255 255 255
0.338 -0.228 0.631 255 255 255
0.305 -0.523 0.682 0 0 0
0.302 0.258 0.728 255 255 255
0.062 0.017 0.534 255 255 255
-0.23 0.051 0.385 255 255 255
0.341 -0.264 0.624 255 255 255
-0.073 0.125 0.334 255 255 255
-0.152 0.081 0.355 255 255 255
-0.121 -0.059 0.604 255 255 255
0.298 -0.483 0.691 255 255 255
-0.053 0.563 1.108 255 255 255
0.048 0.042 0.501 255 255 255
0.141 -0.408 0.967 255 255 255
0.319 0.239 0.693 255 255 255
0.113 0.168 0.486 255 255 255
0.195 -0.248 0.919 255 255 255
-0.221 -0.085 0.605 255 255 255
0.328 -0.094 0.652 255 255 255
-0.162 -0.058 0.584 0 0 0
0.225 0.033 0.65 255 255 255
0.197 0.04 0.589 255 255 255
0.259 -0.377 0.775 255 255 255
-0.005 -0.154 0.852 255 255 255
-0.306 -0.091 0.581 255 255 255
-0.194 -0.315 0.851 255 255 255
0.18 -0.494 0.913 255 255 255
0.281 0.083 0.624 255 255 255
0.294 0.019 0.725 255 255 255
-0.167 -0.308 0.869 255 255 255
-0.154 0.11 0.314 255 255 255
0.008 0.18 0.438 255 255 255
-0.229 -0.331 0.821 255 255 255
-0.088 -0.039 0.583 0 0 0
-0.02 -0.269 0.792 255 255 255
-0.243 -0.111 0.64 255 255 255
0.364 -0.303 0.614 255 255 255
0.349 0.015 0.611 255 255 255
-0.114 0.078 0.375 255 255 255
-0.179 -0.211 0.493 0 0 0
0.092 0.081 0.453 255 255 255
-0.252 -0.009 0.411 255 255 255
0.081 0.009 0.499 255 255 255
0.05 0.032 0.497 255 255 255
0.233 -0.106 0.837 255 255 255
-0.267 -0.319 0.821 255 255 255
-0.183 -0.24 0.905 255 255 255
-0.042 0.111 0.356 255 255 255
-0.232 0.561 1.041 255 255 255
-0.229 -0.264 0.867 255 255 255
0.066 -0.468 0.766 255 255 255
-0.375 -0.093 0.553 255 255 255
0.146 -0.376 0.982 255 255 255
0.001 0.181 0.435 255 255 255
-0.059 0.175 0.396 255 255 255
0.065 0.095 0.412 255 255 255
-0.213 -0.261 0.473 255 255 255
-0.212 -0.326 0.836 255 255 255
0.068 0.164 0.458 255 255 255
-0.211 -0.315 0.456 255 255 255
-0.366 0.55 0.993 255 255 255
-0.004 -0.541 0.802 255 255 255
0 -0.298 0.871 255 255 255
0.284 0.011 0.743 255 255 255
0.016 -0.281 0.886 255 255 255
-0.041 -0.513 0.797 255 255 255
-0.11 0.132 0.309 255 255 255
0.211 -0.128 0.885 255 255 255
0.322 0.027 0.665 255 255 255
0.161 0.224 0.591 255 255 255
-0.129 0.136 0.299 255 255 255
-0.262 -0.203 0.856 255 255 255
0.058 0.122 0.394 255 255 255
-0.332 -0.091 0.564 255 255 255
0.303 -0.121 0.699 255 255 255
-0.165 -0.3 0.458 0 0 0
0.181 0.465 1.008 0 0 0
0.183 -0.229 0.941 255 255 255
0.128 -0.218 1.037 0 0 0
0.125 -0.039 0.699 255 255 255
-0.053 -0.055 0.626 255 255 255
0.118 0.169 0.425 255 255 255
0.027 0.115 0.383 255 255 255
0.383 -0.137 0.557 255 255 255
0.103 0.064 0.476 255 255 255
-0.16 -0.014 0.505 255 255 255
-0.225 -0.347 0.811 255 255 255
-0.289 -0.103 0.608 255 255 255
0.185 -0.38 0.93 255 255 255
0.273 0.33 0.786 255 255 255
-0.016 0.163 0.41 255 255 255
-0.009 0.069 0.432 255 255 255
-0.01 0.082 0.406 255 255 255
-0.199 -0.447 0.759 255 255 255
0.126 0.025 0.574 0 0 0
0.257 -0.122 0.791 255 255 255
0.159 -0.225 0.987 255 255 255
0.151 -0.218 1.003 255 255 255
0.182 0.016 0.628 255 255 255
-0.092 0.114 0.336 255 255 255
-0.184 -0.332 0.468 255 255 255
0.001 0.15 0.407 0 0 0
-0.115 -0.108 0.696 255 255 255
0.035 0.135 0.399 255 255 255
-0.248 -0.02 0.483 255 255 255
-0.008 -0.238 0.912 255 255 255
0.242 -0.123 0.819 255 255 255
0.24 -0.287 0.827 255 255 255
0.381 -0.216 0.585 255 255 255
0.239 -0.461 0.816 255 255 255
-0.216 -0.489 0.72 255 255 255
-0.161 -0.287 0.469 255 255 255
-0.211 -0.347 0.82 255 255 255
0.237 -0.444 0.821 255 255 255
0.276 0.105 0.534 0 0 0
-0.118 0.124 0.307 255 255 255
0.375 -0.108 0.561 255 255 255
-0.177 -0.506 0.73 255 255 255
-0.191 -0.356 0.826 255 255 255
0.234 -0.199 0.838 255 255 255
0.078 -0.468 0.791 255 255 255
0.221 0.063 0.542 255 255 255
0.348 0.008 0.614 255 255 255
-0.218 -0.017 0.493 255 255 255
-0.189 -0.03 0.523 255 255 255
-0.03 0.185 0.401 255 255 255
0.24 -0.161 0.825 255 255 255
-0.201 -0.178 0.517 255 255 255
-0.101 0.071 0.393 255 255 255
0.197 -0.592 0.863 255 255 255
0.267 -0.327 0.767 255 255 255
-0.069 -0.527 0.773 255 255 255
0.338 0 0.634 255 255 255
-0.185 0.081 0.341 255 255 255
0.338 -0.408 0.643 255 255 255
-0.113 -0.249 0.89 255 255 255
0.291 -0.068 0.723 255 255 255
-0.192 -0.275 0.48 255 255 255
-0.004 0.033 0.493 0 0 0
-0.187 -0.229 0.908 255 255 255
0.049 -0.212 0.946 255 255 255
0.307 -0.335 0.68 255 255 255
-0.324 -0.108 0.457 255 255 255
0.366 -0.027 0.582 255 255 255
-0.012 0.072 0.423 255 255 255
0.311 -0.001 0.687 255 255 255
-0.183 -0.287 0.48 0 0 0
0.087 0.533 1.178 0 0 0
-0.114 -0.166 0.829 0 0 0
-0.105 -0.095 0.677 255 255 255
0.349 -0.13 0.611 255 255 255
-0.139 0.104 0.328 255 255 255
0.307 -0.298 0.683 255 255 255
-0.297 -0.165 0.459 255 255 255
-0.036 -0.068 0.661 255 255 255
0.248 0.466 0.86 255 255 255
-0.231 0.026 0.423 255 255 255
-0.249 -0.245 0.869 255 255 255
-0.202 -0.237 0.897 255 255 255
0.328 -0.135 0.65 255 255 255
-0.146 0.094 0.336 255 255 255
-0.034 0.053 0.447 255 255 255
-0.059 0.073 0.402 255 255 255
-0.248 0.009 0.447 0 0 0
0.33 -0.415 0.651 255 255 255
0.311 -0.103 0.685 255 255 255
-0.137 0.056 0.405 255 255 255
-0.137 -0.05 0.58 255 255 255
0.158 0.574 1.048 255 255 255
0.005 -0.142 0.817 0 0 0
-0.112 0.073 0.384 255 255 255
0.246 -0.385 0.805 255 255 255
-0.018 0.111 0.37 255 255 255
0.286 0.267 0.748 255 255 255
-0.085 0.044 0.441 255 255 255
0.334 0.009 0.64 255 255 255
-0.041 0.092 0.391 255 255 255
0.042 0.547 1.174 255 255 255
0.143 -0.291 0.999 0 0 0
-0.219 -0.507 0.704 255 255 255
-0.044 -0.058 0.639 255 255 255
-0.132 0.108 0.328 255 255 255
-0.183 0.54 1.085 255 255 255
0.314 0.201 0.697 255 255 255
-0.081 -0.02 0.55 255 255 255
0.057 0.556 1.168 255 255 255
-0.097 0.092 0.362 255 255 255
0.289 0.389 0.771 255 255 255
-0.071 0.064 0.415 255 255 255
