ply
format ascii 1.0
comment Created by Open3D
element vertex 1584
property double x
property double y
property double z
property uchar red
property uchar green
property uchar blue
end_header
0.156 0.092 0.675 255 255 255
-0.18 0.081 0.407 255 255 255
-0.052 -0.421 0.944 255 255 255
0.178 -0.382 0.718 255 255 255
0.212 -0.193 0.687 255 255 255
0.245 -0.016 0.655 255 255 255
-0.012 0.499 1.076 255 255 255
0.243 -0.265 0.636 255 255 255
-0.02 0.187 0.443 255 255 255
0.274 -0.132 0.599 255 255 255
0.245 -0.353 0.586 255 255 255
0.039 0.442 0.985 255 255 255
-0.201 0.075 0.409 255 255 255
0.287 -0.079 0.588 255 255 255
0.306 -0.11 0.556 255 255 255
-0.11 -0.128 0.884 255 255 255
0.155 -0.282 0.764 255 255 255
0.127 0.114 0.555 0 0 0
-0.033 -0.388 0.975 255 255 255
0.096 -0.558 0.828 255 255 255
0.283 -0.079 0.59 255 255 255
0.051 -0.515 0.892 255 255 255
0.311 0.139 0.57 255 255 255
-0.125 0.046 0.508 255 255 255
-0.307 -0.02 0.541 255 255 255
0.213 -0.31 0.675 255 255 255
-0.025 0.095 0.468 255 255 255
0.303 -0.01 0.569 255 255 255
0.017 -0.261 0.966 255 255 255
0.164 -0.103 0.758 255 255 255
-0.07 -0.584 0.82 255 255 255
-0.028 0.085 0.487 0 0 0
-0.289 -0.36 0.797 255 255 255
0.071 -0.525 0.868 255 255 255
-0.253 -0.37 0.806 0 0 0
0.293 0.24 0.609 255 255 255
0.261 0.312 0.657 0 0 0
-0.098 0.078 0.458 255 255 255
0.048 0.328 0.652 255 255 255
0.032 0.067 0.58 255 255 255
-0.049 -0.185 1.047 0 0 0
-0.204 -0.289 0.747 255 255 255
-0.044 0.129 0.402 255 255 255
0.055 -0.358 0.907 255 255 255
-0.308 -0.154 0.459 255 255 255
0.191 0.034 0.728 255 255 255
0.085 -0.057 0.873 255 255 255
0.14 -0.048 0.795 255 255 255
0.273 -0.086 0.606 255 255 255
0.068 -0.585 0.859 255 255 255
-0.069 -0.449 0.784 255 255 255
-0.036 -0.424 0.952 255 255 255
-0.192 -0.53 0.76 255 255 255
-0.011 0.171 0.429 255 255 255
0.256 0.19 0.647 255 255 255
0.219 0.203 0.704 255 255 255
0.263 0.053 0.626 255 255 255
-0.296 -0.171 0.463 255 255 255
-0.008 -0.599 0.851 255 255 255
-0.384 -0.049 0.559 255 255 255
-0.066 0.096 0.438 255 255 255
0.011 0.557 1.03 255 255 255
0.165 0.41 0.8 255 255 255
0.026 0.148 0.417 255 255 255
-0.14 0.141 0.321 255 255 255
0.296 0.039 0.58 255 255 255
0.053 -0.399 0.904 255 255 255
0.215 0.129 0.645 255 255 255
0.052 0.164 0.427 255 255 255
0.296 0.035 0.58 255 255 255
0.254 -0.081 0.634 255 255 255
0.093 0.208 0.586 255 255 255
-0.256 0.034 0.457 255 255 255
0.177 -0.101 0.742 255 255 255
0.023 -0.614 0.861 255 255 255
0.252 -0.335 0.613 255 255 255
-0.006 -0.056 0.911 0 0 0
-0.328 -0.123 0.458 0 0 0
-0.123 0.02 0.564 0 0 0
-0.232 0.048 0.443 255 255 255
0.315 -0.274 0.545 255 255 255
-0.181 0.028 0.511 255 255 255
-0.397 -0.233 0.8 255 255 255
0.15 -0.135 0.777 255 255 255
-0.174 0.032 0.507 255 255 255
-0.11 -0.093 0.832 0 0 0
-0.053 0.127 0.399 255 255 255
-0.177 0.071 0.411 255 255 255
-0.062 -0.152 0.853 255 255 255
-0.163 0.093 0.391 255 255 255
-0.219 -0.43 0.805 255 255 255
-0.301 -0.098 0.494 0 0 0
-0.119 0.129 0.357 255 255 255
0.095 -0.153 0.857 255 255 255
-0.074 0.126 0.385 255 255 255
-0.039 0.588 1.103 255 255 255
0.074 -0.635 0.84 0 0 0
0.021 -0.202 0.965 255 255 255
0.03 0.189 0.483 255 255 255
0.282 0.017 0.598 255 255 255
0.145 -0.145 0.786 255 255 255
-0.092 0.052 0.513 255 255 255
-0.304 -0.333 0.803 255 255 255
-0.201 -0.147 0.771 255 255 255
-0.305 -0.383 0.769 255 255 255
0.224 -0.213 0.669 255 255 255
-0.122 0.059 0.483 255 255 255
-0.072 0.153 0.35 255 255 255
-0.03 0.097 0.458 255 255 255
0.301 -0.323 0.556 255 255 255
0.09 0.063 0.639 0 0 0
0.034 -0.176 0.945 255 255 255
-0.16 0.076 0.429 255 255 255
-0.168 -0.546 0.767 255 255 255
0.159 0.43 0.811 255 255 255
0.342 -0.022 0.517 255 255 255
-0.012 -0.504 0.912 255 255 255
-0.026 0.146 0.38 255 255 255
0.266 0.343 0.655 255 255 255
-0.268 -0.517 0.712 0 0 0
0.293 -0.094 0.575 255 255 255
-0.154 0.109 0.364 255 255 255
-0.105 0.156 0.323 255 255 255
0.273 -0.093 0.605 255 255 255
-0.33 0.009 0.468 255 255 255
0.342 -0.02 0.517 255 255 255
0.24 -0.24 0.643 255 255 255
0.266 0.104 0.625 255 255 255
0.206 -0.372 0.68 255 255 255
0.241 0.071 0.658 255 255 255
-0.101 -0.051 0.753 255 255 255
0.172 0.072 0.757 255 255 255
0.006 -0.564 0.885 255 255 255
-0.226 -0.397 0.821 255 255 255
0.02 -0.427 0.943 255 255 255
-0.246 -0.316 0.808 255 255 255
0.11 -0.484 0.815 255 255 255
0.119 0.056 0.735 255 255 255
0.047 -0.489 0.902 255 255 255
0.212 0.217 0.712 255 255 255
0.308 0 0.562 255 255 255
0.249 0.291 0.669 255 255 255
-0.209 -0.147 0.768 255 255 255
-0.325 -0.373 0.762 255 255 255
-0.057 -0.519 0.795 255 255 255
-0.095 0.117 0.382 255 255 255
0.284 -0.376 0.564 255 255 255
0.07 0.033 0.677 0 0 0
0.052 0.089 0.54 255 255 255
0.279 -0.228 0.585 255 255 255
-0.014 0.188 0.447 255 255 255
0.219 0.068 0.69 255 255 255
0.011 0.205 0.471 255 255 255
0.143 -0.065 0.791 255 255 255
0.079 -0.116 0.879 255 255 255
0.265 -0.24 0.607 255 255 255
-0.092 0.078 0.461 255 255 255
-0.171 -0.485 0.803 255 255 255
-0.024 -0.025 0.751 255 255 255
0.1 -0.241 0.847 255 255 255
0.226 -0.324 0.654 255 255 255
0.273 0.037 0.612 255 255 255
0.279 0.137 0.61 255 255 255
0.034 0.108 0.475 255 255 255
-0.227 -0.465 0.778 255 255 255
-0.349 -0.029 0.535 255 255 255
-0.366 -0.207 0.84 255 255 255
-0.275 -0.185 0.467 0 0 0
-0.365 -0.028 0.524 255 255 255
-0.131 0.061 0.472 255 255 255
0.164 -0.326 0.745 255 255 255
0.339 -0.191 0.522 255 255 255
0.33 -0.174 0.523 255 255 255
0.013 0.146 0.41 255 255 255
-0.096 -0.02 0.678 255 255 255
0.176 0.318 0.775 255 255 255
0.313 0.078 0.559 255 255 255
-0.339 -0.417 0.727 255 255 255
0.128 -0.188 0.809 255 255 255
-0.145 0.034 0.519 255 255 255
-0.076 -0.048 0.764 255 255 255
-0.205 -0.258 0.774 255 255 255
0.185 0.316 0.762 255 255 255
-0.273 -0.468 0.743 255 255 255
0.307 -0.016 0.565 255 255 255
0.115 -0.147 0.829 255 255 255
-0.113 -0.562 0.804 255 255 255
0.093 -0.075 0.86 255 255 255
-0.112 -0.335 0.818 255 255 255
-0.158 0.031 0.52 0 0 0
-0.242 -0.094 0.762 0 0 0
0.305 -0.183 0.551 255 255 255
0.304 -0.055 0.564 255 255 255
0.145 -0.26 0.777 255 255 255
0.139 -0.459 0.773 255 255 255
-0.155 0.129 0.338 255 255 255
-0.161 -0.445 0.838 0 0 0
-0.028 0.119 0.422 0 0 0
0.244 0.258 0.673 255 255 255
0.237 -0.064 0.657 255 255 255
-0.13 0.145 0.319 0 0 0
-0.046 0.151 0.366 255 255 255
-0.12 0.068 0.466 255 255 255
0.267 -0.074 0.616 255 255 255
-0.065 -0.43 0.93 255 255 255
0.315 -0.096 0.543 255 255 255
-0.08 0.152 0.344 255 255 255
-0.132 -0.314 0.814 255 255 255
0.158 0.123 0.627 255 255 255
0.043 0.112 0.471 255 255 255
0.308 0.014 0.562 255 255 255
-0.231 -0.033 0.613 255 255 255
0.021 0.457 1.023 0 0 0
0.048 0.111 0.473 255 255 255
0.242 -0.245 0.639 255 255 255
0.049 0.092 0.527 255 255 255
-0.255 -0.402 0.795 255 255 255
-0.312 0.022 0.451 255 255 255
-0.258 -0.194 0.463 255 255 255
-0.156 -0.182 0.925 255 255 255
-0.372 -0.375 0.726 255 255 255
-0.061 -0.355 0.98 255 255 255
-0.138 0.023 0.551 255 255 255
0.29 -0.23 0.569 255 255 255
0.299 -0.028 0.575 255 255 255
-0.091 0.154 0.334 255 255 255
0.231 0.022 0.671 255 255 255
0.271 -0.338 0.59 255 255 255
-0.056 0.209 0.429 255 255 255
-0.18 -0.505 0.783 255 255 255
-0.084 0.105 0.408 255 255 255
-0.07 0.105 0.419 255 255 255
0.004 -0.529 0.906 255 255 255
-0.112 0.005 0.606 255 255 255
-0.163 -0.549 0.769 255 255 255
0.295 -0.198 0.563 255 255 255
0.057 -0.186 0.915 255 255 255
0.283 0.113 0.602 255 255 255
-0.329 -0.031 0.553 255 255 255
0.139 -0.027 0.797 255 255 255
0.27 -0.31 0.592 255 255 255
-0.111 0.076 0.452 255 255 255
0.054 -0.275 0.915 255 255 255
0.281 -0.132 0.591 255 255 255
0.275 0.213 0.624 255 255 255
0.2 0.012 0.716 255 255 255
-0.094 0.134 0.362 255 255 255
-0.187 -0.23 0.775 0 0 0
0.257 -0.203 0.62 255 255 255
-0.181 -0.344 0.755 255 255 255
0.076 -0.28 0.88 255 255 255
-0.349 -0.303 0.789 255 255 255
0.34 -0.013 0.519 255 255 255
-0.366 -0.442 0.69 255 255 255
-0.138 -0.301 0.813 255 255 255
0.197 -0.166 0.71 255 255 255
-0.288 -0.192 0.462 255 255 255
0.162 -0.227 0.757 255 255 255
-0.045 0.206 0.438 255 255 255
0.037 0.193 0.492 255 255 255
-0.124 -0.358 0.785 255 255 255
0.146 -0.427 0.764 255 255 255
-0.025 0.194 0.443 255 255 255
-0.342 -0.094 0.464 255 255 255
0 0.03 0.594 255 255 255
0.129 0.077 0.68 255 255 255
-0.033 0.103 0.442 255 255 255
-0.06 0.056 0.51 255 255 255
-0.321 -0.361 0.773 255 255 255
0.012 -0.174 0.977 255 255 255
0.283 -0.333 0.563 255 255 255
-0.044 0.089 0.467 255 255 255
-0.175 -0.366 0.806 255 255 255
0.132 0.057 0.756 255 255 255
-0.372 -0.206 0.835 255 255 255
0.351 0.039 0.512 255 255 255
0.357 0.003 0.5 255 255 255
-0.124 0.023 0.557 255 255 255
0.114 -0.166 0.83 255 255 255
0.113 -0.166 0.831 255 255 255
0.092 -0.464 0.844 255 255 255
0.014 -0.62 0.851 0 0 0
0.349 -0.081 0.501 255 255 255
0.089 -0.218 0.864 255 255 255
0.331 0.055 0.537 255 255 255
0.251 0.062 0.642 255 255 255
0.25 0.002 0.646 255 255 255
0.197 -0.092 0.713 255 255 255
-0.071 0.134 0.373 255 255 255
-0.412 -0.181 0.819 255 255 255
-0.109 0.145 0.333 255 255 255
-0.115 0.106 0.391 255 255 255
-0.302 -0.323 0.808 255 255 255
0.04 0.472 0.988 255 255 255
0.171 0.043 0.757 255 255 255
0.196 0.262 0.742 255 255 255
-0.052 -0.189 1.025 0 0 0
0.316 -0.076 0.545 255 255 255
0.325 -0.099 0.53 255 255 255
0.214 -0.031 0.693 255 255 255
-0.108 -0.329 0.825 255 255 255
-0.017 0.113 0.435 255 255 255
0.241 -0.435 0.621 255 255 255
-0.14 0.062 0.467 255 255 255
-0.073 -0.503 0.763 255 255 255
0.307 -0.226 0.547 255 255 255
-0.24 0.067 0.402 255 255 255
-0.247 0 0.534 255 255 255
0.025 0.136 0.423 255 255 255
-0.269 -0.141 0.476 255 255 255
-0.145 -0.265 0.831 255 255 255
0.331 -0.043 0.529 255 255 255
-0.108 -0.038 0.716 255 255 255
-0.14 -0.563 0.781 255 255 255
-0.27 -0.43 0.767 255 255 255
-0.145 0.134 0.333 255 255 255
-0.21 -0.511 0.759 255 255 255
0.251 0.257 0.665 255 255 255
0.294 0.189 0.599 255 255 255
-0.079 0.068 0.489 0 0 0
0.05 0.079 0.566 255 255 255
-0.099 0.1 0.412 255 255 255
-0.294 -0.321 0.816 255 255 255
-0.368 -0.187 0.852 255 255 255
-0.079 0.045 0.533 255 255 255
0.044 0.094 0.522 255 255 255
-0.33 -0.078 0.461 255 255 255
0.278 0.029 0.604 255 255 255
0.147 -0.334 0.769 255 255 255
0.083 0.104 0.52 255 255 255
0.033 0.2 0.493 255 255 255
0.132 -0.572 0.774 0 0 0
-0.239 -0.085 0.728 0 0 0
0.319 -0.055 0.544 255 255 255
-0.371 -0.021 0.506 255 255 255
-0.132 -0.544 0.799 255 255 255
0.088 -0.442 0.849 255 255 255
-0.339 -0.475 0.688 255 255 255
-0.018 0.091 0.481 255 255 255
0.236 -0.231 0.649 255 255 255
0.259 -0.441 0.599 0 0 0
-0.151 0.13 0.337 255 255 255
0.15 -0.126 0.778 255 255 255
-0.194 -0.547 0.751 0 0 0
0.062 0.077 0.583 0 0 0
0.111 -0.167 0.833 255 255 255
0.266 -0.345 0.574 255 255 255
-0.319 0.014 0.464 255 255 255
0.014 0.174 0.457 0 0 0
0.246 0.294 0.673 255 255 255
-0.253 -0.013 0.555 255 255 255
0.234 -0.261 0.647 255 255 255
-0.091 -0.283 1.006 0 0 0
0.316 0.026 0.553 255 255 255
-0.137 0.603 1.148 255 255 255
0.06 -0.16 0.91 255 255 255
-0.059 -0.04 0.755 255 255 255
0.099 -0.349 0.842 255 255 255
0.051 -0.532 0.889 255 255 255
-0.224 0.005 0.537 255 255 255
-0.193 -0.565 0.737 0 0 0
0.281 0.134 0.608 255 255 255
-0.333 -0.066 0.623 255 255 255
0.355 -0.129 0.5 255 255 255
0.277 -0.018 0.608 255 255 255
-0.161 -0.278 0.803 255 255 255
-0.232 0.068 0.404 255 255 255
0.15 0.298 0.737 255 255 255
0.19 -0.431 0.698 255 255 255
-0.161 -0.416 0.859 0 0 0
-0.325 0.012 0.464 255 255 255
0.225 -0.281 0.661 255 255 255
0.075 -0.166 0.887 255 255 255
0.207 0.397 0.741 255 255 255
-0.083 0.202 0.404 255 255 255
-0.111 -0.383 0.791 255 255 255
-0.071 0.075 0.478 0 0 0
0.096 -0.484 0.837 255 255 255
-0.152 -0.322 0.85 255 255 255
-0.334 -0.116 0.456 0 0 0
0.051 -0.359 0.912 255 255 255
0.112 -0.348 0.82 255 255 255
0.11 -0.152 0.837 255 255 255
-0.185 -0.49 0.787 255 255 255
-0.118 -0.125 0.876 255 255 255
-0.014 0.097 0.47 255 255 255
-0.045 -0.263 0.844 255 255 255
-0.004 -0.264 0.994 255 255 255
-0.107 -0.059 0.765 255 255 255
-0.01 -0.065 0.934 0 0 0
0.154 -0.012 0.776 255 255 255
-0.133 -0.203 0.919 0 0 0
0.189 0.26 0.749 255 255 255
0.146 -0.291 0.775 255 255 255
0.03 -0.489 0.92 255 255 255
0.087 -0.259 0.866 255 255 255
0.022 0.138 0.42 255 255 255
0.017 0.498 1.025 255 255 255
0.056 0.3 0.645 255 255 255
0.261 -0.25 0.611 255 255 255
-0.25 0.041 0.45 255 255 255
0.031 -0.442 0.927 255 255 255
0.157 -0.481 0.744 255 255 255
-0.175 0.106 0.36 255 255 255
-0.141 -0.031 0.673 255 255 255
0.31 -0.058 0.556 255 255 255
0.278 0.264 0.63 255 255 255
0.305 -0.043 0.566 255 255 255
0.104 -0.56 0.816 255 255 255
-0.15 0.007 0.575 255 255 255
-0.407 -0.25 0.779 255 255 255
-0.052 0.11 0.418 255 255 255
-0.086 -0.569 0.815 255 255 255
-0.274 0.039 0.44 255 255 255
0.275 0.226 0.628 255 255 255
-0.033 -0.279 1.018 255 255 255
-0.075 0.056 0.517 255 255 255
0.26 -0.413 0.575 0 0 0
0.259 -0.191 0.619 255 255 255
-0.085 0.16 0.342 255 255 255
-0.285 0.004 0.503 255 255 255
-0.102 -0.417 0.776 255 255 255
0.235 -0.026 0.666 255 255 255
-0.258 0.05 0.423 255 255 255
0.328 -0.229 0.532 255 255 255
-0.138 -0.287 0.826 255 255 255
-0.245 -0.538 0.715 0 0 0
0.055 0.093 0.533 255 255 255
-0.192 -0.326 0.749 0 0 0
0.194 0.115 0.664 255 255 255
-0.027 -0.285 1.014 255 255 255
-0.097 0.075 0.465 255 255 255
0.021 0.053 0.602 255 255 255
0.286 -0.117 0.585 255 255 255
-0.234 0.054 0.433 255 255 255
-0.162 -0.27 0.774 255 255 255
-0.31 0.005 0.488 255 255 255
-0.053 0.06 0.499 255 255 255
0.195 -0.432 0.692 255 255 255
-0.111 0.043 0.522 255 255 255
0.335 -0.092 0.516 255 255 255
0.257 0.016 0.637 255 255 255
-0.128 0.087 0.421 255 255 255
-0.056 0.096 0.445 255 255 255
-0.25 -0.372 0.806 0 0 0
0.212 -0.146 0.69 255 255 255
-0.093 0.093 0.428 255 255 255
-0.255 0.001 0.528 255 255 255
-0.071 -0.134 0.86 255 255 255
0.323 -0.232 0.533 255 255 255
-0.083 -0.4 0.935 255 255 255
0.024 -0.492 0.924 255 255 255
-0.202 -0.057 0.689 255 255 255
0.171 -0.335 0.736 255 255 255
0.132 0.137 0.528 255 255 255
0.185 0.13 0.656 255 255 255
0.073 0.136 0.467 255 255 255
0.057 0.097 0.523 255 255 255
-0.321 -0.006 0.501 255 255 255
-0.18 -0.013 0.601 255 255 255
-0.096 -0.299 0.993 255 255 255
-0.287 -0.203 0.461 255 255 255
0.251 -0.316 0.616 255 255 255
0.015 0.552 1.03 255 255 255
-0.045 0.093 0.458 255 255 255
0.14 -0.038 0.795 255 255 255
0.295 -0.03 0.581 255 255 255
-0.106 0.006 0.608 255 255 255
-0.279 0.002 0.509 255 255 255
0.055 -0.053 0.917 255 255 255
0.155 -0.153 0.769 255 255 255
-0.088 0.088 0.443 255 255 255
-0.197 -0.087 0.753 0 0 0
0.299 0.171 0.589 255 255 255
0.231 -0.249 0.657 255 255 255
-0.204 -0.2 0.781 255 255 255
-0.008 0.136 0.4 255 255 255
0.238 -0.174 0.653 255 255 255
-0.046 0.12 0.416 0 0 0
0.006 0.117 0.441 255 255 255
0.153 -0.486 0.749 255 255 255
-0.256 -0.009 0.545 255 255 255
-0.094 0.19 0.386 255 255 255
0.227 -0.11 0.67 255 255 255
-0.329 -0.236 0.847 255 255 255
0.015 0.196 0.476 255 255 255
-0.039 -0.343 0.997 255 255 255
0.239 0.19 0.672 255 255 255
0.156 -0.227 0.768 255 255 255
-0.031 0.139 0.388 255 255 255
-0.377 -0.333 0.747 255 255 255
-0.175 0.108 0.355 255 255 255
0.073 -0.112 0.889 255 255 255
-0.373 -0.13 0.839 255 255 255
-0.281 0.017 0.558 255 255 255
0.167 -0.093 0.756 255 255 255
-0.13 -0.265 0.846 255 255 255
-0.223 0.073 0.402 255 255 255
0.212 -0.064 0.694 255 255 255
-0.197 -0.52 0.761 255 255 255
0.315 -0.091 0.544 255 255 255
0.006 -0.551 0.892 255 255 255
-0.044 -0.499 0.902 255 255 255
0.229 0.106 0.678 255 255 255
-0.262 -0.434 0.771 255 255 255
0.004 -0.266 0.985 255 255 255
0.032 0.104 0.482 255 255 255
0.279 0.071 0.604 255 255 255
-0.276 -0.087 0.495 255 255 255
0.244 0.202 0.667 255 255 255
0.251 -0.112 0.638 255 255 255
0.343 -0.067 0.508 255 255 255
0.133 -0.164 0.802 255 255 255
-0.025 0.099 0.457 255 255 255
-0.01 -0.391 0.977 255 255 255
-0.394 -0.039 0.528 255 255 255
-0.451 -0.079 0.594 255 255 255
0.089 0.066 0.632 255 255 255
0.088 0.238 0.601 255 255 255
-0.306 -0.307 0.816 255 255 255
-0.309 -0.145 0.464 255 255 255
0.015 0.183 0.467 255 255 255
0.117 0.096 0.569 255 255 255
-0.159 0.05 0.481 255 255 255
-0.38 -0.054 0.57 255 255 255
0.181 0.102 0.688 255 255 255
0.244 -0.112 0.647 255 255 255
0.241 -0.41 0.622 255 255 255
0.05 0.139 0.433 255 255 255
0.079 0.072 0.615 255 255 255
-0.164 0.115 0.345 255 255 255
-0.116 0.212 0.381 255 255 255
-0.332 -0.402 0.739 255 255 255
-0.059 0.112 0.411 255 255 255
0.159 0.444 0.814 255 255 255
-0.08 0.094 0.434 255 255 255
0.075 -0.584 0.849 255 255 255
0.167 -0.118 0.753 255 255 255
0.218 0.017 0.69 255 255 255
0.092 -0.386 0.849 255 255 255
-0.308 -0.153 0.458 255 255 255
0.299 0.061 0.574 255 255 255
0.249 -0.333 0.618 255 255 255
0.252 -0.214 0.627 255 255 255
-0.169 -0.172 0.913 255 255 255
0.007 0.04 0.577 255 255 255
0.065 0.097 0.527 255 255 255
-0.31 -0.111 0.487 255 255 255
-0.224 -0.022 0.594 255 255 255
0.194 -0.387 0.697 255 255 255
-0.038 -0.431 0.947 255 255 255
-0.185 0.087 0.392 255 255 255
-0.048 0.082 0.481 0 0 0
0.06 -0.207 0.908 255 255 255
-0.396 -0.063 0.576 255 255 255
0 0.186 0.458 255 255 255
0.28 0.258 0.626 255 255 255
0.255 -0.138 0.633 255 255 255
-0.25 -0.052 0.644 255 255 255
0.285 -0.02 0.597 255 255 255
0.256 -0.126 0.633 255 255 255
0.115 -0.011 0.833 255 255 255
-0.335 -0.215 0.858 255 255 255
0.105 -0.266 0.838 255 255 255
0.129 -0.545 0.78 255 255 255
-0.164 0.042 0.492 255 255 255
0.27 -0.343 0.569 255 255 255
0.129 -0.406 0.794 255 255 255
0.088 -0.09 0.866 255 255 255
-0.115 0.149 0.321 255 255 255
0.203 -0.004 0.71 255 255 255
0.195 -0.09 0.716 255 255 255
0.196 0.141 0.641 255 255 255
0.155 -0.308 0.762 255 255 255
0.289 0.148 0.597 255 255 255
0.206 -0.356 0.68 255 255 255
0.313 -0.207 0.538 255 255 255
-0.086 -0.13 0.875 255 255 255
0.338 -0.063 0.518 255 255 255
0.127 -0.163 0.812 255 255 255
0.122 0.134 0.495 255 255 255
-0.036 0.062 0.506 0 0 0
0.212 -0.204 0.685 255 255 255
0.263 -0.093 0.621 255 255 255
0.152 -0.11 0.776 255 255 255
-0.062 0.108 0.417 255 255 255
0.189 -0.45 0.697 255 255 255
0.326 0.018 0.537 255 255 255
0.161 -0.054 0.766 255 255 255
0.316 -0.131 0.54 255 255 255
-0.3 0.011 0.479 255 255 255
-0.297 -0.026 0.559 255 255 255
0.044 0.06 0.61 255 255 255
0.246 -0.262 0.631 255 255 255
0.304 0.168 0.58 255 255 255
-0.125 -0.333 0.81 255 255 255
-0.286 -0.393 0.778 255 255 255
0.208 -0.264 0.686 255 255 255
-0.362 -0.219 0.837 255 255 255
0.127 -0.365 0.796 255 255 255
-0.108 0.139 0.342 255 255 255
0.323 0.006 0.544 255 255 255
0.003 0.101 0.47 255 255 255
0.232 -0.223 0.657 255 255 255
0.143 -0.283 0.779 255 255 255
0.093 -0.504 0.839 255 255 255
-0.043 0.041 0.542 255 255 255
0.336 -0.038 0.523 255 255 255
0.077 -0.46 0.866 255 255 255
-0.1 0.143 0.339 255 255 255
0.27 0.033 0.616 255 255 255
-0.093 -0.339 0.833 255 255 255
-0.32 -0.508 0.677 0 0 0
-0.193 -0.395 0.841 255 255 255
-0.098 0.137 0.36 255 255 255
0.069 -0.225 0.895 255 255 255
-0.153 0.127 0.343 255 255 255
0.317 -0.067 0.546 255 255 255
0.293 -0.07 0.578 255 255 255
0.137 -0.353 0.784 255 255 255
0.192 -0.007 0.726 255 255 255
0.088 -0.088 0.865 255 255 255
-0.1 -0.348 0.935 0 0 0
0.071 -0.228 0.893 255 255 255
-0.329 -0.275 0.823 255 255 255
-0.341 -0.096 0.465 255 255 255
0.243 0.237 0.673 255 255 255
-0.026 -0.529 0.889 255 255 255
-0.166 -0.049 0.693 255 255 255
-0.328 -0.121 0.459 0 0 0
-0.08 0.095 0.433 255 255 255
-0.078 0.038 0.549 0 0 0
0.018 -0.018 0.769 0 0 0
-0.093 0.166 0.342 255 255 255
0.007 -0.056 0.943 255 255 255
0.201 -0.469 0.68 255 255 255
-0.284 -0.419 0.762 255 255 255
-0.067 -0.092 0.858 0 0 0
-0.115 0.2 0.377 255 255 255
-0.125 -0.259 0.856 255 255 255
-0.193 -0.489 0.781 255 255 255
-0.006 -0.008 0.733 255 255 255
0.307 0.026 0.565 255 255 255
0.249 0.053 0.645 255 255 255
0.265 -0.002 0.627 255 255 255
0.303 0.146 0.582 255 255 255
-0.168 -0.527 0.776 255 255 255
0.02 0.186 0.473 255 255 255
0.058 0.137 0.444 255 255 255
-0.202 0.088 0.38 255 255 255
0.291 0.07 0.586 255 255 255
-0.136 0.208 0.37 255 255 255
0.337 -0.187 0.521 255 255 255
0.096 -0.489 0.837 255 255 255
0.285 -0.007 0.595 255 255 255
-0.388 -0.066 0.589 255 255 255
-0.4 -0.196 0.821 255 255 255
0.026 -0.478 0.925 255 255 255
0.246 -0.125 0.646 255 255 255
-0.074 -0.389 0.952 255 255 255
-0.224 -0.127 0.803 255 255 255
-0.241 -0.525 0.727 0 0 0
0.245 -0.07 0.649 255 255 255
0.182 -0.474 0.707 255 255 255
0.115 -0.592 0.797 0 0 0
0.344 -0.132 0.508 255 255 255
-0.072 -0.428 0.811 0 0 0
0.084 0.258 0.604 255 255 255
0.226 -0.127 0.67 255 255 255
0.006 -0.576 0.877 255 255 255
0.168 -0.016 0.757 255 255 255
0.321 -0.025 0.544 255 255 255
0.147 0.133 0.525 255 255 255
-0.198 -0.242 0.767 255 255 255
0.136 0.036 0.807 0 0 0
-0.27 -0.294 0.826 0 0 0
0.259 -0.123 0.626 255 255 255
-0.049 0.099 0.441 255 255 255
-0.32 0.02 0.451 255 255 255
0.142 0.059 0.762 255 255 255
0.283 0.053 0.598 255 255 255
-0.327 -0.345 0.78 255 255 255
-0.133 -0.242 0.898 255 255 255
0.085 0.086 0.582 255 255 255
0.211 0.136 0.604 0 0 0
-0.255 -0.283 0.83 255 255 255
-0.059 -0.478 0.906 255 255 255
-0.305 -0.341 0.795 255 255 255
0.105 -0.407 0.828 255 255 255
0.152 0.383 0.814 255 255 255
-0.12 0.145 0.331 255 255 255
-0.17 0.091 0.392 255 255 255
0.273 -0.098 0.604 255 255 255
-0.291 -0.269 0.857 255 255 255
-0.113 0.09 0.425 255 255 255
0.318 -0.142 0.536 255 255 255
-0.148 0.097 0.393 255 255 255
0.258 0.341 0.667 255 255 255
-0.215 -0.045 0.652 255 255 255
-0.248 -0.448 0.773 255 255 255
-0.083 0.05 0.52 0 0 0
-0.124 0.007 0.59 255 255 255
0.145 -0.281 0.778 255 255 255
0.28 -0.237 0.584 255 255 255
-0.121 -0.263 1.001 255 255 255
0.187 -0.421 0.7 255 255 255
0.19 -0.498 0.694 255 255 255
0.128 -0.174 0.809 255 255 255
0.066 -0.414 0.886 255 255 255
0.278 -0.222 0.587 255 255 255
-0.119 0.109 0.382 255 255 255
0.075 -0.191 0.887 255 255 255
-0.264 -0.173 0.467 255 255 255
0.247 -0.142 0.643 255 255 255
0.276 -0.167 0.597 255 255 255
0.264 -0.288 0.599 255 255 255
-0.395 -0.308 0.754 255 255 255
-0.307 -0.134 0.473 255 255 255
0.107 0.138 0.479 255 255 255
-0.11 0.1 0.406 255 255 255
-0.256 -0.013 0.553 255 255 255
-0.195 -0.355 0.769 255 255 255
0.23 -0.258 0.657 255 255 255
0.019 0.141 0.417 255 255 255
0.016 0.076 0.542 255 255 255
0.229 -0.15 0.664 255 255 255
0.02 0.194 0.479 255 255 255
0.048 0.034 0.671 255 255 255
0.094 0.043 0.736 255 255 255
0.217 -0.142 0.683 255 255 255
0.046 0.353 0.664 255 255 255
0.037 0.078 0.558 255 255 255
-0.13 -0.264 0.847 255 255 255
0 -0.024 0.768 0 0 0
-0.037 0.119 0.421 255 255 255
-0.444 -0.078 0.592 255 255 255
0.03 0.096 0.495 255 255 255
-0.062 0.042 0.528 255 255 255
0.275 -0.213 0.59 255 255 255
-0.097 0.13 0.368 255 255 255
-0.079 -0.564 0.823 255 255 255
-0.122 0.145 0.326 0 0 0
0.234 -0.279 0.649 255 255 255
0.229 0.011 0.674 255 255 255
-0.27 -0.117 0.49 255 255 255
0.22 0.038 0.686 255 255 255
0.195 -0.093 0.716 255 255 255
0.317 -0.043 0.548 255 255 255
0.28 0.075 0.603 255 255 255
0.121 0.007 0.827 0 0 0
0.237 0.243 0.682 255 255 255
0.155 -0.407 0.752 255 255 255
0.261 -0.412 0.576 255 255 255
-0.002 0.111 0.447 255 255 255
0.262 -0.221 0.612 255 255 255
-0.143 0.095 0.398 255 255 255
0.023 -0.148 0.96 255 255 255
-0.187 -0.454 0.811 255 255 255
0.254 -0.209 0.625 255 255 255
-0.13 0.092 0.41 255 255 255
-0.346 0 0.476 255 255 255
0.125 0.015 0.821 0 0 0
-0.069 0.211 0.422 255 255 255
-0.271 -0.234 0.86 255 255 255
0.017 0.18 0.467 0 0 0
0.092 -0.204 0.86 255 255 255
0.035 0.144 0.424 255 255 255
-0.315 -0.421 0.738 255 255 255
0.235 -0.408 0.633 255 255 255
0.313 0.032 0.558 255 255 255
-0.206 -0.232 0.774 0 0 0
0.085 0.065 0.632 255 255 255
0.288 -0.168 0.576 255 255 255
0.265 0.086 0.625 255 255 255
-0.349 0.001 0.472 255 255 255
-0.263 -0.194 0.461 255 255 255
-0.299 -0.511 0.695 0 0 0
0.306 0.06 0.567 255 255 255
0.234 -0.225 0.654 255 255 255
0.207 -0.314 0.684 255 255 255
-0.051 0.098 0.445 255 255 255
-0.39 -0.172 0.844 255 255 255
-0.186 0.074 0.413 255 255 255
-0.217 -0.441 0.799 255 255 255
0.084 0.135 0.464 255 255 255
-0.075 0.143 0.353 255 255 255
0.206 0.362 0.738 255 255 255
0.261 -0.19 0.616 255 255 255
-0.235 0.051 0.436 255 255 255
0.079 -0.089 0.88 255 255 255
-0.278 0.017 0.479 255 255 255
-0.272 -0.353 0.812 255 255 255
0.031 -0.379 0.936 255 255 255
0.163 0.044 0.769 255 255 255
0.242 0.017 0.656 255 255 255
-0.216 -0.451 0.793 255 255 255
0.282 0.118 0.602 255 255 255
-0.094 -0.459 0.754 255 255 255
-0.102 -0.086 0.829 255 255 255
0.004 -0.231 0.986 255 255 255
0.132 0.337 0.738 255 255 255
0.031 -0.221 0.952 255 255 255
-0.27 -0.131 0.48 255 255 255
0.354 0.022 0.506 255 255 255
0.045 -0.021 0.884 255 255 255
-0.103 0.106 0.397 255 255 255
-0.089 -0.085 0.834 255 255 255
0.176 0.435 0.788 255 255 255
-0.11 0.091 0.425 255 255 255
0.243 -0.361 0.586 255 255 255
-0.244 -0.43 0.787 255 255 255
-0.263 0.055 0.413 255 255 255
-0.314 -0.259 0.844 255 255 255
0.19 -0.361 0.704 255 255 255
-0.296 -0.216 0.882 0 0 0
0.238 0.277 0.682 255 255 255
0.122 -0.333 0.807 255 255 255
-0.325 -0.143 0.866 255 255 255
-0.122 0.131 0.351 255 255 255
-0.176 -0.48 0.802 255 255 255
0.128 -0.401 0.792 255 255 255
-0.194 0.099 0.364 255 255 255
0.32 0.023 0.547 255 255 255
0.058 0.283 0.639 255 255 255
0.256 0.072 0.636 255 255 255
-0.19 -0.031 0.635 255 255 255
-0.32 -0.052 0.601 255 255 255
-0.265 -0.438 0.767 255 255 255
-0.188 -0.457 0.808 255 255 255
0.086 -0.429 0.852 255 255 255
0.341 0.03 0.523 255 255 255
0.27 -0.451 0.58 0 0 0
0.205 -0.289 0.689 255 255 255
0.252 -0.313 0.613 255 255 255
-0.076 0.147 0.349 255 255 255
0.018 0.137 0.418 255 255 255
-0.025 0.096 0.465 255 255 255
0.227 -0.094 0.671 255 255 255
0.031 0.12 0.467 255 255 255
0.209 0.229 0.719 255 255 255
0.115 -0.174 0.826 255 255 255
0.283 0.115 0.601 255 255 255
0.263 0.217 0.643 255 255 255
0.125 -0.384 0.799 255 255 255
-0.301 -0.14 0.477 255 255 255
-0.167 -0.099 0.817 255 255 255
-0.074 0.07 0.487 0 0 0
0.117 0.088 0.59 0 0 0
0.318 0.082 0.552 255 255 255
0.147 0.424 0.827 255 255 255
0.203 -0.307 0.69 255 255 255
0.054 0.322 0.649 255 255 255
0.181 -0.025 0.739 255 255 255
-0.058 0.135 0.377 255 255 255
0.354 -0.048 0.498 255 255 255
0.001 -0.008 0.739 255 255 255
0.245 0.132 0.66 255 255 255
-0.088 -0.148 0.891 255 255 255
0.197 -0.096 0.713 255 255 255
0.232 -0.019 0.67 255 255 255
0.19 -0.104 0.721 255 255 255
-0.166 0.097 0.382 255 255 255
0.211 0.294 0.724 255 255 255
-0.169 -0.266 0.77 255 255 255
-0.38 -0.202 0.831 255 255 255
0.325 0.015 0.538 255 255 255
0.153 -0.421 0.755 255 255 255
-0.188 0.104 0.356 255 255 255
-0.143 -0.026 0.661 255 255 255
-0.119 0.043 0.518 255 255 255
0.333 0.059 0.535 255 255 255
-0.052 0.131 0.392 255 255 255
-0.115 -0.177 1.014 255 255 255
0.262 0.168 0.638 255 255 255
0.194 0.276 0.745 255 255 255
-0.122 0.082 0.436 255 255 255
0.269 -0.089 0.612 255 255 255
0.115 -0.444 0.809 255 255 255
-0.24 -0.068 0.688 255 255 255
-0.272 -0.042 0.608 255 255 255
-0.112 0.013 0.586 255 255 255
0.082 0.245 0.603 255 255 255
-0.258 -0.039 0.61 255 255 255
0.207 -0.043 0.703 255 255 255
0.258 -0.244 0.615 255 255 255
-0.367 -0.083 0.64 255 255 255
-0.389 -0.24 0.8 255 255 255
0.274 0.017 0.612 255 255 255
0.284 0.003 0.598 255 255 255
0.105 -0.525 0.82 255 255 255
0.278 0.131 0.61 255 255 255
-0.309 -0.27 0.839 255 255 255
0.156 -0.075 0.773 255 255 255
-0.043 0.071 0.496 255 255 255
0.211 0.269 0.72 255 255 255
-0.294 -0.257 0.863 255 255 255
-0.123 0.199 0.37 255 255 255
-0.012 0.096 0.472 255 255 255
0.302 0.03 0.572 255 255 255
-0.268 -0.444 0.762 255 255 255
0.172 0.066 0.758 255 255 255
-0.132 0.014 0.569 0 0 0
-0.274 0.001 0.514 255 255 255
0.186 -0.496 0.701 255 255 255
0.152 -0.051 0.778 255 255 255
0.119 -0.006 0.829 255 255 255
0.08 -0.052 0.879 255 255 255
-0.069 0.142 0.359 255 255 255
-0.258 -0.381 0.807 255 255 255
-0.295 -0.053 0.619 255 255 255
0.076 0.105 0.51 255 255 255
0.186 -0.222 0.723 255 255 255
-0.069 0.126 0.391 255 255 255
-0.187 -0.017 0.605 255 255 255
-0.241 -0.199 0.797 255 255 255
0.288 0.23 0.609 255 255 255
0.285 -0.03 0.596 255 255 255
-0.23 -0.012 0.567 255 255 255
-0.268 -0.198 0.456 0 0 0
-0.282 -0.087 0.488 255 255 255
0.077 0.078 0.597 0 0 0
-0.191 0.085 0.395 255 255 255
-0.056 -0.33 0.997 255 255 255
-0.352 -0.272 0.808 255 255 255
0.145 0.093 0.649 255 255 255
-0.064 0.119 0.405 255 255 255
0.333 -0.003 0.529 255 255 255
0.141 0.021 0.801 0 0 0
0.069 -0.274 0.892 255 255 255
0.224 -0.043 0.68 255 255 255
-0.285 -0.353 0.804 255 255 255
0.185 -0.35 0.714 255 255 255
-0.325 -0.092 0.473 255 255 255
-0.033 0.139 0.387 255 255 255
0.04 0.062 0.602 0 0 0
0.22 -0.34 0.662 255 255 255
0.074 0.147 0.459 255 255 255
0.219 0.092 0.691 255 255 255
0.148 0.068 0.743 255 255 255
0.245 -0.345 0.624 255 255 255
-0.268 -0.019 0.561 255 255 255
-0.015 -0.244 1.008 255 255 255
0.192 -0.048 0.726 255 255 255
-0.189 0.602 1.123 255 255 255
0.262 0.078 0.628 255 255 255
0.316 0.051 0.553 255 255 255
0.029 0.106 0.475 255 255 255
-0.171 -0.01 0.601 255 255 255
-0.061 0.135 0.373 255 255 255
0.212 0.025 0.697 255 255 255
-0.022 -0.086 0.991 255 255 255
-0.144 -0.019 0.64 255 255 255
-0.161 -0.117 0.877 0 0 0
0.215 -0.112 0.685 255 255 255
0.173 -0.28 0.737 255 255 255
0.165 -0.205 0.754 255 255 255
0.268 -0.155 0.611 255 255 255
-0.044 0.058 0.507 255 255 255
-0.125 0.146 0.321 0 0 0
0.144 0.433 0.831 255 255 255
0.315 0.054 0.554 255 255 255
0.149 -0.163 0.778 255 255 255
0.191 0.251 0.746 255 255 255
0.275 0.211 0.624 255 255 255
0.206 -0.169 0.697 255 255 255
0.278 -0.163 0.596 255 255 255
-0.004 0.206 0.463 255 255 255
0.231 -0.256 0.655 255 255 255
-0.037 0.19 0.43 255 255 255
0.26 0.164 0.639 255 255 255
0.031 0.191 0.486 255 255 255
0.253 0.107 0.643 255 255 255
-0.159 0.039 0.501 255 255 255
-0.216 -0.118 0.816 255 255 255
0.284 -0.267 0.575 255 255 255
0.285 0.256 0.619 255 255 255
0.049 0.338 0.655 255 255 255
0.28 -0.33 0.572 255 255 255
0.201 -0.037 0.713 255 255 255
-0.006 -0.385 0.977 255 255 255
-0.18 -0.323 0.756 0 0 0
0.288 -0.134 0.579 255 255 255
0.201 -0.201 0.702 255 255 255
0.204 -0.115 0.702 255 255 255
0.013 0.069 0.558 255 255 255
0.269 -0.191 0.604 255 255 255
0.135 -0.389 0.783 255 255 255
0.215 0.033 0.694 255 255 255
0.274 -0.122 0.601 255 255 255
-0.177 0.031 0.508 255 255 255
-0.284 -0.451 0.745 255 255 255
-0.217 -0.023 0.601 255 255 255
-0.34 -0.477 0.686 255 255 255
-0.329 -0.416 0.732 255 255 255
-0.181 -0.437 0.825 255 255 255
-0.082 0.116 0.39 255 255 255
-0.182 -0.334 0.739 255 255 255
0.019 0.496 1.021 255 255 255
0.197 -0.084 0.713 255 255 255
0.255 0.101 0.639 255 255 255
0.312 -0.076 0.55 255 255 255
0.259 -0.025 0.637 255 255 255
0.184 -0.238 0.725 255 255 255
-0.258 -0.474 0.746 255 255 255
-0.119 0.005 0.601 255 255 255
-0.162 -0.024 0.642 255 255 255
-0.26 -0.005 0.539 255 255 255
0.171 -0.093 0.751 255 255 255
-0.076 -0.423 0.793 255 255 255
-0.285 0.025 0.459 255 255 255
-0.141 0.021 0.55 255 255 255
0.164 -0.225 0.755 255 255 255
-0.176 -0.512 0.78 255 255 255
0.297 0.059 0.576 255 255 255
-0.025 -0.166 1.026 255 255 255
0.345 -0.085 0.506 255 255 255
-0.282 -0.189 0.886 255 255 255
0.175 0.135 0.541 255 255 255
-0.34 -0.012 0.505 255 255 255
0.114 -0.137 0.831 255 255 255
-0.34 -0.365 0.754 255 255 255
-0.388 -0.221 0.813 255 255 255
-0.297 -0.013 0.533 255 255 255
0.169 -0.024 0.755 255 255 255
0.154 -0.408 0.754 255 255 255
-0.192 -0.33 0.736 255 255 255
0.355 -0.124 0.5 255 255 255
0.287 -0.045 0.589 255 255 255
0.227 -0.155 0.668 255 255 255
0.345 0.003 0.515 255 255 255
0.166 -0.445 0.732 255 255 255
-0.259 -0.225 0.448 255 255 255
-0.279 -0.08 0.495 255 255 255
-0.296 0.025 0.455 255 255 255
-0.3 -0.39 0.769 255 255 255
0.222 -0.484 0.646 0 0 0
0.284 0.203 0.612 255 255 255
-0.042 0.055 0.516 0 0 0
-0.168 0.109 0.358 255 255 255
0.286 -0.079 0.589 255 255 255
-0.009 0.495 1.073 255 255 255
-0.267 -0.433 0.768 255 255 255
0.116 -0.018 0.831 255 255 255
-0.27 0.002 0.516 255 255 255
0.169 0.048 0.761 255 255 255
-0.275 -0.185 0.883 255 255 255
-0.045 0.105 0.432 255 255 255
0.112 -0.442 0.814 255 255 255
0.31 -0.059 0.558 255 255 255
0.137 0.034 0.805 0 0 0
0.238 -0.336 0.631 255 255 255
-0.316 -0.218 0.87 255 255 255
-0.23 -0.237 0.774 255 255 255
0.127 -0.186 0.811 255 255 255
-0.141 -0.571 0.772 0 0 0
0.084 -0.397 0.86 255 255 255
0.291 -0.076 0.58 255 255 255
0.082 0.076 0.609 0 0 0
0.015 0.529 1.032 255 255 255
-0.3 -0.112 0.493 255 255 255
0.112 -0.086 0.833 255 255 255
0.167 -0.283 0.746 255 255 255
0.259 -0.012 0.635 255 255 255
0.158 -0.24 0.762 255 255 255
0.015 -0.195 0.972 255 255 255
0.14 -0.178 0.79 255 255 255
0.029 -0.235 0.954 255 255 255
-0.109 0.083 0.44 255 255 255
-0.233 0.069 0.401 255 255 255
0.023 0.083 0.523 255 255 255
-0.219 -0.006 0.559 255 255 255
0.022 0.083 0.514 255 255 255
0.202 -0.391 0.682 255 255 255
-0.058 0.149 0.358 255 255 255
0.062 0.251 0.606 255 255 255
0.28 -0.198 0.586 255 255 255
0.193 -0.319 0.704 255 255 255
-0.283 -0.184 0.472 0 0 0
-0.069 -0.307 0.992 0 0 0
0.224 0.023 0.681 255 255 255
0.131 -0.546 0.778 255 255 255
0.004 -0.056 0.94 0 0 0
-0.1 -0.425 0.772 255 255 255
-0.049 0.148 0.366 255 255 255
-0.007 0.088 0.494 255 255 255
-0.239 -0.542 0.719 0 0 0
0.161 0.14 0.652 255 255 255
0.103 -0.225 0.843 255 255 255
-0.157 0.094 0.391 255 255 255
0.328 0.097 0.543 255 255 255
-0.37 -0.422 0.699 255 255 255
0.041 0.102 0.483 255 255 255
-0.409 -0.213 0.803 255 255 255
-0.186 -0.433 0.824 255 255 255
-0.327 -0.254 0.838 255 255 255
-0.381 -0.061 0.582 255 255 255
-0.006 0.084 0.505 255 255 255
0.109 -0.288 0.832 255 255 255
-0.218 -0.339 0.748 0 0 0
0.023 -0.061 0.962 255 255 255
0.223 0.217 0.699 255 255 255
-0.097 0.167 0.34 255 255 255
-0.007 0.105 0.456 255 255 255
-0.062 0.078 0.48 0 0 0
0.222 -0.113 0.675 255 255 255
0.076 -0.058 0.887 255 255 255
0.21 -0.102 0.693 255 255 255
0.234 -0.373 0.638 255 255 255
-0.041 0.098 0.448 255 255 255
0.046 0.028 0.664 255 255 255
0.264 0.008 0.629 255 255 255
0.01 0.197 0.474 255 255 255
-0.057 -0.481 0.904 255 255 255
-0.129 -0.318 0.816 255 255 255
-0.085 0.056 0.507 255 255 255
-0.013 -0.317 0.997 255 255 255
-0.031 0.126 0.403 255 255 255
0.322 -0.149 0.529 255 255 255
-0.205 0.087 0.38 255 255 255
-0.174 -0.183 0.791 0 0 0
-0.351 -0.294 0.795 255 255 255
-0.123 0.118 0.364 255 255 255
0.023 -0.215 0.962 255 255 255
-0.143 -0.262 0.84 255 255 255
0.078 0.138 0.457 255 255 255
0.225 -0.204 0.665 255 255 255
-0.03 0.124 0.413 255 255 255
-0.147 0.085 0.418 255 255 255
0.067 -0.343 0.89 255 255 255
-0.201 -0.321 0.784 255 255 255
0.105 -0.271 0.838 255 255 255
0.047 0.111 0.466 0 0 0
-0.125 0.102 0.394 255 255 255
0.343 -0.115 0.506 255 255 255
0.21 -0.484 0.663 0 0 0
0.258 -0.195 0.62 255 255 255
0.036 0.055 0.612 255 255 255
0.204 -0.362 0.684 255 255 255
-0.114 0.064 0.477 255 255 255
-0.105 -0.295 0.843 255 255 255
-0.1 0.196 0.365 255 255 255
0.319 -0.045 0.544 255 255 255
-0.088 -0.392 0.803 255 255 255
-0.222 -0.058 0.677 255 255 255
0.316 0.068 0.553 255 255 255
-0.104 0.133 0.36 255 255 255
0.223 -0.291 0.662 255 255 255
0.128 0.028 0.818 0 0 0
0.267 -0.183 0.608 255 255 255
-0.279 -0.388 0.787 255 255 255
0.341 -0.042 0.515 255 255 255
0.283 0.221 0.616 255 255 255
-0.132 0.032 0.534 255 255 255
-0.018 0.196 0.45 255 255 255
0.274 0.162 0.621 255 255 255
0.299 -0.21 0.561 255 255 255
0.354 -0.036 0.497 255 255 255
0.05 0.042 0.641 0 0 0
0.335 0 0.526 255 255 255
0.11 -0.589 0.804 0 0 0
0.143 -0.184 0.785 255 255 255
0.066 -0.554 0.868 255 255 255
0.072 -0.172 0.892 255 255 255
0.331 0.067 0.538 255 255 255
-0.054 -0.207 0.83 255 255 255
-0.09 0.199 0.395 255 255 255
0.17 -0.179 0.746 255 255 255
-0.314 -0.334 0.794 255 255 255
0.201 -0.04 0.713 255 255 255
-0.199 -0.091 0.762 0 0 0
-0.367 -0.215 0.835 255 255 255
0.178 -0.481 0.711 255 255 255
-0.044 -0.029 0.742 255 255 255
-0.145 0.013 0.565 0 0 0
0.068 0.091 0.549 255 255 255
0.219 0.23 0.704 255 255 255
0.212 -0.151 0.689 255 255 255
-0.343 -0.225 0.844 255 255 255
0.112 -0.342 0.821 255 255 255
-0.039 0.098 0.45 255 255 255
-0.117 -0.263 1.003 255 255 255
-0.058 0.181 0.405 0 0 0
0.052 -0.271 0.917 255 255 255
0.115 -0.216 0.826 255 255 255
-0.232 -0.009 0.562 255 255 255
0.112 -0.001 0.838 0 0 0
-0.03 0.164 0.396 255 255 255
-0.132 0.131 0.343 255 255 255
-0.274 -0.29 0.835 0 0 0
0.256 -0.189 0.624 255 255 255
-0.076 0.077 0.474 255 255 255
0.303 0 0.571 255 255 255
-0.105 -0.358 0.809 255 255 255
-0.027 0.093 0.471 255 255 255
0.348 -0.16 0.511 255 255 255
0.037 0.043 0.629 0 0 0
0.027 -0.39 0.94 255 255 255
-0.073 0.137 0.364 255 255 255
-0.166 0.048 0.481 255 255 255
-0.404 -0.101 0.765 255 255 255
-0.044 0.124 0.41 255 255 255
-0.136 0.068 0.457 0 0 0
-0.258 -0.383 0.806 255 255 255
0.188 -0.21 0.721 255 255 255
0.179 0.315 0.771 255 255 255
0.278 -0.367 0.565 255 255 255
-0.127 0.092 0.415 255 255 255
-0.025 -0.395 0.974 255 255 255
0.194 -0.36 0.7 255 255 255
0.104 -0.355 0.833 255 255 255
-0.263 -0.485 0.738 255 255 255
-0.393 -0.309 0.754 255 255 255
-0.356 -0.331 0.765 255 255 255
0.174 -0.03 0.749 255 255 255
0.134 -0.142 0.8 255 255 255
-0.264 -0.476 0.741 255 255 255
-0.208 0.082 0.39 255 255 255
-0.136 -0.583 0.769 0 0 0
-0.145 0.098 0.392 255 255 255
-0.289 -0.523 0.692 0 0 0
0.063 0.248 0.597 255 255 255
0.134 0.14 0.505 255 255 255
-0.055 -0.001 0.669 255 255 255
-0.318 -0.341 0.787 255 255 255
-0.164 -0.506 0.795 255 255 255
-0.14 0.195 0.356 255 255 255
-0.131 0.143 0.329 255 255 255
0.217 0.064 0.691 255 255 255
0.117 -0.211 0.822 255 255 255
-0.068 0.076 0.48 0 0 0
0.155 -0.283 0.763 255 255 255
-0.116 0.11 0.383 255 255 255
0.109 -0.018 0.84 255 255 255
0.187 -0.294 0.717 255 255 255
-0.048 0.141 0.369 0 0 0
-0.427 -0.15 0.811 255 255 255
0.152 -0.18 0.774 255 255 255
-0.109 0.045 0.519 255 255 255
0.221 0.317 0.711 0 0 0
0.232 -0.472 0.629 0 0 0
0.189 0.13 0.655 255 255 255
0.354 -0.111 0.498 255 255 255
-0.288 -0.385 0.781 255 255 255
-0.266 -0.065 0.667 255 255 255
-0.176 0.1 0.372 255 255 255
0.172 -0.21 0.742 255 255 255
0.023 0.104 0.475 0 0 0
0.33 -0.167 0.522 255 255 255
-0.002 0.185 0.456 255 255 255
-0.116 0.035 0.535 255 255 255
0.229 0.131 0.664 255 255 255
-0.168 0.087 0.402 255 255 255
-0.087 -0.059 0.779 255 255 255
0.258 0.099 0.635 255 255 255
0.142 0.026 0.798 0 0 0
0.075 0.115 0.511 255 255 255
-0.091 -0.273 1.01 255 255 255
-0.291 -0.096 0.496 0 0 0
-0.192 -0.06 0.7 255 255 255
-0.105 0.127 0.371 0 0 0
0.029 -0.322 0.948 255 255 255
-0.114 0.026 0.557 255 255 255
0.039 -0.487 0.911 255 255 255
-0.004 -0.133 1 255 255 255
-0.298 -0.174 0.869 255 255 255
-0.377 -0.214 0.827 255 255 255
0.271 0.244 0.635 255 255 255
-0.287 -0.404 0.771 255 255 255
-0.31 -0.135 0.467 255 255 255
-0.151 0.028 0.529 255 255 255
0.042 0.143 0.429 0 0 0
-0.046 -0.179 0.872 0 0 0
0.224 0.358 0.711 255 255 255
0.162 -0.537 0.732 0 0 0
0.035 -0.078 0.943 255 255 255
-0.284 -0.177 0.473 0 0 0
0.235 -0.036 0.666 255 255 255
0.291 0.062 0.586 255 255 255
0.039 0.525 0.999 255 255 255
-0.097 -0.316 0.865 0 0 0
0.25 -0.191 0.634 255 255 255
0.187 0.039 0.732 255 255 255
-0.407 -0.127 0.811 255 255 255
-0.354 -0.203 0.851 255 255 255
-0.2 -0.283 0.76 255 255 255
-0.255 -0.23 0.454 255 255 255
-0.119 0.119 0.365 255 255 255
0.081 -0.117 0.877 255 255 255
0.243 -0.105 0.648 255 255 255
-0.195 -0.083 0.747 255 255 255
0.015 -0.152 0.973 255 255 255
-0.18 0.066 0.409 255 255 255
-0.176 0.013 0.548 255 255 255
0.357 -0.111 0.494 255 255 255
0.048 -0.148 0.926 255 255 255
0.167 -0.234 0.75 255 255 255
0.018 -0.348 0.955 255 255 255
-0.318 -0.394 0.754 255 255 255
-0.128 0.036 0.527 255 255 255
-0.145 0.025 0.539 255 255 255
0.138 -0.324 0.786 255 255 255
0.31 0.054 0.561 255 255 255
0.21 0.007 0.7 255 255 255
0.215 -0.241 0.679 255 255 255
0.053 0.198 0.496 255 255 255
-0.194 0.081 0.402 255 255 255
-0.139 -0.201 0.894 255 255 255
-0.323 -0.428 0.73 255 255 255
-0.147 -0.259 0.868 255 255 255
-0.08 0.582 1.155 255 255 255
-0.006 -0.372 0.98 255 255 255
0.349 -0.027 0.505 255 255 255
-0.008 0.141 0.397 255 255 255
-0.068 -0.594 0.813 0 0 0
0.07 -0.333 0.886 255 255 255
0.336 -0.225 0.526 255 255 255
-0.104 -0.004 0.631 255 255 255
0.062 -0.211 0.906 255 255 255
0.106 -0.081 0.842 255 255 255
0.274 -0.398 0.571 255 255 255
0.337 0.004 0.52 255 255 255
0.151 -0.406 0.758 255 255 255
0.156 -0.176 0.769 255 255 255
-0.062 0.136 0.372 255 255 255
-0.088 -0.37 0.954 255 255 255
-0.335 -0.128 0.864 0 0 0
-0.296 -0.375 0.78 255 255 255
-0.425 -0.155 0.823 255 255 255
-0.177 0.085 0.401 255 255 255
0.109 -0.073 0.837 255 255 255
0.206 0.002 0.706 255 255 255
0.136 -0.488 0.776 255 255 255
0.03 0.07 0.571 255 255 255
0.186 0.411 0.771 255 255 255
0.185 -0.194 0.726 255 255 255
-0.301 -0.119 0.488 255 255 255
0.328 0.038 0.537 255 255 255
0.163 -0.228 0.755 255 255 255
-0.019 -0.187 1.016 255 255 255
0.162 0.133 0.536 255 255 255
0.087 0.237 0.6 255 255 255
-0.352 -0.281 0.801 255 255 255
0.304 -0.176 0.552 255 255 255
-0.117 -0.078 0.799 255 255 255
0.008 -0.622 0.847 0 0 0
-0.205 -0.483 0.78 255 255 255
0.2 -0.023 0.713 255 255 255
0.129 0.257 0.667 255 255 255
0.005 0.086 0.502 0 0 0
0.218 0.029 0.69 255 255 255
0.241 -0.079 0.654 255 255 255
0.299 -0.122 0.566 255 255 255
-0.296 -0.352 0.796 255 255 255
0.283 -0.034 0.598 255 255 255
-0.001 0.033 0.574 255 255 255
0.055 -0.209 0.918 255 255 255
-0.16 -0.101 0.834 255 255 255
0.035 -0.607 0.869 255 255 255
0.307 -0.071 0.56 255 255 255
0.278 0.169 0.613 255 255 255
0.222 0.006 0.684 255 255 255
0.283 -0.078 0.592 255 255 255
0.192 -0.463 0.697 255 255 255
0.058 0.082 0.567 255 255 255
0.013 0.082 0.515 255 255 255
-0.337 -0.213 0.857 255 255 255
-0.006 -0.195 1 255 255 255
-0.157 -0.283 0.768 255 255 255
0.231 -0.349 0.643 255 255 255
-0.303 -0.034 0.574 255 255 255
-0.197 -0.523 0.759 255 255 255
0.212 -0.235 0.684 255 255 255
0.157 0.092 0.68 255 255 255
0.252 -0.241 0.624 255 255 255
0.093 -0.244 0.859 255 255 255
-0.118 0.124 0.365 255 255 255
-0.301 -0.104 0.821 255 255 255
0.045 -0.516 0.899 255 255 255
-0.286 -0.463 0.735 255 255 255
0.35 -0.111 0.501 255 255 255
0.063 0.257 0.61 255 255 255
-0.21 -0.133 0.858 255 255 255
-0.22 -0.471 0.778 255 255 255
0.056 0.416 0.956 255 255 255
0.22 -0.489 0.648 0 0 0
-0.103 0.142 0.342 255 255 255
-0.359 -0.201 0.849 255 255 255
-0.344 -0.089 0.454 255 255 255
0.284 -0.285 0.573 255 255 255
-0.341 -0.447 0.706 255 255 255
-0.164 -0.179 0.918 255 255 255
-0.133 -0.509 0.825 0 0 0
0.155 -0.355 0.758 255 255 255
-0.207 -0.416 0.821 255 255 255
0.061 -0.281 0.903 255 255 255
0.143 0.078 0.709 0 0 0
-0.131 -0.249 0.901 255 255 255
0.3 -0.141 0.561 255 255 255
-0.251 -0.005 0.544 255 255 255
-0.2 -0.484 0.782 255 255 255
-0.215 0.076 0.401 255 255 255
-0.133 0.12 0.354 255 255 255
0.261 -0.038 0.631 255 255 255
-0.285 -0.185 0.89 255 255 255
0.236 -0.361 0.602 255 255 255
0.22 -0.186 0.676 255 255 255
0.119 0.017 0.829 0 0 0
-0.092 0.168 0.347 255 255 255
0.267 -0.232 0.603 255 255 255
-0.252 0.006 0.523 255 255 255
0.152 -0.108 0.776 255 255 255
-0.236 0.064 0.409 255 255 255
0.221 -0.356 0.659 255 255 255
-0.002 -0.549 0.89 255 255 255
-0.177 0.098 0.375 255 255 255
0.283 -0.228 0.579 255 255 255
-0.332 -0.108 0.466 255 255 255
0.066 -0.118 0.898 255 255 255
0.188 -0.037 0.728 255 255 255
0.27 0.217 0.631 255 255 255
0.294 -0.099 0.574 255 255 255
0.231 -0.336 0.647 255 255 255
0.242 -0.278 0.637 255 255 255
0.149 -0.344 0.767 255 255 255
0.274 -0.259 0.588 255 255 255
0.066 0.137 0.449 255 255 255
0.043 0.435 0.979 0 0 0
0.207 0.062 0.706 255 255 255
0.1 -0.452 0.833 255 255 255
0.163 -0.227 0.756 255 255 255
0.064 0.012 0.748 255 255 255
0.335 -0.034 0.523 255 255 255
-0.039 0.089 0.471 255 255 255
0.266 0.268 0.644 255 255 255
0.179 -0.538 0.709 0 0 0
-0.031 -0.285 1.015 255 255 255
-0.028 0.113 0.428 255 255 255
-0.057 0.142 0.367 255 255 255
0.079 0.027 0.707 0 0 0
-0.097 -0.466 0.748 255 255 255
0.226 -0.249 0.663 255 255 255
0.17 0.013 0.758 255 255 255
-0.029 -0.181 1.03 255 255 255
-0.237 -0.012 0.567 255 255 255
-0.365 -0.376 0.731 255 255 255
0.292 0.218 0.605 255 255 255
-0.105 -0.02 0.67 255 255 255
0.285 0.021 0.596 255 255 255
0.194 -0.221 0.708 255 255 255
0.183 -0.109 0.734 255 255 255
0.019 0.068 0.567 255 255 255
0.278 0.248 0.626 255 255 255
0.272 0.222 0.63 255 255 255
-0.073 0.198 0.41 255 255 255
-0.184 0.056 0.414 255 255 255
-0.214 0.01 0.532 255 255 255
-0.033 0.106 0.437 255 255 255
-0.18 -0.206 0.779 0 0 0
0.166 -0.221 0.751 255 255 255
-0.082 -0.162 0.886 255 255 255
0.049 0.063 0.606 255 255 255
0.064 0.428 0.946 255 255 255
0.299 -0.283 0.556 255 255 255
0.186 -0.424 0.702 255 255 255
0.166 -0.483 0.729 255 255 255
-0.373 -0.163 0.862 255 255 255
0.267 -0.144 0.611 255 255 255
0.126 -0.476 0.79 255 255 255
0.313 -0.124 0.544 255 255 255
-0.047 -0.145 1.051 255 255 255
0.183 -0.269 0.723 255 255 255
-0.101 0.151 0.33 255 255 255
-0.114 0.152 0.322 255 255 255
-0.299 -0.533 0.678 255 255 255
0.326 -0.128 0.527 255 255 255
-0.293 -0.084 0.699 0 0 0
-0.395 -0.052 0.558 255 255 255
0.336 -0.093 0.517 255 255 255
0.119 -0.039 0.827 255 255 255
0.353 0.034 0.509 255 255 255
0.151 0.438 0.824 255 255 255
-0.248 -0.44 0.778 255 255 255
-0.272 -0.527 0.702 0 0 0
0.011 0.091 0.485 0 0 0
-0.074 0.211 0.415 255 255 255
-0.253 -0.016 0.563 255 255 255
-0.242 -0.003 0.543 255 255 255
-0.038 -0.19 1.04 0 0 0
0.013 0.031 0.646 255 255 255
0.344 -0.15 0.512 255 255 255
0.103 -0.468 0.827 255 255 255
-0.113 -0.098 0.841 0 0 0
-0.36 -0.051 0.576 255 255 255
0.244 0.315 0.68 0 0 0
-0.093 -0.324 0.982 255 255 255
-0.127 0.061 0.474 255 255 255
-0.185 0.1 0.365 255 255 255
-0.269 -0.12 0.485 255 255 255
0.3 -0.365 0.56 255 255 255
0.108 0.081 0.608 0 0 0
-0.086 0.024 0.572 0 0 0
-0.261 -0.253 0.817 0 0 0
-0.187 0.602 1.125 255 255 255
0.22 -0.227 0.672 255 255 255
-0.129 -0.024 0.662 255 255 255
0.019 0.187 0.473 255 255 255
0.046 -0.167 0.927 255 255 255
-0.126 0.174 0.326 255 255 255
-0.065 0.041 0.531 255 255 255
0.303 0.168 0.581 255 255 255
0.131 0.085 0.636 255 255 255
-0.306 -0.083 0.474 0 0 0
-0.063 0.002 0.653 255 255 255
0.168 -0.308 0.74 255 255 255
0.278 0.28 0.631 0 0 0
0.065 -0.322 0.894 255 255 255
0.281 -0.185 0.586 255 255 255
0.034 -0.2 0.947 255 255 255
-0.278 -0.272 0.845 0 0 0
-0.006 0.119 0.421 255 255 255
0.292 -0.065 0.58 255 255 255
-0.306 -0.017 0.537 255 255 255
-0.06 -0.165 0.847 255 255 255
-0.102 0.131 0.363 255 255 255
-0.097 -0.319 0.981 255 255 255
-0.246 -0.384 0.81 0 0 0
0.028 0.041 0.62 255 255 255
-0.065 0.212 0.422 255 255 255
0.258 -0.044 0.634 255 255 255
-0.082 0.118 0.392 255 255 255
0.182 0.118 0.656 255 255 255
0.015 -0.006 0.741 255 255 255
0.138 0.06 0.756 255 255 255
-0.148 0.012 0.565 255 255 255
0.016 -0.487 0.929 255 255 255
-0.268 -0.024 0.57 255 255 255
-0.092 -0.483 0.744 255 255 255
0.206 -0.1 0.7 255 255 255
0.157 0.437 0.814 255 255 255
-0.037 -0.557 0.862 255 255 255
-0.087 0.15 0.34 255 255 255
0.12 -0.31 0.81 255 255 255
0.331 -0.107 0.521 255 255 255
-0.296 -0.186 0.457 255 255 255
0.003 0.106 0.46 255 255 255
0.337 0.042 0.528 255 255 255
-0.209 -0.28 0.744 255 255 255
-0.091 -0.59 0.796 0 0 0
-0.275 -0.466 0.743 255 255 255
0.006 0.136 0.407 255 255 255
-0.016 -0.099 1.018 255 255 255
0.226 -0.261 0.662 255 255 255
0.268 -0.061 0.616 255 255 255
0.237 0.131 0.671 255 255 255
0.217 0.066 0.691 255 255 255
-0.279 -0.33 0.822 255 255 255
0.212 -0.276 0.679 255 255 255
-0.318 -0.055 0.61 255 255 255
0.089 -0.496 0.845 255 255 255
-0.132 0.078 0.439 255 255 255
0.007 -0.042 0.883 0 0 0
-0.114 0.037 0.531 255 255 255
0.188 -0.339 0.709 255 255 255
0.205 -0.471 0.675 255 255 255
0.206 -0.322 0.685 255 255 255
0.22 0.249 0.705 255 255 255
-0.08 -0.282 1.003 0 0 0
0.055 0.323 0.645 255 255 255
-0.103 0.013 0.591 255 255 255
0.237 -0.194 0.653 255 255 255
0.275 -0.186 0.594 255 255 255
0.199 -0.147 0.708 255 255 255
0.157 -0.514 0.742 255 255 255
0.143 0.073 0.725 0 0 0
-0.368 -0.371 0.732 255 255 255
-0.24 -0.037 0.618 255 255 255
-0.187 -0.484 0.791 255 255 255
-0.1 -0.346 0.958 255 255 255
-0.019 0.165 0.409 255 255 255
0.037 0.134 0.431 255 255 255
0.181 0.064 0.744 255 255 255
0.214 0.346 0.726 255 255 255
-0.129 0.06 0.475 255 255 255
-0.067 -0.141 0.857 255 255 255
