ply
format ascii 1.0
comment Created by Open3D
element vertex 1591
property double x
property double y
property double z
property uchar red
property uchar green
property uchar blue
end_header
0.158 -0.245 0.72 255 255 255
-0.195 -0.487 0.802 255 255 255
-0.093 0.137 0.41 255 255 255
-0.253 0 0.663 255 255 255
-0.379 -0.288 0.755 255 255 255
0.245 -0.293 0.591 255 255 255
-0.324 -0.475 0.703 255 255 255
-0.067 0.144 0.412 255 255 255
-0.316 0.045 0.499 255 255 255
-0.212 -0.348 0.866 0 0 0
-0.071 0.115 0.481 255 255 255
-0.132 -0.409 0.773 255 255 255
-0.178 0.133 0.371 255 255 255
-0.101 -0.083 0.852 255 255 255
0.249 -0.237 0.602 255 255 255
-0.221 0.061 0.523 255 255 255
-0.319 -0.054 0.48 255 255 255
-0.17 0.038 0.621 255 255 255
0.092 -0.358 0.801 255 255 255
0.182 -0.262 0.687 255 255 255
-0.406 -0.075 0.835 255 255 255
-0.185 -0.135 1.015 0 0 0
0.235 0.24 0.65 255 255 255
-0.153 0.132 0.387 255 255 255
0.179 -0.429 0.674 255 255 255
0.258 -0.254 0.586 255 255 255
0.108 -0.32 0.78 255 255 255
-0.11 0.097 0.499 0 0 0
0.209 -0.126 0.662 255 255 255
0.032 -0.098 0.894 255 255 255
0.078 -0.549 0.801 255 255 255
-0.129 -0.359 0.804 255 255 255
-0.064 0.169 0.376 255 255 255
-0.287 -0.128 0.455 0 0 0
0.198 -0.326 0.626 255 255 255
-0.141 0.115 0.435 255 255 255
-0.117 0.138 0.395 255 255 255
-0.135 0.161 0.338 255 255 255
0.119 0.124 0.719 0 0 0
-0.022 -0.571 0.884 255 255 255
0.093 -0.003 0.817 255 255 255
-0.249 -0.148 0.777 255 255 255
0.103 0.058 0.806 0 0 0
0.038 -0.567 0.851 255 255 255
-0.049 0.095 0.515 0 0 0
-0.103 0.122 0.44 255 255 255
0.226 0.003 0.652 255 255 255
0.2 -0.141 0.671 255 255 255
0.118 -0.267 0.771 255 255 255
0.3 -0.125 0.541 255 255 255
-0.36 -0.119 0.87 255 255 255
0.123 0.135 0.657 255 255 255
0.292 -0.115 0.549 255 255 255
0.176 -0.433 0.68 255 255 255
0.143 -0.107 0.747 255 255 255
-0.132 -0.573 0.803 255 255 255
0.288 -0.254 0.548 255 255 255
0.175 0.037 0.714 255 255 255
-0.473 -0.097 0.797 255 255 255
0.069 0.071 0.845 0 0 0
0.147 0.079 0.75 255 255 255
-0.074 0.064 0.564 255 255 255
-0.006 0.103 0.579 255 255 255
-0.176 0.104 0.449 255 255 255
0.077 -0.001 0.838 255 255 255
-0.102 -0.506 0.866 255 255 255
0.227 -0.144 0.637 255 255 255
-0.224 -0.105 0.892 0 0 0
0.222 0.184 0.628 255 255 255
-0.048 0.128 0.465 0 0 0
-0.35 0.033 0.51 255 255 255
0.245 -0.098 0.616 255 255 255
0.211 -0.248 0.651 255 255 255
-0.284 -0.283 0.795 0 0 0
-0.207 -0.544 0.755 0 0 0
-0.146 -0.487 0.833 255 255 255
-0.28 0.02 0.586 255 255 255
0.137 -0.399 0.735 255 255 255
0.259 -0.006 0.608 255 255 255
0.002 -0.63 0.861 0 0 0
0.247 -0.243 0.603 255 255 255
-0.31 -0.147 0.447 255 255 255
0.186 -0.136 0.69 255 255 255
0.139 0.051 0.76 255 255 255
0.089 -0.143 0.816 255 255 255
0.229 -0.204 0.628 255 255 255
0.186 0.396 0.727 255 255 255
0.254 -0.119 0.604 255 255 255
-0.05 0.136 0.444 255 255 255
-0.364 -0.24 0.796 255 255 255
0.145 -0.128 0.744 255 255 255
-0.023 0.136 0.467 255 255 255
0.202 -0.218 0.665 255 255 255
0.287 -0.17 0.555 255 255 255
0.094 -0.462 0.79 255 255 255
0.349 -0.109 0.489 255 255 255
-0.166 -0.024 0.805 0 0 0
0.126 -0.077 0.773 255 255 255
0.26 -0.449 0.571 255 255 255
-0.112 0.148 0.374 255 255 255
-0.224 0.052 0.543 255 255 255
0.068 -0.108 0.847 255 255 255
-0.12 0.16 0.348 255 255 255
0.111 0.305 0.649 255 255 255
0.224 -0.049 0.65 255 255 255
0.336 0.038 0.514 255 255 255
-0.042 -0.56 0.879 255 255 255
-0.054 0.15 0.409 255 255 255
0.008 0.107 0.583 0 0 0
0.129 -0.512 0.739 255 255 255
0.12 -0.296 0.767 255 255 255
0.248 0.083 0.622 255 255 255
-0.069 0.133 0.438 255 255 255
-0.264 0.026 0.585 255 255 255
0.108 -0.474 0.77 255 255 255
-0.394 -0.059 0.823 255 255 255
-0.064 0.171 0.377 255 255 255
-0.153 -0.2 0.861 255 255 255
-0.051 0.078 0.536 0 0 0
0.3 -0.277 0.529 255 255 255
0.229 0.289 0.661 255 255 255
0.151 -0.211 0.731 255 255 255
0.087 -0.245 0.815 255 255 255
0.282 -0.116 0.565 255 255 255
-0.448 -0.161 0.775 255 255 255
0.275 -0.223 0.566 255 255 255
0.209 -0.069 0.664 255 255 255
0.182 0.033 0.705 255 255 255
-0.246 -0.231 0.744 0 0 0
-0.389 -0.388 0.699 255 255 255
-0.081 -0.006 0.824 0 0 0
-0.122 0.121 0.43 255 255 255
0.123 0.178 0.526 255 255 255
0.157 -0.274 0.718 255 255 255
-0.067 -0.468 0.917 255 255 255
-0.032 0.126 0.482 0 0 0
0.272 -0.298 0.561 255 255 255
0.034 0.152 0.452 255 255 255
-0.408 -0.359 0.7 255 255 255
-0.317 -0.121 0.857 0 0 0
0.24 -0.359 0.591 0 0 0
0.026 -0.348 0.89 255 255 255
0.137 -0.375 0.736 255 255 255
-0.189 -0.015 0.759 255 255 255
-0.374 -0.195 0.815 255 255 255
0.276 -0.212 0.567 255 255 255
-0.022 0.08 0.554 255 255 255
0.333 -0.067 0.504 255 255 255
0.2 -0.43 0.646 255 255 255
-0.115 0.097 0.498 255 255 255
-0.129 0.135 0.395 255 255 255
0.289 -0.126 0.557 255 255 255
-0.281 -0.517 0.712 0 0 0
0.005 0.102 0.592 255 255 255
-0.175 0.019 0.674 255 255 255
-0.264 -0.136 0.758 255 255 255
-0.045 -0.617 0.842 0 0 0
-0.151 -0.521 0.816 255 255 255
0.048 0.1 0.643 255 255 255
0.348 -0.05 0.49 255 255 255
-0.05 0.165 0.391 255 255 255
0.111 -0.322 0.776 255 255 255
0.037 -0.07 0.886 255 255 255
0.159 -0.098 0.726 255 255 255
0.03 0.011 0.897 255 255 255
-0.151 -0.293 0.821 255 255 255
-0.148 0.136 0.381 255 255 255
0.282 0.123 0.58 255 255 255
-0.329 -0.1 0.446 255 255 255
-0.319 -0.117 0.864 0 0 0
-0.213 0.029 0.614 255 255 255
0.161 0.034 0.73 255 255 255
0.154 0.406 0.767 255 255 255
-0.074 -0.31 0.996 255 255 255
-0.01 -0.142 0.95 255 255 255
-0.122 -0.365 0.938 0 0 0
-0.43 -0.302 0.719 255 255 255
0.273 0.174 0.596 255 255 255
0.269 -0.046 0.592 255 255 255
0.345 -0.156 0.497 255 255 255
-0.104 0.076 0.556 255 255 255
-0.032 0.134 0.462 255 255 255
0.116 -0.396 0.765 255 255 255
-0.05 0.167 0.388 255 255 255
-0.306 -0.145 0.452 255 255 255
-0.064 0.073 0.549 255 255 255
-0.395 -0.394 0.693 255 255 255
-0.089 -0.415 0.929 255 255 255
-0.324 -0.493 0.686 255 255 255
-0.111 0.098 0.498 0 0 0
-0.066 -0.431 0.936 255 255 255
-0.219 -0.075 0.862 0 0 0
0.02 -0.039 0.909 255 255 255
0.181 -0.157 0.695 255 255 255
0.014 -0.115 0.916 255 255 255
0.193 -0.3 0.671 255 255 255
0.041 0.167 0.425 255 255 255
-0.284 -0.156 0.446 0 0 0
0.222 -0.294 0.632 255 255 255
-0.022 -0.343 0.948 255 255 255
-0.122 0.112 0.456 255 255 255
0.275 0.11 0.588 255 255 255
0.338 -0.134 0.501 255 255 255
0.331 -0.092 0.503 255 255 255
0.092 0.139 0.569 0 0 0
0.286 -0.381 0.547 255 255 255
-0.111 0.118 0.442 255 255 255
-0.072 -0.108 1.023 255 255 255
0.27 -0.036 0.592 255 255 255
0.003 -0.072 0.932 255 255 255
-0.314 -0.145 0.858 0 0 0
-0.134 -0.001 0.774 255 255 255
-0.401 -0.333 0.719 255 255 255
-0.232 0.011 0.648 255 255 255
0.265 0.193 0.608 255 255 255
0.085 -0.061 0.824 0 0 0
0.295 -0.11 0.547 255 255 255
0.277 -0.313 0.56 255 255 255
0.288 -0.222 0.55 255 255 255
0.289 -0.27 0.542 255 255 255
0.262 0.046 0.605 255 255 255
-0.248 -0.499 0.747 255 255 255
-0.365 -0.205 0.815 255 255 255
-0.016 0.056 0.719 255 255 255
-0.165 -0.481 0.823 0 0 0
-0.164 0.072 0.53 255 255 255
0 -0.504 0.9 255 255 255
0.309 0.041 0.542 255 255 255
0.039 -0.197 0.881 255 255 255
0.314 -0.274 0.528 255 255 255
-0.203 0.074 0.502 255 255 255
0.177 0.322 0.731 255 255 255
0.223 0.139 0.655 255 255 255
0.171 -0.072 0.713 255 255 255
0.143 0.177 0.629 255 255 255
-0.265 -0.491 0.737 255 255 255
0.296 -0.214 0.54 255 255 255
-0.07 0.152 0.39 255 255 255
0.128 -0.192 0.763 255 255 255
-0.112 0.092 0.51 0 0 0
0.195 0.065 0.687 255 255 255
0.022 0.126 0.539 255 255 255
-0.331 -0.098 0.445 255 255 255
0.195 -0.099 0.68 255 255 255
0.015 -0.433 0.894 255 255 255
-0.2 -0.425 0.831 0 0 0
0.274 0.062 0.587 255 255 255
0.259 -0.191 0.59 255 255 255
0.281 0.117 0.581 255 255 255
0.106 0.087 0.802 0 0 0
0.352 -0.021 0.488 255 255 255
0.213 -0.365 0.622 255 255 255
0.163 -0.389 0.701 0 0 0
0.264 -0.29 0.573 255 255 255
-0.192 -0.079 0.888 255 255 255
-0.026 0.14 0.451 255 255 255
0.187 0.019 0.698 255 255 255
0.271 0.062 0.591 255 255 255
0.214 0.151 0.667 255 255 255
0.327 -0.086 0.511 255 255 255
-0.183 0.132 0.372 255 255 255
0.164 -0.336 0.704 255 255 255
-0.28 -0.541 0.695 255 255 255
-0.255 -0.5 0.743 255 255 255
0.097 -0.56 0.778 255 255 255
0.255 0.125 0.614 255 255 255
0.294 -0.351 0.548 255 255 255
0.35 -0.094 0.486 255 255 255
-0.028 0.177 0.372 255 255 255
0.246 0.346 0.651 255 255 255
-0.044 -0.452 0.937 255 255 255
-0.009 0.227 0.439 255 255 255
-0.299 -0.168 0.448 255 255 255
-0.229 0.019 0.632 255 255 255
0.252 0.28 0.634 0 0 0
-0.288 -0.18 0.443 255 255 255
0.069 -0.412 0.828 255 255 255
0.351 -0.151 0.496 255 255 255
0.027 0.148 0.464 255 255 255
-0.185 -0.193 0.835 255 255 255
0.328 -0.056 0.512 255 255 255
-0.121 -0.385 0.923 0 0 0
-0.029 0.159 0.399 255 255 255
-0.057 0.147 0.413 255 255 255
0.079 0.145 0.512 255 255 255
-0.277 -0.508 0.716 255 255 255
-0.144 0.068 0.555 0 0 0
-0.071 0.15 0.395 255 255 255
0.35 -0.042 0.489 255 255 255
0.067 -0.203 0.844 255 255 255
-0.19 -0.436 0.834 255 255 255
0.283 -0.225 0.557 255 255 255
0.009 -0.101 0.925 255 255 255
-0.202 0.02 0.649 255 255 255
0.022 0.049 0.867 255 255 255
-0.298 -0.028 0.769 255 255 255
-0.117 0.143 0.384 255 255 255
-0.245 -0.216 0.749 255 255 255
0.21 -0.317 0.609 255 255 255
-0.335 -0.472 0.694 255 255 255
0.166 -0.09 0.717 255 255 255
-0.193 0.063 0.532 255 255 255
-0.384 -0.296 0.75 255 255 255
-0.316 -0.487 0.697 255 255 255
0.224 0.294 0.668 255 255 255
0.288 -0.118 0.559 255 255 255
0.167 0.177 0.563 255 255 255
-0.051 -0.3 0.985 255 255 255
-0.045 0.138 0.439 255 255 255
-0.19 -0.101 0.929 255 255 255
0.101 -0.21 0.798 255 255 255
0.224 -0.064 0.648 255 255 255
-0.016 -0.211 0.953 255 255 255
-0.442 -0.061 0.781 255 255 255
-0.203 -0.026 0.772 0 0 0
-0.16 0.071 0.539 255 255 255
-0.092 -0.308 0.988 255 255 255
0.238 -0.39 0.59 255 255 255
-0.139 -0.212 1.008 255 255 255
-0.213 -0.511 0.77 255 255 255
0.129 -0.058 0.768 255 255 255
-0.317 -0.122 0.449 255 255 255
-0.074 -0.038 1.028 255 255 255
-0.221 -0.018 0.735 255 255 255
-0.018 -0.413 0.933 255 255 255
0.252 -0.427 0.578 0 0 0
-0.139 -0.336 0.807 255 255 255
0.351 -0.123 0.488 255 255 255
-0.272 -0.031 0.763 0 0 0
0.004 -0.459 0.902 255 255 255
-0.146 0.13 0.395 255 255 255
-0.234 -0.013 0.715 255 255 255
0.255 -0.282 0.592 255 255 255
-0.369 -0.375 0.723 255 255 255
0.166 -0.277 0.707 255 255 255
-0.008 0.044 0.749 0 0 0
0.141 -0.103 0.752 255 255 255
-0.213 -0.412 0.825 255 255 255
-0.157 0.044 0.614 255 255 255
-0.419 -0.105 0.829 255 255 255
0.136 0.137 0.69 0 0 0
-0.268 0.06 0.498 255 255 255
-0.321 0.002 0.612 255 255 255
-0.001 0.145 0.454 255 255 255
0.033 -0.63 0.842 0 0 0
0.104 0.122 0.684 255 255 255
0.196 -0.435 0.652 255 255 255
-0.063 -0.038 1.013 255 255 255
-0.154 0.041 0.626 255 255 255
-0.361 -0.246 0.797 255 255 255
0.045 -0.325 0.865 255 255 255
0.242 -0.252 0.61 255 255 255
-0.07 -0.319 0.991 255 255 255
-0.021 0.133 0.473 255 255 255
-0.326 -0.065 0.469 255 255 255
0.327 -0.062 0.515 255 255 255
-0.334 -0.372 0.749 255 255 255
-0.313 -0.442 0.728 255 255 255
-0.319 -0.104 0.456 255 255 255
-0.191 -0.123 1.002 0 0 0
-0.024 0.136 0.465 255 255 255
-0.365 -0.272 0.778 255 255 255
-0.029 0.179 0.371 255 255 255
0.192 -0.493 0.653 0 0 0
0.286 -0.058 0.568 255 255 255
0.234 0.12 0.642 255 255 255
0.192 0.174 0.639 0 0 0
-0.113 0.126 0.424 255 255 255
-0.166 -0.212 0.984 0 0 0
-0.219 -0.347 0.862 255 255 255
-0.12 0.128 0.416 255 255 255
-0.116 -0.06 0.863 255 255 255
0.093 0.099 0.777 0 0 0
0.033 0.243 0.485 255 255 255
0.154 -0.182 0.728 255 255 255
0.109 0.141 0.559 255 255 255
0.091 -0.396 0.798 255 255 255
0.288 -0.194 0.552 255 255 255
-0.178 0.068 0.531 255 255 255
0.167 -0.274 0.705 255 255 255
-0.056 0.109 0.48 255 255 255
0.338 0.034 0.509 255 255 255
-0.103 0.068 0.572 255 255 255
-0.31 0.008 0.604 255 255 255
0.005 0.146 0.452 255 255 255
-0.087 0.094 0.509 255 255 255
-0.126 0.122 0.426 255 255 255
-0.344 0.016 0.558 255 255 255
0.067 -0.502 0.822 255 255 255
0.021 0.061 0.8 0 0 0
-0.19 0.065 0.531 255 255 255
0.184 -0.014 0.701 255 255 255
0.264 0.292 0.622 0 0 0
0.022 -0.32 0.896 255 255 255
-0.231 -0.454 0.785 255 255 255
-0.097 -0.56 0.838 255 255 255
-0.4 -0.277 0.747 255 255 255
0.06 -0.104 0.856 255 255 255
-0.055 0.032 0.747 255 255 255
0.121 0.068 0.783 255 255 255
-0.142 -0.368 0.788 255 255 255
0.169 0.369 0.747 255 255 255
0.262 0.219 0.616 255 255 255
0.262 -0.441 0.567 0 0 0
-0.33 -0.36 0.758 255 255 255
0.017 0.23 0.464 255 255 255
-0.153 -0.288 0.822 255 255 255
-0.201 -0.443 0.82 255 255 255
0.241 -0.047 0.628 255 255 255
-0.114 0.105 0.479 255 255 255
0.323 0.011 0.525 255 255 255
-0.016 -0.478 0.921 255 255 255
-0.02 -0.193 0.959 255 255 255
-0.092 -0.54 0.853 255 255 255
-0.055 0.087 0.531 255 255 255
-0.101 -0.459 0.899 255 255 255
-0.244 -0.428 0.788 255 255 255
0.002 0.099 0.598 255 255 255
0.235 -0.377 0.595 0 0 0
-0.296 -0.485 0.716 255 255 255
-0.216 -0.001 0.697 255 255 255
-0.348 -0.253 0.802 255 255 255
0.272 -0.432 0.559 0 0 0
0.241 0.035 0.633 255 255 255
-0.378 0.019 0.528 255 255 255
-0.15 0.031 0.661 255 255 255
-0.044 -0.448 0.939 255 255 255
-0.163 0.069 0.541 255 255 255
-0.283 -0.438 0.751 255 255 255
0.29 -0.15 0.554 255 255 255
-0.071 0.077 0.545 255 255 255
-0.2 -0.004 0.716 255 255 255
0.243 0.069 0.628 255 255 255
-0.243 0.01 0.645 255 255 255
-0.075 0.141 0.413 255 255 255
0.243 -0.22 0.609 255 255 255
0.225 0.084 0.649 255 255 255
0.261 -0.352 0.568 255 255 255
0.2 -0.25 0.664 255 255 255
-0.012 0.14 0.46 255 255 255
-0.135 -0.502 0.841 255 255 255
-0.143 0.019 0.703 255 255 255
-0.037 -0.072 0.983 255 255 255
-0.11 -0.451 0.894 0 0 0
0.207 -0.005 0.673 255 255 255
0.225 -0.028 0.652 255 255 255
0.165 -0.285 0.707 255 255 255
0.076 -0.42 0.818 255 255 255
-0.333 -0.496 0.678 0 0 0
0.193 0.385 0.716 255 255 255
0.093 0.115 0.688 255 255 255
-0.208 -0.161 0.877 255 255 255
-0.307 -0.03 0.47 255 255 255
-0.064 0.147 0.408 255 255 255
0.121 -0.469 0.753 255 255 255
-0.044 0.205 0.375 255 255 255
-0.137 -0.33 0.91 0 0 0
-0.05 0.06 0.675 255 255 255
0.002 -0.009 0.934 255 255 255
-0.29 -0.107 0.456 0 0 0
0.353 -0.084 0.485 255 255 255
0.123 0.128 0.708 0 0 0
0.294 0.156 0.571 255 255 255
-0.098 0.096 0.51 0 0 0
0.205 -0.317 0.65 255 255 255
0.107 0.079 0.801 0 0 0
-0.243 -0.196 0.769 255 255 255
0.025 0.222 0.465 255 255 255
-0.137 -0.359 0.799 255 255 255
-0.183 0.087 0.48 255 255 255
0.229 0.065 0.646 255 255 255
-0.406 -0.224 0.77 255 255 255
0.258 0.217 0.619 255 255 255
-0.185 0.06 0.547 0 0 0
0.253 0.3 0.636 255 255 255
0.097 -0.351 0.793 255 255 255
-0.095 -0.382 0.945 255 255 255
-0.316 -0.107 0.83 255 255 255
0.191 -0.462 0.656 255 255 255
-0.283 -0.469 0.735 255 255 255
0.303 -0.135 0.537 255 255 255
0.263 -0.005 0.6 255 255 255
-0.165 0.08 0.508 255 255 255
0.332 -0.038 0.509 255 255 255
0.132 -0.319 0.749 255 255 255
-0.398 -0.151 0.819 255 255 255
-0.18 0.071 0.523 255 255 255
0.11 -0.257 0.782 255 255 255
-0.06 0.097 0.503 255 255 255
-0.061 -0.135 1.01 255 255 255
-0.175 0.052 0.577 255 255 255
0.13 0.028 0.771 255 255 255
0.184 -0.279 0.684 255 255 255
-0.109 -0.345 0.955 255 255 255
-0.083 -0.422 0.93 255 255 255
-0.283 0 0.641 255 255 255
0.216 0.04 0.662 255 255 255
0.246 -0.243 0.604 255 255 255
-0.133 0.094 0.492 255 255 255
-0.387 -0.196 0.803 255 255 255
-0.107 0.125 0.429 255 255 255
-0.095 0.161 0.374 255 255 255
-0.086 -0.11 0.873 255 255 255
0.003 0.109 0.57 255 255 255
-0.263 -0.553 0.703 255 255 255
0.219 -0.016 0.657 255 255 255
-0.052 0.154 0.403 255 255 255
-0.228 -0.057 0.853 0 0 0
-0.012 -0.36 0.936 255 255 255
0.056 0.13 0.562 0 0 0
-0.09 -0.02 0.851 0 0 0
-0.322 -0.065 0.47 255 255 255
0.159 -0.359 0.708 0 0 0
0.187 -0.192 0.685 255 255 255
0.022 0.175 0.416 255 255 255
0.197 -0.228 0.67 255 255 255
0.322 -0.238 0.525 255 255 255
0.113 0.085 0.793 0 0 0
0.295 0.064 0.562 255 255 255
-0.137 0.061 0.579 255 255 255
0.208 -0.346 0.612 255 255 255
-0.05 0.151 0.406 255 255 255
-0.248 -0.022 0.729 0 0 0
-0.424 -0.309 0.716 255 255 255
0.243 0.111 0.628 255 255 255
0.349 -0.047 0.49 255 255 255
0.147 0.156 0.639 255 255 255
0.199 -0.352 0.655 255 255 255
0.311 0.013 0.541 255 255 255
0.02 0.02 0.911 255 255 255
0.062 0.174 0.445 255 255 255
-0.331 -0.401 0.737 255 255 255
-0.104 -0.573 0.823 255 255 255
-0.31 -0.438 0.732 255 255 255
-0.017 0.112 0.511 255 255 255
-0.105 0.093 0.511 0 0 0
0.204 -0.315 0.613 255 255 255
-0.23 -0.072 0.821 255 255 255
0.068 0.144 0.517 255 255 255
0.333 -0.081 0.504 255 255 255
-0.179 -0.203 0.838 255 255 255
0.148 -0.07 0.742 255 255 255
0.121 -0.152 0.774 255 255 255
0.249 -0.383 0.581 255 255 255
-0.104 0.048 0.648 255 255 255
-0.214 0.061 0.527 255 255 255
0.266 -0.331 0.566 255 255 255
0.284 0.081 0.576 255 255 255
-0.082 -0.497 0.888 255 255 255
0.29 -0.184 0.549 255 255 255
-0.289 0.022 0.584 255 255 255
0.195 -0.079 0.681 255 255 255
0.013 -0.56 0.876 255 255 255
0.214 0.125 0.665 255 255 255
0.175 0.371 0.739 255 255 255
0.191 0.177 0.635 0 0 0
-0.231 0.025 0.613 255 255 255
-0.22 0.012 0.654 255 255 255
-0.094 0.126 0.437 255 255 255
-0.099 -0.318 0.978 255 255 255
-0.061 -0.068 1.01 255 255 255
0.052 -0.37 0.852 255 255 255
-0.173 0.04 0.613 255 255 255
-0.155 -0.27 0.828 255 255 255
-0.198 0.049 0.574 255 255 255
0.141 0.189 0.642 255 255 255
0.284 0.223 0.59 255 255 255
0.219 0.072 0.658 255 255 255
0.31 -0.101 0.529 255 255 255
-0.122 0.127 0.417 255 255 255
-0.324 0.012 0.583 255 255 255
-0.104 -0.407 0.925 255 255 255
-0.08 0.136 0.422 255 255 255
-0.31 -0.533 0.675 255 255 255
0.217 -0.366 0.608 255 255 255
-0.097 -0.087 1.049 0 0 0
-0.271 -0.007 0.671 255 255 255
-0.271 0.046 0.53 255 255 255
0.207 -0.173 0.663 255 255 255
0.125 -0.361 0.755 255 255 255
0.197 0.251 0.695 255 255 255
-0.116 0.036 0.679 255 255 255
-0.415 -0.275 0.738 255 255 255
-0.129 -0.369 0.927 0 0 0
-0.012 -0.079 0.951 255 255 255
0.086 0.073 0.829 0 0 0
-0.265 -0.526 0.716 0 0 0
-0.429 -0.215 0.759 255 255 255
0.161 -0.176 0.719 255 255 255
0.182 -0.051 0.701 255 255 255
-0.044 -0.514 0.907 255 255 255
-0.38 -0.109 0.86 255 255 255
0.124 -0.393 0.754 255 255 255
-0.096 -0.183 0.847 0 0 0
-0.284 -0.436 0.751 255 255 255
-0.376 -0.225 0.796 255 255 255
-0.159 0.078 0.519 255 255 255
0.348 -0.046 0.494 255 255 255
0.143 0.035 0.755 255 255 255
-0.415 -0.127 0.819 255 255 255
-0.164 0.119 0.409 255 255 255
0.048 0.067 0.727 0 0 0
0 0.181 0.395 255 255 255
0.035 0.115 0.589 255 255 255
-0.342 -0.058 0.46 255 255 255
-0.189 -0.06 0.856 255 255 255
0.04 0.179 0.418 255 255 255
0.24 -0.297 0.608 0 0 0
-0.073 0.17 0.369 255 255 255
-0.023 0.192 0.374 255 255 255
-0.048 0.163 0.391 255 255 255
0.103 0.01 0.805 255 255 255
-0.019 0.136 0.466 255 255 255
-0.179 0.078 0.505 255 255 255
0.322 -0.065 0.519 255 255 255
-0.455 -0.115 0.793 255 255 255
0.171 -0.278 0.7 255 255 255
0.122 -0.25 0.766 255 255 255
0.039 0.127 0.558 255 255 255
-0.1 0.025 0.731 255 255 255
0.159 -0.394 0.705 255 255 255
0.049 -0.516 0.846 255 255 255
0.286 -0.04 0.569 255 255 255
-0.322 -0.092 0.462 255 255 255
-0.091 0.177 0.338 255 255 255
0.126 -0.441 0.747 255 255 255
0.271 -0.024 0.591 255 255 255
-0.32 0.045 0.498 255 255 255
0.343 -0.088 0.492 255 255 255
-0.131 0.07 0.559 255 255 255
-0.048 -0.073 0.995 255 255 255
0.272 0.163 0.596 255 255 255
0.084 -0.062 0.826 0 0 0
0.086 0.113 0.648 255 255 255
-0.098 0.154 0.371 255 255 255
0.274 0.185 0.596 255 255 255
0.222 -0.181 0.64 255 255 255
0.126 0.056 0.776 255 255 255
0.301 -0.071 0.546 255 255 255
-0.198 -0.31 0.846 0 0 0
0.236 0.285 0.654 255 255 255
-0.312 -0.119 0.458 255 255 255
0.308 0.112 0.552 255 255 255
-0.154 -0.258 0.833 255 255 255
-0.21 -0.15 0.879 255 255 255
0.272 0.008 0.591 255 255 255
-0.056 0.176 0.362 255 255 255
0.306 0.11 0.554 255 255 255
-0.141 -0.032 0.843 0 0 0
0.105 -0.248 0.788 255 255 255
-0.03 -0.535 0.899 255 255 255
-0.099 -0.095 0.846 255 255 255
-0.302 -0.199 0.807 0 0 0
-0.183 0.076 0.507 255 255 255
0.265 0.012 0.6 255 255 255
-0.058 -0.438 0.937 255 255 255
0.194 -0.1 0.682 255 255 255
0.22 -0.11 0.65 255 255 255
0.26 0.284 0.623 0 0 0
0.183 -0.478 0.669 255 255 255
0.137 0.248 0.63 255 255 255
0.199 -0.283 0.663 255 255 255
-0.236 0.041 0.566 255 255 255
0.033 -0.03 0.89 255 255 255
-0.133 0.065 0.57 255 255 255
-0.061 0.183 0.347 255 255 255
0.019 -0.504 0.882 255 255 255
-0.173 -0.063 0.875 255 255 255
-0.33 -0.057 0.47 255 255 255
-0.304 -0.009 0.653 255 255 255
-0.224 -0.106 0.899 255 255 255
-0.194 -0.23 0.767 255 255 255
-0.012 0.149 0.437 255 255 255
0.316 -0.132 0.52 255 255 255
0.152 0.029 0.742 255 255 255
-0.232 -0.233 0.766 255 255 255
0.136 -0.42 0.734 255 255 255
0.279 0.238 0.598 255 255 255
-0.147 -0.053 0.879 255 255 255
0.225 0.034 0.653 255 255 255
0.168 -0.084 0.718 255 255 255
-0.183 -0.206 0.83 255 255 255
0.294 -0.085 0.553 255 255 255
0.275 0.222 0.598 255 255 255
-0.091 0.171 0.357 255 255 255
-0.296 0.063 0.467 255 255 255
-0.142 -0.265 0.881 0 0 0
0.235 -0.263 0.617 255 255 255
0.227 -0.307 0.601 255 255 255
0.18 0.1 0.707 255 255 255
-0.355 -0.046 0.844 255 255 255
-0.381 -0.267 0.764 255 255 255
0.011 -0.527 0.886 255 255 255
0.154 -0.095 0.733 255 255 255
0.094 -0.413 0.792 255 255 255
-0.176 0.01 0.7 255 255 255
-0.188 -0.362 0.835 0 0 0
-0.29 -0.519 0.703 0 0 0
-0.308 -0.193 0.841 0 0 0
-0.17 0.1 0.456 255 255 255
0.051 -0.322 0.857 255 255 255
0.206 -0.268 0.656 255 255 255
-0.064 0.007 0.806 0 0 0
0.301 -0.253 0.538 255 255 255
-0.177 -0.49 0.815 255 255 255
-0.155 0.105 0.453 255 255 255
0.07 0.263 0.564 255 255 255
-0.148 0.151 0.349 255 255 255
-0.225 -0.065 0.85 0 0 0
-0.149 0.099 0.471 255 255 255
0.023 -0.037 0.904 255 255 255
-0.31 -0.052 0.812 255 255 255
0.214 0.087 0.664 255 255 255
-0.13 0.088 0.514 255 255 255
-0.024 -0.514 0.913 255 255 255
0.298 -0.05 0.552 255 255 255
-0.058 0.152 0.398 255 255 255
0.148 0.167 0.629 255 255 255
0.256 -0.305 0.578 255 255 255
-0.233 -0.519 0.75 255 255 255
-0.295 0.012 0.605 255 255 255
-0.405 -0.272 0.747 255 255 255
0.053 0.007 0.868 255 255 255
-0.311 -0.124 0.457 255 255 255
0.228 -0.185 0.633 255 255 255
0.291 -0.268 0.54 255 255 255
0.157 -0.335 0.713 255 255 255
-0.054 -0.144 1.003 255 255 255
-0.076 0.171 0.359 255 255 255
0.132 0.008 0.767 255 255 255
-0.37 -0.14 0.85 255 255 255
-0.113 0.174 0.332 255 255 255
-0.228 0.031 0.597 255 255 255
-0.235 0.053 0.533 255 255 255
0.142 -0.457 0.725 255 255 255
0.086 -0.505 0.797 255 255 255
0.207 -0.064 0.668 255 255 255
0.021 -0.413 0.889 255 255 255
0.105 -0.038 0.798 255 255 255
0.322 -0.183 0.513 255 255 255
-0.041 0.157 0.41 255 255 255
0.217 0.144 0.664 255 255 255
0.227 0.164 0.654 255 255 255
-0.01 0.184 0.38 255 255 255
0.063 -0.415 0.835 255 255 255
-0.236 -0.159 0.775 0 0 0
0.249 0.025 0.623 255 255 255
-0.178 0.03 0.641 255 255 255
-0.37 -0.322 0.746 255 255 255
-0.087 -0.106 0.887 255 255 255
-0.295 0.065 0.463 255 255 255
-0.392 -0.299 0.741 255 255 255
-0.309 -0.118 0.461 255 255 255
0.172 -0.004 0.719 255 255 255
0.309 -0.017 0.54 255 255 255
-0.203 -0.043 0.832 255 255 255
-0.078 -0.182 1.021 0 0 0
-0.193 0.005 0.7 255 255 255
-0.15 0.08 0.519 255 255 255
0.165 -0.025 0.725 255 255 255
0.182 0.391 0.73 255 255 255
-0.255 -0.374 0.81 255 255 255
-0.413 -0.325 0.714 255 255 255
0.225 -0.045 0.649 255 255 255
-0.03 -0.511 0.912 255 255 255
0.017 -0.325 0.904 255 255 255
0.24 0.267 0.648 255 255 255
0.101 -0.132 0.801 0 0 0
0.046 0.339 0.625 255 255 255
0.321 0.033 0.528 255 255 255
-0.297 -0.349 0.791 255 255 255
0.183 -0.398 0.674 255 255 255
0.275 -0.269 0.564 255 255 255
0.323 -0.021 0.523 255 255 255
-0.108 -0.478 0.861 255 255 255
-0.143 0.137 0.381 255 255 255
0.346 0.004 0.499 255 255 255
0.142 -0.127 0.748 255 255 255
0.27 -0.225 0.571 255 255 255
0.336 -0.129 0.501 255 255 255
0.33 -0.069 0.508 255 255 255
0.285 -0.106 0.562 255 255 255
-0.264 0.025 0.587 255 255 255
0.052 -0.355 0.855 255 255 255
0.262 -0.104 0.592 255 255 255
0.123 0.027 0.778 255 255 255
-0.009 0.138 0.466 255 255 255
-0.055 0.048 0.705 255 255 255
0.069 -0.335 0.83 255 255 255
-0.139 0.147 0.36 255 255 255
0.012 0.101 0.6 255 255 255
0.261 0.157 0.611 255 255 255
0.187 -0.097 0.692 255 255 255
0.104 0.005 0.803 255 255 255
-0.117 0.139 0.393 255 255 255
-0.02 0.083 0.501 255 255 255
-0.2 -0.274 0.854 0 0 0
-0.29 -0.474 0.725 255 255 255
0.325 -0.06 0.517 255 255 255
-0.403 -0.212 0.78 255 255 255
0.158 -0.415 0.709 255 255 255
0.235 -0.208 0.622 255 255 255
0.298 0.138 0.566 255 255 255
0.025 0.235 0.475 255 255 255
0.194 -0.189 0.678 255 255 255
-0.2 -0.434 0.825 255 255 255
-0.419 -0.165 0.794 255 255 255
-0.07 0.057 0.66 255 255 255
-0.218 -0.402 0.825 255 255 255
-0.196 -0.355 0.851 0 0 0
-0.338 -0.315 0.777 255 255 255
-0.112 -0.028 0.849 0 0 0
-0.399 -0.269 0.752 255 255 255
-0.175 0.04 0.612 255 255 255
0.141 0.038 0.755 255 255 255
0.158 0.187 0.645 255 255 255
-0.369 -0.012 0.608 255 255 255
-0.166 -0.136 1.028 0 0 0
0.039 -0.243 0.879 255 255 255
0.288 0.035 0.568 255 255 255
0.313 -0.172 0.522 255 255 255
0.15 -0.26 0.73 255 255 255
-0.189 0.127 0.38 255 255 255
-0.04 -0.279 0.977 255 255 255
-0.11 0.167 0.35 255 255 255
-0.36 -0.214 0.815 255 255 255
-0.173 0.129 0.384 255 255 255
0.345 -0.099 0.489 255 255 255
0.149 -0.097 0.739 255 255 255
-0.38 -0.155 0.834 255 255 255
0.296 0.074 0.559 255 255 255
0.027 0.086 0.647 255 255 255
0.244 0.182 0.635 255 255 255
0.339 -0.137 0.501 255 255 255
-0.218 -0.233 0.756 0 0 0
-0.103 0.118 0.451 255 255 255
-0.335 0.03 0.527 255 255 255
-0.292 0.042 0.527 255 255 255
-0.225 0.004 0.673 255 255 255
-0.149 0.137 0.376 255 255 255
0.315 0.021 0.534 255 255 255
0.329 -0.018 0.516 255 255 255
-0.102 0.07 0.579 255 255 255
-0.28 -0.152 0.453 255 255 255
0.203 -0.184 0.665 255 255 255
-0.125 0.095 0.5 255 255 255
-0.036 0.161 0.393 255 255 255
-0.181 0.069 0.528 255 255 255
0.149 -0.37 0.721 255 255 255
-0.411 -0.343 0.704 255 255 255
0.345 -0.115 0.49 255 255 255
-0.16 -0.345 0.78 255 255 255
-0.085 -0.122 0.849 255 255 255
0.195 -0.476 0.651 0 0 0
0.043 0.076 0.716 255 255 255
-0.114 -0.153 0.884 255 255 255
0.163 0.163 0.645 255 255 255
-0.114 -0.055 0.862 255 255 255
-0.168 0.055 0.576 255 255 255
0.248 0.208 0.63 255 255 255
-0.109 0.097 0.502 0 0 0
0.217 -0.459 0.62 0 0 0
-0.232 -0.104 0.851 0 0 0
-0.032 -0.215 0.971 255 255 255
0.137 -0.073 0.758 255 255 255
0.026 0.143 0.474 255 255 255
0.252 -0.422 0.576 0 0 0
0.261 -0.075 0.595 255 255 255
-0.35 -0.218 0.823 255 255 255
0.087 -0.507 0.796 255 255 255
-0.356 -0.206 0.825 255 255 255
0.047 -0.15 0.873 255 255 255
0.241 -0.177 0.614 255 255 255
0.108 -0.564 0.762 0 0 0
-0.305 -0.416 0.747 255 255 255
0.204 0.244 0.687 255 255 255
0.297 -0.062 0.552 255 255 255
0.296 0 0.559 255 255 255
-0.053 0.099 0.508 0 0 0
0.064 -0.258 0.845 255 255 255
0.044 -0.603 0.837 255 255 255
0.181 0.094 0.706 255 255 255
-0.25 -0.46 0.768 255 255 255
0.19 0.126 0.697 255 255 255
0.209 -0.16 0.66 255 255 255
0.243 -0.318 0.589 255 255 255
0.165 -0.148 0.718 255 255 255
-0.329 -0.441 0.713 255 255 255
-0.02 -0.591 0.873 255 255 255
-0.105 -0.371 0.944 255 255 255
-0.123 0.033 0.677 255 255 255
-0.135 -0.309 0.96 0 0 0
-0.239 -0.459 0.776 255 255 255
-0.209 -0.087 0.894 255 255 255
-0.063 -0.293 0.997 255 255 255
0.285 -0.25 0.55 255 255 255
0.06 0.116 0.613 255 255 255
-0.243 -0.251 0.782 255 255 255
-0.409 -0.274 0.742 255 255 255
-0.12 0.068 0.567 255 255 255
-0.319 -0.08 0.47 255 255 255
-0.03 -0.235 0.967 255 255 255
0.123 0.263 0.629 255 255 255
0.142 -0.112 0.748 255 255 255
-0.134 0.081 0.527 255 255 255
0.223 0.263 0.669 255 255 255
0.334 -0.152 0.505 255 255 255
-0.013 0.038 0.816 0 0 0
-0.256 -0.27 0.752 0 0 0
0.322 -0.219 0.515 255 255 255
0.199 -0.143 0.673 255 255 255
-0.152 -0.084 0.935 255 255 255
0.089 -0.295 0.808 255 255 255
0.179 0.036 0.708 255 255 255
-0.007 0.222 0.437 255 255 255
-0.378 -0.35 0.725 255 255 255
0.282 0.024 0.578 255 255 255
0.228 -0.026 0.648 255 255 255
-0.208 0.069 0.509 255 255 255
0.028 -0.078 0.896 255 255 255
0.328 -0.024 0.517 255 255 255
0.098 -0.384 0.79 255 255 255
0.19 -0.401 0.663 255 255 255
0.2 -0.412 0.648 255 255 255
-0.319 -0.083 0.469 255 255 255
-0.047 -0.558 0.876 255 255 255
-0.286 -0.451 0.743 255 255 255
0.089 0.066 0.824 0 0 0
-0.334 -0.153 0.868 255 255 255
-0.21 -0.256 0.761 0 0 0
0.171 0.407 0.746 255 255 255
0.053 0.109 0.627 255 255 255
-0.248 -0.132 0.777 255 255 255
0.109 -0.181 0.789 255 255 255
0.332 -0.025 0.513 255 255 255
-0.323 -0.071 0.471 255 255 255
0.194 -0.086 0.682 255 255 255
0.044 -0.394 0.862 255 255 255
0.033 0.175 0.42 255 255 255
0.195 -0.037 0.684 255 255 255
0.274 -0.249 0.566 255 255 255
0.22 -0.408 0.625 255 255 255
-0.301 -0.244 0.822 0 0 0
-0.208 -0.412 0.83 255 255 255
-0.04 0.143 0.432 255 255 255
0.154 -0.066 0.734 255 255 255
0.197 0.163 0.688 255 255 255
0.038 -0.065 0.883 255 255 255
0.205 -0.022 0.674 255 255 255
-0.05 0.157 0.405 255 255 255
-0.118 0.119 0.436 255 255 255
-0.148 -0.29 0.958 0 0 0
0.204 0.155 0.682 255 255 255
0.237 -0.143 0.624 255 255 255
-0.048 -0.477 0.922 255 255 255
-0.091 -0.179 0.835 0 0 0
0.204 -0.085 0.67 255 255 255
-0.194 -0.033 0.831 255 255 255
-0.37 -0.159 0.838 255 255 255
0.217 -0.168 0.65 255 255 255
-0.216 0.021 0.633 255 255 255
0.268 -0.164 0.582 255 255 255
0.125 -0.026 0.774 255 255 255
-0.08 -0.287 1.004 255 255 255
-0.232 0.023 0.615 255 255 255
-0.184 0.101 0.398 255 255 255
0.022 0.179 0.407 255 255 255
0.208 -0.177 0.661 255 255 255
0.18 -0.27 0.69 255 255 255
0.032 0.113 0.594 255 255 255
0.017 -0.529 0.88 255 255 255
-0.015 0.178 0.381 255 255 255
0.244 -0.138 0.616 255 255 255
0.153 -0.08 0.735 255 255 255
-0.033 0.227 0.418 255 255 255
-0.218 -0.37 0.845 255 255 255
-0.424 -0.111 0.819 255 255 255
-0.189 -0.572 0.753 0 0 0
-0.385 -0.018 0.619 255 255 255
0.335 -0.027 0.509 255 255 255
-0.121 0.141 0.386 255 255 255
0.137 0.198 0.604 255 255 255
-0.383 -0.119 0.852 255 255 255
0.218 -0.272 0.639 255 255 255
-0.42 -0.168 0.791 255 255 255
0.151 0.044 0.742 255 255 255
-0.069 -0.604 0.831 0 0 0
0.157 -0.046 0.733 255 255 255
0.152 0.381 0.763 255 255 255
0.342 -0.09 0.492 255 255 255
-0.098 0.179 0.338 255 255 255
-0.313 -0.14 0.447 255 255 255
0.197 -0.064 0.682 255 255 255
0.242 0.203 0.638 255 255 255
-0.156 0.06 0.57 255 255 255
-0.152 -0.321 0.806 255 255 255
-0.024 0.012 0.938 255 255 255
0.157 -0.386 0.708 255 255 255
0.35 -0.067 0.485 255 255 255
0.035 0.182 0.415 255 255 255
0.326 -0.119 0.509 255 255 255
0.257 0.328 0.633 255 255 255
0.227 -0.089 0.642 255 255 255
-0.101 -0.448 0.904 255 255 255
-0.22 -0.292 0.792 255 255 255
0.271 0.061 0.591 255 255 255
0.055 -0.131 0.863 255 255 255
-0.408 -0.339 0.71 255 255 255
-0.078 0.032 0.726 255 255 255
0.028 -0.028 0.896 255 255 255
-0.403 -0.245 0.761 255 255 255
-0.13 0.129 0.408 255 255 255
0.314 -0.206 0.521 255 255 255
-0.339 -0.054 0.843 255 255 255
0.015 0.088 0.62 255 255 255
0.189 -0.236 0.679 255 255 255
-0.067 0.09 0.513 255 255 255
0.228 -0.304 0.616 0 0 0
-0.093 -0.083 0.892 255 255 255
0.347 -0.153 0.497 255 255 255
-0.216 -0.065 0.849 0 0 0
-0.074 0.149 0.395 255 255 255
0.165 -0.061 0.72 255 255 255
0.091 -0.342 0.8 255 255 255
0.045 0.179 0.424 255 255 255
-0.034 -0.178 0.977 255 255 255
0.039 0.032 0.887 255 255 255
0.28 -0.119 0.569 255 255 255
0.254 -0.424 0.572 0 0 0
-0.202 -0.004 0.716 255 255 255
-0.388 -0.283 0.754 255 255 255
0.068 0.097 0.722 255 255 255
0.229 0.233 0.657 255 255 255
0.278 0.034 0.585 255 255 255
0.217 -0.164 0.651 255 255 255
-0.157 -0.168 1.018 0 0 0
-0.024 0.18 0.372 255 255 255
-0.348 -0.248 0.803 255 255 255
0.139 -0.013 0.759 255 255 255
0.032 0.173 0.426 255 255 255
0.247 0.356 0.65 255 255 255
0.271 0.274 0.61 0 0 0
-0.033 -0.085 0.977 255 255 255
-0.304 -0.302 0.808 255 255 255
-0.115 0.149 0.371 255 255 255
0.318 -0.195 0.517 255 255 255
0.194 0.344 0.713 255 255 255
0.319 0.086 0.538 255 255 255
0.07 -0.255 0.836 255 255 255
0.248 -0.019 0.622 255 255 255
0.19 0.043 0.695 255 255 255
-0.141 -0.312 0.818 255 255 255
-0.295 -0.053 0.471 0 0 0
0.234 -0.082 0.635 255 255 255
0.299 -0.26 0.535 255 255 255
0.285 -0.221 0.554 255 255 255
0.074 -0.115 0.837 255 255 255
-0.252 -0.231 0.735 255 255 255
-0.068 0.088 0.523 0 0 0
0.204 0.133 0.68 255 255 255
0.25 0.15 0.623 255 255 255
0.229 0.116 0.646 255 255 255
0.055 -0.564 0.832 255 255 255
0.034 0.154 0.458 255 255 255
-0.01 -0.109 0.95 255 255 255
0.032 -0.498 0.867 255 255 255
0.062 -0.501 0.829 255 255 255
0.313 -0.033 0.532 255 255 255
-0.018 -0.389 0.938 255 255 255
-0.184 0.083 0.491 255 255 255
0.29 -0.054 0.562 255 255 255
-0.09 0.13 0.432 255 255 255
0.342 -0.03 0.498 255 255 255
0.186 -0.008 0.7 255 255 255
0.075 0.059 0.842 0 0 0
0.226 0.053 0.651 255 255 255
-0.037 0.099 0.513 255 255 255
0.345 -0.127 0.494 255 255 255
0.061 0.147 0.496 255 255 255
-0.155 -0.312 0.806 255 255 255
0.218 -0.372 0.606 255 255 255
0.258 -0.242 0.589 255 255 255
-0.012 0.15 0.436 255 255 255
-0.089 -0.008 0.822 255 255 255
-0.098 -0.124 0.838 255 255 255
0.219 -0.043 0.657 255 255 255
0.119 -0.023 0.783 255 255 255
-0.069 0.172 0.354 255 255 255
-0.1 0.034 0.703 255 255 255
0.147 -0.099 0.743 255 255 255
0.118 -0.011 0.785 255 255 255
-0.042 -0.11 0.989 255 255 255
-0.245 -0.121 0.77 255 255 255
0.309 -0.166 0.526 255 255 255
0.284 0.076 0.576 255 255 255
-0.097 0.137 0.409 255 255 255
0.033 -0.565 0.856 255 255 255
0.175 0.379 0.74 255 255 255
-0.005 0.13 0.491 0 0 0
0.157 -0.111 0.729 255 255 255
-0.22 -0.12 0.882 255 255 255
0.247 0.203 0.632 255 255 255
0.093 -0.032 0.815 255 255 255
0.292 0.152 0.572 255 255 255
0.222 -0.221 0.64 255 255 255
-0.116 -0.041 0.867 255 255 255
0.249 -0.277 0.595 255 255 255
-0.175 0.132 0.376 255 255 255
-0.339 -0.061 0.462 255 255 255
0.167 -0.04 0.719 255 255 255
0.085 -0.206 0.82 255 255 255
0.196 -0.276 0.667 255 255 255
0.146 -0.105 0.744 255 255 255
-0.161 0.06 0.564 255 255 255
-0.032 -0.308 0.962 255 255 255
-0.295 -0.368 0.783 255 255 255
-0.02 0.144 0.444 255 255 255
0.305 0.028 0.548 255 255 255
0.165 -0.403 0.699 255 255 255
0.246 0.143 0.628 255 255 255
0.163 -0.042 0.726 255 255 255
0.217 -0.107 0.654 255 255 255
0.029 -0.164 0.897 255 255 255
0.277 0.008 0.586 255 255 255
0.221 0.324 0.676 255 255 255
0.325 0.034 0.525 255 255 255
-0.059 0.059 0.668 255 255 255
0.139 -0.439 0.732 255 255 255
-0.169 0.049 0.59 255 255 255
-0.182 0.073 0.515 255 255 255
0.212 -0.259 0.648 255 255 255
-0.117 -0.405 0.854 0 0 0
0.055 0.318 0.591 255 255 255
0.194 -0.273 0.67 255 255 255
0.347 0.017 0.499 255 255 255
0.322 0.092 0.537 255 255 255
0.131 0.136 0.668 255 255 255
-0.284 -0.336 0.811 255 255 255
0.158 -0.47 0.704 255 255 255
-0.232 -0.489 0.766 255 255 255
-0.384 -0.205 0.8 255 255 255
-0.213 -0.229 0.756 0 0 0
0.278 -0.063 0.577 255 255 255
0.192 0.01 0.694 255 255 255
-0.114 -0.58 0.811 255 255 255
-0.083 0.14 0.41 255 255 255
0.037 -0.381 0.873 255 255 255
-0.154 -0.55 0.796 255 255 255
0.184 -0.329 0.677 255 255 255
-0.145 0.123 0.414 255 255 255
-0.029 0.112 0.513 255 255 255
-0.068 -0.443 0.928 255 255 255
0.032 0.116 0.584 255 255 255
-0.411 -0.095 0.84 255 255 255
0.346 -0.032 0.494 255 255 255
0.103 -0.145 0.798 0 0 0
-0.231 0.063 0.515 255 255 255
-0.233 0.048 0.544 255 255 255
0.279 -0.283 0.55 255 255 255
0.117 -0.221 0.774 255 255 255
0.176 0.279 0.722 255 255 255
-0.201 -0.269 0.833 0 0 0
0.142 -0.206 0.743 255 255 255
-0.226 0.063 0.514 255 255 255
-0.35 -0.246 0.803 255 255 255
0.169 -0.291 0.701 255 255 255
0.021 -0.576 0.865 255 255 255
-0.024 0.156 0.418 255 255 255
-0.108 -0.458 0.816 255 255 255
0.299 -0.212 0.537 255 255 255
0.188 -0.114 0.689 255 255 255
0.22 -0.203 0.643 255 255 255
0.23 0.271 0.659 255 255 255
-0.08 -0.525 0.872 255 255 255
0.146 -0.055 0.746 255 255 255
-0.174 0.135 0.37 255 255 255
0.201 0.036 0.679 255 255 255
0.207 -0.388 0.642 255 255 255
-0.067 -0.489 0.904 255 255 255
0.308 -0.144 0.529 255 255 255
0.233 -0.442 0.605 0 0 0
-0.026 -0.343 0.954 255 255 255
0.052 -0.377 0.851 255 255 255
-0.199 -0.004 0.718 255 255 255
0.277 -0.077 0.575 255 255 255
-0.24 -0.464 0.773 255 255 255
-0.238 0.06 0.517 255 255 255
0.193 0.384 0.717 255 255 255
0.325 0.021 0.524 255 255 255
0.211 -0.311 0.613 255 255 255
-0.009 0.027 0.908 255 255 255
-0.347 -0.455 0.689 255 255 255
0.124 0.068 0.78 255 255 255
0.245 0.038 0.627 255 255 255
-0.12 0.157 0.351 0 0 0
0.039 -0.404 0.869 255 255 255
-0.129 -0.275 0.982 255 255 255
0.232 -0.21 0.625 255 255 255
-0.051 0.144 0.425 255 255 255
-0.427 -0.141 0.801 255 255 255
0.262 -0.258 0.578 255 255 255
-0.248 -0.353 0.827 255 255 255
-0.123 -0.078 0.874 255 255 255
0.043 0.137 0.521 255 255 255
-0.29 -0.124 0.454 0 0 0
-0.087 0.178 0.34 255 255 255
0.267 -0.007 0.598 255 255 255
-0.153 0.121 0.415 255 255 255
-0.028 0.125 0.492 255 255 255
-0.187 -0.058 0.855 255 255 255
-0.185 0.077 0.505 255 255 255
0.082 -0.352 0.814 255 255 255
-0.218 -0.561 0.736 0 0 0
-0.219 0.02 0.634 255 255 255
-0.075 0.154 0.384 255 255 255
0.028 0.148 0.466 255 255 255
0.313 -0.03 0.534 255 255 255
-0.088 -0.57 0.838 255 255 255
0.212 -0.18 0.654 255 255 255
-0.298 0.055 0.486 255 255 255
-0.299 -0.03 0.478 255 255 255
0.074 -0.56 0.807 255 255 255
0.247 -0.343 0.582 255 255 255
-0.054 -0.1 1.004 255 255 255
-0.225 -0.325 0.862 255 255 255
0.312 -0.027 0.537 255 255 255
-0.281 0.027 0.568 255 255 255
-0.118 -0.038 0.867 0 0 0
-0.287 -0.463 0.736 255 255 255
0.336 0.036 0.514 255 255 255
-0.045 0.162 0.393 255 255 255
0.272 0.078 0.59 255 255 255
0.043 0.2 0.435 0 0 0
-0.033 -0.062 0.977 255 255 255
-0.089 -0.131 0.835 255 255 255
0.136 0.349 0.717 255 255 255
0.196 -0.47 0.652 0 0 0
-0.104 0.024 0.731 255 255 255
-0.017 -0.04 0.957 255 255 255
-0.111 0.146 0.38 255 255 255
0.054 -0.542 0.835 255 255 255
-0.15 -0.547 0.799 255 255 255
-0.075 -0.337 0.983 255 255 255
0.202 -0.101 0.672 255 255 255
0.316 -0.118 0.52 255 255 255
-0.29 -0.382 0.78 255 255 255
0.236 -0.353 0.594 255 255 255
-0.389 -0.166 0.82 255 255 255
-0.059 0.166 0.385 255 255 255
0.159 0.194 0.625 255 255 255
0.346 0.041 0.505 255 255 255
0.325 -0.12 0.51 255 255 255
-0.111 0.141 0.391 255 255 255
-0.071 0.087 0.524 0 0 0
-0.085 0.153 0.377 255 255 255
0.264 0.236 0.614 255 255 255
0.168 -0.466 0.69 255 255 255
-0.352 -0.35 0.746 255 255 255
0.176 -0.384 0.684 255 255 255
-0.386 -0.225 0.787 255 255 255
-0.05 -0.101 0.998 255 255 255
-0.179 -0.184 0.887 255 255 255
0.259 -0.08 0.6 255 255 255
-0.457 -0.219 0.76 255 255 255
-0.312 0.039 0.519 255 255 255
0.255 0.205 0.622 255 255 255
-0.245 0.06 0.515 255 255 255
-0.236 -0.146 0.775 255 255 255
-0.229 -0.561 0.728 0 0 0
0.254 0.095 0.614 255 255 255
-0.26 0.047 0.532 255 255 255
0.173 -0.18 0.704 255 255 255
0.117 -0.183 0.777 0 0 0
-0.265 -0.36 0.811 255 255 255
-0.018 0.035 0.765 0 0 0
0.034 0.122 0.568 255 255 255
0.22 -0.206 0.642 255 255 255
-0.057 0.06 0.665 255 255 255
0.277 0.152 0.59 255 255 255
0.09 -0.142 0.814 255 255 255
-0.035 0.139 0.445 255 255 255
0.327 0.029 0.52 255 255 255
-0.115 -0.443 0.888 0 0 0
0.153 -0.338 0.718 0 0 0
0.269 0.039 0.594 255 255 255
-0.293 -0.491 0.71 255 255 255
-0.259 -0.01 0.688 255 255 255
0.26 0.189 0.612 255 255 255
0.021 0.239 0.475 255 255 255
-0.043 0.15 0.413 255 255 255
0.304 0.043 0.548 255 255 255
-0.409 -0.229 0.765 255 255 255
0.252 0.044 0.619 255 255 255
-0.065 0.149 0.4 255 255 255
0.172 -0.331 0.695 255 255 255
-0.012 -0.017 0.95 255 255 255
-0.223 -0.14 0.773 0 0 0
0.198 0.174 0.639 0 0 0
-0.3 0.029 0.554 255 255 255
0.036 -0.345 0.876 255 255 255
-0.278 -0.175 0.446 255 255 255
-0.382 -0.235 0.784 255 255 255
-0.072 -0.198 1.018 255 255 255
-0.374 -0.301 0.753 255 255 255
-0.413 -0.349 0.701 255 255 255
-0.345 0.01 0.571 255 255 255
0.247 0.008 0.626 255 255 255
0.315 0.021 0.535 255 255 255
0.024 0.135 0.509 255 255 255
-0.37 -0.283 0.766 255 255 255
-0.277 -0.225 0.781 0 0 0
0.175 -0.502 0.675 0 0 0
-0.21 -0.382 0.846 0 0 0
0.334 -0.125 0.502 255 255 255
-0.007 0.114 0.545 255 255 255
-0.342 -0.258 0.806 255 255 255
-0.357 -0.335 0.749 255 255 255
0.305 0.031 0.546 255 255 255
0.343 -0.008 0.501 255 255 255
0.209 -0.363 0.637 255 255 255
-0.101 0.146 0.384 255 255 255
0.09 0.064 0.822 0 0 0
-0.217 -0.434 0.809 255 255 255
-0.263 0.024 0.592 255 255 255
0.151 0.299 0.704 255 255 255
0.206 -0.318 0.611 255 255 255
0.209 0.02 0.672 255 255 255
0.086 -0.155 0.82 255 255 255
-0.226 -0.013 0.721 255 255 255
-0.178 0.129 0.379 255 255 255
0.02 0.09 0.623 255 255 255
-0.263 -0.507 0.729 255 255 255
-0.221 0.006 0.674 255 255 255
0.189 -0.433 0.66 255 255 255
-0.327 -0.103 0.448 255 255 255
-0.084 0.125 0.447 255 255 255
0.01 0.139 0.472 255 255 255
-0.088 -0.478 0.895 255 255 255
-0.301 -0.316 0.805 255 255 255
-0.368 -0.238 0.793 255 255 255
0.229 -0.247 0.626 255 255 255
-0.288 -0.144 0.45 0 0 0
0.059 -0.53 0.831 255 255 255
0.115 0.108 0.772 0 0 0
-0.144 -0.279 0.971 255 255 255
0.24 -0.01 0.632 255 255 255
0.353 -0.118 0.489 255 255 255
-0.024 -0.273 0.958 255 255 255
0.192 -0.451 0.657 255 255 255
0.328 0.041 0.521 255 255 255
-0.33 -0.511 0.673 0 0 0
0.05 0.119 0.59 0 0 0
-0.353 0.01 0.568 255 255 255
-0.323 -0.237 0.831 255 255 255
0.194 0.345 0.712 255 255 255
-0.063 -0.491 0.908 255 255 255
0.186 -0.174 0.689 255 255 255
-0.273 -0.123 0.779 0 0 0
0.035 0.079 0.671 255 255 255
-0.217 -0.34 0.866 255 255 255
0.313 -0.086 0.528 255 255 255
-0.23 -0.335 0.855 255 255 255
0.164 0.402 0.754 255 255 255
0.194 -0.404 0.657 255 255 255
0.239 -0.037 0.632 255 255 255
-0.168 -0.022 0.8 0 0 0
0.261 -0.139 0.591 255 255 255
0.326 0.038 0.524 255 255 255
0.249 -0.124 0.61 255 255 255
-0.055 0.065 0.65 255 255 255
-0.126 0.049 0.624 255 255 255
0.266 0.004 0.599 255 255 255
-0.001 0.118 0.539 255 255 255
-0.043 0.181 0.358 255 255 255
-0.423 -0.25 0.745 255 255 255
-0.298 -0.002 0.64 255 255 255
-0.136 -0.006 0.785 255 255 255
0.212 -0.091 0.662 255 255 255
-0.055 0.148 0.412 255 255 255
0.22 -0.127 0.649 255 255 255
-0.04 -0.141 0.985 255 255 255
0.284 0.005 0.575 255 255 255
0.002 0.008 0.934 255 255 255
0.021 0.205 0.437 255 255 255
0.186 0.338 0.722 255 255 255
0.143 -0.285 0.737 0 0 0
-0.276 -0.431 0.762 255 255 255
-0.029 0.139 0.453 255 255 255
0.211 0.298 0.687 255 255 255
-0.21 -0.403 0.833 0 0 0
-0.16 -0.057 0.872 255 255 255
-0.235 -0.11 0.775 255 255 255
-0.148 0.115 0.433 255 255 255
0.032 -0.187 0.892 255 255 255
0.312 -0.253 0.52 255 255 255
-0.293 -0.03 0.774 0 0 0
0.1 0.016 0.808 255 255 255
-0.042 -0.184 0.986 255 255 255
0.255 0.07 0.613 255 255 255
-0.154 0.122 0.412 255 255 255
0.029 -0.359 0.885 255 255 255
0.049 -0.42 0.853 255 255 255
0.285 -0.127 0.561 255 255 255
0.006 0.149 0.441 255 255 255
-0.157 -0.198 0.86 255 255 255
-0.093 0.138 0.407 255 255 255
-0.042 0.082 0.53 255 255 255
-0.134 -0.079 0.9 255 255 255
-0.292 -0.074 0.469 0 0 0
-0.113 0.056 0.617 255 255 255
-0.435 -0.097 0.817 255 255 255
-0.245 -0.389 0.809 255 255 255
-0.352 -0.316 0.764 255 255 255
0.308 -0.096 0.531 255 255 255
-0.374 -0.418 0.693 255 255 255
0.218 0.075 0.657 255 255 255
0.265 -0.13 0.588 255 255 255
-0.177 -0.014 0.768 255 255 255
0.066 -0.313 0.837 255 255 255
0.167 -0.494 0.689 255 255 255
0.118 0.286 0.647 255 255 255
0.04 0.159 0.43 255 255 255
-0.128 0.107 0.462 255 255 255
-0.393 -0.113 0.847 255 255 255
-0.237 -0.26 0.74 255 255 255
0.186 0.17 0.647 0 0 0
0.221 -0.197 0.64 255 255 255
0.109 -0.031 0.794 255 255 255
0.165 -0.187 0.715 255 255 255
-0.212 -0.199 0.833 0 0 0
0.324 -0.092 0.514 255 255 255
-0.125 0.135 0.396 255 255 255
-0.118 0.142 0.383 255 255 255
-0.333 -0.303 0.788 255 255 255
-0.292 0.064 0.469 255 255 255
-0.338 0.01 0.577 255 255 255
0.177 -0.004 0.712 255 255 255
-0.141 -0.363 0.793 255 255 255
-0.07 0.14 0.419 255 255 255
0.173 0.333 0.737 255 255 255
-0.126 0.156 0.348 0 0 0
-0.018 -0.366 0.941 255 255 255
0.264 -0.079 0.593 255 255 255
0.126 0.044 0.776 255 255 255
-0.105 -0.388 0.937 255 255 255
0.085 0.11 0.697 255 255 255
0.267 -0.406 0.563 0 0 0
-0.127 -0.53 0.83 255 255 255
0.273 0.257 0.608 255 255 255
0.052 -0.219 0.863 255 255 255
-0.12 0.107 0.47 0 0 0
-0.195 -0.062 0.86 255 255 255
0.169 -0.443 0.688 255 255 255
-0.216 -0.233 0.756 0 0 0
0.281 0.085 0.581 255 255 255
-0.322 -0.098 0.461 255 255 255
0.283 -0.17 0.559 255 255 255
0.053 0.077 0.698 255 255 255
0.031 0.135 0.515 255 255 255
0.185 0.036 0.7 255 255 255
-0.047 0.119 0.486 255 255 255
-0.02 -0.26 0.954 255 255 255
-0.049 -0.539 0.888 255 255 255
-0.155 0.109 0.443 255 255 255
-0.232 -0.304 0.812 255 255 255
0.263 -0.165 0.588 255 255 255
0.331 -0.008 0.514 255 255 255
-0.147 -0.371 0.782 255 255 255
0.071 -0.437 0.823 255 255 255
0.135 0.138 0.675 0 0 0
0.154 -0.193 0.728 255 255 255
-0.241 0.031 0.585 255 255 255
-0.008 -0.453 0.918 255 255 255
-0.023 0.148 0.428 255 255 255
-0.163 -0.347 0.785 255 255 255
-0.033 0.132 0.467 255 255 255
-0.156 -0.031 0.831 255 255 255
0.05 0.132 0.547 255 255 255
0.059 0.125 0.586 0 0 0
-0.338 -0.266 0.804 255 255 255
-0.023 0.068 0.677 255 255 255
0.231 0.331 0.663 255 255 255
0.179 -0.473 0.674 255 255 255
-0.163 -0.263 0.824 255 255 255
-0.335 -0.503 0.672 0 0 0
0.024 -0.428 0.884 255 255 255
-0.176 0.05 0.58 255 255 255
0.228 0.144 0.651 255 255 255
0.217 -0.204 0.647 255 255 255
-0.04 0.14 0.439 255 255 255
-0.447 -0.092 0.811 255 255 255
0.175 -0.217 0.698 255 255 255
-0.048 0.149 0.413 255 255 255
0.097 0.07 0.813 0 0 0
-0.122 0.054 0.616 255 255 255
-0.074 0.125 0.455 255 255 255
0.288 -0.154 0.555 255 255 255
0.027 -0.146 0.899 255 255 255
-0.053 0.161 0.399 255 255 255
-0.054 0.01 0.8 255 255 255
0.124 0.13 0.696 0 0 0
-0.122 -0.427 0.774 255 255 255
0.051 -0.062 0.865 255 255 255
0.16 0.366 0.755 255 255 255
-0.02 0.158 0.388 255 255 255
0.261 0.124 0.606 255 255 255
0.134 -0.539 0.728 0 0 0
-0.191 -0.506 0.791 255 255 255
-0.148 -0.233 0.892 0 0 0
0.167 -0.481 0.688 255 255 255
-0.111 -0.501 0.864 255 255 255
0.272 0.272 0.609 0 0 0
-0.129 0.125 0.418 255 255 255
-0.262 -0.188 0.78 255 255 255
0.118 -0.063 0.784 255 255 255
-0.217 -0.126 0.781 0 0 0
-0.141 0.095 0.484 255 255 255
-0.234 0.061 0.517 255 255 255
0.225 -0.045 0.651 255 255 255
0.139 0.091 0.76 255 255 255
-0.012 -0.175 0.95 255 255 255
0.053 0.277 0.552 255 255 255
0.041 0.175 0.422 255 255 255
0.174 -0.109 0.706 255 255 255
0.32 -0.097 0.519 255 255 255
0.16 -0.409 0.705 0 0 0
0.25 -0.25 0.597 255 255 255
-0.038 -0.189 0.981 255 255 255
-0.441 -0.069 0.794 255 255 255
-0.082 0.145 0.4 255 255 255
0.169 -0.216 0.706 255 255 255
-0.284 -0.145 0.451 0 0 0
0.309 0.025 0.543 255 255 255
0.245 -0.336 0.587 0 0 0
-0.17 -0.493 0.817 255 255 255
0.235 -0.317 0.596 255 255 255
0.04 -0.55 0.852 255 255 255
-0.21 -0.275 0.761 255 255 255
0.282 0.029 0.578 255 255 255
-0.405 -0.088 0.848 255 255 255
0.167 -0.397 0.695 255 255 255
0.228 -0.086 0.642 255 255 255
0.127 0.056 0.775 255 255 255
0.14 -0.28 0.741 0 0 0
-0.153 0.079 0.522 255 255 255
-0.071 -0.605 0.828 0 0 0
0.155 0.116 0.742 255 255 255
-0.198 -0.527 0.772 255 255 255
0.117 -0.174 0.779 0 0 0
-0.191 -0.462 0.818 255 255 255
0.026 0.062 0.82 0 0 0
0.261 -0.06 0.599 255 255 255
0.226 -0.381 0.602 255 255 255
-0.189 -0.32 0.837 0 0 0
-0.149 -0.279 0.936 0 0 0
-0.004 -0.2 0.938 255 255 255
-0.304 -0.495 0.702 255 255 255
-0.001 0.18 0.399 255 255 255
-0.041 0.188 0.359 255 255 255
-0.339 -0.229 0.824 255 255 255
-0.247 -0.005 0.685 255 255 255
0.301 0.083 0.555 255 255 255
0.306 0.075 0.548 255 255 255
-0.176 -0.183 0.89 255 255 255
-0.309 0.009 0.6 255 255 255
0.308 -0.088 0.534 255 255 255
-0.171 -0.543 0.787 255 255 255
0.163 -0.435 0.696 255 255 255
-0.005 0.183 0.385 255 255 255
-0.162 0.047 0.603 255 255 255
0.245 -0.245 0.604 255 255 255
0.081 -0.122 0.827 255 255 255
-0.097 -0.576 0.825 255 255 255
0.067 -0.086 0.847 255 255 255
-0.201 -0.001 0.709 255 255 255
-0.03 -0.301 0.962 255 255 255
0.351 -0.124 0.488 255 255 255
-0.165 -0.194 1.001 255 255 255
0.133 -0.267 0.75 0 0 0
0.066 0.245 0.54 0 0 0
-0.31 -0.436 0.733 255 255 255
-0.04 0.132 0.462 255 255 255
0.292 -0.037 0.561 255 255 255
-0.339 -0.088 0.441 0 0 0
0.299 -0.124 0.541 255 255 255
-0.132 0.094 0.492 255 255 255
0.215 -0.083 0.658 255 255 255
-0.132 0.062 0.582 255 255 255
-0.028 0.155 0.417 255 255 255
-0.267 -0.034 0.764 0 0 0
-0.081 -0.131 1.03 0 0 0
