ply
format ascii 1.0
comment Created by Open3D
element vertex 1594
property double x
property double y
property double z
property uchar red
property uchar green
property uchar blue
end_header
-0.08 -0.551 0.836 255 255 255
-0.123 -0.118 0.988 255 255 255
0.134 0.193 0.514 255 255 255
0.014 0.199 0.418 255 255 255
0.217 -0.072 0.631 255 255 255
-0.12 -0.563 0.8 255 255 255
-0.112 -0.531 0.825 255 255 255
0.027 -0.383 0.846 255 255 255
0.341 0.02 0.486 255 255 255
0.29 0.093 0.556 255 255 255
0.009 -0.279 0.884 255 255 255
-0.17 -0.078 0.879 0 0 0
-0.201 -0.012 0.854 255 255 255
-0.117 0.034 0.847 255 255 255
0.154 0.161 0.732 0 0 0
-0.154 -0.128 0.825 255 255 255
0.134 -0.046 0.742 255 255 255
0.054 -0.304 0.819 255 255 255
-0.126 0.161 0.453 255 255 255
-0.095 0.182 0.41 0 0 0
-0.045 0.045 0.98 255 255 255
0.251 -0.068 0.588 255 255 255
0.267 -0.156 0.554 0 0 0
-0.298 -0.414 0.717 255 255 255
0.039 0.197 0.432 0 0 0
-0.365 -0.381 0.677 255 255 255
-0.167 -0.439 0.818 255 255 255
0.261 0.105 0.593 255 255 255
-0.017 -0.246 0.918 255 255 255
0.201 -0.379 0.607 255 255 255
-0.136 0.19 0.373 255 255 255
-0.258 -0.495 0.711 255 255 255
-0.397 0.002 0.805 255 255 255
0.117 0.003 0.77 255 255 255
-0.087 0.189 0.39 255 255 255
0.048 -0.526 0.797 255 255 255
-0.291 0.031 0.444 255 255 255
0.186 -0.214 0.653 255 255 255
-0.067 -0.493 0.87 255 255 255
0.132 -0.41 0.7 255 255 255
-0.287 -0.39 0.735 255 255 255
-0.285 -0.407 0.729 255 255 255
0.147 0.221 0.441 255 255 255
0.031 -0.118 0.871 255 255 255
-0.019 -0.519 0.871 255 255 255
-0.418 -0.126 0.737 255 255 255
-0.073 -0.228 0.974 255 255 255
0.17 -0.434 0.647 255 255 255
0.094 0.052 0.801 0 0 0
0.303 0.083 0.538 255 255 255
0.192 0.084 0.679 255 255 255
0.057 -0.407 0.802 255 255 255
-0.314 0.084 0.628 255 255 255
-0.159 0.002 1.003 0 0 0
0.265 -0.146 0.558 255 255 255
-0.094 0.01 0.823 255 255 255
-0.294 -0.172 0.788 0 0 0
-0.301 -0.318 0.756 255 255 255
0.181 0.033 0.691 255 255 255
0.138 0.05 0.746 255 255 255
0.009 0.181 0.462 255 255 255
0.262 -0.345 0.531 255 255 255
0.316 -0.104 0.497 255 255 255
0.163 -0.034 0.706 255 255 255
-0.108 -0.279 0.938 255 255 255
0.274 0.02 0.569 255 255 255
0.273 -0.139 0.549 255 255 255
-0.085 0.188 0.397 255 255 255
0.105 0.173 0.59 255 255 255
-0.261 -0.273 0.802 255 255 255
-0.3 -0.124 0.78 0 0 0
-0.034 0.098 0.762 0 0 0
-0.219 -0.113 0.742 255 255 255
0.188 -0.041 0.673 255 255 255
-0.162 0.16 0.442 255 255 255
0.045 0.153 0.624 255 255 255
-0.417 -0.142 0.73 255 255 255
0.164 -0.45 0.651 255 255 255
0.143 -0.104 0.723 255 255 255
0.171 -0.353 0.655 255 255 255
-0.01 0.126 0.693 255 255 255
0.098 -0.468 0.741 255 255 255
-0.259 0.126 0.51 255 255 255
0.186 -0.019 0.678 255 255 255
0.201 -0.154 0.639 255 255 255
0.12 0.03 0.768 255 255 255
0.16 -0.44 0.657 255 255 255
0.229 0.106 0.631 255 255 255
-0.245 -0.171 0.732 255 255 255
0.26 -0.209 0.556 255 255 255
0.235 0.044 0.623 255 255 255
0.26 -0.058 0.576 255 255 255
0.305 0.017 0.528 255 255 255
-0.06 0.112 0.695 255 255 255
-0.392 -0.251 0.707 255 255 255
-0.077 0 1.011 0 0 0
0.123 -0.192 0.74 0 0 0
-0.234 0.133 0.5 255 255 255
-0.202 0.034 0.83 255 255 255
-0.292 -0.278 0.779 255 255 255
-0.105 0.133 0.571 255 255 255
0.311 0.118 0.54 255 255 255
0.3 0.089 0.542 255 255 255
-0.278 -0.224 0.813 255 255 255
-0.023 -0.233 0.927 255 255 255
-0.373 -0.15 0.764 255 255 255
-0.031 -0.144 0.949 255 255 255
0.279 -0.23 0.527 255 255 255
0.161 0.194 0.664 255 255 255
0.259 -0.139 0.567 0 0 0
0.234 -0.159 0.595 255 255 255
-0.39 -0.145 0.751 255 255 255
-0.133 -0.173 0.966 255 255 255
-0.237 -0.461 0.747 255 255 255
-0.169 0.068 0.836 255 255 255
-0.132 0.197 0.352 255 255 255
0.139 -0.277 0.708 0 0 0
-0.118 -0.382 0.885 255 255 255
-0.126 0.12 0.607 255 255 255
0.071 -0.525 0.767 255 255 255
0.156 0.135 0.728 255 255 255
0.147 0.192 0.644 0 0 0
0.298 -0.186 0.509 255 255 255
0.078 -0.471 0.764 255 255 255
0.012 0.207 0.381 255 255 255
-0.165 -0.259 0.773 255 255 255
0.329 -0.034 0.491 255 255 255
0.278 -0.017 0.56 255 255 255
-0.396 -0.313 0.679 255 255 255
0.232 -0.343 0.568 0 0 0
0.304 -0.047 0.521 255 255 255
0.281 0.024 0.56 255 255 255
0.157 -0.073 0.71 255 255 255
-0.017 0.053 0.945 255 255 255
-0.213 0.13 0.511 255 255 255
-0.039 -0.163 0.956 255 255 255
0.302 -0.067 0.52 255 255 255
0.318 -0.018 0.506 255 255 255
0.178 0.07 0.695 255 255 255
-0.13 -0.284 0.809 0 0 0
0.2 -0.274 0.593 255 255 255
0.151 0.186 0.697 255 255 255
0.288 -0.276 0.511 255 255 255
0.064 -0.463 0.787 255 255 255
-0.304 -0.034 0.818 0 0 0
0.024 -0.026 0.888 255 255 255
-0.106 0.171 0.438 255 255 255
-0.242 -0.3 0.81 255 255 255
-0.331 -0.098 0.821 255 255 255
0.174 0.228 0.563 255 255 255
-0.329 -0.262 0.753 255 255 255
-0.269 -0.325 0.777 255 255 255
-0.112 -0.266 0.942 255 255 255
0.109 0.132 0.787 0 0 0
-0.079 0.101 0.727 255 255 255
-0.117 -0.497 0.837 255 255 255
-0.019 0.074 0.949 255 255 255
0.287 -0.236 0.515 255 255 255
0.187 -0.222 0.65 255 255 255
0.176 0.11 0.699 255 255 255
0.248 0.064 0.608 255 255 255
-0.087 -0.066 0.816 0 0 0
-0.418 -0.201 0.705 255 255 255
0.216 0.134 0.649 255 255 255
-0.217 0.067 0.757 255 255 255
0.254 -0.031 0.592 255 255 255
0.137 0.123 0.75 255 255 255
-0.043 0.099 0.756 255 255 255
0.082 0.196 0.485 255 255 255
-0.441 -0.052 0.749 255 255 255
-0.023 -0.411 0.898 255 255 255
0.249 -0.239 0.565 255 255 255
-0.34 -0.257 0.749 255 255 255
-0.17 -0.057 0.982 255 255 255
0.339 -0.062 0.476 255 255 255
-0.388 -0.088 0.777 255 255 255
-0.169 -0.422 0.822 255 255 255
0.247 -0.433 0.542 255 255 255
0.13 -0.015 0.752 255 255 255
0.142 0.087 0.742 255 255 255
0.137 -0.113 0.73 255 255 255
0.187 0.048 0.684 255 255 255
-0.242 -0.06 0.753 0 0 0
0.304 0.07 0.534 255 255 255
-0.178 -0.432 0.812 255 255 255
0.229 0.356 0.661 255 255 255
-0.364 -0.263 0.727 255 255 255
-0.208 0.132 0.508 255 255 255
0.236 -0.125 0.601 255 255 255
-0.023 -0.53 0.87 255 255 255
-0.135 0.191 0.368 255 255 255
-0.168 0.139 0.508 255 255 255
-0.242 -0.472 0.74 255 255 255
-0.274 -0.22 0.817 255 255 255
0.243 -0.123 0.591 255 255 255
0.076 0.18 0.555 255 255 255
0.163 0.267 0.551 255 255 255
-0.338 -0.329 0.718 255 255 255
-0.359 -0.156 0.773 255 255 255
-0.135 -0.319 0.898 0 0 0
0.187 -0.371 0.629 255 255 255
0.253 0.029 0.599 255 255 255
0.252 0.307 0.626 255 255 255
0.091 0.199 0.474 255 255 255
0.221 0.24 0.574 255 255 255
0.283 -0.077 0.541 255 255 255
-0.083 -0.192 0.983 255 255 255
0.301 -0.241 0.5 255 255 255
-0.206 -0.55 0.736 0 0 0
-0.255 0.103 0.591 255 255 255
0.276 -0.043 0.558 255 255 255
-0.456 0.022 0.764 255 255 255
0.217 -0.313 0.586 0 0 0
0.192 -0.166 0.65 255 255 255
-0.279 0.043 0.447 255 255 255
0.267 0.091 0.582 255 255 255
-0.251 -0.266 0.812 255 255 255
0.192 0.01 0.674 255 255 255
-0.059 -0.18 0.976 255 255 255
-0.355 -0.172 0.77 255 255 255
0.057 0.075 0.848 255 255 255
0.256 -0.282 0.55 255 255 255
0.03 0.157 0.618 255 255 255
-0.349 -0.302 0.722 255 255 255
0.334 0.025 0.496 255 255 255
-0.155 -0.317 0.758 255 255 255
0.216 -0.096 0.628 255 255 255
0.191 0.18 0.687 255 255 255
-0.442 -0.084 0.735 255 255 255
-0.136 -0.465 0.834 255 255 255
0.214 -0.099 0.63 255 255 255
-0.015 -0.335 0.903 255 255 255
-0.101 -0.191 0.977 255 255 255
0.093 -0.551 0.736 0 0 0
-0.295 -0.085 0.428 0 0 0
-0.121 0.186 0.387 255 255 255
0.083 0.161 0.615 255 255 255
0.221 -0.379 0.577 255 255 255
-0.059 -0.039 0.991 0 0 0
-0.219 0.136 0.491 255 255 255
0.165 -0.017 0.706 255 255 255
-0.245 -0.279 0.814 255 255 255
0.259 0.165 0.599 255 255 255
0.264 0.087 0.588 255 255 255
0.13 0.106 0.758 255 255 255
0.016 0.2 0.414 255 255 255
-0.039 -0.157 0.956 255 255 255
0.055 -0.175 0.834 255 255 255
0.302 0.105 0.545 255 255 255
-0.07 0.125 0.642 255 255 255
-0.043 -0.331 0.932 255 255 255
-0.074 0.201 0.364 255 255 255
0.264 -0.127 0.562 0 0 0
-0.052 0.176 0.447 255 255 255
0.263 -0.073 0.569 255 255 255
0.231 -0.247 0.588 0 0 0
0.184 -0.345 0.637 255 255 255
-0.132 0.138 0.531 255 255 255
-0.036 0.127 0.657 255 255 255
-0.002 -0.188 0.907 255 255 255
-0.126 0.154 0.479 255 255 255
-0.039 -0.363 0.921 255 255 255
0.006 0.142 0.532 255 255 255
0.083 0.195 0.489 0 0 0
-0.269 0.081 0.666 0 0 0
0.055 -0.377 0.81 255 255 255
-0.068 0.171 0.454 0 0 0
-0.115 0.182 0.401 0 0 0
-0.125 -0.588 0.784 0 0 0
0.254 0.344 0.628 255 255 255
0.028 -0.238 0.862 255 255 255
-0.301 -0.056 0.428 255 255 255
0.217 -0.217 0.613 255 255 255
-0.031 -0.189 0.943 255 255 255
0.074 -0.384 0.782 255 255 255
-0.198 -0.481 0.774 255 255 255
0.273 -0.293 0.531 255 255 255
0.323 -0.085 0.487 255 255 255
0.298 -0.077 0.523 255 255 255
0.259 -0.369 0.536 255 255 255
0.037 -0.34 0.839 255 255 255
0.288 0.005 0.551 255 255 255
-0.336 -0.124 0.806 255 255 255
-0.341 -0.365 0.701 255 255 255
-0.316 -0.043 0.824 0 0 0
0.066 0.178 0.552 255 255 255
0.044 -0.102 0.855 255 255 255
0.263 0.096 0.589 255 255 255
-0.311 -0.148 0.794 0 0 0
0.002 0.205 0.391 255 255 255
0.13 -0.148 0.736 0 0 0
-0.105 -0.254 0.951 255 255 255
0.114 -0.163 0.757 255 255 255
-0.309 -0.421 0.704 255 255 255
0.06 0.185 0.513 255 255 255
0.279 -0.184 0.535 255 255 255
0.26 -0.378 0.534 255 255 255
0.023 0.192 0.438 255 255 255
0.144 0.006 0.737 255 255 255
0.1 0.043 0.795 0 0 0
0.224 -0.42 0.574 0 0 0
0.096 -0.311 0.763 255 255 255
0.01 0.204 0.399 255 255 255
-0.365 -0.193 0.752 255 255 255
0.162 -0.008 0.71 255 255 255
0.188 0.16 0.689 255 255 255
-0.303 -0.1 0.42 255 255 255
-0.36 0.007 0.838 255 255 255
0.3 -0.233 0.506 255 255 255
0.205 -0.096 0.641 255 255 255
0.004 -0.565 0.842 255 255 255
0.225 0.109 0.638 255 255 255
-0.123 0.15 0.492 255 255 255
0.338 -0.108 0.476 255 255 255
-0.225 0.117 0.561 255 255 255
0.287 -0.285 0.512 255 255 255
0.246 -0.024 0.603 255 255 255
0.136 -0.065 0.737 255 255 255
-0.289 -0.293 0.775 255 255 255
-0.107 0.193 0.371 255 255 255
-0.288 -0.457 0.703 255 255 255
-0.222 0.119 0.554 255 255 255
0.095 -0.249 0.771 255 255 255
0.039 0.129 0.848 255 255 255
-0.023 -0.4 0.898 255 255 255
-0.183 0.148 0.47 255 255 255
0.06 0.152 0.643 255 255 255
0.101 -0.139 0.775 255 255 255
-0.434 -0.124 0.724 255 255 255
-0.245 -0.032 0.747 255 255 255
0.208 -0.392 0.598 255 255 255
-0.141 -0.53 0.795 255 255 255
-0.241 0.082 0.675 0 0 0
0.009 -0.319 0.877 255 255 255
-0.361 -0.394 0.673 255 255 255
-0.341 -0.399 0.687 255 255 255
0.121 -0.433 0.714 255 255 255
-0.343 -0.171 0.778 255 255 255
-0.202 -0.046 0.756 0 0 0
-0.241 0.013 0.751 255 255 255
0.172 -0.129 0.683 255 255 255
-0.395 -0.299 0.689 255 255 255
-0.364 -0.152 0.769 255 255 255
-0.069 0.08 0.933 0 0 0
0.097 0.176 0.587 255 255 255
0.181 0.134 0.693 255 255 255
-0.086 0.19 0.386 255 255 255
0.157 -0.053 0.711 255 255 255
0.122 -0.288 0.728 255 255 255
0.104 -0.478 0.73 255 255 255
-0.088 -0.018 0.815 255 255 255
0.24 -0.257 0.568 255 255 255
-0.132 -0.274 0.926 255 255 255
-0.337 -0.414 0.686 255 255 255
0.199 -0.228 0.635 255 255 255
0.221 -0.106 0.621 255 255 255
0.048 -0.273 0.831 255 255 255
0.229 0.345 0.653 255 255 255
-0.03 0.206 0.376 255 255 255
-0.211 0.14 0.487 255 255 255
-0.173 0.129 0.544 255 255 255
-0.07 0.171 0.452 0 0 0
0.271 0.032 0.576 255 255 255
0.174 -0.437 0.639 255 255 255
-0.201 -0.122 0.747 255 255 255
0.336 -0.146 0.481 255 255 255
-0.396 -0.291 0.69 255 255 255
0.147 0.161 0.741 0 0 0
-0.177 -0.003 0.965 0 0 0
0.206 -0.347 0.6 255 255 255
-0.17 -0.059 0.871 255 255 255
-0.28 -0.039 0.433 255 255 255
-0.4 -0.228 0.71 255 255 255
0.33 -0.047 0.488 255 255 255
-0.096 0.114 0.656 255 255 255
-0.175 -0.531 0.767 255 255 255
-0.228 -0.077 0.739 255 255 255
-0.395 -0.114 0.761 255 255 255
-0.094 0.052 0.838 255 255 255
-0.139 -0.462 0.833 255 255 255
0.146 0.02 0.736 255 255 255
0.004 0.197 0.419 255 255 255
-0.114 0.125 0.595 255 255 255
-0.159 -0.429 0.828 255 255 255
-0.063 0.172 0.452 0 0 0
-0.3 -0.496 0.678 0 0 0
0.288 0.187 0.565 255 255 255
0.233 -0.221 0.59 255 255 255
-0.101 -0.47 0.859 255 255 255
0.284 0.071 0.559 255 255 255
-0.056 0.141 0.527 255 255 255
0.177 -0.018 0.689 0 0 0
0.023 0.193 0.436 255 255 255
0.028 -0.192 0.867 255 255 255
0.193 0.237 0.584 255 255 255
0.008 0.195 0.429 0 0 0
-0.372 0 0.825 255 255 255
-0.044 0.202 0.377 255 255 255
0.204 0.117 0.663 255 255 255
0.125 -0.526 0.691 0 0 0
-0.128 0.184 0.388 255 255 255
0.172 -0.029 0.695 255 255 255
-0.371 0.029 0.836 255 255 255
-0.454 0.043 0.767 255 255 255
0.164 0.103 0.713 255 255 255
0.197 -0.043 0.66 255 255 255
0.242 -0.267 0.566 255 255 255
-0.44 -0.011 0.765 255 255 255
0.241 0.117 0.618 255 255 255
0.204 -0.013 0.656 255 255 255
0.024 -0.103 0.88 255 255 255
0.047 -0.037 0.855 255 255 255
-0.327 -0.298 0.743 255 255 255
0.169 0.267 0.565 255 255 255
-0.336 -0.263 0.748 255 255 255
0.305 -0.178 0.503 255 255 255
-0.394 0.051 0.79 255 255 255
-0.43 -0.091 0.741 255 255 255
-0.061 -0.525 0.861 255 255 255
0.264 0.039 0.585 255 255 255
0.052 -0.56 0.788 255 255 255
0.248 0.217 0.619 255 255 255
0.128 -0.17 0.737 0 0 0
0.233 -0.07 0.61 255 255 255
0.267 0.205 0.595 255 255 255
0.169 0.21 0.562 255 255 255
0.033 0.16 0.566 255 255 255
-0.372 -0.291 0.709 255 255 255
0.136 -0.161 0.726 255 255 255
-0.078 -0.516 0.853 255 255 255
0.013 0.15 0.53 255 255 255
0.012 0.135 0.67 255 255 255
-0.12 0.051 0.844 0 0 0
0.003 -0.105 0.912 255 255 255
0.151 -0.19 0.703 255 255 255
-0.161 -0.539 0.775 255 255 255
-0.445 -0.173 0.702 255 255 255
0.196 0.105 0.672 255 255 255
0.219 -0.421 0.579 0 0 0
0.271 0.225 0.593 255 255 255
-0.14 -0.561 0.785 255 255 255
0.298 0.123 0.551 255 255 255
-0.003 0.148 0.516 255 255 255
0.122 -0.094 0.752 0 0 0
0.22 -0.343 0.58 0 0 0
0.162 0.142 0.721 255 255 255
0.253 -0.179 0.571 255 255 255
-0.039 -0.42 0.908 255 255 255
0.206 -0.149 0.633 255 255 255
-0.281 -0.067 0.428 0 0 0
0.27 0.092 0.579 255 255 255
0.216 0.225 0.589 0 0 0
0.108 -0.408 0.734 255 255 255
0.157 0.196 0.639 255 255 255
-0.213 0.004 0.847 0 0 0
-0.239 -0.438 0.757 255 255 255
0.183 0.215 0.584 255 255 255
-0.041 0.189 0.414 0 0 0
-0.165 -0.092 0.831 255 255 255
-0.295 0.12 0.514 255 255 255
0.16 0.19 0.678 255 255 255
-0.152 -0.26 0.786 255 255 255
0.298 -0.064 0.524 255 255 255
0.264 -0.15 0.56 255 255 255
-0.336 -0.25 0.755 255 255 255
-0.301 -0.009 0.443 0 0 0
0.242 0.186 0.623 255 255 255
0.183 -0.04 0.68 0 0 0
0.284 -0.081 0.54 255 255 255
-0.313 0.011 0.443 255 255 255
-0.219 0.121 0.544 255 255 255
-0.116 -0.098 0.966 0 0 0
-0.219 -0.299 0.834 0 0 0
0.205 -0.315 0.592 255 255 255
0.087 0.161 0.677 255 255 255
0.252 -0.172 0.573 255 255 255
-0.404 0.016 0.804 255 255 255
-0.098 0.193 0.377 255 255 255
0.192 -0.089 0.66 255 255 255
-0.39 -0.049 0.791 255 255 255
0.208 -0.266 0.59 255 255 255
-0.181 0.136 0.51 255 255 255
0.064 0.199 0.451 255 255 255
-0.022 0.188 0.435 255 255 255
-0.056 -0.417 0.91 255 255 255
-0.118 0.084 0.76 255 255 255
0.185 0.145 0.69 255 255 255
0.186 -0.394 0.626 255 255 255
-0.092 -0.576 0.814 255 255 255
-0.067 -0.263 0.964 255 255 255
0.041 0.021 0.868 255 255 255
-0.107 0.079 0.785 255 255 255
-0.086 0.173 0.44 255 255 255
-0.228 0.07 0.738 255 255 255
-0.238 -0.376 0.782 255 255 255
0.286 -0.08 0.536 255 255 255
0.266 -0.306 0.533 255 255 255
0.117 -0.446 0.716 255 255 255
0.242 -0.194 0.582 255 255 255
-0.002 0.058 0.929 255 255 255
-0.226 0.11 0.583 255 255 255
0.307 0.007 0.525 255 255 255
0.295 -0.213 0.513 255 255 255
-0.27 -0.301 0.787 255 255 255
0.268 -0.031 0.572 255 255 255
-0.335 -0.376 0.7 255 255 255
-0.374 -0.271 0.715 255 255 255
-0.138 -0.525 0.802 255 255 255
0.299 0.012 0.536 255 255 255
-0.246 -0.388 0.772 255 255 255
0.282 -0.045 0.549 255 255 255
0.148 -0.442 0.672 255 255 255
0.15 -0.406 0.677 255 255 255
0.253 -0.253 0.556 255 255 255
0.155 0.12 0.726 255 255 255
-0.076 -0.56 0.835 255 255 255
-0.065 0.078 0.832 0 0 0
0.102 0.176 0.59 255 255 255
0.285 -0.239 0.517 255 255 255
-0.164 -0.27 0.767 255 255 255
0.102 -0.25 0.762 255 255 255
-0.05 0.193 0.398 255 255 255
-0.004 -0.302 0.896 255 255 255
0.186 0.151 0.69 255 255 255
0.143 0.226 0.438 255 255 255
-0.333 0.089 0.592 255 255 255
-0.194 0.066 0.788 0 0 0
0.181 0.219 0.474 255 255 255
-0.28 -0.099 0.422 0 0 0
-0.081 0.195 0.375 255 255 255
0.168 -0.218 0.677 255 255 255
0.179 0.13 0.694 255 255 255
0.102 -0.213 0.767 255 255 255
0.055 0.156 0.589 255 255 255
-0.448 -0.059 0.74 255 255 255
-0.343 -0.179 0.776 255 255 255
0.067 -0.423 0.789 255 255 255
-0.062 -0.023 0.994 0 0 0
0.108 0.175 0.624 255 255 255
0.154 -0.087 0.71 255 255 255
0.314 0.045 0.519 255 255 255
-0.122 0.13 0.57 255 255 255
-0.322 -0.015 0.422 255 255 255
0.345 0.017 0.483 255 255 255
-0.18 -0.415 0.818 255 255 255
0.013 0.191 0.441 255 255 255
0.203 -0.448 0.599 0 0 0
0.248 -0.415 0.541 0 0 0
-0.065 -0.226 0.972 255 255 255
-0.434 -0.121 0.725 255 255 255
0.051 -0.251 0.83 255 255 255
-0.115 0.171 0.429 255 255 255
0.087 0.004 0.808 0 0 0
0.24 -0.012 0.612 255 255 255
0.327 -0.132 0.483 255 255 255
0.258 -0.305 0.544 255 255 255
0.134 0.183 0.678 255 255 255
-0.092 -0.547 0.829 255 255 255
0.009 -0.194 0.893 255 255 255
0.193 -0.14 0.652 255 255 255
-0.377 0.007 0.823 255 255 255
0.011 -0.454 0.854 255 255 255
0.009 0.165 0.52 0 0 0
0.22 -0.444 0.575 0 0 0
0.221 0.227 0.586 0 0 0
-0.128 0.184 0.39 255 255 255
0.241 -0.127 0.595 255 255 255
-0.269 -0.513 0.696 0 0 0
-0.307 -0.012 0.44 255 255 255
0.14 0.139 0.749 255 255 255
-0.05 0.125 0.657 255 255 255
0.346 0.004 0.481 255 255 255
0.187 0.065 0.684 255 255 255
-0.14 -0.279 0.891 0 0 0
-0.062 0.155 0.478 0 0 0
-0.062 0.199 0.38 255 255 255
-0.051 0.054 0.989 255 255 255
-0.167 -0.524 0.776 255 255 255
0.156 0.037 0.721 255 255 255
0.064 0.153 0.617 255 255 255
-0.212 0.129 0.513 255 255 255
-0.325 0.106 0.55 255 255 255
0.193 0.121 0.676 255 255 255
0.305 -0.111 0.509 255 255 255
0.082 -0.195 0.795 255 255 255
0.051 0.146 0.747 0 0 0
0.186 -0.443 0.622 255 255 255
0.123 0.034 0.766 255 255 255
0.027 0.188 0.46 255 255 255
0.067 0.192 0.491 255 255 255
0.128 -0.246 0.726 255 255 255
0.271 -0.234 0.535 255 255 255
0.012 0.033 0.909 255 255 255
-0.347 -0.353 0.702 255 255 255
0.096 0.187 0.544 0 0 0
-0.024 0.148 0.583 255 255 255
0.302 -0.035 0.525 255 255 255
-0.307 -0.064 0.419 255 255 255
0.073 -0.17 0.81 255 255 255
-0.358 -0.164 0.77 255 255 255
0.264 0.159 0.592 255 255 255
-0.068 -0.376 0.92 255 255 255
-0.226 -0.026 0.75 255 255 255
-0.009 0.135 0.658 255 255 255
-0.35 -0.361 0.698 255 255 255
0.073 0.063 0.829 255 255 255
0.297 0.074 0.542 255 255 255
0.144 0.055 0.737 255 255 255
-0.081 0.156 0.493 255 255 255
0.03 0.165 0.558 255 255 255
-0.109 0.177 0.415 255 255 255
-0.125 -0.268 0.934 255 255 255
-0.25 0.003 0.754 255 255 255
0.284 0.071 0.558 255 255 255
-0.084 0.076 0.808 0 0 0
0.115 -0.308 0.737 255 255 255
-0.341 -0.023 0.843 255 255 255
-0.079 0.106 0.71 255 255 255
-0.213 -0.015 0.752 255 255 255
-0.042 0.103 0.742 255 255 255
0.15 0.119 0.733 255 255 255
0.16 -0.469 0.654 255 255 255
0.139 0.145 0.751 0 0 0
0.017 0.123 0.712 0 0 0
-0.286 -0.04 0.428 0 0 0
-0.092 0.009 0.822 255 255 255
0.059 0.127 0.851 255 255 255
-0.227 -0.239 0.85 255 255 255
0.063 -0.502 0.783 255 255 255
-0.313 -0.475 0.674 255 255 255
-0.06 -0.492 0.876 255 255 255
0.168 0.139 0.713 255 255 255
0.272 0.088 0.578 255 255 255
0.125 0.158 0.769 0 0 0
0.246 -0.118 0.588 255 255 255
-0.211 0.126 0.528 255 255 255
-0.205 -0.117 0.824 0 0 0
-0.387 -0.025 0.802 255 255 255
-0.138 0.131 0.553 255 255 255
0.289 -0.176 0.523 255 255 255
0.124 0.11 0.767 255 255 255
0.117 -0.263 0.74 255 255 255
0.024 0.175 0.519 255 255 255
-0.326 -0.352 0.718 255 255 255
-0.35 -0.194 0.763 255 255 255
0.325 -0.112 0.484 255 255 255
0.065 0.169 0.585 0 0 0
0.081 0.184 0.544 255 255 255
0.264 -0.208 0.549 255 255 255
-0.343 -0.176 0.777 255 255 255
0.254 -0.002 0.596 255 255 255
-0.134 0.198 0.35 255 255 255
-0.033 0.008 0.964 255 255 255
0.097 0.222 0.403 255 255 255
0.182 0.204 0.636 255 255 255
0.078 -0.105 0.81 255 255 255
-0.132 0.112 0.636 255 255 255
0.24 -0.058 0.604 255 255 255
-0.303 -0.037 0.434 255 255 255
-0.163 -0.485 0.8 255 255 255
-0.303 -0.012 0.442 0 0 0
0.238 -0.295 0.565 255 255 255
0.119 -0.376 0.722 255 255 255
0.161 -0.168 0.692 255 255 255
0.189 -0.005 0.677 255 255 255
-0.211 0.113 0.577 255 255 255
-0.402 -0.012 0.795 255 255 255
-0.106 0.167 0.449 255 255 255
-0.24 -0.158 0.721 255 255 255
0.162 0.042 0.715 255 255 255
-0.356 -0.005 0.838 255 255 255
0.026 -0.27 0.863 255 255 255
0.216 0.004 0.641 255 255 255
0.042 0.18 0.517 255 255 255
0.126 -0.212 0.732 0 0 0
0.339 -0.068 0.474 255 255 255
0.08 -0.316 0.782 255 255 255
-0.344 -0.406 0.68 255 255 255
0.222 -0.151 0.615 255 255 255
0.05 0.187 0.497 255 255 255
-0.163 0.15 0.467 255 255 255
-0.002 0.16 0.467 255 255 255
0.335 -0.125 0.479 255 255 255
-0.08 -0.167 0.993 255 255 255
0.035 0.037 0.879 255 255 255
0.132 -0.225 0.725 0 0 0
0.013 0.196 0.426 255 255 255
0.217 -0.167 0.619 255 255 255
0.171 -0.3 0.662 255 255 255
-0.455 0.01 0.76 255 255 255
0.298 -0.208 0.51 255 255 255
0.051 0.096 0.859 255 255 255
0.25 0.229 0.618 255 255 255
0.274 0.059 0.573 255 255 255
-0.336 -0.077 0.825 255 255 255
0.165 -0.299 0.669 255 255 255
0.043 -0.099 0.858 255 255 255
0.264 -0.072 0.568 255 255 255
-0.137 -0.218 0.834 0 0 0
0.036 -0.285 0.844 255 255 255
-0.105 0.18 0.41 255 255 255
0.316 0.107 0.53 255 255 255
0.083 -0.104 0.802 255 255 255
0.272 -0.104 0.552 255 255 255
0.305 -0.025 0.523 255 255 255
-0.056 0.114 0.692 255 255 255
0.088 -0.179 0.79 255 255 255
0.195 0.201 0.685 255 255 255
-0.325 -0.221 0.775 255 255 255
-0.375 -0.102 0.784 255 255 255
-0.01 -0.396 0.885 255 255 255
-0.121 -0.261 0.938 255 255 255
0.239 -0.203 0.585 255 255 255
-0.285 -0.482 0.694 255 255 255
-0.028 0.138 0.624 255 255 255
-0.005 0.144 0.625 255 255 255
0.223 -0.099 0.621 255 255 255
0.049 0.145 0.677 0 0 0
-0.072 0.103 0.728 255 255 255
-0.056 0.099 0.748 255 255 255
-0.195 -0.408 0.811 255 255 255
-0.244 -0.247 0.831 255 255 255
-0.333 -0.424 0.685 255 255 255
-0.382 -0.191 0.74 255 255 255
0.033 0.186 0.487 255 255 255
0.202 0.221 0.497 255 255 255
0.092 0.192 0.518 255 255 255
0.282 -0.095 0.538 255 255 255
0.091 -0.222 0.78 255 255 255
0 -0.329 0.888 255 255 255
-0.41 0.033 0.804 255 255 255
-0.276 -0.48 0.706 255 255 255
0.03 -0.052 0.881 255 255 255
-0.443 -0.116 0.72 255 255 255
-0.152 -0.163 0.819 255 255 255
-0.084 -0.046 0.805 255 255 255
0.292 0.083 0.552 255 255 255
0.068 0.205 0.432 255 255 255
-0.16 -0.128 0.821 255 255 255
-0.288 0.053 0.443 255 255 255
-0.188 0.09 0.685 255 255 255
0.201 -0.148 0.64 255 255 255
0.28 -0.107 0.542 255 255 255
0.092 -0.543 0.738 0 0 0
-0.345 -0.333 0.711 255 255 255
-0.113 0.11 0.661 255 255 255
-0.138 0.107 0.654 255 255 255
-0.046 0.184 0.428 0 0 0
-0.072 -0.576 0.83 255 255 255
0.177 0.213 0.577 255 255 255
0.278 -0.086 0.547 255 255 255
-0.002 -0.288 0.895 255 255 255
-0.197 0.04 0.818 255 255 255
-0.076 0.136 0.58 255 255 255
0.103 -0.213 0.765 255 255 255
0.08 -0.298 0.785 255 255 255
0.118 -0.032 0.765 255 255 255
0.082 -0.407 0.769 255 255 255
0.045 -0.319 0.829 255 255 255
0.024 0.143 0.653 255 255 255
0.211 -0.339 0.589 0 0 0
0.083 0.061 0.817 0 0 0
0.002 -0.116 0.912 255 255 255
-0.211 -0.413 0.793 255 255 255
0.284 -0.247 0.517 255 255 255
-0.092 -0.003 0.819 255 255 255
0.28 -0.204 0.53 255 255 255
0.314 0.085 0.529 255 255 255
-0.363 -0.127 0.781 255 255 255
0.273 -0.047 0.562 255 255 255
-0.368 -0.214 0.742 255 255 255
-0.151 0.131 0.548 255 255 255
0.149 0.068 0.733 255 255 255
0.087 0.153 0.787 255 255 255
-0.092 0.143 0.527 255 255 255
-0.095 -0.222 0.97 255 255 255
-0.085 0.147 0.515 0 0 0
0.243 0.353 0.646 255 255 255
0.264 0.122 0.588 255 255 255
0.154 -0.151 0.703 255 255 255
0.168 0.022 0.706 0 0 0
0.313 -0.063 0.506 255 255 255
-0.313 -0.035 0.422 255 255 255
0.197 0.249 0.569 255 255 255
0.236 0.352 0.653 255 255 255
0.237 -0.098 0.602 255 255 255
0.198 -0.126 0.648 255 255 255
0.256 0.12 0.598 255 255 255
-0.125 -0.259 0.938 255 255 255
-0.29 0.007 0.438 0 0 0
-0.278 -0.134 0.424 255 255 255
-0.082 -0.291 0.948 255 255 255
-0.249 0.081 0.671 0 0 0
0.161 -0.156 0.694 255 255 255
-0.152 -0.047 0.997 0 0 0
-0.101 0.181 0.41 255 255 255
-0.271 0.086 0.642 255 255 255
-0.345 -0.246 0.747 255 255 255
-0.043 -0.531 0.868 255 255 255
-0.355 0.072 0.806 255 255 255
0.339 -0.138 0.477 255 255 255
0.031 0.186 0.471 255 255 255
0.146 -0.134 0.716 255 255 255
0.091 -0.382 0.759 255 255 255
0.27 0.21 0.592 255 255 255
0.189 -0.016 0.676 255 255 255
0.187 0.251 0.561 255 255 255
-0.328 0.089 0.596 255 255 255
-0.123 -0.405 0.871 255 255 255
-0.088 0.02 0.829 255 255 255
-0.301 -0.097 0.422 255 255 255
0.246 0.019 0.609 255 255 255
-0.138 0.03 0.87 255 255 255
0.044 -0.468 0.812 255 255 255
0.224 0.208 0.65 255 255 255
-0.193 -0.414 0.81 255 255 255
-0.081 0.181 0.419 255 255 255
-0.141 -0.026 1.006 255 255 255
0.046 -0.204 0.842 255 255 255
0.297 0.077 0.543 255 255 255
-0.137 0.134 0.547 255 255 255
0.315 -0.077 0.502 255 255 255
-0.023 -0.292 0.919 255 255 255
-0.28 0.027 0.444 255 255 255
0.173 -0.455 0.637 255 255 255
0.118 -0.482 0.709 255 255 255
0.193 -0.456 0.612 0 0 0
-0.411 0.06 0.755 255 255 255
-0.324 -0.377 0.709 255 255 255
0.152 0.107 0.729 255 255 255
-0.281 -0.3 0.777 255 255 255
-0.299 -0.057 0.431 0 0 0
-0.437 -0.034 0.756 255 255 255
0.205 -0.134 0.637 255 255 255
-0.261 -0.495 0.71 255 255 255
-0.114 0.133 0.568 255 255 255
-0.253 -0.136 0.754 255 255 255
-0.32 -0.162 0.8 255 255 255
-0.227 -0.448 0.763 255 255 255
-0.008 -0.466 0.872 255 255 255
0.087 -0.013 0.807 255 255 255
0.229 -0.052 0.618 255 255 255
-0.014 0.109 0.879 0 0 0
-0.143 0.174 0.41 255 255 255
-0.352 -0.169 0.772 255 255 255
-0.032 0.189 0.419 0 0 0
-0.216 -0.446 0.776 255 255 255
0.081 0.143 0.822 255 255 255
-0.015 -0.18 0.926 255 255 255
0.004 0.122 0.712 0 0 0
0.127 0.099 0.761 255 255 255
0.187 -0.213 0.652 255 255 255
0.29 0.053 0.551 255 255 255
-0.324 -0.502 0.655 0 0 0
-0.283 -0.461 0.708 255 255 255
-0.175 -0.323 0.784 255 255 255
0.136 -0.145 0.729 255 255 255
0.16 -0.075 0.705 255 255 255
-0.069 0.132 0.609 255 255 255
-0.065 -0.3 0.951 255 255 255
0.276 0.05 0.568 255 255 255
0.189 0.249 0.556 255 255 255
0.285 -0.184 0.527 255 255 255
0.135 -0.086 0.736 255 255 255
0.233 0.013 0.621 255 255 255
0.268 -0.141 0.556 255 255 255
0.154 -0.326 0.679 0 0 0
-0.277 -0.036 0.437 255 255 255
0.229 0.098 0.631 255 255 255
0.185 -0.182 0.657 255 255 255
-0.323 -0.283 0.752 255 255 255
-0.119 0.048 0.845 0 0 0
0.059 0.195 0.471 255 255 255
0.242 -0.28 0.563 255 255 255
-0.364 0.053 0.801 255 255 255
0.27 0.171 0.586 255 255 255
0.156 0.198 0.539 255 255 255
0.152 -0.455 0.669 255 255 255
0.023 0.189 0.452 255 255 255
0.119 0.223 0.416 255 255 255
-0.231 -0.481 0.743 255 255 255
-0.279 0.124 0.509 255 255 255
-0.058 0.192 0.398 255 255 255
-0.337 -0.017 0.848 255 255 255
-0.084 -0.46 0.875 255 255 255
0.02 0.083 0.901 255 255 255
0.263 0.107 0.59 255 255 255
0.251 -0.368 0.542 255 255 255
0.033 0.121 0.884 255 255 255
0.158 -0.098 0.703 255 255 255
0.055 -0.037 0.847 255 255 255
0.029 -0.487 0.829 255 255 255
0.129 -0.142 0.739 0 0 0
-0.283 -0.479 0.699 255 255 255
-0.312 -0.271 0.763 255 255 255
0.186 0.193 0.697 255 255 255
0.039 -0.442 0.823 255 255 255
-0.074 -0.165 0.99 255 255 255
0.064 0.145 0.796 255 255 255
0.02 0.174 0.52 0 0 0
-0.281 -0.136 0.413 255 255 255
-0.268 0.01 0.767 255 255 255
0.019 0.156 0.558 255 255 255
-0.267 -0.227 0.819 255 255 255
0.12 -0.32 0.727 255 255 255
0.141 -0.169 0.718 255 255 255
-0.169 -0.117 0.818 255 255 255
0.043 0.185 0.504 255 255 255
-0.237 -0.405 0.773 255 255 255
-0.225 -0.467 0.755 255 255 255
0.128 -0.261 0.724 0 0 0
0.331 0.038 0.5 255 255 255
0.129 0.005 0.755 255 255 255
-0.196 -0.15 0.748 255 255 255
0.037 -0.342 0.839 255 255 255
-0.355 -0.336 0.703 255 255 255
-0.439 -0.043 0.752 255 255 255
0.267 0.139 0.586 255 255 255
0.227 -0.023 0.626 255 255 255
-0.293 0.052 0.778 255 255 255
-0.12 0.018 0.88 255 255 255
0.272 0.1 0.579 255 255 255
0.274 -0.027 0.565 255 255 255
-0.097 0.144 0.523 255 255 255
-0.069 -0.409 0.906 255 255 255
-0.09 0.042 0.835 255 255 255
-0.383 -0.144 0.757 255 255 255
-0.072 -0.327 0.938 255 255 255
-0.115 -0.214 0.961 255 255 255
0.083 0.169 0.605 255 255 255
-0.051 0.2 0.379 255 255 255
0.242 0.236 0.547 255 255 255
-0.178 -0.471 0.796 255 255 255
0.216 0.218 0.646 255 255 255
-0.217 0.142 0.474 255 255 255
0.032 0.191 0.428 0 0 0
-0.024 0.198 0.399 255 255 255
-0.09 -0.595 0.807 0 0 0
-0.31 -0.482 0.676 255 255 255
-0.191 -0.238 0.82 255 255 255
0.211 0.109 0.654 255 255 255
0.016 0.129 0.69 0 0 0
-0.056 -0.522 0.867 255 255 255
0.125 0.129 0.766 0 0 0
0.246 -0.323 0.552 255 255 255
-0.359 -0.152 0.774 255 255 255
-0.163 -0.54 0.773 255 255 255
0.22 0.041 0.639 255 255 255
-0.203 -0.457 0.78 255 255 255
-0.002 0.206 0.387 255 255 255
-0.248 -0.429 0.753 255 255 255
0.075 0.194 0.479 255 255 255
0.051 0.154 0.593 255 255 255
0.014 0.202 0.409 255 255 255
-0.14 0.137 0.529 255 255 255
-0.194 -0.466 0.785 255 255 255
0.122 -0.015 0.762 255 255 255
0.207 -0.059 0.645 255 255 255
-0.057 0.158 0.47 255 255 255
-0.263 -0.024 0.748 255 255 255
0.27 -0.279 0.531 255 255 255
-0.055 0.134 0.612 255 255 255
0.102 -0.314 0.754 255 255 255
0.211 -0.181 0.625 0 0 0
0.03 0.053 0.886 255 255 255
0.192 0.039 0.678 255 255 255
-0.072 -0.101 0.996 255 255 255
0.22 0.21 0.655 255 255 255
-0.164 0.095 0.677 255 255 255
0.219 -0.067 0.629 255 255 255
0.143 -0.247 0.705 0 0 0
0.196 -0.306 0.608 255 255 255
-0.053 -0.318 0.943 255 255 255
-0.097 -0.568 0.813 255 255 255
0.092 0.112 0.808 255 255 255
-0.141 0.104 0.666 255 255 255
0.289 0.166 0.565 255 255 255
0.268 0.153 0.588 255 255 255
0.163 -0.438 0.653 255 255 255
-0.18 -0.437 0.809 255 255 255
0.073 0.194 0.479 255 255 255
0.039 -0.589 0.797 0 0 0
-0.096 0.187 0.39 255 255 255
-0.272 0.042 0.769 255 255 255
-0.252 -0.477 0.728 255 255 255
0.13 0.174 0.734 0 0 0
-0.22 -0.06 0.751 0 0 0
0.281 -0.053 0.548 255 255 255
-0.205 -0.111 0.854 255 255 255
0.231 -0.25 0.577 255 255 255
-0.037 -0.358 0.92 255 255 255
0.214 -0.284 0.587 255 255 255
0.214 -0.025 0.641 255 255 255
-0.08 0.13 0.602 255 255 255
0.196 -0.144 0.648 255 255 255
0.342 -0.006 0.481 255 255 255
-0.24 -0.152 0.755 0 0 0
-0.111 0.164 0.455 255 255 255
-0.301 -0.043 0.431 255 255 255
-0.01 0.177 0.452 0 0 0
-0.135 -0.416 0.857 255 255 255
-0.059 -0.123 0.981 255 255 255
0.098 -0.457 0.743 255 255 255
0.339 -0.071 0.473 255 255 255
0.114 -0.044 0.769 0 0 0
0.215 -0.352 0.585 0 0 0
0.245 -0.091 0.592 255 255 255
-0.246 0.13 0.501 255 255 255
-0.027 0.182 0.44 255 255 255
-0.127 0.043 0.845 255 255 255
0.066 -0.098 0.83 255 255 255
-0.03 0.147 0.496 0 0 0
-0.013 0.002 0.94 255 255 255
0.129 0.194 0.514 255 255 255
-0.147 0.073 0.767 0 0 0
0.289 -0.138 0.528 255 255 255
0.222 0.087 0.64 255 255 255
0.03 0.112 0.888 255 255 255
-0.363 -0.323 0.702 255 255 255
0.332 0.056 0.505 255 255 255
0.064 0.122 0.845 255 255 255
-0.333 -0.247 0.758 255 255 255
-0.135 -0.148 0.972 255 255 255
0.066 -0.087 0.827 255 255 255
-0.322 -0.501 0.657 0 0 0
-0.197 0.085 0.692 255 255 255
-0.299 -0.134 0.782 0 0 0
0.075 0.187 0.525 255 255 255
-0.391 -0.354 0.668 255 255 255
-0.313 -0.039 0.42 255 255 255
0.246 -0.036 0.6 255 255 255
0.112 0.174 0.684 255 255 255
0.082 -0.138 0.801 255 255 255
0.297 -0.123 0.519 255 255 255
0.187 -0.422 0.621 255 255 255
0.117 -0.401 0.722 255 255 255
0.269 0.201 0.591 255 255 255
0.123 -0.088 0.753 255 255 255
0.181 -0.399 0.632 255 255 255
-0.134 -0.289 0.915 0 0 0
-0.098 -0.082 0.845 0 0 0
-0.182 0.142 0.487 255 255 255
0.108 0.054 0.783 255 255 255
-0.149 -0.481 0.815 255 255 255
-0.278 -0.108 0.423 255 255 255
-0.439 0.058 0.741 255 255 255
0.073 0.179 0.556 255 255 255
0.294 0.03 0.543 255 255 255
-0.045 -0.235 0.953 255 255 255
-0.076 -0.104 0.838 255 255 255
-0.258 0.017 0.754 255 255 255
-0.149 0.149 0.49 255 255 255
-0.249 0.063 0.74 255 255 255
0.174 0.179 0.71 255 255 255
-0.216 0.119 0.552 255 255 255
0.163 -0.23 0.682 255 255 255
-0.207 -0.563 0.728 0 0 0
0.064 0.201 0.443 0 0 0
0.281 -0.107 0.541 255 255 255
-0.306 -0.486 0.678 255 255 255
-0.077 -0.4 0.906 255 255 255
-0.118 0.175 0.418 255 255 255
0.279 0.226 0.584 255 255 255
0.098 0.184 0.556 255 255 255
0.286 -0.319 0.521 255 255 255
0.22 0.079 0.643 255 255 255
0.098 -0.275 0.764 255 255 255
0.293 -0.016 0.542 255 255 255
0.159 0.221 0.46 255 255 255
0.1 0.169 0.599 255 255 255
0.249 -0.333 0.547 255 255 255
0.005 -0.484 0.855 255 255 255
0.029 0.204 0.403 255 255 255
-0.033 -0.059 0.959 255 255 255
-0.301 -0.415 0.714 255 255 255
-0.061 -0.58 0.836 255 255 255
0.155 -0.492 0.658 0 0 0
-0.303 -0.389 0.72 255 255 255
0.035 0.156 0.576 255 255 255
-0.046 0.2 0.381 255 255 255
0.225 0.119 0.638 255 255 255
0.033 -0.506 0.82 255 255 255
-0.062 -0.453 0.893 255 255 255
0.009 -0.41 0.865 255 255 255
-0.01 0.157 0.475 0 0 0
0.26 0.01 0.589 255 255 255
-0.385 -0.222 0.726 255 255 255
-0.047 -0.259 0.95 255 255 255
0.252 0.167 0.609 255 255 255
-0.45 0.005 0.762 255 255 255
-0.047 0.134 0.625 255 255 255
0.265 0.108 0.588 255 255 255
0.2 -0.098 0.647 255 255 255
0.293 -0.153 0.52 255 255 255
-0.127 -0.109 0.99 255 255 255
-0.19 0.134 0.512 255 255 255
-0.251 -0.146 0.714 255 255 255
-0.392 -0.158 0.746 255 255 255
-0.158 -0.307 0.76 255 255 255
-0.124 -0.517 0.82 255 255 255
-0.194 -0.034 0.777 0 0 0
-0.107 -0.25 0.952 255 255 255
0.284 -0.09 0.539 255 255 255
0.204 -0.32 0.593 255 255 255
0.215 0.004 0.642 255 255 255
0.133 0.118 0.756 255 255 255
0.136 0.198 0.504 255 255 255
0.124 0.077 0.765 255 255 255
0.25 -0.257 0.558 255 255 255
0.256 -0.02 0.59 255 255 255
0.299 -0.186 0.508 255 255 255
-0.077 0.159 0.486 255 255 255
-0.112 0.188 0.386 255 255 255
0.155 -0.212 0.696 255 255 255
0.307 -0.001 0.523 255 255 255
-0.298 -0.037 0.438 0 0 0
-0.11 0.103 0.695 255 255 255
-0.045 -0.064 0.974 255 255 255
-0.365 -0.337 0.697 255 255 255
-0.041 0.164 0.457 255 255 255
0.073 -0.343 0.79 255 255 255
-0.311 0.01 0.802 255 255 255
-0.117 0.169 0.435 255 255 255
0.178 0.219 0.573 255 255 255
0.114 -0.086 0.765 0 0 0
0.11 -0.358 0.735 255 255 255
0.226 -0.238 0.6 255 255 255
0.105 0.192 0.526 0 0 0
-0.364 -0.094 0.794 255 255 255
0.077 -0.47 0.769 255 255 255
-0.157 -0.1 0.975 255 255 255
0.202 -0.107 0.643 255 255 255
-0.033 0.142 0.504 255 255 255
0.314 0.08 0.528 255 255 255
0.326 -0.13 0.485 255 255 255
0.215 0.134 0.65 255 255 255
0.306 -0.031 0.52 255 255 255
-0.257 -0.312 0.79 255 255 255
0.002 0.204 0.396 255 255 255
-0.301 -0.256 0.781 255 255 255
-0.214 0.102 0.618 255 255 255
-0.062 0.2 0.377 255 255 255
0.192 -0.269 0.637 255 255 255
-0.202 -0.287 0.834 255 255 255
0.182 -0.375 0.633 255 255 255
0.234 0.048 0.624 255 255 255
-0.056 -0.44 0.899 255 255 255
0.193 0.221 0.484 255 255 255
0.08 -0.232 0.795 255 255 255
-0.029 -0.269 0.93 255 255 255
-0.144 -0.428 0.842 255 255 255
-0.269 -0.457 0.722 255 255 255
0.085 0.002 0.81 255 255 255
-0.158 -0.239 0.787 255 255 255
-0.062 0.196 0.385 255 255 255
0.335 -0.049 0.482 255 255 255
-0.435 0.081 0.747 255 255 255
-0.356 -0.16 0.771 255 255 255
0.106 0.174 0.637 255 255 255
0.039 -0.225 0.847 255 255 255
0.221 -0.364 0.579 255 255 255
-0.067 0.136 0.591 255 255 255
-0.172 -0.149 0.804 255 255 255
0.119 -0.461 0.711 255 255 255
0.028 -0.042 0.884 255 255 255
-0.313 0.002 0.44 255 255 255
0.241 0.048 0.614 255 255 255
-0.341 -0.229 0.759 255 255 255
-0.382 0.076 0.785 255 255 255
-0.061 0.188 0.411 0 0 0
0.151 -0.109 0.711 255 255 255
0.137 0.083 0.747 255 255 255
-0.339 -0.221 0.764 255 255 255
0.128 -0.06 0.749 255 255 255
-0.111 -0.547 0.814 255 255 255
-0.109 -0.448 0.863 255 255 255
0.042 -0.568 0.799 255 255 255
-0.127 -0.369 0.883 255 255 255
0.174 0.265 0.577 255 255 255
0.207 -0.255 0.595 255 255 255
-0.404 0.086 0.737 255 255 255
-0.071 -0.426 0.897 255 255 255
-0.365 -0.287 0.715 255 255 255
0.229 -0.078 0.614 255 255 255
0.259 0.304 0.618 255 255 255
0.148 -0.178 0.707 255 255 255
0.031 -0.125 0.869 255 255 255
0.167 0.164 0.718 255 255 255
-0.141 -0.323 0.77 255 255 255
-0.204 0.013 0.876 255 255 255
0.265 -0.153 0.559 0 0 0
0.11 -0.263 0.749 255 255 255
-0.008 -0.376 0.888 255 255 255
0.182 -0.179 0.663 255 255 255
-0.291 -0.456 0.701 255 255 255
-0.233 0.127 0.518 255 255 255
0.18 0.153 0.698 255 255 255
0.257 0.197 0.606 255 255 255
-0.278 -0.228 0.812 255 255 255
0.238 -0.226 0.586 255 255 255
0.135 -0.483 0.687 255 255 255
0.302 -0.148 0.508 255 255 255
-0.417 -0.264 0.683 255 255 255
0.059 0.142 0.802 255 255 255
0.184 -0.35 0.635 255 255 255
-0.26 0.089 0.639 255 255 255
-0.081 -0.072 0.823 255 255 255
0.192 -0.2 0.647 255 255 255
0.05 -0.387 0.814 255 255 255
0.126 -0.502 0.696 0 0 0
-0.078 -0.099 0.825 255 255 255
0.153 -0.004 0.723 255 255 255
0.091 -0.474 0.75 255 255 255
0.138 -0.016 0.74 255 255 255
-0.177 -0.44 0.81 255 255 255
-0.171 0.054 0.838 255 255 255
0.103 0.03 0.791 0 0 0
-0.363 -0.218 0.744 255 255 255
0.303 0.134 0.548 255 255 255
0.258 -0.121 0.57 255 255 255
0.045 -0.287 0.834 255 255 255
-0.19 -0.416 0.811 255 255 255
-0.023 -0.29 0.919 255 255 255
-0.025 -0.364 0.909 255 255 255
-0.365 -0.175 0.759 255 255 255
-0.304 -0.281 0.769 255 255 255
0.195 -0.311 0.625 255 255 255
0.016 -0.375 0.86 255 255 255
0.165 -0.358 0.66 255 255 255
-0.006 0.118 0.718 0 0 0
0.264 0.11 0.589 255 255 255
-0.317 -0.178 0.795 0 0 0
-0.299 -0.386 0.726 255 255 255
-0.13 0.174 0.417 255 255 255
-0.204 -0.421 0.798 255 255 255
-0.232 -0.233 0.849 255 255 255
0.019 0.129 0.78 0 0 0
0.24 -0.185 0.584 255 255 255
-0.13 -0.312 0.908 0 0 0
0.176 0.165 0.706 255 255 255
-0.117 0.156 0.477 255 255 255
0.3 -0.183 0.506 255 255 255
0.045 0.19 0.478 255 255 255
-0.213 -0.129 0.737 0 0 0
-0.364 -0.046 0.814 255 255 255
-0.264 0.113 0.548 255 255 255
-0.101 0.126 0.605 255 255 255
0.242 -0.385 0.552 255 255 255
-0.147 -0.132 0.971 255 255 255
0.289 -0.101 0.531 255 255 255
0.24 0.347 0.648 255 255 255
-0.376 -0.132 0.768 255 255 255
-0.135 -0.477 0.825 255 255 255
-0.054 0.184 0.423 255 255 255
-0.36 0.013 0.839 255 255 255
-0.072 -0.597 0.821 0 0 0
0.018 0.186 0.461 255 255 255
0.241 -0.404 0.553 0 0 0
-0.349 -0.046 0.826 255 255 255
0.268 0.058 0.58 255 255 255
0.248 0.182 0.615 255 255 255
-0.229 0.048 0.807 255 255 255
0.188 -0.14 0.659 255 255 255
-0.134 0.161 0.449 255 255 255
-0.351 -0.334 0.707 255 255 255
-0.049 0.196 0.395 255 255 255
0.163 -0.177 0.687 255 255 255
0.2 -0.344 0.619 255 255 255
-0.023 -0.559 0.862 255 255 255
-0.298 -0.082 0.425 0 0 0
0.146 0.094 0.738 255 255 255
0.07 -0.415 0.786 255 255 255
0.146 -0.337 0.69 0 0 0
0.04 0.181 0.51 255 255 255
0.115 -0.211 0.747 255 255 255
-0.081 -0.006 1.013 0 0 0
0.156 -0.449 0.66 255 255 255
-0.183 -0.034 0.861 255 255 255
-0.27 0.117 0.532 255 255 255
0.187 0.014 0.681 255 255 255
0.288 0.049 0.552 255 255 255
-0.443 -0.117 0.72 255 255 255
0.225 0.219 0.648 255 255 255
-0.378 -0.095 0.783 255 255 255
0.227 -0.039 0.625 255 255 255
0.168 0.033 0.708 0 0 0
-0.069 -0.519 0.858 255 255 255
0.146 -0.103 0.72 255 255 255
-0.265 -0.525 0.691 0 0 0
-0.08 -0.026 1.005 0 0 0
-0.135 -0.262 0.926 255 255 255
0.033 -0.135 0.867 255 255 255
0.21 0.214 0.656 255 255 255
0.146 -0.181 0.711 255 255 255
0.29 -0.208 0.518 255 255 255
-0.112 0.127 0.59 255 255 255
-0.009 0.127 0.691 255 255 255
-0.386 0.043 0.808 255 255 255
-0.313 -0.067 0.412 255 255 255
-0.185 -0.122 0.801 255 255 255
0.025 0.039 0.892 255 255 255
0.102 0.128 0.795 0 0 0
0.226 -0.27 0.579 255 255 255
0.188 0.039 0.683 255 255 255
0.173 -0.236 0.666 255 255 255
-0.119 -0.195 0.966 255 255 255
-0.25 -0.174 0.737 255 255 255
0.098 -0.078 0.787 255 255 255
0.128 -0.127 0.742 0 0 0
-0.398 0.047 0.798 255 255 255
-0.217 -0.137 0.739 0 0 0
-0.078 0.185 0.406 0 0 0
0.227 0.23 0.585 0 0 0
-0.239 -0.323 0.802 255 255 255
0.289 0.031 0.55 255 255 255
0.075 0.161 0.615 0 0 0
0.072 -0.054 0.823 255 255 255
0.079 -0.343 0.781 255 255 255
0.131 -0.231 0.725 0 0 0
-0.047 -0.197 0.961 255 255 255
0.096 -0.181 0.778 255 255 255
-0.148 0.171 0.416 255 255 255
0.145 -0.327 0.694 0 0 0
-0.105 0.173 0.431 255 255 255
0.283 -0.077 0.543 255 255 255
0.022 0.157 0.569 0 0 0
0.224 0.042 0.636 255 255 255
0.075 -0.055 0.819 255 255 255
0.206 0.22 0.593 0 0 0
-0.296 -0.188 0.791 0 0 0
-0.083 0.029 0.882 0 0 0
0.087 -0.504 0.751 255 255 255
-0.277 -0.121 0.421 255 255 255
-0.15 0.168 0.425 255 255 255
-0.081 0.146 0.523 255 255 255
0.028 -0.559 0.818 255 255 255
0.074 -0.554 0.761 0 0 0
0.185 -0.066 0.672 255 255 255
0.316 -0.089 0.497 255 255 255
0.17 -0.271 0.666 255 255 255
-0.238 -0.545 0.707 0 0 0
0.239 0.079 0.618 255 255 255
-0.086 -0.369 0.912 255 255 255
-0.274 -0.238 0.81 255 255 255
-0.092 0.015 0.824 255 255 255
0.19 -0.354 0.625 255 255 255
-0.101 0.146 0.516 255 255 255
-0.117 -0.518 0.826 255 255 255
-0.276 -0.492 0.699 255 255 255
0.334 -0.033 0.484 255 255 255
0.227 -0.058 0.62 255 255 255
-0.308 0.039 0.813 0 0 0
0.035 0.131 0.833 255 255 255
0.093 -0.2 0.779 255 255 255
0.08 0.169 0.604 255 255 255
-0.279 -0.467 0.708 255 255 255
-0.052 0.156 0.476 0 0 0
-0.27 -0.106 0.748 255 255 255
0.218 0.199 0.656 255 255 255
-0.312 -0.454 0.685 255 255 255
0.174 -0.336 0.651 255 255 255
-0.157 0.133 0.537 255 255 255
-0.136 0.165 0.436 255 255 255
-0.031 -0.258 0.934 255 255 255
0.005 -0.164 0.9 255 255 255
-0.045 -0.253 0.95 255 255 255
-0.261 -0.483 0.715 255 255 255
0.058 -0.374 0.807 255 255 255
-0.44 -0.08 0.738 255 255 255
-0.118 0.197 0.359 255 255 255
0.24 -0.164 0.59 255 255 255
-0.214 0.132 0.507 255 255 255
-0.398 0.065 0.76 255 255 255
-0.148 -0.445 0.833 255 255 255
0.088 -0.419 0.759 255 255 255
0.205 0.09 0.66 255 255 255
0.128 0.166 0.766 0 0 0
-0.145 -0.121 0.975 255 255 255
0.234 -0.201 0.592 255 255 255
-0.338 -0.375 0.699 255 255 255
0.113 -0.352 0.732 255 255 255
0.295 -0.148 0.517 255 255 255
0.121 0.127 0.771 0 0 0
-0.149 -0.073 0.991 255 255 255
0.04 0.073 0.873 255 255 255
0.219 0.024 0.641 255 255 255
0.046 0.211 0.412 255 255 255
0.268 -0.003 0.577 255 255 255
-0.301 -0.124 0.422 255 255 255
-0.316 0.002 0.434 255 255 255
0.258 0.105 0.595 255 255 255
-0.189 0.119 0.569 255 255 255
-0.423 -0.164 0.716 255 255 255
-0.188 -0.378 0.822 0 0 0
0.318 -0.05 0.5 255 255 255
-0.142 0.145 0.504 255 255 255
-0.156 0.12 0.586 255 255 255
0.219 -0.157 0.618 255 255 255
0.247 0.214 0.621 255 255 255
0.114 -0.38 0.729 255 255 255
-0.092 0.123 0.623 255 255 255
-0.051 0.193 0.396 255 255 255
0.256 -0.122 0.572 255 255 255
-0.316 -0.51 0.656 255 255 255
-0.178 -0.551 0.759 0 0 0
0.098 0.189 0.538 0 0 0
0.205 0.246 0.557 255 255 255
0.056 0.141 0.805 255 255 255
-0.002 0.129 0.691 255 255 255
-0.28 -0.011 0.436 255 255 255
0.283 -0.07 0.544 255 255 255
-0.147 0.013 1.005 0 0 0
-0.399 -0.018 0.794 255 255 255
-0.138 -0.28 0.914 0 0 0
-0.065 0.127 0.638 255 255 255
-0.079 0.191 0.39 255 255 255
0.001 0.143 0.51 255 255 255
0.193 -0.414 0.616 255 255 255
-0.127 -0.436 0.851 255 255 255
0.193 -0.224 0.641 255 255 255
0.173 0.005 0.696 0 0 0
-0.398 -0.205 0.721 255 255 255
0.239 -0.339 0.558 255 255 255
-0.166 0.028 0.86 255 255 255
0.239 -0.001 0.614 255 255 255
0.096 -0.411 0.75 255 255 255
0.007 -0.466 0.856 255 255 255
-0.306 -0.094 0.794 0 0 0
0.135 0.003 0.747 255 255 255
0.287 0.023 0.55 255 255 255
0.011 -0.323 0.875 255 255 255
0.339 -0.001 0.485 255 255 255
0.199 -0.104 0.648 255 255 255
-0.147 0.157 0.454 0 0 0
-0.426 -0.021 0.772 255 255 255
-0.432 -0.238 0.681 255 255 255
0.185 -0.036 0.677 255 255 255
-0.045 0.138 0.516 0 0 0
-0.268 -0.079 0.75 255 255 255
-0.422 -0.022 0.776 255 255 255
0.07 0.166 0.599 255 255 255
0.221 0.359 0.663 255 255 255
-0.031 0.2 0.387 255 255 255
-0.265 -0.534 0.692 0 0 0
0.215 -0.325 0.585 255 255 255
0.019 0.176 0.511 255 255 255
-0.419 -0.281 0.672 255 255 255
-0.301 -0.148 0.791 0 0 0
0.059 -0.319 0.81 255 255 255
0.195 0.2 0.685 255 255 255
0.29 0.173 0.563 255 255 255
-0.281 -0.131 0.413 255 255 255
0.09 0.125 0.813 255 255 255
0.093 -0.404 0.755 255 255 255
-0.179 0.075 0.734 0 0 0
-0.049 -0.044 0.979 255 255 255
-0.33 -0.155 0.797 255 255 255
0.117 -0.346 0.728 255 255 255
-0.082 0.148 0.514 255 255 255
0.033 0.203 0.406 255 255 255
-0.391 -0.164 0.744 255 255 255
0.03 0.126 0.846 255 255 255
0.074 0.154 0.615 0 0 0
-0.248 -0.123 0.731 255 255 255
-0.168 0.162 0.436 255 255 255
0.242 -0.411 0.551 0 0 0
-0.31 -0.419 0.704 255 255 255
0.224 -0.384 0.575 255 255 255
-0.216 -0.559 0.721 255 255 255
0.232 -0.4 0.566 255 255 255
0.277 0.048 0.565 255 255 255
0.18 -0.05 0.682 0 0 0
-0.244 -0.252 0.828 255 255 255
-0.227 0.094 0.637 255 255 255
0.269 -0.291 0.535 0 0 0
0.045 0.191 0.471 255 255 255
0.009 0.184 0.455 0 0 0
0.167 -0.003 0.705 255 255 255
-0.328 -0.282 0.747 255 255 255
-0.401 -0.286 0.689 255 255 255
0.029 -0.143 0.871 255 255 255
-0.413 -0.216 0.704 255 255 255
-0.019 -0.345 0.907 255 255 255
-0.269 0.124 0.514 255 255 255
0.271 -0.356 0.525 255 255 255
0.222 0.025 0.639 255 255 255
0.06 0.153 0.601 255 255 255
-0.154 -0.48 0.812 255 255 255
-0.273 -0.445 0.722 255 255 255
-0.309 -0.52 0.66 255 255 255
-0.043 0.182 0.433 255 255 255
-0.345 -0.192 0.77 255 255 255
0.024 -0.54 0.825 255 255 255
-0.078 -0.275 0.956 255 255 255
0.32 -0.049 0.5 255 255 255
-0.018 0.154 0.483 255 255 255
0.04 -0.516 0.81 255 255 255
-0.447 0.038 0.774 255 255 255
-0.055 0.193 0.396 255 255 255
-0.078 0.194 0.382 255 255 255
-0.152 0.11 0.633 255 255 255
0.292 -0.263 0.509 255 255 255
0.04 0.188 0.487 255 255 255
0.222 -0.155 0.613 255 255 255
-0.103 0.188 0.385 255 255 255
-0.01 -0.059 0.933 255 255 255
0.017 0.179 0.474 255 255 255
-0.195 0.091 0.677 255 255 255
-0.16 0.03 0.864 255 255 255
0.241 0.017 0.612 255 255 255
-0.322 -0.431 0.687 255 255 255
-0.358 -0.325 0.706 255 255 255
-0.2 -0.041 0.757 255 255 255
-0.168 -0.206 0.791 255 255 255
0.204 0.211 0.669 255 255 255
0.002 -0.04 0.919 255 255 255
-0.008 -0.118 0.925 255 255 255
0.19 0.252 0.579 255 255 255
-0.271 -0.273 0.797 255 255 255
-0.17 -0.08 0.973 255 255 255
0.02 0.187 0.46 255 255 255
0.315 -0.13 0.494 255 255 255
0.021 -0.316 0.863 255 255 255
-0.194 0.1 0.638 255 255 255
-0.128 -0.347 0.78 255 255 255
0.261 -0.236 0.547 255 255 255
-0.065 0.193 0.391 255 255 255
0.199 -0.335 0.624 255 255 255
0.078 -0.188 0.802 255 255 255
-0.232 -0.318 0.81 255 255 255
0.257 -0.27 0.553 255 255 255
-0.426 -0.132 0.727 255 255 255
-0.329 0.085 0.617 255 255 255
0.245 0.234 0.572 255 255 255
0.226 -0.201 0.602 255 255 255
-0.193 -0.22 0.825 255 255 255
0.277 -0.086 0.548 255 255 255
0.009 -0.167 0.895 255 255 255
-0.006 0.127 0.693 255 255 255
0.217 -0.233 0.61 255 255 255
0.149 -0.352 0.684 0 0 0
0.341 -0.04 0.476 255 255 255
0.087 -0.014 0.806 255 255 255
0.196 0.202 0.683 255 255 255
-0.048 0.183 0.429 0 0 0
-0.006 0.156 0.472 0 0 0
0.159 -0.01 0.715 255 255 255
0.149 -0.333 0.688 0 0 0
0.279 0.173 0.576 255 255 255
-0.195 -0.067 0.851 255 255 255
-0.174 0.115 0.591 255 255 255
-0.067 -0.577 0.832 255 255 255
0.13 -0.223 0.726 0 0 0
-0.061 -0.569 0.842 255 255 255
-0.173 -0.171 0.797 255 255 255
-0.026 0.147 0.585 255 255 255
0.221 0.166 0.646 255 255 255
0.003 0.203 0.398 255 255 255
-0.04 0.165 0.454 255 255 255
-0.264 -0.448 0.732 255 255 255
0.306 -0.053 0.517 255 255 255
0.092 -0.125 0.789 255 255 255
-0.178 0.153 0.457 255 255 255
-0.142 0.123 0.581 255 255 255
-0.107 -0.028 0.85 0 0 0
0.313 -0.054 0.507 255 255 255
-0.121 0.145 0.513 255 255 255
0.092 0.05 0.806 0 0 0
-0.336 -0.026 0.846 255 255 255
-0.071 0.111 0.689 255 255 255
-0.419 -0.089 0.754 255 255 255
-0.098 0.153 0.496 255 255 255
0.065 -0.02 0.835 255 255 255
0.019 -0.012 0.897 255 255 255
-0.428 -0.03 0.768 255 255 255
-0.033 -0.385 0.912 255 255 255
-0.117 0.148 0.503 255 255 255
0.122 -0.317 0.725 255 255 255
0.075 -0.021 0.823 255 255 255
0.116 -0.307 0.735 255 255 255
0.286 0.105 0.56 255 255 255
0.174 0.12 0.704 255 255 255
-0.009 0.192 0.428 0 0 0
0.125 0.192 0.523 255 255 255
-0.074 0.196 0.379 255 255 255
-0.281 -0.466 0.706 255 255 255
-0.09 -0.229 0.967 255 255 255
0.277 -0.214 0.535 255 255 255
-0.106 0.136 0.557 255 255 255
-0.089 -0.222 0.972 255 255 255
-0.287 -0.313 0.769 255 255 255
0.159 -0.123 0.701 255 255 255
0.049 0.04 0.859 255 255 255
-0.361 -0.319 0.706 255 255 255
