ply
format ascii 1.0
comment Created by Open3D
element vertex 1585
property double x
property double y
property double z
property uchar red
property uchar green
property uchar blue
end_header
-0.037 -0.41 0.856 255 255 255
0.294 -0.116 0.521 255 255 255
0.323 0.047 0.505 255 255 255
0.268 -0.195 0.541 255 255 255
-0.028 -0.573 0.817 255 255 255
0.143 0.284 0.601 255 255 255
-0.129 0.244 0.533 0 0 0
0.234 -0.386 0.574 255 255 255
-0.358 0.219 0.728 255 255 255
0.249 0.313 0.634 255 255 255
-0.322 0.136 0.775 255 255 255
0.002 -0.135 0.928 255 255 255
-0.163 -0.403 0.766 255 255 255
0.14 -0.279 0.73 255 255 255
0.146 -0.495 0.693 255 255 255
0.118 -0.54 0.723 0 0 0
-0.017 0.245 0.62 255 255 255
-0.089 -0.04 0.875 255 255 255
0.018 -0.349 0.877 255 255 255
0.242 -0.118 0.597 255 255 255
0.185 -0.192 0.671 0 0 0
-0.267 0.013 0.391 255 255 255
-0.35 -0.26 0.654 255 255 255
0.234 -0.208 0.574 255 255 255
0.174 -0.294 0.676 255 255 255
0.197 -0.458 0.622 0 0 0
-0.041 -0.234 0.903 255 255 255
0.168 0.29 0.646 0 0 0
0.011 0.122 0.948 255 255 255
-0.114 -0.34 0.82 255 255 255
-0.17 -0.054 0.85 255 255 255
-0.314 -0.387 0.652 255 255 255
0.131 0.281 0.788 255 255 255
0.192 0.136 0.7 255 255 255
0.183 0.294 0.591 255 255 255
-0.12 0.076 0.82 255 255 255
0.266 0.215 0.601 255 255 255
-0.249 -0.132 0.386 255 255 255
-0.014 0.11 0.773 255 255 255
-0.279 -0.26 0.71 255 255 255
-0.252 0.207 0.761 255 255 255
0.313 -0.159 0.481 255 255 255
0.17 -0.162 0.696 255 255 255
-0.069 0.233 0.659 255 255 255
-0.111 -0.08 0.767 255 255 255
0.152 -0.186 0.723 255 255 255
-0.109 0.089 0.836 255 255 255
0.206 -0.009 0.663 255 255 255
-0.295 -0.067 0.749 255 255 255
0.205 0.019 0.669 255 255 255
-0.222 -0.319 0.74 255 255 255
0.33 0.004 0.491 255 255 255
0.162 -0.136 0.71 255 255 255
-0.048 -0.242 0.896 255 255 255
-0.32 0.104 0.769 255 255 255
-0.067 -0.285 0.871 255 255 255
0.13 -0.105 0.76 255 255 255
-0.013 0.218 0.761 255 255 255
-0.21 -0.438 0.712 255 255 255
-0.258 0.059 0.405 255 255 255
0.213 0.006 0.656 255 255 255
-0.096 0.128 0.952 255 255 255
-0.376 0.022 0.705 255 255 255
0.31 -0.056 0.506 0 0 0
0.174 -0.347 0.666 255 255 255
-0.11 0.258 0.467 255 255 255
-0.269 0.018 0.388 255 255 255
-0.129 -0.38 0.799 255 255 255
0.244 0.105 0.623 0 0 0
0.283 -0.268 0.517 255 255 255
0.004 0.144 0.955 255 255 255
0.238 -0.413 0.565 0 0 0
-0.233 -0.09 0.788 255 255 255
0.082 0.265 0.583 0 0 0
0.259 0.152 0.607 255 255 255
-0.034 -0.137 0.93 255 255 255
0.137 -0.163 0.747 255 255 255
0.196 0.173 0.693 255 255 255
0.146 0.025 0.755 255 255 255
0.214 -0.387 0.602 255 255 255
-0.18 -0.477 0.731 255 255 255
0.287 -0.121 0.53 255 255 255
0.31 0.014 0.516 255 255 255
-0.239 0.095 0.797 255 255 255
0.178 -0.251 0.674 255 255 255
0.228 -0.228 0.607 255 255 255
0.004 0.035 0.953 255 255 255
-0.353 -0.336 0.633 255 255 255
-0.393 0.056 0.701 255 255 255
-0.011 0.229 0.724 255 255 255
0.327 -0.014 0.489 0 0 0
-0.126 0.216 0.69 255 255 255
-0.34 0.156 0.764 255 255 255
0.161 -0.061 0.722 255 255 255
0.275 0.144 0.583 255 255 255
-0.044 0.241 0.617 255 255 255
-0.08 -0.127 0.905 0 0 0
-0.008 -0.284 0.901 255 255 255
-0.024 0.049 0.781 255 255 255
0.108 0.269 0.505 255 255 255
-0.277 -0.187 0.73 255 255 255
0.292 0.14 0.564 255 255 255
0.289 0.141 0.568 255 255 255
-0.316 -0.183 0.703 255 255 255
0.24 0.234 0.635 255 255 255
0.069 0.268 0.557 255 255 255
-0.257 -0.142 0.757 255 255 255
0.098 -0.031 0.816 255 255 255
0.005 -0.489 0.857 255 255 255
0.039 -0.206 0.878 255 255 255
-0.166 -0.337 0.783 255 255 255
-0.201 -0.223 0.783 255 255 255
0.105 -0.132 0.793 255 255 255
0.216 -0.103 0.635 255 255 255
0.153 -0.445 0.687 255 255 255
-0.048 -0.007 0.954 255 255 255
0.173 -0.14 0.696 255 255 255
0.166 0.174 0.736 0 0 0
-0.106 -0.525 0.774 255 255 255
0.113 0.275 0.504 255 255 255
-0.051 -0.218 0.899 255 255 255
0.063 0.065 0.878 255 255 255
-0.322 -0.176 0.699 255 255 255
-0.236 -0.034 0.391 0 0 0
-0.305 -0.178 0.711 255 255 255
-0.223 -0.057 0.802 255 255 255
0.225 -0.131 0.62 255 255 255
-0.16 -0.032 0.808 255 255 255
-0.171 0.23 0.592 255 255 255
-0.068 0.18 0.839 255 255 255
-0.222 0.236 0.536 255 255 255
-0.111 0.255 0.475 255 255 255
0.116 0.177 0.805 255 255 255
0.132 -0.162 0.754 255 255 255
-0.349 -0.1 0.697 255 255 255
-0.307 -0.326 0.669 255 255 255
-0.276 -0.107 0.398 255 255 255
0.279 -0.269 0.524 255 255 255
0.185 -0.054 0.689 0 0 0
-0.268 -0.116 0.396 255 255 255
-0.225 -0.084 0.795 255 255 255
-0.068 -0.378 0.843 255 255 255
-0.285 -0.077 0.386 255 255 255
0.228 -0.286 0.594 255 255 255
-0.284 -0.079 0.39 255 255 255
0.222 -0.349 0.594 255 255 255
-0.364 -0.327 0.627 255 255 255
0.147 -0.359 0.706 255 255 255
0.079 -0.22 0.825 255 255 255
0.31 -0.045 0.507 255 255 255
0.011 -0.501 0.854 255 255 255
0.161 -0.158 0.709 255 255 255
0.153 -0.289 0.707 255 255 255
-0.287 0.222 0.73 255 255 255
0.024 0.187 0.934 255 255 255
0.083 0.251 0.64 0 0 0
-0.015 -0.304 0.895 255 255 255
-0.201 -0.532 0.697 0 0 0
0.235 -0.404 0.571 255 255 255
0.137 -0.074 0.756 255 255 255
-0.36 -0.34 0.628 255 255 255
0.283 0.062 0.561 255 255 255
-0.246 0.028 0.757 255 255 255
0.076 0.263 0.865 255 255 255
-0.134 0.257 0.46 255 255 255
-0.002 -0.513 0.847 255 255 255
-0.157 -0.022 0.728 255 255 255
0.302 0.098 0.543 255 255 255
-0.37 0.096 0.729 255 255 255
-0.104 0.241 0.57 255 255 255
-0.326 0.054 0.753 255 255 255
0.261 -0.116 0.571 255 255 255
0.287 -0.207 0.52 255 255 255
0.092 -0.172 0.812 255 255 255
0.057 0.26 0.581 0 0 0
-0.341 0.247 0.713 255 255 255
-0.38 0.132 0.73 255 255 255
0.049 0.259 0.578 0 0 0
-0.129 -0.302 0.822 255 255 255
-0.335 0.003 0.731 255 255 255
-0.03 -0.11 0.938 255 255 255
-0.077 -0.314 0.856 255 255 255
0.13 0.044 0.78 255 255 255
0.166 0.25 0.741 0 0 0
0.168 -0.145 0.7 255 255 255
-0.064 0.215 0.74 255 255 255
-0.13 -0.281 0.825 255 255 255
0.195 -0.417 0.629 255 255 255
0.318 0.07 0.517 255 255 255
0.069 0.265 0.871 255 255 255
-0.235 -0.015 0.393 255 255 255
0.227 0.073 0.641 255 255 255
0.275 0.045 0.57 255 255 255
-0.078 -0.356 0.842 255 255 255
-0.285 -0.07 0.385 255 255 255
-0.381 0.006 0.698 255 255 255
0.104 -0.276 0.782 255 255 255
0.013 -0.461 0.862 255 255 255
0.108 -0.409 0.76 255 255 255
0.21 -0.361 0.612 255 255 255
0.277 0.069 0.569 255 255 255
-0.236 0.084 0.405 255 255 255
0.288 0.029 0.548 255 255 255
-0.283 -0.428 0.661 255 255 255
0.212 -0.02 0.654 255 255 255
0.163 -0.441 0.674 255 255 255
-0.065 -0.055 0.931 255 255 255
0.226 0.017 0.637 255 255 255
-0.088 0.232 0.647 255 255 255
0.257 -0.017 0.593 255 255 255
0.219 -0.214 0.617 255 255 255
0.319 0.022 0.505 255 255 255
-0.05 0.219 0.741 255 255 255
-0.094 -0.146 0.772 255 255 255
-0.244 -0.074 0.785 255 255 255
0.132 -0.409 0.722 255 255 255
0.13 0.276 0.517 255 255 255
0.165 0.286 0.514 255 255 255
-0.241 0 0.773 255 255 255
0.078 -0.105 0.835 255 255 255
-0.272 -0.206 0.731 255 255 255
-0.129 -0.441 0.78 255 255 255
0.067 -0.36 0.819 255 255 255
0.142 0.084 0.764 255 255 255
-0.126 -0.247 0.84 255 255 255
-0.286 -0.173 0.729 255 255 255
0.201 -0.213 0.645 255 255 255
0.291 -0.168 0.511 255 255 255
-0.279 0.018 0.779 255 255 255
-0.264 -0.395 0.685 255 255 255
0.161 -0.038 0.724 255 255 255
0.238 -0.092 0.604 255 255 255
0.029 0.113 0.925 255 255 255
-0.148 -0.456 0.764 255 255 255
-0.169 -0.08 0.845 255 255 255
-0.052 -0.067 0.935 255 255 255
-0.006 -0.272 0.905 255 255 255
-0.094 0.126 0.953 255 255 255
0.272 -0.09 0.556 255 255 255
0.214 -0.145 0.632 255 255 255
0.201 -0.454 0.615 0 0 0
-0.282 -0.104 0.748 255 255 255
0.278 0.113 0.576 255 255 255
0.08 0.267 0.578 0 0 0
-0.18 0.255 0.467 255 255 255
-0.261 -0.186 0.743 255 255 255
-0.28 -0.084 0.393 255 255 255
-0.103 0.255 0.48 255 255 255
0.132 0.181 0.783 255 255 255
-0.125 0.253 0.482 255 255 255
0.254 0.114 0.608 255 255 255
-0.16 0.16 0.689 255 255 255
0.245 -0.029 0.607 255 255 255
-0.143 -0.141 0.799 0 0 0
-0.344 -0.169 0.682 255 255 255
0.183 -0.298 0.661 0 0 0
-0.067 -0.537 0.801 255 255 255
-0.061 0.033 0.955 255 255 255
0.161 0.207 0.745 0 0 0
-0.222 -0.514 0.685 0 0 0
-0.249 -0.026 0.393 0 0 0
-0.121 -0.071 0.759 255 255 255
0.127 -0.063 0.771 255 255 255
0.104 0.2 0.825 255 255 255
0.323 0.051 0.503 255 255 255
-0.148 -0.073 0.806 0 0 0
0.19 0.299 0.563 255 255 255
0.209 0.093 0.668 255 255 255
-0.171 -0.356 0.771 255 255 255
0.309 -0.18 0.488 255 255 255
0.058 0.004 0.88 255 255 255
-0.275 0.114 0.808 255 255 255
0.265 0.297 0.611 255 255 255
-0.278 -0.047 0.384 0 0 0
-0.395 0.14 0.722 255 255 255
-0.33 -0.165 0.695 255 255 255
-0.118 -0.381 0.806 255 255 255
0.256 0.043 0.6 255 255 255
-0.039 0.263 0.482 255 255 255
-0.104 0.255 0.49 255 255 255
0.096 0.052 0.829 255 255 255
-0.189 0.242 0.513 255 255 255
0.212 -0.36 0.609 255 255 255
0.165 -0.217 0.7 255 255 255
-0.273 -0.054 0.39 255 255 255
0.056 -0.359 0.837 255 255 255
0.239 -0.036 0.614 255 255 255
0.048 -0.392 0.839 255 255 255
-0.247 -0.486 0.674 0 0 0
0.131 0.142 0.783 255 255 255
0.063 -0.044 0.863 255 255 255
-0.359 -0.117 0.683 255 255 255
-0.297 -0.29 0.688 255 255 255
-0.068 0.031 0.951 255 255 255
-0.197 0.248 0.48 255 255 255
0.265 0.108 0.592 255 255 255
-0.346 -0.007 0.721 255 255 255
0.169 -0.197 0.695 255 255 255
-0.045 0.206 0.791 255 255 255
0.322 0.051 0.506 255 255 255
0.281 -0.228 0.525 255 255 255
-0.394 0.035 0.697 255 255 255
0.08 0.254 0.662 0 0 0
0.009 -0.292 0.894 255 255 255
0.175 0.23 0.728 0 0 0
0.143 -0.489 0.697 255 255 255
-0.011 -0.292 0.9 255 255 255
-0.208 -0.103 0.803 255 255 255
-0.119 0.236 0.59 255 255 255
0.247 -0.174 0.562 255 255 255
-0.165 -0.42 0.76 255 255 255
-0.163 -0.231 0.814 255 255 255
-0.09 0.113 0.953 255 255 255
-0.048 0.094 0.856 255 255 255
0.27 -0.332 0.53 255 255 255
-0.274 0.026 0.784 255 255 255
-0.152 0.044 0.718 255 255 255
-0.198 0.245 0.5 255 255 255
-0.339 0.095 0.755 255 255 255
-0.373 0.165 0.742 255 255 255
-0.387 -0.159 0.651 255 255 255
0.247 0.295 0.633 0 0 0
-0.172 0.095 0.717 255 255 255
-0.24 0.171 0.817 0 0 0
0.044 -0.24 0.868 255 255 255
0.157 -0.336 0.696 255 255 255
-0.383 0.183 0.739 255 255 255
-0.372 0.095 0.728 255 255 255
0.107 0.005 0.81 255 255 255
0.12 0.271 0.515 255 255 255
-0.359 -0.296 0.64 255 255 255
-0.265 -0.493 0.661 0 0 0
-0.09 -0.41 0.819 255 255 255
0.085 0.239 0.853 255 255 255
0.286 0.03 0.55 255 255 255
-0.387 0.195 0.738 255 255 255
0.046 0.24 0.907 255 255 255
0.041 0.018 0.904 255 255 255
-0.111 -0.518 0.773 255 255 255
0.101 -0.281 0.787 255 255 255
0.086 0.269 0.852 255 255 255
0.138 -0.237 0.733 255 255 255
0.175 0.025 0.713 0 0 0
0.263 -0.193 0.546 0 0 0
-0.184 -0.322 0.77 255 255 255
0.05 -0.453 0.83 255 255 255
0.114 0.134 0.806 255 255 255
0.051 -0.335 0.844 255 255 255
0.175 -0.24 0.682 255 255 255
0.134 -0.504 0.708 255 255 255
0.226 0.232 0.656 255 255 255
0.263 -0.117 0.567 255 255 255
-0.036 -0.007 0.958 255 255 255
-0.044 -0.335 0.871 255 255 255
-0.053 0.24 0.628 255 255 255
0.199 -0.133 0.657 255 255 255
0.24 -0.308 0.574 255 255 255
-0.179 -0.419 0.747 255 255 255
0.069 -0.361 0.818 255 255 255
-0.163 -0.276 0.801 255 255 255
0.273 0.114 0.58 255 255 255
0.168 0.078 0.726 0 0 0
-0.384 0.159 0.734 255 255 255
-0.158 -0.325 0.792 255 255 255
-0.008 -0.487 0.853 255 255 255
0.064 -0.248 0.843 255 255 255
0.288 -0.031 0.543 255 255 255
0.325 0.052 0.503 255 255 255
0.122 0.05 0.792 255 255 255
0.271 -0.239 0.537 255 255 255
0.084 -0.269 0.811 255 255 255
0.117 0.279 0.803 255 255 255
0.068 -0.041 0.859 255 255 255
-0.271 -0.015 0.384 255 255 255
-0.126 -0.287 0.828 255 255 255
0.032 0.249 0.634 255 255 255
0.175 0.118 0.72 0 0 0
-0.318 -0.342 0.657 255 255 255
0.017 0.189 0.944 255 255 255
-0.051 -0.085 0.934 255 255 255
0.226 -0.388 0.585 255 255 255
-0.054 0.211 0.796 255 255 255
0.22 -0.199 0.619 255 255 255
0.303 0.047 0.529 255 255 255
0.203 -0.215 0.643 255 255 255
0.087 0.186 0.848 255 255 255
0.062 -0.312 0.834 255 255 255
0.257 0.062 0.599 255 255 255
-0.087 -0.094 0.907 0 0 0
0.314 -0.04 0.503 255 255 255
-0.095 -0.411 0.815 255 255 255
-0.258 -0.34 0.705 255 255 255
-0.072 -0.345 0.85 255 255 255
-0.242 -0.092 0.784 255 255 255
0.328 -0.017 0.488 0 0 0
0.018 0.248 0.618 255 255 255
-0.186 -0.358 0.759 255 255 255
-0.2 0.242 0.488 255 255 255
-0.092 0.248 0.533 0 0 0
0.223 -0.338 0.596 255 255 255
-0.16 0.129 0.711 255 255 255
0.309 0.042 0.52 255 255 255
-0.345 -0.089 0.703 255 255 255
-0.219 -0.505 0.689 0 0 0
0.125 -0.331 0.744 255 255 255
0.155 -0.02 0.735 255 255 255
0.075 -0.317 0.817 255 255 255
-0.27 0.028 0.39 255 255 255
-0.358 -0.018 0.709 255 255 255
-0.266 0.006 0.389 255 255 255
-0.092 0.04 0.938 255 255 255
0.178 -0.492 0.645 0 0 0
-0.312 -0.082 0.732 255 255 255
0.095 0.27 0.763 0 0 0
-0.118 0.234 0.603 255 255 255
0.116 0.13 0.803 255 255 255
0.092 -0.412 0.783 255 255 255
0.263 0.097 0.592 255 255 255
-0.174 -0.525 0.722 0 0 0
-0.187 -0.461 0.728 255 255 255
-0.278 0.196 0.818 255 255 255
-0.057 -0.548 0.804 255 255 255
-0.37 -0.074 0.688 255 255 255
-0.039 0.248 0.558 0 0 0
-0.299 -0.411 0.653 255 255 255
0.046 0.269 0.512 255 255 255
-0.016 0.016 0.967 255 255 255
-0.006 0.242 0.646 255 255 255
0.267 -0.385 0.535 0 0 0
-0.065 0.182 0.971 255 255 255
0.302 0.11 0.547 255 255 255
0.218 0.308 0.609 255 255 255
0.073 -0.217 0.834 255 255 255
-0.178 0.119 0.717 255 255 255
-0.133 0.245 0.526 255 255 255
0.277 0.079 0.572 255 255 255
0.238 -0.269 0.586 255 255 255
-0.037 0.234 0.677 255 255 255
-0.163 -0.288 0.799 255 255 255
-0.216 -0.131 0.79 255 255 255
0.154 0.29 0.756 255 255 255
-0.13 0.229 0.629 255 255 255
-0.116 0.142 0.818 255 255 255
0.191 -0.404 0.633 0 0 0
0.022 -0.17 0.904 255 255 255
0.22 0.241 0.665 255 255 255
0.337 0.028 0.486 255 255 255
0.003 -0.155 0.923 255 255 255
-0.162 0.194 0.726 255 255 255
-0.107 0.096 0.855 255 255 255
-0.238 -0.245 0.748 255 255 255
0.117 -0.401 0.745 255 255 255
-0.168 -0.533 0.725 0 0 0
-0.182 -0.352 0.765 255 255 255
0.137 -0.158 0.746 255 255 255
0.277 -0.153 0.535 255 255 255
-0.095 -0.321 0.84 255 255 255
0.294 -0.148 0.512 255 255 255
0.234 -0.156 0.605 255 255 255
-0.366 0.166 0.747 255 255 255
-0.346 -0.059 0.711 255 255 255
-0.321 -0.125 0.715 255 255 255
-0.296 -0.319 0.68 255 255 255
-0.359 0.019 0.718 255 255 255
0.127 -0.422 0.729 255 255 255
0.263 -0.143 0.568 0 0 0
0.243 0.098 0.622 0 0 0
-0.253 0.157 0.794 255 255 255
-0.077 -0.462 0.815 255 255 255
0.272 -0.077 0.56 255 255 255
-0.084 -0.252 0.868 255 255 255
0.263 0.201 0.602 255 255 255
-0.375 -0.062 0.685 255 255 255
-0.13 0.109 0.818 255 255 255
0.129 0.267 0.528 255 255 255
-0.079 -0.053 0.923 255 255 255
0.128 0.076 0.786 255 255 255
0.027 -0.423 0.857 255 255 255
-0.367 -0.046 0.697 255 255 255
-0.25 0.077 0.777 255 255 255
-0.059 -0.166 0.908 255 255 255
-0.065 0.24 0.61 255 255 255
0.123 -0.414 0.735 255 255 255
-0.084 -0.141 0.799 255 255 255
-0.251 0.17 0.781 255 255 255
-0.325 0.099 0.764 255 255 255
-0.067 -0.452 0.824 255 255 255
-0.277 -0.035 0.383 255 255 255
0.013 0.236 0.951 255 255 255
-0.299 -0.1 0.736 255 255 255
-0.038 -0.358 0.869 255 255 255
0.284 -0.251 0.517 255 255 255
-0.326 -0.258 0.673 255 255 255
0.277 0.117 0.578 255 255 255
0.206 -0.148 0.645 255 255 255
0.162 0.139 0.741 0 0 0
-0.134 0.218 0.67 255 255 255
-0.204 0.234 0.541 255 255 255
0.298 -0.028 0.53 255 255 255
0.108 0.082 0.815 255 255 255
0.183 0.201 0.715 255 255 255
0.275 -0.141 0.552 255 255 255
-0.272 -0.042 0.388 255 255 255
0.093 -0.09 0.816 255 255 255
0.106 0.264 0.508 255 255 255
-0.227 -0.425 0.708 255 255 255
-0.24 0.23 0.734 255 255 255
0.247 -0.23 0.566 0 0 0
0.222 0.067 0.648 255 255 255
0.116 -0.066 0.784 255 255 255
-0.098 -0.093 0.775 255 255 255
-0.2 -0.364 0.746 255 255 255
-0.293 0.08 0.784 255 255 255
0.162 -0.307 0.692 255 255 255
0.272 0.166 0.592 255 255 255
0.311 -0.154 0.494 255 255 255
-0.102 0.061 0.796 255 255 255
-0.176 0.002 0.724 255 255 255
-0.287 0.161 0.806 255 255 255
0.026 -0.503 0.844 255 255 255
0.22 -0.115 0.628 255 255 255
0.18 -0.027 0.698 0 0 0
-0.095 0.228 0.662 255 255 255
0.192 0.168 0.698 255 255 255
0.242 -0.431 0.559 0 0 0
0.217 -0.174 0.626 255 255 255
0.045 0.187 0.906 255 255 255
0.162 0.228 0.744 255 255 255
-0.151 0.248 0.493 255 255 255
-0.224 -0.073 0.798 255 255 255
-0.297 -0.033 0.753 255 255 255
0.314 -0.046 0.5 0 0 0
-0.354 -0.184 0.67 255 255 255
-0.379 -0.018 0.694 255 255 255
0.136 -0.064 0.758 255 255 255
0.157 -0.173 0.715 255 255 255
-0.267 -0.473 0.662 255 255 255
-0.103 0.12 0.84 255 255 255
-0.014 0.246 0.613 255 255 255
0.134 0.003 0.77 255 255 255
0.128 -0.489 0.718 255 255 255
0.257 0.234 0.613 255 255 255
0.21 -0.056 0.651 255 255 255
0.123 -0.285 0.753 255 255 255
-0.333 -0.284 0.661 255 255 255
-0.359 -0.141 0.678 255 255 255
0.046 0.002 0.894 255 255 255
-0.225 -0.187 0.771 255 255 255
-0.256 -0.038 0.783 255 255 255
0.143 0.194 0.768 255 255 255
0.02 -0.511 0.847 255 255 255
0.297 -0.174 0.502 255 255 255
-0.201 0.07 0.723 255 255 255
-0.081 -0.071 0.917 255 255 255
-0.037 0.198 0.786 255 255 255
-0.393 0.067 0.704 255 255 255
-0.386 0.039 0.7 255 255 255
0.26 -0.35 0.54 255 255 255
0.289 0.072 0.553 255 255 255
-0.212 -0.402 0.725 255 255 255
0.314 -0.008 0.51 255 255 255
-0.049 0.224 0.717 255 255 255
0.228 0.154 0.649 255 255 255
0.301 0.091 0.541 255 255 255
-0.257 -0.016 0.395 255 255 255
0.044 -0.492 0.829 255 255 255
0.302 0.152 0.556 255 255 255
0.131 -0.144 0.758 255 255 255
-0.337 -0.157 0.69 255 255 255
0.294 -0.134 0.521 255 255 255
-0.231 -0.204 0.762 255 255 255
0.12 0.264 0.517 255 255 255
0.104 0.049 0.817 255 255 255
0.107 -0.068 0.798 255 255 255
0.12 0.087 0.798 255 255 255
0.009 -0.013 0.939 255 255 255
-0.084 -0.107 0.907 0 0 0
-0.351 -0.093 0.697 255 255 255
-0.303 0.103 0.781 255 255 255
0.008 0.246 0.463 255 255 255
-0.371 0.088 0.727 255 255 255
0.238 -0.306 0.578 255 255 255
0.083 0.263 0.591 0 0 0
-0.137 -0.293 0.818 255 255 255
-0.167 -0.283 0.796 255 255 255
0.325 -0.065 0.485 0 0 0
-0.097 0.171 0.889 255 255 255
-0.094 0.238 0.597 255 255 255
-0.006 0.033 0.961 255 255 255
0.109 -0.04 0.8 255 255 255
0.105 -0.242 0.784 255 255 255
0.227 0.087 0.642 255 255 255
0.203 -0.252 0.638 255 255 255
-0.088 -0.122 0.874 255 255 255
0.319 0.072 0.516 255 255 255
-0.352 -0.317 0.641 255 255 255
0.103 -0.409 0.768 255 255 255
0.053 0.257 0.599 255 255 255
0.079 0.229 0.863 255 255 255
-0.257 0.233 0.751 255 255 255
0.26 0.173 0.607 255 255 255
-0.25 -0.256 0.735 255 255 255
0.048 0.249 0.659 255 255 255
0.028 0.251 0.603 255 255 255
0.132 -0.389 0.727 255 255 255
-0.056 0.22 0.736 0 0 0
-0.357 -0.131 0.684 255 255 255
0.282 0.157 0.578 255 255 255
0.213 0.101 0.665 255 255 255
-0.26 -0.303 0.713 255 255 255
-0.088 0.239 0.588 255 255 255
-0.08 0.199 0.787 255 255 255
0.212 0.17 0.672 255 255 255
0.192 -0.362 0.639 0 0 0
-0.294 0.104 0.79 255 255 255
0.091 -0.303 0.798 255 255 255
0.259 -0.228 0.554 0 0 0
0.247 -0.054 0.6 255 255 255
0.287 -0.139 0.528 255 255 255
-0.062 -0.582 0.79 0 0 0
-0.289 0.067 0.784 255 255 255
-0.192 0.245 0.497 255 255 255
-0.156 0.255 0.464 255 255 255
-0.028 -0.407 0.862 255 255 255
0.096 -0.477 0.766 255 255 255
0.313 0.04 0.517 255 255 255
-0.333 -0.153 0.696 255 255 255
-0.26 -0.215 0.737 255 255 255
-0.271 -0.512 0.65 255 255 255
-0.349 -0.158 0.683 255 255 255
-0.136 0.258 0.46 255 255 255
0.204 -0.009 0.668 255 255 255
-0.176 -0.338 0.775 255 255 255
-0.063 -0.275 0.877 255 255 255
-0.17 -0.302 0.788 255 255 255
-0.037 -0.45 0.845 255 255 255
0.292 0.064 0.549 255 255 255
-0.078 0.246 0.556 0 0 0
-0.294 -0.314 0.683 255 255 255
-0.192 0.189 0.709 255 255 255
-0.3 -0.096 0.738 255 255 255
0.272 0.082 0.578 255 255 255
-0.058 0.253 0.522 255 255 255
-0.321 0.143 0.776 255 255 255
0.234 -0.112 0.609 255 255 255
0.248 -0.161 0.56 255 255 255
0.245 -0.052 0.603 255 255 255
-0.021 0.189 0.784 255 255 255
-0.168 0.234 0.566 255 255 255
-0.379 0.209 0.747 255 255 255
-0.017 -0.455 0.856 255 255 255
0.196 0.293 0.703 255 255 255
-0.269 -0.01 0.386 255 255 255
-0.275 -0.05 0.766 255 255 255
0.013 -0.489 0.856 255 255 255
-0.081 -0.036 0.925 255 255 255
-0.131 -0.56 0.745 0 0 0
-0.243 0.229 0.565 255 255 255
0.048 -0.335 0.85 255 255 255
0.308 -0.203 0.487 255 255 255
-0.067 0.25 0.54 0 0 0
0.222 -0.442 0.583 0 0 0
-0.067 0.191 0.975 255 255 255
-0.07 0.193 0.796 255 255 255
0.189 -0.325 0.646 0 0 0
-0.25 -0.251 0.736 255 255 255
0.055 0.125 0.891 255 255 255
-0.386 0.011 0.694 255 255 255
0.127 0.281 0.713 255 255 255
-0.07 0.216 0.736 255 255 255
0.27 0.151 0.591 255 255 255
0.283 0.102 0.567 255 255 255
-0.283 -0.227 0.716 255 255 255
0.135 -0.535 0.701 0 0 0
0.022 -0.174 0.905 255 255 255
0.309 0.004 0.517 255 255 255
0.067 0.25 0.686 0 0 0
0.25 -0.157 0.559 255 255 255
-0.305 -0.405 0.652 255 255 255
0.024 0.248 0.634 255 255 255
0.053 0.269 0.521 255 255 255
-0.001 0.25 0.585 255 255 255
0.207 -0.123 0.647 255 255 255
0.303 -0.211 0.505 255 255 255
0.111 -0.06 0.793 255 255 255
0.318 -0.04 0.498 255 255 255
0.235 -0.048 0.616 255 255 255
-0.121 -0.317 0.823 255 255 255
-0.043 0.257 0.51 255 255 255
0.278 -0.35 0.526 255 255 255
0.212 -0.302 0.616 255 255 255
0.202 -0.093 0.655 255 255 255
-0.313 -0.146 0.715 255 255 255
-0.106 -0.529 0.773 255 255 255
-0.169 -0.081 0.845 255 255 255
-0.191 -0.454 0.726 255 255 255
0.2 -0.37 0.627 0 0 0
0.246 0.257 0.63 255 255 255
-0.377 -0.186 0.655 255 255 255
0.314 -0.098 0.495 255 255 255
-0.114 0.019 0.781 255 255 255
-0.367 -0.17 0.664 255 255 255
0.156 -0.056 0.73 255 255 255
-0.128 0.237 0.58 255 255 255
0.247 -0.023 0.605 255 255 255
-0.138 -0.503 0.755 255 255 255
0.065 -0.166 0.851 255 255 255
0.228 0.011 0.634 255 255 255
-0.249 -0.035 0.393 0 0 0
0.029 -0.431 0.855 255 255 255
-0.019 -0.551 0.828 255 255 255
-0.128 0.251 0.49 255 255 255
0.238 0.3 0.643 0 0 0
0.285 -0.014 0.549 255 255 255
-0.259 -0.171 0.748 255 255 255
0.285 -0.262 0.512 255 255 255
0.19 -0.19 0.664 0 0 0
-0.315 -0.153 0.711 255 255 255
0.133 0.109 0.779 255 255 255
-0.006 -0.239 0.913 255 255 255
0.167 0.092 0.729 0 0 0
-0.264 -0.029 0.394 255 255 255
-0.071 0.236 0.639 255 255 255
0.336 -0.028 0.476 255 255 255
-0.37 -0.196 0.656 255 255 255
0.093 -0.117 0.811 255 255 255
0.06 -0.53 0.805 255 255 255
-0.108 -0.385 0.812 255 255 255
0.186 -0.046 0.687 0 0 0
-0.244 -0.301 0.726 255 255 255
0.011 -0.005 0.938 255 255 255
-0.118 -0.184 0.741 255 255 255
0.211 0.08 0.666 255 255 255
-0.082 -0.436 0.818 255 255 255
0.309 -0.147 0.49 255 255 255
0.09 0.268 0.75 0 0 0
0.308 -0.018 0.517 255 255 255
-0.065 -0.412 0.837 255 255 255
-0.125 0.223 0.657 255 255 255
0.233 -0.242 0.599 255 255 255
0.061 0.207 0.886 255 255 255
-0.087 -0.089 0.908 0 0 0
0.12 -0.393 0.744 255 255 255
-0.1 0.236 0.607 255 255 255
0.221 0.248 0.664 255 255 255
0.198 -0.17 0.654 255 255 255
-0.306 0.215 0.766 255 255 255
0.158 0.099 0.741 255 255 255
0.164 0.136 0.738 0 0 0
0.19 -0.216 0.663 0 0 0
-0.027 0.041 0.967 255 255 255
-0.257 -0.118 0.389 0 0 0
0.014 -0.353 0.88 255 255 255
0.316 -0.062 0.497 0 0 0
0.258 -0.181 0.551 255 255 255
0.111 -0.311 0.767 255 255 255
-0.164 0.212 0.701 255 255 255
-0.271 -0.03 0.771 255 255 255
-0.073 -0.033 0.933 255 255 255
0.192 -0.432 0.631 255 255 255
-0.268 -0.26 0.718 255 255 255
0.184 -0.373 0.649 255 255 255
-0.241 -0.38 0.709 255 255 255
-0.042 0.179 0.791 255 255 255
0.176 -0.068 0.698 0 0 0
0 -0.375 0.88 255 255 255
0.192 0.15 0.699 255 255 255
-0.178 -0.23 0.8 255 255 255
-0.257 -0.199 0.744 255 255 255
0.29 -0.017 0.542 255 255 255
-0.3 -0.159 0.722 255 255 255
-0.33 -0.011 0.735 255 255 255
-0.087 -0.143 0.78 255 255 255
-0.092 0.256 0.486 255 255 255
-0.05 0.24 0.626 255 255 255
0.011 0.057 0.946 255 255 255
0.048 0.059 0.899 255 255 255
0.227 -0.294 0.596 255 255 255
0.036 0.252 0.831 255 255 255
-0.145 -0.26 0.822 255 255 255
0.105 0.087 0.819 255 255 255
0.044 -0.333 0.854 255 255 255
0.21 -0.372 0.61 255 255 255
0.093 -0.083 0.815 255 255 255
0.164 -0.459 0.671 255 255 255
-0.047 0.214 0.759 255 255 255
-0.057 -0.534 0.808 255 255 255
0.007 -0.232 0.908 255 255 255
-0.017 -0.496 0.844 255 255 255
-0.196 0.244 0.502 255 255 255
0.253 0.115 0.609 255 255 255
0.119 -0.036 0.785 255 255 255
-0.11 0.249 0.505 255 255 255
0.224 0.059 0.645 255 255 255
0.201 0.083 0.679 255 255 255
-0.149 0.237 0.563 255 255 255
-0.277 -0.495 0.649 0 0 0
-0.042 0.216 0.75 255 255 255
-0.216 -0.278 0.757 255 255 255
-0.18 0.237 0.545 255 255 255
0.303 -0.159 0.499 255 255 255
-0.285 -0.455 0.653 255 255 255
-0.31 0.151 0.785 255 255 255
-0.284 -0.179 0.728 255 255 255
0.225 0.101 0.647 255 255 255
0.245 -0.42 0.557 0 0 0
-0.123 -0.172 0.742 0 0 0
0.255 0.301 0.623 255 255 255
0.077 -0.127 0.836 255 255 255
-0.39 0.068 0.705 255 255 255
0.009 0.259 0.542 255 255 255
0.074 -0.045 0.848 255 255 255
0.194 0.302 0.705 255 255 255
-0.144 -0.131 0.8 0 0 0
0.213 0.014 0.657 255 255 255
-0.383 -0.208 0.644 255 255 255
-0.074 -0.277 0.869 255 255 255
-0.023 -0.147 0.931 255 255 255
-0.123 -0.013 0.759 255 255 255
0.311 0.059 0.522 255 255 255
-0.213 -0.461 0.706 255 255 255
0.183 -0.055 0.691 0 0 0
0.031 0.247 0.647 255 255 255
0.156 -0.166 0.718 255 255 255
-0.146 -0.074 0.807 0 0 0
0.03 -0.52 0.838 255 255 255
-0.074 0.252 0.519 255 255 255
-0.078 0.225 0.699 255 255 255
0.183 -0.204 0.673 0 0 0
-0.117 0.139 0.817 255 255 255
0.146 -0.373 0.705 255 255 255
-0.353 -0.134 0.686 255 255 255
-0.093 -0.54 0.78 255 255 255
0.085 -0.274 0.808 255 255 255
0.111 -0.138 0.786 255 255 255
0.177 -0.488 0.649 0 0 0
-0.14 0.22 0.72 255 255 255
-0.227 -0.317 0.738 255 255 255
-0.276 -0.086 0.758 255 255 255
0.171 -0.182 0.694 255 255 255
-0.02 -0.387 0.87 255 255 255
0.284 -0.156 0.529 255 255 255
-0.31 -0.359 0.66 255 255 255
0.036 -0.387 0.854 255 255 255
0.148 0.031 0.752 255 255 255
-0.197 -0.44 0.726 255 255 255
0.209 -0.201 0.633 255 255 255
-0.37 0.218 0.727 255 255 255
-0.285 -0.317 0.689 255 255 255
0.249 -0.414 0.548 0 0 0
-0.073 0.096 0.96 255 255 255
0.094 0.035 0.832 255 255 255
-0.263 -0.001 0.391 255 255 255
-0.273 -0.127 0.4 255 255 255
0.291 0.129 0.562 255 255 255
0.104 -0.17 0.791 255 255 255
0.029 0.258 0.566 0 0 0
-0.113 -0.224 0.838 0 0 0
0.084 -0.236 0.818 255 255 255
0.328 -0.048 0.484 0 0 0
0.134 0.184 0.781 255 255 255
-0.062 0.245 0.561 255 255 255
-0.364 0.023 0.714 255 255 255
0.013 -0.479 0.859 255 255 255
-0.04 0.195 0.787 255 255 255
0.259 -0.204 0.55 255 255 255
0.078 -0.436 0.797 255 255 255
-0.105 -0.079 0.772 255 255 255
-0.33 0.25 0.71 255 255 255
-0.168 -0.518 0.729 255 255 255
-0.011 -0.134 0.937 255 255 255
0.206 0.302 0.615 255 255 255
0.15 -0.315 0.708 255 255 255
0.103 -0.151 0.795 255 255 255
-0.333 -0.095 0.711 255 255 255
0.156 -0.458 0.682 255 255 255
0.053 -0.502 0.819 255 255 255
0.009 -0.331 0.887 255 255 255
0.153 0.246 0.758 255 255 255
-0.017 -0.581 0.822 255 255 255
-0.175 -0.181 0.813 255 255 255
0.224 0.006 0.639 255 255 255
0.19 -0.044 0.681 255 255 255
0.305 -0.113 0.506 255 255 255
-0.056 0.195 0.792 255 255 255
-0.198 0.012 0.737 255 255 255
-0.114 0.097 0.831 255 255 255
0.069 0.063 0.87 255 255 255
0.114 -0.052 0.79 255 255 255
-0.189 -0.209 0.796 255 255 255
0.231 -0.129 0.613 255 255 255
0.22 -0.431 0.588 0 0 0
0.175 -0.357 0.666 255 255 255
-0.323 0.247 0.719 255 255 255
0.252 -0.132 0.583 255 255 255
-0.267 0.029 0.393 255 255 255
0.131 -0.188 0.753 255 255 255
0.078 -0.13 0.833 255 255 255
-0.049 -0.043 0.943 255 255 255
0.256 0.086 0.605 255 255 255
0.025 -0.337 0.872 255 255 255
-0.087 -0.044 0.794 255 255 255
0.128 0.22 0.791 255 255 255
0.083 0.171 0.854 255 255 255
-0.153 0.091 0.718 0 0 0
0.045 0.255 0.853 255 255 255
-0.16 0.237 0.555 255 255 255
-0.3 0.021 0.761 255 255 255
0.319 0.05 0.51 255 255 255
-0.152 0.041 0.717 255 255 255
-0.018 0.037 0.97 255 255 255
0.166 -0.339 0.681 255 255 255
0.195 -0.127 0.662 255 255 255
0.341 0.012 0.476 255 255 255
0.158 -0.127 0.718 255 255 255
0.093 0.014 0.83 255 255 255
0.005 -0.542 0.844 255 255 255
0.116 -0.305 0.759 255 255 255
0.151 -0.173 0.723 255 255 255
-0.259 -0.356 0.7 255 255 255
-0.286 -0.183 0.727 255 255 255
-0.279 -0.12 0.397 255 255 255
0.147 0.292 0.625 255 255 255
-0.293 -0.395 0.664 255 255 255
-0.099 0.032 0.795 255 255 255
-0.086 -0.067 0.915 0 0 0
-0.252 -0.057 0.391 0 0 0
-0.147 -0.447 0.767 255 255 255
-0.014 0.065 0.797 255 255 255
-0.274 -0.165 0.739 255 255 255
-0.387 0.075 0.71 255 255 255
0.041 -0.286 0.864 255 255 255
-0.12 -0.472 0.78 255 255 255
-0.325 -0.402 0.639 255 255 255
0.244 0.254 0.632 255 255 255
-0.046 -0.258 0.892 255 255 255
-0.006 0.228 0.735 255 255 255
0.06 -0.2 0.852 255 255 255
0.161 0.037 0.734 255 255 255
0.303 -0.089 0.511 255 255 255
0.188 -0.342 0.645 0 0 0
0.135 0.008 0.768 255 255 255
0.318 -0.003 0.504 255 255 255
-0.097 0.179 0.84 255 255 255
-0.1 -0.085 0.775 255 255 255
0.109 0.272 0.503 255 255 255
-0.277 0.048 0.787 255 255 255
0.333 -0.101 0.472 255 255 255
0.28 -0.21 0.526 255 255 255
0.309 -0.172 0.499 255 255 255
0.231 -0.072 0.619 255 255 255
0.116 0.264 0.516 255 255 255
0.239 -0.318 0.574 255 255 255
0.226 0.31 0.633 255 255 255
-0.304 -0.172 0.714 255 255 255
-0.236 0.051 0.399 255 255 255
-0.13 0.241 0.551 255 255 255
0.296 0.09 0.544 255 255 255
0.036 -0.4 0.852 255 255 255
-0.374 -0.163 0.66 255 255 255
-0.248 -0.069 0.783 255 255 255
-0.123 -0.169 0.743 0 0 0
-0.032 0.258 0.508 255 255 255
-0.14 -0.423 0.779 255 255 255
-0.017 -0.389 0.873 255 255 255
-0.257 -0.482 0.669 0 0 0
-0.243 -0.353 0.713 255 255 255
-0.381 -0.03 0.69 255 255 255
0.14 -0.123 0.743 255 255 255
0.083 0.266 0.811 255 255 255
-0.359 -0.161 0.674 255 255 255
0.242 -0.245 0.569 255 255 255
-0.363 0.074 0.73 255 255 255
-0.351 -0.361 0.628 255 255 255
0.28 -0.146 0.534 255 255 255
0.138 0.201 0.775 255 255 255
0.268 -0.002 0.577 255 255 255
0.27 0.02 0.575 255 255 255
0.185 0.084 0.703 255 255 255
-0.019 0.254 0.54 0 0 0
-0.163 0.035 0.712 255 255 255
0.33 -0.022 0.485 0 0 0
-0.344 -0.175 0.681 255 255 255
0.169 -0.375 0.674 255 255 255
0.32 -0.128 0.486 255 255 255
0.295 -0.039 0.534 255 255 255
-0.024 -0.392 0.867 255 255 255
-0.245 -0.157 0.386 255 255 255
-0.291 0.008 0.765 255 255 255
0.149 -0.248 0.72 255 255 255
-0.006 -0.466 0.859 255 255 255
0.253 -0.288 0.559 255 255 255
0.246 0.049 0.611 255 255 255
-0.008 0.262 0.518 255 255 255
-0.395 0.128 0.72 255 255 255
0.274 0.097 0.58 255 255 255
0.041 -0.323 0.859 255 255 255
0.17 0.08 0.723 0 0 0
-0.25 -0.059 0.785 255 255 255
-0.191 0.039 0.695 255 255 255
-0.082 0.232 0.648 255 255 255
0.147 0.017 0.752 255 255 255
0.299 0.071 0.54 255 255 255
-0.368 -0.169 0.664 255 255 255
-0.372 -0.301 0.627 255 255 255
-0.066 -0.122 0.915 255 255 255
-0.068 0.19 0.929 255 255 255
0.203 0.24 0.69 0 0 0
0.038 -0.374 0.854 255 255 255
-0.116 -0.44 0.791 255 255 255
0.026 0.127 0.931 255 255 255
0.239 -0.25 0.578 255 255 255
-0.292 -0.217 0.713 255 255 255
0.243 -0.153 0.589 255 255 255
-0.108 -0.176 0.755 255 255 255
0.285 -0.065 0.54 0 0 0
0.204 -0.013 0.666 255 255 255
0.286 -0.072 0.536 255 255 255
0.149 -0.056 0.738 255 255 255
-0.101 -0.499 0.786 255 255 255
-0.115 0.044 0.784 255 255 255
-0.17 0.089 0.718 255 255 255
-0.298 -0.384 0.663 255 255 255
-0.106 -0.333 0.826 255 255 255
0.171 0.009 0.718 0 0 0
0.091 0.004 0.83 255 255 255
-0.047 0.115 0.843 255 255 255
0.135 0.097 0.777 255 255 255
-0.179 -0.185 0.808 255 255 255
0.196 0.194 0.696 255 255 255
-0.28 0.234 0.744 255 255 255
0.153 -0.518 0.676 255 255 255
-0.039 0.222 0.738 0 0 0
-0.043 0.241 0.627 255 255 255
-0.299 0.124 0.789 255 255 255
-0.282 -0.016 0.376 255 255 255
-0.054 -0.085 0.932 255 255 255
0.232 0.314 0.652 255 255 255
-0.382 -0.078 0.677 255 255 255
0.132 -0.335 0.733 255 255 255
0.024 0.251 0.597 255 255 255
0.255 -0.289 0.556 255 255 255
0.074 0.266 0.857 255 255 255
0.064 -0.329 0.829 255 255 255
-0.118 0.178 0.826 255 255 255
0.143 0.108 0.763 255 255 255
0.243 0.246 0.635 255 255 255
-0.015 -0.588 0.821 255 255 255
0.071 -0.246 0.831 255 255 255
0.171 -0.264 0.684 255 255 255
0.293 -0.03 0.537 255 255 255
0.153 0.135 0.752 255 255 255
0.156 0.198 0.751 255 255 255
-0.165 0.22 0.687 255 255 255
0.244 -0.367 0.561 255 255 255
-0.188 0.241 0.521 255 255 255
-0.045 0.1 0.829 255 255 255
-0.107 -0.467 0.791 255 255 255
0.272 -0.059 0.562 255 255 255
0.039 -0.29 0.866 255 255 255
0.011 -0.419 0.871 255 255 255
0.183 -0.408 0.647 255 255 255
0.291 -0.048 0.537 255 255 255
-0.302 0.026 0.761 255 255 255
-0.062 0.228 0.822 255 255 255
0.14 -0.163 0.741 255 255 255
-0.027 -0.112 0.94 255 255 255
0.009 -0.541 0.845 255 255 255
-0.357 0.05 0.727 255 255 255
0.27 -0.316 0.529 255 255 255
-0.293 -0.36 0.673 255 255 255
-0.084 0.221 0.759 255 255 255
0.017 0.203 0.946 255 255 255
-0.335 -0.062 0.718 255 255 255
0.272 -0.018 0.57 255 255 255
0.191 0.003 0.686 255 255 255
0.199 -0.341 0.63 0 0 0
0.013 0.217 0.949 255 255 255
-0.024 0.15 0.773 255 255 255
0.198 0.103 0.685 255 255 255
-0.199 -0.169 0.794 255 255 255
0.184 -0.195 0.669 0 0 0
-0.107 0.035 0.788 255 255 255
0.203 -0.121 0.653 255 255 255
0.244 0.054 0.614 0 0 0
0.022 0.024 0.928 255 255 255
-0.165 -0.523 0.731 255 255 255
-0.382 0.078 0.714 255 255 255
-0.035 -0.526 0.825 255 255 255
-0.323 0.227 0.717 255 255 255
-0.251 0.233 0.55 255 255 255
0.223 0.184 0.658 255 255 255
-0.251 -0.114 0.388 0 0 0
-0.106 0.125 0.944 255 255 255
-0.33 -0.165 0.693 255 255 255
0.179 0.134 0.716 255 255 255
0.251 0.276 0.625 0 0 0
0.244 -0.437 0.554 255 255 255
0.293 0.095 0.551 255 255 255
-0.275 -0.049 0.766 255 255 255
-0.241 0.059 0.398 255 255 255
0.12 -0.267 0.759 255 255 255
0.306 -0.075 0.508 255 255 255
0.086 0.266 0.799 255 255 255
0.255 -0.01 0.595 255 255 255
-0.108 -0.538 0.769 255 255 255
0.29 0.098 0.556 255 255 255
-0.147 -0.23 0.83 255 255 255
0.112 -0.08 0.789 255 255 255
-0.148 -0.171 0.816 255 255 255
-0.255 -0.496 0.664 0 0 0
0.037 -0.491 0.836 255 255 255
-0.28 -0.303 0.696 255 255 255
0.183 0.296 0.563 255 255 255
-0.284 0.031 0.777 255 255 255
0.154 0.264 0.761 255 255 255
-0.381 -0.07 0.68 255 255 255
0.158 -0.115 0.72 255 255 255
0.21 0.055 0.664 255 255 255
-0.035 0.239 0.645 255 255 255
-0.146 0.208 0.734 255 255 255
0.04 0.138 0.914 255 255 255
-0.041 0.235 0.655 255 255 255
0.316 -0.111 0.49 255 255 255
-0.097 -0.116 0.774 255 255 255
-0.2 0.244 0.486 255 255 255
-0.367 -0.285 0.636 255 255 255
-0.298 -0.411 0.654 255 255 255
-0.276 -0.351 0.686 255 255 255
-0.322 -0.184 0.697 255 255 255
-0.103 -0.082 0.774 255 255 255
0.322 0.028 0.503 255 255 255
-0.244 -0.028 0.391 0 0 0
-0.105 -0.39 0.814 255 255 255
-0.163 0.252 0.469 255 255 255
-0.044 -0.228 0.902 255 255 255
-0.253 -0.468 0.673 255 255 255
-0.284 -0.121 0.744 255 255 255
-0.31 0.167 0.789 255 255 255
0.106 -0.029 0.804 255 255 255
-0.082 0.174 0.967 255 255 255
0.291 0.053 0.55 255 255 255
-0.231 -0.168 0.771 255 255 255
-0.095 -0.001 0.792 255 255 255
-0.202 -0.213 0.784 255 255 255
-0.068 0.104 0.964 255 255 255
-0.172 -0.283 0.789 255 255 255
0.178 0.179 0.72 255 255 255
-0.27 -0.029 0.387 255 255 255
0.269 0.155 0.593 255 255 255
-0.062 0.104 0.964 255 255 255
0.242 0.131 0.628 0 0 0
0.27 -0.152 0.543 255 255 255
-0.087 -0.031 0.924 0 0 0
-0.234 -0.377 0.715 255 255 255
-0.014 0.227 0.734 255 255 255
0.301 0.083 0.538 255 255 255
0.139 0.209 0.776 255 255 255
0.202 0.009 0.671 255 255 255
-0.234 -0.246 0.75 255 255 255
-0.26 -0.109 0.763 255 255 255
0.019 0.231 0.724 0 0 0
0.201 0.3 0.593 255 255 255
0.095 -0.339 0.786 255 255 255
0.291 -0.006 0.542 255 255 255
-0.089 0.237 0.617 255 255 255
0.214 -0.417 0.6 255 255 255
0.131 -0.208 0.75 255 255 255
-0.039 0.25 0.548 0 0 0
0.275 0.143 0.583 255 255 255
-0.011 -0.275 0.903 255 255 255
-0.379 -0.022 0.691 255 255 255
0.224 -0.243 0.608 255 255 255
-0.095 0.224 0.796 255 255 255
-0.24 -0.163 0.764 255 255 255
-0.006 0.231 0.72 255 255 255
0.039 0.263 0.552 255 255 255
0.282 -0.168 0.53 255 255 255
-0.26 0.01 0.395 255 255 255
-0.351 0.017 0.723 255 255 255
0.132 -0.285 0.739 255 255 255
-0.163 0.222 0.638 255 255 255
0.012 0.247 0.456 255 255 255
0.076 -0.497 0.789 255 255 255
-0.349 -0.341 0.637 255 255 255
-0.257 -0.378 0.694 255 255 255
0.3 -0.025 0.527 255 255 255
0.29 0.007 0.544 255 255 255
-0.363 0.036 0.718 255 255 255
-0.306 0.204 0.801 255 255 255
-0.277 -0.146 0.741 255 255 255
0.127 -0.097 0.767 255 255 255
-0.078 -0.36 0.841 255 255 255
-0.082 -0.282 0.862 255 255 255
0.149 -0.385 0.7 255 255 255
-0.243 0.205 0.749 255 255 255
0.334 -0.051 0.476 0 0 0
0.322 -0.068 0.488 255 255 255
0.172 -0.011 0.713 0 0 0
-0.079 -0.292 0.862 255 255 255
0.211 -0.127 0.639 255 255 255
0.231 -0.096 0.616 255 255 255
0.127 0.172 0.79 255 255 255
-0.161 0.254 0.461 255 255 255
-0.132 -0.15 0.77 0 0 0
-0.235 -0.406 0.707 255 255 255
0.281 0.007 0.559 255 255 255
0.278 -0.206 0.531 255 255 255
0.077 -0.062 0.841 255 255 255
0.204 0.075 0.675 255 255 255
-0.282 -0.044 0.761 255 255 255
-0.357 -0.209 0.661 255 255 255
0.174 -0.427 0.658 255 255 255
0.237 0.124 0.634 255 255 255
-0.03 0.16 0.778 0 0 0
-0.239 -0.011 0.767 255 255 255
-0.274 -0.245 0.718 255 255 255
-0.181 -0.19 0.806 255 255 255
-0.201 0.242 0.487 255 255 255
-0.233 -0.304 0.735 255 255 255
0.135 -0.269 0.735 255 255 255
-0.085 0.256 0.489 255 255 255
-0.336 -0.305 0.654 255 255 255
-0.383 0.166 0.735 255 255 255
-0.037 -0.237 0.904 255 255 255
-0.133 -0.498 0.76 255 255 255
-0.017 0.245 0.623 255 255 255
0.267 0.111 0.591 255 255 255
-0.195 -0.399 0.74 255 255 255
0.268 0.153 0.594 255 255 255
-0.244 0.013 0.751 255 255 255
0.318 0.054 0.513 255 255 255
0.24 0.002 0.617 255 255 255
-0.237 0.028 0.396 0 0 0
-0.336 -0.193 0.681 255 255 255
0.31 -0.023 0.509 0 0 0
-0.042 -0.223 0.904 255 255 255
-0.25 -0.226 0.742 255 255 255
-0.189 -0.225 0.792 255 255 255
0.186 -0.438 0.641 255 255 255
0.204 -0.227 0.64 255 255 255
-0.152 -0.112 0.816 0 0 0
0.143 0.085 0.762 255 255 255
-0.313 -0.31 0.67 255 255 255
-0.29 0.01 0.766 255 255 255
0.038 -0.388 0.852 255 255 255
0.324 -0.05 0.491 0 0 0
0.269 -0.051 0.568 255 255 255
0.31 0.013 0.517 255 255 255
-0.03 -0.597 0.809 0 0 0
-0.255 -0.149 0.387 255 255 255
-0.03 -0.267 0.897 255 255 255
-0.37 0.098 0.729 255 255 255
-0.026 -0.221 0.912 255 255 255
-0.137 0.255 0.475 255 255 255
0.175 -0.155 0.69 255 255 255
-0.086 0.231 0.653 255 255 255
-0.293 -0.415 0.656 255 255 255
-0.09 -0.47 0.801 255 255 255
-0.117 -0.089 0.762 255 255 255
0.256 0.096 0.605 255 255 255
-0.352 -0.003 0.718 255 255 255
-0.013 -0.402 0.87 255 255 255
-0.28 -0.066 0.76 255 255 255
0.03 0.249 0.857 255 255 255
-0.173 0.197 0.72 255 255 255
0.037 -0.06 0.898 255 255 255
-0.123 -0.033 0.758 255 255 255
-0.073 0.241 0.587 255 255 255
-0.155 0.222 0.643 255 255 255
0.208 -0.356 0.613 255 255 255
0.319 0.08 0.519 255 255 255
-0.35 0.019 0.725 255 255 255
-0.331 -0.034 0.729 255 255 255
0.141 -0.219 0.733 255 255 255
0.158 -0.439 0.681 255 255 255
-0.021 -0.001 0.964 255 255 255
0.2 0.175 0.687 255 255 255
-0.325 -0.138 0.708 255 255 255
0.101 0.266 0.512 255 255 255
-0.344 0.252 0.711 255 255 255
0.154 -0.208 0.715 255 255 255
0.227 -0.398 0.581 255 255 255
0.304 -0.059 0.515 255 255 255
0 -0.227 0.913 255 255 255
0.067 -0.048 0.859 255 255 255
-0.352 -0.001 0.718 255 255 255
0.083 -0.058 0.833 255 255 255
0.302 0.055 0.532 255 255 255
-0.028 -0.594 0.811 0 0 0
-0.28 -0.51 0.641 255 255 255
-0.126 -0.245 0.841 255 255 255
0.098 -0.36 0.779 255 255 255
0.285 -0.002 0.551 255 255 255
0.123 -0.288 0.752 255 255 255
-0.348 -0.159 0.683 255 255 255
0.233 -0.289 0.587 255 255 255
0.288 -0.173 0.527 255 255 255
0.026 0.112 0.931 255 255 255
-0.206 -0.23 0.776 255 255 255
0.128 -0.368 0.734 255 255 255
0.26 -0.31 0.547 0 0 0
-0.352 0.039 0.729 255 255 255
0.302 -0.037 0.523 0 0 0
-0.286 -0.127 0.74 255 255 255
0.232 -0.049 0.619 255 255 255
0.215 0.289 0.676 255 255 255
0.184 0.092 0.705 255 255 255
-0.174 0.083 0.711 255 255 255
-0.274 -0.06 0.391 255 255 255
0.126 -0.132 0.763 255 255 255
-0.198 0.015 0.742 255 255 255
0.163 0.057 0.732 255 255 255
0.308 0.082 0.53 255 255 255
-0.271 -0.008 0.777 255 255 255
-0.063 -0.344 0.857 255 255 255
0.274 0.038 0.57 255 255 255
0.276 -0.191 0.533 255 255 255
-0.058 -0.472 0.826 255 255 255
-0.161 0.253 0.475 255 255 255
-0.389 0.183 0.733 255 255 255
-0.297 -0.081 0.745 255 255 255
-0.153 0.247 0.497 255 255 255
0.22 0.285 0.669 255 255 255
-0.117 0.227 0.642 255 255 255
0.236 -0.066 0.611 255 255 255
-0.318 -0.197 0.695 255 255 255
-0.228 -0.293 0.743 255 255 255
-0.295 -0.315 0.681 255 255 255
0.27 0.159 0.591 255 255 255
0.304 -0.135 0.505 255 255 255
0.252 -0.157 0.558 255 255 255
0.335 -0.085 0.468 255 255 255
0.026 0.208 0.933 255 255 255
-0.244 -0.113 0.776 255 255 255
0.225 0.013 0.638 255 255 255
-0.158 0.124 0.715 255 255 255
-0.383 -0.148 0.658 255 255 255
0.178 0.187 0.722 255 255 255
0.158 -0.489 0.677 0 0 0
-0.326 0.169 0.778 255 255 255
-0.238 -0.114 0.779 255 255 255
0.288 -0.169 0.529 255 255 255
0.163 -0.014 0.723 255 255 255
0.271 0.027 0.574 255 255 255
-0.243 -0.307 0.726 255 255 255
0.318 0.021 0.507 255 255 255
-0.268 -0.043 0.391 255 255 255
-0.145 0.034 0.721 255 255 255
-0.264 -0.101 0.762 255 255 255
0.3 -0.13 0.511 255 255 255
-0.375 -0.294 0.627 255 255 255
-0.255 -0.391 0.694 255 255 255
0.112 -0.407 0.753 255 255 255
0.185 0.159 0.707 255 255 255
-0.35 -0.198 0.668 255 255 255
0.312 0.068 0.525 255 255 255
-0.098 -0.026 0.786 255 255 255
0.208 -0.334 0.617 255 255 255
0.032 -0.122 0.897 255 255 255
-0.076 -0.497 0.806 255 255 255
0.002 -0.581 0.832 255 255 255
0.115 -0.301 0.763 255 255 255
0.151 -0.228 0.718 255 255 255
-0.278 -0.487 0.648 0 0 0
0.006 0.187 0.956 255 255 255
0.208 0.306 0.567 255 255 255
0.032 -0.073 0.903 255 255 255
-0.209 -0.396 0.729 255 255 255
0.077 0.111 0.861 255 255 255
0.193 0.198 0.701 255 255 255
0.209 -0.077 0.647 255 255 255
0.067 0.17 0.876 255 255 255
-0.347 -0.053 0.711 255 255 255
-0.322 -0.263 0.677 255 255 255
-0.293 0.237 0.739 255 255 255
-0.357 -0.081 0.696 255 255 255
-0.211 -0.489 0.701 255 255 255
0.14 0.277 0.527 255 255 255
-0.145 0.198 0.739 255 255 255
0.098 -0.291 0.789 255 255 255
0.225 -0.094 0.623 255 255 255
-0.282 -0.028 0.376 255 255 255
-0.189 0.158 0.708 255 255 255
0.078 0.034 0.854 255 255 255
0.264 0.01 0.585 255 255 255
-0.052 -0.596 0.793 0 0 0
0.16 -0.144 0.711 255 255 255
-0.347 0.157 0.759 255 255 255
0.275 0.035 0.567 255 255 255
-0.202 0.227 0.588 255 255 255
0.272 -0.152 0.542 255 255 255
0.059 -0.265 0.846 255 255 255
0.056 0.029 0.886 255 255 255
0 -0.349 0.887 255 255 255
-0.321 -0.006 0.742 255 255 255
-0.337 0.025 0.736 255 255 255
0.255 -0.373 0.548 255 255 255
-0.102 0.18 0.821 255 255 255
-0.279 -0.135 0.742 255 255 255
0.258 0.146 0.607 255 255 255
0.278 -0.078 0.548 255 255 255
-0.226 -0.205 0.767 255 255 255
0.073 -0.498 0.794 255 255 255
0.258 0.12 0.603 255 255 255
0.334 -0.114 0.471 255 255 255
-0.237 0.033 0.395 0 0 0
-0.053 0.019 0.955 255 255 255
0.242 -0.153 0.581 255 255 255
-0.183 -0.307 0.774 255 255 255
-0.257 -0.436 0.679 255 255 255
0.08 -0.14 0.83 255 255 255
-0.259 0.033 0.399 255 255 255
0.055 -0.415 0.827 255 255 255
-0.22 -0.246 0.761 255 255 255
0.115 0.265 0.522 255 255 255
0.063 0.252 0.647 255 255 255
-0.382 -0.175 0.652 255 255 255
-0.021 -0.162 0.928 255 255 255
0.147 -0.453 0.695 255 255 255
-0.358 -0.302 0.639 255 255 255
0.003 -0.31 0.896 255 255 255
-0.189 -0.088 0.823 255 255 255
0.275 -0.321 0.525 255 255 255
-0.3 0.214 0.764 255 255 255
0.089 -0.036 0.828 255 255 255
0.173 -0.124 0.698 255 255 255
-0.137 -0.265 0.827 255 255 255
0.206 0.144 0.679 255 255 255
-0.238 0.026 0.395 0 0 0
0.263 -0.099 0.568 255 255 255
-0.035 0.208 0.786 0 0 0
0.18 -0.431 0.648 255 255 255
-0.053 0.22 0.786 255 255 255
0.281 -0.241 0.521 0 0 0
-0.304 0.047 0.765 255 255 255
0.194 0.298 0.648 255 255 255
-0.383 0.023 0.701 255 255 255
-0.181 0.036 0.726 255 255 255
0.241 0.192 0.631 0 0 0
0.255 0.137 0.609 255 255 255
-0.286 -0.381 0.671 255 255 255
0.167 -0.367 0.676 255 255 255
0.169 0.071 0.724 0 0 0
-0.122 0.019 0.77 255 255 255
-0.339 0.227 0.701 255 255 255
-0.161 -0.421 0.762 255 255 255
-0.127 -0.367 0.804 255 255 255
0.132 -0.365 0.728 255 255 255
-0.137 -0.399 0.788 255 255 255
0.304 0.038 0.526 255 255 255
0.123 -0.415 0.734 255 255 255
-0.017 -0.03 0.957 255 255 255
0.324 0.048 0.504 255 255 255
-0.143 0.062 0.781 0 0 0
-0.104 0.093 0.941 255 255 255
-0.266 0.15 0.82 255 255 255
-0.255 -0.039 0.397 0 0 0
0.324 -0.042 0.488 255 255 255
0.321 -0.02 0.495 0 0 0
0.056 0.018 0.884 255 255 255
-0.133 0.148 0.812 255 255 255
-0.159 -0.203 0.826 255 255 255
-0.272 0.115 0.81 255 255 255
-0.166 -0.267 0.801 255 255 255
0.218 0.204 0.664 255 255 255
-0.115 -0.046 0.771 255 255 255
0.279 -0.013 0.561 255 255 255
-0.248 -0.083 0.78 255 255 255
-0.34 -0.351 0.64 255 255 255
-0.363 0.02 0.714 255 255 255
-0.335 -0.109 0.706 255 255 255
-0.229 -0.51 0.681 0 0 0
-0.142 0.235 0.58 255 255 255
0.328 -0.068 0.481 255 255 255
0.198 -0.191 0.652 255 255 255
-0.131 -0.438 0.782 255 255 255
-0.324 -0.111 0.716 255 255 255
-0.334 -0.144 0.697 255 255 255
0.113 -0.016 0.797 255 255 255
0.235 -0.386 0.57 255 255 255
-0.325 -0.006 0.739 255 255 255
0.263 0.242 0.606 255 255 255
-0.273 -0.212 0.728 255 255 255
-0.298 0.154 0.796 255 255 255
0.149 -0.144 0.73 255 255 255
-0.13 0.231 0.619 255 255 255
0.235 -0.006 0.622 255 255 255
-0.347 0.203 0.768 255 255 255
0.199 -0.357 0.628 0 0 0
-0.159 0.253 0.467 255 255 255
-0.14 -0.284 0.818 255 255 255
-0.269 -0.059 0.395 255 255 255
-0.311 -0.103 0.727 255 255 255
-0.265 -0.358 0.695 255 255 255
0.255 -0.056 0.587 0 0 0
-0.044 -0.432 0.844 255 255 255
-0.281 -0.234 0.717 255 255 255
-0.344 -0.186 0.678 255 255 255
-0.137 -0.538 0.746 255 255 255
-0.235 0.238 0.658 255 255 255
-0.284 -0.083 0.752 255 255 255
-0.169 0.222 0.683 255 255 255
0.261 0.09 0.595 255 255 255
0.152 0.033 0.747 255 255 255
0.184 -0.383 0.645 255 255 255
0.139 -0.326 0.724 255 255 255
0.277 0.12 0.578 255 255 255
0.016 0 0.933 255 255 255
-0.243 0.052 0.397 0 0 0
-0.202 0.214 0.702 255 255 255
-0.122 0.257 0.466 255 255 255
-0.063 0.243 0.585 255 255 255
0.163 0.22 0.742 255 255 255
0.218 -0.201 0.621 255 255 255
-0.177 -0.204 0.809 255 255 255
0.247 -0.056 0.598 255 255 255
-0.095 0.065 0.813 255 255 255
0.178 -0.456 0.649 255 255 255
0.159 0.034 0.736 255 255 255
-0.171 0.088 0.716 255 255 255
0.122 -0.296 0.754 255 255 255
0.181 0.005 0.702 0 0 0
-0.154 0.226 0.631 255 255 255
0.196 -0.386 0.629 0 0 0
0.127 0.28 0.76 255 255 255
-0.028 0.085 0.77 255 255 255
-0.03 -0.239 0.906 255 255 255
-0.123 0 0.765 255 255 255
0.009 -0.551 0.842 255 255 255
-0.329 -0.038 0.729 255 255 255
-0.005 0.259 0.526 255 255 255
0.055 0.059 0.89 255 255 255
-0.21 -0.131 0.794 255 255 255
0.264 -0.347 0.537 255 255 255
0.22 -0.094 0.631 255 255 255
0.055 -0.403 0.831 255 255 255
0.217 -0.114 0.633 255 255 255
0.027 -0.095 0.907 255 255 255
-0.06 -0.238 0.889 255 255 255
0.268 -0.025 0.575 255 255 255
-0.017 -0.469 0.852 255 255 255
0.266 -0.249 0.544 255 255 255
-0.325 -0.192 0.691 255 255 255
-0.055 -0.235 0.892 255 255 255
0.025 -0.299 0.88 255 255 255
0.052 -0.215 0.863 255 255 255
-0.167 0.122 0.716 255 255 255
0.089 0.068 0.842 255 255 255
-0.097 -0.284 0.849 255 255 255
-0.391 0.125 0.72 255 255 255
0.197 0.073 0.683 255 255 255
-0.181 -0.546 0.71 0 0 0
0.317 -0.001 0.506 255 255 255
0.093 -0.491 0.768 255 255 255
0.116 0.274 0.744 0 0 0
-0.126 -0.549 0.753 0 0 0
-0.335 -0.01 0.731 255 255 255
0.119 -0.226 0.763 255 255 255
-0.349 0.162 0.758 255 255 255
0.099 -0.493 0.76 255 255 255
-0.082 -0.318 0.85 255 255 255
-0.235 -0.225 0.755 255 255 255
-0.107 -0.278 0.843 255 255 255
-0.267 0.111 0.812 255 255 255
-0.067 0.238 0.626 255 255 255
0.083 0.266 0.582 0 0 0
0.097 0.217 0.836 255 255 255
-0.273 0.169 0.818 255 255 255
-0.365 -0.197 0.659 255 255 255
0.274 0.026 0.569 255 255 255
0.235 0.255 0.645 255 255 255
0.071 -0.589 0.78 0 0 0
0.224 0.067 0.645 255 255 255
-0.092 0.231 0.648 255 255 255
0.245 -0.263 0.566 255 255 255
-0.075 -0.419 0.829 255 255 255
-0.094 -0.072 0.781 255 255 255
-0.114 -0.535 0.764 255 255 255
0.213 -0.37 0.606 255 255 255
0.148 -0.427 0.697 255 255 255
-0.303 -0.174 0.715 255 255 255
0.234 0.132 0.638 255 255 255
0.257 -0.142 0.575 255 255 255
0.1 0.265 0.662 0 0 0
