ply
format ascii 1.0
comment Created by Open3D
element vertex 1587
property double x
property double y
property double z
property uchar red
property uchar green
property uchar blue
end_header
-0.104 0.67 1.385 255 255 255
-0.57 -0.644 2.462 255 255 255
0.068 -0.222 2.153 255 255 255
0.724 -0.032 1.101 255 255 255
-1.041 -1.335 2.069 255 255 255
-0.826 -0.374 1.777 255 255 255
0.25 0.548 1.849 0 0 0
-0.609 -0.768 2.403 255 255 255
0.053 0.512 1.875 255 255 255
-0.133 0.095 0.299 255 255 255
0.649 0.244 1.366 255 255 255
-0.116 0.082 0.321 255 255 255
-0.132 0.065 0.316 255 255 255
-0.297 -0.22 2.694 255 255 255
-0.872 -0.385 1.76 255 255 255
-0.195 0.279 0.622 0 0 0
-0.272 0.092 0.707 255 255 255
0.333 -0.023 2.027 255 255 255
-0.288 -1.419 2.297 255 255 255
-1.071 -0.91 2.141 0 0 0
-0.917 -1.048 2.206 255 255 255
-0.054 0.568 1.735 255 255 255
-0.799 -0.616 2.389 255 255 255
-0.764 -1.118 2.238 255 255 255
0.501 -0.632 1.721 0 0 0
0.533 -0.817 1.605 255 255 255
0.488 0.139 1.893 255 255 255
-0.341 0.025 0.982 255 255 255
-0.788 0.001 2.58 0 0 0
-0.544 -0.407 2.544 255 255 255
0.727 -0.088 1.084 255 255 255
-0.799 -0.965 2.277 255 255 255
0.065 -0.064 1.926 255 255 255
0.68 -0.167 1.063 0 0 0
0.021 0.565 1.761 255 255 255
-0.744 -1.07 2.26 255 255 255
-0.662 -0.094 2.605 255 255 255
0.428 0.665 1.515 0 0 0
0.101 0.171 2.038 255 255 255
0.687 0.301 1.273 255 255 255
0.203 0.289 2.11 255 255 255
-0.306 0.079 2.785 255 255 255
0.472 -0.627 1.794 255 255 255
0.626 -0.894 1.603 255 255 255
-0.377 -0.438 2.59 255 255 255
-0.754 -1.089 2.25 255 255 255
0.13 -0.134 1.931 255 255 255
-0.183 -0.951 2.499 255 255 255
-0.005 -0.966 2.318 255 255 255
-0.391 0.038 0.716 255 255 255
-0.057 0.053 2.587 255 255 255
-1.009 -0.943 2.206 255 255 255
-0.668 -0.281 1.772 255 255 255
-0.259 0.514 1.854 255 255 255
0.732 -0.046 1.083 255 255 255
0.112 -0.66 1.735 255 255 255
0.019 0.621 1.528 255 255 255
0.49 -0.63 1.753 0 0 0
-0.223 0.377 2.124 255 255 255
-0.043 -1.638 2.326 255 255 255
-0.711 -0.286 1.746 0 0 0
-0.089 0.37 2.215 255 255 255
0.41 0.436 2.027 255 255 255
0.465 -0.05 1.915 255 255 255
-0.658 -1.025 2.303 255 255 255
0.212 0.972 2.08 255 255 255
-0.87 -1.154 2.191 255 255 255
0.176 0.701 1.333 255 255 255
0.757 -0.539 1.802 255 255 255
-0.043 -1.595 2.345 255 255 255
-0.137 0.589 1.64 255 255 255
-0.081 0.422 1.989 255 255 255
-0.405 0.051 0.65 255 255 255
-0.259 0.096 0.668 255 255 255
0.727 -0.004 1.1 255 255 255
-0.603 -0.012 0.896 255 255 255
-0.196 0.667 1.38 255 255 255
-0.593 -0.095 1.131 255 255 255
-0.896 -1.28 2.144 255 255 255
-0.708 -0.605 2.427 255 255 255
0.508 0.108 1.807 255 255 255
-0.403 -0.154 2.677 255 255 255
-0.939 -1.193 2.158 255 255 255
0.682 0.287 1.278 255 255 255
0.781 -0.18 1.103 255 255 255
-0.534 -1.265 2.271 255 255 255
0.385 -0.773 1.787 255 255 255
-0.447 -0.201 2.644 255 255 255
0.718 -0.007 1.121 255 255 255
-0.315 0.066 0.651 255 255 255
-0.104 -0.784 2.386 255 255 255
-0.775 -0.138 1.242 255 255 255
-0.356 0.688 1.31 255 255 255
0.189 -0.336 1.877 255 255 255
-0.669 -1.527 2.139 255 255 255
0.019 0.452 1.907 255 255 255
-0.966 -0.339 1.707 255 255 255
-0.061 0.419 1.993 255 255 255
0.469 -0.586 1.806 255 255 255
-1.12 -0.971 2.158 255 255 255
0.125 -0.388 1.833 255 255 255
-0.74 -0.273 2.521 255 255 255
0.491 -0.598 1.751 0 0 0
-0.554 -1.423 2.209 255 255 255
0.58 -0.86 1.596 255 255 255
0.199 0.457 1.776 255 255 255
0.013 -0.616 2.146 255 255 255
0.655 -0.174 1.285 255 255 255
-0.203 0.205 0.68 255 255 255
-0.562 -1.288 2.252 255 255 255
0.108 -0.076 1.941 255 255 255
-0.627 0.248 2.234 0 0 0
0.476 -0.6 1.784 255 255 255
-0.333 0.693 1.303 255 255 255
-0.435 0.083 0.697 0 0 0
-0.795 -1.482 2.112 255 255 255
-0.901 -0.605 2.062 255 255 255
0.522 0.39 1.829 255 255 255
-0.229 0.131 0.672 255 255 255
-0.692 -1.188 2.242 255 255 255
-0.339 0.087 0.611 255 255 255
-0.226 0.133 0.679 255 255 255
-0.844 -0.16 1.158 255 255 255
-0.152 0.486 1.817 255 255 255
-0.602 0.226 2.25 255 255 255
0.483 -0.364 1.733 0 0 0
-0.104 0.655 1.433 0 0 0
-0.68 -0.192 2.565 255 255 255
0.444 -0.781 1.838 0 0 0
0.023 0.2 2.381 255 255 255
-0.383 0.087 0.681 0 0 0
-0.357 0.046 0.678 255 255 255
0.601 -0.121 1.446 255 255 255
0.304 -0.669 1.798 255 255 255
0.737 -0.029 1.068 255 255 255
0.004 0.319 2.241 255 255 255
0.5 0.674 1.487 255 255 255
-1.055 -1.053 2.152 255 255 255
0.677 -0.042 1.235 255 255 255
0.351 -1.445 1.955 0 0 0
0.38 -0.814 1.772 255 255 255
0.341 -0.471 1.871 255 255 255
-0.589 -0.525 2.492 255 255 255
0.145 -0.35 1.856 255 255 255
-0.362 -0.281 2.652 255 255 255
-0.257 0.113 2.795 255 255 255
0.636 -1.147 1.518 0 0 0
-0.256 0.453 2.064 255 255 255
-0.244 0.117 0.641 255 255 255
0.025 0.697 1.327 255 255 255
-0.34 0.263 2.417 255 255 255
-0.609 -0.808 2.392 255 255 255
-0.513 0.179 2.593 255 255 255
-0.043 0.693 1.332 255 255 255
0.507 -0.816 1.662 0 0 0
0.548 -0.299 1.456 255 255 255
0.448 -0.751 1.828 255 255 255
-0.624 -0.258 1.896 255 255 255
0.072 -0.072 1.921 255 255 255
0.594 -0.738 1.642 255 255 255
-0.418 -0.049 1.204 255 255 255
0.515 0.425 1.844 255 255 255
0.498 -1.197 1.586 0 0 0
-1.105 -1.029 2.144 255 255 255
-0.54 -0.084 2.649 255 255 255
0.622 -0.832 1.625 255 255 255
0.61 0.105 1.459 255 255 255
0.559 0.31 1.67 255 255 255
-0.436 0.039 0.692 255 255 255
0.009 -0.797 2.243 255 255 255
-0.454 -0.175 2.653 255 255 255
-0.699 -0.077 1.084 0 0 0
-0.408 0.028 2.68 255 255 255
-0.187 -1.062 2.46 255 255 255
-0.61 -0.033 0.934 255 255 255
0.134 -0.738 1.729 255 255 255
0.422 -0.808 1.865 0 0 0
0.432 0.092 2.043 255 255 255
0.352 -0.651 1.812 0 0 0
-0.152 0.084 0.292 255 255 255
-1.025 -1.225 2.114 255 255 255
-0.113 0.47 1.847 255 255 255
0.359 0.151 2.132 255 255 255
-0.094 0.659 1.421 255 255 255
-0.386 -0.769 2.488 255 255 255
-0.949 -0.8 2.258 255 255 255
0.595 -0.137 1.462 255 255 255
-0.405 0.615 1.514 0 0 0
-0.47 -0.058 2.686 255 255 255
0.54 0.645 1.592 255 255 255
0.195 -0.468 1.842 255 255 255
0.456 0.441 2.004 255 255 255
0.402 0.395 2.081 255 255 255
-0.324 0.687 1.314 255 255 255
-0.209 -0.837 2.527 255 255 255
-0.75 -0.353 1.813 0 0 0
-0.19 0.232 0.532 255 255 255
0.451 0.09 1.996 255 255 255
0.48 0.549 1.893 255 255 255
-0.949 -1.576 2.025 255 255 255
0.546 -0.133 1.614 255 255 255
0.504 -0.021 1.795 255 255 255
-0.168 0.224 0.475 0 0 0
-0.14 0.053 0.325 0 0 0
0.216 -0.57 1.812 255 255 255
0.646 0.501 1.458 255 255 255
-0.642 -0.206 1.501 255 255 255
0.356 -0.712 1.795 0 0 0
-0.333 0.048 0.671 255 255 255
0.056 0.826 2.067 255 255 255
-0.48 -0.717 2.467 255 255 255
-0.597 -0.331 2.552 255 255 255
0.384 -1.414 1.851 255 255 255
-0.001 -0.761 2.429 255 255 255
-0.228 0.167 0.74 255 255 255
-0.239 -0.941 2.483 255 255 255
-1.275 -0.68 2.055 255 255 255
-0.153 0.059 0.303 255 255 255
0.274 -0.425 1.871 255 255 255
0.145 -0.873 1.686 255 255 255
0.614 0.639 1.538 255 255 255
-0.13 0.071 0.315 255 255 255
0.322 -0.583 1.83 255 255 255
0.511 0.528 1.842 255 255 255
0.083 0.417 2.065 0 0 0
-0.598 0.382 2.238 255 255 255
-0.266 -0.722 2.542 255 255 255
-0.272 0.023 2.779 255 255 255
-0.693 -1.21 2.238 255 255 255
0.563 0.168 1.619 255 255 255
0.677 0.262 1.286 255 255 255
-1.362 -0.597 1.976 255 255 255
0.316 0.554 1.849 255 255 255
-0.022 0.342 2.185 255 255 255
0.53 0.379 1.79 255 255 255
0.381 -1.239 1.913 0 0 0
0.441 -0.605 1.872 255 255 255
-0.147 -1.114 2.459 255 255 255
0.54 0.413 1.767 255 255 255
0.402 -0.041 2.087 255 255 255
0.118 0.536 1.872 255 255 255
-0.203 0.305 2.106 255 255 255
-0.524 -1.155 2.312 255 255 255
0.16 -0.066 1.97 255 255 255
-0.822 -0.667 2.187 255 255 255
-1.036 -0.781 2.109 255 255 255
0.535 -0.098 1.659 255 255 255
0.011 0.452 1.906 255 255 255
0.441 0.619 1.666 255 255 255
0.203 0.323 2.112 255 255 255
0.417 -0.315 1.997 255 255 255
-0.733 -0.368 2.491 255 255 255
0.737 -0.048 1.063 255 255 255
-0.534 -1.276 2.268 255 255 255
0.447 -0.968 1.793 0 0 0
-0.456 -0.496 2.548 255 255 255
-0.453 0.568 1.65 0 0 0
0.519 -0.668 1.653 255 255 255
0.558 -0.732 1.638 255 255 255
0.477 -0.931 1.708 255 255 255
0.145 -0.758 1.726 255 255 255
0.247 -0.68 1.79 255 255 255
-0.452 0.014 0.805 255 255 255
-0.017 0.41 2.01 255 255 255
-0.695 -0.365 1.833 255 255 255
0.637 0.24 1.4 255 255 255
0.315 -0.527 1.846 255 255 255
-0.192 0.68 1.343 255 255 255
0.246 -0.753 1.764 255 255 255
-0.038 -1.639 2.327 255 255 255
-0.041 -0.33 2.549 255 255 255
0.235 -0.594 1.812 255 255 255
-0.687 -1.118 2.265 255 255 255
0.687 0.323 1.283 255 255 255
0.568 0.473 1.683 255 255 255
-0.712 -0.76 2.375 255 255 255
0.266 -0.742 1.776 255 255 255
0.31 0.244 2.12 255 255 255
-0.262 0.608 1.553 255 255 255
-0.764 -0.099 2.573 255 255 255
-1.263 -0.563 2.108 0 0 0
-0.409 0.619 1.503 0 0 0
-0.27 0.089 0.672 255 255 255
-0.774 -0.163 1.328 255 255 255
0.279 0.998 2.108 255 255 255
0.13 0.017 1.992 255 255 255
0.669 0.075 1.279 255 255 255
-0.935 -0.801 2.153 255 255 255
0.798 -0.471 1.884 255 255 255
-0.381 0.58 1.63 255 255 255
-1.108 -0.726 2.102 255 255 255
-0.161 0.69 1.325 255 255 255
-0.667 -0.091 1.076 255 255 255
0.209 -0.541 1.821 255 255 255
0.612 0.043 1.441 255 255 255
-0.597 -0.05 0.995 255 255 255
0.708 -0.273 1.345 255 255 255
0.484 0.261 1.93 255 255 255
-0.013 0.662 1.428 255 255 255
0.538 -0.07 1.647 255 255 255
-0.554 0.059 2.615 255 255 255
0.078 -1.091 2.312 255 255 255
0.662 0.188 1.317 255 255 255
0.24 -0.556 1.829 255 255 255
-0.304 -0.594 2.572 255 255 255
-0.756 -0.103 1.082 255 255 255
0.369 -0.665 1.813 255 255 255
-1.187 -0.639 2.102 0 0 0
0.473 -0.696 1.779 255 255 255
0.686 0.13 1.235 255 255 255
-0.545 -0.675 2.461 255 255 255
-0.243 0.11 0.757 255 255 255
-0.364 0.537 1.772 255 255 255
-0.209 -0.42 2.656 255 255 255
-0.169 0.049 0.323 255 255 255
-0.917 -1.004 2.22 255 255 255
0.623 -0.058 1.396 255 255 255
0.684 0.049 1.235 255 255 255
0.154 -1.025 1.648 255 255 255
-0.161 0.069 0.296 255 255 255
0.684 0.259 1.267 255 255 255
0.583 0.074 1.532 255 255 255
0.603 -0.625 1.689 255 255 255
0.616 -0.044 1.411 255 255 255
-0.175 0.342 2.122 255 255 255
0.29 0.038 2.048 255 255 255
-0.328 0.085 0.642 255 255 255
-0.304 0.075 0.694 255 255 255
0.114 -0.126 1.923 255 255 255
-0.01 -1.043 2.293 255 255 255
-0.381 0.256 2.393 255 255 255
-0.534 -1.16 2.308 255 255 255
-0.104 -0.703 2.41 255 255 255
-0.416 -0.498 2.562 255 255 255
0.608 0.161 1.468 255 255 255
0.345 -0.629 1.819 255 255 255
-0.448 -0.883 2.427 255 255 255
0.187 0.099 2.04 255 255 255
-0.804 -0.606 2.391 255 255 255
0.48 0.233 1.935 255 255 255
-0.842 -0.685 2.194 0 0 0
-0.14 0.127 0.312 255 255 255
-0.563 -1.163 2.298 255 255 255
0.533 -1.098 1.521 0 0 0
-1.072 -1.277 2.073 255 255 255
-1.118 -0.735 2.097 255 255 255
0.858 -0.45 1.889 255 255 255
0.55 -0.825 1.61 255 255 255
0.356 0.63 1.638 255 255 255
0.07 0.449 1.943 255 255 255
-0.509 0.436 1.972 0 0 0
0.445 -0.471 1.893 255 255 255
-0.13 0.192 0.385 255 255 255
0.665 0.363 1.347 255 255 255
-0.38 0.019 0.804 255 255 255
-0.084 0.205 2.625 255 255 255
-0.111 -0.417 2.511 255 255 255
0.075 -0.489 2.187 255 255 255
0.414 0.686 1.465 255 255 255
0.551 0.172 1.658 255 255 255
0.51 -0.259 1.734 255 255 255
0.043 -0.976 2.329 255 255 255
0.321 -0.754 1.78 255 255 255
-0.771 -0.894 2.311 255 255 255
0.669 -0.038 1.262 255 255 255
-0.364 -1.333 2.315 255 255 255
0.748 0.022 1.047 255 255 255
-0.61 -0.127 1.241 0 0 0
-0.798 -1.143 2.221 255 255 255
0.594 0.647 1.565 255 255 255
-0.206 0.62 1.525 255 255 255
-0.199 0.331 2.104 255 255 255
-0.142 0.088 0.295 255 255 255
-0.732 -0.088 1.039 255 255 255
-0.36 0.047 0.668 255 255 255
0.423 -0.193 1.997 255 255 255
-0.237 0.345 2.139 255 255 255
-0.23 -0.404 2.658 255 255 255
-0.755 0.127 2.563 0 0 0
-0.44 0.381 2.075 255 255 255
0.682 -0.007 1.233 255 255 255
-0.459 -1.464 2.238 255 255 255
-0.266 0.091 0.667 255 255 255
-0.279 -0.897 2.483 255 255 255
-0.019 0.643 1.487 255 255 255
-0.08 -1.484 2.361 255 255 255
0.408 -1.317 1.825 0 0 0
0.52 0.415 1.833 255 255 255
-0.022 -1.735 2.302 255 255 255
-0.045 -0.024 2.488 255 255 255
0.598 0.48 1.592 255 255 255
0.535 0.698 1.434 255 255 255
0.656 0.023 1.301 255 255 255
0.617 -0.714 1.659 255 255 255
-0.632 0.243 2.236 0 0 0
0.497 0.31 1.883 255 255 255
0.569 -0.983 1.562 255 255 255
0.607 0.247 1.499 255 255 255
-0.728 -1.344 2.18 255 255 255
-0.403 0.53 1.796 255 255 255
0.139 0.473 2.083 0 0 0
0.238 -0.914 1.707 255 255 255
0.678 0.113 1.257 255 255 255
-0.132 0.191 0.373 255 255 255
0.066 0.689 1.349 255 255 255
-0.226 0.701 1.289 255 255 255
0.579 -0.429 1.737 0 0 0
0.507 -0.642 1.671 0 0 0
-0.399 0.089 0.665 255 255 255
-0.395 0.66 1.381 255 255 255
0.639 0.004 1.353 255 255 255
-0.135 0.103 0.311 255 255 255
-1.181 -0.629 2.103 0 0 0
0.372 -0.983 1.712 255 255 255
-0.462 0.035 0.707 255 255 255
-0.795 -0.592 2.4 255 255 255
-0.197 0.219 0.507 255 255 255
-0.625 -0.464 2.497 255 255 255
0.089 -1.14 2.341 0 0 0
-0.279 0.443 2.078 255 255 255
0.114 0.04 1.992 255 255 255
-0.126 0.111 0.327 0 0 0
0.536 -0.255 1.649 255 255 255
0.277 -0.839 1.745 255 255 255
-0.649 -1.075 2.292 255 255 255
-0.975 -1.5 2.041 0 0 0
-0.061 -0.56 2.482 255 255 255
0.612 0.378 1.512 255 255 255
-1.207 -0.712 2.07 255 255 255
-0.155 -0.351 2.669 255 255 255
-0.588 0.235 2.252 255 255 255
0.567 -0.214 1.535 255 255 255
0.599 -0.157 1.446 255 255 255
-0.746 -0.952 2.299 255 255 255
-0.042 -0.087 2.341 255 255 255
-0.189 0.537 1.765 0 0 0
0.562 0.076 1.59 255 255 255
-0.279 0.088 0.649 255 255 255
-0.436 -0.71 2.485 255 255 255
0.334 0.263 2.134 255 255 255
0.194 -0.132 1.952 255 255 255
0.587 0.109 1.531 255 255 255
0.693 0.151 1.223 255 255 255
0.198 0.432 2.091 255 255 255
1.232 -0.396 1.986 255 255 255
-0.401 -0.518 2.559 255 255 255
0.585 0.349 1.591 255 255 255
0.586 -0.633 1.671 255 255 255
-0.255 0.1 0.707 255 255 255
0.67 0.05 1.27 255 255 255
0.514 -0.333 1.641 0 0 0
0.126 0.537 1.875 255 255 255
-0.111 -1.495 2.346 255 255 255
-0.018 0.33 2.195 255 255 255
0.745 -0.069 1.042 255 255 255
0.124 -1.652 2.375 255 255 255
0.184 -0.206 1.919 255 255 255
-0.435 -0.75 2.473 255 255 255
0.008 -0.573 2.156 255 255 255
-0.144 0.055 0.317 0 0 0
-0.527 0.121 2.584 255 255 255
0.18 0.14 2.053 255 255 255
-0.001 0.015 2.394 255 255 255
-0.703 -1.174 2.246 255 255 255
-0.143 0.054 0.318 0 0 0
-0.731 -1.136 2.247 255 255 255
-0.066 0.506 1.794 255 255 255
0.661 0.376 1.366 255 255 255
0.669 0.073 1.279 255 255 255
0.86 -0.517 1.851 255 255 255
0.163 -0.1 1.955 255 255 255
0.707 -0.152 1.008 255 255 255
0.515 -0.653 1.656 255 255 255
-0.081 0.644 1.473 255 255 255
0.572 -0.219 1.522 255 255 255
-0.269 -0.086 2.742 255 255 255
-0.437 -1.61 2.201 0 0 0
-0.07 -0.821 2.385 255 255 255
-0.072 0.565 1.738 255 255 255
0.663 -0.182 1.113 0 0 0
-0.971 -0.53 1.997 255 255 255
-0.494 -1.213 2.302 255 255 255
0.342 0.591 1.748 255 255 255
0.51 -0.684 1.657 0 0 0
-0.006 0.69 1.345 255 255 255
0.276 -0.244 1.936 255 255 255
-0.223 0.132 0.682 255 255 255
-0.069 0.611 1.575 255 255 255
0.588 -1.102 1.521 0 0 0
0.08 -0.789 2.449 0 0 0
0.05 -0.83 2.225 255 255 255
0.044 -0.428 2.201 255 255 255
-0.005 -0.039 2.226 255 255 255
-0.443 0.58 1.621 0 0 0
-0.83 -1.478 2.107 255 255 255
0.223 -1.021 1.667 255 255 255
-0.456 0.502 1.878 255 255 255
-0.749 -0.115 1.11 255 255 255
0.299 -0.932 1.711 255 255 255
0.084 -0.814 1.732 255 255 255
-0.04 -0.701 2.44 255 255 255
0.449 0.393 2.019 255 255 255
-0.564 -0.386 2.542 255 255 255
-0.707 -1.207 2.23 255 255 255
-0.316 0.57 1.665 255 255 255
0.633 0.651 1.488 0 0 0
-0.4 0.581 1.619 255 255 255
0.022 0.514 1.852 255 255 255
-0.389 -0.006 0.98 255 255 255
-0.489 -0.277 2.605 255 255 255
0.498 0.057 1.826 255 255 255
-0.266 -0.762 2.531 255 255 255
0.668 -0.116 1.252 255 255 255
-0.779 -1.431 2.136 255 255 255
0.567 0.647 1.582 255 255 255
-0.165 0.053 0.309 255 255 255
-0.766 -0.415 1.824 255 255 255
-0.634 0.123 2.606 255 255 255
-0.187 -1.005 2.476 255 255 255
0.619 -0.153 1.39 255 255 255
0.632 0.536 1.487 255 255 255
-0.556 -0.061 1.053 255 255 255
-0.496 -0.005 0.908 255 255 255
-0.167 0.465 1.906 255 255 255
-1.15 -1.192 2.075 255 255 255
0.117 -0.222 1.891 255 255 255
0.653 0.302 1.367 255 255 255
-0.189 -0.84 2.535 255 255 255
-0.189 0.212 0.567 255 255 255
-0.139 0.567 1.727 255 255 255
-1.093 -0.298 1.439 255 255 255
-0.045 -1.025 2.327 255 255 255
0.696 0.226 1.232 255 255 255
0.676 0.501 1.373 255 255 255
0.629 0.012 1.382 255 255 255
0.392 -0.404 1.965 255 255 255
-0.4 -0.217 2.655 255 255 255
-0.127 0.703 1.296 255 255 255
-0.094 -0.818 2.377 255 255 255
-0.46 -0.273 2.619 255 255 255
0.203 -0.776 1.744 255 255 255
-0.5 0.413 2.141 255 255 255
-0.094 -0.871 2.362 255 255 255
-0.244 -0.844 2.511 255 255 255
-0.817 -0.726 2.344 255 255 255
0.67 0.201 1.299 255 255 255
0.535 -0.016 1.672 255 255 255
0.601 0.62 1.571 255 255 255
0.042 -1.627 2.361 255 255 255
0.611 -0.104 1.421 255 255 255
-1.293 -0.776 2.014 255 255 255
-0.759 -0.359 1.802 255 255 255
-0.164 -0.683 2.586 255 255 255
-0.256 0.505 1.867 0 0 0
-0.284 -1.271 2.367 255 255 255
0.41 0.669 1.537 255 255 255
0.025 -0.371 2.156 255 255 255
-0.536 -1.376 2.239 255 255 255
0.843 -0.507 1.847 255 255 255
0.928 -0.484 1.885 255 255 255
0.611 0.209 1.472 255 255 255
0.009 0.177 2.388 255 255 255
-0.274 0.643 1.455 0 0 0
-0.804 -1.455 2.119 255 255 255
-0.247 0.698 1.293 255 255 255
-0.651 -0.259 1.902 255 255 255
-0.533 0.385 2.132 255 255 255
0.626 -0.37 1.659 255 255 255
-0.192 0.273 0.592 0 0 0
-0.524 0.493 1.894 0 0 0
-0.575 -0.036 0.959 0 0 0
0.24 0.684 1.41 255 255 255
0.168 -0.913 1.678 255 255 255
-0.144 0.099 0.296 255 255 255
-0.863 -0.155 1.15 255 255 255
0.516 -0.866 1.607 0 0 0
0.161 -0.05 1.977 255 255 255
-1.001 -0.736 2.137 255 255 255
0.587 0.039 1.516 255 255 255
0.683 -0.126 1.207 255 255 255
0.678 -0.16 1.196 0 0 0
-0.976 -0.351 1.706 255 255 255
-0.391 -0.703 2.503 255 255 255
0.849 -0.54 1.843 255 255 255
-0.654 -0.254 1.715 255 255 255
0.59 -0.012 1.498 255 255 255
-0.919 -1.453 2.075 255 255 255
0.41 0.46 1.963 255 255 255
0.347 0.162 2.109 255 255 255
0.694 -0.163 1.105 0 0 0
-0.536 -0.352 2.565 255 255 255
0.142 -0.6 1.775 255 255 255
-0.85 -1.149 2.197 255 255 255
0 0.64 1.497 255 255 255
-0.739 -0.145 2.564 255 255 255
0.563 0.286 1.651 255 255 255
-0.797 -0.109 2.555 0 0 0
-0.767 -0.099 1.017 255 255 255
-1.002 -0.306 1.709 255 255 255
-0.522 -0.778 2.432 255 255 255
-0.228 0.122 0.718 255 255 255
-1.279 -0.671 2.054 255 255 255
0.059 0.088 1.988 255 255 255
0.435 0.617 1.672 255 255 255
0.065 -0.076 1.925 255 255 255
-0.139 0.109 0.303 255 255 255
0.522 -0.055 1.712 255 255 255
0.248 -0.582 1.821 255 255 255
-0.674 -0.103 1.112 255 255 255
-0.626 -0.137 1.254 255 255 255
-0.143 0.064 0.304 255 255 255
-0.547 -1.081 2.322 255 255 255
-0.407 -1.248 2.323 255 255 255
0.093 0.548 1.832 255 255 255
-0.368 -1.238 2.343 255 255 255
-1.063 -1.337 2.066 255 255 255
-0.324 0.674 1.35 255 255 255
0.714 0.001 1.14 255 255 255
-0.515 -0.967 2.377 255 255 255
-0.334 0.062 0.652 0 0 0
-0.139 0.609 1.575 255 255 255
0.406 -1.289 1.826 255 255 255
-0.305 0.545 1.754 255 255 255
0.528 0.236 1.761 255 255 255
0.656 0.08 1.312 255 255 255
0.493 0.072 1.854 255 255 255
0.262 -0.726 1.78 255 255 255
0.677 0.23 1.283 255 255 255
0.191 0.372 2.072 255 255 255
-0.366 0.678 1.343 255 255 255
-0.254 -0.037 2.768 255 255 255
-0.03 0.209 2.482 255 255 255
0.268 0.973 2.1 255 255 255
0.419 -0.438 1.968 0 0 0
-0.142 -1.465 2.349 255 255 255
-0.038 -1.608 2.343 255 255 255
0.571 0.197 1.597 255 255 255
0.702 0.278 1.225 255 255 255
-0.035 -1.164 2.286 255 255 255
0.4 -1.25 1.833 255 255 255
0.234 0.58 1.773 255 255 255
0.633 -1 1.56 255 255 255
0.399 -0.423 1.977 255 255 255
-0.163 0.5 1.81 255 255 255
-0.697 -0.02 2.614 255 255 255
0.352 -0.7 1.797 255 255 255
-0.2 0.17 0.57 255 255 255
-0.303 0.087 0.641 255 255 255
0.505 -1.212 1.556 255 255 255
-0.055 -1.168 2.295 255 255 255
-0.053 0.644 1.474 255 255 255
-0.755 -0.971 2.289 255 255 255
0.57 -0.015 1.555 255 255 255
0.639 -1.157 1.51 0 0 0
-0.143 0.656 1.426 0 0 0
-0.169 0.206 0.436 0 0 0
-0.435 0.135 2.574 255 255 255
-0.965 -1.445 2.069 255 255 255
0.626 0.163 1.414 255 255 255
0.671 -0.04 1.254 255 255 255
0.63 0.611 1.499 255 255 255
-0.296 -1.567 2.261 255 255 255
0.428 -0.283 1.972 255 255 255
0.617 -0.132 1.396 255 255 255
0.583 -0.137 1.493 255 255 255
-0.385 0.008 0.857 255 255 255
0.223 0.322 2.102 255 255 255
0.414 -0.812 1.843 0 0 0
0.285 -0.648 1.799 255 255 255
-0.141 0.066 0.304 0 0 0
-0.112 -1.055 2.406 255 255 255
0.059 -1.641 2.361 255 255 255
0.411 0.568 1.83 255 255 255
0.675 0.13 1.269 255 255 255
-0.417 -0.175 2.662 255 255 255
0.71 0.052 1.153 255 255 255
0.389 -0.303 2.002 255 255 255
-1.368 -0.572 1.971 255 255 255
-0.57 0.07 2.61 255 255 255
-1.376 -0.581 1.964 255 255 255
-0.114 -0.209 2.578 255 255 255
0.551 -0.191 1.592 255 255 255
0.136 -0.212 1.903 255 255 255
1.427 -0.639 2.418 255 255 255
0.64 -0.23 1.249 255 255 255
-0.624 0.006 0.84 255 255 255
-0.124 0.08 0.321 255 255 255
0.034 0.288 2.18 255 255 255
0.628 0.045 1.393 255 255 255
-0.181 -0.195 2.737 255 255 255
-0.827 -0.939 2.273 255 255 255
0.365 0.366 2.097 255 255 255
0.416 0.332 2.095 255 255 255
0.12 0.279 2.077 255 255 255
0.397 0.618 1.683 255 255 255
0.114 -0.163 1.911 255 255 255
0.73 -0.121 1.036 255 255 255
-0.821 -0.724 2.229 0 0 0
0.665 -0.112 1.264 255 255 255
0.643 0.253 1.383 255 255 255
0.128 -0.054 1.959 255 255 255
0.69 0.339 1.26 255 255 255
-0.669 -0.027 0.936 0 0 0
0.098 0.574 1.706 255 255 255
-0.456 0.026 0.761 255 255 255
0.196 0.12 2.051 255 255 255
0.026 0.696 1.331 255 255 255
-0.3 -1.56 2.26 255 255 255
-0.348 0.098 0.594 0 0 0
0.237 -1.015 1.663 255 255 255
0.545 0.631 1.637 255 255 255
0.522 -0.65 1.657 255 255 255
-0.432 0.259 2.464 255 255 255
-0.427 0.229 2.463 255 255 255
0.605 -0.051 1.442 255 255 255
-0.435 -0.024 0.95 255 255 255
0.267 -0.535 1.836 255 255 255
-1.095 -1.31 2.06 255 255 255
-0.672 -0.78 2.379 255 255 255
-1.097 -1.056 2.131 255 255 255
0.026 0.476 1.889 255 255 255
-0.055 -0.872 2.365 255 255 255
-0.075 0.326 2.321 255 255 255
0.446 -0.477 1.882 255 255 255
-0.147 0.052 0.318 0 0 0
0.304 -0.654 1.801 255 255 255
-0.251 0.552 1.734 255 255 255
-1.308 -0.636 2.061 255 255 255
-0.38 0.246 2.387 255 255 255
-0.902 -0.186 1.381 255 255 255
0.316 0.275 2.129 255 255 255
-0.949 -0.882 2.251 255 255 255
0.714 -0.035 1.13 255 255 255
0.242 -0.961 1.695 255 255 255
0.513 0.2 1.805 255 255 255
-0.203 -0.092 2.744 255 255 255
0.264 0.657 1.496 255 255 255
0.473 0.426 1.952 255 255 255
-0.858 -1.352 2.13 255 255 255
0.617 0.131 1.435 255 255 255
-0.334 -0.059 2.734 255 255 255
-0.174 0.501 1.802 255 255 255
-1.087 -0.279 1.558 255 255 255
0.058 0.496 1.919 255 255 255
-0.622 -0.02 0.929 255 255 255
0.559 -0.276 1.393 0 0 0
-0.774 -0.646 2.39 255 255 255
-0.43 0.062 0.646 255 255 255
-0.154 -1.664 2.281 0 0 0
-0.859 -1.594 2.057 255 255 255
-0.489 -0.424 2.56 255 255 255
0.011 0.685 1.356 255 255 255
0.485 -0.952 1.685 255 255 255
-0.031 -0.59 2.475 255 255 255
0.475 -0.758 1.755 255 255 255
-0.316 0.703 1.273 255 255 255
-0.263 0.099 0.693 255 255 255
-0.147 0.379 2.14 255 255 255
-0.317 0.04 0.832 255 255 255
-0.31 0.604 1.565 255 255 255
0.275 -0.521 1.841 255 255 255
-0.708 -1.504 2.136 255 255 255
0.141 -0.372 1.847 255 255 255
-0.35 0.422 2.07 255 255 255
0.027 -0.88 2.223 255 255 255
0.546 -0.242 1.605 255 255 255
0.612 -0.005 1.434 255 255 255
-0.334 0.024 0.798 0 0 0
0.281 -0.451 1.864 255 255 255
0.484 -1.128 1.642 255 255 255
-0.259 -0.257 2.692 255 255 255
0.446 -0.774 1.831 0 0 0
0.43 -0.441 1.942 255 255 255
0.595 -0.012 1.483 255 255 255
-0.661 -0.033 0.893 0 0 0
-0.045 0.066 2.499 255 255 255
-0.71 -0.148 1.283 255 255 255
-0.246 -1.637 2.258 0 0 0
0.24 0.575 1.795 255 255 255
0.233 -1.023 1.661 255 255 255
0.382 0.4 2.068 255 255 255
-0.72 -1.553 2.119 0 0 0
-0.542 0.018 0.782 255 255 255
-0.193 -1.332 2.371 255 255 255
0.663 -0.191 1.194 0 0 0
0.717 -0.109 1.111 255 255 255
-0.939 -0.81 2.135 255 255 255
0.554 0.211 1.664 255 255 255
-0.516 0.505 1.862 0 0 0
-0.924 -0.334 1.765 0 0 0
-0.129 0.088 0.301 255 255 255
-0.392 0.043 0.687 255 255 255
0.561 -0.445 1.729 255 255 255
-0.104 0.491 1.811 255 255 255
-0.319 0.046 0.771 0 0 0
0.539 0.609 1.697 255 255 255
-0.306 0.558 1.709 255 255 255
-0.175 0.582 1.649 255 255 255
0.148 0.228 2.067 255 255 255
-0.446 -1.071 2.365 255 255 255
0.631 0.613 1.493 255 255 255
-0.152 -0.867 2.534 255 255 255
-0.676 0.133 2.597 255 255 255
-0.508 -1.531 2.194 255 255 255
-0.934 -0.32 1.776 0 0 0
-0.485 -1.088 2.346 255 255 255
-0.192 0.186 0.58 255 255 255
0.018 -0.25 2.333 255 255 255
-1.205 -0.744 2.059 255 255 255
-0.303 -1.153 2.393 255 255 255
-0.67 -1.539 2.137 255 255 255
-1.133 -0.68 2.108 0 0 0
0.091 -0.771 1.74 255 255 255
0.739 -0.091 1.05 255 255 255
0.019 -1.003 2.315 255 255 255
0.095 -0.369 1.817 255 255 255
0.035 -0.061 2.217 255 255 255
0.455 -0.327 1.888 255 255 255
-0.059 -1.585 2.34 255 255 255
0.615 0.328 1.493 255 255 255
0.133 -0.038 1.968 255 255 255
-1.096 -1.196 2.092 255 255 255
-0.282 0.6 1.578 255 255 255
0.261 -0.511 1.85 255 255 255
0.629 0.657 1.495 0 0 0
0.62 -0.695 1.661 255 255 255
-1.057 -1.202 2.105 255 255 255
-0.121 -0.009 2.637 255 255 255
0.116 -0.546 1.778 255 255 255
-0.824 -0.261 2.493 255 255 255
-0.355 0.693 1.294 255 255 255
0.174 -0.28 1.889 255 255 255
0.147 0.4 2.086 255 255 255
0.612 -0.104 1.417 255 255 255
0.621 0.004 1.408 255 255 255
0.592 -0.239 1.438 0 0 0
-0.363 -1.209 2.357 255 255 255
-1.365 -0.605 1.969 255 255 255
-0.427 0.035 0.721 255 255 255
-0.466 -1.02 2.377 255 255 255
0.638 0.52 1.479 255 255 255
-0.956 -0.687 2.153 255 255 255
-0.388 0.028 0.765 255 255 255
-0.709 -1.335 2.189 255 255 255
-1.273 -0.653 2.067 255 255 255
-0.205 -0.655 2.584 255 255 255
-0.425 0.601 1.558 0 0 0
-0.31 0.051 0.903 255 255 255
-0.916 -0.361 1.745 255 255 255
0.466 0.021 1.938 255 255 255
-0.654 -0.042 0.919 255 255 255
-0.515 -1.037 2.355 255 255 255
0.09 0.589 1.684 255 255 255
-0.645 -0.567 2.456 255 255 255
-0.46 0.013 0.812 255 255 255
-0.753 -0.554 2.425 255 255 255
-1.101 -0.565 2.004 255 255 255
-0.272 -0.6 2.576 255 255 255
0.51 -0.336 1.677 0 0 0
0.463 -0.711 1.799 255 255 255
-0.811 -0.153 1.123 255 255 255
0.621 0.164 1.433 255 255 255
0.726 0.138 1.128 255 255 255
0.348 0.063 2.07 255 255 255
0.449 -1.249 1.729 0 0 0
-0.455 -0.242 2.627 255 255 255
0.489 -0.537 1.77 0 0 0
0.01 -1.537 2.371 255 255 255
-0.451 0.043 0.666 255 255 255
-0.579 0.054 2.605 255 255 255
0.515 -0.844 1.614 0 0 0
0.719 -0.084 1.111 255 255 255
0.017 -0.545 2.174 255 255 255
-0.576 -1.054 2.321 255 255 255
0.611 0.083 1.447 255 255 255
0.497 -0.84 1.678 255 255 255
-0.094 0.68 1.364 255 255 255
0.665 -0.057 1.273 255 255 255
0.472 0.715 1.355 255 255 255
-0.265 -0.797 2.517 255 255 255
-0.152 0.667 1.391 255 255 255
0.178 0.587 1.73 255 255 255
0.327 -0.115 1.992 255 255 255
0.418 -0.186 2.011 255 255 255
-0.731 -0.739 2.373 255 255 255
-0.383 0.049 0.653 255 255 255
-0.709 -1.51 2.135 255 255 255
0.414 0.193 2.117 255 255 255
-0.515 -0.972 2.375 255 255 255
0.258 -0.913 1.721 255 255 255
0.518 -0.766 1.622 255 255 255
-0.02 -1.137 2.302 255 255 255
-0.514 -1.348 2.248 255 255 255
0.719 -0.017 1.118 255 255 255
0.103 -0.107 1.93 255 255 255
0.584 0.42 1.627 255 255 255
-1.019 -0.745 2.127 255 255 255
-0.48 -0.514 2.532 255 255 255
0.052 -0.54 2.17 255 255 255
0.585 0.327 1.583 255 255 255
0.338 0.192 2.109 255 255 255
0.489 -0.521 1.772 0 0 0
-0.151 0.08 0.294 255 255 255
0.524 -0.066 1.705 255 255 255
0.012 0.626 1.523 255 255 255
-0.405 -0.027 1.02 255 255 255
-0.401 0.58 1.626 255 255 255
-0.965 -0.406 1.736 255 255 255
-0.881 -1.175 2.184 255 255 255
0.127 -0.625 1.758 255 255 255
-0.848 -0.578 2.218 0 0 0
-0.282 0.647 1.447 0 0 0
-0.074 0.491 1.812 255 255 255
-0.833 -0.798 2.174 0 0 0
0.516 -0.053 1.743 255 255 255
0.74 -0.091 1.047 255 255 255
0.146 -0.744 1.731 255 255 255
0.538 0.676 1.485 255 255 255
0.042 -1.657 2.353 255 255 255
-0.155 0.08 0.294 255 255 255
0.149 -0.894 1.684 255 255 255
0.821 -0.475 1.895 255 255 255
0.731 0.068 1.1 255 255 255
0.533 -0.228 1.654 255 255 255
-0.148 0.087 0.293 255 255 255
0.494 0.578 1.796 255 255 255
0.528 -0.113 1.683 255 255 255
0.598 -0.118 1.455 255 255 255
0.37 -0.636 1.825 255 255 255
-0.259 -0.268 2.691 255 255 255
0.098 0.231 2.058 255 255 255
-0.237 0.112 0.729 255 255 255
0.249 -0.19 1.949 255 255 255
0.63 -1.016 1.558 255 255 255
0.588 -0.617 1.681 255 255 255
0.504 0.268 1.865 255 255 255
-0.16 0.067 0.296 255 255 255
-0.818 -0.92 2.284 255 255 255
-0.064 0.604 1.604 255 255 255
-0.138 0.088 0.295 255 255 255
-0.535 -0.173 2.622 255 255 255
0.297 -0.62 1.811 255 255 255
0.683 0.335 1.285 255 255 255
-0.138 0.116 0.306 255 255 255
-0.278 -1.124 2.41 255 255 255
-0.214 0.699 1.287 255 255 255
-0.055 -0.976 2.34 0 0 0
-0.23 0.664 1.391 255 255 255
-0.501 -0.668 2.48 255 255 255
0.634 -0.068 1.355 255 255 255
-0.07 -0.645 2.447 255 255 255
-0.169 -1.657 2.28 0 0 0
-0.796 -0.164 1.327 255 255 255
0.249 -1.557 2.28 255 255 255
0.708 0.089 1.165 255 255 255
-0.34 -0.546 2.572 255 255 255
-0.519 -1.036 2.353 255 255 255
-0.636 -0.077 1.059 255 255 255
0.483 -0.688 1.757 0 0 0
0.437 0.079 2.028 255 255 255
0.104 0.926 2.062 255 255 255
-0.401 0.257 2.399 255 255 255
-0.332 0.038 1.015 255 255 255
0.273 0.687 1.406 255 255 255
-0.702 -0.171 1.343 255 255 255
-0.179 -0.691 2.577 255 255 255
0.675 0.11 1.265 255 255 255
0.034 -1.025 2.314 255 255 255
0.27 -1.532 2.241 255 255 255
-0.076 0.585 1.662 255 255 255
0.407 0.476 1.946 255 255 255
-0.153 -0.641 2.597 255 255 255
-1.358 -0.581 2.037 0 0 0
-0.2 0.365 2.106 255 255 255
-0.005 -0.238 2.355 255 255 255
0.056 0.899 2.047 255 255 255
-0.437 -0.994 2.399 255 255 255
-0.635 -1.509 2.158 255 255 255
0.012 0.646 1.478 255 255 255
0.283 -0.55 1.832 255 255 255
-0.428 0.022 0.78 255 255 255
0.166 -0.305 1.879 255 255 255
0.488 -0.262 1.809 255 255 255
0.526 0.089 1.724 255 255 255
-0.834 -0.782 2.317 255 255 255
-0.854 -1.579 2.066 255 255 255
-0.429 -0.268 2.629 255 255 255
0.588 0.333 1.579 255 255 255
0.46 0.217 2.007 255 255 255
-0.117 0.585 1.65 255 255 255
0.614 0.104 1.444 255 255 255
0.65 -0.327 1.525 255 255 255
-0.678 -1.288 2.21 255 255 255
0.535 -0.444 1.731 255 255 255
-0.401 -0.677 2.506 255 255 255
0.008 -0.481 2.193 255 255 255
0.54 0.275 1.721 255 255 255
0.429 -0.683 1.891 0 0 0
0.436 -0.432 1.917 255 255 255
-0.196 0.523 1.796 0 0 0
-0.696 -0.659 2.413 255 255 255
-0.757 -0.109 2.569 255 255 255
-0.143 0.058 0.311 0 0 0
-0.372 0 0.994 255 255 255
0.11 -0.433 1.815 255 255 255
0.114 0.588 1.679 255 255 255
-0.511 0.012 2.673 0 0 0
0.437 -1.202 1.756 255 255 255
0.373 0.291 2.181 255 255 255
-0.138 0.067 0.307 255 255 255
-0.232 0.451 1.999 255 255 255
0.554 -0.739 1.635 255 255 255
-0.137 -1.384 2.377 255 255 255
0.046 -0.354 2.131 255 255 255
0.584 -0.018 1.516 255 255 255
-0.586 -1.113 2.299 255 255 255
-0.136 -0.746 2.54 255 255 255
-0.028 0.432 1.977 255 255 255
-0.4 -0.03 1.144 255 255 255
0.617 0.16 1.448 255 255 255
0.724 0.122 1.122 255 255 255
-0.227 -0.593 2.598 255 255 255
-0.589 -0.045 0.973 255 255 255
-1.331 -0.694 2.028 255 255 255
0.441 -0.913 1.823 0 0 0
0.482 -0.813 1.734 255 255 255
-0.146 0.091 0.291 255 255 255
-0.132 0.092 0.295 255 255 255
-0.085 0.407 1.998 255 255 255
0.03 -0.494 2.19 255 255 255
-0.979 -0.737 2.147 255 255 255
-0.158 0.069 0.296 255 255 255
0.236 -0.324 1.895 255 255 255
0.719 0.19 1.159 255 255 255
-1.018 -0.649 2.031 255 255 255
-0.607 0.212 2.251 255 255 255
-0.329 0.643 1.446 0 0 0
0.292 -1.594 2.175 0 0 0
-0.174 -0.738 2.567 255 255 255
-0.827 -1.181 2.198 255 255 255
-0.65 -0.087 1.098 255 255 255
-0.248 0.146 0.828 255 255 255
0.733 -0.112 1.041 0 0 0
-0.412 0.058 0.649 255 255 255
-0.05 -0.747 2.418 255 255 255
0.654 0.394 1.392 255 255 255
-0.71 -0.057 2.6 255 255 255
-0.383 0.565 1.675 255 255 255
-0.387 0.123 2.645 255 255 255
-0.515 -0.409 2.558 255 255 255
0.508 0.67 1.503 0 0 0
0.138 0.155 2.037 255 255 255
0.191 -0.751 1.746 255 255 255
0.594 -0.439 1.746 255 255 255
-0.461 0.006 0.844 255 255 255
-0.66 0.059 2.578 255 255 255
-0.497 -0.132 2.652 255 255 255
0.414 0.558 1.864 255 255 255
-0.147 -1.067 2.473 255 255 255
-0.741 -0.623 2.41 255 255 255
0.465 0.61 1.692 255 255 255
0.303 -0.853 1.735 255 255 255
-0.746 -1.489 2.125 255 255 255
0.518 0.439 1.821 255 255 255
0.135 -1.058 1.687 0 0 0
-0.957 -0.866 2.249 255 255 255
-0.143 0.181 0.353 255 255 255
0.444 -0.447 1.894 255 255 255
-0.427 0.085 0.706 0 0 0
-0.82 -0.723 2.212 0 0 0
0.308 0.05 2.053 255 255 255
0.367 -0.351 1.924 255 255 255
-0.284 -1.444 2.297 255 255 255
0.611 0.264 1.483 255 255 255
-0.103 -0.132 2.58 255 255 255
-0.201 0.167 0.575 255 255 255
0.597 -0.128 1.459 255 255 255
-0.905 -1.21 2.165 255 255 255
-0.178 -1.429 2.343 255 255 255
0.519 -1.033 1.553 0 0 0
-0.09 -0.629 2.446 255 255 255
-0.248 -1.371 2.338 255 255 255
-0.359 0.098 0.594 255 255 255
-0.441 -0.007 0.922 255 255 255
-0.324 -0.015 2.744 255 255 255
0.328 -0.389 1.899 255 255 255
-0.943 -1.218 2.147 255 255 255
-0.317 -1.669 2.218 0 0 0
0.088 -0.726 1.749 255 255 255
-0.263 -1.152 2.407 255 255 255
0.555 -0.157 1.586 255 255 255
-0.765 -0.417 2.466 255 255 255
-0.129 0.677 1.363 255 255 255
-0.077 -0.444 2.522 255 255 255
0.61 0.049 1.446 255 255 255
0.385 -0.384 1.95 255 255 255
0.656 -0.16 1.281 255 255 255
-0.219 -0.969 2.483 255 255 255
0.458 0.275 2.016 255 255 255
0.626 -1.027 1.563 255 255 255
-0.735 -0.363 1.807 255 255 255
0.241 0.255 2.113 255 255 255
-0.541 -0.797 2.42 255 255 255
0.4 -0.65 1.874 0 0 0
0.541 0.396 1.758 255 255 255
0.619 -0.038 1.404 255 255 255
-1.353 -0.519 2.021 255 255 255
-0.157 -1.009 2.487 255 255 255
-0.587 -0.005 0.872 255 255 255
-0.823 -0.385 1.778 255 255 255
-0.149 0.05 0.327 0 0 0
-1.15 -0.854 2.044 255 255 255
0.666 -0.413 1.75 255 255 255
-0.348 0.674 1.346 255 255 255
-0.162 0.7 1.3 255 255 255
0.457 -0.769 1.795 255 255 255
-0.52 -0.125 1.27 255 255 255
-0.341 0.67 1.359 255 255 255
-0.423 -0.015 0.938 0 0 0
-0.151 0.049 0.328 0 0 0
-0.164 0.677 1.36 255 255 255
-0.642 -1.579 2.133 0 0 0
-0.227 0.478 1.887 255 255 255
-0.643 -0.046 0.869 255 255 255
0.24 0.632 1.588 255 255 255
-0.478 0.006 0.836 255 255 255
-0.747 -0.154 1.306 255 255 255
0.549 0.713 1.4 255 255 255
-0.127 0.07 0.34 0 0 0
0.134 0.477 2.082 255 255 255
-0.144 0.067 0.301 255 255 255
0.385 0.334 2.138 255 255 255
0.582 0.189 1.56 255 255 255
-0.071 0.484 1.828 255 255 255
0.514 0.443 1.822 255 255 255
0.499 -0.294 1.774 255 255 255
0.095 0.325 2.074 255 255 255
0.014 0.138 2.373 255 255 255
-0.868 -1.396 2.109 255 255 255
-0.564 -1.422 2.207 255 255 255
-0.313 0.042 0.879 255 255 255
-0.261 0.104 0.827 255 255 255
-0.23 0.142 0.665 255 255 255
0.548 -1.093 1.523 0 0 0
-0.417 -1.075 2.377 255 255 255
0.168 0.037 2.009 255 255 255
0.123 -1.009 1.631 255 255 255
0.187 -0.439 1.851 255 255 255
-0.104 0.485 1.818 255 255 255
0.044 -0.402 2.206 255 255 255
0.263 0.712 1.318 255 255 255
0.622 -0.12 1.385 255 255 255
0.226 0.692 1.377 255 255 255
-1.14 -0.81 2.068 255 255 255
-0.649 -0.041 0.972 0 0 0
0.566 -0.705 1.647 255 255 255
-0.265 0.447 2.074 255 255 255
0.498 -0.589 1.734 0 0 0
0.621 0.321 1.473 255 255 255
0.105 -0.987 1.641 0 0 0
-0.828 -0.779 2.194 0 0 0
0.668 0.377 1.343 255 255 255
-0.489 -1.518 2.207 255 255 255
-0.364 0.096 0.603 255 255 255
0.048 0.005 2.023 255 255 255
-0.852 -0.39 1.773 255 255 255
-0.22 0.18 0.743 255 255 255
0.269 -0.118 1.981 255 255 255
-0.155 0.065 0.299 255 255 255
0.6 -0.094 1.453 255 255 255
-0.853 -0.578 2.216 0 0 0
-0.061 -0.506 2.494 255 255 255
0.545 0.528 1.737 255 255 255
-0.431 0.006 0.85 255 255 255
0.252 -1.655 2.272 0 0 0
-0.85 -0.407 1.777 255 255 255
-0.709 -1.33 2.191 255 255 255
-0.062 0.586 1.655 255 255 255
0.627 0.102 1.405 255 255 255
-0.758 -1.063 2.255 255 255 255
0.357 -1.271 1.913 255 255 255
-0.765 -0.201 2.536 255 255 255
-1.172 -0.909 2.017 255 255 255
0.501 0.229 1.859 255 255 255
-0.758 0.195 2.552 0 0 0
-0.037 0.654 1.448 0 0 0
-1.035 -0.54 2.002 0 0 0
0.181 0.356 2.105 255 255 255
-0.135 0.069 0.308 255 255 255
-0.324 0.083 0.662 255 255 255
-0.742 -1.481 2.133 255 255 255
0.16 0.372 2.098 255 255 255
0.591 -0.99 1.555 0 0 0
0.214 -0.802 1.736 255 255 255
-0.478 -0.43 2.561 255 255 255
0.427 0.251 2.091 255 255 255
-0.028 0.643 1.48 255 255 255
-0.195 0.296 2.105 255 255 255
-0.163 0.057 0.304 255 255 255
-0.242 0.304 0.83 255 255 255
-0.277 0.09 0.651 255 255 255
0.093 -0.581 1.754 255 255 255
-0.153 -1.525 2.328 255 255 255
-0.115 0.658 1.417 255 255 255
-0.389 0.675 1.339 255 255 255
-0.223 -1.049 2.455 255 255 255
-0.101 0.598 1.614 255 255 255
-0.479 -0.585 2.513 255 255 255
0.648 -0.198 1.155 0 0 0
0.478 -0.312 1.84 255 255 255
0.027 -0.309 2.318 255 255 255
-0.619 -0.298 1.876 255 255 255
0.593 -0.534 1.714 255 255 255
-0.14 0.065 0.307 255 255 255
0.551 -0.533 1.704 255 255 255
0.33 0.597 1.743 255 255 255
-0.373 -1.135 2.374 255 255 255
-0.772 -0.176 2.542 255 255 255
-0.354 -0.844 2.47 255 255 255
0.571 0.04 1.566 255 255 255
-0.4 -0.822 2.465 255 255 255
0.521 -0.319 1.531 0 0 0
0.563 -0.624 1.673 255 255 255
0.519 -0.203 1.708 255 255 255
-1.32 -0.726 2.022 255 255 255
0.451 -0.412 1.878 255 255 255
-0.175 0.295 2.125 255 255 255
0.222 -0.873 1.715 255 255 255
-0.654 -0.016 0.923 0 0 0
-0.803 -0.136 1.089 0 0 0
-0.74 -1.095 2.255 255 255 255
-0.268 0.09 0.67 255 255 255
0.516 0.633 1.627 255 255 255
0.65 -0.196 1.259 0 0 0
-0.409 -0.259 2.64 255 255 255
-0.167 -1.013 2.483 255 255 255
0.477 0.126 1.929 255 255 255
0.532 0.559 1.778 255 255 255
0.361 0.305 2.184 255 255 255
0.621 -0.213 1.352 0 0 0
0.426 -0.692 1.894 0 0 0
0.512 -0.675 1.654 0 0 0
-0.419 -0.042 1.087 255 255 255
0.615 -0.975 1.577 255 255 255
0.255 0.017 2.028 255 255 255
-0.61 0.16 2.615 255 255 255
0.61 -0.707 1.663 255 255 255
-0.197 -0.487 2.638 255 255 255
0.265 -0.822 1.747 255 255 255
-0.316 0.049 0.689 255 255 255
-0.082 -0.399 2.527 255 255 255
-0.208 -0.178 2.732 0 0 0
-0.391 0.058 0.65 255 255 255
0.537 -0.608 1.677 255 255 255
-0.436 0.207 2.325 255 255 255
0.144 0.591 1.697 255 255 255
-0.366 0.028 2.73 255 255 255
0.72 0.041 1.124 255 255 255
-0.282 0.122 0.925 255 255 255
0.611 0.601 1.549 255 255 255
-0.011 -1.601 2.353 255 255 255
-0.213 -1.371 2.35 255 255 255
-0.727 0.164 2.578 0 0 0
0.594 0.507 1.587 255 255 255
-0.124 0.195 0.373 255 255 255
0.045 0.336 2.064 255 255 255
0.481 0.059 1.898 255 255 255
0.587 0.437 1.623 255 255 255
-0.097 0.567 1.729 255 255 255
0.163 0.559 1.811 255 255 255
0.227 -0.684 1.78 255 255 255
-0.7 -0.139 1.247 255 255 255
0.519 -0.923 1.584 0 0 0
0.588 0.051 1.517 255 255 255
0.673 0.108 1.273 255 255 255
-0.448 0.444 2.022 255 255 255
-0.186 0.124 2.814 255 255 255
0.509 -0.936 1.627 0 0 0
-0.543 -1.188 2.293 255 255 255
-0.051 0.016 2.514 255 255 255
-0.069 -1.147 2.286 255 255 255
-0.601 -0.569 2.472 255 255 255
-0.775 -0.348 1.802 255 255 255
0.506 0.078 1.801 255 255 255
0.388 -0.125 2.079 255 255 255
-0.356 0.06 0.654 0 0 0
-0.472 -0.003 0.899 255 255 255
-0.822 -1.397 2.132 255 255 255
0.556 -0.241 1.572 255 255 255
0.566 -1.121 1.519 0 0 0
-0.129 0.192 0.375 255 255 255
-0.233 -1.18 2.405 255 255 255
0.649 -0.129 1.309 255 255 255
0.455 -0.992 1.766 0 0 0
0.705 -0.427 1.765 255 255 255
-0.124 0.081 0.317 255 255 255
-0.716 -1.121 2.254 255 255 255
0.617 0.091 1.429 255 255 255
0.706 0.256 1.206 255 255 255
-0.619 -0.057 0.986 255 255 255
-0.828 -0.925 2.279 255 255 255
-0.836 -0.765 2.312 255 255 255
0.017 0.313 2.259 255 255 255
0.489 -0.555 1.766 0 0 0
0.004 -1.088 1.888 255 255 255
0.586 -0.639 1.668 255 255 255
-0.421 -0.049 1.125 255 255 255
-0.123 0.086 2.665 255 255 255
0.104 -0.585 1.754 255 255 255
0.239 -0.65 1.797 255 255 255
-0.539 -0.924 2.378 255 255 255
-0.133 0.064 0.318 255 255 255
-0.117 -0.953 2.433 255 255 255
0.254 -0.659 1.797 255 255 255
0.168 -0.7 1.752 255 255 255
-0.476 -1.237 2.305 255 255 255
-0.391 0.227 2.397 255 255 255
0.613 -0.184 1.406 255 255 255
-0.275 0.084 0.685 255 255 255
-0.606 0.221 2.248 255 255 255
0.134 -0.741 1.726 255 255 255
0.003 0.647 1.48 255 255 255
-0.456 -1.279 2.296 255 255 255
-0.674 -0.37 1.844 255 255 255
0.035 -0.167 2.219 255 255 255
0.138 0.323 2.088 255 255 255
0.614 -0.923 1.594 255 255 255
-0.241 0.114 0.762 255 255 255
0.455 -0.983 1.767 0 0 0
-0.299 0.067 0.926 255 255 255
-0.585 0.064 2.605 255 255 255
-0.262 0.098 0.701 255 255 255
-0.294 -1.002 2.446 255 255 255
-0.194 0.278 0.612 0 0 0
-1.174 -0.794 2.053 255 255 255
-0.512 -0.053 1.039 255 255 255
-0.547 -1.097 2.319 255 255 255
0.595 0.713 1.412 255 255 255
0.656 -0.525 1.705 255 255 255
-0.334 -0.877 2.469 255 255 255
-0.271 -0.459 2.629 255 255 255
-0.305 0.048 0.857 255 255 255
0.24 -0.563 1.827 255 255 255
0.047 -0.046 2.163 255 255 255
-0.547 -0.042 0.973 255 255 255
0.462 -0.971 1.751 255 255 255
0.563 -0.645 1.666 255 255 255
0.639 0.001 1.352 255 255 255
0.219 -0.64 1.792 255 255 255
-0.443 0.586 1.605 0 0 0
0.473 -1.106 1.694 255 255 255
0.541 -0.084 1.643 255 255 255
-1.207 -0.668 2.09 255 255 255
0.134 0.579 1.718 255 255 255
0.146 0.703 1.325 255 255 255
0.424 -0.643 1.915 0 0 0
0.6 0.256 1.518 255 255 255
0.091 0.312 2.072 255 255 255
-0.142 -0.861 2.532 255 255 255
-0.416 -0.507 2.557 255 255 255
-0.881 -0.407 1.768 255 255 255
-0.06 0.299 2.296 255 255 255
0.511 -0.375 1.711 255 255 255
-0.517 0.268 2.271 255 255 255
0.269 0.711 1.322 255 255 255
0.092 -0.775 1.74 255 255 255
0.637 -0.074 1.347 255 255 255
0.615 -0.041 1.417 255 255 255
0.012 0.401 2.049 0 0 0
-0.266 0.694 1.302 255 255 255
0.469 -0.769 1.774 255 255 255
0.341 -0.341 1.915 255 255 255
0.651 0.147 1.338 255 255 255
0.032 -0.304 2.317 255 255 255
-0.45 0.459 1.991 255 255 255
-0.663 -1.433 2.175 255 255 255
-1.34 -0.459 2.011 255 255 255
-0.299 -1.476 2.285 255 255 255
0.42 -0.872 1.835 0 0 0
0.157 -0.176 1.923 255 255 255
-0.424 0.568 1.664 255 255 255
0.864 -0.433 1.886 255 255 255
0.693 0.035 1.201 255 255 255
-0.657 -0.058 0.907 255 255 255
-0.649 0.307 2.257 0 0 0
0.137 -0.183 1.916 255 255 255
-0.715 -0.637 2.408 255 255 255
-0.156 0.083 0.291 255 255 255
0.068 -1.089 2.307 255 255 255
0.494 -0.835 1.696 255 255 255
-0.39 0.544 1.751 255 255 255
-0.177 -1.301 2.384 255 255 255
-0.192 0.191 0.566 255 255 255
0.587 -0.114 1.486 255 255 255
-0.154 0.07 0.296 255 255 255
-0.464 -0.016 0.942 0 0 0
0.179 -0.839 1.71 255 255 255
-0.773 -0.143 1.119 255 255 255
-0.925 -0.603 2.049 255 255 255
-0.125 -0.965 2.478 255 255 255
0.661 -0.189 1.226 0 0 0
-0.084 0.116 2.634 255 255 255
-1.345 -0.69 2.023 255 255 255
0.44 0.137 2.036 255 255 255
-0.538 -0.572 2.494 255 255 255
-0.888 -1.351 2.122 255 255 255
0.624 -0.014 1.399 255 255 255
-0.526 -0.662 2.473 255 255 255
-0.231 -0.709 2.559 255 255 255
-0.12 0.528 1.764 255 255 255
0.429 -0.719 1.883 0 0 0
-0.291 0.614 1.529 255 255 255
0.075 -1.755 2.327 255 255 255
0.668 -0.035 1.261 255 255 255
-0.559 -0.929 2.372 255 255 255
-0.122 0.204 0.367 255 255 255
-0.028 -0.163 2.292 255 255 255
0.373 -1.064 1.729 255 255 255
-0.345 -0.846 2.477 255 255 255
-0.526 -1.434 2.221 255 255 255
0.274 0.466 1.763 255 255 255
0.471 -0.189 1.869 255 255 255
-0.376 0.668 1.363 255 255 255
0.052 0.541 1.85 0 0 0
-1.38 -0.495 1.985 255 255 255
0.199 0.584 1.754 255 255 255
-0.966 -0.296 1.762 255 255 255
0.528 -0.304 1.504 0 0 0
-0.149 0.211 2.188 255 255 255
-0.102 -1.666 2.305 0 0 0
-0.426 -1.229 2.319 255 255 255
0.487 -0.49 1.785 0 0 0
-0.192 -0.157 2.744 255 255 255
0.156 -0.194 1.916 255 255 255
-0.878 -1.583 2.055 255 255 255
-1.081 -0.279 1.536 255 255 255
0.586 0.426 1.622 255 255 255
0.098 -0.466 1.796 255 255 255
-1.264 -0.766 2.026 255 255 255
-0.258 -1.395 2.323 255 255 255
0.63 -0.213 1.23 0 0 0
0.479 -0.03 1.876 255 255 255
-0.234 0.579 1.656 255 255 255
0.237 0.602 1.701 255 255 255
0.122 0.983 2.044 255 255 255
-0.384 -0.403 2.606 255 255 255
0.594 0.054 1.498 255 255 255
-0.129 0.649 1.45 0 0 0
-0.887 -0.442 1.783 255 255 255
0.333 -0.238 1.946 255 255 255
-0.018 0.591 1.658 255 255 255
-0.59 0.001 2.654 255 255 255
-0.33 0.615 1.526 255 255 255
0.566 -1.114 1.523 0 0 0
0.736 0.057 1.084 255 255 255
-0.353 -1.117 2.387 255 255 255
-0.241 0.314 2.133 255 255 255
0.45 -0.876 1.8 255 255 255
-0.063 0.702 1.302 255 255 255
0.408 -0.152 2.048 255 255 255
0.256 0.633 1.579 255 255 255
-1.022 -1.035 2.171 255 255 255
-0.713 -1.483 2.143 255 255 255
-0.21 0.432 2.071 0 0 0
-0.785 -0.912 2.299 255 255 255
-0.02 0.698 1.315 255 255 255
0.394 -0.925 1.744 255 255 255
0.467 -0.725 1.781 255 255 255
0.71 -0.043 1.143 255 255 255
0.003 0.66 1.439 255 255 255
-0.51 0.015 0.796 255 255 255
0.561 0.063 1.597 255 255 255
-0.217 -0.558 2.611 255 255 255
0.614 -0.813 1.631 255 255 255
-0.429 0.065 0.652 255 255 255
0.637 0.214 1.389 255 255 255
-0.809 -0.494 2.423 255 255 255
0.471 -1.064 1.698 255 255 255
-0.673 -0.374 1.841 255 255 255
-0.089 -1.106 2.295 255 255 255
-0.263 0.416 2.096 255 255 255
0.138 0.375 2.089 255 255 255
-0.728 -0.696 2.387 255 255 255
-0.252 -0.357 2.665 255 255 255
0.647 -0.311 1.494 255 255 255
-0.751 -0.259 1.617 0 0 0
0.578 0.004 1.538 255 255 255
-0.238 0.499 1.875 0 0 0
0.521 -0.258 1.697 255 255 255
0.482 0.141 1.916 255 255 255
-0.11 0.636 1.484 255 255 255
-0.318 0.052 0.818 255 255 255
0.52 -1.182 1.519 255 255 255
-0.96 -0.355 1.717 255 255 255
0.565 0.007 1.58 255 255 255
0.659 0.339 1.354 255 255 255
-0.101 -0.503 2.48 255 255 255
-0.177 0.265 2.2 255 255 255
-0.005 0.054 2.405 255 255 255
0.513 0.658 1.546 255 255 255
-0.227 0.134 0.67 255 255 255
-0.524 -1.096 2.333 255 255 255
0.148 0.682 1.386 255 255 255
-1.356 -0.431 2.096 0 0 0
0.442 0.582 1.791 255 255 255
0.314 -0.593 1.826 255 255 255
-0.378 -1.044 2.402 255 255 255
0.564 -0.003 1.578 255 255 255
-0.663 -0.265 1.791 255 255 255
0.171 -1.111 1.642 255 255 255
0.201 0.586 1.737 255 255 255
-0.514 -0.184 2.629 255 255 255
-0.458 -0.61 2.51 255 255 255
0.629 0.228 1.422 255 255 255
-0.268 -1.219 2.385 255 255 255
0.693 -0.283 1.376 255 255 255
0.516 0.395 1.85 255 255 255
0.313 -0.648 1.806 255 255 255
0.098 -0.456 1.801 255 255 255
0.639 -0.122 1.336 255 255 255
0.637 -0.438 1.732 255 255 255
0.55 0.193 1.666 255 255 255
0.443 -0.693 1.858 255 255 255
0.608 0.243 1.494 255 255 255
-0.484 0.178 2.581 255 255 255
0.662 0.275 1.334 255 255 255
-0.317 0.051 0.835 255 255 255
-0.223 -1.318 2.367 255 255 255
-0.978 -1.252 2.124 255 255 255
-0.049 0.489 1.817 255 255 255
-0.353 0.604 1.558 255 255 255
0.166 -0.143 1.943 255 255 255
0.172 -0.422 1.846 255 255 255
0.63 -0.612 1.679 255 255 255
-0.693 -0.06 1.034 0 0 0
-0.157 -1.308 2.386 255 255 255
0.655 -0.013 1.305 255 255 255
0.228 -0.098 1.977 255 255 255
-0.833 -0.54 2.39 255 255 255
-0.197 0.703 1.284 255 255 255
0.419 0.623 1.65 255 255 255
-0.579 -1.602 2.149 0 0 0
-0.629 -0.071 1.048 255 255 255
0.22 0.562 1.818 255 255 255
-0.615 0.375 2.251 0 0 0
-0.218 -0.523 2.624 255 255 255
0.44 0.577 1.802 255 255 255
-0.25 0.638 1.47 255 255 255
0.27 -0.612 1.814 255 255 255
-0.828 -0.685 2.198 255 255 255
0.597 0.36 1.561 255 255 255
0.456 0.502 1.994 255 255 255
-0.136 0.102 0.309 255 255 255
-0.727 -1.048 2.278 255 255 255
-0.161 0.076 2.686 255 255 255
-0.298 0.077 0.686 255 255 255
-0.344 0.577 1.638 255 255 255
-0.315 -1.525 2.267 255 255 255
0.294 0.257 2.127 255 255 255
-1.149 -1.029 2.129 255 255 255
-0.14 0.06 0.313 0 0 0
0.535 -0.02 1.673 255 255 255
0.565 -0.804 1.614 255 255 255
-0.54 -1.426 2.217 255 255 255
0.09 -0.595 1.752 255 255 255
-0.925 -1.429 2.086 255 255 255
0.566 -0.173 1.547 255 255 255
0.474 -0.975 1.713 255 255 255
-0.126 0.094 0.313 0 0 0
0.226 -0.909 1.708 255 255 255
-0.069 -0.883 2.367 255 255 255
0.56 0.204 1.639 255 255 255
-0.161 -0.457 2.653 255 255 255
0.398 0.261 2.144 255 255 255
0.717 0.169 1.162 255 255 255
0.655 -0.177 1.284 255 255 255
-0.485 -0.697 2.471 255 255 255
-0.319 -0.166 2.701 255 255 255
0.454 -0.17 1.917 255 255 255
-0.489 -0.731 2.459 255 255 255
-0.513 0.259 2.275 255 255 255
-0.344 0.399 2.09 255 255 255
0.377 -0.663 1.817 255 255 255
-0.235 -1.605 2.272 255 255 255
-0.914 -0.838 2.271 0 0 0
0.624 -0.145 1.373 255 255 255
-0.483 -0.085 2.668 255 255 255
