ply
format ascii 1.0
comment Created by Open3D
element vertex 1587
property double x
property double y
property double z
property uchar red
property uchar green
property uchar blue
end_header
-0.09 -0.303 0.871 255 255 255
0.183 -0.187 0.707 255 255 255
0.303 -0.006 0.538 255 255 255
-0.029 -0.063 0.915 255 255 255
-0.29 -0.192 0.71 255 255 255
-0.199 -0.281 0.785 255 255 255
-0.241 -0.37 0.747 255 255 255
-0.314 -0.421 0.688 255 255 255
0.243 -0.021 0.63 255 255 255
0.048 0.344 0.896 255 255 255
-0.26 -0.322 0.733 255 255 255
0.298 -0.129 0.544 255 255 255
-0.071 0.053 0.776 255 255 255
0.231 0.042 0.646 255 255 255
-0.132 -0.183 0.842 255 255 255
0.266 -0.216 0.588 255 255 255
-0.066 0.089 0.779 0 0 0
-0.058 -0.075 0.899 255 255 255
-0.081 0.28 0.744 255 255 255
0.323 0.006 0.521 255 255 255
-0.038 -0.328 0.905 255 255 255
0.337 -0.165 0.495 255 255 255
0.132 -0.416 0.767 255 255 255
0.236 0.268 0.644 255 255 255
-0.162 0.093 0.817 255 255 255
0.214 -0.176 0.663 255 255 255
-0.188 -0.26 0.794 255 255 255
-0.31 -0.451 0.69 255 255 255
-0.205 -0.19 0.781 255 255 255
0.313 -0.279 0.531 255 255 255
0.237 0.278 0.644 255 255 255
0.051 -0.359 0.875 255 255 255
0.166 -0.404 0.722 255 255 255
-0.038 -0.51 0.905 255 255 255
0.338 -0.107 0.489 255 255 255
-0.164 -0.193 0.815 255 255 255
0.022 -0.215 0.91 255 255 255
0.029 0.179 0.915 255 255 255
0.326 -0.055 0.512 255 255 255
-0.435 -0.056 0.597 255 255 255
0.087 -0.413 0.829 255 255 255
0.243 0.071 0.629 255 255 255
0.24 -0.215 0.626 255 255 255
-0.334 -0.107 0.675 255 255 255
-0.191 -0.271 0.789 255 255 255
0.22 0.352 0.667 255 255 255
-0.292 0.314 0.708 0 0 0
-0.277 -0.025 0.723 255 255 255
-0.347 0.131 0.666 255 255 255
0.121 0.208 0.799 255 255 255
0.129 -0.225 0.782 255 255 255
-0.094 0.318 0.765 255 255 255
0.153 -0.335 0.743 255 255 255
0.294 0.098 0.562 255 255 255
0.052 0.165 0.89 255 255 255
0.14 -0.118 0.769 255 255 255
0.214 -0.337 0.657 255 255 255
-0.202 -0.472 0.779 255 255 255
-0.328 -0.459 0.678 255 255 255
-0.306 -0.375 0.694 255 255 255
-0.217 -0.585 0.763 255 255 255
0.307 -0.144 0.529 255 255 255
-0.253 0.088 0.744 255 255 255
-0.333 -0.036 0.675 255 255 255
-0.307 -0.158 0.696 255 255 255
-0.342 -0.317 0.668 255 255 255
-0.071 0.134 0.766 255 255 255
0.301 -0.312 0.541 255 255 255
-0.085 -0.504 0.871 255 255 255
-0.163 0.203 0.816 255 255 255
0.267 -0.131 0.587 0 0 0
0.209 0.284 0.682 255 255 255
0.033 -0.324 0.896 255 255 255
0.334 -0.17 0.498 255 255 255
-0.309 -0.308 0.695 255 255 255
0.015 0.276 0.931 255 255 255
-0.225 0.016 0.4 255 255 255
0.09 0.454 0.845 255 255 255
-0.218 0.087 0.379 255 255 255
0.022 0.308 0.916 255 255 255
0.159 -0.301 0.736 255 255 255
0.2 0.295 0.694 255 255 255
0.061 -0.09 0.872 255 255 255
0.223 -0.463 0.641 0 0 0
-0.287 -0.056 0.714 255 255 255
-0.338 -0.215 0.668 255 255 255
0.257 0.004 0.582 255 255 255
-0.245 -0.442 0.744 255 255 255
0.318 -0.056 0.519 255 255 255
0.173 -0.405 0.713 255 255 255
0.049 -0.446 0.872 255 255 255
0.258 -0.059 0.592 0 0 0
0.111 -0.257 0.804 255 255 255
0.155 0.07 0.752 255 255 255
-0.249 -0.425 0.739 255 255 255
0.275 -0.228 0.574 255 255 255
0.215 -0.172 0.662 255 255 255
0.156 -0.537 0.733 0 0 0
-0.004 -0.02 0.929 255 255 255
-0.099 -0.093 0.868 255 255 255
-0.248 -0.335 0.742 255 255 255
-0.351 -0.341 0.664 255 255 255
0.188 -0.21 0.699 0 0 0
0.141 0.388 0.775 255 255 255
-0.283 0.102 0.72 255 255 255
-0.076 0.232 0.752 255 255 255
0.264 -0.246 0.588 255 255 255
-0.023 0.27 0.923 255 255 255
0.041 -0.06 0.897 255 255 255
0.273 0.252 0.607 255 255 255
-0.004 -0.469 0.916 255 255 255
0.004 -0.332 0.918 255 255 255
-0.019 0.195 0.926 255 255 255
-0.019 -0.007 0.924 255 255 255
0.166 0.023 0.736 255 255 255
-0.021 0.164 0.925 255 255 255
-0.22 -0.391 0.763 255 255 255
0.242 -0.007 0.591 0 0 0
-0.405 -0.102 0.618 255 255 255
0.289 -0.026 0.559 255 255 255
0.307 0.015 0.544 255 255 255
0.136 -0.007 0.778 255 255 255
0.279 -0.2 0.571 255 255 255
-0.226 0.05 0.382 0 0 0
0.073 -0.078 0.858 255 255 255
0.249 0.268 0.627 255 255 255
0.02 0.104 0.923 255 255 255
-0.328 0.16 0.682 255 255 255
-0.156 -0.174 0.823 255 255 255
0.147 -0.175 0.757 255 255 255
-0.087 0.141 0.751 255 255 255
0.117 -0.384 0.792 255 255 255
0.086 -0.453 0.828 255 255 255
0.183 -0.014 0.71 255 255 255
0.264 -0.244 0.586 0 0 0
-0.071 0.161 0.762 255 255 255
0.336 0.054 0.504 255 255 255
0.086 0.14 0.845 255 255 255
0.173 -0.035 0.724 255 255 255
-0.019 -0.617 0.911 255 255 255
-0.317 0.084 0.691 255 255 255
0.255 0.047 0.616 255 255 255
-0.267 0.025 0.731 255 255 255
-0.107 0.188 0.774 255 255 255
0.166 0.171 0.737 255 255 255
-0.242 -0.052 0.75 255 255 255
-0.06 0.216 0.892 255 255 255
-0.302 -0.412 0.698 255 255 255
0.29 0.139 0.572 255 255 255
0.18 0.07 0.716 255 255 255
0.325 0.06 0.521 255 255 255
0.16 0.284 0.747 255 255 255
0.221 -0.482 0.643 0 0 0
-0.227 0.41 0.762 255 255 255
0.128 -0.205 0.783 255 255 255
-0.302 -0.063 0.702 255 255 255
0.202 -0.269 0.675 0 0 0
-0.183 0.153 0.796 255 255 255
0.213 0.342 0.675 255 255 255
-0.273 0.073 0.728 255 255 255
-0.07 0.406 0.785 255 255 255
0.265 0.181 0.606 0 0 0
0.291 -0.031 0.557 255 255 255
-0.226 -0.068 0.764 255 255 255
0.265 0.285 0.615 0 0 0
-0.192 -0.331 0.787 255 255 255
-0.301 0.109 0.706 255 255 255
-0.281 -0.117 0.719 255 255 255
0.191 0.175 0.702 0 0 0
0.256 -0.051 0.593 0 0 0
0.207 -0.079 0.673 255 255 255
-0.263 -0.215 0.731 255 255 255
0.235 -0.043 0.637 255 255 255
0.204 -0.027 0.679 0 0 0
0.266 -0.109 0.588 0 0 0
-0.082 0.345 0.769 0 0 0
0.081 0.446 0.855 255 255 255
0.174 0.305 0.728 255 255 255
-0.014 0.29 0.929 255 255 255
0.048 -0.23 0.884 255 255 255
0.201 0.24 0.689 0 0 0
0.178 -0.317 0.709 255 255 255
-0.125 0.011 0.852 255 255 255
0.309 -0.172 0.528 255 255 255
0.21 -0.119 0.668 255 255 255
-0.18 -0.196 0.801 255 255 255
-0.002 -0.66 0.91 0 0 0
-0.19 -0.375 0.789 255 255 255
-0.271 0.004 0.392 255 255 255
0.216 -0.214 0.657 255 255 255
-0.037 -0.049 0.913 255 255 255
-0.337 -0.126 0.67 255 255 255
0.17 -0.485 0.712 255 255 255
-0.056 -0.059 0.901 255 255 255
0.316 -0.192 0.514 255 255 255
0.295 -0.341 0.55 255 255 255
0.095 0.399 0.839 255 255 255
-0.116 -0.628 0.842 0 0 0
-0.214 -0.248 0.771 255 255 255
-0.202 -0.285 0.781 255 255 255
-0.051 -0.102 0.903 255 255 255
-0.288 -0.32 0.71 255 255 255
-0.225 0.112 0.764 255 255 255
-0.07 -0.654 0.877 0 0 0
-0.3 -0.077 0.703 255 255 255
-0.015 -0.576 0.912 255 255 255
0.256 0.179 0.615 255 255 255
0.125 -0.065 0.791 255 255 255
-0.157 -0.145 0.822 255 255 255
0.153 0.117 0.754 255 255 255
0.228 -0.135 0.644 255 255 255
0.179 -0.071 0.715 255 255 255
0.309 -0.235 0.528 255 255 255
0.232 -0.353 0.629 255 255 255
-0.142 -0.611 0.823 0 0 0
-0.21 0.159 0.776 255 255 255
-0.218 0.044 0.772 255 255 255
0.002 0.142 0.934 255 255 255
-0.084 0.183 0.749 255 255 255
0.06 -0.23 0.872 255 255 255
0.302 -0.053 0.545 255 255 255
0.278 -0.309 0.571 255 255 255
-0.225 -0.271 0.762 255 255 255
0.274 -0.274 0.581 255 255 255
-0.163 -0.157 0.815 255 255 255
-0.035 -0.213 0.911 255 255 255
-0.013 -0.592 0.913 255 255 255
-0.281 -0.043 0.72 255 255 255
-0.254 -0.022 0.38 255 255 255
0.123 -0.111 0.793 255 255 255
0.203 -0.393 0.668 255 255 255
0.109 0.056 0.815 255 255 255
0.138 -0.007 0.774 255 255 255
-0.002 0.3 0.761 255 255 255
-0.163 -0.127 0.818 255 255 255
0.005 0.274 0.936 255 255 255
-0.352 0.052 0.659 255 255 255
0.036 0.033 0.907 255 255 255
0.236 -0.159 0.631 0 0 0
0.177 0.373 0.723 255 255 255
-0.032 0.231 0.918 255 255 255
0.281 0.2 0.591 255 255 255
-0.291 0.162 0.712 255 255 255
-0.245 0.409 0.749 255 255 255
-0.069 0.23 0.757 255 255 255
-0.232 -0.26 0.758 255 255 255
-0.116 0.231 0.689 255 255 255
0.229 0.206 0.652 255 255 255
0.19 0.023 0.703 0 0 0
-0.066 -0.012 0.894 255 255 255
-0.354 -0.177 0.656 255 255 255
0.221 0.306 0.661 0 0 0
-0.136 -0.118 0.839 255 255 255
0.084 0.043 0.848 255 255 255
0.136 0.061 0.777 255 255 255
0.339 -0.109 0.488 255 255 255
-0.308 -0.036 0.697 255 255 255
0.104 -0.116 0.819 255 255 255
0.201 -0.279 0.678 0 0 0
0.332 -0.063 0.503 255 255 255
0.285 0.027 0.571 255 255 255
0.206 -0.36 0.666 255 255 255
-0.06 0.26 0.761 255 255 255
0.273 -0.361 0.572 255 255 255
-0.106 -0.272 0.859 255 255 255
-0.284 -0.139 0.716 255 255 255
0.181 -0.478 0.7 255 255 255
-0.012 -0.381 0.918 255 255 255
0.056 -0.564 0.857 255 255 255
-0.002 0.122 0.933 255 255 255
-0.12 -0.42 0.844 255 255 255
0.011 -0.382 0.911 255 255 255
0.107 0.236 0.82 255 255 255
-0.049 -0.339 0.898 255 255 255
-0.05 0.382 0.903 255 255 255
0.119 -0.096 0.798 255 255 255
-0.241 0.101 0.752 255 255 255
-0.071 -0.251 0.886 255 255 255
-0.161 -0.122 0.817 255 255 255
0.312 0.026 0.533 255 255 255
0.136 -0.5 0.757 255 255 255
0.221 -0.043 0.658 255 255 255
0.098 -0.459 0.812 255 255 255
-0.274 -0.559 0.718 255 255 255
0.084 -0.248 0.841 255 255 255
0.163 -0.45 0.723 255 255 255
-0.287 0.068 0.716 255 255 255
0.13 0.395 0.791 255 255 255
0.164 -0.119 0.734 255 255 255
-0.088 0.132 0.751 255 255 255
0.181 -0.325 0.704 255 255 255
0.337 -0.034 0.498 255 255 255
0.226 -0.47 0.637 0 0 0
-0.008 -0.53 0.916 255 255 255
0.187 0.273 0.71 255 255 255
-0.328 -0.528 0.675 255 255 255
0.182 -0.227 0.708 255 255 255
-0.059 -0.009 0.9 255 255 255
-0.021 0.372 0.92 255 255 255
-0.051 -0.61 0.892 255 255 255
-0.277 0.32 0.719 0 0 0
-0.22 -0.338 0.764 255 255 255
0.302 -0.24 0.535 255 255 255
-0.099 -0.312 0.863 255 255 255
-0.083 -0.008 0.882 255 255 255
0.278 -0.038 0.571 255 255 255
0.239 -0.467 0.62 0 0 0
0.111 0.031 0.815 255 255 255
0.158 0.047 0.747 255 255 255
0.249 -0.429 0.607 255 255 255
0.022 0.124 0.92 255 255 255
-0.263 0.372 0.732 255 255 255
0.017 0.274 0.751 255 255 255
0.03 0.281 0.919 255 255 255
0.059 0.463 0.88 255 255 255
0.165 0.187 0.741 255 255 255
-0.261 -0.048 0.733 255 255 255
0.152 -0.091 0.752 255 255 255
0.096 0.428 0.836 255 255 255
0.031 0.08 0.913 255 255 255
-0.015 0.385 0.901 255 255 255
0.204 0.175 0.685 0 0 0
0.196 -0.226 0.685 0 0 0
-0.353 -0.23 0.656 255 255 255
-0.134 -0.502 0.832 255 255 255
0.281 -0.192 0.57 255 255 255
-0.34 0.036 0.67 255 255 255
0.279 -0.019 0.57 0 0 0
-0.307 -0.062 0.697 255 255 255
-0.174 -0.481 0.8 255 255 255
0.171 0.125 0.729 255 255 255
0.063 -0.204 0.868 255 255 255
0.302 0.141 0.558 255 255 255
0.221 -0.441 0.644 255 255 255
0.112 -0.09 0.808 255 255 255
0.019 -0.355 0.906 255 255 255
-0.368 -0.362 0.647 255 255 255
0.26 -0.273 0.591 255 255 255
-0.224 0.034 0.389 0 0 0
0.054 0.388 0.888 255 255 255
-0.223 -0.178 0.767 255 255 255
-0.324 -0.027 0.684 255 255 255
0.282 0.04 0.575 255 255 255
-0.362 0.057 0.661 255 255 255
-0.263 -0.538 0.728 0 0 0
-0.226 -0.197 0.763 255 255 255
0.168 -0.226 0.726 255 255 255
0.056 -0.028 0.881 255 255 255
-0.019 -0.673 0.912 0 0 0
-0.282 0.035 0.719 255 255 255
0.151 0.139 0.757 255 255 255
0.122 -0.18 0.792 255 255 255
-0.005 0.374 0.767 255 255 255
0.26 -0.186 0.597 0 0 0
0.127 0.271 0.794 255 255 255
0.308 -0.171 0.529 255 255 255
-0.193 -0.195 0.79 255 255 255
-0.19 -0.33 0.789 255 255 255
0.184 0.097 0.71 255 255 255
0.145 -0.196 0.76 255 255 255
-0.038 0.306 0.916 255 255 255
-0.392 -0.072 0.626 255 255 255
-0.264 -0.27 0.729 255 255 255
-0.25 0.127 0.746 255 255 255
0.262 0.146 0.609 255 255 255
0.085 -0.469 0.83 255 255 255
0.181 -0.338 0.705 255 255 255
-0.174 0.161 0.803 255 255 255
0.229 -0.02 0.648 255 255 255
0.216 -0.038 0.666 255 255 255
-0.093 0.055 0.759 255 255 255
0.303 -0.294 0.532 255 255 255
0.314 0.007 0.534 255 255 255
-0.006 -0.518 0.915 255 255 255
0.333 0.035 0.506 255 255 255
-0.037 -0.217 0.909 255 255 255
-0.007 -0.637 0.913 255 255 255
-0.255 -0.331 0.736 255 255 255
-0.262 -0.279 0.73 255 255 255
0.31 0.065 0.538 255 255 255
0.054 0.191 0.89 255 255 255
0.224 -0.009 0.655 255 255 255
0.265 -0.198 0.589 255 255 255
-0.16 -0.356 0.815 255 255 255
-0.057 -0.531 0.891 255 255 255
0.047 0.232 0.898 255 255 255
-0.269 0.306 0.724 255 255 255
0.131 0.181 0.784 255 255 255
-0.244 0.037 0.749 255 255 255
-0.225 -0.081 0.766 255 255 255
-0.058 0.034 0.901 255 255 255
-0.392 -0.277 0.628 255 255 255
0.296 -0.316 0.546 255 255 255
-0.004 -0.146 0.924 255 255 255
-0.252 0.074 0.743 255 255 255
-0.061 -0.147 0.896 255 255 255
-0.199 0.369 0.712 255 255 255
-0.249 -0.366 0.741 255 255 255
0.217 -0.102 0.658 255 255 255
-0.331 -0.374 0.676 255 255 255
0.157 -0.11 0.744 255 255 255
0.057 -0.27 0.873 255 255 255
-0.245 -0.074 0.748 255 255 255
-0.396 -0.187 0.625 255 255 255
-0.359 -0.185 0.653 255 255 255
0.204 0.193 0.686 0 0 0
0.082 0.168 0.85 255 255 255
-0.28 -0.172 0.718 255 255 255
-0.358 -0.126 0.655 255 255 255
0.25 -0.189 0.609 255 255 255
-0.183 -0.063 0.8 255 255 255
0.208 -0.237 0.669 255 255 255
-0.328 0.213 0.679 255 255 255
-0.282 -0.11 0.718 255 255 255
0.204 -0.002 0.684 0 0 0
0.146 0.299 0.77 255 255 255
-0.154 -0.51 0.816 255 255 255
0.132 0.101 0.781 255 255 255
0.264 -0.378 0.583 255 255 255
0.044 -0.35 0.882 255 255 255
-0.261 0.098 0.737 255 255 255
-0.449 -0.109 0.585 255 255 255
0.228 0.313 0.656 0 0 0
0.288 -0.182 0.554 0 0 0
-0.353 -0.275 0.656 255 255 255
0.238 -0.02 0.636 255 255 255
0.191 0.364 0.707 255 255 255
-0.09 -0.099 0.875 255 255 255
0.155 0.303 0.756 255 255 255
0.308 0.117 0.548 255 255 255
0.236 0.096 0.639 255 255 255
-0.377 -0.069 0.639 255 255 255
-0.419 -0.073 0.606 255 255 255
-0.137 0.253 0.684 255 255 255
-0.335 0.045 0.676 255 255 255
0.276 -0.201 0.574 255 255 255
-0.127 0.331 0.664 255 255 255
-0.192 -0.251 0.791 255 255 255
0.166 -0.196 0.731 255 255 255
-0.117 -0.041 0.857 255 255 255
-0.085 0.028 0.773 255 255 255
0.211 -0.175 0.666 255 255 255
-0.253 0.152 0.743 255 255 255
0.256 -0.05 0.593 0 0 0
0.278 -0.027 0.57 255 255 255
-0.087 -0.311 0.873 255 255 255
0.228 -0.081 0.643 255 255 255
0.303 -0.154 0.536 0 0 0
0.094 0.179 0.834 255 255 255
-0.22 0.069 0.768 255 255 255
0.253 -0.116 0.605 255 255 255
0.275 0.233 0.602 255 255 255
0.094 0.176 0.835 255 255 255
0.045 0.217 0.9 255 255 255
0.157 -0.301 0.74 255 255 255
0.297 0.104 0.556 255 255 255
-0.225 0.013 0.395 255 255 255
0.004 0.23 0.935 255 255 255
0.043 0.008 0.898 255 255 255
0.225 0.124 0.654 255 255 255
-0.086 -0.202 0.877 255 255 255
-0.133 -0.407 0.834 255 255 255
0.218 -0.345 0.651 255 255 255
0.112 -0.027 0.811 255 255 255
-0.23 -0.286 0.757 255 255 255
-0.358 0.036 0.658 255 255 255
-0.325 0.175 0.684 255 255 255
0.017 -0.319 0.909 255 255 255
-0.396 -0.229 0.625 255 255 255
0.109 0.177 0.814 255 255 255
0.247 0.225 0.628 255 255 255
0.161 -0.252 0.735 255 255 255
-0.057 0.228 0.772 0 0 0
-0.346 -0.001 0.666 255 255 255
0.302 0.071 0.549 255 255 255
-0.039 0.164 0.914 255 255 255
0.197 0.196 0.698 0 0 0
-0.338 0.096 0.672 255 255 255
0.233 -0.179 0.635 255 255 255
0.074 0.241 0.866 255 255 255
-0.174 -0.346 0.805 255 255 255
-0.296 0.356 0.706 255 255 255
0.141 0.159 0.77 255 255 255
-0.057 -0.265 0.895 255 255 255
0.189 -0.47 0.687 255 255 255
0.299 -0.327 0.54 255 255 255
-0.276 0.346 0.721 255 255 255
0.179 0.358 0.722 255 255 255
0.158 -0.478 0.729 255 255 255
0.222 0.228 0.662 255 255 255
0.31 0.018 0.535 255 255 255
0.268 0.127 0.596 0 0 0
-0.164 0.318 0.656 255 255 255
-0.037 0.192 0.914 255 255 255
0.234 -0.399 0.627 255 255 255
0.278 -0.414 0.572 0 0 0
0.246 -0.167 0.618 255 255 255
-0.248 -0.289 0.744 255 255 255
-0.04 -0.184 0.908 255 255 255
0.162 0.2 0.743 255 255 255
0.212 0.207 0.675 255 255 255
0.06 0.088 0.881 255 255 255
-0.324 -0.099 0.683 255 255 255
0.097 0.424 0.836 255 255 255
-0.312 -0.551 0.687 255 255 255
0.123 0.107 0.793 255 255 255
0.041 0.141 0.902 255 255 255
0.217 0.2 0.667 255 255 255
0.166 0.402 0.741 255 255 255
0.076 -0.367 0.844 255 255 255
-0.267 -0.007 0.395 0 0 0
0.287 -0.035 0.562 255 255 255
-0.259 -0.149 0.736 255 255 255
0.274 -0.11 0.577 255 255 255
-0.101 -0.278 0.861 255 255 255
0.162 -0.37 0.729 255 255 255
0.237 -0.411 0.622 255 255 255
-0.06 -0.649 0.885 0 0 0
0 -0.406 0.917 255 255 255
-0.149 0.195 0.676 255 255 255
-0.14 0.1 0.838 255 255 255
0.276 -0.169 0.575 255 255 255
0.144 0.163 0.767 255 255 255
-0.103 -0.574 0.855 255 255 255
0.185 0.367 0.715 255 255 255
-0.209 0.185 0.776 255 255 255
-0.221 -0.372 0.763 255 255 255
-0.096 -0.248 0.868 255 255 255
-0.196 0.378 0.746 255 255 255
0.274 -0.109 0.577 255 255 255
-0.036 0.266 0.916 255 255 255
-0.241 -0.409 0.747 255 255 255
0.224 0.118 0.656 255 255 255
-0.261 -0.431 0.729 255 255 255
-0.11 -0.005 0.861 255 255 255
-0.349 0.13 0.666 255 255 255
-0.343 -0.151 0.665 255 255 255
-0.426 -0.08 0.601 255 255 255
0.282 -0.069 0.564 255 255 255
0.265 0.218 0.607 0 0 0
0.134 0.306 0.787 255 255 255
-0.05 0.41 0.902 0 0 0
-0.044 0.369 0.908 255 255 255
0.18 0.126 0.715 255 255 255
-0.23 -0.346 0.755 255 255 255
0.142 -0.23 0.764 255 255 255
0.03 -0.38 0.895 255 255 255
-0.069 -0.371 0.883 255 255 255
0.232 -0.036 0.643 255 255 255
-0.322 0.034 0.684 255 255 255
0.196 0.113 0.695 0 0 0
-0.11 -0.063 0.861 255 255 255
0.168 -0.201 0.727 255 255 255
-0.337 0.221 0.675 255 255 255
0.257 -0.006 0.585 255 255 255
-0.112 -0.103 0.858 255 255 255
-0.326 0.245 0.683 255 255 255
0.004 0.343 0.732 255 255 255
0.026 0.214 0.919 255 255 255
-0.267 -0.019 0.373 255 255 255
-0.156 -0.479 0.813 255 255 255
0.007 -0.227 0.921 255 255 255
0.25 0.074 0.62 255 255 255
0.073 -0.376 0.848 255 255 255
-0.175 0.144 0.803 255 255 255
-0.3 0.25 0.701 255 255 255
-0.205 0.266 0.714 0 0 0
0.247 0.08 0.626 255 255 255
0.263 -0.381 0.586 255 255 255
0.311 0.085 0.537 255 255 255
0.021 0.311 0.719 255 255 255
-0.385 -0.077 0.633 255 255 255
0.292 0.185 0.573 255 255 255
-0.07 0.079 0.775 255 255 255
0.261 -0.245 0.594 255 255 255
0.279 -0.147 0.57 0 0 0
-0.182 -0.334 0.796 255 255 255
-0.322 -0.086 0.684 255 255 255
-0.32 0.09 0.69 255 255 255
-0.315 0.277 0.69 255 255 255
-0.249 0.146 0.746 255 255 255
0.086 -0.035 0.843 255 255 255
0.066 0.002 0.871 255 255 255
0.208 0.071 0.676 255 255 255
0.188 0.012 0.706 255 255 255
-0.247 -0.149 0.746 255 255 255
-0.089 -0.294 0.873 255 255 255
0.201 0.134 0.69 0 0 0
-0.246 0.076 0.748 255 255 255
-0.292 -0.417 0.705 255 255 255
0.246 -0.161 0.619 255 255 255
-0.117 0.318 0.669 255 255 255
0.236 -0.083 0.635 255 255 255
-0.327 -0.391 0.678 255 255 255
0.039 0.06 0.905 255 255 255
-0.146 0.098 0.833 255 255 255
-0.196 -0.497 0.782 255 255 255
0.172 -0.393 0.714 255 255 255
-0.199 -0.484 0.778 255 255 255
-0.182 -0.437 0.793 255 255 255
0.085 0.143 0.846 255 255 255
-0.425 -0.131 0.604 255 255 255
0.334 0.058 0.508 255 255 255
-0.309 -0.195 0.694 255 255 255
0.236 0.091 0.64 255 255 255
-0.111 -0.138 0.859 255 255 255
-0.221 0.075 0.381 255 255 255
-0.105 0.328 0.664 255 255 255
-0.233 -0.009 0.393 0 0 0
0.102 -0.592 0.801 0 0 0
-0.27 0.251 0.724 255 255 255
-0.31 -0.249 0.693 255 255 255
-0.22 -0.099 0.77 255 255 255
-0.254 0.337 0.738 0 0 0
-0.136 -0.242 0.837 255 255 255
-0.342 -0.163 0.667 255 255 255
0.244 0.065 0.629 255 255 255
-0.265 0.173 0.731 255 255 255
-0.33 -0.519 0.675 255 255 255
0.191 -0.214 0.695 0 0 0
0.216 -0.239 0.66 255 255 255
0.241 0.013 0.634 255 255 255
-0.217 0.086 0.384 255 255 255
-0.3 0.342 0.702 255 255 255
-0.254 -0.247 0.739 255 255 255
0.207 -0.457 0.663 255 255 255
0.232 -0.21 0.634 255 255 255
0.136 -0.566 0.756 0 0 0
-0.077 -0.628 0.874 255 255 255
-0.255 -0.393 0.736 255 255 255
0.215 -0.057 0.665 255 255 255
0.31 0.123 0.548 255 255 255
0.071 0.159 0.865 255 255 255
0.15 -0.018 0.756 255 255 255
-0.324 -0.534 0.676 255 255 255
0.06 -0.498 0.858 255 255 255
0.295 -0.022 0.552 255 255 255
0.216 -0.03 0.665 255 255 255
0.213 -0.257 0.663 255 255 255
0.272 0.05 0.59 255 255 255
0.258 0.291 0.622 0 0 0
0.144 -0.536 0.749 255 255 255
-0.185 -0.458 0.791 255 255 255
0.297 -0.171 0.545 0 0 0
0.191 0.022 0.702 0 0 0
0.277 -0.044 0.571 255 255 255
0.22 -0.13 0.653 255 255 255
-0.215 0.384 0.752 255 255 255
0.071 0.09 0.865 255 255 255
-0.324 -0.334 0.681 255 255 255
0.049 -0.442 0.872 255 255 255
0.23 -0.238 0.639 255 255 255
-0.418 -0.082 0.607 255 255 255
0.136 0.075 0.777 255 255 255
0.204 -0.066 0.678 255 255 255
0.216 0.022 0.666 255 255 255
-0.168 -0.177 0.812 255 255 255
-0.405 -0.245 0.618 255 255 255
0.285 -0.003 0.562 255 255 255
0.35 -0.046 0.485 255 255 255
-0.078 0.091 0.766 255 255 255
-0.304 -0.166 0.699 255 255 255
0.237 -0.091 0.633 255 255 255
-0.033 -0.078 0.915 255 255 255
0.177 0.316 0.725 255 255 255
-0.222 0.048 0.388 0 0 0
0.143 -0.147 0.764 255 255 255
-0.043 0.425 0.908 255 255 255
0.066 0.08 0.872 255 255 255
-0.032 0.178 0.918 255 255 255
0.118 -0.544 0.78 255 255 255
0.113 -0.064 0.808 255 255 255
0.19 -0.052 0.7 0 0 0
-0.113 -0.633 0.846 0 0 0
0.243 -0.319 0.615 255 255 255
0.31 0.128 0.546 255 255 255
-0.191 -0.182 0.791 255 255 255
-0.308 -0.496 0.692 255 255 255
0.331 0.052 0.509 255 255 255
0.115 -0.342 0.798 255 255 255
-0.02 -0.457 0.912 255 255 255
-0.211 -0.095 0.777 255 255 255
0.157 -0.218 0.743 255 255 255
0.16 -0.546 0.725 0 0 0
0.08 0.057 0.853 255 255 255
0.143 -0.15 0.764 255 255 255
0.286 -0.287 0.556 255 255 255
0.061 0.037 0.879 255 255 255
-0.26 -0.392 0.733 255 255 255
-0.181 0.212 0.679 255 255 255
0.183 -0.03 0.71 255 255 255
0.04 -0.224 0.894 255 255 255
0.235 -0.243 0.631 0 0 0
0.279 -0.197 0.572 255 255 255
0.285 -0.382 0.565 255 255 255
-0.122 -0.204 0.852 255 255 255
-0.029 0.017 0.918 255 255 255
0.209 -0.126 0.67 255 255 255
-0.338 0.102 0.674 255 255 255
-0.074 -0.245 0.883 255 255 255
-0.195 -0.234 0.787 255 255 255
0.23 -0.028 0.647 255 255 255
-0.25 -0.015 0.744 255 255 255
0.126 0.398 0.798 255 255 255
-0.181 0.13 0.798 255 255 255
0.124 -0.318 0.784 255 255 255
0.215 -0.437 0.651 255 255 255
0.273 0.106 0.588 0 0 0
-0.243 -0.086 0.751 255 255 255
0.184 -0.273 0.703 255 255 255
0.316 0.019 0.527 255 255 255
-0.09 0.063 0.761 255 255 255
0.246 0.164 0.629 255 255 255
0.216 0.078 0.664 255 255 255
0.243 -0.208 0.621 255 255 255
0.113 -0.203 0.804 255 255 255
0.067 0.2 0.872 255 255 255
-0.43 -0.135 0.599 255 255 255
0.174 0.254 0.728 255 255 255
0.138 0.127 0.773 255 255 255
0.161 -0.14 0.738 255 255 255
-0.431 -0.168 0.599 255 255 255
0.067 0.054 0.871 255 255 255
-0.28 0.343 0.716 255 255 255
0.23 0.112 0.646 255 255 255
-0.123 0.326 0.668 255 255 255
0.15 -0.085 0.753 255 255 255
0.21 -0.159 0.668 255 255 255
0.276 -0.113 0.575 255 255 255
0.044 -0.489 0.876 255 255 255
0.236 -0.242 0.629 0 0 0
0.164 -0.246 0.732 255 255 255
-0.115 0.118 0.792 255 255 255
0.249 0.006 0.59 0 0 0
-0.198 -0.008 0.788 255 255 255
0.341 -0.042 0.485 255 255 255
0.228 0.209 0.653 255 255 255
-0.242 -0.001 0.75 255 255 255
-0.246 -0.325 0.744 255 255 255
-0.212 -0.031 0.775 255 255 255
0.26 -0.255 0.596 255 255 255
0.05 0.309 0.895 255 255 255
0.061 0.215 0.881 255 255 255
0.309 -0.046 0.542 255 255 255
0.001 0.275 0.748 255 255 255
-0.28 0.268 0.717 255 255 255
-0.251 -0.452 0.736 255 255 255
-0.195 -0.55 0.782 255 255 255
-0.337 -0.135 0.672 255 255 255
0.086 0.093 0.845 255 255 255
-0.272 0.087 0.728 255 255 255
-0.34 -0.111 0.67 255 255 255
0.019 0.312 0.717 255 255 255
-0.073 0.059 0.774 255 255 255
0.331 0.023 0.508 255 255 255
-0.081 0.265 0.745 255 255 255
0.26 -0.253 0.596 255 255 255
-0.247 -0.514 0.736 255 255 255
0.131 -0.321 0.776 255 255 255
0.084 -0.609 0.823 0 0 0
-0.31 -0.196 0.692 255 255 255
0.107 0.377 0.822 0 0 0
-0.379 -0.056 0.64 255 255 255
-0.422 -0.087 0.604 255 255 255
-0.234 -0.154 0.757 255 255 255
-0.215 0.083 0.773 255 255 255
0.192 0.2 0.702 255 255 255
0.331 -0.107 0.502 255 255 255
0.113 0.239 0.812 255 255 255
0.127 -0.42 0.776 255 255 255
0.266 0.125 0.599 0 0 0
-0.282 -0.042 0.719 255 255 255
0.137 0.211 0.777 255 255 255
-0.244 -0.29 0.747 255 255 255
0.345 -0.031 0.487 255 255 255
-0.327 -0.099 0.68 255 255 255
0.264 -0.138 0.592 0 0 0
0.181 0.075 0.716 255 255 255
0.257 0.312 0.626 255 255 255
-0.051 -0.633 0.89 255 255 255
-0.275 -0.056 0.725 255 255 255
0.066 -0.42 0.853 255 255 255
-0.147 0.137 0.831 255 255 255
-0.222 -0.189 0.767 255 255 255
0.273 -0.094 0.577 255 255 255
-0.24 -0.328 0.75 255 255 255
0.089 0.272 0.846 255 255 255
0.106 0.441 0.823 255 255 255
-0.289 -0.441 0.711 255 255 255
0.195 0.046 0.697 0 0 0
-0.16 0.027 0.821 255 255 255
-0.035 0.21 0.916 255 255 255
-0.248 -0.128 0.746 255 255 255
-0.077 0.175 0.754 255 255 255
-0.252 0.009 0.403 0 0 0
0.194 0.132 0.697 0 0 0
0.325 -0.179 0.504 255 255 255
0.19 -0.252 0.692 0 0 0
0.183 -0.487 0.697 255 255 255
0.219 -0.074 0.658 255 255 255
0.106 -0.374 0.805 255 255 255
0.23 0.068 0.648 255 255 255
0.172 0.1 0.728 255 255 255
-0.274 -0.01 0.724 255 255 255
0.335 -0.146 0.495 255 255 255
0.093 0.411 0.839 255 255 255
0.23 -0.172 0.637 255 255 255
0.129 -0.022 0.787 255 255 255
-0.006 -0.206 0.923 255 255 255
-0.144 -0.174 0.833 255 255 255
0.151 -0.474 0.741 255 255 255
-0.125 -0.311 0.842 255 255 255
0.045 -0.227 0.888 255 255 255
0.162 -0.351 0.729 255 255 255
0.153 -0.148 0.749 255 255 255
0.215 0.132 0.667 255 255 255
-0.052 0.267 0.904 255 255 255
0.085 0.112 0.847 255 255 255
0.255 0.035 0.613 255 255 255
0.159 -0.305 0.734 255 255 255
0.321 0.068 0.522 255 255 255
-0.38 -0.215 0.637 255 255 255
-0.294 -0.19 0.707 255 255 255
0.186 -0.462 0.691 255 255 255
-0.137 -0.366 0.833 255 255 255
0.042 0.22 0.905 255 255 255
-0.21 0.04 0.776 255 255 255
0.284 -0.176 0.566 0 0 0
-0.245 -0.229 0.747 255 255 255
0.23 -0.376 0.631 255 255 255
-0.257 -0.228 0.736 255 255 255
0.061 0.107 0.877 255 255 255
-0.043 -0.283 0.904 255 255 255
-0.114 -0.131 0.856 255 255 255
0.329 0.06 0.512 255 255 255
-0.317 -0.08 0.688 255 255 255
-0.111 -0.43 0.853 255 255 255
-0.336 0.167 0.676 255 255 255
-0.225 0.164 0.765 255 255 255
0.164 0.202 0.741 255 255 255
-0.127 0.236 0.681 255 255 255
-0.293 0.231 0.706 255 255 255
-0.015 -0.27 0.92 255 255 255
0.222 -0.043 0.656 255 255 255
-0.409 -0.22 0.613 255 255 255
0.152 0.334 0.759 255 255 255
-0.004 0.3 0.807 255 255 255
0.209 0.098 0.677 255 255 255
-0.213 -0.03 0.775 255 255 255
-0.195 -0.252 0.789 255 255 255
0.279 -0.158 0.567 0 0 0
-0.136 -0.39 0.832 255 255 255
-0.04 -0.061 0.91 255 255 255
0.215 -0.063 0.664 255 255 255
0.245 -0.13 0.621 255 255 255
0.284 -0.035 0.565 255 255 255
0.295 -0.116 0.546 0 0 0
-0.262 0.254 0.73 255 255 255
-0.324 -0.251 0.681 255 255 255
-0.165 0.058 0.815 255 255 255
-0.012 -0.497 0.917 255 255 255
-0.071 0.168 0.761 255 255 255
0.232 -0.415 0.63 255 255 255
0.093 0.259 0.84 255 255 255
0.064 0.046 0.875 255 255 255
0.092 0.295 0.842 255 255 255
0.061 -0.325 0.865 255 255 255
-0.402 -0.17 0.621 255 255 255
-0.276 0.218 0.721 255 255 255
-0.137 -0.614 0.825 0 0 0
-0.084 -0.601 0.869 255 255 255
0.221 0.243 0.662 255 255 255
0.345 -0.136 0.481 255 255 255
0.003 -0.031 0.928 255 255 255
-0.239 -0.143 0.753 255 255 255
0.319 0.09 0.53 255 255 255
0.161 0.162 0.744 255 255 255
-0.172 -0.295 0.808 255 255 255
-0.399 -0.243 0.623 255 255 255
-0.207 -0.182 0.78 255 255 255
0.292 0.098 0.564 255 255 255
-0.32 -0.292 0.686 255 255 255
-0.255 -0.352 0.737 255 255 255
-0.118 0.194 0.792 255 255 255
0.224 -0.056 0.652 255 255 255
0.165 0.196 0.74 255 255 255
0.168 -0.515 0.715 0 0 0
-0.015 0.224 0.927 255 255 255
-0.333 -0.103 0.675 255 255 255
0.291 -0.294 0.541 255 255 255
0.124 -0.137 0.79 255 255 255
0.12 0 0.801 255 255 255
-0.044 0.099 0.912 255 255 255
-0.193 -0.572 0.783 0 0 0
-0.237 0.017 0.755 255 255 255
-0.28 -0.136 0.719 255 255 255
-0.087 0.193 0.744 255 255 255
-0.136 0.316 0.669 255 255 255
-0.396 -0.056 0.63 255 255 255
-0.23 0.179 0.761 255 255 255
-0.169 -0.215 0.81 255 255 255
0.186 0.22 0.711 255 255 255
-0.278 -0.072 0.722 255 255 255
0.028 -0.655 0.884 0 0 0
0.061 0.058 0.88 255 255 255
-0.163 -0.278 0.814 255 255 255
0.253 0.155 0.619 255 255 255
0.258 -0.159 0.6 0 0 0
-0.096 -0.305 0.867 255 255 255
0.192 0.273 0.704 255 255 255
0.271 -0.175 0.582 255 255 255
-0.253 -0.568 0.735 255 255 255
0.276 -0.448 0.576 255 255 255
-0.055 -0.218 0.9 255 255 255
0.186 0.219 0.712 255 255 255
-0.081 -0.1 0.882 255 255 255
-0.321 -0.341 0.682 255 255 255
-0.173 0.057 0.808 255 255 255
0.029 -0.034 0.909 255 255 255
-0.03 0.209 0.92 255 255 255
-0.004 0.182 0.933 255 255 255
-0.236 0.034 0.755 255 255 255
0.159 -0.078 0.741 255 255 255
0.289 0.183 0.575 255 255 255
0.076 0.145 0.859 255 255 255
0.265 -0.026 0.582 255 255 255
0.024 -0.192 0.91 255 255 255
0.319 -0.116 0.515 255 255 255
0.237 0.016 0.638 255 255 255
-0.058 -0.095 0.898 255 255 255
0.28 -0.057 0.567 255 255 255
-0.26 -0.55 0.728 0 0 0
-0.15 0.32 0.644 255 255 255
0.066 -0.348 0.856 255 255 255
0.246 -0.281 0.618 255 255 255
0.269 0.17 0.6 0 0 0
0.211 -0.174 0.667 255 255 255
0.25 0.143 0.623 255 255 255
-0.272 0.217 0.724 255 255 255
-0.32 -0.244 0.685 255 255 255
0.085 -0.319 0.836 255 255 255
-0.145 -0.273 0.828 255 255 255
-0.112 -0.022 0.86 255 255 255
0.217 0.029 0.665 255 255 255
-0.137 -0.123 0.838 255 255 255
-0.183 -0.081 0.799 255 255 255
-0.293 0 0.709 255 255 255
-0.051 -0.095 0.903 255 255 255
-0.23 -0.01 0.395 0 0 0
-0.076 0.263 0.749 255 255 255
-0.253 -0.286 0.742 255 255 255
0.337 0.026 0.503 255 255 255
-0.361 -0.065 0.653 255 255 255
-0.078 0.416 0.773 255 255 255
-0.004 0.173 0.932 255 255 255
-0.258 0.045 0.738 255 255 255
0.318 0.103 0.534 255 255 255
-0.081 -0.035 0.883 255 255 255
-0.175 0.2 0.802 255 255 255
-0.37 -0.093 0.645 255 255 255
0.228 0.146 0.651 255 255 255
-0.254 -0.381 0.736 255 255 255
-0.285 0.26 0.713 255 255 255
0.029 0.022 0.912 255 255 255
-0.126 -0.383 0.841 255 255 255
0.222 0.345 0.665 255 255 255
0.08 -0.081 0.851 255 255 255
-0.352 -0.149 0.66 255 255 255
0.348 -0.051 0.488 255 255 255
0.204 0.344 0.689 255 255 255
0.007 0.291 0.934 255 255 255
-0.236 0.133 0.756 255 255 255
0.317 0.041 0.526 255 255 255
-0.439 -0.11 0.592 255 255 255
-0.176 0.113 0.802 255 255 255
-0.328 -0.47 0.676 255 255 255
0.114 -0.199 0.803 255 255 255
0.173 -0.34 0.714 255 255 255
-0.178 -0.521 0.795 255 255 255
0.15 0.367 0.763 255 255 255
0.137 0.105 0.774 255 255 255
0.009 0.385 0.726 255 255 255
-0.022 -0.194 0.918 255 255 255
-0.042 -0.21 0.906 255 255 255
0.215 -0.208 0.66 255 255 255
-0.102 -0.169 0.866 255 255 255
0.281 -0.124 0.566 255 255 255
0.044 0.296 0.904 255 255 255
0.014 0.275 0.738 255 255 255
-0.365 -0.069 0.65 255 255 255
0.21 -0.216 0.667 255 255 255
-0.223 -0.366 0.762 255 255 255
0.223 0.272 0.661 255 255 255
0.173 0.316 0.729 255 255 255
-0.173 0.168 0.805 255 255 255
-0.207 0.07 0.78 255 255 255
0.23 -0.145 0.641 255 255 255
0.143 0.115 0.768 255 255 255
-0.152 -0.183 0.826 255 255 255
0.074 -0.404 0.846 255 255 255
0.307 0.121 0.551 255 255 255
0.217 -0.39 0.65 255 255 255
-0.124 -0.309 0.844 255 255 255
0.182 0.306 0.716 255 255 255
-0.048 0.142 0.908 255 255 255
0.25 -0.201 0.613 255 255 255
0.156 0.238 0.752 255 255 255
0.042 -0.322 0.885 255 255 255
-0.225 -0.02 0.765 255 255 255
0.073 0.175 0.864 255 255 255
0.051 -0.042 0.885 255 255 255
-0.267 0.152 0.731 255 255 255
-0.22 0.043 0.391 255 255 255
0.16 -0.353 0.732 255 255 255
0.191 -0.089 0.697 0 0 0
-0.134 -0.06 0.843 255 255 255
-0.225 0.129 0.764 255 255 255
-0.205 0.307 0.746 255 255 255
-0.349 -0.037 0.664 255 255 255
0.266 0.16 0.605 255 255 255
0.263 -0.162 0.594 0 0 0
-0.255 -0.491 0.733 255 255 255
-0.076 0.218 0.753 255 255 255
-0.18 0.169 0.797 255 255 255
0.02 -0.15 0.913 255 255 255
-0.037 0.386 0.912 255 255 255
-0.327 0.072 0.681 255 255 255
-0.131 -0.032 0.845 255 255 255
0.208 -0.366 0.664 255 255 255
0.027 0.108 0.916 255 255 255
0.272 0.043 0.59 255 255 255
0.126 -0.208 0.787 255 255 255
0.191 -0.153 0.695 0 0 0
0.065 -0.175 0.868 255 255 255
0.055 0.132 0.886 255 255 255
-0.151 -0.567 0.817 255 255 255
0.098 -0.15 0.826 255 255 255
0.107 -0.228 0.814 255 255 255
-0.098 -0.154 0.87 255 255 255
-0.345 -0.069 0.667 255 255 255
0.128 -0.217 0.783 255 255 255
-0.017 -0.604 0.911 255 255 255
0.326 -0.058 0.509 255 255 255
0.229 -0.195 0.641 255 255 255
-0.296 -0.286 0.704 255 255 255
-0.435 -0.115 0.594 255 255 255
-0.017 0.241 0.927 255 255 255
0.107 0.135 0.816 255 255 255
0.265 0.133 0.602 255 255 255
0.202 -0.193 0.68 0 0 0
0.016 -0.087 0.918 255 255 255
-0.2 -0.254 0.783 255 255 255
0.101 -0.568 0.802 255 255 255
0.087 -0.07 0.841 255 255 255
0.257 -0.018 0.588 255 255 255
0.054 0.354 0.89 255 255 255
0.116 -0.054 0.804 255 255 255
0.236 0.055 0.639 255 255 255
0.145 0.315 0.771 255 255 255
0.014 0.266 0.756 255 255 255
-0.029 -0.073 0.916 255 255 255
-0.119 0.244 0.679 255 255 255
-0.009 -0.116 0.925 255 255 255
-0.12 -0.063 0.853 255 255 255
0.128 -0.314 0.781 255 255 255
-0.407 -0.108 0.617 255 255 255
0.332 0.047 0.504 255 255 255
-0.275 -0.388 0.717 255 255 255
0.122 0.026 0.795 255 255 255
-0.133 -0.21 0.843 255 255 255
0.166 0.305 0.739 255 255 255
-0.221 -0.308 0.765 255 255 255
-0.389 -0.146 0.63 255 255 255
-0.114 -0.489 0.847 255 255 255
-0.129 0.164 0.8 255 255 255
-0.143 -0.266 0.831 255 255 255
-0.238 -0.411 0.748 255 255 255
-0.363 -0.235 0.648 255 255 255
-0.313 -0.365 0.689 255 255 255
-0.148 -0.224 0.828 255 255 255
-0.375 -0.134 0.641 255 255 255
-0.156 0.151 0.822 255 255 255
0.127 -0.567 0.768 0 0 0
-0.127 -0.173 0.846 255 255 255
-0.25 -0.333 0.742 255 255 255
-0.056 0.047 0.903 255 255 255
-0.36 -0.138 0.653 255 255 255
-0.056 0.291 0.9 255 255 255
-0.201 0.29 0.744 255 255 255
0.023 -0.067 0.913 255 255 255
-0.007 0.395 0.781 255 255 255
-0.218 -0.196 0.769 255 255 255
-0.008 -0.293 0.923 255 255 255
0.312 -0.212 0.532 255 255 255
-0.249 0.037 0.394 255 255 255
-0.123 0.101 0.79 0 0 0
0.004 -0.378 0.916 255 255 255
0.289 -0.207 0.545 0 0 0
0.123 0.282 0.801 255 255 255
0.189 0.327 0.709 0 0 0
0.248 -0.067 0.602 255 255 255
0.176 -0.31 0.713 255 255 255
0.065 -0.587 0.846 255 255 255
-0.283 -0.379 0.712 255 255 255
0.038 0.194 0.906 255 255 255
0.118 0.438 0.808 255 255 255
0.198 0.097 0.69 0 0 0
-0.299 -0.11 0.705 255 255 255
0.011 -0.404 0.908 255 255 255
-0.237 -0.567 0.747 0 0 0
0.079 0.273 0.86 255 255 255
0.138 0.386 0.779 255 255 255
0.255 0.014 0.612 0 0 0
0.1 0.175 0.827 255 255 255
-0.444 -0.117 0.588 255 255 255
-0.176 0.176 0.801 255 255 255
-0.14 -0.254 0.834 255 255 255
0.228 -0.309 0.638 255 255 255
-0.132 0.178 0.808 255 255 255
0.253 0.139 0.62 255 255 255
-0.008 0.086 0.93 255 255 255
0.096 0.456 0.836 255 255 255
-0.167 0.167 0.81 255 255 255
0.223 0.143 0.656 255 255 255
-0.046 0.133 0.909 255 255 255
-0.054 0.035 0.903 255 255 255
-0.274 -0.039 0.724 255 255 255
-0.211 -0.058 0.777 255 255 255
-0.115 -0.514 0.847 255 255 255
0.15 0.095 0.757 255 255 255
-0.107 -0.628 0.85 0 0 0
-0.203 0.208 0.787 255 255 255
0.265 0.088 0.6 0 0 0
0.213 -0.078 0.666 255 255 255
-0.369 -0.203 0.646 255 255 255
0.264 0.073 0.602 0 0 0
-0.096 -0.118 0.87 255 255 255
0.281 -0.33 0.564 255 255 255
-0.311 -0.023 0.694 255 255 255
0.126 -0.347 0.78 255 255 255
-0.256 0.022 0.394 255 255 255
-0.114 -0.15 0.857 255 255 255
0.269 0.036 0.594 255 255 255
0.084 0.027 0.848 255 255 255
-0.186 0.277 0.703 255 255 255
-0.235 0.041 0.758 255 255 255
0.223 0.376 0.665 255 255 255
0.178 -0.03 0.716 255 255 255
0.106 -0.477 0.8 255 255 255
-0.245 -0.03 0.748 255 255 255
-0.229 -0.189 0.762 255 255 255
0.173 0.385 0.73 255 255 255
0.312 -0.107 0.522 255 255 255
0.105 0.248 0.825 255 255 255
-0.368 -0.203 0.647 255 255 255
-0.205 -0.4 0.776 255 255 255
0.053 0.018 0.887 255 255 255
-0.256 -0.126 0.739 255 255 255
-0.251 0.358 0.74 255 255 255
0.111 0.413 0.816 255 255 255
-0.102 -0.069 0.865 255 255 255
-0.428 -0.105 0.601 255 255 255
0.049 0.407 0.892 0 0 0
-0.302 -0.451 0.699 255 255 255
0.163 -0.176 0.734 255 255 255
0.114 0.28 0.812 255 255 255
-0.021 0.346 0.923 255 255 255
-0.204 0.053 0.782 255 255 255
0.243 0.239 0.632 255 255 255
-0.26 -0.217 0.733 255 255 255
-0.31 -0.399 0.691 255 255 255
0.29 -0.292 0.546 255 255 255
0.179 -0.411 0.701 255 255 255
-0.055 0.41 0.897 0 0 0
0.187 -0.249 0.698 0 0 0
-0.324 -0.458 0.681 255 255 255
-0.293 -0.022 0.71 255 255 255
0.183 0.291 0.717 255 255 255
0.152 0.378 0.761 255 255 255
-0.334 -0.32 0.673 255 255 255
0.225 0.185 0.657 255 255 255
0.299 -0.14 0.541 255 255 255
0.328 -0.179 0.501 255 255 255
-0.395 -0.171 0.626 255 255 255
-0.281 -0.359 0.713 255 255 255
0.306 -0.024 0.53 255 255 255
0.124 -0.234 0.786 255 255 255
0.11 -0.339 0.804 255 255 255
0.134 -0.193 0.774 255 255 255
0.253 0.249 0.62 255 255 255
0.203 0.202 0.687 0 0 0
-0.276 -0.063 0.724 255 255 255
-0.077 0.054 0.771 255 255 255
0.324 -0.071 0.509 0 0 0
0.35 -0.101 0.483 255 255 255
0.245 0.027 0.629 255 255 255
-0.167 0.293 0.671 255 255 255
0.131 -0.214 0.78 255 255 255
0.105 -0.593 0.795 0 0 0
0.233 -0.358 0.63 255 255 255
-0.033 0.372 0.914 255 255 255
-0.305 -0.196 0.7 255 255 255
-0.074 0.361 0.764 255 255 255
0.031 0.326 0.898 255 255 255
0.036 -0.238 0.896 255 255 255
-0.105 0.028 0.76 255 255 255
0.265 -0.277 0.585 255 255 255
-0.125 -0.112 0.848 255 255 255
0.3 -0.164 0.54 255 255 255
0.135 0.057 0.78 255 255 255
-0.293 0.084 0.713 255 255 255
0 -0.601 0.911 255 255 255
0.239 -0.279 0.625 255 255 255
0.255 -0.374 0.599 255 255 255
0.155 -0.016 0.75 255 255 255
0.111 0.09 0.812 255 255 255
0.229 0.038 0.651 255 255 255
0.22 0.188 0.664 255 255 255
-0.254 -0.332 0.738 255 255 255
0.202 -0.491 0.669 0 0 0
-0.35 -0.118 0.662 255 255 255
0.278 -0.073 0.568 255 255 255
-0.398 -0.266 0.625 255 255 255
-0.176 0.189 0.8 255 255 255
-0.045 -0.123 0.905 255 255 255
-0.295 0.262 0.704 255 255 255
0.28 -0.018 0.568 0 0 0
-0.264 0.001 0.397 255 255 255
0.243 0.008 0.63 255 255 255
-0.253 -0.239 0.739 255 255 255
0.051 -0.385 0.872 255 255 255
0.054 -0.105 0.88 255 255 255
0.121 0.247 0.803 255 255 255
-0.309 -0.338 0.692 255 255 255
0.251 0.195 0.621 255 255 255
-0.343 -0.001 0.669 255 255 255
0.054 -0.338 0.872 255 255 255
0.155 0.191 0.753 255 255 255
0.243 -0.255 0.621 255 255 255
-0.105 0.062 0.746 255 255 255
0.284 0.194 0.586 255 255 255
0.204 0.123 0.682 0 0 0
-0.243 -0.129 0.75 255 255 255
0.116 -0.013 0.806 255 255 255
0.24 0.081 0.634 255 255 255
0.323 -0.206 0.503 255 255 255
0.282 -0.415 0.566 0 0 0
-0.22 -0.506 0.761 255 255 255
0.099 -0.246 0.822 255 255 255
0.348 -0.128 0.479 255 255 255
-0.316 -0.007 0.689 255 255 255
-0.074 0.21 0.754 255 255 255
0.218 0.155 0.665 255 255 255
-0.188 -0.53 0.785 255 255 255
0.214 0.263 0.673 255 255 255
-0.137 0.356 0.662 255 255 255
-0.355 -0.208 0.654 255 255 255
-0.09 -0.412 0.871 255 255 255
0.312 -0.099 0.527 255 255 255
-0.314 0.041 0.691 255 255 255
0.264 -0.256 0.59 0 0 0
0.28 -0.253 0.56 0 0 0
-0.271 -0.023 0.369 255 255 255
0.007 -0.016 0.927 255 255 255
0.274 0.084 0.588 0 0 0
0.007 0.289 0.735 255 255 255
0.168 0.393 0.736 255 255 255
-0.256 -0.023 0.38 255 255 255
-0.171 -0.144 0.808 255 255 255
0.279 0.173 0.59 255 255 255
0.268 0.2 0.603 0 0 0
0.227 -0.379 0.635 255 255 255
0.124 0.309 0.8 255 255 255
-0.27 -0.403 0.722 255 255 255
-0.074 0.378 0.769 255 255 255
0.202 0.387 0.692 255 255 255
0.287 -0.007 0.56 255 255 255
0.116 -0.297 0.796 255 255 255
0.272 0.27 0.61 0 0 0
-0.23 -0.04 0.762 255 255 255
0.203 -0.211 0.678 0 0 0
-0.1 0.126 0.742 255 255 255
-0.257 0.058 0.739 255 255 255
-0.26 0.183 0.735 255 255 255
-0.145 -0.127 0.831 255 255 255
-0.293 0.006 0.708 255 255 255
0.198 0.127 0.692 0 0 0
-0.303 -0.257 0.699 255 255 255
-0.293 0.15 0.711 255 255 255
-0.339 0.116 0.674 255 255 255
0.008 -0.497 0.908 255 255 255
0.039 0.013 0.902 255 255 255
-0.086 -0.409 0.873 255 255 255
0.302 -0.252 0.538 255 255 255
0.098 0.2 0.831 255 255 255
0.172 0.098 0.728 255 255 255
-0.136 -0.423 0.833 255 255 255
0.264 -0.125 0.591 0 0 0
-0.282 -0.073 0.72 255 255 255
-0.075 -0.33 0.882 255 255 255
-0.3 -0.45 0.699 255 255 255
0.241 0.226 0.638 255 255 255
-0.002 -0.593 0.911 255 255 255
0.23 -0.443 0.63 255 255 255
-0.106 -0.008 0.865 255 255 255
-0.356 -0.421 0.658 255 255 255
0.175 -0.044 0.721 255 255 255
-0.367 -0.269 0.647 255 255 255
0.079 -0.314 0.844 255 255 255
-0.209 0.045 0.778 255 255 255
0.335 0.031 0.506 255 255 255
0.31 0.061 0.537 255 255 255
-0.029 -0.567 0.906 255 255 255
0.315 -0.009 0.523 255 255 255
-0.099 0.324 0.766 255 255 255
0.271 -0.31 0.582 255 255 255
-0.146 0.334 0.661 255 255 255
-0.028 0.433 0.849 255 255 255
0.325 -0.096 0.513 255 255 255
0.195 -0.053 0.692 0 0 0
0.311 -0.122 0.527 255 255 255
-0.089 -0.101 0.874 255 255 255
-0.275 -0.099 0.723 255 255 255
-0.077 -0.242 0.88 255 255 255
0.124 -0.268 0.788 255 255 255
0.03 -0.126 0.903 255 255 255
-0.225 0.001 0.397 255 255 255
-0.429 -0.074 0.6 255 255 255
-0.037 0.116 0.916 255 255 255
-0.111 -0.404 0.851 255 255 255
-0.071 -0.113 0.888 255 255 255
-0.073 -0.128 0.887 255 255 255
0.296 0.073 0.556 255 255 255
-0.251 -0.118 0.742 255 255 255
0.142 -0.282 0.762 255 255 255
-0.299 0.002 0.704 255 255 255
-0.352 -0.384 0.66 255 255 255
-0.076 -0.077 0.886 255 255 255
-0.138 0.184 0.826 0 0 0
0.081 0.439 0.854 255 255 255
0.06 0.405 0.882 0 0 0
-0.121 0.31 0.669 255 255 255
0.225 -0.035 0.652 255 255 255
-0.129 -0.249 0.843 255 255 255
0.134 0.382 0.787 255 255 255
0.251 0.261 0.624 255 255 255
-0.235 -0.252 0.754 255 255 255
0.042 -0.074 0.893 255 255 255
-0.234 -0.376 0.753 255 255 255
-0.063 0.025 0.899 255 255 255
0.291 -0.138 0.554 255 255 255
-0.129 0.232 0.681 255 255 255
0.099 0.115 0.826 255 255 255
0.052 -0.274 0.879 255 255 255
-0.337 0.209 0.673 255 255 255
-0.43 -0.152 0.599 255 255 255
0.221 -0.133 0.651 255 255 255
-0.304 0.067 0.701 255 255 255
-0.22 0.019 0.77 255 255 255
-0.36 -0.242 0.65 255 255 255
0.269 -0.186 0.584 255 255 255
-0.308 -0.208 0.697 255 255 255
0.279 0.035 0.581 0 0 0
-0.296 0.319 0.703 0 0 0
-0.271 -0.504 0.719 255 255 255
-0.039 -0.425 0.904 255 255 255
0.015 0.217 0.93 255 255 255
0.259 -0.294 0.584 255 255 255
0.216 0.062 0.667 255 255 255
0.183 0.141 0.713 255 255 255
0.14 -0.261 0.765 255 255 255
-0.095 0.352 0.7 255 255 255
0.312 -0.1 0.529 255 255 255
-0.151 0.064 0.83 255 255 255
0.221 0.048 0.659 255 255 255
0.043 0.07 0.9 255 255 255
-0.282 -0.078 0.72 255 255 255
0.146 0.108 0.762 255 255 255
0.258 -0.424 0.594 255 255 255
0.171 -0.401 0.715 255 255 255
0.048 -0.25 0.884 255 255 255
0 -0.376 0.918 255 255 255
0.166 -0.184 0.728 255 255 255
0.171 0.18 0.733 255 255 255
-0.062 0.4 0.884 0 0 0
-0.161 -0.544 0.807 255 255 255
0.274 -0.438 0.579 0 0 0
0.142 -0.501 0.751 255 255 255
0.027 -0.158 0.907 255 255 255
-0.345 0.127 0.669 255 255 255
0.024 -0.335 0.903 255 255 255
0.072 -0.063 0.861 255 255 255
-0.271 0.029 0.729 255 255 255
0.303 -0.172 0.537 255 255 255
0.223 -0.262 0.648 0 0 0
-0.25 0.105 0.745 255 255 255
-0.274 -0.51 0.717 255 255 255
-0.058 -0.14 0.898 255 255 255
0.283 0.146 0.581 255 255 255
0.077 0.412 0.86 255 255 255
0.174 -0.475 0.709 255 255 255
0.292 -0.08 0.552 0 0 0
-0.283 -0.09 0.718 255 255 255
-0.289 0.103 0.715 255 255 255
-0.384 -0.154 0.635 255 255 255
0.283 -0.233 0.562 255 255 255
0.305 -0.188 0.528 255 255 255
0.237 0.328 0.648 255 255 255
0.216 -0.366 0.653 255 255 255
0.105 -0.113 0.817 255 255 255
-0.133 -0.162 0.841 255 255 255
0.056 -0.107 0.878 255 255 255
-0.266 -0.46 0.724 255 255 255
0.135 0.206 0.782 255 255 255
-0.143 0.175 0.833 0 0 0
0.313 0.125 0.545 255 255 255
0.061 0.402 0.879 0 0 0
0.27 -0.333 0.577 255 255 255
-0.135 -0.227 0.84 255 255 255
0.028 0.285 0.92 255 255 255
0.287 -0.345 0.558 255 255 255
-0.24 -0.334 0.749 255 255 255
0.205 -0.511 0.664 0 0 0
-0.426 -0.131 0.602 255 255 255
0.055 -0.213 0.878 255 255 255
-0.372 -0.322 0.641 255 255 255
0.253 -0.331 0.601 255 255 255
-0.222 0.028 0.393 255 255 255
0.254 -0.104 0.603 255 255 255
-0.341 -0.308 0.668 255 255 255
-0.032 0.183 0.918 255 255 255
0.056 0.483 0.887 255 255 255
-0.186 -0.472 0.79 255 255 255
-0.234 -0.155 0.757 255 255 255
0.313 0.05 0.533 255 255 255
-0.079 -0.204 0.883 255 255 255
0.242 0.061 0.633 255 255 255
-0.276 -0.361 0.719 255 255 255
0.285 -0.238 0.559 255 255 255
0.329 -0.138 0.499 255 255 255
0.17 0.379 0.734 255 255 255
0.056 0.407 0.886 0 0 0
-0.371 -0.057 0.649 255 255 255
-0.168 0.217 0.65 255 255 255
-0.171 -0.242 0.807 255 255 255
0.345 0 0.489 255 255 255
0.219 -0.202 0.654 255 255 255
0.121 -0.42 0.783 255 255 255
0.285 0.081 0.57 255 255 255
0.294 -0.196 0.557 0 0 0
0.296 0.108 0.56 255 255 255
-0.318 -0.083 0.688 255 255 255
-0.318 -0.089 0.689 255 255 255
0.305 0.125 0.553 255 255 255
0.045 -0.591 0.868 255 255 255
-0.175 -0.245 0.803 255 255 255
0.205 -0.279 0.671 255 255 255
-0.09 -0.385 0.867 255 255 255
-0.242 0.032 0.396 0 0 0
-0.284 -0.459 0.711 255 255 255
-0.086 0.365 0.76 255 255 255
0.045 -0.423 0.878 255 255 255
0.186 -0.164 0.702 0 0 0
0.062 0.233 0.88 255 255 255
0.069 -0.003 0.867 255 255 255
0.044 0.462 0.891 255 255 255
-0.376 -0.163 0.64 255 255 255
-0.38 -0.129 0.637 255 255 255
-0.076 0.042 0.773 255 255 255
0.23 0.233 0.65 255 255 255
0.252 -0.205 0.607 255 255 255
-0.233 0.058 0.388 255 255 255
0.253 0.277 0.622 0 0 0
-0.308 -0.408 0.692 255 255 255
-0.34 -0.104 0.668 255 255 255
-0.217 -0.093 0.773 255 255 255
-0.331 -0.517 0.674 255 255 255
-0.031 -0.394 0.909 255 255 255
-0.161 -0.124 0.817 255 255 255
-0.376 -0.067 0.64 255 255 255
0.034 -0.233 0.898 255 255 255
0.196 0.245 0.697 0 0 0
0.068 0.27 0.875 255 255 255
-0.186 0.202 0.694 255 255 255
0.202 0 0.686 0 0 0
0.291 -0.042 0.557 255 255 255
-0.197 -0.301 0.785 255 255 255
-0.091 -0.124 0.874 255 255 255
-0.056 0.038 0.902 255 255 255
0.182 -0.327 0.703 255 255 255
-0.219 -0.319 0.766 255 255 255
-0.297 -0.155 0.707 255 255 255
0.074 -0.209 0.854 255 255 255
0.023 -0.477 0.896 255 255 255
0.252 0.28 0.623 0 0 0
-0.344 0.146 0.67 255 255 255
0.171 -0.179 0.723 255 255 255
-0.208 0.005 0.779 255 255 255
-0.419 -0.156 0.607 255 255 255
0.159 -0.479 0.728 255 255 255
-0.363 -0.339 0.652 255 255 255
0.184 -0.438 0.694 255 255 255
0.033 0.112 0.912 255 255 255
0.102 -0.383 0.811 255 255 255
0.282 -0.176 0.567 255 255 255
-0.369 -0.105 0.646 255 255 255
0.146 -0.384 0.749 255 255 255
-0.145 0.132 0.834 0 0 0
0.273 -0.211 0.577 255 255 255
-0.226 0.043 0.385 0 0 0
-0.076 -0.019 0.888 255 255 255
-0.183 0.023 0.8 255 255 255
0.062 -0.52 0.852 255 255 255
0.257 -0.463 0.596 0 0 0
-0.134 0.061 0.822 0 0 0
-0.068 0.141 0.767 255 255 255
0.127 0.171 0.79 255 255 255
0.207 0.171 0.68 255 255 255
0.067 -0.303 0.858 255 255 255
0.297 -0.311 0.552 255 255 255
-0.25 -0.317 0.741 255 255 255
-0.082 -0.185 0.881 255 255 255
0.151 -0.339 0.744 255 255 255
0.293 -0.084 0.552 255 255 255
-0.37 -0.303 0.645 255 255 255
-0.249 -0.179 0.743 255 255 255
-0.335 -0.144 0.671 255 255 255
-0.286 -0.097 0.716 255 255 255
-0.298 -0.274 0.703 255 255 255
-0.068 0.03 0.791 255 255 255
0.257 -0.047 0.592 0 0 0
-0.414 -0.075 0.609 255 255 255
0.141 -0.074 0.769 255 255 255
-0.231 -0.18 0.759 255 255 255
-0.264 0.027 0.387 255 255 255
-0.073 0.193 0.756 255 255 255
0.251 0.051 0.62 255 255 255
0.053 0.449 0.888 255 255 255
0.194 -0.022 0.696 0 0 0
0.279 0.06 0.579 255 255 255
-0.137 0.233 0.685 0 0 0
-0.208 -0.454 0.773 255 255 255
-0.064 0.363 0.773 255 255 255
0.263 -0.071 0.59 255 255 255
0.315 -0.092 0.521 255 255 255
0.12 -0.56 0.776 0 0 0
-0.104 -0.01 0.867 255 255 255
-0.187 -0.517 0.787 255 255 255
-0.349 -0.43 0.661 255 255 255
0.164 -0.201 0.734 255 255 255
0.179 0.199 0.72 255 255 255
-0.272 0.4 0.725 255 255 255
-0.004 0.06 0.932 255 255 255
0.097 -0.529 0.809 255 255 255
-0.276 0.39 0.723 255 255 255
0.189 0.048 0.703 255 255 255
-0.142 -0.222 0.834 255 255 255
0.151 0.057 0.758 255 255 255
0.084 0.044 0.848 255 255 255
-0.064 -0.243 0.892 255 255 255
0.083 0.096 0.849 255 255 255
0.309 0.074 0.54 255 255 255
-0.182 0.12 0.797 255 255 255
0.19 -0.283 0.694 0 0 0
-0.32 -0.301 0.686 255 255 255
-0.317 0.117 0.693 255 255 255
0.23 0.094 0.646 255 255 255
-0.343 -0.373 0.667 255 255 255
0.164 -0.032 0.738 255 255 255
0.301 -0.322 0.543 255 255 255
-0.31 0.242 0.694 255 255 255
0.245 -0.17 0.62 255 255 255
-0.32 -0.107 0.685 255 255 255
0.247 -0.069 0.62 255 255 255
-0.326 0.053 0.681 255 255 255
-0.111 -0.053 0.862 255 255 255
0.025 -0.02 0.912 255 255 255
-0.094 0.04 0.759 255 255 255
-0.234 0.106 0.757 255 255 255
-0.261 0.337 0.732 255 255 255
0.314 -0.046 0.535 255 255 255
0.152 0.142 0.754 255 255 255
0.285 -0.046 0.563 255 255 255
-0.393 -0.203 0.626 255 255 255
0.235 -0.149 0.634 0 0 0
0.132 0.16 0.784 255 255 255
0.312 -0.147 0.522 255 255 255
