ply
format ascii 1.0
comment Created by Open3D
element vertex 1585
property double x
property double y
property double z
property uchar red
property uchar green
property uchar blue
end_header
-0.316 -0.208 0.811 255 255 255
-0.322 -0.212 0.803 255 255 255
-0.1 0.291 0.916 255 255 255
0.17 0.346 0.641 255 255 255
0.035 0.377 0.773 255 255 255
0.057 0.188 0.778 255 255 255
-0.198 0.155 0.89 255 255 255
-0.263 0.21 0.813 255 255 255
0.264 -0.399 0.642 255 255 255
-0.39 0.108 0.685 255 255 255
-0.446 -0.249 0.673 255 255 255
-0.146 -0.566 1.027 255 255 255
0.199 0.066 0.641 255 255 255
0.006 -0.414 0.91 255 255 255
0.156 0.155 0.679 0 0 0
-0.337 -0.216 0.787 255 255 255
0.13 -0.026 0.729 255 255 255
-0.205 -0.397 0.953 255 255 255
0.288 -0.196 0.591 255 255 255
0.339 -0.25 0.544 255 255 255
-0.13 0.24 0.932 255 255 255
0.243 -0.535 0.682 255 255 255
0.233 -0.12 0.633 255 255 255
-0.292 0.138 0.793 255 255 255
0.115 0.316 0.698 0 0 0
-0.373 -0.02 0.721 255 255 255
-0.147 0.204 0.927 255 255 255
-0.337 0.028 0.758 255 255 255
-0.233 0.298 0.772 255 255 255
0.324 -0.124 0.537 255 255 255
-0.434 0.057 0.644 255 255 255
0.07 -0.17 0.813 255 255 255
-0.186 0.14 0.904 255 255 255
0.201 -0.059 0.661 255 255 255
0.021 0.149 0.821 255 255 255
0.056 -0.316 0.846 255 255 255
-0.242 0.166 0.844 255 255 255
-0.177 -0.247 0.959 255 255 255
0.213 -0.282 0.678 0 0 0
-0.183 0.248 0.874 255 255 255
-0.362 0.214 0.707 255 255 255
-0.313 0.288 0.742 255 255 255
-0.235 -0.264 0.901 255 255 255
0.141 0.066 0.707 255 255 255
0.09 -0.295 0.807 0 0 0
-0.126 0.172 0.943 255 255 255
0.233 -0.093 0.628 255 255 255
-0.086 -0.47 1 255 255 255
-0.403 -0.259 0.718 255 255 255
0.007 0.128 0.84 255 255 255
0.174 0.26 0.647 255 255 255
0.254 0.123 0.581 255 255 255
-0.342 -0.599 0.829 0 0 0
-0.369 0.097 0.711 255 255 255
0.114 0.124 0.727 255 255 255
-0.188 0.397 0.718 255 255 255
-0.361 -0.361 0.779 255 255 255
-0.331 -0.431 0.82 255 255 255
0.291 -0.381 0.612 255 255 255
0.084 -0.645 0.86 0 0 0
0.265 -0.074 0.591 0 0 0
-0.106 -0.516 1.021 255 255 255
0.049 0.109 0.797 255 255 255
-0.296 0.249 0.761 255 255 255
0.277 -0.354 0.624 255 255 255
-0.255 -0.307 0.886 255 255 255
0.13 -0.089 0.736 255 255 255
-0.42 -0.128 0.681 255 255 255
0.131 -0.259 0.76 255 255 255
-0.253 -0.357 0.895 255 255 255
-0.152 -0.292 0.986 255 255 255
0.259 -0.095 0.596 0 0 0
-0.405 -0.379 0.737 255 255 255
0.28 -0.504 0.639 255 255 255
-0.445 -0.063 0.645 255 255 255
0.106 -0.549 0.824 255 255 255
-0.44 -0.24 0.678 255 255 255
0.258 -0.048 0.601 255 255 255
0.089 -0.007 0.771 0 0 0
0.198 0.07 0.639 255 255 255
0.194 0.069 0.643 255 255 255
-0.076 -0.094 0.946 255 255 255
0.126 0.289 0.691 255 255 255
0.071 -0.258 0.822 255 255 255
0.145 0.352 0.662 255 255 255
-0.399 -0.167 0.711 255 255 255
0.204 -0.375 0.699 255 255 255
0.298 -0.113 0.571 255 255 255
-0.061 -0.139 0.941 255 255 255
0.065 -0.207 0.824 255 255 255
-0.4 0.121 0.679 255 255 255
-0.301 -0.532 0.865 255 255 255
0.136 0.365 0.672 255 255 255
0.248 0.114 0.59 255 255 255
-0.181 0.284 0.748 255 255 255
0.127 -0.366 0.778 255 255 255
0.213 0.209 0.613 255 255 255
0.156 0.108 0.689 255 255 255
-0.156 0.109 0.932 255 255 255
0.22 0.128 0.613 255 255 255
0.194 -0.142 0.677 255 255 255
0.071 -0.067 0.798 255 255 255
0.052 -0.198 0.836 255 255 255
-0.465 -0.043 0.625 255 255 255
-0.384 -0.402 0.762 255 255 255
0.083 -0.146 0.796 0 0 0
0.11 0.209 0.721 255 255 255
0.149 0.005 0.706 255 255 255
-0.243 -0.207 0.889 255 255 255
0.098 -0.262 0.793 0 0 0
0.265 0.198 0.565 255 255 255
0.242 -0.027 0.611 255 255 255
0.073 0.238 0.755 255 255 255
0.224 0.064 0.617 255 255 255
0.09 0.013 0.768 0 0 0
-0.361 0.117 0.719 255 255 255
-0.172 0.365 0.732 255 255 255
0.015 -0.146 0.87 255 255 255
0.287 0.021 0.569 255 255 255
-0.277 -0.347 0.869 255 255 255
-0.175 -0.56 1.003 255 255 255
0.181 -0.456 0.734 255 255 255
0.248 -0.231 0.637 255 255 255
0.095 0.079 0.754 0 0 0
0.277 0.173 0.555 255 255 255
0.199 -0.48 0.72 255 255 255
0.216 0.168 0.615 255 255 255
0.117 0.303 0.698 255 255 255
0.259 -0.5 0.663 0 0 0
-0.26 -0.098 0.855 255 255 255
0.04 0.093 0.812 255 255 255
-0.043 0.035 0.904 255 255 255
-0.147 -0.574 1.027 255 255 255
0.288 -0.461 0.625 0 0 0
-0.133 0.207 0.934 255 255 255
0.008 0.198 0.829 255 255 255
-0.194 -0.246 0.942 255 255 255
-0.174 -0.167 0.95 255 255 255
-0.057 0.41 0.862 255 255 255
-0.461 -0.076 0.631 255 255 255
-0.368 -0.087 0.737 255 255 255
-0.162 0.308 0.901 255 255 255
0.008 -0.111 0.872 255 255 255
0.139 -0.033 0.721 255 255 255
-0.349 -0.079 0.758 255 255 255
-0.392 -0.121 0.711 255 255 255
-0.362 -0.156 0.752 255 255 255
-0.361 -0.092 0.745 255 255 255
0.29 -0.423 0.619 255 255 255
0.236 0.167 0.595 255 255 255
0.039 -0.296 0.861 255 255 255
-0.086 -0.085 0.955 255 255 255
-0.46 -0.085 0.637 255 255 255
0.126 0.209 0.702 255 255 255
-0.225 -0.039 0.885 255 255 255
-0.303 -0.046 0.804 255 255 255
-0.082 -0.302 0.976 255 255 255
-0.08 0.322 0.896 255 255 255
0.344 -0.092 0.522 255 255 255
-0.163 -0.194 0.966 255 255 255
-0.364 -0.06 0.737 255 255 255
0.343 -0.036 0.518 0 0 0
-0.177 0.329 0.736 0 0 0
0.325 -0.128 0.538 255 255 255
0.304 -0.13 0.562 255 255 255
-0.279 -0.39 0.871 255 255 255
0.249 0.149 0.584 255 255 255
0.177 0.171 0.656 0 0 0
-0.015 -0.258 0.912 255 255 255
-0.133 0.244 0.93 255 255 255
-0.353 0.15 0.722 255 255 255
-0.344 0.01 0.75 255 255 255
0.301 0.076 0.541 255 255 255
-0.121 0.311 0.925 255 255 255
-0.297 -0.117 0.819 255 255 255
-0.015 -0.529 0.948 255 255 255
0.198 -0.232 0.689 255 255 255
-0.161 0.344 0.899 255 255 255
0.291 -0.193 0.589 255 255 255
-0.262 -0.26 0.872 255 255 255
-0.072 -0.306 0.969 255 255 255
0.029 0.233 0.801 255 255 255
-0.146 0.108 0.94 255 255 255
-0.193 0.243 0.746 255 255 255
0.061 0.251 0.765 255 255 255
0.208 -0.216 0.675 0 0 0
0.071 -0.594 0.867 255 255 255
-0.068 -0.331 0.968 255 255 255
-0.072 -0.688 1.018 255 255 255
0.267 0.06 0.576 255 255 255
0.15 0.141 0.687 255 255 255
0.061 -0.068 0.811 255 255 255
-0.013 -0.029 0.884 255 255 255
0.325 -0.333 0.571 255 255 255
-0.189 0.262 0.742 255 255 255
0.333 -0.067 0.529 255 255 255
0 -0.015 0.869 255 255 255
0.172 -0.504 0.751 255 255 255
-0.198 -0.432 0.963 255 255 255
-0.152 0.177 0.925 255 255 255
0.291 -0.023 0.563 255 255 255
-0.213 -0.49 0.956 255 255 255
-0.058 0.46 0.862 255 255 255
-0.025 0.055 0.884 255 255 255
0.048 -0.331 0.855 255 255 255
0.25 -0.529 0.675 255 255 255
-0.216 -0.236 0.918 255 255 255
0.137 -0.341 0.765 255 255 255
0.304 -0.465 0.614 0 0 0
-0.069 -0.669 1.012 255 255 255
-0.273 -0.029 0.834 255 255 255
-0.064 0.081 0.917 255 255 255
0.086 -0.403 0.825 0 0 0
0.298 -0.21 0.584 255 255 255
-0.156 0.296 0.907 255 255 255
0.283 0.13 0.556 255 255 255
0.108 -0.311 0.791 255 255 255
-0.209 0.094 0.887 255 255 255
-0.242 -0.725 0.951 255 255 255
-0.066 0.066 0.921 255 255 255
-0.181 -0.029 0.926 255 255 255
-0.313 0.022 0.78 255 255 255
0.227 0.005 0.627 255 255 255
0.219 -0.27 0.672 0 0 0
-0.298 0.024 0.801 255 255 255
-0.383 -0.377 0.76 255 255 255
-0.195 0.182 0.759 255 255 255
0.158 -0.218 0.726 255 255 255
-0.345 -0.389 0.799 255 255 255
0.235 -0.308 0.66 255 255 255
-0.23 0.004 0.875 255 255 255
0.002 -0.11 0.88 255 255 255
0.001 0.07 0.857 255 255 255
-0.123 -0.66 1.05 255 255 255
-0.067 -0.188 0.952 255 255 255
0.112 -0.521 0.816 255 255 255
-0.383 0.073 0.695 255 255 255
0.142 0.152 0.694 255 255 255
0.005 -0.258 0.893 255 255 255
-0.084 -0.548 1.008 255 255 255
-0.166 -0.426 0.991 255 255 255
0.199 0.187 0.63 255 255 255
-0.316 -0.2 0.808 255 255 255
0.047 -0.268 0.85 255 255 255
0.031 0.141 0.812 255 255 255
0.127 0.016 0.729 255 255 255
0.139 0.214 0.69 255 255 255
0.079 -0.381 0.83 255 255 255
0.253 -0.337 0.643 255 255 255
0.308 -0.268 0.58 255 255 255
-0.101 0.362 0.907 255 255 255
-0.192 -0.359 0.96 255 255 255
-0.181 -0.241 0.956 255 255 255
0 -0.667 0.947 255 255 255
-0.313 -0.425 0.84 255 255 255
-0.135 0.446 0.903 255 255 255
0.101 0.048 0.752 255 255 255
-0.258 -0.302 0.883 255 255 255
-0.15 -0.373 0.998 255 255 255
0.341 -0.224 0.537 255 255 255
0.019 -0.428 0.898 255 255 255
-0.037 -0.297 0.935 255 255 255
0.105 -0.55 0.825 255 255 255
0.053 -0.238 0.839 255 255 255
-0.074 -0.609 1.008 255 255 255
0.308 0.126 0.534 255 255 255
0.168 -0.28 0.724 255 255 255
0.271 -0.169 0.6 255 255 255
-0.39 -0.148 0.718 255 255 255
0.17 -0.249 0.719 255 255 255
-0.282 -0.265 0.853 255 255 255
-0.178 -0.218 0.954 255 255 255
0.214 -0.313 0.681 0 0 0
0.044 0.004 0.819 255 255 255
-0.327 -0.011 0.77 255 255 255
0.309 -0.179 0.56 255 255 255
-0.297 0.339 0.751 0 0 0
0.288 -0.116 0.578 255 255 255
-0.135 -0.423 1.014 255 255 255
-0.271 -0.119 0.847 255 255 255
-0.378 -0.607 0.791 255 255 255
-0.377 -0.249 0.747 255 255 255
0.03 -0.058 0.841 255 255 255
0.058 0.368 0.75 255 255 255
0.226 -0.123 0.641 255 255 255
-0.295 0.143 0.789 255 255 255
-0.01 -0.493 0.936 255 255 255
-0.132 0.296 0.924 255 255 255
0.099 -0.617 0.84 0 0 0
0.049 -0.097 0.826 255 255 255
0.214 0.25 0.608 255 255 255
-0.402 -0.212 0.716 255 255 255
0.22 0.08 0.619 255 255 255
0.121 0.205 0.709 255 255 255
-0.007 0.293 0.829 255 255 255
0.131 -0.465 0.789 255 255 255
-0.432 -0.073 0.662 255 255 255
0.245 -0.066 0.612 255 255 255
-0.454 -0.155 0.651 255 255 255
-0.171 0.221 0.904 255 255 255
0.127 -0.001 0.731 255 255 255
-0.028 0.177 0.869 255 255 255
-0.305 -0.367 0.84 255 255 255
0.086 -0.259 0.806 0 0 0
-0.097 0.017 0.949 255 255 255
-0.124 0.461 0.907 255 255 255
-0.344 -0.082 0.763 255 255 255
0.216 0.198 0.611 255 255 255
-0.332 -0.628 0.847 0 0 0
-0.361 -0.226 0.762 255 255 255
0.111 0.334 0.7 0 0 0
0.204 0.016 0.646 0 0 0
-0.125 -0.612 1.043 255 255 255
-0.328 0.026 0.764 255 255 255
-0.347 -0.049 0.756 255 255 255
-0.307 -0.24 0.823 255 255 255
-0.298 0.019 0.802 255 255 255
-0.13 -0.753 1.06 255 255 255
0.139 -0.473 0.78 255 255 255
0.272 0.044 0.571 255 255 255
-0.217 -0.742 0.978 255 255 255
0.334 -0.149 0.54 255 255 255
0.239 -0.25 0.649 255 255 255
-0.144 -0.269 0.99 255 255 255
-0.234 -0.079 0.881 255 255 255
-0.374 0.193 0.697 255 255 255
0.245 -0.263 0.642 255 255 255
-0.053 0.02 0.912 255 255 255
0.148 0.121 0.692 255 255 255
-0.249 0.151 0.838 255 255 255
0.258 -0.142 0.618 255 255 255
0.203 -0.19 0.677 255 255 255
0.098 -0.243 0.794 0 0 0
0.168 -0.259 0.722 255 255 255
-0.16 -0.261 0.975 255 255 255
0.059 0.32 0.755 255 255 255
-0.423 -0.079 0.672 255 255 255
-0.148 -0.134 0.968 255 255 255
0.044 0.4 0.761 255 255 255
0.22 -0.41 0.688 0 0 0
0.259 -0.352 0.641 255 255 255
-0.129 0.056 0.959 255 255 255
0.143 0.284 0.674 255 255 255
0.2 -0.326 0.698 255 255 255
0.179 0.03 0.671 0 0 0
0.237 -0.112 0.628 255 255 255
-0.186 0.353 0.722 255 255 255
0.028 0.01 0.835 255 255 255
0.17 0.19 0.66 255 255 255
-0.406 -0.273 0.721 255 255 255
0.017 -0.01 0.85 255 255 255
-0.336 -0.292 0.798 255 255 255
0.204 -0.022 0.651 0 0 0
0.283 -0.083 0.577 255 255 255
0.277 0.049 0.567 255 255 255
-0.104 0.404 0.902 0 0 0
0.229 0.2 0.599 255 255 255
0.196 -0.409 0.712 0 0 0
-0.174 0.247 0.762 255 255 255
-0.413 -0.094 0.685 255 255 255
-0.298 0.216 0.767 255 255 255
0.054 -0.603 0.886 255 255 255
-0.234 -0.233 0.901 255 255 255
0.09 -0.338 0.812 0 0 0
-0.286 -0.481 0.875 255 255 255
0.108 -0.031 0.754 255 255 255
-0.042 -0.519 0.97 255 255 255
-0.251 0.359 0.666 255 255 255
-0.114 -0.389 1.008 255 255 255
0.156 0.347 0.651 255 255 255
-0.369 0.051 0.715 255 255 255
-0.099 -0.572 1.023 255 255 255
0.167 -0.196 0.713 255 255 255
0.313 0.011 0.538 255 255 255
0.308 -0.114 0.557 255 255 255
0.259 0.019 0.591 255 255 255
0.158 -0.48 0.76 255 255 255
-0.356 0.024 0.733 255 255 255
-0.319 -0.452 0.836 255 255 255
0.3 -0.313 0.596 255 255 255
-0.042 -0.023 0.91 255 255 255
-0.33 0.188 0.739 255 255 255
0.069 -0.643 0.877 0 0 0
-0.248 0.101 0.846 255 255 255
-0.184 0.211 0.885 255 255 255
0.149 0.327 0.662 255 255 255
-0.208 -0.126 0.913 255 255 255
-0.307 -0.184 0.817 255 255 255
-0.031 -0.639 0.973 255 255 255
0.259 0.211 0.566 255 255 255
0.103 -0.341 0.8 0 0 0
-0.439 -0.285 0.688 255 255 255
0.186 -0.426 0.724 0 0 0
0.346 -0.13 0.527 255 255 255
-0.283 -0.241 0.849 255 255 255
0.066 -0.061 0.805 255 255 255
0.248 -0.368 0.655 255 255 255
-0.291 -0.351 0.854 255 255 255
-0.416 -0.415 0.73 255 255 255
-0.206 0.369 0.662 255 255 255
0.043 0.113 0.805 255 255 255
0.039 -0.292 0.86 255 255 255
0.359 -0.129 0.512 255 255 255
0.032 0.186 0.805 255 255 255
0.159 0.273 0.66 255 255 255
-0.022 -0.128 0.905 255 255 255
0.162 0.338 0.649 255 255 255
0.286 0.119 0.551 255 255 255
-0.287 0.251 0.77 255 255 255
0.02 -0.273 0.879 255 255 255
0.235 -0.112 0.63 255 255 255
0.032 -0.587 0.905 255 255 255
-0.354 0.143 0.724 255 255 255
0.351 -0.052 0.511 255 255 255
0.333 0.019 0.522 255 255 255
0.133 -0.571 0.801 255 255 255
-0.262 -0.316 0.881 255 255 255
-0.182 0.379 0.725 255 255 255
0.107 0.352 0.701 255 255 255
0.1 -0.444 0.818 0 0 0
0.157 -0.431 0.755 255 255 255
-0.381 -0.456 0.774 255 255 255
0.354 -0.066 0.511 255 255 255
0.167 -0.274 0.725 255 255 255
-0.274 0.06 0.824 255 255 255
0.035 -0.094 0.842 255 255 255
-0.275 0.117 0.818 255 255 255
0.345 0.008 0.511 255 255 255
-0.072 -0.391 0.979 255 255 255
-0.249 -0.177 0.878 255 255 255
-0.16 -0.099 0.954 255 255 255
-0.338 -0.23 0.787 255 255 255
0.309 -0.118 0.558 255 255 255
0.201 0.233 0.622 0 0 0
-0.025 0.037 0.888 255 255 255
0.255 -0.263 0.635 255 255 255
0.094 -0.506 0.831 0 0 0
0.332 0.062 0.513 255 255 255
0.229 0.081 0.612 255 255 255
-0.048 -0.116 0.927 255 255 255
0.182 -0.066 0.678 255 255 255
0.065 -0.478 0.859 255 255 255
-0.096 0.315 0.91 255 255 255
0.014 -0.23 0.881 255 255 255
0.042 0.188 0.794 255 255 255
0.34 -0.246 0.546 255 255 255
0.192 -0.346 0.709 0 0 0
0.157 0.002 0.7 255 255 255
0.173 -0.004 0.683 0 0 0
0.004 -0.648 0.94 255 255 255
-0.428 0.064 0.651 255 255 255
0.342 -0.136 0.53 255 255 255
-0.331 0.309 0.725 255 255 255
-0.139 0.317 0.917 255 255 255
-0.279 0.323 0.771 255 255 255
0.242 0.284 0.578 255 255 255
-0.106 0.112 0.943 255 255 255
0.101 -0.57 0.834 255 255 255
0.043 0.417 0.762 255 255 255
0.171 -0.07 0.691 255 255 255
-0.052 -0.453 0.969 255 255 255
-0.035 -0.162 0.921 255 255 255
-0.349 -0.501 0.809 255 255 255
0.266 0.1 0.573 255 255 255
-0.041 0.451 0.845 255 255 255
0.284 -0.125 0.583 255 255 255
0.268 -0.507 0.655 0 0 0
-0.192 -0.024 0.917 255 255 255
-0.309 0.087 0.78 255 255 255
-0.303 -0.394 0.844 255 255 255
-0.264 -0.48 0.9 255 255 255
-0.073 -0.043 0.939 255 255 255
0.225 0.062 0.618 255 255 255
-0.154 0.346 0.904 255 255 255
0.196 -0.35 0.705 255 255 255
0.145 -0.001 0.713 255 255 255
-0.033 -0.092 0.912 255 255 255
0.174 -0.284 0.72 255 255 255
-0.421 -0.064 0.673 255 255 255
0.056 0.315 0.76 255 255 255
-0.182 -0.441 0.979 255 255 255
0.284 -0.427 0.627 255 255 255
-0.255 0.095 0.839 255 255 255
0.081 -0.169 0.804 0 0 0
-0.136 -0.081 0.97 255 255 255
-0.09 -0.517 1.009 255 255 255
0.261 -0.012 0.593 255 255 255
0.22 0.273 0.598 0 0 0
-0.376 0.081 0.702 255 255 255
0.067 -0.212 0.823 255 255 255
-0.317 0.222 0.745 255 255 255
-0.052 0.464 0.857 255 255 255
0.035 -0.06 0.836 255 255 255
0.322 0.022 0.533 255 255 255
0.187 -0.322 0.71 0 0 0
0.15 -0.501 0.773 255 255 255
0.132 0.094 0.712 255 255 255
0.258 -0.043 0.6 255 255 255
-0.256 -0.468 0.906 255 255 255
-0.313 0.056 0.779 255 255 255
-0.169 -0.465 0.996 255 255 255
-0.19 -0.733 1.007 0 0 0
0.039 -0.203 0.85 255 255 255
-0.309 0.326 0.738 0 0 0
-0.1 -0.661 1.035 255 255 255
-0.13 0.261 0.929 255 255 255
0.17 0.231 0.655 0 0 0
0.033 -0.095 0.842 255 255 255
0.291 0.099 0.544 255 255 255
-0.266 -0.384 0.884 255 255 255
0.34 -0.225 0.541 255 255 255
-0.282 -0.316 0.859 255 255 255
-0.232 -0.31 0.911 255 255 255
0.22 0.281 0.597 0 0 0
-0.359 -0.094 0.748 255 255 255
0.192 -0.513 0.732 255 255 255
-0.108 0.112 0.944 255 255 255
-0.087 -0.222 0.97 255 255 255
-0.166 0.205 0.911 255 255 255
-0.125 -0.223 0.991 255 255 255
-0.089 -0.157 0.965 255 255 255
0.052 0.399 0.754 255 255 255
0.079 -0.476 0.842 255 255 255
0.32 -0.095 0.544 255 255 255
0.289 -0.442 0.625 255 255 255
0.304 -0.225 0.578 255 255 255
0.193 -0.455 0.721 0 0 0
0.128 0.172 0.706 255 255 255
-0.362 -0.514 0.8 255 255 255
0.079 -0.335 0.825 255 255 255
0.087 0.226 0.742 0 0 0
-0.025 0.354 0.838 255 255 255
-0.227 0.188 0.843 255 255 255
-0.385 0.1 0.691 255 255 255
0.309 -0.17 0.563 255 255 255
0.183 -0.424 0.727 0 0 0
-0.392 -0.2 0.722 255 255 255
0.224 0.185 0.605 255 255 255
0.148 0.256 0.674 255 255 255
-0.466 -0.029 0.622 255 255 255
-0.312 0.315 0.742 255 255 255
-0.345 0.037 0.745 255 255 255
0.055 -0.654 0.892 0 0 0
0.255 0.058 0.592 0 0 0
-0.257 -0.387 0.894 255 255 255
-0.276 -0.693 0.912 255 255 255
0.032 0.411 0.774 255 255 255
-0.292 -0.666 0.895 0 0 0
-0.321 0.096 0.765 255 255 255
-0.261 -0.504 0.906 255 255 255
0.025 -0.648 0.92 255 255 255
0.074 0.187 0.76 255 255 255
-0.19 -0.767 1.006 255 255 255
0.258 0.022 0.592 255 255 255
-0.248 0.02 0.854 255 255 255
-0.257 -0.244 0.878 255 255 255
-0.007 0.122 0.857 255 255 255
0.259 0.069 0.582 255 255 255
-0.15 -0.328 0.992 255 255 255
-0.375 0.071 0.702 255 255 255
0.339 -0.114 0.533 255 255 255
-0.329 -0.286 0.805 255 255 255
0.005 -0.044 0.867 255 255 255
-0.073 -0.58 1.004 255 255 255
-0.027 0.452 0.835 255 255 255
-0.163 -0.043 0.944 255 255 255
-0.396 -0.235 0.725 255 255 255
0.077 -0.197 0.809 255 255 255
0.2 -0.452 0.715 255 255 255
-0.467 -0.171 0.641 255 255 255
0.335 -0.018 0.523 255 255 255
-0.369 -0.335 0.766 255 255 255
0.243 -0.402 0.663 255 255 255
-0.364 0.011 0.727 255 255 255
-0.215 0.257 0.761 255 255 255
-0.078 -0.439 0.99 255 255 255
0.001 0.348 0.81 255 255 255
-0.157 -0.3 0.984 255 255 255
-0.051 0.344 0.864 255 255 255
-0.297 -0.255 0.835 255 255 255
-0.346 -0.476 0.811 255 255 255
0.01 -0.528 0.92 255 255 255
0.2 -0.021 0.656 0 0 0
-0.05 0.23 0.882 255 255 255
-0.143 -0.621 1.037 255 255 255
-0.215 -0.212 0.916 255 255 255
0.156 -0.096 0.711 255 255 255
-0.082 0.348 0.894 255 255 255
0.103 -0.086 0.767 255 255 255
-0.149 -0.216 0.978 255 255 255
-0.011 -0.081 0.89 255 255 255
-0.179 -0.597 1.001 255 255 255
0.319 -0.068 0.543 255 255 255
0.243 -0.389 0.662 255 255 255
0.019 -0.111 0.861 255 255 255
0.178 -0.008 0.679 0 0 0
-0.349 0.032 0.741 255 255 255
0.04 0.28 0.78 255 255 255
-0.4 -0.364 0.74 255 255 255
-0.231 -0.332 0.917 255 255 255
-0.302 0.327 0.748 0 0 0
0.346 -0.021 0.513 0 0 0
0.187 -0.375 0.717 0 0 0
0.314 -0.003 0.539 255 255 255
0.123 0.135 0.715 255 255 255
0.273 -0.237 0.611 255 255 255
0.339 0.018 0.515 255 255 255
0.073 -0.132 0.805 255 255 255
-0.143 -0.424 1.01 255 255 255
0 0.326 0.816 255 255 255
-0.474 -0.123 0.625 255 255 255
-0.021 0.16 0.864 255 255 255
0.259 -0.308 0.633 255 255 255
-0.385 -0.171 0.728 255 255 255
-0.148 -0.412 1.004 255 255 255
0.063 0.261 0.761 255 255 255
-0.421 -0.058 0.673 255 255 255
-0.346 -0.313 0.789 255 255 255
-0.276 -0.03 0.832 255 255 255
-0.354 -0.462 0.799 255 255 255
-0.364 0.053 0.722 255 255 255
-0.278 0.323 0.772 255 255 255
0.102 0.06 0.749 255 255 255
-0.344 -0.179 0.774 255 255 255
0.013 -0.359 0.896 255 255 255
0.235 -0.058 0.623 255 255 255
0.126 -0.152 0.75 255 255 255
-0.269 -0.369 0.878 255 255 255
-0.391 -0.225 0.729 255 255 255
0.23 -0.497 0.691 0 0 0
0.012 0.308 0.807 255 255 255
0.086 0.36 0.724 255 255 255
0.067 0.205 0.766 255 255 255
-0.333 0.04 0.758 255 255 255
-0.153 -0.166 0.969 255 255 255
-0.139 0.28 0.923 255 255 255
-0.082 0.027 0.938 255 255 255
0.303 -0.173 0.569 255 255 255
-0.191 0.252 0.743 255 255 255
0.039 0.057 0.819 255 255 255
0.244 0.033 0.605 255 255 255
0.324 -0.055 0.539 255 255 255
0.301 -0.331 0.596 255 255 255
0.109 0.039 0.745 255 255 255
0.309 -0.031 0.55 255 255 255
0.256 0.135 0.582 255 255 255
-0.256 -0.27 0.882 255 255 255
-0.17 -0.23 0.964 255 255 255
-0.278 -0.706 0.914 255 255 255
0.237 -0.358 0.665 255 255 255
0.326 -0.138 0.541 255 255 255
0.085 -0.33 0.817 0 0 0
0.097 0.2 0.733 255 255 255
0.255 0.195 0.575 255 255 255
-0.293 -0.191 0.83 255 255 255
0.209 0.073 0.628 0 0 0
-0.293 -0.325 0.848 255 255 255
0.044 -0.046 0.824 255 255 255
0.049 -0.2 0.84 255 255 255
0.049 0.09 0.802 255 255 255
0.294 0.1 0.539 255 255 255
-0.135 0.456 0.901 255 255 255
0.034 -0.43 0.884 255 255 255
-0.426 -0.322 0.705 255 255 255
-0.383 -0.009 0.708 255 255 255
-0.218 0.323 0.753 255 255 255
0.234 -0.343 0.665 255 255 255
-0.149 0.366 0.903 255 255 255
-0.362 -0.32 0.773 255 255 255
0.306 0.078 0.532 255 255 255
-0.385 -0.026 0.708 255 255 255
0.102 0.266 0.719 255 255 255
-0.357 -0.18 0.76 255 255 255
0.082 -0.201 0.804 0 0 0
-0.082 -0.623 1.016 255 255 255
-0.211 -0.187 0.917 255 255 255
0.062 0.377 0.745 255 255 255
-0.119 0.487 0.89 255 255 255
0.075 -0.407 0.838 255 255 255
-0.042 0.042 0.902 255 255 255
0.251 0.262 0.57 0 0 0
0.245 -0.283 0.646 255 255 255
0.149 0.082 0.695 255 255 255
-0.26 -0.217 0.871 255 255 255
-0.31 0.195 0.759 255 255 255
0.099 -0.083 0.771 0 0 0
-0.318 0.325 0.733 0 0 0
0.191 -0.366 0.713 0 0 0
-0.335 -0.138 0.777 255 255 255
0.148 0.039 0.704 255 255 255
-0.254 0.178 0.832 255 255 255
0.246 0.206 0.58 255 255 255
-0.346 -0.595 0.825 0 0 0
-0.375 0.113 0.705 255 255 255
0.123 -0.486 0.8 255 255 255
0.145 -0.139 0.728 255 255 255
0.217 -0.266 0.673 0 0 0
-0.238 0.083 0.857 255 255 255
-0.336 -0.22 0.788 255 255 255
-0.217 -0.592 0.965 255 255 255
-0.425 0 0.66 255 255 255
-0.064 0.169 0.903 255 255 255
-0.056 -0.083 0.931 255 255 255
0.04 -0.076 0.833 255 255 255
0.038 -0.033 0.831 255 255 255
0.029 0.104 0.821 255 255 255
-0.372 -0.552 0.794 255 255 255
-0.173 0.24 0.762 255 255 255
0.211 0.238 0.612 0 0 0
-0.329 0.225 0.734 255 255 255
-0.217 0.369 0.744 255 255 255
0.145 -0.31 0.751 255 255 255
0.068 -0.39 0.842 255 255 255
0 -0.212 0.891 255 255 255
0.081 -0.336 0.823 255 255 255
-0.049 -0.149 0.932 255 255 255
-0.13 0.16 0.944 255 255 255
0.175 -0.199 0.707 255 255 255
-0.172 -0.314 0.973 255 255 255
0.191 0.052 0.654 255 255 255
-0.218 0.163 0.87 255 255 255
0.202 0.187 0.627 255 255 255
0.251 0.255 0.572 0 0 0
-0.366 0.021 0.724 255 255 255
-0.187 0.24 0.749 255 255 255
-0.453 -0.097 0.643 255 255 255
0.01 -0.578 0.928 255 255 255
-0.312 -0.034 0.791 255 255 255
-0.333 -0.151 0.782 255 255 255
-0.422 -0.185 0.691 255 255 255
0.066 0.088 0.784 255 255 255
0.013 -0.401 0.9 255 255 255
-0.212 0.092 0.884 255 255 255
-0.077 -0.161 0.956 255 255 255
0.166 0.126 0.643 255 255 255
-0.318 -0.233 0.809 255 255 255
-0.212 -0.658 0.973 255 255 255
0.328 -0.164 0.547 0 0 0
-0.164 0.349 0.894 255 255 255
-0.135 -0.003 0.961 255 255 255
0.15 0.34 0.659 255 255 255
0.245 0.079 0.596 255 255 255
0.074 0.239 0.753 255 255 255
-0.413 -0.296 0.718 255 255 255
-0.21 -0.604 0.972 255 255 255
-0.387 -0.374 0.755 255 255 255
-0.188 -0.592 0.992 255 255 255
0.046 -0.336 0.858 255 255 255
0.212 0.223 0.614 255 255 255
-0.344 -0.209 0.777 255 255 255
-0.083 -0.248 0.97 255 255 255
-0.177 0.375 0.851 0 0 0
0.33 -0.197 0.549 255 255 255
0.054 0.213 0.778 255 255 255
0.22 -0.548 0.708 0 0 0
-0.157 -0.22 0.974 255 255 255
0.047 0.007 0.817 255 255 255
0.192 0.212 0.634 0 0 0
-0.096 0.425 0.894 255 255 255
0.333 -0.083 0.532 255 255 255
-0.371 -0.091 0.734 255 255 255
0.209 -0.281 0.684 0 0 0
-0.382 0.037 0.703 255 255 255
0.056 -0.523 0.874 255 255 255
-0.403 -0.122 0.7 255 255 255
-0.425 0.028 0.659 255 255 255
0.244 -0.305 0.649 255 255 255
-0.139 0.272 0.923 255 255 255
0.296 -0.283 0.595 255 255 255
0.12 0.085 0.726 255 255 255
0.237 -0.254 0.652 255 255 255
-0.424 0.062 0.656 255 255 255
0.025 0.274 0.799 255 255 255
0.151 0.308 0.663 0 0 0
-0.361 -0.615 0.813 0 0 0
-0.309 -0.072 0.803 255 255 255
0.255 -0.2 0.623 255 255 255
0.229 0.142 0.606 255 255 255
0.145 0.099 0.697 255 255 255
-0.186 -0.322 0.961 255 255 255
-0.342 -0.327 0.794 255 255 255
-0.089 0.008 0.945 255 255 255
-0.187 -0.057 0.925 255 255 255
0.203 0.097 0.63 255 255 255
-0.088 -0.189 0.967 255 255 255
-0.045 0.074 0.902 255 255 255
0.26 -0.454 0.655 255 255 255
-0.039 0.153 0.883 255 255 255
-0.06 0.439 0.863 255 255 255
0.237 0.089 0.601 255 255 255
-0.363 -0.006 0.73 255 255 255
-0.099 -0.347 0.993 255 255 255
0.096 0.235 0.729 255 255 255
-0.325 -0.045 0.777 255 255 255
-0.228 0.039 0.874 255 255 255
-0.301 -0.192 0.825 255 255 255
0.08 -0.415 0.834 255 255 255
0.197 -0.459 0.719 255 255 255
0.167 -0.391 0.738 255 255 255
0.263 0.079 0.575 255 255 255
0.287 -0.281 0.605 255 255 255
-0.114 0.464 0.904 255 255 255
-0.232 -0.144 0.892 255 255 255
0.254 -0.478 0.663 0 0 0
0.209 0.109 0.624 255 255 255
-0.162 0.489 0.885 255 255 255
-0.028 -0.576 0.963 255 255 255
0.107 -0.106 0.764 255 255 255
0.291 0.015 0.563 255 255 255
-0.383 0.145 0.692 255 255 255
0.124 0.359 0.686 255 255 255
0.177 0.058 0.662 0 0 0
0.208 -0.093 0.654 255 255 255
0.327 -0.16 0.547 0 0 0
0.228 -0.193 0.652 255 255 255
0.237 0.194 0.591 255 255 255
-0.057 -0.652 1 255 255 255
0.088 0.051 0.765 0 0 0
0.031 -0.159 0.853 255 255 255
-0.437 -0.068 0.653 255 255 255
0.078 -0.351 0.826 255 255 255
0.177 -0.095 0.688 0 0 0
0.325 -0.115 0.535 255 255 255
-0.138 -0.734 1.055 255 255 255
0.267 0.114 0.57 255 255 255
-0.295 -0.662 0.89 0 0 0
-0.215 -0.638 0.969 255 255 255
-0.349 -0.036 0.75 255 255 255
-0.238 -0.706 0.954 0 0 0
-0.062 0.189 0.899 255 255 255
0.163 0.188 0.67 255 255 255
-0.143 -0.226 0.985 255 255 255
-0.032 -0.385 0.944 255 255 255
0.016 -0.159 0.87 255 255 255
0.007 0.155 0.837 255 255 255
-0.292 -0.025 0.811 255 255 255
0.24 0.093 0.598 255 255 255
-0.038 -0.08 0.914 255 255 255
-0.288 -0.126 0.83 255 255 255
0 0.123 0.849 255 255 255
0.197 0.229 0.63 0 0 0
-0.255 0.006 0.849 255 255 255
0.166 -0.319 0.731 255 255 255
0.104 -0.576 0.832 255 255 255
-0.317 -0.181 0.808 255 255 255
0.223 0.189 0.607 255 255 255
0.059 -0.447 0.859 255 255 255
0.158 -0.266 0.732 255 255 255
0.23 -0.005 0.624 255 255 255
-0.011 -0.533 0.942 255 255 255
-0.164 -0.064 0.946 255 255 255
0.191 -0.39 0.714 0 0 0
-0.25 -0.088 0.866 255 255 255
-0.153 0.45 0.89 255 255 255
0.306 0.075 0.529 255 255 255
0.264 -0.268 0.625 255 255 255
-0.271 -0.109 0.845 255 255 255
0.267 -0.412 0.642 255 255 255
0.097 -0.346 0.807 0 0 0
-0.285 0.059 0.81 255 255 255
-0.273 0.257 0.786 255 255 255
-0.269 -0.272 0.867 255 255 255
-0.312 0.066 0.779 255 255 255
-0.344 -0.28 0.787 255 255 255
0.145 0.113 0.695 255 255 255
-0.42 -0.23 0.699 255 255 255
-0.432 -0.194 0.68 255 255 255
-0.418 -0.331 0.717 255 255 255
0.008 0.218 0.825 255 255 255
-0.076 0.275 0.899 255 255 255
-0.467 -0.074 0.626 255 255 255
0.043 -0.635 0.901 255 255 255
-0.25 -0.3 0.891 255 255 255
0.109 0.008 0.749 255 255 255
0.131 -0.439 0.784 255 255 255
-0.172 0.249 0.899 255 255 255
-0.422 -0.144 0.682 255 255 255
0.039 0.337 0.774 255 255 255
-0.011 0.293 0.832 255 255 255
-0.174 0.384 0.878 255 255 255
0.261 0.234 0.566 255 255 255
-0.194 -0.726 1.002 0 0 0
0.155 -0.003 0.701 255 255 255
-0.428 -0.113 0.671 255 255 255
-0.316 -0.303 0.819 255 255 255
0.312 -0.314 0.584 255 255 255
0.149 0.069 0.697 255 255 255
-0.139 -0.471 1.019 255 255 255
0.007 -0.406 0.908 255 255 255
0.257 -0.014 0.598 255 255 255
0.273 -0.176 0.596 255 255 255
-0.09 0.094 0.935 255 255 255
0.148 -0.227 0.736 255 255 255
0.094 -0.612 0.847 0 0 0
-0.191 -0.059 0.92 255 255 255
-0.037 -0.121 0.918 255 255 255
0.075 -0.361 0.831 255 255 255
-0.368 -0.126 0.743 255 255 255
0.147 -0.582 0.786 0 0 0
0.05 0.367 0.758 255 255 255
0.224 0.027 0.625 255 255 255
-0.194 -0.485 0.974 255 255 255
-0.354 -0.141 0.76 255 255 255
0.362 -0.068 0.502 255 255 255
-0.325 -0.67 0.858 255 255 255
0.315 0.034 0.53 0 0 0
0.34 -0.021 0.519 0 0 0
-0.184 0.388 0.723 255 255 255
-0.431 0.027 0.651 255 255 255
0.073 -0.284 0.824 255 255 255
0.152 0.03 0.7 255 255 255
0.277 0.137 0.561 255 255 255
0.107 -0.395 0.803 0 0 0
0.041 -0.534 0.889 255 255 255
-0.368 -0.381 0.774 255 255 255
-0.348 -0.147 0.766 255 255 255
-0.053 -0.412 0.965 255 255 255
-0.105 -0.321 0.993 255 255 255
-0.303 -0.491 0.858 255 255 255
0.054 -0.586 0.884 255 255 255
0.23 -0.531 0.696 0 0 0
-0.152 0.209 0.922 255 255 255
-0.009 -0.056 0.884 255 255 255
-0.015 -0.278 0.914 255 255 255
-0.311 -0.405 0.839 255 255 255
-0.26 0.189 0.821 255 255 255
0.268 -0.077 0.586 0 0 0
-0.057 0.384 0.864 0 0 0
-0.006 -0.504 0.934 255 255 255
0.21 0.176 0.621 0 0 0
-0.367 0.034 0.719 255 255 255
0.304 -0.04 0.556 255 255 255
-0.061 0.387 0.866 0 0 0
0.161 -0.025 0.698 255 255 255
0.207 -0.541 0.721 0 0 0
0.097 -0.308 0.802 0 0 0
-0.24 0.072 0.857 255 255 255
-0.38 0.116 0.696 255 255 255
0.351 -0.172 0.527 255 255 255
0.32 0.078 0.531 255 255 255
0.078 -0.336 0.826 255 255 255
0.332 -0.202 0.547 255 255 255
0.135 0.166 0.703 255 255 255
-0.262 -0.306 0.881 255 255 255
-0.007 0.399 0.814 255 255 255
-0.341 -0.255 0.789 255 255 255
-0.248 -0.437 0.91 255 255 255
0.135 0.074 0.712 255 255 255
0.003 -0.144 0.881 255 255 255
0 0.236 0.831 255 255 255
0.248 -0.471 0.669 255 255 255
0.123 0.34 0.686 255 255 255
0.143 0.025 0.712 255 255 255
-0.136 0.437 0.903 255 255 255
-0.076 0.15 0.917 255 255 255
-0.175 0.346 0.736 255 255 255
0.099 0.351 0.711 255 255 255
-0.168 -0.136 0.952 255 255 255
-0.296 -0.223 0.833 255 255 255
-0.181 0.05 0.917 255 255 255
-0.063 -0.308 0.961 255 255 255
0.248 -0.125 0.618 255 255 255
0.236 0.104 0.603 255 255 255
-0.312 0.283 0.743 255 255 255
0.126 -0.57 0.807 255 255 255
0.335 -0.222 0.546 255 255 255
-0.28 0.145 0.808 255 255 255
-0.374 -0.601 0.795 0 0 0
-0.174 0.119 0.915 255 255 255
-0.323 -0.321 0.813 255 255 255
-0.332 0.144 0.748 255 255 255
0.089 -0.516 0.837 255 255 255
0.231 -0.108 0.633 255 255 255
-0.134 0.054 0.955 255 255 255
-0.016 0.039 0.877 255 255 255
0.028 -0.253 0.869 255 255 255
-0.178 -0.524 0.994 255 255 255
-0.122 0.147 0.947 255 255 255
0.236 0.189 0.593 255 255 255
0.043 0.124 0.803 255 255 255
0.269 0.002 0.584 255 255 255
0.1 0.167 0.734 255 255 255
0.272 -0.474 0.646 0 0 0
0.193 -0.352 0.707 255 255 255
0.287 0.017 0.566 255 255 255
0.219 0.194 0.609 255 255 255
0.106 0.029 0.75 255 255 255
0.314 -0.207 0.568 255 255 255
-0.136 -0.349 1.003 255 255 255
-0.032 -0.569 0.968 255 255 255
0.209 -0.012 0.644 0 0 0
0.116 -0.07 0.749 255 255 255
0.013 0.202 0.823 255 255 255
-0.378 -0.261 0.749 255 255 255
-0.303 -0.174 0.823 255 255 255
-0.408 -0.361 0.732 255 255 255
-0.051 -0.394 0.961 255 255 255
0.037 -0.093 0.84 255 255 255
0.226 0.034 0.622 255 255 255
-0.056 -0.44 0.972 255 255 255
-0.45 0.008 0.635 255 255 255
-0.442 -0.051 0.65 255 255 255
0.323 -0.273 0.569 255 255 255
-0.285 -0.03 0.821 255 255 255
0.261 -0.144 0.607 255 255 255
0.207 -0.521 0.717 0 0 0
0.329 -0.045 0.533 255 255 255
0.173 -0.49 0.746 255 255 255
-0.067 0.032 0.926 255 255 255
-0.353 -0.012 0.742 255 255 255
0.3 -0.115 0.566 255 255 255
-0.265 -0.106 0.851 255 255 255
-0.015 -0.306 0.919 255 255 255
-0.246 -0.51 0.923 255 255 255
-0.053 0.341 0.867 255 255 255
0.132 -0.5 0.792 255 255 255
-0.307 -0.496 0.854 255 255 255
-0.18 0.164 0.903 255 255 255
0.006 -0.442 0.914 255 255 255
-0.012 -0.415 0.928 255 255 255
-0.364 0.013 0.727 255 255 255
-0.008 -0.246 0.903 255 255 255
-0.271 -0.173 0.852 255 255 255
-0.203 -0.263 0.936 255 255 255
-0.14 0.35 0.912 255 255 255
-0.433 -0.228 0.685 255 255 255
-0.165 -0.278 0.975 255 255 255
0.156 0.126 0.683 255 255 255
-0.246 -0.663 0.942 255 255 255
-0.08 -0.212 0.963 255 255 255
0.252 -0.095 0.61 255 255 255
-0.396 -0.142 0.71 255 255 255
0.161 0.308 0.655 0 0 0
0.331 -0.062 0.528 255 255 255
-0.268 -0.578 0.907 255 255 255
0.049 0.126 0.796 255 255 255
0.166 0.116 0.647 255 255 255
0.291 -0.302 0.602 255 255 255
-0.159 0.438 0.884 255 255 255
0.105 -0.106 0.766 255 255 255
-0.168 0.291 0.898 255 255 255
0.199 -0.134 0.669 255 255 255
-0.279 -0.194 0.845 255 255 255
0.217 -0.293 0.676 0 0 0
-0.217 -0.08 0.899 255 255 255
-0.043 0.212 0.877 255 255 255
-0.231 -0.722 0.96 0 0 0
0.298 -0.085 0.563 255 255 255
-0.265 -0.048 0.844 255 255 255
-0.241 -0.076 0.873 255 255 255
0.161 -0.252 0.727 255 255 255
-0.173 0.051 0.925 255 255 255
-0.022 -0.077 0.901 255 255 255
0.182 -0.049 0.677 255 255 255
-0.169 -0.533 1.003 255 255 255
-0.388 -0.157 0.724 255 255 255
0.16 0.167 0.674 255 255 255
0.061 -0.397 0.849 255 255 255
0.347 0.008 0.51 255 255 255
-0.283 0.282 0.772 255 255 255
0.293 -0.253 0.593 255 255 255
0.303 -0.048 0.554 255 255 255
-0.298 0.283 0.757 255 255 255
-0.254 0.009 0.85 255 255 255
0.341 0.03 0.509 255 255 255
0.082 -0.22 0.806 0 0 0
0.045 -0.157 0.839 255 255 255
0.061 -0.136 0.818 255 255 255
0.291 0.132 0.549 255 255 255
0.073 -0.403 0.839 255 255 255
-0.305 0.157 0.772 255 255 255
-0.066 0.09 0.918 255 255 255
-0.332 -0.462 0.822 255 255 255
-0.232 -0.654 0.956 255 255 255
0.27 -0.158 0.602 255 255 255
-0.037 -0.463 0.957 255 255 255
-0.12 0.487 0.899 255 255 255
0.033 -0.403 0.881 255 255 255
0.034 -0.137 0.847 255 255 255
0.078 0.313 0.738 255 255 255
0.125 0.271 0.694 255 255 255
0.341 -0.236 0.543 255 255 255
0.054 0.405 0.751 255 255 255
-0.271 -0.092 0.843 255 255 255
0.068 -0.043 0.799 255 255 255
0.268 0.088 0.571 255 255 255
-0.349 -0.569 0.819 255 255 255
0.347 -0.087 0.519 255 255 255
-0.074 0.087 0.925 255 255 255
0.256 -0.432 0.656 255 255 255
0.119 -0.081 0.748 255 255 255
0.193 -0.078 0.669 255 255 255
-0.407 -0.003 0.679 255 255 255
-0.049 -0.192 0.936 255 255 255
-0.207 0.153 0.881 255 255 255
-0.234 -0.008 0.872 255 255 255
-0.081 -0.315 0.976 255 255 255
0.148 -0.087 0.717 255 255 255
-0.266 0.154 0.821 255 255 255
0.051 -0.41 0.864 255 255 255
-0.102 0.408 0.901 0 0 0
0.141 -0.043 0.721 255 255 255
0.22 -0.389 0.685 0 0 0
-0.422 -0.2 0.689 255 255 255
-0.298 -0.459 0.86 255 255 255
0.117 -0.103 0.753 255 255 255
-0.137 0.234 0.931 255 255 255
-0.125 -0.079 0.974 255 255 255
0.06 -0.174 0.825 255 255 255
0.204 -0.102 0.659 255 255 255
-0.209 -0.235 0.928 255 255 255
-0.379 -0.015 0.714 255 255 255
-0.393 0.064 0.685 255 255 255
-0.351 -0.251 0.774 255 255 255
0.054 0.108 0.793 255 255 255
0.123 -0.094 0.746 255 255 255
-0.035 0.196 0.872 255 255 255
0.067 0.263 0.756 255 255 255
-0.007 -0.022 0.876 255 255 255
-0.258 0.289 0.804 255 255 255
-0.107 0.442 0.901 255 255 255
-0.116 -0.009 0.964 255 255 255
0.089 0.057 0.765 0 0 0
0.123 -0.545 0.805 255 255 255
0.161 -0.398 0.748 255 255 255
-0.195 -0.662 0.991 255 255 255
0.076 0.042 0.781 0 0 0
-0.192 -0.559 0.986 255 255 255
-0.358 -0.03 0.738 255 255 255
-0.061 -0.151 0.942 255 255 255
0.052 0.382 0.754 255 255 255
0.262 0.125 0.573 255 255 255
-0.271 0.278 0.786 255 255 255
-0.087 -0.445 0.998 255 255 255
-0.436 -0.118 0.667 255 255 255
0.146 0.175 0.689 255 255 255
-0.004 -0.414 0.919 255 255 255
0.198 -0.152 0.676 255 255 255
0.177 0.201 0.652 0 0 0
-0.317 -0.052 0.787 255 255 255
0.023 -0.027 0.846 255 255 255
0.309 0.104 0.521 255 255 255
-0.076 0.479 0.874 255 255 255
-0.301 -0.198 0.825 255 255 255
0.083 0.377 0.725 255 255 255
0.032 -0.432 0.887 255 255 255
-0.28 -0.495 0.884 255 255 255
0.121 -0.176 0.761 255 255 255
0.179 0.085 0.654 255 255 255
-0.09 -0.189 0.969 255 255 255
-0.22 0.272 0.762 255 255 255
0.317 0.066 0.527 255 255 255
0.12 -0.244 0.768 255 255 255
-0.454 -0.075 0.638 255 255 255
-0.425 -0.066 0.67 255 255 255
-0.351 -0.566 0.818 255 255 255
-0.064 0.044 0.922 255 255 255
0.303 -0.298 0.588 255 255 255
0.194 -0.193 0.687 255 255 255
-0.224 0.204 0.777 255 255 255
0.231 0.147 0.604 255 255 255
0.061 -0.124 0.819 255 255 255
-0.3 -0.124 0.817 255 255 255
-0.09 -0.764 1.042 0 0 0
0.279 0.189 0.549 255 255 255
0.32 -0.353 0.578 255 255 255
-0.256 0.291 0.805 255 255 255
0.295 -0.036 0.562 255 255 255
0.257 -0.187 0.622 255 255 255
-0.313 -0.054 0.792 255 255 255
-0.434 -0.077 0.66 255 255 255
-0.034 0.015 0.898 255 255 255
-0.058 -0.424 0.972 255 255 255
-0.246 0.025 0.855 255 255 255
-0.009 0.365 0.818 0 0 0
0.209 -0.17 0.668 0 0 0
0.183 0.189 0.648 255 255 255
-0.002 -0.149 0.888 255 255 255
-0.388 0.111 0.688 255 255 255
-0.332 -0.4 0.814 255 255 255
0.325 0 0.531 255 255 255
-0.419 -0.147 0.686 255 255 255
-0.393 -0.104 0.708 255 255 255
-0.354 -0.532 0.81 255 255 255
0.06 0.065 0.794 255 255 255
0.287 0.065 0.549 255 255 255
-0.111 -0.784 1.058 0 0 0
0.158 -0.113 0.713 255 255 255
0.048 -0.354 0.859 255 255 255
0.339 -0.139 0.537 255 255 255
0.237 -0.405 0.669 255 255 255
0.044 -0.026 0.822 255 255 255
0.162 0.119 0.649 0 0 0
0.223 0.061 0.621 255 255 255
0.038 -0.205 0.853 255 255 255
-0.436 -0.085 0.659 255 255 255
0.295 -0.102 0.565 255 255 255
0.089 -0.026 0.773 0 0 0
0.248 -0.219 0.635 255 255 255
0.074 -0.463 0.847 255 255 255
-0.263 0.218 0.811 255 255 255
-0.277 0.164 0.807 255 255 255
0.281 -0.078 0.579 255 255 255
-0.037 -0.722 0.99 0 0 0
0.092 -0.576 0.843 255 255 255
0.285 0.002 0.571 255 255 255
0.317 -0.295 0.578 255 255 255
-0.391 -0.236 0.731 255 255 255
0.337 0.011 0.517 255 255 255
0.349 0.035 0.503 255 255 255
0.287 -0.054 0.573 255 255 255
0.07 0.088 0.78 255 255 255
-0.16 -0.059 0.948 255 255 255
0.129 -0.222 0.755 255 255 255
-0.285 -0.321 0.856 255 255 255
-0.305 -0.395 0.843 255 255 255
-0.392 -0.029 0.698 255 255 255
-0.391 -0.052 0.704 255 255 255
-0.113 -0.767 1.058 0 0 0
-0.068 0.05 0.924 255 255 255
-0.414 -0.32 0.72 255 255 255
0.059 -0.653 0.888 0 0 0
0.305 -0.27 0.584 255 255 255
0.148 -0.507 0.776 255 255 255
-0.458 -0.175 0.651 255 255 255
-0.05 -0.088 0.926 255 255 255
0.179 -0.167 0.698 0 0 0
0.162 -0.193 0.719 255 255 255
0.283 -0.065 0.575 255 255 255
0.158 0.173 0.676 255 255 255
0.088 -0.024 0.775 0 0 0
-0.3 0.112 0.787 255 255 255
0.22 -0.006 0.634 255 255 255
0.085 0.265 0.735 0 0 0
-0.239 -0.447 0.922 255 255 255
0.332 -0.059 0.53 255 255 255
0.34 -0.027 0.519 0 0 0
-0.133 0.269 0.926 255 255 255
0.108 0.33 0.703 0 0 0
0.077 -0.473 0.845 255 255 255
-0.293 -0.241 0.838 255 255 255
0.189 -0.34 0.712 0 0 0
-0.034 0.354 0.846 255 255 255
0.3 -0.132 0.568 255 255 255
0.103 0.06 0.748 255 255 255
-0.347 -0.367 0.795 255 255 255
-0.227 -0.572 0.953 255 255 255
0.319 -0.187 0.557 255 255 255
0.013 -0.699 0.939 0 0 0
-0.311 -0.544 0.858 255 255 255
-0.417 -0.057 0.676 255 255 255
0.115 0.272 0.704 255 255 255
0.222 -0.077 0.634 255 255 255
0.161 0.12 0.657 255 255 255
0.312 -0.096 0.551 255 255 255
-0.116 0.122 0.948 255 255 255
0.089 -0.128 0.788 0 0 0
-0.204 -0.648 0.981 255 255 255
-0.12 0.132 0.949 255 255 255
-0.053 -0.589 0.988 255 255 255
-0.381 -0.313 0.752 255 255 255
-0.354 -0.593 0.816 0 0 0
0.287 -0.005 0.567 255 255 255
-0.049 -0.188 0.936 255 255 255
-0.393 -0.36 0.747 255 255 255
0.246 0.228 0.58 255 255 255
0.107 0.121 0.736 255 255 255
0.113 -0.062 0.753 255 255 255
-0.442 -0.001 0.645 255 255 255
-0.272 0.246 0.791 255 255 255
-0.298 0.219 0.766 255 255 255
-0.178 0.381 0.865 0 0 0
-0.186 -0.467 0.979 255 255 255
0.161 0.169 0.674 255 255 255
0.008 -0.617 0.935 255 255 255
-0.438 -0.293 0.689 255 255 255
-0.376 -0.048 0.721 255 255 255
0.296 -0.322 0.6 255 255 255
-0.429 -0.274 0.695 255 255 255
0.316 -0.198 0.565 255 255 255
-0.114 -0.436 1.014 255 255 255
0.197 0.16 0.637 255 255 255
0.146 -0.096 0.721 0 0 0
0.178 0.249 0.644 0 0 0
-0.282 0.131 0.805 255 255 255
-0.223 -0.546 0.953 255 255 255
0.075 0.119 0.768 255 255 255
0.314 -0.007 0.54 255 255 255
-0.058 -0.106 0.934 255 255 255
-0.408 -0.26 0.714 255 255 255
-0.093 -0.67 1.031 255 255 255
0.333 -0.06 0.529 255 255 255
-0.171 0.441 0.874 255 255 255
-0.029 -0.266 0.926 255 255 255
0.08 0.113 0.766 0 0 0
0.216 0.169 0.615 255 255 255
0.02 0.28 0.802 255 255 255
-0.063 -0.147 0.943 255 255 255
0.276 0.101 0.563 255 255 255
0.251 -0.251 0.636 255 255 255
0.005 0.289 0.816 255 255 255
0.287 -0.06 0.57 255 255 255
0.148 0.077 0.698 255 255 255
-0.006 -0.113 0.888 255 255 255
0.126 -0.429 0.788 255 255 255
0.013 -0.417 0.903 255 255 255
-0.238 0.193 0.811 255 255 255
-0.42 -0.196 0.69 255 255 255
0.053 -0.151 0.83 255 255 255
0.284 0.028 0.569 255 255 255
0.216 0.162 0.617 255 255 255
-0.293 0.153 0.788 255 255 255
0.249 -0.367 0.653 255 255 255
0.112 -0.566 0.82 255 255 255
0.149 -0.508 0.775 255 255 255
-0.303 -0.036 0.801 255 255 255
-0.24 -0.137 0.881 255 255 255
0.141 0.308 0.672 0 0 0
-0.105 0.452 0.899 255 255 255
0.146 -0.06 0.715 255 255 255
0.221 0.138 0.612 255 255 255
0.221 0.272 0.597 0 0 0
0.102 0.376 0.703 255 255 255
0.236 -0.493 0.684 0 0 0
-0.432 -0.27 0.691 255 255 255
0.098 0.046 0.756 0 0 0
0.065 -0.019 0.8 255 255 255
-0.038 0.434 0.841 255 255 255
0.087 0.269 0.734 0 0 0
0.173 0.248 0.648 0 0 0
0.136 0.236 0.689 255 255 255
0.035 0.128 0.809 255 255 255
0.299 0.018 0.551 255 255 255
-0.083 -0.591 1.014 255 255 255
-0.275 0.107 0.819 255 255 255
-0.07 0.072 0.923 255 255 255
-0.137 0.251 0.927 255 255 255
-0.149 0.181 0.928 255 255 255
0.136 0.349 0.672 255 255 255
0.188 0.025 0.66 255 255 255
-0.332 -0.022 0.765 255 255 255
-0.188 0.363 0.72 255 255 255
0.275 -0.088 0.588 255 255 255
-0.376 0.002 0.715 255 255 255
-0.293 -0.427 0.859 255 255 255
-0.196 -0.282 0.946 255 255 255
0.16 0.295 0.658 0 0 0
0.084 -0.555 0.849 255 255 255
0.186 0.216 0.639 0 0 0
0.034 0.081 0.821 255 255 255
0.073 0.385 0.733 255 255 255
-0.181 0.323 0.737 255 255 255
-0.329 -0.475 0.826 255 255 255
0.29 -0.123 0.574 255 255 255
-0.108 -0.149 0.977 255 255 255
-0.1 0.184 0.929 255 255 255
-0.142 -0.003 0.957 255 255 255
-0.365 -0.452 0.788 255 255 255
0.229 -0.327 0.668 255 255 255
-0.229 0.194 0.79 255 255 255
0.058 0.188 0.777 255 255 255
0.162 -0.005 0.696 255 255 255
-0.025 -0.517 0.954 255 255 255
-0.362 -0.304 0.772 255 255 255
0.07 -0.508 0.856 255 255 255
-0.321 0.178 0.75 255 255 255
0.024 0.218 0.809 255 255 255
-0.264 -0.132 0.857 255 255 255
-0.176 0.395 0.731 255 255 255
0.314 -0.036 0.544 255 255 255
0.04 -0.114 0.838 255 255 255
0.358 -0.004 0.501 255 255 255
0.245 -0.02 0.61 0 0 0
0.274 -0.075 0.584 255 255 255
0.109 0.116 0.733 255 255 255
0.339 -0.123 0.534 255 255 255
-0.291 -0.292 0.846 255 255 255
0.217 -0.399 0.689 0 0 0
-0.047 -0.116 0.926 255 255 255
-0.299 -0.506 0.865 255 255 255
-0.202 0.04 0.9 255 255 255
-0.313 0.306 0.742 255 255 255
-0.39 0.065 0.689 255 255 255
0.315 0.009 0.538 255 255 255
-0.418 -0.408 0.728 255 255 255
0.121 0.091 0.724 255 255 255
-0.278 0.195 0.797 255 255 255
0.242 0.199 0.585 255 255 255
-0.245 -0.287 0.895 255 255 255
0.15 -0.079 0.714 255 255 255
0.241 -0.063 0.614 255 255 255
-0.204 0.009 0.899 255 255 255
0.083 0.103 0.764 0 0 0
-0.179 -0.167 0.946 255 255 255
-0.037 -0.085 0.915 255 255 255
-0.293 -0.005 0.808 255 255 255
-0.189 -0.189 0.937 255 255 255
0.125 0.3 0.691 255 255 255
-0.058 0.287 0.881 255 255 255
0.177 -0.133 0.692 255 255 255
0.309 -0.064 0.549 255 255 255
0.163 -0.558 0.768 0 0 0
0.144 0.026 0.711 255 255 255
-0.234 -0.147 0.891 255 255 255
-0.13 -0.262 0.995 255 255 255
-0.036 0.251 0.864 255 255 255
0.15 -0.223 0.734 255 255 255
0.271 0.119 0.566 255 255 255
-0.045 -0.3 0.945 255 255 255
-0.241 0.307 0.785 255 255 255
0.135 -0.005 0.722 255 255 255
0.063 0.263 0.761 255 255 255
0.154 -0.287 0.739 255 255 255
-0.103 0.37 0.907 255 255 255
-0.309 0.214 0.755 255 255 255
-0.297 -0.105 0.818 255 255 255
0.289 0.075 0.545 255 255 255
-0.054 0.285 0.877 255 255 255
0.315 0.095 0.527 255 255 255
0.104 0.13 0.737 255 255 255
-0.446 -0.032 0.642 255 255 255
-0.37 -0.557 0.798 255 255 255
-0.406 0.108 0.669 255 255 255
-0.06 -0.206 0.948 255 255 255
-0.126 -0.125 0.979 255 255 255
-0.026 -0.393 0.938 255 255 255
0.201 0.155 0.632 255 255 255
-0.455 -0.176 0.655 255 255 255
-0.413 -0.288 0.716 255 255 255
0.321 0.074 0.525 255 255 255
0.186 -0.169 0.692 255 255 255
0.334 -0.186 0.543 255 255 255
-0.045 0.139 0.889 255 255 255
0.144 0.249 0.679 255 255 255
-0.374 -0.114 0.732 255 255 255
0.072 0.342 0.74 0 0 0
-0.349 0.123 0.732 255 255 255
-0.251 -0.136 0.872 255 255 255
0.228 0.122 0.607 255 255 255
0.083 -0.151 0.797 0 0 0
0.235 -0.189 0.644 255 255 255
0.238 0.124 0.595 255 255 255
0.26 -0.185 0.619 255 255 255
-0.388 -0.425 0.76 255 255 255
-0.046 -0.095 0.923 255 255 255
0.131 -0.063 0.734 255 255 255
-0.28 -0.228 0.849 255 255 255
0.036 0.34 0.777 255 255 255
-0.021 0.002 0.887 255 255 255
0.032 0.271 0.79 255 255 255
-0.467 -0.099 0.627 255 255 255
0.143 0.283 0.674 255 255 255
-0.281 -0.234 0.849 255 255 255
-0.185 0.3 0.736 255 255 255
-0.384 -0.057 0.712 255 255 255
-0.212 0.176 0.875 255 255 255
-0.23 -0.62 0.951 255 255 255
0.288 0.148 0.55 255 255 255
0.251 0.097 0.59 255 255 255
-0.079 0.391 0.884 0 0 0
-0.052 -0.109 0.929 255 255 255
0.272 -0.007 0.582 255 255 255
0.308 -0.036 0.549 255 255 255
-0.012 -0.015 0.881 255 255 255
-0.287 -0.339 0.857 255 255 255
0.052 -0.177 0.835 255 255 255
0.283 -0.449 0.629 255 255 255
0.1 -0.138 0.777 255 255 255
-0.189 -0.251 0.948 255 255 255
-0.389 -0.373 0.752 255 255 255
-0.26 -0.02 0.846 255 255 255
0.306 -0.458 0.609 0 0 0
-0.301 -0.571 0.872 255 255 255
0.334 -0.128 0.538 0 0 0
-0.39 -0.109 0.713 255 255 255
0.336 -0.123 0.537 255 255 255
-0.213 0.117 0.879 255 255 255
0.18 0.339 0.631 255 255 255
-0.255 0.25 0.811 255 255 255
-0.149 0.259 0.918 255 255 255
-0.304 -0.096 0.809 255 255 255
-0.17 0.422 0.877 255 255 255
-0.349 0.228 0.715 255 255 255
-0.216 0.141 0.874 255 255 255
0.213 0.175 0.618 255 255 255
-0.158 0.313 0.904 255 255 255
0.282 0.178 0.551 255 255 255
-0.312 0.035 0.782 255 255 255
-0.139 0.056 0.952 255 255 255
0.074 -0.423 0.841 255 255 255
-0.013 -0.131 0.897 255 255 255
-0.071 0.42 0.872 255 255 255
-0.292 -0.076 0.818 255 255 255
-0.289 -0.279 0.847 255 255 255
-0.317 -0.46 0.839 255 255 255
-0.009 0.076 0.866 255 255 255
0.168 -0.014 0.69 255 255 255
-0.086 0.272 0.907 255 255 255
0.166 -0.134 0.706 255 255 255
-0.372 0.206 0.698 255 255 255
0.282 0.081 0.555 255 255 255
0.032 -0.096 0.844 255 255 255
-0.157 0.012 0.943 255 255 255
0 -0.246 0.898 255 255 255
0.197 -0.163 0.678 255 255 255
-0.141 0.488 0.894 255 255 255
-0.057 0.093 0.91 255 255 255
-0.114 0.234 0.932 255 255 255
0.05 -0.576 0.888 255 255 255
0.223 -0.365 0.68 255 255 255
-0.289 0.13 0.799 255 255 255
-0.44 -0.091 0.658 255 255 255
-0.034 0.321 0.853 255 255 255
-0.068 -0.316 0.967 255 255 255
-0.114 -0.487 1.022 255 255 255
-0.146 0.172 0.932 255 255 255
0.214 -0.316 0.681 0 0 0
-0.436 -0.094 0.661 255 255 255
-0.312 0.278 0.743 255 255 255
0.12 0.063 0.73 255 255 255
0.326 -0.19 0.552 255 255 255
0.113 0.039 0.741 255 255 255
-0.091 0.48 0.884 255 255 255
-0.369 0.073 0.713 255 255 255
-0.139 -0.231 0.989 255 255 255
-0.186 -0.681 1.003 255 255 255
-0.342 -0.461 0.812 255 255 255
0.291 0.089 0.542 255 255 255
0.062 -0.371 0.845 255 255 255
0.245 0.163 0.588 255 255 255
-0.026 -0.09 0.906 255 255 255
0.2 0.093 0.633 255 255 255
-0.18 -0.299 0.963 255 255 255
0.046 -0.077 0.828 255 255 255
-0.385 -0.526 0.777 255 255 255
0.174 0.263 0.646 255 255 255
-0.303 -0.053 0.804 255 255 255
0.08 0.29 0.739 0 0 0
-0.136 -0.153 0.978 255 255 255
0.235 -0.377 0.668 255 255 255
-0.358 0.038 0.73 255 255 255
0.196 -0.22 0.69 255 255 255
-0.23 0.345 0.768 0 0 0
0.212 -0.16 0.66 255 255 255
0.156 -0.102 0.712 255 255 255
0.279 -0.296 0.615 255 255 255
-0.367 -0.106 0.74 255 255 255
0.257 -0.008 0.596 255 255 255
-0.008 -0.497 0.935 255 255 255
-0.007 0.416 0.812 255 255 255
0.078 -0.082 0.793 255 255 255
-0.239 -0.369 0.911 255 255 255
0.232 -0.435 0.68 255 255 255
-0.148 -0.223 0.982 255 255 255
0.146 0.227 0.68 255 255 255
-0.201 0.089 0.894 255 255 255
-0.177 -0.441 0.985 255 255 255
-0.27 -0.097 0.845 255 255 255
0.317 -0.109 0.548 255 255 255
-0.237 -0.238 0.897 255 255 255
-0.082 0.288 0.903 255 255 255
-0.002 0.087 0.857 255 255 255
-0.042 0.419 0.845 255 255 255
0.099 -0.149 0.78 0 0 0
-0.38 -0.021 0.712 255 255 255
-0.354 -0.001 0.74 255 255 255
0.206 0.212 0.62 0 0 0
-0.081 -0.317 0.976 255 255 255
-0.248 0.139 0.842 255 255 255
-0.014 0.302 0.833 255 255 255
-0.368 -0.156 0.745 255 255 255
-0.386 -0.609 0.788 255 255 255
-0.349 0.205 0.719 255 255 255
-0.313 -0.239 0.818 255 255 255
-0.163 0.124 0.925 255 255 255
0.135 0.18 0.699 255 255 255
0.05 0.073 0.805 255 255 255
-0.452 -0.111 0.646 255 255 255
-0.124 0.26 0.932 255 255 255
0.307 0.022 0.54 255 255 255
-0.154 0.004 0.947 255 255 255
0.269 -0.07 0.586 255 255 255
0.007 -0.358 0.903 255 255 255
-0.19 0.186 0.892 255 255 255
-0.147 -0.621 1.032 255 255 255
