ply
format ascii 1.0
comment Created by Open3D
element vertex 1593
property double x
property double y
property double z
property uchar red
property uchar green
property uchar blue
end_header
0.141 0.018 0.682 255 255 255
-0.204 -0.624 1.08 255 255 255
-0.005 0.23 0.748 255 255 255
-0.496 -0.165 0.81 255 255 255
0.191 -0.056 0.654 255 255 255
-0.129 0.365 0.815 0 0 0
0.226 -0.041 0.636 255 255 255
-0.437 -0.513 0.998 255 255 255
0.26 -0.355 0.676 255 255 255
0.355 -0.162 0.567 255 255 255
0.276 0.028 0.582 255 255 255
0.053 -0.259 0.809 0 0 0
-0.381 0.162 0.896 255 255 255
-0.414 -0.52 1.037 255 255 255
-0.185 -0.116 0.962 255 255 255
0.082 0.276 0.675 255 255 255
-0.203 0.072 0.937 255 255 255
0.07 0.313 0.677 0 0 0
0.33 -0.005 0.551 255 255 255
-0.458 0.002 0.82 255 255 255
-0.401 -0.471 1.043 255 255 255
0.253 -0.068 0.611 255 255 255
0.23 -0.21 0.668 255 255 255
-0.209 -0.245 1.006 255 255 255
-0.401 -0.322 1 255 255 255
0.367 -0.12 0.549 255 255 255
-0.353 0.046 0.96 255 255 255
0.182 -0.014 0.661 255 255 255
0.313 -0.256 0.616 255 255 255
-0.506 -0.236 0.822 255 255 255
0.256 0.227 0.563 255 255 255
0.242 -0.462 0.712 255 255 255
-0.383 0.072 0.915 255 255 255
0.02 -0.208 0.823 255 255 255
0.033 -0.001 0.767 0 0 0
-0.544 -0.119 0.729 255 255 255
0.179 -0.252 0.713 255 255 255
-0.185 0.232 0.887 255 255 255
-0.178 0.021 0.928 255 255 255
0.114 0.21 0.666 255 255 255
0.021 0.096 0.758 255 255 255
-0.372 0.204 0.894 255 255 255
-0.077 0.25 0.799 255 255 255
-0.129 0.066 0.881 255 255 255
0.159 0.322 0.606 255 255 255
0.195 -0.168 0.685 255 255 255
-0.353 0.171 0.923 255 255 255
0.183 -0.268 0.716 255 255 255
-0.458 -0.021 0.83 255 255 255
-0.532 -0.224 0.781 255 255 255
0.305 0.031 0.562 255 255 255
-0.158 0.022 0.913 255 255 255
0.068 -0.08 0.759 0 0 0
-0.311 0.237 0.95 255 255 255
-0.358 -0.378 1.074 255 255 255
0.055 0.008 0.751 255 255 255
-0.366 0.138 0.921 255 255 255
0.145 -0.289 0.748 255 255 255
-0.516 0.031 0.737 255 255 255
-0.416 -0.396 0.998 255 255 255
-0.144 -0.472 1.003 255 255 255
-0.229 0.125 0.943 255 255 255
-0.374 -0.177 0.995 255 255 255
0.121 -0.075 0.717 255 255 255
-0.503 -0.517 0.909 255 255 255
0.281 -0.258 0.64 255 255 255
0.105 -0.321 0.782 255 255 255
-0.422 0.168 0.837 255 255 255
-0.072 0.336 0.776 255 255 255
0.379 -0.074 0.528 255 255 255
-0.528 -0.35 0.83 255 255 255
0.378 -0.086 0.539 0 0 0
-0.26 -0.01 0.992 255 255 255
0.209 0.138 0.61 255 255 255
0.198 -0.27 0.705 255 255 255
0.272 -0.064 0.607 255 255 255
0.068 -0.326 0.812 0 0 0
-0.38 0.123 0.905 255 255 255
0.363 -0.078 0.544 255 255 255
-0.475 0.08 0.783 255 255 255
-0.411 -0.048 0.906 255 255 255
0.195 0.301 0.586 255 255 255
-0.173 -0.399 1.011 255 255 255
-0.496 -0.15 0.808 255 255 255
0.222 -0.542 0.742 0 0 0
0.085 0.16 0.695 255 255 255
-0.102 0.362 0.794 0 0 0
0.332 -0.067 0.562 255 255 255
0.11 0.289 0.652 0 0 0
-0.047 0.124 0.802 255 255 255
-0.052 -0.227 0.882 255 255 255
-0.438 -0.304 0.94 255 255 255
-0.335 -0.338 1.086 255 255 255
0.236 0.117 0.595 255 255 255
-0.337 -0.066 1.008 255 255 255
-0.213 0.062 0.946 255 255 255
0.101 -0.109 0.741 255 255 255
-0.15 -0.487 1.01 255 255 255
-0.478 0.006 0.794 255 255 255
-0.068 0.104 0.824 0 0 0
-0.218 0.043 0.952 255 255 255
0.203 -0.332 0.714 0 0 0
0.328 -0.46 0.649 255 255 255
0.182 0.279 0.6 0 0 0
-0.128 0.234 0.842 255 255 255
-0.055 -0.005 0.836 0 0 0
-0.086 0.111 0.838 255 255 255
0.169 -0.488 0.771 255 255 255
0.089 0.071 0.709 255 255 255
-0.281 0.013 0.998 255 255 255
0.09 -0.214 0.771 255 255 255
-0.455 -0.106 0.861 255 255 255
-0.472 -0.18 0.853 255 255 255
-0.403 0.18 0.858 255 255 255
0.228 -0.179 0.664 255 255 255
0.273 0.142 0.561 255 255 255
-0.102 -0.198 0.914 255 255 255
-0.006 0.335 0.726 0 0 0
0.041 0.173 0.718 255 255 255
-0.348 -0.437 1.101 255 255 255
-0.183 0.459 0.84 255 255 255
0.036 -0.2 0.811 0 0 0
0.192 -0.364 0.727 255 255 255
-0.169 -0.124 0.951 255 255 255
-0.02 -0.705 0.959 0 0 0
0.211 0.214 0.587 0 0 0
0.076 0.019 0.731 255 255 255
-0.04 -0.679 0.968 255 255 255
0.354 -0.069 0.547 255 255 255
0.298 -0.409 0.657 255 255 255
0.295 0.015 0.571 255 255 255
0.079 -0.277 0.793 255 255 255
-0.165 -0.204 0.966 255 255 255
0.325 -0.225 0.602 255 255 255
0.316 -0.232 0.611 255 255 255
-0.452 -0.271 0.91 255 255 255
-0.368 -0.136 0.991 255 255 255
-0.342 0.369 0.882 255 255 255
0.039 0.161 0.724 255 255 255
-0.002 0.044 0.784 255 255 255
0.097 -0.603 0.849 255 255 255
0.105 0.334 0.646 255 255 255
0.31 0.04 0.556 255 255 255
-0.283 0.263 0.943 255 255 255
-0.057 0.261 0.78 0 0 0
-0.12 -0.043 0.897 255 255 255
-0.085 0.342 0.785 255 255 255
0.145 0.321 0.618 255 255 255
-0.094 -0.718 1.017 255 255 255
-0.03 -0.182 0.854 255 255 255
0.325 -0.077 0.565 0 0 0
-0.325 0.266 0.93 255 255 255
0.063 -0.574 0.869 255 255 255
0.023 -0.029 0.779 255 255 255
-0.067 0.037 0.837 0 0 0
0.37 -0.015 0.525 0 0 0
0.103 0.051 0.702 255 255 255
0.286 0.099 0.561 255 255 255
0.336 -0.383 0.624 255 255 255
0.271 0.065 0.58 255 255 255
-0.264 -0.128 1.017 255 255 255
0.136 0.301 0.63 0 0 0
-0.411 -0.073 0.914 255 255 255
0.069 0.357 0.667 255 255 255
-0.195 0.425 0.852 255 255 255
-0.251 -0.204 1.027 255 255 255
0.061 0.344 0.676 255 255 255
-0.433 -0.123 0.897 255 255 255
0.228 -0.217 0.672 255 255 255
-0.134 -0.459 0.993 255 255 255
0.33 -0.128 0.576 255 255 255
0.22 0.299 0.573 255 255 255
0.229 0.073 0.609 0 0 0
-0.356 -0.27 1.044 255 255 255
-0.395 -0.861 1.159 255 255 255
-0.322 0.197 0.951 255 255 255
0.224 -0.085 0.646 255 255 255
-0.012 -0.063 0.816 255 255 255
-0.435 -0.251 0.928 255 255 255
0.228 -0.014 0.629 255 255 255
-0.49 0.076 0.768 255 255 255
0.206 -0.013 0.643 0 0 0
0.248 -0.126 0.637 255 255 255
-0.515 -0.069 0.76 255 255 255
-0.487 -0.003 0.781 255 255 255
0.052 -0.211 0.801 0 0 0
0.064 0.201 0.696 255 255 255
-0.508 -0.406 0.871 255 255 255
-0.121 -0.602 1.012 255 255 255
-0.367 -0.262 1.029 255 255 255
-0.355 -0.677 1.156 255 255 255
0.27 -0.382 0.674 255 255 255
0.069 0.028 0.735 255 255 255
-0.311 -0.748 1.175 255 255 255
0.271 -0.196 0.634 255 255 255
-0.318 0.405 0.9 255 255 255
-0.288 -0.33 1.075 255 255 255
0.208 0.076 0.622 255 255 255
-0.336 0.341 0.755 0 0 0
-0.121 -0.115 0.912 255 255 255
-0.354 -0.169 1.016 255 255 255
0.362 -0.222 0.574 255 255 255
-0.071 0.363 0.769 255 255 255
-0.329 0.144 0.959 255 255 255
0.172 0.107 0.644 255 255 255
0.349 0.006 0.536 255 255 255
0.046 -0.249 0.811 0 0 0
0.119 -0.224 0.752 255 255 255
0.221 -0.145 0.661 255 255 255
-0.085 -0.693 1.003 255 255 255
-0.187 0.374 0.857 255 255 255
-0.436 -0.431 0.978 255 255 255
0.009 0.127 0.759 255 255 255
-0.197 -0.416 1.032 255 255 255
-0.279 0.414 0.91 255 255 255
0.118 0.277 0.648 255 255 255
-0.22 -0.671 1.102 255 255 255
0.368 -0.192 0.562 255 255 255
-0.321 -0.031 1.014 255 255 255
-0.354 -0.09 0.997 255 255 255
-0.09 -0.07 0.877 255 255 255
-0.149 0.206 0.866 255 255 255
0.096 -0.287 0.783 255 255 255
0.255 0.188 0.565 0 0 0
-0.392 -0.278 0.998 255 255 255
-0.035 0.163 0.785 255 255 255
0.194 -0.038 0.653 255 255 255
0.296 -0.003 0.584 255 255 255
-0.016 0.366 0.728 255 255 255
-0.394 -0.416 1.033 255 255 255
0.103 0.257 0.665 255 255 255
-0.342 -0.911 1.225 255 255 255
-0.455 -0.758 1.042 0 0 0
-0.4 0.134 0.879 255 255 255
-0.022 -0.307 0.874 255 255 255
-0.356 0.261 0.894 255 255 255
0.097 0.261 0.668 255 255 255
-0.155 0.114 0.891 255 255 255
0.352 -0.191 0.575 255 255 255
-0.109 -0.108 0.9 255 255 255
0.203 0.085 0.622 255 255 255
-0.309 -0.166 1.048 255 255 255
-0.474 -0.285 0.877 255 255 255
0.185 -0.11 0.679 255 255 255
0.004 0.351 0.716 255 255 255
0.031 -0.536 0.884 0 0 0
-0.134 0.374 0.816 0 0 0
-0.294 -0.149 1.039 255 255 255
0.066 0.365 0.67 255 255 255
0.313 0.085 0.546 255 255 255
-0.059 -0.137 0.867 0 0 0
-0.532 -0.135 0.75 255 255 255
-0.201 0.063 0.937 255 255 255
-0.316 0.31 0.925 255 255 255
0.152 -0.125 0.706 255 255 255
0.046 0.26 0.698 255 255 255
0.017 0.383 0.701 255 255 255
0.139 -0.158 0.724 255 255 255
-0.113 -0.26 0.937 255 255 255
-0.509 -0.31 0.841 255 255 255
-0.161 0.285 0.856 255 255 255
0.266 -0.287 0.658 255 255 255
0.077 0.003 0.732 255 255 255
0.377 -0.031 0.525 255 255 255
0.146 -0.54 0.799 255 255 255
0.054 0.066 0.737 255 255 255
-0.008 0.185 0.76 255 255 255
0.146 0.105 0.659 0 0 0
0.097 0.241 0.669 255 255 255
-0.467 -0.087 0.833 255 255 255
-0.228 -0.289 1.028 255 255 255
0.352 0 0.537 255 255 255
0.267 -0.032 0.604 255 255 255
0.206 0.038 0.633 255 255 255
0.25 -0.346 0.681 255 255 255
-0.398 0.15 0.878 255 255 255
0.24 -0.17 0.653 255 255 255
-0.318 0.096 0.983 255 255 255
-0.34 0.312 0.797 255 255 255
-0.434 -0.011 0.864 255 255 255
-0.391 -0.323 1.012 255 255 255
-0.198 -0.51 1.053 255 255 255
-0.07 -0.182 0.886 0 0 0
-0.218 -0.143 0.992 255 255 255
0.303 -0.074 0.582 0 0 0
0.243 -0.267 0.671 255 255 255
-0.092 0.316 0.796 255 255 255
0.129 0.086 0.681 0 0 0
-0.49 -0.058 0.794 255 255 255
0.366 -0.25 0.574 255 255 255
0.182 0.178 0.615 255 255 255
-0.165 -0.613 1.05 255 255 255
-0.415 -0.77 1.103 255 255 255
-0.443 0.193 0.805 255 255 255
-0.459 0.131 0.798 255 255 255
0.183 -0.493 0.76 255 255 255
0.112 0.026 0.699 255 255 255
-0.011 0.077 0.785 255 255 255
0.165 -0.301 0.735 255 255 255
0.249 -0.094 0.626 255 255 255
0.284 -0.173 0.621 255 255 255
-0.084 -0.415 0.945 0 0 0
0.087 0.36 0.655 255 255 255
0.29 -0.058 0.591 255 255 255
-0.369 -0.044 0.967 255 255 255
0.014 -0.288 0.844 255 255 255
0.078 0.053 0.726 0 0 0
0.298 -0.233 0.623 255 255 255
-0.211 0.054 0.946 255 255 255
-0.344 -0.152 1.024 255 255 255
0.203 -0.295 0.705 0 0 0
0.123 -0.312 0.768 255 255 255
0.213 0.239 0.588 255 255 255
-0.464 -0.003 0.815 255 255 255
-0.012 -0.514 0.912 255 255 255
-0.068 -0.439 0.939 0 0 0
0.04 -0.142 0.794 0 0 0
0.07 -0.021 0.747 0 0 0
-0.424 -0.421 0.992 255 255 255
0.193 0.062 0.636 255 255 255
-0.144 0.142 0.876 255 255 255
-0.477 -0.235 0.862 255 255 255
0.154 -0.268 0.736 255 255 255
-0.164 0.03 0.917 255 255 255
-0.263 -0.886 1.172 255 255 255
0.226 -0.249 0.681 255 255 255
0.36 -0.118 0.554 255 255 255
-0.189 0.446 0.844 255 255 255
0.212 -0.309 0.701 255 255 255
-0.15 -0.25 0.964 255 255 255
-0.401 -0.027 0.918 255 255 255
0.197 -0.324 0.717 255 255 255
-0.393 -0.776 1.133 255 255 255
-0.217 -0.303 1.025 255 255 255
0.226 -0.111 0.65 255 255 255
0.015 -0.162 0.817 255 255 255
0.039 -0.44 0.856 0 0 0
-0.186 -0.605 1.063 255 255 255
0.135 -0.505 0.8 255 255 255
-0.354 -0.478 1.103 255 255 255
-0.013 -0.364 0.879 255 255 255
0.259 -0.19 0.642 255 255 255
-0.364 -0.065 0.977 255 255 255
-0.311 0.088 0.989 255 255 255
-0.357 0.199 0.913 255 255 255
0.235 -0.521 0.728 255 255 255
-0.122 0.117 0.864 255 255 255
-0.117 -0.573 1.004 255 255 255
-0.5 -0.073 0.785 255 255 255
-0.092 0.058 0.853 255 255 255
0.307 -0.235 0.617 255 255 255
-0.451 -0.097 0.864 255 255 255
0.322 -0.044 0.565 0 0 0
0.22 -0.134 0.659 255 255 255
0.275 -0.086 0.604 255 255 255
0.031 0.232 0.699 255 255 255
-0.046 0.239 0.777 255 255 255
-0.547 -0.147 0.73 255 255 255
0.194 -0.201 0.693 255 255 255
-0.118 0.259 0.829 255 255 255
0.115 -0.089 0.725 255 255 255
-0.016 -0.275 0.865 255 255 255
-0.095 0.028 0.862 255 255 255
-0.44 -0.054 0.866 255 255 255
0.203 -0.471 0.742 255 255 255
-0.025 -0.718 0.964 0 0 0
0.335 -0.034 0.554 0 0 0
-0.479 -0.275 0.867 255 255 255
0.291 -0.352 0.654 255 255 255
0.161 0.079 0.654 255 255 255
0.294 -0.31 0.642 255 255 255
-0.436 -0.1 0.886 255 255 255
-0.423 -0.576 1.038 255 255 255
-0.019 -0.179 0.847 255 255 255
0.228 -0.066 0.64 255 255 255
0.138 -0.254 0.745 255 255 255
-0.346 -0.838 1.206 255 255 255
-0.41 0.094 0.873 255 255 255
0.31 -0.228 0.613 255 255 255
-0.336 -0.058 1.006 255 255 255
0.02 -0.618 0.908 255 255 255
0.207 0.056 0.628 255 255 255
-0.362 -0.152 1.003 255 255 255
-0.489 -0.217 0.837 255 255 255
0.015 0.098 0.762 255 255 255
-0.294 0.296 0.94 255 255 255
-0.154 -0.14 0.942 255 255 255
-0.008 -0.572 0.922 255 255 255
-0.388 -0.799 1.148 255 255 255
-0.208 0.173 0.918 255 255 255
-0.501 -0.333 0.859 255 255 255
-0.311 -0.054 1.024 255 255 255
-0.057 -0.18 0.875 255 255 255
-0.025 0.307 0.747 255 255 255
-0.174 -0.093 0.949 255 255 255
-0.02 0.206 0.766 255 255 255
-0.053 0.184 0.796 0 0 0
-0.546 -0.075 0.714 255 255 255
0.141 -0.333 0.76 255 255 255
0.27 0.017 0.592 0 0 0
0.194 -0.235 0.702 255 255 255
-0.45 0.151 0.804 255 255 255
-0.05 0.164 0.797 255 255 255
-0.44 -0.32 0.941 255 255 255
0.04 0.101 0.742 0 0 0
-0.292 0.003 1.005 255 255 255
-0.507 -0.367 0.861 255 255 255
0.104 -0.027 0.722 255 255 255
0.34 -0.285 0.602 255 255 255
0.156 -0.033 0.683 255 255 255
-0.018 -0.014 0.81 255 255 255
-0.124 -0.523 0.997 255 255 255
-0.193 -0.292 1.004 255 255 255
-0.122 0.31 0.823 255 255 255
0.298 0.048 0.561 255 255 255
-0.275 -0.531 1.11 255 255 255
0.082 0.211 0.686 255 255 255
-0.1 -0.135 0.899 255 255 255
-0.418 0.109 0.857 255 255 255
0.2 -0.167 0.682 255 255 255
0.048 0.187 0.711 255 255 255
0.308 -0.113 0.589 255 255 255
0.228 0.16 0.593 255 255 255
0.155 -0.044 0.683 255 255 255
-0.043 -0.131 0.853 255 255 255
-0.419 -0.377 0.985 255 255 255
-0.164 0.424 0.828 255 255 255
0.151 -0.253 0.736 255 255 255
0.363 -0.035 0.537 255 255 255
-0.155 -0.115 0.936 255 255 255
-0.201 0.016 0.946 255 255 255
-0.421 -0.522 1.022 255 255 255
-0.061 0.404 0.756 255 255 255
0.219 0.078 0.616 0 0 0
0.225 -0.55 0.743 0 0 0
-0.159 -0.412 1.002 255 255 255
-0.216 -0.119 0.985 255 255 255
-0.44 0.067 0.831 255 255 255
0.216 -0.013 0.639 255 255 255
0.077 0.283 0.678 255 255 255
-0.323 -0.132 1.038 255 255 255
-0.366 -0.038 0.966 255 255 255
-0.488 0.081 0.769 255 255 255
0.166 0.262 0.615 255 255 255
0.053 -0.393 0.837 255 255 255
-0.432 -0.199 0.918 255 255 255
-0.136 -0.347 0.971 255 255 255
0.021 0.194 0.734 0 0 0
-0.317 -0.062 1.023 255 255 255
-0.307 -0.921 1.208 255 255 255
0.266 0.101 0.575 255 255 255
0.164 -0.139 0.702 255 255 255
-0.263 0.295 0.927 255 255 255
-0.441 -0.505 0.991 255 255 255
0.289 0.035 0.573 0 0 0
0.192 0.081 0.631 255 255 255
-0.182 -0.106 0.957 255 255 255
0.009 0.298 0.725 255 255 255
-0.218 0.307 0.895 255 255 255
0.002 -0.373 0.87 255 255 255
-0.428 -0.382 0.977 255 255 255
0.045 0.158 0.722 255 255 255
-0.256 -0.734 1.139 255 255 255
0.081 -0.368 0.81 255 255 255
0.349 -0.265 0.593 255 255 255
-0.19 0.106 0.919 255 255 255
0.13 -0.35 0.771 255 255 255
0.075 0.06 0.727 0 0 0
-0.336 0.11 0.963 255 255 255
0.373 -0.078 0.534 255 255 255
-0.112 -0.52 0.988 255 255 255
0.355 -0.118 0.558 255 255 255
0.143 -0.015 0.69 255 255 255
0.182 0.117 0.634 255 255 255
0.333 -0.227 0.597 255 255 255
0.128 0.326 0.63 255 255 255
-0.141 0.176 0.865 255 255 255
-0.285 0.131 0.975 255 255 255
-0.102 -0.733 1.025 255 255 255
0.202 -0.135 0.672 255 255 255
-0.177 0.208 0.888 255 255 255
0.013 -0.191 0.823 255 255 255
0.001 0.183 0.753 255 255 255
-0.24 -0.724 1.125 255 255 255
-0.257 0.149 0.955 255 255 255
0.025 -0.651 0.913 255 255 255
-0.35 -0.242 1.044 255 255 255
-0.254 0.28 0.926 255 255 255
0.121 -0.233 0.753 255 255 255
-0.406 0.014 0.899 255 255 255
-0.137 0.017 0.897 255 255 255
0.108 0.193 0.674 0 0 0
0.124 0.121 0.674 255 255 255
0.18 -0.189 0.701 255 255 255
-0.307 -0.762 1.176 255 255 255
-0.154 -0.2 0.957 255 255 255
0.08 0.037 0.726 0 0 0
-0.28 0.312 0.931 255 255 255
0.303 0.015 0.569 255 255 255
-0.28 -0.462 1.097 255 255 255
0.341 -0.325 0.608 255 255 255
0.247 0.031 0.606 255 255 255
0.229 0.037 0.617 0 0 0
-0.522 -0.127 0.762 255 255 255
-0.376 -0.259 1.015 255 255 255
0.147 0.126 0.655 255 255 255
0.217 0.321 0.566 255 255 255
-0.165 0.431 0.829 255 255 255
-0.165 0.006 0.921 255 255 255
0.271 0.188 0.546 255 255 255
0.315 0.119 0.539 255 255 255
-0.064 -0.627 0.974 255 255 255
0.109 -0.214 0.759 255 255 255
-0.058 -0.062 0.85 0 0 0
-0.479 -0.057 0.806 255 255 255
-0.329 0.358 0.756 255 255 255
-0.429 -0.093 0.895 255 255 255
0.337 -0.41 0.629 255 255 255
-0.061 -0.032 0.846 0 0 0
-0.302 0.07 0.994 255 255 255
0.155 0.233 0.629 255 255 255
-0.317 -0.706 1.17 255 255 255
-0.013 0.37 0.724 255 255 255
0.333 -0.27 0.605 255 255 255
0.216 0.283 0.576 255 255 255
0.001 0.193 0.752 255 255 255
-0.052 -0.217 0.879 255 255 255
0.385 -0.103 0.531 255 255 255
0.099 -0.168 0.755 255 255 255
-0.383 0.062 0.916 255 255 255
-0.089 -0.334 0.931 255 255 255
-0.03 0.336 0.744 0 0 0
-0.203 0.067 0.939 255 255 255
-0.322 -0.802 1.193 255 255 255
-0.257 0.002 0.987 255 255 255
-0.092 -0.202 0.907 255 255 255
-0.128 -0.711 1.04 255 255 255
-0.412 -0.626 1.066 255 255 255
0.295 -0.092 0.594 255 255 255
0.053 0.042 0.744 255 255 255
0.202 -0.307 0.709 0 0 0
0.195 -0.266 0.705 255 255 255
0.33 -0.351 0.622 255 255 255
0.262 -0.229 0.65 255 255 255
0.31 -0.207 0.61 255 255 255
-0.038 -0.034 0.831 255 255 255
0.27 -0.375 0.674 255 255 255
-0.182 -0.778 1.095 255 255 255
-0.416 -0.321 0.977 255 255 255
0.199 0.272 0.587 0 0 0
0.122 -0.099 0.723 255 255 255
-0.257 -0.113 1.01 255 255 255
0.123 -0.361 0.778 255 255 255
0.313 -0.33 0.633 255 255 255
0.071 0.091 0.72 0 0 0
-0.249 -0.823 1.152 255 255 255
0.234 0.051 0.61 255 255 255
0.118 0.054 0.686 255 255 255
-0.462 -0.378 0.927 255 255 255
0.122 0.159 0.674 0 0 0
0.304 -0.087 0.59 255 255 255
0.341 -0.386 0.622 255 255 255
0.327 -0.07 0.562 0 0 0
-0.032 0.147 0.786 255 255 255
0.141 0.02 0.682 255 255 255
0.131 0.111 0.672 255 255 255
-0.399 -0.441 1.032 255 255 255
0.109 0.162 0.679 255 255 255
-0.378 0.121 0.91 255 255 255
-0.275 -0.74 1.151 255 255 255
-0.471 -0.755 1.018 0 0 0
0.121 0.168 0.679 0 0 0
-0.012 -0.541 0.918 255 255 255
0.359 0.029 0.522 255 255 255
-0.012 -0.453 0.899 255 255 255
-0.421 -0.007 0.881 255 255 255
-0.433 -0.44 0.984 255 255 255
-0.409 -0.12 0.931 255 255 255
0.225 -0.084 0.645 255 255 255
-0.449 -0.289 0.921 255 255 255
-0.311 -0.214 1.059 255 255 255
0.179 0.188 0.617 255 255 255
0.121 -0.244 0.753 255 255 255
0.081 -0.261 0.788 255 255 255
-0.414 0.014 0.885 255 255 255
0.231 -0.073 0.639 255 255 255
0.257 0.171 0.559 0 0 0
-0.421 -0.122 0.913 255 255 255
0.31 -0.269 0.623 255 255 255
-0.388 -0.463 1.059 255 255 255
-0.009 -0.263 0.857 255 255 255
0.182 0.137 0.628 255 255 255
0.28 0.12 0.563 255 255 255
0.281 -0.348 0.659 255 255 255
-0.421 -0.266 0.956 255 255 255
-0.126 0.133 0.864 255 255 255
-0.143 0.095 0.885 255 255 255
0.265 0.185 0.552 255 255 255
-0.008 0.345 0.726 0 0 0
0.214 -0.161 0.67 0 0 0
-0.418 -0.065 0.902 255 255 255
-0.018 -0.085 0.825 255 255 255
0.334 -0.234 0.599 255 255 255
0.202 0.116 0.617 255 255 255
0.164 0.063 0.655 255 255 255
-0.462 -0.262 0.894 255 255 255
-0.174 0.187 0.889 255 255 255
-0.485 -0.155 0.822 255 255 255
-0.543 -0.106 0.726 255 255 255
0.215 -0.351 0.708 255 255 255
0.044 0.33 0.693 0 0 0
0.004 0.302 0.727 255 255 255
0.149 -0.419 0.771 255 255 255
0.185 -0.534 0.768 255 255 255
0.248 -0.225 0.659 255 255 255
-0.363 -0.058 0.976 255 255 255
0.28 0.116 0.562 255 255 255
-0.432 -0.212 0.922 255 255 255
0.328 -0.322 0.618 255 255 255
0.104 -0.537 0.828 255 255 255
0.094 -0.285 0.783 255 255 255
0.147 -0.25 0.737 255 255 255
-0.011 0.205 0.758 255 255 255
0.006 -0.572 0.911 255 255 255
-0.164 -0.514 1.026 255 255 255
-0.506 0.029 0.752 255 255 255
0.331 0.06 0.539 255 255 255
-0.295 0.393 0.92 255 255 255
-0.248 0.067 0.969 255 255 255
-0.294 -0.318 1.074 255 255 255
-0.436 0.151 0.821 255 255 255
-0.056 0.392 0.755 255 255 255
0.042 -0.353 0.837 0 0 0
0.178 -0.225 0.71 255 255 255
-0.148 0.056 0.898 255 255 255
-0.365 -0.327 1.047 255 255 255
0.152 -0.201 0.724 255 255 255
-0.163 -0.719 1.067 255 255 255
-0.547 -0.195 0.752 255 255 255
-0.29 -0.129 1.033 255 255 255
0.3 0.15 0.544 255 255 255
0.02 -0.246 0.83 255 255 255
-0.487 -0.388 0.896 255 255 255
0.309 -0.22 0.612 255 255 255
-0.167 -0.605 1.05 255 255 255
0.185 -0.161 0.69 255 255 255
0.124 -0.576 0.822 255 255 255
-0.129 -0.355 0.968 255 255 255
-0.249 -0.163 1.016 255 255 255
-0.489 -0.761 0.997 255 255 255
0.1 -0.15 0.75 255 255 255
0.066 0.017 0.739 255 255 255
-0.183 -0.007 0.939 255 255 255
0.243 0.167 0.58 255 255 255
-0.351 -0.717 1.171 255 255 255
0.242 0.11 0.592 255 255 255
0.011 0.048 0.776 255 255 255
-0.311 0.436 0.897 255 255 255
0.323 -0.368 0.631 255 255 255
0.115 0.198 0.665 255 255 255
-0.151 -0.031 0.918 255 255 255
0.211 -0.205 0.683 0 0 0
-0.14 -0.768 1.062 0 0 0
-0.308 -0.318 1.08 255 255 255
0.006 0.198 0.748 255 255 255
-0.216 -0.83 1.13 0 0 0
0 0.202 0.752 255 255 255
-0.269 0.255 0.939 255 255 255
0.11 -0.382 0.792 0 0 0
-0.436 0.128 0.823 255 255 255
0.255 0.191 0.561 0 0 0
0.063 -0.154 0.779 0 0 0
0.012 0.262 0.73 0 0 0
0.067 0.352 0.67 255 255 255
-0.426 -0.669 1.059 255 255 255
-0.446 0.036 0.829 255 255 255
0.241 0.027 0.612 255 255 255
-0.255 -0.645 1.121 255 255 255
-0.234 -0.564 1.092 255 255 255
-0.486 -0.494 0.925 255 255 255
0.271 -0.304 0.658 255 255 255
0.09 0.281 0.668 255 255 255
-0.17 0.392 0.839 255 255 255
0.141 -0.303 0.753 255 255 255
0.291 0.065 0.563 255 255 255
0.188 0.212 0.606 255 255 255
-0.478 0.079 0.781 255 255 255
-0.35 0.297 0.893 255 255 255
-0.311 -0.141 1.043 255 255 255
-0.026 -0.016 0.816 255 255 255
0.106 -0.059 0.727 255 255 255
-0.368 0.188 0.904 255 255 255
0.039 -0.305 0.827 0 0 0
0.296 -0.103 0.596 255 255 255
0.137 -0.214 0.738 255 255 255
-0.523 -0.035 0.735 255 255 255
-0.207 0.375 0.872 255 255 255
0.234 0.104 0.599 255 255 255
-0.526 0.002 0.726 255 255 255
0.368 -0.186 0.56 255 255 255
0.132 -0.076 0.711 255 255 255
0.258 -0.111 0.626 255 255 255
0.047 0.331 0.691 0 0 0
0.132 -0.227 0.744 255 255 255
-0.167 0.312 0.854 255 255 255
0.178 -0.087 0.678 255 255 255
-0.234 0.213 0.928 255 255 255
0.292 -0.181 0.617 255 255 255
-0.268 -0.676 1.137 255 255 255
-0.055 0.248 0.783 0 0 0
-0.472 -0.446 0.931 255 255 255
-0.033 -0.654 0.957 255 255 255
-0.212 0.392 0.87 0 0 0
-0.243 -0.312 1.044 255 255 255
0.206 -0.101 0.661 0 0 0
-0.319 0.23 0.944 255 255 255
-0.391 -0.083 0.945 255 255 255
0.079 -0.445 0.83 255 255 255
-0.487 0.016 0.777 255 255 255
-0.35 0.058 0.959 255 255 255
0.332 -0.198 0.591 255 255 255
-0.527 -0.192 0.775 255 255 255
-0.334 -0.092 1.018 255 255 255
-0.501 0.075 0.749 255 255 255
0.061 -0.09 0.767 0 0 0
0.029 -0.28 0.831 0 0 0
0.219 0.142 0.602 255 255 255
-0.232 0.167 0.936 255 255 255
-0.387 -0.489 1.065 255 255 255
0.2 -0.562 0.761 0 0 0
-0.365 0.242 0.887 255 255 255
0.297 -0.117 0.597 255 255 255
0.24 -0.028 0.623 255 255 255
0.356 -0.035 0.54 0 0 0
-0.371 -0.228 1.013 255 255 255
0.019 -0.459 0.875 0 0 0
-0.035 0.3 0.756 255 255 255
0.177 0.177 0.623 255 255 255
-0.176 -0.553 1.046 255 255 255
-0.485 -0.792 1.01 255 255 255
-0.214 -0.754 1.114 255 255 255
0.165 -0.127 0.698 255 255 255
-0.098 0.309 0.802 255 255 255
-0.161 0.122 0.895 255 255 255
0.062 -0.299 0.81 0 0 0
-0.41 0.184 0.846 255 255 255
0.043 0.354 0.689 255 255 255
-0.464 -0.2 0.869 255 255 255
0.287 -0.491 0.684 0 0 0
0.218 -0.104 0.654 255 255 255
-0.282 -0.723 1.154 255 255 255
0.116 -0.215 0.753 255 255 255
-0.076 0.37 0.772 255 255 255
-0.424 0.079 0.854 255 255 255
-0.052 0.09 0.816 255 255 255
0.369 -0.015 0.528 255 255 255
0.117 -0.003 0.705 255 255 255
-0.022 0.24 0.759 255 255 255
0.214 -0.229 0.686 255 255 255
-0.172 -0.476 1.026 255 255 255
-0.478 -0.4 0.914 255 255 255
0.014 0.099 0.763 255 255 255
0.151 -0.034 0.688 255 255 255
-0.207 -0.202 0.994 255 255 255
-0.431 0.023 0.861 255 255 255
-0.279 0.152 0.968 255 255 255
0.101 -0.145 0.748 255 255 255
-0.481 -0.561 0.953 255 255 255
-0.482 0.061 0.774 255 255 255
-0.105 -0.172 0.911 255 255 255
0.117 -0.32 0.774 255 255 255
-0.346 -0.804 1.197 255 255 255
-0.141 0.006 0.903 255 255 255
-0.237 -0.201 1.016 255 255 255
0.078 -0.135 0.764 255 255 255
-0.294 0.196 0.964 255 255 255
-0.069 -0.406 0.931 0 0 0
0.26 0.213 0.558 255 255 255
0.338 -0.367 0.623 255 255 255
-0.423 0.156 0.836 255 255 255
-0.025 0.157 0.779 255 255 255
0.064 -0.138 0.775 0 0 0
-0.073 -0.074 0.865 0 0 0
-0.091 -0.215 0.909 255 255 255
0.34 0.055 0.532 255 255 255
0.347 -0.266 0.596 255 255 255
-0.119 -0.243 0.939 255 255 255
-0.405 0.153 0.865 255 255 255
-0.082 0.411 0.772 255 255 255
0.006 -0.036 0.796 255 255 255
-0.109 -0.069 0.893 255 255 255
-0.079 -0.349 0.927 0 0 0
0.221 0.062 0.617 0 0 0
0.148 -0.061 0.691 255 255 255
-0.076 -0.13 0.879 0 0 0
0.236 0.061 0.607 255 255 255
0.106 -0.477 0.815 255 255 255
-0.508 -0.368 0.859 255 255 255
-0.086 0.414 0.774 255 255 255
0.338 -0.379 0.622 255 255 255
-0.182 0.354 0.858 255 255 255
0.277 -0.144 0.618 255 255 255
-0.442 -0.481 0.984 255 255 255
-0.16 -0.123 0.943 255 255 255
-0.466 -0.271 0.887 255 255 255
-0.115 0.209 0.838 255 255 255
-0.528 -0.261 0.796 255 255 255
0.049 -0.433 0.849 255 255 255
0.316 -0.228 0.611 255 255 255
-0.397 -0.22 0.978 255 255 255
0.051 -0.363 0.832 255 255 255
0.015 -0.023 0.785 255 255 255
0.02 -0.571 0.9 255 255 255
-0.421 0.263 0.819 255 255 255
-0.26 0.03 0.981 255 255 255
-0.283 -0.526 1.114 255 255 255
0.006 -0.068 0.803 255 255 255
0.009 0.092 0.767 255 255 255
0.231 0.1 0.601 255 255 255
0.174 -0.016 0.665 255 255 255
-0.55 -0.134 0.723 255 255 255
-0.005 -0.189 0.836 255 255 255
-0.272 -0.189 1.035 255 255 255
0.255 -0.05 0.61 255 255 255
0.114 0.207 0.667 255 255 255
-0.345 0.397 0.87 255 255 255
-0.291 0.386 0.921 255 255 255
0.175 -0.202 0.707 255 255 255
0.127 -0.111 0.723 255 255 255
0.103 0.037 0.705 255 255 255
-0.377 0.308 0.857 255 255 255
-0.197 -0.448 1.039 255 255 255
-0.028 -0.008 0.816 255 255 255
-0.454 -0.394 0.944 255 255 255
-0.093 -0.18 0.902 255 255 255
0.161 0.165 0.637 255 255 255
-0.489 -0.275 0.858 255 255 255
-0.093 -0.458 0.962 255 255 255
-0.372 -0.675 1.138 255 255 255
-0.127 -0.692 1.035 255 255 255
-0.403 0.247 0.841 255 255 255
0.061 -0.016 0.752 0 0 0
0.101 -0.445 0.812 255 255 255
-0.344 0.196 0.929 255 255 255
0.157 -0.038 0.681 255 255 255
0.323 -0.003 0.557 255 255 255
-0.035 0.232 0.771 255 255 255
-0.406 -0.493 1.039 255 255 255
0.148 0.066 0.661 255 255 255
-0.243 -0.056 0.991 255 255 255
-0.334 -0.179 1.045 255 255 255
-0.431 -0.033 0.874 255 255 255
-0.371 -0.103 0.977 255 255 255
0.249 0.007 0.61 255 255 255
-0.277 0.202 0.955 255 255 255
0.215 -0.144 0.665 255 255 255
-0.242 0.284 0.916 255 255 255
0.08 0.156 0.697 0 0 0
-0.28 -0.134 1.029 255 255 255
-0.048 -0.103 0.851 255 255 255
0.233 -0.511 0.727 255 255 255
0.271 -0.291 0.655 255 255 255
0.328 -0.231 0.602 255 255 255
0.19 0.318 0.586 255 255 255
0.144 -0.215 0.733 255 255 255
0.096 -0.182 0.76 255 255 255
0.368 -0.07 0.537 0 0 0
-0.502 -0.073 0.781 255 255 255
0.267 0.098 0.575 0 0 0
0.349 0.035 0.528 255 255 255
0.305 0.085 0.55 0 0 0
-0.099 -0.778 1.034 255 255 255
-0.462 -0.528 0.968 255 255 255
0.088 0.109 0.703 255 255 255
-0.221 -0.765 1.121 255 255 255
-0.388 0.193 0.874 255 255 255
0.376 -0.196 0.555 255 255 255
0.286 -0.447 0.676 255 255 255
0.009 -0.412 0.873 255 255 255
0.276 -0.281 0.649 255 255 255
-0.247 -0.543 1.093 255 255 255
0.111 0.162 0.678 255 255 255
-0.224 0.376 0.885 255 255 255
0.318 -0.343 0.63 255 255 255
-0.527 -0.126 0.756 255 255 255
0.302 -0.003 0.573 255 255 255
0.276 -0.273 0.648 255 255 255
0.066 -0.515 0.852 255 255 255
0.138 0.092 0.668 0 0 0
0.012 0.278 0.726 255 255 255
-0.324 0.23 0.94 255 255 255
-0.334 -0.84 1.205 255 255 255
-0.187 -0.221 0.985 255 255 255
0.041 0.084 0.744 0 0 0
-0.176 0.223 0.883 255 255 255
0.182 0.307 0.593 255 255 255
0.234 -0.201 0.664 255 255 255
-0.09 -0.193 0.903 255 255 255
0.096 -0.262 0.777 255 255 255
0.321 -0.003 0.559 255 255 255
-0.341 -0.67 1.169 255 255 255
-0.202 -0.278 1.008 255 255 255
-0.352 -0.04 0.983 255 255 255
0.117 -0.598 0.833 255 255 255
-0.132 0.324 0.824 255 255 255
0.195 0.056 0.634 255 255 255
0.144 -0.012 0.687 255 255 255
-0.502 0.038 0.756 255 255 255
0.32 -0.167 0.594 255 255 255
0.021 -0.179 0.816 255 255 255
-0.337 0.143 0.952 255 255 255
-0.064 0.293 0.78 0 0 0
-0.332 -0.569 1.145 255 255 255
0.312 0.073 0.548 0 0 0
0.016 -0.35 0.855 255 255 255
0.051 0.348 0.684 255 255 255
-0.117 0.002 0.884 255 255 255
-0.264 0.326 0.921 255 255 255
0.265 0.181 0.553 255 255 255
-0.076 0.333 0.78 255 255 255
0.267 -0.084 0.614 255 255 255
0.226 0.002 0.627 255 255 255
-0.103 -0.216 0.918 255 255 255
-0.461 -0.274 0.894 255 255 255
-0.217 0.379 0.879 255 255 255
0.064 -0.085 0.764 0 0 0
-0.436 -0.276 0.935 255 255 255
-0.227 -0.226 1.014 255 255 255
-0.04 -0.248 0.877 255 255 255
0.129 0.226 0.651 255 255 255
0.129 -0.502 0.803 255 255 255
0.209 -0.311 0.705 0 0 0
0.364 -0.135 0.553 255 255 255
0.259 0.163 0.56 255 255 255
-0.345 0.34 0.887 255 255 255
0.256 -0.259 0.658 255 255 255
0.32 -0.155 0.591 255 255 255
-0.247 0.11 0.961 255 255 255
0.247 -0.016 0.615 255 255 255
0.316 -0.507 0.664 0 0 0
-0.428 0.165 0.829 255 255 255
0.034 -0.504 0.874 0 0 0
-0.14 0.363 0.823 0 0 0
0.134 0.227 0.648 255 255 255
0.204 -0.073 0.658 255 255 255
0.08 0.162 0.697 0 0 0
0.249 -0.01 0.613 255 255 255
0.236 0.008 0.618 255 255 255
0.177 -0.509 0.769 255 255 255
-0.512 -0.119 0.776 255 255 255
0.088 0.357 0.653 255 255 255
0.226 0.08 0.609 0 0 0
-0.149 0.372 0.828 0 0 0
0.187 -0.17 0.69 255 255 255
-0.081 0.255 0.802 255 255 255
0.174 -0.114 0.687 255 255 255
0.222 0.024 0.625 0 0 0
0.098 0.134 0.69 255 255 255
0.191 0.07 0.637 255 255 255
0.142 0.162 0.651 255 255 255
0.232 -0.271 0.68 255 255 255
0.172 -0.179 0.705 255 255 255
0.078 -0.462 0.833 255 255 255
-0.395 0.126 0.884 255 255 255
-0.486 -0.381 0.897 255 255 255
0.201 0.152 0.61 255 255 255
0.057 -0.463 0.849 255 255 255
0.072 -0.314 0.806 0 0 0
-0.34 -0.316 1.075 255 255 255
-0.417 -0.285 0.966 255 255 255
-0.035 0.155 0.786 255 255 255
0.131 0.129 0.666 255 255 255
0.113 0.336 0.64 255 255 255
0.19 -0.181 0.692 255 255 255
-0.071 -0.203 0.891 0 0 0
-0.39 -0.047 0.938 255 255 255
0.372 -0.196 0.562 255 255 255
0.366 -0.146 0.554 255 255 255
-0.311 0.43 0.899 255 255 255
0.148 -0.116 0.708 255 255 255
0.112 -0.097 0.731 255 255 255
-0.375 0.25 0.87 255 255 255
-0.533 -0.255 0.79 255 255 255
0.227 -0.116 0.651 255 255 255
-0.426 0.193 0.824 255 255 255
0.163 0.138 0.638 255 255 255
-0.338 0.406 0.878 255 255 255
-0.195 0.352 0.866 255 255 255
-0.077 0.103 0.83 0 0 0
0.237 0.109 0.595 255 255 255
-0.337 0.47 0.865 255 255 255
-0.277 0.423 0.905 255 255 255
-0.044 0.086 0.81 255 255 255
-0.501 -0.032 0.768 255 255 255
-0.029 0.05 0.804 255 255 255
0.146 -0.226 0.733 255 255 255
-0.322 -0.004 1.005 255 255 255
0.042 -0.26 0.818 0 0 0
0.146 -0.196 0.726 255 255 255
-0.401 -0.302 0.993 255 255 255
-0.07 0.056 0.838 0 0 0
-0.061 -0.34 0.91 0 0 0
-0.435 -0.022 0.865 255 255 255
0.053 -0.064 0.768 0 0 0
-0.057 0.007 0.836 0 0 0
-0.117 0.087 0.868 255 255 255
0.048 0.269 0.7 0 0 0
0.211 -0.107 0.659 0 0 0
-0.513 -0.221 0.803 255 255 255
-0.403 0.135 0.873 255 255 255
-0.446 -0.135 0.881 255 255 255
-0.062 -0.256 0.896 0 0 0
0.308 -0.217 0.613 255 255 255
0.362 -0.251 0.579 255 255 255
0.146 -0.254 0.739 255 255 255
-0.249 0.35 0.906 255 255 255
-0.048 0.221 0.782 255 255 255
0.224 0.302 0.569 255 255 255
0.076 0.21 0.688 255 255 255
-0.461 0.166 0.791 255 255 255
0.169 0.302 0.604 255 255 255
0.07 0.182 0.698 0 0 0
0.027 0.146 0.738 255 255 255
0.347 -0.139 0.569 255 255 255
0.153 0.011 0.672 255 255 255
-0.004 -0.291 0.858 255 255 255
-0.34 0.261 0.914 255 255 255
0.299 -0.328 0.641 255 255 255
-0.068 -0.493 0.949 0 0 0
0.205 -0.071 0.657 255 255 255
-0.311 0.09 0.989 255 255 255
-0.117 -0.163 0.918 255 255 255
0.079 -0.33 0.803 255 255 255
0.072 0.307 0.675 0 0 0
0.359 -0.076 0.543 255 255 255
0.055 0.343 0.681 255 255 255
0.134 0.184 0.649 255 255 255
0.064 -0.024 0.75 255 255 255
-0.181 -0.134 0.963 255 255 255
-0.226 -0.291 1.027 255 255 255
-0.097 0.275 0.809 255 255 255
0.333 -0.106 0.57 255 255 255
0.153 -0.436 0.772 255 255 255
0.302 -0.053 0.582 255 255 255
-0.339 0.047 0.975 255 255 255
0.055 -0.352 0.825 255 255 255
0.031 -0.03 0.772 255 255 255
0.217 -0.101 0.654 255 255 255
-0.453 -0.369 0.937 255 255 255
-0.036 0.007 0.819 255 255 255
0.276 -0.158 0.623 255 255 255
-0.231 -0.027 0.976 255 255 255
0.248 -0.045 0.614 255 255 255
-0.279 0.233 0.949 255 255 255
0.156 -0.4 0.761 255 255 255
-0.297 0.267 0.948 255 255 255
-0.355 0.248 0.899 255 255 255
-0.463 0.05 0.801 255 255 255
0.253 0.037 0.601 0 0 0
0.058 -0.331 0.82 0 0 0
-0.238 -0.581 1.096 255 255 255
0.185 -0.012 0.658 255 255 255
0.206 -0.13 0.667 0 0 0
0.12 0.13 0.674 255 255 255
0.025 -0.042 0.783 255 255 255
0.007 0.36 0.713 255 255 255
-0.269 -0.206 1.037 255 255 255
-0.227 -0.301 1.031 255 255 255
-0.345 0.322 0.751 255 255 255
0.255 -0.345 0.679 255 255 255
0.302 -0.249 0.624 255 255 255
-0.246 0.071 0.967 255 255 255
-0.197 -0.363 1.023 255 255 255
-0.475 0.007 0.796 255 255 255
0.257 0.093 0.584 0 0 0
-0.435 -0.089 0.885 255 255 255
0.018 0.248 0.727 0 0 0
0.222 -0.404 0.713 255 255 255
0.147 0.25 0.632 255 255 255
-0.441 -0.775 1.067 0 0 0
-0.084 -0.57 0.978 0 0 0
0.022 0.357 0.702 255 255 255
0.208 0.096 0.618 255 255 255
0.165 0.15 0.634 255 255 255
-0.414 -0.71 1.09 255 255 255
0.107 -0.139 0.743 255 255 255
-0.499 -0.207 0.823 255 255 255
-0.218 0.273 0.903 255 255 255
0.247 -0.308 0.673 255 255 255
0.346 0.052 0.529 255 255 255
-0.174 -0.504 1.032 255 255 255
-0.261 -0.356 1.064 255 255 255
0.007 -0.444 0.882 255 255 255
-0.106 0.395 0.789 255 255 255
0.142 0.049 0.675 255 255 255
-0.416 -0.19 0.939 255 255 255
0.161 0.082 0.654 255 255 255
-0.462 -0.223 0.883 255 255 255
0.039 0.029 0.757 255 255 255
-0.076 -0.112 0.876 0 0 0
0.295 -0.33 0.646 255 255 255
-0.14 0.358 0.825 255 255 255
-0.42 -0.16 0.926 255 255 255
-0.517 -0.124 0.772 255 255 255
0.07 0.359 0.668 255 255 255
0.035 -0.032 0.769 255 255 255
0.329 -0.19 0.59 255 255 255
-0.002 0.198 0.753 255 255 255
-0.128 -0.167 0.929 255 255 255
0.214 0.052 0.625 0 0 0
0.308 -0.318 0.633 255 255 255
-0.238 -0.056 0.987 255 255 255
-0.063 0.107 0.819 0 0 0
-0.038 -0.371 0.899 255 255 255
-0.418 -0.278 0.963 255 255 255
0.001 -0.022 0.796 255 255 255
-0.045 0.318 0.76 255 255 255
-0.105 -0.607 1.003 255 255 255
-0.049 0.04 0.823 255 255 255
0.1 -0.642 0.855 0 0 0
-0.501 -0.386 0.873 255 255 255
0.153 0.074 0.661 255 255 255
-0.049 0.397 0.747 255 255 255
0.034 -0.61 0.896 255 255 255
0.243 -0.349 0.687 255 255 255
0.322 -0.103 0.577 255 255 255
0.009 0.149 0.755 255 255 255
0.014 0.36 0.709 255 255 255
-0.213 -0.233 1.006 255 255 255
-0.439 -0.067 0.872 255 255 255
-0.313 0.301 0.931 255 255 255
0.133 0.265 0.64 255 255 255
0.051 -0.376 0.834 255 255 255
-0.39 0.039 0.913 255 255 255
-0.438 -0.035 0.863 255 255 255
-0.271 0.318 0.927 255 255 255
-0.209 -0.837 1.127 0 0 0
-0.512 -0.084 0.764 255 255 255
-0.114 0.304 0.816 255 255 255
-0.507 -0.563 0.923 255 255 255
-0.468 0.132 0.788 255 255 255
-0.026 -0.161 0.847 255 255 255
-0.076 0.342 0.777 0 0 0
0.182 0.208 0.609 255 255 255
0.241 0.109 0.592 255 255 255
-0.008 -0.098 0.82 255 255 255
-0.45 -0.581 1.002 255 255 255
0.131 -0.064 0.707 255 255 255
0.226 -0.397 0.709 255 255 255
0.28 0.168 0.55 255 255 255
0.267 0.178 0.553 255 255 255
0.077 -0.274 0.793 255 255 255
-0.144 -0.153 0.938 255 255 255
-0.289 -0.29 1.066 255 255 255
0.151 -0.004 0.679 255 255 255
0.133 -0.062 0.703 255 255 255
0.004 0.083 0.772 255 255 255
0.371 -0.035 0.528 255 255 255
-0.462 -0.496 0.96 255 255 255
-0.107 0.167 0.839 255 255 255
-0.222 0.196 0.924 255 255 255
-0.361 0.329 0.864 255 255 255
-0.293 0.074 0.992 255 255 255
0.308 -0.05 0.577 255 255 255
0.129 0.242 0.649 255 255 255
-0.36 -0.063 0.98 255 255 255
0.219 -0.444 0.725 255 255 255
-0.098 -0.757 1.027 0 0 0
0.144 0.229 0.637 255 255 255
-0.078 0.358 0.774 0 0 0
0.241 0.143 0.587 255 255 255
0.194 0.055 0.636 255 255 255
0.132 0.212 0.653 255 255 255
-0.441 0.024 0.843 255 255 255
-0.39 -0.135 0.964 255 255 255
-0.247 0.152 0.949 255 255 255
0.062 0.141 0.714 0 0 0
0.191 -0.192 0.694 255 255 255
0.036 -0.009 0.766 0 0 0
0.088 -0.242 0.78 255 255 255
-0.084 -0.261 0.912 0 0 0
0.356 -0.274 0.586 255 255 255
0.297 -0.002 0.578 255 255 255
-0.46 -0.774 1.041 0 0 0
-0.447 -0.103 0.873 255 255 255
-0.37 0.314 0.864 255 255 255
-0.524 -0.207 0.786 255 255 255
0.282 -0.312 0.651 255 255 255
0.173 0.008 0.662 255 255 255
-0.358 -0.042 0.975 255 255 255
-0.153 0.38 0.828 0 0 0
-0.343 0.246 0.918 255 255 255
0.041 -0.617 0.895 255 255 255
-0.028 -0.232 0.864 255 255 255
0.097 -0.057 0.734 255 255 255
0.214 -0.157 0.669 255 255 255
0.235 -0.044 0.631 255 255 255
-0.435 -0.109 0.892 255 255 255
0.027 0.292 0.713 255 255 255
-0.373 0.19 0.894 255 255 255
-0.014 -0.207 0.847 255 255 255
-0.469 0.027 0.8 255 255 255
-0.111 0.296 0.816 255 255 255
-0.547 -0.138 0.728 255 255 255
-0.496 0.012 0.764 255 255 255
-0.05 -0.448 0.925 255 255 255
-0.098 -0.152 0.902 255 255 255
0.127 -0.086 0.716 255 255 255
-0.377 0.148 0.904 255 255 255
0.118 -0.11 0.729 255 255 255
-0.457 -0.2 0.882 255 255 255
-0.151 0.359 0.832 255 255 255
-0.248 0.018 0.978 255 255 255
-0.196 -0.175 0.981 255 255 255
0.375 -0.037 0.527 255 255 255
0.217 -0.53 0.742 255 255 255
0.048 0.158 0.721 255 255 255
-0.065 -0.206 0.887 0 0 0
-0.005 -0.187 0.837 255 255 255
-0.34 -0.217 1.047 255 255 255
-0.447 -0.157 0.885 255 255 255
0.338 -0.073 0.559 255 255 255
-0.057 0.11 0.815 0 0 0
-0.114 -0.553 0.997 255 255 255
0.189 -0.432 0.744 255 255 255
-0.15 0.244 0.858 255 255 255
-0.186 -0.003 0.94 255 255 255
-0.118 0.041 0.877 255 255 255
0.217 -0.325 0.701 255 255 255
-0.015 -0.068 0.819 255 255 255
-0.118 0.039 0.877 255 255 255
-0.394 -0.112 0.95 255 255 255
-0.003 -0.084 0.814 255 255 255
-0.423 0.175 0.834 255 255 255
0.035 -0.129 0.794 0 0 0
0.304 0.015 0.566 255 255 255
0.212 -0.006 0.639 0 0 0
-0.088 -0.355 0.936 255 255 255
-0.135 -0.058 0.911 255 255 255
0.076 -0.105 0.759 0 0 0
-0.235 0.339 0.898 255 255 255
-0.279 0.472 0.897 255 255 255
-0.072 -0.371 0.925 0 0 0
-0.065 0.208 0.797 0 0 0
0.228 -0.177 0.664 255 255 255
0.292 -0.257 0.633 255 255 255
-0.405 0.088 0.88 255 255 255
0.077 -0.268 0.792 255 255 255
-0.08 0.41 0.769 255 255 255
0.293 -0.298 0.64 255 255 255
0.144 -0.533 0.799 255 255 255
-0.239 -0.072 0.99 255 255 255
0.131 -0.539 0.81 255 255 255
0.21 0.115 0.614 255 255 255
-0.069 -0.066 0.859 0 0 0
-0.418 -0.752 1.094 255 255 255
0.168 0.312 0.602 255 255 255
-0.369 -0.721 1.152 255 255 255
0.201 0.149 0.612 255 255 255
0.263 -0.439 0.692 255 255 255
-0.488 -0.04 0.789 255 255 255
-0.377 -0.859 1.181 0 0 0
-0.359 0.067 0.947 255 255 255
-0.072 0.411 0.764 255 255 255
-0.484 0.071 0.773 255 255 255
0.175 0.062 0.647 255 255 255
-0.422 -0.078 0.9 255 255 255
0.161 0.026 0.667 255 255 255
0.215 0.219 0.589 0 0 0
0.352 -0.178 0.573 255 255 255
-0.174 0.347 0.852 255 255 255
-0.019 0.312 0.741 255 255 255
-0.485 -0.543 0.938 255 255 255
-0.252 0.158 0.952 255 255 255
0.08 -0.222 0.782 255 255 255
0.251 -0.557 0.724 255 255 255
0.345 -0.087 0.557 255 255 255
-0.098 -0.258 0.923 255 255 255
-0.465 -0.387 0.926 255 255 255
-0.214 0.324 0.888 255 255 255
0.282 -0.302 0.65 255 255 255
0.354 0.009 0.532 0 0 0
-0.191 0.139 0.913 255 255 255
-0.147 -0.441 0.999 255 255 255
0.162 0.101 0.65 255 255 255
0.115 -0.455 0.803 255 255 255
0.329 -0.211 0.597 255 255 255
0.165 0.147 0.635 255 255 255
-0.364 -0.542 1.109 255 255 255
-0.208 -0.666 1.091 255 255 255
0.252 0.049 0.599 255 255 255
0.263 -0.561 0.714 255 255 255
-0.238 0.223 0.929 255 255 255
0.317 -0.228 0.61 255 255 255
0.222 0.271 0.573 0 0 0
-0.415 0.153 0.85 255 255 255
-0.202 0.15 0.919 255 255 255
-0.133 -0.736 1.049 255 255 255
-0.068 -0.052 0.855 0 0 0
-0.444 -0.176 0.894 255 255 255
0.246 0.129 0.586 255 255 255
0.143 -0.127 0.713 255 255 255
0.246 0.19 0.575 255 255 255
0.13 -0.052 0.705 255 255 255
-0.161 -0.405 1.003 255 255 255
-0.23 -0.608 1.095 255 255 255
0.04 -0.26 0.819 0 0 0
0.377 -0.135 0.545 255 255 255
-0.047 -0.66 0.97 255 255 255
-0.401 0.118 0.879 255 255 255
0.258 0.094 0.581 0 0 0
-0.385 -0.269 1.006 255 255 255
-0.431 0.139 0.829 255 255 255
-0.206 0.417 0.861 255 255 255
-0.208 -0.034 0.961 255 255 255
-0.008 0.142 0.769 255 255 255
-0.225 -0.037 0.973 255 255 255
0.059 0.149 0.714 0 0 0
-0.024 0.114 0.787 255 255 255
-0.355 0.175 0.921 255 255 255
0.326 -0.296 0.617 255 255 255
-0.093 -0.036 0.873 255 255 255
0.244 0.057 0.602 255 255 255
0.143 0.041 0.676 255 255 255
-0.237 0.175 0.937 255 255 255
-0.091 0.141 0.834 255 255 255
0.221 -0.006 0.634 255 255 255
-0.399 -0.306 0.998 255 255 255
-0.052 0.005 0.832 255 255 255
-0.43 -0.062 0.885 255 255 255
-0.455 -0.755 1.043 0 0 0
-0.287 -0.536 1.118 255 255 255
-0.05 0.112 0.809 255 255 255
0.292 -0.431 0.668 255 255 255
-0.094 0.175 0.829 255 255 255
-0.481 -0.232 0.856 255 255 255
0.042 -0.36 0.839 0 0 0
-0.463 -0.023 0.821 255 255 255
0 0.218 0.747 255 255 255
0.348 0.036 0.531 255 255 255
-0.048 0.192 0.789 255 255 255
0.24 0.253 0.566 0 0 0
0.213 -0.226 0.685 255 255 255
0.367 -0.191 0.563 255 255 255
0.169 0.139 0.632 255 255 255
0.203 0.291 0.583 255 255 255
0.026 0.061 0.761 0 0 0
0.068 0.238 0.683 255 255 255
0.203 -0.139 0.672 255 255 255
0.158 0.288 0.615 0 0 0
0.358 -0.241 0.58 255 255 255
0.206 -0.336 0.711 0 0 0
0.164 -0.098 0.691 255 255 255
0.31 0.034 0.557 255 255 255
-0.387 -0.123 0.964 255 255 255
0.069 0.146 0.709 0 0 0
-0.465 -0.01 0.817 255 255 255
-0.433 0.225 0.812 255 255 255
0.103 0.289 0.657 255 255 255
-0.368 -0.569 1.112 255 255 255
0.226 0.29 0.569 255 255 255
0.193 -0.226 0.7 255 255 255
0.261 -0.3 0.664 255 255 255
-0.359 0.311 0.878 255 255 255
0.133 0.083 0.68 0 0 0
-0.062 -0.238 0.893 0 0 0
-0.248 -0.446 1.075 255 255 255
0.116 0.236 0.656 255 255 255
-0.518 -0.193 0.793 255 255 255
0.112 0.267 0.654 255 255 255
0.199 -0.302 0.711 255 255 255
0.104 0.232 0.666 0 0 0
-0.128 -0.703 1.038 255 255 255
0.218 -0.008 0.637 255 255 255
-0.228 0.325 0.899 255 255 255
0.191 0.177 0.613 255 255 255
-0.451 -0.267 0.909 255 255 255
-0.229 0.406 0.881 255 255 255
0.35 -0.16 0.571 255 255 255
-0.524 0.019 0.724 255 255 255
-0.401 0.205 0.854 255 255 255
-0.384 -0.352 1.032 255 255 255
0.174 0.148 0.637 255 255 255
0.24 0.15 0.586 255 255 255
0.34 -0.235 0.593 255 255 255
-0.041 0.261 0.77 255 255 255
0.2 -0.081 0.662 255 255 255
-0.089 -0.043 0.871 255 255 255
-0.122 0.341 0.814 255 255 255
0.134 0.342 0.622 255 255 255
0.31 -0.334 0.634 255 255 255
0.122 0.14 0.672 255 255 255
-0.027 0.047 0.804 255 255 255
-0.074 -0.046 0.861 0 0 0
-0.328 0 0.997 255 255 255
-0.031 -0.258 0.872 255 255 255
0.377 -0.036 0.525 255 255 255
0.292 -0.076 0.591 0 0 0
-0.135 0.38 0.817 255 255 255
-0.12 0.337 0.814 255 255 255
0.247 -0.553 0.726 0 0 0
-0.327 -0.575 1.145 255 255 255
-0.144 -0.07 0.92 255 255 255
0.143 0.301 0.623 0 0 0
-0.479 -0.824 1.024 255 255 255
0.269 -0.096 0.612 255 255 255
0.211 -0.105 0.659 0 0 0
0.045 0.189 0.713 255 255 255
0.181 -0.104 0.682 255 255 255
0.239 -0.087 0.635 255 255 255
0.278 -0.463 0.685 255 255 255
0.251 -0.193 0.65 255 255 255
0.248 -0.342 0.681 255 255 255
-0.379 0.155 0.899 255 255 255
0.226 -0.346 0.698 255 255 255
-0.072 0.333 0.777 255 255 255
-0.132 0.347 0.822 255 255 255
0.214 0.118 0.61 255 255 255
0.044 0.322 0.695 0 0 0
-0.364 0.01 0.955 255 255 255
0.107 0.182 0.677 0 0 0
0.363 -0.123 0.553 255 255 255
0.168 -0.184 0.708 255 255 255
0.156 -0.109 0.699 255 255 255
-0.138 -0.491 1.002 255 255 255
0.269 0.039 0.587 0 0 0
0.072 0.23 0.685 255 255 255
0.108 -0.487 0.814 255 255 255
0.2 -0.309 0.71 0 0 0
-0.368 -0.365 1.054 255 255 255
-0.351 0.266 0.9 255 255 255
-0.473 0.039 0.789 255 255 255
-0.215 -0.595 1.084 255 255 255
-0.382 -0.798 1.159 255 255 255
0.07 -0.477 0.841 255 255 255
-0.071 0.192 0.808 0 0 0
-0.162 -0.479 1.017 255 255 255
-0.383 0.316 0.848 255 255 255
-0.207 0.147 0.922 255 255 255
0.33 0.005 0.549 255 255 255
0.12 -0.133 0.732 255 255 255
0.253 -0.219 0.653 255 255 255
0.236 -0.283 0.679 255 255 255
0.361 -0.002 0.53 255 255 255
-0.358 -0.261 1.037 255 255 255
-0.172 -0.045 0.938 255 255 255
-0.484 -0.329 0.878 255 255 255
0.27 -0.04 0.602 255 255 255
0.338 -0.132 0.573 255 255 255
0.196 0.307 0.584 255 255 255
0.14 -0.035 0.697 0 0 0
-0.111 -0.117 0.903 255 255 255
-0.116 0.436 0.792 255 255 255
0.206 0.2 0.591 255 255 255
-0.352 -0.363 1.074 255 255 255
0.073 0.133 0.71 0 0 0
0.166 -0.493 0.773 255 255 255
0.043 -0.167 0.796 0 0 0
0.032 0.151 0.733 0 0 0
-0.377 -0.109 0.973 255 255 255
0.364 -0.127 0.552 255 255 255
-0.389 0.264 0.854 255 255 255
0.332 -0.135 0.578 255 255 255
0.141 -0.214 0.735 255 255 255
0.131 0.099 0.674 0 0 0
-0.408 -0.704 1.098 255 255 255
-0.462 0.034 0.807 255 255 255
0.072 -0.617 0.871 255 255 255
0.366 -0.068 0.539 255 255 255
0.035 -0.649 0.905 255 255 255
0.014 -0.547 0.898 255 255 255
0.058 -0.431 0.842 255 255 255
-0.168 -0.588 1.046 255 255 255
-0.002 -0.432 0.887 255 255 255
-0.376 0.014 0.937 255 255 255
0.285 0.049 0.57 0 0 0
0.27 -0.295 0.656 255 255 255
-0.349 -0.916 1.226 255 255 255
-0.546 -0.157 0.737 255 255 255
-0.415 -0.081 0.912 255 255 255
0.191 -0.139 0.681 255 255 255
-0.508 0.033 0.748 255 255 255
0.18 -0.384 0.741 255 255 255
-0.111 -0.717 1.027 255 255 255
-0.388 -0.23 0.99 255 255 255
0.13 -0.137 0.726 255 255 255
-0.072 -0.194 0.89 0 0 0
0.218 0.259 0.579 0 0 0
0.16 -0.282 0.735 255 255 255
0.254 0.192 0.57 0 0 0
0.138 -0.089 0.71 255 255 255
0.19 0.141 0.622 255 255 255
0.185 -0.214 0.703 255 255 255
-0.109 0.334 0.804 255 255 255
0.334 -0.311 0.612 255 255 255
-0.362 -0.135 0.999 255 255 255
-0.327 -0.248 1.067 255 255 255
-0.213 -0.66 1.096 255 255 255
-0.066 -0.035 0.851 0 0 0
-0.414 -0.669 1.079 255 255 255
0.248 0.209 0.57 255 255 255
-0.333 -0.36 1.092 255 255 255
0.035 0.293 0.708 255 255 255
-0.45 -0.059 0.855 255 255 255
0.059 0.216 0.697 0 0 0
0.205 0.305 0.578 255 255 255
-0.279 0.134 0.971 255 255 255
-0.463 -0.301 0.899 255 255 255
0.046 0.153 0.722 255 255 255
-0.5 0.004 0.757 255 255 255
-0.085 0.221 0.811 255 255 255
0.13 0.131 0.667 255 255 255
0.003 -0.129 0.817 255 255 255
0.247 -0.23 0.661 255 255 255
0.107 0.113 0.69 255 255 255
-0.027 0.314 0.746 255 255 255
-0.022 -0.47 0.91 255 255 255
0.214 -0.082 0.655 255 255 255
0.058 -0.254 0.804 0 0 0
-0.354 -0.914 1.222 255 255 255
0.266 -0.516 0.705 0 0 0
-0.296 -0.517 1.118 255 255 255
0.037 -0.062 0.779 0 0 0
-0.349 -0.486 1.11 255 255 255
-0.358 0.251 0.894 255 255 255
0.268 0.04 0.588 0 0 0
-0.184 -0.703 1.079 255 255 255
0.007 0.154 0.755 255 255 255
-0.234 -0.595 1.097 255 255 255
0.366 0.024 0.521 255 255 255
-0.238 -0.306 1.039 255 255 255
0.258 -0.334 0.673 255 255 255
0.077 0.219 0.685 255 255 255
-0.339 -0.274 1.065 255 255 255
-0.324 -0.713 1.174 255 255 255
0.259 -0.261 0.657 255 255 255
0.343 -0.041 0.551 0 0 0
0.075 0.215 0.687 255 255 255
0.143 -0.093 0.706 255 255 255
-0.039 -0.631 0.956 255 255 255
-0.305 -0.648 1.152 255 255 255
0.132 -0.43 0.785 255 255 255
-0.221 0.287 0.901 255 255 255
0.311 0.123 0.542 255 255 255
-0.518 -0.295 0.822 255 255 255
0.102 -0.066 0.731 255 255 255
0.151 0.269 0.624 255 255 255
-0.462 -0.101 0.846 255 255 255
-0.41 -0.034 0.904 255 255 255
-0.426 -0.037 0.883 255 255 255
0.168 0.16 0.632 255 255 255
0.189 0.3 0.59 255 255 255
0.283 0.081 0.566 255 255 255
-0.055 0.151 0.804 0 0 0
-0.347 0.103 0.953 255 255 255
-0.171 0.137 0.898 255 255 255
0.298 -0.441 0.666 255 255 255
0.315 -0.203 0.605 255 255 255
-0.277 -0.099 1.019 255 255 255
-0.094 0.294 0.802 255 255 255
-0.068 -0.305 0.909 0 0 0
-0.473 -0.485 0.942 255 255 255
-0.206 0.154 0.92 255 255 255
-0.367 -0.279 1.032 255 255 255
0.303 -0.141 0.599 255 255 255
0.078 -0.173 0.772 255 255 255
0.372 -0.078 0.535 255 255 255
-0.316 0.182 0.962 255 255 255
-0.215 -0.066 0.974 255 255 255
0.114 0.231 0.659 0 0 0
-0.13 0.207 0.851 255 255 255
-0.149 -0.342 0.98 255 255 255
-0.052 0.214 0.787 0 0 0
0.174 -0.045 0.668 255 255 255
0.088 0.071 0.71 255 255 255
0.235 -0.117 0.645 255 255 255
-0.127 0.385 0.808 255 255 255
0.116 -0.096 0.728 255 255 255
-0.259 0.238 0.938 255 255 255
0.3 -0.013 0.577 255 255 255
0.15 -0.079 0.698 255 255 255
-0.002 -0.198 0.837 255 255 255
-0.436 0.178 0.817 255 255 255
-0.076 0.014 0.849 0 0 0
-0.082 -0.74 1.013 0 0 0
-0.197 0.098 0.927 255 255 255
-0.241 -0.259 1.031 255 255 255
0.044 0.353 0.688 255 255 255
-0.154 -0.169 0.95 255 255 255
0.21 0.069 0.623 255 255 255
-0.205 -0.094 0.973 255 255 255
0.062 -0.196 0.787 0 0 0
0.107 -0.469 0.812 255 255 255
