ply
format ascii 1.0
comment Created by Open3D
element vertex 1606
property double x
property double y
property double z
property uchar red
property uchar green
property uchar blue
end_header
0.071 -0.498 0.843 255 255 255
0.281 -0.088 0.626 255 255 255
0.272 -0.582 0.758 255 255 255
0.36 -0.115 0.592 255 255 255
-0.073 -0.411 0.896 255 255 255
0.249 0.022 0.617 0 0 0
0.123 -0.005 0.684 255 255 255
0.096 -0.501 0.83 255 255 255
-0.257 -0.679 1.066 255 255 255
0.255 -0.453 0.733 255 255 255
0.151 0.099 0.647 0 0 0
0.166 0.194 0.615 255 255 255
0.271 -0.335 0.696 255 255 255
-0.026 -0.371 0.86 255 255 255
-0.108 -0.499 0.939 255 255 255
-0.44 0.143 0.953 255 255 255
-0.373 0.094 0.932 255 255 255
0.248 -0.558 0.764 0 0 0
-0.184 -0.036 0.86 255 255 255
0.2 -0.414 0.753 255 255 255
-0.428 -0.279 1.055 255 255 255
-0.454 0.325 0.907 255 255 255
0.11 -0.248 0.76 255 255 255
0.392 -0.243 0.606 255 255 255
-0.273 -0.007 0.902 255 255 255
-0.559 -0.078 0.909 255 255 255
-0.333 -0.753 1.125 255 255 255
0.141 -0.133 0.713 255 255 255
0.054 -0.341 0.812 255 255 255
-0.566 -0.34 0.985 255 255 255
0.369 -0.059 0.572 0 0 0
0.379 -0.089 0.574 255 255 255
0.134 0.021 0.673 255 255 255
0.102 -0.029 0.707 255 255 255
0.163 -0.431 0.777 255 255 255
0.11 -0.321 0.777 255 255 255
0.242 0.189 0.574 255 255 255
-0.302 -0.218 0.972 255 255 255
0.21 0.265 0.575 0 0 0
0.231 0.113 0.601 255 255 255
-0.161 -0.286 0.912 255 255 255
-0.344 -0.517 1.071 255 255 255
-0.579 -0.322 0.958 255 255 255
0.141 -0.2 0.73 255 255 255
0.279 -0.022 0.612 0 0 0
0.152 -0.453 0.788 255 255 255
0.114 -0.275 0.764 255 255 255
0.039 0.243 0.668 0 0 0
-0.069 0.223 0.729 0 0 0
-0.344 0.094 0.916 255 255 255
0.19 0.056 0.637 255 255 255
-0.279 0.249 0.834 255 255 255
0.039 0.081 0.708 255 255 255
-0.165 0.101 0.813 255 255 255
-0.411 -0.326 1.059 255 255 255
0.215 -0.371 0.735 255 255 255
0.35 -0.01 0.572 255 255 255
-0.187 -0.73 1.04 255 255 255
0.134 -0.521 0.815 255 255 255
-0.568 0.064 0.858 255 255 255
0.329 -0.356 0.67 255 255 255
-0.397 -0.055 0.983 255 255 255
-0.081 -0.011 0.798 0 0 0
0.144 -0.257 0.743 255 255 255
-0.107 0.021 0.801 255 255 255
-0.261 0.265 0.821 255 255 255
-0.27 -0.427 1.007 255 255 255
-0.241 0.325 0.794 255 255 255
0.004 0.094 0.724 0 0 0
0.157 0.043 0.658 255 255 255
0.124 0.106 0.66 255 255 255
0.027 0.314 0.659 0 0 0
0.139 -0.073 0.698 255 255 255
-0.031 0.008 0.767 255 255 255
-0.017 -0.374 0.858 255 255 255
0.302 -0.196 0.644 255 255 255
-0.557 -0.944 1.199 255 255 255
0.285 -0.569 0.747 0 0 0
0.017 -0.688 0.921 0 0 0
-0.065 0.117 0.754 0 0 0
-0.16 -0.067 0.855 255 255 255
0.149 0.06 0.658 0 0 0
-0.311 0.122 0.889 255 255 255
-0.614 -0.261 0.876 255 255 255
0.036 -0.333 0.82 255 255 255
-0.016 0.278 0.691 255 255 255
-0.125 0.079 0.798 0 0 0
-0.377 -0.291 1.033 255 255 255
0.221 0.285 0.565 255 255 255
-0.292 -0.028 0.917 255 255 255
0.116 -0.534 0.829 255 255 255
0.294 -0.289 0.672 255 255 255
0.145 0.065 0.657 255 255 255
-0.293 0.194 0.858 255 255 255
0.314 -0.156 0.628 255 255 255
0.263 0.172 0.57 255 255 255
-0.34 -0.143 0.974 255 255 255
-0.545 -0.065 0.929 255 255 255
-0.019 0.333 0.678 0 0 0
0.309 -0.095 0.613 255 255 255
0.036 -0.079 0.753 255 255 255
0.233 -0.519 0.761 255 255 255
0.261 -0.091 0.638 255 255 255
-0.433 0.225 0.926 255 255 255
-0.061 0.082 0.761 0 0 0
-0.006 -0.357 0.846 255 255 255
-0.264 0.435 0.783 255 255 255
0.283 -0.385 0.701 255 255 255
0.237 0.031 0.62 255 255 255
-0.431 -0.226 1.044 255 255 255
-0.512 -0.029 0.974 255 255 255
-0.399 0.173 0.923 255 255 255
-0.014 0.005 0.758 255 255 255
0.086 -0.454 0.823 255 255 255
-0.444 -0.463 1.111 255 255 255
0.169 -0.287 0.739 255 255 255
-0.014 -0.459 0.879 255 255 255
-0.473 -0.522 1.136 255 255 255
-0.057 0.214 0.724 0 0 0
0.189 -0.078 0.671 255 255 255
-0.598 -0.084 0.834 255 255 255
0.386 -0.087 0.57 255 255 255
0.048 0.333 0.642 255 255 255
0.159 -0.146 0.706 255 255 255
0.267 0.023 0.606 0 0 0
0.245 -0.023 0.628 0 0 0
-0.082 0.333 0.711 0 0 0
-0.379 0.191 0.908 255 255 255
0.191 -0.388 0.751 255 255 255
-0.006 0.17 0.71 255 255 255
0.076 -0.629 0.876 255 255 255
-0.24 -0.113 0.909 0 0 0
0.28 0.146 0.568 255 255 255
0.298 -0.164 0.638 255 255 255
0.288 -0.106 0.627 255 255 255
-0.305 -0.325 1.001 255 255 255
-0.053 -0.285 0.854 0 0 0
0.036 -0.097 0.758 255 255 255
-0.014 -0.275 0.831 255 255 255
0.202 -0.293 0.721 255 255 255
-0.18 -0.069 0.865 255 255 255
0.157 0.282 0.599 255 255 255
0.303 -0.086 0.615 255 255 255
-0.226 -0.781 1.075 0 0 0
-0.167 -0.076 0.861 255 255 255
-0.427 -0.737 1.171 255 255 255
-0.304 0.343 0.823 255 255 255
0.135 0.199 0.625 255 255 255
-0.132 -0.519 0.956 255 255 255
-0.023 -0.567 0.911 255 255 255
-0.611 -0.137 0.83 255 255 255
-0.519 -0.391 1.087 255 255 255
-0.052 0.085 0.759 0 0 0
-0.3 0.377 0.813 255 255 255
0.156 0.184 0.621 255 255 255
-0.029 -0.479 0.892 255 255 255
-0.28 -0.024 0.909 255 255 255
0.008 -0.261 0.817 255 255 255
0.181 0.042 0.645 255 255 255
-0.417 -0.882 1.201 0 0 0
-0.398 0.225 0.909 255 255 255
-0.181 0.263 0.779 255 255 255
0.187 0.055 0.639 255 255 255
0.117 -0.026 0.698 255 255 255
-0.206 -0.223 0.919 0 0 0
0.102 0.197 0.65 0 0 0
0.277 -0.207 0.661 255 255 255
-0.096 0.057 0.789 0 0 0
0.044 -0.174 0.777 255 255 255
-0.38 -0.474 1.08 255 255 255
0.054 0.154 0.683 255 255 255
-0.021 -0.408 0.869 255 255 255
-0.082 -0.391 0.896 255 255 255
-0.493 -0.384 1.105 255 255 255
-0.201 -0.358 0.952 255 255 255
-0.134 -0.697 1.005 255 255 255
0.076 0.143 0.673 255 255 255
0.057 -0.281 0.795 255 255 255
0.202 0.167 0.603 255 255 255
-0.029 0.051 0.753 255 255 255
-0.353 -0.033 0.955 255 255 255
0.262 -0.573 0.761 0 0 0
0.326 -0.096 0.605 255 255 255
-0.597 -0.469 0.982 255 255 255
-0.048 -0.152 0.817 255 255 255
-0.028 0.168 0.722 255 255 255
0.338 -0.24 0.637 255 255 255
-0.002 -0.064 0.77 255 255 255
-0.323 0.294 0.847 255 255 255
-0.289 -0.456 1.026 255 255 255
-0.411 -0.296 1.053 255 255 255
0.264 -0.127 0.646 255 255 255
-0.505 -0.325 1.082 255 255 255
-0.566 -0.445 1.027 255 255 255
0.175 0.261 0.594 255 255 255
-0.129 0.066 0.803 255 255 255
0.354 -0.39 0.664 255 255 255
0.27 -0.446 0.724 255 255 255
-0.557 -0.011 0.889 255 255 255
0.279 -0.567 0.749 0 0 0
0.161 0.318 0.587 255 255 255
-0.27 -0.104 0.926 255 255 255
0.399 -0.212 0.596 255 255 255
0.032 -0.379 0.832 255 255 255
-0.232 -0.444 0.991 0 0 0
0.368 -0.149 0.595 255 255 255
0.236 0.062 0.611 255 255 255
0.199 0.291 0.574 255 255 255
-0.476 -0.139 1.037 255 255 255
-0.11 0.117 0.781 0 0 0
0.37 -0.248 0.621 255 255 255
-0.429 -0.567 1.13 255 255 255
-0.528 0.057 0.917 255 255 255
0.222 0.003 0.636 255 255 255
0.362 -0.083 0.582 255 255 255
-0.041 0.225 0.716 255 255 255
0.117 0.089 0.668 255 255 255
0.151 -0.199 0.725 255 255 255
-0.289 -0.105 0.935 255 255 255
0.194 -0.148 0.69 255 255 255
-0.478 -0.487 1.129 255 255 255
-0.394 0.361 0.869 255 255 255
-0.467 0.092 0.974 255 255 255
-0.381 0.269 0.886 255 255 255
-0.55 -0.389 1.032 255 255 255
-0.181 0.266 0.778 255 255 255
0.417 -0.143 0.57 255 255 255
-0.052 -0.391 0.881 255 255 255
0.33 -0.207 0.632 255 255 255
0 -0.215 0.81 0 0 0
0.054 -0.314 0.805 0 0 0
-0.353 -0.281 1.017 255 255 255
0.371 -0.18 0.602 255 255 255
-0.067 0.198 0.733 0 0 0
-0.368 0.04 0.943 255 255 255
0.221 0.268 0.57 0 0 0
-0.031 0.108 0.738 255 255 255
-0.554 -0.242 0.972 255 255 255
-0.495 -0.936 1.251 255 255 255
-0.111 0.156 0.77 0 0 0
0.147 0.186 0.625 255 255 255
0.024 -0.61 0.897 255 255 255
-0.075 0.286 0.709 255 255 255
-0.409 0.29 0.895 255 255 255
0.364 -0.265 0.626 255 255 255
-0.287 0.293 0.827 255 255 255
0.21 0.139 0.606 0 0 0
-0.081 0.13 0.76 0 0 0
0.114 -0.618 0.851 0 0 0
-0.246 0.069 0.866 255 255 255
-0.382 -0.728 1.144 255 255 255
0.249 -0.061 0.637 255 255 255
0.323 -0.365 0.675 255 255 255
0.196 0.105 0.619 255 255 255
-0.258 -0.035 0.901 255 255 255
0.314 -0.067 0.602 255 255 255
-0.128 -0.107 0.848 255 255 255
0.289 0.028 0.589 255 255 255
-0.254 0.122 0.856 255 255 255
0.327 -0.032 0.587 255 255 255
0.274 0.118 0.576 255 255 255
-0.133 0.057 0.808 255 255 255
-0.197 0.073 0.838 255 255 255
-0.122 -0.105 0.844 0 0 0
-0.241 -0.119 0.912 0 0 0
-0.121 0.007 0.814 0 0 0
0.147 0.142 0.64 255 255 255
0.046 0.124 0.694 255 255 255
-0.181 -0.416 0.955 255 255 255
0.045 0.276 0.653 255 255 255
0.225 -0.286 0.707 255 255 255
-0.28 -0.117 0.934 255 255 255
0.251 -0.244 0.683 255 255 255
-0.218 0.397 0.766 255 255 255
-0.413 -0.485 1.1 255 255 255
0.247 -0.296 0.697 255 255 255
-0.071 0.165 0.745 255 255 255
0.07 0.228 0.655 255 255 255
-0.126 0.124 0.786 255 255 255
-0.096 -0.67 0.978 255 255 255
-0.096 0.156 0.761 255 255 255
0.072 -0.052 0.726 255 255 255
-0.424 0.047 0.969 255 255 255
0.225 -0.373 0.729 255 255 255
-0.208 -0.277 0.935 0 0 0
-0.49 0.24 0.921 255 255 255
-0.134 -0.457 0.942 255 255 255
0.224 -0.01 0.638 255 255 255
0.247 -0.574 0.769 0 0 0
0.171 -0.223 0.72 255 255 255
-0.456 0.15 0.957 255 255 255
0.133 0.002 0.677 0 0 0
0.195 -0.053 0.663 255 255 255
-0.35 0.115 0.914 255 255 255
0.344 -0.154 0.61 255 255 255
-0.303 0.398 0.81 255 255 255
-0.552 -0.84 1.176 255 255 255
0.182 -0.09 0.679 255 255 255
-0.448 -0.369 1.088 255 255 255
0.161 0.296 0.593 255 255 255
0.075 0.271 0.638 255 255 255
-0.537 -0.39 1.055 255 255 255
0.015 -0.47 0.867 255 255 255
-0.457 -0.21 1.049 255 255 255
0.202 -0.286 0.721 255 255 255
0.076 -0.186 0.763 0 0 0
-0.331 -0.448 1.047 255 255 255
0.189 0.287 0.58 255 255 255
0.279 0.044 0.592 255 255 255
0.054 -0.225 0.783 255 255 255
-0.045 -0.087 0.799 255 255 255
-0.553 0.083 0.879 255 255 255
0.129 -0.262 0.754 255 255 255
0.126 -0.374 0.782 255 255 255
-0.227 0.363 0.778 0 0 0
-0.003 0.24 0.692 255 255 255
0.032 -0.216 0.794 255 255 255
-0.505 -0.027 0.984 255 255 255
0.264 -0.18 0.659 255 255 255
-0.396 0.254 0.897 255 255 255
-0.304 -0.203 0.968 255 255 255
0.321 0.071 0.564 255 255 255
-0.2 -0.353 0.95 255 255 255
0.371 -0.179 0.602 255 255 255
-0.053 -0.068 0.798 255 255 255
-0.188 -0.112 0.882 255 255 255
-0.497 -0.107 1.021 255 255 255
-0.161 -0.112 0.867 255 255 255
0.316 -0.317 0.668 255 255 255
-0.294 0.312 0.826 255 255 255
-0.408 -0.251 1.039 255 255 255
-0.305 -0.29 0.994 255 255 255
-0.023 0.048 0.75 255 255 255
0.14 0.176 0.629 0 0 0
-0.433 -0.855 1.202 255 255 255
-0.119 -0.179 0.861 0 0 0
0.112 -0.332 0.779 255 255 255
-0.571 -0.104 0.894 255 255 255
0.393 -0.134 0.577 255 255 255
0.181 0.016 0.654 255 255 255
-0.189 0.307 0.771 255 255 255
-0.083 -0.06 0.812 0 0 0
0.094 -0.316 0.786 255 255 255
0.198 0.013 0.644 255 255 255
-0.042 0.017 0.77 255 255 255
-0.049 0.175 0.732 255 255 255
-0.316 -0.229 0.982 255 255 255
-0.605 -0.015 0.815 255 255 255
0.26 0.2 0.566 255 255 255
-0.532 -0.442 1.079 255 255 255
0.182 -0.564 0.801 255 255 255
-0.174 -0.148 0.883 255 255 255
-0.313 -0.34 1.01 255 255 255
0.024 0.147 0.699 255 255 255
0.263 -0.041 0.63 255 255 255
-0.324 0.267 0.854 255 255 255
0.189 -0.505 0.782 255 255 255
-0.499 -0.656 1.179 255 255 255
0.234 -0.216 0.685 255 255 255
-0.343 0.047 0.928 255 255 255
-0.208 0.006 0.861 0 0 0
-0.239 0.397 0.777 255 255 255
-0.561 -0.317 0.989 255 255 255
0.02 0.356 0.652 255 255 255
0.198 -0.19 0.698 255 255 255
-0.011 -0.391 0.859 255 255 255
0.286 -0.575 0.748 255 255 255
-0.175 -0.716 1.03 255 255 255
0.016 -0.001 0.74 255 255 255
0.095 0.175 0.658 0 0 0
0.387 -0.141 0.583 255 255 255
0.07 0.021 0.707 0 0 0
0.016 -0.178 0.79 255 255 255
-0.285 0.077 0.887 255 255 255
0.021 -0.483 0.865 255 255 255
0.277 0.182 0.561 255 255 255
-0.441 0.271 0.917 255 255 255
-0.404 -0.035 0.983 255 255 255
0.267 0.071 0.591 255 255 255
-0.378 0.29 0.878 255 255 255
-0.017 -0.036 0.772 255 255 255
0.079 0.119 0.677 255 255 255
0.134 0.209 0.628 255 255 255
-0.301 0.296 0.834 255 255 255
-0.238 -0.743 1.071 255 255 255
-0.566 0.022 0.867 255 255 255
-0.088 -0.139 0.835 0 0 0
-0.222 -0.77 1.07 255 255 255
0.238 -0.213 0.683 255 255 255
0.183 0.2 0.605 255 255 255
-0.269 0.065 0.881 255 255 255
-0.373 -0.348 1.044 255 255 255
-0.119 -0.026 0.823 0 0 0
0.064 -0.322 0.802 255 255 255
0.137 0.251 0.615 0 0 0
-0.093 -0.222 0.858 0 0 0
0.268 -0.592 0.762 255 255 255
-0.555 -0.491 1.061 255 255 255
-0.102 0.107 0.778 0 0 0
-0.59 -0.563 1.028 255 255 255
0.019 -0.68 0.918 0 0 0
0.068 0.086 0.692 255 255 255
0.033 0.275 0.664 255 255 255
-0.03 0.099 0.739 255 255 255
0.072 0.097 0.689 255 255 255
-0.296 0.332 0.821 255 255 255
0.033 -0.006 0.733 255 255 255
0.175 0.109 0.631 255 255 255
0.057 0.002 0.722 0 0 0
-0.484 -0.13 1.035 255 255 255
0.364 -0.01 0.559 255 255 255
0.254 -0.349 0.707 255 255 255
0.318 -0.284 0.659 255 255 255
0.091 -0.319 0.788 255 255 255
-0.088 0.319 0.715 0 0 0
-0.352 0.174 0.897 255 255 255
0.277 -0.373 0.702 255 255 255
0.4 -0.208 0.596 255 255 255
-0.154 0.193 0.782 255 255 255
0.002 -0.366 0.845 255 255 255
-0.36 0.172 0.902 255 255 255
0.057 -0.024 0.73 255 255 255
0.166 0.227 0.602 255 255 255
0.274 0.17 0.566 255 255 255
-0.363 0.211 0.893 255 255 255
0.053 -0.107 0.754 255 255 255
-0.096 0.076 0.783 255 255 255
0.092 -0.557 0.848 255 255 255
0.379 -0.077 0.571 255 255 255
0.161 0.286 0.596 255 255 255
0.097 0.102 0.676 0 0 0
0.06 0.326 0.636 255 255 255
-0.465 0.241 0.933 255 255 255
0.194 0.146 0.612 255 255 255
0.094 -0.192 0.754 255 255 255
0.274 0.195 0.556 255 255 255
-0.002 -0.208 0.809 255 255 255
-0.013 -0.13 0.793 255 255 255
-0.241 0.354 0.787 0 0 0
0.028 -0.463 0.858 255 255 255
0.38 -0.269 0.619 255 255 255
0.178 -0.565 0.804 255 255 255
-0.134 -0.46 0.943 255 255 255
-0.101 -0.081 0.827 0 0 0
0.065 -0.004 0.715 255 255 255
-0.23 -0.347 0.965 0 0 0
-0.279 -0.343 0.991 255 255 255
0.174 -0.258 0.728 255 255 255
-0.09 0.275 0.717 0 0 0
0.051 0.278 0.65 255 255 255
0.393 -0.034 0.552 255 255 255
-0.086 -0.07 0.814 0 0 0
0.368 -0.175 0.604 255 255 255
-0.313 0.401 0.817 255 255 255
-0.268 0.245 0.83 255 255 255
-0.354 0.298 0.863 255 255 255
-0.323 0.094 0.903 255 255 255
0.063 0.313 0.639 0 0 0
-0.412 -0.76 1.169 255 255 255
0.028 -0.287 0.812 255 255 255
-0.288 0.368 0.809 0 0 0
0.189 -0.346 0.741 255 255 255
-0.035 0.211 0.716 255 255 255
0.193 0.286 0.578 255 255 255
0.273 0.033 0.6 255 255 255
-0.545 -0.885 1.201 255 255 255
-0.09 -0.157 0.84 0 0 0
0.372 -0.314 0.634 255 255 255
-0.547 0.099 0.884 255 255 255
-0.139 -0.121 0.858 255 255 255
0.128 0.069 0.669 255 255 255
-0.021 0.366 0.669 255 255 255
-0.368 0.1 0.929 255 255 255
-0.069 -0.225 0.846 0 0 0
0.165 -0.062 0.682 255 255 255
-0.369 -0.144 0.991 255 255 255
-0.305 -0.007 0.921 255 255 255
0.181 0.071 0.64 255 255 255
0.363 -0.217 0.616 255 255 255
0.04 0.119 0.698 255 255 255
-0.329 -0.271 1.001 255 255 255
-0.013 -0.128 0.792 255 255 255
0.369 -0.205 0.609 255 255 255
-0.602 -0.108 0.838 255 255 255
0.141 -0.449 0.793 255 255 255
-0.331 0.298 0.851 255 255 255
-0.01 0.336 0.671 255 255 255
0.243 -0.057 0.64 255 255 255
-0.512 -0.273 1.055 255 255 255
0.121 -0.009 0.692 255 255 255
0.232 0.084 0.607 255 255 255
0.121 -0.28 0.762 255 255 255
0.006 0.171 0.703 0 0 0
0.409 -0.159 0.579 255 255 255
0.156 -0.094 0.694 255 255 255
-0.489 0.022 0.988 255 255 255
0.135 -0.219 0.738 255 255 255
0.371 -0.101 0.581 255 255 255
-0.194 0.03 0.849 255 255 255
0.106 0.014 0.695 255 255 255
0.04 -0.619 0.89 255 255 255
-0.038 0.294 0.695 255 255 255
-0.475 -0.014 1.004 255 255 255
-0.111 -0.532 0.95 255 255 255
0.292 0.143 0.562 255 255 255
-0.27 0.026 0.891 255 255 255
0.025 0.134 0.702 255 255 255
-0.049 0.237 0.714 255 255 255
-0.354 -0.416 1.05 255 255 255
-0.517 -0.491 1.122 255 255 255
-0.13 0.002 0.821 255 255 255
-0.205 0.382 0.762 255 255 255
-0.266 -0.271 0.965 255 255 255
-0.51 -0.038 0.979 255 255 255
0.016 -0.354 0.836 255 255 255
0.082 -0.377 0.805 255 255 255
0.357 0.072 0.549 255 255 255
0.103 -0.069 0.716 255 255 255
0.01 0.21 0.691 0 0 0
0.302 -0.097 0.616 255 255 255
0.187 0.232 0.593 255 255 255
-0.466 -0.064 1.015 255 255 255
-0.473 -0.078 1.02 255 255 255
-0.076 -0.355 0.884 255 255 255
-0.054 0.03 0.774 255 255 255
-0.148 -0.147 0.868 255 255 255
-0.509 -0.117 1.009 255 255 255
-0.048 -0.175 0.822 255 255 255
-0.604 -0.189 0.861 255 255 255
-0.345 0.004 0.94 255 255 255
0.105 -0.162 0.74 255 255 255
0.207 0.081 0.621 255 255 255
-0.157 0.239 0.772 255 255 255
-0.034 0.288 0.695 255 255 255
-0.212 0.006 0.863 0 0 0
0.141 -0.103 0.705 255 255 255
-0.148 0.288 0.756 255 255 255
-0.106 -0.327 0.893 0 0 0
0.27 -0.106 0.637 255 255 255
0.27 0.149 0.571 255 255 255
0.377 -0.242 0.614 255 255 255
0.198 -0.058 0.663 255 255 255
0.377 -0.152 0.592 255 255 255
-0.041 0.155 0.731 255 255 255
0.06 0.01 0.715 255 255 255
-0.269 -0.123 0.928 255 255 255
-0.524 -0.488 1.112 255 255 255
-0.171 -0.424 0.952 255 255 255
-0.089 0.071 0.782 255 255 255
0.37 -0.063 0.571 0 0 0
-0.114 -0.289 0.887 0 0 0
-0.077 -0.381 0.891 255 255 255
0.257 0.056 0.603 255 255 255
-0.512 0.158 0.916 255 255 255
-0.214 0.278 0.792 0 0 0
0.147 -0.348 0.765 255 255 255
0.059 -0.264 0.791 255 255 255
0.04 0.104 0.7 255 255 255
-0.422 0.207 0.926 255 255 255
0.01 0.232 0.685 255 255 255
-0.087 0.189 0.747 0 0 0
-0.008 -0.174 0.802 255 255 255
0.333 0.094 0.554 255 255 255
0.257 0.191 0.568 0 0 0
-0.018 -0.346 0.85 255 255 255
-0.248 -0.007 0.887 255 255 255
0.254 -0.051 0.632 255 255 255
-0.47 0.084 0.976 255 255 255
-0.418 -0.493 1.105 255 255 255
0.075 0.03 0.702 0 0 0
-0.585 -0.594 1.042 255 255 255
0.074 0.114 0.682 255 255 255
0.041 0.049 0.716 255 255 255
-0.583 -0.357 0.963 255 255 255
-0.602 -0.243 0.885 255 255 255
0.221 -0.585 0.786 0 0 0
0.097 -0.132 0.737 255 255 255
0.094 -0.107 0.731 255 255 255
-0.25 -0.571 1.034 255 255 255
-0.052 0.256 0.712 255 255 255
0.205 0.243 0.581 255 255 255
-0.396 0.019 0.963 255 255 255
0.329 -0.317 0.66 255 255 255
-0.137 0.163 0.782 255 255 255
0.22 -0.073 0.654 255 255 255
-0.103 -0.042 0.819 0 0 0
-0.158 0.344 0.747 0 0 0
-0.318 -0.793 1.127 255 255 255
0.356 -0.124 0.597 255 255 255
0.062 -0.559 0.864 255 255 255
-0.413 -0.733 1.163 255 255 255
-0.124 -0.389 0.918 0 0 0
-0.049 -0.023 0.784 255 255 255
-0.143 0.229 0.768 255 255 255
-0.063 0.22 0.725 0 0 0
0.021 0.165 0.697 255 255 255
0.376 -0.102 0.579 255 255 255
0.275 -0.079 0.627 255 255 255
0.4 -0.13 0.573 255 255 255
-0.537 0.066 0.899 255 255 255
0.011 -0.455 0.864 255 255 255
0.26 -0.106 0.64 255 255 255
-0.526 -0.039 0.954 255 255 255
-0.455 -0.826 1.208 255 255 255
0.252 -0.087 0.642 255 255 255
0.063 -0.168 0.764 255 255 255
-0.196 0.253 0.788 255 255 255
0.249 0.134 0.587 255 255 255
0.194 0.255 0.582 255 255 255
0.194 0.157 0.609 0 0 0
-0.049 0.046 0.767 255 255 255
0.296 -0.167 0.64 255 255 255
-0.595 -0.019 0.833 255 255 255
0.147 -0.314 0.756 255 255 255
0.106 -0.384 0.796 255 255 255
0.253 -0.121 0.65 255 255 255
0.141 -0.388 0.778 255 255 255
0.109 0.058 0.681 255 255 255
0.011 0.337 0.66 255 255 255
0.059 0.066 0.704 255 255 255
0.075 -0.03 0.721 255 255 255
-0.2 -0.613 1.017 255 255 255
-0.249 -0.172 0.93 255 255 255
0.161 0.06 0.651 0 0 0
0.354 -0.511 0.695 0 0 0
0.154 -0.317 0.754 255 255 255
0.313 0.048 0.572 255 255 255
0.336 -0.136 0.61 255 255 255
-0.259 -0.772 1.091 255 255 255
-0.002 0.154 0.711 0 0 0
-0.112 -0.001 0.813 0 0 0
-0.546 -0.672 1.133 255 255 255
-0.566 -0.672 1.096 255 255 255
-0.513 -0.183 1.02 255 255 255
0.004 0.027 0.744 0 0 0
0.157 -0.051 0.682 255 255 255
-0.44 0.083 0.968 255 255 255
0.082 0.283 0.638 0 0 0
-0.55 -0.094 0.924 255 255 255
0.072 -0.285 0.789 255 255 255
0.235 0.058 0.613 0 0 0
-0.034 -0.139 0.806 255 255 255
0.307 -0.458 0.706 255 255 255
-0.59 -0.385 0.959 255 255 255
-0.584 -0.542 1.027 255 255 255
-0.19 -0.43 0.963 255 255 255
-0.438 -0.08 1.007 255 255 255
-0.585 -0.402 0.974 255 255 255
-0.354 0.285 0.866 255 255 255
0.262 0.199 0.565 255 255 255
0.212 -0.099 0.666 255 255 255
0.327 -0.173 0.624 255 255 255
0.137 0.214 0.617 255 255 255
-0.597 -0.44 0.971 255 255 255
0.17 0.002 0.661 255 255 255
0.162 0.304 0.588 255 255 255
-0.146 0.309 0.75 255 255 255
0.015 -0.226 0.805 255 255 255
0.054 0.29 0.651 0 0 0
-0.268 0.369 0.798 255 255 255
-0.248 0.017 0.881 255 255 255
-0.581 -0.384 0.981 255 255 255
0.223 -0.143 0.673 255 255 255
-0.1 0.067 0.788 255 255 255
-0.113 0.013 0.808 255 255 255
-0.333 -0.201 0.985 255 255 255
0.173 0.14 0.625 255 255 255
-0.304 -0.085 0.94 255 255 255
0.211 -0.367 0.735 255 255 255
-0.218 0.148 0.829 0 0 0
0.379 -0.031 0.561 0 0 0
0.131 -0.158 0.725 255 255 255
-0.29 0.039 0.898 255 255 255
0.369 -0.202 0.609 255 255 255
-0.167 0.005 0.839 255 255 255
-0.299 0.06 0.899 255 255 255
0.361 -0.44 0.672 255 255 255
-0.086 -0.102 0.824 0 0 0
0.267 -0.161 0.653 255 255 255
-0.086 -0.486 0.924 255 255 255
-0.298 0.204 0.858 255 255 255
-0.563 -0.363 0.998 255 255 255
0.187 -0.473 0.776 255 255 255
-0.535 0.074 0.903 255 255 255
-0.574 -0.77 1.111 255 255 255
-0.368 0.182 0.903 255 255 255
-0.144 0.385 0.73 255 255 255
-0.1 -0.35 0.896 0 0 0
0.335 -0.427 0.682 255 255 255
-0.031 0.371 0.678 255 255 255
-0.004 -0.386 0.853 255 255 255
-0.328 0.336 0.839 255 255 255
-0.308 0.31 0.834 255 255 255
-0.164 -0.207 0.892 255 255 255
-0.509 -0.196 1.032 255 255 255
-0.505 0.101 0.939 255 255 255
0.213 -0.566 0.785 0 0 0
-0.041 0.312 0.697 0 0 0
-0.531 -0.867 1.224 255 255 255
-0.12 0.226 0.755 0 0 0
-0.275 0.241 0.834 255 255 255
0.147 -0.184 0.723 255 255 255
-0.027 -0.108 0.795 255 255 255
-0.128 0.349 0.731 0 0 0
0.249 0.05 0.608 0 0 0
0.299 -0.032 0.604 0 0 0
0.075 -0.351 0.804 255 255 255
-0.067 0.114 0.757 0 0 0
0.02 -0.394 0.844 255 255 255
0.161 -0.331 0.753 255 255 255
-0.091 -0.463 0.921 255 255 255
-0.123 -0.185 0.864 0 0 0
-0.084 -0.238 0.859 0 0 0
-0.407 0.163 0.932 255 255 255
0.128 -0.345 0.773 255 255 255
0.233 -0.13 0.664 255 255 255
0.205 0.31 0.566 255 255 255
-0.109 0.367 0.717 255 255 255
0.235 -0.109 0.658 255 255 255
-0.138 0.327 0.741 0 0 0
-0.495 -0.24 1.063 255 255 255
-0.165 -0.022 0.845 255 255 255
-0.183 0.244 0.784 255 255 255
0.038 0.13 0.696 255 255 255
-0.608 -0.23 0.869 255 255 255
0.252 -0.412 0.725 255 255 255
-0.041 -0.456 0.891 255 255 255
0.116 -0.443 0.804 255 255 255
-0.392 -0.364 1.06 255 255 255
-0.066 0.146 0.747 0 0 0
-0.057 0.14 0.744 0 0 0
-0.472 -0.012 1.003 255 255 255
0.302 -0.195 0.644 255 255 255
0.393 -0.219 0.6 255 255 255
-0.494 -0.463 1.127 255 255 255
-0.527 -0.901 1.237 0 0 0
0.32 -0.029 0.583 255 255 255
-0.076 -0.108 0.82 0 0 0
0.144 -0.582 0.825 255 255 255
0.204 -0.251 0.71 255 255 255
-0.288 -0.314 0.989 255 255 255
-0.178 0.062 0.831 0 0 0
-0.495 0.065 0.965 255 255 255
-0.283 0.29 0.825 255 255 255
0.16 0.002 0.669 0 0 0
0.195 -0.204 0.703 255 255 255
-0.044 -0.522 0.913 255 255 255
0.32 -0.015 0.583 255 255 255
0.363 -0.386 0.657 255 255 255
-0.091 0.164 0.756 255 255 255
0.06 0.095 0.694 255 255 255
0.017 0.002 0.739 255 255 255
-0.257 0.192 0.838 255 255 255
-0.551 0.097 0.879 255 255 255
-0.531 -0.164 0.988 255 255 255
0.055 -0.103 0.751 255 255 255
-0.259 0.362 0.797 0 0 0
-0.089 -0.136 0.835 0 0 0
-0.432 -0.453 1.102 255 255 255
-0.223 -0.213 0.926 0 0 0
-0.296 -0.678 1.087 255 255 255
-0.199 0.079 0.838 255 255 255
-0.494 0.146 0.943 255 255 255
0.123 0.039 0.68 255 255 255
0.34 -0.263 0.64 255 255 255
-0.299 0.308 0.83 255 255 255
-0.277 -0.132 0.935 255 255 255
-0.145 0.131 0.795 255 255 255
0.222 -0.004 0.637 255 255 255
-0.197 -0.345 0.947 255 255 255
0.097 0.335 0.617 255 255 255
0.246 0.216 0.571 255 255 255
-0.538 -0.164 0.976 255 255 255
-0.564 -0.265 0.962 255 255 255
0.109 -0.165 0.738 255 255 255
0.278 -0.146 0.644 255 255 255
0.206 0.1 0.616 255 255 255
0.228 0.134 0.597 255 255 255
-0.432 -0.146 1.022 255 255 255
0.209 0.281 0.572 255 255 255
0.325 -0.383 0.678 255 255 255
-0.219 0.35 0.777 0 0 0
0.252 0.127 0.586 255 255 255
-0.479 0.178 0.951 255 255 255
-0.078 0.374 0.698 255 255 255
0.187 -0.099 0.68 255 255 255
-0.517 -0.616 1.162 255 255 255
0.036 0.28 0.661 255 255 255
-0.333 0.343 0.841 255 255 255
-0.181 0.242 0.784 255 255 255
-0.151 -0.265 0.901 255 255 255
-0.576 0.064 0.844 255 255 255
0.061 0.189 0.67 0 0 0
0.14 -0.534 0.816 255 255 255
0.271 -0.448 0.723 255 255 255
-0.356 -0.674 1.117 255 255 255
-0.473 0.19 0.948 255 255 255
0.048 -0.488 0.853 255 255 255
-0.199 0.305 0.778 255 255 255
0.064 0.013 0.715 255 255 255
-0.37 0.379 0.851 0 0 0
-0.22 0.117 0.84 0 0 0
-0.552 0.104 0.873 255 255 255
0.056 0.302 0.646 0 0 0
-0.521 -0.067 0.972 255 255 255
0.15 0.193 0.62 255 255 255
0.228 0.1 0.605 255 255 255
-0.295 -0.273 0.983 255 255 255
0.124 -0.242 0.749 255 255 255
0.165 0.084 0.644 255 255 255
0.204 -0.601 0.798 0 0 0
0.209 -0.257 0.709 255 255 255
0.293 0.035 0.585 255 255 255
0.21 -0.194 0.693 255 255 255
-0.241 -0.009 0.883 255 255 255
-0.295 0.142 0.875 255 255 255
-0.268 0.197 0.843 255 255 255
-0.452 0.283 0.918 255 255 255
-0.333 0.433 0.818 255 255 255
-0.201 0.182 0.811 255 255 255
0.118 0.02 0.687 255 255 255
0.069 0.074 0.696 255 255 255
0.059 -0.056 0.737 255 255 255
-0.01 0.332 0.671 255 255 255
0.065 0.259 0.647 255 255 255
-0.038 -0.074 0.792 255 255 255
0.328 -0.291 0.653 255 255 255
-0.514 -0.306 1.063 255 255 255
-0.012 0.008 0.757 255 255 255
0.13 0.145 0.648 255 255 255
-0.154 -0.329 0.919 255 255 255
0.258 -0.121 0.648 255 255 255
0.105 -0.045 0.709 255 255 255
0.067 0.177 0.671 255 255 255
0.015 0.21 0.688 0 0 0
-0.072 -0.159 0.831 0 0 0
0.157 0.231 0.603 0 0 0
-0.497 0.119 0.945 255 255 255
-0.526 0.12 0.906 255 255 255
0.299 -0.079 0.614 255 255 255
-0.574 -0.363 0.979 255 255 255
0.28 -0.095 0.628 255 255 255
-0.002 -0.165 0.795 255 255 255
-0.524 0.111 0.911 255 255 255
-0.024 -0.108 0.794 255 255 255
-0.324 -0.308 1.008 255 255 255
-0.496 0.094 0.956 255 255 255
0.104 -0.362 0.791 255 255 255
0.14 0.076 0.664 255 255 255
-0.008 -0.472 0.879 255 255 255
-0.074 -0.091 0.815 0 0 0
-0.057 0.157 0.741 255 255 255
0.095 -0.373 0.799 255 255 255
-0.35 -0.069 0.962 255 255 255
0.059 -0.644 0.886 0 0 0
-0.073 0.065 0.774 255 255 255
-0.364 0.026 0.944 255 255 255
-0.395 0.267 0.893 255 255 255
0.191 0.188 0.603 255 255 255
-0.459 -0.042 1.007 255 255 255
0.351 -0.153 0.607 255 255 255
-0.141 -0.108 0.855 255 255 255
0.078 -0.544 0.852 255 255 255
0.143 0.187 0.625 0 0 0
-0.045 0.173 0.73 255 255 255
-0.247 0.302 0.803 255 255 255
-0.249 0.291 0.807 255 255 255
0.156 0.17 0.626 255 255 255
-0.116 0.194 0.765 0 0 0
0.356 -0.173 0.609 255 255 255
0.049 0.065 0.707 255 255 255
0.131 -0.466 0.802 255 255 255
0.175 0.184 0.614 0 0 0
0.29 -0.456 0.715 255 255 255
-0.602 -0.03 0.824 255 255 255
0.141 0.07 0.66 255 255 255
0.312 -0.001 0.583 255 255 255
0.237 -0.054 0.641 255 255 255
0.201 -0.123 0.678 255 255 255
-0.042 0.17 0.73 255 255 255
0.087 -0.077 0.727 0 0 0
-0.433 -0.489 1.111 255 255 255
-0.571 -0.671 1.087 255 255 255
-0.067 -0.261 0.856 0 0 0
0.264 -0.244 0.677 255 255 255
0.177 -0.332 0.744 255 255 255
0.308 -0.11 0.617 255 255 255
-0.4 -0.642 1.134 255 255 255
0.293 -0.128 0.631 255 255 255
0.364 0.044 0.547 255 255 255
0.311 -0.269 0.658 255 255 255
-0.264 0.104 0.867 255 255 255
0.057 0.076 0.701 255 255 255
0.148 0.174 0.629 255 255 255
0.17 0.283 0.591 255 255 255
0.1 0.131 0.667 0 0 0
0.324 -0.167 0.625 255 255 255
-0.35 -0.443 1.056 255 255 255
0.372 -0.348 0.64 255 255 255
-0.507 0.146 0.925 255 255 255
-0.16 -0.525 0.974 0 0 0
-0.614 -0.049 0.808 255 255 255
0.055 -0.411 0.83 255 255 255
0.052 -0.213 0.781 255 255 255
-0.058 -0.324 0.866 255 255 255
-0.04 -0.28 0.847 255 255 255
-0.361 -0.314 1.03 255 255 255
0.102 0.208 0.648 255 255 255
-0.02 0.245 0.702 255 255 255
0.364 -0.255 0.625 255 255 255
0.271 -0.022 0.614 0 0 0
0.148 -0.06 0.69 255 255 255
0.124 -0.15 0.726 255 255 255
-0.36 -0.044 0.962 255 255 255
-0.563 -0.883 1.17 255 255 255
0.184 -0.366 0.749 255 255 255
-0.559 -0.007 0.88 255 255 255
-0.525 0.156 0.9 255 255 255
0.131 -0.002 0.677 0 0 0
0.249 0.193 0.572 255 255 255
0.197 -0.024 0.657 0 0 0
0.007 -0.079 0.769 255 255 255
-0.599 -0.439 0.969 255 255 255
-0.243 -0.451 0.999 0 0 0
-0.364 -0.325 1.035 255 255 255
-0.302 0.021 0.911 255 255 255
-0.364 -0.409 1.054 255 255 255
0.135 0.236 0.622 0 0 0
-0.491 0.141 0.95 255 255 255
-0.567 -0.262 0.958 255 255 255
0.139 0.087 0.661 255 255 255
0.039 0.297 0.657 0 0 0
-0.613 -0.139 0.829 255 255 255
-0.056 0.081 0.758 255 255 255
-0.239 0.311 0.797 255 255 255
-0.138 -0.052 0.838 255 255 255
-0.099 0.385 0.707 255 255 255
0.013 -0.5 0.875 255 255 255
-0.557 -0.403 1.025 255 255 255
-0.148 0.007 0.828 255 255 255
0.126 0.032 0.676 255 255 255
0.376 -0.12 0.585 255 255 255
0.242 0.167 0.582 255 255 255
0.194 0.161 0.608 0 0 0
-0.238 -0.138 0.914 0 0 0
0.214 -0.165 0.683 255 255 255
0.164 0.269 0.598 0 0 0
-0.372 0.347 0.86 255 255 255
0.032 -0.3 0.814 255 255 255
-0.582 -0.386 0.973 255 255 255
-0.559 -0.791 1.151 255 255 255
-0.508 0.16 0.921 255 255 255
-0.065 0.05 0.774 0 0 0
-0.524 -0.231 1.02 255 255 255
-0.161 -0.438 0.949 255 255 255
0.387 -0.099 0.571 255 255 255
-0.134 0.22 0.766 255 255 255
0.264 -0.499 0.739 255 255 255
-0.193 0.35 0.763 0 0 0
0.096 0.081 0.682 0 0 0
-0.175 -0.74 1.037 255 255 255
0.243 0.038 0.615 255 255 255
-0.211 0.352 0.773 0 0 0
0.259 -0.477 0.737 255 255 255
0.067 0.311 0.638 0 0 0
-0.116 -0.426 0.923 0 0 0
0.296 0.003 0.593 255 255 255
-0.334 0.067 0.918 255 255 255
0.247 -0.442 0.733 255 255 255
0.139 0.173 0.63 0 0 0
0.109 0.29 0.622 0 0 0
0.275 0.062 0.59 255 255 255
-0.104 0.131 0.771 255 255 255
0.266 0.213 0.558 255 255 255
-0.353 0.072 0.926 255 255 255
-0.237 -0.577 1.027 255 255 255
-0.557 -0.196 0.947 255 255 255
-0.182 -0.302 0.928 255 255 255
0.176 -0.213 0.716 255 255 255
0.313 -0.122 0.618 255 255 255
0.084 0.084 0.686 255 255 255
0.074 0.34 0.629 255 255 255
0.057 -0.315 0.804 0 0 0
-0.179 0.197 0.795 255 255 255
-0.498 -0.12 1.022 255 255 255
0.13 0.306 0.606 255 255 255
0.096 -0.272 0.772 255 255 255
-0.25 -0.771 1.086 255 255 255
0.317 -0.215 0.641 255 255 255
0.013 0.11 0.714 255 255 255
0.053 0.084 0.7 255 255 255
-0.431 0.177 0.939 255 255 255
0.168 -0.369 0.759 255 255 255
-0.104 -0.056 0.822 0 0 0
-0.594 -0.416 0.962 255 255 255
-0.04 -0.711 0.959 0 0 0
0.217 0.072 0.618 255 255 255
0.15 0.119 0.643 0 0 0
0.251 -0.51 0.749 255 255 255
0.094 0.198 0.654 255 255 255
0.167 0.023 0.659 255 255 255
0.331 0.048 0.564 255 255 255
0.053 0.057 0.707 255 255 255
0.107 -0.029 0.705 255 255 255
0.295 -0.269 0.665 255 255 255
-0.223 0.065 0.854 0 0 0
0.026 0.246 0.674 255 255 255
-0.594 -0.515 1.006 255 255 255
0.128 -0.491 0.81 255 255 255
-0.484 -0.118 1.03 255 255 255
-0.088 -0.641 0.965 255 255 255
-0.072 0.268 0.715 255 255 255
-0.014 -0.032 0.769 255 255 255
0.225 -0.018 0.641 255 255 255
0.194 -0.119 0.682 255 255 255
0.112 -0.021 0.7 255 255 255
0.054 -0.026 0.732 255 255 255
0.046 -0.138 0.764 255 255 255
0.153 0.143 0.635 255 255 255
0.181 -0.171 0.702 255 255 255
-0.026 -0.258 0.835 255 255 255
-0.099 -0.725 0.992 0 0 0
-0.231 -0.116 0.905 0 0 0
0.154 0.289 0.599 255 255 255
-0.379 -0.762 1.151 255 255 255
0.121 -0.2 0.741 255 255 255
0.16 0.297 0.594 255 255 255
0.316 -0.465 0.702 255 255 255
0.17 -0.059 0.677 255 255 255
-0.291 -0.573 1.057 255 255 255
-0.009 -0.618 0.916 255 255 255
-0.419 0.147 0.942 255 255 255
0.008 -0.592 0.901 255 255 255
-0.017 0.035 0.752 255 255 255
-0.098 -0.049 0.817 0 0 0
0.09 0.342 0.621 255 255 255
0.305 -0.353 0.682 255 255 255
0.129 0.234 0.627 0 0 0
-0.597 -0.297 0.913 255 255 255
0.245 -0.132 0.656 255 255 255
-0.339 -0.383 1.035 255 255 255
0.129 -0.435 0.796 255 255 255
-0.18 -0.737 1.036 255 255 255
-0.234 -0.247 0.941 0 0 0
0.261 -0.536 0.752 255 255 255
0.225 -0.074 0.652 255 255 255
0.173 -0.26 0.729 255 255 255
-0.372 0.329 0.865 255 255 255
0.225 -0.574 0.781 0 0 0
0.138 0.106 0.652 255 255 255
0.236 0.007 0.627 255 255 255
-0.238 0.132 0.844 255 255 255
-0.143 -0.658 0.999 255 255 255
-0.502 -0.569 1.155 255 255 255
0.331 -0.053 0.589 255 255 255
-0.571 -0.186 0.92 255 255 255
-0.536 -0.356 1.043 255 255 255
0.29 -0.39 0.699 255 255 255
0.027 0.095 0.71 255 255 255
0.323 -0.425 0.689 255 255 255
-0.391 -0.24 1.026 255 255 255
-0.03 -0.09 0.792 255 255 255
-0.138 -0.383 0.922 255 255 255
0.059 0.181 0.675 0 0 0
-0.485 0.078 0.973 255 255 255
-0.402 -0.605 1.125 255 255 255
-0.136 0.285 0.749 255 255 255
-0.539 -0.705 1.156 255 255 255
0.308 -0.123 0.621 255 255 255
-0.371 -0.064 0.973 255 255 255
0.091 0.338 0.62 255 255 255
-0.27 0.369 0.798 255 255 255
-0.534 -0.568 1.118 255 255 255
-0.169 0.082 0.821 255 255 255
0.046 0.098 0.7 255 255 255
0.191 -0.254 0.718 255 255 255
-0.579 -0.446 1.002 255 255 255
0.01 -0.043 0.758 255 255 255
0.025 0.165 0.695 255 255 255
0.163 -0.119 0.697 255 255 255
0.375 -0.323 0.637 255 255 255
0.401 -0.213 0.596 255 255 255
0.222 -0.214 0.691 255 255 255
0.302 0.149 0.555 255 255 255
-0.31 0.252 0.851 255 255 255
0.301 -0.09 0.616 255 255 255
-0.179 -0.1 0.873 255 255 255
0.282 0.071 0.58 255 255 255
0.271 -0.082 0.629 255 255 255
-0.146 0.178 0.782 255 255 255
0.355 -0.141 0.602 255 255 255
0.21 0.104 0.613 255 255 255
-0.311 -0.841 1.137 0 0 0
-0.034 -0.045 0.783 255 255 255
0.012 -0.369 0.842 255 255 255
-0.45 -0.143 1.029 255 255 255
0.044 0.247 0.664 255 255 255
-0.227 -0.191 0.922 0 0 0
0.305 -0.258 0.659 255 255 255
-0.615 -0.186 0.837 255 255 255
0.075 0.188 0.666 0 0 0
-0.54 -0.595 1.117 255 255 255
0.25 -0.594 0.772 255 255 255
-0.105 0.231 0.737 255 255 255
0.224 0.299 0.56 255 255 255
0.401 -0.117 0.571 255 255 255
-0.475 -0.071 1.018 255 255 255
0.313 -0.196 0.639 255 255 255
-0.034 0.016 0.766 255 255 255
0.219 0.086 0.613 0 0 0
0.367 -0.021 0.563 0 0 0
0.172 -0.429 0.772 255 255 255
0.207 -0.272 0.714 255 255 255
-0.01 -0.559 0.901 255 255 255
0 0.034 0.744 255 255 255
0.296 -0.326 0.68 255 255 255
-0.607 -0.4 0.946 255 255 255
-0.036 -0.414 0.878 255 255 255
-0.292 0.138 0.874 255 255 255
-0.268 0.148 0.858 255 255 255
0.231 0.052 0.616 0 0 0
0.136 -0.092 0.704 255 255 255
-0.423 -0.467 1.101 255 255 255
0.236 -0.48 0.75 255 255 255
0.18 0.187 0.609 0 0 0
0.186 -0.222 0.712 255 255 255
0.361 0.027 0.556 255 255 255
0.172 -0.001 0.661 0 0 0
0.355 -0.298 0.64 255 255 255
-0.051 -0.472 0.9 255 255 255
-0.22 -0.561 1.015 255 255 255
-0.183 -0.121 0.883 255 255 255
-0.451 -0.314 1.074 255 255 255
-0.149 0.388 0.732 255 255 255
0.218 0.058 0.62 255 255 255
-0.229 0.138 0.838 0 0 0
-0.286 -0.409 1.012 255 255 255
-0.263 -0.786 1.096 255 255 255
0.103 0.086 0.676 255 255 255
0.213 0.148 0.6 255 255 255
-0.433 -0.167 1.027 255 255 255
0.133 -0.449 0.798 255 255 255
0.242 0.192 0.575 255 255 255
-0.058 -0.339 0.871 255 255 255
-0.074 -0.258 0.858 0 0 0
-0.526 -0.261 1.03 255 255 255
0.113 -0.222 0.751 255 255 255
-0.561 -0.076 0.901 255 255 255
-0.09 -0.742 0.994 0 0 0
0.003 0.055 0.737 255 255 255
0.021 -0.659 0.912 0 0 0
0.261 0.005 0.614 0 0 0
-0.619 -0.17 0.826 255 255 255
0.248 0.227 0.568 255 255 255
0.038 0.06 0.713 0 0 0
-0.133 -0.247 0.886 255 255 255
0.15 0.312 0.595 255 255 255
0.351 -0.019 0.575 255 255 255
0.085 -0.011 0.713 255 255 255
-0.023 -0.342 0.854 255 255 255
-0.251 0.164 0.843 255 255 255
0.155 0.199 0.617 255 255 255
-0.166 0.287 0.764 255 255 255
0.313 0.137 0.553 255 255 255
0.14 0.289 0.606 255 255 255
0.248 -0.5 0.748 255 255 255
0.276 -0.126 0.639 255 255 255
0.128 -0.016 0.68 0 0 0
0.119 0.15 0.653 255 255 255
0.033 0.219 0.678 255 255 255
-0.199 -0.151 0.897 255 255 255
0.202 0.155 0.605 0 0 0
0.259 0.029 0.61 255 255 255
-0.544 -0.811 1.184 255 255 255
0.124 -0.259 0.755 255 255 255
0.219 0.051 0.623 255 255 255
-0.224 -0.317 0.955 0 0 0
0.142 -0.073 0.697 255 255 255
-0.536 -0.076 0.948 255 255 255
0.364 0.003 0.558 255 255 255
-0.603 -0.316 0.915 255 255 255
-0.227 0.129 0.84 0 0 0
-0.58 -0.478 1.006 255 255 255
0.289 0.175 0.555 255 255 255
-0.097 0.08 0.783 255 255 255
0.056 -0.491 0.85 255 255 255
0.297 0.157 0.557 255 255 255
0.161 -0.219 0.725 255 255 255
0.325 -0.279 0.653 255 255 255
-0.047 -0.087 0.8 255 255 255
0.339 -0.205 0.627 255 255 255
0.102 0.265 0.633 255 255 255
0.218 0.244 0.577 255 255 255
-0.093 -0.664 0.974 255 255 255
0.064 -0.229 0.779 255 255 255
0.107 0.036 0.688 255 255 255
0.305 -0.14 0.628 255 255 255
0.179 -0.395 0.759 255 255 255
-0.506 0.019 0.964 255 255 255
-0.379 -0.27 1.029 255 255 255
0.123 0.065 0.673 255 255 255
0.081 -0.027 0.717 0 0 0
0.247 0.25 0.563 0 0 0
0.05 0.338 0.639 255 255 255
0.359 -0.062 0.579 255 255 255
0.15 -0.202 0.727 255 255 255
-0.57 -0.051 0.877 255 255 255
0.288 -0.34 0.686 255 255 255
-0.007 -0.198 0.81 255 255 255
-0.418 0.045 0.968 255 255 255
-0.57 -0.23 0.941 255 255 255
0.141 -0.098 0.703 255 255 255
-0.546 -0.181 0.966 255 255 255
-0.582 -0.237 0.925 255 255 255
-0.267 0.097 0.872 255 255 255
-0.107 0.171 0.763 0 0 0
0.12 0.213 0.636 255 255 255
0.256 -0.411 0.722 255 255 255
0.353 -0.523 0.697 0 0 0
0.331 -0.219 0.635 255 255 255
0.227 -0.542 0.772 255 255 255
-0.361 -0.072 0.968 255 255 255
-0.428 0.124 0.953 255 255 255
-0.504 0.007 0.974 255 255 255
0.01 0.132 0.713 255 255 255
0.013 -0.258 0.812 255 255 255
-0.303 -0.019 0.921 255 255 255
-0.122 0.013 0.812 0 0 0
-0.142 -0.145 0.865 255 255 255
0.024 -0.456 0.858 255 255 255
0.186 -0.139 0.691 255 255 255
0.228 0.204 0.579 255 255 255
-0.57 -0.466 1.024 255 255 255
-0.219 0.23 0.808 0 0 0
0.147 0.236 0.605 255 255 255
-0.573 -0.519 1.036 255 255 255
-0.451 0.166 0.949 255 255 255
-0.182 -0.471 0.971 255 255 255
0.115 -0.281 0.765 255 255 255
-0.603 -0.225 0.878 255 255 255
-0.022 0.317 0.684 0 0 0
0.238 -0.19 0.678 255 255 255
0.263 -0.399 0.715 255 255 255
-0.232 0.38 0.777 255 255 255
-0.32 -0.514 1.057 255 255 255
-0.215 0.165 0.823 0 0 0
-0.197 0.314 0.774 255 255 255
0.025 -0.396 0.84 255 255 255
-0.587 -0.441 0.987 255 255 255
0.174 0.144 0.623 255 255 255
0.37 -0.349 0.643 255 255 255
0.239 -0.21 0.682 255 255 255
-0.514 -0.406 1.097 255 255 255
0.161 -0.022 0.676 0 0 0
0.063 0.07 0.701 255 255 255
0.125 -0.079 0.707 255 255 255
-0.276 -0.602 1.056 255 255 255
-0.339 -0.494 1.062 255 255 255
0.041 -0.288 0.805 255 255 255
0.123 0.097 0.663 255 255 255
-0.125 -0.552 0.962 255 255 255
-0.3 -0.274 0.986 255 255 255
0.123 -0.533 0.824 255 255 255
0.138 -0.097 0.705 255 255 255
0.037 0.214 0.675 0 0 0
-0.527 -0.016 0.942 255 255 255
0.032 -0.326 0.819 0 0 0
0.363 -0.424 0.665 255 255 255
-0.452 0.297 0.914 255 255 255
-0.159 0.326 0.752 255 255 255
0.046 0.061 0.709 255 255 255
-0.53 0.136 0.899 255 255 255
0.112 -0.1 0.72 255 255 255
0.201 -0.08 0.665 255 255 255
-0.238 -0.134 0.914 0 0 0
-0.58 -0.046 0.858 255 255 255
-0.53 -0.33 1.047 255 255 255
-0.044 -0.106 0.803 255 255 255
-0.031 0.229 0.709 255 255 255
0.073 0.119 0.683 255 255 255
-0.369 0.016 0.951 255 255 255
0.191 0.141 0.616 0 0 0
0.166 -0.154 0.704 255 255 255
-0.337 -0.621 1.095 255 255 255
-0.506 0.07 0.948 255 255 255
0.113 0.199 0.644 255 255 255
-0.23 -0.482 1 0 0 0
-0.174 0.335 0.758 0 0 0
0.16 -0.237 0.73 255 255 255
-0.116 0.18 0.769 0 0 0
0.098 -0.315 0.782 255 255 255
-0.222 -0.225 0.928 0 0 0
0.138 0.086 0.662 0 0 0
-0.04 -0.006 0.775 255 255 255
0.181 -0.441 0.769 255 255 255
0.276 -0.333 0.692 255 255 255
0.293 0.09 0.573 255 255 255
0.349 -0.447 0.681 255 255 255
-0.164 0.123 0.806 255 255 255
0.197 -0.374 0.744 255 255 255
-0.476 0.182 0.95 255 255 255
0 0.05 0.739 255 255 255
0.329 0.099 0.556 255 255 255
-0.367 -0.04 0.964 255 255 255
0.107 -0.114 0.727 255 255 255
-0.161 0.291 0.761 255 255 255
0.115 -0.233 0.753 255 255 255
0.177 0.039 0.65 0 0 0
-0.059 -0.369 0.878 255 255 255
-0.282 0.088 0.882 255 255 255
0.092 0.309 0.626 255 255 255
0.106 -0.451 0.811 255 255 255
0.257 -0.033 0.627 0 0 0
0.128 -0.254 0.752 255 255 255
0.198 0.181 0.601 255 255 255
0.014 0.072 0.724 0 0 0
0.009 -0.073 0.766 255 255 255
0.19 -0.354 0.743 255 255 255
0.096 0.25 0.633 255 255 255
-0.363 -0.179 0.997 255 255 255
0.018 0.356 0.652 255 255 255
-0.071 -0.379 0.888 255 255 255
-0.094 0.353 0.712 255 255 255
0.127 -0.082 0.707 255 255 255
-0.572 -0.185 0.917 255 255 255
0.173 0.077 0.638 0 0 0
0.293 -0.155 0.638 255 255 255
-0.239 0.306 0.799 255 255 255
0.248 0.022 0.618 0 0 0
-0.587 -0.091 0.858 255 255 255
0.009 -0.498 0.877 255 255 255
0.04 0.24 0.668 0 0 0
0.211 -0.318 0.723 255 255 255
0.037 0.088 0.708 255 255 255
-0.015 0.212 0.705 0 0 0
0.02 -0.117 0.772 255 255 255
0.122 0.201 0.638 255 255 255
-0.611 -0.174 0.844 255 255 255
-0.275 -0.13 0.934 255 255 255
-0.276 0.041 0.891 255 255 255
0.153 -0.096 0.697 255 255 255
-0.514 -0.262 1.05 255 255 255
0.02 -0.323 0.825 0 0 0
0.217 0.251 0.575 255 255 255
0.077 0.11 0.681 255 255 255
-0.408 -0.803 1.178 255 255 255
-0.114 0.108 0.787 0 0 0
-0.47 0.143 0.962 255 255 255
-0.524 -0.14 0.996 255 255 255
0.058 -0.179 0.77 255 255 255
-0.557 -0.35 1.005 255 255 255
-0.246 -0.111 0.912 255 255 255
-0.166 0.077 0.82 255 255 255
-0.231 -0.072 0.894 0 0 0
-0.285 0.412 0.798 255 255 255
0.152 -0.602 0.828 0 0 0
0.339 -0.395 0.672 255 255 255
0.13 -0.215 0.741 255 255 255
0.151 -0.373 0.769 255 255 255
0.148 0.053 0.664 255 255 255
-0.038 -0.365 0.866 255 255 255
0.215 0.081 0.616 0 0 0
-0.119 0.015 0.811 0 0 0
-0.019 -0.091 0.786 255 255 255
-0.135 -0.131 0.858 255 255 255
0.271 -0.576 0.756 0 0 0
-0.553 -0.221 0.968 255 255 255
-0.356 -0.101 0.972 255 255 255
-0.376 0.022 0.952 255 255 255
0.192 0.056 0.636 255 255 255
0.237 -0.218 0.683 255 255 255
0.254 0.011 0.616 0 0 0
0.272 -0.181 0.657 255 255 255
0.357 -0.124 0.596 255 255 255
-0.6 -0.295 0.905 255 255 255
-0.335 -0.043 0.946 255 255 255
-0.61 -0.29 0.889 255 255 255
0.28 0.056 0.588 255 255 255
0.321 -0.437 0.694 255 255 255
-0.464 -0.14 1.034 255 255 255
-0.096 -0.136 0.839 0 0 0
-0.502 -0.762 1.209 255 255 255
0.23 0.253 0.568 0 0 0
0.306 -0.501 0.718 255 255 255
0.235 0.124 0.596 255 255 255
0.054 0.192 0.674 255 255 255
0.249 0.218 0.57 255 255 255
0.341 -0.117 0.603 255 255 255
0.113 0.054 0.681 255 255 255
-0.34 -0.043 0.949 255 255 255
-0.576 -0.084 0.873 255 255 255
-0.085 -0.083 0.819 0 0 0
0.014 -0.333 0.832 255 255 255
-0.329 0.18 0.883 255 255 255
0.001 -0.245 0.816 0 0 0
0.25 -0.557 0.761 0 0 0
-0.182 0.059 0.834 0 0 0
0.101 -0.327 0.784 255 255 255
-0.072 0.098 0.764 255 255 255
-0.544 -0.209 0.978 255 255 255
-0.348 0.302 0.858 255 255 255
-0.5 -0.313 1.084 255 255 255
-0.097 -0.349 0.894 0 0 0
-0.124 0.2 0.763 255 255 255
-0.13 0.284 0.746 0 0 0
0.313 0.05 0.572 255 255 255
0.022 0.333 0.656 255 255 255
0.285 -0.295 0.677 255 255 255
0.316 -0.325 0.67 255 255 255
0.083 0.061 0.691 0 0 0
-0.29 0.326 0.821 255 255 255
0.117 -0.61 0.847 255 255 255
0.246 -0.389 0.723 255 255 255
-0.34 0.012 0.936 255 255 255
0.17 -0.192 0.714 255 255 255
0.263 0.104 0.585 0 0 0
0.094 0.291 0.63 0 0 0
-0.176 0.407 0.743 255 255 255
0.333 -0.203 0.63 255 255 255
0.011 0.294 0.673 255 255 255
-0.267 -0.009 0.899 255 255 255
0.126 0.093 0.664 255 255 255
0.018 -0.617 0.903 255 255 255
-0.577 0.039 0.849 255 255 255
-0.559 0.036 0.875 255 255 255
0.017 0.335 0.657 255 255 255
-0.527 -0.331 1.053 255 255 255
0.11 -0.058 0.711 255 255 255
0.271 -0.434 0.72 255 255 255
0.026 0.019 0.734 255 255 255
-0.124 0.186 0.766 255 255 255
-0.113 0.18 0.766 0 0 0
-0.254 0.302 0.807 255 255 255
-0.052 0.18 0.731 255 255 255
-0.093 0.075 0.782 255 255 255
-0.331 -0.688 1.108 255 255 255
-0.029 -0.326 0.853 255 255 255
-0.53 0.055 0.916 255 255 255
-0.509 0.023 0.959 255 255 255
-0.454 0.146 0.958 255 255 255
-0.016 0.314 0.682 0 0 0
-0.018 0.177 0.715 255 255 255
-0.252 -0.832 1.099 255 255 255
-0.221 -0.634 1.035 255 255 255
-0.515 0.155 0.913 255 255 255
-0.212 -0.271 0.936 0 0 0
-0.069 0.249 0.72 255 255 255
0.035 0.147 0.694 255 255 255
0.373 -0.149 0.594 255 255 255
-0.318 0.404 0.818 255 255 255
0.02 0.05 0.727 255 255 255
0.086 0.005 0.709 255 255 255
-0.521 0.007 0.949 255 255 255
0.249 -0.155 0.662 255 255 255
-0.114 0.336 0.728 0 0 0
-0.129 0.22 0.761 255 255 255
-0.507 -0.135 1.018 255 255 255
-0.186 -0.354 0.942 255 255 255
0.092 -0.004 0.708 255 255 255
-0.582 -0.142 0.884 255 255 255
0.254 0.215 0.566 255 255 255
-0.595 -0.422 0.963 255 255 255
-0.17 0.301 0.763 255 255 255
0.364 -0.291 0.632 255 255 255
0.043 -0.09 0.753 255 255 255
0.386 -0.095 0.571 255 255 255
0.259 0.074 0.597 255 255 255
-0.454 -0.064 1.011 255 255 255
0.245 -0.503 0.75 255 255 255
0.02 0.277 0.671 255 255 255
0.347 0.035 0.561 255 255 255
-0.589 -0.338 0.944 255 255 255
0.172 -0.279 0.734 255 255 255
0.124 -0.396 0.788 255 255 255
0.327 0.077 0.561 255 255 255
0.261 0.179 0.57 0 0 0
-0.035 0.214 0.716 255 255 255
0.199 0.043 0.634 255 255 255
0.287 0.165 0.556 255 255 255
0.02 0.178 0.694 255 255 255
-0.508 -0.776 1.213 255 255 255
-0.523 0.187 0.893 255 255 255
0.118 0.229 0.633 255 255 255
0.153 -0.323 0.756 255 255 255
-0.293 -0.013 0.914 255 255 255
0.118 -0.031 0.701 255 255 255
0.38 -0.123 0.583 255 255 255
-0.035 -0.665 0.944 255 255 255
-0.34 -0.79 1.139 255 255 255
0.138 -0.135 0.714 255 255 255
0.129 -0.327 0.769 255 255 255
0.218 -0.247 0.702 255 255 255
-0.494 -0.053 1.007 255 255 255
-0.07 0.138 0.751 0 0 0
0.26 -0.095 0.64 255 255 255
0.087 -0.131 0.743 0 0 0
-0.601 -0.003 0.82 255 255 255
0.274 0.155 0.569 255 255 255
-0.294 -0.199 0.962 255 255 255
0.253 0.178 0.574 0 0 0
0.218 -0.103 0.663 255 255 255
0.288 -0.07 0.619 255 255 255
-0.086 -0.153 0.836 0 0 0
0.194 0.123 0.616 255 255 255
-0.096 0.137 0.768 0 0 0
-0.448 -0.499 1.119 255 255 255
-0.015 0.338 0.673 255 255 255
0.157 0.123 0.639 255 255 255
0.168 0.172 0.621 255 255 255
0.273 -0.569 0.753 0 0 0
-0.114 0.25 0.742 0 0 0
-0.276 0.166 0.857 255 255 255
-0.199 0.267 0.787 255 255 255
0.035 -0.378 0.83 255 255 255
0.012 -0.024 0.753 255 255 255
0.271 -0.22 0.667 255 255 255
-0.169 0.37 0.746 255 255 255
0.236 -0.108 0.655 255 255 255
0.238 -0.419 0.734 255 255 255
0.367 -0.302 0.635 255 255 255
0.348 -0.387 0.667 255 255 255
-0.03 0.051 0.754 255 255 255
0.265 0.036 0.603 255 255 255
0.154 -0.081 0.692 255 255 255
0.304 -0.515 0.723 255 255 255
-0.605 -0.175 0.853 255 255 255
-0.554 -0.081 0.918 255 255 255
-0.196 -0.599 1.012 255 255 255
0.124 0.064 0.672 255 255 255
-0.502 -0.851 1.231 255 255 255
0.043 -0.193 0.781 255 255 255
-0.016 0.322 0.68 0 0 0
0.056 -0.566 0.868 255 255 255
0.177 -0.023 0.664 0 0 0
0.047 0.203 0.677 255 255 255
-0.054 -0.049 0.794 255 255 255
-0.178 -0.452 0.963 255 255 255
0.069 0.213 0.656 255 255 255
-0.098 0.043 0.791 0 0 0
-0.23 -0.193 0.924 0 0 0
0.099 -0.613 0.859 255 255 255
0.017 -0.122 0.774 255 255 255
0.055 0.131 0.688 255 255 255
-0.236 -0.047 0.891 0 0 0
0.261 -0.059 0.63 255 255 255
0.206 0.125 0.61 0 0 0
-0.621 -0.127 0.809 255 255 255
0.125 0.238 0.627 0 0 0
0.056 -0.249 0.788 255 255 255
0.227 -0.297 0.709 255 255 255
0.12 0.084 0.668 255 255 255
-0.029 -0.701 0.949 0 0 0
-0.003 0.021 0.747 0 0 0
-0.078 -0.64 0.96 255 255 255
0.036 0.195 0.682 255 255 255
-0.522 -0.275 1.042 255 255 255
-0.479 0.176 0.951 255 255 255
-0.052 -0.116 0.81 255 255 255
0.285 -0.119 0.632 255 255 255
0.161 0.09 0.647 0 0 0
-0.243 0.02 0.878 255 255 255
-0.52 -0.122 0.994 255 255 255
0.372 -0.02 0.56 0 0 0
0.25 -0.149 0.659 255 255 255
-0.034 0.184 0.722 255 255 255
0.278 -0.011 0.61 0 0 0
0.222 0.225 0.578 255 255 255
-0.08 -0.227 0.853 0 0 0
0.304 0.013 0.585 0 0 0
-0.415 0.139 0.943 255 255 255
0.252 0.013 0.617 0 0 0
-0.385 -0.345 1.05 255 255 255
0.024 0.129 0.704 255 255 255
-0.572 -0.765 1.116 255 255 255
-0.002 0.327 0.67 0 0 0
0.371 -0.076 0.576 255 255 255
-0.236 -0.646 1.044 255 255 255
-0.308 -0.838 1.134 0 0 0
0.347 0.043 0.56 255 255 255
0.383 -0.114 0.578 255 255 255
0.185 0.093 0.626 255 255 255
-0.427 -0.317 1.065 255 255 255
0.232 -0.241 0.693 255 255 255
0.318 0.121 0.555 255 255 255
-0.504 0.115 0.937 255 255 255
0.178 -0.44 0.772 255 255 255
0.192 -0.235 0.713 255 255 255
0.144 0.013 0.673 255 255 255
0.208 0.079 0.62 0 0 0
-0.042 0.08 0.752 0 0 0
-0.2 -0.291 0.934 255 255 255
0.018 -0.013 0.747 255 255 255
-0.081 0.175 0.748 255 255 255
-0.239 -0.168 0.924 255 255 255
0.202 0.133 0.61 0 0 0
-0.371 0.119 0.925 255 255 255
-0.46 -0.449 1.113 255 255 255
0.068 0.185 0.67 0 0 0
0.359 -0.222 0.62 255 255 255
0.015 0.324 0.661 0 0 0
-0.581 -0.327 0.956 255 255 255
0.277 0.172 0.563 255 255 255
0.076 -0.359 0.804 255 255 255
-0.392 0.267 0.892 255 255 255
-0.105 -0.626 0.97 255 255 255
0.203 0.143 0.609 0 0 0
