ply
format ascii 1.0
comment Created by Open3D
element vertex 1603
property double x
property double y
property double z
property uchar red
property uchar green
property uchar blue
end_header
-0.27 0.267 0.741 0 0 0
-0.169 0.238 0.713 255 255 255
-0.252 -0.685 1.014 255 255 255
0.184 0.308 0.569 255 255 255
-0.286 0.27 0.746 255 255 255
-0.312 0.322 0.742 255 255 255
-0.013 -0.632 0.913 255 255 255
0.333 -0.302 0.69 255 255 255
-0.246 0.02 0.806 0 0 0
-0.383 0.227 0.793 0 0 0
0.339 0.021 0.593 255 255 255
0.078 -0.288 0.78 255 255 255
0.007 0.165 0.676 255 255 255
0.299 -0.113 0.647 255 255 255
0.014 -0.239 0.79 255 255 255
-0.175 -0.15 0.832 255 255 255
-0.254 0.251 0.734 0 0 0
0.215 0.125 0.609 255 255 255
0.366 -0.149 0.634 255 255 255
-0.119 -0.194 0.825 255 255 255
-0.297 0.248 0.758 255 255 255
-0.34 0.213 0.782 255 255 255
-0.334 0.257 0.766 255 255 255
-0.142 -0.465 0.91 255 255 255
-0.639 -0.486 1.096 255 255 255
0.272 0.066 0.604 0 0 0
-0.246 0 0.812 0 0 0
-0.186 -0.047 0.804 255 255 255
0.063 -0.373 0.81 255 255 255
0.052 -0.675 0.902 0 0 0
-0.027 -0.406 0.852 255 255 255
-0.112 -0.735 0.979 0 0 0
0.022 -0.444 0.846 255 255 255
-0.33 -0.363 0.949 255 255 255
0.208 0.045 0.632 0 0 0
-0.062 -0.028 0.756 0 0 0
0.346 -0.063 0.618 255 255 255
0.02 -0.464 0.852 255 255 255
0.176 0.248 0.587 255 255 255
0.077 0.232 0.629 255 255 255
0.346 -0.104 0.629 255 255 255
-0.084 0.065 0.735 255 255 255
-0.134 -0.705 0.979 255 255 255
-0.333 -0.201 0.902 255 255 255
0.121 0.263 0.603 255 255 255
0.174 0.069 0.638 255 255 255
-0.405 0.254 0.795 255 255 255
0.354 -0.044 0.609 255 255 255
0.229 0.02 0.637 255 255 255
0.202 -0.135 0.69 255 255 255
-0.036 -0.114 0.772 255 255 255
0.17 -0.477 0.801 255 255 255
0.037 0.193 0.656 255 255 255
-0.384 0.066 0.841 0 0 0
-0.428 -0.717 1.088 255 255 255
0.342 -0.243 0.67 255 255 255
-0.154 -0.006 0.78 255 255 255
0.076 -0.387 0.809 255 255 255
-0.561 0.093 0.9 255 255 255
0.389 -0.18 0.636 255 255 255
-0.591 -0.057 0.955 255 255 255
0.194 -0.158 0.701 255 255 255
0.025 0.12 0.683 255 255 255
0.216 0.195 0.587 255 255 255
0.24 -0.151 0.681 255 255 255
-0.02 0.18 0.679 255 255 255
0.327 0.038 0.588 0 0 0
0.22 0.088 0.618 255 255 255
0.231 -0.431 0.764 255 255 255
0.217 -0.001 0.648 255 255 255
-0.046 0.323 0.651 255 255 255
0.136 -0.187 0.729 255 255 255
0.243 0.231 0.572 255 255 255
-0.141 -0.43 0.9 255 255 255
-0.003 0.093 0.7 255 255 255
-0.3 -0.067 0.851 255 255 255
-0.097 0.356 0.659 255 255 255
0.288 -0.169 0.669 255 255 255
0.04 -0.522 0.86 255 255 255
-0.019 0.322 0.641 255 255 255
-0.162 0.277 0.701 255 255 255
0.209 -0.004 0.649 255 255 255
-0.327 -0.234 0.91 255 255 255
0.101 -0.518 0.839 255 255 255
0.312 -0.546 0.77 255 255 255
-0.163 0.03 0.775 255 255 255
-0.007 -0.207 0.787 255 255 255
0.288 -0.287 0.703 255 255 255
-0.205 0.114 0.762 0 0 0
-0.091 0.302 0.668 0 0 0
-0.13 -0.715 0.98 0 0 0
0.081 -0.413 0.816 255 255 255
0.009 -0.215 0.784 255 255 255
0.125 -0.206 0.74 255 255 255
-0.113 -0.406 0.883 255 255 255
-0.086 0.034 0.741 255 255 255
-0.166 -0.262 0.861 255 255 255
-0.398 0.142 0.824 0 0 0
-0.591 -0.074 0.962 255 255 255
-0.194 0.305 0.703 255 255 255
0.268 0.122 0.59 255 255 255
-0.011 0.12 0.694 255 255 255
-0.1 0.038 0.748 255 255 255
-0.213 -0.31 0.89 255 255 255
0.055 0.243 0.635 255 255 255
0.144 0.322 0.581 255 255 255
0.323 -0.328 0.701 255 255 255
0.131 -0.076 0.7 255 255 255
-0.007 -0.195 0.784 255 255 255
-0.14 -0.749 0.992 255 255 255
-0.671 -0.329 1.047 255 255 255
-0.049 -0.322 0.837 255 255 255
0.014 0.06 0.702 255 255 255
-0.266 0.403 0.705 255 255 255
-0.019 0.335 0.638 255 255 255
-0.558 -0.241 0.999 255 255 255
-0.137 -0.283 0.855 0 0 0
0.065 -0.024 0.708 255 255 255
-0.516 0.166 0.862 255 255 255
0.148 0.257 0.602 255 255 255
-0.397 0.127 0.829 0 0 0
-0.252 -0.261 0.891 0 0 0
-0.37 -0.484 0.998 255 255 255
0.231 0.227 0.576 255 255 255
0.221 0.172 0.594 255 255 255
0.116 -0.03 0.691 255 255 255
0.141 -0.388 0.785 255 255 255
0.323 0.104 0.575 255 255 255
-0.341 0.044 0.833 255 255 255
-0.011 0.276 0.652 255 255 255
0.224 -0.075 0.665 255 255 255
-0.247 -0.196 0.871 0 0 0
-0.05 -0.53 0.898 255 255 255
-0.399 -0.453 1 0 0 0
-0.014 -0.348 0.83 255 255 255
-0.418 -0.385 0.987 255 255 255
-0.162 -0.729 0.996 0 0 0
0.08 0.068 0.675 0 0 0
-0.144 0.149 0.729 255 255 255
0.397 -0.238 0.648 255 255 255
0.145 -0.435 0.797 255 255 255
-0.151 -0.08 0.802 255 255 255
-0.192 0.248 0.717 255 255 255
-0.025 0.193 0.678 255 255 255
0.021 -0.081 0.741 255 255 255
-0.19 0.032 0.782 255 255 255
0.307 0.062 0.591 255 255 255
-0.476 -0.027 0.902 255 255 255
-0.429 -0.223 0.943 255 255 255
0.074 0.154 0.651 255 255 255
-0.011 -0.095 0.757 255 255 255
0.184 0.206 0.597 255 255 255
0.11 0.297 0.6 255 255 255
0.302 -0.226 0.68 255 255 255
0.425 -0.231 0.631 255 255 255
-0.682 -0.215 0.986 255 255 255
0.224 -0.054 0.658 255 255 255
-0.312 0.326 0.741 0 0 0
0.136 -0.027 0.685 255 255 255
-0.483 0.14 0.856 255 255 255
-0.399 0.155 0.822 0 0 0
0.164 -0.286 0.749 255 255 255
0.176 -0.019 0.667 255 255 255
0.349 -0.151 0.641 255 255 255
-0.35 -0.277 0.931 255 255 255
0.136 -0.616 0.853 0 0 0
0.053 -0.032 0.715 255 255 255
0.224 -0.153 0.689 255 255 255
-0.14 0.057 0.756 0 0 0
-0.165 -0.274 0.864 0 0 0
-0.082 -0.295 0.84 255 255 255
-0.079 -0.431 0.878 255 255 255
-0.206 -0.001 0.798 255 255 255
0.057 0.321 0.612 255 255 255
0.239 0.273 0.562 255 255 255
-0.192 0.091 0.766 255 255 255
-0.698 -0.113 0.916 255 255 255
-0.168 0.047 0.771 255 255 255
0.197 -0.492 0.795 255 255 255
-0.412 0.032 0.861 255 255 255
-0.586 -0.34 1.037 255 255 255
-0.479 -0.462 1.031 255 255 255
-0.581 0.054 0.917 255 255 255
-0.422 0.129 0.837 255 255 255
0.09 -0.067 0.713 255 255 255
0.08 -0.333 0.792 255 255 255
-0.484 0.193 0.84 255 255 255
0.199 0.174 0.601 255 255 255
0.014 -0.039 0.732 255 255 255
0.345 -0.151 0.643 255 255 255
0.27 -0.489 0.766 255 255 255
-0.358 0.245 0.778 255 255 255
0.168 -0.017 0.669 255 255 255
-0.346 -0.483 0.989 255 255 255
-0.158 -0.346 0.881 255 255 255
-0.233 -0.55 0.968 255 255 255
-0.183 0.242 0.718 255 255 255
-0.383 -0.342 0.959 0 0 0
0.151 0.184 0.616 255 255 255
-0.122 -0.344 0.869 255 255 255
0.398 -0.073 0.6 255 255 255
0.36 0.081 0.569 255 255 255
-0.005 -0.181 0.779 255 255 255
-0.221 0.152 0.758 0 0 0
0.353 -0.559 0.756 0 0 0
-0.44 -0.294 0.968 255 255 255
-0.008 -0.092 0.755 255 255 255
-0.015 0.141 0.69 255 255 255
0.187 0.178 0.605 255 255 255
-0.433 0.049 0.864 255 255 255
-0.167 -0.48 0.923 255 255 255
-0.126 -0.104 0.801 255 255 255
0.019 0.182 0.665 255 255 255
-0.251 -0.284 0.897 0 0 0
0.383 0.013 0.583 255 255 255
0.085 -0.019 0.699 255 255 255
-0.041 0.145 0.697 0 0 0
-0.291 -0.079 0.851 255 255 255
0.116 -0.555 0.843 255 255 255
-0.292 0.206 0.767 255 255 255
-0.043 -0.304 0.829 255 255 255
0.14 -0.186 0.728 255 255 255
-0.066 0.021 0.739 255 255 255
-0.211 -0.303 0.888 255 255 255
-0.248 -0.077 0.835 0 0 0
0.166 0.035 0.654 255 255 255
0.14 0.313 0.585 255 255 255
-0.04 -0.011 0.743 255 255 255
0.302 -0.147 0.657 255 255 255
0.105 0.278 0.606 0 0 0
-0.413 -0.287 0.956 255 255 255
0.304 0.05 0.595 255 255 255
0.137 -0.351 0.776 255 255 255
-0.14 -0.001 0.775 255 255 255
0.172 0.002 0.663 255 255 255
0.227 0.173 0.592 255 255 255
-0.031 -0.282 0.819 255 255 255
0.371 -0.606 0.762 255 255 255
0.009 -0.092 0.75 255 255 255
-0.029 0.234 0.668 255 255 255
0.179 0.089 0.629 255 255 255
0.078 -0.338 0.794 255 255 255
-0.122 -0.643 0.957 255 255 255
0.266 -0.207 0.687 255 255 255
-0.191 0.005 0.79 255 255 255
-0.215 0.05 0.786 0 0 0
-0.039 0.167 0.691 0 0 0
-0.076 -0.371 0.859 255 255 255
-0.442 0.182 0.828 255 255 255
-0.007 -0.201 0.786 255 255 255
-0.162 0.167 0.731 0 0 0
-0.195 0.124 0.754 0 0 0
-0.391 -0.604 1.04 255 255 255
-0.239 -0.031 0.818 0 0 0
-0.257 -0.22 0.881 0 0 0
0.122 -0.002 0.682 255 255 255
-0.121 -0.269 0.846 255 255 255
-0.318 0.222 0.771 255 255 255
-0.43 -0.327 0.976 255 255 255
0.284 0.03 0.61 0 0 0
-0.618 -0.293 1.034 255 255 255
0.085 -0.213 0.757 255 255 255
-0.32 -0.157 0.885 255 255 255
0.426 -0.061 0.589 255 255 255
0.294 0.052 0.599 255 255 255
-0.134 0.182 0.716 255 255 255
0.053 -0.633 0.89 255 255 255
-0.13 0.147 0.723 0 0 0
-0.156 -0.165 0.83 255 255 255
0.127 -0.136 0.72 255 255 255
0.102 0.092 0.66 0 0 0
0.334 -0.186 0.658 255 255 255
-0.185 0.217 0.725 255 255 255
0.35 0.009 0.593 255 255 255
-0.01 0.137 0.688 255 255 255
0.136 -0.414 0.794 255 255 255
-0.313 -0.805 1.071 255 255 255
-0.353 -0.249 0.923 255 255 255
0.418 -0.224 0.634 255 255 255
0.036 -0.68 0.91 0 0 0
-0.203 -0.636 0.981 255 255 255
-0.198 -0.081 0.818 255 255 255
0.057 0.078 0.682 255 255 255
0.105 0.223 0.621 255 255 255
-0.05 -0.057 0.759 0 0 0
0.125 0.222 0.615 0 0 0
-0.055 -0.129 0.785 0 0 0
-0.097 -0.265 0.836 255 255 255
0.072 -0.158 0.747 255 255 255
0.363 0.024 0.584 255 255 255
0.389 -0.34 0.678 255 255 255
-0.264 0.058 0.801 255 255 255
0.232 0.213 0.58 255 255 255
0 0.274 0.647 0 0 0
0.43 -0.183 0.622 255 255 255
-0.68 -0.234 1.002 255 255 255
0.229 -0.018 0.648 255 255 255
-0.46 0.125 0.852 255 255 255
-0.067 0.13 0.71 255 255 255
0.011 0.251 0.642 255 255 255
-0.046 -0.345 0.84 255 255 255
-0.02 -0.11 0.765 255 255 255
-0.102 -0.423 0.884 255 255 255
-0.399 -0.122 0.903 0 0 0
0.264 -0.008 0.63 0 0 0
-0.025 -0.275 0.815 255 255 255
-0.264 0.325 0.712 0 0 0
-0.2 -0.204 0.857 255 255 255
-0.277 -0.296 0.91 255 255 255
0.342 -0.277 0.68 255 255 255
-0.068 0.037 0.737 0 0 0
0.151 0.006 0.673 0 0 0
0.088 0.08 0.669 255 255 255
0.269 -0.49 0.767 255 255 255
-0.455 -0.472 1.025 255 255 255
-0.152 -0.643 0.967 255 255 255
0.134 -0.229 0.744 255 255 255
-0.176 -0.695 0.99 255 255 255
0.358 -0.162 0.641 255 255 255
-0.075 0.329 0.659 255 255 255
0.368 -0.24 0.66 255 255 255
0.323 0.106 0.575 255 255 255
-0.192 0.146 0.748 255 255 255
-0.381 -0.496 1.005 0 0 0
-0.056 0.12 0.711 255 255 255
0.11 -0.06 0.703 255 255 255
-0.195 0.085 0.77 255 255 255
-0.259 0.125 0.78 255 255 255
-0.052 0.184 0.689 255 255 255
0.326 -0.147 0.649 255 255 255
-0.039 -0.179 0.791 255 255 255
-0.212 -0.124 0.837 0 0 0
-0.521 -0.673 1.107 255 255 255
0.395 -0.246 0.651 255 255 255
-0.602 -0.39 1.056 255 255 255
0.226 0.187 0.589 255 255 255
0.345 0.069 0.574 255 255 255
0.028 0.014 0.707 0 0 0
0.426 -0.209 0.629 255 255 255
0.206 0.171 0.599 255 255 255
0.106 -0.481 0.827 255 255 255
-0.139 -0.624 0.956 255 255 255
-0.546 -0.73 1.133 255 255 255
0.144 0.104 0.642 255 255 255
-0.568 0.069 0.908 255 255 255
0.268 -0.476 0.763 255 255 255
0.022 -0.118 0.751 255 255 255
0.409 -0.122 0.609 255 255 255
-0.244 -0.054 0.826 0 0 0
0.274 -0.276 0.704 255 255 255
-0.022 0.05 0.72 255 255 255
-0.189 -0.121 0.827 255 255 255
-0.43 -0.383 0.993 255 255 255
0.079 0.261 0.624 255 255 255
0.242 -0.157 0.682 255 255 255
-0.164 0.088 0.757 255 255 255
-0.05 -0.59 0.914 255 255 255
-0.122 -0.116 0.803 255 255 255
0.398 -0.142 0.62 255 255 255
0.437 -0.194 0.62 255 255 255
0.251 -0.078 0.656 255 255 255
-0.206 0.355 0.697 255 255 255
0.272 -0.09 0.652 255 255 255
0.14 -0.087 0.7 255 255 255
-0.224 -0.436 0.932 255 255 255
-0.187 0.264 0.711 255 255 255
0.265 -0.538 0.783 255 255 255
0.195 0.304 0.566 255 255 255
0.007 0.245 0.646 255 255 255
0.231 -0.511 0.788 255 255 255
-0.03 -0.04 0.748 255 255 255
-0.304 0.34 0.733 0 0 0
0.012 -0.569 0.886 255 255 255
0.164 -0.28 0.748 255 255 255
0.281 0.161 0.575 255 255 255
0.033 0.024 0.703 0 0 0
0.032 0.055 0.698 0 0 0
0.144 -0.43 0.796 255 255 255
-0.276 -0.805 1.058 255 255 255
0.315 0.11 0.58 255 255 255
0.172 -0.063 0.681 255 255 255
-0.469 0.139 0.852 255 255 255
-0.01 0.312 0.64 255 255 255
0.244 -0.319 0.727 255 255 255
0.16 0.186 0.612 0 0 0
0.239 0.181 0.584 0 0 0
0.032 -0.05 0.728 255 255 255
0.347 0.012 0.593 255 255 255
-0.537 -0.849 1.165 0 0 0
0.146 -0.62 0.85 0 0 0
-0.028 -0.651 0.924 255 255 255
-0.346 -0.114 0.881 255 255 255
-0.29 -0.064 0.845 255 255 255
-0.143 -0.725 0.988 0 0 0
-0.354 0.011 0.846 255 255 255
-0.323 0.198 0.779 255 255 255
-0.197 -0.365 0.901 255 255 255
-0.568 -0.721 1.139 255 255 255
0.304 -0.305 0.703 255 255 255
-0.223 0.151 0.759 0 0 0
0.25 0.176 0.581 255 255 255
0.082 0.029 0.686 0 0 0
0.152 -0.111 0.701 255 255 255
-0.165 -0.59 0.955 255 255 255
0.123 0.08 0.657 255 255 255
-0.181 -0.241 0.859 255 255 255
-0.373 -0.485 0.999 255 255 255
-0.313 -0.397 0.951 255 255 255
0.225 -0.181 0.696 255 255 255
0.126 -0.496 0.823 255 255 255
-0.356 -0.66 1.045 255 255 255
-0.619 -0.141 0.99 255 255 255
0.264 -0.44 0.755 255 255 255
0.178 0.133 0.621 255 255 255
-0.204 -0.562 0.961 255 255 255
0.141 0.026 0.668 255 255 255
-0.003 0.123 0.693 255 255 255
-0.487 -0.554 1.061 255 255 255
-0.321 0.216 0.774 255 255 255
0.041 -0.007 0.712 255 255 255
-0.359 -0.757 1.075 255 255 255
-0.324 -0.505 0.988 0 0 0
0.384 -0.275 0.662 255 255 255
0.394 -0.192 0.636 255 255 255
0.183 -0.325 0.752 255 255 255
0.403 -0.34 0.674 255 255 255
0.057 0.018 0.701 255 255 255
-0.166 0.077 0.759 255 255 255
0.125 -0.416 0.799 255 255 255
0.192 -0.204 0.715 255 255 255
0.022 -0.362 0.821 255 255 255
-0.288 0.088 0.8 255 255 255
0.162 0.247 0.597 255 255 255
-0.075 0.04 0.736 255 255 255
-0.167 -0.588 0.956 255 255 255
-0.011 0.261 0.656 255 255 255
0.368 -0.271 0.667 255 255 255
0.307 -0.102 0.641 255 255 255
-0.082 -0.284 0.838 255 255 255
-0.436 0.06 0.862 255 255 255
-0.438 -0.273 0.962 255 255 255
0.054 -0.503 0.851 255 255 255
-0.672 -0.074 0.951 255 255 255
0.075 0.08 0.673 255 255 255
0.061 -0.254 0.777 255 255 255
0.224 0.079 0.62 255 255 255
-0.394 -0.446 0.997 0 0 0
0.184 0.063 0.635 255 255 255
-0.615 -0.262 1.023 255 255 255
0.161 0.007 0.665 0 0 0
0.216 -0.099 0.674 255 255 255
0.214 -0.208 0.708 255 255 255
-0.026 -0.105 0.765 255 255 255
0.02 0.245 0.642 255 255 255
-0.078 -0.172 0.804 255 255 255
-0.253 -0.205 0.875 0 0 0
-0.672 -0.239 1.016 255 255 255
-0.419 0.132 0.836 255 255 255
-0.138 0.306 0.684 0 0 0
0.373 -0.178 0.64 255 255 255
0.29 0.186 0.563 255 255 255
0.363 0.026 0.582 255 255 255
-0.049 0.009 0.741 0 0 0
-0.314 0.042 0.823 255 255 255
0.22 0.068 0.624 255 255 255
-0.024 -0.023 0.741 255 255 255
-0.498 -0.333 1.001 255 255 255
-0.639 0.022 0.945 255 255 255
-0.033 0.122 0.702 255 255 255
0.357 -0.163 0.642 255 255 255
-0.314 0.347 0.735 0 0 0
-0.594 0.001 0.939 255 255 255
-0.389 -0.678 1.063 255 255 255
0.087 -0.199 0.752 255 255 255
0.021 -0.084 0.743 255 255 255
0.143 -0.142 0.715 255 255 255
-0.592 -0.987 1.221 255 255 255
-0.223 0.158 0.756 0 0 0
-0.028 -0.333 0.832 255 255 255
0.281 0.119 0.587 255 255 255
-0.647 -0.513 1.105 255 255 255
0.14 -0.16 0.722 255 255 255
0.302 0.033 0.604 255 255 255
-0.304 0.099 0.803 0 0 0
-0.261 -0.113 0.849 0 0 0
0.185 -0.316 0.748 255 255 255
-0.073 -0.706 0.955 0 0 0
-0.268 0.257 0.742 0 0 0
0.307 -0.155 0.659 255 255 255
-0.169 0.172 0.732 0 0 0
-0.284 0.249 0.752 255 255 255
0.051 -0.092 0.734 255 255 255
-0.07 -0.582 0.92 255 255 255
-0.32 -0.066 0.858 255 255 255
0.2 -0.224 0.717 255 255 255
0.404 -0.328 0.669 255 255 255
-0.399 0.187 0.812 0 0 0
0.359 -0.241 0.663 255 255 255
-0.212 0.118 0.764 0 0 0
0.126 -0.127 0.716 255 255 255
-0.298 -0.27 0.909 255 255 255
-0.459 0.204 0.828 255 255 255
-0.678 -0.27 1.016 255 255 255
0.117 0.326 0.59 255 255 255
0.154 0.312 0.581 255 255 255
-0.212 0.336 0.696 255 255 255
0.263 -0.044 0.643 255 255 255
0.432 -0.127 0.602 255 255 255
0.207 0.21 0.585 0 0 0
0.011 0.24 0.646 0 0 0
-0.033 0.059 0.722 255 255 255
-0.079 0.017 0.749 255 255 255
-0.109 -0.08 0.787 255 255 255
0.053 0.239 0.637 0 0 0
-0.663 -0.289 1.042 255 255 255
0.019 -0.075 0.741 255 255 255
0.291 -0.38 0.727 255 255 255
-0.212 -0.415 0.922 255 255 255
0.277 0.15 0.579 255 255 255
-0.593 -0.155 0.986 255 255 255
0.24 -0.19 0.693 255 255 255
0.179 0.148 0.617 255 255 255
-0.131 0.118 0.733 255 255 255
0.342 -0.428 0.723 255 255 255
-0.686 -0.019 0.908 255 255 255
0.248 -0.285 0.717 255 255 255
-0.617 -0.369 1.057 255 255 255
0.121 0.279 0.6 0 0 0
0.234 0.14 0.6 255 255 255
-0.14 -0.251 0.847 255 255 255
0.057 0.279 0.623 0 0 0
0.367 -0.136 0.63 255 255 255
0.069 -0.229 0.767 255 255 255
0.375 -0.051 0.602 255 255 255
-0.354 -0.719 1.062 255 255 255
-0.146 -0.111 0.811 255 255 255
-0.144 0.017 0.769 255 255 255
-0.289 0.108 0.797 255 255 255
0.287 -0.532 0.772 255 255 255
-0.337 0.235 0.775 255 255 255
-0.145 -0.151 0.821 255 255 255
0.26 -0.59 0.801 0 0 0
0.084 0.166 0.645 255 255 255
-0.175 -0.191 0.844 255 255 255
0.039 -0.193 0.768 255 255 255
-0.425 0.198 0.818 255 255 255
0.117 -0.294 0.768 255 255 255
-0.007 0.2 0.67 255 255 255
0.362 -0.612 0.769 255 255 255
-0.601 -0.113 0.976 255 255 255
-0.049 -0.007 0.746 0 0 0
-0.057 -0.147 0.79 0 0 0
-0.24 0.148 0.766 255 255 255
-0.25 0.221 0.747 255 255 255
0.066 0.156 0.654 255 255 255
0.411 -0.055 0.591 255 255 255
0.282 0.026 0.612 0 0 0
-0.23 -0.42 0.929 255 255 255
-0.472 -0.073 0.914 255 255 255
0.017 -0.328 0.813 255 255 255
0.106 -0.115 0.721 255 255 255
-0.582 -0.163 0.985 255 255 255
0.135 0.255 0.603 255 255 255
0.391 -0.315 0.671 255 255 255
0.338 -0.511 0.747 255 255 255
0.309 -0.059 0.63 255 255 255
0.129 0.098 0.651 255 255 255
-0.091 0.011 0.754 255 255 255
0.233 0.158 0.594 255 255 255
0.181 0.228 0.591 0 0 0
-0.099 0.2 0.701 255 255 255
-0.295 -0.336 0.928 255 255 255
0.348 -0.145 0.64 255 255 255
-0.261 0.282 0.727 0 0 0
-0.03 0.109 0.704 255 255 255
0 -0.193 0.781 255 255 255
-0.283 -0.695 1.029 255 255 255
0.008 0.319 0.632 255 255 255
-0.111 0.131 0.723 255 255 255
-0.05 0.28 0.66 255 255 255
-0.025 -0.238 0.803 255 255 255
0.397 -0.301 0.665 255 255 255
0.265 0.002 0.625 0 0 0
0.294 0.172 0.565 255 255 255
-0.315 -0.26 0.912 255 255 255
0.205 -0.259 0.724 255 255 255
-0.485 0.195 0.841 255 255 255
0.079 -0.171 0.747 255 255 255
0.078 0.102 0.666 255 255 255
-0.519 0.059 0.893 255 255 255
0.173 -0.156 0.706 255 255 255
-0.078 0.117 0.716 255 255 255
0.412 -0.017 0.577 0 0 0
-0.253 -0.126 0.853 0 0 0
0.084 -0.018 0.7 255 255 255
-0.384 -0.534 1.018 255 255 255
0.338 -0.148 0.645 255 255 255
-0.304 0.06 0.815 255 255 255
-0.685 -0.023 0.91 255 255 255
-0.141 0.322 0.682 0 0 0
0.239 0.092 0.609 255 255 255
0.213 0.042 0.635 255 255 255
0.101 -0.023 0.694 255 255 255
0.032 0.255 0.637 0 0 0
0.231 -0.423 0.762 255 255 255
0.119 -0.183 0.736 255 255 255
-0.481 0.012 0.893 255 255 255
0.096 -0.614 0.869 255 255 255
-0.373 -0.508 1.006 0 0 0
-0.1 -0.581 0.93 255 255 255
0.314 -0.036 0.622 255 255 255
-0.279 -0.044 0.836 255 255 255
0.174 -0.048 0.675 255 255 255
0.024 0.195 0.66 0 0 0
0.348 0.029 0.587 255 255 255
-0.321 0.253 0.763 255 255 255
0.164 0.039 0.653 255 255 255
-0.152 -0.108 0.81 255 255 255
0.124 -0.139 0.721 255 255 255
0.206 -0.084 0.673 255 255 255
0.256 -0.299 0.718 255 255 255
0.176 0.228 0.595 0 0 0
0.117 0.32 0.592 255 255 255
0.007 -0.083 0.747 255 255 255
-0.692 -0.339 1.02 255 255 255
0.108 0.084 0.662 255 255 255
0.041 0.087 0.685 255 255 255
-0.595 -0.52 1.093 255 255 255
-0.143 0.36 0.672 255 255 255
0.409 -0.058 0.594 255 255 255
-0.68 -0.506 1.098 255 255 255
-0.056 0.323 0.654 255 255 255
0.1 -0.137 0.73 255 255 255
0.131 0.103 0.648 255 255 255
0.112 0.096 0.656 0 0 0
-0.061 0.226 0.68 255 255 255
0.29 0.157 0.57 0 0 0
-0.237 -0.561 0.973 255 255 255
0.203 0.209 0.588 0 0 0
0.204 -0.208 0.71 255 255 255
-0.451 0.04 0.874 255 255 255
0.234 0.285 0.559 255 255 255
-0.068 -0.038 0.76 255 255 255
-0.242 0.275 0.722 255 255 255
0.263 0.208 0.572 255 255 255
-0.059 -0.294 0.833 255 255 255
-0.686 -0.159 0.956 255 255 255
0.226 0.179 0.59 255 255 255
0.332 0.059 0.581 0 0 0
0.438 -0.187 0.62 255 255 255
0.318 0.028 0.599 255 255 255
0.441 -0.164 0.612 255 255 255
-0.156 0.35 0.681 255 255 255
-0.321 -0.304 0.928 255 255 255
-0.016 0 0.732 255 255 255
-0.554 0.118 0.89 255 255 255
0.044 0.03 0.7 255 255 255
0.202 0.305 0.563 255 255 255
-0.288 0.216 0.763 255 255 255
0.413 -0.059 0.592 255 255 255
0.3 0.004 0.615 0 0 0
0.02 0.206 0.657 255 255 255
-0.3 -0.174 0.882 255 255 255
-0.279 -0.006 0.825 255 255 255
0.298 0.18 0.57 255 255 255
0.216 -0.342 0.744 255 255 255
0.358 -0.565 0.756 0 0 0
0.17 -0.1 0.691 255 255 255
-0.588 0.025 0.929 255 255 255
0.032 0.044 0.701 255 255 255
0.333 -0.306 0.692 255 255 255
0.312 -0.09 0.637 255 255 255
-0.205 -0.181 0.851 255 255 255
0.139 0.31 0.585 255 255 255
-0.471 -0.761 1.117 255 255 255
0.107 -0.208 0.748 255 255 255
-0.561 -0.173 0.98 255 255 255
-0.577 0.029 0.924 255 255 255
0.381 -0.465 0.718 255 255 255
-0.006 -0.119 0.763 255 255 255
0.176 0.206 0.6 255 255 255
-0.19 0.121 0.754 255 255 255
-0.107 0.268 0.685 0 0 0
-0.349 -0.444 0.98 255 255 255
-0.254 -0.12 0.851 0 0 0
0.271 0.133 0.585 255 255 255
0.015 0.049 0.704 255 255 255
-0.505 -0.221 0.973 255 255 255
-0.168 0.067 0.763 255 255 255
-0.33 -0.725 1.056 255 255 255
0.286 -0.075 0.642 255 255 255
-0.409 -0.417 0.993 0 0 0
0.359 -0.083 0.618 255 255 255
0.116 -0.193 0.74 255 255 255
0.093 -0.171 0.742 255 255 255
-0.124 -0.333 0.866 255 255 255
0.243 0.169 0.587 255 255 255
-0.014 -0.065 0.75 255 255 255
-0.203 -0.31 0.887 255 255 255
-0.215 -0.765 1.027 0 0 0
-0.689 -0.149 0.948 255 255 255
-0.084 0.19 0.697 0 0 0
0.225 -0.149 0.687 255 255 255
-0.172 0.358 0.684 255 255 255
-0.061 0.238 0.678 255 255 255
0.149 0.245 0.602 0 0 0
-0.407 0.062 0.851 255 255 255
0.144 0.197 0.615 255 255 255
-0.206 0.18 0.742 0 0 0
-0.125 0.236 0.699 0 0 0
-0.077 -0.144 0.795 255 255 255
-0.06 0.281 0.666 255 255 255
0.2 -0.047 0.665 255 255 255
0.034 0.103 0.683 0 0 0
-0.04 -0.706 0.944 0 0 0
0.161 -0.107 0.696 255 255 255
0.34 -0.017 0.606 0 0 0
-0.029 0.206 0.675 255 255 255
-0.169 -0.016 0.789 255 255 255
-0.058 -0.325 0.84 255 255 255
0.3 -0.432 0.739 255 255 255
-0.303 -0.149 0.876 255 255 255
-0.103 0.358 0.662 255 255 255
-0.159 -0.317 0.873 255 255 255
-0.03 0.073 0.715 255 255 255
-0.055 0.16 0.698 255 255 255
0.268 0.047 0.611 0 0 0
0.272 -0.287 0.708 255 255 255
-0.456 -0.127 0.925 255 255 255
0.358 -0.005 0.596 255 255 255
0.267 0.122 0.591 255 255 255
-0.58 -0.77 1.157 255 255 255
-0.386 -0.346 0.962 0 0 0
-0.056 0.054 0.731 255 255 255
-0.195 0.36 0.691 255 255 255
-0.086 0.192 0.698 0 0 0
0.004 -0.562 0.886 255 255 255
0.336 -0.038 0.615 255 255 255
0.081 0.024 0.69 0 0 0
-0.249 0.01 0.811 0 0 0
0.413 -0.252 0.647 255 255 255
0.055 -0.108 0.738 255 255 255
-0.173 -0.553 0.949 255 255 255
0.127 -0.131 0.718 255 255 255
-0.029 -0.093 0.764 255 255 255
-0.213 0.262 0.719 0 0 0
0.167 0.183 0.611 255 255 255
0.085 -0.424 0.817 255 255 255
0.186 0.092 0.628 255 255 255
0.227 -0.485 0.782 255 255 255
0.146 -0.301 0.76 255 255 255
-0.235 0.357 0.706 255 255 255
0.298 -0.397 0.73 255 255 255
0.047 0.139 0.668 255 255 255
0.262 -0.065 0.648 255 255 255
-0.36 -0.499 0.999 255 255 255
0.363 -0.379 0.7 255 255 255
0.01 -0.359 0.825 255 255 255
-0.122 0.048 0.75 255 255 255
0.254 -0.184 0.686 255 255 255
-0.237 0.207 0.745 255 255 255
-0.1 0.18 0.705 255 255 255
0.261 0.157 0.584 255 255 255
-0.184 0.239 0.719 255 255 255
-0.625 -0.277 1.033 255 255 255
0.243 -0.261 0.712 255 255 255
-0.043 0.264 0.66 255 255 255
0.023 -0.255 0.792 255 255 255
0.286 -0.234 0.688 255 255 255
-0.139 0.236 0.699 0 0 0
0.27 0.205 0.569 255 255 255
0.105 -0.301 0.774 255 255 255
-0.123 -0.029 0.777 255 255 255
-0.182 -0.702 0.995 255 255 255
0.149 0.171 0.621 255 255 255
0.352 -0.568 0.759 0 0 0
0.185 0.142 0.615 255 255 255
0.244 0.181 0.583 0 0 0
0.317 -0.576 0.774 0 0 0
0.243 -0.372 0.743 255 255 255
-0.008 -0.057 0.745 255 255 255
-0.27 -0.41 0.941 0 0 0
0.089 -0.231 0.76 255 255 255
0.301 -0.277 0.697 255 255 255
-0.129 -0.015 0.774 255 255 255
0.083 0.049 0.68 0 0 0
0.03 -0.147 0.757 255 255 255
0.17 -0.198 0.722 255 255 255
0.239 -0.472 0.773 255 255 255
0.17 -0.107 0.694 255 255 255
-0.298 0.012 0.826 255 255 255
0.313 -0.017 0.617 0 0 0
-0.095 0.015 0.755 255 255 255
-0.153 -0.015 0.783 255 255 255
-0.634 -0.004 0.951 255 255 255
-0.561 -0.736 1.139 255 255 255
0.255 -0.116 0.665 255 255 255
-0.096 0.275 0.676 255 255 255
0.061 0.305 0.616 255 255 255
-0.147 0.121 0.736 0 0 0
0.347 0.063 0.575 255 255 255
0.232 -0.473 0.776 255 255 255
0.231 0.104 0.609 255 255 255
-0.389 -0.69 1.067 255 255 255
-0.674 -0.144 0.973 255 255 255
-0.026 -0.07 0.755 255 255 255
-0.199 -0.258 0.872 0 0 0
-0.509 -0.134 0.948 255 255 255
-0.192 -0.6 0.969 255 255 255
0.114 0.244 0.608 255 255 255
-0.117 -0.035 0.775 255 255 255
-0.517 -0.234 0.981 255 255 255
0.287 0.064 0.6 255 255 255
0.059 -0.051 0.718 255 255 255
0.135 -0.207 0.736 255 255 255
-0.588 -0.114 0.972 255 255 255
0.104 -0.108 0.72 255 255 255
-0.495 -0.001 0.903 255 255 255
0.117 -0.613 0.862 255 255 255
0.087 0.225 0.627 255 255 255
-0.189 -0.242 0.863 255 255 255
0.015 0.119 0.688 255 255 255
-0.027 -0.078 0.759 255 255 255
0.412 -0.044 0.579 255 255 255
-0.026 0.281 0.654 255 255 255
-0.121 0.061 0.75 255 255 255
-0.61 -0.644 1.131 255 255 255
0.001 0.034 0.705 255 255 255
0.231 -0.09 0.666 255 255 255
0.116 0.214 0.62 255 255 255
0.27 -0.256 0.701 255 255 255
-0.08 -0.486 0.894 255 255 255
-0.161 -0.144 0.825 255 255 255
0.023 0.003 0.717 255 255 255
0.236 -0.113 0.671 255 255 255
-0.677 0.007 0.916 255 255 255
0.238 -0.248 0.71 255 255 255
-0.404 -0.593 1.043 255 255 255
0.242 0.002 0.636 0 0 0
0.189 -0.54 0.811 255 255 255
0.043 -0.165 0.757 255 255 255
-0.143 0.146 0.729 255 255 255
0.325 0.088 0.58 0 0 0
0.28 -0.093 0.649 255 255 255
0.159 -0.594 0.838 255 255 255
-0.047 -0.102 0.772 0 0 0
-0.197 -0.386 0.907 255 255 255
0.147 0.303 0.584 255 255 255
-0.007 0.261 0.654 255 255 255
-0.428 -0.334 0.977 255 255 255
0.34 -0.083 0.625 255 255 255
-0.335 -0.096 0.87 255 255 255
0.096 0.153 0.646 255 255 255
0.164 0.018 0.66 0 0 0
-0.353 -0.581 1.022 255 255 255
-0.364 -0.262 0.931 0 0 0
-0.09 0.246 0.682 255 255 255
0.045 -0.025 0.716 255 255 255
-0.344 -0.133 0.886 255 255 255
0.223 -0.423 0.766 255 255 255
0.205 -0.053 0.665 255 255 255
0.037 0.283 0.624 0 0 0
0.11 0.221 0.621 255 255 255
-0.117 0.107 0.732 0 0 0
0.295 0.109 0.584 255 255 255
-0.008 -0.195 0.785 255 255 255
-0.641 -0.554 1.116 255 255 255
0.323 -0.124 0.643 255 255 255
-0.055 -0.619 0.925 255 255 255
-0.419 -0.297 0.961 255 255 255
0.165 -0.159 0.712 255 255 255
0.103 0.007 0.685 255 255 255
0.199 -0.249 0.725 255 255 255
0.036 0.241 0.642 255 255 255
0.394 -0.27 0.658 255 255 255
-0.52 0.149 0.868 255 255 255
-0.027 -0.371 0.842 255 255 255
0.079 -0.386 0.807 255 255 255
0.135 0.293 0.593 255 255 255
-0.383 0.285 0.776 255 255 255
0.301 -0.119 0.65 255 255 255
-0.085 -0.243 0.826 255 255 255
-0.664 -0.077 0.968 255 255 255
-0.584 -0.843 1.177 255 255 255
0.26 0.225 0.564 255 255 255
-0.457 0.063 0.869 255 255 255
0.188 -0.057 0.673 255 255 255
-0.203 0.021 0.792 255 255 255
-0.302 -0.481 0.973 255 255 255
0.129 0.292 0.595 255 255 255
0.079 0.147 0.651 0 0 0
0.281 -0.112 0.653 255 255 255
0.206 0.057 0.628 0 0 0
-0.268 -0.635 1.006 255 255 255
-0.037 -0.017 0.745 255 255 255
-0.126 0.19 0.712 255 255 255
-0.073 -0.17 0.802 255 255 255
0.042 -0.313 0.8 255 255 255
0.425 -0.207 0.628 255 255 255
0.358 -0.099 0.622 255 255 255
-0.112 0.171 0.71 255 255 255
0.088 -0.338 0.79 255 255 255
-0.002 -0.373 0.833 255 255 255
0.085 0.207 0.633 255 255 255
-0.254 0.211 0.752 0 0 0
-0.13 0.138 0.727 255 255 255
0.289 0.124 0.582 255 255 255
0.108 -0.026 0.694 255 255 255
-0.103 -0.034 0.771 255 255 255
0.166 -0.143 0.706 255 255 255
-0.657 -0.388 1.071 255 255 255
-0.011 -0.155 0.774 255 255 255
-0.132 0.198 0.71 0 0 0
-0.673 -0.326 1.045 255 255 255
0.244 0.17 0.586 255 255 255
0.244 -0.408 0.753 255 255 255
0.318 -0.246 0.681 255 255 255
0.084 0.004 0.693 255 255 255
0.217 -0.061 0.664 255 255 255
0.249 0.151 0.591 0 0 0
0.118 0.042 0.67 255 255 255
-0.238 0.21 0.745 255 255 255
0.001 -0.083 0.75 255 255 255
0.33 -0.17 0.654 255 255 255
0.149 0.128 0.632 255 255 255
-0.494 0.034 0.892 255 255 255
0.05 -0.442 0.835 255 255 255
0.182 -0.009 0.659 255 255 255
-0.008 -0.089 0.755 255 255 255
-0.201 0.363 0.693 255 255 255
-0.607 -0.75 1.162 255 255 255
0.207 0.216 0.583 255 255 255
-0.406 0.221 0.804 255 255 255
-0.673 -0.303 1.035 255 255 255
0.269 -0.368 0.732 255 255 255
0.267 -0.452 0.757 255 255 255
0.294 -0.418 0.738 255 255 255
-0.124 -0.151 0.814 255 255 255
0.178 -0.046 0.674 255 255 255
-0.089 -0.361 0.862 255 255 255
0.079 0.178 0.644 255 255 255
-0.681 -0.1 0.945 255 255 255
-0.681 -0.253 1.001 255 255 255
0.133 -0.066 0.696 255 255 255
0.044 -0.604 0.884 255 255 255
-0.165 -0.357 0.887 255 255 255
-0.236 -0.143 0.85 0 0 0
0.333 -0.175 0.655 255 255 255
0.145 0.295 0.589 255 255 255
-0.2 -0.573 0.963 255 255 255
-0.168 0.37 0.677 255 255 255
-0.084 0.006 0.752 255 255 255
0.011 0.07 0.699 255 255 255
-0.266 0.241 0.747 0 0 0
-0.17 -0.489 0.928 255 255 255
0.321 -0.047 0.623 255 255 255
-0.379 -0.32 0.953 0 0 0
-0.111 0.115 0.731 255 255 255
-0.026 0.238 0.667 255 255 255
0.225 -0.612 0.82 0 0 0
-0.118 0.343 0.668 255 255 255
-0.372 0.116 0.824 0 0 0
-0.246 -0.445 0.942 255 255 255
0.303 -0.452 0.745 255 255 255
-0.401 -0.485 1.01 0 0 0
-0.629 -0.489 1.094 255 255 255
0.214 0.156 0.6 255 255 255
0.163 -0.241 0.737 255 255 255
0.047 0.168 0.66 255 255 255
-0.56 -0.326 1.023 255 255 255
0.169 0.029 0.652 255 255 255
-0.288 -0.487 0.969 255 255 255
0.405 -0.048 0.589 255 255 255
-0.455 0.092 0.859 255 255 255
-0.02 -0.209 0.793 255 255 255
0.149 0.091 0.643 255 255 255
-0.111 -0.046 0.779 255 255 255
0.047 0.132 0.669 255 255 255
0.215 -0.088 0.672 255 255 255
0.353 -0.119 0.63 255 255 255
0.36 -0.162 0.64 255 255 255
0.186 -0.066 0.674 255 255 255
-0.597 0.015 0.936 255 255 255
-0.124 -0.184 0.823 255 255 255
0.215 -0.559 0.807 255 255 255
-0.336 0.076 0.821 255 255 255
-0.2 0.217 0.73 255 255 255
-0.152 -0.345 0.878 255 255 255
-0.082 -0.327 0.849 255 255 255
0.091 0.212 0.63 255 255 255
-0.314 0.26 0.758 255 255 255
0.189 0.137 0.615 0 0 0
-0.092 0.119 0.72 255 255 255
-0.243 0.139 0.77 255 255 255
0.271 -0.267 0.703 255 255 255
-0.164 0.038 0.773 255 255 255
0.325 0.081 0.583 255 255 255
0.107 0.276 0.606 0 0 0
-0.29 0.113 0.795 255 255 255
0.233 0.189 0.585 255 255 255
-0.186 -0.093 0.818 255 255 255
0.414 -0.285 0.656 255 255 255
-0.263 -0.095 0.847 0 0 0
-0.068 0.195 0.69 255 255 255
-0.299 -0.077 0.853 255 255 255
-0.603 0.069 0.922 255 255 255
0.333 -0.06 0.621 255 255 255
-0.11 0.119 0.728 255 255 255
0.347 -0.309 0.686 255 255 255
0.219 -0.461 0.777 255 255 255
0.317 -0.142 0.651 255 255 255
-0.343 -0.457 0.981 255 255 255
-0.051 0.161 0.696 0 0 0
-0.37 0.212 0.794 0 0 0
-0.077 0.115 0.716 255 255 255
-0.399 0.069 0.846 255 255 255
0.339 0.052 0.584 255 255 255
-0.432 0.151 0.834 255 255 255
0.375 -0.245 0.658 255 255 255
-0.222 -0.048 0.817 0 0 0
0.096 -0.022 0.697 255 255 255
0.398 0.01 0.579 255 255 255
-0.632 0.043 0.938 255 255 255
-0.68 0.003 0.916 255 255 255
0.262 -0.106 0.659 255 255 255
-0.474 -0.207 0.957 255 255 255
-0.407 -0.584 1.041 255 255 255
0.235 0.152 0.595 255 255 255
0.356 -0.562 0.757 0 0 0
0.332 0.017 0.597 255 255 255
0.164 -0.179 0.718 255 255 255
-0.309 0.242 0.762 255 255 255
0.05 -0.333 0.803 255 255 255
-0.269 0.066 0.799 0 0 0
0.364 -0.083 0.616 255 255 255
-0.247 -0.194 0.87 0 0 0
-0.111 -0.4 0.879 255 255 255
-0.182 0.139 0.745 255 255 255
0.201 0.174 0.6 255 255 255
0.281 -0.241 0.693 255 255 255
-0.428 -0.173 0.929 255 255 255
0.141 -0.176 0.725 255 255 255
-0.177 0.015 0.782 255 255 255
-0.583 -0.02 0.942 255 255 255
-0.252 -0.276 0.895 0 0 0
-0.367 0.278 0.772 0 0 0
0.298 0.034 0.609 255 255 255
-0.687 -0.115 0.94 255 255 255
-0.293 -0.101 0.858 255 255 255
0.09 -0.157 0.739 255 255 255
0.23 0.202 0.583 255 255 255
0.268 -0.13 0.663 255 255 255
-0.397 -0.605 1.042 255 255 255
0.092 0.324 0.601 255 255 255
-0.134 -0.119 0.808 255 255 255
0.25 0.177 0.581 255 255 255
-0.045 -0.019 0.747 255 255 255
0.233 -0.373 0.747 255 255 255
0.225 0.07 0.622 255 255 255
-0.186 0.218 0.724 255 255 255
0.124 0.15 0.637 0 0 0
-0.575 -0.72 1.142 255 255 255
0.14 0.091 0.647 255 255 255
-0.285 0.017 0.821 255 255 255
-0.31 0.184 0.78 255 255 255
-0.088 0.084 0.731 255 255 255
-0.393 -0.512 1.015 0 0 0
0.281 -0.328 0.718 255 255 255
-0.305 -0.279 0.916 255 255 255
-0.541 -0.781 1.146 255 255 255
-0.41 -0.087 0.896 255 255 255
-0.055 0.253 0.67 255 255 255
0.325 -0.182 0.658 255 255 255
-0.258 -0.075 0.837 0 0 0
0.042 0.257 0.634 255 255 255
0.187 -0.645 0.843 255 255 255
0.068 -0.477 0.838 255 255 255
0.321 0.013 0.603 255 255 255
-0.21 0.095 0.77 255 255 255
0.089 0.032 0.684 255 255 255
0.02 0.105 0.687 255 255 255
-0.105 -0.067 0.783 255 255 255
-0.475 -0.059 0.912 255 255 255
-0.556 -0.89 1.183 255 255 255
0.237 0.064 0.62 255 255 255
-0.159 0.087 0.755 255 255 255
0.22 0.113 0.611 255 255 255
-0.081 0.128 0.714 255 255 255
0 -0.33 0.82 255 255 255
0.045 0.11 0.676 255 255 255
0.301 -0.23 0.681 255 255 255
-0.412 -0.048 0.885 255 255 255
0.195 0.159 0.607 255 255 255
0.161 0.01 0.67 255 255 255
-0.497 0.167 0.854 255 255 255
0.258 -0.002 0.629 0 0 0
0.058 -0.017 0.709 255 255 255
-0.306 0.27 0.753 255 255 255
-0.237 0.134 0.77 255 255 255
0.183 -0.229 0.725 255 255 255
-0.42 -0.349 0.977 255 255 255
0.065 -0.623 0.883 255 255 255
0.08 0.172 0.645 255 255 255
-0.425 0.143 0.834 255 255 255
-0.094 -0.109 0.791 255 255 255
0.178 -0.566 0.823 255 255 255
-0.443 0.124 0.846 255 255 255
0.015 -0.129 0.757 255 255 255
-0.038 0.211 0.676 255 255 255
0.039 -0.424 0.833 255 255 255
-0.606 -0.299 1.031 255 255 255
0.063 -0.635 0.885 255 255 255
-0.002 -0.375 0.833 255 255 255
-0.161 -0.011 0.785 255 255 255
-0.107 -0.217 0.827 255 255 255
0.417 -0.211 0.634 255 255 255
0.173 0.011 0.657 0 0 0
0 0.28 0.645 255 255 255
-0.005 -0.34 0.824 255 255 255
-0.238 0.364 0.705 255 255 255
-0.571 -0.643 1.118 255 255 255
-0.042 -0.479 0.879 255 255 255
0.019 -0.502 0.863 255 255 255
0.249 0.205 0.572 0 0 0
-0.182 -0.085 0.814 255 255 255
-0.062 -0.297 0.834 255 255 255
-0.474 0.19 0.838 255 255 255
0.107 -0.016 0.692 255 255 255
-0.466 -0.637 1.078 255 255 255
-0.006 0.054 0.71 255 255 255
-0.361 -0.01 0.855 255 255 255
-0.027 -0.032 0.744 255 255 255
0.078 0.04 0.685 255 255 255
-0.287 0.308 0.736 255 255 255
0.319 -0.072 0.629 255 255 255
-0.133 -0.076 0.794 255 255 255
0.34 -0.185 0.653 255 255 255
0.082 0.225 0.629 255 255 255
0.18 -0.321 0.752 255 255 255
-0.271 -0.357 0.926 0 0 0
-0.089 0.191 0.7 0 0 0
-0.462 -0.6 1.065 255 255 255
0.183 0.196 0.601 255 255 255
-0.698 -0.138 0.921 255 255 255
0.145 -0.651 0.86 0 0 0
0.098 -0.477 0.827 255 255 255
-0.062 -0.576 0.915 255 255 255
0.071 -0.322 0.793 255 255 255
0.073 -0.314 0.79 255 255 255
0.211 0.112 0.614 255 255 255
0.114 -0.25 0.755 255 255 255
0.34 -0.263 0.677 255 255 255
-0.294 0.343 0.73 0 0 0
-0.592 0.089 0.913 255 255 255
0.076 0.014 0.694 0 0 0
-0.128 0.108 0.738 255 255 255
0.07 0.163 0.65 0 0 0
0.344 0.031 0.587 255 255 255
-0.031 -0.004 0.739 255 255 255
0.136 0.321 0.583 255 255 255
-0.115 0.269 0.683 255 255 255
-0.417 -0.649 1.064 255 255 255
0.425 -0.072 0.592 255 255 255
-0.258 -0.149 0.861 0 0 0
0.328 -0.312 0.695 255 255 255
-0.481 -0.434 1.025 255 255 255
-0.464 -0.192 0.949 255 255 255
-0.111 -0.263 0.84 255 255 255
-0.483 -0.466 1.034 255 255 255
0.337 0.103 0.57 255 255 255
-0.174 -0.127 0.825 255 255 255
-0.365 0.153 0.809 0 0 0
0.128 0.293 0.595 255 255 255
-0.542 -0.231 0.99 255 255 255
-0.411 -0.365 0.98 255 255 255
-0.094 -0.007 0.761 255 255 255
0.336 -0.044 0.615 255 255 255
-0.149 -0.243 0.849 255 255 255
-0.671 -0.291 1.034 255 255 255
0.008 0.223 0.654 0 0 0
-0.006 -0.439 0.855 255 255 255
0.059 0.135 0.662 255 255 255
-0.083 -0.213 0.817 255 255 255
-0.456 -0.205 0.95 255 255 255
0.023 0.093 0.689 0 0 0
-0.288 0.276 0.745 255 255 255
0.3 -0.306 0.705 255 255 255
-0.667 -0.187 1.002 255 255 255
-0.161 -0.361 0.887 255 255 255
0.236 0.121 0.604 255 255 255
0.374 -0.149 0.631 255 255 255
0.216 -0.395 0.759 255 255 255
-0.419 -0.422 0.998 255 255 255
-0.449 -0.044 0.897 255 255 255
-0.365 -0.165 0.903 0 0 0
0.225 -0.163 0.691 255 255 255
-0.079 0.302 0.662 0 0 0
0.227 -0.251 0.715 255 255 255
-0.24 0.153 0.764 255 255 255
-0.032 -0.468 0.872 255 255 255
-0.103 0.282 0.677 255 255 255
0.111 -0.173 0.735 255 255 255
0.249 -0.255 0.708 255 255 255
-0.359 0.237 0.781 255 255 255
-0.664 -0.111 0.978 255 255 255
-0.604 -0.488 1.086 255 255 255
0.408 -0.255 0.647 255 255 255
0.24 0.181 0.584 0 0 0
0.14 0.19 0.62 255 255 255
-0.306 0.078 0.81 255 255 255
0.207 -0.047 0.663 255 255 255
-0.287 -0.425 0.952 255 255 255
0.231 -0.077 0.663 255 255 255
-0.581 -0.503 1.082 255 255 255
0.024 0.017 0.708 0 0 0
-0.195 0.332 0.694 0 0 0
0.19 0.084 0.628 0 0 0
0.098 0.298 0.605 255 255 255
-0.226 0.194 0.746 255 255 255
0.334 0.033 0.589 0 0 0
0.266 -0.066 0.647 255 255 255
-0.351 -0.42 0.973 255 255 255
0.288 -0.274 0.7 255 255 255
-0.467 -0.076 0.914 255 255 255
0.355 -0.086 0.62 255 255 255
0.169 -0.242 0.734 255 255 255
0.222 -0.094 0.671 255 255 255
-0.654 -0.351 1.06 255 255 255
-0.378 0.232 0.79 0 0 0
-0.098 -0.163 0.809 255 255 255
-0.189 0.045 0.778 255 255 255
0.159 0.175 0.617 255 255 255
0.342 -0.279 0.68 255 255 255
0.209 -0.02 0.654 255 255 255
0.003 0.295 0.64 0 0 0
-0.13 0.007 0.768 255 255 255
-0.208 0.239 0.726 0 0 0
0.137 -0.083 0.7 255 255 255
-0.253 0.128 0.777 255 255 255
-0.236 0.31 0.707 0 0 0
0.392 0.021 0.578 255 255 255
0.269 0.049 0.611 255 255 255
0.043 0.336 0.615 255 255 255
0.416 -0.13 0.61 255 255 255
0.114 0.227 0.618 255 255 255
0.247 0.003 0.63 255 255 255
0.4 -0.036 0.586 0 0 0
-0.246 0.277 0.722 0 0 0
0.172 0.188 0.608 255 255 255
0.147 -0.301 0.76 255 255 255
-0.019 0.185 0.677 255 255 255
-0.024 -0.001 0.735 255 255 255
-0.379 -0.39 0.974 0 0 0
-0.372 -0.062 0.875 0 0 0
0.083 0.329 0.602 255 255 255
0.149 0.121 0.635 255 255 255
0.006 -0.083 0.747 255 255 255
-0.28 -0.694 1.028 255 255 255
-0.07 0.012 0.748 255 255 255
-0.046 -0.338 0.838 255 255 255
-0.009 -0.112 0.762 255 255 255
0.114 0.042 0.671 255 255 255
0.208 -0.482 0.789 255 255 255
-0.49 -0.454 1.034 255 255 255
0.354 0 0.596 255 255 255
0.265 0.216 0.568 255 255 255
0.07 -0.365 0.805 255 255 255
-0.131 -0.202 0.832 255 255 255
0.295 -0.228 0.683 255 255 255
-0.188 0.35 0.69 255 255 255
-0.087 0.064 0.738 255 255 255
0.266 -0.048 0.643 255 255 255
0.122 -0.189 0.736 255 255 255
-0.386 0.208 0.802 0 0 0
0.078 0.24 0.626 255 255 255
-0.419 -0.253 0.949 255 255 255
-0.378 -0.271 0.938 0 0 0
-0.279 0.154 0.779 255 255 255
0.392 0.011 0.581 255 255 255
-0.61 -0.401 1.063 255 255 255
0.196 -0.076 0.674 255 255 255
-0.414 0 0.871 255 255 255
0.25 -0.33 0.729 255 255 255
-0.111 -0.201 0.824 255 255 255
-0.004 -0.428 0.85 255 255 255
-0.34 -0.108 0.877 255 255 255
0.285 -0.006 0.619 0 0 0
0.124 -0.112 0.713 255 255 255
-0.285 0.24 0.756 255 255 255
-0.15 -0.273 0.858 0 0 0
-0.174 0.33 0.69 0 0 0
0.225 0.251 0.571 255 255 255
0.057 0.275 0.625 255 255 255
0.059 0.225 0.637 0 0 0
0.108 0.305 0.598 255 255 255
0.261 -0.112 0.66 255 255 255
0.366 -0.077 0.614 255 255 255
0.056 0.317 0.614 255 255 255
0.155 0.02 0.662 0 0 0
0.011 0.074 0.698 255 255 255
-0.004 -0.585 0.895 255 255 255
0.092 -0.666 0.881 0 0 0
0.127 0.027 0.674 255 255 255
0.096 -0.617 0.869 255 255 255
0.275 0.095 0.599 255 255 255
-0.11 -0.669 0.959 255 255 255
0.093 -0.107 0.723 255 255 255
0.26 -0.296 0.716 255 255 255
-0.219 0.319 0.701 0 0 0
0.182 0.015 0.651 255 255 255
0.342 -0.01 0.604 0 0 0
-0.156 -0.594 0.954 255 255 255
-0.284 0.255 0.75 255 255 255
-0.199 -0.643 0.983 255 255 255
0.198 -0.541 0.808 255 255 255
-0.165 -0.171 0.834 255 255 255
0.428 -0.195 0.626 255 255 255
-0.669 -0.096 0.965 255 255 255
-0.013 -0.435 0.855 255 255 255
0.024 0.206 0.659 255 255 255
-0.299 0.184 0.776 255 255 255
0.143 -0.346 0.773 255 255 255
0.076 -0.114 0.732 255 255 255
0.292 -0.504 0.763 255 255 255
0.056 0.329 0.612 255 255 255
-0.549 -0.96 1.196 255 255 255
0.098 0.176 0.638 255 255 255
-0.139 0.13 0.734 255 255 255
0.063 -0.001 0.703 255 255 255
-0.526 0.024 0.906 255 255 255
0.306 0.053 0.593 255 255 255
-0.31 -0.259 0.911 255 255 255
-0.418 0.079 0.85 255 255 255
-0.677 -0.396 1.063 255 255 255
-0.14 0.008 0.771 255 255 255
-0.683 -0.082 0.933 255 255 255
-0.115 0.124 0.728 255 255 255
-0.422 -0.043 0.888 255 255 255
-0.23 0.284 0.718 255 255 255
-0.245 -0.398 0.928 0 0 0
0.388 -0.028 0.593 0 0 0
0.201 0.117 0.616 255 255 255
0.249 0.053 0.615 0 0 0
0.241 -0.129 0.674 255 255 255
0.11 0.092 0.658 255 255 255
0.219 -0.472 0.781 255 255 255
0.261 -0.013 0.633 0 0 0
-0.134 -0.596 0.947 255 255 255
-0.049 0.224 0.683 255 255 255
0.175 -0.417 0.782 255 255 255
0.434 -0.206 0.624 255 255 255
0.005 -0.257 0.799 255 255 255
-0.489 -0.094 0.928 255 255 255
-0.135 -0.502 0.919 255 255 255
-0.12 0.111 0.731 255 255 255
0.42 -0.075 0.595 255 255 255
0.358 -0.281 0.676 255 255 255
-0.369 0.287 0.771 255 255 255
0.105 0.132 0.648 0 0 0
-0.052 -0.048 0.758 0 0 0
0.046 -0.047 0.722 255 255 255
0.058 -0.272 0.783 255 255 255
-0.319 -0.199 0.898 255 255 255
0.211 0.274 0.566 255 255 255
0.202 -0.148 0.694 255 255 255
0.412 -0.112 0.606 255 255 255
-0.316 0.278 0.754 255 255 255
-0.639 -0.345 1.055 255 255 255
0.187 0.189 0.6 255 255 255
-0.26 -0.182 0.871 0 0 0
0.054 -0.229 0.773 255 255 255
0.401 0.007 0.579 255 255 255
0.083 0.124 0.657 0 0 0
-0.101 0.073 0.739 255 255 255
-0.144 -0.367 0.882 255 255 255
0.308 -0.27 0.692 255 255 255
-0.338 -0.291 0.931 255 255 255
-0.022 0.252 0.661 255 255 255
-0.421 -0.024 0.882 255 255 255
-0.276 -0.621 1.004 255 255 255
-0.368 -0.26 0.931 0 0 0
-0.166 -0.494 0.928 255 255 255
0.28 -0.283 0.705 255 255 255
-0.227 -0.098 0.834 0 0 0
-0.183 -0.06 0.807 255 255 255
-0.108 -0.032 0.772 255 255 255
0.014 0.045 0.708 255 255 255
-0.485 -0.392 1.015 255 255 255
-0.021 0.125 0.697 255 255 255
0.105 0.137 0.647 255 255 255
0.123 0.176 0.63 255 255 255
-0.053 -0.22 0.809 0 0 0
0.031 -0.121 0.749 255 255 255
-0.016 -0.18 0.784 255 255 255
0.037 -0.004 0.714 255 255 255
-0.086 -0.004 0.756 255 255 255
0.188 -0.394 0.77 255 255 255
0.091 0.134 0.652 255 255 255
-0.095 0.266 0.677 255 255 255
0.198 -0.179 0.706 255 255 255
0.05 0.016 0.702 255 255 255
0.079 0.032 0.686 255 255 255
-0.024 -0.197 0.791 255 255 255
-0.213 -0.2 0.86 0 0 0
0.165 -0.104 0.694 255 255 255
0.41 -0.293 0.656 255 255 255
0.301 0.173 0.57 255 255 255
-0.053 0.334 0.649 255 255 255
0.299 -0.573 0.781 0 0 0
-0.627 -0.717 1.156 255 255 255
0.318 -0.073 0.63 255 255 255
-0.353 -0.142 0.891 255 255 255
-0.075 -0.135 0.792 255 255 255
-0.64 -0.399 1.071 255 255 255
-0.491 -0.292 0.989 255 255 255
-0.559 -0.607 1.103 255 255 255
0.31 0.049 0.593 255 255 255
-0.014 0.194 0.673 255 255 255
-0.662 -0.074 0.969 255 255 255
0.108 -0.185 0.739 255 255 255
0.235 -0.008 0.644 255 255 255
0.158 -0.256 0.742 255 255 255
-0.313 -0.138 0.877 255 255 255
0.221 -0.15 0.688 255 255 255
0.277 -0.093 0.651 255 255 255
-0.132 0.285 0.69 255 255 255
0.066 0.036 0.688 255 255 255
0.281 0.015 0.617 0 0 0
0.072 -0.229 0.766 255 255 255
-0.202 0.234 0.726 255 255 255
-0.313 -0.753 1.058 255 255 255
-0.275 -0.008 0.824 255 255 255
-0.082 -0.224 0.821 255 255 255
-0.32 0.084 0.813 255 255 255
-0.066 0.114 0.714 255 255 255
-0.121 -0.25 0.841 255 255 255
-0.097 0.012 0.755 255 255 255
0.187 0.236 0.589 255 255 255
-0.174 -0.101 0.817 255 255 255
0.211 0.199 0.588 0 0 0
-0.187 -0.121 0.826 255 255 255
0.118 0.313 0.593 255 255 255
-0.372 -0.539 1.016 255 255 255
-0.238 -0.411 0.929 255 255 255
0.363 -0.134 0.631 255 255 255
0.008 -0.011 0.727 255 255 255
-0.287 0.129 0.79 255 255 255
0.335 -0.243 0.673 255 255 255
0.232 -0.057 0.656 255 255 255
-0.233 0.261 0.726 255 255 255
0.308 -0.6 0.786 255 255 255
-0.027 0.117 0.7 255 255 255
-0.122 0.241 0.696 255 255 255
0.157 -0.135 0.706 255 255 255
-0.392 -0.063 0.881 0 0 0
-0.702 -0.189 0.937 255 255 255
-0.561 0.121 0.893 255 255 255
0.203 0.043 0.633 0 0 0
0.018 -0.326 0.813 255 255 255
0.102 -0.002 0.689 255 255 255
-0.229 -0.099 0.835 0 0 0
-0.476 0.02 0.889 255 255 255
-0.246 0.088 0.786 255 255 255
-0.037 0.024 0.733 255 255 255
-0.064 0.356 0.65 255 255 255
-0.263 -0.278 0.9 0 0 0
0.229 0.146 0.598 255 255 255
-0.048 -0.301 0.83 255 255 255
-0.115 -0.062 0.783 255 255 255
0.126 -0.353 0.781 255 255 255
0.124 -0.36 0.784 255 255 255
-0.185 -0.043 0.802 255 255 255
0.328 0.015 0.599 255 255 255
0.081 -0.252 0.769 255 255 255
-0.428 -0.377 0.99 255 255 255
0.348 0.069 0.574 255 255 255
-0.489 -0.069 0.92 255 255 255
0.194 -0.071 0.674 255 255 255
-0.249 0.129 0.775 255 255 255
-0.257 0.204 0.756 0 0 0
0.263 -0.286 0.712 255 255 255
0.033 0.253 0.637 255 255 255
0.149 -0.099 0.7 255 255 255
0.177 -0.281 0.743 255 255 255
-0.115 -0.245 0.836 255 255 255
0.295 0.084 0.59 255 255 255
-0.598 -0.683 1.138 255 255 255
0.031 0.131 0.676 0 0 0
-0.02 0.063 0.715 255 255 255
0.203 0.123 0.614 255 255 255
0.289 0.133 0.58 255 255 255
-0.029 -0.08 0.76 255 255 255
-0.064 -0.156 0.793 0 0 0
0.36 -0.438 0.717 255 255 255
0.397 -0.001 0.581 255 255 255
-0.18 -0.186 0.844 255 255 255
0.144 0.317 0.583 255 255 255
0.24 -0.054 0.654 255 255 255
-0.061 -0.416 0.867 255 255 255
0.202 -0.214 0.714 255 255 255
-0.503 -0.502 1.052 255 255 255
0.071 0.241 0.63 255 255 255
0.255 0.18 0.583 255 255 255
0.237 0.189 0.584 255 255 255
0.154 0.118 0.631 255 255 255
-0.392 0.135 0.825 0 0 0
-0.173 0.018 0.78 255 255 255
0.396 -0.391 0.69 255 255 255
-0.01 -0.017 0.734 255 255 255
0.307 -0.551 0.771 255 255 255
0.171 -0.219 0.727 255 255 255
-0.498 -0.22 0.97 255 255 255
0.365 0.062 0.571 0 0 0
-0.066 0.008 0.747 255 255 255
0.034 -0.027 0.72 255 255 255
-0.21 -0.121 0.836 0 0 0
0.168 0.015 0.662 255 255 255
-0.037 -0.156 0.785 255 255 255
0.32 -0.052 0.624 255 255 255
-0.322 0.05 0.825 255 255 255
0.274 -0.125 0.659 255 255 255
-0.272 0.197 0.762 255 255 255
-0.113 -0.018 0.77 255 255 255
-0.637 0.001 0.951 255 255 255
-0.42 -0.047 0.888 255 255 255
-0.121 0.065 0.751 255 255 255
0.08 0.11 0.662 255 255 255
-0.358 0.013 0.848 255 255 255
0.16 -0.097 0.695 255 255 255
0.358 -0.021 0.6 0 0 0
0.131 0.305 0.589 255 255 255
-0.006 -0.387 0.838 255 255 255
0.159 0.196 0.609 255 255 255
-0.463 -0.336 0.989 255 255 255
-0.012 -0.506 0.877 255 255 255
-0.641 -0.015 0.957 255 255 255
-0.069 -0.563 0.914 255 255 255
0.193 0.023 0.643 255 255 255
0.023 -0.27 0.795 255 255 255
0.246 -0.126 0.671 255 255 255
-0.093 -0.642 0.945 255 255 255
0.208 -0.06 0.665 255 255 255
-0.021 -0.04 0.746 255 255 255
-0.169 0.235 0.714 255 255 255
0.308 -0.155 0.658 255 255 255
-0.029 -0.575 0.903 255 255 255
-0.424 -0.226 0.942 255 255 255
0.234 0.199 0.582 255 255 255
-0.688 -0.117 0.934 255 255 255
0.374 -0.339 0.685 255 255 255
-0.193 0.231 0.724 255 255 255
-0.007 0.229 0.663 255 255 255
-0.368 -0.234 0.925 0 0 0
-0.554 -0.884 1.18 255 255 255
0.007 -0.12 0.758 255 255 255
0.032 -0.24 0.783 255 255 255
0.257 -0.604 0.807 0 0 0
0.321 -0.533 0.762 255 255 255
0.202 -0.106 0.682 255 255 255
-0.115 0.13 0.726 255 255 255
-0.091 -0.289 0.842 255 255 255
0.289 0.096 0.589 255 255 255
0.358 -0.002 0.595 255 255 255
-0.128 -0.693 0.974 255 255 255
0.125 -0.574 0.845 255 255 255
0.019 0.161 0.672 255 255 255
0.24 -0.013 0.643 255 255 255
0.26 0.089 0.599 0 0 0
0.116 0.166 0.635 255 255 255
-0.293 -0.445 0.96 255 255 255
-0.603 -0.923 1.207 255 255 255
-0.32 -0.486 0.98 255 255 255
0.123 -0.231 0.748 255 255 255
-0.407 0.11 0.838 255 255 255
0.187 0.123 0.619 255 255 255
0.366 -0.241 0.66 255 255 255
0.256 -0.26 0.707 255 255 255
0.328 -0.191 0.662 255 255 255
0.135 0.124 0.639 0 0 0
0.011 -0.53 0.874 255 255 255
0.341 -0.032 0.61 255 255 255
0.33 -0.012 0.61 0 0 0
-0.612 -0.356 1.05 255 255 255
-0.155 0.179 0.725 0 0 0
0.393 -0.017 0.584 0 0 0
-0.141 0.174 0.723 255 255 255
-0.116 -0.198 0.825 255 255 255
-0.538 0.078 0.895 255 255 255
0.242 -0.234 0.705 255 255 255
-0.566 -0.671 1.125 255 255 255
-0.003 0.331 0.633 255 255 255
-0.069 0.139 0.707 255 255 255
0.261 0.151 0.588 255 255 255
-0.579 -0.827 1.17 255 255 255
0.181 0.116 0.624 255 255 255
-0.635 -0.717 1.159 255 255 255
0.397 -0.014 0.583 0 0 0
0.101 0.054 0.673 0 0 0
-0.163 -0.14 0.825 255 255 255
0.17 0.111 0.628 255 255 255
0.322 -0.076 0.629 255 255 255
0.03 -0.426 0.837 255 255 255
-0.285 0.214 0.762 255 255 255
