ply
format ascii 1.0
comment Created by Open3D
element vertex 1613
property double x
property double y
property double z
property uchar red
property uchar green
property uchar blue
end_header
-0.313 -0.718 0.936 255 255 255
0.186 0.167 0.598 255 255 255
0.025 0.004 0.675 255 255 255
-0.19 -0.171 0.763 255 255 255
-0.011 0.003 0.681 0 0 0
-0.065 0.014 0.691 0 0 0
0.053 0.203 0.615 255 255 255
-0.09 -0.362 0.796 255 255 255
-0.204 0.207 0.663 255 255 255
0.215 -0.348 0.732 255 255 255
0.293 0.149 0.583 255 255 255
0.226 -0.065 0.655 255 255 255
-0.231 -0.07 0.743 255 255 255
0.047 -0.021 0.675 255 255 255
0.219 -0.258 0.708 255 255 255
-0.115 0.134 0.666 0 0 0
-0.257 -0.222 0.788 255 255 255
-0.187 -0.407 0.826 255 255 255
0.084 -0.201 0.719 255 255 255
0.186 0.293 0.566 255 255 255
-0.07 0.266 0.622 255 255 255
0.13 0.183 0.603 255 255 255
0.123 -0.363 0.754 255 255 255
-0.328 -0.549 0.892 255 255 255
-0.027 -0.165 0.732 255 255 255
0.035 0.036 0.663 255 255 255
0.109 0.13 0.624 0 0 0
-0.514 0.011 0.771 255 255 255
-0.229 -0.201 0.779 255 255 255
-0.207 -0.23 0.782 0 0 0
-0.137 -0.056 0.721 255 255 255
-0.148 -0.318 0.795 255 255 255
-0.371 -0.58 0.909 255 255 255
-0.352 -0.249 0.813 255 255 255
0.197 -0.19 0.695 255 255 255
0.351 0.053 0.599 255 255 255
-0.243 0.267 0.652 255 255 255
-0.402 -0.103 0.783 0 0 0
-0.21 -0.479 0.85 255 255 255
0.152 -0.396 0.757 255 255 255
0.349 -0.117 0.646 255 255 255
0.271 0.062 0.61 255 255 255
0.143 0.012 0.651 0 0 0
0.291 0.103 0.592 255 255 255
-0.052 0.242 0.626 0 0 0
-0.249 -0.287 0.805 255 255 255
0.327 -0.56 0.769 0 0 0
0.123 -0.445 0.777 255 255 255
-0.097 0.214 0.641 255 255 255
0.168 -0.164 0.692 255 255 255
-0.217 0.009 0.716 0 0 0
-0.586 -0.046 0.798 255 255 255
-0.311 0.107 0.707 255 255 255
-0.112 0.206 0.644 255 255 255
-0.139 0.05 0.69 255 255 255
-0.118 -0.458 0.827 255 255 255
0.019 0.178 0.628 255 255 255
0.236 0.112 0.602 255 255 255
0.158 -0.076 0.67 255 255 255
0.195 0.178 0.592 0 0 0
-0.029 -0.199 0.742 255 255 255
-0.112 0.299 0.623 255 255 255
0.065 0.122 0.635 255 255 255
-0.492 -0.58 0.93 255 255 255
0.116 0.061 0.641 0 0 0
-0.116 0.088 0.678 255 255 255
0.397 -0.298 0.684 255 255 255
-0.169 0.239 0.647 255 255 255
-0.265 0.165 0.682 255 255 255
-0.176 0.036 0.704 255 255 255
0.158 0.143 0.611 255 255 255
0.006 0.168 0.633 0 0 0
0.156 -0.405 0.759 255 255 255
0.434 -0.043 0.61 255 255 255
-0.421 -0.43 0.877 0 0 0
-0.321 0.09 0.711 255 255 255
0.07 -0.33 0.756 255 255 255
0.194 -0.026 0.65 255 255 255
-0.396 -0.258 0.825 0 0 0
0.075 0.085 0.642 255 255 255
0.258 0.184 0.58 255 255 255
-0.103 0.15 0.658 255 255 255
0.211 0.036 0.627 0 0 0
-0.092 0.151 0.657 255 255 255
-0.229 0.019 0.714 255 255 255
0.159 0.19 0.598 255 255 255
-0.074 -0.592 0.854 255 255 255
-0.279 0.053 0.717 255 255 255
-0.179 -0.276 0.788 255 255 255
-0.312 0.254 0.671 255 255 255
0.131 -0.138 0.694 255 255 255
0.224 0.033 0.626 255 255 255
0.255 0.248 0.567 255 255 255
-0.039 -0.151 0.731 255 255 255
0.049 -0.018 0.674 255 255 255
-0.263 0.033 0.719 255 255 255
-0.474 -0.703 0.961 0 0 0
0.127 0.119 0.622 255 255 255
-0.042 -0.5 0.824 255 255 255
-0.288 -0.065 0.75 255 255 255
-0.328 0.2 0.686 255 255 255
0.116 0.068 0.638 0 0 0
-0.253 -0.125 0.762 255 255 255
0.028 0.041 0.664 0 0 0
0.041 -0.552 0.822 255 255 255
0.343 -0.338 0.707 255 255 255
-0.036 -0.164 0.734 255 255 255
0.055 0.264 0.597 255 255 255
0.054 0.076 0.649 255 255 255
0.128 -0.062 0.674 255 255 255
-0.362 0.063 0.73 255 255 255
0.025 0.237 0.611 0 0 0
-0.139 0.334 0.619 255 255 255
0.107 0.292 0.583 255 255 255
0.254 0.149 0.586 0 0 0
-0.2 -0.18 0.768 0 0 0
0.019 0.239 0.611 0 0 0
-0.302 -0.021 0.743 255 255 255
-0.392 -0.182 0.802 0 0 0
0.233 0.069 0.614 255 255 255
-0.485 0.075 0.748 255 255 255
-0.438 0.082 0.738 255 255 255
-0.28 -0.436 0.852 255 255 255
-0.143 -0.141 0.747 255 255 255
0.316 -0.106 0.649 255 255 255
-0.435 0.043 0.748 255 255 255
-0.327 -0.291 0.82 0 0 0
-0.034 0.182 0.637 255 255 255
0 -0.465 0.806 255 255 255
0.314 -0.064 0.639 255 255 255
-0.296 -0.28 0.812 255 255 255
0.139 0.124 0.619 255 255 255
0.02 0.024 0.671 0 0 0
0.045 -0.053 0.687 255 255 255
0.023 0.194 0.623 255 255 255
-0.065 -0.138 0.73 255 255 255
-0.398 0.005 0.754 0 0 0
-0.284 -0.04 0.744 255 255 255
-0.091 -0.005 0.698 255 255 255
-0.195 -0.575 0.873 255 255 255
-0.035 0.21 0.629 0 0 0
0.023 0.168 0.63 255 255 255
0.027 -0.216 0.734 255 255 255
0.12 -0.002 0.657 0 0 0
0.292 -0.331 0.714 255 255 255
0.39 -0.04 0.617 255 255 255
-0.063 0.243 0.625 255 255 255
0.251 -0.022 0.637 0 0 0
0.082 -0.563 0.818 255 255 255
-0.018 -0.136 0.723 255 255 255
-0.352 -0.359 0.844 255 255 255
0.213 0.155 0.594 255 255 255
-0.214 0.132 0.684 255 255 255
-0.311 0.122 0.706 255 255 255
-0.134 0.131 0.669 0 0 0
0.195 0.271 0.569 0 0 0
-0.256 0.099 0.697 255 255 255
0.142 -0.311 0.738 255 255 255
0.131 0.025 0.649 0 0 0
-0.207 0.305 0.637 0 0 0
-0.224 -0.129 0.758 255 255 255
0.35 -0.235 0.678 255 255 255
-0.32 -0.39 0.847 255 255 255
-0.46 -0.352 0.861 255 255 255
-0.472 0.004 0.767 255 255 255
0.374 0.081 0.589 255 255 255
-0.207 -0.52 0.861 255 255 255
0.151 -0.522 0.792 255 255 255
0.128 -0.024 0.662 0 0 0
-0.042 0.274 0.615 0 0 0
0.434 -0.019 0.603 255 255 255
0.32 -0.037 0.615 0 0 0
0.404 -0.048 0.618 255 255 255
-0.332 0.231 0.677 255 255 255
0.087 0.093 0.638 255 255 255
0.219 -0.153 0.679 255 255 255
-0.357 -0.313 0.832 255 255 255
0.154 -0.242 0.717 255 255 255
-0.407 -0.375 0.859 0 0 0
-0.353 -0.203 0.801 255 255 255
0.125 0.239 0.592 0 0 0
0.112 0.273 0.585 0 0 0
-0.223 0.112 0.69 255 255 255
0.033 0.113 0.643 255 255 255
0.257 -0.304 0.713 255 255 255
0.175 -0.31 0.731 255 255 255
0.408 -0.07 0.623 0 0 0
-0.26 0.081 0.704 255 255 255
-0.124 -0.223 0.764 255 255 255
-0.366 -0.369 0.849 255 255 255
-0.042 -0.183 0.741 255 255 255
0.092 -0.244 0.729 255 255 255
-0.144 -0.136 0.746 255 255 255
-0.07 -0.293 0.774 255 255 255
-0.318 -0.003 0.741 255 255 255
-0.303 -0.235 0.802 255 255 255
0.162 0.172 0.607 0 0 0
0.204 -0.074 0.661 255 255 255
-0.001 0.284 0.607 0 0 0
0.271 0.074 0.605 255 255 255
-0.309 0.136 0.706 255 255 255
-0.442 -0.767 0.973 255 255 255
0.102 0.238 0.597 255 255 255
0.448 -0.085 0.618 255 255 255
0.148 -0.254 0.72 255 255 255
0.1 0.174 0.614 255 255 255
-0.174 -0.102 0.742 255 255 255
-0.254 0.069 0.707 255 255 255
-0.41 -0.196 0.809 0 0 0
-0.202 0.214 0.66 255 255 255
0.393 -0.057 0.621 255 255 255
-0.103 -0.27 0.774 255 255 255
0.083 0.208 0.604 255 255 255
-0.403 -0.316 0.841 0 0 0
0.135 0.312 0.572 255 255 255
0.206 0.004 0.638 255 255 255
0.424 -0.07 0.62 255 255 255
-0.547 -0.108 0.809 0 0 0
0.388 -0.09 0.63 255 255 255
-0.152 -0.213 0.766 255 255 255
-0.235 0.129 0.688 255 255 255
-0.37 -0.087 0.772 0 0 0
-0.475 -0.285 0.847 255 255 255
-0.606 -0.196 0.844 255 255 255
0.267 -0.054 0.645 255 255 255
-0.141 -0.247 0.774 255 255 255
-0.086 -0.317 0.783 255 255 255
-0.39 0.05 0.742 0 0 0
0.105 -0.452 0.783 255 255 255
-0.189 0.305 0.633 255 255 255
-0.102 -0.081 0.722 255 255 255
0.135 -0.465 0.78 255 255 255
-0.591 -0.04 0.799 255 255 255
-0.294 -0.173 0.782 255 255 255
-0.565 -0.014 0.787 255 255 255
-0.393 -0.036 0.763 0 0 0
0.36 -0.329 0.701 255 255 255
0.095 0.171 0.616 255 255 255
0.169 -0.339 0.74 255 255 255
0.158 -0.156 0.693 255 255 255
0.301 -0.061 0.639 255 255 255
-0.193 0.062 0.699 255 255 255
-0.016 0.257 0.615 255 255 255
0.16 0.185 0.599 0 0 0
0.124 0.101 0.631 0 0 0
0.124 0.072 0.642 0 0 0
0.417 -0.214 0.659 255 255 255
-0.072 0.007 0.692 255 255 255
0.392 -0.057 0.621 255 255 255
0.231 0.178 0.587 0 0 0
-0.249 -0.038 0.737 255 255 255
-0.122 0.128 0.668 0 0 0
-0.158 -0.175 0.757 255 255 255
-0.036 -0.541 0.834 255 255 255
-0.25 -0.248 0.794 255 255 255
0.038 -0.201 0.728 255 255 255
0.214 0.203 0.583 255 255 255
-0.312 0.007 0.738 255 255 255
0.379 -0.079 0.63 255 255 255
-0.461 -0.622 0.936 255 255 255
0.286 0.064 0.606 255 255 255
-0.025 0.216 0.625 255 255 255
-0.36 0.046 0.734 0 0 0
-0.003 0.055 0.668 255 255 255
-0.017 -0.041 0.695 255 255 255
0.309 -0.23 0.684 255 255 255
-0.337 -0.245 0.809 255 255 255
0.023 0.108 0.646 255 255 255
0.412 -0.273 0.672 255 255 255
-0.271 0.242 0.667 255 255 255
-0.233 -0.218 0.784 255 255 255
-0.221 0.116 0.689 255 255 255
-0.54 -0.387 0.886 255 255 255
-0.172 -0.003 0.713 255 255 255
-0.257 -0.058 0.743 255 255 255
0.099 -0.193 0.715 255 255 255
0.339 -0.129 0.651 255 255 255
-0.365 -0.014 0.753 0 0 0
-0.227 -0.095 0.749 255 255 255
-0.026 -0.109 0.716 255 255 255
-0.246 -0.122 0.76 255 255 255
0.416 -0.002 0.603 255 255 255
-0.252 0.337 0.638 255 255 255
-0.57 -0.096 0.811 255 255 255
0.118 -0.157 0.701 255 255 255
-0.375 0.155 0.707 0 0 0
0.259 -0.349 0.725 255 255 255
0.118 -0.424 0.773 255 255 255
-0.026 0.046 0.674 255 255 255
0.272 0.213 0.571 255 255 255
0.15 -0.284 0.728 255 255 255
-0.287 -0.306 0.817 0 0 0
-0.465 -0.142 0.805 255 255 255
0.011 0.195 0.626 255 255 255
-0.153 0.289 0.632 0 0 0
0.327 -0.379 0.721 255 255 255
0.102 -0.139 0.7 255 255 255
-0.386 -0.729 0.951 255 255 255
0.101 -0.413 0.773 255 255 255
0.387 -0.004 0.61 255 255 255
-0.078 0.239 0.631 255 255 255
-0.417 0.086 0.732 0 0 0
0.322 -0.479 0.747 255 255 255
0.073 0.142 0.629 255 255 255
0.384 -0.221 0.667 255 255 255
-0.274 -0.157 0.775 255 255 255
-0.026 0.249 0.619 255 255 255
-0.114 -0.018 0.707 255 255 255
0.163 -0.511 0.788 255 255 255
0.145 0.273 0.581 0 0 0
0.368 -0.207 0.667 255 255 255
0.251 0.082 0.607 0 0 0
0.121 -0.021 0.665 0 0 0
0.137 0.083 0.63 0 0 0
0.303 -0.131 0.657 255 255 255
-0.168 0.284 0.636 0 0 0
0.159 -0.122 0.683 255 255 255
0.272 0.106 0.595 255 255 255
-0.056 -0.328 0.78 255 255 255
0.142 -0.241 0.719 255 255 255
0.047 0.175 0.626 0 0 0
-0.274 0.083 0.703 255 255 255
-0.512 -0.028 0.781 255 255 255
0.36 -0.62 0.778 255 255 255
0.246 0.18 0.581 255 255 255
0.2 0.12 0.605 0 0 0
-0.265 -0.631 0.902 255 255 255
0.099 -0.333 0.751 255 255 255
-0.152 -0.171 0.756 255 255 255
0.124 0.108 0.629 0 0 0
0.401 -0.238 0.668 255 255 255
0.243 0.009 0.631 255 255 255
0.246 -0.054 0.648 255 255 255
-0.104 0.027 0.692 255 255 255
-0.452 -0.233 0.827 255 255 255
-0.136 -0.495 0.84 255 255 255
0.222 0.187 0.585 255 255 255
0.04 -0.287 0.751 255 255 255
-0.275 -0.041 0.743 255 255 255
0.407 -0.345 0.692 255 255 255
-0.017 0.062 0.668 255 255 255
0.194 -0.471 0.771 255 255 255
-0.046 -0.438 0.807 255 255 255
-0.127 -0.114 0.736 255 255 255
0.094 0.05 0.651 255 255 255
-0.151 -0.054 0.723 255 255 255
-0.196 0.217 0.657 255 255 255
-0.021 0.194 0.63 255 255 255
-0.321 0.008 0.739 255 255 255
-0.126 0.081 0.686 0 0 0
-0.546 -0.244 0.848 0 0 0
-0.238 0.197 0.671 255 255 255
-0.054 0.237 0.627 0 0 0
0.135 -0.177 0.703 255 255 255
0.394 -0.071 0.624 255 255 255
-0.287 -0.419 0.848 255 255 255
-0.342 -0.739 0.946 255 255 255
-0.017 0.209 0.627 255 255 255
0.125 -0.55 0.806 255 255 255
0.182 -0.237 0.71 255 255 255
0.062 -0.046 0.681 255 255 255
0.232 0.078 0.613 255 255 255
0.085 -0.193 0.717 255 255 255
0.076 -0.166 0.712 255 255 255
-0.059 0.156 0.649 0 0 0
-0.079 0.123 0.661 255 255 255
-0.016 -0.28 0.76 255 255 255
-0.037 -0.089 0.711 255 255 255
-0.493 -0.158 0.812 255 255 255
-0.229 -0.128 0.759 255 255 255
0.163 -0.059 0.665 255 255 255
-0.32 0.181 0.69 255 255 255
-0.215 -0.085 0.742 255 255 255
-0.089 0.262 0.625 255 255 255
-0.166 -0.308 0.795 255 255 255
-0.278 -0.209 0.789 255 255 255
0.255 -0.189 0.682 255 255 255
0.435 -0.13 0.63 255 255 255
0.242 0.244 0.567 255 255 255
-0.162 0.313 0.627 255 255 255
-0.52 -0.405 0.889 255 255 255
-0.246 0.11 0.694 255 255 255
0.101 0.311 0.577 255 255 255
0.302 -0.053 0.638 255 255 255
0.214 -0.291 0.718 255 255 255
-0.198 0.143 0.677 255 255 255
0.069 -0.343 0.761 255 255 255
0.181 -0.389 0.75 255 255 255
-0.265 -0.169 0.777 255 255 255
-0.481 0.031 0.76 255 255 255
-0.456 -0.013 0.768 255 255 255
0.023 -0.399 0.784 255 255 255
0.085 -0.197 0.719 255 255 255
0.407 -0.217 0.661 255 255 255
-0.131 -0.177 0.754 255 255 255
0.131 0.1 0.629 0 0 0
0.063 -0.118 0.7 255 255 255
0.344 -0.461 0.739 255 255 255
-0.099 -0.116 0.731 255 255 255
-0.12 0.219 0.64 255 255 255
0.089 -0.035 0.673 255 255 255
0.117 -0.197 0.712 255 255 255
-0.135 -0.185 0.756 255 255 255
0.015 0.283 0.604 0 0 0
-0.027 -0.004 0.687 255 255 255
-0.142 -0.278 0.783 255 255 255
-0.088 -0.216 0.756 255 255 255
0.175 0.249 0.575 255 255 255
-0.132 -0.318 0.791 255 255 255
0.228 -0.185 0.687 255 255 255
-0.069 0.183 0.643 255 255 255
0.221 0.204 0.58 255 255 255
0.168 -0.162 0.692 255 255 255
0.208 0.221 0.58 255 255 255
-0.126 0.062 0.686 255 255 255
0.146 -0.172 0.699 255 255 255
-0.127 0.21 0.643 0 0 0
0.209 -0.219 0.7 255 255 255
0.404 0.007 0.604 255 255 255
-0.018 -0.178 0.735 255 255 255
0.322 -0.008 0.613 0 0 0
-0.123 -0.247 0.771 255 255 255
-0.222 -0.116 0.754 255 255 255
-0.105 0.055 0.686 0 0 0
0.093 0.264 0.592 0 0 0
-0.071 0.249 0.628 255 255 255
-0.153 0.186 0.658 255 255 255
-0.129 -0.08 0.727 255 255 255
0.294 -0.037 0.624 255 255 255
-0.422 -0.023 0.766 0 0 0
-0.379 0.005 0.751 0 0 0
0.118 0.08 0.636 0 0 0
0.032 0.268 0.604 0 0 0
-0.215 0.324 0.633 255 255 255
-0.038 -0.326 0.777 255 255 255
0.136 0.033 0.644 0 0 0
0.217 0.25 0.571 255 255 255
-0.05 0.032 0.682 0 0 0
-0.445 0.048 0.748 255 255 255
0.007 -0.172 0.727 255 255 255
0.223 0.123 0.601 0 0 0
-0.079 -0.454 0.819 255 255 255
0.381 -0.059 0.624 255 255 255
0.206 0.136 0.6 0 0 0
0.343 -0.219 0.675 255 255 255
-0.356 0.138 0.707 0 0 0
0.292 0.195 0.572 255 255 255
0.207 -0.503 0.776 255 255 255
-0.278 0.216 0.669 0 0 0
-0.186 0.299 0.635 0 0 0
-0.256 -0.11 0.758 255 255 255
-0.199 0.188 0.665 255 255 255
0.421 -0.158 0.639 255 255 255
-0.382 -0.277 0.827 0 0 0
-0.044 -0.318 0.775 255 255 255
0.134 -0.016 0.658 0 0 0
0.131 -0.075 0.676 255 255 255
0.016 -0.641 0.85 0 0 0
0.195 0.209 0.584 0 0 0
0.136 0.204 0.596 255 255 255
0.28 -0.408 0.736 255 255 255
-0.06 0.04 0.682 0 0 0
0.395 -0.124 0.637 255 255 255
0.133 0.196 0.6 255 255 255
0.311 -0.467 0.747 255 255 255
0.331 -0.343 0.71 255 255 255
-0.351 -0.126 0.779 255 255 255
0.112 0.023 0.657 0 0 0
0.085 0.223 0.599 255 255 255
0.331 0.006 0.612 255 255 255
-0.239 0.34 0.634 255 255 255
-0.338 -0.061 0.759 255 255 255
-0.004 -0.562 0.834 255 255 255
-0.158 0.162 0.664 255 255 255
0.222 0.124 0.6 0 0 0
0.121 0.239 0.59 0 0 0
0.001 0.189 0.628 0 0 0
0.184 0.073 0.622 0 0 0
0.286 -0.504 0.761 255 255 255
-0.139 -0.106 0.737 255 255 255
-0.29 -0.242 0.802 255 255 255
0.036 0.124 0.639 255 255 255
-0.239 -0.311 0.81 255 255 255
-0.201 -0.565 0.872 255 255 255
0.187 0.298 0.564 255 255 255
0.074 0.078 0.645 255 255 255
0.133 -0.143 0.695 255 255 255
-0.381 0.045 0.738 0 0 0
-0.014 0.162 0.638 255 255 255
-0.096 -0.214 0.757 255 255 255
0.406 -0.189 0.655 255 255 255
0.158 0.107 0.621 255 255 255
-0.112 0.16 0.658 255 255 255
0.315 -0.074 0.641 255 255 255
0.024 0.007 0.675 0 0 0
0.162 -0.075 0.67 255 255 255
-0.525 0.047 0.763 255 255 255
-0.501 -0.045 0.784 255 255 255
-0.236 0.138 0.685 255 255 255
-0.089 0.3 0.617 255 255 255
-0.225 -0.266 0.794 255 255 255
0.221 -0.12 0.671 255 255 255
-0.032 -0.35 0.781 255 255 255
0.188 -0.365 0.743 255 255 255
-0.203 -0.157 0.762 0 0 0
-0.283 0.307 0.651 0 0 0
-0.193 -0.294 0.796 255 255 255
0.211 0.274 0.567 255 255 255
-0.207 -0.164 0.766 0 0 0
0.155 -0.249 0.718 255 255 255
-0.527 0.025 0.77 0 0 0
0.188 -0.276 0.72 255 255 255
0.014 0.195 0.625 255 255 255
-0.037 0.317 0.603 255 255 255
-0.349 -0.679 0.931 0 0 0
0.377 0.054 0.595 255 255 255
0.346 -0.195 0.667 255 255 255
-0.185 0.194 0.66 0 0 0
-0.087 -0.609 0.862 255 255 255
0.433 -0.022 0.604 255 255 255
0.103 0.041 0.651 255 255 255
0.248 0.21 0.575 255 255 255
-0.58 -0.085 0.809 255 255 255
0.141 0.098 0.623 255 255 255
0.039 0.299 0.594 255 255 255
0.212 -0.075 0.66 255 255 255
0.298 -0.108 0.652 255 255 255
-0.549 -0.034 0.791 0 0 0
0.151 0.286 0.576 255 255 255
-0.278 0.207 0.675 255 255 255
-0.296 0.123 0.697 255 255 255
-0.038 -0.056 0.703 255 255 255
0.203 -0.294 0.72 255 255 255
-0.224 -0.233 0.785 255 255 255
0.156 0.15 0.609 255 255 255
0.23 0.073 0.614 255 255 255
0.364 -0.154 0.653 255 255 255
0.393 -0.011 0.609 255 255 255
-0.065 0.312 0.61 255 255 255
-0.403 -0.483 0.887 255 255 255
-0.606 -0.044 0.802 255 255 255
-0.127 -0.025 0.711 255 255 255
0.006 0.101 0.652 255 255 255
-0.177 -0.023 0.72 255 255 255
0.221 -0.322 0.724 255 255 255
0.002 0.311 0.598 255 255 255
-0.045 -0.22 0.75 255 255 255
-0.387 -0.129 0.787 0 0 0
-0.341 -0.217 0.802 255 255 255
0.236 0.23 0.573 0 0 0
0.146 0.202 0.597 255 255 255
0.082 -0.444 0.785 255 255 255
0.359 -0.416 0.723 255 255 255
-0.13 -0.506 0.844 255 255 255
0.113 0.038 0.649 255 255 255
0.324 -0.288 0.697 255 255 255
0.158 0.004 0.649 0 0 0
-0.233 -0.567 0.879 255 255 255
-0.596 -0.109 0.818 255 255 255
-0.046 -0.052 0.704 255 255 255
-0.311 -0.123 0.773 255 255 255
0.077 -0.004 0.665 255 255 255
-0.312 -0.581 0.899 255 255 255
-0.235 0.08 0.7 255 255 255
0.234 0.145 0.592 0 0 0
0.068 -0.124 0.702 255 255 255
-0.125 0.148 0.662 255 255 255
-0.461 -0.291 0.845 255 255 255
0.133 -0.022 0.66 0 0 0
-0.177 0.127 0.679 0 0 0
0.325 -0.099 0.646 255 255 255
-0.123 -0.085 0.727 255 255 255
0.271 -0.17 0.674 255 255 255
-0.132 -0.256 0.776 255 255 255
0.094 0 0.663 255 255 255
-0.189 0.025 0.71 255 255 255
-0.534 0.037 0.766 255 255 255
0.247 0.041 0.621 255 255 255
0.087 0.251 0.59 255 255 255
-0.014 -0.193 0.737 255 255 255
0.214 0.002 0.637 255 255 255
-0.178 -0.236 0.778 255 255 255
-0.406 0.109 0.725 255 255 255
-0.226 0.018 0.716 255 255 255
-0.6 -0.077 0.809 255 255 255
-0.326 0.01 0.739 255 255 255
0.347 -0.059 0.631 255 255 255
0.058 0.27 0.597 0 0 0
0.448 -0.084 0.618 255 255 255
-0.215 -0.095 0.747 255 255 255
-0.104 0.188 0.648 255 255 255
-0.523 -0.133 0.812 0 0 0
-0.084 -0.51 0.835 255 255 255
-0.343 -0.161 0.787 255 255 255
-0.069 0.086 0.67 0 0 0
0.253 0.146 0.587 0 0 0
-0.184 -0.635 0.889 255 255 255
-0.453 -0.088 0.788 255 255 255
-0.362 -0.035 0.757 0 0 0
0.261 0.021 0.626 255 255 255
0.199 -0.369 0.741 255 255 255
0.239 -0.569 0.788 0 0 0
-0.255 -0.268 0.8 255 255 255
-0.174 0.071 0.694 255 255 255
0.392 -0.19 0.658 255 255 255
0.055 0.253 0.6 255 255 255
0.128 -0.095 0.682 255 255 255
0.33 -0.25 0.685 255 255 255
-0.241 0.235 0.657 255 255 255
-0.259 0.072 0.707 0 0 0
-0.098 0.043 0.688 255 255 255
0.188 -0.475 0.773 255 255 255
-0.138 0.109 0.678 0 0 0
0.091 0.085 0.64 255 255 255
-0.545 -0.177 0.827 0 0 0
0.339 -0.063 0.635 255 255 255
0.367 -0.031 0.621 255 255 255
0.228 0.232 0.577 255 255 255
0.053 -0.3 0.753 255 255 255
0.423 -0.247 0.664 255 255 255
-0.098 -0.415 0.811 255 255 255
-0.12 -0.511 0.841 255 255 255
-0.335 -0.218 0.801 255 255 255
-0.5 -0.445 0.896 255 255 255
-0.052 0.262 0.621 255 255 255
0.065 -0.592 0.828 255 255 255
-0.29 -0.148 0.775 255 255 255
-0.412 -0.246 0.825 0 0 0
-0.313 0.1 0.709 255 255 255
0.082 -0.407 0.774 255 255 255
0.285 -0.065 0.644 255 255 255
-0.47 -0.183 0.816 255 255 255
-0.25 -0.114 0.759 255 255 255
-0.004 -0.354 0.778 255 255 255
-0.349 -0.012 0.749 255 255 255
-0.141 -0.465 0.834 255 255 255
0.074 0.064 0.647 0 0 0
0.279 -0.589 0.788 0 0 0
0.146 0.236 0.586 255 255 255
0.095 -0.039 0.672 255 255 255
-0.463 0.055 0.75 255 255 255
-0.233 -0.171 0.772 255 255 255
-0.086 -0.141 0.736 255 255 255
-0.172 0.104 0.685 255 255 255
0.211 -0.416 0.752 255 255 255
0.012 -0.297 0.758 255 255 255
-0.083 0.276 0.622 0 0 0
0.224 -0.052 0.653 255 255 255
-0.278 -0.69 0.921 0 0 0
0.399 0.053 0.592 255 255 255
0.413 0 0.604 255 255 255
-0.349 -0.462 0.872 255 255 255
0.056 -0.169 0.716 255 255 255
0.005 0.006 0.677 255 255 255
-0.165 -0.039 0.721 255 255 255
0.206 -0.202 0.696 255 255 255
-0.279 0.072 0.709 0 0 0
-0.099 0.139 0.659 255 255 255
-0.08 -0.014 0.699 255 255 255
-0.47 -0.566 0.925 255 255 255
-0.002 -0.07 0.703 255 255 255
0.109 0.086 0.637 255 255 255
0.023 0.275 0.605 0 0 0
-0.351 0.087 0.724 255 255 255
-0.186 -0.532 0.861 255 255 255
-0.128 -0.017 0.709 255 255 255
-0.195 -0.302 0.8 255 255 255
0.182 -0.57 0.8 255 255 255
0.07 -0.624 0.837 0 0 0
0.179 0.265 0.573 0 0 0
-0.069 -0.564 0.845 255 255 255
0.114 -0.625 0.828 0 0 0
0.027 -0.062 0.694 255 255 255
-0.351 -0.599 0.91 255 255 255
0.052 -0.064 0.688 255 255 255
0.165 -0.28 0.724 255 255 255
0.252 -0.047 0.645 255 255 255
-0.338 -0.52 0.886 255 255 255
-0.112 -0.581 0.86 255 255 255
0.04 -0.388 0.777 255 255 255
0.146 0.172 0.609 255 255 255
-0.557 -0.304 0.866 255 255 255
0.154 -0.418 0.764 255 255 255
0.278 0.091 0.597 255 255 255
-0.236 -0.367 0.826 255 255 255
0.185 -0.521 0.786 255 255 255
-0.155 0.108 0.679 255 255 255
0.318 -0.257 0.69 255 255 255
0.143 -0.251 0.721 255 255 255
-0.149 0.151 0.666 255 255 255
0.02 0.297 0.599 255 255 255
0.2 0.024 0.634 255 255 255
0.173 0.059 0.628 255 255 255
0.291 0.075 0.6 255 255 255
0.132 0.301 0.576 255 255 255
0.034 -0.369 0.774 255 255 255
0.065 -0.273 0.742 255 255 255
0.192 0.114 0.61 255 255 255
-0.149 0.19 0.657 255 255 255
0.238 0.139 0.592 255 255 255
-0.244 0.114 0.691 255 255 255
0.167 0.095 0.622 255 255 255
0.01 0.173 0.63 255 255 255
-0.075 0.073 0.675 255 255 255
0.415 -0.004 0.604 255 255 255
0.446 -0.134 0.629 255 255 255
-0.412 -0.294 0.837 0 0 0
0.203 0.279 0.566 255 255 255
0.246 -0.492 0.765 255 255 255
-0.249 -0.036 0.737 255 255 255
0.07 -0.179 0.717 255 255 255
-0.392 -0.097 0.78 0 0 0
-0.207 -0.532 0.865 255 255 255
-0.285 0.301 0.653 0 0 0
-0.164 0.175 0.664 255 255 255
0.428 -0.049 0.614 255 255 255
0.091 -0.109 0.693 255 255 255
-0.199 0.229 0.654 255 255 255
0.112 -0.194 0.712 255 255 255
-0.226 0.123 0.689 255 255 255
0.201 -0.352 0.735 255 255 255
0.287 -0.422 0.738 255 255 255
0.151 -0.319 0.738 255 255 255
0.132 0.157 0.615 255 255 255
0.268 -0.172 0.675 255 255 255
-0.473 -0.093 0.793 255 255 255
-0.061 0.052 0.679 0 0 0
-0.382 -0.159 0.794 0 0 0
-0.256 -0.202 0.783 255 255 255
-0.086 0.31 0.615 255 255 255
0.312 0.036 0.605 255 255 255
0.286 0.096 0.594 255 255 255
-0.009 0.081 0.661 0 0 0
-0.325 0.021 0.735 255 255 255
0.159 -0.214 0.708 255 255 255
0.187 0.272 0.571 0 0 0
-0.397 -0.366 0.855 0 0 0
0.043 -0.145 0.713 255 255 255
-0.043 -0.219 0.75 255 255 255
-0.419 -0.179 0.805 0 0 0
-0.569 -0.021 0.792 255 255 255
0.288 0.145 0.585 255 255 255
-0.004 0.165 0.634 255 255 255
-0.035 -0.211 0.746 255 255 255
-0.349 0.018 0.737 255 255 255
0.139 -0.065 0.673 255 255 255
-0.294 -0.141 0.774 255 255 255
-0.301 0.029 0.729 0 0 0
-0.439 0.032 0.753 255 255 255
0.1 -0.613 0.827 0 0 0
0.384 -0.023 0.615 255 255 255
-0.088 -0.009 0.7 255 255 255
0.286 0.134 0.586 255 255 255
-0.076 0.056 0.681 255 255 255
0.083 -0.014 0.67 255 255 255
0.246 -0.002 0.636 255 255 255
-0.227 0 0.722 255 255 255
0.146 -0.465 0.779 255 255 255
0.282 0.016 0.622 255 255 255
-0.343 0.173 0.697 255 255 255
0.07 -0.628 0.838 0 0 0
0.378 -0.624 0.778 255 255 255
-0.315 0.265 0.665 255 255 255
-0.242 0.009 0.72 255 255 255
0.014 0.035 0.67 255 255 255
-0.107 -0.57 0.856 255 255 255
-0.239 0.015 0.72 255 255 255
-0.015 -0.547 0.832 255 255 255
0.036 -0.132 0.71 255 255 255
-0.008 0.016 0.679 255 255 255
0.258 0.08 0.608 0 0 0
0.048 0.169 0.627 255 255 255
-0.148 -0.471 0.836 255 255 255
-0.212 -0.037 0.73 255 255 255
0.124 0.261 0.583 0 0 0
-0.347 0.09 0.722 255 255 255
-0.119 0.27 0.62 255 255 255
0.217 -0.219 0.699 255 255 255
-0.238 -0.368 0.826 255 255 255
0.048 -0.444 0.792 255 255 255
-0.059 -0.053 0.707 255 255 255
0.045 0.139 0.634 0 0 0
0.372 0.05 0.598 255 255 255
-0.568 -0.247 0.852 255 255 255
0.114 0.29 0.581 255 255 255
-0.449 0.04 0.752 255 255 255
-0.45 -0.001 0.764 255 255 255
0.423 -0.237 0.664 255 255 255
0.279 0.113 0.59 255 255 255
0.348 -0.552 0.762 0 0 0
-0.325 -0.554 0.893 255 255 255
-0.335 -0.149 0.783 255 255 255
0.078 0.317 0.58 255 255 255
-0.167 0.051 0.698 255 255 255
0.133 0.273 0.582 0 0 0
0.179 0.047 0.63 255 255 255
0.243 -0.173 0.681 255 255 255
-0.398 -0.2 0.809 0 0 0
-0.611 -0.24 0.856 255 255 255
0.015 -0.621 0.845 0 0 0
-0.121 0.184 0.652 255 255 255
0.146 -0.044 0.665 255 255 255
-0.489 -0.066 0.788 255 255 255
-0.227 -0.616 0.891 255 255 255
-0.435 -0.08 0.782 255 255 255
-0.043 0.289 0.612 0 0 0
-0.27 0.09 0.704 0 0 0
-0.006 0.043 0.671 0 0 0
0.249 -0.501 0.767 255 255 255
-0.23 -0.208 0.78 255 255 255
-0.121 0.084 0.681 0 0 0
0.144 -0.175 0.701 255 255 255
0.222 0.112 0.605 255 255 255
-0.086 -0.35 0.791 255 255 255
-0.267 -0.601 0.894 255 255 255
-0.309 -0.196 0.791 255 255 255
0.128 0.131 0.621 255 255 255
-0.238 -0.091 0.75 255 255 255
0.181 0.313 0.562 255 255 255
0.162 0.193 0.597 255 255 255
0.245 -0.198 0.687 255 255 255
0.199 0.271 0.568 0 0 0
-0.104 -0.057 0.716 255 255 255
-0.205 0.024 0.71 255 255 255
0.246 -0.545 0.78 255 255 255
0.386 0.067 0.59 255 255 255
-0.561 -0.224 0.844 255 255 255
-0.367 -0.067 0.767 0 0 0
-0.389 0.168 0.707 255 255 255
-0.263 0.064 0.71 255 255 255
-0.028 -0.011 0.689 255 255 255
-0.217 -0.255 0.789 255 255 255
-0.372 0.043 0.736 0 0 0
-0.401 0.044 0.741 0 0 0
-0.218 -0.077 0.742 255 255 255
0.37 0.068 0.593 255 255 255
-0.126 0.245 0.63 255 255 255
-0.149 0.028 0.697 255 255 255
0.176 -0.151 0.688 255 255 255
0.007 -0.424 0.793 255 255 255
0.175 -0.267 0.72 255 255 255
-0.125 0.296 0.625 255 255 255
0.197 -0.06 0.658 255 255 255
-0.174 -0.498 0.849 255 255 255
0.048 0.033 0.66 255 255 255
-0.024 -0.05 0.699 255 255 255
0.315 -0.355 0.716 255 255 255
-0.482 -0.099 0.796 255 255 255
0.304 0.079 0.597 255 255 255
0.148 -0.052 0.666 255 255 255
-0.463 -0.142 0.805 255 255 255
0.062 0.185 0.618 255 255 255
-0.286 -0.077 0.754 255 255 255
-0.24 0.267 0.651 255 255 255
-0.051 -0.423 0.805 255 255 255
0.256 -0.061 0.648 255 255 255
-0.231 0.203 0.668 255 255 255
-0.57 -0.135 0.822 255 255 255
-0.067 0.17 0.646 0 0 0
-0.042 -0.284 0.766 255 255 255
0.419 -0.113 0.631 0 0 0
0.365 -0.572 0.765 0 0 0
0.249 -0.13 0.667 255 255 255
0.192 -0.404 0.751 255 255 255
-0.253 -0.305 0.811 0 0 0
0.029 -0.342 0.767 255 255 255
0.16 0.138 0.611 255 255 255
-0.419 -0.762 0.968 255 255 255
0.062 0.163 0.624 255 255 255
-0.34 -0.312 0.829 255 255 255
0.245 0.053 0.617 255 255 255
0.057 0.294 0.591 255 255 255
-0.034 0.319 0.603 255 255 255
0.316 -0.467 0.746 255 255 255
-0.159 -0.101 0.737 255 255 255
-0.308 -0.395 0.847 255 255 255
-0.192 -0.633 0.889 255 255 255
-0.154 -0.155 0.752 255 255 255
0.309 -0.139 0.659 255 255 255
0.115 0.085 0.633 0 0 0
0.37 0.039 0.601 255 255 255
-0.368 -0.161 0.793 0 0 0
-0.262 -0.585 0.889 255 255 255
-0.268 -0.074 0.75 255 255 255
0.292 -0.033 0.627 255 255 255
-0.446 -0.161 0.806 255 255 255
0.206 0.102 0.609 255 255 255
0.074 0.269 0.592 0 0 0
0.117 0.249 0.591 255 255 255
0.298 0.103 0.59 255 255 255
-0.013 0.118 0.649 0 0 0
-0.359 0.147 0.704 0 0 0
-0.281 0.005 0.73 255 255 255
-0.265 -0.122 0.763 255 255 255
-0.148 0.197 0.654 255 255 255
-0.198 -0.243 0.783 0 0 0
0.064 0.042 0.654 255 255 255
0.022 -0.213 0.735 255 255 255
-0.051 -0.019 0.696 255 255 255
-0.57 -0.252 0.854 255 255 255
-0.255 0.098 0.698 255 255 255
0.07 -0.174 0.715 255 255 255
-0.304 0.195 0.681 255 255 255
-0.463 -0.783 0.98 255 255 255
-0.27 0.029 0.725 255 255 255
-0.243 0.043 0.712 255 255 255
-0.156 -0.026 0.716 255 255 255
-0.245 -0.226 0.788 255 255 255
0.019 0.205 0.621 255 255 255
0.24 0.167 0.586 0 0 0
-0.061 0.065 0.675 255 255 255
0.089 -0.098 0.691 255 255 255
0.019 0.153 0.635 255 255 255
0.182 -0.092 0.67 255 255 255
-0.117 -0.005 0.7 255 255 255
-0.098 0.014 0.699 255 255 255
-0.095 0.206 0.643 0 0 0
0.119 0.207 0.603 0 0 0
-0.456 -0.123 0.798 255 255 255
-0.11 -0.586 0.861 255 255 255
0.187 0.152 0.601 255 255 255
-0.07 -0.025 0.701 255 255 255
0.375 -0.147 0.648 255 255 255
0.216 0.289 0.563 255 255 255
-0.316 -0.135 0.775 255 255 255
0.201 -0.087 0.665 255 255 255
-0.211 0.325 0.633 255 255 255
-0.267 -0.205 0.787 255 255 255
0.413 -0.371 0.699 255 255 255
0.252 0.242 0.567 255 255 255
-0.296 0.157 0.692 0 0 0
-0.241 0.043 0.711 255 255 255
0.162 -0.055 0.664 255 255 255
0.008 0.32 0.595 255 255 255
-0.38 -0.102 0.779 0 0 0
0.096 0.038 0.652 255 255 255
-0.302 -0.51 0.877 255 255 255
0.311 -0.583 0.778 0 0 0
0.076 0.229 0.599 0 0 0
-0.074 -0.098 0.721 255 255 255
0.161 0.117 0.618 255 255 255
-0.211 0.177 0.671 255 255 255
0.092 0.073 0.644 255 255 255
0.259 -0.188 0.682 255 255 255
0.106 0.119 0.625 255 255 255
-0.331 -0.214 0.8 255 255 255
-0.409 0.132 0.72 255 255 255
-0.26 -0.61 0.896 255 255 255
-0.502 -0.289 0.85 255 255 255
-0.036 0.053 0.674 255 255 255
0.004 0.02 0.675 255 255 255
-0.555 -0.116 0.813 0 0 0
0.271 -0.598 0.792 0 0 0
-0.092 0.19 0.645 255 255 255
0.405 -0.057 0.619 255 255 255
0.27 -0.37 0.729 255 255 255
-0.356 -0.23 0.808 255 255 255
-0.577 -0.027 0.794 255 255 255
-0.258 -0.089 0.753 255 255 255
-0.087 0.125 0.662 255 255 255
-0.348 -0.198 0.798 255 255 255
0.125 -0.02 0.661 0 0 0
0.412 -0.236 0.665 255 255 255
0.008 -0.013 0.684 255 255 255
0.161 0.017 0.645 0 0 0
0.03 -0.136 0.713 255 255 255
-0.043 0.095 0.663 255 255 255
-0.105 -0.017 0.706 255 255 255
-0.341 0.125 0.706 255 255 255
0.148 -0.406 0.761 255 255 255
0.088 0.165 0.619 255 255 255
0.389 -0.286 0.683 255 255 255
-0.281 0.31 0.649 0 0 0
0.087 -0.095 0.69 255 255 255
0.2 -0.336 0.732 255 255 255
0.09 -0.02 0.67 255 255 255
0.03 0.033 0.666 0 0 0
-0.484 0.06 0.753 255 255 255
0.022 0.172 0.629 0 0 0
0.369 -0.024 0.619 255 255 255
-0.185 0.199 0.659 255 255 255
-0.106 0.027 0.692 255 255 255
-0.157 0.27 0.637 255 255 255
-0.166 0.271 0.641 255 255 255
-0.04 0.262 0.618 255 255 255
-0.185 0.071 0.697 255 255 255
-0.012 0.185 0.632 255 255 255
0.211 -0.199 0.695 255 255 255
-0.164 -0.029 0.719 255 255 255
-0.338 -0.146 0.783 255 255 255
0.208 0.102 0.609 255 255 255
0.035 0.085 0.65 255 255 255
-0.222 0.238 0.656 255 255 255
0.097 -0.084 0.684 255 255 255
0.024 -0.004 0.68 255 255 255
0.273 -0.035 0.636 0 0 0
0.312 -0.249 0.689 255 255 255
0.07 -0.467 0.793 255 255 255
0.162 -0.178 0.697 255 255 255
0.068 -0.141 0.706 255 255 255
-0.138 0.174 0.655 0 0 0
0.09 0.07 0.644 255 255 255
-0.217 0.179 0.672 255 255 255
-0.281 -0.502 0.87 255 255 255
-0.115 -0.489 0.835 255 255 255
0.394 -0.051 0.619 255 255 255
-0.245 0.279 0.649 255 255 255
0.207 -0.062 0.657 255 255 255
0.015 0.007 0.679 0 0 0
-0.224 0.244 0.65 255 255 255
0.293 -0.366 0.722 255 255 255
0.202 0.145 0.604 255 255 255
-0.274 -0.004 0.733 255 255 255
-0.181 0.241 0.648 255 255 255
-0.137 -0.526 0.849 255 255 255
0.05 0.175 0.625 0 0 0
-0.267 0.074 0.708 0 0 0
0.199 0.15 0.602 0 0 0
-0.272 -0.141 0.769 255 255 255
0.194 -0.369 0.742 255 255 255
-0.232 0.314 0.64 255 255 255
-0.018 -0.155 0.728 255 255 255
0.077 0.064 0.646 255 255 255
-0.092 0.227 0.637 255 255 255
-0.265 -0.204 0.786 255 255 255
-0.138 -0.493 0.84 255 255 255
-0.16 0.3 0.63 0 0 0
-0.296 -0.231 0.799 255 255 255
-0.333 0.077 0.72 255 255 255
0.046 0.263 0.601 255 255 255
-0.333 -0.102 0.77 255 255 255
0.127 -0.621 0.825 0 0 0
-0.382 -0.342 0.844 255 255 255
-0.346 -0.132 0.78 255 255 255
-0.414 -0.591 0.92 255 255 255
-0.396 0.128 0.717 255 255 255
-0.108 0.237 0.634 255 255 255
-0.244 -0.112 0.757 255 255 255
0.44 -0.127 0.629 255 255 255
-0.09 0.009 0.695 0 0 0
-0.419 -0.249 0.826 0 0 0
-0.217 -0.398 0.83 255 255 255
-0.366 -0.017 0.754 0 0 0
0.079 -0.095 0.691 255 255 255
0.206 -0.02 0.645 0 0 0
0.097 0.076 0.642 255 255 255
-0.102 -0.62 0.869 255 255 255
0.179 0.055 0.627 0 0 0
0.009 -0.529 0.823 255 255 255
0.36 -0.493 0.744 255 255 255
0.285 -0.424 0.74 255 255 255
-0.467 -0.044 0.778 255 255 255
-0.113 0.156 0.659 255 255 255
0.198 -0.214 0.701 255 255 255
0.359 -0.557 0.762 0 0 0
0.255 -0.188 0.682 255 255 255
0.008 0.27 0.609 0 0 0
0.12 0.209 0.601 0 0 0
0.204 -0.333 0.73 255 255 255
-0.184 0.349 0.622 255 255 255
-0.045 -0.046 0.701 255 255 255
0.11 0.126 0.625 0 0 0
-0.361 -0.2 0.802 0 0 0
0.252 -0.419 0.746 255 255 255
0.027 0.007 0.674 0 0 0
0.132 -0.004 0.658 0 0 0
-0.369 -0.658 0.929 255 255 255
0.027 -0.127 0.711 255 255 255
0.12 -0.01 0.658 0 0 0
0.176 0.197 0.59 255 255 255
-0.443 -0.463 0.892 255 255 255
-0.255 -0.085 0.751 255 255 255
-0.289 0.003 0.733 255 255 255
0.191 -0.33 0.732 255 255 255
0.371 0.064 0.593 255 255 255
0.144 -0.179 0.703 255 255 255
-0.584 -0.292 0.868 255 255 255
-0.235 -0.524 0.867 255 255 255
-0.357 -0.358 0.845 255 255 255
-0.449 -0.664 0.945 255 255 255
0.369 -0.017 0.616 255 255 255
0.404 -0.124 0.635 0 0 0
-0.147 0.095 0.683 255 255 255
-0.289 0.124 0.697 255 255 255
-0.078 0.332 0.607 255 255 255
0.207 -0.264 0.711 255 255 255
0.121 0.199 0.604 0 0 0
-0.106 -0.395 0.807 255 255 255
0.061 0.197 0.616 0 0 0
0.306 -0.143 0.661 255 255 255
-0.033 -0.004 0.689 255 255 255
-0.408 -0.474 0.886 0 0 0
-0.319 -0.127 0.773 255 255 255
0.362 -0.223 0.672 255 255 255
0.386 0.027 0.6 255 255 255
-0.172 -0.188 0.764 255 255 255
0.357 -0.128 0.647 255 255 255
0.157 -0.216 0.709 255 255 255
0.115 0.26 0.588 255 255 255
-0.163 -0.472 0.84 255 255 255
-0.235 0.031 0.714 255 255 255
-0.21 -0.235 0.783 255 255 255
0.062 0.181 0.62 255 255 255
-0.604 -0.096 0.816 255 255 255
0.18 0.211 0.586 255 255 255
-0.252 -0.05 0.74 255 255 255
0.001 0.116 0.648 0 0 0
0.33 -0.232 0.68 255 255 255
-0.598 -0.144 0.828 255 255 255
0.048 0.145 0.632 255 255 255
-0.157 0.155 0.667 255 255 255
-0.074 0.275 0.619 0 0 0
0.347 -0.423 0.728 255 255 255
0.355 -0.378 0.713 255 255 255
0.246 -0.435 0.751 255 255 255
-0.248 -0.225 0.787 255 255 255
-0.171 -0.074 0.733 255 255 255
0.057 -0.354 0.765 255 255 255
-0.376 -0.187 0.802 0 0 0
-0.393 -0.434 0.873 255 255 255
-0.013 0.299 0.604 255 255 255
-0.111 -0.06 0.718 255 255 255
0.003 -0.034 0.691 255 255 255
0.373 -0.033 0.62 255 255 255
0.057 0.211 0.613 255 255 255
0.049 0.116 0.639 255 255 255
-0.055 0.114 0.659 255 255 255
-0.446 -0.102 0.789 255 255 255
-0.144 -0.296 0.789 255 255 255
0.004 -0.067 0.7 255 255 255
0.391 -0.064 0.625 255 255 255
0.232 -0.412 0.747 255 255 255
0.062 0.229 0.606 0 0 0
-0.374 0.123 0.716 0 0 0
0.373 -0.15 0.65 255 255 255
-0.002 -0.125 0.717 255 255 255
0.342 -0.409 0.725 255 255 255
-0.299 -0.538 0.884 255 255 255
0.061 -0.043 0.681 255 255 255
0.197 0.288 0.565 255 255 255
0.015 0.292 0.601 255 255 255
-0.157 -0.075 0.73 255 255 255
0.169 0.021 0.639 255 255 255
-0.428 -0.624 0.932 255 255 255
-0.374 0.099 0.722 255 255 255
-0.178 -0.004 0.715 255 255 255
0.011 -0.354 0.775 255 255 255
0.087 0.025 0.66 255 255 255
0.166 -0.492 0.782 255 255 255
0.276 -0.213 0.684 255 255 255
-0.075 0.292 0.618 255 255 255
0.183 0.028 0.636 255 255 255
-0.292 -0.255 0.804 255 255 255
-0.411 -0.611 0.924 255 255 255
-0.099 -0.032 0.708 255 255 255
-0.495 0.06 0.753 255 255 255
0.03 0.113 0.643 0 0 0
-0.177 0.018 0.709 255 255 255
-0.065 0.195 0.64 0 0 0
-0.069 0.089 0.67 0 0 0
-0.357 -0.32 0.834 255 255 255
0.162 0.221 0.588 255 255 255
-0.247 -0.104 0.754 255 255 255
0.153 -0.503 0.787 255 255 255
0.049 0.267 0.6 0 0 0
-0.247 -0.133 0.764 255 255 255
0.135 -0.267 0.726 255 255 255
0.014 -0.151 0.72 255 255 255
-0.21 0.193 0.669 255 255 255
0.284 -0.081 0.648 255 255 255
-0.374 -0.093 0.775 0 0 0
-0.144 -0.24 0.773 255 255 255
0.35 -0.028 0.624 255 255 255
0.106 0.302 0.58 255 255 255
0.046 0.117 0.638 255 255 255
0.157 -0.102 0.678 255 255 255
0.084 0.175 0.616 255 255 255
-0.058 0.304 0.611 255 255 255
0.418 -0.053 0.617 255 255 255
0.328 -0.099 0.645 255 255 255
0.053 0.273 0.598 0 0 0
-0.417 -0.204 0.813 0 0 0
0.289 -0.595 0.786 0 0 0
0.074 -0.018 0.668 255 255 255
-0.196 0.025 0.712 255 255 255
0.315 -0.206 0.676 255 255 255
-0.605 -0.039 0.8 255 255 255
0.361 -0.5 0.744 255 255 255
0.162 0.145 0.609 0 0 0
-0.163 0.277 0.638 255 255 255
-0.281 -0.383 0.838 255 255 255
-0.11 -0.564 0.854 255 255 255
0.288 -0.542 0.773 255 255 255
0.163 -0.194 0.702 255 255 255
-0.044 0.205 0.631 0 0 0
-0.048 -0.178 0.741 255 255 255
0.001 -0.275 0.756 255 255 255
-0.24 0.274 0.65 255 255 255
-0.327 0.173 0.692 255 255 255
0.016 -0.127 0.714 255 255 255
-0.23 0.217 0.66 255 255 255
0.069 0.104 0.639 255 255 255
-0.25 0.23 0.662 255 255 255
-0.154 -0.618 0.876 255 255 255
-0.498 0.053 0.756 255 255 255
0.029 -0.616 0.841 0 0 0
-0.233 0.307 0.643 0 0 0
0.047 0.302 0.591 255 255 255
0.274 -0.506 0.764 255 255 255
0.221 -0.442 0.757 255 255 255
-0.048 -0.21 0.748 255 255 255
0.435 -0.022 0.604 255 255 255
-0.258 -0.276 0.803 255 255 255
-0.093 -0.259 0.77 255 255 255
-0.18 0.104 0.686 0 0 0
0.055 -0.061 0.687 255 255 255
-0.168 -0.016 0.716 255 255 255
0.208 -0.375 0.741 255 255 255
0.042 -0.114 0.705 255 255 255
0.296 0.003 0.62 255 255 255
0.134 -0.061 0.673 255 255 255
0.14 0.209 0.594 255 255 255
0.372 -0.217 0.67 255 255 255
0.011 -0.096 0.706 255 255 255
-0.399 -0.14 0.793 0 0 0
-0.164 0.33 0.623 255 255 255
0.212 -0.549 0.789 255 255 255
0.206 -0.161 0.685 255 255 255
-0.05 -0.628 0.861 0 0 0
0.266 -0.416 0.741 255 255 255
0.239 -0.014 0.639 0 0 0
-0.401 -0.224 0.816 0 0 0
-0.026 -0.607 0.851 255 255 255
0.148 -0.275 0.726 255 255 255
-0.078 -0.364 0.794 255 255 255
0.049 0.214 0.612 255 255 255
-0.049 -0.31 0.774 255 255 255
-0.175 0.006 0.712 255 255 255
-0.237 -0.166 0.771 255 255 255
-0.265 -0.216 0.79 255 255 255
0.356 -0.218 0.672 255 255 255
0.101 0.101 0.634 255 255 255
0.144 0.12 0.62 255 255 255
-0.186 -0.381 0.819 255 255 255
0.312 -0.002 0.612 0 0 0
0.107 -0.181 0.711 255 255 255
0.302 0.065 0.602 255 255 255
0.23 -0.154 0.678 255 255 255
-0.208 0.099 0.692 255 255 255
-0.224 -0.327 0.811 255 255 255
-0.044 -0.575 0.845 255 255 255
0.092 0.201 0.609 255 255 255
0.121 -0.078 0.678 255 255 255
0.351 -0.18 0.663 255 255 255
0.131 0.268 0.584 0 0 0
-0.428 -0.258 0.83 0 0 0
0.21 -0.082 0.662 255 255 255
0.411 -0.389 0.706 255 255 255
-0.456 0.042 0.753 255 255 255
0.176 -0.352 0.741 255 255 255
-0.233 0.297 0.641 0 0 0
0.138 0.3 0.574 255 255 255
-0.203 0.285 0.635 0 0 0
0.304 -0.176 0.67 255 255 255
0.134 -0.182 0.705 255 255 255
0.319 -0.517 0.758 255 255 255
-0.013 -0.124 0.718 255 255 255
0.184 0.206 0.586 255 255 255
-0.004 -0.502 0.817 255 255 255
-0.307 -0.582 0.897 255 255 255
-0.339 -0.301 0.824 0 0 0
-0.155 -0.468 0.838 255 255 255
0.128 0.021 0.651 0 0 0
-0.015 -0.121 0.718 255 255 255
0.222 -0.362 0.734 255 255 255
-0.085 -0.247 0.765 255 255 255
0.092 0.221 0.604 255 255 255
0.025 -0.107 0.707 255 255 255
0.383 -0.134 0.64 255 255 255
0.407 -0.265 0.673 255 255 255
-0.035 -0.423 0.802 255 255 255
0.169 0.031 0.635 255 255 255
0.216 -0.159 0.682 255 255 255
0.19 0.162 0.597 255 255 255
-0.313 -0.451 0.863 255 255 255
-0.202 0.146 0.677 255 255 255
-0.092 -0.1 0.726 255 255 255
0.1 -0.459 0.785 255 255 255
-0.386 -0.004 0.753 0 0 0
-0.454 -0.187 0.814 255 255 255
-0.136 -0.031 0.716 255 255 255
0.079 0.105 0.636 255 255 255
0.213 0.147 0.595 255 255 255
-0.612 -0.048 0.803 255 255 255
0.432 -0.179 0.641 255 255 255
-0.191 -0.275 0.79 255 255 255
0.058 -0.135 0.707 255 255 255
0.435 -0.099 0.626 255 255 255
-0.323 -0.373 0.844 255 255 255
0.191 -0.354 0.739 255 255 255
0.367 -0.164 0.656 255 255 255
-0.192 0.195 0.662 255 255 255
0.046 0.05 0.656 255 255 255
0.015 -0.405 0.787 255 255 255
-0.066 -0.075 0.714 255 255 255
-0.064 0.026 0.686 255 255 255
0.189 -0.38 0.745 255 255 255
-0.122 0.149 0.662 255 255 255
0.184 0.131 0.606 0 0 0
0.237 0.045 0.619 255 255 255
-0.589 -0.018 0.793 255 255 255
-0.093 -0.334 0.789 255 255 255
0.091 -0.016 0.667 255 255 255
0.045 0.086 0.647 255 255 255
0.3 0.086 0.594 255 255 255
0.162 -0.245 0.715 255 255 255
-0.336 0.189 0.69 255 255 255
0.33 -0.044 0.613 255 255 255
-0.444 -0.209 0.819 255 255 255
0.03 0.271 0.603 0 0 0
0.312 0.137 0.582 0 0 0
-0.602 -0.211 0.848 255 255 255
0.094 -0.409 0.772 255 255 255
0.234 -0.346 0.728 255 255 255
0.005 -0.377 0.782 255 255 255
-0.029 0.134 0.649 255 255 255
0.239 0.094 0.605 0 0 0
0.364 -0.041 0.624 255 255 255
-0.036 0.067 0.669 0 0 0
-0.256 0.255 0.657 255 255 255
-0.11 0.203 0.645 0 0 0
0.405 -0.366 0.7 255 255 255
-0.052 0.246 0.625 0 0 0
-0.494 -0.067 0.789 255 255 255
-0.543 -0.348 0.875 255 255 255
-0.081 -0.334 0.786 255 255 255
-0.126 -0.56 0.858 255 255 255
-0.118 0.056 0.687 255 255 255
0.286 -0.127 0.659 255 255 255
0.253 -0.38 0.734 255 255 255
0.215 -0.388 0.743 255 255 255
-0.348 -0.311 0.83 255 255 255
0.263 -0.284 0.707 255 255 255
-0.146 0.09 0.684 0 0 0
0.229 -0.321 0.722 255 255 255
-0.24 0.059 0.707 255 255 255
-0.065 0.178 0.643 0 0 0
0.226 0.108 0.605 0 0 0
-0.222 0.152 0.68 255 255 255
-0.392 -0.001 0.754 0 0 0
-0.438 0.051 0.747 255 255 255
0.02 -0.138 0.716 255 255 255
0.128 -0.197 0.71 255 255 255
-0.259 -0.479 0.859 255 255 255
-0.383 -0.24 0.817 0 0 0
0.142 -0.413 0.764 255 255 255
-0.424 0.023 0.752 255 255 255
-0.1 0.174 0.652 0 0 0
0.273 0.068 0.606 255 255 255
0.213 -0.049 0.654 255 255 255
-0.36 -0.65 0.924 255 255 255
-0.228 0.118 0.69 255 255 255
-0.047 0.23 0.626 0 0 0
0.306 -0.037 0.615 0 0 0
0.349 0.091 0.592 255 255 255
0.348 0.096 0.592 255 255 255
-0.298 -0.331 0.826 255 255 255
0.068 0.244 0.598 255 255 255
0.155 0.303 0.569 255 255 255
-0.22 -0.271 0.794 255 255 255
0.331 0.011 0.613 255 255 255
-0.118 0.275 0.618 0 0 0
-0.382 -0.109 0.782 0 0 0
0.219 0.13 0.6 0 0 0
0.24 0.191 0.579 255 255 255
0.223 -0.167 0.684 255 255 255
0.069 -0.025 0.67 0 0 0
-0.143 0.324 0.621 255 255 255
-0.459 0.083 0.742 255 255 255
0.391 -0.087 0.629 255 255 255
0.204 -0.167 0.687 255 255 255
0.312 0.071 0.595 0 0 0
0.319 -0.341 0.712 255 255 255
-0.299 -0.145 0.776 255 255 255
0.056 -0.201 0.725 255 255 255
0.265 0.051 0.614 0 0 0
0.389 -0.167 0.648 255 255 255
0.133 -0.621 0.824 0 0 0
0.315 0.045 0.605 0 0 0
0.077 0.093 0.64 255 255 255
0.034 -0.407 0.784 255 255 255
-0.303 -0.557 0.89 255 255 255
-0.107 0.134 0.664 255 255 255
-0.601 -0.102 0.816 255 255 255
-0.071 -0.055 0.709 255 255 255
-0.127 0.159 0.661 255 255 255
0.039 0.198 0.62 255 255 255
-0.222 -0.189 0.774 255 255 255
-0.088 -0.476 0.827 255 255 255
0.26 -0.258 0.701 255 255 255
-0.094 -0.488 0.831 255 255 255
-0.106 -0.004 0.698 255 255 255
0.021 0.113 0.646 255 255 255
-0.379 0.057 0.731 0 0 0
-0.31 0.034 0.73 255 255 255
-0.141 0.031 0.693 255 255 255
0.063 -0.304 0.752 255 255 255
-0.083 0.025 0.69 255 255 255
0.068 0.275 0.594 0 0 0
-0.003 -0.212 0.74 255 255 255
-0.094 -0.004 0.699 255 255 255
0.045 -0.295 0.752 255 255 255
-0.387 -0.343 0.846 255 255 255
-0.005 -0.398 0.79 255 255 255
-0.219 -0.601 0.886 255 255 255
-0.027 -0.001 0.686 255 255 255
0.327 -0.112 0.649 255 255 255
0.291 0.167 0.581 255 255 255
-0.142 0.224 0.644 255 255 255
0.422 -0.015 0.606 255 255 255
-0.38 -0.283 0.829 0 0 0
0.414 -0.009 0.606 255 255 255
-0.189 0.005 0.714 255 255 255
0.02 -0.013 0.681 255 255 255
0.119 -0.39 0.763 255 255 255
-0.329 -0.444 0.863 255 255 255
0.117 -0.061 0.675 255 255 255
0.175 0.087 0.622 0 0 0
-0.101 -0.234 0.764 255 255 255
-0.12 -0.341 0.795 255 255 255
-0.473 -0.145 0.807 255 255 255
-0.329 0.166 0.694 255 255 255
-0.616 -0.107 0.822 255 255 255
0.313 -0.389 0.725 255 255 255
0.375 -0.066 0.627 255 255 255
0.178 -0.453 0.768 255 255 255
0.008 -0.093 0.705 255 255 255
-0.159 0.273 0.637 255 255 255
-0.197 0.248 0.647 0 0 0
-0.274 0.033 0.719 0 0 0
0.27 0.08 0.603 255 255 255
-0.119 -0.222 0.762 255 255 255
0.255 -0.284 0.709 255 255 255
0.124 -0.002 0.657 0 0 0
0 0.004 0.683 0 0 0
-0.34 -0.24 0.81 255 255 255
-0.163 0.213 0.652 255 255 255
0.134 -0.043 0.667 255 255 255
0.01 0.278 0.607 0 0 0
0.388 -0.136 0.639 255 255 255
0.127 0.285 0.581 255 255 255
-0.125 -0.379 0.806 255 255 255
-0.374 -0.316 0.836 255 255 255
0.059 0.189 0.618 255 255 255
-0.43 -0.208 0.818 255 255 255
0.062 -0.451 0.792 255 255 255
0.335 -0.059 0.633 255 255 255
0.099 -0.515 0.801 255 255 255
0.359 -0.026 0.622 255 255 255
0.191 0.269 0.57 0 0 0
-0.078 0.149 0.654 255 255 255
-0.282 0.141 0.693 0 0 0
0.193 -0.009 0.646 0 0 0
-0.179 -0.371 0.816 255 255 255
-0.379 -0.027 0.758 0 0 0
0.114 0.315 0.575 255 255 255
-0.113 -0.177 0.749 255 255 255
-0.184 0.306 0.632 255 255 255
0.182 -0.324 0.732 255 255 255
-0.03 -0.077 0.708 255 255 255
-0.212 -0.482 0.851 255 255 255
0.19 0.083 0.621 255 255 255
0.228 -0.137 0.674 255 255 255
-0.069 0.028 0.686 255 255 255
0.216 -0.226 0.7 255 255 255
0.249 -0.426 0.748 255 255 255
-0.315 -0.086 0.763 255 255 255
-0.05 0.057 0.675 0 0 0
0.22 0.008 0.634 255 255 255
-0.058 -0.111 0.722 255 255 255
-0.037 0.075 0.667 0 0 0
-0.069 0.155 0.65 0 0 0
-0.135 -0.044 0.718 255 255 255
-0.24 -0.432 0.844 255 255 255
0.246 0.234 0.569 0 0 0
0.113 -0.068 0.678 255 255 255
-0.181 0.152 0.673 0 0 0
0.085 -0.288 0.742 255 255 255
-0.311 0.002 0.74 255 255 255
-0.103 0.273 0.622 255 255 255
-0.301 -0.536 0.885 255 255 255
0.168 0.271 0.575 0 0 0
-0.154 -0.054 0.723 255 255 255
-0.469 -0.562 0.923 255 255 255
-0.074 -0.134 0.732 255 255 255
0.423 -0.127 0.632 0 0 0
-0.385 -0.193 0.804 0 0 0
-0.145 -0.127 0.744 255 255 255
-0.127 0.112 0.673 0 0 0
-0.121 -0.317 0.789 255 255 255
-0.193 -0.006 0.718 0 0 0
0.007 -0.111 0.712 255 255 255
-0.094 -0.462 0.824 255 255 255
0.076 -0.039 0.677 255 255 255
-0.064 0.021 0.686 255 255 255
-0.473 -0.489 0.903 255 255 255
0.213 0.258 0.57 0 0 0
0.199 0.114 0.609 255 255 255
-0.09 0.229 0.635 255 255 255
-0.037 -0.444 0.807 255 255 255
0.211 -0.183 0.691 255 255 255
-0.131 -0.501 0.842 255 255 255
-0.186 -0.055 0.73 255 255 255
0.017 -0.384 0.781 255 255 255
0.378 -0.084 0.63 255 255 255
-0.261 -0.13 0.764 255 255 255
-0.276 0.186 0.679 255 255 255
0.192 -0.437 0.761 255 255 255
-0.369 -0.448 0.872 0 0 0
-0.106 -0.508 0.837 255 255 255
-0.084 0.155 0.652 255 255 255
0.276 0.075 0.604 255 255 255
0.425 -0.201 0.653 255 255 255
0.224 -0.46 0.762 255 255 255
0.277 -0.066 0.646 255 255 255
0.24 0.183 0.58 255 255 255
0.214 -0.564 0.79 255 255 255
0.045 0.063 0.653 255 255 255
0.186 0.019 0.639 255 255 255
0.32 -0.388 0.724 255 255 255
-0.156 0.229 0.648 255 255 255
-0.08 -0.095 0.721 255 255 255
0.065 -0.286 0.747 255 255 255
-0.416 -0.25 0.825 0 0 0
0.265 0.066 0.609 255 255 255
-0.11 0.254 0.627 0 0 0
0.31 -0.02 0.615 0 0 0
-0.034 -0.041 0.698 255 255 255
0.006 0.202 0.624 255 255 255
0.158 0.044 0.637 255 255 255
-0.025 0.019 0.68 255 255 255
-0.228 -0.508 0.862 255 255 255
-0.356 -0.446 0.869 255 255 255
-0.107 -0.074 0.722 255 255 255
-0.179 -0.038 0.724 255 255 255
-0.334 -0.53 0.888 255 255 255
0.182 0.271 0.572 0 0 0
-0.322 -0.213 0.798 255 255 255
-0.46 -0.523 0.911 255 255 255
0.305 -0.421 0.736 255 255 255
0.13 0.26 0.579 0 0 0
-0.33 0.138 0.703 255 255 255
-0.407 0.015 0.752 255 255 255
0.13 0.118 0.621 255 255 255
0.15 0.107 0.622 255 255 255
-0.028 0.149 0.644 255 255 255
-0.111 0.331 0.615 255 255 255
-0.334 -0.009 0.745 255 255 255
0.363 0.015 0.609 255 255 255
0.165 0.281 0.575 255 255 255
0.239 -0.298 0.713 255 255 255
0.228 0.131 0.597 255 255 255
0.404 -0.102 0.631 0 0 0
-0.027 0.299 0.607 255 255 255
0.02 -0.379 0.779 255 255 255
0.426 0.009 0.599 255 255 255
-0.204 -0.014 0.723 255 255 255
0.022 0.229 0.615 0 0 0
-0.17 -0.149 0.753 255 255 255
-0.457 -0.115 0.796 255 255 255
-0.586 -0.031 0.796 255 255 255
0.364 0.018 0.608 255 255 255
0.029 0.277 0.603 0 0 0
-0.57 -0.07 0.802 255 255 255
-0.601 -0.037 0.799 255 255 255
-0.175 0.081 0.693 255 255 255
-0.25 -0.059 0.743 255 255 255
-0.391 0.103 0.722 0 0 0
-0.109 0.002 0.699 0 0 0
-0.583 -0.339 0.88 255 255 255
0.04 -0.092 0.699 255 255 255
0.036 -0.43 0.789 255 255 255
-0.069 0.139 0.655 255 255 255
0.247 0.167 0.586 0 0 0
0.087 -0.273 0.738 255 255 255
0.313 -0.219 0.68 255 255 255
-0.1 -0.378 0.801 255 255 255
-0.15 0.066 0.69 255 255 255
0.304 -0.065 0.641 255 255 255
0.116 -0.024 0.668 0 0 0
-0.155 0.334 0.623 255 255 255
0.07 0.289 0.592 255 255 255
0.084 -0.294 0.744 255 255 255
-0.227 -0.678 0.909 0 0 0
-0.078 0.308 0.613 255 255 255
0.101 -0.092 0.687 255 255 255
0.359 -0.284 0.689 255 255 255
0.152 0.101 0.625 255 255 255
0.261 0.01 0.63 255 255 255
0.162 -0.018 0.656 0 0 0
-0.051 0.315 0.606 255 255 255
0.038 0.147 0.634 0 0 0
-0.081 0.136 0.657 255 255 255
0.148 -0.598 0.815 0 0 0
-0.239 -0.427 0.842 255 255 255
-0.2 0.196 0.661 255 255 255
-0.348 -0.574 0.904 255 255 255
0.165 0.078 0.626 255 255 255
-0.259 -0.291 0.809 255 255 255
-0.113 0.257 0.626 255 255 255
0.117 -0.224 0.72 255 255 255
0.268 0.097 0.597 255 255 255
0.237 0.156 0.588 255 255 255
