ply
format ascii 1.0
comment Created by Open3D
element vertex 1609
property double x
property double y
property double z
property uchar red
property uchar green
property uchar blue
end_header
0.064 0.185 0.602 255 255 255
0.405 -0.498 0.758 255 255 255
-0.116 -0.45 0.783 255 255 255
0.028 -0.526 0.793 255 255 255
-0.369 -0.234 0.744 255 255 255
-0.105 -0.082 0.686 255 255 255
-0.067 -0.002 0.66 255 255 255
0.091 -0.392 0.751 255 255 255
0.036 0.239 0.588 0 0 0
0.138 -0.156 0.688 255 255 255
-0.358 0.045 0.665 255 255 255
-0.53 -0.109 0.721 255 255 255
-0.131 0.287 0.591 255 255 255
0.31 -0.139 0.668 255 255 255
0.197 -0.012 0.643 0 0 0
0.205 0.037 0.631 255 255 255
-0.157 -0.176 0.714 255 255 255
0.177 -0.024 0.65 0 0 0
-0.139 -0.079 0.688 255 255 255
0.166 0.031 0.637 255 255 255
-0.169 0.04 0.658 255 255 255
-0.166 0.056 0.654 255 255 255
-0.321 -0.653 0.851 255 255 255
-0.102 0.3 0.587 255 255 255
0.036 0.26 0.587 255 255 255
-0.374 0.108 0.647 255 255 255
-0.086 -0.485 0.79 255 255 255
0.006 -0.409 0.762 255 255 255
0.248 -0.098 0.664 255 255 255
-0.235 -0.067 0.692 255 255 255
-0.208 -0.394 0.775 255 255 255
-0.111 0.177 0.616 0 0 0
-0.22 -0.185 0.72 255 255 255
-0.266 -0.074 0.695 255 255 255
-0.414 -0.231 0.746 255 255 255
-0.542 -0.12 0.723 255 255 255
-0.474 -0.192 0.74 0 0 0
-0.158 -0.411 0.777 255 255 255
-0.049 0.049 0.646 0 0 0
-0.016 0.05 0.645 255 255 255
0.085 0.13 0.614 255 255 255
-0.359 -0.093 0.706 255 255 255
-0.344 0.154 0.64 255 255 255
-0.141 -0.528 0.806 255 255 255
-0.155 -0.269 0.737 255 255 255
-0.144 -0.085 0.69 255 255 255
0.163 -0.094 0.669 255 255 255
-0.16 -0.622 0.83 0 0 0
0.081 0.215 0.591 255 255 255
-0.375 -0.049 0.695 255 255 255
0.076 0.26 0.585 0 0 0
-0.351 0.065 0.659 255 255 255
0.195 -0.379 0.74 255 255 255
-0.196 -0.002 0.669 255 255 255
0.036 0.295 0.578 255 255 255
0.199 -0.435 0.756 255 255 255
-0.109 0.049 0.652 255 255 255
-0.266 -0.05 0.69 255 255 255
0.413 -0.041 0.638 255 255 255
-0.064 0.236 0.599 255 255 255
0.409 -0.4 0.73 255 255 255
0.228 0.081 0.615 0 0 0
0.159 0.286 0.571 255 255 255
-0.326 0.117 0.649 255 255 255
0.044 -0.404 0.758 255 255 255
0.062 0.271 0.582 0 0 0
-0.225 -0.538 0.814 255 255 255
0.398 0.021 0.624 0 0 0
0.22 -0.243 0.704 255 255 255
0.27 -0.099 0.662 255 255 255
0.316 -0.591 0.789 0 0 0
0.199 0.299 0.564 255 255 255
0.32 0.129 0.597 255 255 255
-0.227 0.24 0.598 255 255 255
-0.066 0.07 0.641 255 255 255
-0.438 0.005 0.683 255 255 255
0.281 -0.063 0.653 255 255 255
-0.148 -0.246 0.73 255 255 255
0.33 -0.315 0.716 255 255 255
-0.415 -0.614 0.848 0 0 0
0.431 -0.324 0.708 255 255 255
0.391 -0.359 0.722 255 255 255
-0.296 -0.502 0.809 255 255 255
0.309 0.177 0.592 255 255 255
-0.12 -0.061 0.682 255 255 255
0.094 0.081 0.626 255 255 255
-0.14 -0.055 0.681 255 255 255
-0.337 0.095 0.653 255 255 255
0.14 0.276 0.575 255 255 255
0.192 0.218 0.583 255 255 255
-0.028 -0.119 0.69 255 255 255
0.2 0.052 0.627 255 255 255
-0.154 0.125 0.635 255 255 255
0.038 0.301 0.577 255 255 255
0.352 -0.408 0.737 255 255 255
0.179 0.063 0.625 255 255 255
-0.069 -0.353 0.754 255 255 255
-0.138 0.058 0.651 0 0 0
-0.09 -0.372 0.761 255 255 255
-0.231 0.311 0.592 255 255 255
0.13 0.1 0.623 0 0 0
0.211 -0.341 0.729 255 255 255
-0.292 -0.33 0.764 255 255 255
0.207 -0.013 0.638 255 255 255
-0.273 -0.08 0.698 255 255 255
-0.027 -0.357 0.752 255 255 255
-0.13 -0.599 0.823 0 0 0
-0.324 -0.109 0.709 255 255 255
0.11 -0.139 0.686 255 255 255
0.358 -0.505 0.761 255 255 255
-0.437 -0.053 0.699 255 255 255
-0.137 -0.34 0.756 255 255 255
-0.045 -0.521 0.796 255 255 255
-0.334 0.123 0.648 255 255 255
0.247 0.18 0.592 255 255 255
0.017 -0.082 0.678 255 255 255
-0.129 -0.162 0.709 255 255 255
0.149 -0.223 0.703 255 255 255
-0.33 -0.173 0.726 255 255 255
-0.028 -0.152 0.7 255 255 255
0.062 0.118 0.62 255 255 255
-0.351 -0.663 0.857 255 255 255
-0.283 -0.088 0.701 255 255 255
-0.081 0.077 0.64 255 255 255
0.479 -0.198 0.673 255 255 255
-0.236 -0.294 0.751 255 255 255
0.113 -0.005 0.646 255 255 255
-0.054 0.154 0.619 255 255 255
-0.172 -0.14 0.706 255 255 255
-0.132 -0.076 0.686 255 255 255
0.034 -0.317 0.738 255 255 255
-0.057 -0.154 0.702 255 255 255
-0.038 0.266 0.591 0 0 0
-0.105 0.226 0.605 255 255 255
0.121 0.162 0.601 255 255 255
-0.378 0.079 0.658 255 255 255
0.068 0.082 0.629 0 0 0
-0.329 0.03 0.67 255 255 255
0.054 -0.084 0.676 255 255 255
-0.216 -0.001 0.669 0 0 0
-0.314 -0.054 0.692 255 255 255
-0.024 -0.445 0.775 255 255 255
-0.186 -0.225 0.729 255 255 255
0.31 -0.106 0.662 255 255 255
-0.228 -0.154 0.714 255 255 255
-0.013 -0.114 0.688 255 255 255
0.011 -0.61 0.816 0 0 0
-0.446 -0.353 0.782 255 255 255
0.157 -0.081 0.666 255 255 255
-0.106 -0.315 0.747 255 255 255
-0.291 -0.065 0.694 0 0 0
0.215 -0.347 0.73 255 255 255
-0.181 0.021 0.664 255 255 255
-0.265 -0.002 0.676 255 255 255
0.238 0.205 0.581 0 0 0
-0.098 -0.05 0.678 255 255 255
-0.244 -0.501 0.806 255 255 255
0.336 -0.304 0.713 255 255 255
-0.215 -0.566 0.821 255 255 255
-0.171 0.317 0.589 255 255 255
-0.214 -0.413 0.781 255 255 255
-0.067 -0.619 0.823 0 0 0
0.253 -0.11 0.667 255 255 255
-0.262 -0.579 0.828 255 255 255
0.023 -0.057 0.671 255 255 255
-0.337 -0.326 0.766 0 0 0
0.252 -0.525 0.776 255 255 255
-0.392 -0.596 0.842 255 255 255
0.242 -0.195 0.69 255 255 255
0.005 -0.569 0.805 255 255 255
0.23 0.166 0.594 0 0 0
0.159 -0.597 0.802 0 0 0
0.273 0.036 0.628 255 255 255
0.141 0.039 0.634 255 255 255
-0.106 0.3 0.587 255 255 255
0.049 0.169 0.608 0 0 0
-0.326 -0.036 0.692 255 255 255
0.07 -0.494 0.78 255 255 255
0.187 -0.472 0.767 255 255 255
0.193 -0.497 0.772 255 255 255
0.181 -0.053 0.656 255 255 255
0.391 -0.411 0.735 255 255 255
0.405 -0.056 0.642 255 255 255
-0.096 -0.004 0.664 0 0 0
0.03 -0.107 0.684 255 255 255
0.168 0.157 0.599 255 255 255
0.256 -0.303 0.717 255 255 255
0.057 0.285 0.579 255 255 255
0.31 -0.397 0.739 255 255 255
-0.321 -0.203 0.732 255 255 255
0.038 -0.487 0.782 255 255 255
0.479 -0.147 0.66 255 255 255
-0.139 0.315 0.585 255 255 255
0.232 -0.027 0.632 255 255 255
-0.274 0.19 0.625 255 255 255
0.394 -0.15 0.666 255 255 255
0.109 0.117 0.619 0 0 0
0.194 0.308 0.562 255 255 255
0.248 0.12 0.608 255 255 255
0.374 -0.025 0.636 255 255 255
0.108 -0.025 0.656 0 0 0
0.105 0.182 0.604 255 255 255
-0.411 -0.112 0.716 255 255 255
0.307 -0.419 0.744 255 255 255
-0.546 -0.097 0.718 255 255 255
0.088 -0.28 0.724 255 255 255
0.117 -0.189 0.699 255 255 255
-0.348 -0.092 0.706 255 255 255
-0.245 -0.198 0.726 255 255 255
-0.08 0.159 0.619 0 0 0
-0.186 0.019 0.665 255 255 255
-0.066 0.315 0.582 255 255 255
-0.209 -0.564 0.82 255 255 255
0.344 0.066 0.616 255 255 255
0.349 -0.207 0.686 255 255 255
0.023 -0.176 0.701 255 255 255
0.098 -0.173 0.695 255 255 255
-0.17 -0.096 0.694 255 255 255
0.227 -0.062 0.657 255 255 255
0.102 -0.166 0.693 255 255 255
0.016 0.138 0.619 0 0 0
0.017 0.23 0.595 0 0 0
0.328 0.053 0.62 255 255 255
0.089 0.04 0.637 255 255 255
0.152 -0.008 0.648 255 255 255
-0.196 0.218 0.614 255 255 255
0.134 0.263 0.578 0 0 0
-0.049 0.23 0.599 255 255 255
-0.313 -0.014 0.676 0 0 0
-0.354 -0.01 0.681 255 255 255
0.083 0.176 0.603 255 255 255
0.423 -0.114 0.657 0 0 0
0.349 -0.399 0.736 255 255 255
-0.137 0.312 0.586 255 255 255
0.356 0.055 0.618 255 255 255
0.314 -0.283 0.708 255 255 255
0.095 0.092 0.623 255 255 255
0.033 -0.021 0.657 0 0 0
0.047 0.072 0.637 255 255 255
-0.245 0.229 0.612 0 0 0
0.249 -0.604 0.797 0 0 0
0.06 -0.023 0.657 0 0 0
0.062 -0.043 0.663 0 0 0
-0.208 0.213 0.612 255 255 255
0.261 -0.057 0.654 255 255 255
0.047 -0.039 0.664 255 255 255
-0.461 -0.118 0.719 0 0 0
-0.016 0.147 0.618 255 255 255
-0.281 0.078 0.655 0 0 0
-0.077 -0.107 0.691 255 255 255
0.358 -0.004 0.633 255 255 255
0.048 0.004 0.654 0 0 0
0.264 -0.488 0.765 255 255 255
0.235 0.259 0.574 0 0 0
-0.182 -0.332 0.757 255 255 255
0.161 -0.219 0.702 255 255 255
-0.137 -0.188 0.717 255 255 255
0.303 0.102 0.604 255 255 255
-0.044 0.151 0.62 255 255 255
0.227 0.18 0.59 0 0 0
0.144 -0.354 0.737 255 255 255
0.09 -0.605 0.809 0 0 0
0.012 -0.052 0.67 255 255 255
0.163 -0.48 0.77 255 255 255
-0.281 -0.052 0.691 255 255 255
-0.342 0.172 0.635 255 255 255
-0.344 -0.026 0.684 255 255 255
-0.083 -0.62 0.824 0 0 0
-0.306 -0.543 0.82 255 255 255
-0.404 -0.101 0.711 255 255 255
-0.258 -0.176 0.721 255 255 255
0.124 -0.121 0.68 255 255 255
0.041 0.299 0.577 255 255 255
-0.002 -0.144 0.695 255 255 255
0.426 -0.007 0.628 255 255 255
0.179 0.285 0.569 255 255 255
0.151 -0.029 0.654 0 0 0
-0.186 -0.238 0.733 255 255 255
-0.23 -0.132 0.708 255 255 255
0.229 -0.124 0.672 255 255 255
-0.139 0.266 0.598 0 0 0
-0.182 -0.131 0.704 255 255 255
-0.264 0.133 0.64 255 255 255
-0.197 0.297 0.593 255 255 255
0.359 -0.553 0.775 255 255 255
0.189 -0.174 0.689 255 255 255
0.002 0.243 0.594 255 255 255
-0.128 -0.069 0.684 255 255 255
0.415 -0.221 0.686 255 255 255
0.043 0.009 0.65 0 0 0
-0.256 0.132 0.64 255 255 255
0.195 0.236 0.577 255 255 255
0.19 0.262 0.573 0 0 0
0.169 -0.004 0.646 0 0 0
0.066 -0.493 0.78 255 255 255
0.151 -0.584 0.799 0 0 0
0.173 -0.074 0.663 255 255 255
0.096 0.301 0.571 255 255 255
-0.073 0.251 0.597 255 255 255
0.448 -0.258 0.691 255 255 255
-0.009 -0.014 0.662 255 255 255
0.038 0.298 0.577 255 255 255
0.186 -0.097 0.669 255 255 255
0.077 -0.218 0.709 255 255 255
-0.248 -0.245 0.738 255 255 255
0.231 -0.123 0.672 255 255 255
-0.194 0.16 0.628 255 255 255
-0.147 0.277 0.596 0 0 0
-0.199 0.236 0.61 255 255 255
0.187 -0.564 0.79 255 255 255
-0.163 0.315 0.588 255 255 255
-0.107 0.108 0.634 0 0 0
0.211 -0.176 0.687 255 255 255
0.249 0.086 0.616 255 255 255
0.379 0.039 0.621 255 255 255
0.074 0.304 0.572 255 255 255
-0.245 0.231 0.612 0 0 0
-0.31 -0.268 0.749 0 0 0
0.274 -0.149 0.677 255 255 255
0.264 -0.178 0.684 255 255 255
-0.312 -0.175 0.725 255 255 255
0.053 -0.362 0.747 255 255 255
-0.286 -0.377 0.777 255 255 255
0.041 0.212 0.599 255 255 255
0.079 -0.564 0.798 255 255 255
-0.059 -0.371 0.757 255 255 255
0.115 -0.344 0.738 255 255 255
0.378 0.074 0.612 255 255 255
0.027 -0.428 0.767 255 255 255
-0.164 -0.114 0.698 255 255 255
-0.351 0.149 0.641 255 255 255
-0.073 -0.512 0.795 255 255 255
-0.228 0.244 0.596 255 255 255
0.051 -0.133 0.689 255 255 255
-0.076 -0.008 0.665 0 0 0
-0.226 -0.073 0.693 255 255 255
0.41 0.06 0.613 255 255 255
-0.217 0.153 0.633 0 0 0
0.157 0.113 0.613 255 255 255
-0.387 -0.047 0.695 255 255 255
-0.063 0.192 0.61 255 255 255
-0.443 -0.216 0.744 255 255 255
0.221 0.226 0.575 0 0 0
-0.245 -0.642 0.843 0 0 0
-0.029 -0.078 0.68 255 255 255
0.429 -0.145 0.665 255 255 255
-0.273 0.233 0.615 255 255 255
0.157 -0.361 0.739 255 255 255
0.328 0.037 0.624 255 255 255
0.426 0.019 0.623 255 255 255
-0.111 -0.002 0.665 255 255 255
0.142 -0.449 0.763 255 255 255
0.346 0.044 0.622 0 0 0
-0.188 -0.575 0.821 255 255 255
-0.115 0.081 0.644 255 255 255
0.325 -0.143 0.668 255 255 255
0.265 -0.028 0.649 255 255 255
0.433 -0.179 0.673 255 255 255
-0.275 0.203 0.621 255 255 255
0.034 0.246 0.585 0 0 0
-0.009 0.19 0.608 255 255 255
-0.258 -0.354 0.768 255 255 255
-0.335 -0.216 0.738 255 255 255
0.242 0.22 0.577 255 255 255
0.146 -0.009 0.648 255 255 255
0.071 0 0.652 255 255 255
0.314 0.126 0.599 255 255 255
-0.227 0.179 0.624 255 255 255
0.267 0.012 0.636 255 255 255
0.23 0.208 0.577 0 0 0
0.105 -0.074 0.668 255 255 255
-0.235 -0.109 0.702 255 255 255
0.077 -0.434 0.764 255 255 255
-0.257 -0.138 0.712 255 255 255
0.229 0.016 0.629 0 0 0
-0.295 -0.482 0.805 255 255 255
-0.13 -0.367 0.763 255 255 255
-0.162 -0.152 0.709 255 255 255
-0.249 -0.421 0.786 255 255 255
-0.298 -0.089 0.702 0 0 0
-0.058 0.202 0.607 0 0 0
0.049 0.19 0.604 255 255 255
-0.123 -0.064 0.683 255 255 255
0.147 -0.126 0.679 255 255 255
0.432 -0.176 0.672 255 255 255
-0.23 -0.185 0.721 255 255 255
0.057 0.165 0.607 255 255 255
-0.226 0.055 0.663 0 0 0
0.17 -0.41 0.75 255 255 255
0.137 -0.017 0.65 0 0 0
-0.135 -0.488 0.794 255 255 255
-0.291 0.041 0.666 0 0 0
-0.244 0.221 0.61 0 0 0
0.115 -0.067 0.665 255 255 255
0.414 -0.047 0.639 255 255 255
0.207 -0.205 0.695 255 255 255
-0.106 -0.168 0.708 255 255 255
0.109 -0.313 0.729 255 255 255
0.2 0.215 0.584 0 0 0
0.072 -0.054 0.666 255 255 255
-0.167 0.031 0.659 255 255 255
0.21 0.102 0.611 255 255 255
-0.116 -0.121 0.698 255 255 255
0.275 -0.269 0.709 255 255 255
0.13 -0.365 0.742 255 255 255
-0.041 -0.222 0.719 255 255 255
0.008 -0.078 0.678 255 255 255
-0.289 -0.013 0.681 255 255 255
0.15 -0.31 0.726 255 255 255
-0.16 0.027 0.661 0 0 0
-0.328 0.086 0.655 255 255 255
0.386 -0.319 0.712 255 255 255
0.203 -0.148 0.68 255 255 255
-0.171 -0.58 0.82 255 255 255
-0.244 0.298 0.598 255 255 255
0.062 0.092 0.628 255 255 255
0.075 -0.462 0.771 255 255 255
-0.017 -0.247 0.724 255 255 255
0.263 -0.474 0.76 255 255 255
0.399 -0.383 0.727 255 255 255
-0.08 -0.02 0.667 0 0 0
0.395 -0.568 0.78 0 0 0
0.241 0.258 0.574 0 0 0
-0.291 -0.279 0.75 0 0 0
-0.394 0.063 0.662 0 0 0
-0.03 0.131 0.624 255 255 255
0.37 0 0.632 255 255 255
0.032 -0.509 0.788 255 255 255
0.044 0.265 0.584 0 0 0
-0.455 -0.14 0.724 255 255 255
-0.137 0.079 0.645 0 0 0
-0.146 0.3 0.59 255 255 255
-0.058 0.212 0.605 0 0 0
-0.023 -0.478 0.784 255 255 255
0.447 -0.118 0.656 255 255 255
-0.003 0.018 0.653 255 255 255
0.181 -0.062 0.659 255 255 255
0.332 0.048 0.622 255 255 255
-0.185 0.242 0.608 0 0 0
-0.27 0.238 0.613 255 255 255
0.235 0.041 0.628 0 0 0
-0.334 -0.095 0.705 255 255 255
-0.432 -0.029 0.695 255 255 255
0.129 -0.197 0.699 255 255 255
-0.169 -0.635 0.835 0 0 0
-0.156 -0.129 0.702 255 255 255
0.298 -0.489 0.762 255 255 255
0.156 0.293 0.568 255 255 255
-0.198 -0.138 0.707 255 255 255
0.109 0.082 0.624 0 0 0
0.064 -0.332 0.739 255 255 255
0.165 -0.32 0.726 255 255 255
0.239 -0.028 0.639 0 0 0
0.276 -0.369 0.733 255 255 255
-0.485 -0.286 0.765 255 255 255
0.47 -0.137 0.657 255 255 255
0.231 0.279 0.568 255 255 255
-0.239 0.032 0.662 255 255 255
0.025 0.058 0.64 0 0 0
0.235 -0.367 0.734 255 255 255
-0.202 -0.221 0.729 255 255 255
-0.269 0.091 0.651 255 255 255
-0.048 -0.231 0.721 255 255 255
0.057 0.143 0.613 255 255 255
-0.329 0.025 0.671 255 255 255
-0.021 0.064 0.64 255 255 255
-0.148 0.267 0.599 0 0 0
0.094 -0.176 0.696 255 255 255
0.012 0.134 0.618 255 255 255
0.409 -0.265 0.696 255 255 255
-0.138 -0.167 0.711 255 255 255
0.008 -0.073 0.677 255 255 255
-0.424 0.008 0.682 255 255 255
0.053 -0.614 0.813 0 0 0
0.196 0.168 0.598 255 255 255
-0.507 -0.265 0.761 255 255 255
-0.293 -0.027 0.685 255 255 255
-0.491 -0.22 0.748 255 255 255
0.236 0.042 0.628 0 0 0
-0.31 0.065 0.661 255 255 255
0.125 0.14 0.607 255 255 255
-0.192 0.043 0.66 255 255 255
0.162 -0.347 0.735 255 255 255
-0.03 -0.094 0.682 255 255 255
-0.279 -0.058 0.692 255 255 255
-0.401 0.014 0.679 255 255 255
-0.303 -0.546 0.821 255 255 255
-0.151 0.296 0.591 255 255 255
-0.036 0.229 0.597 255 255 255
0.029 0.21 0.597 0 0 0
0.227 -0.216 0.697 255 255 255
-0.322 0.19 0.628 255 255 255
0.149 -0.4 0.749 255 255 255
0.247 0.091 0.615 255 255 255
0.064 0.044 0.639 255 255 255
0.37 -0.269 0.701 255 255 255
0.233 -0.291 0.715 255 255 255
-0.225 0.235 0.601 255 255 255
0.102 0.045 0.635 255 255 255
-0.286 -0.087 0.701 255 255 255
-0.065 -0.325 0.747 255 255 255
0.049 0.219 0.597 255 255 255
-0.334 0.102 0.652 255 255 255
0.113 -0.385 0.748 255 255 255
0.052 -0.339 0.741 255 255 255
-0.315 0.134 0.644 255 255 255
0.116 -0.153 0.689 255 255 255
-0.489 0.024 0.681 255 255 255
0.098 0.147 0.609 0 0 0
-0.102 -0.177 0.711 255 255 255
0.008 -0.033 0.666 255 255 255
0.032 -0.237 0.717 255 255 255
-0.153 -0.231 0.727 255 255 255
0.218 -0.52 0.776 255 255 255
0.306 -0.098 0.66 255 255 255
0.044 -0.068 0.673 255 255 255
0.004 -0.089 0.68 255 255 255
-0.354 -0.219 0.739 255 255 255
-0.126 0.035 0.656 255 255 255
-0.009 0.146 0.619 255 255 255
0.01 0.069 0.64 255 255 255
0.123 -0.129 0.683 255 255 255
-0.252 -0.167 0.719 255 255 255
-0.469 -0.11 0.716 0 0 0
0.365 -0.193 0.681 255 255 255
-0.402 -0.313 0.767 255 255 255
-0.217 -0.077 0.693 255 255 255
0.098 -0.371 0.744 255 255 255
0.057 0.121 0.619 255 255 255
-0.05 0.178 0.612 255 255 255
0.266 -0.406 0.744 255 255 255
-0.345 -0.067 0.699 255 255 255
0.313 -0.118 0.662 0 0 0
0.348 -0.476 0.756 255 255 255
-0.006 -0.171 0.704 255 255 255
0.03 -0.446 0.77 255 255 255
-0.02 -0.123 0.691 255 255 255
-0.081 0.268 0.594 0 0 0
0.207 0.013 0.635 255 255 255
-0.016 -0.017 0.663 255 255 255
0.149 0.057 0.632 255 255 255
-0.087 0.176 0.615 255 255 255
-0.163 0.038 0.658 255 255 255
-0.268 -0.158 0.717 255 255 255
0.112 -0.154 0.689 255 255 255
-0.099 0.214 0.607 255 255 255
0.035 0.31 0.577 255 255 255
0.336 -0.287 0.709 255 255 255
0.078 0.226 0.59 255 255 255
-0.395 -0.277 0.757 255 255 255
0.291 -0.411 0.743 255 255 255
0.065 -0.176 0.698 255 255 255
-0.329 -0.292 0.756 255 255 255
0.14 -0.004 0.648 255 255 255
0.3 -0.244 0.7 255 255 255
-0.26 -0.194 0.726 255 255 255
0.379 -0.525 0.765 255 255 255
0.32 -0.211 0.689 255 255 255
-0.208 -0.558 0.818 255 255 255
0.383 -0.284 0.705 255 255 255
-0.008 0.191 0.607 255 255 255
-0.249 -0.6 0.832 0 0 0
0.021 0.186 0.603 255 255 255
0.327 0.123 0.6 255 255 255
0.14 0.212 0.591 0 0 0
0.066 -0.088 0.676 255 255 255
0.315 0.017 0.631 255 255 255
-0.122 -0.121 0.699 255 255 255
0.292 0.01 0.635 255 255 255
-0.33 -0.348 0.771 255 255 255
-0.394 -0.163 0.728 255 255 255
0.007 -0.12 0.689 255 255 255
0.211 0.286 0.566 255 255 255
0.053 -0.329 0.738 255 255 255
0.134 0.27 0.576 0 0 0
-0.378 -0.086 0.706 255 255 255
0.04 -0.31 0.734 255 255 255
-0.075 -0.294 0.74 255 255 255
-0.116 -0.408 0.772 255 255 255
0.238 0.171 0.594 255 255 255
0.068 0.061 0.633 255 255 255
-0.039 0.247 0.591 255 255 255
-0.398 -0.38 0.784 255 255 255
0.01 0.057 0.643 255 255 255
0.027 -0.299 0.733 255 255 255
0.309 -0.158 0.673 255 255 255
-0.091 -0.324 0.749 255 255 255
-0.208 0.24 0.606 0 0 0
0.199 -0.376 0.739 255 255 255
0.026 0.031 0.646 0 0 0
-0.03 -0.34 0.747 255 255 255
0.179 0.015 0.641 255 255 255
0.017 -0.469 0.777 255 255 255
0.274 0.002 0.639 255 255 255
-0.062 -0.006 0.662 255 255 255
0.424 -0.332 0.71 255 255 255
0.178 -0.129 0.676 255 255 255
0.028 -0.011 0.655 0 0 0
0.147 0.184 0.596 255 255 255
-0.382 -0.383 0.784 255 255 255
0.156 -0.156 0.685 255 255 255
0.215 -0.549 0.785 255 255 255
-0.085 -0.171 0.708 255 255 255
0.228 0.032 0.628 0 0 0
0.374 0.002 0.631 255 255 255
0.142 0.114 0.614 0 0 0
-0.01 -0.113 0.688 255 255 255
-0.132 0.133 0.63 255 255 255
0.422 0.029 0.622 255 255 255
-0.233 -0.302 0.752 255 255 255
-0.326 -0.394 0.783 255 255 255
-0.178 -0.199 0.722 255 255 255
0.433 -0.328 0.71 255 255 255
-0.199 0.232 0.609 255 255 255
0.259 0.254 0.574 0 0 0
0.359 -0.162 0.671 255 255 255
-0.226 -0.644 0.839 255 255 255
-0.055 0.011 0.654 255 255 255
-0.015 -0.048 0.67 255 255 255
-0.059 0.017 0.653 255 255 255
0.064 -0.251 0.719 255 255 255
-0.188 -0.312 0.751 255 255 255
0.251 0.234 0.582 255 255 255
-0.057 0.126 0.627 255 255 255
0.275 -0.547 0.78 255 255 255
0.141 -0.142 0.685 255 255 255
0.359 0.121 0.6 255 255 255
0.383 -0.373 0.727 255 255 255
-0.208 -0.572 0.821 255 255 255
0.309 -0.139 0.669 255 255 255
0.362 -0.309 0.713 255 255 255
-0.131 -0.383 0.767 255 255 255
0.187 -0.505 0.775 255 255 255
-0.237 0.123 0.641 255 255 255
-0.009 -0.283 0.731 255 255 255
0.287 -0.221 0.694 255 255 255
-0.535 -0.166 0.736 255 255 255
0.057 0.239 0.589 0 0 0
0.298 -0.143 0.669 255 255 255
-0.2 -0.154 0.711 255 255 255
-0.406 0.064 0.663 255 255 255
-0.197 0.13 0.637 255 255 255
0.103 -0.013 0.653 0 0 0
0.297 -0.071 0.654 255 255 255
0.386 -0.159 0.67 255 255 255
-0.103 0.168 0.619 0 0 0
-0.281 0.064 0.66 0 0 0
-0.165 -0.439 0.783 255 255 255
0.039 0.228 0.591 0 0 0
-0.069 -0.135 0.698 255 255 255
0.283 -0.197 0.688 255 255 255
-0.09 -0.187 0.713 255 255 255
-0.248 0.211 0.616 255 255 255
0.181 -0.24 0.706 255 255 255
-0.403 -0.595 0.842 255 255 255
0.093 -0.341 0.738 255 255 255
-0.029 0.003 0.653 0 0 0
-0.137 0.214 0.609 0 0 0
-0.405 -0.245 0.749 255 255 255
0.047 0.275 0.583 0 0 0
-0.095 0.098 0.636 255 255 255
-0.254 -0.037 0.683 255 255 255
-0.034 -0.168 0.705 255 255 255
-0.282 -0.306 0.757 255 255 255
-0.202 0.185 0.624 0 0 0
0.038 0.157 0.611 255 255 255
-0.113 -0.261 0.733 255 255 255
-0.247 -0.085 0.696 255 255 255
0.079 -0.078 0.671 255 255 255
-0.155 0.061 0.651 255 255 255
0.006 -0.234 0.718 255 255 255
0.332 0.084 0.611 255 255 255
0.076 -0.021 0.656 0 0 0
-0.165 -0.345 0.759 255 255 255
0.444 -0.272 0.694 255 255 255
-0.325 0.17 0.634 0 0 0
0.407 0.026 0.624 255 255 255
0.076 -0.519 0.787 255 255 255
0.436 -0.132 0.66 255 255 255
0.181 0.305 0.564 255 255 255
0.37 -0.071 0.648 255 255 255
0.248 -0.09 0.663 255 255 255
0.257 -0.513 0.771 255 255 255
0.407 -0.018 0.633 255 255 255
0.082 -0.3 0.728 255 255 255
0.206 -0.107 0.669 255 255 255
0.275 -0.261 0.706 255 255 255
0.364 -0.432 0.744 255 255 255
-0.241 -0.319 0.758 255 255 255
-0.242 0.059 0.657 0 0 0
-0.088 -0.33 0.75 255 255 255
-0.268 -0.477 0.803 255 255 255
0.267 -0.241 0.701 255 255 255
0.212 0.062 0.622 0 0 0
-0.258 -0.083 0.698 255 255 255
-0.334 0.185 0.631 255 255 255
-0.46 -0.029 0.696 255 255 255
-0.179 -0.353 0.762 255 255 255
-0.029 -0.001 0.655 0 0 0
-0.228 0.104 0.646 0 0 0
-0.269 -0.005 0.677 255 255 255
0.266 0.064 0.62 255 255 255
0.123 0.02 0.64 255 255 255
-0.349 0.166 0.638 255 255 255
-0.138 -0.244 0.73 255 255 255
-0.152 -0.149 0.707 255 255 255
-0.252 -0.05 0.688 255 255 255
-0.06 -0.069 0.679 255 255 255
0.077 0.291 0.575 255 255 255
-0.26 -0.138 0.712 255 255 255
0.222 0.088 0.616 0 0 0
0.44 0.023 0.621 255 255 255
0.134 0.017 0.641 255 255 255
0.113 -0.303 0.726 255 255 255
-0.238 -0.071 0.693 255 255 255
-0.115 -0.121 0.698 255 255 255
-0.176 -0.267 0.739 255 255 255
0.147 -0.282 0.719 255 255 255
-0.124 -0.464 0.787 255 255 255
0.19 0.293 0.565 255 255 255
-0.112 -0.546 0.808 255 255 255
0.216 -0.043 0.638 0 0 0
-0.13 0.036 0.656 0 0 0
0.405 -0.44 0.742 255 255 255
0.287 -0.424 0.747 255 255 255
-0.116 0.242 0.601 255 255 255
0.266 0.129 0.603 255 255 255
0.143 0.252 0.582 255 255 255
0.253 -0.074 0.658 255 255 255
-0.251 -0.655 0.845 255 255 255
0.047 -0.228 0.713 255 255 255
0.237 -0.531 0.778 255 255 255
0.067 0.005 0.649 0 0 0
-0.185 -0.067 0.687 255 255 255
-0.076 0.02 0.656 255 255 255
0.048 0.087 0.631 255 255 255
0.06 -0.064 0.67 255 255 255
0.429 -0.357 0.717 255 255 255
-0.191 0.104 0.639 255 255 255
-0.505 -0.027 0.697 255 255 255
0.256 -0.235 0.7 255 255 255
-0.241 0.112 0.645 0 0 0
-0.212 0.048 0.66 255 255 255
0.403 -0.399 0.73 255 255 255
0.086 -0.368 0.746 255 255 255
0.23 -0.017 0.632 255 255 255
0.32 0.035 0.625 255 255 255
0.411 -0.063 0.642 0 0 0
-0.127 0.318 0.584 255 255 255
0.161 -0.005 0.646 255 255 255
-0.104 -0.07 0.682 255 255 255
0.337 -0.259 0.701 255 255 255
-0.259 -0.076 0.695 255 255 255
-0.212 0.334 0.587 255 255 255
-0.027 -0.177 0.706 255 255 255
-0.203 0.133 0.636 255 255 255
0.132 -0.173 0.693 255 255 255
-0.265 -0.178 0.722 255 255 255
-0.143 -0.142 0.705 255 255 255
0.008 -0.349 0.747 255 255 255
-0.142 -0.498 0.798 255 255 255
-0.318 -0.285 0.753 255 255 255
0.136 -0.154 0.688 255 255 255
0.071 0.291 0.576 255 255 255
-0.384 -0.16 0.726 255 255 255
-0.326 -0.431 0.792 255 255 255
0.316 -0.051 0.647 255 255 255
0.189 -0.188 0.692 255 255 255
0.152 0.234 0.584 255 255 255
-0.399 -0.211 0.74 255 255 255
-0.439 -0.134 0.722 255 255 255
-0.093 0.006 0.663 0 0 0
0.23 0.236 0.569 255 255 255
0.172 0.148 0.604 0 0 0
0.062 0.177 0.604 255 255 255
-0.444 -0.192 0.738 255 255 255
-0.14 -0.073 0.685 255 255 255
0.195 -0.054 0.657 255 255 255
0.081 0.13 0.616 255 255 255
-0.447 -0.398 0.792 255 255 255
0.212 -0.222 0.699 255 255 255
-0.285 -0.181 0.725 255 255 255
0.321 -0.345 0.725 255 255 255
-0.302 0.087 0.656 0 0 0
0.088 -0.602 0.809 0 0 0
-0.038 0.156 0.617 255 255 255
0.081 -0.337 0.737 255 255 255
-0.139 0.081 0.645 255 255 255
-0.154 -0.226 0.726 255 255 255
-0.182 -0.306 0.749 255 255 255
0.062 0.257 0.586 255 255 255
0.343 0.068 0.615 255 255 255
0.02 -0.54 0.797 255 255 255
0.347 0.062 0.616 255 255 255
0.335 -0.449 0.751 255 255 255
0.179 -0.123 0.675 255 255 255
0.124 -0.081 0.669 255 255 255
-0.35 -0.343 0.771 0 0 0
-0.037 0.278 0.589 0 0 0
-0.086 -0.187 0.712 255 255 255
-0.169 -0.035 0.678 255 255 255
0.197 -0.08 0.663 255 255 255
-0.202 -0.488 0.799 255 255 255
0.189 -0.059 0.657 255 255 255
-0.302 -0.07 0.697 0 0 0
-0.287 -0.033 0.687 255 255 255
0.248 -0.585 0.792 0 0 0
0.041 0.215 0.598 255 255 255
-0.278 0.057 0.661 255 255 255
0.219 -0.111 0.67 255 255 255
0.346 -0.174 0.674 255 255 255
0.179 0.269 0.572 0 0 0
-0.024 -0.575 0.81 255 255 255
0.221 0.216 0.579 0 0 0
0.249 -0.167 0.682 255 255 255
-0.203 0.169 0.627 255 255 255
0.229 0.2 0.581 0 0 0
-0.313 -0.098 0.705 255 255 255
0.226 -0.62 0.802 255 255 255
-0.247 -0.629 0.84 0 0 0
0.286 -0.401 0.741 255 255 255
0.108 0.263 0.58 0 0 0
0.202 -0.151 0.681 255 255 255
0.299 -0.258 0.703 255 255 255
0.31 -0.048 0.648 255 255 255
0.238 0.169 0.596 255 255 255
-0.196 0.042 0.66 0 0 0
0.425 -0.103 0.653 255 255 255
-0.121 -0.184 0.713 255 255 255
-0.097 0.014 0.661 0 0 0
-0.098 0.017 0.66 255 255 255
-0.15 -0.369 0.765 255 255 255
-0.482 -0.32 0.774 255 255 255
-0.196 -0.051 0.685 255 255 255
-0.36 -0.495 0.813 255 255 255
-0.196 -0.217 0.727 255 255 255
-0.042 -0.174 0.706 255 255 255
0.174 -0.289 0.72 255 255 255
0.265 0.219 0.581 255 255 255
0.193 -0.536 0.783 255 255 255
-0.187 -0.293 0.747 255 255 255
0.317 0.033 0.625 255 255 255
-0.119 0.131 0.629 255 255 255
-0.25 -0.141 0.712 255 255 255
-0.448 -0.245 0.753 255 255 255
-0.147 -0.195 0.719 255 255 255
-0.135 0.27 0.597 0 0 0
0.118 0.046 0.633 255 255 255
0.065 0.192 0.6 255 255 255
0.111 -0.53 0.788 255 255 255
0.026 -0.308 0.735 255 255 255
0.219 -0.008 0.635 0 0 0
-0.161 -0.522 0.805 255 255 255
0.01 0.161 0.612 0 0 0
-0.104 0.058 0.649 255 255 255
-0.165 0.275 0.597 0 0 0
0.214 -0.075 0.66 255 255 255
-0.17 0.154 0.629 0 0 0
-0.055 0.073 0.641 0 0 0
0.089 0.2 0.595 0 0 0
-0.022 -0.317 0.74 255 255 255
-0.145 -0.243 0.731 255 255 255
-0.325 0.143 0.642 0 0 0
0.29 -0.12 0.664 255 255 255
0.03 -0.085 0.678 255 255 255
-0.346 -0.244 0.745 255 255 255
0.182 0.294 0.565 255 255 255
0.291 -0.507 0.769 255 255 255
-0.286 -0.329 0.764 255 255 255
-0.182 -0.292 0.746 255 255 255
0.062 -0.074 0.672 255 255 255
-0.294 -0.492 0.807 255 255 255
0.032 0.113 0.624 255 255 255
0.325 -0.086 0.657 255 255 255
0.262 -0.124 0.67 255 255 255
-0.012 0.03 0.651 255 255 255
0.243 -0.135 0.674 255 255 255
-0.088 -0.044 0.676 255 255 255
0.019 0.026 0.645 0 0 0
-0.097 0.284 0.59 255 255 255
-0.187 0.107 0.639 255 255 255
-0.383 0.089 0.656 0 0 0
-0.229 0.202 0.614 0 0 0
0.031 0.119 0.622 255 255 255
0.118 0.245 0.587 255 255 255
0.293 0.003 0.636 255 255 255
0.089 -0.216 0.707 255 255 255
0.187 0.275 0.57 0 0 0
0.204 -0.435 0.755 255 255 255
0.292 0.16 0.597 255 255 255
0.302 -0.553 0.78 255 255 255
-0.5 -0.124 0.723 0 0 0
-0.44 -0.056 0.7 255 255 255
0.084 -0.156 0.692 255 255 255
0.271 -0.169 0.682 255 255 255
-0.128 -0.206 0.72 255 255 255
-0.343 -0.505 0.814 255 255 255
0.097 -0.256 0.716 255 255 255
-0.28 -0.453 0.797 255 255 255
0.184 -0.104 0.669 255 255 255
-0.291 -0.042 0.688 255 255 255
0.007 0.155 0.614 0 0 0
-0.176 0.082 0.648 255 255 255
-0.207 0.137 0.635 255 255 255
-0.338 -0.187 0.729 255 255 255
0.238 -0.531 0.778 255 255 255
-0.153 -0.127 0.701 255 255 255
0.027 -0.213 0.71 255 255 255
-0.553 -0.149 0.732 255 255 255
-0.176 -0.535 0.81 255 255 255
0.014 0.058 0.642 0 0 0
0.024 0.095 0.629 0 0 0
0.129 0.116 0.61 255 255 255
0.109 0.051 0.633 0 0 0
-0.074 -0.598 0.819 0 0 0
0.078 -0.109 0.681 255 255 255
0.164 -0.175 0.69 255 255 255
-0.228 0.235 0.6 0 0 0
-0.016 -0.064 0.676 255 255 255
-0.013 -0.369 0.754 255 255 255
-0.008 0.309 0.579 255 255 255
0.331 -0.449 0.751 255 255 255
-0.121 -0.421 0.775 255 255 255
-0.266 -0.135 0.711 255 255 255
0.185 -0.238 0.705 255 255 255
0.259 0.076 0.618 255 255 255
0.132 0.071 0.623 255 255 255
-0.062 -0.286 0.737 255 255 255
-0.387 -0.068 0.7 255 255 255
-0.027 -0.246 0.725 255 255 255
0.363 -0.299 0.709 255 255 255
-0.029 0.152 0.617 255 255 255
0.14 -0.181 0.693 255 255 255
0.048 0.278 0.583 0 0 0
-0.153 -0.138 0.704 255 255 255
-0.355 -0.237 0.743 255 255 255
0.436 -0.191 0.676 255 255 255
-0.116 0.09 0.642 0 0 0
0.311 0.181 0.589 255 255 255
0.464 -0.078 0.644 255 255 255
0.342 -0.599 0.79 0 0 0
0.083 0.183 0.6 255 255 255
0.124 -0.145 0.686 255 255 255
0.112 -0.026 0.656 0 0 0
0.413 -0.396 0.728 255 255 255
0.14 -0.31 0.726 255 255 255
-0.387 -0.169 0.728 255 255 255
-0.347 -0.166 0.726 255 255 255
-0.147 -0.008 0.668 0 0 0
-0.303 -0.642 0.847 0 0 0
-0.046 -0.067 0.678 255 255 255
0.155 0.08 0.623 0 0 0
0.227 -0.182 0.688 255 255 255
-0.037 -0.436 0.774 255 255 255
-0.304 -0.325 0.764 255 255 255
0.274 0.061 0.62 255 255 255
-0.167 -0.305 0.748 255 255 255
-0.15 0.157 0.626 255 255 255
-0.112 0.272 0.595 0 0 0
0.138 -0.126 0.68 255 255 255
0.083 -0.256 0.719 255 255 255
-0.228 -0.41 0.78 255 255 255
-0.077 0.094 0.636 255 255 255
0.161 0.221 0.584 0 0 0
0.101 0.268 0.578 0 0 0
0.006 -0.236 0.718 255 255 255
0.121 0.233 0.596 0 0 0
-0.034 -0.441 0.775 255 255 255
0.174 -0.372 0.74 255 255 255
0.14 0.175 0.597 255 255 255
0.361 0.092 0.609 255 255 255
-0.055 0.211 0.605 0 0 0
-0.266 -0.338 0.764 255 255 255
-0.048 0.109 0.631 0 0 0
-0.003 -0.188 0.708 255 255 255
-0.017 -0.143 0.696 255 255 255
-0.279 0.127 0.644 0 0 0
0.014 -0.033 0.661 0 0 0
-0.275 -0.504 0.809 255 255 255
0.184 -0.03 0.649 0 0 0
0.196 0.24 0.576 255 255 255
-0.133 0.127 0.633 255 255 255
0.025 -0.133 0.691 255 255 255
0.058 0.07 0.634 255 255 255
-0.121 0.315 0.585 255 255 255
0.338 0.087 0.609 255 255 255
-0.091 0.306 0.587 255 255 255
-0.013 -0.371 0.754 255 255 255
-0.254 0.099 0.65 255 255 255
-0.109 0.086 0.641 255 255 255
-0.226 -0.074 0.693 255 255 255
0.011 -0.569 0.805 255 255 255
0 -0.426 0.767 255 255 255
-0.236 0.253 0.592 255 255 255
-0.22 -0.507 0.805 255 255 255
0.155 -0.081 0.666 255 255 255
-0.069 -0.448 0.779 255 255 255
0.15 -0.023 0.651 0 0 0
0.342 0.028 0.626 255 255 255
0.137 0.108 0.612 0 0 0
0.127 -0.386 0.748 255 255 255
-0.1 0.163 0.62 0 0 0
-0.254 -0.133 0.711 255 255 255
-0.427 -0.274 0.758 255 255 255
0.128 -0.331 0.733 255 255 255
-0.022 -0.337 0.745 255 255 255
0.068 0.21 0.595 255 255 255
0.162 -0.041 0.655 255 255 255
-0.324 -0.517 0.815 255 255 255
0.262 -0.019 0.645 255 255 255
0.118 0.051 0.632 0 0 0
0.369 -0.164 0.671 255 255 255
-0.211 0.149 0.633 0 0 0
0.038 0.214 0.597 0 0 0
-0.163 0.191 0.617 255 255 255
-0.29 0.058 0.662 0 0 0
0.24 0.038 0.63 255 255 255
0.239 -0.149 0.678 255 255 255
-0.425 -0.624 0.851 0 0 0
0.058 -0.456 0.771 255 255 255
-0.155 -0.359 0.763 255 255 255
0.019 -0.064 0.673 255 255 255
-0.142 0.289 0.593 255 255 255
0.202 0.157 0.6 255 255 255
-0.085 0.079 0.642 255 255 255
0.056 -0.54 0.793 255 255 255
0.105 0.078 0.629 0 0 0
-0.07 -0.337 0.751 255 255 255
-0.15 -0.472 0.791 255 255 255
-0.509 -0.245 0.754 255 255 255
0.044 0.083 0.634 255 255 255
0.098 0.035 0.638 0 0 0
0.268 -0.066 0.655 255 255 255
-0.289 -0.249 0.742 0 0 0
-0.115 -0.23 0.724 255 255 255
-0.42 0.024 0.675 255 255 255
0.242 -0.453 0.758 255 255 255
0.047 -0.6 0.809 0 0 0
0.238 0.253 0.576 255 255 255
-0.132 -0.125 0.7 255 255 255
0.399 -0.349 0.719 255 255 255
0.118 0.295 0.57 255 255 255
-0.326 0.037 0.667 255 255 255
0.377 -0.166 0.671 255 255 255
-0.126 -0.049 0.678 255 255 255
0.411 -0.087 0.649 255 255 255
0.066 -0.425 0.763 255 255 255
0.299 -0.432 0.747 255 255 255
0.226 -0.12 0.671 255 255 255
-0.065 -0.448 0.779 255 255 255
-0.487 0.025 0.681 255 255 255
0.358 -0.091 0.655 255 255 255
0.073 0.059 0.633 255 255 255
0.431 -0.258 0.692 255 255 255
0 0.118 0.625 255 255 255
0.023 -0.178 0.702 255 255 255
-0.186 0.063 0.654 255 255 255
0.225 0.273 0.571 255 255 255
-0.229 -0.514 0.808 255 255 255
0.218 -0.209 0.696 255 255 255
0.253 0.176 0.593 255 255 255
0.131 -0.035 0.658 0 0 0
0.365 -0.215 0.688 255 255 255
-0.378 0.091 0.654 0 0 0
0.061 -0.056 0.667 255 255 255
-0.081 -0.62 0.824 0 0 0
0.187 -0.388 0.743 255 255 255
0.323 -0.129 0.665 255 255 255
-0.234 -0.145 0.711 255 255 255
-0.041 -0.025 0.662 255 255 255
-0.36 -0.109 0.711 255 255 255
-0.075 0.024 0.655 255 255 255
0.191 -0.212 0.698 255 255 255
0.001 -0.279 0.729 255 255 255
-0.34 -0.092 0.705 255 255 255
0.381 -0.455 0.747 255 255 255
-0.491 -0.243 0.754 255 255 255
0.272 0.118 0.606 255 255 255
0.085 -0.371 0.747 255 255 255
-0.116 0.304 0.586 255 255 255
0.203 0.224 0.582 0 0 0
-0.29 -0.148 0.717 0 0 0
0.117 0.113 0.614 0 0 0
-0.362 -0.227 0.742 255 255 255
-0.062 0.121 0.628 255 255 255
0.107 0.007 0.646 255 255 255
0.275 -0.074 0.656 255 255 255
0.313 0.05 0.622 255 255 255
0.282 -0.328 0.722 255 255 255
-0.069 -0.138 0.699 255 255 255
-0.409 -0.115 0.716 255 255 255
0.407 -0.451 0.747 255 255 255
-0.138 0.068 0.648 0 0 0
0.266 -0.06 0.654 255 255 255
0.445 -0.133 0.66 255 255 255
-0.369 -0.281 0.755 255 255 255
-0.021 0.038 0.647 255 255 255
-0.117 0.215 0.608 255 255 255
0.227 -0.617 0.802 255 255 255
-0.317 0.195 0.626 255 255 255
-0.031 0.241 0.592 255 255 255
-0.344 -0.197 0.734 255 255 255
0.049 0.075 0.634 255 255 255
-0.111 0.069 0.647 255 255 255
-0.167 0.298 0.593 255 255 255
0.075 0.119 0.619 0 0 0
0.218 -0.185 0.689 255 255 255
0.067 0.074 0.632 255 255 255
0.329 -0.341 0.723 255 255 255
0.224 0.261 0.573 0 0 0
-0.084 -0.469 0.785 255 255 255
0.158 -0.536 0.785 255 255 255
0.034 -0.52 0.791 255 255 255
-0.07 -0.047 0.674 255 255 255
0.073 -0.157 0.693 255 255 255
0.208 0.192 0.591 0 0 0
-0.285 -0.254 0.744 255 255 255
-0.316 0.016 0.671 0 0 0
0.053 -0.118 0.684 255 255 255
0.138 0.154 0.605 255 255 255
0.286 -0.521 0.773 255 255 255
-0.244 -0.596 0.831 255 255 255
-0.006 -0.085 0.68 255 255 255
0.035 -0.041 0.663 0 0 0
0.033 -0.148 0.694 255 255 255
0.251 -0.375 0.736 255 255 255
0.203 0.106 0.608 255 255 255
-0.204 0.308 0.593 255 255 255
-0.174 -0.037 0.679 255 255 255
0.107 0.145 0.605 255 255 255
0.058 -0.51 0.785 255 255 255
0.151 -0.505 0.777 255 255 255
-0.31 -0.112 0.707 255 255 255
-0.326 0.143 0.642 0 0 0
-0.185 -0.268 0.741 255 255 255
0.045 -0.162 0.697 255 255 255
0.115 0.055 0.629 255 255 255
0.316 -0.127 0.665 255 255 255
0.073 0.217 0.592 255 255 255
0.069 0.169 0.608 0 0 0
-0.213 0.294 0.596 255 255 255
0.038 -0.002 0.655 0 0 0
-0.19 -0.287 0.745 255 255 255
0.309 -0.374 0.732 255 255 255
-0.154 0.135 0.631 255 255 255
-0.198 0.324 0.589 255 255 255
0.207 0.115 0.607 255 255 255
-0.035 0.048 0.645 255 255 255
-0.042 0.288 0.586 255 255 255
0.291 -0.327 0.722 255 255 255
-0.319 0.074 0.659 255 255 255
0.339 -0.328 0.718 255 255 255
0.172 0.04 0.634 255 255 255
0.323 -0.217 0.691 255 255 255
0.122 -0.086 0.67 255 255 255
0.124 -0.356 0.74 255 255 255
-0.109 0.092 0.64 0 0 0
-0.133 0.261 0.598 255 255 255
0.038 0.085 0.635 255 255 255
0.333 -0.088 0.657 255 255 255
-0.193 0.121 0.639 255 255 255
0.26 -0.516 0.772 255 255 255
0 0.131 0.622 255 255 255
-0.188 -0.161 0.712 255 255 255
-0.268 0.054 0.661 255 255 255
-0.123 0.224 0.604 255 255 255
-0.289 0.136 0.641 0 0 0
-0.187 0.274 0.599 0 0 0
0.269 0.158 0.597 255 255 255
-0.458 0.031 0.678 255 255 255
0.158 0.002 0.645 255 255 255
0.26 -0.162 0.68 255 255 255
-0.127 0.044 0.654 255 255 255
-0.299 -0.096 0.703 0 0 0
0.052 -0.013 0.656 255 255 255
-0.035 0.225 0.597 255 255 255
0.215 0.23 0.575 0 0 0
-0.135 -0.484 0.794 255 255 255
-0.401 -0.319 0.768 255 255 255
-0.069 -0.009 0.662 0 0 0
-0.142 -0.136 0.704 255 255 255
-0.365 -0.289 0.757 255 255 255
0.406 -0.466 0.748 255 255 255
0.162 0.15 0.6 0 0 0
-0.29 -0.301 0.756 255 255 255
0.253 -0.401 0.744 255 255 255
0.197 0.259 0.573 0 0 0
-0.213 -0.514 0.807 255 255 255
-0.318 -0.029 0.683 0 0 0
-0.048 0.311 0.58 255 255 255
0.045 0.147 0.614 255 255 255
0.065 -0.051 0.665 255 255 255
0.08 -0.1 0.677 255 255 255
0.288 -0.034 0.648 255 255 255
0.222 -0.292 0.716 255 255 255
0.018 -0.411 0.762 255 255 255
0.07 0.188 0.6 255 255 255
0.009 -0.222 0.715 255 255 255
0.079 0.011 0.647 255 255 255
-0.341 -0.114 0.712 255 255 255
0.047 -0.006 0.653 0 0 0
0.25 -0.535 0.778 255 255 255
0.269 0.006 0.638 255 255 255
0.102 -0.157 0.691 255 255 255
0.194 -0.152 0.683 255 255 255
0.225 -0.617 0.802 255 255 255
-0.122 -0.164 0.708 255 255 255
0.36 0.114 0.602 255 255 255
-0.466 -0.036 0.698 0 0 0
0.281 -0.519 0.772 255 255 255
0.076 -0.197 0.703 255 255 255
-0.009 0.205 0.605 255 255 255
0.062 0.09 0.628 255 255 255
-0.277 0.256 0.609 255 255 255
-0.221 -0.54 0.814 255 255 255
0.07 -0.157 0.693 255 255 255
-0.067 -0.347 0.752 255 255 255
0.055 0.255 0.585 255 255 255
0.214 -0.234 0.702 255 255 255
-0.145 -0.001 0.663 255 255 255
-0.274 -0.448 0.795 255 255 255
0.173 -0.349 0.734 255 255 255
-0.137 0.322 0.584 255 255 255
-0.091 0.128 0.628 0 0 0
0.35 -0.161 0.671 255 255 255
-0.158 0.051 0.654 255 255 255
-0.281 0.16 0.634 255 255 255
-0.042 0.009 0.653 255 255 255
0.234 -0.45 0.757 255 255 255
-0.182 -0.084 0.692 255 255 255
-0.219 0.171 0.627 255 255 255
0.445 -0.021 0.631 255 255 255
0.036 0.227 0.592 0 0 0
0.063 0.172 0.607 0 0 0
-0.074 0.297 0.587 255 255 255
0.029 -0.534 0.795 255 255 255
-0.458 -0.113 0.718 255 255 255
0.056 -0.366 0.747 255 255 255
-0.458 0.005 0.684 0 0 0
-0.199 -0.199 0.724 255 255 255
0.33 -0.39 0.735 255 255 255
0.199 -0.439 0.756 255 255 255
0.479 -0.157 0.659 255 255 255
0.094 0.023 0.642 255 255 255
0.139 -0.58 0.799 0 0 0
-0.372 0.145 0.642 255 255 255
0.405 -0.437 0.74 255 255 255
-0.015 -0.025 0.665 255 255 255
0.169 0.212 0.59 255 255 255
-0.077 0.236 0.601 255 255 255
-0.085 0.232 0.602 255 255 255
0.281 0.132 0.604 255 255 255
0.286 -0.164 0.675 255 255 255
0.403 -0.005 0.63 255 255 255
-0.431 -0.461 0.807 255 255 255
0.345 -0.153 0.669 255 255 255
0.09 0.169 0.604 255 255 255
-0.18 -0.328 0.755 255 255 255
0.213 -0.565 0.787 255 255 255
0.138 -0.248 0.711 255 255 255
-0.293 -0.07 0.696 0 0 0
-0.053 0.047 0.646 0 0 0
0.027 -0.551 0.799 255 255 255
0.069 -0.049 0.665 255 255 255
0.18 -0.059 0.659 255 255 255
0.136 0.171 0.596 255 255 255
0.274 -0.246 0.701 255 255 255
-0.189 -0.411 0.78 255 255 255
0.268 0.225 0.579 255 255 255
0.133 0.051 0.632 255 255 255
0.035 0.258 0.587 255 255 255
0.03 -0.052 0.669 255 255 255
-0.063 0.178 0.614 0 0 0
0.174 0.075 0.621 255 255 255
0.11 -0.445 0.764 255 255 255
-0.057 0.26 0.594 255 255 255
-0.075 0.291 0.587 255 255 255
-0.296 0.175 0.629 255 255 255
0.133 -0.171 0.692 255 255 255
0.092 0.27 0.579 0 0 0
-0.342 -0.172 0.726 255 255 255
0.194 -0.257 0.71 255 255 255
0.202 0.258 0.574 0 0 0
0.066 -0.538 0.792 255 255 255
0.361 -0.259 0.699 255 255 255
-0.245 -0.048 0.687 255 255 255
-0.142 -0.002 0.664 255 255 255
-0.487 -0.077 0.709 0 0 0
0.332 -0.521 0.769 255 255 255
0.113 -0.074 0.667 255 255 255
-0.123 0.039 0.656 0 0 0
-0.099 0.115 0.631 0 0 0
-0.062 -0.044 0.673 255 255 255
0.032 -0.443 0.769 255 255 255
-0.098 -0.082 0.686 255 255 255
0.065 0.062 0.634 255 255 255
0.084 -0.448 0.767 255 255 255
-0.121 -0.487 0.794 255 255 255
0.094 0.092 0.623 255 255 255
-0.128 -0.38 0.766 255 255 255
0.388 -0.53 0.768 255 255 255
0.297 -0.086 0.658 255 255 255
-0.116 0.268 0.596 0 0 0
0.165 0.245 0.577 255 255 255
-0.037 -0.473 0.783 255 255 255
0.394 0.065 0.613 255 255 255
0.276 -0.338 0.725 255 255 255
-0.384 -0.051 0.696 255 255 255
-0.124 0.293 0.589 255 255 255
-0.428 -0.471 0.811 255 255 255
-0.218 -0.111 0.702 255 255 255
0.142 0.238 0.587 0 0 0
-0.067 0.252 0.597 255 255 255
-0.269 -0.075 0.696 255 255 255
-0.428 -0.148 0.725 255 255 255
-0.287 0.142 0.64 0 0 0
0.22 0.194 0.587 0 0 0
0.205 -0.311 0.722 255 255 255
0.072 -0.076 0.671 255 255 255
-0.099 0.073 0.645 255 255 255
0.111 0.313 0.568 255 255 255
0.421 -0.216 0.684 255 255 255
-0.06 -0.356 0.753 255 255 255
-0.208 0.124 0.638 255 255 255
0.204 0.257 0.574 0 0 0
0.461 -0.138 0.659 255 255 255
-0.411 -0.333 0.772 0 0 0
0.339 0.125 0.599 255 255 255
-0.039 0.313 0.58 255 255 255
-0.109 -0.359 0.759 255 255 255
0.124 0.274 0.577 0 0 0
-0.111 -0.086 0.688 255 255 255
-0.11 0.01 0.66 255 255 255
-0.289 0.118 0.647 0 0 0
0.07 -0.091 0.676 255 255 255
0.24 -0.089 0.663 255 255 255
-0.108 0.031 0.656 255 255 255
-0.213 0.204 0.616 255 255 255
0.319 -0.009 0.636 255 255 255
-0.241 -0.641 0.843 0 0 0
0.099 0.091 0.623 255 255 255
0.435 -0.275 0.699 255 255 255
0.212 0.214 0.582 0 0 0
0.229 0.244 0.571 255 255 255
-0.296 -0.637 0.845 0 0 0
-0.301 -0.223 0.736 0 0 0
-0.138 -0.185 0.716 255 255 255
0.267 -0.356 0.731 255 255 255
-0.443 -0.555 0.834 255 255 255
-0.153 0.098 0.642 255 255 255
0.038 0.226 0.593 0 0 0
-0.016 -0.029 0.667 255 255 255
-0.08 -0.369 0.76 255 255 255
0.222 -0.418 0.749 255 255 255
-0.401 -0.432 0.798 255 255 255
0.092 0.281 0.575 255 255 255
0.237 0.163 0.597 255 255 255
0.333 -0.331 0.72 255 255 255
0.023 -0.219 0.713 255 255 255
0.056 0.034 0.641 255 255 255
-0.191 -0.043 0.681 255 255 255
-0.368 0.129 0.646 255 255 255
0.176 0.083 0.618 255 255 255
-0.112 0.126 0.63 255 255 255
-0.113 0.182 0.616 0 0 0
-0.188 0.267 0.602 0 0 0
0.123 -0.29 0.721 255 255 255
0.202 -0.289 0.716 255 255 255
-0.291 0.189 0.627 255 255 255
0.357 -0.345 0.723 255 255 255
0.375 -0.185 0.678 255 255 255
0.18 -0.287 0.719 255 255 255
-0.163 0.268 0.599 0 0 0
0 0.148 0.617 255 255 255
0.298 -0.119 0.665 255 255 255
-0.223 0.132 0.638 255 255 255
-0.411 -0.434 0.799 255 255 255
-0.461 -0.437 0.803 255 255 255
-0.377 -0.29 0.758 255 255 255
-0.018 -0.24 0.722 255 255 255
-0.155 -0.334 0.756 255 255 255
0.416 -0.195 0.68 255 255 255
0.047 0.31 0.574 255 255 255
-0.177 0.313 0.59 255 255 255
0.287 0.093 0.613 255 255 255
0.251 0.15 0.6 255 255 255
0.032 0.247 0.586 255 255 255
0.098 -0.068 0.668 255 255 255
-0.29 -0.262 0.745 0 0 0
-0.209 -0.076 0.692 255 255 255
0.121 0.305 0.569 255 255 255
0.187 0.169 0.599 255 255 255
-0.383 -0.592 0.839 255 255 255
0.259 0.18 0.592 255 255 255
-0.123 0.236 0.601 255 255 255
0.185 0.099 0.612 255 255 255
0.118 0.279 0.575 255 255 255
0.171 -0.28 0.716 255 255 255
-0.352 -0.401 0.787 255 255 255
0.102 -0.195 0.701 255 255 255
0.131 0.244 0.58 255 255 255
0.166 -0.01 0.648 0 0 0
0.45 -0.095 0.65 255 255 255
0.019 0.098 0.626 0 0 0
0.254 0.148 0.601 255 255 255
0.153 0.188 0.594 255 255 255
0.051 0.067 0.638 255 255 255
0.23 -0.371 0.736 255 255 255
-0.249 0.123 0.641 255 255 255
0.103 -0.171 0.694 255 255 255
-0.405 -0.626 0.852 0 0 0
0.273 0.044 0.624 255 255 255
-0.209 -0.059 0.688 255 255 255
0.046 -0.215 0.71 255 255 255
0.21 0.167 0.596 255 255 255
-0.198 0.327 0.588 255 255 255
-0.003 0.212 0.603 255 255 255
0.156 -0.418 0.753 255 255 255
0.036 0.288 0.58 255 255 255
0.205 0.163 0.597 255 255 255
-0.33 -0.513 0.816 255 255 255
0.137 0.207 0.587 0 0 0
0.394 -0.119 0.66 255 255 255
0.376 0.066 0.615 0 0 0
0.238 -0.406 0.746 255 255 255
-0.305 -0.463 0.801 255 255 255
-0.143 -0.021 0.673 255 255 255
0.378 -0.631 0.795 255 255 255
0.087 0.099 0.625 255 255 255
0.195 -0.565 0.791 255 255 255
-0.024 -0.055 0.673 255 255 255
-0.019 -0.196 0.71 255 255 255
0.056 -0.244 0.716 255 255 255
-0.293 0.078 0.657 0 0 0
-0.118 0.229 0.604 255 255 255
-0.148 -0.076 0.687 255 255 255
0.106 0.111 0.619 0 0 0
0.166 -0.165 0.687 255 255 255
-0.264 -0.476 0.802 255 255 255
0.332 0.122 0.6 255 255 255
-0.161 -0.126 0.702 255 255 255
0.052 0.004 0.652 0 0 0
0.138 -0.046 0.659 255 255 255
0.09 0.046 0.636 0 0 0
0.195 0.229 0.58 0 0 0
0.174 -0.163 0.687 255 255 255
0.22 0.195 0.586 0 0 0
-0.215 0.152 0.633 0 0 0
-0.309 0.211 0.621 255 255 255
-0.36 -0.16 0.726 255 255 255
-0.235 0.145 0.634 0 0 0
-0.409 -0.207 0.741 255 255 255
-0.05 -0.097 0.687 255 255 255
-0.225 0.316 0.592 255 255 255
-0.17 0.061 0.653 0 0 0
0.347 -0.21 0.688 255 255 255
-0.211 -0.552 0.816 255 255 255
0.015 -0.092 0.681 255 255 255
0.079 -0.405 0.755 255 255 255
0.053 -0.168 0.696 255 255 255
0.239 -0.06 0.655 255 255 255
0.055 -0.022 0.657 0 0 0
0.409 -0.409 0.732 255 255 255
-0.056 -0.139 0.698 255 255 255
0.009 -0.026 0.663 255 255 255
0.395 -0.039 0.639 255 255 255
0.101 -0.002 0.648 255 255 255
-0.028 -0.299 0.737 255 255 255
0.455 -0.167 0.666 255 255 255
-0.233 -0.027 0.672 255 255 255
0.249 0.105 0.611 255 255 255
0.218 0.09 0.613 0 0 0
0.012 0.249 0.592 255 255 255
-0.081 0.235 0.602 255 255 255
-0.185 -0.065 0.686 255 255 255
-0.049 0.021 0.652 0 0 0
-0.056 -0.133 0.696 255 255 255
-0.086 0.126 0.629 0 0 0
-0.292 -0.036 0.687 255 255 255
-0.024 -0.005 0.657 255 255 255
-0.465 -0.023 0.694 255 255 255
-0.042 0.098 0.633 255 255 255
-0.048 -0.076 0.68 255 255 255
-0.259 0.138 0.638 255 255 255
0.305 -0.04 0.645 255 255 255
-0.05 0.192 0.609 255 255 255
0.269 -0.038 0.648 255 255 255
0.382 -0.645 0.799 255 255 255
-0.324 -0.258 0.747 255 255 255
0.031 -0.107 0.684 255 255 255
-0.278 0.2 0.623 255 255 255
0.172 -0.337 0.731 255 255 255
0.199 0.231 0.58 255 255 255
0.174 -0.2 0.697 255 255 255
0.189 0.084 0.616 255 255 255
0.269 0.164 0.595 255 255 255
0.289 -0.114 0.664 255 255 255
0.471 -0.171 0.665 255 255 255
0.125 0.266 0.578 0 0 0
-0.068 -0.26 0.731 255 255 255
0.195 0.198 0.589 255 255 255
-0.015 0.297 0.582 255 255 255
0.239 0.171 0.595 255 255 255
-0.329 -0.597 0.837 255 255 255
-0.518 -0.075 0.71 0 0 0
-0.471 -0.11 0.717 0 0 0
-0.28 -0.257 0.743 255 255 255
-0.374 0.124 0.648 255 255 255
-0.435 -0.301 0.766 255 255 255
0.133 0.053 0.632 255 255 255
-0.18 -0.005 0.675 255 255 255
0.048 0.283 0.581 255 255 255
-0.056 0.006 0.656 255 255 255
0.138 0.207 0.588 0 0 0
-0.018 0.297 0.581 255 255 255
-0.096 -0.124 0.698 255 255 255
-0.091 0.216 0.606 255 255 255
0.232 0.293 0.565 255 255 255
0.12 0.198 0.594 255 255 255
-0.175 0.26 0.599 255 255 255
0.159 0.145 0.607 0 0 0
-0.038 0.306 0.581 255 255 255
0.009 0.003 0.655 0 0 0
0.046 0.274 0.583 0 0 0
-0.007 -0.507 0.789 255 255 255
-0.105 0.182 0.615 0 0 0
-0.313 -0.21 0.734 255 255 255
-0.081 0.174 0.614 255 255 255
-0.064 0.275 0.591 0 0 0
0.191 -0.078 0.662 255 255 255
-0.154 -0.392 0.771 255 255 255
-0.284 -0.045 0.69 255 255 255
0.179 0.281 0.57 255 255 255
0.136 -0.075 0.668 255 255 255
0.311 -0.63 0.798 255 255 255
0.156 -0.326 0.729 255 255 255
0.134 -0.126 0.681 255 255 255
-0.414 -0.14 0.721 255 255 255
0.105 -0.527 0.787 255 255 255
0.216 -0.339 0.729 255 255 255
0.36 -0.085 0.654 255 255 255
-0.337 -0.01 0.68 255 255 255
0.448 -0.283 0.698 255 255 255
-0.396 -0.543 0.829 255 255 255
0.087 -0.524 0.788 255 255 255
0.117 -0.142 0.686 255 255 255
0.099 -0.221 0.707 255 255 255
0.282 0.218 0.58 255 255 255
-0.435 -0.425 0.799 255 255 255
-0.171 0.059 0.654 0 0 0
-0.017 -0.098 0.684 255 255 255
0.109 0.073 0.624 255 255 255
-0.209 0.113 0.638 255 255 255
0.112 0.057 0.628 255 255 255
0.213 -0.331 0.727 255 255 255
-0.089 -0.043 0.675 255 255 255
-0.535 -0.157 0.734 255 255 255
-0.333 -0.319 0.764 255 255 255
0.009 0.151 0.615 255 255 255
0.021 -0.36 0.748 255 255 255
0.25 -0.095 0.662 255 255 255
-0.392 -0.258 0.752 0 0 0
-0.406 -0.072 0.703 255 255 255
0.061 -0.377 0.75 255 255 255
-0.328 -0.063 0.696 255 255 255
0.279 0.02 0.632 255 255 255
-0.01 0.173 0.611 255 255 255
-0.182 0.139 0.633 0 0 0
-0.152 0.246 0.603 255 255 255
0.005 -0.475 0.78 255 255 255
-0.488 -0.019 0.694 255 255 255
0.195 -0.205 0.697 255 255 255
-0.111 -0.342 0.754 255 255 255
-0.302 -0.115 0.709 0 0 0
-0.21 -0.194 0.722 255 255 255
0.047 0.123 0.619 255 255 255
-0.194 -0.282 0.743 255 255 255
-0.325 0.102 0.652 255 255 255
0.118 0.314 0.566 255 255 255
0.208 -0.283 0.715 255 255 255
-0.095 0.249 0.6 255 255 255
0.022 0.137 0.616 255 255 255
0.041 0.169 0.61 255 255 255
-0.135 0.161 0.623 0 0 0
-0.1 0.029 0.656 255 255 255
0.039 -0.263 0.722 255 255 255
0.095 0.236 0.585 0 0 0
-0.211 -0.64 0.84 0 0 0
0.323 -0.383 0.734 255 255 255
-0.285 0.11 0.647 0 0 0
-0.154 -0.153 0.708 255 255 255
0.209 0.281 0.567 255 255 255
-0.314 -0.084 0.701 255 255 255
0.069 -0.019 0.657 0 0 0
-0.099 -0.067 0.681 255 255 255
0.11 -0.033 0.661 0 0 0
0.312 -0.029 0.643 255 255 255
0.256 -0.349 0.73 255 255 255
0.079 -0.011 0.653 0 0 0
0.283 0.184 0.59 255 255 255
-0.435 -0.553 0.833 255 255 255
-0.122 -0.154 0.706 255 255 255
-0.086 -0.243 0.726 255 255 255
0.303 0.055 0.62 255 255 255
-0.082 -0.53 0.8 255 255 255
0.262 -0.028 0.648 255 255 255
0.316 -0.492 0.763 255 255 255
0.202 -0.431 0.755 255 255 255
-0.407 0.042 0.669 255 255 255
