ply
format ascii 1.0
comment Created by Open3D
element vertex 1606
property double x
property double y
property double z
property uchar red
property uchar green
property uchar blue
end_header
0.34 0.083 0.62 255 255 255
0.069 -0.249 0.678 255 255 255
-0.373 -0.336 0.683 255 255 255
0.452 -0.011 0.647 255 255 255
0.315 -0.582 0.758 255 255 255
0.336 -0.011 0.64 255 255 255
0.043 0.179 0.588 0 0 0
-0.358 0.085 0.594 255 255 255
-0.1 -0.245 0.673 255 255 255
-0.014 -0.013 0.624 255 255 255
-0.168 0.214 0.574 255 255 255
0.213 -0.153 0.662 255 255 255
0.411 -0.205 0.683 255 255 255
0.392 -0.409 0.721 255 255 255
0.003 -0.185 0.664 255 255 255
-0.282 -0.385 0.695 255 255 255
0.225 0.073 0.614 255 255 255
-0.291 -0.255 0.668 255 255 255
0.05 -0.087 0.643 0 0 0
-0.141 -0.024 0.621 255 255 255
0.206 -0.115 0.655 255 255 255
-0.096 0.249 0.57 255 255 255
-0.02 0.153 0.589 255 255 255
0.237 0.28 0.576 255 255 255
0.099 -0.042 0.634 255 255 255
0.048 -0.304 0.688 255 255 255
-0.314 -0.217 0.659 255 255 255
-0.11 -0.479 0.72 255 255 255
0.073 0.024 0.62 0 0 0
0.022 0.073 0.607 255 255 255
-0.007 -0.227 0.672 255 255 255
-0.309 -0.14 0.643 255 255 255
0.001 -0.208 0.669 255 255 255
0.241 -0.348 0.704 255 255 255
0 0.093 0.603 255 255 255
0.134 0.27 0.573 0 0 0
-0.124 0.153 0.585 0 0 0
0.219 -0.578 0.753 255 255 255
-0.116 -0.313 0.686 255 255 255
0.204 -0.257 0.685 255 255 255
0.386 -0.428 0.726 255 255 255
0.312 -0.278 0.695 255 255 255
0.012 0.077 0.607 255 255 255
0.032 0.171 0.59 255 255 255
-0.191 -0.03 0.625 255 255 255
0.108 -0.245 0.68 255 255 255
-0.056 0.037 0.614 0 0 0
0.069 0.206 0.588 255 255 255
0.071 0.049 0.614 0 0 0
0.119 0.29 0.568 255 255 255
0.253 0.023 0.63 0 0 0
0.13 0.188 0.585 0 0 0
-0.059 0.172 0.583 0 0 0
-0.263 -0.222 0.662 255 255 255
0.048 -0.153 0.659 255 255 255
-0.232 0.221 0.571 255 255 255
-0.077 -0.003 0.622 255 255 255
0.073 0.125 0.602 0 0 0
0.224 -0.203 0.671 0 0 0
0.304 -0.17 0.669 255 255 255
-0.283 -0.256 0.669 255 255 255
0.065 0.107 0.597 0 0 0
-0.106 -0.455 0.716 255 255 255
0.311 0.093 0.615 255 255 255
-0.42 -0.032 0.616 255 255 255
0.116 -0.133 0.657 255 255 255
-0.11 -0.433 0.712 255 255 255
-0.224 -0.1 0.636 255 255 255
0.213 -0.347 0.703 255 255 255
0.086 0.147 0.596 255 255 255
-0.095 0.163 0.587 255 255 255
-0.413 -0.18 0.648 255 255 255
0.162 -0.246 0.681 255 255 255
-0.323 -0.435 0.704 255 255 255
-0.306 -0.112 0.637 255 255 255
-0.245 -0.265 0.672 255 255 255
-0.345 0.069 0.597 255 255 255
-0.008 -0.064 0.637 0 0 0
-0.141 0.066 0.608 255 255 255
-0.149 -0.366 0.695 255 255 255
0.348 -0.533 0.747 255 255 255
-0.028 0.096 0.602 0 0 0
-0.33 -0.235 0.663 255 255 255
-0.417 -0.222 0.657 255 255 255
-0.026 -0.034 0.629 0 0 0
0.463 -0.21 0.683 255 255 255
-0.266 -0.338 0.684 255 255 255
0.335 -0.092 0.654 0 0 0
0.074 0.01 0.626 0 0 0
0.169 0.294 0.566 255 255 255
-0.356 0.093 0.592 255 255 255
0.175 -0.282 0.689 255 255 255
-0.047 -0.118 0.648 255 255 255
-0.396 -0.122 0.635 255 255 255
0.203 0.254 0.578 255 255 255
0.089 0.235 0.578 255 255 255
-0.214 -0.31 0.681 255 255 255
-0.276 -0.33 0.683 255 255 255
-0.106 0.199 0.579 255 255 255
0.199 -0.238 0.681 255 255 255
0.358 0.112 0.616 255 255 255
0.267 0.231 0.586 255 255 255
-0.108 0.29 0.562 255 255 255
0.073 0.103 0.605 0 0 0
-0.103 -0.522 0.73 255 255 255
0.031 -0.207 0.669 255 255 255
-0.055 -0.495 0.726 255 255 255
-0.293 0.142 0.584 255 255 255
-0.235 -0.173 0.652 255 255 255
0.01 -0.151 0.656 255 255 255
0.089 -0.044 0.636 255 255 255
0.047 0.259 0.573 0 0 0
0.039 0.28 0.568 255 255 255
-0.102 0.113 0.597 255 255 255
0.288 -0.354 0.71 255 255 255
-0.216 0.069 0.603 255 255 255
0.234 0.065 0.617 255 255 255
-0.423 -0.1 0.626 255 255 255
-0.256 -0.099 0.636 255 255 255
-0.047 0.093 0.603 255 255 255
-0.303 0.153 0.578 255 255 255
-0.128 0.202 0.577 255 255 255
0.451 -0.049 0.655 0 0 0
0.16 -0.439 0.72 255 255 255
-0.228 -0.502 0.722 255 255 255
-0.305 -0.493 0.717 255 255 255
-0.24 0.262 0.561 0 0 0
-0.079 -0.108 0.645 255 255 255
0.157 0.315 0.563 255 255 255
-0.266 -0.018 0.618 0 0 0
0.073 -0.406 0.711 255 255 255
0.176 -0.548 0.745 0 0 0
0.088 -0.076 0.643 0 0 0
-0.061 0.212 0.578 255 255 255
0.313 -0.4 0.719 255 255 255
-0.16 -0.287 0.679 255 255 255
-0.376 -0.276 0.67 0 0 0
-0.121 0.175 0.577 255 255 255
0.475 -0.146 0.673 0 0 0
0.013 0.015 0.621 0 0 0
0.208 0.293 0.571 255 255 255
0.042 -0.229 0.674 255 255 255
0.277 -0.076 0.649 255 255 255
0.402 -0.137 0.668 0 0 0
0.037 -0.012 0.625 0 0 0
-0.247 0.062 0.603 0 0 0
-0.037 -0.139 0.652 255 255 255
-0.18 -0.079 0.637 0 0 0
0.125 0.053 0.613 255 255 255
-0.355 -0.196 0.653 255 255 255
-0.384 -0.321 0.68 255 255 255
0.179 -0.167 0.666 255 255 255
0.326 -0.096 0.655 0 0 0
-0.186 0.073 0.602 255 255 255
0.118 -0.354 0.702 255 255 255
0.345 -0.57 0.757 0 0 0
0.282 -0.069 0.647 255 255 255
-0.263 -0.483 0.715 255 255 255
0.125 -0.101 0.651 255 255 255
0.345 -0.177 0.676 255 255 255
0.058 0.067 0.608 0 0 0
-0.215 0.023 0.611 0 0 0
0.12 0.027 0.621 255 255 255
-0.003 -0.008 0.622 255 255 255
0.211 0.224 0.585 255 255 255
-0.33 -0.037 0.618 255 255 255
0.281 -0.379 0.713 255 255 255
0.069 0.213 0.583 255 255 255
0.286 -0.067 0.647 255 255 255
-0.336 -0.284 0.673 255 255 255
0.319 -0.092 0.654 255 255 255
0.082 -0.387 0.707 255 255 255
-0.393 -0.227 0.658 255 255 255
-0.372 -0.438 0.702 255 255 255
0.187 -0.416 0.716 255 255 255
-0.173 -0.538 0.731 0 0 0
-0.192 -0.471 0.716 255 255 255
0.395 -0.338 0.71 255 255 255
0.232 0.039 0.625 255 255 255
0.179 -0.442 0.721 255 255 255
0.318 -0.023 0.643 255 255 255
0.365 -0.119 0.66 0 0 0
-0.163 0.106 0.596 255 255 255
0.326 -0.202 0.677 255 255 255
-0.082 0.166 0.586 255 255 255
-0.121 -0.373 0.698 255 255 255
0.295 -0.201 0.673 255 255 255
-0.057 -0.304 0.686 255 255 255
-0.106 -0.018 0.621 0 0 0
-0.118 0.222 0.574 255 255 255
0.388 0.002 0.639 255 255 255
0.286 0.068 0.62 255 255 255
0.193 -0.11 0.654 255 255 255
-0.084 -0.537 0.734 0 0 0
-0.278 -0.375 0.693 255 255 255
-0.231 -0.341 0.687 255 255 255
-0.083 0.137 0.593 255 255 255
0.129 0.136 0.6 0 0 0
-0.164 0.055 0.608 255 255 255
-0.312 0.03 0.606 0 0 0
0.194 -0.518 0.739 255 255 255
0.178 -0.197 0.672 255 255 255
0.154 0.294 0.568 255 255 255
0.441 -0.258 0.693 255 255 255
-0.067 -0.041 0.628 255 255 255
0.053 0.097 0.602 255 255 255
0.381 0 0.639 255 255 255
0.1 0.263 0.573 0 0 0
-0.004 0.057 0.61 255 255 255
0.036 -0.154 0.658 255 255 255
-0.26 0.208 0.572 255 255 255
-0.155 -0.164 0.653 255 255 255
0.381 -0.493 0.742 255 255 255
-0.325 -0.4 0.697 255 255 255
0.278 -0.079 0.649 255 255 255
-0.134 -0.457 0.716 255 255 255
-0.302 -0.109 0.636 255 255 255
0.084 -0.368 0.702 255 255 255
0.463 -0.089 0.662 0 0 0
-0.412 -0.007 0.609 255 255 255
-0.267 0.117 0.591 255 255 255
0.287 -0.144 0.665 255 255 255
0.189 0.168 0.596 255 255 255
-0.166 -0.167 0.653 255 255 255
-0.072 -0.328 0.69 255 255 255
0.326 0.024 0.633 255 255 255
0.034 0.084 0.605 255 255 255
0.057 -0.315 0.691 255 255 255
-0.124 0.169 0.583 255 255 255
0.024 -0.179 0.664 255 255 255
-0.049 -0.18 0.66 255 255 255
-0.411 -0.073 0.622 255 255 255
-0.217 0.072 0.602 255 255 255
0.213 -0.264 0.686 255 255 255
0.168 0.096 0.611 255 255 255
0.24 0.115 0.602 255 255 255
-0.147 -0.266 0.674 255 255 255
-0.352 -0.45 0.705 255 255 255
-0.384 -0.062 0.624 0 0 0
0.284 -0.234 0.683 255 255 255
0.022 -0.342 0.696 255 255 255
0.267 -0.04 0.643 255 255 255
-0.13 0.286 0.561 255 255 255
0.29 -0.518 0.743 255 255 255
-0.183 -0.547 0.733 0 0 0
0.169 0.062 0.618 255 255 255
-0.163 -0.12 0.644 255 255 255
-0.119 -0.176 0.657 255 255 255
0.326 -0.034 0.645 255 255 255
-0.126 -0.497 0.723 255 255 255
-0.304 -0.113 0.637 255 255 255
0.103 -0.447 0.72 255 255 255
0.418 -0.222 0.688 255 255 255
0.335 -0.27 0.695 255 255 255
0.287 -0.28 0.695 255 255 255
0.416 -0.275 0.697 255 255 255
0.117 -0.46 0.723 255 255 255
0.384 -0.356 0.713 255 255 255
-0.324 -0.307 0.679 255 255 255
0.115 -0.077 0.64 0 0 0
-0.086 -0.277 0.679 255 255 255
0.088 -0.561 0.741 0 0 0
0.067 -0.008 0.627 255 255 255
0.2 0.137 0.602 255 255 255
-0.243 -0.024 0.62 255 255 255
-0.304 -0.093 0.629 255 255 255
0.38 -0.134 0.665 255 255 255
0.09 0.165 0.594 255 255 255
-0.108 0.208 0.578 255 255 255
-0.051 0.283 0.565 255 255 255
-0.041 0.212 0.579 255 255 255
-0.069 0.025 0.616 0 0 0
0.34 -0.269 0.694 255 255 255
-0.06 -0.116 0.648 255 255 255
0.38 -0.114 0.661 0 0 0
0.031 -0.263 0.68 255 255 255
-0.079 -0.225 0.668 255 255 255
0.013 -0.203 0.668 255 255 255
-0.182 -0.163 0.654 255 255 255
-0.075 0.042 0.615 255 255 255
0.041 -0.015 0.625 0 0 0
-0.061 0.14 0.589 255 255 255
0.161 -0.236 0.679 255 255 255
0.36 -0.292 0.7 255 255 255
0.227 -0.03 0.641 255 255 255
-0.06 -0.264 0.677 255 255 255
-0.445 -0.127 0.636 255 255 255
0.383 -0.553 0.752 0 0 0
-0.148 -0.433 0.71 255 255 255
0.007 0.226 0.578 255 255 255
-0.156 0.052 0.608 255 255 255
0.051 0.155 0.589 0 0 0
-0.02 -0.147 0.655 255 255 255
-0.031 -0.151 0.656 255 255 255
-0.207 -0.422 0.705 255 255 255
0.019 -0.292 0.685 255 255 255
0.074 -0.425 0.714 255 255 255
-0.331 -0.194 0.653 255 255 255
0.244 0.157 0.601 255 255 255
-0.035 0.211 0.578 255 255 255
0.147 -0.299 0.691 255 255 255
-0.193 -0.198 0.66 255 255 255
0.068 0.161 0.593 255 255 255
-0.308 -0.1 0.627 255 255 255
0.121 -0.445 0.721 255 255 255
-0.362 0.043 0.601 255 255 255
0.368 0.035 0.632 255 255 255
-0.107 -0.253 0.673 255 255 255
-0.131 0.019 0.616 255 255 255
0.065 -0.114 0.652 255 255 255
0.08 0.304 0.564 255 255 255
0.299 -0.08 0.651 255 255 255
-0.051 -0.206 0.666 255 255 255
0.002 0.031 0.614 0 0 0
0.273 -0.195 0.671 255 255 255
-0.082 -0.264 0.676 255 255 255
-0.235 0.21 0.571 255 255 255
0.063 0.19 0.587 255 255 255
0.447 -0.052 0.655 0 0 0
0.045 0.232 0.577 255 255 255
-0.276 -0.393 0.696 255 255 255
-0.214 0.159 0.582 255 255 255
-0.466 -0.157 0.64 255 255 255
-0.095 0.02 0.617 255 255 255
0.168 0.089 0.611 255 255 255
0.396 -0.093 0.658 255 255 255
0.233 -0.259 0.686 255 255 255
0.031 -0.41 0.711 255 255 255
-0.235 -0.374 0.695 255 255 255
0.017 -0.301 0.688 255 255 255
-0.09 -0.003 0.622 255 255 255
0.064 0.236 0.578 255 255 255
-0.018 0.102 0.602 255 255 255
0.16 0.188 0.59 255 255 255
-0.308 -0.26 0.669 255 255 255
-0.007 0.145 0.59 255 255 255
0.208 0.164 0.597 255 255 255
-0.199 0.255 0.564 0 0 0
0.097 -0.364 0.701 255 255 255
0.171 -0.156 0.662 255 255 255
0.169 -0.262 0.684 255 255 255
-0.094 -0.05 0.632 255 255 255
-0.066 0.062 0.608 255 255 255
-0.414 -0.286 0.669 255 255 255
0.212 -0.219 0.677 255 255 255
0.395 -0.036 0.647 255 255 255
-0.219 0.134 0.587 255 255 255
-0.344 0.105 0.589 255 255 255
0.083 -0.406 0.712 255 255 255
-0.238 0.163 0.581 255 255 255
-0.002 -0.463 0.72 255 255 255
-0.374 -0.111 0.635 255 255 255
0.209 0.147 0.602 255 255 255
0.122 0.191 0.582 0 0 0
0.41 0.015 0.637 0 0 0
-0.264 -0.027 0.62 255 255 255
0.07 0.07 0.611 0 0 0
-0.097 -0.513 0.727 255 255 255
0.377 -0.063 0.652 255 255 255
0.458 -0.049 0.654 255 255 255
0.143 -0.085 0.636 0 0 0
-0.257 -0.204 0.659 255 255 255
-0.319 -0.548 0.728 0 0 0
-0.213 -0.413 0.703 255 255 255
-0.056 -0.154 0.655 255 255 255
-0.165 -0.179 0.656 255 255 255
0.421 0.018 0.638 0 0 0
0.178 -0.534 0.741 0 0 0
-0.048 0.248 0.572 255 255 255
0.12 -0.377 0.706 255 255 255
0.194 0.037 0.624 255 255 255
-0.228 0.103 0.595 255 255 255
-0.093 -0.018 0.625 255 255 255
-0.138 0.17 0.584 0 0 0
0.017 0.212 0.581 255 255 255
0.198 0.021 0.627 255 255 255
-0.102 0.082 0.607 255 255 255
-0.075 0.102 0.6 0 0 0
-0.237 -0.059 0.628 0 0 0
0.102 -0.431 0.716 255 255 255
-0.411 0.045 0.597 255 255 255
-0.103 0.144 0.592 255 255 255
0.294 -0.4 0.718 255 255 255
-0.188 0.229 0.57 255 255 255
-0.315 -0.255 0.667 255 255 255
-0.098 -0.049 0.632 255 255 255
-0.046 0.23 0.575 255 255 255
0.164 0 0.631 255 255 255
0.137 -0.181 0.667 255 255 255
-0.184 0.262 0.564 0 0 0
0.193 -0.06 0.644 255 255 255
-0.122 0.043 0.611 255 255 255
0.113 -0.102 0.65 255 255 255
-0.097 0.202 0.579 255 255 255
-0.148 -0.003 0.617 0 0 0
0.304 -0.142 0.665 255 255 255
-0.315 0.145 0.574 255 255 255
0.428 0.041 0.633 255 255 255
-0.096 0.247 0.57 255 255 255
-0.302 -0.488 0.716 255 255 255
-0.388 -0.102 0.634 255 255 255
-0.016 0.091 0.604 255 255 255
-0.112 0.099 0.599 0 0 0
0.11 0.112 0.603 255 255 255
0.085 -0.176 0.663 255 255 255
-0.095 -0.305 0.684 255 255 255
-0.124 -0.531 0.731 0 0 0
-0.167 0.181 0.581 0 0 0
-0.263 -0.164 0.649 255 255 255
-0.003 0.263 0.571 0 0 0
0.257 0.15 0.604 255 255 255
-0.108 -0.239 0.671 255 255 255
0.241 -0.016 0.638 255 255 255
-0.126 -0.379 0.699 255 255 255
0.376 -0.44 0.727 255 255 255
0.218 -0.242 0.682 255 255 255
0.047 0.166 0.589 0 0 0
-0.317 -0.123 0.64 255 255 255
0.412 0.046 0.631 255 255 255
-0.177 0.199 0.574 255 255 255
-0.179 -0.223 0.664 255 255 255
-0.376 -0.013 0.613 0 0 0
-0.106 -0.302 0.683 255 255 255
0.022 0.14 0.596 255 255 255
0.288 -0.082 0.65 255 255 255
0.141 -0.257 0.683 255 255 255
0.342 -0.009 0.64 255 255 255
0.267 0.156 0.602 255 255 255
0.207 -0.063 0.645 255 255 255
-0.143 -0.18 0.657 255 255 255
-0.151 0.266 0.564 0 0 0
-0.063 0.022 0.618 0 0 0
0.304 0.089 0.616 255 255 255
0.269 0.137 0.606 255 255 255
0.084 0.047 0.615 255 255 255
0.173 0.061 0.619 255 255 255
0.25 0.268 0.579 0 0 0
-0.039 -0.484 0.723 255 255 255
0.139 0.28 0.571 255 255 255
-0.266 -0.499 0.718 255 255 255
0.222 0.074 0.614 255 255 255
0.24 0.072 0.616 255 255 255
-0.205 0.262 0.562 0 0 0
0.152 0.282 0.571 255 255 255
-0.058 -0.451 0.716 255 255 255
-0.406 -0.004 0.609 255 255 255
-0.383 -0.013 0.613 0 0 0
-0.258 -0.013 0.618 0 0 0
0.454 -0.159 0.675 255 255 255
0.041 -0.067 0.64 0 0 0
0.156 0.111 0.604 255 255 255
-0.023 -0.207 0.667 255 255 255
0.412 -0.235 0.688 255 255 255
0.321 -0.057 0.648 255 255 255
-0.104 0.053 0.612 255 255 255
-0.025 -0.385 0.703 255 255 255
-0.37 -0.065 0.626 255 255 255
-0.27 -0.315 0.68 255 255 255
-0.194 -0.037 0.625 0 0 0
0.374 0.03 0.633 255 255 255
0.088 0.253 0.574 255 255 255
0.262 -0.025 0.639 255 255 255
-0.18 -0.042 0.629 255 255 255
0.182 -0.11 0.653 255 255 255
0.018 0.072 0.609 255 255 255
-0.165 -0.221 0.665 255 255 255
0.011 0.062 0.608 255 255 255
0.379 -0.118 0.662 255 255 255
0.163 -0.176 0.667 255 255 255
-0.217 0.089 0.598 255 255 255
-0.042 -0.088 0.638 0 0 0
0.215 -0.205 0.671 255 255 255
-0.108 -0.175 0.657 255 255 255
0.305 -0.353 0.71 255 255 255
-0.043 -0.237 0.672 255 255 255
0.129 0.055 0.613 255 255 255
-0.346 -0.264 0.669 255 255 255
-0.097 -0.138 0.65 255 255 255
0.215 -0.093 0.65 255 255 255
0.069 0.026 0.619 0 0 0
0.023 -0.373 0.702 255 255 255
-0.176 -0.514 0.726 255 255 255
0.063 0.098 0.601 0 0 0
-0.247 0.019 0.611 255 255 255
0.014 0.096 0.603 0 0 0
-0.232 0.173 0.579 0 0 0
-0.102 -0.1 0.639 0 0 0
0.134 0.286 0.57 255 255 255
-0.381 -0.26 0.665 255 255 255
-0.085 -0.061 0.634 255 255 255
-0.099 0.253 0.568 0 0 0
0.432 -0.127 0.667 255 255 255
0.376 -0.112 0.661 255 255 255
-0.177 -0.145 0.649 255 255 255
0.106 0.046 0.614 255 255 255
0.078 0.241 0.576 255 255 255
-0.112 -0.201 0.663 255 255 255
-0.122 -0.029 0.622 255 255 255
-0.109 -0.444 0.714 255 255 255
-0.163 0.224 0.572 255 255 255
-0.158 -0.526 0.729 255 255 255
0.315 0.172 0.602 255 255 255
0.057 0.247 0.575 255 255 255
-0.212 -0.44 0.709 255 255 255
-0.281 0.002 0.614 255 255 255
-0.145 -0.497 0.724 255 255 255
0.215 -0.084 0.649 255 255 255
0.123 -0.446 0.722 255 255 255
0.055 0.049 0.615 255 255 255
0.281 -0.552 0.75 0 0 0
0.245 0.216 0.59 255 255 255
0.109 0.004 0.628 255 255 255
-0.032 -0.365 0.7 255 255 255
0.016 -0.227 0.673 255 255 255
-0.379 -0.343 0.685 255 255 255
-0.325 0.114 0.586 0 0 0
0.159 -0.069 0.631 0 0 0
-0.035 -0.373 0.701 255 255 255
-0.33 0.035 0.606 255 255 255
0.183 -0.058 0.643 255 255 255
-0.088 -0.104 0.644 255 255 255
0.11 -0.395 0.709 255 255 255
-0.089 0.075 0.607 255 255 255
0.212 0.18 0.595 255 255 255
0.211 0.118 0.6 255 255 255
0.127 0.244 0.578 255 255 255
-0.107 -0.008 0.62 0 0 0
0.05 -0.286 0.686 255 255 255
-0.218 -0.126 0.644 255 255 255
0.335 0.087 0.619 255 255 255
-0.003 -0.084 0.641 0 0 0
0.041 -0.201 0.67 255 255 255
-0.249 0.111 0.592 255 255 255
0.136 -0.029 0.63 255 255 255
0.23 0.065 0.617 255 255 255
0.192 -0.301 0.693 255 255 255
0.126 -0.375 0.705 255 255 255
0.401 -0.299 0.702 255 255 255
0.232 0.216 0.588 255 255 255
0.431 -0.156 0.674 255 255 255
0.072 0.058 0.614 0 0 0
-0.005 0.209 0.58 255 255 255
-0.379 -0.03 0.618 0 0 0
0.244 0.215 0.59 255 255 255
0.376 -0.208 0.682 255 255 255
0.007 0.268 0.57 0 0 0
-0.148 -0.044 0.627 255 255 255
-0.099 0.034 0.614 255 255 255
-0.091 -0.031 0.627 255 255 255
-0.309 0.126 0.586 255 255 255
-0.042 -0.134 0.652 255 255 255
-0.008 -0.174 0.661 255 255 255
-0.001 -0.128 0.652 255 255 255
0.002 0.158 0.588 0 0 0
-0.093 -0.203 0.664 255 255 255
0.297 0.194 0.596 255 255 255
-0.298 -0.191 0.653 255 255 255
-0.139 0.222 0.574 255 255 255
0.276 -0.291 0.696 255 255 255
0.011 -0.036 0.63 255 255 255
0.424 -0.125 0.667 255 255 255
-0.435 -0.142 0.639 255 255 255
-0.151 -0.213 0.663 255 255 255
-0.096 0.306 0.558 255 255 255
-0.257 0.234 0.566 255 255 255
0.225 0.068 0.615 255 255 255
-0.214 0.225 0.569 255 255 255
-0.347 -0.195 0.652 255 255 255
-0.206 0.311 0.555 255 255 255
-0.346 -0.108 0.636 255 255 255
0.145 0.133 0.597 0 0 0
-0.079 -0.057 0.634 255 255 255
0.181 0.166 0.595 255 255 255
0.241 0.244 0.585 255 255 255
-0.183 0.113 0.593 255 255 255
-0.074 0.288 0.562 255 255 255
0.108 0.192 0.587 0 0 0
-0.114 0.175 0.571 0 0 0
0.141 -0.005 0.63 0 0 0
-0.395 -0.065 0.622 0 0 0
-0.121 0.054 0.61 255 255 255
0.309 -0.006 0.638 255 255 255
-0.308 -0.005 0.613 0 0 0
0.021 0.197 0.583 0 0 0
-0.362 -0.336 0.683 255 255 255
0.19 0.215 0.586 255 255 255
0.114 -0.028 0.633 255 255 255
0.121 0.024 0.623 255 255 255
-0.047 0.041 0.615 255 255 255
-0.156 -0.442 0.711 255 255 255
-0.18 -0.507 0.724 255 255 255
-0.142 0.152 0.587 0 0 0
0.137 0.218 0.584 255 255 255
-0.307 -0.193 0.654 255 255 255
0.261 0.057 0.621 255 255 255
-0.436 -0.021 0.613 255 255 255
0.237 -0.099 0.653 255 255 255
-0.057 0.228 0.575 255 255 255
0.45 -0.211 0.685 255 255 255
0.037 -0.204 0.669 255 255 255
-0.099 -0.04 0.631 255 255 255
-0.033 -0.049 0.631 255 255 255
0.259 -0.465 0.73 255 255 255
-0.213 0.249 0.564 0 0 0
0.064 0.198 0.59 255 255 255
-0.144 0.197 0.574 255 255 255
-0.253 0.178 0.578 0 0 0
-0.217 -0.025 0.621 0 0 0
0.235 0.117 0.6 255 255 255
-0.192 -0.132 0.647 255 255 255
-0.389 -0.02 0.614 0 0 0
-0.421 0.035 0.601 255 255 255
-0.299 -0.389 0.694 255 255 255
0.402 -0.384 0.718 255 255 255
-0.425 -0.282 0.668 255 255 255
0.431 -0.334 0.707 255 255 255
-0.009 -0.249 0.676 255 255 255
-0.252 -0.158 0.649 255 255 255
0.238 -0.292 0.693 255 255 255
0.151 0.08 0.609 255 255 255
0.02 0.2 0.58 255 255 255
0.233 -0.175 0.666 255 255 255
0.365 -0.078 0.653 255 255 255
0.356 -0.513 0.745 255 255 255
-0.057 -0.228 0.671 255 255 255
0.282 0.117 0.606 255 255 255
0.374 -0.561 0.757 0 0 0
-0.193 0.247 0.566 255 255 255
-0.012 0.127 0.597 0 0 0
0.15 -0.501 0.733 255 255 255
0.219 -0.033 0.639 255 255 255
-0.13 -0.263 0.675 255 255 255
-0.209 -0.297 0.679 255 255 255
0.092 -0.437 0.717 255 255 255
-0.249 -0.156 0.649 255 255 255
0.458 -0.265 0.693 255 255 255
0.296 -0.204 0.674 255 255 255
0.107 -0.098 0.648 255 255 255
0 -0.05 0.636 255 255 255
-0.436 0.003 0.605 255 255 255
0.072 -0.217 0.672 255 255 255
-0.122 -0.03 0.622 255 255 255
0.338 -0.573 0.757 0 0 0
0.167 -0.265 0.685 255 255 255
-0.135 -0.036 0.623 255 255 255
0 0.045 0.612 255 255 255
-0.202 -0.324 0.685 255 255 255
0.164 -0.355 0.703 255 255 255
0.016 -0.166 0.66 255 255 255
-0.065 -0.225 0.668 255 255 255
-0.045 0.216 0.579 255 255 255
0.361 0.055 0.627 255 255 255
-0.216 -0.413 0.702 255 255 255
0.075 -0.314 0.692 255 255 255
-0.022 0.112 0.599 255 255 255
-0.349 -0.02 0.616 255 255 255
-0.135 0.143 0.591 255 255 255
0.18 -0.186 0.669 255 255 255
0.337 -0.03 0.644 255 255 255
0.046 -0.532 0.736 0 0 0
0.167 0.316 0.563 255 255 255
-0.028 0.251 0.572 255 255 255
0.216 -0.332 0.7 255 255 255
-0.062 -0.256 0.676 255 255 255
0.399 0.019 0.637 255 255 255
-0.098 0.069 0.607 255 255 255
-0.352 0.047 0.6 255 255 255
-0.251 0.085 0.599 255 255 255
-0.448 -0.221 0.654 255 255 255
0.19 0.244 0.58 255 255 255
-0.137 -0.295 0.682 255 255 255
-0.181 0.079 0.601 0 0 0
0.232 -0.251 0.685 255 255 255
0.356 -0.081 0.653 255 255 255
0.314 -0.102 0.656 255 255 255
-0.079 -0.025 0.626 255 255 255
-0.077 0.25 0.569 255 255 255
-0.209 -0.032 0.623 0 0 0
-0.399 -0.051 0.619 255 255 255
0.114 -0.376 0.705 255 255 255
0.022 0.209 0.582 255 255 255
-0.305 -0.218 0.661 255 255 255
-0.128 0.183 0.578 255 255 255
0.329 -0.422 0.724 255 255 255
0.015 -0.031 0.63 255 255 255
-0.227 -0.359 0.691 255 255 255
-0.151 -0.047 0.627 0 0 0
-0.302 -0.402 0.697 255 255 255
-0.302 -0.349 0.687 255 255 255
0.322 -0.286 0.697 255 255 255
0.006 0.076 0.611 255 255 255
-0.414 -0.023 0.613 255 255 255
-0.131 -0.067 0.627 255 255 255
0.044 0.262 0.571 0 0 0
0.402 -0.218 0.687 255 255 255
0.465 -0.018 0.648 255 255 255
-0.228 0.161 0.581 255 255 255
-0.024 -0.062 0.633 0 0 0
0.044 -0.307 0.689 255 255 255
0.284 0.195 0.596 255 255 255
-0.258 -0.027 0.621 255 255 255
0.41 -0.3 0.701 255 255 255
0.277 0.175 0.599 255 255 255
-0.063 -0.032 0.627 255 255 255
0.217 0.252 0.58 255 255 255
0.176 -0.149 0.662 255 255 255
-0.455 -0.019 0.602 255 255 255
0.179 0.241 0.581 255 255 255
0.298 -0.276 0.694 255 255 255
0.025 -0.052 0.636 255 255 255
-0.377 0.03 0.603 0 0 0
0.286 0.023 0.631 255 255 255
-0.145 -0.385 0.7 255 255 255
-0.111 -0.533 0.732 0 0 0
-0.393 -0.042 0.617 255 255 255
-0.145 0.233 0.571 255 255 255
-0.169 -0.453 0.714 255 255 255
-0.106 -0.109 0.644 255 255 255
-0.069 0.188 0.579 255 255 255
0.118 -0.488 0.73 255 255 255
-0.232 0.218 0.571 255 255 255
0.238 0.157 0.6 255 255 255
0.178 -0.005 0.633 255 255 255
-0.009 0.248 0.573 255 255 255
-0.127 -0.373 0.698 255 255 255
-0.185 -0.311 0.683 255 255 255
-0.158 0.16 0.585 255 255 255
0.417 -0.146 0.671 0 0 0
-0.157 0.172 0.582 255 255 255
-0.155 -0.5 0.724 255 255 255
-0.148 0.108 0.597 0 0 0
-0.102 0.068 0.608 255 255 255
-0.115 -0.01 0.621 255 255 255
-0.249 -0.006 0.617 0 0 0
-0.172 0.184 0.58 0 0 0
-0.37 -0.257 0.665 0 0 0
0.278 -0.064 0.646 255 255 255
0.225 0.128 0.598 255 255 255
-0.329 -0.134 0.642 255 255 255
0.261 0.26 0.582 0 0 0
-0.365 -0.189 0.651 0 0 0
-0.203 0.303 0.555 255 255 255
0.062 -0.125 0.652 255 255 255
-0.1 -0.535 0.73 0 0 0
-0.012 -0.116 0.649 255 255 255
0.007 -0.359 0.699 255 255 255
-0.269 0.105 0.593 255 255 255
-0.04 0.076 0.605 255 255 255
0.184 0.226 0.584 255 255 255
-0.035 -0.026 0.627 255 255 255
0.356 0.006 0.637 255 255 255
-0.175 0.312 0.556 255 255 255
0.081 -0.291 0.688 255 255 255
0.15 -0.284 0.687 255 255 255
-0.222 -0.02 0.619 255 255 255
0.089 0.105 0.604 255 255 255
0.024 0.148 0.591 255 255 255
0.166 0.212 0.586 255 255 255
0.035 -0.304 0.689 255 255 255
0.053 -0.507 0.731 255 255 255
-0.128 0.189 0.576 255 255 255
0.109 0.239 0.578 255 255 255
0.306 -0.156 0.668 255 255 255
-0.266 -0.267 0.672 255 255 255
0.104 0.153 0.596 255 255 255
0.363 -0.456 0.731 255 255 255
-0.071 -0.157 0.655 255 255 255
0.219 -0.507 0.737 255 255 255
0.357 -0.09 0.654 255 255 255
0.145 -0.279 0.686 255 255 255
0.187 -0.066 0.644 255 255 255
0.044 0.107 0.594 0 0 0
-0.084 -0.269 0.677 255 255 255
-0.066 -0.137 0.651 255 255 255
-0.299 -0.507 0.72 255 255 255
-0.014 -0.435 0.714 255 255 255
0.116 0.268 0.573 0 0 0
-0.295 -0.287 0.675 255 255 255
-0.171 -0.198 0.66 255 255 255
0.119 -0.012 0.63 255 255 255
-0.069 0.109 0.598 255 255 255
-0.147 -0.295 0.681 255 255 255
-0.309 0.146 0.579 255 255 255
0.203 -0.421 0.718 255 255 255
-0.102 -0.327 0.689 255 255 255
0.06 -0.022 0.63 255 255 255
-0.106 -0.001 0.619 0 0 0
0.021 -0.445 0.718 255 255 255
0.089 -0.006 0.63 255 255 255
0.15 -0.099 0.651 255 255 255
0.185 0.225 0.585 255 255 255
0.249 0.213 0.59 255 255 255
-0.184 0.289 0.56 255 255 255
0.155 0.004 0.626 0 0 0
-0.072 -0.405 0.707 255 255 255
0.051 0.111 0.6 0 0 0
0.194 0.215 0.585 255 255 255
0.009 -0.14 0.655 255 255 255
0.13 0.266 0.573 0 0 0
-0.157 -0.52 0.728 255 255 255
-0.39 -0.104 0.633 255 255 255
0.179 -0.103 0.652 255 255 255
0.294 0.035 0.628 0 0 0
0.455 -0.188 0.681 255 255 255
0.042 -0.359 0.701 255 255 255
-0.044 0.079 0.605 255 255 255
0.047 0.093 0.602 255 255 255
-0.26 -0.133 0.643 255 255 255
0.144 -0.006 0.631 0 0 0
-0.103 -0.4 0.705 255 255 255
-0.343 -0.229 0.661 255 255 255
0.315 -0.168 0.67 255 255 255
-0.146 0.092 0.6 0 0 0
-0.39 -0.045 0.618 0 0 0
0.235 -0.248 0.685 255 255 255
-0.356 -0.152 0.644 255 255 255
0.022 0.015 0.621 255 255 255
-0.3 -0.061 0.626 255 255 255
0.222 -0.546 0.748 0 0 0
-0.163 0.274 0.563 255 255 255
0.061 -0.54 0.739 0 0 0
-0.338 -0.428 0.701 255 255 255
-0.333 -0.222 0.659 255 255 255
0.205 0.282 0.572 255 255 255
-0.065 -0.121 0.648 255 255 255
0.168 0.241 0.581 255 255 255
-0.02 -0.002 0.622 255 255 255
0.121 -0.551 0.744 0 0 0
0.014 0.139 0.593 255 255 255
-0.471 -0.112 0.63 255 255 255
-0.319 0.063 0.599 0 0 0
-0.221 -0.182 0.655 255 255 255
0.031 -0.316 0.691 255 255 255
-0.443 -0.074 0.622 255 255 255
-0.066 -0.409 0.707 255 255 255
-0.086 0.215 0.577 255 255 255
-0.315 -0.406 0.697 255 255 255
0.121 0.067 0.61 255 255 255
-0.206 -0.018 0.62 255 255 255
0.089 -0.099 0.648 255 255 255
-0.231 0.203 0.573 255 255 255
0.323 0.042 0.629 0 0 0
0.409 0.016 0.636 0 0 0
-0.138 0.236 0.571 255 255 255
0.097 -0.473 0.726 255 255 255
0.244 -0.082 0.65 255 255 255
0.088 -0.093 0.647 255 255 255
0.279 -0.142 0.663 255 255 255
0.103 -0.493 0.729 255 255 255
0.043 -0.433 0.716 255 255 255
0.207 -0.389 0.711 255 255 255
0.373 0.103 0.62 255 255 255
-0.324 -0.185 0.651 255 255 255
-0.423 -0.179 0.647 255 255 255
-0.191 -0.138 0.648 255 255 255
-0.227 -0.398 0.7 255 255 255
-0.265 -0.224 0.662 255 255 255
-0.318 -0.04 0.619 255 255 255
-0.128 -0.189 0.659 255 255 255
0.139 0.137 0.598 0 0 0
-0.16 -0.049 0.628 255 255 255
-0.007 0.182 0.584 255 255 255
0.164 0.222 0.585 255 255 255
-0.081 0.11 0.598 0 0 0
0.135 -0.026 0.63 255 255 255
-0.098 0.173 0.586 255 255 255
-0.302 -0.032 0.621 255 255 255
-0.103 0.22 0.576 255 255 255
0.409 -0.01 0.644 255 255 255
-0.081 0.124 0.594 255 255 255
0.26 0.149 0.604 255 255 255
0.295 -0.386 0.716 255 255 255
0.186 0.103 0.609 255 255 255
-0.201 -0.245 0.669 255 255 255
-0.118 0.292 0.561 255 255 255
0.057 0.265 0.571 0 0 0
0.221 -0.09 0.65 255 255 255
0.247 0.056 0.619 255 255 255
0.266 0.068 0.618 255 255 255
-0.208 -0.542 0.732 0 0 0
0.04 0.042 0.616 255 255 255
0.448 -0.088 0.66 0 0 0
0.071 0.126 0.599 255 255 255
-0.18 0.093 0.598 255 255 255
0.428 -0.106 0.663 0 0 0
-0.086 -0.459 0.717 255 255 255
-0.074 -0.209 0.666 255 255 255
0.237 -0.458 0.728 255 255 255
-0.292 -0.019 0.615 0 0 0
-0.064 0.229 0.574 255 255 255
0.23 -0.022 0.639 255 255 255
0.033 0.011 0.62 255 255 255
0.259 -0.172 0.666 255 255 255
0.285 0.169 0.6 255 255 255
-0.357 -0.539 0.724 0 0 0
0.278 0.011 0.633 255 255 255
-0.195 -0.393 0.7 255 255 255
-0.073 0.226 0.573 255 255 255
0.085 0.229 0.579 255 255 255
-0.302 -0.523 0.722 0 0 0
0.062 0.235 0.579 255 255 255
-0.122 -0.259 0.675 255 255 255
0.2 -0.128 0.658 255 255 255
0.323 -0.094 0.655 255 255 255
0.17 0.07 0.616 255 255 255
-0.219 0.211 0.572 255 255 255
0.036 0.088 0.602 255 255 255
-0.089 0.289 0.562 255 255 255
-0.273 -0.118 0.639 255 255 255
-0.164 0.278 0.563 255 255 255
-0.459 -0.076 0.623 255 255 255
-0.176 -0.037 0.625 255 255 255
-0.066 -0.063 0.634 0 0 0
0.277 0.029 0.628 255 255 255
-0.352 -0.379 0.692 255 255 255
-0.269 0.122 0.591 255 255 255
-0.423 -0.202 0.652 255 255 255
-0.195 0.123 0.591 0 0 0
-0.199 0.212 0.572 255 255 255
0.4 -0.218 0.687 255 255 255
-0.065 -0.03 0.626 255 255 255
-0.418 -0.301 0.671 255 255 255
0.149 -0.085 0.627 0 0 0
0.109 -0.374 0.705 255 255 255
-0.143 0.167 0.583 0 0 0
0.282 -0.128 0.661 255 255 255
-0.026 -0.527 0.733 255 255 255
-0.223 0.142 0.586 0 0 0
0.136 -0.325 0.695 255 255 255
0.057 0.264 0.571 0 0 0
-0.022 -0.198 0.665 255 255 255
-0.007 0.214 0.579 255 255 255
-0.311 -0.004 0.613 0 0 0
0.073 -0.302 0.69 255 255 255
-0.393 0.055 0.595 255 255 255
0.079 0.205 0.583 255 255 255
-0.31 0.065 0.6 255 255 255
0.38 -0.132 0.665 255 255 255
-0.088 -0.227 0.67 255 255 255
-0.225 0.009 0.613 255 255 255
0.354 0.089 0.62 255 255 255
-0.485 -0.135 0.636 255 255 255
-0.326 0.017 0.608 255 255 255
-0.005 -0.373 0.702 255 255 255
-0.315 -0.087 0.625 255 255 255
0.36 0.131 0.612 255 255 255
0.252 -0.31 0.698 255 255 255
-0.146 -0.132 0.647 255 255 255
-0.048 -0.293 0.683 255 255 255
0.167 -0.445 0.721 255 255 255
0.273 -0.127 0.66 255 255 255
-0.052 -0.514 0.729 255 255 255
-0.311 -0.181 0.651 255 255 255
0.118 0.013 0.626 255 255 255
0.181 -0.199 0.672 255 255 255
-0.099 0.191 0.582 255 255 255
-0.111 0.163 0.576 0 0 0
-0.366 -0.17 0.647 0 0 0
0.115 -0.288 0.688 255 255 255
0.249 0.197 0.592 255 255 255
-0.349 0.077 0.595 255 255 255
0.264 0.222 0.588 255 255 255
-0.288 -0.49 0.716 255 255 255
0.313 0.169 0.602 255 255 255
0.118 0.195 0.58 0 0 0
-0.183 0.029 0.612 0 0 0
0.227 0.281 0.575 255 255 255
0.031 0.129 0.597 255 255 255
-0.082 0.223 0.575 255 255 255
0.112 0.149 0.595 255 255 255
0.225 0.003 0.633 255 255 255
0.229 -0.136 0.66 255 255 255
-0.089 -0.09 0.64 255 255 255
0.037 -0.333 0.695 255 255 255
-0.178 -0.374 0.696 255 255 255
-0.165 0.238 0.569 255 255 255
-0.304 -0.413 0.699 255 255 255
0.098 0.065 0.61 255 255 255
0.133 0.108 0.605 0 0 0
0.191 0.181 0.594 255 255 255
-0.021 -0.154 0.657 255 255 255
0.241 0.189 0.593 255 255 255
0.352 -0.36 0.712 255 255 255
-0.255 -0.526 0.725 0 0 0
-0.034 0.16 0.588 255 255 255
0.058 0.102 0.603 255 255 255
-0.065 -0.333 0.692 255 255 255
0.38 -0.333 0.708 255 255 255
0.279 -0.031 0.642 255 255 255
-0.438 -0.048 0.614 255 255 255
-0.093 -0.344 0.692 255 255 255
-0.106 -0.298 0.682 255 255 255
0.359 -0.009 0.64 255 255 255
0.024 -0.204 0.669 255 255 255
-0.128 -0.515 0.727 255 255 255
0.157 0.062 0.616 255 255 255
0.106 0.206 0.582 255 255 255
-0.09 -0.448 0.716 255 255 255
-0.264 -0.437 0.706 255 255 255
-0.195 0.075 0.602 255 255 255
0.213 -0.046 0.643 255 255 255
0.064 0.128 0.596 255 255 255
0.047 -0.177 0.664 255 255 255
0.315 0.091 0.616 255 255 255
0.347 0.043 0.63 0 0 0
0.182 0.205 0.588 255 255 255
0.204 0.197 0.59 255 255 255
-0.159 0.089 0.6 255 255 255
0.318 -0.19 0.674 255 255 255
-0.396 -0.279 0.671 255 255 255
-0.032 0.096 0.602 255 255 255
-0.188 0.156 0.585 255 255 255
-0.115 -0.223 0.667 255 255 255
0.114 0.104 0.604 255 255 255
-0.097 0.267 0.565 0 0 0
-0.127 0.276 0.563 255 255 255
-0.083 -0.043 0.63 255 255 255
0.03 -0.124 0.652 255 255 255
0.265 -0.505 0.739 255 255 255
0.235 -0.052 0.643 255 255 255
-0.133 0.257 0.568 0 0 0
-0.236 -0.148 0.647 255 255 255
-0.196 0.099 0.597 0 0 0
-0.055 -0.154 0.656 255 255 255
-0.375 -0.132 0.638 0 0 0
0.204 -0.138 0.659 255 255 255
0.188 0.069 0.616 255 255 255
0.374 -0.33 0.708 255 255 255
-0.112 0.215 0.577 255 255 255
0.042 -0.089 0.645 0 0 0
-0.332 0.061 0.6 255 255 255
-0.323 -0.187 0.652 255 255 255
0.314 -0.122 0.662 255 255 255
-0.335 -0.068 0.627 255 255 255
0.086 -0.13 0.655 255 255 255
0.091 -0.014 0.631 255 255 255
-0.336 -0.252 0.665 255 255 255
0.059 -0.077 0.643 0 0 0
0.368 0.034 0.632 255 255 255
0.318 -0.229 0.685 255 255 255
0.291 -0.172 0.668 0 0 0
0.12 -0.231 0.677 255 255 255
-0.304 -0.418 0.701 255 255 255
-0.222 0.108 0.593 255 255 255
0.329 -0.008 0.64 255 255 255
-0.047 -0.058 0.633 0 0 0
-0.117 -0.332 0.69 255 255 255
-0.07 -0.231 0.67 255 255 255
0.266 -0.115 0.657 255 255 255
0.022 -0.028 0.629 255 255 255
-0.058 0.032 0.615 0 0 0
0.216 -0.253 0.685 255 255 255
-0.382 -0.19 0.65 255 255 255
-0.123 -0.435 0.711 255 255 255
0.462 -0.216 0.684 255 255 255
0.154 0.105 0.603 255 255 255
0.317 -0.151 0.667 255 255 255
-0.02 -0.355 0.698 255 255 255
0.079 0.259 0.574 0 0 0
0.008 0.246 0.573 255 255 255
0.037 -0.093 0.646 255 255 255
0.27 -0.302 0.698 255 255 255
-0.179 -0.118 0.645 255 255 255
-0.089 -0.335 0.691 255 255 255
0.209 -0.172 0.666 255 255 255
-0.085 0.098 0.6 255 255 255
0.21 -0.035 0.641 255 255 255
-0.221 -0.045 0.624 0 0 0
0.241 0.002 0.634 255 255 255
-0.449 0 0.604 255 255 255
0.237 0.101 0.606 255 255 255
-0.126 0.192 0.571 255 255 255
-0.066 -0.066 0.634 0 0 0
-0.352 -0.249 0.664 255 255 255
0.229 0.119 0.601 255 255 255
0.284 0.221 0.59 255 255 255
0.095 -0.408 0.711 255 255 255
0.003 -0.394 0.706 255 255 255
-0.239 -0.458 0.71 255 255 255
-0.175 -0.233 0.667 255 255 255
-0.161 -0.099 0.639 255 255 255
0.222 0.25 0.581 255 255 255
-0.221 -0.425 0.705 255 255 255
-0.326 -0.214 0.657 255 255 255
0.192 -0.122 0.657 255 255 255
0.03 0.086 0.602 255 255 255
-0.27 0.005 0.615 0 0 0
0.107 0.172 0.59 255 255 255
-0.148 -0.165 0.654 255 255 255
0.297 -0.234 0.685 255 255 255
0.113 -0.524 0.735 255 255 255
0.111 -0.108 0.652 255 255 255
-0.058 -0.022 0.626 0 0 0
0.291 0.158 0.603 255 255 255
-0.113 -0.276 0.678 255 255 255
0.055 -0.18 0.664 255 255 255
0.326 -0.018 0.642 255 255 255
0.286 -0.049 0.644 255 255 255
0.368 -0.246 0.691 255 255 255
0.205 -0.037 0.64 255 255 255
-0.012 0.154 0.588 255 255 255
0.157 -0.136 0.659 255 255 255
-0.455 -0.202 0.651 255 255 255
-0.248 -0.547 0.73 0 0 0
0.092 -0.014 0.63 255 255 255
-0.223 -0.004 0.615 255 255 255
-0.164 -0.44 0.711 255 255 255
-0.315 0.058 0.601 255 255 255
-0.203 -0.175 0.655 255 255 255
-0.35 0.087 0.594 255 255 255
-0.14 0.303 0.56 255 255 255
0.045 -0.511 0.731 255 255 255
-0.286 0.036 0.607 255 255 255
-0.074 -0.013 0.623 255 255 255
0.046 -0.555 0.739 0 0 0
-0.177 0.184 0.579 255 255 255
-0.401 -0.123 0.635 255 255 255
-0.191 0.072 0.602 255 255 255
0.23 -0.553 0.749 0 0 0
-0.209 -0.415 0.703 255 255 255
0.404 -0.303 0.702 255 255 255
-0.23 0.197 0.576 255 255 255
0.213 -0.3 0.694 255 255 255
-0.46 -0.109 0.629 255 255 255
0.397 -0.267 0.696 255 255 255
-0.217 -0.48 0.716 255 255 255
-0.388 -0.087 0.627 0 0 0
0.128 0.044 0.616 255 255 255
-0.405 -0.334 0.68 255 255 255
0.157 -0.408 0.714 255 255 255
0.297 -0.544 0.749 0 0 0
0.312 0.176 0.602 255 255 255
-0.251 0.148 0.585 0 0 0
-0.025 0.224 0.577 255 255 255
0.206 -0.144 0.661 255 255 255
-0.443 -0.06 0.62 255 255 255
-0.378 -0.065 0.625 255 255 255
-0.272 -0.427 0.704 255 255 255
0.318 -0.181 0.672 255 255 255
-0.274 0.166 0.576 0 0 0
0.131 -0.127 0.656 255 255 255
0.132 0.16 0.592 0 0 0
0.1 0.06 0.61 255 255 255
0.178 -0.15 0.662 255 255 255
-0.19 0.282 0.56 255 255 255
-0.085 0.173 0.586 255 255 255
0.064 -0.113 0.652 255 255 255
0.224 0.214 0.588 255 255 255
0.15 0.117 0.599 255 255 255
-0.019 -0.445 0.717 255 255 255
-0.179 0.122 0.592 255 255 255
0.178 0.244 0.58 255 255 255
0.041 -0.098 0.648 255 255 255
-0.239 -0.028 0.62 255 255 255
-0.342 -0.163 0.647 255 255 255
0.122 -0.52 0.735 255 255 255
0.294 -0.107 0.657 255 255 255
0.233 0.269 0.579 0 0 0
0.331 -0.097 0.655 255 255 255
-0.237 -0.079 0.634 0 0 0
0.068 0.164 0.592 255 255 255
0.35 -0.221 0.685 255 255 255
-0.159 -0.181 0.656 255 255 255
0.347 -0.241 0.689 255 255 255
-0.18 0.213 0.573 255 255 255
-0.192 0.127 0.591 0 0 0
0.099 0.224 0.581 255 255 255
-0.153 0.146 0.591 0 0 0
0.015 0.127 0.597 0 0 0
0.054 -0.272 0.682 255 255 255
-0.391 -0.146 0.639 255 255 255
0.336 0.007 0.637 255 255 255
-0.042 -0.18 0.66 255 255 255
0.181 -0.13 0.657 255 255 255
0.062 -0.297 0.688 255 255 255
-0.048 0.106 0.6 0 0 0
0.281 0.138 0.607 255 255 255
-0.086 0.055 0.611 255 255 255
0.082 -0.098 0.649 255 255 255
-0.286 -0.211 0.659 255 255 255
0.37 -0.451 0.731 255 255 255
-0.293 -0.383 0.694 255 255 255
0.259 0.226 0.589 255 255 255
0.041 -0.198 0.668 255 255 255
-0.019 0.217 0.58 255 255 255
0.312 -0.085 0.653 255 255 255
-0.27 0.217 0.569 255 255 255
-0.196 0.065 0.605 255 255 255
0.088 -0.449 0.721 255 255 255
-0.358 -0.09 0.631 255 255 255
-0.169 0.065 0.606 0 0 0
0.214 -0.066 0.645 255 255 255
-0.375 0.074 0.595 255 255 255
0.021 -0.278 0.683 255 255 255
0.112 0.254 0.575 255 255 255
0.167 0.071 0.615 255 255 255
-0.029 -0.204 0.666 255 255 255
0.044 0.103 0.6 255 255 255
-0.195 -0.237 0.667 255 255 255
0.091 0.154 0.595 255 255 255
0.087 -0.124 0.653 255 255 255
-0.042 0.175 0.583 0 0 0
0.014 -0.14 0.656 255 255 255
0.378 0.037 0.631 255 255 255
0.056 0.038 0.617 255 255 255
0.288 -0.208 0.674 255 255 255
-0.153 0.109 0.596 255 255 255
-0.268 -0.446 0.706 255 255 255
-0.153 -0.27 0.675 255 255 255
-0.349 -0.508 0.717 255 255 255
-0.359 0.057 0.597 255 255 255
0.245 0.173 0.597 255 255 255
0.039 -0.045 0.633 255 255 255
0.22 0.077 0.612 255 255 255
-0.334 0.049 0.601 255 255 255
-0.025 0.026 0.619 255 255 255
-0.18 0.19 0.579 255 255 255
0.198 0.156 0.598 255 255 255
-0.157 0.25 0.567 0 0 0
-0.304 0.019 0.611 0 0 0
0.102 0 0.628 255 255 255
-0.046 0.159 0.586 255 255 255
-0.229 0.16 0.582 255 255 255
0.409 -0.052 0.652 255 255 255
0.158 -0.515 0.737 255 255 255
0.239 -0.323 0.699 255 255 255
0.239 -0.394 0.715 255 255 255
0.245 -0.115 0.658 255 255 255
-0.134 -0.288 0.679 255 255 255
0.472 -0.213 0.684 255 255 255
0.137 0.185 0.581 0 0 0
0.168 0.256 0.577 0 0 0
0.075 0.248 0.574 255 255 255
0.083 -0.151 0.659 255 255 255
0.277 0.118 0.605 255 255 255
0.1 0.014 0.624 255 255 255
0.205 0.198 0.59 255 255 255
-0.206 0.191 0.576 255 255 255
0.37 -0.246 0.691 255 255 255
0.259 -0.128 0.66 255 255 255
0.087 -0.255 0.681 255 255 255
-0.076 0.216 0.575 255 255 255
-0.11 -0.084 0.64 255 255 255
0.154 -0.155 0.662 255 255 255
0.302 0.146 0.606 255 255 255
0.301 -0.154 0.667 255 255 255
-0.319 -0.259 0.668 255 255 255
-0.205 0.035 0.608 0 0 0
0.176 -0.222 0.676 255 255 255
0.082 -0.252 0.68 255 255 255
0.365 0.047 0.628 255 255 255
-0.173 0.169 0.583 255 255 255
0.013 -0.476 0.725 255 255 255
0.041 0.242 0.575 255 255 255
-0.162 -0.415 0.704 255 255 255
-0.403 -0.325 0.679 255 255 255
-0.073 0.184 0.58 255 255 255
0.291 -0.099 0.655 255 255 255
-0.012 -0.148 0.655 255 255 255
0.172 0.126 0.604 255 255 255
0.007 -0.017 0.625 255 255 255
-0.072 0.12 0.596 0 0 0
-0.123 -0.348 0.693 255 255 255
0.322 -0.221 0.683 255 255 255
0.386 -0.508 0.743 255 255 255
-0.146 0.193 0.573 255 255 255
-0.446 -0.017 0.611 255 255 255
0.025 -0.327 0.693 255 255 255
0.188 -0.196 0.672 255 255 255
0.056 0.025 0.617 0 0 0
0.087 0.132 0.599 255 255 255
0.088 0.309 0.564 255 255 255
0.453 -0.061 0.657 255 255 255
-0.029 -0.141 0.654 255 255 255
-0.38 -0.264 0.666 255 255 255
-0.015 0.207 0.58 255 255 255
0.319 0.179 0.6 255 255 255
-0.103 0.162 0.588 255 255 255
0.041 -0.279 0.684 255 255 255
-0.121 -0.262 0.675 255 255 255
-0.104 -0.255 0.673 255 255 255
0.02 -0.062 0.639 0 0 0
0.32 -0.026 0.643 255 255 255
-0.032 -0.039 0.63 0 0 0
0.063 0.294 0.565 255 255 255
0.21 0.183 0.594 255 255 255
-0.067 0.274 0.565 255 255 255
-0.452 -0.041 0.613 255 255 255
-0.093 0.177 0.584 255 255 255
-0.029 -0.468 0.721 255 255 255
0.214 0.262 0.576 0 0 0
0.006 0.003 0.62 0 0 0
0.173 -0.028 0.638 255 255 255
0.1 0.044 0.616 255 255 255
-0.333 -0.298 0.676 255 255 255
0.268 -0.403 0.718 255 255 255
0.231 -0.263 0.688 255 255 255
-0.052 0.107 0.598 255 255 255
0.218 0.247 0.582 255 255 255
0.061 0.272 0.57 0 0 0
-0.106 -0.058 0.626 0 0 0
-0.209 0.113 0.594 255 255 255
0.131 0.087 0.608 0 0 0
0.079 0.015 0.626 255 255 255
0.094 0.248 0.576 255 255 255
-0.117 -0.173 0.656 255 255 255
0.292 -0.008 0.639 255 255 255
0.45 -0.035 0.652 255 255 255
-0.142 0.204 0.577 255 255 255
-0.375 -0.079 0.628 255 255 255
-0.254 0.249 0.565 0 0 0
0.125 -0.107 0.652 255 255 255
-0.017 0.204 0.58 255 255 255
-0.137 0.302 0.559 255 255 255
-0.397 -0.254 0.663 255 255 255
-0.358 0.024 0.605 0 0 0
0.19 -0.184 0.669 255 255 255
-0.021 0.043 0.616 255 255 255
0.117 0.297 0.566 255 255 255
-0.193 -0.098 0.638 255 255 255
0.377 -0.188 0.678 255 255 255
-0.266 -0.296 0.677 255 255 255
-0.347 -0.357 0.687 255 255 255
0.07 -0.096 0.648 255 255 255
-0.26 -0.415 0.703 255 255 255
0.345 -0.412 0.723 255 255 255
0.427 -0.033 0.651 255 255 255
0.312 -0.242 0.687 255 255 255
0.289 -0.419 0.722 255 255 255
-0.126 0.051 0.611 0 0 0
0.273 -0.384 0.714 255 255 255
0.085 0.021 0.623 255 255 255
0.257 -0.248 0.686 255 255 255
0.185 0.199 0.589 255 255 255
0.433 -0.157 0.673 255 255 255
0.279 0.056 0.622 255 255 255
-0.16 -0.44 0.711 255 255 255
-0.228 0.225 0.569 255 255 255
0.405 0.044 0.632 0 0 0
-0.305 -0.481 0.715 255 255 255
-0.078 0 0.621 255 255 255
-0.248 -0.515 0.724 255 255 255
0.296 0.118 0.607 255 255 255
-0.237 -0.366 0.693 255 255 255
-0.087 -0.318 0.688 255 255 255
0.381 -0.007 0.64 255 255 255
-0.106 0.141 0.589 255 255 255
-0.367 -0.211 0.654 0 0 0
-0.019 -0.214 0.668 255 255 255
0.139 0.012 0.626 255 255 255
-0.253 -0.245 0.667 255 255 255
-0.345 -0.23 0.661 255 255 255
-0.342 -0.525 0.722 0 0 0
0.178 0.169 0.596 255 255 255
0.084 -0.118 0.653 255 255 255
-0.281 0.208 0.57 255 255 255
0.135 0.104 0.607 0 0 0
-0.107 -0.272 0.677 255 255 255
0.072 -0.192 0.667 255 255 255
-0.377 -0.18 0.649 0 0 0
-0.249 -0.159 0.65 255 255 255
0.346 -0.136 0.666 0 0 0
-0.042 -0.01 0.624 0 0 0
0.101 0.164 0.594 255 255 255
0.376 -0.164 0.673 255 255 255
0.234 0.061 0.618 255 255 255
-0.101 -0.419 0.709 255 255 255
-0.101 -0.072 0.634 255 255 255
-0.032 0.004 0.622 255 255 255
-0.268 -0.087 0.634 0 0 0
0.114 -0.428 0.716 255 255 255
0.141 -0.381 0.707 255 255 255
-0.11 -0.268 0.676 255 255 255
-0.324 -0.157 0.646 255 255 255
0.089 -0.455 0.721 255 255 255
-0.264 -0.014 0.617 0 0 0
0.129 -0.132 0.658 255 255 255
0.224 0.091 0.606 255 255 255
-0.297 0.06 0.601 255 255 255
0.005 -0.079 0.64 0 0 0
-0.173 -0.446 0.712 255 255 255
-0.188 0.045 0.607 0 0 0
-0.312 -0.045 0.62 255 255 255
-0.054 -0.145 0.653 255 255 255
-0.187 -0.139 0.649 255 255 255
-0.082 0.129 0.594 255 255 255
0.196 -0.082 0.648 255 255 255
-0.21 -0.22 0.663 255 255 255
-0.24 -0.295 0.677 255 255 255
0.193 0.23 0.583 255 255 255
0.025 0.099 0.603 255 255 255
-0.188 -0.558 0.735 0 0 0
0.272 -0.556 0.751 0 0 0
0.13 -0.03 0.632 255 255 255
0.048 0.091 0.6 0 0 0
0.171 0.262 0.574 0 0 0
0.347 -0.418 0.726 255 255 255
0.267 -0.243 0.686 255 255 255
0.334 0.162 0.605 255 255 255
-0.13 -0.299 0.682 255 255 255
0.286 0.179 0.598 255 255 255
-0.016 0.3 0.562 255 255 255
-0.304 -0.1 0.628 255 255 255
-0.34 0.089 0.592 255 255 255
0.057 -0.066 0.641 255 255 255
-0.338 -0.286 0.673 255 255 255
-0.365 0.018 0.606 0 0 0
-0.318 0.047 0.602 255 255 255
0.419 0.006 0.64 255 255 255
-0.048 -0.354 0.698 255 255 255
-0.257 -0.244 0.667 255 255 255
0.174 -0.07 0.647 255 255 255
-0.382 -0.254 0.665 255 255 255
-0.083 -0.113 0.645 255 255 255
-0.144 0.181 0.582 0 0 0
0.098 -0.282 0.687 255 255 255
-0.362 -0.271 0.668 0 0 0
0.384 -0.428 0.726 255 255 255
0.045 -0.212 0.67 255 255 255
-0.126 -0.386 0.701 255 255 255
0.402 -0.065 0.654 255 255 255
0.147 -0.159 0.663 255 255 255
0.238 -0.274 0.689 255 255 255
-0.269 0.113 0.592 255 255 255
0.05 0.131 0.594 0 0 0
0.403 0.06 0.628 255 255 255
0.229 0.199 0.592 255 255 255
0.209 0.306 0.568 255 255 255
-0.259 0.146 0.584 0 0 0
0.163 -0.394 0.711 255 255 255
0.105 0.024 0.622 255 255 255
0.191 0.039 0.623 255 255 255
0.199 -0.321 0.699 255 255 255
-0.068 -0.403 0.706 255 255 255
0.046 -0.035 0.63 255 255 255
-0.159 0.165 0.581 255 255 255
-0.103 0.096 0.601 255 255 255
0.363 -0.551 0.752 0 0 0
0.044 -0.377 0.704 255 255 255
-0.211 -0.116 0.642 255 255 255
0.066 -0.012 0.628 255 255 255
0.268 -0.504 0.739 255 255 255
0.086 -0.247 0.679 255 255 255
-0.168 -0.103 0.64 255 255 255
-0.067 -0.155 0.654 255 255 255
0.239 0.051 0.622 255 255 255
0.328 -0.229 0.685 255 255 255
-0.179 0.221 0.572 255 255 255
0.15 0.156 0.59 0 0 0
0.221 0.285 0.574 255 255 255
0.46 -0.001 0.644 255 255 255
-0.143 0.031 0.612 0 0 0
0.122 0.01 0.627 255 255 255
0.066 0.298 0.565 255 255 255
-0.358 0.012 0.608 0 0 0
-0.402 -0.075 0.621 255 255 255
0.395 -0.107 0.661 255 255 255
0.086 0.122 0.601 255 255 255
0.173 0.175 0.594 255 255 255
0.21 -0.047 0.642 255 255 255
-0.206 0.023 0.612 0 0 0
-0.28 -0.121 0.64 255 255 255
-0.194 -0.012 0.619 0 0 0
-0.407 -0.188 0.65 255 255 255
0.124 -0.207 0.673 255 255 255
-0.12 0.123 0.594 0 0 0
-0.025 0.218 0.579 255 255 255
-0.274 -0.474 0.714 255 255 255
-0.243 0.144 0.584 0 0 0
-0.13 0.3 0.558 255 255 255
0.088 -0.223 0.674 255 255 255
0.369 -0.26 0.693 255 255 255
0.307 -0.212 0.679 255 255 255
0.178 0.311 0.565 255 255 255
-0.28 -0.315 0.681 255 255 255
0.048 -0.401 0.708 255 255 255
0.046 0.128 0.598 255 255 255
0.067 0.295 0.566 255 255 255
-0.076 -0.31 0.686 255 255 255
-0.058 0.195 0.575 255 255 255
-0.174 -0.001 0.619 255 255 255
-0.11 -0.232 0.669 255 255 255
0.069 0.061 0.609 0 0 0
0.247 0.268 0.579 0 0 0
-0.46 -0.16 0.642 255 255 255
-0.185 -0.173 0.654 255 255 255
-0.047 -0.072 0.635 0 0 0
0.183 0.137 0.603 255 255 255
-0.047 -0.077 0.637 0 0 0
-0.045 -0.304 0.686 255 255 255
0.007 0.189 0.584 0 0 0
0.424 -0.236 0.689 255 255 255
-0.31 0.146 0.579 255 255 255
0.212 -0.519 0.74 255 255 255
-0.001 0.083 0.606 255 255 255
-0.068 0.201 0.577 255 255 255
-0.049 -0.033 0.628 0 0 0
-0.063 0.154 0.585 0 0 0
-0.194 -0.082 0.638 0 0 0
-0.127 0.056 0.61 0 0 0
0.044 0.268 0.571 0 0 0
0.217 -0.18 0.666 255 255 255
0.147 -0.281 0.687 255 255 255
-0.335 -0.311 0.678 255 255 255
-0.222 -0.184 0.656 255 255 255
-0.149 -0.332 0.689 255 255 255
0.082 0.225 0.582 255 255 255
0.379 0.085 0.623 255 255 255
-0.016 -0.426 0.713 255 255 255
0.119 0.161 0.595 0 0 0
0.049 0.136 0.593 255 255 255
-0.015 -0.059 0.635 0 0 0
0.038 -0.15 0.657 255 255 255
0.37 -0.327 0.707 255 255 255
0.29 -0.116 0.659 255 255 255
0.012 -0.367 0.7 255 255 255
-0.133 -0.169 0.654 255 255 255
0.417 -0.121 0.665 0 0 0
0.066 -0.418 0.713 255 255 255
0.096 0.134 0.599 255 255 255
-0.078 -0.315 0.687 255 255 255
0.41 -0.085 0.657 255 255 255
0.467 -0.155 0.674 255 255 255
0.224 -0.08 0.648 255 255 255
0.294 0.117 0.608 255 255 255
0.443 -0.094 0.66 255 255 255
-0.245 -0.249 0.668 255 255 255
0.354 -0.091 0.654 255 255 255
-0.389 -0.042 0.617 0 0 0
0.19 -0.501 0.734 255 255 255
-0.126 -0.559 0.735 0 0 0
-0.3 0.163 0.576 255 255 255
-0.282 -0.426 0.703 255 255 255
-0.136 0.268 0.564 0 0 0
0.34 0.155 0.607 255 255 255
0.176 0.182 0.593 255 255 255
0.021 -0.126 0.652 255 255 255
-0.281 -0.409 0.7 255 255 255
0 0.071 0.609 255 255 255
0.405 -0.226 0.688 255 255 255
-0.024 -0.312 0.689 255 255 255
0.188 0.195 0.59 255 255 255
0.049 -0.126 0.653 255 255 255
0.316 -0.538 0.749 0 0 0
-0.059 0.137 0.591 255 255 255
0.038 -0.136 0.655 255 255 255
-0.368 -0.4 0.694 255 255 255
0.143 -0.34 0.699 255 255 255
0.273 0.194 0.595 255 255 255
-0.264 -0.211 0.66 255 255 255
0.035 0.148 0.59 255 255 255
0.361 -0.159 0.672 255 255 255
0.355 -0.361 0.713 255 255 255
-0.431 -0.078 0.621 255 255 255
0.056 -0.031 0.631 255 255 255
0.283 0.199 0.594 255 255 255
0.111 -0.086 0.64 0 0 0
-0.004 -0.155 0.657 255 255 255
0.343 0.095 0.618 255 255 255
-0.121 -0.397 0.704 255 255 255
0.146 -0.152 0.661 255 255 255
0.398 -0.065 0.654 255 255 255
-0.312 0.008 0.612 255 255 255
0.402 -0.279 0.699 255 255 255
0.1 0.144 0.597 255 255 255
-0.146 0.31 0.556 255 255 255
-0.202 -0.206 0.661 255 255 255
0.155 0.067 0.614 255 255 255
0.221 0.198 0.592 255 255 255
0.381 -0.08 0.654 255 255 255
0.131 -0.342 0.698 255 255 255
-0.152 -0.014 0.62 255 255 255
-0.16 0.031 0.611 255 255 255
-0.174 0.077 0.602 255 255 255
-0.297 0.062 0.601 255 255 255
0.257 -0.09 0.653 0 0 0
-0.143 0.288 0.56 255 255 255
0.232 -0.028 0.64 255 255 255
-0.084 0.158 0.588 255 255 255
0.348 -0.248 0.689 255 255 255
0.181 0.295 0.568 255 255 255
-0.364 -0.241 0.662 0 0 0
-0.228 -0.195 0.659 255 255 255
0.335 -0.324 0.705 255 255 255
0.239 0.201 0.592 255 255 255
0.122 -0.079 0.637 0 0 0
0.248 -0.46 0.729 255 255 255
0.067 0.204 0.588 255 255 255
0.163 -0.317 0.695 255 255 255
0.331 -0.262 0.692 255 255 255
0.099 0.143 0.597 255 255 255
-0.12 -0.029 0.622 255 255 255
0.41 0.067 0.627 255 255 255
-0.28 -0.475 0.715 255 255 255
-0.108 0.291 0.561 255 255 255
-0.124 -0.024 0.622 255 255 255
0.128 0.262 0.574 0 0 0
0.271 -0.148 0.664 0 0 0
-0.069 0.104 0.599 255 255 255
0.063 -0.28 0.685 255 255 255
0.253 -0.329 0.701 255 255 255
-0.357 0.01 0.609 255 255 255
-0.315 -0.404 0.697 255 255 255
0.481 -0.202 0.681 255 255 255
0.201 -0.396 0.712 255 255 255
0.165 -0.455 0.722 255 255 255
