ply
format ascii 1.0
comment Created by Open3D
element vertex 1610
property double x
property double y
property double z
property uchar red
property uchar green
property uchar blue
end_header
-0.146 -0.252 0.585 255 255 255
0.259 -0.341 0.632 255 255 255
-0.165 -0.373 0.592 255 255 255
0.344 0.06 0.606 255 255 255
0.224 -0.451 0.638 255 255 255
-0.044 0.022 0.569 255 255 255
-0.282 -0.243 0.569 255 255 255
0.363 0.103 0.607 255 255 255
-0.101 -0.222 0.586 255 255 255
0.068 0.088 0.574 255 255 255
-0.055 -0.092 0.577 255 255 255
-0.183 0.253 0.534 0 0 0
-0.282 -0.328 0.577 255 255 255
-0.049 -0.128 0.578 0 0 0
0.277 0.162 0.591 255 255 255
-0.27 -0.163 0.562 255 255 255
0.313 -0.101 0.615 255 255 255
0.067 -0.12 0.595 255 255 255
-0.247 -0.412 0.589 255 255 255
-0.166 0.243 0.537 0 0 0
-0.029 -0.188 0.589 0 0 0
0.231 -0.222 0.619 0 0 0
-0.245 -0.347 0.583 255 255 255
0.272 -0.252 0.624 255 255 255
-0.178 -0.114 0.567 0 0 0
0.322 -0.054 0.615 0 0 0
0.111 -0.447 0.626 255 255 255
0.351 0.063 0.606 255 255 255
0.002 0.008 0.573 255 255 255
0.182 0.214 0.575 255 255 255
0.144 0.226 0.57 255 255 255
0.102 -0.314 0.614 255 255 255
-0.242 -0.362 0.585 255 255 255
0.301 -0.011 0.609 0 0 0
-0.06 0.071 0.562 255 255 255
-0.186 0.163 0.542 255 255 255
-0.006 0.183 0.559 255 255 255
0.003 0.269 0.552 255 255 255
0.276 0.035 0.6 255 255 255
0.032 0.054 0.574 255 255 255
0.007 0.257 0.554 0 0 0
0.226 0.277 0.575 0 0 0
-0.289 -0.207 0.566 0 0 0
0.233 -0.315 0.626 255 255 255
0.399 -0.226 0.635 255 255 255
0.102 -0.418 0.623 255 255 255
-0.345 -0.026 0.543 255 255 255
-0.234 -0.237 0.575 255 255 255
0.13 0.206 0.569 255 255 255
0.1 0.001 0.586 255 255 255
-0.31 -0.103 0.554 0 0 0
0.05 0.276 0.555 255 255 255
-0.143 -0.315 0.59 255 255 255
0.305 -0.268 0.629 255 255 255
-0.126 -0.025 0.565 255 255 255
0.129 -0.395 0.623 255 255 255
0.291 -0.203 0.624 255 255 255
0.246 -0.306 0.628 255 255 255
-0.143 0.239 0.54 0 0 0
0.115 0.125 0.575 255 255 255
0.256 -0.165 0.617 255 255 255
-0.203 0.017 0.553 255 255 255
-0.164 -0.11 0.566 255 255 255
0.041 0.196 0.562 255 255 255
0.343 -0.213 0.631 255 255 255
-0.329 -0.012 0.544 255 255 255
-0.121 0.159 0.548 255 255 255
0.267 0.206 0.585 255 255 255
0.394 -0.008 0.62 255 255 255
0.384 -0.302 0.64 255 255 255
0.05 0.259 0.558 0 0 0
-0.201 -0.127 0.567 0 0 0
-0.281 0.009 0.546 255 255 255
0.049 -0.327 0.611 255 255 255
-0.106 -0.43 0.604 255 255 255
-0.005 0.098 0.566 255 255 255
0.093 0.209 0.566 255 255 255
0.061 -0.292 0.608 255 255 255
0.006 -0.148 0.59 255 255 255
-0.118 -0.404 0.599 255 255 255
0.371 -0.114 0.624 255 255 255
0.31 -0.203 0.626 255 255 255
-0.272 -0.187 0.564 255 255 255
0.16 -0.176 0.61 255 255 255
0.18 0.082 0.587 255 255 255
0.254 -0.083 0.609 0 0 0
-0.19 -0.236 0.578 255 255 255
0.004 0.023 0.572 0 0 0
-0.121 -0.251 0.586 255 255 255
0.22 0.103 0.59 255 255 255
0.121 -0.365 0.62 255 255 255
-0.294 -0.411 0.582 255 255 255
0.274 -0.107 0.613 255 255 255
-0.026 0.039 0.569 0 0 0
0.121 -0.363 0.62 255 255 255
0.139 0.245 0.568 255 255 255
-0.114 -0.183 0.582 255 255 255
-0.022 -0.383 0.609 255 255 255
-0.093 -0.244 0.588 255 255 255
-0.236 -0.369 0.587 255 255 255
-0.2 0.179 0.539 255 255 255
0.027 0.132 0.565 255 255 255
-0.275 -0.032 0.55 255 255 255
-0.148 -0.039 0.564 255 255 255
-0.102 0.08 0.554 255 255 255
0.063 0.108 0.57 255 255 255
0.296 0.193 0.59 255 255 255
-0.056 -0.27 0.594 255 255 255
-0.068 -0.048 0.572 255 255 255
-0.213 -0.178 0.57 255 255 255
-0.021 0.059 0.567 255 255 255
-0.292 0.014 0.545 255 255 255
0.265 -0.096 0.612 255 255 255
0.125 0.062 0.583 255 255 255
-0.367 -0.082 0.547 255 255 255
0.01 0.098 0.571 255 255 255
-0.065 -0.248 0.592 255 255 255
-0.037 0.089 0.562 255 255 255
0.061 0.22 0.562 255 255 255
-0.105 -0.207 0.584 255 255 255
0.13 -0.314 0.618 255 255 255
-0.05 -0.075 0.576 255 255 255
0.417 -0.075 0.628 255 255 255
0.427 -0.192 0.636 255 255 255
-0.243 -0.206 0.571 0 0 0
0.206 0.087 0.589 255 255 255
-0.035 0.087 0.562 255 255 255
0.125 -0.324 0.618 255 255 255
-0.191 -0.38 0.591 255 255 255
-0.045 0.065 0.564 255 255 255
0.263 -0.182 0.619 255 255 255
-0.108 -0.198 0.584 255 255 255
0.323 0.028 0.607 255 255 255
-0.175 0.27 0.534 255 255 255
-0.182 0.243 0.535 0 0 0
0.403 0.061 0.614 255 255 255
-0.122 0.236 0.543 255 255 255
-0.073 -0.386 0.603 255 255 255
-0.145 -0.021 0.561 255 255 255
0.244 -0.191 0.619 255 255 255
0.014 -0.016 0.575 255 255 255
0.084 0.032 0.582 255 255 255
0.315 -0.111 0.617 255 255 255
-0.266 -0.391 0.585 255 255 255
0.033 -0.466 0.618 0 0 0
0.118 -0.143 0.592 255 255 255
-0.115 0.213 0.545 255 255 255
0.289 -0.011 0.608 255 255 255
0.313 -0.185 0.625 0 0 0
0.262 -0.234 0.622 0 0 0
-0.04 0.052 0.566 255 255 255
-0.059 0.051 0.564 255 255 255
-0.15 -0.198 0.579 0 0 0
0.038 0.06 0.574 255 255 255
-0.112 0.081 0.552 255 255 255
0.052 0.116 0.566 255 255 255
-0.043 0.03 0.565 255 255 255
-0.19 0.115 0.547 255 255 255
0.353 -0.151 0.626 255 255 255
0.198 0.065 0.591 255 255 255
0.182 -0.235 0.615 255 255 255
0.422 0.026 0.62 255 255 255
0.242 0.054 0.592 0 0 0
0.039 -0.31 0.608 255 255 255
-0.097 -0.262 0.589 255 255 255
0.028 -0.337 0.609 255 255 255
0.1 -0.133 0.595 255 255 255
0.016 -0.231 0.597 255 255 255
0.173 0.282 0.567 255 255 255
0.102 -0.243 0.608 255 255 255
-0.402 -0.133 0.549 255 255 255
-0.074 0.213 0.548 255 255 255
0.095 0.072 0.574 0 0 0
-0.307 -0.255 0.569 255 255 255
-0.105 0.077 0.553 255 255 255
0.307 -0.068 0.612 255 255 255
-0.125 0.06 0.559 255 255 255
-0.107 0.136 0.553 255 255 255
-0.182 0.003 0.557 255 255 255
0.077 -0.322 0.612 255 255 255
-0.176 0.04 0.553 0 0 0
-0.21 0.255 0.533 255 255 255
-0.275 0.089 0.542 255 255 255
0.101 -0.268 0.61 255 255 255
-0.213 -0.25 0.578 255 255 255
-0.334 -0.155 0.556 0 0 0
0.337 0.037 0.608 255 255 255
-0.032 0.108 0.562 255 255 255
0.01 0.221 0.557 255 255 255
-0.112 -0.408 0.601 255 255 255
-0.31 0.071 0.538 255 255 255
-0.109 0.208 0.546 255 255 255
0.228 -0.198 0.618 255 255 255
0.169 0.138 0.582 255 255 255
-0.32 -0.058 0.549 0 0 0
0.157 -0.12 0.603 255 255 255
-0.265 0.117 0.54 255 255 255
-0.097 -0.356 0.598 255 255 255
0.137 0.021 0.589 255 255 255
-0.109 0.23 0.545 255 255 255
-0.006 0.258 0.552 0 0 0
-0.185 0.055 0.553 255 255 255
0.303 -0.011 0.61 0 0 0
0.103 -0.106 0.594 255 255 255
0.02 -0.103 0.585 255 255 255
0.318 -0.327 0.639 255 255 255
-0.299 0.068 0.544 255 255 255
0.086 0.14 0.572 255 255 255
0.075 0.261 0.561 0 0 0
-0.174 0.127 0.548 255 255 255
-0.051 0.178 0.554 255 255 255
0.179 0.301 0.566 255 255 255
0.106 0.069 0.576 0 0 0
0.111 -0.357 0.619 255 255 255
-0.274 0.092 0.541 255 255 255
0.04 -0.072 0.579 0 0 0
0.409 -0.161 0.631 255 255 255
0.348 0.006 0.612 255 255 255
0.184 -0.281 0.62 255 255 255
0.088 -0.167 0.597 0 0 0
-0.218 -0.04 0.557 255 255 255
0.18 0.272 0.568 0 0 0
0.176 -0.454 0.634 255 255 255
0.413 -0.161 0.632 255 255 255
0.329 -0.308 0.638 255 255 255
0.086 0.19 0.568 255 255 255
-0.069 -0.215 0.588 255 255 255
0.124 0.045 0.584 255 255 255
0.101 -0.043 0.588 255 255 255
0.245 -0.419 0.637 255 255 255
0.083 -0.059 0.587 255 255 255
0.144 0.298 0.563 255 255 255
-0.244 -0.423 0.59 255 255 255
0.008 -0.101 0.582 0 0 0
-0.182 -0.098 0.565 255 255 255
0.126 0.01 0.59 255 255 255
-0.237 -0.12 0.563 0 0 0
-0.176 0.076 0.549 255 255 255
-0.013 -0.289 0.6 255 255 255
0.271 -0.398 0.639 255 255 255
-0.152 0.088 0.555 255 255 255
0.016 -0.453 0.617 0 0 0
-0.285 0.007 0.545 255 255 255
-0.121 -0.048 0.568 255 255 255
0.133 -0.218 0.609 255 255 255
-0.06 0.264 0.545 255 255 255
0.168 -0.43 0.632 255 255 255
0.387 0.051 0.614 255 255 255
0.162 -0.478 0.634 0 0 0
0.036 -0.353 0.611 255 255 255
0.282 0.013 0.604 255 255 255
0.307 -0.171 0.621 255 255 255
-0.023 -0.398 0.609 255 255 255
-0.097 -0.252 0.588 255 255 255
0.163 -0.283 0.618 255 255 255
-0.312 -0.191 0.561 255 255 255
0.13 -0.221 0.608 255 255 255
0.33 -0.12 0.619 255 255 255
-0.072 -0.24 0.589 255 255 255
0.1 -0.298 0.613 255 255 255
-0.277 0.165 0.532 255 255 255
-0.134 0.297 0.538 255 255 255
0.267 0.07 0.597 255 255 255
-0.205 -0.385 0.59 255 255 255
0.262 0.219 0.584 255 255 255
0.198 -0.214 0.615 255 255 255
-0.291 0.053 0.541 0 0 0
-0.261 0.111 0.541 255 255 255
-0.08 -0.209 0.585 255 255 255
-0.027 0.113 0.562 255 255 255
-0.142 0.008 0.559 0 0 0
-0.146 0.056 0.559 0 0 0
0.042 0.119 0.566 255 255 255
0.201 0.02 0.59 255 255 255
0.107 -0.252 0.609 255 255 255
0.129 0.176 0.574 255 255 255
-0.345 -0.19 0.553 255 255 255
-0.289 0.072 0.544 255 255 255
-0.202 0.085 0.55 255 255 255
0.034 -0.244 0.601 255 255 255
0.24 0.064 0.596 255 255 255
0.389 0.087 0.611 255 255 255
0.273 -0.031 0.608 0 0 0
0.366 0.015 0.614 255 255 255
0.321 -0.324 0.639 255 255 255
-0.15 0.199 0.542 255 255 255
-0.021 0.155 0.559 255 255 255
-0.209 -0.38 0.59 255 255 255
0.256 -0.271 0.623 255 255 255
0.136 -0.098 0.598 0 0 0
0.186 0.077 0.587 255 255 255
0.25 -0.075 0.609 0 0 0
-0.197 0.264 0.532 255 255 255
0.028 -0.333 0.608 255 255 255
-0.277 -0.473 0.59 255 255 255
-0.261 -0.031 0.552 255 255 255
-0.097 0.26 0.542 255 255 255
0.295 -0.006 0.608 255 255 255
0.201 -0.261 0.616 255 255 255
0.221 0.125 0.587 255 255 255
0.345 0.082 0.606 255 255 255
-0.108 -0.438 0.605 0 0 0
0.287 -0.099 0.613 0 0 0
-0.063 0.21 0.549 255 255 255
0.03 0.161 0.563 255 255 255
0.449 -0.099 0.632 255 255 255
0.287 0.081 0.598 255 255 255
0.187 0.084 0.587 255 255 255
-0.224 -0.214 0.573 255 255 255
-0.205 -0.188 0.571 255 255 255
0.098 0.185 0.568 255 255 255
0.073 -0.32 0.61 255 255 255
0.13 0.066 0.583 255 255 255
0.141 0.048 0.586 255 255 255
-0.072 0.022 0.567 255 255 255
-0.261 -0.391 0.585 255 255 255
0.241 -0.348 0.631 255 255 255
-0.181 0.133 0.546 255 255 255
-0.065 -0.061 0.574 255 255 255
-0.021 -0.229 0.595 255 255 255
-0.143 -0.226 0.582 255 255 255
0.088 0.285 0.559 255 255 255
-0.146 0.154 0.546 255 255 255
-0.06 0.097 0.559 255 255 255
0.227 -0.012 0.6 0 0 0
0.168 0.032 0.59 255 255 255
0.234 0.265 0.576 0 0 0
0.313 0.131 0.598 255 255 255
-0.034 -0.08 0.576 0 0 0
-0.056 -0.119 0.578 0 0 0
-0.077 -0.109 0.577 0 0 0
0.241 0.294 0.574 255 255 255
-0.155 -0.243 0.582 255 255 255
-0.277 -0.057 0.553 255 255 255
0.126 -0.099 0.596 0 0 0
0.23 0.139 0.588 255 255 255
0.174 -0.024 0.595 255 255 255
-0.192 0.158 0.542 255 255 255
-0.379 -0.015 0.54 255 255 255
0.034 0.232 0.557 255 255 255
0.05 0.254 0.559 0 0 0
0.167 -0.256 0.616 255 255 255
-0.187 0.176 0.54 255 255 255
0.207 -0.106 0.606 255 255 255
0.006 -0.169 0.593 0 0 0
0.312 0.085 0.602 255 255 255
-0.368 -0.156 0.553 255 255 255
0.018 -0.314 0.607 255 255 255
0.092 0.087 0.572 0 0 0
0.219 0.313 0.569 255 255 255
0.125 -0.099 0.596 0 0 0
0.07 0.169 0.567 255 255 255
-0.136 0.202 0.543 255 255 255
0.122 0.024 0.587 255 255 255
0.27 -0.002 0.605 255 255 255
0.106 0.001 0.587 0 0 0
-0.146 0.001 0.558 255 255 255
0.191 -0.184 0.612 255 255 255
0.363 0.038 0.612 255 255 255
-0.141 0.25 0.539 0 0 0
0.349 -0.096 0.62 255 255 255
-0.057 0.194 0.553 255 255 255
-0.203 0.275 0.531 255 255 255
-0.278 0.001 0.548 255 255 255
-0.334 -0.039 0.547 255 255 255
0.105 -0.46 0.626 0 0 0
-0.101 -0.04 0.568 255 255 255
-0.189 0.281 0.531 255 255 255
-0.064 -0.164 0.581 0 0 0
0.122 -0.215 0.608 255 255 255
0.222 0.024 0.593 255 255 255
-0.103 -0.371 0.598 255 255 255
0.079 -0.2 0.604 255 255 255
0.003 0.164 0.56 255 255 255
0.008 -0.085 0.581 255 255 255
0.109 -0.051 0.588 0 0 0
-0.185 -0.45 0.597 0 0 0
-0.36 0.009 0.532 255 255 255
-0.128 -0.393 0.598 255 255 255
0.189 0.079 0.587 255 255 255
-0.234 -0.396 0.589 255 255 255
0.159 -0.183 0.61 255 255 255
0.11 -0.048 0.589 0 0 0
0.09 -0.419 0.622 255 255 255
0.135 0.308 0.562 255 255 255
-0.061 -0.35 0.602 255 255 255
-0.04 0.249 0.549 0 0 0
-0.082 0.144 0.555 255 255 255
0.229 -0.128 0.609 255 255 255
0.024 -0.079 0.584 255 255 255
0.073 -0.444 0.623 255 255 255
-0.046 -0.281 0.597 255 255 255
0.292 -0.135 0.616 255 255 255
-0.15 0.231 0.539 255 255 255
-0.187 -0.142 0.569 255 255 255
-0.227 -0.156 0.568 255 255 255
-0.248 -0.33 0.58 255 255 255
-0.152 -0.124 0.569 255 255 255
0.306 -0.035 0.612 255 255 255
0.205 -0.275 0.619 255 255 255
-0.026 -0.336 0.602 255 255 255
0.176 -0.267 0.618 255 255 255
0.093 -0.211 0.605 255 255 255
0.18 -0.102 0.606 255 255 255
0.08 -0.242 0.607 255 255 255
-0.182 -0.143 0.569 255 255 255
0.238 0.192 0.584 255 255 255
-0.372 -0.059 0.544 255 255 255
0.174 0.024 0.586 255 255 255
-0.271 -0.001 0.547 255 255 255
-0.106 0.012 0.564 0 0 0
-0.081 0.082 0.559 0 0 0
0.337 -0.094 0.619 255 255 255
0.358 -0.348 0.643 255 255 255
-0.094 -0.042 0.569 255 255 255
0.007 -0.122 0.584 0 0 0
0.08 -0.073 0.589 255 255 255
0.455 -0.174 0.636 255 255 255
-0.014 -0.267 0.599 255 255 255
0.083 -0.048 0.585 255 255 255
0.411 0.009 0.62 255 255 255
-0.023 0.107 0.561 255 255 255
0.039 -0.054 0.584 0 0 0
0.342 0.05 0.608 255 255 255
0.045 -0.282 0.605 255 255 255
-0.035 0.257 0.549 0 0 0
0.2 0.31 0.567 255 255 255
-0.286 0.017 0.544 0 0 0
-0.086 0.128 0.556 255 255 255
-0.043 0.162 0.556 255 255 255
0.166 -0.097 0.601 255 255 255
0.46 -0.161 0.634 255 255 255
-0.261 0.108 0.542 255 255 255
-0.399 0.002 0.535 255 255 255
0.125 -0.156 0.589 0 0 0
-0.256 -0.205 0.568 0 0 0
-0.275 -0.051 0.553 0 0 0
-0.031 -0.453 0.613 0 0 0
0.075 0.039 0.58 255 255 255
0.128 -0.433 0.626 255 255 255
-0.035 0.235 0.551 255 255 255
-0.235 -0.196 0.568 255 255 255
-0.046 0.072 0.563 255 255 255
-0.156 0.148 0.546 255 255 255
0.003 -0.059 0.579 255 255 255
-0.401 -0.091 0.544 0 0 0
-0.256 -0.403 0.587 255 255 255
-0.339 -0.26 0.565 255 255 255
0.014 -0.42 0.615 255 255 255
0.089 0.21 0.566 255 255 255
-0.011 0.083 0.567 0 0 0
-0.014 -0.061 0.577 255 255 255
0.225 -0.213 0.618 0 0 0
0.118 0.123 0.576 0 0 0
-0.204 0.152 0.542 255 255 255
-0.061 0.226 0.548 255 255 255
0.044 0.094 0.568 255 255 255
0.048 0.043 0.578 255 255 255
0.33 -0.156 0.623 255 255 255
0.348 -0.418 0.647 255 255 255
-0.276 -0.095 0.556 0 0 0
-0.186 -0.415 0.594 255 255 255
-0.098 0.115 0.557 255 255 255
-0.314 -0.05 0.548 0 0 0
0.131 -0.459 0.63 0 0 0
0.027 0.146 0.564 255 255 255
0.307 0.046 0.602 255 255 255
0.165 -0.148 0.607 255 255 255
-0.332 -0.231 0.553 0 0 0
-0.119 -0.277 0.588 255 255 255
-0.085 -0.129 0.578 0 0 0
-0.181 0.163 0.542 255 255 255
0.249 -0.02 0.604 0 0 0
0.09 -0.281 0.61 255 255 255
0.206 -0.013 0.597 255 255 255
-0.282 0.023 0.542 0 0 0
-0.176 -0.415 0.594 255 255 255
-0.308 0.093 0.538 255 255 255
0.03 0.156 0.563 255 255 255
0.202 -0.491 0.639 255 255 255
-0.247 -0.091 0.558 0 0 0
0.067 0.03 0.58 255 255 255
0.022 -0.098 0.584 255 255 255
0.336 -0.232 0.632 255 255 255
0.259 -0.004 0.604 255 255 255
-0.183 -0.011 0.559 255 255 255
-0.102 0.219 0.546 255 255 255
0.188 -0.053 0.599 255 255 255
-0.251 -0.343 0.581 255 255 255
0.304 -0.191 0.624 255 255 255
-0.389 -0.071 0.544 0 0 0
0.313 -0.305 0.637 255 255 255
-0.29 -0.034 0.551 255 255 255
-0.001 -0.088 0.58 255 255 255
0.165 0.203 0.574 255 255 255
0.219 0.237 0.577 255 255 255
0.136 -0.056 0.595 255 255 255
0.325 -0.156 0.623 255 255 255
-0.137 -0.125 0.57 0 0 0
0.405 -0.066 0.625 255 255 255
0.016 0.186 0.562 255 255 255
-0.075 0.294 0.542 255 255 255
-0.046 -0.002 0.57 255 255 255
-0.179 0.271 0.533 255 255 255
-0.258 -0.173 0.564 0 0 0
0.161 0.28 0.567 255 255 255
0.26 -0.407 0.638 255 255 255
0.172 0.008 0.59 255 255 255
-0.098 0.049 0.563 0 0 0
-0.056 0.077 0.561 255 255 255
-0.068 0.042 0.565 255 255 255
-0.245 -0.354 0.584 255 255 255
-0.193 0.098 0.549 255 255 255
0.235 0.005 0.599 255 255 255
0.089 -0.003 0.583 255 255 255
-0.049 -0.246 0.593 255 255 255
-0.126 -0.113 0.574 255 255 255
-0.003 -0.357 0.608 255 255 255
0.404 0.03 0.617 255 255 255
0.302 0.028 0.605 255 255 255
-0.104 0.221 0.546 255 255 255
-0.204 0.068 0.549 0 0 0
-0.249 -0.02 0.552 255 255 255
0.054 0.058 0.577 255 255 255
-0.278 -0.203 0.57 255 255 255
-0.137 0.209 0.543 255 255 255
-0.238 -0.115 0.563 0 0 0
0.12 -0.123 0.59 0 0 0
0.203 -0.14 0.608 255 255 255
0.075 -0.025 0.581 255 255 255
-0.185 -0.064 0.562 255 255 255
-0.1 0.218 0.546 255 255 255
-0.309 0.091 0.538 255 255 255
-0.186 -0.247 0.58 255 255 255
0.032 0.277 0.553 255 255 255
0.086 0.027 0.583 255 255 255
-0.147 -0.12 0.569 255 255 255
-0.27 -0.176 0.563 255 255 255
0.053 -0.317 0.61 255 255 255
-0.328 -0.279 0.57 255 255 255
0.058 0.209 0.563 255 255 255
0.252 -0.177 0.618 255 255 255
-0.106 -0.087 0.573 255 255 255
-0.269 -0.278 0.574 255 255 255
-0.012 0.252 0.553 0 0 0
-0.319 0.054 0.538 255 255 255
0.318 -0.008 0.612 255 255 255
-0.082 -0.134 0.577 255 255 255
-0.03 -0.086 0.577 255 255 255
0.065 -0.103 0.592 255 255 255
-0.084 -0.254 0.589 255 255 255
-0.081 -0.024 0.57 255 255 255
0.04 0.117 0.566 255 255 255
-0.149 0.215 0.541 255 255 255
-0.237 -0.175 0.567 0 0 0
0.32 0.008 0.609 255 255 255
0.16 -0.213 0.613 255 255 255
0.266 0.057 0.596 0 0 0
-0.077 0.26 0.543 0 0 0
-0.268 -0.028 0.551 255 255 255
0.315 -0.22 0.628 255 255 255
-0.101 -0.104 0.577 255 255 255
-0.278 -0.112 0.558 255 255 255
0.286 -0.428 0.644 255 255 255
-0.142 0.054 0.559 0 0 0
-0.061 0.122 0.558 255 255 255
0.122 0.306 0.56 255 255 255
0.214 -0.344 0.629 255 255 255
-0.187 -0.444 0.596 0 0 0
0.077 -0.156 0.599 0 0 0
-0.212 -0.387 0.589 255 255 255
0.296 -0.252 0.628 255 255 255
0.159 0.085 0.585 255 255 255
-0.115 -0.206 0.584 255 255 255
0.374 -0.323 0.642 255 255 255
0.362 -0.235 0.633 255 255 255
-0.09 0.034 0.565 255 255 255
0.339 0.059 0.606 255 255 255
0.219 -0.158 0.611 255 255 255
0.057 -0.414 0.62 255 255 255
0.256 0.254 0.581 255 255 255
0.274 -0.25 0.624 255 255 255
0.401 -0.232 0.637 255 255 255
0.124 -0.384 0.622 255 255 255
-0.054 0.248 0.548 0 0 0
0.04 -0.286 0.606 255 255 255
-0.233 -0.254 0.575 255 255 255
0.037 0.213 0.561 255 255 255
-0.196 0.079 0.549 255 255 255
0.116 0.268 0.562 0 0 0
0.034 -0.393 0.614 255 255 255
-0.146 -0.013 0.561 255 255 255
0.097 -0.286 0.611 255 255 255
0.304 0.035 0.604 255 255 255
0.1 -0.342 0.616 255 255 255
0.341 -0.32 0.639 255 255 255
0.136 -0.419 0.626 255 255 255
-0.289 -0.375 0.58 255 255 255
0.212 0.232 0.577 255 255 255
0.142 0.226 0.57 255 255 255
-0.111 0.233 0.544 255 255 255
-0.168 -0.017 0.561 0 0 0
0.22 0.111 0.588 255 255 255
0.153 0.125 0.581 255 255 255
0.088 0.109 0.566 0 0 0
-0.254 -0.361 0.583 255 255 255
-0.134 0.181 0.545 255 255 255
0.091 0.001 0.583 255 255 255
0.01 -0.315 0.606 255 255 255
-0.27 -0.293 0.575 255 255 255
0.276 -0.13 0.614 255 255 255
0.003 -0.076 0.579 255 255 255
0.092 -0.272 0.61 255 255 255
0.023 -0.292 0.606 255 255 255
-0.131 0.008 0.562 255 255 255
0.126 -0.216 0.608 255 255 255
-0.171 0.14 0.546 255 255 255
0.358 -0.147 0.626 255 255 255
-0.158 0.185 0.542 255 255 255
-0.235 0.086 0.546 255 255 255
0.416 -0.222 0.636 255 255 255
-0.195 0.007 0.555 255 255 255
-0.198 0.182 0.539 255 255 255
0.278 0.054 0.596 255 255 255
-0.139 0.054 0.559 255 255 255
0.045 -0.415 0.617 255 255 255
0.05 0.289 0.554 255 255 255
-0.112 -0.458 0.604 0 0 0
0.214 0.207 0.579 255 255 255
0.44 -0.131 0.634 255 255 255
0.381 0.086 0.61 255 255 255
-0.405 -0.133 0.547 255 255 255
-0.054 -0.064 0.576 255 255 255
-0.098 0.235 0.547 255 255 255
-0.145 0.17 0.545 255 255 255
-0.023 -0.335 0.604 255 255 255
0.138 0.206 0.571 255 255 255
0.026 -0.076 0.584 255 255 255
-0.312 -0.137 0.556 255 255 255
-0.117 -0.221 0.584 0 0 0
0.101 -0.345 0.616 255 255 255
-0.352 0.037 0.529 255 255 255
-0.045 0.071 0.563 255 255 255
-0.19 -0.044 0.561 255 255 255
-0.343 -0.214 0.552 255 255 255
-0.037 -0.399 0.607 255 255 255
0.214 -0.225 0.617 255 255 255
-0.209 -0.131 0.567 255 255 255
0.182 -0.49 0.636 255 255 255
0.097 0.027 0.585 255 255 255
-0.297 -0.077 0.553 255 255 255
0.282 0.164 0.591 255 255 255
0.154 -0.313 0.618 255 255 255
0.104 -0.251 0.61 255 255 255
0.146 0.087 0.583 255 255 255
-0.031 -0.096 0.578 255 255 255
0.213 -0.465 0.638 0 0 0
0.171 0.242 0.571 255 255 255
-0.128 0.144 0.549 255 255 255
0.281 0.21 0.586 255 255 255
0.148 -0.168 0.607 0 0 0
-0.049 0.054 0.564 255 255 255
0.343 -0.157 0.625 255 255 255
-0.044 -0.099 0.577 255 255 255
0.078 0 0.581 255 255 255
-0.035 -0.1 0.578 255 255 255
-0.075 0.147 0.555 255 255 255
-0.272 -0.454 0.589 0 0 0
0.197 -0.239 0.615 255 255 255
0.06 0.037 0.579 255 255 255
0.014 0.204 0.558 255 255 255
-0.133 -0.262 0.588 255 255 255
0.115 0.018 0.585 0 0 0
-0.122 -0.398 0.598 255 255 255
-0.023 -0.056 0.577 255 255 255
0.307 0.024 0.606 255 255 255
0.03 0.139 0.566 255 255 255
0.209 0.1 0.589 255 255 255
0.088 0.085 0.573 0 0 0
0.293 0.039 0.601 255 255 255
-0.23 -0.058 0.558 255 255 255
-0.305 -0.314 0.575 255 255 255
-0.372 -0.092 0.548 255 255 255
0.165 -0.448 0.631 255 255 255
0.164 0.095 0.584 255 255 255
0.099 -0.258 0.609 255 255 255
0.219 0.267 0.575 0 0 0
0.338 -0.31 0.639 255 255 255
0.285 0.127 0.594 255 255 255
-0.15 -0.08 0.568 0 0 0
-0.331 -0.134 0.555 0 0 0
0.264 0.037 0.598 255 255 255
0.23 -0.362 0.631 255 255 255
0.219 0.204 0.58 255 255 255
-0.125 0.254 0.541 0 0 0
-0.205 0.03 0.55 0 0 0
0.138 -0.309 0.618 255 255 255
0.346 0.086 0.607 255 255 255
0.293 -0.34 0.636 255 255 255
0.186 0.272 0.57 0 0 0
-0.254 -0.161 0.564 0 0 0
-0.089 0.254 0.544 0 0 0
0.424 -0.096 0.631 255 255 255
0.307 0.128 0.597 255 255 255
0.17 0.177 0.577 255 255 255
-0.201 0.143 0.542 255 255 255
-0.069 0.097 0.557 255 255 255
0.21 -0.378 0.63 255 255 255
-0.092 -0.031 0.572 0 0 0
0.108 0.133 0.576 255 255 255
-0.141 0.16 0.546 255 255 255
-0.239 -0.241 0.574 255 255 255
-0.325 0.009 0.542 255 255 255
0.347 0.031 0.61 255 255 255
-0.114 -0.088 0.573 255 255 255
0.348 -0.232 0.633 255 255 255
-0.104 0.14 0.552 255 255 255
0.104 -0.321 0.615 255 255 255
0.179 0.027 0.586 255 255 255
0.11 -0.343 0.617 255 255 255
-0.044 -0.062 0.575 255 255 255
0.327 -0.209 0.629 0 0 0
-0.278 -0.288 0.574 255 255 255
-0.087 -0.09 0.575 0 0 0
0.162 0.263 0.568 0 0 0
-0.151 -0.287 0.587 255 255 255
0.349 -0.102 0.62 255 255 255
-0.349 -0.005 0.537 0 0 0
0.142 -0.255 0.614 255 255 255
-0.238 0.085 0.546 255 255 255
0.013 -0.205 0.596 255 255 255
0.028 0.079 0.571 255 255 255
0.224 -0.121 0.608 255 255 255
0.056 -0.212 0.602 255 255 255
0.382 -0.243 0.635 255 255 255
0.042 -0.106 0.588 0 0 0
-0.111 0.244 0.544 0 0 0
0.393 0 0.619 0 0 0
-0.049 -0.072 0.576 255 255 255
-0.367 -0.152 0.554 255 255 255
-0.25 -0.055 0.556 255 255 255
0.342 -0.343 0.641 255 255 255
-0.098 -0.024 0.566 255 255 255
-0.07 0.23 0.548 255 255 255
-0.02 -0.323 0.602 255 255 255
0.031 -0.344 0.61 255 255 255
0.234 -0.342 0.63 255 255 255
-0.206 -0.213 0.575 0 0 0
0.063 0.104 0.571 255 255 255
0.111 0.268 0.563 0 0 0
-0.262 -0.149 0.561 255 255 255
0.193 -0.194 0.612 255 255 255
-0.155 -0.087 0.567 255 255 255
0.109 -0.459 0.627 0 0 0
0.31 -0.142 0.619 255 255 255
-0.172 -0.463 0.598 255 255 255
-0.018 -0.278 0.599 255 255 255
-0.022 -0.05 0.575 255 255 255
0.232 -0.193 0.618 255 255 255
0.397 -0.117 0.629 255 255 255
-0.138 0.118 0.551 255 255 255
-0.146 -0.012 0.56 255 255 255
-0.215 0.004 0.552 255 255 255
0.347 -0.074 0.619 0 0 0
0.183 0.169 0.58 255 255 255
0.02 -0.126 0.586 0 0 0
-0.113 0.129 0.553 255 255 255
0.225 0.162 0.585 255 255 255
0.087 0.042 0.58 0 0 0
-0.134 0.189 0.545 255 255 255
0.133 -0.316 0.618 255 255 255
-0.144 -0.252 0.585 255 255 255
-0.35 -0.074 0.547 255 255 255
-0.015 0.091 0.565 0 0 0
0.145 0.214 0.571 255 255 255
-0.222 0.033 0.551 255 255 255
0.34 0.126 0.603 255 255 255
0.052 0.021 0.578 255 255 255
0.284 0.051 0.597 255 255 255
0.181 -0.074 0.601 255 255 255
-0.303 0.028 0.544 255 255 255
0.22 0.109 0.589 255 255 255
0.109 -0.195 0.605 255 255 255
-0.063 -0.095 0.577 255 255 255
-0.193 -0.137 0.568 255 255 255
-0.275 -0.041 0.552 255 255 255
-0.205 -0.105 0.565 0 0 0
-0.329 -0.13 0.555 255 255 255
0.19 -0.462 0.635 0 0 0
0.165 -0.272 0.617 255 255 255
-0.288 0.101 0.54 255 255 255
0.22 -0.201 0.617 0 0 0
0.124 -0.367 0.62 255 255 255
-0.191 0.115 0.547 255 255 255
0.418 -0.074 0.628 255 255 255
-0.111 -0.062 0.571 255 255 255
-0.191 0.17 0.54 255 255 255
0.168 0.053 0.59 255 255 255
0.303 -0.243 0.628 255 255 255
-0.176 0.148 0.545 255 255 255
0.221 -0.25 0.617 255 255 255
0.226 -0.016 0.601 0 0 0
0.335 -0.124 0.621 255 255 255
-0.335 -0.085 0.552 255 255 255
-0.043 0.236 0.55 255 255 255
0.105 0.037 0.583 0 0 0
-0.035 -0.308 0.601 255 255 255
0.229 -0.327 0.628 255 255 255
0.015 -0.278 0.602 255 255 255
-0.035 -0.362 0.604 255 255 255
-0.162 -0.026 0.562 255 255 255
-0.01 -0.149 0.588 255 255 255
0.2 0.304 0.568 255 255 255
0.118 -0.354 0.619 255 255 255
0.408 -0.057 0.624 255 255 255
0.411 0.049 0.615 255 255 255
-0.289 -0.294 0.574 255 255 255
-0.236 -0.281 0.577 255 255 255
-0.067 -0.214 0.588 255 255 255
0.144 0.169 0.576 255 255 255
0.062 -0.25 0.605 255 255 255
0.308 -0.103 0.615 255 255 255
0.156 -0.183 0.61 255 255 255
-0.188 -0.24 0.579 255 255 255
0.33 0.125 0.602 255 255 255
-0.19 -0.32 0.587 255 255 255
0 0.244 0.555 255 255 255
-0.032 0.128 0.56 255 255 255
-0.211 0.118 0.546 255 255 255
0.033 0.131 0.566 255 255 255
-0.232 -0.161 0.567 255 255 255
0.328 -0.127 0.62 255 255 255
-0.031 -0.276 0.597 255 255 255
-0.217 -0.025 0.555 0 0 0
0.264 -0.165 0.617 255 255 255
-0.306 0.011 0.545 255 255 255
0.067 0.276 0.558 255 255 255
-0.054 -0.372 0.604 255 255 255
0.123 -0.045 0.59 0 0 0
-0.175 -0.019 0.56 255 255 255
0.177 -0.33 0.622 255 255 255
0.08 0.181 0.568 255 255 255
0.165 0.199 0.573 255 255 255
-0.192 -0.001 0.557 0 0 0
-0.136 -0.289 0.589 255 255 255
-0.092 -0.377 0.601 255 255 255
0.015 -0.233 0.598 255 255 255
0.047 -0.257 0.604 255 255 255
-0.012 -0.036 0.575 255 255 255
0.162 0.06 0.588 255 255 255
-0.231 -0.258 0.576 255 255 255
-0.024 -0.12 0.581 255 255 255
0.252 0.269 0.577 0 0 0
-0.005 -0.167 0.592 255 255 255
-0.014 0.028 0.572 0 0 0
0.015 0.221 0.556 255 255 255
-0.006 -0.042 0.576 0 0 0
-0.157 0.168 0.544 255 255 255
-0.125 0.025 0.562 255 255 255
0.393 -0.286 0.638 255 255 255
0.276 0.149 0.591 255 255 255
0.053 -0.185 0.597 0 0 0
-0.03 -0.324 0.602 255 255 255
-0.133 0.018 0.562 255 255 255
0.08 -0.459 0.624 0 0 0
-0.03 0.122 0.56 255 255 255
0.023 -0.2 0.596 255 255 255
-0.147 0.207 0.54 255 255 255
0.19 0.145 0.582 255 255 255
0.115 0.042 0.582 0 0 0
0.195 -0.427 0.633 255 255 255
-0.233 -0.042 0.556 0 0 0
0.266 -0.02 0.607 255 255 255
-0.275 -0.291 0.574 255 255 255
-0.065 -0.096 0.578 0 0 0
0.018 -0.145 0.589 255 255 255
-0.055 0.235 0.548 255 255 255
0.304 0.02 0.606 255 255 255
0.205 0.245 0.575 255 255 255
-0.182 0.131 0.546 255 255 255
0.025 -0.391 0.614 255 255 255
0.222 -0.01 0.599 255 255 255
0.284 -0.379 0.639 255 255 255
-0.006 0.109 0.565 255 255 255
-0.071 -0.022 0.569 255 255 255
0.343 0.118 0.604 255 255 255
-0.3 -0.014 0.547 255 255 255
0.26 -0.229 0.622 0 0 0
-0.147 0.138 0.548 255 255 255
-0.353 -0.024 0.541 255 255 255
-0.09 -0.295 0.593 255 255 255
0.106 0.249 0.564 255 255 255
0.349 -0.363 0.643 255 255 255
0.166 0.086 0.585 255 255 255
0.251 -0.346 0.632 255 255 255
0.003 0.063 0.569 0 0 0
0.089 0.092 0.571 0 0 0
-0.014 -0.417 0.613 255 255 255
0.176 -0.029 0.595 255 255 255
-0.008 0.257 0.552 0 0 0
-0.027 0.249 0.551 0 0 0
-0.157 0.083 0.544 255 255 255
-0.184 -0.289 0.584 255 255 255
-0.169 -0.372 0.592 255 255 255
-0.189 0.278 0.531 255 255 255
-0.05 -0.424 0.609 255 255 255
0.38 -0.109 0.625 255 255 255
-0.028 0.044 0.569 0 0 0
0.044 -0.153 0.593 255 255 255
0.023 0.166 0.563 255 255 255
0.053 -0.416 0.618 255 255 255
-0.352 0.042 0.527 255 255 255
0.066 0.279 0.557 255 255 255
-0.017 -0.154 0.587 255 255 255
0.065 0.126 0.57 255 255 255
-0.107 0.151 0.552 255 255 255
-0.066 -0.074 0.575 255 255 255
0.201 -0.029 0.599 255 255 255
0.282 0.192 0.59 255 255 255
0.06 -0.262 0.606 255 255 255
-0.15 -0.274 0.587 255 255 255
-0.151 -0.203 0.578 0 0 0
0.041 0.145 0.566 255 255 255
0.177 -0.101 0.606 255 255 255
-0.198 -0.226 0.577 255 255 255
0.273 0.06 0.597 0 0 0
0.101 0.145 0.573 255 255 255
-0.27 -0.173 0.562 255 255 255
0.298 -0.049 0.611 255 255 255
0.194 0.082 0.589 255 255 255
0.116 0.101 0.579 0 0 0
0.156 -0.111 0.603 255 255 255
-0.084 -0.308 0.595 255 255 255
0.078 0.17 0.569 255 255 255
0.029 0.172 0.562 255 255 255
-0.126 -0.147 0.572 255 255 255
0.225 -0.192 0.617 0 0 0
0.003 0.06 0.569 0 0 0
0.113 -0.315 0.615 255 255 255
-0.222 0.014 0.552 0 0 0
-0.008 0.024 0.572 0 0 0
-0.007 0.164 0.56 255 255 255
-0.01 0.296 0.548 255 255 255
0.154 -0.169 0.609 0 0 0
0.053 0.194 0.563 255 255 255
-0.198 -0.439 0.595 0 0 0
0.134 0.155 0.575 255 255 255
0.113 -0.284 0.612 255 255 255
0.126 -0.277 0.614 255 255 255
-0.02 -0.143 0.586 255 255 255
-0.099 -0.181 0.584 255 255 255
-0.288 -0.417 0.585 255 255 255
-0.129 -0.163 0.572 255 255 255
0.284 -0.253 0.625 0 0 0
0.037 -0.402 0.616 255 255 255
0.343 -0.198 0.627 255 255 255
-0.035 0.246 0.55 0 0 0
-0.242 -0.002 0.551 255 255 255
0.416 -0.048 0.626 255 255 255
-0.171 0.031 0.553 0 0 0
0.197 -0.457 0.635 0 0 0
-0.027 -0.109 0.58 255 255 255
-0.18 -0.337 0.589 255 255 255
0.183 -0.142 0.609 255 255 255
-0.37 -0.17 0.555 255 255 255
-0.245 -0.281 0.576 255 255 255
0.305 -0.518 0.652 255 255 255
0.237 -0.197 0.619 255 255 255
0.015 -0.013 0.575 255 255 255
-0.322 -0.202 0.561 255 255 255
0.091 0.029 0.583 255 255 255
-0.355 -0.25 0.562 255 255 255
0.361 0.092 0.607 255 255 255
-0.027 0.222 0.553 255 255 255
0.033 0.159 0.564 255 255 255
0.217 -0.221 0.618 255 255 255
0.15 -0.007 0.593 255 255 255
-0.067 -0.011 0.567 255 255 255
0.01 0.192 0.559 255 255 255
-0.218 -0.158 0.568 0 0 0
0.009 -0.348 0.609 255 255 255
0.408 -0.12 0.63 255 255 255
-0.124 -0.413 0.599 255 255 255
0.104 0.227 0.566 255 255 255
-0.155 -0.002 0.559 255 255 255
-0.283 -0.134 0.558 255 255 255
-0.069 -0.256 0.592 255 255 255
0.169 -0.415 0.629 255 255 255
-0.149 0.077 0.557 0 0 0
-0.243 -0.359 0.585 255 255 255
-0.299 -0.037 0.549 255 255 255
0.234 -0.407 0.635 255 255 255
-0.003 0.299 0.547 255 255 255
0.217 -0.074 0.603 255 255 255
0.243 -0.113 0.61 255 255 255
-0.046 0.015 0.572 0 0 0
-0.262 -0.153 0.561 255 255 255
-0.21 -0.057 0.56 255 255 255
-0.186 -0.283 0.584 255 255 255
-0.214 0.093 0.547 255 255 255
-0.08 0.177 0.552 255 255 255
0.003 0.189 0.559 255 255 255
0.099 0.189 0.569 255 255 255
-0.202 -0.151 0.57 255 255 255
0.231 -0.09 0.607 255 255 255
0 -0.161 0.591 0 0 0
0.036 0.219 0.56 255 255 255
0.447 0.016 0.621 255 255 255
0.051 -0.275 0.606 255 255 255
-0.023 0.146 0.559 255 255 255
0.123 -0.248 0.61 255 255 255
0.323 -0.127 0.62 255 255 255
0.147 -0.002 0.591 255 255 255
0.155 0.194 0.574 255 255 255
-0.16 0.257 0.536 255 255 255
0.046 -0.025 0.58 255 255 255
-0.161 0.111 0.55 255 255 255
-0.017 -0.316 0.603 255 255 255
-0.248 -0.376 0.584 255 255 255
0.188 0.136 0.582 255 255 255
-0.195 0.101 0.549 255 255 255
0.266 -0.28 0.623 255 255 255
0.121 0.189 0.569 255 255 255
0.116 0.243 0.566 255 255 255
0.052 -0.109 0.59 255 255 255
-0.321 -0.055 0.548 0 0 0
-0.171 0.17 0.542 255 255 255
-0.014 -0.107 0.582 255 255 255
-0.367 -0.118 0.55 255 255 255
-0.257 0.119 0.54 255 255 255
-0.078 0.294 0.542 255 255 255
0.258 -0.094 0.611 255 255 255
0.034 0.098 0.57 255 255 255
0.181 -0.35 0.625 255 255 255
-0.391 -0.134 0.549 255 255 255
0.027 -0.071 0.584 255 255 255
0.292 0.14 0.594 255 255 255
-0.219 0.102 0.546 255 255 255
0.107 0.122 0.569 255 255 255
-0.189 -0.259 0.581 255 255 255
0.084 0.05 0.58 255 255 255
0.098 0.286 0.558 255 255 255
-0.214 -0.367 0.589 255 255 255
0.19 -0.291 0.621 255 255 255
0.151 -0.313 0.619 255 255 255
-0.249 -0.33 0.58 255 255 255
0.161 0.254 0.569 0 0 0
0.084 0.146 0.572 255 255 255
0.138 -0.042 0.593 255 255 255
-0.145 0.196 0.542 255 255 255
0.158 0.113 0.582 255 255 255
0.158 -0.474 0.633 0 0 0
0.388 -0.045 0.621 255 255 255
0.021 -0.434 0.616 255 255 255
0.076 -0.21 0.604 255 255 255
0.229 -0.14 0.611 255 255 255
-0.081 -0.244 0.589 255 255 255
0.107 0.049 0.581 0 0 0
0.042 -0.216 0.601 255 255 255
0.34 -0.325 0.639 255 255 255
0.216 -0.126 0.608 255 255 255
-0.298 -0.001 0.546 255 255 255
-0.107 -0.047 0.569 255 255 255
-0.385 -0.065 0.543 255 255 255
0.277 -0.236 0.624 0 0 0
0.004 0.185 0.56 255 255 255
0.32 0.078 0.603 255 255 255
0.009 -0.235 0.597 255 255 255
0.109 0.053 0.581 0 0 0
0.125 0.258 0.565 0 0 0
0.303 -0.058 0.614 255 255 255
0.296 0.113 0.597 255 255 255
-0.012 -0.309 0.602 255 255 255
-0.017 0.145 0.56 255 255 255
-0.091 0.178 0.551 255 255 255
-0.166 -0.242 0.581 255 255 255
-0.24 -0.321 0.581 255 255 255
-0.118 0.049 0.561 255 255 255
-0.124 -0.14 0.575 0 0 0
-0.076 -0.124 0.577 0 0 0
0.239 -0.138 0.611 255 255 255
-0.024 0.054 0.569 0 0 0
0.347 0.067 0.607 0 0 0
-0.024 -0.055 0.576 255 255 255
-0.277 -0.136 0.558 0 0 0
-0.358 -0.05 0.543 255 255 255
-0.063 0.145 0.556 255 255 255
0.244 -0.117 0.611 255 255 255
0.255 -0.091 0.61 255 255 255
0.343 -0.241 0.633 255 255 255
-0.145 -0.106 0.569 0 0 0
-0.214 0.227 0.534 255 255 255
-0.254 -0.098 0.558 0 0 0
-0.042 0.14 0.556 255 255 255
-0.243 -0.175 0.567 0 0 0
0.273 -0.42 0.641 255 255 255
0.194 -0.487 0.636 0 0 0
-0.179 0 0.559 255 255 255
-0.15 0.242 0.538 0 0 0
0.435 -0.046 0.629 255 255 255
0.216 -0.018 0.599 255 255 255
-0.297 -0.066 0.552 255 255 255
-0.017 -0.349 0.605 255 255 255
-0.299 -0.004 0.545 0 0 0
-0.338 -0.248 0.564 255 255 255
-0.204 0.127 0.545 255 255 255
0.149 0.182 0.575 255 255 255
0.24 0.122 0.59 255 255 255
-0.073 -0.162 0.58 0 0 0
-0.111 -0.366 0.597 255 255 255
-0.313 0.006 0.545 255 255 255
-0.312 -0.104 0.554 0 0 0
-0.147 -0.147 0.57 0 0 0
0.046 0.151 0.566 255 255 255
-0.161 0.171 0.544 255 255 255
-0.176 -0.186 0.573 255 255 255
-0.252 -0.115 0.559 255 255 255
-0.151 0.027 0.554 255 255 255
-0.145 -0.207 0.578 255 255 255
-0.122 0.086 0.556 255 255 255
0.028 0.273 0.553 255 255 255
-0.232 -0.008 0.552 255 255 255
-0.002 -0.381 0.611 255 255 255
-0.334 -0.239 0.56 255 255 255
0.419 -0.211 0.638 255 255 255
0.146 0.111 0.581 255 255 255
-0.135 0.136 0.548 255 255 255
0.114 0.108 0.577 0 0 0
-0.328 0.005 0.542 255 255 255
0.409 -0.261 0.637 255 255 255
-0.184 0.297 0.532 255 255 255
-0.081 0.252 0.546 0 0 0
-0.283 -0.156 0.56 255 255 255
0.077 -0.327 0.611 255 255 255
0.355 0.066 0.608 255 255 255
0.095 0.152 0.573 255 255 255
0.119 0.301 0.561 255 255 255
0.148 -0.327 0.619 255 255 255
-0.18 0.154 0.544 255 255 255
-0.213 -0.131 0.567 0 0 0
-0.227 -0.388 0.589 255 255 255
0.372 -0.109 0.624 255 255 255
0.412 -0.031 0.623 255 255 255
-0.123 -0.162 0.577 0 0 0
-0.16 0.285 0.534 255 255 255
-0.371 -0.086 0.547 255 255 255
0.441 -0.127 0.634 0 0 0
0.26 -0.001 0.603 255 255 255
-0.033 -0.046 0.575 0 0 0
-0.217 -0.243 0.576 255 255 255
0.232 -0.272 0.62 255 255 255
0.076 -0.084 0.591 255 255 255
-0.211 0.239 0.532 0 0 0
0.288 -0.124 0.614 255 255 255
-0.191 -0.296 0.584 255 255 255
0.096 -0.4 0.62 255 255 255
-0.117 -0.249 0.586 255 255 255
-0.136 0.174 0.546 255 255 255
-0.07 0.054 0.564 255 255 255
0.158 0.203 0.574 255 255 255
0.083 -0.42 0.622 255 255 255
-0.371 -0.157 0.554 255 255 255
0.012 -0.363 0.61 255 255 255
0.181 -0.11 0.606 255 255 255
0.049 0.186 0.563 255 255 255
0.365 -0.028 0.617 255 255 255
0.031 0.014 0.577 0 0 0
-0.072 0.195 0.551 255 255 255
-0.109 0.056 0.556 255 255 255
-0.174 0.041 0.554 0 0 0
0.123 -0.032 0.591 0 0 0
-0.354 0.034 0.528 255 255 255
0.295 -0.322 0.636 255 255 255
0.101 -0.25 0.609 255 255 255
0.105 -0.194 0.604 255 255 255
-0.134 -0.069 0.568 255 255 255
0.155 -0.219 0.612 255 255 255
-0.078 -0.378 0.601 255 255 255
-0.168 0.122 0.549 255 255 255
0.189 -0.44 0.634 255 255 255
0.221 0.311 0.569 255 255 255
0.018 -0.168 0.594 0 0 0
0.013 -0.305 0.605 255 255 255
0.181 -0.054 0.598 255 255 255
-0.201 -0.196 0.573 255 255 255
0.06 0.178 0.566 255 255 255
-0.297 0.082 0.54 255 255 255
0.007 -0.249 0.598 255 255 255
-0.219 0.198 0.535 255 255 255
0.184 -0.096 0.604 255 255 255
-0.298 -0.061 0.551 0 0 0
-0.174 -0.117 0.567 0 0 0
-0.09 0.057 0.567 0 0 0
0.048 -0.403 0.617 255 255 255
0.183 0.263 0.569 0 0 0
0.104 -0.137 0.594 255 255 255
0.103 -0.07 0.591 255 255 255
0.155 -0.339 0.621 255 255 255
-0.353 -0.239 0.56 255 255 255
0.423 -0.021 0.623 255 255 255
-0.285 0.07 0.545 255 255 255
0.326 -0.418 0.645 255 255 255
-0.109 0.085 0.552 255 255 255
0.091 -0.451 0.625 0 0 0
0.26 -0.169 0.618 0 0 0
0.044 0.141 0.567 255 255 255
-0.308 0.017 0.545 255 255 255
0.387 -0.03 0.62 0 0 0
0.368 0.038 0.612 255 255 255
0.422 -0.172 0.635 0 0 0
0.088 0.192 0.568 255 255 255
0.191 -0.022 0.596 255 255 255
-0.21 0.19 0.536 255 255 255
0.243 -0.253 0.62 255 255 255
0.263 -0.333 0.632 255 255 255
0.057 -0.456 0.621 0 0 0
-0.224 -0.311 0.581 255 255 255
0.219 -0.208 0.617 0 0 0
0.105 0.208 0.568 255 255 255
0.303 -0.006 0.609 255 255 255
-0.087 0.235 0.545 255 255 255
0.102 0.068 0.577 0 0 0
0.164 -0.041 0.596 255 255 255
-0.22 -0.092 0.563 0 0 0
-0.177 -0.219 0.577 255 255 255
0.072 -0.284 0.608 255 255 255
0.198 0.197 0.579 255 255 255
-0.008 -0.088 0.58 255 255 255
0.153 0.096 0.583 255 255 255
0.316 0.045 0.604 255 255 255
-0.219 0.208 0.535 255 255 255
0.301 -0.156 0.619 255 255 255
-0.005 -0.051 0.577 255 255 255
0.152 -0.239 0.613 255 255 255
0.006 0.021 0.573 0 0 0
-0.138 0.298 0.537 255 255 255
-0.11 0.19 0.548 255 255 255
-0.018 0.005 0.574 0 0 0
-0.151 0.239 0.537 0 0 0
0.015 -0.384 0.614 255 255 255
0.297 0.015 0.606 255 255 255
-0.043 0.015 0.572 0 0 0
0.084 -0.264 0.608 255 255 255
-0.114 -0.141 0.578 255 255 255
0.125 0.077 0.582 255 255 255
0.31 0.139 0.597 255 255 255
-0.262 -0.164 0.563 255 255 255
-0.365 -0.128 0.552 255 255 255
-0.052 -0.017 0.571 0 0 0
0.087 -0.288 0.61 255 255 255
-0.018 -0.018 0.573 0 0 0
0.136 -0.243 0.612 255 255 255
0.191 0.173 0.579 255 255 255
-0.168 -0.46 0.601 0 0 0
-0.13 -0.368 0.595 255 255 255
-0.152 0.045 0.553 255 255 255
0.211 0.013 0.593 255 255 255
-0.233 -0.113 0.563 255 255 255
-0.118 0.288 0.539 255 255 255
0.389 -0.2 0.633 255 255 255
0.119 0.039 0.585 255 255 255
0.129 -0.005 0.592 255 255 255
-0.162 0.127 0.548 255 255 255
-0.263 0.156 0.535 255 255 255
-0.068 0.067 0.562 255 255 255
0.17 0.272 0.568 0 0 0
-0.321 -0.11 0.554 255 255 255
0.278 0.13 0.594 255 255 255
-0.113 0.136 0.553 255 255 255
0.312 0.189 0.593 255 255 255
-0.013 -0.074 0.579 255 255 255
-0.172 -0.423 0.596 255 255 255
0.114 0.112 0.576 255 255 255
0.328 0.012 0.61 255 255 255
0.115 0.099 0.579 0 0 0
-0.201 -0.153 0.57 255 255 255
0.07 -0.141 0.598 255 255 255
0.097 0.08 0.573 0 0 0
0.002 0.132 0.563 255 255 255
-0.327 0.072 0.538 255 255 255
0.143 -0.136 0.604 255 255 255
-0.262 -0.404 0.586 255 255 255
-0.284 0.161 0.532 255 255 255
0.014 0.288 0.551 255 255 255
-0.156 -0.128 0.568 255 255 255
-0.134 0.091 0.554 255 255 255
0.295 -0.383 0.64 255 255 255
-0.114 -0.193 0.583 255 255 255
-0.1 -0.133 0.58 255 255 255
0.389 -0.222 0.634 255 255 255
0.258 -0.196 0.62 255 255 255
-0.414 -0.084 0.541 255 255 255
0.127 -0.118 0.595 0 0 0
-0.128 0.038 0.56 255 255 255
-0.077 -0.375 0.602 255 255 255
-0.174 -0.177 0.572 255 255 255
-0.285 -0.117 0.557 0 0 0
-0.156 0.135 0.548 255 255 255
-0.213 -0.411 0.591 255 255 255
0.316 -0.115 0.617 255 255 255
-0.235 -0.363 0.586 255 255 255
0.379 -0.077 0.622 255 255 255
0.204 0.172 0.581 255 255 255
-0.092 0.112 0.556 255 255 255
0.119 0.049 0.584 255 255 255
-0.278 -0.25 0.571 255 255 255
0.396 -0.207 0.634 0 0 0
-0.174 0.141 0.546 255 255 255
-0.045 -0.031 0.572 0 0 0
-0.254 0.114 0.541 255 255 255
0.145 -0.159 0.606 0 0 0
-0.111 0.174 0.549 255 255 255
-0.069 -0.233 0.59 255 255 255
0.241 -0.46 0.642 255 255 255
0.281 -0.052 0.61 0 0 0
0.077 0.066 0.579 255 255 255
0.211 0.241 0.576 255 255 255
-0.079 -0.128 0.58 0 0 0
0.225 0.129 0.587 255 255 255
0.094 -0.109 0.595 255 255 255
-0.069 0.073 0.561 255 255 255
0.097 -0.082 0.593 255 255 255
-0.029 0.155 0.558 255 255 255
0.259 -0.019 0.606 255 255 255
-0.159 -0.434 0.598 0 0 0
-0.113 -0.015 0.566 255 255 255
-0.053 -0.177 0.584 255 255 255
-0.135 0.069 0.557 255 255 255
0.097 0.081 0.572 0 0 0
-0.027 -0.07 0.577 0 0 0
0.129 -0.319 0.618 255 255 255
-0.084 -0.317 0.595 255 255 255
0.017 -0.117 0.583 0 0 0
-0.185 0.132 0.546 255 255 255
-0.359 -0.198 0.558 255 255 255
-0.21 -0.198 0.574 0 0 0
-0.245 0.008 0.55 255 255 255
0.335 -0.107 0.618 255 255 255
-0.066 0.206 0.55 255 255 255
0.107 0.006 0.586 0 0 0
0.123 -0.238 0.61 255 255 255
0.262 0.24 0.582 255 255 255
0.441 -0.122 0.634 0 0 0
-0.04 0.049 0.566 255 255 255
0.422 -0.158 0.634 255 255 255
-0.109 0.143 0.551 255 255 255
-0.03 -0.221 0.593 255 255 255
0.033 0.164 0.564 255 255 255
0.258 0.168 0.589 255 255 255
0.037 -0.393 0.614 255 255 255
0.207 0.227 0.576 255 255 255
0.351 0.073 0.608 255 255 255
-0.175 0.258 0.536 255 255 255
-0.067 0.019 0.562 255 255 255
0 -0.277 0.6 255 255 255
-0.011 -0.424 0.613 255 255 255
0.013 -0.224 0.596 255 255 255
-0.241 -0.212 0.568 255 255 255
0.116 0.188 0.571 255 255 255
-0.068 -0.351 0.601 255 255 255
-0.195 -0.079 0.563 255 255 255
-0.086 -0.315 0.596 255 255 255
-0.293 -0.118 0.555 255 255 255
0.21 -0.297 0.62 255 255 255
-0.212 -0.312 0.583 255 255 255
-0.252 -0.223 0.572 255 255 255
-0.219 -0.295 0.58 255 255 255
0.033 0.008 0.58 255 255 255
-0.043 -0.157 0.584 0 0 0
-0.099 -0.303 0.593 255 255 255
-0.261 -0.11 0.559 0 0 0
0.295 -0.015 0.609 255 255 255
0.167 -0.232 0.614 255 255 255
0.399 -0.168 0.632 255 255 255
0.014 -0.334 0.608 255 255 255
-0.206 0.125 0.545 255 255 255
0.042 -0.272 0.606 255 255 255
0.352 0.006 0.613 255 255 255
-0.28 -0.175 0.562 255 255 255
-0.146 0.055 0.559 0 0 0
0.187 0.29 0.568 255 255 255
-0.296 -0.055 0.551 0 0 0
0.273 -0.399 0.64 255 255 255
-0.287 0.108 0.54 255 255 255
-0.348 -0.014 0.54 0 0 0
0.096 -0.006 0.584 255 255 255
-0.24 -0.028 0.554 255 255 255
0.103 0.031 0.583 0 0 0
0.025 0.117 0.568 255 255 255
0.003 -0.128 0.585 0 0 0
0.217 -0.202 0.616 255 255 255
-0.235 -0.353 0.585 255 255 255
0.251 -0.272 0.621 255 255 255
-0.211 0.131 0.543 255 255 255
0.174 0.023 0.586 255 255 255
-0.044 -0.126 0.58 0 0 0
0.04 -0.241 0.601 255 255 255
-0.223 0.171 0.537 255 255 255
-0.118 -0.094 0.573 255 255 255
0.007 0.097 0.569 255 255 255
-0.071 -0.192 0.583 0 0 0
0.31 -0.292 0.634 255 255 255
-0.141 0.056 0.559 0 0 0
0.233 0.21 0.581 255 255 255
0.239 -0.135 0.611 255 255 255
0.302 0.052 0.6 255 255 255
-0.14 0.229 0.541 255 255 255
-0.067 -0.089 0.577 0 0 0
0.168 -0.192 0.611 255 255 255
-0.071 0.272 0.544 255 255 255
0.077 0.213 0.565 255 255 255
-0.298 -0.153 0.559 255 255 255
-0.312 -0.163 0.559 255 255 255
-0.391 -0.041 0.541 255 255 255
-0.282 -0.087 0.554 255 255 255
0.278 0.198 0.588 255 255 255
-0.338 -0.09 0.551 255 255 255
0.426 -0.07 0.629 255 255 255
0.244 -0.053 0.606 255 255 255
-0.059 -0.08 0.577 255 255 255
0.189 -0.183 0.612 255 255 255
0.085 -0.068 0.589 255 255 255
-0.025 0.032 0.569 0 0 0
0.204 -0.141 0.609 255 255 255
0.211 -0.255 0.617 255 255 255
-0.123 -0.375 0.597 255 255 255
-0.209 -0.241 0.577 255 255 255
-0.082 -0.192 0.581 0 0 0
-0.144 0.298 0.535 255 255 255
-0.368 -0.048 0.543 255 255 255
-0.285 -0.439 0.588 0 0 0
0.016 -0.133 0.587 255 255 255
-0.155 0.114 0.55 255 255 255
0.036 -0.223 0.6 255 255 255
0.094 -0.346 0.615 255 255 255
-0.061 0.139 0.557 255 255 255
0.283 0.022 0.603 255 255 255
0.093 0.277 0.56 255 255 255
-0.23 -0.134 0.565 255 255 255
-0.099 -0.131 0.579 255 255 255
-0.105 -0.04 0.569 255 255 255
-0.019 -0.234 0.595 255 255 255
-0.306 0.033 0.542 255 255 255
0.241 0.089 0.592 255 255 255
-0.227 -0.06 0.559 255 255 255
0.172 -0.04 0.598 255 255 255
-0.119 0.148 0.55 255 255 255
0.393 -0.068 0.623 255 255 255
0.303 0.077 0.601 255 255 255
-0.305 -0.279 0.571 255 255 255
-0.17 -0.121 0.568 255 255 255
-0.167 0.119 0.548 255 255 255
0.13 0.119 0.578 255 255 255
0.114 0.227 0.567 255 255 255
0.158 0.123 0.581 255 255 255
0.009 -0.377 0.611 255 255 255
-0.021 -0.173 0.588 0 0 0
0.362 0.061 0.608 255 255 255
-0.028 0.173 0.557 255 255 255
-0.084 -0.134 0.578 0 0 0
-0.11 0.131 0.553 255 255 255
-0.166 -0.265 0.584 255 255 255
-0.326 0.084 0.537 255 255 255
-0.313 -0.05 0.548 0 0 0
0.245 -0.161 0.615 255 255 255
-0.258 0.178 0.532 255 255 255
-0.007 -0.115 0.583 0 0 0
-0.313 -0.344 0.576 255 255 255
0.324 -0.3 0.637 255 255 255
-0.03 0.001 0.57 255 255 255
-0.156 -0.054 0.564 255 255 255
-0.209 0.129 0.544 255 255 255
-0.342 -0.139 0.552 255 255 255
0.365 0.002 0.615 255 255 255
0.148 0.109 0.581 255 255 255
-0.103 0.262 0.542 255 255 255
-0.22 0.122 0.543 255 255 255
-0.078 -0.294 0.594 255 255 255
-0.269 -0.083 0.556 255 255 255
-0.045 -0.202 0.59 255 255 255
-0.255 0.045 0.543 255 255 255
-0.001 -0.224 0.596 255 255 255
-0.205 0.238 0.534 0 0 0
-0.174 0.16 0.544 255 255 255
-0.109 0.291 0.541 255 255 255
0.159 0.162 0.578 255 255 255
0.121 -0.288 0.615 255 255 255
0.123 -0.294 0.615 255 255 255
-0.002 0.254 0.553 0 0 0
-0.054 0.245 0.548 0 0 0
-0.095 0.176 0.551 255 255 255
0.08 0.046 0.581 255 255 255
-0.168 0.182 0.542 255 255 255
-0.123 -0.126 0.575 255 255 255
0.21 0.181 0.581 255 255 255
0.142 0.228 0.57 255 255 255
-0.178 -0.151 0.57 255 255 255
0.177 0.181 0.578 255 255 255
0.321 0.171 0.595 255 255 255
0.195 0.302 0.567 255 255 255
-0.096 0.049 0.566 0 0 0
0.115 -0.328 0.615 255 255 255
0.237 -0.502 0.644 255 255 255
0.094 0.187 0.569 255 255 255
0.367 -0.313 0.641 255 255 255
0.016 -0.115 0.585 0 0 0
0.005 -0.251 0.598 255 255 255
0.066 0.132 0.569 255 255 255
-0.277 0.145 0.535 255 255 255
-0.095 -0.428 0.603 255 255 255
0.087 -0.298 0.611 255 255 255
-0.191 0.062 0.551 255 255 255
0.049 -0.163 0.598 255 255 255
-0.102 -0.175 0.582 255 255 255
0.116 0.078 0.58 255 255 255
0.174 -0.143 0.607 255 255 255
-0.152 -0.099 0.568 255 255 255
-0.005 0.113 0.564 255 255 255
0.32 -0.145 0.62 255 255 255
0.167 0.174 0.578 255 255 255
0.001 0.047 0.571 255 255 255
-0.05 0.281 0.546 255 255 255
0.203 0.044 0.585 255 255 255
-0.333 -0.005 0.543 255 255 255
0.134 -0.03 0.592 255 255 255
-0.214 0.273 0.53 255 255 255
0.142 0.204 0.572 255 255 255
0.007 -0.194 0.596 255 255 255
0.303 -0.464 0.647 0 0 0
0.003 0.156 0.561 255 255 255
0.068 -0.179 0.595 0 0 0
-0.025 -0.266 0.597 255 255 255
0.114 -0.047 0.59 0 0 0
0.081 -0.239 0.607 255 255 255
0.203 0.012 0.592 255 255 255
0.147 0.133 0.579 255 255 255
-0.087 -0.103 0.571 0 0 0
0.162 -0.143 0.607 255 255 255
0.217 0.115 0.588 255 255 255
0.352 -0.017 0.616 0 0 0
-0.155 0.204 0.541 255 255 255
-0.265 -0.027 0.551 255 255 255
-0.189 0.115 0.547 255 255 255
0.258 -0.506 0.647 255 255 255
-0.301 0.052 0.54 0 0 0
-0.116 0.121 0.553 255 255 255
-0.111 0.024 0.56 255 255 255
-0.006 0.031 0.572 255 255 255
0.201 0.265 0.573 0 0 0
0.149 0.134 0.579 255 255 255
-0.222 -0.297 0.58 255 255 255
0.186 -0.116 0.606 255 255 255
-0.04 -0.343 0.602 255 255 255
-0.2 0.015 0.554 255 255 255
0.103 0.284 0.558 255 255 255
-0.19 0.137 0.544 255 255 255
0.329 -0.321 0.638 255 255 255
-0.234 0.04 0.549 255 255 255
-0.229 -0.193 0.57 255 255 255
-0.197 0.233 0.535 255 255 255
0.105 0.081 0.572 0 0 0
-0.1 -0.442 0.604 0 0 0
-0.284 0.058 0.542 255 255 255
0.358 -0.31 0.642 255 255 255
0.1 0.28 0.559 255 255 255
-0.058 0.235 0.548 255 255 255
-0.011 -0.412 0.613 255 255 255
0.06 0.128 0.569 255 255 255
0.055 -0.234 0.604 255 255 255
-0.318 -0.318 0.574 255 255 255
-0.159 0.115 0.549 255 255 255
0.386 -0.023 0.619 0 0 0
-0.093 -0.2 0.585 255 255 255
-0.086 -0.316 0.596 255 255 255
-0.14 0.184 0.544 255 255 255
-0.076 -0.266 0.591 255 255 255
0.147 0.022 0.591 255 255 255
-0.311 0.034 0.542 255 255 255
0.175 0.21 0.576 255 255 255
-0.203 -0.273 0.58 255 255 255
-0.175 -0.047 0.563 255 255 255
0.145 0.248 0.568 255 255 255
-0.063 -0.326 0.599 255 255 255
-0.081 0.226 0.547 255 255 255
0.157 -0.067 0.598 255 255 255
0.251 -0.138 0.613 255 255 255
0.052 0.175 0.566 255 255 255
-0.351 -0.067 0.547 0 0 0
0.149 0.283 0.565 255 255 255
0.355 0.05 0.608 255 255 255
0.21 0.058 0.593 255 255 255
-0.044 0.215 0.552 255 255 255
0.015 -0.398 0.614 255 255 255
-0.12 0.244 0.541 0 0 0
-0.251 0.005 0.55 0 0 0
0.048 0.213 0.561 255 255 255
0.165 0.06 0.588 255 255 255
-0.161 -0.309 0.587 255 255 255
-0.245 -0.011 0.552 255 255 255
-0.157 -0.218 0.577 255 255 255
-0.092 -0.017 0.566 255 255 255
0.028 0.223 0.558 255 255 255
-0.135 0.168 0.546 255 255 255
0.393 -0.064 0.622 255 255 255
0.019 0.046 0.572 255 255 255
0.069 0.184 0.566 255 255 255
0.044 -0.204 0.599 255 255 255
0.1 0.105 0.566 0 0 0
-0.202 0.02 0.553 255 255 255
-0.066 0.236 0.547 255 255 255
