ply
format ascii 1.0
comment Created by Open3D
element vertex 1588
property double x
property double y
property double z
property uchar red
property uchar green
property uchar blue
end_header
-0.927 -0.784 2.152 255 255 255
0.094 0.1 2.494 255 255 255
0.582 -1.226 1.616 255 255 255
-0.646 -0.262 2.535 255 255 255
-0.279 0.069 0.666 0 0 0
-0.268 0.124 2.685 255 255 255
0.514 -1.353 1.811 0 0 0
-0.217 0.696 1.346 255 255 255
-0.108 0.085 0.301 255 255 255
0.256 0.517 2.025 255 255 255
-0.126 0.121 0.304 255 255 255
-0.305 0.107 0.606 255 255 255
0.316 0.65 1.569 255 255 255
-0.017 -0.184 2.732 255 255 255
0.163 -0.498 2.184 255 255 255
-0.616 -0.715 2.4 255 255 255
0.635 0.201 1.682 255 255 255
-0.011 -0.999 2.494 255 255 255
0.241 -0.038 1.947 255 255 255
-0.601 -0.775 2.39 255 255 255
-0.583 -0.049 0.873 255 255 255
-0.354 0.542 1.818 255 255 255
0.1 0.444 1.992 255 255 255
0.717 -0.128 1.311 255 255 255
0.237 -0.322 1.842 255 255 255
-0.089 -1.335 2.37 255 255 255
-0.321 -1.31 2.311 255 255 255
0.502 0.58 1.842 255 255 255
0.68 -0.901 1.552 255 255 255
-0.2 0.513 1.917 255 255 255
0.245 -1.092 1.703 0 0 0
-0.606 -1.557 2.147 0 0 0
-0.473 -1.579 2.181 0 0 0
-0.962 -1.413 2.089 255 255 255
-0.128 0.123 0.304 255 255 255
-0.603 -0.323 2.529 255 255 255
0.739 -1.086 1.504 0 0 0
0.146 0.2 2.374 255 255 255
-0.954 -1.17 2.164 255 255 255
0.575 -0.838 1.732 255 255 255
0.226 -0.837 1.667 255 255 255
0.234 -0.491 1.794 255 255 255
-0.027 -1.512 2.333 255 255 255
-0.338 -0.668 2.5 255 255 255
-0.42 -0.115 2.646 255 255 255
-0.106 0.272 2.118 255 255 255
0.639 0.68 1.504 0 0 0
-0.425 -1.61 2.193 0 0 0
-0.21 -0.149 2.695 255 255 255
0.057 0.587 1.734 255 255 255
-0.624 -0.119 1.263 255 255 255
-0.307 -1.618 2.197 0 0 0
0.084 -0.597 2.462 255 255 255
-0.576 -0.462 2.492 255 255 255
0.565 0.505 1.969 255 255 255
0.696 0.061 1.413 255 255 255
-0.125 0.143 0.32 255 255 255
-0.275 0.127 0.542 0 0 0
-0.559 -0.094 2.613 255 255 255
-0.165 -1.153 2.402 255 255 255
0.705 0.154 1.398 255 255 255
-0.641 -0.065 1.099 255 255 255
0.622 0.223 1.75 255 255 255
0.249 0.539 1.933 255 255 255
-0.435 0.048 0.692 255 255 255
-0.77 -1.563 2.102 0 0 0
-0.586 -0.323 1.888 255 255 255
0.589 -0.615 1.746 0 0 0
-1.21 -0.405 2.171 0 0 0
0.592 -0.952 1.654 255 255 255
-0.26 0.071 0.677 255 255 255
0.691 -1.18 1.472 255 255 255
0.172 0.044 1.967 255 255 255
0.189 -0.453 2.184 255 255 255
-1.194 -1.112 2.111 255 255 255
-0.296 -0.481 2.569 255 255 255
-0.244 0.068 0.945 255 255 255
-0.745 -0.36 1.81 255 255 255
0.704 -0.906 1.562 255 255 255
-0.862 -0.346 1.763 255 255 255
0.77 0.021 1.151 255 255 255
-0.289 0.094 0.629 255 255 255
0.632 0.213 1.694 255 255 255
0.736 -0.041 1.258 255 255 255
-0.179 0.69 1.358 255 255 255
-0.438 -0.934 2.389 255 255 255
-1.237 -0.421 1.998 255 255 255
-0.304 0.627 1.542 0 0 0
0.604 -0.801 1.654 255 255 255
0.557 -0.81 1.793 255 255 255
-0.695 -0.961 2.302 255 255 255
-0.963 -0.871 2.113 0 0 0
0.412 -0.407 1.862 255 255 255
-0.317 0.096 0.653 255 255 255
-0.165 0.194 0.734 255 255 255
-0.029 0.079 2.803 255 255 255
-0.806 -0.771 2.19 255 255 255
0.744 -0.021 1.237 255 255 255
-0.438 -0.29 2.583 255 255 255
-0.123 0.073 0.298 255 255 255
0.772 -0.113 1.135 255 255 255
-0.377 0.307 2.303 255 255 255
0.108 0.242 2.469 255 255 255
-1.096 -0.268 1.448 0 0 0
-0.115 0.639 1.517 255 255 255
-1.207 -1.165 2.096 255 255 255
-0.239 -0.274 2.651 255 255 255
-1.19 -1.153 2.102 255 255 255
0.096 -0.04 2.311 255 255 255
-0.131 0.096 0.292 255 255 255
0.669 -0.456 1.688 0 0 0
0.631 -0.17 1.633 255 255 255
-0.309 0.037 0.791 255 255 255
0.203 -1.465 2.411 255 255 255
-0.183 0.417 2.103 0 0 0
-0.754 -1.163 2.226 255 255 255
-0.141 0.257 0.555 0 0 0
-0.597 -0.222 2.558 255 255 255
0.696 0.586 1.532 255 255 255
-0.252 -0.412 2.602 255 255 255
0.624 -0.68 1.62 255 255 255
0.597 -1.066 1.611 255 255 255
-0.548 -1.591 2.158 0 0 0
-0.988 -0.243 1.549 255 255 255
-0.161 0.2 0.725 255 255 255
0.641 -0.235 1.579 255 255 255
0.709 0.329 1.423 255 255 255
-0.287 0.025 1.011 255 255 255
-0.399 -0.571 2.51 255 255 255
-0.388 0.093 0.617 255 255 255
0.73 0.231 1.331 255 255 255
0.712 -0.092 1.335 255 255 255
0.005 -1.513 2.344 255 255 255
-0.562 -0.263 1.803 255 255 255
0.039 -0.57 2.455 255 255 255
0.224 -0.433 1.808 255 255 255
0.65 -0.371 1.713 255 255 255
-1.104 -1.351 2.065 255 255 255
0.034 0.707 1.325 255 255 255
0.558 0.489 1.975 255 255 255
-1.07 -1.018 2.17 255 255 255
-0.006 0.672 1.427 255 255 255
-0.127 0.123 0.304 255 255 255
-0.478 -0.14 1.382 255 255 255
-1.084 -1.355 2.069 255 255 255
0.265 0.593 1.751 255 255 255
-0.598 -0.052 0.85 255 255 255
0.493 -1.356 1.884 0 0 0
0.623 0.487 1.753 255 255 255
-1.126 -0.588 2.156 255 255 255
0.627 -0.447 1.693 255 255 255
-1.161 -0.901 2.042 255 255 255
0.598 0.102 1.828 255 255 255
0.561 -0.931 1.754 0 0 0
0.728 0.055 1.297 255 255 255
0.671 -0.241 1.385 0 0 0
-1.242 -0.578 2.049 255 255 255
-0.655 -1.544 2.139 0 0 0
-1.388 -0.692 2.034 255 255 255
-0.099 -0.94 2.487 255 255 255
0.737 0.327 1.326 255 255 255
-1.092 -0.262 1.455 255 255 255
-0.237 -0.855 2.478 255 255 255
-0.279 -0.637 2.529 255 255 255
-1.117 -0.701 2.115 255 255 255
0.35 0.239 2.072 255 255 255
-0.448 -0.128 1.356 255 255 255
0.139 -1.675 2.336 255 255 255
0.681 -0.695 1.613 255 255 255
-1.156 -0.495 2.175 0 0 0
0.501 -0.776 1.774 255 255 255
0.823 -0.213 1.191 255 255 255
0.757 -0.05 1.187 255 255 255
0.593 0.646 1.605 255 255 255
-0.244 -0.269 2.651 255 255 255
-1.042 -1.433 2.057 255 255 255
0.783 -0.012 1.097 255 255 255
0.334 -0.697 1.761 255 255 255
-0.31 0.33 2.481 255 255 255
0.438 -1.428 2.07 255 255 255
0.142 -0.124 2.236 255 255 255
-0.084 -1.352 2.366 255 255 255
0.539 -0.725 1.858 0 0 0
-0.115 0.062 0.313 0 0 0
-0.456 -0.703 2.456 255 255 255
0.269 0.887 2.052 255 255 255
-0.423 0.181 2.629 255 255 255
0.585 0.401 1.949 255 255 255
-0.28 0.032 0.959 255 255 255
-0.093 0.578 1.728 255 255 255
-1.253 -0.498 2.052 255 255 255
0.078 -1.094 2.305 255 255 255
-0.124 0.582 1.716 255 255 255
-0.37 -1.284 2.304 255 255 255
-0.269 0.041 0.939 255 255 255
-0.274 0.675 1.394 255 255 255
-0.545 -0.629 2.447 255 255 255
-0.67 -1.363 2.193 255 255 255
-0.319 0.617 1.57 0 0 0
-1.089 -0.214 1.426 255 255 255
0.285 0.176 2.032 255 255 255
-0.683 -0.149 1.36 255 255 255
0.401 -0.64 1.784 255 255 255
0.367 0.605 1.74 255 255 255
0.422 -0.998 1.682 255 255 255
0.573 -0.98 1.703 255 255 255
-0.137 0.061 0.31 0 0 0
0.657 0.398 1.655 255 255 255
0.691 -0.808 1.582 0 0 0
-0.135 0.079 0.296 255 255 255
0.506 0.198 2.155 255 255 255
0.41 0.315 2.066 255 255 255
-0.575 -1.474 2.186 255 255 255
-0.097 0.484 1.902 255 255 255
0.688 -0.051 1.427 255 255 255
-0.563 -1.574 2.16 0 0 0
-0.685 -0.523 2.342 0 0 0
-0.55 -1.177 2.281 255 255 255
-0.225 0.639 1.517 255 255 255
0.218 -0.971 1.614 255 255 255
-0.529 0.019 0.836 255 255 255
-0.629 -0.045 0.864 0 0 0
-0.454 -0.126 1.331 255 255 255
-0.168 0.563 1.773 255 255 255
0.607 -0.69 1.671 0 0 0
0.19 0.152 1.988 255 255 255
-0.357 -0.464 2.559 255 255 255
0.127 -0.457 2.183 255 255 255
0.039 -0.817 2.374 255 255 255
-0.437 -0.029 0.995 0 0 0
0.398 0.163 2.061 255 255 255
-0.087 0.084 0.326 0 0 0
0.349 0.107 2.025 255 255 255
-0.995 -1.196 2.146 255 255 255
-0.278 0.039 0.786 255 255 255
-1.217 -0.449 2.167 0 0 0
-0.261 -0.201 2.665 255 255 255
0.76 0.019 1.182 255 255 255
-0.36 -0.047 2.683 255 255 255
-0.15 -0.958 2.474 255 255 255
-0.107 0.19 0.358 255 255 255
0.609 -0.035 1.747 255 255 255
0.577 -0.433 1.808 255 255 255
-0.08 0.557 1.761 255 255 255
0.109 -0.71 2.436 255 255 255
-0.681 -0.466 2.466 0 0 0
-0.593 -1.084 2.295 255 255 255
0.179 0.519 1.911 255 255 255
-0.335 -0.932 2.422 255 255 255
0.749 -0.905 1.564 255 255 255
-0.259 0.072 0.674 255 255 255
-0.666 -0.967 2.311 255 255 255
-0.521 -0.354 2.543 255 255 255
0.213 0.879 2.061 255 255 255
-0.833 -1.192 2.195 255 255 255
-1.267 -0.57 2.024 255 255 255
-0.44 -0.565 2.502 255 255 255
0.376 0.227 2.078 255 255 255
0.338 -0.458 1.837 255 255 255
0.181 0.02 1.939 255 255 255
0.713 -0.043 1.333 255 255 255
0.351 -1.623 2.369 255 255 255
0.277 0.83 2.066 255 255 255
-0.081 0.313 2.105 255 255 255
0.149 -0.762 2.431 255 255 255
-1.183 -0.79 2.071 255 255 255
-0.208 0.554 1.805 255 255 255
0.436 0.159 2.058 255 255 255
-0.967 -1.418 2.086 255 255 255
-0.572 -0.04 0.853 255 255 255
-0.138 0.086 0.295 255 255 255
-0.1 0.195 0.376 255 255 255
0.536 -0.173 1.979 255 255 255
-0.92 -1.415 2.094 255 255 255
0.731 0.132 1.305 255 255 255
-0.733 -1.304 2.194 255 255 255
0.449 -0.781 1.754 255 255 255
-0.345 -0.174 2.651 255 255 255
0.512 -0.054 2.072 255 255 255
-0.627 -0.322 2.519 255 255 255
0.61 -1.02 1.554 0 0 0
-0.713 -1.614 2.102 255 255 255
0.675 -0.788 1.588 255 255 255
0.593 -0.014 1.815 255 255 255
0.504 0.744 1.313 255 255 255
-0.799 -0.379 1.794 255 255 255
0.627 0.472 1.756 255 255 255
0.659 0.589 1.643 255 255 255
0.511 0.052 2.105 255 255 255
-1.278 -0.847 2.021 255 255 255
-0.342 -0.024 1.088 255 255 255
0.729 -0.106 1.278 255 255 255
-0.253 0.095 0.652 255 255 255
-0.442 -1.188 2.307 255 255 255
-0.473 -1.546 2.192 255 255 255
0.753 -0.097 1.184 255 255 255
-1.258 -0.67 2.079 0 0 0
-0.154 0.59 1.684 255 255 255
0.009 -0.328 2.539 255 255 255
0.594 0.536 1.872 255 255 255
-0.099 0.084 0.309 255 255 255
-0.426 -0.501 2.526 255 255 255
-1.035 -0.784 2.118 255 255 255
-0.099 0.197 0.368 255 255 255
0.506 0.078 2.119 255 255 255
0.631 -0.108 1.637 255 255 255
0.309 -0.32 1.864 255 255 255
-0.591 -0.304 1.867 0 0 0
0.323 0.017 1.992 255 255 255
-0.337 -1.467 2.257 255 255 255
-0.121 0.644 1.503 255 255 255
-0.404 -1.204 2.319 255 255 255
0.417 -1.63 2.136 255 255 255
-0.114 0.167 0.353 255 255 255
-0.51 -0.079 1.147 255 255 255
-0.346 -0.008 0.997 255 255 255
-0.725 -1.056 2.271 255 255 255
0.539 -0.717 1.86 0 0 0
0.572 -1.174 1.664 255 255 255
-0.966 -0.719 2.158 255 255 255
-0.849 -1.323 2.147 255 255 255
0.168 -0.366 2.205 255 255 255
-0.554 0.012 0.872 255 255 255
0.687 -0.196 1.409 255 255 255
-0.632 -1.052 2.294 255 255 255
-1.119 -0.939 2.035 0 0 0
0.395 -0.114 1.961 255 255 255
0.297 0.938 2.054 255 255 255
-1.04 -1.058 2.167 255 255 255
0.013 0.598 1.678 255 255 255
-0.216 -1.317 2.343 255 255 255
0.555 -0.925 1.78 0 0 0
-0.707 -0.218 1.61 255 255 255
0.212 -0.892 1.653 255 255 255
-0.214 -0.555 2.57 255 255 255
0.274 -0.877 1.683 255 255 255
0.111 -0.913 2.318 255 255 255
0.511 0.126 2.122 255 255 255
0.211 -0.513 2.167 255 255 255
0.116 -1.404 2.412 255 255 255
0.634 0.279 1.703 255 255 255
-1.105 -0.854 2.076 255 255 255
0.218 0.569 1.827 255 255 255
0.694 0.187 1.446 255 255 255
0.688 0.417 1.541 255 255 255
0.717 -0.582 1.662 255 255 255
-0.139 0.099 0.291 255 255 255
-0.086 0.569 1.738 0 0 0
0.732 -0.077 1.267 255 255 255
-0.242 0.541 1.839 255 255 255
-1.101 -0.741 2.106 255 255 255
0.625 0.423 1.794 255 255 255
0.429 -1.491 2.108 255 255 255
-0.198 0.115 0.704 255 255 255
0.061 -0.29 2.556 255 255 255
-0.607 0.221 2.579 0 0 0
-0.119 0.065 0.305 255 255 255
-1.047 -0.88 2.083 255 255 255
0.505 0.126 2.135 255 255 255
0.475 -0.239 1.929 255 255 255
0.151 -1.032 2.303 255 255 255
0.514 -0.157 2.042 255 255 255
0.698 -0.216 1.305 0 0 0
-0.57 0.033 2.639 255 255 255
-0.396 0.038 0.765 255 255 255
0.722 0.431 1.426 255 255 255
-0.656 -0.036 0.883 0 0 0
0.726 0.064 1.311 255 255 255
-0.55 -1.058 2.321 255 255 255
0.218 -0.176 1.882 255 255 255
-0.898 -0.783 2.157 255 255 255
-0.117 0.129 0.306 255 255 255
0.713 0.542 1.493 255 255 255
0.734 0.349 1.343 255 255 255
0.691 0.214 1.461 255 255 255
0.515 0.005 2.084 255 255 255
0.436 -0.523 1.828 255 255 255
0.687 -0.166 1.411 255 255 255
-0.117 0.126 0.307 255 255 255
0.234 -0.851 1.669 255 255 255
-0.088 0.204 0.379 255 255 255
-0.785 -0.225 1.65 255 255 255
0.127 -1.497 2.38 255 255 255
0.226 0.285 2.053 255 255 255
0.707 0.222 1.403 255 255 255
-0.534 -0.301 1.909 255 255 255
-0.101 0.198 0.366 255 255 255
0.382 -0.179 1.934 255 255 255
0.283 -0.268 1.877 255 255 255
0.03 -1.118 2.42 255 255 255
-0.66 -0.344 1.832 255 255 255
-0.716 -1.44 2.155 255 255 255
0.188 -0.517 2.165 255 255 255
-1.286 -0.536 2.014 255 255 255
-0.2 -1.367 2.322 255 255 255
-0.011 -0.651 2.595 255 255 255
-0.134 0.073 0.299 255 255 255
0.473 -1.241 1.902 255 255 255
-0.988 -0.551 2.064 255 255 255
-0.489 0.038 0.755 255 255 255
0.275 0.235 2.047 255 255 255
-0.068 0.322 2.108 255 255 255
-0.033 0.422 2.03 0 0 0
0.438 0.091 2.03 255 255 255
0.65 -0.003 1.575 255 255 255
0.698 0.334 1.469 255 255 255
-0.135 0.083 0.296 255 255 255
0.487 0.391 2.074 255 255 255
-0.13 0.077 0.296 255 255 255
-0.952 -0.724 2.161 255 255 255
-0.13 0.073 0.298 255 255 255
0.606 -0.057 1.758 255 255 255
-0.126 0.16 0.331 255 255 255
0.745 -0.959 1.543 255 255 255
-0.647 -1.386 2.194 255 255 255
0.088 0.697 1.363 255 255 255
0.247 0.854 2.067 255 255 255
0.691 -0.147 1.406 255 255 255
0.494 -0.972 1.696 0 0 0
-0.352 0.095 0.647 255 255 255
0.078 -0.846 2.381 255 255 255
0.401 -0.589 1.799 255 255 255
-0.221 -0.408 2.615 255 255 255
0.357 -0.113 1.952 255 255 255
0.698 0.157 1.427 255 255 255
-0.341 -1.381 2.283 255 255 255
0.202 0.332 2.059 255 255 255
-1.117 -1.13 2.127 255 255 255
-0.439 -1.288 2.281 255 255 255
-0.027 -0.927 2.516 255 255 255
0.014 0.286 2.502 255 255 255
-0.128 0.054 0.336 255 255 255
0.208 0.885 2.053 255 255 255
-1.273 -0.88 2.013 255 255 255
0.274 -0.774 1.714 255 255 255
0.48 -1.346 1.915 255 255 255
-0.685 -0.641 2.233 0 0 0
-0.039 0.35 2.125 255 255 255
-0.658 -0.378 1.845 255 255 255
0.705 -0.682 1.636 255 255 255
-0.409 -0.946 2.393 255 255 255
0.536 -0.391 1.941 0 0 0
-0.419 -1.335 2.269 255 255 255
0.005 0.224 2.67 255 255 255
0.397 -0.156 1.948 255 255 255
-0.095 0.089 0.31 255 255 255
-0.381 -0.016 0.971 255 255 255
0.687 -0.737 1.606 0 0 0
-0.017 -0.124 2.74 255 255 255
-0.104 0.497 1.878 255 255 255
-0.101 0.099 0.299 255 255 255
-0.763 -1.625 2.086 255 255 255
0.217 -0.518 1.768 255 255 255
0.496 0.72 1.367 255 255 255
-0.984 -0.263 1.513 255 255 255
-0.522 -0.202 2.585 255 255 255
-0.367 -0.049 1.152 255 255 255
-0.274 0.593 1.66 255 255 255
-1.128 -0.643 2.138 255 255 255
-0.376 0.09 0.726 0 0 0
-0.171 0.22 2.437 255 255 255
-0.529 -0.724 2.427 255 255 255
0.285 0.253 2.059 255 255 255
-0.286 -0.915 2.44 255 255 255
-0.175 -0.021 2.745 255 255 255
-1.11 -1.316 2.066 255 255 255
-0.538 -0.776 2.406 255 255 255
-0.674 -1.245 2.23 255 255 255
-0.495 -0.103 1.243 255 255 255
-0.583 -0.731 2.408 255 255 255
0.677 -0.181 1.441 255 255 255
-0.832 -1.009 2.254 255 255 255
-0.683 -0.064 1.018 0 0 0
-0.633 -0.545 2.455 255 255 255
0.223 -0.154 1.894 255 255 255
-0.667 -0.243 1.631 255 255 255
-0.637 -0.331 1.852 255 255 255
-0.797 -0.738 2.217 255 255 255
-0.744 -1.631 2.09 255 255 255
-1.132 -1.165 2.11 255 255 255
0.464 0.204 2.086 255 255 255
0.488 -1.241 1.908 0 0 0
-1.07 -0.633 2.156 255 255 255
-0.211 -1.281 2.357 255 255 255
0.593 -1.201 1.578 255 255 255
-1.153 -0.572 2.145 255 255 255
0.558 -0.906 1.767 0 0 0
0.691 0.354 1.506 255 255 255
-0.958 -1.07 2.194 255 255 255
-0.281 0.53 1.869 255 255 255
0.339 -0.196 1.916 255 255 255
-0.188 -0.622 2.561 255 255 255
-0.093 0.096 0.305 0 0 0
-0.665 -0.272 2.527 255 255 255
0.352 -0.427 1.852 255 255 255
0.234 -0.099 1.92 255 255 255
0.228 -0.378 1.819 255 255 255
0.172 -1.691 2.337 0 0 0
0.723 0.081 1.324 255 255 255
0.327 -0.558 1.8 255 255 255
0.234 -0.526 1.782 255 255 255
-0.773 -0.299 1.814 0 0 0
-0.115 0.054 0.33 255 255 255
0.322 -0.298 1.874 255 255 255
-0.332 -0.718 2.486 255 255 255
-0.592 -0.755 2.399 255 255 255
0.243 -0.269 1.863 255 255 255
-1.209 -0.421 2.177 0 0 0
0.71 0.19 1.385 255 255 255
-0.107 0.268 2.125 255 255 255
0.622 0.001 1.685 255 255 255
0.669 -1.1 1.495 0 0 0
-0.446 -0.111 1.29 255 255 255
0.339 -0.618 1.786 255 255 255
0.265 0.461 2.079 255 255 255
-0.191 -1.297 2.354 255 255 255
-0.158 0.1 0.306 255 255 255
0.709 -0.034 1.357 255 255 255
-0.104 0.13 0.319 255 255 255
0.337 0.675 1.478 255 255 255
0.322 0.216 2.058 255 255 255
-0.485 -0.243 2.583 255 255 255
-0.376 0.518 1.901 255 255 255
0.115 0.351 2.211 255 255 255
0.583 0.301 1.941 255 255 255
-0.102 0.091 0.303 255 255 255
-0.644 -0.222 2.551 255 255 255
-0.599 -0.009 2.62 255 255 255
0.052 0.404 2.023 255 255 255
0.033 0.303 2.399 255 255 255
-0.107 0.137 0.327 255 255 255
-0.704 -0.878 2.211 0 0 0
-0.807 -1.387 2.141 255 255 255
0.2 -1.043 2.312 255 255 255
0.572 -0.367 1.825 255 255 255
0.205 0.084 1.978 255 255 255
0.273 -1.734 2.359 0 0 0
0.222 0.706 1.345 255 255 255
-0.186 0.659 1.453 0 0 0
-0.469 -1.297 2.272 255 255 255
-0.356 -0.523 2.537 255 255 255
-0.103 0.194 0.381 255 255 255
-0.047 0.558 1.763 255 255 255
0.276 -0.003 1.974 255 255 255
-0.294 0.665 1.422 0 0 0
-0.985 -0.866 2.106 0 0 0
0.691 -0.784 1.592 0 0 0
0.581 0.228 1.938 255 255 255
-0.618 -0.53 2.461 255 255 255
-0.281 0.1 0.611 255 255 255
-1.022 -0.342 1.508 255 255 255
-0.158 -0.502 2.603 255 255 255
-0.538 0.159 2.61 0 0 0
-0.106 0.193 0.358 255 255 255
-0.653 -0.364 1.833 255 255 255
-0.37 -0.002 0.953 0 0 0
0.328 -1.675 2.385 255 255 255
-0.75 -0.421 1.836 255 255 255
-0.018 0.354 2.147 255 255 255
-0.043 -0.773 2.558 255 255 255
0.198 0.599 1.675 255 255 255
-0.569 0.017 2.635 255 255 255
-0.765 -0.313 1.782 0 0 0
-0.54 -1.073 2.317 255 255 255
-0.456 0.019 0.839 255 255 255
-0.13 0.082 0.295 255 255 255
0.761 -0.107 1.159 255 255 255
0.624 -0.155 1.665 255 255 255
0.177 0.381 2.053 255 255 255
-1.1 -0.24 1.443 255 255 255
-0.62 -0.813 2.373 255 255 255
0.291 -0.384 1.839 255 255 255
0.667 0.036 1.513 255 255 255
0.219 -0.889 1.653 255 255 255
-0.183 0.128 0.715 255 255 255
0.24 -1.067 1.702 0 0 0
-0.685 -1.065 2.274 255 255 255
0.322 0.273 2.082 255 255 255
-0.217 0.11 0.671 255 255 255
0.65 0.214 1.612 255 255 255
-0.265 0.619 1.571 255 255 255
0.004 -0.31 2.556 255 255 255
0.588 -0.52 1.762 0 0 0
0.511 0.694 1.438 255 255 255
-0.783 -0.151 1.35 255 255 255
0.754 -0.015 1.204 255 255 255
-0.882 -0.271 1.804 255 255 255
0.362 0.704 1.376 255 255 255
0.392 -0.765 1.745 255 255 255
0.659 -0.765 1.595 255 255 255
-0.22 0.107 0.667 255 255 255
0.571 -0.054 1.9 255 255 255
-0.294 0.101 0.607 255 255 255
-0.099 -1.11 2.439 255 255 255
0.73 -0.943 1.542 255 255 255
0.213 -0.309 1.83 255 255 255
-0.062 0.665 1.449 0 0 0
0.141 -0.963 2.321 255 255 255
0.634 0.056 1.656 255 255 255
0.286 -0.453 1.821 255 255 255
0.231 -0.151 1.897 255 255 255
-0.428 -1.029 2.362 255 255 255
0.251 -0.644 1.746 255 255 255
-0.281 0.134 0.526 255 255 255
-0.198 0.621 1.574 255 255 255
-0.362 -0.484 2.551 255 255 255
-0.709 -1.153 2.238 255 255 255
0.72 0.267 1.369 255 255 255
-0.15 -1.266 2.378 255 255 255
0.533 0.165 2.067 255 255 255
-1.2 -0.751 2.07 255 255 255
0.147 -0.84 2.222 255 255 255
0.575 0.263 1.96 255 255 255
-0.33 -1.002 2.402 255 255 255
-0.267 0.101 0.605 0 0 0
0.237 -0.576 1.767 255 255 255
0.306 0.237 2.064 255 255 255
0.078 -0.111 2.339 255 255 255
0.046 0.324 2.311 255 255 255
0.76 0.195 1.22 255 255 255
-0.073 -1.163 2.427 255 255 255
-0.401 0.013 0.875 255 255 255
-0.646 -0.067 1.097 255 255 255
-0.627 -1.192 2.251 255 255 255
-0.598 -1.383 2.209 255 255 255
-0.636 -0.177 1.45 255 255 255
0.03 0.672 1.436 255 255 255
0.18 -0.839 2.217 255 255 255
0.652 0.021 1.571 255 255 255
0.509 -0.302 1.979 255 255 255
0.032 0.552 1.756 255 255 255
-0.282 -1.495 2.264 255 255 255
-0.289 0.063 0.67 0 0 0
-0.899 -0.774 2.161 255 255 255
0.407 -0.811 1.732 255 255 255
-0.011 0.086 2.67 255 255 255
0.29 -1.486 2.418 255 255 255
-0.661 -1.384 2.188 255 255 255
-0.257 0.069 0.738 255 255 255
-0.48 0.017 0.842 255 255 255
-0.163 -0.507 2.6 255 255 255
0.286 0.494 2.071 255 255 255
-0.764 -1.069 2.255 255 255 255
-0.389 -1.134 2.345 255 255 255
-0.282 -0.416 2.595 255 255 255
0.766 0.145 1.19 255 255 255
-0.099 0.11 0.314 255 255 255
-0.085 -1.665 2.275 0 0 0
0.552 0.14 2.009 255 255 255
-0.196 0.608 1.616 255 255 255
0.742 -0.449 1.7 255 255 255
0.699 -0.187 1.351 255 255 255
-0.501 -0.267 1.897 255 255 255
-0.772 -0.914 2.292 0 0 0
-0.457 0.046 0.705 255 255 255
-0.929 -1.13 2.184 255 255 255
-0.132 0.069 0.3 255 255 255
0.584 0.356 1.951 255 255 255
-0.092 0.079 0.324 255 255 255
-0.715 -1.543 2.124 0 0 0
-0.614 -0.632 2.428 255 255 255
-0.09 0.114 0.338 0 0 0
-0.365 0.017 0.864 255 255 255
-0.362 -0.01 0.961 255 255 255
0.561 -0.366 1.765 255 255 255
-0.506 -0.955 2.362 255 255 255
-0.135 0.067 0.302 255 255 255
-1.219 -0.306 2.146 0 0 0
0.692 0.142 1.438 255 255 255
0.464 -0.781 1.753 255 255 255
-0.428 0.112 2.633 255 255 255
0.398 -1.582 2.244 255 255 255
0.026 -1.696 2.298 0 0 0
-0.648 -0.225 1.631 255 255 255
-0.15 0.654 1.475 0 0 0
-0.33 0.459 2.046 255 255 255
-0.12 0.082 0.296 255 255 255
0.566 0.386 2.006 255 255 255
-0.686 -1.56 2.126 0 0 0
0.419 0.428 1.991 255 255 255
-0.403 -0.026 2.677 255 255 255
0.609 -0.566 1.662 0 0 0
-0.226 0.685 1.371 255 255 255
-0.138 0.567 1.765 255 255 255
0.622 -0.003 1.686 255 255 255
0.222 -0.303 1.839 255 255 255
0.005 -0.138 2.596 255 255 255
-0.322 0.122 0.559 255 255 255
-0.04 0.007 2.791 255 255 255
0.74 0.065 1.263 255 255 255
0.176 -0.598 2.158 255 255 255
0.246 -0.174 1.893 255 255 255
-0.947 -1.005 2.214 255 255 255
0.747 0.025 1.231 255 255 255
-0.472 0.023 2.668 255 255 255
-0.644 -0.886 2.345 255 255 255
0.562 0.176 1.994 255 255 255
-0.237 0.478 2.041 255 255 255
0.026 0.033 2.642 255 255 255
0.725 0.274 1.357 255 255 255
0.579 -0.098 1.859 255 255 255
-0.432 0.025 0.815 255 255 255
-0.245 0.087 0.698 255 255 255
0.388 0.631 1.657 255 255 255
-0.117 0.095 0.293 255 255 255
-1.055 -0.325 1.453 255 255 255
0.637 0.662 1.564 255 255 255
0.283 -0.574 1.781 255 255 255
-0.474 -0.825 2.415 255 255 255
-0.059 0.664 1.448 0 0 0
0.063 0.71 1.325 255 255 255
0.671 0.109 1.512 255 255 255
0.321 -0.911 1.685 255 255 255
0.604 0.705 1.431 255 255 255
0.408 0.999 2.107 255 255 255
-0.525 -0.086 1.161 255 255 255
-0.704 -1.33 2.192 255 255 255
-0.417 0.033 0.786 255 255 255
-0.421 -0.734 2.457 255 255 255
0.053 -1.095 2.297 255 255 255
-0.973 -1.616 2.027 255 255 255
0.701 0.379 1.476 255 255 255
0.423 0.319 2.088 255 255 255
-0.15 -1.043 2.443 255 255 255
-0.297 0.63 1.54 255 255 255
0.776 -0.078 1.118 255 255 255
-0.647 -0.539 2.448 255 255 255
-0.054 0.499 1.885 255 255 255
0 0.59 1.71 255 255 255
-0.991 -0.294 1.534 255 255 255
0.586 0.304 1.936 255 255 255
0.194 0.373 2.055 255 255 255
0.469 0.607 1.752 255 255 255
-1.005 -0.308 1.5 255 255 255
0.716 -0.719 1.624 255 255 255
-0.387 -0.706 2.475 255 255 255
-0.502 0.045 0.72 255 255 255
-0.463 0.037 0.758 255 255 255
-0.124 0.1 0.288 255 255 255
0.315 0.304 2.088 255 255 255
-0.244 0.076 0.768 255 255 255
0.412 -0.225 1.922 255 255 255
-0.287 -1.615 2.204 0 0 0
0.45 -0.095 1.971 255 255 255
-0.113 0.176 0.353 255 255 255
-1.04 -0.209 1.47 255 255 255
-0.872 -1.423 2.11 255 255 255
-0.166 0.21 2.44 255 255 255
-0.127 -0.468 2.625 255 255 255
0.731 -0.271 1.417 255 255 255
0.626 0.032 1.685 255 255 255
-0.363 -1.503 2.24 255 255 255
-0.689 -0.562 2.424 255 255 255
0.539 -0.208 1.97 255 255 255
-0.074 0.708 1.313 255 255 255
-0.248 0.58 1.703 255 255 255
0.268 -0.398 1.834 255 255 255
-0.19 0.669 1.428 255 255 255
-1.339 -0.756 2.028 255 255 255
-0.763 -0.943 2.27 0 0 0
-0.882 -1.61 2.055 255 255 255
-0.036 0.467 1.968 0 0 0
0.525 -0.916 1.777 0 0 0
-1.314 -0.495 2.01 255 255 255
0.095 -0.521 2.492 255 255 255
0.254 0.714 1.336 255 255 255
-0.446 0.277 2.274 255 255 255
0.204 -0.347 1.813 255 255 255
0.221 -0.763 2.447 255 255 255
0.423 0.583 1.81 0 0 0
-0.23 0.706 1.311 255 255 255
-0.225 0.1 0.651 255 255 255
-0.429 -0.002 0.952 255 255 255
-0.129 0.424 2.123 255 255 255
0.521 -0.012 2.058 255 255 255
-0.325 -0.958 2.418 255 255 255
-0.097 0.695 1.352 255 255 255
-0.524 -0.012 0.933 255 255 255
0.374 0.305 2.034 255 255 255
-0.108 0.608 1.623 255 255 255
-0.531 -1.204 2.28 255 255 255
0.181 -1.449 2.408 255 255 255
-0.056 0.513 1.819 255 255 255
-1.199 -0.887 2.032 255 255 255
0.741 0.07 1.26 255 255 255
0.548 -0.067 1.964 255 255 255
-1.207 -0.405 1.996 255 255 255
0.764 -0.146 1.106 0 0 0
0.01 -0.838 2.534 255 255 255
-0.137 -0.523 2.601 255 255 255
0.083 -0.81 2.384 255 255 255
-0.062 0.688 1.374 255 255 255
-1.022 -1.114 2.16 255 255 255
0.771 0.071 1.15 255 255 255
-0.597 -0.371 1.864 255 255 255
-0.865 -1.125 2.203 255 255 255
0.126 -0.049 2.274 255 255 255
-0.228 0.315 2.413 255 255 255
-0.628 -0.065 1.112 0 0 0
0.373 0.62 1.691 255 255 255
0.504 0.421 2.048 255 255 255
0.602 -0.313 1.707 255 255 255
-0.824 -1.406 2.136 255 255 255
0.646 -0.209 1.557 255 255 255
-0.127 -0.458 2.627 255 255 255
0.073 0.215 2.625 255 255 255
0.726 -0.936 1.555 255 255 255
-0.822 -0.924 2.278 255 255 255
-0.232 0.709 1.303 255 255 255
-0.843 -0.284 1.824 0 0 0
-0.657 -0.272 1.66 0 0 0
0.048 -0.923 2.344 0 0 0
-0.695 -0.976 2.3 255 255 255
-0.473 -0.167 2.61 255 255 255
-0.147 0.201 2.445 255 255 255
-0.312 -0.456 2.576 255 255 255
-0.103 0.193 0.366 255 255 255
0.112 0.05 2.455 255 255 255
-0.047 -1.224 2.417 255 255 255
0.466 -1.453 1.942 0 0 0
0.059 0.688 1.382 255 255 255
0.675 0.142 1.51 255 255 255
0.344 -0.539 1.814 255 255 255
0.627 -0.673 1.62 255 255 255
0.088 -0.073 2.332 255 255 255
0.612 -0.11 1.729 255 255 255
-0.207 -0.342 2.641 255 255 255
0.626 -0.103 1.663 255 255 255
0.064 0.279 2.483 255 255 255
-0.286 0.534 1.854 255 255 255
0.534 0.722 1.362 255 255 255
-0.15 0.171 0.36 255 255 255
0.751 -0.067 1.208 255 255 255
-0.999 -1.14 2.161 255 255 255
-0.116 0.096 0.295 255 255 255
0.127 0.71 1.328 255 255 255
-0.548 -0.1 1.219 255 255 255
-0.189 0.671 1.418 255 255 255
0.388 -0.903 1.702 255 255 255
-0.274 0.537 1.849 255 255 255
-0.224 0.456 2.079 255 255 255
-0.194 0.614 1.594 255 255 255
0.67 0.165 1.522 255 255 255
-0.214 0.682 1.374 255 255 255
-0.391 0.01 0.899 255 255 255
0.595 -1.103 1.587 255 255 255
-0.448 -0.893 2.396 255 255 255
0.083 -0.06 2.347 255 255 255
-0.459 -1.339 2.261 255 255 255
-0.302 0.645 1.488 255 255 255
0.18 -0.75 2.442 255 255 255
0.356 -0.055 1.972 255 255 255
0.435 -0.556 1.819 255 255 255
-0.006 -1.651 2.305 255 255 255
-0.443 -1.231 2.297 255 255 255
0.614 0.143 1.756 255 255 255
-0.084 -1.236 2.404 255 255 255
-0.116 0.637 1.53 255 255 255
0.627 -1.078 1.495 0 0 0
-0.8 -0.246 1.724 255 255 255
-0.442 -0.305 2.578 255 255 255
-0.239 0.079 0.763 255 255 255
0.493 0.602 1.757 255 255 255
0.497 0.702 1.42 255 255 255
0.553 0.609 1.744 255 255 255
-0.356 -0.775 2.459 255 255 255
-0.141 0.249 0.567 255 255 255
-1.092 -0.225 1.44 255 255 255
-0.708 -1.248 2.218 255 255 255
0.717 -0.031 1.327 255 255 255
-0.375 0.087 0.687 0 0 0
-0.925 -0.346 1.765 255 255 255
-0.106 0.066 0.313 0 0 0
0.074 -0.534 2.479 255 255 255
-1.356 -0.633 2.052 0 0 0
-1.009 -0.687 2.155 255 255 255
0.601 -0.626 1.705 0 0 0
-1.034 -0.901 2.086 0 0 0
-0.129 0.092 0.292 255 255 255
-0.175 0.644 1.507 255 255 255
-0.643 0.049 2.598 0 0 0
-0.078 -0.998 2.476 255 255 255
0.199 -0.557 2.177 255 255 255
-0.508 -0.098 1.233 255 255 255
0.33 -0.307 1.877 255 255 255
0.633 -0.236 1.615 255 255 255
0.563 -0.116 1.912 255 255 255
0.75 -0.026 1.214 255 255 255
0.486 -0.87 1.734 255 255 255
0.615 0.154 1.759 255 255 255
-0.537 -1.573 2.163 0 0 0
0.545 -1.166 1.744 255 255 255
-0.444 -0.865 2.41 255 255 255
-0.421 -0.331 2.576 255 255 255
-1.214 -0.56 2.135 0 0 0
0.231 0.974 2.039 255 255 255
-0.111 0.182 0.355 255 255 255
0.498 0.117 2.124 255 255 255
0.292 -1.006 1.658 255 255 255
-0.217 -0.112 2.711 255 255 255
0.685 -0.142 1.423 255 255 255
0.546 -0.786 1.833 0 0 0
0.619 -0.942 1.54 0 0 0
0.24 -0.125 1.911 255 255 255
-0.146 0.566 1.772 255 255 255
0.276 0.716 1.324 255 255 255
0.411 0.634 1.661 255 255 255
-0.647 -1.61 2.119 0 0 0
-0.558 -0.581 2.463 255 255 255
0.568 0.649 1.608 255 255 255
0.551 -0.153 1.927 255 255 255
-0.686 -0.634 2.399 255 255 255
0.226 0.009 1.959 255 255 255
-0.131 0.07 0.299 255 255 255
0.671 -0.227 1.438 0 0 0
-0.119 0.162 0.335 255 255 255
-0.619 -0.94 2.335 255 255 255
-1.296 -0.473 2.031 255 255 255
-1.045 -1.092 2.154 255 255 255
0.025 -0.249 2.56 255 255 255
-0.112 0.087 0.294 255 255 255
0.691 -0.506 1.683 255 255 255
-0.102 0.194 0.367 255 255 255
-1.049 -1.35 2.083 255 255 255
0.574 -0.351 1.721 0 0 0
-0.534 -0.089 2.621 255 255 255
0.31 -0.119 1.936 255 255 255
-0.501 -0.35 2.55 255 255 255
-0.165 0.084 0.324 255 255 255
-0.518 -0.086 1.165 255 255 255
-0.745 -1.204 2.216 255 255 255
0.271 0.175 2.025 255 255 255
-0.39 -1.308 2.291 255 255 255
0.09 0.006 2.527 255 255 255
0.625 -0.175 1.658 255 255 255
-0.557 -0.036 0.908 255 255 255
-0.119 0.147 0.324 255 255 255
0.209 -0.898 1.655 255 255 255
-0.512 -1.206 2.286 255 255 255
-0.231 -0.438 2.603 255 255 255
-0.23 -1.054 2.411 255 255 255
-0.869 -0.829 2.151 0 0 0
0.527 -0.216 2.004 255 255 255
-1.178 -0.482 2.176 0 0 0
-0.42 -0.039 1.058 0 0 0
-0.7 -1.03 2.281 255 255 255
-0.29 -0.556 2.549 255 255 255
-0.133 0.183 0.34 255 255 255
-0.533 -0.006 0.922 255 255 255
0.922 -0.422 1.833 255 255 255
0.25 0.356 2.072 255 255 255
0.072 0.089 2.605 255 255 255
-0.608 -0.14 2.584 255 255 255
0.313 0.637 1.633 255 255 255
-0.296 -1.411 2.284 255 255 255
0.243 -0.757 1.708 255 255 255
0.334 0.136 2.035 255 255 255
-0.611 -1.314 2.225 255 255 255
-0.084 -0.724 2.56 255 255 255
0.586 -0.149 1.816 255 255 255
0.474 -0.94 1.708 255 255 255
-0.573 0.008 0.844 255 255 255
-0.409 -0.631 2.493 255 255 255
-1.043 -1.373 2.071 255 255 255
0.608 -0.625 1.679 0 0 0
0.724 -1.019 1.537 255 255 255
0.54 0.445 2.03 255 255 255
0.7 -0.199 1.331 0 0 0
-0.064 0.645 1.509 255 255 255
-0.338 0.049 2.682 255 255 255
0.695 -0.186 1.376 255 255 255
-0.853 -0.376 1.779 255 255 255
0.608 0.469 1.81 255 255 255
0.411 -0.337 1.886 255 255 255
0.777 0.042 1.136 255 255 255
0.583 -1.126 1.649 255 255 255
-0.344 -1.009 2.391 255 255 255
-0.627 -0.735 2.396 255 255 255
0.358 -0.686 1.771 255 255 255
-0.457 -1.153 2.316 255 255 255
0.667 -0.088 1.496 255 255 255
0.51 -1.291 1.844 255 255 255
-0.251 0.074 0.745 255 255 255
-0.386 0.065 0.663 255 255 255
0.572 0.603 1.757 255 255 255
0.771 -0.028 1.142 255 255 255
0.315 0.173 2.042 255 255 255
-0.114 0.634 1.54 255 255 255
0.703 -0.352 1.659 255 255 255
-0.661 -0.466 2.469 255 255 255
-0.24 0.625 1.561 255 255 255
0.035 0.689 1.383 255 255 255
-0.395 -1.613 2.201 0 0 0
-0.56 -0.987 2.338 255 255 255
0.574 0.264 1.969 255 255 255
0.708 0.52 1.504 255 255 255
0.455 0.592 1.796 255 255 255
0.684 -0.644 1.633 255 255 255
-0.31 -0.978 2.415 255 255 255
0.726 -0.939 1.553 255 255 255
0.173 -1.748 2.325 0 0 0
0.339 0.721 1.324 255 255 255
-0.146 0.281 0.604 0 0 0
-0.072 -0.004 2.778 255 255 255
-0.855 -0.511 2.05 255 255 255
0.758 0.095 1.202 255 255 255
0.59 -0.764 1.697 255 255 255
-0.957 -1.014 2.207 255 255 255
-0.356 0.05 0.701 255 255 255
-0.14 -1.384 2.343 255 255 255
-0.104 0.468 2.046 255 255 255
0.674 -0.046 1.48 255 255 255
-0.361 -0.539 2.534 255 255 255
0.257 -0.932 1.649 255 255 255
0.66 -0.214 1.512 255 255 255
-0.231 0.579 1.711 255 255 255
-0.273 -0.672 2.519 255 255 255
0.654 -1.048 1.507 255 255 255
-1.224 -0.411 2.175 0 0 0
-1.112 -0.738 2.107 255 255 255
-0.353 0.041 0.761 255 255 255
0.326 0.65 1.568 255 255 255
-0.617 -0.74 2.396 255 255 255
-0.538 -0.314 2.551 255 255 255
-0.276 0.086 0.683 255 255 255
-0.307 -0.719 2.492 255 255 255
0.508 -0.2 2.016 255 255 255
0.388 -0.739 1.754 255 255 255
0.707 0.585 1.496 255 255 255
0.633 0.468 1.751 255 255 255
0.605 -1.091 1.558 255 255 255
0.047 -1.646 2.318 255 255 255
0.126 -0.976 2.314 255 255 255
-0.345 -0.925 2.418 255 255 255
0.68 0.492 1.588 255 255 255
-0.105 -0.768 2.539 255 255 255
-0.325 0.062 0.667 0 0 0
-0.145 0.715 1.303 255 255 255
0.614 -1.028 1.551 0 0 0
-0.476 0.032 0.786 255 255 255
0.452 -0.523 1.828 255 255 255
0.052 0.297 2.388 255 255 255
0.584 -0.351 1.801 255 255 255
0.37 -0.457 1.843 255 255 255
-0.769 -1.074 2.252 255 255 255
0.493 0.687 1.495 255 255 255
-0.329 0.115 0.581 255 255 255
0.742 0.184 1.277 255 255 255
-0.584 -0.521 2.472 255 255 255
-0.26 -0.976 2.428 255 255 255
-0.747 -0.083 1.003 255 255 255
0.126 0.426 2.027 0 0 0
0.554 -1.088 1.746 0 0 0
-0.057 0.68 1.401 255 255 255
-0.882 -0.378 1.783 255 255 255
-0.184 -0.511 2.595 255 255 255
-0.781 -1.265 2.19 255 255 255
-0.504 -1.459 2.204 255 255 255
-0.625 -0.282 2.535 255 255 255
0.608 -0.54 1.664 0 0 0
-0.633 -0.283 1.797 0 0 0
0.242 0.08 1.992 255 255 255
0.549 -0.439 1.892 255 255 255
-0.121 0.06 0.311 0 0 0
0.719 0.316 1.388 255 255 255
-1.199 -0.721 2.086 255 255 255
0.559 -0.582 1.829 255 255 255
0.283 -0.563 1.784 255 255 255
0.515 -0.324 1.984 255 255 255
-0.624 -0.351 1.836 255 255 255
-0.024 0.686 1.379 255 255 255
-0.247 0.098 0.64 255 255 255
-0.822 -1.616 2.069 255 255 255
-0.089 -1.226 2.407 255 255 255
-0.381 -0.885 2.426 255 255 255
0.749 0.121 1.236 255 255 255
0.695 -0.077 1.397 255 255 255
-0.206 -0.948 2.459 255 255 255
-0.618 -0.651 2.419 255 255 255
0.33 0.709 1.356 255 255 255
-1.034 -1.131 2.155 255 255 255
-0.778 -0.89 2.299 255 255 255
-0.707 -0.347 1.813 255 255 255
-1.155 -0.528 2.167 0 0 0
0.732 -1.022 1.524 255 255 255
-0.901 -1.386 2.114 255 255 255
0.09 -1.386 2.437 255 255 255
0.208 0.456 2.06 0 0 0
0.564 0.454 1.988 255 255 255
-0.283 0.616 1.58 255 255 255
0.704 0.374 1.467 255 255 255
0.562 -0.731 1.789 255 255 255
0.53 -0.497 1.933 0 0 0
-0.361 -0.811 2.452 255 255 255
-0.519 -0.758 2.418 255 255 255
-0.419 0.05 0.679 255 255 255
0.135 -0.534 2.161 255 255 255
-0.527 -1.256 2.265 255 255 255
-0.233 0.394 2.094 255 255 255
0.152 0.583 1.764 255 255 255
-0.507 -0.88 2.382 255 255 255
-0.028 0.2 2.775 255 255 255
0.501 -0.818 1.761 255 255 255
0.178 -0.098 1.904 255 255 255
-0.006 -1.131 2.46 255 255 255
0.045 0.638 1.544 255 255 255
0.685 0.157 1.467 255 255 255
-0.062 0.43 2.046 0 0 0
0.687 0.004 1.433 255 255 255
0.209 0.588 1.742 255 255 255
-0.108 0.135 0.322 255 255 255
-0.134 0.523 1.866 0 0 0
0.6 -0.992 1.611 0 0 0
-1.233 -0.892 2.02 255 255 255
0.555 0.245 2.027 255 255 255
0.746 -0.078 1.222 255 255 255
-0.147 0.238 0.534 0 0 0
-1.155 -0.923 2.035 255 255 255
0.527 -1.192 1.748 255 255 255
-0.072 -0.048 2.747 255 255 255
-0.112 -0.412 2.646 255 255 255
-0.316 -1.424 2.272 255 255 255
0.241 -1.482 2.415 255 255 255
-0.492 -0.962 2.367 255 255 255
-0.043 -1.464 2.351 255 255 255
-0.233 -1.579 2.254 255 255 255
0.381 0.631 1.656 255 255 255
-0.296 0.588 1.686 255 255 255
0.04 0.609 1.638 255 255 255
0.574 -1.199 1.647 0 0 0
-0.812 -0.234 1.681 255 255 255
-0.323 0.097 0.647 255 255 255
0.051 0.71 1.312 255 255 255
-1.131 -0.942 2.037 0 0 0
-0.768 -1.329 2.176 255 255 255
-0.506 -0.489 2.507 255 255 255
-0.43 -1.43 2.238 255 255 255
0.383 0.47 1.736 255 255 255
0.448 -0.742 1.762 255 255 255
-0.869 -1.466 2.099 255 255 255
-0.166 -0.765 2.526 255 255 255
0.465 0.609 1.736 255 255 255
0.211 -0.792 1.679 255 255 255
-0.432 -0.684 2.468 255 255 255
0.484 -0.605 1.813 255 255 255
-0.987 -1.609 2.022 255 255 255
0.612 -1.07 1.538 255 255 255
-0.393 0.414 2.118 255 255 255
0.027 0.605 1.657 255 255 255
0.266 -0.903 1.667 255 255 255
-0.091 0.559 1.764 0 0 0
-0.397 -1.461 2.241 255 255 255
0.024 0.428 1.996 255 255 255
0.536 -0.543 1.917 0 0 0
-0.546 -0.034 0.985 255 255 255
-0.21 -1.092 2.407 255 255 255
-0.758 -0.169 1.423 255 255 255
-0.46 -0.375 2.552 255 255 255
-0.053 -1.427 2.354 255 255 255
0.743 -0.108 1.222 255 255 255
-1.16 -0.985 2.003 0 0 0
-0.574 -0.325 1.903 255 255 255
0.436 -0.748 1.759 255 255 255
-1.26 -0.787 2.046 255 255 255
-0.11 0.14 0.329 255 255 255
-0.488 0.24 2.274 0 0 0
-0.511 -0.934 2.365 255 255 255
0.015 -1.056 2.478 255 255 255
0.074 -1.661 2.318 255 255 255
0.86 -0.521 1.751 255 255 255
-0.469 -0.244 2.586 255 255 255
-0.353 -0.236 2.628 255 255 255
0.676 -0.214 1.436 255 255 255
-0.612 -0.376 1.847 255 255 255
0.392 0.632 1.658 255 255 255
0.637 0.204 1.676 255 255 255
0.411 -0.913 1.7 255 255 255
-0.167 -0.612 2.567 255 255 255
0.343 0.14 2.038 255 255 255
0.62 -0.294 1.633 255 255 255
0.674 -1.111 1.49 0 0 0
0.532 0.558 1.916 255 255 255
-0.141 0.059 0.318 0 0 0
-0.702 -1.466 2.149 255 255 255
-0.458 -0.923 2.386 255 255 255
0.404 -0.621 1.788 255 255 255
-0.699 -0.821 2.333 255 255 255
0.25 -0.743 1.713 255 255 255
-0.309 0.096 0.636 255 255 255
0.407 0.167 2.063 255 255 255
-0.151 0.22 0.493 0 0 0
-0.366 0.056 0.666 255 255 255
0.728 -0.166 1.261 0 0 0
0.112 -1.705 2.319 0 0 0
-0.327 -0.016 1.126 255 255 255
-0.291 -1.323 2.315 255 255 255
-0.938 -1.465 2.078 255 255 255
-0.12 0.113 0.305 255 255 255
-0.442 0.438 2.077 0 0 0
-0.274 -0.572 2.549 255 255 255
0.638 -0.269 1.558 0 0 0
-0.815 -0.622 2.134 255 255 255
-1.228 -1.112 2.098 255 255 255
-0.81 -1.563 2.092 0 0 0
0.008 0.385 2.176 255 255 255
0.291 -1.513 2.418 255 255 255
-0.354 -1.553 2.226 255 255 255
-0.15 0.139 0.327 255 255 255
-1.055 -0.225 1.458 255 255 255
0.653 0.547 1.669 255 255 255
0.673 -0.012 1.486 255 255 255
-0.209 0.109 0.703 255 255 255
-0.672 -0.242 2.535 255 255 255
0.591 -1.177 1.596 0 0 0
-0.636 -0.29 1.737 0 0 0
-0.295 -1.216 2.342 255 255 255
-0.38 -0.358 2.583 255 255 255
0.563 -1.257 1.672 0 0 0
0.061 0.578 1.766 0 0 0
-1.227 -0.4 2.161 0 0 0
0.206 -0.902 1.664 255 255 255
-0.729 -1.551 2.114 0 0 0
-0.365 0.457 2.053 255 255 255
0.752 0.138 1.24 255 255 255
0.363 0.73 1.303 255 255 255
-0.334 -0.031 2.694 255 255 255
0.318 -0.691 1.756 255 255 255
-0.106 0.098 0.295 255 255 255
0.514 -0.012 2.081 255 255 255
0.949 -0.423 1.849 255 255 255
-0.112 0.179 0.353 255 255 255
0.283 0.589 1.772 255 255 255
-1.35 -0.756 2.025 255 255 255
0.447 -0.338 1.886 255 255 255
-0.947 -1.413 2.094 255 255 255
-0.409 0.049 0.691 255 255 255
0.728 0.417 1.38 255 255 255
-0.529 -0.089 2.623 255 255 255
-0.158 0.21 0.674 255 255 255
0.587 -1.053 1.639 255 255 255
-0.166 0.188 0.754 255 255 255
0.634 0.482 1.717 255 255 255
0.714 -0.576 1.666 255 255 255
-1 -0.852 2.106 255 255 255
0.549 -0.564 1.868 0 0 0
-1.244 -0.722 2.073 255 255 255
0.374 -1.58 2.303 255 255 255
-0.636 -0.296 1.829 0 0 0
-0.435 0.022 0.827 255 255 255
-0.23 0.075 0.847 255 255 255
0.237 -1.096 1.702 0 0 0
0.112 -0.352 2.454 255 255 255
-0.091 0.117 0.327 0 0 0
-0.871 -1.584 2.068 255 255 255
0.409 -0.153 1.949 255 255 255
0 0.682 1.398 255 255 255
0.502 0.612 1.715 0 0 0
0.003 0.65 1.496 255 255 255
-0.604 -1.426 2.195 255 255 255
0.149 0.295 2.337 255 255 255
0.546 -0.628 1.873 0 0 0
0.089 0.426 2.008 255 255 255
-1.182 -0.575 2.147 255 255 255
-0.1 -0.606 2.588 255 255 255
-1.082 -0.601 2.165 0 0 0
0.671 0.161 1.516 255 255 255
-0.142 0.122 0.307 255 255 255
0.565 -0.394 1.827 255 255 255
-0.293 0.107 2.664 255 255 255
0.039 -0.979 2.334 0 0 0
0.778 -0.073 1.116 255 255 255
-1.098 -0.271 1.443 0 0 0
-0.992 -0.97 2.211 255 255 255
-1.079 -0.264 1.456 0 0 0
-0.674 -1.629 2.111 255 255 255
-0.561 -0.056 1.041 255 255 255
-0.953 -0.662 2.152 255 255 255
0.302 -1.082 1.644 255 255 255
-0.015 0.698 1.354 255 255 255
-0.346 0.098 0.708 0 0 0
-0.177 0.356 0.801 0 0 0
-0.494 -0.279 2.571 255 255 255
-0.377 -0.023 1.019 255 255 255
-0.145 0.196 0.601 255 255 255
0.596 0.305 1.884 255 255 255
-0.633 -0.851 2.355 255 255 255
0.207 0.403 2.053 255 255 255
0.721 0.129 1.343 255 255 255
0.229 0.722 1.308 255 255 255
-0.107 0.187 0.365 255 255 255
-1.149 -0.866 2.05 255 255 255
-0.675 -1.358 2.193 255 255 255
-0.256 -0.01 2.726 255 255 255
-0.436 -0.121 1.339 255 255 255
-0.247 0.64 1.51 255 255 255
0.465 -0.245 1.922 255 255 255
-0.721 -0.394 1.831 255 255 255
0.711 -0.109 1.333 255 255 255
-1.131 -0.976 2.071 0 0 0
0.616 0.248 1.777 255 255 255
-0.986 -1.038 2.189 255 255 255
-0.361 0.039 2.693 0 0 0
-0.822 -0.973 2.265 255 255 255
-0.289 0.023 0.855 0 0 0
-0.336 0.034 2.708 255 255 255
-0.389 -1.062 2.364 255 255 255
-0.933 -1.098 2.189 255 255 255
-0.692 -0.548 2.272 0 0 0
-1.024 -0.706 2.148 255 255 255
-0.822 -0.933 2.275 255 255 255
0.535 0.666 1.533 255 255 255
-0.481 -1.45 2.223 255 255 255
-1.013 -1.328 2.098 255 255 255
0.689 -0.204 1.397 255 255 255
0.664 -0.069 1.506 255 255 255
0.433 -0.786 1.749 255 255 255
0.409 -0.202 1.93 255 255 255
0.573 0.06 1.934 255 255 255
0.166 -1.537 2.388 255 255 255
-0.528 -0.192 2.59 255 255 255
0.361 -0.511 1.826 255 255 255
-0.29 -0.995 2.416 255 255 255
0.162 -0.575 2.161 255 255 255
0.731 -0.648 1.631 255 255 255
-0.526 0.148 2.609 0 0 0
-0.507 0.032 0.783 255 255 255
0.377 -0.479 1.835 255 255 255
-0.298 -0.675 2.51 255 255 255
0.146 0.001 2.103 255 255 255
-0.338 0.564 1.749 255 255 255
-0.418 -0.442 2.547 255 255 255
-0.544 -0.399 2.523 255 255 255
0.683 0.37 1.536 255 255 255
0.064 0.491 1.855 255 255 255
0.572 -0.579 1.791 255 255 255
-0.074 0.666 1.443 0 0 0
0.653 0.047 1.574 255 255 255
0.182 -0.204 1.866 255 255 255
0.553 0.69 1.462 255 255 255
-0.432 -1.506 2.216 255 255 255
-0.501 -0.063 1.116 255 255 255
-0.34 -0.98 2.403 255 255 255
-0.693 -0.811 2.258 0 0 0
-1.226 -0.476 2.097 255 255 255
0.461 0.134 2.057 255 255 255
-0.337 -1.477 2.252 255 255 255
1.505 -0.634 2.392 255 255 255
0.646 -0.61 1.647 255 255 255
0.978 -0.456 1.818 255 255 255
-0.585 0.085 2.582 0 0 0
-0.986 -1.367 2.1 255 255 255
-0.527 -0.025 2.64 255 255 255
-0.201 0.108 0.799 255 255 255
-0.579 -0.04 0.841 255 255 255
0.411 -0.759 1.749 255 255 255
0.288 0.494 1.778 255 255 255
0.521 -0.313 1.992 255 255 255
0.698 -0.361 1.685 255 255 255
-0.336 0.592 1.651 0 0 0
-0.035 0.6 1.664 255 255 255
-0.477 -1.001 2.357 255 255 255
0.277 -0.046 1.955 255 255 255
0.7 0.348 1.47 255 255 255
0.018 0.545 1.758 255 255 255
-0.31 -0.329 2.612 255 255 255
-1.234 -0.665 2.089 0 0 0
0.732 -0.105 1.265 255 255 255
-0.158 -0.139 2.717 255 255 255
0.168 -0.199 2.225 255 255 255
-0.158 0.421 2.104 255 255 255
-0.597 -0.034 0.842 0 0 0
-1.073 -1.209 2.113 255 255 255
0.592 -0.849 1.677 255 255 255
-0.984 -0.577 2.095 255 255 255
-0.59 -0.033 1.016 0 0 0
0.01 -0.051 2.617 255 255 255
-0.089 -0.714 2.562 255 255 255
-0.286 -0.986 2.423 255 255 255
-0.047 0.561 1.761 255 255 255
-1.156 -1.154 2.103 255 255 255
0.258 -0.468 1.809 255 255 255
0.67 -0.134 1.476 255 255 255
0.598 -0.44 1.748 0 0 0
0.672 0.055 1.499 255 255 255
-0.031 0.494 1.883 255 255 255
-0.817 -0.904 2.285 255 255 255
0.377 -0.811 1.737 255 255 255
0.355 -0.654 1.783 255 255 255
0.73 0.393 1.376 255 255 255
-0.257 0.548 1.808 255 255 255
-0.508 -0.268 1.907 255 255 255
-0.253 -0.112 2.696 255 255 255
-1.072 -1.164 2.128 255 255 255
-0.766 -1.26 2.195 255 255 255
-0.121 0.166 0.338 255 255 255
-0.065 -0.326 2.688 255 255 255
0.107 0.673 1.435 255 255 255
-0.18 -1.137 2.406 255 255 255
0.411 -0.527 1.82 255 255 255
0.345 -0.237 1.902 255 255 255
-0.142 0.221 0.545 255 255 255
0.715 -0.148 1.312 255 255 255
-0.409 0.179 2.607 255 255 255
0.749 0.144 1.246 255 255 255
0.334 0.669 1.498 255 255 255
-0.646 -0.252 2.536 255 255 255
0.664 -0.371 1.71 255 255 255
-0.51 -0.254 2.576 255 255 255
0.639 0.121 1.647 255 255 255
0.611 -0.744 1.633 0 0 0
-0.589 -0.088 1.176 255 255 255
-0.49 -0.141 2.616 255 255 255
0.445 0.26 2.096 255 255 255
0.604 -0.141 1.762 255 255 255
-0.399 0.018 0.848 255 255 255
0.171 -0.563 2.166 255 255 255
0.63 -0.597 1.647 255 255 255
-0.772 -1.332 2.171 255 255 255
-0.048 0.51 1.809 255 255 255
0.687 0.443 1.551 255 255 255
-0.419 -0.136 2.64 255 255 255
0.079 0.651 1.506 255 255 255
-1.011 -1.231 2.131 255 255 255
0.331 0.721 1.325 255 255 255
-0.468 -0.988 2.366 255 255 255
-0.786 -0.697 2.287 255 255 255
-0.119 -1.251 2.385 255 255 255
-0.195 0.706 1.315 255 255 255
-0.498 -0.857 2.395 255 255 255
-0.842 -0.534 2.075 0 0 0
0.432 -0.522 1.828 255 255 255
0.616 0.707 1.433 255 255 255
0.515 -0.062 2.068 255 255 255
0.678 0.437 1.585 255 255 255
-0.1 0.083 0.31 0 0 0
-1.055 -0.656 2.155 255 255 255
0.256 -0.998 1.641 255 255 255
0.602 -0.072 1.771 255 255 255
0.113 0.51 1.849 255 255 255
0.202 -0.555 1.753 255 255 255
0.365 -0.932 1.694 0 0 0
-0.671 -1.141 2.256 255 255 255
0.572 -1.09 1.688 255 255 255
0.496 0.705 1.418 255 255 255
-0.141 -1.602 2.273 255 255 255
0.065 0.666 1.459 0 0 0
-0.348 0.046 0.734 255 255 255
0.665 -0.025 1.509 255 255 255
0.062 0.153 2.638 255 255 255
0.262 -0.819 1.695 255 255 255
0.052 -1.546 2.353 255 255 255
-1.298 -0.829 2.02 255 255 255
-0.365 0.061 0.664 0 0 0
-0.956 -0.521 2.066 0 0 0
0.998 -0.421 1.824 255 255 255
0.063 -1.432 2.384 255 255 255
-0.631 -0.083 2.594 0 0 0
-0.628 -0.161 1.385 255 255 255
0.738 0.026 1.261 255 255 255
-0.243 -0.117 2.698 255 255 255
-0.32 -1.149 2.36 255 255 255
-0.841 -1.185 2.19 255 255 255
-0.2 0.71 1.302 255 255 255
0.552 -0.874 1.798 255 255 255
-0.185 0.712 1.295 255 255 255
-0.357 0.497 1.953 255 255 255
0.53 0.639 1.632 255 255 255
-0.621 -0.254 1.668 0 0 0
0.723 0.218 1.346 255 255 255
-0.084 0.638 1.533 255 255 255
0.608 -0.053 1.754 255 255 255
-0.368 -0.059 1.205 255 255 255
-0.257 -0.762 2.494 255 255 255
0.129 -0.83 2.235 255 255 255
-0.429 0.433 2.055 0 0 0
-1.274 -0.704 2.069 255 255 255
0.586 0.503 1.906 255 255 255
0.307 -0.577 1.788 255 255 255
-0.016 -0.723 2.575 255 255 255
-0.158 0.418 2.109 0 0 0
0.351 0.65 1.556 255 255 255
-0.208 0.632 1.537 255 255 255
-0.604 -0.031 2.617 255 255 255
0.596 0.245 1.878 255 255 255
0.052 -1.326 2.411 255 255 255
0.165 -0.317 2.303 255 255 255
-0.435 -0.386 2.559 255 255 255
-0.157 0.7 1.338 255 255 255
-0.183 0.133 0.7 255 255 255
0.403 1.017 2.103 255 255 255
0.112 0.443 1.991 255 255 255
0.514 -0.201 2.023 255 255 255
-0.483 -0.121 1.296 255 255 255
0.594 0.571 1.849 255 255 255
0.764 -0.187 1.142 255 255 255
0.72 0.468 1.453 255 255 255
0.757 0.181 1.222 255 255 255
0.714 0.398 1.429 255 255 255
-0.237 0.247 2.41 255 255 255
0.643 -0.749 1.599 255 255 255
0.776 0.105 1.147 255 255 255
0.695 -0.203 1.367 0 0 0
-1.054 -1.375 2.07 255 255 255
0.044 -0.599 2.448 255 255 255
0.491 -0.716 1.784 0 0 0
0.207 -0.921 1.659 255 255 255
-0.304 0.108 0.595 255 255 255
-1.182 -1.061 2.128 255 255 255
-0.344 -1.07 2.374 255 255 255
0.692 -0.026 1.413 255 255 255
0.103 0.712 1.319 255 255 255
-0.402 -0.168 2.633 255 255 255
0.239 0.109 2.001 255 255 255
-0.652 -0.514 2.45 255 255 255
0.373 -0.769 1.748 255 255 255
0.596 -0.121 1.787 255 255 255
0.547 -0.326 1.914 255 255 255
0.23 0.699 1.357 255 255 255
0.438 -0.191 1.934 255 255 255
0.61 -0.274 1.712 255 255 255
0.66 -0.795 1.588 255 255 255
0.587 0.105 1.885 255 255 255
-0.572 -0.091 1.189 255 255 255
0.458 0.292 2.111 255 255 255
-1.067 -0.821 2.096 255 255 255
-0.653 -1.631 2.109 255 255 255
0.72 0.258 1.369 255 255 255
-0.235 -0.474 2.591 255 255 255
-0.984 -0.265 1.527 255 255 255
-0.181 -0.97 2.46 255 255 255
-0.78 -0.867 2.31 255 255 255
-0.315 -1.226 2.336 255 255 255
0.208 0.064 1.972 255 255 255
0.437 -0.901 1.716 255 255 255
-0.8 -1.28 2.179 255 255 255
-0.085 -0.506 2.627 255 255 255
0.339 -0.596 1.794 255 255 255
-0.508 0.008 0.888 255 255 255
-0.706 -0.476 2.458 0 0 0
0.482 -0.516 1.841 255 255 255
0.419 -0.345 1.885 255 255 255
-0.124 -1.267 2.381 255 255 255
0.071 0.634 1.558 255 255 255
-0.584 -0.902 2.354 255 255 255
-0.426 0.408 2.25 255 255 255
0.198 0.931 2.034 255 255 255
0.438 -1.39 2.086 255 255 255
-0.143 0.252 0.529 0 0 0
0.631 -0.247 1.618 255 255 255
0.692 -0.033 1.413 255 255 255
-0.257 -1.372 2.316 255 255 255
-0.384 0.097 0.666 255 255 255
0.015 -0.203 2.57 255 255 255
0.366 -0.32 1.88 255 255 255
-0.109 0.122 0.308 255 255 255
0.118 -1.109 2.312 255 255 255
-0.201 0.108 0.763 255 255 255
0.529 0.348 2.068 255 255 255
0.695 0.016 1.405 255 255 255
-0.068 -1.42 2.353 255 255 255
0.234 -0.184 1.886 255 255 255
-0.799 -0.728 2.337 0 0 0
-0.325 0.006 0.948 255 255 255
-0.34 -1.256 2.322 255 255 255
0.19 -0.94 2.329 255 255 255
0.615 -0.131 1.716 255 255 255
-0.469 0.117 2.62 255 255 255
-0.916 -1.396 2.106 255 255 255
-0.711 -0.723 2.236 0 0 0
0.081 -0.359 2.537 255 255 255
-0.543 -0.12 2.611 255 255 255
-0.296 -0.506 2.561 255 255 255
-0.253 0.55 1.803 255 255 255
-0.003 0.664 1.456 0 0 0
-0.594 -0.309 1.875 255 255 255
-0.266 0.051 0.812 0 0 0
-0.556 -0.266 1.823 255 255 255
0.577 -1.177 1.652 255 255 255
0.615 -0.65 1.626 255 255 255
-0.047 -1.124 2.446 255 255 255
-0.514 -1.598 2.164 0 0 0
-0.78 -1.568 2.097 0 0 0
0.078 -0.897 2.361 0 0 0
0.591 -0.48 1.756 0 0 0
-0.167 -1.618 2.264 255 255 255
0.271 -0.164 1.91 255 255 255
-0.68 -1.498 2.153 255 255 255
0.568 -0.31 1.86 255 255 255
