ply
format ascii 1.0
comment Created by Open3D
element vertex 1298
property double x
property double y
property double z
property uchar red
property uchar green
property uchar blue
end_header
0.382499 0.0481278 0.841 255 255 255
0.175532 -0.0503775 1.004 255 255 255
0.209772 -0.0453268 0.966 255 255 255
0.279249 0.303971 0.967 255 255 255
0.141102 0.259324 1.027 255 255 255
-0.281101 -0.160419 1.283 255 255 255
0.220852 0.070386 1.002 255 255 255
-0.365144 0.194164 1.47 255 255 255
0.0434199 0.0635056 1.05 255 255 255
-0.306329 -0.182242 1.275 0 0 0
-0.0529756 0.0354776 1.03 255 255 255
-0.115411 -0.488817 1.348 255 255 255
0.31965 0.119262 0.975 255 255 255
-0.366959 0.106584 1.917 255 255 255
-0.0389863 0.066344 1.015 255 255 255
-0.397243 0.0197194 1.322 255 255 255
0.127586 -0.110577 1.217 255 255 255
-0.670385 0.295806 1.65 255 255 255
-0.362479 0.148484 1.422 255 255 255
0.164262 -0.0132072 1.036 255 255 255
0.741966 -0.479178 1.543 255 255 255
-0.416001 -0.0741467 1.237 255 255 255
-0.307281 -0.155667 1.229 0 0 0
0.131873 -0.0949665 1.22 255 255 255
-0.0871926 0.352877 0.93 255 255 255
-0.0162613 0.086678 1.041 255 255 255
0.183597 0.226257 1.06 255 255 255
0.351294 0.162612 0.883 255 255 255
-0.151956 -0.413137 1.381 0 0 0
0.359799 0.297685 0.947 255 255 255
-0.201907 -0.359088 1.416 255 255 255
-0.160748 0.30238 0.972 255 255 255
0.0957319 0.193798 1.081 255 255 255
-0.449624 0.432038 1.668 255 255 255
-0.0347337 0.219449 1.036 255 255 255
0.0773402 0.193567 1.07 255 255 255
-0.471645 0.226563 0.921 255 255 255
-0.76893 0.218024 1.714 255 255 255
-0.162809 -0.488383 1.359 255 255 255
0.300127 -0.139581 0.934 255 255 255
0.44762 -0.477157 1.595 255 255 255
-0.209213 0.000573488 2.121 255 255 255
0.344674 0.232217 0.983 255 255 255
0.378864 0.0954573 0.836 255 255 255
-0.366113 -0.0177055 1.865 255 255 255
-0.0561654 -0.482236 1.348 255 255 255
-0.139453 0.27719 0.978 255 255 255
0.323914 -0.481756 1.378 255 255 255
-0.258172 -0.34872 1.384 255 255 255
-0.470456 0.19424 0.91 255 255 255
0.0311812 0.00386564 2.037 255 255 255
0.238201 0.333385 0.918 255 255 255
-0.0918551 -0.406782 1.39 255 255 255
-0.258167 -0.372489 1.372 255 255 255
-0.400224 -0.251795 1.27 255 255 255
0.283486 0.173242 1.022 255 255 255
0.18832 -0.201366 1.252 255 255 255
0.363049 0.237667 0.768 255 255 255
-0.316306 -0.0480618 1.991 255 255 255
0.313745 0.2409 1.034 255 255 255
-0.717289 0.21088 1.724 255 255 255
-0.00778588 -0.516919 1.33 255 255 255
-0.162099 -0.146047 1.267 255 255 255
0.00753398 0.073828 1.051 255 255 255
0.275886 0.321817 0.95 255 255 255
0.194744 -0.211891 1.254 255 255 255
-0.189531 -0.0826639 1.244 255 255 255
-0.180993 -0.0372703 2.114 255 255 255
0.282721 -0.40125 1.505 255 255 255
-0.396089 -0.0554577 1.27 255 255 255
-0.265576 -0.206811 1.299 255 255 255
0.177776 0.200091 1.077 255 255 255
-0.703351 0.290101 1.633 255 255 255
-0.0933053 -0.295632 1.378 255 255 255
0.0724135 -0.0990994 1.222 255 255 255
0.315306 0.098372 0.957 255 255 255
0.193968 -0.202916 1.249 255 255 255
0.376143 0.132189 0.836 255 255 255
0.243526 -0.351976 1.406 255 255 255
-0.163361 -0.387672 1.463 0 0 0
0.180355 -0.475029 1.378 255 255 255
0.331641 -0.175377 1.048 255 255 255
0.114696 0.31926 0.947 255 255 255
-0.421297 -0.281006 1.33 255 255 255
-0.338784 -0.0643828 1.899 255 255 255
-0.532234 0.392571 1.575 255 255 255
0.24204 -0.17369 0.963 255 255 255
0.220744 0.104402 1.032 255 255 255
-0.471104 0.318442 1.551 255 255 255
0.30373 -0.0527154 0.904 255 255 255
-0.465117 0.303042 0.935 255 255 255
0.0890517 -0.490993 1.354 255 255 255
-0.357213 -0.442668 1.375 0 0 0
0.37102 -0.486241 1.378 255 255 255
0.349284 0.317125 1.753 255 255 255
0.395722 0.0170548 0.796 255 255 255
0.0199687 0.267432 0.989 255 255 255
0.157334 0.0462418 1.046 255 255 255
0.762463 -0.520187 1.509 255 255 255
0.347589 0.0353993 0.939 255 255 255
-0.400316 0.473464 1.633 255 255 255
0.152191 0.333055 0.913 255 255 255
-0.482453 -0.00280073 2.064 255 255 255
-0.108387 0.363471 0.93 255 255 255
0.291938 -0.422449 1.502 255 255 255
-0.564956 0.444277 1.595 255 255 255
0.182525 0.0495513 1.044 255 255 255
-0.124624 -0.0300737 2.092 255 255 255
0.370084 0.219962 0.742 255 255 255
0.216733 -0.0517751 0.969 255 255 255
0.0703485 0.245373 1.929 255 255 255
0.313502 -0.513842 1.362 255 255 255
0.255263 -0.420004 1.502 255 255 255
-0.188032 0.331532 0.974 255 255 255
0.160898 -0.375848 1.445 255 255 255
-0.454952 0.343076 0.989 255 255 255
-0.147781 -0.30818 1.384 255 255 255
-0.445178 0.301303 1.022 255 255 255
0.266268 -0.0365265 0.983 255 255 255
0.182893 0.307057 0.957 255 255 255
-0.675271 0.331652 1.696 255 255 255
0.179128 0.189353 1.096 255 255 255
0.275378 0.279923 1.029 255 255 255
0.0112323 0.338469 0.932 255 255 255
0.000862868 -0.219723 1.313 255 255 255
-0.406764 0.157569 1.509 255 255 255
-0.237274 -0.216075 1.33 255 255 255
-0.264163 -0.179126 1.313 255 255 255
-0.372979 0.300557 1.563 255 255 255
0.332094 0.287388 1.799 255 255 255
0.140534 -0.351976 1.406 255 255 255
0.125399 -0.161802 1.215 255 255 255
-0.0372032 -0.0956671 1.229 255 255 255
-0.0215724 -0.314254 1.381 255 255 255
-0.0572483 0.300522 0.961 255 255 255
-0.443514 0.344544 1.022 255 255 255
0.374777 0.0590803 0.861 255 255 255
-0.348119 0.0511575 1.357 255 255 255
-0.374341 0.143518 1.831 255 255 255
0.315545 -0.192899 0.86 255 255 255
0.298193 0.339248 0.879 255 255 255
0.373605 0.225908 0.73 255 255 255
-0.0028245 0.170109 1.087 255 255 255
-0.0499872 -0.276075 1.359 255 255 255
-0.453183 0.256076 0.914 255 255 255
-0.0994646 0.0987411 0.992 255 255 255
0.144805 0.344483 0.904 255 255 255
0.201853 -0.410418 1.387 255 255 255
-0.027934 0.224073 1.034 255 255 255
0.225574 -0.232573 0.98 255 255 255
0.0884447 0.227337 1.057 255 255 255
0.376075 0.325864 1.053 255 255 255
-0.240472 -0.0656358 1.267 255 255 255
0.0691071 -0.170357 1.234 255 255 255
0.397601 0.0169691 0.792 255 255 255
-0.425036 -0.0619182 1.234 255 255 255
-0.467671 0.450217 1.655 255 255 255
-0.106244 0.257721 0.995 255 255 255
0.311079 -0.209079 0.875 255 255 255
0.60895 0.53698 1.459 255 255 255
0.255638 -0.098877 0.967 255 255 255
0.362515 0.313375 1.748 255 255 255
0.388944 0.346329 1.714 255 255 255
0.345902 -0.129753 0.832 255 255 255
0.166049 0.318768 0.941 255 255 255
0.0757501 0.230518 1.048 255 255 255
0.342956 0.10802 0.895 255 255 255
-0.146285 0.35892 0.95 255 255 255
-0.622468 0.495935 1.637 255 255 255
-0.195633 -0.484124 1.372 255 255 255
0.13171 0.248831 1.032 255 255 255
0.220126 0.101533 1.037 255 255 255
-0.127111 0.310172 0.957 255 255 255
0.0444741 0.264728 0.997 255 255 255
0.349644 0.212497 0.988 255 255 255
0.222602 -0.323229 1.362 255 255 255
-0.517163 0.196233 1.769 255 255 255
-0.152364 -0.11302 1.222 255 255 255
0.110404 0.241599 1.037 255 255 255
0.221465 0.301446 0.969 255 255 255
0.389825 0.117506 0.819 255 255 255
0.385976 0.132365 0.759 255 255 255
-0.477694 0.308498 0.924 255 255 255
0.242089 0.307057 0.957 255 255 255
-0.413775 0.0195852 1.313 255 255 255
0.362254 0.173108 0.811 255 255 255
0.057746 0.204217 1.062 255 255 255
0.360944 -0.0527657 0.814 255 255 255
-0.388335 0.449668 1.673 255 255 255
0.301483 -0.486241 1.378 255 255 255
-0.357213 -0.435956 1.375 0 0 0
0.251586 -0.324077 1.375 255 255 255
0.363595 -0.207368 0.823 255 255 255
-0.191166 -0.47296 1.372 255 255 255
-0.47266 0.35917 0.989 255 255 255
-0.112493 0.356292 0.939 255 255 255
0.23792 0.257777 1.041 255 255 255
-0.050991 0.302085 0.961 255 255 255
-0.684517 0.122851 1.978 255 255 255
-0.169172 0.344434 0.957 255 255 255
0.246999 -0.162889 0.964 255 255 255
-0.124821 -0.127251 1.225 255 255 255
-0.463232 0.372262 1.007 255 255 255
-0.465648 0.123955 0.884 255 255 255
0.232233 0.345423 0.895 255 255 255
-0.344388 0.29411 1.769 255 255 255
-0.463145 0.234326 0.928 255 255 255
-0.0253877 0.26227 1 255 255 255
0.368921 0.193527 0.867 255 255 255
0.159674 -0.162431 1.205 255 255 255
-0.230939 -0.0734749 1.26 255 255 255
-0.435671 0.366143 1.677 255 255 255
0.666616 -0.41112 1.445 255 255 255
0.386309 -0.0987768 0.79 255 255 255
-0.21463 -0.226082 1.351 255 255 255
0.183478 -0.219589 1.275 255 255 255
-0.464576 0.347913 0.913 255 255 255
-0.277834 -0.174833 1.297 255 255 255
-0.054196 0.269586 0.991 255 255 255
0.263861 0.287615 0.992 255 255 255
0.237475 -0.248905 0.951 255 255 255
-0.314557 -0.132203 1.234 255 255 255
0.284806 -0.226769 0.9 255 255 255
0.257504 0.150735 1.005 255 255 255
-0.463626 0.249455 0.917 255 255 255
0.573515 -0.56454 1.516 255 255 255
0.360179 0.271773 0.948 255 255 255
-0.252954 0.346905 1.774 255 255 255
0.020661 -0.108864 1.22 255 255 255
0.235457 0.0292076 0.988 255 255 255
0.140996 0.290551 0.991 255 255 255
0.390494 0.0473891 0.763 255 255 255
-0.44453 0.367809 1.036 255 255 255
0.0539756 -0.113879 1.21 255 255 255
0.274358 -0.21691 0.914 255 255 255
-0.0504895 0.114548 1.048 255 255 255
0.201574 0.0351332 1.02 255 255 255
0.201851 -0.140219 0.981 255 255 255
0.279069 0.296204 0.983 255 255 255
0.359162 -0.0464259 0.819 255 255 255
0.246215 0.0708666 0.986 255 255 255
-0.335595 0.17099 1.456 255 255 255
0.294343 -0.0653402 0.916 255 255 255
-0.151694 -0.448511 1.339 255 255 255
0.30596 0.0641103 0.957 255 255 255
0.220164 -0.259329 1.308 255 255 255
-0.103468 0.267682 0.984 255 255 255
-0.253666 -0.463584 1.384 0 0 0
-0.187871 -0.356154 1.432 255 255 255
0.361644 0.205633 0.928 255 255 255
0.321261 0.145118 0.947 255 255 255
-0.0310238 -0.150803 1.222 255 255 255
0.00541529 -0.425296 1.384 255 255 255
0.095778 0.219771 1.062 255 255 255
0.371974 0.0969108 0.861 255 255 255
-0.371964 -0.0288852 1.805 255 255 255
-0.360939 0.02651 1.339 255 255 255
-0.221442 -0.221895 1.339 255 255 255
0.0996027 -0.43018 1.378 255 255 255
-0.32058 -0.458431 1.362 255 255 255
0.368089 0.153924 0.738 255 255 255
0.19935 -0.196144 1.232 255 255 255
-0.184063 -0.467471 1.369 255 255 255
-0.0660988 -0.285414 1.372 255 255 255
0.376587 0.151136 0.828 255 255 255
-0.69516 0.0836862 1.893 255 255 255
0.319735 0.145265 0.938 255 255 255
0.308196 0.28952 1.831 255 255 255
0.32027 -0.466262 1.372 255 255 255
0.288257 -0.0213866 0.95 255 255 255
0.388975 -0.0547182 0.785 255 255 255
-0.378934 -0.0478969 1.289 255 255 255
-0.466835 0.12755 0.889 255 255 255
0.386123 -0.0522962 0.787 255 255 255
0.330792 0.242079 1.004 255 255 255
-0.112928 -0.218581 1.319 255 255 255
0.35723 -0.0578549 0.83 255 255 255
0.378029 0.146108 0.741 255 255 255
0.351031 0.0431607 0.851 255 255 255
0.249084 -0.417051 1.509 255 255 255
0.369807 0.168611 0.796 255 255 255
-0.12861 -0.390364 1.396 255 255 255
0.330565 0.334554 0.909 255 255 255
0.0892706 0.328787 0.939 255 255 255
0.220788 0.296894 0.98 255 255 255
-0.653559 0.417898 1.655 255 255 255
0.39178 0.0240046 0.812 255 255 255
-0.0897801 -0.374012 1.429 255 255 255
0.761615 -0.475762 1.532 255 255 255
0.301302 -0.0264096 0.91 255 255 255
0.575553 -0.534884 1.502 255 255 255
-0.000972574 0.259534 1.002 255 255 255
-0.306237 -0.00926932 2.01 255 255 255
0.034959 -0.164332 1.234 255 255 255
0.200629 0.201895 1.068 255 255 255
0.503344 -0.48287 1.65 255 255 255
-0.169459 0.0176464 2.099 255 255 255
-0.209765 -0.210225 1.348 255 255 255
0.499335 -0.552657 1.691 255 255 255
0.0311812 0.0138102 2.037 255 255 255
0.38944 0.0483193 0.821 255 255 255
-0.0302939 -0.194691 1.275 255 255 255
-0.255849 0.0142848 2.107 255 255 255
-0.330552 0.252712 1.52 255 255 255
-0.0694034 0.0553215 1.025 255 255 255
-0.0164725 0.323511 0.955 255 255 255
-0.246261 -0.110113 1.234 255 255 255
0.36574 0.279807 0.834 255 255 255
0.115304 -0.425695 1.378 255 255 255
0.271935 0.12457 0.992 255 255 255
-0.0399178 0.264728 0.997 255 255 255
0.326101 -0.111988 0.862 255 255 255
-0.56378 0.253766 1.789 255 255 255
-0.0198892 0.295443 0.97 255 255 255
-0.0877068 -0.340385 1.396 255 255 255
0.252732 -0.0583823 0.974 255 255 255
-0.375879 0.00360376 1.899 255 255 255
0.188713 -0.411306 1.39 255 255 255
-0.706448 0.413509 1.659 255 255 255
-0.392858 0.0816969 1.848 255 255 255
0.173253 0.286092 1.887 255 255 255
0.121599 0.279658 1.004 255 255 255
0.744999 -0.385992 1.484 255 255 255
-0.0890124 -0.428869 1.381 255 255 255
-0.442385 0.25809 0.972 255 255 255
0.585885 -0.445332 1.336 255 255 255
0.182938 -0.107782 0.991 255 255 255
-0.681092 0.381386 1.637 255 255 255
-0.417485 0.492077 1.607 255 255 255
-0.329337 0.0743423 1.972 255 255 255
-0.397789 0.298174 1.591 255 255 255
0.280669 0.131438 0.983 255 255 255
-0.376348 0.15435 1.784 255 255 255
0.00688141 -0.0724253 1.242 255 255 255
0.0725697 0.264953 1.004 255 255 255
-0.182856 0.354211 1.739 255 255 255
0.351576 0.346779 0.891 255 255 255
-0.17942 -0.35087 1.439 255 255 255
0.391335 0.0545808 0.777 255 255 255
0.668578 -0.444547 1.47 255 255 255
0.0733676 -0.119291 1.205 255 255 255
0.357217 0.346666 0.887 255 255 255
0.124992 0.276665 1.005 255 255 255
-0.463624 0.221686 0.932 255 255 255
0.162262 0.245948 1.034 255 255 255
0.375026 0.254352 0.935 255 255 255
-0.13985 -0.222568 1.33 255 255 255
-0.441478 0.434753 1.668 255 255 255
0.183826 -0.299297 1.354 255 255 255
-0.106438 -0.122761 1.22 255 255 255
0.211174 -0.368576 1.435 255 255 255
-0.109875 0.0672591 1.029 255 255 255
0.0363986 -0.110395 1.215 255 255 255
0.0325316 -0.404797 1.491 255 255 255
0.261706 -0.0851524 0.972 255 255 255
-0.659821 0.458081 1.664 255 255 255
0.185353 0.341574 0.908 255 255 255
-0.602986 0.470729 1.642 255 255 255
-0.0198562 -0.352921 1.419 255 255 255
0.00389322 0.260959 0.995 255 255 255
0.362979 0.196852 0.76 255 255 255
-0.17888 -0.185672 1.299 255 255 255
-0.21613 -0.100073 1.234 255 255 255
0.362019 0.313342 1.057 255 255 255
0.00274883 -0.124966 1.203 255 255 255
0.0373857 -0.404797 1.491 255 255 255
0.292781 -0.214062 0.902 255 255 255
0.587584 -0.371908 1.33 255 255 255
-0.160736 0.271545 1.055 255 255 255
0.355569 0.223324 0.779 255 255 255
0.230062 -0.105715 0.972 255 255 255
0.125385 -0.13397 1.196 255 255 255
0.393308 0.0514351 0.807 255 255 255
-0.586691 0.220502 1.779 255 255 255
-0.11875 -0.31562 1.387 255 255 255
0.632053 -0.528138 1.463 255 255 255
0.130248 0.318054 0.948 255 255 255
0.399814 0.119838 0.799 255 255 255
-0.733501 0.0758604 1.929 255 255 255
-0.344067 -0.100478 1.239 255 255 255
0.292902 -0.508287 1.359 255 255 255
0.37763 -0.0551427 0.81 255 255 255
0.18731 0.26092 1.905 255 255 255
0.156281 0.0340968 1.039 255 255 255
0.375297 0.150321 0.738 255 255 255
-0.351646 0.212744 1.837 255 255 255
0.367027 0.11585 0.856 255 255 255
0.0101504 -0.409782 1.416 255 255 255
0.416449 -0.258548 1.283 255 255 255
-0.296863 -0.254173 1.203 255 255 255
-0.316052 -0.00272746 2.01 255 255 255
0.294754 -0.468301 1.378 255 255 255
0.0348075 0.0497411 1.048 255 255 255
-0.459464 0.289058 0.939 255 255 255
0.063929 -0.019215 2.024 255 255 255
0.151656 -0.522707 1.362 0 0 0
0.365041 0.242757 0.749 255 255 255
-0.169835 0.239973 1.911 255 255 255
0.243045 0.299251 0.967 255 255 255
-0.707337 0.203638 1.734 255 255 255
0.361815 -0.0800376 0.822 255 255 255
0.0199485 0.270378 0.988 255 255 255
-0.0579438 0.0800095 1 255 255 255
0.222548 0.050464 0.995 255 255 255
-0.735988 0.11869 1.911 255 255 255
0.340618 -0.230514 0.839 255 255 255
-0.629189 0.356335 1.62 255 255 255
-0.332271 0.303101 1.563 255 255 255
0.736921 -0.402895 1.502 255 255 255
-0.176722 0.292544 1.009 255 255 255
-0.785107 0.172473 1.887 255 255 255
0.386808 -0.194819 0.799 255 255 255
-0.144795 -0.0673236 1.26 255 255 255
0.363204 0.0865525 0.884 255 255 255
0.245175 -0.107871 0.963 255 255 255
0.184045 -0.0565161 0.997 255 255 255
0.364022 -0.096242 0.812 255 255 255
0.188311 -0.0294843 2.051 255 255 255
-0.047647 0.270651 0.989 255 255 255
-0.235394 -0.0597319 1.273 255 255 255
-0.132377 -0.0234318 2.107 255 255 255
-0.219035 -0.457531 1.393 0 0 0
0.0529579 0.258418 1.004 255 255 255
-0.541258 0.222745 1.821 255 255 255
0.272874 0.092573 0.978 255 255 255
-0.464157 0.337068 0.924 255 255 255
-0.243739 -0.0750459 1.252 255 255 255
0.552207 -0.489909 1.62 255 255 255
0.265844 -0.417436 1.403 255 255 255
-0.369527 -0.22058 1.257 255 255 255
0.21468 -0.0678924 0.974 255 255 255
-0.0914771 -0.489905 1.351 255 255 255
0.222974 -0.463816 1.378 0 0 0
-0.213488 -0.0885944 1.242 255 255 255
0.211758 -0.495211 1.378 255 255 255
-0.403573 0.0571712 1.396 255 255 255
-0.103275 0.050563 1.03 255 255 255
0.109211 0.340857 0.914 255 255 255
-0.35004 -0.0302935 1.893 255 255 255
0.0788221 0.328305 0.942 255 255 255
-0.265649 0.300252 1.842 255 255 255
0.779965 -0.540239 1.524 255 255 255
-0.246246 -0.425795 1.393 0 0 0
-0.225807 -0.121964 1.232 255 255 255
0.241131 -0.310314 1.354 255 255 255
-0.697743 0.425586 1.664 255 255 255
0.165971 -0.125485 1.208 255 255 255
0.368974 0.166229 0.797 255 255 255
0.388652 0.0378144 0.825 255 255 255
0.126431 -0.0853883 1.225 255 255 255
-0.184624 -0.390948 1.39 0 0 0
-0.658043 0.477233 1.646 255 255 255
0.347107 0.186661 0.902 255 255 255
0.379622 -0.150567 0.82 255 255 255
0.107314 -0.292199 1.362 255 255 255
0.341274 -0.216779 0.844 255 255 255
0.325827 -0.027584 0.9 255 255 255
0.308346 -0.416743 1.535 255 255 255
-0.11802 0.0554295 1.027 255 255 255
0.346081 -0.179997 0.839 255 255 255
-0.331576 0.229677 1.929 255 255 255
0.0331931 0.195032 1.108 255 255 255
-0.031078 0.189218 1.085 255 255 255
0.213578 -0.0233912 0.969 255 255 255
0.20898 -0.111029 0.977 255 255 255
-0.183156 -0.067858 1.27 255 255 255
0.182716 0.314969 0.948 255 255 255
0.234402 0.24075 1.048 255 255 255
0.735943 -0.489419 1.505 255 255 255
0.302697 -0.194429 0.942 255 255 255
0.372213 0.150375 0.782 255 255 255
-0.335409 0.0490831 1.425 255 255 255
-0.0869337 -0.131238 1.225 255 255 255
0.12316 0.323362 0.941 255 255 255
0.226511 -0.197525 0.957 255 255 255
0.0187274 -0.458559 1.369 0 0 0
-0.459854 0.101103 0.873 255 255 255
0.0502567 0.217288 1.05 255 255 255
0.120025 0.288938 0.991 255 255 255
-0.525475 0.417952 1.555 255 255 255
-0.282854 -0.18873 1.291 255 255 255
0.055714 -0.119291 1.205 255 255 255
0.259844 0.135459 0.989 255 255 255
0.325749 -0.0770927 0.88 255 255 255
0.328778 -0.0947129 0.858 255 255 255
-0.468116 0.341816 0.897 255 255 255
-0.0790664 0.298647 0.96 255 255 255
-0.451252 0.297671 1.535 255 255 255
0.301194 -0.417189 1.387 255 255 255
0.12061 -0.387135 1.47 255 255 255
0.356124 0.290252 1.03 255 255 255
0.0378129 -0.0690615 2.037 255 255 255
-0.227459 -0.319261 1.403 255 255 255
0.200676 -0.00298129 0.999 255 255 255
0.197061 -0.114676 0.981 255 255 255
0.254818 0.0158488 0.958 255 255 255
0.257871 -0.119032 0.952 255 255 255
-0.186867 -0.436874 1.357 0 0 0
-0.120973 -0.0767754 1.247 255 255 255
0.190736 -0.325603 1.372 255 255 255
0.735855 -0.425038 1.52 255 255 255
0.202826 -0.195493 0.978 255 255 255
0.23015 0.10515 1.007 255 255 255
0.280003 -0.109699 0.913 255 255 255
0.3777 0.185149 0.738 255 255 255
0.24204 -0.170555 0.963 255 255 255
0.0763918 -0.0990994 1.222 255 255 255
-0.680414 0.277318 1.668 255 255 255
0.125395 -0.387135 1.47 255 255 255
-0.457574 0.320285 0.964 255 255 255
-0.180661 -0.0697595 1.267 255 255 255
-0.0555207 0.34757 0.932 255 255 255
-0.130242 0.250425 1.018 255 255 255
0.0609986 0.315965 0.951 255 255 255
-0.516889 0.492077 1.607 255 255 255
-0.529968 0.510382 1.607 255 255 255
-0.36026 0.123014 1.882 255 255 255
-0.826707 0.130718 1.905 255 255 255
0.168632 -0.0746821 1.213 255 255 255
0.00956923 0.349818 0.918 255 255 255
-0.352719 -0.109489 1.227 255 255 255
0.809075 -0.452659 1.591 255 255 255
-0.374508 -0.462579 1.381 255 255 255
-0.128458 0.0210621 2.099 255 255 255
0.304676 0.173707 1.015 255 255 255
0.49823 -0.622149 1.642 255 255 255
-0.450948 0.213361 0.97 255 255 255
0.0474386 0.343057 0.928 255 255 255
0.264337 -0.396946 1.498 255 255 255
-0.00780345 -0.240424 1.333 255 255 255
0.376403 -0.112904 0.799 255 255 255
-0.0024971 0.308341 0.961 255 255 255
-0.29382 -0.05489 1.257 255 255 255
0.368924 0.0254819 0.817 255 255 255
0.590789 -0.515199 1.516 255 255 255
-0.341498 -0.102329 1.237 255 255 255
0.312699 -0.448119 1.378 255 255 255
-0.491024 0.381025 1.591 255 255 255
-0.32058 -0.456215 1.362 255 255 255
-0.209614 0.24852 1.905 255 255 255
0.329646 0.129424 0.923 255 255 255
0.168716 -0.360371 1.412 255 255 255
-0.302344 -0.22852 1.267 255 255 255
-0.0116287 0.121898 1.083 255 255 255
-0.0975995 0.0324684 1.041 255 255 255
0.341942 0.0676148 0.9 255 255 255
0.320678 0.336382 0.902 255 255 255
0.0761075 -0.48396 1.359 255 255 255
-0.0190895 0.342651 0.931 255 255 255
0.255954 0.150398 1.025 255 255 255
0.218012 -0.460569 1.375 0 0 0
0.127975 -0.362157 1.419 255 255 255
0.0353535 -0.238801 1.324 255 255 255
0.185283 0.0617969 1.05 255 255 255
0.0550272 0.248949 1.012 255 255 255
-0.152792 0.344184 0.952 255 255 255
0.17105 -0.0795257 1.09 255 255 255
0.332344 -0.125723 0.86 255 255 255
0.363985 -0.144299 0.83 255 255 255
-0.282854 -0.180327 1.291 255 255 255
-0.359252 0.198382 1.815 255 255 255
0.699268 -0.56204 1.543 255 255 255
-0.621696 0.30506 1.642 255 255 255
-0.275225 -0.416999 1.357 0 0 0
-0.151236 -0.125667 1.229 255 255 255
-0.060554 -0.462493 1.348 255 255 255
0.0561978 -0.508287 1.359 255 255 255
-0.626492 0.219932 1.729 255 255 255
0.164506 0.218086 1.966 255 255 255
0.308883 -0.494042 1.381 255 255 255
-0.460124 0.235836 0.928 255 255 255
0.395881 0.116932 0.815 255 255 255
-0.481066 0.286026 1.567 255 255 255
0.240713 0.131019 1.017 255 255 255
0.235679 -0.245551 0.95 255 255 255
0.0293461 -0.522749 1.345 0 0 0
0.395022 0.0607898 0.792 255 255 255
0.742215 -0.442194 1.528 255 255 255
-0.127786 -0.344286 1.412 255 255 255
-0.253126 -0.0730869 2.057 255 255 255
0.416772 0.38405 1.637 255 255 255
0.287736 -0.102278 0.9 255 255 255
-0.274536 -0.464589 1.387 255 255 255
0.247794 0.00495143 0.961 255 255 255
-0.458581 0.177512 0.931 255 255 255
-0.0740322 0.35839 0.917 255 255 255
0.0257513 0.232584 1.027 255 255 255
0.377704 -0.114205 0.799 255 255 255
0.359156 0.278505 0.966 255 255 255
-0.332349 0.122165 1.412 255 255 255
0.248727 -0.335207 1.384 255 255 255
0.0817528 -0.155614 1.213 255 255 255
-0.0942243 0.247227 1.005 255 255 255
-0.481538 0.273485 1.629 255 255 255
0.23991 0.235955 1.929 255 255 255
0.223629 -0.203967 0.958 255 255 255
0.168658 -0.0682136 1.002 255 255 255
0.16704 0.0905081 1.087 255 255 255
0.166064 -0.088383 2.024 255 255 255
0.719092 0.528768 1.456 255 255 255
0.21057 -0.149186 0.977 255 255 255
0.384795 0.13136 0.814 255 255 255
-0.0592095 -0.0916671 1.229 255 255 255
0.060333 -0.381863 1.459 255 255 255
-0.0236134 -0.293701 1.369 255 255 255
-0.720941 0.14806 1.929 255 255 255
0.00426493 0.143972 1.09 255 255 255
0.0105089 -0.388467 1.466 255 255 255
0.712368 0.549968 1.419 255 255 255
0.119921 0.343391 0.905 255 255 255
-0.664221 0.274171 1.682 255 255 255
0.637602 -0.447687 1.412 255 255 255
0.335954 -0.121577 0.841 255 255 255
0.248081 -0.226029 0.927 255 255 255
-0.725038 0.177174 2.01 255 255 255
-0.368572 0.0421372 1.351 255 255 255
0.205167 -0.188354 0.974 255 255 255
0.639825 0.529857 1.459 255 255 255
0.222324 0.0326201 0.994 255 255 255
-0.547361 0.51197 1.612 255 255 255
-0.15385 -0.0615122 1.267 255 255 255
0.372031 -0.405173 1.416 255 255 255
-0.333775 0.286621 1.659 255 255 255
0.211925 0.244075 1.055 255 255 255
-0.349106 0.00250308 1.319 255 255 255
-0.227614 -0.39321 1.39 255 255 255
0.103636 -0.46403 1.372 255 255 255
0.498051 -0.565331 1.696 255 255 255
0.378816 0.0497318 0.845 255 255 255
0.220744 -0.236517 1.032 255 255 255
0.164506 0.214887 1.966 255 255 255
-0.552133 0.336944 1.603 255 255 255
-0.00587448 -0.422616 1.39 255 255 255
0.0659559 -0.466059 1.378 255 255 255
-0.0955484 -0.302359 1.378 255 255 255
-0.155869 -0.132203 1.234 255 255 255
-0.239108 -0.483999 1.378 0 0 0
-0.203996 0.366917 0.967 255 255 255
0.52209 -0.386574 1.351 255 255 255
0.370878 0.310674 1.048 255 255 255
-0.121531 -0.323786 1.393 255 255 255
-0.114676 0.0604433 1.027 255 255 255
-0.350156 -0.0271295 1.299 255 255 255
-0.0737539 -0.406782 1.39 255 255 255
-0.240286 -0.0581031 2.121 255 255 255
0.357899 0.324766 1.055 255 255 255
0.133915 0.336403 0.91 255 255 255
0.74667 0.515765 1.473 255 255 255
0.38406 -0.0891642 0.796 255 255 255
-0.443693 0.461161 1.646 255 255 255
0.359903 0.1713 0.751 255 255 255
0.0250877 0.205756 1.07 255 255 255
0.226748 0.305819 0.958 255 255 255
0.210884 -0.342705 1.387 255 255 255
-0.065617 -0.438483 1.362 0 0 0
-0.253508 -0.525979 1.359 0 0 0
0.0474806 0.279544 0.992 255 255 255
0.21445 0.0245569 0.995 255 255 255
0.257479 -0.0236568 0.98 255 255 255
0.311401 -0.0947058 0.884 255 255 255
0.298086 0.285703 1.044 255 255 255
-0.334101 0.0383268 1.372 255 255 255
0.180652 0.246391 1.043 255 255 255
-0.785164 0.213066 1.719 255 255 255
0.295331 0.339248 0.879 255 255 255
-0.11078 0.295185 0.964 255 255 255
0.29968 0.0714422 0.972 255 255 255
-0.348006 0.184267 1.882 255 255 255
0.0639902 -0.330703 1.384 255 255 255
-0.515409 0.252947 1.763 255 255 255
0.330835 -0.404253 1.535 255 255 255
0.352748 0.270187 0.97 255 255 255
-0.720095 0.21088 1.724 255 255 255
-0.379175 -0.031309 1.297 255 255 255
0.139226 0.339348 0.906 255 255 255
-0.416325 -0.0838714 1.232 255 255 255
0.262245 -0.0758175 0.974 255 255 255
-0.0324203 0.297677 0.967 255 255 255
0.0882248 0.337017 0.928 255 255 255
0.232479 0.274755 1.01 255 255 255
0.133877 0.305848 0.963 255 255 255
-0.640088 0.304782 1.655 255 255 255
0.697986 -0.578196 1.513 255 255 255
0.152025 0.32848 0.921 255 255 255
-0.0436636 0.288144 0.972 255 255 255
-0.00361962 -0.41446 1.393 255 255 255
0.137066 -0.145648 1.196 255 255 255
-0.280405 0.317572 1.821 255 255 255
-0.7227 0.16635 1.853 255 255 255
0.37698 -0.116083 0.803 255 255 255
0.522559 -0.55651 1.686 255 255 255
0.344933 0.178248 0.904 255 255 255
-0.557989 0.535601 1.62 255 255 255
0.103088 -0.0658276 1.232 255 255 255
0.538066 0.501383 1.473 255 255 255
0.308883 -0.453589 1.381 255 255 255
-0.585436 0.221122 1.784 255 255 255
0.140978 0.229467 1.051 255 255 255
0.305347 -0.114196 0.879 255 255 255
-0.244033 -0.0856358 2.037 255 255 255
-0.494796 0.4617 1.629 255 255 255
0.304137 -0.209295 0.888 255 255 255
-0.343219 -0.0538534 1.281 255 255 255
-0.434719 0.415514 1.124 255 255 255
-0.065873 0.046844 1.022 255 255 255
0.202004 0.244538 1.057 255 255 255
-0.188613 -0.0696494 1.265 255 255 255
0.585145 -0.391897 1.31 255 255 255
0.306444 0.332976 0.921 255 255 255
0.0974342 -0.267259 1.348 255 255 255
-0.00355726 -0.440737 1.369 0 0 0
0.259811 -0.506366 1.348 255 255 255
0.150865 -0.47847 1.375 255 255 255
0.0583276 0.200136 1.947 255 255 255
0.136456 0.197681 1.083 255 255 255
0.173551 0.283992 1.002 255 255 255
0.0210936 -0.315814 1.378 255 255 255
0.300035 -0.21338 0.893 255 255 255
-0.23339 -0.468088 1.384 0 0 0
-0.111977 -0.317877 1.387 255 255 255
-0.119961 -0.290513 1.375 255 255 255
-0.463489 0.195539 0.96 255 255 255
0.339306 0.247367 0.986 255 255 255
0.316273 -0.0291131 0.902 255 255 255
-0.124766 0.343822 0.951 255 255 255
-0.196782 -0.306573 1.429 255 255 255
0.511411 -0.396795 1.419 255 255 255
-0.444476 0.30661 1.555 255 255 255
-0.318341 -0.0737665 1.265 255 255 255
0.0703594 -0.396703 1.47 255 255 255
0.36762 0.165424 0.775 255 255 255
0.0517734 -0.289344 1.359 255 255 255
0.152101 -0.508682 1.366 0 0 0
-0.295191 -0.0126276 2.024 255 255 255
-0.668837 0.31082 1.673 255 255 255
0.280574 -0.15987 0.994 255 255 255
-0.0779344 -0.498673 1.345 255 255 255
0.0778586 -0.520684 1.351 255 255 255
0.322483 0.0799434 0.924 255 255 255
-0.423806 -0.301949 1.366 255 255 255
0.0719803 -0.180558 1.249 255 255 255
0.184968 -0.047016 1.002 255 255 255
-0.483836 0.258997 1.655 255 255 255
-0.281918 -0.494999 1.39 255 255 255
-0.134859 -0.238211 1.345 255 255 255
0.355426 0.0560241 0.879 255 255 255
-0.300009 -0.109935 1.232 255 255 255
-0.236154 -0.462331 1.387 0 0 0
-0.113918 0.295185 0.964 255 255 255
-0.38427 0.274823 1.547 255 255 255
-0.472065 0.330218 1.571 255 255 255
0.357091 0.0369581 0.836 255 255 255
-0.200385 0.323435 0.988 255 255 255
-0.109043 0.0970289 0.991 255 255 255
0.0915302 0.0369587 1.073 255 255 255
-0.070616 0.351742 0.931 255 255 255
-0.238663 0.30325 1.842 255 255 255
0.243101 -0.181148 0.961 255 255 255
0.367813 0.191366 0.845 255 255 255
-0.0341973 0.0799498 1.02 255 255 255
0.124277 -0.425695 1.378 255 255 255
-0.0465016 -0.43976 1.387 0 0 0
0.304953 -0.230845 0.882 255 255 255
0.264 0.213744 1.899 255 255 255
-0.223089 -0.386424 1.39 0 0 0
-0.165746 0.279721 1.865 255 255 255
-0.0506196 0.324725 0.954 255 255 255
-0.832909 0.0842167 1.905 255 255 255
0.357565 0.248018 0.789 255 255 255
-0.607217 0.239865 1.691 255 255 255
-0.678062 0.231429 1.71 255 255 255
-0.0778648 0.248862 1.005 255 255 255
0.0342702 0.198046 1.085 255 255 255
-0.254331 -0.0867127 1.244 255 255 255
0.374063 0.332262 1.057 255 255 255
0.0432545 0.0547528 1.046 255 255 255
-0.0776035 -0.304602 1.378 255 255 255
-0.79593 0.0770402 1.959 255 255 255
-0.00927002 -0.0782991 1.239 255 255 255
-0.179212 -0.457554 1.366 255 255 255
0.0720523 -0.475338 1.366 255 255 255
0.349458 0.0714485 0.893 255 255 255
0.586549 -0.491373 1.439 255 255 255
0.177102 0.308227 0.951 255 255 255
0.0245319 -0.112372 1.215 255 255 255
-0.103168 -0.406782 1.39 255 255 255
0.336972 -0.22582 0.847 255 255 255
-0.0236134 -0.291473 1.369 255 255 255
-0.337827 -0.460787 1.369 255 255 255
-0.121179 -0.444153 1.339 255 255 255
0.129823 -0.0620333 2.024 255 255 255
-0.229645 -0.212702 1.336 255 255 255
0.19325 -0.0831698 0.986 255 255 255
0.0148971 0.165105 1.089 255 255 255
0.363985 -0.140247 0.83 255 255 255
0.117833 0.30802 0.96 255 255 255
0.143184 0.190788 1.094 255 255 255
0.256709 -0.415153 1.403 255 255 255
0.350912 0.0554632 0.893 255 255 255
0.175426 0.317574 0.942 255 255 255
0.0914194 -0.338922 1.39 255 255 255
-0.873562 0.130306 1.899 255 255 255
0.53445 -0.414706 1.425 255 255 255
-0.139083 0.263249 1.01 255 255 255
0.204418 -0.152522 0.978 255 255 255
0.269804 -0.0154748 0.967 255 255 255
0.239897 -0.0768463 0.967 255 255 255
0.344711 0.152657 0.892 255 255 255
-0.0357755 -0.0667359 1.249 255 255 255
0.273506 0.274717 1.041 255 255 255
-0.169131 -0.224074 1.339 255 255 255
-0.0993294 0.247719 1.007 255 255 255
0.183574 -0.150081 1.05 255 255 255
-0.145607 -0.353082 1.429 255 255 255
0.542544 -0.621963 1.607 255 255 255
0.753092 -0.57024 1.505 255 255 255
0.0534584 0.276879 1.887 255 255 255
-0.346394 -0.125174 1.205 0 0 0
0.362645 0.174664 0.806 255 255 255
0.00680938 -0.0936671 1.229 255 255 255
0.331571 -0.121242 0.858 255 255 255
-0.361942 0.199561 1.799 255 255 255
0.202289 -0.341184 1.39 255 255 255
0.0241134 -0.213153 1.299 255 255 255
0.25686 0.0452796 0.954 255 255 255
0.12619 -0.220508 1.305 255 255 255
-0.385525 -0.0581133 1.283 255 255 255
-0.162309 -0.105065 1.222 255 255 255
0.276809 -0.459331 1.378 255 255 255
-0.0148754 -0.132797 1.203 255 255 255
0.269572 -0.366241 1.435 255 255 255
-0.140962 0.26878 1 255 255 255
0.656117 -0.580658 1.513 255 255 255
-0.619023 0.302388 1.642 255 255 255
0.1155 -0.499806 1.354 255 255 255
0.36853 0.172668 0.785 255 255 255
-0.323228 0.393741 1.633 255 255 255
-0.432617 -0.284175 1.345 255 255 255
0.323636 0.085865 0.923 255 255 255
0.171426 0.349114 0.897 255 255 255
-0.0549321 -0.296577 1.372 255 255 255
-0.0319291 -0.00942611 2.044 255 255 255
-0.0343649 0.0569896 1.025 255 255 255
-0.207698 -0.269381 1.393 255 255 255
0.365367 0.272106 0.815 255 255 255
0.335135 0.174398 0.947 255 255 255
-0.0849316 0.0890553 0.992 255 255 255
0.140054 -0.284502 1.357 255 255 255
-0.149725 -0.166665 1.267 255 255 255
-0.435848 0.347005 1.06 255 255 255
0.169312 0.227337 1.057 255 255 255
0.368944 -0.19994 0.82 255 255 255
0.126669 0.2953 0.98 255 255 255
0.281563 -0.100491 0.938 255 255 255
0.260616 -0.229811 0.918 255 255 255
-0.0275457 0.189218 1.085 255 255 255
0.596807 -0.58066 1.494 255 255 255
0.162626 0.138269 2.064 255 255 255
-0.440609 0.406995 1.059 255 255 255
-0.438559 0.390861 1.106 255 255 255
0.573108 -0.534884 1.502 255 255 255
-0.266301 -0.159896 1.313 255 255 255
-0.584593 0.343909 1.599 255 255 255
-0.588351 0.249369 1.758 255 255 255
0.24823 -0.0156028 0.975 255 255 255
0.53327 0.491795 1.473 255 255 255
0.365337 0.183917 0.83 255 255 255
0.2252 0.344351 0.896 255 255 255
0.185479 -0.368576 1.435 255 255 255
-0.356479 0.0502739 1.911 255 255 255
0.198813 0.11246 1.077 255 255 255
0.268281 -0.187359 0.945 255 255 255
0.334305 0.241529 0.995 255 255 255
0.097549 -0.116135 1.213 255 255 255
-0.482206 0.311506 0.924 255 255 255
0.174638 0.212333 1.972 255 255 255
-0.346191 -0.0853691 1.254 255 255 255
0.119908 -0.268449 1.354 255 255 255
0.169439 0.287443 0.997 255 255 255
0.546281 -0.388773 1.351 255 255 255
-0.115114 0.345823 0.948 255 255 255
0.596807 -0.578229 1.494 255 255 255
0.142222 -0.43018 1.378 255 255 255
0.0277624 -0.308414 1.375 255 255 255
-0.837648 0.163246 1.923 255 255 255
0.166612 -0.215101 1.273 255 255 255
0.108219 -0.164723 1.222 255 255 255
-0.321172 0.322733 1.784 255 255 255
-0.220812 -0.239005 1.362 255 255 255
0.37365 0.318404 1.051 255 255 255
-0.00792328 0.0502632 1.059 255 255 255
0.382795 0.351155 1.724 255 255 255
-0.0399001 -0.409927 1.393 255 255 255
-0.128264 -0.0823317 1.239 255 255 255
0.323433 0.134331 0.958 255 255 255
-0.436491 0.373921 1.083 255 255 255
-0.151392 -0.200469 1.299 255 255 255
0.189327 -0.450362 1.378 0 0 0
0.189505 -0.00615954 2.064 255 255 255
0.00250434 0.198271 1.096 255 255 255
0.24032 0.340735 0.898 255 255 255
-0.388298 -0.0609924 1.799 255 255 255
0.212941 0.296102 0.988 255 255 255
0.303726 -0.472786 1.378 255 255 255
-0.0311353 0.205487 1.087 255 255 255
0.191388 -0.344187 1.393 255 255 255
0.257871 -0.126778 0.952 255 255 255
-0.590491 0.298804 1.637 255 255 255
-0.446527 0.35036 1.01 255 255 255
0.349955 0.0437186 0.862 255 255 255
-0.297752 -0.450787 1.359 255 255 255
0.420398 -0.543211 1.498 255 255 255
0.284915 -0.253065 0.905 255 255 255
-0.444442 0.258063 1.009 255 255 255
-0.228528 0.245519 1.882 255 255 255
0.231808 0.243229 1.044 255 255 255
-0.212903 -0.226584 1.354 255 255 255
0.0318168 -0.280085 1.357 255 255 255
0.229588 0.264457 1.034 255 255 255
0.36667 -0.426218 1.387 255 255 255
-0.455051 0.0235216 2.017 255 255 255
-0.0494273 -0.335959 1.406 255 255 255
-0.388403 -0.00558059 1.87 255 255 255
-0.0671368 -0.469074 1.348 255 255 255
0.227998 0.0892039 1.012 255 255 255
0.388291 0.0760701 0.863 255 255 255
-0.335549 -0.0251889 1.308 255 255 255
0.173165 0.169026 2.03 255 255 255
-0.330552 -0.0676863 1.905 255 255 255
0.524185 -0.408275 1.435 255 255 255
-0.142964 -0.401901 1.381 255 255 255
-0.0127171 -0.408538 1.396 255 255 255
0.210456 0.23182 1.947 255 255 255
0.226519 0.120007 1.051 255 255 255
0.21057 -0.0808207 0.977 255 255 255
-0.374497 -0.195607 1.281 255 255 255
-0.661483 0.337126 1.682 255 255 255
0.291613 -0.405845 1.513 255 255 255
-0.22221 -0.180712 1.357 255 255 255
0.249099 0.00807075 0.96 255 255 255
0.220928 0.0391296 0.995 255 255 255
0.346337 0.180389 0.9 255 255 255
0.379884 -0.0566003 0.812 255 255 255
-0.860418 0.12802 1.911 255 255 255
0.377449 0.142166 0.793 255 255 255
0.235209 -0.443314 1.384 255 255 255
-0.309725 0.413876 1.705 255 255 255
0.292131 -0.247273 0.9 255 255 255
0.0728564 0.0231611 1.081 255 255 255
0.535804 -0.430712 1.48 255 255 255
-0.134055 0.348465 0.951 255 255 255
-0.440743 0.3669 1.043 255 255 255
0.268572 -0.108756 0.957 255 255 255
0.681171 -0.397664 1.456 255 255 255
-0.814114 0.201395 1.739 255 255 255
-0.536892 0.601508 1.62 255 255 255
-0.684591 0.172778 1.997 255 255 255
0.367965 0.198014 0.755 255 255 255
-0.113501 -0.140008 1.232 255 255 255
0.368894 -0.186555 0.814 255 255 255
0.39152 0.0846253 0.798 255 255 255
-0.35993 0.133653 1.412 255 255 255
0.345017 0.329722 0.912 255 255 255
0.258923 -0.217212 0.928 255 255 255
0.328297 -0.514921 1.359 255 255 255
-0.0568844 0.20188 1.106 255 255 255
-0.165021 -0.510498 1.359 255 255 255
0.102733 -0.41583 1.39 255 255 255
-0.0945845 -0.0706876 1.247 255 255 255
-0.496011 0.266184 1.633 255 255 255
0.189964 -0.172811 0.994 255 255 255
0.361328 0.296956 0.935 255 255 255
0.160991 0.345954 0.904 255 255 255
-0.461116 0.333203 0.93 255 255 255
0.187317 0.334422 0.925 255 255 255
0.32367 -0.203402 0.863 255 255 255
0.368894 0.00949261 0.814 255 255 255
-0.389274 0.028689 1.339 255 255 255
0.245223 0.120089 0.995 255 255 255
-0.202159 0.349879 0.981 255 255 255
-0.398868 0.051723 1.372 255 255 255
0.542827 -0.562788 1.664 255 255 255
-0.303117 0.313573 1.815 255 255 255
-0.272271 -0.0791207 1.252 255 255 255
-0.363149 0.176728 1.805 255 255 255
-0.457145 0.162194 0.913 255 255 255
-0.145528 -0.30818 1.384 255 255 255
-0.805769 0.266592 1.686 255 255 255
0.378824 0.113271 0.827 255 255 255
-0.166249 -0.454729 1.351 255 255 255
0.329121 -0.0216532 0.897 255 255 255
0.2252 0.345809 0.896 255 255 255
-0.133152 -0.1478 1.247 255 255 255
-0.661467 0.240574 1.696 255 255 255
-0.0803681 -0.324648 1.387 255 255 255
-0.221303 -0.330586 1.393 255 255 255
0.736318 -0.561694 1.563 255 255 255
-0.134081 0.248083 1.022 255 255 255
0.357846 -0.0874208 0.816 255 255 255
0.0111359 0.344586 0.924 255 255 255
-0.117569 -0.0670031 1.254 255 255 255
0.620825 0.541729 1.459 255 255 255
0.284555 -0.422302 1.528 255 255 255
-0.46443 0.361176 0.999 255 255 255
0.389179 -0.0959621 0.788 255 255 255
0.35936 0.126335 0.861 255 255 255
0.188999 -0.352727 1.409 255 255 255
0.114665 0.246136 1.935 255 255 255
-0.438573 0.357401 1.05 255 255 255
-0.389094 -0.0621919 1.281 255 255 255
0.388745 0.00675084 0.803 255 255 255
0.360133 0.288692 0.928 255 255 255
0.238812 0.229707 1.06 255 255 255
-0.347735 0.280179 1.848 255 255 255
-0.0818512 0.356956 0.921 255 255 255
-0.43623 0.312684 1.599 255 255 255
0.313162 -0.0909014 0.889 255 255 255
0.0479065 -0.418055 1.375 255 255 255
-0.629715 0.272996 1.642 255 255 255
-0.595772 0.252274 1.682 255 255 255
0.19646 -0.0350334 0.986 255 255 255
-0.270023 0.310378 1.831 255 255 255
-0.140602 -0.202271 1.297 255 255 255
-0.398347 0.249003 1.543 255 255 255
-0.342763 -0.112835 1.22 255 255 255
-0.44684 0.260829 1.007 255 255 255
0.133249 -0.441392 1.378 255 255 255
-0.202422 0.365343 0.967 255 255 255
-0.437538 0.379885 1.09 255 255 255
0.331324 0.324524 0.972 255 255 255
-0.48071 0.375264 0.989 255 255 255
0.359771 0.254062 0.951 255 255 255
-0.462976 0.268183 1.629 255 255 255
0.214239 -0.0867342 0.972 255 255 255
0.302313 0.212038 1.041 255 255 255
0.600588 0.552462 1.456 255 255 255
0.375519 0.0187651 0.814 255 255 255
-0.336107 -0.2603 1.232 0 0 0
-0.344136 0.198286 1.929 255 255 255
0.127363 0.327602 0.927 255 255 255
0.364808 0.261809 0.788 255 255 255
-0.260425 -0.483854 1.384 0 0 0
-0.224052 -0.369918 1.396 255 255 255
0.190324 0.0152445 1.022 255 255 255
0.375456 -0.189827 0.811 255 255 255
0.305694 -0.12435 0.88 255 255 255
0.400476 -0.0304466 0.785 255 255 255
0.0129272 0.327812 0.945 255 255 255
0.0405984 0.243093 1.022 255 255 255
0.320027 -0.0491124 0.892 255 255 255
0.158336 -0.0794079 1.225 255 255 255
0.280564 -0.106377 0.91 255 255 255
0.667776 0.540833 1.463 255 255 255
0.204113 -0.308793 1.357 255 255 255
0.0753159 0.0419218 1.066 255 255 255
0.363574 0.174428 0.811 255 255 255
0.263236 -0.144363 0.966 255 255 255
0.0222976 0.319061 0.951 255 255 255
0.393105 0.0698438 0.778 255 255 255
0.200894 0.0403094 1.025 255 255 255
-0.439938 -0.10885 1.198 255 255 255
0.237823 0.153054 1.079 255 255 255
0.402516 0.105498 0.789 255 255 255
0.259074 -0.0155868 0.974 255 255 255
-0.364105 0.0792452 1.935 255 255 255
-0.0206478 0.254274 1.007 255 255 255
-0.453183 0.260538 0.914 255 255 255
0.367535 -0.0499317 0.811 255 255 255
-0.375103 0.109735 1.4 255 255 255
0.394116 -0.100065 0.78 255 255 255
-0.777314 0.204225 1.739 255 255 255
0.235269 0.289813 0.994 255 255 255
-0.260954 -0.102329 1.237 255 255 255
-0.289612 -0.138787 1.239 255 255 255
-0.366153 0.265777 1.524 255 255 255
0.186915 -0.174604 0.995 255 255 255
0.236982 0.0417719 0.981 255 255 255
-0.0233051 0.10824 1.053 255 255 255
0.164178 -0.409927 1.393 255 255 255
0.548878 -0.55762 1.595 255 255 255
0.555077 -0.388773 1.351 255 255 255
-0.327652 -0.0314297 1.302 255 255 255
0.210084 0.268977 1.013 255 255 255
-0.442428 -0.0343261 1.947 255 255 255
-0.474244 0.294855 0.938 255 255 255
0.275426 0.342616 0.884 255 255 255
0.0345275 0.269586 0.991 255 255 255
-0.319284 -0.133667 1.229 255 255 255
-0.0489124 0.328346 0.951 255 255 255
-0.328913 -0.409547 1.369 255 255 255
0.354028 -0.19745 0.832 255 255 255
0.523558 -0.596879 1.646 255 255 255
0.394025 -0.00878552 0.79 255 255 255
-0.406182 0.375447 1.646 255 255 255
-0.310757 -0.028708 1.997 255 255 255
-0.00106187 0.124917 1.094 255 255 255
-0.00561989 0.312707 0.96 255 255 255
0.198456 0.27776 1.893 255 255 255
-0.314516 -0.204264 1.283 0 0 0
-0.00799663 -0.462 1.366 255 255 255
0.10448 -0.272856 1.354 255 255 255
0.215312 0.0295327 0.999 255 255 255
-0.216118 -0.0166843 2.121 255 255 255
-0.725027 0.380804 1.646 255 255 255
-0.371242 -0.237469 1.249 255 255 255
-0.214962 -0.408538 1.396 0 0 0
0.0589707 0.0482649 1.053 255 255 255
0.362427 0.246443 0.772 255 255 255
-0.0842466 0.270884 0.984 255 255 255
0.0949663 0.233331 1.053 255 255 255
-0.0281772 0.0274389 1.043 255 255 255
0.300543 -0.427548 1.384 255 255 255
0.290707 0.343148 0.878 255 255 255
-0.48429 0.391725 1.603 255 255 255
-0.463154 0.331412 0.925 255 255 255
-0.242091 -0.271252 1.357 255 255 255
0.308523 -0.097583 0.884 255 255 255
0.239945 0.0995374 1 255 255 255
-0.20366 -0.433363 1.381 255 255 255
0.329426 0.311987 1.041 255 255 255
-0.243769 -0.220404 1.33 255 255 255
-0.44488 0.276057 0.974 255 255 255
0.372596 0.0832021 0.879 255 255 255
0.168977 -0.247419 1.324 255 255 255
-0.718272 0.161358 1.865 255 255 255
0.395612 0.0857479 0.773 255 255 255
-0.347811 0.25825 1.509 255 255 255
0.225497 -0.0453268 0.966 255 255 255
0.196767 -0.178505 1.169 255 255 255
-0.461604 0.169622 0.913 255 255 255
0.351647 -0.182074 0.836 255 255 255
0.38051 -0.103153 0.794 255 255 255
-0.22376 -0.0202024 2.128 255 255 255
-0.297314 -0.421416 1.357 255 255 255
-0.130771 -0.240936 1.348 255 255 255
0.180327 0.0550145 1.051 255 255 255
0.204418 -0.154114 0.978 255 255 255
0.329144 0.226243 0.999 255 255 255
0.702465 -0.565592 1.539 255 255 255
-0.130408 0.354705 0.947 255 255 255
0.186728 -0.137224 0.994 255 255 255
-0.274477 0.329426 1.821 255 255 255
-0.444632 0.287551 0.97 255 255 255
-0.00710096 -0.110213 1.213 255 255 255
0.175643 -0.281357 1.342 255 255 255
-0.360443 0.430945 1.633 255 255 255
0.184036 -0.318904 1.372 255 255 255
0.0365551 -0.449648 1.369 255 255 255
0.350806 -0.216925 0.834 255 255 255
-0.205934 -0.3305 1.412 255 255 255
0.237283 -0.230238 0.938 255 255 255
0.205333 -0.408207 1.477 255 255 255
-0.362479 0.14617 1.422 255 255 255
-0.385367 0.149665 1.456 255 255 255
-0.0941506 0.358119 0.924 255 255 255
0.389471 -0.14964 0.761 255 255 255
-0.173534 0.0142848 2.107 255 255 255
0.326167 -0.415116 1.502 255 255 255
0.19074 0.335145 0.927 255 255 255
0.387309 0.0364718 0.825 255 255 255
-0.444555 0.329971 1.013 255 255 255
0.0614697 -0.432422 1.378 255 255 255
0.389492 -0.18494 1.116 255 255 255
0.0284715 0.255404 1.005 255 255 255
0.370279 -0.201274 0.82 255 255 255
0.736943 -0.531908 1.543 255 255 255
0.232876 -0.0656266 0.964 255 255 255
-0.23664 0.38817 1.739 255 255 255
-0.0767749 -0.118985 1.222 255 255 255
-0.0753946 0.0843821 0.994 255 255 255
0.833703 -0.495281 1.629 255 255 255
-0.30695 0.411101 1.705 255 255 255
0.273928 -0.114229 0.938 255 255 255
0.675537 -0.402826 1.449 255 255 255
0.106464 0.281798 1 255 255 255
-0.402155 0.0240584 1.324 255 255 255
0.0279838 0.0565629 1.048 255 255 255
0.162056 -0.451619 1.375 255 255 255
-0.365793 0.161518 1.435 255 255 255
0.22169 0.0194816 0.984 255 255 255
0.310144 -0.411755 1.439 255 255 255
-0.470521 0.193395 0.913 255 255 255
-0.450971 0.36527 1.673 255 255 255
0.191563 -0.520491 1.362 0 0 0
0.287338 -0.126829 0.908 255 255 255
0.179774 -0.0721276 2.03 255 255 255
0.381486 -0.0536252 0.807 255 255 255
0.557124 -0.525623 1.532 255 255 255
0.302603 -0.0970145 0.892 255 255 255
0.28822 -0.211099 0.955 255 255 255
-0.623188 0.212413 1.784 255 255 255
-0.259889 -0.1834 1.313 255 255 255
0.0534584 0.273809 1.887 255 255 255
-0.335627 0.079717 1.477 255 255 255
0.237882 0.127082 1.012 255 255 255
0.03041 -0.214935 1.297 255 255 255
0.245223 0.0941822 0.995 255 255 255
0.279798 0.289065 0.997 255 255 255
-0.42928 0.315226 1.612 255 255 255
-0.0607962 0.358066 0.92 255 255 255
-0.419939 -0.431664 1.39 255 255 255
0.157286 0.292458 0.992 255 255 255
-0.470365 0.447524 1.655 255 255 255
-0.0591132 -0.147426 1.227 255 255 255
0.232151 -0.170201 0.961 255 255 255
0.05963 -0.403227 1.442 255 255 255
-0.187693 -0.258602 1.396 255 255 255
-0.0238787 0.25704 1.005 255 255 255
0.803895 -0.47855 1.591 255 255 255
0.311046 0.1514 0.988 255 255 255
0.158108 0.348725 0.896 255 255 255
0.0425772 -0.510753 1.348 0 0 0
-0.0850672 -0.41583 1.39 255 255 255
0.576459 -0.543211 1.498 255 255 255
0.205004 0.000554561 2.051 255 255 255
-0.295542 -0.159976 1.247 255 255 255
-0.136467 0.0878166 1.015 255 255 255
0.396813 -0.514791 1.439 255 255 255
0.537593 -0.571277 1.673 255 255 255
-0.0932333 0.237421 1.012 255 255 255
0.564714 0.501357 1.48 255 255 255
0.318233 -0.064715 0.887 255 255 255
0.183337 -0.167679 1.002 255 255 255
-0.277273 -0.253323 1.247 255 255 255
0.257591 0.346666 0.887 255 255 255
0.310456 -0.483999 1.378 255 255 255
0.13867 -0.159167 1.21 255 255 255
0.0438908 0.347945 0.917 255 255 255
-0.0622062 -0.0728335 1.249 255 255 255
0.2057 -0.200479 1.234 255 255 255
0.299918 -0.208497 0.897 255 255 255
-0.0126624 -0.420354 1.39 255 255 255
-0.0375916 0.0584859 1.022 255 255 255
0.29648 -0.0475562 0.918 255 255 255
0.127073 -0.355019 1.409 255 255 255
0.0467627 0.289626 0.977 255 255 255
-0.588664 0.342161 1.603 255 255 255
0.245393 -0.238376 0.934 255 255 255
0.245205 -0.119657 0.957 255 255 255
0.354546 0.23488 0.788 255 255 255
-0.233382 -0.168171 1.345 255 255 255
-0.637733 0.411943 1.642 255 255 255
-0.100414 0.237172 1.018 255 255 255
0.583201 -0.501673 1.535 255 255 255
0.336976 -0.204061 0.854 255 255 255
0.184626 0.323706 0.942 255 255 255
0.397925 0.0941403 0.78 255 255 255
0.173765 -0.12986 1.194 255 255 255
0.352384 0.119845 0.875 255 255 255
0.178401 0.0153638 1.03 255 255 255
0.448817 -0.587129 1.563 255 255 255
0.344054 0.325135 1.029 255 255 255
0.049296 0.179694 1.966 255 255 255
-0.101239 -0.160874 1.254 255 255 255
-0.319298 -0.417542 1.366 255 255 255
0.188309 0.341574 0.908 255 255 255
0.286437 0.324393 0.944 255 255 255
0.259991 -0.447818 1.384 255 255 255
0.273274 0.216834 1.899 255 255 255
0.367943 0.0742716 0.892 255 255 255
0.110659 -0.0775408 1.227 255 255 255
0.364037 -0.225052 0.824 255 255 255
0.0287788 -0.233606 1.319 255 255 255
0.175283 -0.0441915 1.012 255 255 255
0.13439 0.229904 1.053 255 255 255
0.611326 0.539354 1.459 255 255 255
0.252303 0.0873528 0.991 255 255 255
0.339538 -0.114998 0.833 255 255 255
-0.122318 0.10541 0.994 255 255 255
0.213994 -0.071417 2.01 255 255 255
0.365956 0.29211 0.98 255 255 255
0.355641 -0.17317 0.839 255 255 255
0.295796 -0.106815 0.889 255 255 255
0.210237 -0.0226533 2.037 255 255 255
-0.147662 -0.172851 1.267 255 255 255
0.396334 0.24218 0.935 255 255 255
-0.427715 0.308119 1.616 255 255 255
0.317836 0.0697183 0.928 255 255 255
0.296462 -0.224501 0.891 255 255 255
0.37782 0.317125 1.753 255 255 255
0.0391253 0.237598 1.027 255 255 255
0.189579 0.263678 1.018 255 255 255
-0.144768 0.0611495 1.039 255 255 255
-0.343877 -0.0765015 1.893 255 255 255
-0.143077 0.0611495 1.039 255 255 255
0.349136 0.128242 0.874 255 255 255
0.0141975 -0.498327 1.362 255 255 255
-0.560156 0.157032 1.815 255 255 255
0.286431 0.0791877 0.97 255 255 255
-0.411932 -0.00573876 1.923 255 255 255
0.286604 0.0486889 0.96 255 255 255
0.0422191 0.202052 1.935 255 255 255
-0.722697 0.144019 1.917 255 255 255
-0.68694 0.129747 1.985 255 255 255
0.238408 -0.134232 0.961 255 255 255
0.267091 0.119727 0.992 255 255 255
0.0781679 0.296053 0.972 255 255 255
0.229022 -0.173329 0.961 255 255 255
