ply
format ascii 1.0
comment Created by Open3D
element vertex 1320
property double x
property double y
property double z
property uchar red
property uchar green
property uchar blue
end_header
0.433842 -0.496497 1.357 255 255 255
0.222584 0.0152893 1.025 0 0 0
0.287315 -0.00439024 0.952 255 255 255
-0.323292 0.472331 1.62 255 255 255
0.0173426 -0.367262 1.439 255 255 255
0.300173 0.283426 1 255 255 255
-0.545391 -0.439106 1.876 255 255 255
0.194349 -0.508682 1.366 255 255 255
0.149473 -0.208927 1.286 255 255 255
0.341603 0.141754 0.988 255 255 255
0.102472 0.319597 0.948 255 255 255
0.404239 0.244519 0.95 255 255 255
-0.499639 0.272256 1.758 255 255 255
0.22055 0.0645311 1.039 255 255 255
-0.593541 0.265018 1.748 255 255 255
-0.448813 0.296703 1.655 0 0 0
-0.158233 -0.224074 1.339 255 255 255
0.194235 0.249786 1.043 255 255 255
-0.929475 -0.0134636 2.158 255 255 255
0.0444092 -0.420616 1.406 0 0 0
-0.15052 -0.234355 1.348 0 0 0
-0.43189 0.400752 1.034 255 255 255
-0.837514 -0.144846 2.078 255 255 255
-0.931759 -0.426988 1.837 255 255 255
-0.0983462 0.357374 0.95 255 255 255
-0.617066 -0.159732 2.01 255 255 255
-0.988186 -0.423841 1.876 255 255 255
-0.39245 0.284882 1.041 255 255 255
-0.435193 0.0463082 0.858 255 255 255
0.043195 0.270124 1.005 255 255 255
-0.290699 0.060919 1.378 255 255 255
-0.136742 -0.19837 1.342 255 255 255
-0.140593 0.321176 0.986 0 0 0
-0.0635527 0.102958 0.986 0 0 0
-0.216942 -0.204697 1.299 0 0 0
-0.436689 0.19338 0.92 255 255 255
0.264239 0.0743822 1.012 255 255 255
-0.325391 0.32419 1.579 255 255 255
-0.433777 0.115177 0.872 255 255 255
0.397653 0.23074 0.787 255 255 255
-0.408308 0.335236 1.009 255 255 255
-0.384948 -0.503184 1.682 255 255 255
0.166482 0.225832 1.05 255 255 255
0.25096 -0.0357085 1.005 255 255 255
-0.0427428 -0.381051 1.412 0 0 0
-0.551436 0.494639 1.624 255 255 255
-0.877326 -0.464121 1.842 255 255 255
-0.0401006 -0.327691 1.4 255 255 255
0.346443 -0.161157 1.002 255 255 255
-0.452301 0.0944364 0.864 255 255 255
0.615496 -0.59536 1.62 255 255 255
0.377416 -0.402307 1.473 255 255 255
-0.484903 0.243701 0.935 0 0 0
0.364063 -0.0718397 0.904 255 255 255
0.410654 0.0642438 0.837 255 255 255
0.262234 0.0813697 1.017 255 255 255
0.347634 0.191876 1.015 255 255 255
-0.749605 0.107783 1.997 255 255 255
-0.617732 0.19346 1.744 255 255 255
-1.06604 -0.180764 2.143 255 255 255
-0.466646 0.202561 1.774 255 255 255
0.373399 0.309056 1.06 255 255 255
-0.406559 0.289215 0.981 255 255 255
0.284616 -0.0287486 0.938 255 255 255
0.381709 -0.113653 0.864 255 255 255
0.285516 0.152509 2.03 255 255 255
0.173194 0.242065 1.039 255 255 255
-0.433881 0.0341553 0.834 255 255 255
-0.680577 0.151624 1.821 255 255 255
-0.529805 0.314563 1.664 255 255 255
-0.136894 0.235955 1.929 0 0 0
0.29783 -0.108207 0.966 255 255 255
-0.631099 0.46965 1.696 255 255 255
-0.226003 -0.0916767 2.024 255 255 255
0.242852 -0.10068 1.171 255 255 255
-0.170927 -0.310537 1.336 255 255 255
-0.445063 0.295228 0.954 0 0 0
-0.465628 0.424587 1.629 0 0 0
0.117219 0.311078 0.955 255 255 255
-0.569044 0.498813 1.629 255 255 255
-0.794322 -0.386407 1.887 255 255 255
-0.432476 0.497282 1.624 255 255 255
0.110208 -0.0951222 1.222 255 255 255
0.401363 0.20453 0.81 255 255 255
0.392566 -0.14202 0.857 255 255 255
-0.0607166 0.351299 0.942 255 255 255
-0.99627 -0.0970668 2.143 255 255 255
0.302493 0.0327565 0.951 255 255 255
-0.491897 0.477287 1.637 0 0 0
-0.28397 0.0541916 1.378 255 255 255
-0.267687 0.139577 1.899 255 255 255
0.185262 -0.192314 1.273 255 255 255
0.372172 -0.191868 0.868 255 255 255
-0.0916671 0.265817 0.995 255 255 255
0.0924689 -0.450633 1.372 255 255 255
-0.220823 0.0668482 2.037 255 255 255
-0.186185 -0.253858 1.291 255 255 255
-0.311636 -0.202173 1.324 255 255 255
0.283971 0.019145 0.967 255 255 255
-0.215414 0.355566 1.774 255 255 255
-0.359166 -0.256425 1.409 255 255 255
0.290634 0.048841 0.963 255 255 255
-0.865821 -0.318674 1.923 255 255 255
0.0632973 -0.00924165 2.004 255 255 255
0.160533 -0.171461 1.242 255 255 255
0.358771 -0.0458114 0.913 255 255 255
-0.245743 0.0265382 1.997 255 255 255
-0.315176 -0.390104 1.387 255 255 255
-0.0767599 0.0743822 1.012 255 255 255
-0.0535053 -0.312451 1.393 0 0 0
0.238428 0.231008 1.066 255 255 255
-0.462709 0.274823 1.686 255 255 255
0.237162 -0.0682136 1.002 255 255 255
0.147654 -0.475338 1.366 255 255 255
0.234492 -0.0855277 1.227 255 255 255
0.0470202 0.196129 1.094 0 0 0
-0.247653 0.405387 1.575 0 0 0
-0.0912739 -0.480042 1.348 255 255 255
-0.440455 -0.503256 1.739 255 255 255
0.640671 -0.544138 1.535 0 0 0
0.384264 0.166453 0.873 255 255 255
-0.268126 -0.193262 1.322 255 255 255
0.698094 -0.556161 1.487 0 0 0
-0.114556 0.257127 1.923 255 255 255
-0.642864 -0.177995 1.959 255 255 255
-0.186634 -0.324984 1.324 255 255 255
-0.222277 -0.0559381 1.281 255 255 255
-0.328283 -0.191946 1.313 255 255 255
-0.301493 0.318243 1.575 255 255 255
0.191612 0.262536 1.02 255 255 255
-0.870688 -0.07963 2.143 255 255 255
0.349805 0.0415164 0.975 255 255 255
-0.430444 0.105123 0.871 255 255 255
0.407288 -0.161038 0.847 255 255 255
-0.16851 0.363149 1.009 255 255 255
0.268435 -0.0626267 0.991 255 255 255
0.187667 0.283142 0.999 255 255 255
0.0843078 0.319396 0.952 255 255 255
-0.0211362 0.311078 0.955 255 255 255
-0.129073 0.359574 0.96 0 0 0
-0.843057 -0.401849 1.859 255 255 255
0.140534 -0.400024 1.406 255 255 255
-0.679995 -0.366443 1.911 255 255 255
-0.599116 -0.298027 1.911 255 255 255
0.305764 -0.24195 0.942 255 255 255
-0.168768 0.201383 1.899 255 255 255
0.311479 0.276879 1.887 255 255 255
-0.27563 0.0114252 1.359 0 0 0
-0.106517 0.262383 1.013 255 255 255
-0.128057 -0.110381 1.237 255 255 255
-0.428442 0.352004 1.01 255 255 255
0.406602 0.189752 0.826 255 255 255
0.300981 0.0768891 0.961 255 255 255
0.393919 -0.0902063 0.842 255 255 255
-0.481322 0.223345 0.952 0 0 0
0.329327 0.0874706 0.957 255 255 255
0.257715 0.302714 0.963 255 255 255
-0.144494 0.24542 1.905 0 0 0
0.218022 0.184355 2.017 255 255 255
-0.777735 -0.323968 1.899 255 255 255
-0.961723 0.167424 2.136 255 255 255
-0.0530444 -0.282792 1.381 255 255 255
-0.428276 0.213107 0.941 255 255 255
0.512423 0.430277 1.563 255 255 255
-0.777177 -0.174298 2.107 255 255 255
0.417693 -0.400521 1.384 0 0 0
-0.238852 0.234265 1.941 255 255 255
-0.006217 0.14373 1.062 255 255 255
-0.317617 -0.261995 1.378 255 255 255
0.585878 -0.600137 1.633 255 255 255
-0.0314054 -0.373703 1.419 0 0 0
0.151833 -0.166745 1.237 255 255 255
-0.0741658 -0.356295 1.442 0 0 0
0.627794 -0.436665 1.31 0 0 0
-0.164778 -0.357375 1.357 0 0 0
-0.493016 0.310288 0.972 255 255 255
-0.655163 0.203016 1.753 255 255 255
-0.571174 0.498694 1.62 255 255 255
0.681663 0.558883 1.442 255 255 255
-0.416171 0.170755 1.744 255 255 255
0.0428197 -0.0656673 1.229 0 0 0
0.359328 -0.158401 0.975 255 255 255
0.257141 0.253205 1.917 255 255 255
-0.308628 -0.0626537 1.848 255 255 255
-0.312539 0.331899 1.579 255 255 255
0.10577 0.307735 0.964 255 255 255
-0.0114255 0.347593 0.924 255 255 255
-0.0912604 -0.428869 1.381 0 0 0
-0.295304 0.149665 1.456 255 255 255
-0.304389 0.0269059 1.359 0 0 0
0.0364585 -0.148205 1.217 255 255 255
0.353131 -0.201159 0.884 255 255 255
-1.09198 -0.177052 2.099 255 255 255
-0.0918541 0.307415 0.963 255 255 255
0.261539 0.338621 0.916 255 255 255
0.389577 -0.0580164 0.895 255 255 255
0.137356 0.218573 1.024 255 255 255
0.264871 0.297634 0.972 255 255 255
0.381656 0.342349 0.918 0 0 0
0.122626 0.193567 1.07 0 0 0
0.361441 0.00173831 0.916 255 255 255
-0.762952 -0.421521 1.893 255 255 255
-0.392993 0.581468 1.494 255 255 255
0.0726095 -0.0513018 1.991 255 255 255
0.0738345 0.275014 0.999 255 255 255
-0.00686834 0.352806 0.918 255 255 255
0.597349 -0.558053 1.65 255 255 255
0.589967 -0.353002 1.316 255 255 255
0.103905 0.323883 0.947 255 255 255
-0.0294385 -0.0843479 1.239 255 255 255
-0.0775004 -0.0165742 2.107 0 0 0
0.0765595 0.316298 0.952 255 255 255
-0.431477 0.387093 1.029 255 255 255
0.283545 0.161618 1.066 0 0 0
0.380126 0.226272 0.992 255 255 255
-0.141475 -0.0594504 1.267 0 0 0
0.389828 0.208482 0.934 255 255 255
0.00248377 0.18426 1.087 0 0 0
0.329461 -0.373542 1.473 255 255 255
0.352091 -0.0799525 0.896 255 255 255
-0.550333 -0.409199 1.893 255 255 255
-0.761059 -0.492761 1.815 255 255 255
-0.343757 0.0292674 1.366 0 0 0
0.10308 0.0714123 1.066 255 255 255
0.232954 0.0574899 1.034 255 255 255
0.225787 -0.0719588 1.234 0 0 0
-0.210731 -0.198356 1.313 0 0 0
0.331124 0.16299 1.01 255 255 255
-0.25465 0.117395 1.941 0 0 0
0.328416 -0.117657 0.941 255 255 255
-0.0751963 -0.263662 1.375 255 255 255
0.176401 0.228812 1.048 255 255 255
0.139412 -0.075975 1.234 0 0 0
-0.404051 -0.595742 1.753 255 255 255
0.0608248 -0.0676673 1.229 0 0 0
0.112351 -0.369231 1.456 0 0 0
0.108733 0.285713 0.991 255 255 255
0.198199 0.230078 1.046 255 255 255
-0.288756 -0.127201 1.244 0 0 0
-0.302053 0.0801373 1.882 255 255 255
0.231958 0.158645 2.024 255 255 255
-0.95256 -0.506043 1.831 255 255 255
-0.189378 0.397891 1.696 255 255 255
-0.432649 0.434057 1.655 255 255 255
-0.159208 0.0142306 2.099 255 255 255
0.244442 0.319597 0.948 255 255 255
-0.392065 0.394791 1.112 0 0 0
-0.00195097 -0.0648751 2.01 255 255 255
-0.483804 0.314269 0.96 0 0 0
0.0135155 0.286456 0.988 255 255 255
0.323778 -0.40237 1.491 0 0 0
-0.0189046 -0.445934 1.351 255 255 255
-0.192312 0.352679 1.774 255 255 255
0.00878128 -0.0993427 1.225 255 255 255
-0.23641 -0.500586 1.473 255 255 255
-0.312281 -0.131777 1.249 0 0 0
0.333454 0.0668035 0.951 255 255 255
-0.869895 -0.1224 2.099 255 255 255
-0.0727513 0.362404 0.939 255 255 255
-0.218779 -0.19364 1.31 0 0 0
-0.481538 0.49086 1.629 255 255 255
-0.0283855 0.255072 0.991 255 255 255
0.384196 -0.460787 1.369 0 0 0
0.391879 0.223763 0.981 255 255 255
-0.528993 0.506724 1.612 255 255 255
-0.442287 0.255874 0.935 255 255 255
0.161245 0.209629 1.072 255 255 255
-0.289743 0.361218 1.595 255 255 255
-0.0554522 0.322631 0.957 255 255 255
-0.0884323 -0.457332 1.372 255 255 255
0.036099 -0.1389 1.205 255 255 255
-0.80496 -0.448264 1.876 255 255 255
-0.128633 -0.254156 1.372 255 255 255
0.284463 0.122565 1.002 255 255 255
-0.729772 -0.50317 1.789 255 255 255
-0.353749 0.550983 1.524 255 255 255
-0.072003 -0.244753 1.357 0 0 0
0.122732 0.35331 0.904 255 255 255
0.371159 -0.399249 1.516 255 255 255
0.173823 0.318725 0.95 255 255 255
-0.308509 0.557838 1.509 255 255 255
-0.538218 0.486711 1.624 255 255 255
0.10721 0.265745 1.007 255 255 255
-0.200953 -0.242982 1.278 255 255 255
0.277516 0.309905 0.961 255 255 255
0.305337 0.132632 0.98 255 255 255
0.0700209 -0.144007 1.215 255 255 255
-0.211737 0.0309962 2.078 255 255 255
0.23872 0.338603 0.92 255 255 255
0.469035 -0.531212 1.396 0 0 0
-0.0745258 -0.360382 1.449 0 0 0
0.286027 -0.102763 0.974 255 255 255
-0.421789 0.316999 0.983 255 255 255
-0.285773 -0.24311 1.324 0 0 0
-1.01008 -0.0929244 2.128 255 255 255
0.0866553 -0.248068 1.351 255 255 255
-0.12498 -0.467074 1.381 255 255 255
-0.423281 0.405403 1.046 255 255 255
-0.560629 0.258138 1.779 255 255 255
-0.189804 -0.501911 1.429 0 0 0
0.270449 -0.183787 0.975 255 255 255
0.295337 0.00966309 0.963 255 255 255
-0.408988 0.187426 0.983 255 255 255
0.31019 0.250085 1.917 255 255 255
0.0572861 -0.160966 1.239 255 255 255
-0.51601 0.366267 1.629 255 255 255
-0.504182 -0.307931 1.805 0 0 0
-0.0380508 -0.0671633 1.257 0 0 0
0.342118 -0.00128231 0.945 255 255 255
-0.201362 -0.31762 1.294 0 0 0
-0.0895141 0.257127 1.923 255 255 255
0.223222 -0.203456 1.265 255 255 255
-0.00795565 -0.439729 1.359 0 0 0
0.184866 -0.126924 1.203 255 255 255
-0.748431 -0.350894 1.911 255 255 255
0.346704 0.24143 1.022 255 255 255
-0.283399 -0.0274219 1.313 255 255 255
-0.686847 -0.0682319 2.114 255 255 255
-0.803158 -0.514967 1.81 255 255 255
-0.432476 0.486711 1.624 255 255 255
-0.00754919 0.0971493 1.009 0 0 0
-0.202239 -0.25239 1.273 255 255 255
-0.518164 0.534894 1.579 255 255 255
0.00316926 -0.430732 1.387 0 0 0
-0.410009 0.378878 1.034 255 255 255
-0.226325 0.3632 1.769 255 255 255
0.275749 -0.0287793 0.939 255 255 255
0.583762 -0.582068 1.642 255 255 255
-0.036341 0.270378 0.988 255 255 255
-0.718152 -0.162299 2.085 255 255 255
-0.0280704 -0.266967 1.369 255 255 255
-0.268966 0.297931 1.865 0 0 0
-0.559577 -0.378394 1.893 255 255 255
-0.898911 -0.443471 1.831 255 255 255
-0.355379 -0.512502 1.659 255 255 255
0.0277751 -0.181956 1.273 255 255 255
-0.489097 0.29211 0.98 255 255 255
0.246715 -0.131573 0.988 255 255 255
-0.414624 0.089086 0.895 255 255 255
-0.0750917 -0.129456 1.227 255 255 255
0.215078 0.0119999 1.029 0 0 0
0.245632 0.0413631 1.01 255 255 255
-0.700311 -0.437448 1.882 255 255 255
-0.340578 0.537764 1.543 255 255 255
0.251438 0.077156 1.027 255 255 255
-0.113091 0.349106 0.957 255 255 255
-0.112494 -0.0463076 2.057 255 255 255
-0.112129 -0.116608 1.239 255 255 255
0.0300062 0.326455 0.95 255 255 255
0.0259769 0.243052 1.036 255 255 255
-0.0695091 -0.204299 1.31 255 255 255
-0.23077 0.0602184 2.037 255 255 255
-0.0636816 0.281632 0.988 255 255 255
0.141253 0.326118 1.87 255 255 255
-0.550198 -0.434385 1.882 255 255 255
-0.377625 0.306547 1.65 255 255 255
-0.0225006 0.336212 0.947 255 255 255
0.294023 -0.108543 0.969 255 255 255
-0.164614 -0.412193 1.393 0 0 0
0.328835 -0.0425321 0.974 255 255 255
0.334117 -0.034996 1.985 255 255 255
-0.467525 -0.456833 1.724 255 255 255
0.215157 -0.183321 1.254 255 255 255
0.666177 -0.344997 1.31 0 0 0
0.293291 -0.0779564 1.929 255 255 255
0.169392 -0.504976 1.362 255 255 255
0.329408 -0.209473 0.914 255 255 255
0.00387757 0.2841 0.991 255 255 255
-0.0995221 0.252434 1.935 255 255 255
-0.411203 0.232024 0.937 255 255 255
0.291804 0.0620513 2.099 255 255 255
-0.726391 -0.115568 2.099 255 255 255
-0.121394 0.323352 1.837 255 255 255
-0.967127 -0.426051 1.859 255 255 255
-0.4062 0.293302 0.984 255 255 255
-0.404635 0.270378 0.988 255 255 255
0.37066 0.0210474 0.913 255 255 255
0.629912 -0.594329 1.603 255 255 255
0.263068 -0.0845164 0.983 255 255 255
-0.722014 -0.465379 1.859 255 255 255
-0.119485 0.299708 0.984 255 255 255
0.378571 -0.433363 1.381 0 0 0
-0.888632 -0.178061 2.071 255 255 255
-0.428041 0.10064 0.869 255 255 255
-0.507169 -0.573895 1.848 255 255 255
-0.639999 0.280695 1.705 255 255 255
0.349705 0.153546 1.002 255 255 255
-0.478208 0.110411 1.876 255 255 255
0.0796907 0.22519 1.055 255 255 255
-0.196231 -0.472679 1.425 255 255 255
0.614059 0.52678 1.477 255 255 255
-0.64414 -0.145803 2.044 255 255 255
-0.708875 0.159545 1.81 255 255 255
0.129077 0.320032 1.87 255 255 255
0.848639 0.0960084 1.893 255 255 255
-0.0386971 -0.465721 1.351 255 255 255
0.377843 0.113536 0.916 255 255 255
-0.425214 0.361176 1.022 255 255 255
-0.271396 0.197334 1.494 255 255 255
0.0369835 0.341136 0.931 255 255 255
-0.223585 -0.540707 1.452 255 255 255
-0.174883 -0.212224 1.333 255 255 255
-0.0467819 0.247227 1.005 255 255 255
0.0165523 -0.137508 1.21 255 255 255
0.145691 0.253567 1.024 255 255 255
0.0646609 0.0504056 1.062 255 255 255
0.160853 -0.0596673 1.229 0 0 0
-0.282547 -0.197116 1.319 255 255 255
-0.390486 0.335216 1.659 255 255 255
0.647547 -0.515199 1.516 0 0 0
0.289775 0.043773 0.955 255 255 255
0.280091 -0.390239 1.491 255 255 255
-0.0665649 0.306458 0.96 255 255 255
0.339389 -0.0994596 0.901 255 255 255
-0.203894 0.315473 1.826 0 0 0
0.595562 -0.609668 1.616 255 255 255
0.0563333 0.192183 1.102 0 0 0
-0.788428 -0.20757 2.03 255 255 255
0.0647205 -0.0975081 1.227 255 255 255
0.252135 -0.445877 1.378 0 0 0
-1.01766 0.132394 2.189 255 255 255
-0.434344 0.390346 1.02 255 255 255
0.345097 -0.219192 0.893 255 255 255
-0.594918 -0.510757 1.859 255 255 255
-0.661473 -0.064332 2.099 255 255 255
0.13065 0.299832 0.974 255 255 255
-0.278282 -0.0271267 1.887 0 0 0
0.323872 -0.497229 1.359 255 255 255
-0.337936 0.000531578 1.966 255 255 255
-0.0904185 0.360942 1.758 255 255 255
0.252162 -0.517574 1.366 255 255 255
-0.523372 0.374902 1.587 0 0 0
0.260369 -0.0432745 0.991 255 255 255
-0.183899 -0.131566 1.247 255 255 255
-0.00910541 -0.116518 1.217 255 255 255
0.27422 0.328787 0.939 255 255 255
-0.665002 -0.117794 2.078 255 255 255
-0.149842 -0.114129 1.234 0 0 0
-0.693598 0.23197 1.714 255 255 255
-0.970173 -0.237301 2.03 255 255 255
0.381709 -0.198014 0.864 255 255 255
0.0629788 -0.0858763 1.232 255 255 255
0.639422 -0.449332 1.348 0 0 0
-0.349472 0.311633 1.607 255 255 255
-0.193385 -0.287778 1.283 255 255 255
-0.335449 -0.136168 1.252 255 255 255
0.32881 0.0606131 0.951 255 255 255
-0.248253 -0.189087 1.308 255 255 255
0.397844 -0.0865309 0.833 255 255 255
-0.273644 0.242818 1.52 255 255 255
0.398503 0.211491 0.843 255 255 255
-0.82065 -0.462046 1.87 255 255 255
-0.113918 0.227684 1.966 0 0 0
-0.412451 0.175687 0.954 255 255 255
0.375737 -0.205759 0.873 255 255 255
-0.61783 0.335331 1.571 255 255 255
0.363394 -0.052832 0.906 255 255 255
0.369346 -0.187631 0.868 255 255 255
0.355372 -0.0920365 0.886 255 255 255
-0.339784 -0.00405563 1.359 255 255 255
-0.410588 0.297803 0.983 255 255 255
0.293232 0.271023 1.027 0 0 0
-0.0991744 0.336999 0.958 255 255 255
0.65549 -0.39316 1.406 0 0 0
0.332889 -0.0243497 0.945 255 255 255
0.546895 -0.609032 1.567 255 255 255
0.362047 -0.432422 1.378 0 0 0
0.0421809 -0.181527 1.27 255 255 255
0.34087 -0.398459 1.513 255 255 255
0.333576 -0.350757 1.429 255 255 255
-0.156296 0.352898 0.994 0 0 0
0.150281 0.193798 1.081 0 0 0
0.0712388 0.0587687 1.057 255 255 255
-0.277971 -0.398261 1.416 255 255 255
0.244221 -0.314937 1.384 255 255 255
-0.422962 0.237549 1.714 255 255 255
0.25553 -0.0723028 0.991 255 255 255
0.297114 -0.523915 1.348 0 0 0
0.0577051 0.183666 1.094 0 0 0
-0.397877 0.419205 1.139 0 0 0
0.413999 -0.0733493 0.822 255 255 255
-0.190798 0.38141 1.734 255 255 255
0.135024 -0.389957 1.445 255 255 255
0.297793 0.349792 0.895 255 255 255
0.252213 -0.12786 0.972 255 255 255
0.0579025 0.315965 0.951 255 255 255
0.315503 0.34007 0.904 255 255 255
0.0258583 -0.439396 1.393 0 0 0
-0.75974 -0.223425 2.024 255 255 255
-0.10444 -0.238742 1.348 255 255 255
0.535113 0.417952 1.555 255 255 255
-0.853758 -0.358234 1.917 255 255 255
0.613728 -0.378358 1.369 0 0 0
0.123465 -0.500888 1.369 0 0 0
-0.745709 0.0461982 2.004 255 255 255
-0.600483 0.302582 1.719 255 255 255
0.672197 -0.432355 1.494 0 0 0
-0.64375 0.109017 1.905 255 255 255
0.26678 -0.00951834 2.064 255 255 255
-0.62066 -0.477262 1.882 255 255 255
0.413619 0.0988242 0.878 255 255 255
-0.476072 0.550952 1.559 255 255 255
0.231692 -0.236817 1.313 0 0 0
0.413665 -0.133869 0.824 255 255 255
0.352091 -0.117863 0.896 255 255 255
-0.652649 -0.114027 2.071 255 255 255
-0.451136 0.283697 0.957 0 0 0
-0.436714 0.268955 1.65 255 255 255
0.167657 0.318149 1.859 255 255 255
0.263945 0.134453 1.057 0 0 0
0.313968 -0.518372 1.345 255 255 255
0.0363386 -0.116135 1.213 255 255 255
-0.487902 0.181258 1.821 255 255 255
-0.199263 -0.167446 1.322 255 255 255
-0.43211 0.348959 0.992 255 255 255
0.281761 -0.384352 1.487 255 255 255
0.334417 -0.506366 1.348 0 0 0
0.365988 -0.398592 1.393 255 255 255
-0.598736 0.312858 1.714 255 255 255
-0.902361 -0.296388 1.941 255 255 255
-0.91795 -0.39026 1.876 255 255 255
0.825072 0.0785081 1.917 255 255 255
0.175137 -0.329874 1.39 255 255 255
-0.499523 -0.559677 1.831 255 255 255
0.282981 0.306177 0.969 255 255 255
0.0218263 0.213149 1.081 255 255 255
0.398758 0.274858 0.948 255 255 255
0.392588 -0.110558 0.851 255 255 255
0.38509 0.148991 0.905 255 255 255
-0.669483 -0.0913524 2.092 255 255 255
0.355188 -0.0478152 0.923 255 255 255
0.392344 0.112766 0.898 255 255 255
0.0925318 -0.0933622 1.225 255 255 255
-0.149391 -0.0930097 1.247 255 255 255
0.374543 0.347485 0.908 0 0 0
0.0291514 0.0923769 1.029 255 255 255
0.0781615 0.281158 0.992 255 255 255
-0.280573 -0.0126265 1.33 255 255 255
0.242763 -0.19072 1.249 255 255 255
-0.0715254 -0.464687 1.348 255 255 255
0.414474 -0.171519 0.831 255 255 255
-0.419579 0.410268 1.646 0 0 0
0.18114 -0.321694 1.384 255 255 255
0.388834 -0.0835429 0.858 255 255 255
-0.984617 -0.374194 1.935 255 255 255
-0.610022 -0.260505 1.887 255 255 255
-0.611469 -0.388445 1.882 255 255 255
0.291595 -0.174893 0.961 255 255 255
-0.15665 -0.138452 1.273 255 255 255
-0.770207 0.137349 1.911 255 255 255
0.29228 0.0326532 0.948 255 255 255
0.355988 0.0676323 0.941 255 255 255
0.374134 -0.188608 0.866 255 255 255
-0.288421 0.270087 1.744 255 255 255
-0.410912 0.247022 1.612 255 255 255
-0.242765 -0.263469 1.247 255 255 255
0.369416 0.138513 0.944 255 255 255
0.0130914 0.302385 0.957 255 255 255
0.30411 -0.0482199 0.961 255 255 255
-0.0122663 0.281158 0.992 255 255 255
-0.259858 0.297931 1.865 0 0 0
0.124451 -0.0127524 2.044 255 255 255
0.37875 -0.226026 0.88 255 255 255
0.0996876 -0.108418 1.215 255 255 255
-0.981475 0.0547903 2.22 255 255 255
-0.31737 0.0341978 1.882 255 255 255
-0.639339 -0.531168 1.805 255 255 255
-0.204254 -0.490072 1.449 255 255 255
-0.0797643 0.281632 0.988 255 255 255
-0.743267 -0.216838 2.024 255 255 255
0.312917 -0.223835 0.918 255 255 255
0.00907768 0.102723 1.032 255 255 255
0.306462 0.293048 0.994 255 255 255
0.301262 0.0281433 0.952 255 255 255
0.0764006 0.0708093 1.057 0 0 0
0.382177 0.167406 0.878 255 255 255
-0.722697 -0.358234 1.917 255 255 255
-0.762019 -0.240785 2.004 255 255 255
0.178676 -0.34136 1.4 255 255 255
0.164295 -0.456094 1.375 255 255 255
-0.258606 0.0195369 1.947 0 0 0
-0.164614 -0.457531 1.393 0 0 0
-0.0838418 0.308341 0.961 255 255 255
0.280009 0.0551548 0.992 255 255 255
-0.760534 -0.426327 1.887 255 255 255
0.310409 0.313089 0.966 255 255 255
0.313798 -0.205973 0.925 255 255 255
-0.904902 -0.340345 1.887 255 255 255
0.130035 -0.140627 1.203 255 255 255
0.36203 0.223214 1 255 255 255
-0.251891 -0.262488 1.252 255 255 255
-0.061597 0.0574899 1.034 255 255 255
0.633412 -0.516521 1.646 255 255 255
0.360475 0.344959 0.925 255 255 255
0.660125 -0.466267 1.359 0 0 0
0.498051 0.389611 1.696 255 255 255
-0.399651 0.361975 1.029 255 255 255
0.132089 -0.506459 1.366 0 0 0
0.246843 -0.0693562 0.995 255 255 255
-0.966183 -0.385102 1.911 255 255 255
0.146912 -0.112187 1.213 255 255 255
0.263072 0.173903 2.01 255 255 255
-0.171085 -0.0325979 2.037 255 255 255
0.345183 -0.115075 0.897 255 255 255
-0.778424 -0.00292828 2.158 255 255 255
-0.920465 -0.218231 2.037 255 255 255
-0.260387 -0.534145 1.473 255 255 255
-0.621874 0.258573 1.724 255 255 255
0.678129 -0.42906 1.491 0 0 0
-0.330755 0.0891262 1.435 255 255 255
0.280246 -0.502759 1.362 0 0 0
0.380126 0.221429 0.992 255 255 255
-0.391789 0.260526 1.567 255 255 255
0.251867 0.285006 0.983 255 255 255
0.428406 -0.442668 1.375 255 255 255
-0.163647 -0.341962 1.366 0 0 0
0.401932 -0.516059 1.339 0 0 0
-0.228565 -0.195024 1.305 0 0 0
-0.594814 0.327661 1.571 255 255 255
-0.096051 0.25919 1.007 255 255 255
-0.615566 -0.0432526 2.071 255 255 255
0.677361 -0.518814 1.484 0 0 0
0.0583287 0.307378 0.958 255 255 255
-0.474012 0.325983 0.914 0 0 0
-0.440375 0.578149 1.498 255 255 255
0.650666 -0.479191 1.535 0 0 0
-0.266885 0.0619114 1.985 0 0 0
-0.3291 0.5803 1.491 255 255 255
-0.151334 -0.397179 1.396 255 255 255
-0.0379876 0.280308 0.989 255 255 255
0.306008 0.0840963 0.972 255 255 255
0.000899669 -0.273651 1.369 255 255 255
0.28123 0.326772 0.942 255 255 255
0.242798 -0.124497 1.18 255 255 255
0.387112 -0.518085 1.333 0 0 0
-0.580971 0.197311 1.753 255 255 255
-0.0756771 0.341821 1.748 255 255 255
0.349067 -0.0999176 0.892 255 255 255
0.0646392 0.104604 1.034 0 0 0
0.354329 -0.0993576 0.887 255 255 255
-0.490977 0.198452 1.789 255 255 255
0.342644 -0.0918217 0.898 255 255 255
-0.519563 -0.345569 1.882 0 0 0
-0.463121 0.186577 0.916 0 0 0
-0.207704 -0.376361 1.378 255 255 255
0.418996 -0.461844 1.359 0 0 0
0.29598 -0.145028 0.96 255 255 255
-0.470278 0.533804 1.419 255 255 255
0.21254 0.274483 1.009 255 255 255
0.0630764 0.261347 1.009 255 255 255
-0.455282 0.115928 0.867 255 255 255
0.404951 -0.212911 0.845 255 255 255
-0.296365 0.310554 1.575 255 255 255
0.568703 -0.621963 1.607 255 255 255
0.404605 0.309759 1.017 0 0 0
0.698208 -0.523578 1.477 0 0 0
-0.181643 -0.171119 1.351 255 255 255
0.352997 -0.471926 1.369 255 255 255
-0.699144 -0.281462 1.947 255 255 255
0.213643 0.0895605 1.055 0 0 0
-0.46766 0.24952 0.934 0 0 0
0.279661 -0.216002 0.963 255 255 255
0.048882 -0.415153 1.403 0 0 0
-0.0246865 0.0357876 1.039 0 0 0
-0.709307 -0.0882423 2.099 255 255 255
-0.222735 -0.253913 1.26 255 255 255
0.293799 0.161361 1.053 0 0 0
0.338297 -0.109845 0.902 255 255 255
0.219437 0.301417 0.974 255 255 255
0.401371 -0.138418 0.852 255 255 255
0.338173 -0.0747277 0.96 255 255 255
0.326976 0.222842 1.044 255 255 255
0.00072289 0.200784 1.1 0 0 0
-0.0305738 0.238595 1.01 255 255 255
-0.973702 -0.244776 2.01 255 255 255
-0.168287 -0.0738831 1.267 255 255 255
-0.776483 -0.474454 1.859 255 255 255
0.633726 -0.523072 1.633 255 255 255
0.675702 -0.42906 1.491 0 0 0
-0.430657 0.121763 0.889 255 255 255
-0.00239056 0.349083 0.92 255 255 255
-0.296648 -0.0932421 1.278 255 255 255
-0.944935 -0.119834 2.114 255 255 255
-0.624197 -0.174422 1.991 255 255 255
-0.897859 0.105937 2.158 255 255 255
-0.253862 -0.0152212 1.935 0 0 0
0.262476 -0.168464 0.969 255 255 255
-0.0396552 -0.202167 1.31 255 255 255
-0.514273 0.512998 1.607 255 255 255
-0.779963 -0.403759 1.882 255 255 255
0.613612 -0.585413 1.629 255 255 255
0.376598 -0.214774 0.875 255 255 255
0.272793 0.321817 0.95 255 255 255
0.0951213 -0.220225 1.316 255 255 255
0.239736 -0.244894 1.322 255 255 255
-0.624905 -0.00630875 2.114 255 255 255
0.0316653 0.0570486 1.057 255 255 255
0.305589 0.0373993 0.951 255 255 255
0.235719 -0.31562 1.387 255 255 255
-0.636222 0.193903 1.748 255 255 255
0.330888 0.331951 0.935 255 255 255
-0.269352 0.273276 1.567 255 255 255
0.298858 -0.495344 1.366 255 255 255
-0.302223 -0.319964 1.33 0 0 0
-0.433152 0.385418 1.029 255 255 255
0.123251 0.287325 0.991 255 255 255
-0.190796 0.00393017 2.071 255 255 255
-0.229634 -0.388967 1.375 255 255 255
0.701958 -0.479856 1.412 255 255 255
0.0491601 -0.519528 1.348 255 255 255
-0.701934 -0.446831 1.87 255 255 255
0.329366 -0.118428 0.935 255 255 255
0.232403 -0.0609217 1.176 0 0 0
0.354477 -0.192602 0.891 255 255 255
0.0997411 -0.361739 1.445 255 255 255
-0.021114 0.320067 0.954 255 255 255
0.170578 -0.0755441 1.227 0 0 0
0.121938 0.0643524 1.064 0 0 0
-0.0289797 0.000559968 2.071 255 255 255
-0.314503 0.0642386 1.865 255 255 255
0.156796 -0.134194 1.198 255 255 255
0.395363 -0.169317 0.854 255 255 255
0.116896 0.252577 1.02 255 255 255
0.318037 -0.459564 1.372 255 255 255
-0.956334 0.032995 2.212 255 255 255
-0.992993 -0.152631 2.092 255 255 255
-0.754681 -0.314365 1.935 255 255 255
-0.295507 0.0746806 1.899 255 255 255
0.109547 -0.0781728 1.237 0 0 0
-0.314001 -0.267552 1.372 255 255 255
0.584649 -0.593615 1.637 255 255 255
0.46275 -0.506376 1.384 0 0 0
-0.354322 -0.243919 1.39 255 255 255
0.213168 0.0323125 1.036 0 0 0
-0.199164 -0.534494 1.381 255 255 255
-0.401429 0.260172 0.992 255 255 255
-0.0379417 -0.0746879 2.01 255 255 255
-0.299975 0.573021 1.491 255 255 255
0.347004 0.225576 1.018 0 0 0
0.412624 -0.0470495 0.83 255 255 255
0.3216 -0.00128638 0.948 255 255 255
-0.715223 -0.212067 2.01 255 255 255
0.24635 -0.129794 1.126 255 255 255
0.0131735 0.29958 0.963 255 255 255
-0.406342 0.256075 0.947 255 255 255
-0.372884 0.434369 1.677 255 255 255
0.0692751 -0.160706 1.237 255 255 255
-0.568353 0.504101 1.612 255 255 255
0.389661 0.202616 0.882 255 255 255
-0.814904 0.028 2.107 255 255 255
0.064826 -0.0896671 1.229 255 255 255
0.317804 0.301773 1.87 255 255 255
-0.0250831 0.284848 0.988 255 255 255
0.439907 -0.474154 1.369 255 255 255
0.0527578 0.0540649 1.066 255 255 255
0.205467 -0.286389 1.366 255 255 255
0.0529544 -0.320826 1.39 255 255 255
-0.0525822 -0.0633231 1.262 0 0 0
-0.338255 -0.170192 1.278 255 255 255
0.0975324 0.332426 0.945 255 255 255
-0.40062 0.296283 0.994 255 255 255
-0.446128 -0.443893 1.696 255 255 255
-0.238422 -0.546936 1.456 255 255 255
0.32962 0.310266 0.967 255 255 255
0.356843 0.102229 0.964 255 255 255
0.397214 -0.15894 0.858 255 255 255
0.0762344 0.0318977 1.079 255 255 255
-0.316493 -0.367602 1.354 0 0 0
0.239056 -0.0358861 1.01 255 255 255
-0.656153 0.124518 1.905 255 255 255
-0.72991 0.121299 1.953 255 255 255
-0.642666 -0.310466 1.911 255 255 255
-0.247563 0.154818 1.935 0 0 0
0.161014 0.217427 1.059 255 255 255
-0.244128 -0.254745 1.254 255 255 255
-0.47451 0.234001 1.729 255 255 255
0.270183 0.27555 1.899 255 255 255
-0.479456 0.527274 1.587 255 255 255
0.39205 -0.218597 0.862 255 255 255
-0.486167 0.546129 1.567 255 255 255
-0.294226 -0.218732 1.333 255 255 255
0.0436465 0.335146 0.944 255 255 255
-0.0188023 -0.0195948 2.064 255 255 255
-0.642477 0.282361 1.575 255 255 255
-0.421172 0.145962 1.753 255 255 255
-0.188724 -0.290245 1.294 255 255 255
-0.786479 0.214442 1.826 255 255 255
-0.13058 -0.489749 1.369 255 255 255
-0.736299 -0.498858 1.805 255 255 255
0.144344 0.0135391 1.997 255 255 255
0.326062 0.297931 1.865 255 255 255
-0.366066 -0.568091 1.696 255 255 255
-0.293876 -0.0992478 1.275 255 255 255
-0.185506 -0.22665 1.316 255 255 255
0.349286 0.208394 1.015 255 255 255
-0.432463 -0.0264988 0.821 255 255 255
-0.959124 -0.155513 2.085 255 255 255
-0.380003 0.537297 1.571 255 255 255
-0.1881 0.266107 1.876 0 0 0
-1.10196 -0.173057 2.092 255 255 255
0.322882 0.314596 0.961 255 255 255
0.363258 -0.0320488 0.902 255 255 255
0.339422 -0.207411 0.905 255 255 255
-0.743296 -0.00292828 2.158 255 255 255
-0.214871 -0.0859137 1.262 255 255 255
-0.562659 -0.440004 1.893 255 255 255
0.0668997 0.231115 1.043 255 255 255
-0.30662 0.31568 1.575 255 255 255
0.336958 -0.0486715 0.97 255 255 255
0.403513 -0.184751 0.842 255 255 255
0.302811 0.0296925 0.952 255 255 255
0.407625 0.0591467 0.842 255 255 255
0.104951 0.213871 1.05 255 255 255
-0.535567 0.502722 1.616 255 255 255
0.401669 0.121962 0.88 255 255 255
0.700515 -0.536802 1.487 0 0 0
-0.0717999 -0.310852 1.396 0 0 0
0.188532 0.336591 0.931 255 255 255
-0.985139 0.0473936 2.212 255 255 255
-0.590919 0.340453 1.595 255 255 255
-0.0875724 -0.106097 1.234 255 255 255
-0.124166 -0.513149 1.372 255 255 255
0.221814 0.253411 1.037 255 255 255
0.29783 -0.112923 0.966 255 255 255
0.301047 0.0550356 2.092 255 255 255
-0.959961 -0.347784 1.911 255 255 255
-0.244995 -0.20517 1.302 0 0 0
0.272669 0.294604 0.983 255 255 255
-0.402913 0.31975 1.677 255 255 255
0.683026 0.546829 1.435 255 255 255
0.435304 0.085204 0.856 255 255 255
-0.479176 0.272796 0.957 0 0 0
-0.303171 0.25917 1.87 255 255 255
-0.364038 0.566156 1.505 255 255 255
-0.791055 -0.300472 1.947 255 255 255
-0.0669873 0.346715 1.744 255 255 255
-0.147366 -0.0589137 2.03 255 255 255
0.403155 0.10442 0.877 255 255 255
-0.121008 -0.442018 1.387 0 0 0
0.178405 0.310496 0.958 255 255 255
0.115053 -0.456094 1.375 0 0 0
-0.618069 -0.134495 2.024 255 255 255
0.296972 0.133173 0.984 255 255 255
-0.277386 0.193989 1.487 255 255 255
-0.104579 -0.290818 1.409 255 255 255
0.0749913 0.352756 0.914 255 255 255
-0.415588 0.380061 1.62 0 0 0
0.222432 -0.17446 1.249 255 255 255
0.301471 0.307401 0.983 255 255 255
0.235905 -0.522707 1.362 0 0 0
-0.0708741 -0.43018 1.378 0 0 0
0.360576 0.343335 0.937 255 255 255
-0.926404 -0.331133 1.887 255 255 255
-0.367666 0.554484 1.52 255 255 255
0.386413 0.0419094 0.948 255 255 255
0.340441 -0.171193 0.994 255 255 255
-0.266376 -0.0233424 1.324 255 255 255
0.135468 -0.0812298 2.01 255 255 255
-0.881643 0.204757 2.024 255 255 255
0.2598 -0.0175421 0.995 255 255 255
0.270827 0.288396 1.882 255 255 255
-1.0332 -0.0425425 2.037 255 255 255
0.185802 0.32114 0.948 255 255 255
-0.0786597 -0.0628214 1.252 0 0 0
0.257402 -0.0707614 0.992 255 255 255
-0.404406 0.494692 1.607 255 255 255
0.401106 0.302902 0.823 255 255 255
0.0715758 0.0469492 1.062 255 255 255
-0.0747857 -0.118985 1.222 255 255 255
-0.0759188 -0.0397476 2.064 255 255 255
-0.60291 -0.530615 1.865 255 255 255
-0.407061 0.24601 0.938 255 255 255
-0.538356 0.547278 1.563 255 255 255
0.385799 0.157188 0.893 255 255 255
0.0649469 0.203621 1.096 255 255 255
-0.282057 -0.314135 1.297 255 255 255
0.166169 -0.457332 1.372 255 255 255
0.280669 0.299403 0.983 255 255 255
-0.432476 0.484068 1.624 0 0 0
0.407815 0.0760202 0.913 255 255 255
-0.124531 -0.102742 1.242 255 255 255
0.317424 -0.116177 0.954 255 255 255
0.608309 -0.590714 1.629 255 255 255
-0.420338 0.128582 0.917 255 255 255
0.000879954 -0.452869 1.339 255 255 255
0.402314 0.192377 0.82 255 255 255
-0.730947 -0.42826 1.882 255 255 255
0.00972751 -0.242544 1.357 255 255 255
0.50519 -0.234492 1.324 255 255 255
-0.986886 -0.223068 2.051 255 255 255
-1.08536 0.0682741 2.189 255 255 255
-0.284476 0.100973 1.929 255 255 255
0.178261 -0.509409 1.362 255 255 255
0.372409 0.0901752 0.921 255 255 255
0.0305976 -0.218385 1.305 255 255 255
-0.0666373 0.360876 0.939 255 255 255
-0.653185 0.284733 1.696 255 255 255
-0.447233 0.40906 1.62 255 255 255
0.114807 -0.198528 1.273 255 255 255
-0.307078 0.225277 1.502 255 255 255
-0.6864 0.107252 1.929 255 255 255
-0.396544 0.291379 1.034 0 0 0
-1.03709 -0.222623 2.078 255 255 255
-0.769659 -0.290071 1.941 255 255 255
0.257015 0.271712 1.036 255 255 255
0.162301 0.312632 0.955 255 255 255
-0.854196 0.230644 1.911 255 255 255
0.297448 0.296635 1.876 255 255 255
-0.144085 -0.00620132 2.078 255 255 255
-0.101492 -0.170858 1.283 255 255 255
0.187491 -0.431116 1.381 255 255 255
-0.344992 0.178469 1.563 255 255 255
-0.0904674 -0.458559 1.369 255 255 255
-0.450717 0.52474 1.595 255 255 255
0.416051 0.118907 0.848 255 255 255
0.537396 -0.591189 1.547 255 255 255
0.0397511 0.184769 1.09 255 255 255
0.242149 0.228652 1.947 255 255 255
0.226621 -0.124239 1.196 255 255 255
-0.593802 -0.518475 1.865 255 255 255
-0.858188 -0.492606 1.859 255 255 255
-0.432474 0.0616756 0.878 255 255 255
-0.0446911 -0.22307 1.333 255 255 255
0.705757 0.55617 1.429 255 255 255
0.410453 0.172115 0.845 255 255 255
0.0840873 -0.396795 1.419 255 255 255
0.230927 0.0169573 1.025 0 0 0
0.349117 0.211247 1.005 255 255 255
0.195933 0.03932 1.043 255 255 255
-0.0524767 0.101661 0.989 0 0 0
-0.198207 0.0546673 2.078 255 255 255
0.285683 0.138525 1.036 255 255 255
-0.449898 0.30012 1.659 0 0 0
0.271138 0.0974206 0.995 255 255 255
-0.0756111 -0.340499 1.425 255 255 255
-0.523257 -0.514967 1.81 255 255 255
0.101498 -0.116135 1.213 255 255 255
0.239488 -0.221483 1.286 0 0 0
-0.155879 -0.435799 1.396 0 0 0
-0.79021 -0.465089 1.87 255 255 255
0.0644584 -0.366442 1.445 255 255 255
-0.0416237 -0.0523068 2.03 255 255 255
-0.288349 0.151273 1.853 255 255 255
-0.147822 0.331235 1.831 255 255 255
0.00770142 -0.395472 1.39 255 255 255
0.25909 -0.255609 1.333 255 255 255
-0.42532 0.276888 0.955 255 255 255
-0.971344 -0.269031 1.972 255 255 255
-0.388368 0.344138 1.65 255 255 255
-0.0663879 -0.427937 1.378 0 0 0
0.611729 -0.588901 1.624 255 255 255
0.0228795 -0.241472 1.351 255 255 255
-0.0868142 0.297931 1.865 255 255 255
-0.70797 -0.148727 2.085 255 255 255
-0.161132 -0.2404 1.345 0 0 0
0.356473 0.0410054 0.963 255 255 255
0.407001 0.108206 0.873 255 255 255
-0.94301 -0.00648482 2.173 255 255 255
-0.426278 0.373258 1.591 255 255 255
0.349458 -0.105842 0.893 255 255 255
-0.0866037 -0.0626708 1.249 0 0 0
-0.451295 0.0915452 1.805 255 255 255
0.30477 -0.40125 1.505 255 255 255
-0.240792 -0.459268 1.456 255 255 255
0.151499 0.230672 1.041 255 255 255
0.129718 0.20905 1.043 255 255 255
-0.365973 0.561779 1.513 255 255 255
-0.301515 -0.0788687 1.281 255 255 255
0.0720157 0.351268 0.914 255 255 255
0.413959 0.271669 0.937 255 255 255
0.345347 0.215636 1.018 0 0 0
0.282002 0.314186 0.955 255 255 255
-0.685403 -0.244191 1.953 255 255 255
-0.171547 -0.26681 1.324 255 255 255
-0.788869 0.0407252 2.057 255 255 255
-0.859928 -0.39026 1.876 255 255 255
0.163219 -0.493121 1.366 255 255 255
0.0768578 -0.200161 1.297 255 255 255
-0.407477 0.182501 0.991 255 255 255
0.594663 -0.563423 1.65 255 255 255
-0.309993 -0.0949489 1.273 0 0 0
-0.117547 -0.357384 1.456 255 255 255
-0.187404 -0.172548 1.345 255 255 255
-0.954957 -0.494031 1.853 255 255 255
0.214467 -0.30976 1.381 255 255 255
0.330949 -0.23123 0.906 255 255 255
-0.0299381 0.272261 0.989 255 255 255
-0.888597 -0.500062 1.853 255 255 255
-0.613479 -0.202255 1.917 255 255 255
0.311109 -0.349039 1.422 255 255 255
-0.566225 -0.365292 1.905 255 255 255
-0.354726 0.128144 1.539 255 255 255
-0.691865 -0.0239211 2.151 255 255 255
0.198214 -0.476162 1.362 0 0 0
-0.456157 0.19338 0.92 255 255 255
0.412324 -0.121801 0.824 255 255 255
-0.18965 -0.252874 1.286 255 255 255
-0.457547 0.141382 1.842 255 255 255
0.326838 0.305373 0.992 255 255 255
0.333934 -0.144121 0.975 255 255 255
-1.07042 -0.221123 2.064 255 255 255
-0.135002 0.225483 1.947 0 0 0
0.00998557 -0.321519 1.393 255 255 255
-0.530914 0.472903 1.659 255 255 255
0.128321 -0.367456 1.449 255 255 255
-0.41779 0.197097 0.945 255 255 255
0.162518 0.250479 1.025 255 255 255
0.268901 -0.188278 1.22 255 255 255
0.373694 -0.157101 0.967 255 255 255
0.337949 -0.191211 0.905 255 255 255
-0.579787 -0.528908 1.859 255 255 255
0.310377 0.30184 0.991 255 255 255
0.699972 -0.545525 1.491 0 0 0
0.0318637 -0.459633 1.359 255 255 255
-0.426309 0.17335 0.917 255 255 255
-0.213509 -0.0955724 1.254 255 255 255
-0.872143 -0.387207 1.876 255 255 255
-0.816568 -0.00293914 2.166 255 255 255
0.394909 0.203965 0.813 255 255 255
-1.02115 0.011397 2.212 255 255 255
0.00587302 0.0382359 1.06 255 255 255
0.219578 -0.0796941 1.972 255 255 255
-0.842342 -0.126295 2.107 255 255 255
0.387788 0.206981 0.901 255 255 255
-0.692032 -0.580275 1.724 255 255 255
0.343431 0.107157 0.966 255 255 255
-0.952824 -0.184176 2.064 255 255 255
-0.234964 0.151669 1.935 0 0 0
0.400469 0.177142 0.856 255 255 255
-0.210527 -0.0700898 1.273 0 0 0
-0.551974 0.371601 1.595 255 255 255
0.289248 0.244609 1.923 255 255 255
0.217033 0.282772 0.992 255 255 255
0.0969356 -0.495287 1.372 255 255 255
-0.844864 -0.344674 1.911 255 255 255
0.165039 -0.237182 1.327 0 0 0
0.284487 -0.250705 1.33 255 255 255
0.0857673 0.323703 0.951 255 255 255
0.398597 -0.058002 0.852 255 255 255
-0.7171 -0.473267 1.831 255 255 255
0.0141662 -0.245113 1.359 255 255 255
0.261232 0.248753 1.053 255 255 255
-0.220566 0.345928 1.769 255 255 255
-0.52953 0.543579 1.567 255 255 255
-0.329717 0.000366102 1.354 255 255 255
0.00996407 -0.388686 1.39 255 255 255
-0.31607 0.529627 1.571 255 255 255
-0.172139 -0.0758251 1.265 255 255 255
0.22217 0.19828 1.106 0 0 0
0.429887 -0.405904 1.387 0 0 0
0.350769 -0.474154 1.369 255 255 255
-0.0229045 0.298322 0.964 255 255 255
-0.598634 0.178353 1.763 255 255 255
-0.933158 -0.443049 1.805 255 255 255
0.0543908 0.126686 1.064 0 0 0
0.406389 -0.165368 0.848 255 255 255
-0.612972 0.308703 1.633 255 255 255
-0.409158 0.20431 0.972 255 255 255
-0.301412 0.000361235 1.336 255 255 255
0.325371 -0.12342 0.95 255 255 255
-0.00910541 -0.122459 1.217 255 255 255
0.242556 -0.520491 1.362 255 255 255
-0.508745 -0.362784 1.876 255 255 255
0.278517 0.338998 0.913 255 255 255
-0.804868 -0.249693 1.997 255 255 255
0.382774 0.149814 0.91 255 255 255
-0.530209 -0.0577819 1.991 255 255 255
0.742274 -0.535897 1.498 255 255 255
0.404175 -0.447818 1.384 0 0 0
0.0213232 -0.321519 1.393 255 255 255
0.329988 -0.488675 1.366 0 0 0
0.255101 -0.0983096 0.977 255 255 255
-0.556558 0.353732 1.696 255 255 255
-0.721371 -0.0205631 2.166 255 255 255
-0.0452946 -0.245869 1.351 255 255 255
-0.808014 -0.448264 1.876 255 255 255
0.393757 0.0785591 0.908 255 255 255
-0.165705 0.328255 1.831 255 255 255
-1.02057 -0.106425 2.121 255 255 255
0.140983 -0.301949 1.366 255 255 255
-0.488064 0.198452 1.789 255 255 255
-0.648507 0.289398 1.691 255 255 255
0.0486625 -0.101336 1.225 255 255 255
0.310409 -0.141219 0.966 255 255 255
-0.0106086 0.284848 0.988 255 255 255
0.288166 -0.155964 0.96 255 255 255
-0.391677 0.331139 1.048 0 0 0
-0.806515 -0.497105 1.831 255 255 255
0.239857 0.235938 1.057 255 255 255
-0.138629 -0.371686 1.429 255 255 255
-0.0969399 -0.250822 1.366 255 255 255
-0.200117 -0.23404 1.286 255 255 255
0.526795 0.397344 1.682 255 255 255
0.0338801 -0.368793 1.445 255 255 255
0.382144 0.0930268 0.905 255 255 255
0.0480389 0.108492 1.039 0 0 0
-0.369686 -0.630603 1.739 255 255 255
-0.266909 -0.18596 1.316 255 255 255
0.320732 0.0126246 0.95 255 255 255
-0.601962 0.325993 1.563 255 255 255
0.00545051 -0.425795 1.393 0 0 0
0.0774848 0.213118 1.072 255 255 255
-0.0883624 -0.192901 1.305 255 255 255
0.0918353 0.234848 1.037 255 255 255
-0.68193 -0.431322 1.882 255 255 255
-0.191556 -0.127201 1.244 255 255 255
-0.481084 -0.446987 1.774 255 255 255
0.378107 -0.0186293 0.892 255 255 255
-0.321819 0.577874 1.491 255 255 255
0.220413 -0.0393673 1.015 255 255 255
-0.474749 0.544735 1.563 255 255 255
-0.0321857 0.304896 0.96 255 255 255
-0.287724 -0.0501884 1.294 255 255 255
0.352919 -0.0102424 0.921 255 255 255
-0.00912788 0.089953 1.002 0 0 0
0.312187 0.217214 1.075 255 255 255
-1.05842 -0.0748635 2.107 255 255 255
0.0229775 0.29211 0.98 255 255 255
0.30004 0.0446725 2.085 255 255 255
0.414141 0.178378 0.817 255 255 255
0.735943 -0.577588 1.505 255 255 255
-0.010061 0.340285 0.937 255 255 255
0.373169 0.254909 0.978 0 0 0
-0.215382 -0.252862 1.265 0 0 0
0.325998 -0.0727221 0.975 255 255 255
0.11699 -0.0456998 2.03 0 0 0
-0.00721219 -0.0938957 1.232 255 255 255
0.088707 -0.399104 1.419 255 255 255
0.398143 -0.138743 0.854 255 255 255
-0.77585 0.0209216 2.085 255 255 255
-0.786638 -0.457423 1.876 255 255 255
-0.236052 -0.53035 1.456 255 255 255
0.246052 -0.0209893 1.005 255 255 255
0.243367 -0.39577 1.432 255 255 255
0.315453 -0.0406528 0.967 255 255 255
0.205729 0.284387 0.992 255 255 255
0.323102 -0.22113 0.913 255 255 255
0.308224 -0.0884977 0.974 255 255 255
-0.645215 -0.534106 1.805 255 255 255
-0.010108 -0.237075 1.351 255 255 255
0.00775682 -0.4211 1.4 0 0 0
0.232554 0.219778 1.079 255 255 255
-0.924174 0.0221157 2.204 255 255 255
-0.0554522 0.319516 0.957 255 255 255
-0.373396 0.290428 1.62 255 255 255
0.115036 0.349398 0.913 255 255 255
0.30393 -0.232714 1.302 0 0 0
0.182038 0.226047 1.051 255 255 255
-0.120628 0.357701 0.955 255 255 255
0.336196 0.0682792 0.95 255 255 255
-0.196022 -0.0680183 1.273 0 0 0
-0.497336 0.522155 1.603 255 255 255
0.216524 -0.127917 1.194 255 255 255
-0.313031 -0.138206 1.252 0 0 0
-0.143301 -0.0950389 1.247 255 255 255
-0.743732 -0.401225 1.899 255 255 255
0.130436 -0.490822 1.372 0 0 0
0.376038 0.333487 0.994 0 0 0
0.126281 0.297576 0.977 255 255 255
-0.603978 0.0986714 2.01 255 255 255
-0.223972 -0.0800686 1.267 0 0 0
-0.067169 0.265015 0.992 255 255 255
0.344217 0.339196 0.934 255 255 255
0.158945 -0.199308 1.278 255 255 255
0.361043 0.152389 0.984 255 255 255
-0.271915 0.110391 1.929 255 255 255
0.0428197 -0.0836672 1.229 255 255 255
-0.573008 0.365639 1.603 255 255 255
-0.521811 -0.504732 1.805 255 255 255
0.13876 -0.293058 1.366 255 255 255
-0.443507 0.321915 0.928 255 255 255
0.423965 0.321828 1.779 255 255 255
-0.774182 -0.254653 1.985 255 255 255
0.251955 0.270026 1.036 255 255 255
0.30308 0.000550775 2.037 255 255 255
0.387608 0.306558 1.826 255 255 255
-0.541959 0.126086 1.929 255 255 255
0.0980538 0.346465 0.921 255 255 255
-0.139856 -0.0880773 2.017 255 255 255
0.314796 -0.263691 1.33 0 0 0
0.348049 -0.0752571 0.928 255 255 255
-0.163258 0.320363 1.837 255 255 255
-1.05666 0.0863605 2.196 255 255 255
0.0935999 -0.14377 1.213 255 255 255
0.187568 -0.172152 1.247 255 255 255
-0.475882 0.229034 1.734 255 255 255
0.380985 -0.212619 0.872 255 255 255
-0.242999 0.375096 1.744 255 255 255
-0.501131 0.163926 1.826 255 255 255
0.380163 0.282722 1.027 255 255 255
-0.476988 0.175758 0.914 255 255 255
-0.999989 -0.086928 2.151 255 255 255
0.204746 0.238891 1.953 255 255 255
-0.147841 -0.418328 1.406 0 0 0
-0.417345 0.352095 1.015 255 255 255
-0.621874 0.244546 1.724 255 255 255
-0.0935084 -0.428869 1.381 0 0 0
-0.283546 0.307991 1.575 255 255 255
-0.527281 0.383614 1.591 0 0 0
0.335035 -0.268624 1.333 0 0 0
0.23177 0.28748 0.986 255 255 255
-0.467603 0.262652 1.714 255 255 255
-0.124061 -0.386064 1.422 0 0 0
0.0337958 0.297022 0.97 255 255 255
0.110699 0.349781 0.914 255 255 255
-0.790082 0.0177725 2.114 255 255 255
-0.565385 0.113195 1.978 255 255 255
0.290634 -0.168988 0.963 255 255 255
0.291422 -0.279173 1.342 255 255 255
-0.734724 -0.45437 1.876 255 255 255
0.388982 -0.0589412 0.887 255 255 255
-0.641681 0.178353 1.763 255 255 255
0.0836028 0.344196 0.927 255 255 255
-0.907143 -0.269031 1.972 255 255 255
0.394312 0.150188 0.886 255 255 255
0.0391979 0.356436 0.912 255 255 255
-0.215382 -0.0840594 1.265 255 255 255
0.240123 -0.130722 1.167 255 255 255
-0.306828 0.290383 1.563 255 255 255
-0.426278 0.378436 1.591 255 255 255
0.0750115 -0.0778568 1.232 255 255 255
0.342716 0.225459 1.025 0 0 0
-0.31517 0.187609 1.494 255 255 255
-0.0112529 0.025865 1.048 0 0 0
-0.0696943 0.360876 0.939 255 255 255
0.172998 0.346427 0.913 255 255 255
0.096864 0.213172 1.055 255 255 255
-0.413772 0.557458 1.535 255 255 255
0.352997 -0.474154 1.369 255 255 255
0.674884 -0.400804 1.362 255 255 255
-0.281863 0.180049 1.87 255 255 255
0.0183747 0.187452 1.085 255 255 255
0.406135 0.193746 0.809 255 255 255
-0.674283 0.259092 1.673 255 255 255
0.395745 0.218249 0.812 255 255 255
-0.309368 -0.163954 1.262 255 255 255
0.382482 0.169604 0.882 255 255 255
-0.393589 0.40926 1.132 0 0 0
-0.43588 0.383991 1.012 255 255 255
-0.414631 0.236598 0.931 255 255 255
-0.550398 0.525945 1.583 255 255 255
-0.0492724 0.315173 0.958 255 255 255
0.345475 -0.0708574 0.95 255 255 255
-0.324638 0.532017 1.563 255 255 255
-0.300737 0.0898473 1.893 255 255 255
-0.907638 -0.00294864 2.173 255 255 255
0.245389 -0.0391346 1.009 255 255 255
-0.229796 -0.0902351 1.265 255 255 255
-0.0912195 -0.00628786 2.107 0 0 0
0.300642 0.0807662 0.97 255 255 255
0.30795 0.0647756 0.944 255 255 255
0.36429 -0.427937 1.378 0 0 0
0.135198 -0.447144 1.375 255 255 255
0.355188 -0.0523213 0.923 255 255 255
0.0707274 0.0269767 2.03 0 0 0
-0.309368 -0.110558 1.262 0 0 0
-0.951542 -0.404227 1.87 255 255 255
-0.230704 -0.0740581 1.27 0 0 0
-0.401797 0.379044 1.65 0 0 0
-0.207559 -0.0127087 2.037 255 255 255
-0.716456 -0.364474 1.917 255 255 255
0.26618 -0.163845 1.173 255 255 255
0.11753 0.320123 0.945 255 255 255
0.184866 -0.124966 1.203 255 255 255
-0.308508 -0.36378 1.348 0 0 0
-0.231297 0.382051 1.763 255 255 255
-0.929086 -0.181431 2.071 255 255 255
-0.753168 0.0177136 2.107 255 255 255
0.0388185 -0.0836672 1.229 255 255 255
0.0322644 0.214112 1.077 255 255 255
-0.0868799 0.311144 0.96 255 255 255
-0.0478879 0.259079 0.994 255 255 255
0.231978 -0.00963599 1.015 255 255 255
-0.0399001 -0.316985 1.393 0 0 0
0.17035 -0.0254582 1.997 0 0 0
0.515737 -0.411747 1.535 0 0 0
-0.267503 0.309232 1.65 255 255 255
-0.894636 -0.347784 1.911 255 255 255
-0.568996 0.282595 1.769 255 255 255
0.260048 0.337131 0.916 255 255 255
0.229558 -0.0951222 1.222 255 255 255
-0.38871 0.479001 1.607 255 255 255
-0.137801 0.307668 0.989 0 0 0
-0.24808 -0.383088 1.378 255 255 255
-0.0654055 -0.37397 1.456 255 255 255
0.204541 0.340037 0.928 255 255 255
-0.0364201 0.0441138 1.036 0 0 0
0.393511 -0.120111 0.85 255 255 255
-0.388851 0.380749 1.108 255 255 255
-0.810951 -0.224479 2.004 255 255 255
0.390597 -0.496484 1.345 255 255 255
-0.279711 0.247022 1.612 255 255 255
0.112852 0.0554856 1.06 0 0 0
-0.547594 0.333395 1.677 255 255 255
0.741811 -0.542217 1.502 255 255 255
0.411824 -0.0627242 0.823 255 255 255
0.406308 0.22686 0.887 255 255 255
0.0460668 -0.442018 1.387 0 0 0
0.384002 -0.0871404 0.866 255 255 255
0.297937 -0.479658 1.372 255 255 255
-0.0645236 0.0621146 1.027 255 255 255
-0.413168 0.171214 0.938 255 255 255
0.428605 0.109634 0.851 255 255 255
0.213734 -0.0719588 1.234 0 0 0
-0.566206 0.217747 1.734 255 255 255
0.110812 0.0536085 1.057 0 0 0
0.340163 -0.0898719 0.923 255 255 255
0.10552 -0.0660947 1.237 0 0 0
-0.960227 -0.222307 2.044 255 255 255
-0.802386 -0.4164 1.87 255 255 255
-0.861654 -0.0135572 2.173 255 255 255
-0.896966 -0.452903 1.821 255 255 255
-0.234839 -0.0843916 1.27 255 255 255
-0.654823 0.280311 1.686 255 255 255
-0.164034 -0.160163 1.333 255 255 255
0.398603 -0.0460045 0.861 255 255 255
0.621955 -0.553656 1.637 255 255 255
0.0744787 0.28748 0.986 255 255 255
0.343456 0.0351698 0.975 255 255 255
0.288881 0.207273 1.985 255 255 255
