ply
format ascii 1.0
comment Created by Open3D
element vertex 1337
property double x
property double y
property double z
property uchar red
property uchar green
property uchar blue
end_header
0.410051 0.241203 0.892 255 255 255
-0.29337 0.024331 1.339 255 255 255
0.231022 0.234676 0.828 255 255 255
0.646323 0.000382866 1.416 255 255 255
1.06044 -0.625839 2.092 255 255 255
-0.90558 0.479702 1.774 255 255 255
-0.216816 0.196586 0.997 255 255 255
0.400264 0.243514 0.906 255 255 255
0.130835 -0.029761 1.425 0 0 0
-0.261977 0.279102 0.779 255 255 255
0.0588093 0.231773 0.852 255 255 255
-1.00681 -0.764487 2.044 255 255 255
0.902295 -0.446583 1.991 255 255 255
0.00190339 0.271338 0.833 255 255 255
-0.771469 0.191008 2.294 0 0 0
0.166865 -0.0837254 1.477 255 255 255
-0.256359 0.254319 0.844 0 0 0
0.475479 0.0121416 1.21 255 255 255
0.450229 -0.55858 2.121 255 255 255
1.0452 -0.75894 2.181 255 255 255
-0.0681008 -0.0933372 1.516 0 0 0
-0.984075 -0.382762 2.356 0 0 0
-0.92165 0.190663 2.383 255 255 255
0.567061 0.130121 1.108 255 255 255
0.443171 0.0841233 1.096 255 255 255
-0.928291 -0.809675 2.092 255 255 255
-0.226963 0.264001 0.827 255 255 255
-0.30128 0.0689584 1.205 255 255 255
-1.0072 -0.491496 2.479 255 255 255
-0.485645 -0.335384 2.32 0 0 0
-0.49499 -0.773302 2.402 255 255 255
0.281156 0.231244 0.845 255 255 255
-0.195361 0.282517 0.83 255 255 255
0.0312064 0.189988 0.988 255 255 255
0.144913 0.256694 0.792 255 255 255
0.0475117 0.209599 0.96 0 0 0
0.14443 -0.785601 2.196 0 0 0
0.72039 -0.131521 1.655 255 255 255
0.0723688 -0.00632712 1.372 255 255 255
0.142433 -0.027442 1.425 0 0 0
-1.0068 -0.142838 2.32 255 255 255
0.775098 -0.164512 1.748 255 255 255
-0.261064 -0.863033 2.338 255 255 255
0.223072 -0.846353 2.196 255 255 255
-0.807301 -0.187933 2.228 255 255 255
-0.30991 0.120164 1.116 255 255 255
-0.357542 0.269079 0.856 255 255 255
-0.0832393 -0.270889 1.853 255 255 255
-0.195783 0.122641 1.139 255 255 255
-0.573615 -0.370544 2.236 0 0 0
-0.103071 0.296969 0.776 255 255 255
0.627976 -0.478155 2.212 255 255 255
-0.142345 0.245201 0.896 255 255 255
0.316265 0.250548 0.836 255 255 255
0.456471 -0.390383 2.071 255 255 255
0.465342 0.226311 0.958 255 255 255
-0.380288 0.21809 0.963 255 255 255
0.218909 0.241295 0.823 255 255 255
0.319917 0.201786 0.904 0 0 0
-1.09065 0.0363959 2.44 255 255 255
0.421553 0.157634 1.051 255 255 255
-0.822533 -0.610106 2.519 0 0 0
0.850487 -0.251379 1.911 255 255 255
0.44964 0.0708747 1.112 255 255 255
-0.333777 -0.101555 1.607 255 255 255
-0.697803 -0.0472207 2.261 0 0 0
0.790091 -0.230528 1.893 255 255 255
0.0157418 -0.832058 2.196 255 255 255
0.115185 0.199491 0.964 0 0 0
-0.724213 -0.285295 2.196 255 255 255
0.274243 0.170037 0.966 255 255 255
-0.575337 -0.827204 2.411 255 255 255
-0.217589 -0.111458 1.599 0 0 0
0.794134 -0.110558 1.624 255 255 255
-0.0281681 -0.685189 2.278 255 255 255
-0.585461 -0.22258 2.212 255 255 255
-0.747348 -0.313442 2.244 255 255 255
0.658228 -0.762489 2.181 255 255 255
-0.164074 -0.71799 2.312 255 255 255
-0.160599 0.0183123 1.378 255 255 255
-0.0859362 0.301425 0.781 255 255 255
-1.01331 -0.765184 2.037 255 255 255
-0.660359 -0.474247 2.392 255 255 255
0.105029 0.226244 0.879 255 255 255
-0.91239 0.313986 2.32 255 255 255
0.123098 -0.666809 2.136 255 255 255
-0.630822 -0.587571 2.459 255 255 255
0.0277663 0.269594 0.836 255 255 255
-0.00992846 -0.184458 1.696 255 255 255
0.268402 0.246023 0.795 0 0 0
-0.839689 -0.689343 2.509 0 0 0
0.36648 0.232742 0.91 255 255 255
-0.945724 -0.382762 2.356 255 255 255
0.598752 -0.0510248 1.505 0 0 0
-0.34985 0.223755 0.928 0 0 0
-0.896867 -0.897574 2.509 255 255 255
-0.145364 0.139137 1.108 255 255 255
-0.593627 -0.241639 2.189 255 255 255
0.207762 0.23344 0.843 255 255 255
-1.0271 0.123751 2.44 255 255 255
-0.209561 -0.577859 2.402 255 255 255
-0.205468 -0.223304 1.763 255 255 255
-0.353527 -0.0633269 1.567 255 255 255
0.180652 0.262621 0.733 255 255 255
-0.4598 -0.534862 2.402 0 0 0
0.282799 -0.227687 1.821 255 255 255
-0.0690254 -0.198725 1.724 255 255 255
0.685588 -0.679736 2.212 255 255 255
0.000619057 0.22713 0.942 255 255 255
0.372172 0.254563 0.878 0 0 0
-0.129376 -0.381288 2.114 255 255 255
-0.0874937 0.0219038 1.324 255 255 255
0.147292 0.118262 1.169 255 255 255
-0.249418 0.119833 1.13 255 255 255
0.32829 -0.622434 2.092 255 255 255
-0.150098 0.295056 0.771 0 0 0
0.287912 0.15278 0.997 255 255 255
0.0920645 -0.00407652 1.366 255 255 255
-0.12201 0.297657 0.768 255 255 255
0.0649842 0.0805279 1.232 255 255 255
-0.568005 -0.715091 2.43 0 0 0
-0.890806 0.499925 1.734 255 255 255
-0.0366433 0.220709 0.954 0 0 0
-0.221291 -0.54268 2.402 255 255 255
-0.226723 0.0506596 1.237 0 0 0
0.560352 -0.678614 2.244 255 255 255
-0.180067 -0.690885 2.374 255 255 255
-0.329409 0.13998 1.073 255 255 255
0.0846315 -0.026768 1.39 255 255 255
0.802613 -0.33745 1.923 255 255 255
-0.172992 -0.635335 2.383 255 255 255
0.234082 0.279052 0.714 255 255 255
-0.320527 0.205662 0.935 255 255 255
0.465108 -0.487553 2.158 255 255 255
0.189231 0.214462 0.927 255 255 255
0.266993 -0.34668 2.092 255 255 255
-0.307915 -0.717401 2.347 0 0 0
-0.264983 0.209493 0.989 0 0 0
0.417423 -0.516821 2.078 255 255 255
0.0400401 0.232763 0.866 255 255 255
0.0691406 -0.83653 2.189 255 255 255
0.395071 -0.511776 2.085 255 255 255
-0.330837 -0.705943 2.347 0 0 0
0.381308 0.26209 0.785 255 255 255
-1.24836 0.0283379 2.43 255 255 255
0.416905 0.00999596 1.189 255 255 255
0.116012 -0.173241 1.642 255 255 255
-0.0647543 0.138269 1.087 255 255 255
-0.160757 0.278655 0.847 255 255 255
-0.655097 -0.189496 2.204 255 255 255
-0.409491 -0.805963 2.338 255 255 255
-0.166988 0.285219 0.83 255 255 255
-0.260391 -0.530953 2.402 255 255 255
-1.18549 -0.436772 2.489 255 255 255
-0.658604 -0.380095 2.228 255 255 255
-0.171731 0.0393613 1.262 255 255 255
0.552669 0.10365 1.198 255 255 255
-0.776221 0.0750196 2.286 255 255 255
0.536013 -0.501533 2.204 255 255 255
-0.984868 -0.251464 2.278 255 255 255
0.162162 0.038644 1.239 255 255 255
-0.422632 0.0746976 1.384 255 255 255
-0.0105854 0.0816253 1.162 255 255 255
0.880067 -0.405682 1.935 255 255 255
0.0584642 0.238683 0.847 255 255 255
-0.526274 -0.802725 2.42 255 255 255
-0.100093 0.269542 0.871 255 255 255
0.0765921 0.291004 0.754 255 255 255
-0.0986431 -0.00867211 1.39 255 255 255
-0.337575 0.154143 1.039 255 255 255
-0.3061 0.260258 0.841 255 255 255
0.310493 0.220163 0.85 255 255 255
-0.216841 0.161681 1.044 0 0 0
-0.957848 -0.511724 2.519 255 255 255
0.706028 -0.273633 1.959 255 255 255
-0.360623 -0.0693003 1.587 255 255 255
0.776985 -0.446897 2.099 255 255 255
0.777144 -0.782028 2.196 255 255 255
0.29308 -0.0945764 1.459 255 255 255
0.873149 -0.482855 2.092 255 255 255
-1.00287 -0.739744 2.615 255 255 255
-0.540316 -0.766498 2.43 255 255 255
-1.15846 -0.557284 2.449 255 255 255
0.870875 -0.637046 2.189 255 255 255
0.36648 0.234223 0.91 255 255 255
-0.207756 0.0468975 1.244 255 255 255
-1.23499 -0.100992 2.499 255 255 255
-0.0419554 0.283894 0.745 255 255 255
-0.311628 0.189524 0.994 255 255 255
0.147397 0.0914302 1.217 255 255 255
-0.0757068 0.0866068 1.205 255 255 255
0.243044 0.271569 0.772 0 0 0
0.0685096 0.262478 0.835 255 255 255
-1.08668 0.0443372 2.44 255 255 255
-0.212691 -0.0758828 1.563 255 255 255
-0.0499829 0.231729 0.942 255 255 255
-0.404156 -0.590066 2.42 0 0 0
-0.0876176 0.0340421 1.294 255 255 255
-0.760231 -0.855681 2.53 255 255 255
0.281554 -0.621101 2.099 255 255 255
-0.76817 -0.728403 2.489 255 255 255
0.166064 -0.32553 2.024 0 0 0
0.171133 -0.543109 2.128 255 255 255
0.298454 -0.0636845 1.406 255 255 255
-0.683703 -0.453499 2.365 255 255 255
0.533419 0.185905 1.066 0 0 0
0.723967 -0.553013 2.253 255 255 255
-0.298862 -0.863128 2.278 255 255 255
-0.440891 -0.597137 2.449 255 255 255
0.249383 -0.259815 1.882 255 255 255
0.309157 0.171787 0.967 255 255 255
-1.02475 -0.665337 2.212 0 0 0
-0.479666 -0.503531 2.365 255 255 255
0.266991 0.267862 0.765 255 255 255
0.324518 0.194242 0.917 0 0 0
-0.959625 -0.688278 2.228 0 0 0
0.318008 0.0800774 1.167 255 255 255
-0.14402 0.282517 0.83 255 255 255
0.0483447 0.0914302 1.217 255 255 255
-0.173752 0.289728 0.805 255 255 255
0.250803 -0.361503 2.099 255 255 255
-1.22683 -0.568254 2.411 255 255 255
0.190017 0.262435 0.771 255 255 255
-0.814142 0.494778 1.642 255 255 255
-1.08141 0.213407 2.294 255 255 255
-0.897043 -0.230372 2.253 255 255 255
0.352934 -0.17677 1.65 255 255 255
-0.281851 0.0136166 1.357 255 255 255
-0.949295 -0.689594 2.54 255 255 255
-1.25504 0.378715 2.42 255 255 255
0.339241 0.138593 1 255 255 255
-0.106265 0.232272 0.938 255 255 255
0.134926 0.260087 0.779 255 255 255
0.981808 -0.783504 2.151 255 255 255
0.475733 0.213671 0.986 0 0 0
-0.176185 0.232936 0.905 255 255 255
-0.069059 -0.521172 2.411 0 0 0
0.894331 -0.24749 1.905 255 255 255
0.235428 0.000354205 1.31 255 255 255
-0.191143 0.289591 0.801 255 255 255
-0.23892 0.0942512 1.178 255 255 255
-0.18938 0.0577624 1.217 255 255 255
-0.323424 0.275369 0.809 255 255 255
0.303434 -0.596601 2.085 255 255 255
0.0209572 -0.106788 1.532 255 255 255
0.589446 -0.572273 2.286 0 0 0
0.853898 -0.565202 2.173 255 255 255
-0.215509 0.0691301 1.208 255 255 255
-0.436905 -0.549313 2.449 255 255 255
0.601424 -0.829924 2.181 255 255 255
-0.756527 0.0876189 2.228 255 255 255
0.571748 0.112167 1.185 0 0 0
0.860678 -0.271119 1.941 255 255 255
0.191493 0.19268 1.002 255 255 255
-1.03207 -0.660518 2.22 0 0 0
-0.134399 0.0368462 1.319 255 255 255
-0.256703 0.293006 0.756 255 255 255
-0.398384 0.201389 1.013 255 255 255
-0.300412 0.255149 0.856 255 255 255
-0.417693 -0.600413 2.43 255 255 255
-0.701007 -0.315963 2.236 255 255 255
-0.111817 0.275493 0.863 255 255 255
-0.0802487 0.189524 0.994 255 255 255
-0.236583 0.262724 0.823 255 255 255
0.254063 0.24711 0.807 0 0 0
-0.693727 -0.159499 2.236 255 255 255
0.0574708 0.226246 0.896 255 255 255
0.0296515 0.0158482 1.359 0 0 0
-0.0938907 0.0559235 1.265 255 255 255
0.0803774 -0.774117 2.204 0 0 0
0.418341 -0.67623 2.189 0 0 0
0.129959 0.235038 0.864 0 0 0
0.434344 0.176662 1.013 0 0 0
-0.270551 -0.155102 1.62 255 255 255
0.788649 -0.160373 1.734 255 255 255
0.281611 -0.069183 1.425 255 255 255
-0.31285 -0.114631 1.607 255 255 255
-0.930887 -0.748893 2.338 255 255 255
-0.770258 -0.570937 2.509 255 255 255
0.265431 0.273684 0.757 0 0 0
0.413037 0.240764 0.918 255 255 255
-0.960661 -0.628029 2.593 255 255 255
-1.22623 -0.166722 2.449 255 255 255
-0.170233 0.219657 0.963 0 0 0
0.235456 -0.233719 1.799 255 255 255
0.238321 0.268756 0.757 0 0 0
-1.26686 0.0360976 2.42 255 255 255
-0.167175 -0.544713 2.411 255 255 255
-1.25739 -0.0961493 2.479 255 255 255
0.141748 0.209486 0.974 0 0 0
-0.5565 -0.776477 2.449 255 255 255
-0.222194 0.227613 0.944 255 255 255
-0.220739 0.256735 0.834 255 255 255
-0.875545 -0.686879 2.53 0 0 0
-0.198705 0.109422 1.156 255 255 255
0.676576 -0.28318 2.004 0 0 0
0.00366628 0.228974 0.937 255 255 255
-0.139448 0.140431 1.104 255 255 255
0.270441 0.219175 0.868 255 255 255
-0.123541 -0.527044 2.402 0 0 0
0.683795 -0.525786 2.278 0 0 0
0.384889 -0.525348 2.085 255 255 255
-0.929268 -0.169237 2.269 255 255 255
-0.0641277 0.263158 0.864 0 0 0
-0.0742109 0.141197 1.096 255 255 255
0.040192 0.159951 1.055 0 0 0
-0.381323 0.271511 0.882 255 255 255
0.788015 -0.452216 2.092 255 255 255
-0.701007 -0.319602 2.236 255 255 255
0.133957 -0.0542138 1.459 0 0 0
0.138604 0.185228 0.997 0 0 0
-0.156225 0.271736 0.86 255 255 255
-0.00557441 0.000356638 1.319 255 255 255
0.432551 -0.465203 2.136 0 0 0
0.539127 0.0457027 1.267 0 0 0
0.318714 0.0863215 1.149 255 255 255
0.53153 -0.215558 1.724 255 255 255
0.760184 -0.824684 2.158 255 255 255
0.376143 0.261432 0.836 255 255 255
-0.201576 0.269197 0.839 255 255 255
-0.108262 -0.224064 1.769 255 255 255
-0.168474 -0.470678 2.374 0 0 0
-0.502712 -0.565533 2.383 255 255 255
-0.26241 0.232801 0.934 255 255 255
0.399672 -0.236245 1.774 0 0 0
-0.332033 -0.573289 2.383 255 255 255
0.0148478 0.0644889 1.232 255 255 255
-0.0978188 0.21741 0.96 0 0 0
-0.0882407 0.273632 0.866 255 255 255
-0.275394 0.131061 1.116 255 255 255
-0.00889062 0.272404 0.828 255 255 255
0.247883 0.252733 0.804 0 0 0
0.499209 -0.214933 1.719 255 255 255
-0.30128 0.0709193 1.205 255 255 255
0.835178 -0.187695 1.779 255 255 255
0.643283 -0.630007 2.253 255 255 255
0.41942 -0.0224433 1.273 0 0 0
0.681851 -0.230312 1.842 0 0 0
0.782537 -0.401929 2.114 255 255 255
0.465108 -0.484041 2.158 255 255 255
-0.252275 0.1891 1.009 255 255 255
0.250803 -0.604023 2.099 255 255 255
-0.175224 0.0596446 1.215 255 255 255
-0.305572 0.29103 0.777 255 255 255
-0.253998 0.228577 0.948 255 255 255
-0.107566 0.299208 0.772 255 255 255
0.44959 0.157441 1.073 255 255 255
0.220891 -0.462316 2.107 255 255 255
-0.153208 -0.0667239 1.528 255 255 255
-0.964188 0.0319202 2.402 255 255 255
-0.324922 -0.820658 2.253 0 0 0
-0.299557 0.169122 1.048 255 255 255
-0.0699081 0.211821 0.963 0 0 0
0.214718 0.134232 1.143 255 255 255
-0.948694 -0.761064 2.572 255 255 255
0.469064 0.163583 1.024 255 255 255
-0.0961117 -0.786962 2.22 255 255 255
0.0783191 0.178201 0.994 255 255 255
-0.887228 -0.30176 2.294 255 255 255
0.298638 -0.494718 2.099 255 255 255
0.225066 -0.567057 2.114 255 255 255
-0.944611 0.30086 2.121 255 255 255
-1.00709 -0.39043 2.356 0 0 0
0.586516 -0.223686 1.789 0 0 0
-0.332707 0.225822 0.906 255 255 255
-0.195561 0.181607 1.013 255 255 255
-1.17441 -0.3899 2.449 255 255 255
0.322555 -0.368335 2.099 255 255 255
-1.22747 -0.294706 2.42 255 255 255
-0.206183 -0.712924 2.32 255 255 255
-0.285834 0.273535 0.796 255 255 255
0.200978 -0.732185 2.114 255 255 255
-1.22631 0.013087 2.54 255 255 255
0.246341 0.0108367 1.289 255 255 255
0.0961074 0.276713 0.783 255 255 255
-0.0689918 0.189715 0.995 255 255 255
-0.262235 0.232816 0.928 255 255 255
-0.179838 0.125571 1.132 0 0 0
0.358909 -0.749865 2.196 0 0 0
0.592419 0.0845376 1.232 255 255 255
-0.483515 -0.518926 2.365 255 255 255
0.261295 0.243878 0.805 255 255 255
-1.07675 0.400244 2.253 255 255 255
0.605689 -0.0720255 1.535 0 0 0
0.349705 0.140501 1.002 255 255 255
0.407933 0.243726 0.875 255 255 255
0.391983 0.246233 0.884 0 0 0
-0.886961 -0.329178 2.303 255 255 255
-0.635481 -0.705675 2.509 255 255 255
-1.17767 0.384559 2.383 255 255 255
-0.350814 0.181619 0.995 255 255 255
0.52697 0.123757 1.167 0 0 0
-1.27605 0.0164747 2.43 255 255 255
0.598302 0.0698887 1.257 255 255 255
0.545544 -0.369925 2.051 255 255 255
0.0591364 0.257658 0.837 255 255 255
-0.0770194 0.223814 0.954 0 0 0
0.233796 -0.8535 2.196 255 255 255
0.0914713 -0.762528 2.212 0 0 0
-0.237219 0.224048 0.955 0 0 0
-0.139184 -0.190309 1.724 255 255 255
-0.266847 0.214839 0.984 0 0 0
-0.200026 0.0299458 1.299 255 255 255
-0.301037 0.26747 0.809 255 255 255
-0.298792 0.113507 1.122 255 255 255
-0.11998 0.203354 0.975 255 255 255
0.203333 0.256938 0.809 255 255 255
0.628433 -0.288299 2.017 255 255 255
0.750298 -0.616535 2.244 255 255 255
0.71346 -0.622169 2.278 255 255 255
-0.471966 -0.499683 2.365 255 255 255
-0.579167 -0.453867 2.347 255 255 255
-0.54582 -0.722487 2.402 0 0 0
0.021899 0.226721 0.934 255 255 255
0.0287893 0.20669 0.961 255 255 255
0.161926 0.0619769 1.222 255 255 255
0.129197 0.193834 0.975 0 0 0
-0.318867 0.268765 0.821 255 255 255
0.192487 -0.0579924 1.435 255 255 255
-0.000969662 0.1856 0.999 255 255 255
0.147978 0.0115092 1.369 0 0 0
-0.23089 0.0762285 1.196 255 255 255
-0.85477 -0.372228 2.338 255 255 255
0.249403 -0.22723 1.794 255 255 255
-0.337256 0.294071 0.792 255 255 255
0.62387 -0.49426 2.236 255 255 255
-0.0133332 0.280726 0.773 255 255 255
-0.24062 0.045342 1.257 0 0 0
-0.034646 0.248311 0.902 255 255 255
0.628879 0.072392 1.265 255 255 255
0.74126 -0.422519 2.261 0 0 0
0.693638 -0.609474 2.286 255 255 255
-0.661432 -0.2391 2.166 0 0 0
0.209332 0.170297 1.077 255 255 255
-0.36717 0.146006 1.066 255 255 255
0.271181 0.127638 1.072 255 255 255
0.640714 -0.631142 2.244 255 255 255
-0.128351 0.00928141 1.369 255 255 255
0.0224077 0.164062 1.027 0 0 0
0.332423 0.251447 0.839 255 255 255
0.704455 -0.566015 2.261 255 255 255
-0.306646 0.180314 1.015 255 255 255
0.070175 0.289846 0.751 255 255 255
0.0676051 0.00703814 1.366 255 255 255
-1.03762 -0.49588 2.347 0 0 0
0.858957 -0.33745 1.923 255 255 255
0.0128725 0.225358 0.941 255 255 255
0.7203 -0.509016 2.253 0 0 0
-0.743839 -0.0179193 2.278 255 255 255
-0.1974 -0.247666 1.794 255 255 255
0.0527885 0.273438 0.823 255 255 255
0.652229 0.0182724 1.375 255 255 255
0.213927 0.265708 0.745 255 255 255
0.311443 -0.847217 2.189 255 255 255
0.359542 0.267714 0.826 0 0 0
0.765891 -0.305864 1.941 255 255 255
-0.0897801 -0.0368209 1.429 255 255 255
-0.581226 -0.249559 2.196 255 255 255
-0.248683 -0.835592 2.294 0 0 0
-0.308823 0.16936 1.039 255 255 255
0.176322 0.192443 1.018 255 255 255
-0.166481 -0.0537582 1.513 255 255 255
0.149654 0.264496 0.745 255 255 255
-0.236823 -0.00660381 1.432 255 255 255
-0.242386 0.274222 0.798 255 255 255
-0.314099 0.233275 0.895 255 255 255
0.705438 -0.0134714 1.419 255 255 255
0.189142 0.0347511 1.244 255 255 255
0.853157 -0.364474 1.917 255 255 255
0.0329977 0.0346209 1.316 255 255 255
-0.300126 0.290655 0.776 255 255 255
-1.0333 -0.782739 2.057 255 255 255
0.0466752 -0.252694 1.748 255 255 255
-0.313895 -0.106254 1.599 255 255 255
0.627976 -0.712133 2.212 255 255 255
-1.15846 -0.565254 2.449 255 255 255
-0.213827 0.295926 0.77 255 255 255
-0.0370398 0.18217 1.007 255 255 255
-0.790701 -0.265776 2.212 255 255 255
0.360421 0.283958 0.742 255 255 255
0.280675 0.203049 0.93 0 0 0
-0.146646 0.286482 0.822 255 255 255
-0.376118 -0.431429 2.392 255 255 255
-0.914313 -0.798721 2.099 255 255 255
0.113616 0.199491 0.964 0 0 0
0.109553 0.278384 0.77 255 255 255
0.273141 0.0967529 1.162 255 255 255
1.05526 -0.786054 2.158 0 0 0
0.484266 -0.510496 2.181 255 255 255
-0.831753 0.418327 1.821 255 255 255
-1.26607 -0.128823 2.411 255 255 255
0.769295 -0.113828 1.633 255 255 255
-0.133444 0.123287 1.145 255 255 255
-0.952949 -0.0611706 2.374 255 255 255
1.06726 -0.629243 2.092 255 255 255
-0.259298 0.28961 0.76 255 255 255
0.280806 0.206655 0.906 0 0 0
-0.692447 -0.628657 2.479 255 255 255
0.385848 0.0416266 1.154 0 0 0
0.181251 -0.34552 2.085 255 255 255
0.0439382 0.269983 0.833 255 255 255
0.455331 0.1699 1.012 255 255 255
0.769212 -0.74901 2.204 255 255 255
0.0912281 -0.161266 1.629 255 255 255
-0.374335 -0.776877 2.286 255 255 255
0.392082 -0.194985 1.668 0 0 0
-0.528242 -0.615336 2.411 0 0 0
1.04342 -0.608817 2.092 255 255 255
-0.870172 -0.150775 2.269 255 255 255
0.000613799 0.231281 0.934 255 255 255
-0.122035 0.183444 1.005 255 255 255
-0.0529371 -0.757167 2.228 255 255 255
-0.278775 -0.594917 2.392 255 255 255
0.178258 0.119239 1.16 255 255 255
0.529372 -0.0927767 1.591 0 0 0
-0.863692 0.517547 1.655 255 255 255
-0.213999 0.195354 0.999 255 255 255
-0.0506119 0.276113 0.827 255 255 255
-0.849242 0.0853094 2.365 255 255 255
-0.614584 -0.548637 2.411 255 255 255
0.0906372 0.269123 0.814 255 255 255
-0.0469726 0.204941 0.975 255 255 255
0.389065 0.0768524 1.12 255 255 255
-0.315464 0.0437442 1.27 255 255 255
-0.337197 0.240206 0.883 255 255 255
-0.252568 0.25599 0.836 0 0 0
0.723524 -0.782028 2.196 255 255 255
-0.747547 -0.0253334 2.278 255 255 255
0.795823 -0.126134 1.655 255 255 255
0.524937 -0.48387 2.173 255 255 255
-0.31784 0.299595 0.773 255 255 255
0.309104 -0.0465156 1.372 255 255 255
-0.175464 -0.00901525 1.445 255 255 255
-0.0812133 0.0516015 1.26 0 0 0
0.178061 -0.480775 2.128 0 0 0
0.231948 -0.714984 2.114 255 255 255
0.982432 -0.488166 2.057 255 255 255
-0.973821 -0.60558 2.244 255 255 255
0.207638 0.132603 1.145 255 255 255
-0.588376 -0.188808 2.196 255 255 255
0.427147 0.00421595 1.196 255 255 255
0.2556 0.153186 1.044 255 255 255
0.122982 -0.824911 2.196 255 255 255
-0.054196 0.19379 0.991 255 255 255
0.89123 -0.380792 1.905 255 255 255
-0.199429 -0.828335 2.244 0 0 0
0.512754 -0.784126 2.212 255 255 255
0.0125273 -0.705832 2.261 255 255 255
0.430229 0.135244 1.077 255 255 255
0.293777 -0.152466 1.62 255 255 255
-0.00985512 0.28166 0.797 255 255 255
0.370164 -0.0296936 1.319 255 255 255
-0.656239 -0.313702 2.22 0 0 0
1.06462 -0.53432 2.107 255 255 255
-0.238499 0.207253 0.986 255 255 255
-0.65383 -0.921368 2.411 255 255 255
-0.943673 -0.151905 2.286 255 255 255
-0.209671 0.236716 0.897 255 255 255
0.775976 -0.425518 2.078 255 255 255
-0.0824628 0.10999 1.162 255 255 255
0.0154452 0.174322 1.009 0 0 0
0.191749 0.232619 0.845 255 255 255
-0.94473 -0.646662 2.55 255 255 255
-0.339339 0.147933 1.055 255 255 255
0.142374 0.245015 0.822 255 255 255
0.214368 0.00871869 1.286 255 255 255
-0.148252 0.28421 0.831 255 255 255
0.214588 0.258315 0.797 255 255 255
-0.64257 -0.623092 2.489 0 0 0
0.150617 0.276557 0.732 255 255 255
0.222133 0.197097 0.945 255 255 255
0.29588 0.147023 1.002 255 255 255
0.419045 0.184895 1.004 0 0 0
0.349484 0.113046 1.066 0 0 0
0.302939 0.191058 0.938 0 0 0
-0.665968 -0.414574 2.278 0 0 0
0.594713 0.00494564 1.403 255 255 255
-0.135095 0.284843 0.825 255 255 255
-0.893292 -0.523928 2.499 255 255 255
-0.301043 0.272986 0.802 255 255 255
-0.32583 0.180341 0.988 255 255 255
0.236847 0.222384 0.864 255 255 255
0.103348 0.11616 1.167 0 0 0
0.199727 -0.271198 1.876 0 0 0
-0.423943 -0.311032 2.253 0 0 0
0.134016 0.208904 0.964 0 0 0
-0.165193 0.290807 0.808 255 255 255
0.131344 -0.289917 1.859 255 255 255
-0.497419 -0.234515 2.189 0 0 0
-0.0146927 0.154066 1.05 255 255 255
0.618509 0.00949158 1.4 255 255 255
-0.522107 -0.836987 2.383 0 0 0
-0.356044 0.11188 1.124 255 255 255
0.845932 -0.694042 2.189 255 255 255
-0.349179 0.292457 0.82 255 255 255
-0.854012 0.416024 1.837 255 255 255
0.317568 -0.030414 1.351 255 255 255
0.0826917 0.241098 0.841 255 255 255
-1.00304 -0.652393 2.54 255 255 255
0.386297 0.130472 1.039 255 255 255
0.53397 -0.485651 2.181 255 255 255
0.845063 -0.578332 2.196 255 255 255
-1.01673 -0.737245 2.024 255 255 255
0.304241 0.223785 0.848 255 255 255
-0.662502 -0.241729 2.158 0 0 0
0.0176318 -0.0686471 1.463 255 255 255
0.356069 0.281922 0.743 255 255 255
-0.987069 -0.683609 2.459 255 255 255
-0.173078 0.130171 1.124 0 0 0
-0.715499 -0.586638 2.489 255 255 255
0.471928 0.235841 0.934 255 255 255
-0.0345534 -0.812923 2.212 255 255 255
-0.396005 -0.334213 2.261 0 0 0
0.214596 0.0866068 1.205 255 255 255
-0.105993 0.291104 0.798 255 255 255
0.217302 -0.157738 1.62 255 255 255
-0.785222 0.107693 2.269 255 255 255
-0.279941 0.0262724 1.327 255 255 255
-0.89159 -0.0070578 2.365 255 255 255
-0.217905 0.213966 0.98 0 0 0
-0.909652 0.423463 1.805 0 0 0
-0.893508 -0.350485 2.32 255 255 255
0.404938 0.195221 0.974 255 255 255
0.126556 -0.824911 2.196 255 255 255
-0.790679 -0.624016 2.509 255 255 255
0.027156 0.167429 1.017 0 0 0
0.47784 -0.0138678 1.247 255 255 255
-0.400207 0.182765 1.048 255 255 255
-0.331164 0.268732 0.825 255 255 255
0.419065 0.202311 0.97 255 255 255
-0.0864451 -0.0895111 1.535 0 0 0
0.780936 -0.300472 1.947 0 0 0
0.571717 -0.291063 1.991 255 255 255
-0.101495 0.0301994 1.31 255 255 255
-0.0511215 0.293847 0.755 255 255 255
0.792557 -0.316529 1.929 255 255 255
-0.272384 -0.051296 1.513 255 255 255
-0.89907 -0.750404 2.55 255 255 255
0.315633 0.183063 0.944 0 0 0
-0.00414594 0.195027 0.981 255 255 255
0.817242 -0.780004 2.151 255 255 255
0.173448 -0.439771 2.114 255 255 255
-0.772587 -0.818627 2.53 255 255 255
0.0121671 -0.846353 2.196 255 255 255
0.198217 0.215502 0.906 255 255 255
-0.850975 -0.951716 2.459 255 255 255
-0.190159 0.265497 0.849 0 0 0
-0.178043 -0.252122 1.805 255 255 255
-0.286808 -0.0137562 1.449 255 255 255
0.404038 0.242825 0.898 0 0 0
-0.896137 -0.686879 2.53 0 0 0
0.716375 -0.664098 2.196 255 255 255
-0.175479 -0.228225 1.779 255 255 255
-0.329756 -0.749984 2.261 0 0 0
0.13025 0.281469 0.745 255 255 255
-0.340664 0.279794 0.822 255 255 255
-0.21757 0.0222016 1.342 255 255 255
0.196135 0.245313 0.823 255 255 255
0.0571467 -0.111777 1.567 255 255 255
0.129368 0.0625855 1.234 255 255 255
0.141107 0.0389558 1.249 255 255 255
0.294184 0.108289 1.106 255 255 255
-0.413815 0.252249 0.95 255 255 255
0.129369 0.271372 0.754 255 255 255
-0.647724 -0.332961 2.228 255 255 255
-0.21876 0.296183 0.761 255 255 255
0.0373368 0.268555 0.837 255 255 255
0.182838 0.262855 0.737 255 255 255
0.163665 -0.686288 2.121 255 255 255
0.233676 0.268712 0.75 255 255 255
-0.924006 0.233967 2.43 255 255 255
0.878343 -0.719899 2.181 255 255 255
0.343928 0.179588 0.95 255 255 255
-0.0128555 -0.399651 2.196 255 255 255
0.435346 0.130469 1.081 255 255 255
-1.28968 0.121695 2.479 255 255 255
-1.23761 -0.281259 2.44 255 255 255
-0.361868 0.294434 0.837 255 255 255
0.726718 -0.336467 2.092 0 0 0
0.141195 0.10365 1.198 255 255 255
0.604893 -0.0509231 1.502 0 0 0
-0.344102 0.293658 0.805 255 255 255
-0.0481236 -0.469144 2.347 0 0 0
-1.03403 -0.345737 2.365 0 0 0
-0.132715 0.292214 0.787 255 255 255
-0.296292 0.224048 0.955 255 255 255
0.46963 0.175877 1.018 255 255 255
-0.865329 -0.22419 2.228 255 255 255
0.382056 0.264172 0.811 255 255 255
0.296646 -0.44731 2.085 0 0 0
0.235737 0.229876 0.84 255 255 255
-0.443243 -0.674356 2.44 255 255 255
0.320368 -0.0806077 1.422 255 255 255
-0.101226 0.228577 0.948 255 255 255
-0.293801 0.257371 0.845 0 0 0
0.294955 0.146554 1.01 0 0 0
-0.210949 0.240478 0.884 255 255 255
-0.306279 -0.763037 2.278 255 255 255
-0.925715 -0.730773 2.071 255 255 255
-0.310775 0.0602337 1.227 255 255 255
0.224126 0.250046 0.808 255 255 255
0.878121 -0.280245 1.917 0 0 0
-0.946873 -0.7788 2.469 255 255 255
0.255613 0.160388 1.004 255 255 255
0.0845746 -0.548526 2.22 255 255 255
0.978027 -0.257599 1.911 255 255 255
-0.97687 -0.733729 2.051 255 255 255
0.303968 0.256613 0.78 255 255 255
0.135443 -0.231718 1.719 255 255 255
-0.522964 -0.278035 2.253 255 255 255
-0.0194594 0.27744 0.819 255 255 255
-0.155761 0.284219 0.835 255 255 255
-1.03029 -0.71704 2.051 255 255 255
-0.0688779 0.235836 0.928 255 255 255
-0.658776 -0.623092 2.489 255 255 255
-0.218566 -0.421024 2.253 255 255 255
-1.27644 0.10915 2.469 255 255 255
-0.172168 0.203423 0.983 255 255 255
-1.0463 0.160912 2.402 255 255 255
-0.282486 -0.0113195 1.439 255 255 255
0.508775 -0.435194 2.092 255 255 255
-0.171032 -0.700982 2.356 255 255 255
0.519955 -0.809323 2.212 255 255 255
0.0814997 0.195221 0.974 255 255 255
0.188039 -0.382843 2.085 255 255 255
-0.118426 0.288283 0.812 255 255 255
0.656366 -0.578782 2.312 0 0 0
-0.281123 -0.0384957 1.494 255 255 255
0.355906 0.170741 0.97 0 0 0
0.956318 -0.475152 2.03 255 255 255
-0.0358343 -0.678802 2.294 255 255 255
-0.346119 -0.648653 2.347 0 0 0
0.430575 0.252946 0.844 255 255 255
0.0223948 -0.0686471 1.463 255 255 255
-0.892361 -0.896994 2.43 255 255 255
-0.34742 0.288102 0.819 255 255 255
0.00686103 0.279461 0.78 0 0 0
0.0964959 0.163797 1.015 0 0 0
-0.898207 -0.299196 2.303 255 255 255
-0.10221 0.264263 0.877 255 255 255
0.163647 0.0678315 1.22 255 255 255
-0.0174252 -0.586828 2.329 255 255 255
0.189342 0.169664 1.073 255 255 255
0.150605 0.0542435 1.227 255 255 255
-0.785467 0.494832 1.616 0 0 0
0.126261 -0.013291 1.4 255 255 255
0.819379 -0.245159 1.911 255 255 255
-0.221942 0.149265 1.077 255 255 255
0.851729 -0.666518 2.204 0 0 0
-0.107048 -0.619824 2.383 255 255 255
0.23461 -0.726332 2.107 255 255 255
-0.64257 -0.679798 2.489 0 0 0
0.26447 -0.433234 2.099 0 0 0
0.91418 -0.20398 1.821 255 255 255
0.387873 0.0158006 1.189 255 255 255
0.230513 0.225962 0.851 255 255 255
-0.234208 0.190742 1.009 255 255 255
-0.448405 -0.511242 2.383 0 0 0
0.0839651 -0.594785 2.204 255 255 255
-0.277571 0.0422026 1.286 255 255 255
0.382708 -0.790222 2.189 255 255 255
0.295936 0.22685 0.844 255 255 255
-0.0391784 0.166263 1.02 0 0 0
0.0509266 0.164381 1.029 0 0 0
-0.544396 -0.439016 2.329 255 255 255
0.687778 -0.735571 2.196 255 255 255
0.162262 0.224591 0.964 0 0 0
0.132417 0.0316648 1.283 255 255 255
0.717655 -0.811595 2.189 255 255 255
-0.0173579 -0.618539 2.32 0 0 0
-0.220666 0.29167 0.772 255 255 255
0.837046 -0.334321 1.923 255 255 255
0.0415188 0.199905 0.966 255 255 255
-0.2632 -0.466462 2.392 0 0 0
0.731136 -0.271119 1.941 255 255 255
-0.0825073 0.295927 0.797 255 255 255
0.290325 -0.0147575 1.327 255 255 255
0.548247 -0.328824 2.024 255 255 255
-0.0921277 0.184159 1 255 255 255
0.0758104 0.159187 1.073 255 255 255
-0.612045 -0.297095 2.204 255 255 255
-0.22558 0.174905 1.022 0 0 0
-0.754967 -0.797062 2.54 255 255 255
0.450722 -0.227093 1.748 0 0 0
0.115041 -0.49275 2.181 0 0 0
-0.520538 -0.778361 2.43 255 255 255
-0.880041 -0.00320917 2.365 255 255 255
-1.12316 -0.491532 2.459 255 255 255
-0.899679 -0.619325 2.54 255 255 255
0.569573 0.0508882 1.294 0 0 0
-0.983984 -0.495834 2.365 255 255 255
0.186293 -0.512063 2.143 255 255 255
0.0348703 -0.692603 2.278 0 0 0
-0.625069 -0.373766 2.212 255 255 255
-0.813507 -0.77792 2.479 255 255 255
0.264407 0.266544 0.772 255 255 255
0.410919 0.240147 0.91 255 255 255
-0.63913 -0.15586 2.236 255 255 255
0.173207 0.276724 0.717 255 255 255
0.15795 0.22702 0.871 255 255 255
0.316758 0.178417 0.952 255 255 255
0.30264 0.131602 1.048 255 255 255
-0.92005 0.0481099 2.43 255 255 255
0.0974186 -0.376596 2.107 255 255 255
-0.948075 -0.201755 2.261 255 255 255
0.0335672 0.24087 0.845 255 255 255
-0.360704 0.240052 0.921 0 0 0
-0.674983 -0.724352 2.489 0 0 0
-0.299917 0.273266 0.799 255 255 255
-1.1539 -0.192522 2.374 255 255 255
-0.231178 -0.631457 2.383 255 255 255
-0.282406 0.210889 0.988 0 0 0
0.364786 0.256248 0.874 255 255 255
0.260183 -0.448811 2.092 0 0 0
-0.185681 0.218096 0.97 0 0 0
0.0952677 0.285663 0.766 255 255 255
-0.42852 -0.480138 2.402 0 0 0
-0.742781 -0.625595 2.499 255 255 255
-0.788098 0.52376 1.616 0 0 0
-0.213438 0.268305 0.832 255 255 255
-0.26423 0.23674 0.914 255 255 255
-1.18601 -0.193982 2.392 255 255 255
0.307264 0.176325 0.966 255 255 255
-1.22267 0.246952 2.365 255 255 255
0.717323 -0.166495 1.739 255 255 255
0.260637 0.270313 0.772 255 255 255
-1.25913 0.066569 2.383 255 255 255
-0.486881 -0.881488 2.42 0 0 0
0.366344 0.236143 0.906 255 255 255
0.746495 -0.0886004 1.563 255 255 255
0.0911405 -0.788463 2.204 0 0 0
-0.313819 -0.563776 2.392 255 255 255
0.0424221 0.22311 0.951 0 0 0
0.222044 0.102265 1.182 255 255 255
-0.322543 0.265346 0.827 255 255 255
0.19474 0.135139 1.135 255 255 255
0.800456 -0.417123 2.037 255 255 255
-0.348524 -0.0740901 1.579 255 255 255
0.543928 0.135139 1.135 0 0 0
-0.278816 0.184884 1.022 0 0 0
-0.209535 0.142228 1.104 255 255 255
-0.975749 -0.688338 2.392 255 255 255
-1.22511 -0.616554 2.479 255 255 255
0.0748915 0.0997505 1.198 255 255 255
1.00959 -0.684213 2.158 0 0 0
-0.108503 0.232053 0.931 255 255 255
-0.754489 0.485806 1.595 0 0 0
-1.23468 -0.662418 2.411 255 255 255
0.0401575 0.266466 0.839 255 255 255
-0.0477252 0.072094 1.192 255 255 255
-0.226436 0.259556 0.83 255 255 255
0.309263 0.212049 0.862 255 255 255
-0.0483106 0.208625 0.97 255 255 255
0.284882 0.24802 0.773 255 255 255
0.191877 0.200851 0.963 255 255 255
-0.00881034 -0.107355 1.505 255 255 255
0.667548 -0.63253 2.236 255 255 255
0.336238 -0.304417 2.037 255 255 255
0.0578389 -0.0612105 1.456 255 255 255
0.153435 0.215712 0.988 255 255 255
0.581211 0.118622 1.154 255 255 255
-0.289784 0.266809 0.807 0 0 0
-0.243732 -0.649413 2.392 255 255 255
1.02368 -0.763228 2.173 255 255 255
0.654279 -0.45986 2.228 0 0 0
-1.12214 0.211506 2.356 255 255 255
-0.157635 0.179959 1.013 255 255 255
-0.0810683 -0.831503 2.204 255 255 255
-0.810425 0.0270551 2.32 255 255 255
-0.853629 0.371014 1.997 255 255 255
0.0254738 0.219156 0.954 0 0 0
-0.830961 -0.475526 2.459 255 255 255
0.155154 0.256978 0.805 255 255 255
0.161732 0.148882 1.087 255 255 255
-0.133932 -0.340664 1.978 255 255 255
-0.408067 -0.841553 2.374 0 0 0
-0.55375 -0.298835 2.244 255 255 255
0.228441 0.247929 0.814 255 255 255
0.30862 0.0221686 1.22 255 255 255
-0.0938729 -0.736331 2.253 255 255 255
0.628681 -0.105013 1.62 0 0 0
0.401141 -0.409324 2.099 255 255 255
-0.350776 -0.733381 2.278 0 0 0
0.0446637 0.201477 0.966 255 255 255
0.0496706 0.0114504 1.362 255 255 255
0.965584 -0.347784 1.911 255 255 255
-0.134761 0.231812 0.924 255 255 255
-1.25232 0.0649536 2.469 255 255 255
0.734296 -0.274277 1.941 255 255 255
0.0410614 -0.73733 2.212 255 255 255
-1.07975 0.435162 2.244 255 255 255
0.446062 0.192953 0.995 255 255 255
-0.335114 0.305238 0.781 255 255 255
-0.856007 0.460789 1.779 255 255 255
0.323772 -0.0695952 1.387 255 255 255
0.147362 -0.191809 1.664 255 255 255
-0.833387 0.462381 1.774 255 255 255
0.314265 0.159417 0.978 255 255 255
-1.23124 -0.655598 2.459 255 255 255
0.591047 0.0920312 1.225 255 255 255
-1.23535 -0.499489 2.42 0 0 0
-0.376448 0.297272 0.861 255 255 255
0.293016 0.00655897 1.273 255 255 255
-0.42901 -0.445317 2.383 255 255 255
0.00429624 0.134307 1.098 255 255 255
-0.305975 0.211381 0.961 255 255 255
0.913708 -0.50689 2.107 255 255 255
-1.003 -0.495251 2.561 255 255 255
0.163157 0.276326 0.719 0 0 0
0.458074 -0.718783 2.244 0 0 0
-0.17866 0.0521616 1.225 255 255 255
0.798837 -0.31339 1.929 255 255 255
-1.04927 -0.359758 2.356 0 0 0
-0.0258724 0.07641 1.169 255 255 255
0.0024792 0.143311 1.085 255 255 255
-0.207903 -0.480218 2.383 0 0 0
0.0929791 0.0281962 1.316 255 255 255
0.450037 -0.360965 2.057 255 255 255
-0.34939 -0.748945 2.269 0 0 0
-0.31915 -0.24205 1.911 255 255 255
0.651243 -0.297787 2.037 0 0 0
-0.110173 -0.0227561 1.422 255 255 255
0.232783 0.269411 0.784 0 0 0
-0.527973 -0.906322 2.392 255 255 255
-0.325437 0.25187 0.845 255 255 255
-0.0404158 0.210204 0.97 255 255 255
-0.231355 0.249902 0.843 255 255 255
0.450169 -0.0420236 1.302 0 0 0
-0.315919 0.0945354 1.158 255 255 255
0.84057 -0.517559 2.166 255 255 255
0.145522 -0.081487 1.48 255 255 255
-0.11387 0.0263318 1.33 255 255 255
-0.218134 -0.101302 1.603 0 0 0
0.230676 0.215798 0.889 255 255 255
0.415478 0.216295 0.969 255 255 255
0.609311 -0.679834 2.236 255 255 255
-0.872953 -0.519861 2.499 255 255 255
-0.957632 -0.0903314 2.329 255 255 255
-1.25822 -0.148441 2.411 255 255 255
-0.141578 0.0604792 1.232 255 255 255
0.031381 -0.570543 2.294 255 255 255
0.457728 -0.0178545 1.242 255 255 255
-0.34051 0.0905286 1.205 255 255 255
0.250803 -0.672338 2.099 255 255 255
-0.321371 0.0936911 1.171 255 255 255
-0.0918313 -0.831503 2.204 255 255 255
0.793966 -0.182416 1.784 0 0 0
0.194738 0.20807 0.939 255 255 255
0.160347 -0.351123 2.078 255 255 255
-0.699292 -0.582588 2.489 0 0 0
-0.792045 -0.11801 2.278 255 255 255
0.38113 0.262478 0.835 0 0 0
0.197366 0.190364 1.007 255 255 255
0.527227 0.108676 1.189 0 0 0
0.0513243 -0.808033 2.189 255 255 255
-0.895764 0.448823 1.789 0 0 0
-1.13458 -0.32001 2.374 255 255 255
-0.19358 0.208755 0.978 255 255 255
0.553047 -0.682266 2.244 255 255 255
0.266813 0.236989 0.822 255 255 255
0.527401 0.0430209 1.249 0 0 0
0.108714 -0.143105 1.575 255 255 255
-0.0766561 0.107913 1.16 255 255 255
-0.312846 0.300939 0.77 255 255 255
0.0806692 -0.564547 2.212 255 255 255
-0.8823 0.222523 2.392 255 255 255
-0.264678 0.0322078 1.305 255 255 255
-1.22915 0.218514 2.479 255 255 255
-0.373476 0.20398 0.978 255 255 255
-0.758005 -0.758754 2.509 255 255 255
0.456438 0.0453039 1.152 255 255 255
0.73717 -0.823344 2.173 255 255 255
-0.504694 -0.603565 2.411 0 0 0
0.141543 0.270068 0.747 0 0 0
-0.799989 -0.39043 2.356 0 0 0
0.0312147 0.116359 1.169 255 255 255
-0.149915 -0.140081 1.599 255 255 255
-0.347128 -0.718943 2.303 0 0 0
-0.32214 -0.725515 2.312 0 0 0
0.347565 0.133405 1.01 255 255 255
-0.124571 -0.805724 2.212 255 255 255
-0.284961 0.246384 0.895 255 255 255
-1.23535 -0.290768 2.42 255 255 255
-0.425221 -0.762004 2.32 255 255 255
0.204014 0.248843 0.817 255 255 255
0.408747 -0.129741 1.509 255 255 255
0.173783 0.204082 0.994 255 255 255
0.253372 -0.680309 2.092 255 255 255
-0.777428 -0.831465 2.519 255 255 255
-0.214691 0.0450535 1.249 255 255 255
-0.218152 0.292926 0.772 255 255 255
-1.11296 0.14301 2.499 255 255 255
0.0320632 0.280633 0.746 255 255 255
-0.301092 0.295439 0.772 255 255 255
-0.0507013 0.165937 1.018 0 0 0
0.457999 0.203474 1.007 0 0 0
0.344092 -0.0808808 1.387 255 255 255
-1.22346 -0.737244 2.374 255 255 255
-0.0567669 -0.778079 2.236 255 255 255
0.306114 0.266626 0.751 255 255 255
-0.212271 0.253063 0.849 255 255 255
-0.184886 -0.336421 1.972 255 255 255
-0.418356 -0.35916 2.303 0 0 0
0.215558 -0.148627 1.607 255 255 255
0.80081 -0.654538 2.212 255 255 255
0.449616 0.140424 1.09 255 255 255
-0.061178 -0.111482 1.528 255 255 255
-0.382677 0.291137 0.872 255 255 255
0.300577 -0.0664418 1.416 255 255 255
-0.287639 0.097031 1.143 255 255 255
-0.356777 -0.774792 2.269 0 0 0
0.355691 0.0844433 1.124 255 255 255
0.358938 -0.472642 2.092 255 255 255
-0.804486 -0.0818275 2.303 255 255 255
0.606469 0.0515174 1.31 255 255 255
0.0341765 0.164381 1.029 0 0 0
-0.115395 0.277604 0.848 255 255 255
-0.256165 0.0768021 1.205 255 255 255
-0.0742544 0.300515 0.792 255 255 255
0.206731 0.252605 0.812 255 255 255
-0.16426 0.0162097 1.39 255 255 255
0.129495 0.1017 1.198 255 255 255
-1.2257 -0.495676 2.44 255 255 255
-0.0353276 0.277752 0.816 0 0 0
0.397898 0.244897 0.928 255 255 255
-0.0311122 0.280982 0.81 255 255 255
-1.02913 0.224606 2.294 255 255 255
-0.939199 -0.747624 2.071 255 255 255
-0.964735 -0.53432 2.365 255 255 255
0.291073 -0.134384 1.563 255 255 255
-0.165118 -0.144922 1.595 255 255 255
-0.204967 0.29774 0.765 255 255 255
0.087006 -0.0461227 1.429 255 255 255
-0.877534 -0.933139 2.411 255 255 255
-0.101626 0.0948424 1.21 255 255 255
-0.999231 -0.00711152 2.383 255 255 255
-0.649012 -0.37873 2.22 255 255 255
-0.864238 -0.240407 2.244 255 255 255
-0.297322 0.295439 0.772 255 255 255
0.155505 0.273485 0.727 0 0 0
0.0589619 0.17838 0.995 0 0 0
-0.208731 -0.0927767 1.591 0 0 0
0.725039 -0.471592 2.303 0 0 0
0.544262 -0.696001 2.253 255 255 255
0.647577 -0.741194 2.181 255 255 255
-0.425221 -0.765779 2.32 255 255 255
-0.0903803 0.210472 0.964 255 255 255
-0.861702 -0.22419 2.228 255 255 255
0.0994353 0.0434687 1.262 255 255 255
-0.360971 0.152068 1.048 255 255 255
-0.125579 0.289134 0.807 255 255 255
-0.217381 -0.550498 2.402 255 255 255
0.406119 0.162074 1.025 255 255 255
-0.076402 0.297412 0.801 255 255 255
0.977082 -0.413902 1.959 255 255 255
-0.118553 -0.103861 1.563 0 0 0
-1.05729 -0.489994 2.374 0 0 0
-0.136842 -0.861769 2.236 255 255 255
0.635825 0.00944412 1.393 255 255 255
-0.332612 0.0653788 1.249 255 255 255
0.410196 0.0100212 1.192 255 255 255
0.0839651 -0.78129 2.204 0 0 0
-0.144443 0.176662 1.013 255 255 255
0.170779 -0.177171 1.629 255 255 255
-0.98792 0.276232 2.32 255 255 255
-0.990225 -0.773781 2.051 255 255 255
0.158523 0.267486 0.73 255 255 255
0.75395 -0.41569 2.244 0 0 0
-1.0271 0.0919854 2.44 255 255 255
0.303779 0.160515 0.975 255 255 255
-0.203162 -0.438351 2.286 0 0 0
0.912307 -0.192197 1.794 255 255 255
-0.0638696 0.249225 0.9 255 255 255
-0.704646 -0.319602 2.236 255 255 255
-1.0068 0.200724 2.32 255 255 255
-1.23505 0.255618 2.374 255 255 255
0.271304 -0.358088 2.099 255 255 255
0.331207 0.0814848 1.16 255 255 255
0.0302273 0.215174 0.957 0 0 0
0.788649 -0.157551 1.734 255 255 255
0.200977 0.227024 0.855 255 255 255
0.131405 0.173458 1.004 0 0 0
-0.305069 -0.841256 2.269 0 0 0
0.0938841 0.16291 1.041 0 0 0
0.0300404 -0.846353 2.196 255 255 255
-0.0199401 -0.0483125 1.425 255 255 255
-0.943839 0.276324 2.42 255 255 255
0.214031 -0.633755 2.107 0 0 0
-0.045447 0.283881 0.807 255 255 255
-0.00198397 -0.328747 2.044 255 255 255
0.33446 -0.00172739 1.273 255 255 255
0.545741 -0.674963 2.244 255 255 255
0.596699 -0.378176 2.078 255 255 255
0.0159138 -0.750835 2.22 255 255 255
0.169031 0.222875 0.877 255 255 255
0.708136 -0.632244 2.261 255 255 255
0.364022 0.269783 0.812 255 255 255
-0.846992 0.529981 1.603 255 255 255
0.301752 0.10182 1.114 255 255 255
-0.373572 0.062746 1.322 0 0 0
0.398472 0.215372 0.951 255 255 255
-0.136564 -0.0585273 1.509 255 255 255
0.0426898 0.213616 0.957 0 0 0
0.385814 0.0250894 1.171 255 255 255
-0.328085 -0.454473 2.411 0 0 0
-0.084254 -0.249875 1.81 255 255 255
-0.0313393 -0.00393625 1.319 255 255 255
0.15717 -0.202096 1.682 255 255 255
-0.770683 -0.242412 2.196 255 255 255
-0.345066 0.11188 1.124 255 255 255
0.858542 -0.81766 2.158 255 255 255
-0.367776 0.255978 0.898 255 255 255
0.0866391 -0.62407 2.181 255 255 255
-0.281931 0.100046 1.135 255 255 255
-0.325 0.079286 1.213 255 255 255
0.105046 0.171482 1.002 0 0 0
-0.778287 -0.180682 2.228 255 255 255
-0.293552 0.292926 0.772 255 255 255
-0.100456 -0.564331 2.411 0 0 0
-1.02011 -0.703811 2.071 255 255 255
0.220052 -0.648427 2.099 0 0 0
-0.911356 0.476815 1.774 255 255 255
0.955253 -0.581071 2.078 255 255 255
-0.851236 -0.536319 2.519 255 255 255
0.076681 -0.231718 1.719 0 0 0
0.0184914 0.0828908 1.208 255 255 255
0.31606 -0.12855 1.524 255 255 255
-0.976495 -0.281997 2.347 255 255 255
0.95952 -0.330148 1.899 255 255 255
0.0231852 0.0653788 1.249 0 0 0
-0.0764309 0.240367 0.928 255 255 255
-0.280755 0.258134 0.843 0 0 0
0.323566 0.240345 0.848 255 255 255
0.571663 -0.344196 2.037 255 255 255
0.279723 0.228194 0.849 0 0 0
-0.980379 0.292463 2.329 255 255 255
0.780719 -0.717703 2.196 255 255 255
0.124712 -0.0935835 1.52 0 0 0
0.271259 0.176976 0.961 255 255 255
0.0243637 0.238148 0.86 255 255 255
0.258972 0.0559194 1.22 255 255 255
0.37213 0.267432 0.801 255 255 255
-0.151943 -0.857549 2.244 255 255 255
0.0763006 0.276765 0.776 255 255 255
0.153181 0.126352 1.156 255 255 255
-0.915414 0.439621 1.799 0 0 0
-0.731403 -0.868033 2.53 255 255 255
0.118267 0.0489219 1.244 255 255 255
0.273312 0.243056 0.798 0 0 0
-0.879355 -0.221357 2.236 255 255 255
-0.333559 -0.253755 1.978 255 255 255
-0.894497 0.00840018 2.383 255 255 255
0.218554 0.00871869 1.286 255 255 255
0.514677 -0.741692 2.236 255 255 255
-0.860749 -0.861463 2.499 255 255 255
0.20786 -0.611779 2.114 0 0 0
-0.093093 -0.24693 1.81 0 0 0
0.405808 -0.0332135 1.289 0 0 0
0.0133376 0.200181 0.975 255 255 255
-0.329006 0.282957 0.797 255 255 255
0.264924 0.199961 0.944 255 255 255
-0.31407 0.168545 1.034 255 255 255
0.156652 0.220536 0.988 255 255 255
0.275791 0.25576 0.755 0 0 0
0.603573 -0.318768 2.044 255 255 255
0.0520393 0.164281 1.018 0 0 0
0.0635629 0.138833 1.135 255 255 255
0.150857 0.150389 1.098 255 255 255
-1.20231 -0.565254 2.449 255 255 255
-0.0660102 0.223345 0.952 0 0 0
-0.145132 0.231561 0.923 255 255 255
0.252595 -0.515454 2.114 255 255 255
-0.0744007 0.264681 0.869 255 255 255
0.612025 0.0476867 1.322 255 255 255
-0.14737 0.233966 0.909 255 255 255
-0.902712 0.15131 2.374 255 255 255
0.189348 0.262366 0.739 255 255 255
0.88927 -0.703113 2.173 255 255 255
0.2761 0.214312 0.877 255 255 255
0.108337 -0.829406 2.189 255 255 255
0.300003 0.236711 0.84 255 255 255
-0.204311 0.0355612 1.273 255 255 255
0.123263 -0.0442876 1.445 0 0 0
0.81944 -0.691624 2.204 255 255 255
0.00144841 -0.835089 2.204 255 255 255
-0.553055 -0.247778 2.212 255 255 255
-0.281121 0.247714 0.874 255 255 255
0.909861 -0.62554 2.114 255 255 255
0.529141 0.132835 1.147 0 0 0
-0.00880904 0.201686 0.967 255 255 255
-0.188783 0.167893 1.03 0 0 0
-0.278559 0.188573 1.015 0 0 0
0.461622 -0.00362589 1.215 255 255 255
0.28982 0.131979 1.051 255 255 255
-0.21604 0.00951192 1.403 255 255 255
-0.285706 -0.120952 1.587 255 255 255
-1.1752 -0.507538 2.459 255 255 255
0.37931 0.258582 0.84 255 255 255
0.944273 -0.646181 2.114 255 255 255
-0.258727 0.259413 0.821 0 0 0
0.166399 0.240628 0.849 255 255 255
0.424886 0.0398865 1.158 255 255 255
0.24397 -0.645012 2.099 255 255 255
-0.0973687 0.271271 0.872 255 255 255
-1.01674 -0.804917 2.071 255 255 255
0.188325 0.246952 0.824 255 255 255
0.194789 -0.0809364 1.47 255 255 255
-0.911609 -0.776429 2.085 255 255 255
0.460976 -0.438314 2.107 255 255 255
0.161324 0.129102 1.147 255 255 255
-1.26347 0.199944 2.499 255 255 255
-1.17379 -0.27081 2.383 255 255 255
0.0680994 0.26901 0.83 0 0 0
0.337922 0.269784 0.816 255 255 255
0.154099 -0.372664 2.085 255 255 255
-0.232395 0.293069 0.753 255 255 255
0.306277 0.082398 1.173 255 255 255
0.284819 0.143998 1.039 255 255 255
-0.995473 -0.501501 2.32 0 0 0
0.353154 -0.520203 2.078 0 0 0
0.262758 0.0731827 1.21 255 255 255
-0.319249 0.260071 0.836 255 255 255
0.985133 -0.675969 2.143 255 255 255
-0.305926 0.271084 0.808 255 255 255
0.747686 -0.655758 2.204 255 255 255
0.753095 -0.136728 1.686 255 255 255
0.277338 0.155555 0.994 255 255 255
-0.913237 0.463379 1.789 255 255 255
0.842269 -0.29862 1.935 255 255 255
-0.269968 -0.623702 2.383 255 255 255
-0.283398 -0.400385 2.303 0 0 0
-0.030941 -0.10764 1.509 255 255 255
-0.822283 -0.91139 2.469 0 0 0
-0.0147461 0.229149 0.944 255 255 255
0.229264 -0.544774 2.121 0 0 0
0.00874574 0.261005 0.839 0 0 0
-0.653287 -0.723196 2.499 0 0 0
0.45139 0.140424 1.09 255 255 255
0.395925 0.245396 0.913 255 255 255
-1.25436 0.0695302 2.489 255 255 255
0.250156 0.206405 0.918 255 255 255
0.615172 0.0667398 1.275 255 255 255
0.0402012 0.168253 1.012 0 0 0
0.602216 -0.622169 2.278 255 255 255
-0.608458 -0.185909 2.204 255 255 255
-0.196378 0.259503 0.852 255 255 255
0.606293 -0.45558 2.173 255 255 255
-0.38445 0.0353838 1.345 255 255 255
0.222991 0.263759 0.79 255 255 255
0.0898241 0.161361 1.053 0 0 0
0.0878696 -0.152089 1.616 255 255 255
-0.829599 -0.783035 2.42 0 0 0
0.198541 0.0642272 1.227 255 255 255
0.373823 0.211069 0.932 255 255 255
-0.198094 0.0376328 1.273 255 255 255
0.469567 -0.0473626 1.333 255 255 255
0.281624 0.155242 0.992 255 255 255
0.376283 0.026995 1.171 255 255 255
-0.0595422 -0.401107 2.204 255 255 255
0.0229745 -0.809983 2.204 255 255 255
-0.412489 0.200904 1.036 255 255 255
-0.290472 0.172204 1.046 0 0 0
-0.033752 0.260877 0.843 0 0 0
-0.379903 -0.845063 2.32 0 0 0
0.354398 -0.110165 1.477 255 255 255
0.183772 -0.708104 2.114 255 255 255
1.02368 -0.770301 2.173 255 255 255
-0.00531121 -0.328747 2.044 255 255 255
-0.25944 0.279102 0.779 255 255 255
-0.228842 -0.875266 2.32 0 0 0
-0.377 0.276947 0.872 255 255 255
-1.21826 -0.684814 2.449 255 255 255
-0.301538 0.277666 0.793 255 255 255
0.512619 -0.83601 2.151 255 255 255
-0.578057 -0.428287 2.312 255 255 255
-0.0777059 0.296109 0.801 255 255 255
0.0903652 0.242386 0.836 0 0 0
-1.02104 -0.688037 2.204 0 0 0
0.000551368 0.256909 0.839 255 255 255
0.650062 -0.599015 2.303 255 255 255
-0.274196 0.110247 1.126 255 255 255
0.0762671 -0.829406 2.189 255 255 255
0.228412 -0.0172994 1.357 255 255 255
0.357249 0.167375 0.978 0 0 0
0.877338 -0.275721 1.929 0 0 0
0.463736 0.2458 0.909 255 255 255
0.344511 0.00235696 1.242 255 255 255
-0.551789 -0.827204 2.411 255 255 255
-0.156219 -0.32696 1.935 255 255 255
-1.00293 -0.471922 2.42 255 255 255
0.717499 -0.331948 2.085 0 0 0
0.731269 -0.838315 2.166 255 255 255
0.889932 -0.771344 2.166 255 255 255
0.860185 -0.711853 2.189 255 255 255
-0.268506 0.0570195 1.244 255 255 255
0.295474 0.12609 1.059 255 255 255
-0.0374254 -0.172907 1.691 255 255 255
-1.18721 -0.51154 2.459 255 255 255
0.0811633 0.274566 0.799 255 255 255
-1.07107 0.203794 2.312 255 255 255
0.312805 0.0490624 1.198 255 255 255
0.0113046 0.226166 0.938 255 255 255
-0.142052 -0.742625 2.261 255 255 255
0.0246998 0.278905 0.782 0 0 0
-0.173406 0.210637 0.972 0 0 0
-0.0816481 0.277437 0.856 255 255 255
0.790478 -0.583669 2.244 0 0 0
0.077806 0.0324053 1.313 255 255 255
0.00149112 -0.697252 2.269 255 255 255
0.466477 -0.107925 1.513 255 255 255
0.98086 -0.386789 1.935 255 255 255
-0.557403 -0.306138 2.244 255 255 255
0.248717 0.128782 1.112 255 255 255
0.398435 0.305238 0.781 0 0 0
0.129159 0.0684987 1.232 255 255 255
0.350502 0.147616 0.995 255 255 255
-0.938602 -0.535871 2.479 255 255 255
0.373024 -0.34088 2.057 255 255 255
-1.24716 -0.038727 2.42 255 255 255
-1.11592 -0.571561 2.392 255 255 255
0.702522 -0.400406 2.22 255 255 255
0.217862 -0.00831649 1.333 255 255 255
-0.135041 0.0934315 1.192 255 255 255
0.864778 -0.388729 1.929 255 255 255
-0.909119 -0.868994 2.509 255 255 255
-0.241124 0.115631 1.143 255 255 255
0.81563 -0.20454 1.826 0 0 0
-0.0856061 0.301533 0.778 255 255 255
0.117538 0.286637 0.749 255 255 255
-0.0464743 0.00466011 1.322 255 255 255
0.905912 -0.415684 1.923 255 255 255
-0.310929 0.0475007 1.26 255 255 255
-0.0710463 -0.671569 2.347 255 255 255
-0.207517 0.188725 1.007 255 255 255
-0.967801 0.0438103 2.411 255 255 255
-1.11791 -0.723904 2.204 255 255 255
-0.00780357 0.158131 1.043 0 0 0
