ply
format ascii 1.0
comment Created by Open3D
element vertex 1345
property double x
property double y
property double z
property uchar red
property uchar green
property uchar blue
end_header
-0.108493 0.305204 0.848 255 255 255
-0.00070662 -0.268729 0.728 0 0 0
-0.229473 0.334616 0.867 255 255 255
0.149656 0.0304879 0.716 255 255 255
-0.228823 -0.276006 0.824 255 255 255
0.388445 0.293123 0.845 255 255 255
-0.28691 0.106206 0.892 0 0 0
-0.274136 -0.187519 0.861 255 255 255
-0.0324576 0.0141552 0.779 255 255 255
-0.166785 -0.253291 0.803 0 0 0
-0.456574 -0.246435 0.93 0 0 0
0.0924012 -0.0575354 0.724 0 0 0
-0.0948065 0.151931 0.825 0 0 0
0.264854 -0.0250446 0.674 255 255 255
0.254189 -0.16184 0.655 0 0 0
-0.29832 -0.291614 0.854 255 255 255
0.150461 0.211794 0.743 0 0 0
0.287056 -0.183595 0.638 0 0 0
-0.407656 0.108166 0.961 255 255 255
0.234354 0.277479 0.722 0 0 0
-0.0653122 0.0118287 0.793 255 255 255
-0.485971 -0.201141 0.952 255 255 255
-0.0370531 0.115502 0.796 255 255 255
-0.285854 -0.27365 0.85 0 0 0
-0.378202 -0.2459 0.895 255 255 255
-0.23802 0.212905 0.883 255 255 255
0.0955393 -0.0678567 0.721 255 255 255
0.0365677 0.104642 0.764 255 255 255
-0.343472 -0.283769 0.877 0 0 0
0.192799 -0.0590669 0.687 0 0 0
0.396964 0.0409413 0.834 0 0 0
0.19745 -0.215173 0.665 255 255 255
-0.335836 -0.28357 0.872 0 0 0
-0.147823 -0.205792 0.844 255 255 255
0.263232 0.226013 0.708 255 255 255
-0.18785 0.215077 0.815 255 255 255
-0.096722 -0.134091 0.786 0 0 0
-0.442748 0.405649 1.112 255 255 255
0.0181036 -0.26064 0.722 0 0 0
-0.340552 -0.170278 0.888 255 255 255
0.12252 0.112631 0.735 255 255 255
0.197098 0.169852 0.719 0 0 0
-0.381967 -0.253748 0.897 255 255 255
0.13394 -0.0288144 0.713 255 255 255
0.104895 -0.155838 0.705 255 255 255
-0.47266 0.114537 0.989 0 0 0
-0.479685 0.33047 1.085 255 255 255
0.137994 0.166608 0.741 255 255 255
-0.188867 0.135651 0.808 255 255 255
0.178175 -0.102141 0.691 255 255 255
-0.170604 0.115606 0.815 255 255 255
-0.0423834 -0.0792448 0.775 255 255 255
-0.452156 -0.347466 0.921 255 255 255
0.0246683 0.193395 0.781 0 0 0
-0.409777 0.176325 0.966 255 255 255
0.0587867 -0.0961581 0.731 255 255 255
-0.0388306 0.185157 0.806 255 255 255
-0.388738 0.0292559 0.938 0 0 0
0.0459895 -0.230831 0.717 255 255 255
-0.0371926 -0.0437617 0.772 255 255 255
0.224739 -0.240994 0.65 0 0 0
0.101596 -0.18593 0.706 255 255 255
0.182687 0.0547262 0.713 255 255 255
0.199011 0.035553 0.701 0 0 0
-0.0263307 -0.204567 0.749 255 255 255
-0.546654 0.179851 1.041 255 255 255
0.151623 -0.228713 0.673 255 255 255
-0.107366 -0.146158 0.789 255 255 255
0.229017 0.23453 0.72 0 0 0
0.402285 0.178877 0.851 255 255 255
-0.450859 -0.181199 0.937 255 255 255
0.0902147 -0.104671 0.716 255 255 255
0.145231 0.176255 0.741 255 255 255
0.00405571 -0.241617 0.732 255 255 255
0.0975489 -0.153477 0.71 255 255 255
0.171869 -0.0203731 0.702 255 255 255
-0.387211 0.050626 0.938 255 255 255
-0.474343 -0.0969009 0.963 255 255 255
0.246542 0.0112662 0.681 255 255 255
-0.503603 0.289876 1.072 255 255 255
-0.455675 -0.0622299 0.96 255 255 255
-0.0334664 -0.24712 0.745 255 255 255
0.283818 -0.0171865 0.667 255 255 255
-0.35462 -0.131278 0.898 0 0 0
0.146468 -0.177225 0.69 255 255 255
0.245246 0.0746181 0.693 0 0 0
-0.247507 0.214606 0.861 255 255 255
0.0977158 0.201967 0.756 255 255 255
-0.0598454 -0.00749044 0.789 255 255 255
0.269178 -0.146853 0.65 255 255 255
0.0459895 -0.256501 0.717 0 0 0
0.209076 0.247615 0.724 0 0 0
0.166392 -0.0135381 0.703 255 255 255
-0.0415993 0.0180735 0.784 0 0 0
-0.0727863 0.204137 0.819 255 255 255
0.259911 0.124239 0.693 255 255 255
-0.44258 -0.0446699 0.952 255 255 255
-0.123531 0.24144 0.847 255 255 255
-0.193355 -0.127198 0.833 255 255 255
-0.461149 -0.344086 0.924 255 255 255
-0.0723793 -0.171904 0.772 255 255 255
-0.0276603 -0.133186 0.752 255 255 255
-0.534015 0.381621 1.07 255 255 255
-0.0653938 0.121488 0.81 255 255 255
-0.354695 -0.339301 0.873 0 0 0
0.25016 -0.0790559 0.667 255 255 255
-0.487012 0.0971268 0.992 255 255 255
0.408821 0.202309 0.817 255 255 255
0.196958 -0.195197 0.667 255 255 255
-0.0214825 -0.148698 0.75 0 0 0
0.000505366 0.0114707 0.769 255 255 255
-0.0292685 -0.121316 0.762 255 255 255
0.39407 -0.0474671 0.814 255 255 255
0.074965 0.096622 0.75 0 0 0
0.263302 0.157622 0.696 255 255 255
-0.503918 0.153583 1.013 255 255 255
-0.20724 -0.263061 0.813 0 0 0
0.15324 0.00713443 0.711 255 255 255
0.0771332 -0.249205 0.703 0 0 0
0.049836 -0.184269 0.722 255 255 255
-0.0774059 -0.181954 0.772 0 0 0
0.20928 0.0617904 0.701 255 255 255
0.145587 -0.0866314 0.702 255 255 255
-0.263875 0.0781477 0.855 0 0 0
-0.48232 0.0968331 0.989 255 255 255
-0.107449 0.0708589 0.819 255 255 255
-0.101581 -0.168197 0.784 0 0 0
-0.410065 0.373308 1.102 255 255 255
-0.490516 -0.355027 0.937 255 255 255
0.242744 0.279836 0.719 0 0 0
0.0740526 -0.0686096 0.729 0 0 0
-0.253321 -0.288856 0.834 0 0 0
-0.205673 0.252193 0.828 255 255 255
0.223094 -0.209446 0.664 0 0 0
0.190158 -0.217664 0.666 255 255 255
-0.23572 -0.162247 0.839 255 255 255
-0.289634 0.020448 0.887 255 255 255
-0.0971984 0.207876 0.834 255 255 255
0.295432 -0.063094 0.659 255 255 255
0.302104 -0.110548 0.648 255 255 255
-0.0807853 0.156157 0.819 0 0 0
0.0203975 -0.261089 0.72 0 0 0
-0.147178 -0.227157 0.803 255 255 255
0.0447211 0.223727 0.776 255 255 255
0.235721 0.231864 0.719 0 0 0
-0.0803137 0.014555 0.801 255 255 255
0.361024 0.174244 0.842 255 255 255
-0.0993781 -0.278133 0.767 0 0 0
-0.160723 -0.16099 0.812 0 0 0
0.308055 -0.131029 0.645 255 255 255
0.0760157 -0.182227 0.714 255 255 255
0.223162 -0.219257 0.661 255 255 255
0.297884 -0.110548 0.648 255 255 255
0.268235 0.217332 0.706 255 255 255
0.243034 -0.230762 0.648 255 255 255
-0.0172409 0.0242967 0.779 255 255 255
0.290417 -0.211332 0.634 0 0 0
-0.140787 0.13604 0.843 255 255 255
0.283392 -0.0312501 0.666 255 255 255
-0.0455596 0.195062 0.809 255 255 255
-0.0798853 -0.08782 0.784 255 255 255
0.0274296 -0.254059 0.72 255 255 255
0.189431 0.144511 0.721 0 0 0
0.355315 0.248764 0.858 255 255 255
0.0779127 0.202409 0.767 255 255 255
-0.0937723 0.101141 0.816 255 255 255
0.254306 0.0560845 0.687 255 255 255
0.0208508 -0.150713 0.736 255 255 255
-0.0368804 0.298158 0.821 0 0 0
0.397671 0.208823 0.827 255 255 255
-0.336187 0.148886 0.932 255 255 255
-0.208691 0.0685681 0.857 255 255 255
0.253469 0.119285 0.697 255 255 255
-0.46358 -0.00763027 0.97 255 255 255
-0.261715 0.203086 0.848 255 255 255
-0.0725809 0.0498113 0.802 255 255 255
-0.163761 -0.263088 0.801 255 255 255
-0.0469948 -0.252984 0.748 255 255 255
0.23872 0.0829886 0.697 0 0 0
-0.48393 0.0903954 0.989 255 255 255
0.00565586 0.191524 0.789 255 255 255
-0.418274 0.35652 1.1 255 255 255
0.403295 0.154054 0.822 255 255 255
0.197254 -0.186793 0.668 255 255 255
0.170609 0.228962 0.736 255 255 255
-0.0214825 -0.149918 0.75 0 0 0
0.265463 0.261623 0.714 255 255 255
-0.142479 -0.00371695 0.806 255 255 255
0.402568 0.187063 0.826 255 255 255
0.150457 0.276886 0.749 255 255 255
0.0892979 -0.0956165 0.718 255 255 255
-0.0889071 0.0633328 0.808 255 255 255
-0.21013 0.25976 0.835 255 255 255
-0.26697 -0.208718 0.856 0 0 0
0.0771639 0.265288 0.772 0 0 0
0.148335 -0.221586 0.678 255 255 255
-0.187924 -0.0926367 0.827 0 0 0
0.413975 0.0947722 0.83 255 255 255
-0.0723094 0.0249205 0.799 255 255 255
0.274975 -0.0743782 0.664 255 255 255
-0.367977 0.028944 0.928 0 0 0
0.163277 0.147503 0.73 0 0 0
0.215937 -0.14745 0.672 255 255 255
0.00577056 0.311998 0.805 255 255 255
-0.120921 -0.00901906 0.811 0 0 0
-0.298972 -0.228594 0.868 255 255 255
-0.457645 -0.337706 0.923 255 255 255
-0.0274764 -0.224687 0.747 255 255 255
-0.217176 0.0578131 0.863 255 255 255
-0.0108586 0.0570361 0.776 255 255 255
0.0310746 -0.22688 0.723 0 0 0
-0.154825 0.23255 0.86 255 255 255
-0.26697 0.291367 0.856 255 255 255
-0.00705088 0.0228812 0.774 0 0 0
-0.0109706 0.11376 0.784 0 0 0
0.11715 0.014334 0.724 255 255 255
0.310722 -0.13397 0.644 255 255 255
-0.146597 -0.0969626 0.807 255 255 255
-0.291272 0.136602 0.901 0 0 0
0.0781159 0.22296 0.769 0 0 0
-0.116068 0.0293623 0.814 255 255 255
0.323254 -0.132283 0.646 255 255 255
0.181638 0.262855 0.737 255 255 255
-0.270558 0.123819 0.863 0 0 0
0.312941 -0.0612266 0.662 255 255 255
-0.526801 0.327721 1.059 255 255 255
0.112026 0.0322278 0.729 255 255 255
-0.332997 -0.272218 0.872 0 0 0
0.00783885 -0.0952493 0.752 255 255 255
0.268843 -0.0129603 0.673 0 0 0
-0.239457 0.214341 0.883 255 255 255
-0.00953362 0.00271781 0.771 0 0 0
0.023337 0.171349 0.779 0 0 0
-0.208021 0.212793 0.832 255 255 255
0.0658361 -0.0758314 0.73 0 0 0
-0.102607 -0.0337162 0.802 255 255 255
0.213675 0.116558 0.708 0 0 0
-0.151457 -0.245221 0.798 0 0 0
-0.251639 0.137249 0.842 255 255 255
-0.0824326 -0.180698 0.772 255 255 255
0.113889 -0.106255 0.711 255 255 255
-0.266347 -0.230466 0.854 0 0 0
0.0348155 -0.00837405 0.753 255 255 255
0.217151 -0.171831 0.669 0 0 0
0.258403 0.06605 0.686 255 255 255
0.222516 0.0624823 0.696 255 255 255
-0.563624 0.405999 1.07 255 255 255
-0.28559 -0.0641313 0.879 255 255 255
-0.0653254 -0.210874 0.763 255 255 255
-0.0525359 0.0610201 0.795 255 255 255
-0.0878783 0.17567 0.823 255 255 255
0.181286 -0.089642 0.69 255 255 255
-0.122364 0.173624 0.839 0 0 0
0.384222 -0.0353707 0.81 255 255 255
-0.185432 0.343539 0.879 0 0 0
0.122802 -0.099033 0.709 255 255 255
-0.223945 -0.0369606 0.816 255 255 255
0.162022 0.028079 0.714 0 0 0
0.416084 0.225133 0.813 255 255 255
-0.196538 0.310037 0.835 255 255 255
0.0935298 0.22341 0.762 0 0 0
-0.485672 0.0323575 0.986 0 0 0
-0.141822 0.106977 0.841 255 255 255
0.269 -0.200417 0.642 255 255 255
-0.0747231 0.0118883 0.797 255 255 255
-0.155015 0.097591 0.831 255 255 255
-0.105727 -0.0878688 0.796 255 255 255
0.349136 0.327362 0.874 255 255 255
0.409487 0.167227 0.821 255 255 255
0.163367 -0.0880296 0.695 255 255 255
-0.110391 0.327441 0.852 0 0 0
0.0322961 -0.220125 0.724 255 255 255
-0.0770048 -0.223504 0.768 255 255 255
0.298939 -0.113712 0.648 255 255 255
0.0142564 0.0464498 0.768 255 255 255
0.256165 0.265109 0.714 255 255 255
-0.112861 0.00153715 0.81 255 255 255
0.0957628 -0.224393 0.697 255 255 255
0.299723 -0.0794001 0.652 255 255 255
0.0511475 -0.0287401 0.741 0 0 0
0.0804097 0.212395 0.767 255 255 255
0.414116 0.078848 0.833 255 255 255
-0.0794543 0.249649 0.833 255 255 255
0.039191 -0.0505815 0.743 255 255 255
-0.0698827 0.0575702 0.801 255 255 255
-0.278275 0.0770397 0.874 0 0 0
-0.426686 0.241993 1.046 255 255 255
0.232953 0.0181523 0.69 255 255 255
0.0434362 -0.144134 0.733 255 255 255
0.177143 -0.128381 0.687 255 255 255
-0.0189842 0.191351 0.799 255 255 255
-0.315623 -0.112349 0.887 0 0 0
0.122853 0.127329 0.737 255 255 255
0.370053 0.257375 0.873 255 255 255
-0.32291 -0.279563 0.864 0 0 0
-0.482301 0.328643 1.079 255 255 255
-0.224086 0.164087 0.868 255 255 255
0.253797 -0.0683039 0.668 255 255 255
-0.467468 0.333855 1.102 255 255 255
0.0775099 0.100417 0.751 0 0 0
-0.199925 -0.148078 0.821 255 255 255
0.133469 0.107993 0.736 255 255 255
0.10549 -0.137108 0.709 255 255 255
0.165153 -0.0810098 0.693 255 255 255
0.0227678 0.018757 0.76 255 255 255
0.413945 0.0691017 0.814 255 255 255
0.178724 0.198585 0.73 255 255 255
-0.500792 0.399618 1.081 255 255 255
-0.401381 -0.00280223 0.939 255 255 255
0.019359 -0.229868 0.725 255 255 255
-0.386052 0.17724 0.954 255 255 255
0.0905927 -0.0828791 0.719 255 255 255
-0.501722 -0.0591016 0.986 0 0 0
0.0632095 0.00140621 0.741 255 255 255
0.0365677 0.0748033 0.764 0 0 0
-0.296948 0.0862694 0.896 255 255 255
0.306862 -0.18923 0.636 255 255 255
0.131293 -0.199932 0.687 0 0 0
-0.102539 -0.248538 0.772 255 255 255
0.0740526 -0.0638643 0.729 0 0 0
0.17418 0.270311 0.741 0 0 0
-0.0533949 0.172468 0.808 255 255 255
0.264055 0.166444 0.695 255 255 255
0.291061 -0.0796436 0.654 0 0 0
0.179459 0.222065 0.733 0 0 0
0.191023 0.0195824 0.701 0 0 0
-0.207794 -0.0815054 0.81 255 255 255
-0.239098 0.234077 0.887 255 255 255
0.235037 -0.0231561 0.683 255 255 255
-0.248041 0.219443 0.858 255 255 255
-0.487612 0.414279 1.06 255 255 255
0.0172367 0.235477 0.79 255 255 255
0.0873927 -0.168972 0.712 0 0 0
-0.0634115 -0.25658 0.755 255 255 255
-0.291593 0.16736 0.893 0 0 0
0.104336 -0.141723 0.709 255 255 255
0.384492 0.00555257 0.819 255 255 255
-0.0599676 -0.0879594 0.774 255 255 255
0.180163 -0.0997477 0.69 255 255 255
-0.0585559 -0.101551 0.772 0 0 0
0.26325 -0.108135 0.659 255 255 255
-0.22265 0.0286232 0.831 255 255 255
0.199857 0.0171775 0.696 0 0 0
0.0599767 -0.0806936 0.731 0 0 0
0.0640324 -0.223956 0.71 255 255 255
0.0820204 -0.0588757 0.726 0 0 0
-0.487218 0.365695 1.09 255 255 255
-0.155498 0.202215 0.856 255 255 255
0.276128 -0.177986 0.644 255 255 255
0.404624 0.290316 0.833 0 0 0
-0.22902 0.121989 0.86 255 255 255
0.379941 0.182168 0.86 255 255 255
-0.0522049 -0.107693 0.771 255 255 255
0.0607485 0.205974 0.771 255 255 255
0.150713 -0.0113621 0.71 0 0 0
0.278538 0.204968 0.703 255 255 255
-0.152318 -0.0383055 0.789 255 255 255
-0.279867 0.0174027 0.879 255 255 255
0.106494 -0.249043 0.693 0 0 0
0.0881033 0.177831 0.758 255 255 255
-0.426568 -0.0596565 0.944 0 0 0
0.413945 0.0651277 0.814 255 255 255
-0.0598126 -0.110345 0.772 0 0 0
-0.233548 0.181487 0.877 255 255 255
-0.510103 0.253894 1.053 0 0 0
-0.375903 -0.235178 0.893 0 0 0
0.157743 0.0870194 0.721 0 0 0
0.139674 -0.0990564 0.701 255 255 255
-0.298297 -0.0271855 0.887 0 0 0
-0.129503 0.250594 0.85 0 0 0
0.360836 0.196186 0.848 255 255 255
-0.126106 -0.0846158 0.802 0 0 0
0.256906 -0.0913908 0.662 0 0 0
0.195325 -0.00887278 0.696 255 255 255
-0.473763 0.194892 1.005 255 255 255
-0.531848 0.22364 1.032 255 255 255
0.171916 -0.140065 0.684 0 0 0
-0.0841757 -0.252509 0.765 255 255 255
-0.0086544 0.263855 0.806 255 255 255
-0.128665 -0.287186 0.778 255 255 255
-0.429984 -0.0121746 0.955 0 0 0
-0.187469 -0.143429 0.825 255 255 255
0.188746 0.247968 0.732 0 0 0
-0.499179 0.318937 1.07 255 255 255
0.259157 0.113124 0.694 0 0 0
-0.0320805 -0.283175 0.741 255 255 255
-0.325749 -0.108505 0.891 0 0 0
0.172301 -0.121082 0.69 255 255 255
0.290417 -0.212364 0.634 0 0 0
-0.096266 0.168245 0.826 255 255 255
0.180928 0.276797 0.739 0 0 0
-0.413915 -0.221857 0.916 255 255 255
-0.493031 0.271415 1.068 255 255 255
-0.391977 -0.140025 0.917 255 255 255
-0.0671233 -0.0495452 0.784 255 255 255
-0.178783 -0.190997 0.816 255 255 255
0.151516 -0.0501464 0.703 0 0 0
0.141116 0.0505768 0.72 255 255 255
0.00990404 -0.267252 0.724 0 0 0
0.204739 0.11274 0.713 0 0 0
0.167057 -0.249128 0.669 255 255 255
-0.0645033 -0.174763 0.768 255 255 255
-0.164283 0.0885341 0.81 255 255 255
0.273631 0.0286995 0.674 255 255 255
-0.19401 -0.0308413 0.83 0 0 0
0.095777 0.0701397 0.741 255 255 255
-0.0334664 -0.163467 0.745 255 255 255
0.147231 -0.244756 0.678 255 255 255
0.416291 0.131683 0.816 255 255 255
-0.258649 0.171144 0.847 255 255 255
0.0761114 -0.0789602 0.726 0 0 0
0.120962 -0.153543 0.705 255 255 255
0.405595 0.0369139 0.835 255 255 255
0.0268973 0.109507 0.772 0 0 0
0.0893372 0.177831 0.758 255 255 255
-0.125096 0.15724 0.839 0 0 0
-0.172227 -0.0285668 0.804 255 255 255
0.0269322 0.137323 0.773 0 0 0
0.234533 -0.0971456 0.672 0 0 0
0.399879 0.223356 0.826 255 255 255
-0.344186 -0.31052 0.868 255 255 255
-0.279378 -0.0864241 0.873 255 255 255
-0.539732 0.0937235 1.044 255 255 255
-0.358909 0.299581 1.057 255 255 255
0.0645744 0.122162 0.757 255 255 255
-0.172393 0.206879 0.83 0 0 0
-0.512265 0.0310025 0.994 0 0 0
-0.24515 0.241566 0.888 0 0 0
0.219759 -0.17783 0.667 0 0 0
-0.432981 0.195994 0.994 0 0 0
-0.411158 -0.105688 0.93 255 255 255
-0.0198278 0.0739259 0.781 0 0 0
0.0502228 0.262697 0.783 0 0 0
-0.161713 -0.1088 0.817 0 0 0
0.144791 0.00950165 0.715 255 255 255
0.212839 0.0250337 0.694 0 0 0
0.264613 0.274773 0.718 255 255 255
-0.227205 -0.275672 0.823 255 255 255
-0.280248 -0.251312 0.854 255 255 255
0.323754 -0.123012 0.647 255 255 255
-0.293809 -0.303723 0.849 0 0 0
0.189069 -0.00662652 0.698 255 255 255
-0.222673 0.186687 0.868 255 255 255
-0.406867 0.264958 1.07 255 255 255
0.0820593 -0.203163 0.706 0 0 0
0.151792 -0.0885362 0.699 0 0 0
-0.467468 0.339235 1.102 255 255 255
0.202333 -0.0491478 0.689 0 0 0
-0.508219 0.212115 1.025 255 255 255
0.109244 -0.259939 0.689 255 255 255
-0.19529 -0.0668231 0.824 0 0 0
0.139014 -0.249163 0.681 255 255 255
-0.331964 0.00467835 0.908 0 0 0
-0.0621001 -0.262375 0.754 255 255 255
0.0900887 -0.108016 0.715 255 255 255
0.0594878 0.109552 0.755 255 255 255
0.0698764 -0.0249191 0.735 0 0 0
-0.0033979 0.2632 0.804 255 255 255
-0.206915 0.211693 0.833 255 255 255
-0.141147 0.086037 0.837 255 255 255
0.236016 -0.0892243 0.67 255 255 255
-0.201386 -0.0320756 0.827 0 0 0
0.0879009 0.237358 0.767 255 255 255
0.0969362 -0.118322 0.714 255 255 255
-0.450986 0.320021 1.11 255 255 255
0.116179 -0.0523849 0.718 0 0 0
-0.0285455 0.268462 0.812 255 255 255
0.283622 -0.0538478 0.664 255 255 255
0.0344373 0.147196 0.772 255 255 255
0.100255 0.263226 0.766 0 0 0
-0.325329 0.128476 0.927 255 255 255
-0.405369 0.156972 0.963 255 255 255
0.0650157 0.236659 0.777 255 255 255
0.0469431 0.160806 0.771 255 255 255
-0.0123717 0.156164 0.792 255 255 255
-0.492089 0.399031 1.089 255 255 255
-0.152511 -0.044782 0.79 255 255 255
-0.451878 -0.136074 0.952 0 0 0
0.360303 0.204948 0.85 255 255 255
0.0252946 -0.213644 0.726 255 255 255
-0.190653 0.138623 0.81 255 255 255
-0.53542 0.324274 1.059 255 255 255
0.388679 0.251374 0.867 255 255 255
-0.416864 0.0734544 0.957 255 255 255
-0.00341903 0.29775 0.809 0 0 0
0.101126 -0.0653284 0.719 0 0 0
-0.30166 0.0586311 0.897 255 255 255
-0.147122 0.0959141 0.84 255 255 255
-0.316556 0.0266652 0.902 255 255 255
-0.380737 -0.197696 0.901 255 255 255
0.0448849 -0.228817 0.718 255 255 255
-0.231622 -0.124018 0.839 255 255 255
-0.420338 -0.251944 0.917 0 0 0
-0.126907 -0.281034 0.775 255 255 255
-0.410065 0.393034 1.102 255 255 255
-0.373312 0.0199259 0.93 0 0 0
0.087345 -0.0021815 0.731 0 0 0
-0.0506387 0.15499 0.806 0 0 0
-0.492763 0.31168 1.075 255 255 255
-0.29163 -0.211829 0.863 255 255 255
0.259109 -0.19641 0.646 255 255 255
-0.21996 -0.0117305 0.816 255 255 255
0.349356 0.30356 0.871 255 255 255
0.216952 0.158435 0.715 0 0 0
0.204931 -0.00771792 0.694 255 255 255
0.0338683 0.252833 0.788 0 0 0
-0.256866 0.346388 0.909 0 0 0
-0.285458 0.117819 0.892 0 0 0
0.00168174 -0.229762 0.736 255 255 255
0.242263 0.155997 0.704 0 0 0
0.209076 0.238189 0.724 0 0 0
-0.201698 -0.270666 0.812 255 255 255
-0.0249104 -0.26943 0.743 255 255 255
0.0685586 -0.223641 0.709 255 255 255
0.270886 -0.177986 0.644 255 255 255
-0.325781 0.159637 0.924 255 255 255
-0.105727 -0.0839828 0.796 0 0 0
-0.0204879 0.25105 0.807 255 255 255
0.273581 0.261556 0.717 255 255 255
0.0806194 0.232971 0.769 255 255 255
0.161935 0.112123 0.724 255 255 255
0.0579021 -0.15681 0.72 255 255 255
0.0497874 0.0962919 0.757 0 0 0
-0.187552 0.140911 0.808 255 255 255
-0.183379 -0.19677 0.807 255 255 255
0.111807 -0.17928 0.698 255 255 255
-0.00205536 0.203594 0.791 0 0 0
0.0287605 -0.218947 0.724 255 255 255
0.293531 0.0756534 0.682 255 255 255
0.162443 0.208885 0.737 255 255 255
0.296231 -0.122336 0.649 0 0 0
-0.105087 -0.0636545 0.801 0 0 0
-0.252237 0.185646 0.844 255 255 255
0.210617 -0.159855 0.669 255 255 255
-0.0913861 0.308892 0.843 0 0 0
-0.0397574 -0.0450763 0.773 255 255 255
0.201746 -0.0713646 0.687 0 0 0
-0.429506 -0.141554 0.937 255 255 255
-0.0642635 0.0403712 0.796 255 255 255
0.256674 -0.0616891 0.667 255 255 255
0.0872699 -0.17799 0.711 255 255 255
0.178596 -0.13116 0.684 255 255 255
-0.226279 0.164654 0.871 255 255 255
0.167953 -0.197022 0.677 255 255 255
0.378348 -0.0881823 0.744 0 0 0
-0.137387 0.109453 0.839 255 255 255
-0.19173 -0.0683295 0.826 0 0 0
-0.331377 -0.217186 0.879 255 255 255
0.0981444 0.271765 0.769 0 0 0
0.142487 -0.161884 0.727 255 255 255
0.29267 0.0599394 0.68 255 255 255
0.113057 0.0274448 0.728 255 255 255
-0.00795646 -0.195147 0.741 0 0 0
-0.485444 0.363921 1.09 255 255 255
-0.30956 -0.237932 0.866 0 0 0
-0.38997 -0.249291 0.902 255 255 255
-0.324261 -0.129085 0.883 0 0 0
0.184413 0.203058 0.729 255 255 255
0.150283 0.0633771 0.719 255 255 255
-0.433782 0.155595 0.974 255 255 255
-0.0431912 0.246604 0.814 0 0 0
-0.0271231 0.254305 0.809 0 0 0
-0.453428 -0.136074 0.952 0 0 0
-0.403265 0.137449 0.958 255 255 255
0.0990165 -0.172801 0.704 255 255 255
-0.131503 0.282348 0.854 0 0 0
0.109045 0.091845 0.741 0 0 0
0.253413 -0.183661 0.653 255 255 255
0.00301284 0.0403056 0.77 255 255 255
-0.504254 0.322948 1.066 255 255 255
-0.22365 0.0511069 0.845 255 255 255
0.249191 0.261623 0.714 0 0 0
-0.279703 0.126689 0.883 0 0 0
0.30758 -0.212737 0.629 0 0 0
0.0981884 0.0156836 0.732 255 255 255
0.00941246 0.150183 0.781 255 255 255
0.392541 0.210158 0.86 255 255 255
-0.327506 -0.181019 0.884 255 255 255
0.110104 0.0514197 0.732 255 255 255
-0.0140064 -0.218353 0.742 0 0 0
-0.265246 0.31518 0.864 255 255 255
0.39105 0.273632 0.866 255 255 255
-0.270417 -0.273415 0.845 0 0 0
-0.365498 -0.193683 0.896 0 0 0
-0.387891 -0.224835 0.904 255 255 255
0.305378 -0.128078 0.646 255 255 255
-0.150324 0.0763197 0.835 255 255 255
-0.198453 0.279811 0.826 255 255 255
0.223786 -0.040003 0.686 255 255 255
-0.47574 -0.233247 0.944 0 0 0
0.395812 0.139771 0.849 255 255 255
0.401037 0.279807 0.834 255 255 255
-0.196393 -0.161832 0.823 255 255 255
-0.19246 0.28286 0.835 255 255 255
-0.0882423 0.102218 0.814 0 0 0
-0.329732 0.034306 0.91 255 255 255
-0.0532957 -0.251554 0.751 255 255 255
0.168538 -0.109203 0.693 255 255 255
-0.400277 0.333767 1.09 255 255 255
0.00960529 0.240157 0.797 255 255 255
0.0847407 -0.10862 0.719 255 255 255
0.029944 0.244517 0.786 0 0 0
0.110103 0.10858 0.74 255 255 255
0.231799 -0.222596 0.655 255 255 255
-0.470173 -0.353108 0.924 255 255 255
0.288693 0.128006 0.689 255 255 255
-0.343788 -0.0854561 0.908 255 255 255
0.289889 0.0220202 0.671 255 255 255
0.0971294 0.015705 0.733 255 255 255
0.166042 0.226875 0.737 255 255 255
0.317252 -0.0795406 0.662 255 255 255
-0.355804 -0.106791 0.901 0 0 0
-0.190338 -0.17592 0.82 0 0 0
-0.269442 -0.165341 0.855 255 255 255
0.271662 -0.243049 0.636 255 255 255
0.392286 0.017719 0.827 255 255 255
0.367105 0.326422 0.883 255 255 255
-0.488994 0.00346512 0.983 0 0 0
0.14882 -0.0125527 0.712 0 0 0
0.40143 0.157282 0.832 255 255 255
0.222081 0.279785 0.728 0 0 0
-0.286368 -0.0811114 0.877 255 255 255
-0.444177 -0.342597 0.92 255 255 255
-0.178542 -0.170791 0.821 0 0 0
-0.303005 0.214312 0.901 255 255 255
0.116175 0.224112 0.756 255 255 255
0.158197 0.190117 0.734 0 0 0
-0.191589 0.33924 0.868 0 0 0
-0.045716 -0.255077 0.747 0 0 0
-0.458616 0.41917 1.077 255 255 255
0.184597 -0.0404695 0.694 0 0 0
-0.0303824 0.101904 0.791 0 0 0
0.0723662 -0.0987719 0.724 255 255 255
0.0122919 0.281167 0.803 255 255 255
0.0892106 -0.222762 0.699 255 255 255
-0.0617526 0.303507 0.832 255 255 255
0.0725233 0.0831966 0.75 255 255 255
0.0922828 0.0702343 0.742 255 255 255
-0.359687 0.0744088 0.93 255 255 255
-0.126357 -0.0156371 0.812 0 0 0
0.265322 0.0310765 0.678 0 0 0
0.0252598 -0.240486 0.725 0 0 0
0.191095 -0.138631 0.677 255 255 255
-0.168301 -0.0822101 0.804 255 255 255
0.284786 -0.141964 0.647 255 255 255
0.148839 0.250619 0.747 255 255 255
-0.0671233 -0.0355111 0.784 0 0 0
0.0917631 -0.141382 0.719 255 255 255
-0.11168 0.0266146 0.811 255 255 255
0.0426659 -0.202505 0.72 255 255 255
0.0287249 -0.00102314 0.754 255 255 255
0.149652 -0.0491419 0.705 0 0 0
0.175969 0.0687459 0.714 0 0 0
-0.328973 0.0700004 0.912 0 0 0
-0.30492 0.0513898 0.898 255 255 255
0.221077 -0.159241 0.671 255 255 255
-0.512799 0.256099 1.048 255 255 255
-0.0876817 -0.285374 0.763 0 0 0
-0.0447326 -0.10532 0.772 255 255 255
-0.227696 0.161819 0.871 255 255 255
0.238567 0.228886 0.717 0 0 0
0.25317 0.0698037 0.69 255 255 255
-0.294334 -0.188279 0.871 255 255 255
-0.00333028 0.151529 0.788 0 0 0
0.273571 0.195538 0.702 255 255 255
-0.105607 0.285547 0.847 255 255 255
0.164347 0.0385362 0.714 255 255 255
0.108149 -0.0419274 0.719 255 255 255
0.169949 0.12844 0.723 255 255 255
-0.274136 -0.186118 0.861 255 255 255
-0.451307 0.243607 1.068 255 255 255
-0.142496 -0.20466 0.845 255 255 255
-0.397598 -0.245973 0.906 255 255 255
0.126067 -0.234151 0.689 0 0 0
0.298287 -0.218547 0.631 255 255 255
0.162703 0.0573668 0.717 0 0 0
-0.159821 -0.069033 0.788 255 255 255
0.20287 -0.246102 0.658 0 0 0
0.223813 0.036275 0.693 0 0 0
0.130642 -0.0683598 0.714 255 255 255
0.0369028 0.140732 0.771 255 255 255
0.162754 0.160038 0.733 0 0 0
-0.469144 0.0161301 0.975 255 255 255
-0.400825 -0.34833 0.9 255 255 255
0.0809339 0.265288 0.772 0 0 0
0.313747 -0.204918 0.627 255 255 255
0.196368 -0.222748 0.665 0 0 0
-0.196393 -0.0841528 0.823 0 0 0
-0.36433 0.161037 0.95 255 255 255
0.243997 -0.125352 0.665 255 255 255
-0.233129 0.0364718 0.825 255 255 255
-0.207362 -0.162028 0.824 0 0 0
0.091661 0.0253854 0.737 255 255 255
0.160238 -0.20914 0.677 0 0 0
0.0688986 0.274946 0.778 255 255 255
-0.199556 -0.107181 0.825 255 255 255
0.204164 0.132094 0.711 255 255 255
0.103152 0.294291 0.769 0 0 0
-0.221862 0.27123 0.854 255 255 255
-0.169218 -0.309374 0.796 255 255 255
-0.194245 0.210839 0.814 255 255 255
-0.282085 -0.0368692 0.877 0 0 0
0.392566 0.254053 0.857 255 255 255
0.0618427 0.182915 0.769 255 255 255
0.234384 0.123391 0.701 255 255 255
-0.360603 -0.275964 0.884 0 0 0
0.0627641 -0.139622 0.722 255 255 255
0.278497 -0.117597 0.652 0 0 0
-0.141234 0.210081 0.854 255 255 255
0.103457 0.188912 0.753 0 0 0
0.27034 0.0221186 0.674 255 255 255
0.362216 0.187906 0.848 255 255 255
-0.376119 -0.152751 0.904 255 255 255
-0.0294606 -0.0896602 0.767 255 255 255
0.0666571 -0.101408 0.726 255 255 255
0.109623 -0.00919148 0.721 255 255 255
-0.137103 0.328859 0.863 255 255 255
-0.414046 -0.286503 0.913 255 255 255
-0.265723 0.278914 0.852 255 255 255
0.00661474 -0.0989205 0.752 255 255 255
0.0125829 -0.123128 0.743 255 255 255
0.0438988 -0.192227 0.721 255 255 255
0.177628 0.0887463 0.716 255 255 255
0.0908295 0.0604112 0.74 255 255 255
-0.210331 0.0658556 0.858 255 255 255
-0.234034 0.0937592 0.833 255 255 255
-0.44867 -0.323134 0.92 0 0 0
-0.0349039 -0.0124343 0.777 0 0 0
0.258622 0.220252 0.708 255 255 255
-0.113756 -0.0181674 0.807 0 0 0
-0.167823 -0.212792 0.808 255 255 255
0.027534 -0.00102449 0.755 255 255 255
0.226805 -0.0410594 0.685 0 0 0
-0.381677 0.114296 0.947 255 255 255
-0.0228001 0.154362 0.796 255 255 255
-0.283103 -0.174716 0.867 255 255 255
0.288015 -0.231896 0.631 255 255 255
-0.262332 0.21463 0.85 255 255 255
0.0849212 0.0448168 0.741 255 255 255
-0.313535 0.041527 0.906 255 255 255
0.179543 -0.173372 0.675 255 255 255
0.226472 0.178626 0.712 255 255 255
0.257388 -0.147983 0.655 255 255 255
0.2787 -0.132045 0.65 0 0 0
0.149453 0.224187 0.744 0 0 0
-0.24742 -0.170033 0.837 255 255 255
0.207788 0.00132081 0.696 255 255 255
-0.345599 -0.0881193 0.905 255 255 255
-0.464165 0.381228 1.12 255 255 255
-0.161317 -0.181479 0.815 0 0 0
-0.0672749 0.0627841 0.801 0 0 0
0.215738 0.137879 0.711 255 255 255
-0.268364 -0.208718 0.856 0 0 0
0.292005 -0.0895961 0.649 0 0 0
-0.272126 -0.141017 0.868 255 255 255
0.00802648 0.0591012 0.77 0 0 0
-0.0893264 0.182588 0.824 0 0 0
0.269357 -0.122028 0.653 0 0 0
-0.252237 0.184273 0.844 255 255 255
-0.449569 0.248821 1.068 255 255 255
-0.142791 0.221458 0.855 255 255 255
-0.291734 0.0204941 0.889 255 255 255
-0.154874 -0.181702 0.816 0 0 0
0.133377 -0.101484 0.71 255 255 255
-0.534755 0.417406 1.068 255 255 255
0.356445 0.292221 0.871 255 255 255
0.0787441 -0.261823 0.697 255 255 255
0.00655317 -0.117397 0.745 255 255 255
-0.0303824 0.0993296 0.791 0 0 0
-0.212876 0.124353 0.857 255 255 255
0.246478 0.0381969 0.687 0 0 0
-0.230164 -0.308189 0.824 0 0 0
-0.3929 -0.0104203 0.937 255 255 255
-0.332707 -0.0276453 0.902 255 255 255
0.0766642 0.201161 0.767 0 0 0
-0.1675 -0.29826 0.794 0 0 0
0.201833 -0.00659804 0.695 255 255 255
0.145266 -0.103863 0.695 255 255 255
-0.397698 -0.182501 0.913 255 255 255
0.0752393 -0.0709822 0.729 0 0 0
-0.0516285 0.101889 0.801 0 0 0
-0.0333743 0.150118 0.801 255 255 255
-0.221298 -0.109312 0.831 0 0 0
-0.0261844 0.0357976 0.781 255 255 255
-0.464656 -0.309332 0.928 0 0 0
0.220514 -0.188401 0.666 0 0 0
0.117959 0.0488363 0.729 0 0 0
0.0968619 -0.194845 0.705 255 255 255
0.261753 0.0448394 0.686 0 0 0
0.220429 0.0430415 0.693 255 255 255
-0.380337 0.277324 1.064 255 255 255
-0.523483 0.384118 1.077 255 255 255
0.213917 0.091972 0.705 255 255 255
0.242718 0.149842 0.702 255 255 255
-0.375667 -0.296332 0.889 0 0 0
-0.410036 -0.206498 0.914 255 255 255
-0.0460653 0.0881883 0.795 255 255 255
0.136651 -0.0828802 0.709 255 255 255
-0.110003 0.3028 0.849 255 255 255
-0.246821 -0.110299 0.849 0 0 0
-0.0091503 -0.188863 0.74 0 0 0
-0.227955 0.106099 0.856 255 255 255
-0.41722 -0.21534 0.92 255 255 255
-0.165007 0.228883 0.862 255 255 255
-0.154304 -0.151927 0.813 255 255 255
-0.470701 -0.294613 0.934 255 255 255
-0.415532 -0.29096 0.913 255 255 255
0.419352 0.267755 0.822 255 255 255
0.204164 0.125152 0.711 0 0 0
-0.113489 0.16716 0.834 255 255 255
0.375212 0.203633 0.862 255 255 255
-0.338233 -0.0409918 0.905 255 255 255
0.122369 0.0546177 0.727 255 255 255
0.203778 -0.167226 0.668 255 255 255
0.0729186 0.187432 0.767 255 255 255
0.0781033 0.0680936 0.745 0 0 0
-0.0217976 -0.110012 0.761 0 0 0
-0.261313 0.329669 0.884 255 255 255
0.224774 -0.10651 0.669 255 255 255
0.0607485 0.207229 0.771 255 255 255
-0.124881 -0.00901906 0.811 0 0 0
0.236407 0.258138 0.714 0 0 0
-0.514463 0.332106 1.062 255 255 255
0.33104 0.239664 0.822 255 255 255
-0.132409 0.0337867 0.825 255 255 255
0.0298331 -0.03035 0.751 255 255 255
0.110995 0.138596 0.746 0 0 0
-0.447556 -0.257709 0.927 0 0 0
0.0558667 -0.143543 0.724 255 255 255
-0.0468233 0.0130033 0.786 0 0 0
0.400363 0.191327 0.827 255 255 255
0.0833168 -0.0684214 0.727 0 0 0
0.0676322 0.277478 0.778 255 255 255
-0.411074 -0.283532 0.913 255 255 255
-0.253321 -0.28207 0.834 0 0 0
0.373195 0.167798 0.851 255 255 255
-0.0793758 -0.141771 0.779 255 255 255
-0.511372 0.409481 1.07 255 255 255
0.0268625 0.103091 0.771 0 0 0
-0.060792 -0.282859 0.753 0 0 0
0.0579255 -0.274395 0.706 255 255 255
0.252017 -0.232482 0.644 0 0 0
0.0405458 -0.169463 0.724 0 0 0
0.192191 0.214332 0.727 255 255 255
0.281911 -0.107479 0.655 255 255 255
0.139718 -0.0527328 0.707 255 255 255
0.0234364 -0.113302 0.742 255 255 255
0.265568 0.157622 0.696 255 255 255
0.0948891 -0.0328387 0.725 0 0 0
-0.0972534 -0.181301 0.78 255 255 255
0.0308659 0.184818 0.777 0 0 0
0.194169 0.0298067 0.7 0 0 0
-0.0103689 -0.215647 0.741 0 0 0
-0.394476 -0.184659 0.909 255 255 255
-0.0916509 0.0541956 0.809 255 255 255
-0.181877 -0.151301 0.824 0 0 0
-0.47285 0.306955 1.102 255 255 255
-0.117703 0.15649 0.835 255 255 255
-0.321972 0.0549777 0.909 255 255 255
0.210722 0.0698753 0.702 0 0 0
-0.17193 0.17131 0.815 255 255 255
0.053214 -0.159153 0.72 255 255 255
-0.035936 -0.0374802 0.772 0 0 0
-0.262785 -0.246495 0.847 0 0 0
0.032364 0.00510511 0.753 0 0 0
0.0657459 -0.0840318 0.729 255 255 255
-0.0830686 -0.0666371 0.79 255 255 255
-0.42911 0.0236931 0.96 255 255 255
-0.20928 -0.146742 0.821 255 255 255
-0.411514 -0.178685 0.924 255 255 255
-0.475363 -0.0172424 0.978 0 0 0
0.275313 -0.133512 0.652 0 0 0
0.243712 -0.231459 0.647 255 255 255
0.122974 0.173569 0.745 255 255 255
0.261212 -0.191154 0.646 255 255 255
-0.351855 -0.208552 0.891 255 255 255
0.0698947 0.0708023 0.748 255 255 255
0.125701 -0.226763 0.687 0 0 0
0.101671 0.0712493 0.74 255 255 255
-0.425685 0.14075 0.97 255 255 255
0.246409 -0.176233 0.657 0 0 0
0.229784 0.0543972 0.694 255 255 255
0.290616 -0.108213 0.653 0 0 0
-0.118684 -0.152636 0.796 255 255 255
0.312831 -0.084029 0.655 255 255 255
0.101258 0.0505716 0.737 255 255 255
-0.0649004 -0.0126103 0.788 255 255 255
0.0492608 0.304126 0.788 0 0 0
0.257688 0.267808 0.715 255 255 255
-0.502557 0.0601187 0.994 255 255 255
0.265037 -0.229996 0.64 255 255 255
-0.184061 -0.193547 0.81 0 0 0
-0.283694 0.00454439 0.882 255 255 255
0.411482 0.276788 0.825 255 255 255
-0.471763 0.254895 1.079 255 255 255
-0.282991 -0.128748 0.871 255 255 255
-0.0895524 0.0210987 0.802 255 255 255
0.18748 -0.0613921 0.688 0 0 0
0.143831 0.172404 0.74 255 255 255
-0.058561 -0.00235459 0.789 255 255 255
0.301904 0.0198363 0.671 255 255 255
-0.392418 0.416219 1.083 0 0 0
-0.0981987 -0.0595202 0.798 255 255 255
-0.497086 0.335546 1.073 255 255 255
0.178432 -0.0910279 0.692 255 255 255
-0.332763 0.252241 0.98 255 255 255
0.0156883 0.126654 0.777 255 255 255
-0.529513 0.237534 1.034 255 255 255
0.0665961 0.0846422 0.752 255 255 255
0.0350467 0.048312 0.758 0 0 0
0.311021 -0.0938207 0.649 255 255 255
-0.424416 0.355375 1.102 255 255 255
0.181718 0.143736 0.723 0 0 0
0.168772 0.129617 0.723 255 255 255
-0.130673 -0.0751035 0.798 0 0 0
-0.299403 -0.0761765 0.886 255 255 255
0.120828 0.076435 0.732 255 255 255
-0.387197 -0.0480224 0.927 0 0 0
0.120937 0.236102 0.755 255 255 255
-0.46597 0.0526229 0.975 255 255 255
-0.100785 0.173112 0.83 255 255 255
0.0414939 -0.203677 0.72 255 255 255
-0.488993 0.388754 1.09 255 255 255
-0.036759 -0.14755 0.763 255 255 255
0.286766 -0.163851 0.642 255 255 255
-0.0794777 -0.121643 0.78 255 255 255
0.168697 -0.175763 0.68 255 255 255
-0.00451932 0.026591 0.772 255 255 255
-0.0702317 0.102398 0.805 255 255 255
-0.0774316 -0.0777124 0.785 255 255 255
0.0376629 0.0621256 0.761 0 0 0
-0.0626793 0.117388 0.809 255 255 255
0.0529817 -0.0916499 0.733 255 255 255
-0.178892 0.247245 0.848 0 0 0
-0.156565 0.041132 0.811 255 255 255
-0.196001 -0.0549542 0.827 0 0 0
0.386302 0.229063 0.868 255 255 255
-0.165746 -0.0530272 0.798 255 255 255
0.113565 -0.26292 0.688 255 255 255
-0.0225823 -0.155189 0.746 255 255 255
-0.429534 -0.0261341 0.954 255 255 255
-0.115939 0.320508 0.852 0 0 0
-0.184559 -0.159347 0.824 0 0 0
-0.0976373 0.0837756 0.815 0 0 0
-0.372785 0.130832 0.944 255 255 255
0.228309 -0.120289 0.673 255 255 255
0.395607 0.239091 0.834 255 255 255
-0.251854 -0.0995965 0.852 0 0 0
0.172051 -0.136604 0.689 255 255 255
-0.0106907 -0.0433082 0.764 255 255 255
0.286319 -0.171941 0.641 255 255 255
-0.484308 -0.156126 0.961 255 255 255
0.24219 -0.0687129 0.672 255 255 255
-0.381808 0.309354 1.073 255 255 255
-0.346722 -0.276949 0.878 0 0 0
0.177779 0.205995 0.731 255 255 255
-0.30166 0.0498728 0.897 255 255 255
0.0803932 -0.0867497 0.722 255 255 255
-0.178482 0.294312 0.873 255 255 255
0.076389 0.102998 0.752 0 0 0
0.168304 0.0642778 0.716 0 0 0
-0.118171 -0.237092 0.784 255 255 255
-0.207943 -0.0558916 0.821 255 255 255
0.00302849 0.0959353 0.774 255 255 255
0.205996 -0.0245163 0.69 255 255 255
0.257665 -0.168784 0.653 0 0 0
-0.368619 -0.322578 1.297 255 255 255
0.0585819 -0.205465 0.714 255 255 255
-0.160648 -0.244752 0.805 0 0 0
-0.378135 -0.317675 0.888 255 255 255
0.015769 0.167976 0.781 255 255 255
-0.0328743 0.0849549 0.789 255 255 255
0.136266 -0.101055 0.707 255 255 255
-0.114533 0.0684431 0.822 255 255 255
-0.112646 -0.233764 0.79 255 255 255
0.218838 -0.0322824 0.688 255 255 255
0.266064 -0.0929801 0.658 255 255 255
0.0302303 0.0584104 0.761 0 0 0
0.160387 -0.222142 0.673 255 255 255
0.123686 0.142683 0.742 0 0 0
0.350773 0.304977 0.871 255 255 255
0.00914732 -0.0220273 0.759 0 0 0
-0.286746 0.160462 0.887 0 0 0
-0.0308049 0.171187 0.802 255 255 255
-0.219592 0.0248323 0.84 255 255 255
0.246568 -0.0426569 0.675 255 255 255
-0.282258 0.007415 0.882 255 255 255
-0.0309093 -0.0337113 0.772 0 0 0
0.40844 0.00156941 0.827 255 255 255
-0.151405 0.11382 0.841 255 255 255
-0.129193 -0.19638 0.839 255 255 255
0.0241128 -0.217189 0.726 255 255 255
-0.365102 0.17999 0.944 255 255 255
0.240117 0.0225781 0.688 255 255 255
0.191913 -0.151627 0.676 255 255 255
0.292686 -0.244857 0.63 255 255 255
-0.327319 -0.238161 0.872 0 0 0
0.110573 -0.126101 0.712 255 255 255
0.050658 -0.247167 0.717 0 0 0
0.244465 -0.219501 0.649 0 0 0
-0.0235812 0.0382413 0.779 255 255 255
-0.517639 -0.0143037 0.995 255 255 255
-0.0391197 0.242034 0.812 0 0 0
-0.146184 -0.118706 0.812 255 255 255
0.0979744 0.206202 0.758 255 255 255
0.0812295 -0.135531 0.719 255 255 255
0.215503 -0.100663 0.681 255 255 255
0.184427 -0.252602 0.661 255 255 255
0.304797 -0.128277 0.647 255 255 255
0.285109 -0.105347 0.655 255 255 255
0.0110531 0.294752 0.808 255 255 255
0.0766842 0.0461469 0.743 0 0 0
-0.0224277 0.0753894 0.783 0 0 0
0.124742 0.114867 0.734 255 255 255
0.371474 0.255954 0.873 255 255 255
-0.517429 0.37254 1.079 0 0 0
-0.22216 0.100292 0.866 255 255 255
-0.32063 -0.133917 0.877 255 255 255
-0.0120281 -0.0185874 0.77 255 255 255
0.0584635 -0.00462929 0.742 255 255 255
-0.407656 0.134752 0.961 255 255 255
-0.250376 -0.147254 0.847 255 255 255
0.119012 0.00958138 0.721 255 255 255
0.22559 0.0669165 0.695 255 255 255
0.0856265 0.245485 0.769 255 255 255
0.296451 0.0507862 0.676 255 255 255
0.0265141 0.0522184 0.761 0 0 0
-0.178324 -0.183927 0.82 0 0 0
-0.0860271 0.223356 0.831 255 255 255
0.22879 0.163563 0.712 255 255 255
-0.364012 -0.0729523 0.918 255 255 255
0.268215 -0.0735184 0.666 255 255 255
0.144221 -0.190699 0.69 255 255 255
-0.0671699 0.28726 0.832 255 255 255
-0.384948 -0.164519 0.904 255 255 255
0.405477 -0.0184825 0.821 0 0 0
-0.125694 0.0539249 0.825 0 0 0
-0.17332 -0.246758 0.803 0 0 0
-0.284483 0.189268 0.88 0 0 0
-0.280164 0.307407 0.858 255 255 255
-0.358155 -0.335529 0.878 0 0 0
0.256114 -0.0185459 0.677 0 0 0
-0.44821 -0.354523 0.916 255 255 255
0.130642 -0.0602264 0.714 255 255 255
0.185854 0.227096 0.73 0 0 0
0.192202 -0.00775128 0.697 255 255 255
0.268145 -0.00091458 0.674 255 255 255
0.0904667 -0.145859 0.718 255 255 255
-0.0544455 -0.260983 0.75 255 255 255
0.417107 0.0532713 0.815 255 255 255
0.17904 -0.101993 0.69 255 255 255
0.0678389 -0.10377 0.726 255 255 255
0.095774 -0.121808 0.714 255 255 255
-0.353975 0.0317921 0.923 255 255 255
0.135766 -0.20664 0.687 255 255 255
0.211669 0.117877 0.709 0 0 0
-0.0579085 0.217996 0.816 255 255 255
0.190007 -0.119503 0.681 255 255 255
0.0543917 0.306691 0.788 0 0 0
-0.478058 0.00344397 0.977 0 0 0
0.221985 0.223985 0.72 255 255 255
0.369772 0.242054 0.869 255 255 255
0.170726 -0.00552211 0.702 255 255 255
0.180943 -0.221579 0.668 0 0 0
-0.260733 -0.285468 0.836 255 255 255
-0.469594 -0.193306 0.944 0 0 0
0.0914432 0.0923408 0.745 0 0 0
0.152524 -0.114676 0.692 255 255 255
0.352521 0.258538 0.858 255 255 255
0.247617 -0.086524 0.666 0 0 0
-0.422077 0.385049 1.11 255 255 255
0.26325 -0.0941939 0.659 255 255 255
-0.0547779 0.179264 0.809 255 255 255
-0.253466 0.26125 0.867 255 255 255
-0.40522 -0.34833 0.9 255 255 255
0.190869 0.163511 0.722 255 255 255
-0.279051 -0.302589 0.842 0 0 0
0.0383998 -0.181062 0.728 255 255 255
-0.402407 0.0556172 0.945 255 255 255
0.28014 -0.0366692 0.666 255 255 255
0.117172 0.0964075 0.739 0 0 0
-0.484806 0.00665089 0.981 255 255 255
-0.329947 -0.151387 0.879 255 255 255
0.163198 0.196357 0.735 255 255 255
-0.0749713 -0.0701369 0.786 0 0 0
0.238478 0.0678517 0.693 0 0 0
0.373735 0.0253572 0.813 255 255 255
0.280216 0.156943 0.693 255 255 255
0.155245 0.196891 0.737 0 0 0
0.226025 -0.124126 0.676 255 255 255
-0.0944832 0.211947 0.834 255 255 255
0.146006 0.0647267 0.721 255 255 255
0.177132 0.0640983 0.714 0 0 0
-0.356199 -0.112781 0.902 0 0 0
-0.189287 -0.121776 0.833 255 255 255
-0.386348 -0.271264 0.897 255 255 255
-0.0401137 -0.188025 0.756 0 0 0
0.122506 -0.0811408 0.714 255 255 255
0.044873 -0.0765586 0.737 255 255 255
0.391178 0.0920318 0.842 0 0 0
-0.0389473 0.0116646 0.782 0 0 0
-0.54558 0.337291 1.062 255 255 255
0.0358019 -0.0277943 0.748 255 255 255
0.00413328 -0.117555 0.746 255 255 255
-0.554576 0.335092 1.066 255 255 255
-0.00319081 -0.0833429 0.755 0 0 0
0.0635464 -0.0723666 0.731 0 0 0
-0.0366145 -0.153154 0.76 255 255 255
-0.066771 0.0131522 0.795 255 255 255
0.360953 -0.0875593 0.719 255 255 255
-0.51965 0.325193 1.062 255 255 255
0.281151 0.00891693 0.671 255 255 255
-0.229605 -0.265973 0.822 0 0 0
0.21044 -0.187036 0.665 255 255 255
-0.361419 -0.283798 0.886 0 0 0
0.0654448 -0.0142313 0.739 255 255 255
-0.00463641 0.20514 0.792 0 0 0
0.359639 0.225632 0.855 255 255 255
0.302461 -0.226043 0.629 255 255 255
0.0136624 -0.179458 0.736 0 0 0
-0.084751 0.0605528 0.806 0 0 0
-0.0734972 0.233047 0.827 0 0 0
0.0920569 0.152765 0.75 0 0 0
-0.357403 0.0561269 0.928 255 255 255
0.254637 -0.208618 0.648 0 0 0
-0.0593033 0.0743295 0.799 255 255 255
0.194863 -0.165793 0.671 255 255 255
0.0224372 0.25025 0.792 0 0 0
-0.389368 0.210204 0.97 255 255 255
0.158714 0.240489 0.742 255 255 255
-0.251182 0.243474 0.864 255 255 255
-0.138887 -0.122066 0.808 255 255 255
-0.504348 -0.0109875 0.988 0 0 0
-0.27543 -0.00545282 0.874 0 0 0
-0.312843 0.035551 0.904 255 255 255
-0.189633 0.335127 0.872 0 0 0
-0.152416 0.0318543 0.81 255 255 255
-0.0836893 -0.218387 0.772 255 255 255
-0.15469 -0.0587743 0.788 255 255 255
0.187789 -0.140835 0.677 255 255 255
-0.461828 0.32544 1.11 255 255 255
-0.0478115 -0.206607 0.761 0 0 0
-0.00692334 -0.0591595 0.76 0 0 0
-0.292083 -0.299225 0.848 255 255 255
0.386532 0.0773994 0.832 0 0 0
-0.206768 -0.189968 0.806 255 255 255
0.211612 -0.0233934 0.69 255 255 255
0.0598021 0.228483 0.775 255 255 255
-0.39356 0.371275 1.096 255 255 255
-0.298972 -0.200343 0.868 255 255 255
-0.0155628 -0.120839 0.759 0 0 0
0.377221 0.174559 0.857 255 255 255
-0.096547 0.0999355 0.817 255 255 255
0.00953298 0.22419 0.791 255 255 255
0.312089 -0.183476 0.634 255 255 255
-0.151655 0.334473 0.874 255 255 255
0.288591 -0.0537667 0.663 255 255 255
-0.440313 0.0206543 0.964 255 255 255
-0.279051 -0.30807 0.842 0 0 0
0.154023 -0.0490721 0.704 0 0 0
0.264373 -0.0325281 0.67 255 255 255
-0.00955835 0.016562 0.773 255 255 255
-0.105053 -0.267383 0.772 255 255 255
-0.376934 -0.272655 0.892 255 255 255
-0.482681 -0.145633 0.964 0 0 0
-0.120026 -0.0665923 0.805 0 0 0
0.278272 -0.141347 0.649 255 255 255
0.41527 0.067777 0.814 255 255 255
-0.090302 0.217116 0.833 255 255 255
0.0402098 -0.232322 0.718 255 255 255
-0.269466 -0.0897512 0.864 255 255 255
-0.170345 0.280747 0.875 255 255 255
-0.188772 0.00955092 0.819 255 255 255
0.270686 0.0906096 0.686 255 255 255
-0.072849 0.289654 0.835 255 255 255
-0.24624 -0.107282 0.847 0 0 0
-0.371877 0.0671292 0.934 255 255 255
-0.410923 0.298291 1.09 255 255 255
0.404518 0.179865 0.83 255 255 255
-0.209021 0.19477 0.836 255 255 255
-0.153604 0.238425 0.861 255 255 255
0.240723 -0.167118 0.659 255 255 255
-0.534562 0.210612 1.034 255 255 255
0.0872133 0.197111 0.761 255 255 255
-0.380136 0.108132 0.947 255 255 255
0.257655 0.106195 0.693 0 0 0
0.0735475 0.079323 0.748 255 255 255
-0.394649 -0.228281 0.906 255 255 255
0.408024 0.314627 0.84 0 0 0
0.142463 -0.140595 0.715 255 255 255
0.156237 -0.249893 0.674 255 255 255
-0.453138 -0.304661 0.923 0 0 0
-0.52173 0.370097 1.077 255 255 255
-0.226712 -0.118133 0.836 255 255 255
0.0291386 0.312273 0.799 0 0 0
-0.0760567 -0.0788892 0.784 255 255 255
-0.490291 0.140501 1.002 255 255 255
-0.343139 0.214466 0.947 0 0 0
-0.113468 -0.247938 0.778 255 255 255
-0.0397574 -0.0652031 0.773 255 255 255
-0.181193 -0.102057 0.827 255 255 255
0.0309729 -0.0363636 0.749 255 255 255
0.059409 0.0873213 0.754 0 0 0
-0.333952 0.127378 0.93 255 255 255
-0.0165265 0.249427 0.806 0 0 0
0.0215024 0.0137918 0.759 255 255 255
-0.166208 -0.278879 0.794 255 255 255
-0.345849 -0.115203 0.898 0 0 0
-0.0291684 0.118938 0.793 255 255 255
-0.298534 -0.159242 0.875 255 255 255
-0.394742 -0.0540566 0.927 0 0 0
-0.067107 0.0431238 0.799 255 255 255
0.0955185 0.0615322 0.739 255 255 255
-0.204078 0.196711 0.827 255 255 255
0.0445076 -0.14731 0.731 255 255 255
0.104968 0.257565 0.764 255 255 255
-0.320921 0.14895 0.923 255 255 255
-0.177906 0.189178 0.812 255 255 255
0.021959 -0.188269 0.733 255 255 255
-0.366788 -0.00727629 0.925 255 255 255
0.10491 -0.258071 0.69 255 255 255
0.279622 -0.184171 0.64 0 0 0
-0.0131435 -0.0717154 0.762 0 0 0
-0.333153 0.144336 0.932 255 255 255
0.154919 0.2725 0.747 255 255 255
-0.0913861 0.317123 0.843 0 0 0
-0.0388306 0.187781 0.806 255 255 255
0.165498 0.0867781 0.719 0 0 0
0.0876717 0.215576 0.765 255 255 255
0.386747 0.292964 0.869 255 255 255
0.204132 0.0377266 0.699 0 0 0
-0.0231152 0.252363 0.807 0 0 0
-0.038108 0.0787341 0.791 255 255 255
-0.171022 0.1704 0.817 255 255 255
-0.0621825 -0.249208 0.755 255 255 255
0.000511937 0.125712 0.779 0 0 0
-0.186126 -0.0803297 0.825 255 255 255
0.387069 0.136363 0.845 0 0 0
0.262577 -0.163221 0.652 0 0 0
-0.0631069 0.295383 0.832 255 255 255
-0.0751919 0.0380653 0.802 255 255 255
0.224175 -0.182433 0.664 255 255 255
0.202387 -0.173488 0.667 255 255 255
-0.48194 -0.0709165 0.972 255 255 255
0.413975 0.0866681 0.83 255 255 255
-0.431053 0.135128 0.975 255 255 255
0.287056 -0.18671 0.638 0 0 0
0.231375 0.0260877 0.692 0 0 0
-0.35014 -0.0413542 0.913 0 0 0
-0.27338 0.0598351 0.872 0 0 0
-0.0270896 0.229008 0.808 255 255 255
-0.163917 0.12252 0.835 0 0 0
0.0276582 -0.211282 0.726 255 255 255
-0.340323 -0.10608 0.895 0 0 0
0.283672 0.092707 0.685 255 255 255
0.262144 0.198965 0.702 255 255 255
-0.0936901 0.194019 0.827 255 255 255
-0.401683 0.329916 1.089 255 255 255
0.11844 0.184975 0.747 255 255 255
0.118983 0.0546928 0.728 255 255 255
0.173733 0.188822 0.729 255 255 255
0.317714 -0.165685 0.637 255 255 255
-0.096875 0.282827 0.843 255 255 255
0.0344139 -0.244346 0.719 255 255 255
-0.0724128 0.244698 0.83 255 255 255
0.235082 0.183901 0.71 255 255 255
0.00789097 -0.0429114 0.757 255 255 255
0.128677 0.102005 0.736 0 0 0
-0.472727 -0.304599 0.932 255 255 255
0.106752 0.221296 0.759 255 255 255
0.303744 -0.114589 0.647 255 255 255
-0.336733 -0.318628 0.867 255 255 255
0.262144 0.186399 0.702 255 255 255
0.402446 0.144866 0.823 255 255 255
-0.351404 -0.115588 0.901 0 0 0
0.208385 0.0410802 0.698 255 255 255
-0.41208 -0.0440599 0.939 255 255 255
-0.484067 -0.0382425 0.986 255 255 255
-0.140759 -0.254011 0.789 255 255 255
-0.0843243 0.312264 0.841 0 0 0
0.289816 -0.073482 0.656 0 0 0
0.0808386 -0.0576943 0.726 0 0 0
0.123559 0.259789 0.756 0 0 0
-0.256662 0.136363 0.845 255 255 255
0.179744 0.0231688 0.706 255 255 255
-0.00334296 0.176563 0.791 255 255 255
0.0124135 -0.204969 0.733 0 0 0
0.400111 -0.0672275 0.797 0 0 0
0.131373 0.00954151 0.718 255 255 255
0.160238 -0.211344 0.677 0 0 0
0.236721 -0.0971456 0.672 0 0 0
0.407491 0.149128 0.817 255 255 255
0.181991 -0.0327047 0.697 0 0 0
0.260083 0.242352 0.712 255 255 255
0.0845002 -0.0435769 0.727 255 255 255
0.2287 -0.046565 0.684 255 255 255
0.396488 0.249649 0.833 255 255 255
-0.448894 0.194963 0.997 0 0 0
-0.0471663 0.236007 0.814 0 0 0
0.0643185 0.0910023 0.754 0 0 0
-0.407001 0.317511 1.089 255 255 255
0.0382073 0.148452 0.772 255 255 255
-0.101283 -0.244769 0.772 255 255 255
-0.186928 0.187626 0.811 255 255 255
0.139917 -0.238838 0.68 255 255 255
0.289247 -0.0117594 0.667 0 0 0
0.21345 -0.130009 0.678 255 255 255
0.0268411 -0.154306 0.736 255 255 255
0.234574 0.142452 0.705 255 255 255
-0.373469 0.0887868 0.938 0 0 0
0.143305 -0.185353 0.691 255 255 255
0.265353 -0.149198 0.651 255 255 255
-0.375126 -0.026903 0.927 255 255 255
-0.00817121 -0.0567605 0.761 255 255 255
-0.281141 0.109446 0.883 0 0 0
-0.432442 -0.0122001 0.957 0 0 0
-0.351192 -0.165424 0.893 0 0 0
0.0714315 0.291405 0.778 255 255 255
0.044873 -0.0705619 0.737 255 255 255
-0.151443 -0.211691 0.819 255 255 255
-0.0588012 0.170259 0.81 0 0 0
-0.406447 -0.32264 0.906 255 255 255
0.113564 0.206615 0.755 0 0 0
0.0416173 0.296809 0.789 0 0 0
-0.0718975 0.112122 0.809 255 255 255
-0.5459 0.394073 1.066 255 255 255
-0.400445 0.0663118 0.944 255 255 255
0.203464 0.232619 0.725 0 0 0
0.115097 0.228104 0.757 255 255 255
0.255768 0.135712 0.694 255 255 255
0.165392 -0.0924204 0.694 255 255 255
0.157685 -0.14207 0.705 255 255 255
0.037925 -0.238496 0.719 255 255 255
-0.497817 -0.238863 0.948 255 255 255
0.236627 -0.0516731 0.678 255 255 255
0.237902 0.223593 0.715 255 255 255
0.053849 0.0014138 0.745 255 255 255
-0.25727 0.147712 0.847 255 255 255
0.108255 -0.120308 0.712 255 255 255
-0.381853 0.212874 0.975 255 255 255
-0.0616721 0.0481433 0.796 255 255 255
-0.490595 -0.0045332 0.983 0 0 0
-0.468578 0.178201 0.994 0 0 0
-0.184464 0.122199 0.806 255 255 255
-0.15786 0.280236 0.869 255 255 255
