ply
format ascii 1.0
comment Created by Open3D
element vertex 1329
property double x
property double y
property double z
property uchar red
property uchar green
property uchar blue
end_header
-0.522091 0.230681 1.837 255 255 255
-0.0754252 0.16767 1.039 255 255 255
-0.110529 -0.288755 1.316 255 255 255
-0.312744 0.382698 1.62 255 255 255
0.303721 0.0543862 0.617 255 255 255
0.14162 -0.105593 0.774 255 255 255
-0.136742 -0.359977 1.342 255 255 255
-0.336519 0.391518 1.646 255 255 255
-0.377442 0.474171 1.673 255 255 255
0.154106 -0.1806 0.761 0 0 0
-1.20063 0.709041 2.638 255 255 255
-0.0810414 0.17731 1.046 255 255 255
0.298761 -0.165549 0.599 0 0 0
-0.177594 -0.0682606 1.406 255 255 255
-0.0394675 0.263955 1.073 255 255 255
0.159897 0.0861054 0.765 255 255 255
0.102815 -0.0914045 0.816 255 255 255
-0.213809 0.000396385 1.466 255 255 255
0.131688 -0.0280694 0.79 0 0 0
-0.50695 0.0559542 1.794 255 255 255
-0.412845 -0.34803 1.673 255 255 255
0.0391311 0.293639 1.073 255 255 255
-0.729812 0.371034 2.051 255 255 255
-0.354967 -0.542238 1.551 255 255 255
-0.569326 0.626727 1.905 255 255 255
0.131722 0.0183963 0.798 0 0 0
0.119731 0.0520294 0.796 255 255 255
-0.22237 -0.322852 1.429 255 255 255
-0.379472 0.309755 1.682 255 255 255
0.160137 -0.263384 0.743 255 255 255
-0.1587 -0.23335 1.381 255 255 255
-0.249605 -0.443337 1.466 255 255 255
0.300087 -0.13953 0.592 0 0 0
0.187715 -0.114842 0.693 0 0 0
-0.482469 -0.328522 1.758 255 255 255
0.0391657 -0.271234 0.878 0 0 0
0.0856634 -0.196975 0.83 255 255 255
-0.556152 -0.0769755 1.831 255 255 255
-0.0233085 0.0194222 0.981 0 0 0
0.0925201 0.3111 0.796 255 255 255
0.0427421 -0.088404 0.893 255 255 255
-0.257501 -0.328033 1.484 255 255 255
-0.00425583 0.365707 1.007 255 255 255
0.0933918 0.174579 0.864 255 255 255
-1.05159 0.826474 2.286 255 255 255
-1.16455 0.807588 2.204 255 255 255
-1.41129 0.611097 2.953 255 255 255
0.29291 -0.188943 0.599 0 0 0
-0.25993 -0.318939 1.498 255 255 255
0.0568235 0.377335 0.986 0 0 0
0.0967844 -0.309543 0.81 255 255 255
0.104945 0.125454 0.855 0 0 0
-0.0868728 -0.377556 1.283 255 255 255
-0.564829 -0.597105 1.774 255 255 255
0.152895 0.0721158 0.749 255 255 255
-0.435389 0.252229 1.719 255 255 255
-0.0935259 0.272431 1.072 255 255 255
-0.0300895 0.113498 0.994 255 255 255
-0.683963 0.57036 2.024 255 255 255
-0.564954 0.359592 1.87 255 255 255
-0.162809 -0.450787 1.359 255 255 255
-0.00279332 0.229459 1.075 255 255 255
-1.13524 0.816341 2.189 255 255 255
0.121536 0.0265161 0.808 0 0 0
-0.317096 -0.340319 1.551 255 255 255
-0.598445 0.405342 1.899 255 255 255
-0.0187493 0.276243 1.087 255 255 255
-0.196179 0.536394 1.477 255 255 255
-0.0616522 0.256546 1.064 0 0 0
0.116798 -0.285937 0.785 255 255 255
-0.436395 -0.639389 1.659 255 255 255
0.120633 -0.144651 0.802 255 255 255
0.00417885 0.208847 1.068 255 255 255
0.266004 0.00652233 0.65 255 255 255
-0.0936645 0.347454 1.094 255 255 255
0.0443203 -0.312984 0.867 255 255 255
0.305119 -0.069162 0.6 255 255 255
-0.128291 -0.039034 1.345 255 255 255
0.273208 -0.179279 0.623 0 0 0
0.307714 0.0229587 0.609 255 255 255
0.180753 -0.0808042 0.701 0 0 0
0.178722 0.301329 0.771 255 255 255
0.0990291 0.112536 0.852 0 0 0
0.309157 0.0248179 0.606 255 255 255
0.103632 -0.21781 0.812 255 255 255
0.236791 -0.24685 0.66 0 0 0
-0.600422 -0.273165 1.848 255 255 255
0.250608 0.167278 0.68 0 0 0
-0.253857 -0.392433 1.463 255 255 255
0.0201822 -0.0524347 0.925 0 0 0
-0.638138 0.353198 1.935 255 255 255
0.267741 -0.0459379 0.644 0 0 0
0.177445 -0.0607005 0.706 0 0 0
-1.23796 0.766472 2.53 255 255 255
0.113302 -0.0223263 0.815 255 255 255
0.253025 -0.0878882 0.652 0 0 0
-0.279125 0.398708 1.579 255 255 255
0.010943 -0.274591 0.908 0 0 0
-0.518873 -0.302057 1.805 255 255 255
0.0172265 -0.0435438 0.928 0 0 0
0.0572566 0.293306 1.053 255 255 255
0.29816 -0.13375 0.592 0 0 0
-0.0055672 -0.0152188 0.951 255 255 255
0.284254 -0.112741 0.614 255 255 255
-0.0768564 0.328099 1.083 255 255 255
-0.640057 -0.359731 1.876 255 255 255
0.0784094 -0.131794 0.854 255 255 255
0.125892 -0.0747271 0.794 0 0 0
0.165277 0.213685 0.713 0 0 0
0.236399 -0.0302569 0.668 0 0 0
0.157983 -0.146257 0.75 0 0 0
-1.02123 0.856803 2.22 255 255 255
0.0245926 -0.019235 0.921 255 255 255
0.140466 0.0707678 0.735 0 0 0
-0.60086 -0.669924 1.831 255 255 255
0.227427 0.255009 0.715 255 255 255
0.1056 -0.147357 0.817 0 0 0
0.105098 -0.261132 0.803 255 255 255
0.187735 -0.149572 0.719 255 255 255
-0.250805 0.529089 1.547 255 255 255
0.132217 0.22572 0.801 255 255 255
0.287031 -0.0886194 0.62 255 255 255
-0.490581 0.599402 1.831 255 255 255
0.220167 -0.0557997 0.649 255 255 255
-0.580834 0.135265 1.882 255 255 255
-0.157321 -0.409547 1.369 255 255 255
-0.364582 -0.181017 1.616 255 255 255
0.238574 -0.0248217 0.668 0 0 0
0.258959 0.0323505 0.659 255 255 255
-0.28578 -0.328671 1.532 255 255 255
0.0713133 -0.297712 0.836 0 0 0
0.234224 -0.0269958 0.668 0 0 0
0.166629 -0.0696937 0.704 255 255 255
0.302525 -0.10406 0.593 255 255 255
-0.485331 -0.345687 1.758 255 255 255
-0.098377 -0.343684 1.297 255 255 255
-0.375411 0.241451 1.664 255 255 255
-0.560578 -0.00842078 1.826 255 255 255
0.221525 0.136722 0.711 255 255 255
0.278405 0.07644 0.642 0 0 0
-0.649596 0.0226353 1.941 255 255 255
0.154529 -0.228926 0.757 0 0 0
0.193448 0.244702 0.755 255 255 255
0.0235859 0.264164 1.081 255 255 255
-0.0731521 0.190854 1.055 255 255 255
-0.422021 -0.359779 1.677 255 255 255
-0.497006 -0.0283091 1.769 255 255 255
-0.422792 -0.203177 1.691 255 255 255
0.29261 0.242712 0.648 0 0 0
0.124913 -0.0943456 0.796 0 0 0
0.159355 -0.278641 0.745 255 255 255
0.218202 0.257862 0.723 255 255 255
0.194282 0.0382848 0.669 255 255 255
0.163642 -0.261257 0.737 255 255 255
0.121857 0.0735245 0.819 255 255 255
0.0264601 0.0792886 0.934 255 255 255
-0.135761 -0.0414986 1.354 255 255 255
0.269687 0.136374 0.659 255 255 255
0.151461 -0.0918216 0.754 0 0 0
0.260465 0.178964 0.674 255 255 255
0.305624 0.175107 0.625 255 255 255
0.267444 0.260514 0.675 255 255 255
0.00779204 0.322235 1.087 255 255 255
0.0395672 -0.232154 0.887 255 255 255
-0.506931 -0.546958 1.734 255 255 255
-0.0621332 0.176802 1.043 255 255 255
-0.0804817 -0.262314 1.281 255 255 255
-0.0632521 -0.274529 1.27 255 255 255
0.160816 -0.0910694 0.719 255 255 255
-0.0434412 0.307517 1.085 255 255 255
0.00365845 -0.151902 0.935 255 255 255
0.280621 -0.150442 0.617 255 255 255
0.253981 -0.151261 0.66 255 255 255
0.2484 0.103743 0.677 255 255 255
-0.259236 -0.186801 1.494 255 255 255
-0.0441657 0.207283 1.06 255 255 255
-0.240824 -0.353948 1.442 255 255 255
0.27736 0.0471871 0.642 0 0 0
-0.248859 0.34763 1.535 255 255 255
0.284346 0.14735 0.646 0 0 0
0.157003 0.00607828 0.723 0 0 0
0.144386 -0.0394747 0.762 255 255 255
0.0423114 -0.117723 0.884 0 0 0
0.143783 -0.0325759 0.746 255 255 255
-1.15413 0.782226 2.582 255 255 255
0.0094735 0.228133 1.077 255 255 255
0.273978 0.185705 0.659 0 0 0
0.303179 0.0869368 0.62 0 0 0
-0.60952 -0.204035 1.876 255 255 255
-0.229413 -0.260776 1.459 255 255 255
0.196739 -0.167846 0.693 255 255 255
0.00960051 -0.223068 0.921 255 255 255
0.127431 0.177347 0.772 0 0 0
0.280414 0.243615 0.659 0 0 0
0.260032 0.0559435 0.659 255 255 255
0.0585681 -0.10724 0.869 0 0 0
0.00212731 -0.208824 0.931 255 255 255
0.0863439 -0.00806955 0.85 255 255 255
0.188054 0.0648946 0.674 255 255 255
-0.22128 -0.439287 1.422 255 255 255
-0.777177 0.44974 2.107 255 255 255
0.190286 0.0767632 0.682 0 0 0
0.270096 0.15484 0.66 255 255 255
-0.260161 0.132201 1.528 255 255 255
0.229914 -0.17713 0.681 0 0 0
-0.471696 -0.356866 1.729 255 255 255
0.219673 -0.0222746 0.657 255 255 255
0.310226 0.0967702 0.612 255 255 255
0.137662 -0.00976515 0.766 0 0 0
0.291536 0.208797 0.641 255 255 255
0.0862423 0.0181904 0.849 0 0 0
-0.669416 0.592582 2.01 255 255 255
0.245972 -0.253796 0.653 255 255 255
0.0572846 0.375544 0.994 0 0 0
-0.876692 0.633031 2.286 255 255 255
0.199866 0.0970153 0.7 255 255 255
-0.708462 0.143099 1.991 255 255 255
-0.00786343 0.34919 1.051 255 255 255
0.216127 -0.141264 0.701 255 255 255
-0.0689669 0.231874 1.07 255 255 255
-0.403465 -0.319846 1.668 255 255 255
-0.829323 0.745923 2.181 255 255 255
-0.248339 -0.219803 1.487 255 255 255
0.235627 -0.136514 0.672 255 255 255
0.0465261 0.358413 1.043 255 255 255
-0.495523 -0.328625 1.774 255 255 255
-0.711951 0.26876 2.01 255 255 255
-0.198538 0.496617 1.459 255 255 255
0.18432 0.269645 0.763 255 255 255
-0.543504 -0.342039 1.799 255 255 255
-1.23209 0.656533 2.818 255 255 255
0.28895 -0.12881 0.605 255 255 255
-0.593969 -0.647513 1.81 255 255 255
0.230907 -0.0118299 0.671 0 0 0
0.110241 0.308104 0.812 0 0 0
-0.16588 -0.523915 1.348 255 255 255
0.135495 -0.00357399 0.775 0 0 0
-0.269684 -0.172674 1.498 255 255 255
0.296141 0.153656 0.633 255 255 255
0.210769 0.248646 0.734 0 0 0
0.0809045 -0.0703976 0.851 255 255 255
0.0270817 -0.1248 0.904 0 0 0
-0.24831 0.598149 1.563 255 255 255
-0.0551185 -0.458917 1.227 255 255 255
-0.311971 0.379123 1.616 255 255 255
0.265511 0.0225266 0.654 255 255 255
-0.652431 0.131235 1.959 255 255 255
0.182886 0.0552721 0.752 255 255 255
0.153794 -0.055968 0.719 255 255 255
0.175879 -0.0117301 0.733 0 0 0
-0.393782 0.210086 1.673 255 255 255
-0.011883 -0.0607308 0.961 255 255 255
0.240596 0.0679841 0.683 0 0 0
0.161568 0.164654 0.697 255 255 255
0.29329 -0.0665615 0.612 255 255 255
-0.0687091 0.260498 1.066 255 255 255
0.212226 -0.211522 0.692 255 255 255
-0.200035 0.268321 1.47 255 255 255
0.187329 -0.205178 0.713 255 255 255
0.0251266 0.121228 0.941 0 0 0
0.248548 -0.0746632 0.657 255 255 255
0.0726301 0.0214225 0.868 255 255 255
0.17828 -0.00700627 0.738 0 0 0
-0.274364 -0.0343086 1.524 255 255 255
-0.551994 0.0901788 1.837 255 255 255
0.198974 -0.0898028 0.709 255 255 255
0.0295008 0.0823285 0.934 255 255 255
-0.533176 0.476755 1.876 255 255 255
0.291463 -0.0109836 0.623 255 255 255
-0.232018 -0.0359921 1.491 255 255 255
-0.583949 0.0457326 1.853 255 255 255
-0.551661 -0.0470503 1.826 255 255 255
-1.05137 0.436845 2.707 0 0 0
-0.226554 0.0512187 1.487 255 255 255
0.286646 -0.0274232 0.628 255 255 255
-0.6874 0.789878 2.064 255 255 255
-0.721514 0.381761 2.037 255 255 255
0.00525248 0.0372813 0.948 0 0 0
0.108952 -0.300465 0.793 255 255 255
0.0388758 0.3455 1.066 0 0 0
-1.26145 0.712615 2.604 255 255 255
-0.103742 -0.0105329 1.339 255 255 255
-0.490866 0.634653 1.821 255 255 255
0.0894821 0.141324 0.867 0 0 0
-0.818112 0.249947 2.189 255 255 255
0.298306 -0.0807014 0.606 0 0 0
0.00563478 0.361064 1.017 0 0 0
-0.547834 -0.367363 1.794 255 255 255
0.1603 0.0745096 0.761 255 255 255
-0.0120561 0.0986356 0.975 0 0 0
-0.56378 -0.660379 1.789 255 255 255
-0.214393 0.304203 1.47 255 255 255
0.167001 0.15649 0.696 255 255 255
0.265007 -0.0365625 0.645 0 0 0
-0.525394 -0.434373 1.758 255 255 255
-0.136262 -0.0858826 1.359 255 255 255
-0.173035 0.278659 1.425 255 255 255
-0.126676 0.112251 1.375 255 255 255
-0.243953 0.0869849 1.52 255 255 255
0.207749 0.23016 0.736 255 255 255
0.0857599 0.0756294 0.858 255 255 255
-0.360016 -0.514474 1.551 255 255 255
-0.382048 -0.495359 1.612 255 255 255
0.0752441 0.266247 1.041 255 255 255
-0.00866328 -0.151407 0.951 255 255 255
0.0909056 -0.129788 0.841 255 255 255
0.129021 -0.249182 0.774 255 255 255
0.231109 -0.159799 0.678 255 255 255
0.0242455 -0.160814 0.908 255 255 255
0.277155 -0.0831353 0.632 0 0 0
0.246119 0.15759 0.686 255 255 255
0.0847186 -0.234569 0.834 255 255 255
-0.234805 -0.263871 1.463 255 255 255
0.143618 -0.0516982 0.778 255 255 255
-0.720997 -0.104489 2.017 255 255 255
-0.136516 0.160282 1.384 255 255 255
0.0506875 0.246724 1.059 255 255 255
-0.672811 0.292139 1.991 255 255 255
-0.45127 0.381645 1.748 255 255 255
0.0860708 0.358223 1.009 255 255 255
0.0615703 0.0815295 0.892 255 255 255
-0.212788 0.0146401 1.459 255 255 255
0.0844263 0.28799 0.793 255 255 255
0.0703627 0.255122 1.044 255 255 255
-0.171786 -0.201808 1.396 255 255 255
0.220278 -0.164634 0.689 255 255 255
-0.0741071 -0.467299 1.244 255 255 255
0.219062 -0.074095 0.652 255 255 255
0.102481 0.190428 0.764 255 255 255
0.291791 0.15048 0.637 255 255 255
0.186725 -0.180307 0.702 0 0 0
-0.704576 0.767377 2.085 255 255 255
0.177545 0.178375 0.711 0 0 0
0.149176 0.019073 0.725 255 255 255
0.21551 -0.135174 0.699 255 255 255
0.194471 -0.113236 0.697 0 0 0
-0.620891 -0.0430208 1.911 0 0 0
-0.00961069 0.175402 1.055 255 255 255
0.314767 0.24505 0.627 0 0 0
-0.00246332 -0.0290551 0.948 255 255 255
0.134639 0.151688 0.763 255 255 255
0.24009 0.188415 0.701 255 255 255
0.29545 0.07645 0.625 255 255 255
-0.394723 0.0441179 1.677 255 255 255
0.234854 0.149202 0.699 255 255 255
0.17986 0.17259 0.711 0 0 0
0.201542 -0.265213 0.694 255 255 255
-0.40964 0.325089 1.705 255 255 255
0.26325 0.0848985 0.659 255 255 255
-1.30254 0.674724 2.707 255 255 255
0.304607 0.143577 0.625 0 0 0
0.312253 0.125471 0.616 0 0 0
-0.676394 0.761539 2.051 255 255 255
-0.619127 -0.268741 1.859 255 255 255
0.281535 -0.0611479 0.628 255 255 255
0.184757 0.289661 0.77 255 255 255
-0.212601 0.359502 1.491 255 255 255
-0.928304 0.792036 2.294 0 0 0
-0.502506 0.0648928 1.799 255 255 255
0.0146782 0.211571 1.073 255 255 255
-0.511445 0.405726 1.831 255 255 255
-0.730648 0.393051 2.044 255 255 255
-0.292496 -0.424788 1.528 255 255 255
-0.241949 0.202762 1.463 0 0 0
0.14162 -0.148418 0.774 255 255 255
0.256169 0.263644 0.686 255 255 255
0.158696 -0.00449203 0.72 255 255 255
0.209148 -0.103565 0.693 255 255 255
-0.0198071 -0.0861988 0.966 0 0 0
-0.174249 0.296961 1.435 255 255 255
-0.561631 0.381678 1.859 255 255 255
0.154732 -0.275141 0.752 255 255 255
-0.301332 -0.371779 1.535 255 255 255
0.085303 0.210196 1 255 255 255
-0.312394 -0.53171 1.528 255 255 255
-1.03199 0.666167 2.54 255 255 255
-0.196782 -0.267041 1.429 255 255 255
0.195669 0.00125059 0.659 255 255 255
0.0643742 -0.0351996 0.871 0 0 0
0.26624 -0.00509734 0.648 255 255 255
-0.240263 0.268961 1.528 255 255 255
0.143395 -0.12259 0.77 255 255 255
0.240117 0.103189 0.688 255 255 255
-0.279033 -0.345837 1.509 255 255 255
0.175407 0.0639871 0.676 255 255 255
0.283803 0.210258 0.652 255 255 255
-0.268696 -0.0515333 1.52 255 255 255
-0.554336 0.258477 1.865 255 255 255
-0.00712272 -0.0663589 0.952 0 0 0
0.000633514 0.0990916 0.964 0 0 0
0.212578 0.242012 0.732 0 0 0
-0.268849 0.142798 1.535 255 255 255
0.093698 0.309416 0.795 255 255 255
0.281409 -0.175538 0.61 255 255 255
-0.462023 -0.359349 1.714 255 255 255
-0.105599 -0.274229 1.308 255 255 255
0.287771 0.0123938 0.626 255 255 255
0.0395417 0.0601345 0.92 255 255 255
-0.0524237 -0.0286733 0.988 255 255 255
-0.250796 0.189766 1.473 255 255 255
-0.195222 0.130351 1.452 255 255 255
0.0546995 -0.0951656 0.875 0 0 0
0.255697 0.140367 0.673 255 255 255
-0.193789 0.385027 1.459 255 255 255
-0.328566 0.237703 1.62 255 255 255
0.141811 -0.0570543 0.782 255 255 255
0.175926 0.0674864 0.678 255 255 255
-0.164906 0.324983 1.435 255 255 255
-0.222045 -0.271817 1.442 255 255 255
-0.713615 0.0137221 2.024 255 255 255
0.0288115 0.300549 1.079 255 255 255
0.146866 -0.0828756 0.762 0 0 0
-0.777177 0.466884 2.107 255 255 255
0.176065 -0.127798 0.696 255 255 255
-0.286016 -0.338464 1.52 255 255 255
0.156257 -0.0788515 0.725 255 255 255
0.301712 0.0463537 0.617 0 0 0
-0.456135 -0.560664 1.682 255 255 255
-0.200988 0.524376 1.477 255 255 255
-0.389039 -0.578067 1.587 255 255 255
0.292771 -0.0596874 0.613 255 255 255
-1.40849 0.703442 2.768 255 255 255
0.30566 0.137035 0.623 255 255 255
-0.780606 0.466884 2.107 255 255 255
-0.130294 0.100401 1.366 255 255 255
0.221185 -0.0496916 0.652 255 255 255
-0.431043 0.140742 1.724 255 255 255
0.185527 -0.0533295 0.715 255 255 255
-0.403989 -0.0265488 1.659 255 255 255
0.0463118 -0.211224 0.878 255 255 255
0.17104 -0.113878 0.694 255 255 255
-0.210309 -0.140407 1.442 255 255 255
-0.450586 0.466579 1.779 255 255 255
-0.207392 -0.288873 1.422 255 255 255
-0.0119943 0.0176259 0.97 0 0 0
0.0312873 -0.126894 0.898 0 0 0
0.196914 -0.00195768 0.656 255 255 255
-0.268432 0.0860125 1.547 255 255 255
0.311253 0.177742 0.62 0 0 0
0.155761 -0.227695 0.757 255 255 255
-0.738464 0.747089 2.114 255 255 255
0.195647 0.26401 0.754 255 255 255
0.176964 0.10007 0.682 255 255 255
0.0698224 -0.214423 0.851 255 255 255
0.239692 0.112472 0.69 255 255 255
0.210276 0.062213 0.693 255 255 255
-0.669601 0.173824 1.972 255 255 255
0.26729 -0.129621 0.633 255 255 255
0.140915 0.206143 0.806 255 255 255
-0.0604271 0.234271 1.073 255 255 255
-0.0491075 -0.0350334 0.986 255 255 255
0.0449848 -0.128647 0.88 0 0 0
0.298619 -0.119097 0.591 255 255 255
-0.439889 0.626278 1.748 255 255 255
-0.00627554 0.221841 1.072 255 255 255
0.283631 0.11823 0.642 0 0 0
-0.377999 0.575883 1.7 255 255 255
0.256814 -0.157466 0.659 255 255 255
-0.443693 -0.610272 1.646 255 255 255
-0.0344514 -0.036415 0.98 255 255 255
-0.434123 0.245917 1.714 255 255 255
-0.0396393 0.388221 1.032 255 255 255
0.21302 -0.0487051 0.653 255 255 255
-0.409029 0.0114645 1.691 255 255 255
0.027005 0.24566 1.077 255 255 255
-0.133972 0.146451 1.381 255 255 255
-0.326345 -0.344611 1.559 255 255 255
-0.582877 -0.53669 1.794 255 255 255
0.231043 -0.251907 0.662 255 255 255
-0.792475 0.695915 2.158 255 255 255
0.00852352 0.13272 0.969 255 255 255
0.12427 0.180177 0.768 0 0 0
0.10909 -0.280171 0.794 255 255 255
0.199011 -0.107042 0.701 255 255 255
-0.762274 0.390756 2.085 255 255 255
0.187199 -0.0222511 0.726 255 255 255
-0.645161 0.39085 1.966 255 255 255
0.185385 -0.208936 0.71 0 0 0
-0.131644 -0.174088 1.357 255 255 255
-0.0258745 0.303334 1.089 255 255 255
-0.00105702 0.29979 1.089 255 255 255
-0.63616 0.0256345 1.929 255 255 255
-0.249007 0.0173876 1.491 255 255 255
-0.230515 0.502687 1.513 255 255 255
0.255589 0.0718186 0.667 0 0 0
0.285302 0.228645 0.653 0 0 0
0.10427 -0.107471 0.817 255 255 255
-0.154047 0.1553 1.4 255 255 255
0.285569 0.0810277 0.637 0 0 0
-0.117831 -0.489087 1.302 255 255 255
0.127992 -0.140093 0.791 255 255 255
0.280844 0.214423 0.655 0 0 0
-0.504177 -0.402533 1.744 255 255 255
0.114792 0.138782 0.747 255 255 255
-0.813042 0.490532 2.166 255 255 255
0.29096 -0.200641 0.599 0 0 0
0.292901 0.235974 0.644 0 0 0
-0.303687 0.00797072 1.547 255 255 255
0.27537 -0.037029 0.635 0 0 0
-1.44942 0.617098 2.982 255 255 255
0.0960932 0.135054 0.863 0 0 0
0.0624081 0.363904 1.025 255 255 255
0.161341 -0.110584 0.732 0 0 0
-0.348316 0.557176 1.677 255 255 255
0.0330043 -0.0660283 0.905 255 255 255
0.218054 -0.105438 0.649 255 255 255
0.213859 -0.161505 0.69 255 255 255
-0.482008 0.315654 1.81 255 255 255
0.0314963 -0.16599 0.904 255 255 255
-0.502765 -0.178004 1.769 255 255 255
0.126544 -0.20291 0.79 255 255 255
0.0591747 -0.0226233 0.878 0 0 0
0.256142 0.219287 0.68 0 0 0
0.200024 0.280442 0.752 255 255 255
-0.156326 0.214535 1.4 255 255 255
-0.0134753 -0.0326491 0.963 0 0 0
0.256814 -0.0287769 0.659 255 255 255
-0.18193 -0.00424363 1.422 255 255 255
0.266445 -0.13948 0.631 255 255 255
-0.787873 0.657537 2.136 255 255 255
-0.234196 0.115516 1.505 255 255 255
0.0419093 0.226907 1.055 255 255 255
0.188617 0.0825538 0.684 0 0 0
-0.353776 0.595382 1.677 255 255 255
0.112941 -0.198408 0.803 255 255 255
0.0604788 -0.187823 0.856 0 0 0
-0.363312 0.214732 1.646 255 255 255
0.161568 0.153312 0.697 255 255 255
-0.023356 0.00666445 0.983 0 0 0
-0.229348 -0.553071 1.429 255 255 255
0.296057 0.0679855 0.622 255 255 255
0.18669 0.0170131 0.738 255 255 255
0.203548 -0.162009 0.697 255 255 255
0.29302 0.0133268 0.622 0 0 0
0.195999 0.215077 0.746 255 255 255
0.195728 0.143108 0.714 255 255 255
-0.132129 0.0225325 1.362 255 255 255
-1.13742 0.832437 2.166 255 255 255
0.113272 0.134773 0.745 255 255 255
0.148107 -0.239119 0.762 0 0 0
-1.23892 0.792614 2.374 255 255 255
-0.522532 -0.414347 1.758 255 255 255
0.010943 -0.298233 0.908 255 255 255
-1.0236 0.706137 2.55 0 0 0
0.0923509 0.305225 1.024 255 255 255
0.299124 -0.214673 0.592 255 255 255
-0.185247 -0.279948 1.412 255 255 255
-0.61274 0.310521 1.905 255 255 255
0.0376935 -0.320875 0.877 0 0 0
0.0772231 0.109501 0.872 255 255 255
-0.529509 0.141382 1.842 255 255 255
-0.0962658 -0.358459 1.297 255 255 255
-0.0857894 -0.467692 1.267 255 255 255
0.130237 -0.138455 0.789 255 255 255
0.276928 0.0231219 0.641 255 255 255
-0.201895 0.00510779 1.449 255 255 255
0.304508 0.200794 0.629 255 255 255
0.178954 0.294182 0.772 255 255 255
-1.15548 0.776178 2.604 255 255 255
0.0392408 0.0700772 0.913 255 255 255
-0.56549 -0.0714429 1.842 255 255 255
0.111426 -0.119879 0.811 255 255 255
-0.788963 0.74508 2.158 255 255 255
0.171533 0.155357 0.696 0 0 0
-0.232161 -0.447037 1.432 255 255 255
-0.283786 -0.554587 1.47 255 255 255
0.204998 0.0329886 0.672 0 0 0
0.281681 0.187977 0.652 0 0 0
0.137768 -0.0433863 0.788 255 255 255
0.228366 -0.188764 0.683 0 0 0
-0.129025 -0.460646 1.33 255 255 255
0.0927528 -0.0377306 0.833 0 0 0
0.198132 0.117378 0.706 255 255 255
0.223155 0.0513031 0.698 255 255 255
0.256674 0.080502 0.667 255 255 255
-0.157132 -0.157622 1.387 255 255 255
0.208342 -0.0435248 0.655 255 255 255
-1.23075 0.789273 2.411 255 255 255
-0.0617081 -0.384771 1.239 255 255 255
-0.161229 0.404496 1.403 255 255 255
0.195451 0.28638 0.758 255 255 255
-0.00796069 0.34312 1.064 255 255 255
0.280205 0.217953 0.656 0 0 0
-1.23994 0.764193 2.509 255 255 255
0.0455733 -0.313307 0.864 255 255 255
0.0563644 -0.32332 0.857 255 255 255
0.0326761 -0.129527 0.896 255 255 255
-0.0234273 0.0853075 0.986 0 0 0
0.26016 -0.155411 0.646 255 255 255
0.226805 -0.15922 0.685 0 0 0
-0.197586 0.175246 1.452 255 255 255
0.120324 -0.297951 0.783 255 255 255
0.263584 -0.136016 0.634 255 255 255
-0.289591 0.200773 1.539 255 255 255
0.0494418 0.372556 0.999 255 255 255
0.0278766 0.373367 0.984 255 255 255
0.260488 -0.211332 0.634 255 255 255
0.260488 -0.214428 0.634 255 255 255
0.104086 0.0540483 0.848 0 0 0
-0.327582 0.590265 1.655 255 255 255
0.0774888 0.118421 0.875 255 255 255
-0.267163 -0.359427 1.484 255 255 255
0.107716 0.0991177 0.844 0 0 0
-1.5603 0.572653 2.953 255 255 255
-0.263069 -0.302681 1.502 255 255 255
0.0265418 0.373926 0.994 255 255 255
0.136318 0.0502285 0.732 255 255 255
-0.380003 -0.528778 1.571 255 255 255
0.116176 0.317448 0.826 255 255 255
0.282308 0.186629 0.651 0 0 0
-0.437394 -0.0550309 1.705 255 255 255
-0.157812 -0.0336264 1.393 255 255 255
0.0650768 0.352644 1.041 255 255 255
0.0582312 -0.226134 0.864 255 255 255
0.18775 0.220228 0.747 255 255 255
-0.339177 0.236953 1.633 255 255 255
-1.07739 0.629682 2.684 255 255 255
0.231443 -0.117416 0.651 255 255 255
0.156135 0.248245 0.719 0 0 0
-0.126945 0.0620614 1.354 255 255 255
-0.00977466 0.339038 1.073 255 255 255
0.291293 0.0644506 0.627 255 255 255
0.25091 0.0284866 0.669 255 255 255
-1.25031 0.643382 2.925 255 255 255
0.241397 0.0178629 0.679 255 255 255
0.279256 -0.172692 0.614 0 0 0
0.0986804 0.0789809 0.849 0 0 0
-0.753784 0.418464 2.071 255 255 255
0.269826 0.24223 0.67 255 255 255
0.13892 -0.169611 0.773 255 255 255
0.278272 0.14381 0.649 0 0 0
0.164619 0.262498 0.736 0 0 0
0.132855 0.295927 0.797 255 255 255
-0.390913 0.654567 1.696 255 255 255
0.218018 -0.00414889 0.665 255 255 255
-0.00549695 -0.207563 0.939 255 255 255
0.269687 0.124578 0.659 255 255 255
-0.504124 -0.0517744 1.784 255 255 255
0.00515829 -0.24367 0.931 255 255 255
0.208794 0.102011 0.711 255 255 255
-0.752092 0.607907 2.085 255 255 255
0.00526356 0.0249923 0.95 0 0 0
-0.370883 0.323463 1.668 255 255 255
0.295249 0.188683 0.64 0 0 0
-0.161648 -0.263706 1.387 255 255 255
-0.0862381 -0.192901 1.305 255 255 255
0.205143 -0.0062183 0.655 255 255 255
-0.193256 -0.469103 1.387 255 255 255
-0.745347 0.729888 2.114 255 255 255
-0.186836 0.230357 1.442 255 255 255
-1.14617 0.81193 2.374 255 255 255
0.139943 -0.000976999 0.72 255 255 255
-0.600807 0.0711379 1.887 255 255 255
0.306096 -0.0750204 0.6 255 255 255
-0.30383 -0.401755 1.535 255 255 255
0.254223 0.136877 0.672 0 0 0
-0.13516 -0.34623 1.348 255 255 255
0.104143 -0.1007 0.816 255 255 255
0.299707 -0.179569 0.597 255 255 255
-0.144897 0.0923134 1.378 255 255 255
0.00948584 -0.260387 0.91 255 255 255
0.137458 -0.287204 0.758 255 255 255
-0.298249 -0.398477 1.532 255 255 255
0.257539 -0.0495391 0.65 255 255 255
-0.600358 -0.109396 1.876 255 255 255
-0.256355 0.245214 1.535 255 255 255
0.211379 -0.253969 0.682 0 0 0
-0.173885 0.0376725 1.432 255 255 255
0.237867 -0.231788 0.663 0 0 0
-0.0508668 0.0227994 0.989 255 255 255
0.169127 0.103763 0.74 255 255 255
0.180341 0.073003 0.678 255 255 255
0.118317 0.0359413 0.813 0 0 0
-1.19944 0.757096 2.626 255 255 255
0.212159 -0.0801414 0.667 255 255 255
0.251577 -0.0909316 0.651 0 0 0
0.117581 -0.231226 0.799 255 255 255
0.0821616 -0.316804 0.822 255 255 255
0.181638 0.25151 0.757 255 255 255
0.297124 0.0677669 0.62 255 255 255
0.208354 -0.255452 0.683 0 0 0
-0.515993 0.143126 1.826 255 255 255
-0.241064 0.00285037 1.502 255 255 255
0.295686 -0.0279469 0.617 255 255 255
-0.521811 -0.304994 1.805 255 255 255
-0.555822 0.253083 1.87 255 255 255
-1.03273 0.846871 2.261 255 255 255
-0.419817 0.502653 1.724 255 255 255
-0.237319 -0.46432 1.435 255 255 255
0.137564 0.253025 0.726 255 255 255
-0.171914 0.301631 1.435 255 255 255
-0.640057 -0.487952 1.876 255 255 255
0.303056 0.162144 0.626 255 255 255
-0.0266913 0.0935196 0.988 0 0 0
-0.648165 0.472153 1.985 255 255 255
0.199064 0.290618 0.753 255 255 255
0.197549 0.0350187 0.669 0 0 0
0.130096 -0.0399407 0.796 255 255 255
-0.44456 0.136698 1.744 255 255 255
0.220902 0.107493 0.709 255 255 255
-0.132669 -0.056544 1.345 255 255 255
0.307689 0.16745 0.623 255 255 255
0.130237 -0.14359 0.789 255 255 255
0.222521 -0.174726 0.689 255 255 255
0.0364727 -0.25381 0.882 0 0 0
-0.0745837 -0.374546 1.252 255 255 255
0.105036 -0.0265633 0.823 255 255 255
0.299576 0.0883713 0.623 0 0 0
-0.688582 -0.241013 1.953 255 255 255
-1.08775 0.821876 2.253 255 255 255
0.191433 -0.0692296 0.711 255 255 255
-0.328883 -0.456239 1.559 255 255 255
0.0827613 -0.257135 0.828 0 0 0
0.195511 -0.0205763 0.709 0 0 0
0.263922 0.0869113 0.658 255 255 255
0.282994 -0.105771 0.62 255 255 255
0.217718 -0.0989486 0.648 255 255 255
0.159202 0.23472 0.717 0 0 0
0.0869011 0.184888 0.93 255 255 255
-0.154047 0.159857 1.4 255 255 255
0.160184 -0.0715437 0.711 255 255 255
0.0244057 -0.0815587 0.914 255 255 255
-0.245918 -0.210124 1.487 255 255 255
0.299074 -0.108334 0.59 255 255 255
-0.603412 -0.185718 1.876 255 255 255
0.199758 0.270292 0.751 255 255 255
0.177453 -0.0984911 0.697 255 255 255
-0.0581882 0.412379 1.064 255 255 255
-0.437846 -0.460453 1.696 255 255 255
-0.292309 0.153425 1.567 255 255 255
-0.0347327 -0.00937966 0.988 255 255 255
0.294207 0.181392 0.64 255 255 255
0.274227 -0.123881 0.63 255 255 255
-0.147323 -0.344633 1.359 255 255 255
0.179718 0.0440818 0.749 255 255 255
0.255255 -0.134126 0.655 255 255 255
0.0998694 -0.299027 0.803 255 255 255
0.220313 -0.24587 0.672 255 255 255
0.0629564 -0.0777217 0.871 255 255 255
0.248715 0.212601 0.687 0 0 0
-0.0893616 0.303985 1.085 255 255 255
-0.22745 0.521003 1.509 255 255 255
-0.267959 -0.268461 1.502 255 255 255
0.258708 -0.12788 0.645 0 0 0
-1.02123 0.860416 2.22 255 255 255
-0.0492066 -0.377665 1.229 255 255 255
0.208878 0.274763 0.74 0 0 0
0.31012 0.239046 0.63 0 0 0
-0.279125 0.406416 1.579 255 255 255
-0.349915 0.453126 1.646 255 255 255
0.0517324 -0.211442 0.873 255 255 255
0.285398 0.174683 0.646 0 0 0
-0.454756 0.627564 1.784 255 255 255
-1.11799 0.646742 2.719 255 255 255
-0.343383 -0.256528 1.579 255 255 255
0.205323 -0.0437906 0.659 255 255 255
0.264776 -0.0419403 0.647 255 255 255
0.240815 0.121455 0.69 0 0 0
0.0271053 0.262405 1.081 255 255 255
0.211706 0.00671299 0.669 0 0 0
-0.292309 0.0896745 1.567 255 255 255
0.0771996 -0.139068 0.856 255 255 255
0.273407 0.0138195 0.645 255 255 255
0.185264 0.00450172 0.664 255 255 255
-0.433344 -0.251288 1.7 255 255 255
0.236016 -0.14592 0.67 255 255 255
-0.581253 -0.514815 1.789 255 255 255
0.0716546 -0.311439 0.84 255 255 255
-0.148082 -0.137452 1.366 255 255 255
-0.0345921 -0.0461714 0.984 0 0 0
0.257495 0.0140981 0.658 255 255 255
-0.161648 -0.195993 1.387 255 255 255
0.193261 -0.0996216 0.705 255 255 255
0.271467 0.218024 0.666 255 255 255
-0.192977 -0.507571 1.369 255 255 255
-0.408896 -0.455566 1.668 255 255 255
0.00367019 -0.132546 0.938 255 255 255
-0.332014 0.285484 1.637 255 255 255
0.241652 0.0961914 0.686 255 255 255
-0.995074 0.748964 2.459 0 0 0
-1.02675 0.774601 2.402 255 255 255
-0.256325 -0.0169038 1.52 255 255 255
0.16112 0.260715 0.731 0 0 0
0.104954 -0.232345 0.812 255 255 255
-0.0744049 -0.45495 1.249 255 255 255
0.307073 -0.0925955 0.6 255 255 255
-0.223353 0.273432 1.498 255 255 255
-0.210413 0.0241372 1.459 255 255 255
0.306642 0.170021 0.625 255 255 255
0.128209 0.258149 0.817 255 255 255
0.24286 0.0676855 0.68 0 0 0
0.269429 -0.22089 0.626 255 255 255
0.219149 -0.0965407 0.646 255 255 255
-0.072315 0.240131 1.068 255 255 255
0.214879 -0.110782 0.662 255 255 255
-1.28635 0.642373 2.857 255 255 255
-0.0247816 0.353321 1.043 0 0 0
-0.084373 0.36536 1.089 255 255 255
-0.226847 0.433903 1.505 255 255 255
0.295729 -0.0298579 0.615 255 255 255
0.0235859 0.281755 1.081 255 255 255
-0.273753 0.303101 1.563 255 255 255
0.0467865 -0.0892535 0.887 255 255 255
-0.0634678 -0.453502 1.234 255 255 255
0.294997 0.24331 0.644 0 0 0
-0.0427128 -0.420816 1.215 255 255 255
0.0510805 -0.329415 0.862 255 255 255
-0.221222 -0.224081 1.452 255 255 255
-0.209965 -0.516469 1.393 255 255 255
0.160493 0.155068 0.78 255 255 255
-0.26635 0.0603658 1.535 255 255 255
-0.331161 0.178262 1.607 255 255 255
-0.134845 0.190383 1.39 255 255 255
-0.550769 0.401555 1.853 255 255 255
0.220593 0.279401 0.727 255 255 255
0.182816 -0.266331 0.709 255 255 255
0.230333 -0.0907192 0.642 255 255 255
0.273904 -0.0906205 0.634 255 255 255
-0.050634 0.196971 1.051 0 0 0
0.278272 0.140642 0.649 0 0 0
0.174415 -0.144321 0.722 0 0 0
0.209832 -0.0412666 0.653 255 255 255
0.195886 -0.253111 0.698 255 255 255
0.224248 0.212254 0.716 255 255 255
0.19896 0.229044 0.748 255 255 255
0.00822445 -0.0575662 0.935 255 255 255
0.272872 -0.0720494 0.634 255 255 255
-0.044249 0.209402 1.062 255 255 255
0.29816 -0.21949 0.592 255 255 255
0.274678 0.0655548 0.648 255 255 255
-0.777177 0.470313 2.107 255 255 255
0.29545 0.0561084 0.625 0 0 0
-0.293261 -0.211497 1.532 255 255 255
0.0448315 -0.262362 0.877 255 255 255
-0.467414 0.0173996 1.734 255 255 255
-0.554984 0.069253 1.837 255 255 255
-0.305841 0.123138 1.571 255 255 255
0.0730194 -0.0596673 0.856 255 255 255
0.205895 -0.0179158 0.654 255 255 255
-0.715223 -0.342904 2.01 255 255 255
0.105838 0.196063 0.898 255 255 255
-0.605799 0.311646 1.893 255 255 255
-0.302117 -0.337686 1.539 255 255 255
-0.312949 -0.416404 1.543 255 255 255
0.287501 0.203067 0.646 255 255 255
0.231109 -0.168626 0.678 0 0 0
-0.149866 -0.416319 1.362 255 255 255
0.0429585 -0.30487 0.868 255 255 255
0.15123 -0.240648 0.759 0 0 0
0.014815 0.333386 1.083 255 255 255
-0.165796 -0.0361509 1.403 255 255 255
0.0516139 -0.196784 0.871 255 255 255
-0.325681 -0.493213 1.532 255 255 255
0.155774 -0.0461538 0.712 255 255 255
0.0474628 0.324074 1.064 255 255 255
-0.0297565 -0.182096 0.983 0 0 0
0.017078 -0.14198 0.92 0 0 0
0.0394682 0.200904 1.036 255 255 255
-0.564829 -0.623087 1.774 255 255 255
0.0389488 0.320078 1.068 255 255 255
-0.410122 -0.407926 1.673 255 255 255
-0.241992 0.393616 1.539 255 255 255
0.166107 -0.139173 0.732 0 0 0
0.111356 0.286984 0.801 0 0 0
0.299124 -0.13953 0.592 0 0 0
-0.394206 -0.541911 1.587 255 255 255
-0.595883 0.591191 1.941 255 255 255
0.24075 -0.224912 0.665 0 0 0
0.187636 -0.00939546 0.737 255 255 255
0.276046 -0.180857 0.618 255 255 255
0.17898 0.15692 0.703 0 0 0
0.227075 -0.0300305 0.663 255 255 255
-0.429068 0.175261 1.705 255 255 255
-0.639675 0.379894 1.959 255 255 255
0.0877267 -0.254552 0.824 255 255 255
-0.211033 0.474864 1.48 255 255 255
0.276584 0.093259 0.65 255 255 255
-0.934496 0.856803 2.22 255 255 255
-0.642096 0.304694 1.947 255 255 255
0.184786 0.0230803 0.74 255 255 255
0.296337 -0.145805 0.602 255 255 255
-0.0638953 0.0879896 1.017 255 255 255
-0.230053 0.102516 1.494 255 255 255
0.2277 0.0751565 0.698 0 0 0
0.0312524 -0.14135 0.897 255 255 255
0.239437 -0.0962418 0.644 0 0 0
0.299865 0.170356 0.63 255 255 255
0.196338 -0.069327 0.712 255 255 255
0.0979793 -0.231966 0.82 255 255 255
0.0339544 0.252201 1.075 255 255 255
-1.40743 0.648142 2.925 255 255 255
0.231109 0.00238998 0.678 0 0 0
0.296317 0.0933167 0.629 0 0 0
0.0976208 -0.239094 0.817 255 255 255
0.161356 -0.0641472 0.706 255 255 255
0.268443 0.252795 0.672 255 255 255
0.0414272 -0.0595393 0.896 255 255 255
-0.0271539 -0.209552 0.948 0 0 0
-0.302117 -0.282588 1.539 255 255 255
0.132381 0.0192046 0.73 255 255 255
0.230927 0.00908969 0.684 255 255 255
0.146391 -0.0596265 0.766 0 0 0
-0.616326 0.712241 1.997 255 255 255
-0.295715 -0.549054 1.494 255 255 255
-0.275154 0.389018 1.571 255 255 255
0.277274 0.0136481 0.637 255 255 255
0.26735 0.248421 0.672 255 255 255
0.179205 0.175396 0.713 0 0 0
0.270914 0.189782 0.662 255 255 255
-0.153199 -0.267552 1.372 255 255 255
-0.221266 0.06802 1.484 255 255 255
-0.594556 0.520146 1.947 255 255 255
0.194483 0.0971729 0.693 0 0 0
-1.4834 0.651067 2.982 255 255 255
-0.0698048 0.319287 1.083 0 0 0
-0.323807 -0.441017 1.559 255 255 255
0.240002 -0.010754 0.672 0 0 0
-0.516715 -0.539996 1.748 255 255 255
-0.296334 -0.219405 1.535 255 255 255
0.0238182 -0.259591 0.892 0 0 0
0.0155676 0.154189 1.017 255 255 255
0.0165167 0.240848 1.079 255 255 255
0.196368 0.0293985 0.665 255 255 255
0.176705 0.0943821 0.681 255 255 255
-0.0248292 0.0384611 0.978 0 0 0
0.129576 -0.187573 0.785 255 255 255
0.0601857 0.0380248 0.893 0 0 0
-0.0309061 0.328643 1.079 255 255 255
0.269571 0.202242 0.664 255 255 255
0.278257 -0.194674 0.614 255 255 255
-0.522292 0.611594 1.859 255 255 255
0.0835468 0.041008 0.864 255 255 255
0.124558 0.100151 0.74 255 255 255
-0.624002 -0.0554601 1.911 0 0 0
-1.13005 0.750753 2.604 255 255 255
-0.137354 -0.31552 1.348 255 255 255
-0.580834 0.138327 1.882 255 255 255
-0.136262 -0.16771 1.359 255 255 255
-0.208145 -0.458516 1.396 255 255 255
0.0580338 0.370623 1.007 0 0 0
-1.24449 0.651671 2.857 255 255 255
0.111841 0.175827 0.76 255 255 255
0.0312873 -0.223342 0.898 255 255 255
0.129037 0.0438464 0.745 255 255 255
-1.26754 0.724547 2.499 255 255 255
0.250591 0.0835405 0.674 255 255 255
-1.28976 0.644078 2.844 255 255 255
0.21154 -0.0595133 0.655 255 255 255
-0.681597 0.456788 2.017 255 255 255
0.188225 0.151977 0.712 255 255 255
0.299788 0.179125 0.632 255 255 255
-0.0697755 -0.465421 1.239 255 255 255
0.283991 0.209613 0.65 255 255 255
-1.10532 0.818593 2.244 255 255 255
0.09526 0.24812 1.002 255 255 255
0.0646911 0.12841 0.895 0 0 0
0.282015 0.051921 0.636 0 0 0
-0.105916 -0.487262 1.286 255 255 255
0.0444225 -0.329262 0.869 255 255 255
0.0977505 0.0412849 0.841 255 255 255
0.226074 0.0730936 0.7 255 255 255
0.222422 -0.0192123 0.662 255 255 255
0.128687 -0.278689 0.772 255 255 255
-0.766037 0.837547 2.143 255 255 255
0.189432 0.0649909 0.675 0 0 0
-0.0399178 -0.0840977 0.997 0 0 0
0.100255 0.197159 0.766 255 255 255
0.189882 -0.233666 0.701 0 0 0
0.312239 0.0870947 0.614 0 0 0
-0.563551 0.0331803 1.826 255 255 255
-0.232423 -0.216256 1.463 255 255 255
0.0605695 0.231178 1.051 255 255 255
-0.71443 0.0268039 2.017 255 255 255
-0.0918041 -0.221564 1.324 255 255 255
0.123462 -0.0761149 0.795 0 0 0
0.185124 -0.213257 0.709 255 255 255
0.201293 -0.217695 0.701 0 0 0
-0.36368 -0.251397 1.612 255 255 255
0.180295 0.09896 0.682 255 255 255
0.080062 0.056997 0.872 0 0 0
0.131251 0.0757578 0.737 255 255 255
-0.231788 -0.0850793 1.459 255 255 255
0.0712172 -0.00682791 0.868 255 255 255
-0.45766 0.546275 1.784 255 255 255
0.279521 0.138102 0.647 0 0 0
0.100362 0.233398 0.988 255 255 255
-0.690171 0.0425299 1.985 255 255 255
-0.0296657 -0.127318 0.98 255 255 255
0.146288 -0.246823 0.759 255 255 255
-0.157321 -0.282562 1.369 255 255 255
0.198435 -0.0359059 0.672 255 255 255
0.129935 0.284531 0.828 255 255 255
0.207619 -0.150527 0.707 255 255 255
0.160664 0.154668 0.698 255 255 255
0.281875 0.182111 0.65 0 0 0
-1.18662 0.722909 2.626 255 255 255
0.234751 0.272483 0.709 255 255 255
-0.181041 0.470606 1.452 255 255 255
-1.01422 0.842483 2.269 255 255 255
-0.0569918 -0.0688943 1.012 255 255 255
-0.687842 0.211775 1.997 255 255 255
-0.011883 -0.0185065 0.961 255 255 255
0.0356773 0.183579 1.024 255 255 255
0.17302 -0.169912 0.731 0 0 0
-0.137965 -0.272856 1.354 255 255 255
-0.167242 0.331989 1.435 255 255 255
0.205074 0.17722 0.735 255 255 255
0.0623059 -0.212986 0.862 255 255 255
0.139188 0.249452 0.819 255 255 255
0.0926756 0.17862 0.884 255 255 255
0.00372497 0.0637753 0.952 255 255 255
0.246875 0.175196 0.685 255 255 255
-0.0283663 0.184823 1.05 255 255 255
0.0251533 0.132088 0.942 0 0 0
0.303698 0.0978771 0.619 255 255 255
-1.22847 0.766691 2.615 255 255 255
-0.648764 0.683268 2.017 255 255 255
0.277792 0.0619098 0.643 255 255 255
0.283202 0.250741 0.658 0 0 0
-0.352679 0.286621 1.659 255 255 255
0.302226 0.0282347 0.616 0 0 0
0.184702 -0.0947629 0.703 0 0 0
-0.968585 0.766517 2.365 0 0 0
0.205226 -0.205653 0.695 0 0 0
0.190036 0.0109933 0.737 255 255 255
-0.406963 0.551943 1.729 255 255 255
0.231999 -0.213838 0.671 0 0 0
0.053397 -0.0939559 0.877 0 0 0
0.0516731 -0.120382 0.872 0 0 0
0.157706 0.175615 0.7 255 255 255
-0.226097 0.0438705 1.484 255 255 255
0.276939 -0.163281 0.62 255 255 255
-0.202313 -0.0515908 1.452 255 255 255
-0.0964922 0.378262 1.106 255 255 255
0.133832 0.269217 0.738 255 255 255
0.13836 0.282469 0.822 255 255 255
0.0717097 -0.14202 0.857 255 255 255
-0.247003 0.378589 1.539 255 255 255
0.105466 0.160306 0.848 0 0 0
0.00954387 0.296923 1.085 255 255 255
0.169355 0.0231115 0.741 255 255 255
0.0372998 -0.0570023 0.902 255 255 255
0.20962 0.168886 0.73 255 255 255
0.298703 -0.18865 0.595 255 255 255
0.297891 0.10952 0.628 255 255 255
0.147038 0.19518 0.709 255 255 255
-0.507028 0.0382234 1.784 255 255 255
0.285508 0.0247756 0.63 0 0 0
0.0195931 -0.277412 0.898 0 0 0
-0.702135 0.288385 2.01 255 255 255
0.276315 0.0252475 0.642 255 255 255
0.280496 0.072261 0.642 255 255 255
0.188225 -0.0670097 0.712 255 255 255
-0.277004 0.293676 1.567 255 255 255
0.185191 -0.114676 0.692 0 0 0
-0.12582 -0.161244 1.342 255 255 255
0.229251 0.0203684 0.689 255 255 255
-0.520077 0.00634155 1.799 255 255 255
0.243527 -0.07337 0.655 255 255 255
-0.327195 -0.0323925 1.551 255 255 255
0.282497 0.172326 0.649 255 255 255
0.0142405 0.164604 1.041 255 255 255
-0.329512 0.0628827 1.599 255 255 255
-0.282826 0.317435 1.571 255 255 255
0.182816 -0.268638 0.709 255 255 255
-0.190495 0.231955 1.452 255 255 255
-0.585449 0.408923 1.887 255 255 255
-0.490127 -0.601626 1.705 255 255 255
0.235381 0.0168813 0.684 255 255 255
0.288878 -0.152456 0.609 255 255 255
0.158832 0.204404 0.705 255 255 255
-0.401956 0.334412 1.696 255 255 255
-0.0637086 0.173074 1.041 255 255 255
0.193857 -0.101627 0.703 255 255 255
-0.715741 0.72084 2.078 255 255 255
-0.230539 -0.390692 1.422 255 255 255
-0.260624 0.176392 1.502 255 255 255
0.111675 0.267679 0.794 0 0 0
0.233846 0.119113 0.696 255 255 255
0.201279 -0.227795 0.697 255 255 255
-0.571643 0.282271 1.882 255 255 255
-1.19517 0.727182 2.626 255 255 255
0.24673 0.195568 0.694 255 255 255
-0.417804 -0.0406027 1.682 255 255 255
0.00671678 -0.0317676 0.937 255 255 255
-0.2455 -0.274702 1.47 255 255 255
-0.412845 -0.0703332 1.673 255 255 255
0.218504 0.266466 0.724 255 255 255
0.101508 -0.0240008 0.827 255 255 255
-0.672811 0.0326241 1.972 255 255 255
0.307691 0.0278222 0.607 255 255 255
-0.377999 0.57035 1.7 255 255 255
0.19475 -0.127029 0.698 0 0 0
-0.332014 0.493271 1.637 255 255 255
-0.0573583 0.315179 1.081 255 255 255
0.254296 -0.240221 0.634 255 255 255
-0.325508 -0.229855 1.555 255 255 255
-0.241992 0.463741 1.539 255 255 255
0.169161 -0.075529 0.705 255 255 255
-0.217818 -0.00440777 1.477 255 255 255
0.0241387 -0.211595 0.904 255 255 255
0.304508 0.203864 0.629 255 255 255
0.205467 -0.16873 0.692 255 255 255
-0.45127 0.267862 1.748 255 255 255
-0.594251 -0.00865136 1.876 255 255 255
0.0496183 -0.0862692 0.886 255 255 255
-0.204183 -0.348195 1.4 255 255 255
-0.628689 0.280774 1.935 255 255 255
-0.359844 -0.430437 1.595 255 255 255
-0.201857 -0.153415 1.432 255 255 255
0.180337 -0.102732 0.695 255 255 255
0.290193 -0.0569722 0.616 255 255 255
0.127506 -0.153667 0.788 255 255 255
-0.515839 0.257454 1.815 255 255 255
0.291293 0.0664913 0.627 255 255 255
-0.185421 -0.422168 1.396 255 255 255
-0.189557 0.452744 1.463 255 255 255
-0.160234 0.327318 1.435 255 255 255
0.253025 -0.123963 0.652 255 255 255
0.211958 -0.0476425 0.653 255 255 255
-0.0983924 0.269677 1.068 255 255 255
-1.20064 0.575368 2.967 255 255 255
0.271875 0.236804 0.667 255 255 255
-0.0154022 0.120608 0.986 255 255 255
-0.628689 0.139074 1.935 255 255 255
0.115332 0.0362508 0.82 0 0 0
0.00601154 0.259844 1.085 255 255 255
-0.703301 -0.00271931 2.004 255 255 255
-0.803014 0.530862 2.158 255 255 255
-0.47306 -0.115224 1.734 255 255 255
-0.182718 -0.514921 1.359 255 255 255
-0.263594 -0.0877617 1.505 255 255 255
-0.302512 0.135575 1.567 255 255 255
0.0267522 -0.32673 0.893 0 0 0
0.227363 -0.202321 0.68 0 0 0
0.293885 -0.141141 0.603 255 255 255
-0.383812 -0.304172 1.642 255 255 255
0.212931 -0.0201057 0.656 255 255 255
-0.194864 -0.0974869 1.432 255 255 255
-0.57034 -0.104756 1.848 255 255 255
-0.268696 -0.21726 1.52 255 255 255
0.263584 -0.133953 0.634 255 255 255
-0.540576 -0.157602 1.799 255 255 255
0.289492 -0.218551 0.6 255 255 255
0.183203 -0.108076 0.693 0 0 0
-0.636957 0.148981 1.941 255 255 255
0.0917507 -0.223711 0.824 255 255 255
-0.607019 -0.636912 1.805 255 255 255
0.137855 0.25345 0.819 255 255 255
-0.0558822 -0.32964 1.244 255 255 255
0.315279 0.214379 0.618 255 255 255
0.0672882 -0.217958 0.854 0 0 0
-1.1832 0.792982 2.459 255 255 255
0.0719931 0.227721 1.043 255 255 255
0.264068 0.19593 0.672 255 255 255
0.259116 0.259887 0.682 255 255 255
0.232443 0.22287 0.709 0 0 0
-0.5593 -0.45241 1.784 255 255 255
-0.577916 -0.0266379 1.853 255 255 255
-0.067652 -0.285984 1.275 255 255 255
0.254365 -0.000896939 0.661 255 255 255
-0.618471 -0.447589 1.848 255 255 255
-0.532096 -0.294057 1.81 255 255 255
0.263785 0.0161656 0.655 255 255 255
-0.522532 -0.448677 1.758 255 255 255
0.309243 0.125878 0.618 255 255 255
0.137185 0.0166904 0.724 255 255 255
0.231771 0.116381 0.7 255 255 255
0.223467 0.274748 0.721 255 255 255
-0.240843 0.0719538 1.516 255 255 255
0.0153433 -0.309371 0.906 0 0 0
0.292891 -0.215761 0.595 255 255 255
0.0909497 0.339545 1.027 255 255 255
-0.736019 0.734329 2.107 255 255 255
0.289756 0.21187 0.644 255 255 255
0.181884 -0.00700627 0.738 0 0 0
-0.222023 -0.512025 1.412 255 255 255
0.270916 0.261856 0.67 255 255 255
0.00769169 0.340784 1.073 255 255 255
-0.528256 -0.494451 1.758 255 255 255
-0.133261 -0.127149 1.351 255 255 255
0.0927528 -0.0783975 0.833 255 255 255
0.0947572 0.220061 0.772 255 255 255
0.284364 -0.0454537 0.623 255 255 255
-0.240263 0.438047 1.528 255 255 255
-0.0236371 0.221013 1.068 255 255 255
-0.551149 -0.683266 1.758 255 255 255
-0.152617 -0.0289673 1.387 255 255 255
0.143767 -0.145522 0.772 255 255 255
-0.302512 0.112625 1.567 255 255 255
0.236197 0.211832 0.703 0 0 0
-0.218966 -0.430031 1.422 255 255 255
-0.374348 0.527609 1.696 255 255 255
0.241237 0.109907 0.688 255 255 255
0.198439 -0.235059 0.695 0 0 0
-0.696633 0.1782 1.985 255 255 255
-0.0874673 0.21113 1.062 255 255 255
0.130404 0.280405 0.739 255 255 255
-0.23641 -0.241704 1.473 255 255 255
-0.0909264 0.422493 1.104 255 255 255
0.292249 0.163175 0.638 255 255 255
0.177319 -0.00220538 0.739 0 0 0
-0.627113 -0.0492405 1.911 0 0 0
0.285849 -0.154945 0.611 255 255 255
-0.155037 0.259479 1.409 255 255 255
0.297332 0.233467 0.64 0 0 0
-0.104973 -0.0665846 1.327 255 255 255
0.192438 -0.22029 0.702 255 255 255
-0.397176 -0.22401 1.642 255 255 255
0.0383336 0.107357 0.927 255 255 255
0.194169 -0.130811 0.7 255 255 255
-0.207214 0.419028 1.47 255 255 255
0.217362 -0.00737317 0.663 255 255 255
0.0605695 0.256833 1.051 255 255 255
0.00246549 0.233825 1.079 255 255 255
-0.998935 0.440172 2.572 0 0 0
-0.286426 0.432807 1.591 255 255 255
0.0751274 0.307685 0.804 255 255 255
-0.00624041 0.208456 1.066 255 255 255
-0.329727 -0.231037 1.563 255 255 255
0.275237 -0.154947 0.623 255 255 255
0.0227925 -0.119573 0.909 0 0 0
0.265105 0.0182415 0.653 255 255 255
0.0687948 0.248802 1.046 255 255 255
0.0576303 0.371301 1 255 255 255
-0.394602 0.614613 1.7 255 255 255
-0.621206 -0.104226 1.893 255 255 255
0.302395 0.207593 0.631 255 255 255
0.260481 -0.236279 0.629 255 255 255
-0.0973151 -0.419314 1.283 255 255 255
0.100124 0.185698 0.765 255 255 255
0.235664 -0.0237701 0.669 0 0 0
-0.198133 -0.214823 1.422 255 255 255
-0.0964142 -0.295595 1.299 255 255 255
-0.0651162 0.374287 1.064 255 255 255
0.0935322 0.00432799 0.84 0 0 0
0.00356063 -0.267791 0.91 255 255 255
-0.371552 -0.23828 1.612 255 255 255
0.117581 -0.082999 0.799 0 0 0
0.209076 0.146291 0.724 255 255 255
0.130072 -0.148538 0.788 255 255 255
-0.451254 -0.633193 1.664 255 255 255
-0.0166622 -0.111351 0.966 255 255 255
0.0451893 -0.101899 0.884 0 0 0
0.296233 -0.125079 0.592 255 255 255
0.273635 -0.127158 0.631 255 255 255
-0.0342276 0.265701 1.073 255 255 255
-0.0376154 0.237098 1.07 255 255 255
0.206749 0.131422 0.72 255 255 255
0.243956 0.249302 0.699 255 255 255
0.234196 -0.0878578 0.644 0 0 0
-0.163196 -0.206382 1.381 255 255 255
-0.737303 0.26998 2.044 255 255 255
-0.624287 -0.110387 1.893 255 255 255
-1.07763 0.811594 2.286 255 255 255
-0.066279 0.317524 1.083 0 0 0
0.0810768 0.239735 1.029 255 255 255
0.213347 -0.0232372 0.654 255 255 255
-0.67068 0.431016 2.004 255 255 255
0.137711 0.000201708 0.746 255 255 255
0.175596 0.0910574 0.681 255 255 255
0.0391311 0.270939 1.073 255 255 255
-0.638472 0.546449 1.985 255 255 255
0.164206 -0.131946 0.745 0 0 0
0.0520978 0.0958663 0.904 255 255 255
-0.578982 0.162309 1.876 255 255 255
0.267223 -0.177652 0.628 0 0 0
-0.0617681 0.24662 1.066 0 0 0
0.0682763 -0.233261 0.849 0 0 0
-0.373381 0.178201 1.655 255 255 255
0.128952 -0.130751 0.789 255 255 255
-0.979383 0.755949 2.43 0 0 0
-0.268664 0.465886 1.563 255 255 255
0.0186373 0.367885 1.004 255 255 255
0.230029 -0.0696367 0.65 0 0 0
0.015953 0.0339795 0.942 0 0 0
-0.347025 0.0742537 1.62 255 255 255
-0.274537 -0.545688 1.459 255 255 255
-0.0248038 -0.0696914 0.977 0 0 0
-0.263766 -0.564336 1.452 255 255 255
0.26872 -0.185064 0.622 255 255 255
-1.04377 0.846871 2.261 255 255 255
-0.552455 0.728216 1.911 255 255 255
0.287607 0.223708 0.651 0 0 0
-0.440753 -0.507124 1.686 255 255 255
0.286893 0.204434 0.647 255 255 255
0.182838 0.266811 0.762 255 255 255
0.168013 -0.0491419 0.705 0 0 0
0.00601154 0.258079 1.085 255 255 255
0.0685216 0.124516 0.888 255 255 255
-0.117605 0.0705609 1.348 255 255 255
-0.224321 -0.512025 1.412 255 255 255
0.263315 -0.0849769 0.646 255 255 255
0.277744 -0.0337153 0.631 0 0 0
-0.161918 0.215914 1.409 255 255 255
-1.21186 0.808067 2.374 255 255 255
0.0675246 -0.136441 0.857 255 255 255
-0.276119 -0.0663746 1.52 255 255 255
0.0698847 -0.0139065 0.869 255 255 255
0.163642 -0.27445 0.737 255 255 255
0.21293 -0.127029 0.698 255 255 255
0.189818 -0.0789708 0.705 255 255 255
0.0787179 -0.313727 0.828 255 255 255
0.0489165 0.364502 1.022 0 0 0
-0.130401 -0.472935 1.322 255 255 255
0.143395 -0.120084 0.77 255 255 255
0.00800454 -0.263349 0.91 0 0 0
0.216147 0.214626 0.724 0 0 0
-0.501201 -0.560637 1.724 255 255 255
0.301293 0.222673 0.633 255 255 255
0.166668 -0.0185264 0.719 0 0 0
0.237073 -0.192572 0.673 255 255 255
0.249494 0.0659914 0.674 0 0 0
-0.175573 -0.307254 1.39 255 255 255
-0.349978 0.435106 1.659 255 255 255
0.0416891 -0.322932 0.871 255 255 255
0.199492 0.252846 0.75 255 255 255
0.211725 0.151212 0.725 255 255 255
-0.20665 0.11968 1.466 255 255 255
0.0358515 0.18615 1.029 255 255 255
-0.53652 -0.105839 1.815 255 255 255
-0.632448 -0.123098 1.899 255 255 255
-0.0392835 0.245345 1.068 255 255 255
0.130051 0.0745584 0.737 255 255 255
-0.307875 -0.578229 1.494 255 255 255
-0.540576 -0.131254 1.799 255 255 255
-0.0468604 -0.406665 1.22 255 255 255
0.178793 0.185455 0.716 0 0 0
-0.494126 -0.0139154 1.769 255 255 255
