ply
format ascii 1.0
comment Created by Open3D
element vertex 1330
property double x
property double y
property double z
property uchar red
property uchar green
property uchar blue
end_header
0.124333 0.167549 0.864 255 255 255
0.185999 0.322111 0.883 255 255 255
-0.497235 -0.299251 2.22 255 255 255
0.0950276 -0.090341 1.114 255 255 255
0.211418 -0.0180805 0.749 0 0 0
0.026889 -0.296336 1.007 255 255 255
0.240516 0.0928575 0.73 255 255 255
0.216744 -0.0907746 0.726 255 255 255
0.216872 -0.211937 0.655 255 255 255
0.180957 0.0830563 0.821 255 255 255
0.0924388 -0.235212 0.91 255 255 255
0.300775 -0.0116893 0.607 255 255 255
0.29884 0.106571 0.641 255 255 255
-0.687594 0.0427158 2.582 255 255 255
-0.0572695 -0.404797 1.491 255 255 255
0.222071 0.109081 0.769 0 0 0
-0.234964 0.230392 1.935 255 255 255
0.315814 0.240398 0.659 255 255 255
0.077164 0.337127 1 255 255 255
-0.987956 0.168686 2.347 255 255 255
0.151994 0.0294806 0.782 0 0 0
0.263976 0.149239 0.71 255 255 255
0.137948 -0.290241 0.804 0 0 0
-0.0651447 0.334535 1.308 255 255 255
-0.584357 0.532393 1.826 255 255 255
-0.585109 0.39488 2.107 255 255 255
-0.476468 0.0155526 2.294 255 255 255
0.234897 0.125914 0.75 255 255 255
0.196802 -0.0136282 0.773 255 255 255
0.100213 -0.229698 0.9 255 255 255
-0.471085 0.0712995 2.286 255 255 255
-0.546872 -0.0415368 2.356 255 255 255
0.158132 -0.114861 0.707 255 255 255
0.173635 -0.164311 0.665 255 255 255
0.15675 0.2403 0.905 255 255 255
-1.06679 0.335298 2.057 255 255 255
-0.923033 0.277146 2.236 255 255 255
-0.366405 -0.115183 2.092 255 255 255
-0.301323 0.642333 1.753 255 255 255
-0.0559252 -0.499548 1.456 255 255 255
-0.0521693 -0.318373 1.484 255 255 255
0.139576 0.224331 0.918 0 0 0
-1.23778 -0.068339 2.831 255 255 255
-0.483629 0.535988 1.947 255 255 255
0.26624 -0.0683679 0.648 255 255 255
-0.814904 0.333162 2.107 255 255 255
-0.365234 -0.558555 1.941 255 255 255
0.201692 0.144429 0.813 255 255 255
0.25272 -0.235794 0.625 255 255 255
0.0519659 0.0686317 1.05 255 255 255
-0.284604 -0.682858 1.81 255 255 255
0.248508 0.00928902 0.699 255 255 255
-0.0470078 0.353899 1.278 255 255 255
0.289018 -0.215798 0.572 0 0 0
-0.953286 0.480558 1.821 255 255 255
-0.830489 0.5011 1.799 255 255 255
0.108525 -0.0690832 0.819 255 255 255
-0.363376 0.0968964 2.114 255 255 255
0.285381 -0.0901681 0.61 255 255 255
-0.807434 0.000755187 2.793 255 255 255
-0.461865 0.642967 1.673 255 255 255
-0.686504 0.501064 1.853 255 255 255
0.299625 0.0466542 0.621 255 255 255
-0.0612487 -0.274702 1.47 0 0 0
-0.638131 0.192903 2.411 255 255 255
-0.210229 -0.265861 1.779 255 255 255
-0.243725 -0.0149852 1.905 255 255 255
0.252065 -0.228816 0.631 255 255 255
0.0266117 0.268125 1.135 255 255 255
-0.144796 0.0902426 1.724 255 255 255
0.00244493 -0.220848 1.07 255 255 255
0.285121 0.0094868 0.636 0 0 0
0.107671 -0.199404 0.889 0 0 0
0.16466 0.148721 0.869 255 255 255
0.0976719 -0.0243807 1.083 255 255 255
0.172492 0.117111 0.845 255 255 255
0.0646513 0.240215 0.983 255 255 255
0.175318 0.346657 0.902 255 255 255
0.232813 -0.165424 0.683 0 0 0
-0.877111 0.489865 1.769 255 255 255
0.297296 -0.0256445 0.61 255 255 255
-0.0560169 0.185002 1.247 255 255 255
-1.10217 -0.0986931 2.911 255 255 255
0.252015 0.0171035 0.693 255 255 255
-0.579065 0.623388 1.65 255 255 255
-0.0308461 0.0695307 1.215 255 255 255
0.231702 -0.200624 0.667 255 255 255
0.284105 -0.129915 0.601 255 255 255
-0.0679939 0.40911 1.322 255 255 255
0.294272 -0.107374 0.59 255 255 255
-0.0226707 0.119544 1.201 255 255 255
0.210696 0.202545 0.797 255 255 255
-0.760233 0.0475172 2.615 255 255 255
-0.231148 -0.365315 1.784 255 255 255
-1.12118 0.179453 2.338 255 255 255
0.258716 0.111001 0.702 255 255 255
0.254669 -0.0941939 0.659 0 0 0
-0.393494 0.398815 2.128 255 255 255
-0.881121 0.2947 2.204 255 255 255
0.253358 -0.0830225 0.664 255 255 255
0.262134 0.0460227 0.687 255 255 255
-0.045033 0.433945 1.281 255 255 255
0.300594 -0.0432649 0.593 0 0 0
0.169955 0.158376 0.86 255 255 255
0.277709 -0.0361657 0.638 0 0 0
0.161935 -0.20363 0.724 0 0 0
0.255262 0.185009 0.728 255 255 255
0.132875 -0.305397 0.813 255 255 255
0.115699 0.0750441 0.884 255 255 255
-0.0611191 0.417008 1.313 255 255 255
-0.774671 0.399673 1.978 255 255 255
-0.609824 0.336513 2.196 255 255 255
0.206022 0.173147 0.799 255 255 255
-0.049519 -0.400996 1.477 255 255 255
0.242487 0.00940862 0.708 0 0 0
-0.405786 0.606457 1.724 255 255 255
0.253002 0.0538819 0.702 255 255 255
-0.43384 -0.67981 2.01 255 255 255
0.242163 0.13416 0.735 0 0 0
-1.43052 -0.205838 2.953 255 255 255
0.140979 0.343235 0.958 255 255 255
0.287226 -0.208146 0.574 255 255 255
0.283841 0.0760876 0.657 255 255 255
-0.197407 0.0745765 1.821 255 255 255
-0.176958 0.143537 1.794 255 255 255
0.0738345 0.0425384 0.999 255 255 255
-0.584823 0.594754 1.739 255 255 255
-0.791445 0.61922 1.591 255 255 255
-0.190492 -0.127256 1.784 255 255 255
-0.336958 0.224925 2.121 255 255 255
0.238501 0.136168 0.746 255 255 255
-0.525925 0.363939 2.189 255 255 255
-0.39981 -0.221873 2.071 255 255 255
-0.71042 -0.400076 2.898 0 0 0
-0.0257175 -0.0299411 1.162 255 255 255
-0.724949 0.224712 2.374 255 255 255
-0.941717 -0.0743117 2.884 255 255 255
-0.630504 0.514749 1.848 255 255 255
0.169738 -0.0399667 0.748 0 0 0
0.141267 -0.140528 0.752 0 0 0
0.245269 0.128496 0.73 0 0 0
-0.0521693 -0.301468 1.484 0 0 0
0.271832 0.00125059 0.659 0 0 0
0.0397511 0.161709 1.09 255 255 255
0.204185 0.0562046 0.782 255 255 255
-0.493619 0.561973 1.865 255 255 255
0.315269 0.120761 0.628 255 255 255
-0.650275 0.343448 2.107 255 255 255
0.174826 0.310879 0.892 255 255 255
-1.1646 -0.208646 2.925 255 255 255
0.0817507 0.0368319 0.977 255 255 255
0.187064 -0.253474 0.699 255 255 255
0.0845735 0.194521 0.955 255 255 255
-0.532182 0.313359 2.261 255 255 255
0.224291 -0.21612 0.658 255 255 255
-0.957527 0.179453 2.338 255 255 255
0.257887 -0.0813249 0.659 255 255 255
-0.157228 -0.392527 1.677 255 255 255
-0.240865 -0.202186 1.859 255 255 255
0.185815 0.338767 0.889 255 255 255
0.291415 0.171871 0.672 255 255 255
0.173023 -0.00234265 0.785 255 255 255
0.141943 0.340249 0.954 255 255 255
0.234049 0.275175 0.797 255 255 255
0.139459 -0.108392 0.776 0 0 0
0.223266 -0.0341593 0.728 255 255 255
0.239898 0.0342208 0.721 255 255 255
0.220924 0.00742542 0.74 255 255 255
0.130904 0.0133838 0.809 255 255 255
-0.684999 0.454787 1.899 255 255 255
-0.339627 0.561373 1.853 255 255 255
-0.892191 0.0943273 2.615 255 255 255
-0.946259 0.193922 2.329 255 255 255
0.232758 0.172796 0.763 255 255 255
0.214133 0.229575 0.81 255 255 255
-0.449405 -0.377847 2.114 255 255 255
-0.411234 -0.455145 2.044 255 255 255
-0.810348 0.599548 1.629 255 255 255
0.19882 -0.117135 0.721 255 255 255
-0.352613 -0.016291 2.071 255 255 255
-0.763198 0.377709 2.051 255 255 255
0.196808 -0.00991813 0.778 255 255 255
-0.141477 0.562749 1.509 255 255 255
-0.491686 0.308301 2.278 255 255 255
0.118327 -0.100035 0.77 255 255 255
0.11655 -0.0668058 0.792 0 0 0
-1.09914 0.270329 2.181 255 255 255
0.186262 -0.207652 0.645 255 255 255
-0.436262 -0.177938 2.151 255 255 255
-0.245929 0.247662 1.947 255 255 255
-0.333611 -0.723753 1.87 255 255 255
-1.38185 -0.0433199 2.707 255 255 255
-0.800754 0.222156 2.347 255 255 255
0.0167463 -0.120764 1.094 255 255 255
0.139011 0.360249 0.966 255 255 255
-0.0396823 0.261484 1.244 255 255 255
-0.653327 0.267754 2.312 255 255 255
-1.01531 0.0619229 2.509 255 255 255
0.0836615 0.0732725 0.88 255 255 255
-0.990368 0.398404 2.004 255 255 255
0.00827232 0.135524 1.154 255 255 255
-0.403181 -0.417345 2.071 255 255 255
0.128455 0.245345 0.924 255 255 255
-0.694988 0.428169 2.037 255 255 255
-0.524544 0.425205 2.071 255 255 255
0.133186 -0.269063 0.84 255 255 255
-0.0925947 -0.541264 1.513 255 255 255
-0.246918 -0.229413 1.859 255 255 255
0.239835 -0.0899756 0.684 255 255 255
-0.40249 0.623794 1.71 255 255 255
0.017328 0.116361 1.132 255 255 255
0.0573422 0.244767 0.995 255 255 255
0.302661 -0.0359045 0.599 255 255 255
-0.429335 0.441124 2.051 255 255 255
0.237944 0.255343 0.78 255 255 255
-0.766611 0.553539 1.734 255 255 255
-0.0105644 -0.486749 1.412 255 255 255
-0.770851 0.608279 1.624 255 255 255
-0.370035 0.467947 2.037 255 255 255
0.289281 0.0773925 0.65 255 255 255
-0.497179 -0.214079 2.236 255 255 255
0.292915 -0.173252 0.576 255 255 255
0.287276 0.127747 0.67 255 255 255
0.235003 0.0214031 0.724 255 255 255
0.133202 -0.050178 0.815 255 255 255
0.0974993 -0.202319 0.902 0 0 0
0.270202 -0.0948969 0.635 255 255 255
-0.653287 0.138943 2.499 255 255 255
-0.939556 0.0977534 2.593 255 255 255
0.140601 -0.138631 0.755 0 0 0
0.0250742 -0.310549 1 255 255 255
-0.703715 0.580605 1.739 255 255 255
0.176983 0.23021 0.867 255 255 255
-0.162629 -0.227056 1.705 255 255 255
-0.262227 -0.192437 1.882 255 255 255
0.285276 0.115177 0.673 0 0 0
0.237101 -0.093997 0.689 255 255 255
-0.825951 0.574802 1.705 255 255 255
-0.740764 0.619732 1.599 255 255 255
0.220135 -0.111351 0.714 255 255 255
0.142377 -0.0301076 0.745 255 255 255
0.0462036 0.224211 1.075 255 255 255
0.220016 0.00864131 0.741 255 255 255
-0.755751 0.266712 2.303 255 255 255
0.22664 0.0543166 0.739 0 0 0
-0.394132 0.491472 1.959 255 255 255
0.202884 -0.0704919 0.749 255 255 255
-0.0320674 -0.0189954 1.187 255 255 255
0.0611911 -0.234165 0.954 0 0 0
0.312738 0.168375 0.646 0 0 0
-0.167247 -0.296918 1.724 255 255 255
0.238578 -0.210014 0.659 0 0 0
0.145054 -0.190539 0.728 255 255 255
0.153958 0.368161 0.942 255 255 255
0.121147 -0.0940136 0.772 0 0 0
-1.26405 -0.0435119 2.719 255 255 255
-0.309284 0.291255 2.03 255 255 255
0.0462584 -0.224162 1.037 255 255 255
-0.719558 0.362638 2.099 255 255 255
-0.164704 0.585562 1.591 255 255 255
0.0378026 0.104467 1.085 255 255 255
0.0777221 -0.0418401 1.126 255 255 255
0.23243 0.0839668 0.746 255 255 255
-1.1007 -0.0437039 2.731 255 255 255
-0.294922 -0.0413103 1.978 255 255 255
0.231468 -0.0033388 0.724 255 255 255
-0.132887 -0.371878 1.646 255 255 255
0.193558 0.193178 0.835 255 255 255
-0.928299 0.477107 1.842 255 255 255
-0.97523 0.289619 2.166 255 255 255
-0.523798 0.410127 2.151 255 255 255
-0.610808 0.136719 2.459 255 255 255
0.0859642 0.0928289 0.889 255 255 255
0.299093 0.217218 0.677 255 255 255
-0.835685 0.58109 1.691 255 255 255
0.176172 -0.0368976 0.76 255 255 255
-0.50083 0.114773 2.338 255 255 255
0.157549 -0.118799 0.778 255 255 255
-0.169984 -0.63551 1.642 255 255 255
0.0990486 -0.167035 1.06 255 255 255
-0.392702 0.540865 1.876 255 255 255
0.203207 0.243347 0.83 255 255 255
0.10114 -0.0105046 0.824 255 255 255
-0.678867 0.466029 1.882 255 255 255
-1.3494 -0.0431278 2.695 255 255 255
0.0151023 -0.109292 1.104 255 255 255
-0.581424 0.213314 2.42 255 255 255
-0.224027 -0.0542703 1.87 255 255 255
0.312459 0.194343 0.652 255 255 255
0.296396 0.0317999 0.627 255 255 255
-0.615043 0.490317 1.893 255 255 255
0.146746 -0.0575416 0.755 255 255 255
0.197035 0.271343 0.85 255 255 255
0.0720607 0.214461 0.975 255 255 255
-1.03793 -0.0168139 2.695 255 255 255
0.22572 0.0121761 0.736 255 255 255
0.11943 0.263389 0.924 255 255 255
-0.774922 0.132718 2.459 255 255 255
0.0313328 -0.105891 1.106 255 255 255
0.272331 -0.121101 0.621 0 0 0
-0.664123 0.605759 1.668 255 255 255
-0.4428 -0.429819 2.099 255 255 255
0.12512 -0.12438 0.758 255 255 255
-0.3512 -0.332118 2.024 255 255 255
0.292729 0.163728 0.67 255 255 255
-0.689617 0.607014 1.664 255 255 255
0.160352 -0.0312779 0.744 0 0 0
0.168967 -0.230564 0.709 0 0 0
-0.00665605 -0.057051 1.137 255 255 255
0.169294 0.064167 0.836 255 255 255
0.0867875 0.252241 0.98 0 0 0
-0.304119 0.590202 1.821 255 255 255
0.115255 0.296698 0.939 255 255 255
0.219032 -0.155396 0.703 255 255 255
-0.787448 -0.14747 2.939 255 255 255
-0.20372 0.57792 1.748 0 0 0
0.185044 -0.0446681 0.766 255 255 255
0.302238 -0.0194948 0.604 255 255 255
0.213286 0.00263321 0.747 0 0 0
-0.364214 0.0620513 2.099 255 255 255
-0.31553 0.472388 2.071 255 255 255
-0.915579 -0.049682 2.818 255 255 255
0.215562 -0.083686 0.726 255 255 255
-0.2742 -0.14343 1.923 255 255 255
0.215432 0.221608 0.805 255 255 255
0.063286 -0.317583 0.939 0 0 0
0.233486 -0.195782 0.669 255 255 255
-1.07127 0.276767 2.204 255 255 255
-0.214235 0.396578 1.947 255 255 255
-0.328482 0.541626 1.911 255 255 255
0.110513 0.00293989 0.834 0 0 0
0.0700604 0.312453 1.015 255 255 255
0.0978598 -0.0197703 0.819 255 255 255
0.151617 -0.256937 0.693 255 255 255
0.0654357 -0.289773 0.948 255 255 255
0.261174 -0.00200842 0.673 255 255 255
-0.172583 0.0525913 1.779 255 255 255
-0.652444 0.513077 1.842 255 255 255
0.249847 -0.0807421 0.672 255 255 255
-0.035949 -0.534214 1.416 255 255 255
-0.452096 0.266712 2.303 0 0 0
0.272902 -0.108798 0.62 0 0 0
-0.131014 -0.0133018 1.691 255 255 255
-1.04341 0.353136 2.044 255 255 255
0.0440816 0.00202296 1.066 255 255 255
0.21335 -0.236466 0.635 0 0 0
0.245837 -0.0983853 0.673 0 0 0
-0.0338579 -0.477317 1.425 255 255 255
0.114692 -0.156855 0.825 0 0 0
-0.197407 0.0716131 1.821 255 255 255
-0.855271 0.246983 2.329 255 255 255
-0.529512 0.578935 1.734 255 255 255
0.102655 -0.305924 0.871 255 255 255
0.132874 -0.138264 0.753 255 255 255
0.182544 -0.241333 0.717 255 255 255
0.250221 -0.0321417 0.685 0 0 0
0.224945 0.122367 0.766 0 0 0
0.00835118 0.267628 1.165 255 255 255
0.29427 0.0237126 0.629 0 0 0
-1.20263 -0.267341 2.996 255 255 255
0.316775 0.152144 0.631 255 255 255
0.21509 0.158875 0.78 255 255 255
-1.1004 0.118135 2.489 255 255 255
0.271839 0.0660893 0.675 255 255 255
-0.0950167 -0.1579 1.595 255 255 255
0.250113 0.117362 0.72 0 0 0
-0.272489 0.544736 1.911 255 255 255
0.253436 0.176737 0.733 255 255 255
-0.224306 -0.265922 1.799 255 255 255
-0.302977 0.501135 1.947 255 255 255
-0.384542 0.0979048 2.136 255 255 255
0.226487 0.133761 0.767 255 255 255
0.266033 0.0343358 0.677 0 0 0
0.271757 -0.116235 0.622 0 0 0
0.21582 0.178075 0.792 255 255 255
0.252451 -0.0154209 0.685 255 255 255
0.121942 0.0355068 0.867 255 255 255
0.147829 -0.273031 0.73 0 0 0
-0.302965 -0.127023 2.01 255 255 255
0.24525 0.0266155 0.706 255 255 255
0.287855 0.203657 0.687 255 255 255
0.136307 0.116944 0.834 0 0 0
0.308712 0.155841 0.642 0 0 0
-0.769599 0.591239 1.673 255 255 255
-0.986239 0.0629348 2.55 255 255 255
-1.04237 0.141898 2.411 255 255 255
0.101904 0.227761 0.902 255 255 255
-0.393712 0.203696 2.269 255 255 255
-1.22 -0.05806 2.78 255 255 255
0.18296 0.0927462 0.824 255 255 255
0.0997265 0.0477044 0.858 0 0 0
-1.00999 0.474032 1.966 255 255 255
0.165567 0.34197 0.913 255 255 255
-0.777891 0.396454 1.978 255 255 255
0.273961 0.182088 0.703 255 255 255
0.161747 0.190129 0.884 255 255 255
0.317072 0.174646 0.642 255 255 255
-1.054 0.308286 2.078 255 255 255
0.294675 0.161909 0.667 255 255 255
-0.240909 -0.576331 1.729 255 255 255
-0.307034 0.345297 2.037 255 255 255
-0.522964 0.319584 2.253 255 255 255
-1.26948 0.0949636 2.519 255 255 255
-0.420389 -0.549503 2.024 255 255 255
-0.263702 0.425764 2.01 255 255 255
0.104251 -0.171146 1.043 255 255 255
-0.786305 0.0266914 2.66 255 255 255
-0.325541 0.194615 2.092 255 255 255
-0.348236 -0.554769 1.917 255 255 255
-0.180251 -0.14058 1.769 255 255 255
0.193353 -0.148073 0.685 0 0 0
-0.360088 -0.287843 2.037 255 255 255
0.15658 -0.233928 0.695 255 255 255
-0.708696 0.618673 1.603 255 255 255
-0.880746 0.482191 1.794 255 255 255
-1.03144 -0.128339 2.939 255 255 255
-0.00273615 -0.224194 1.053 255 255 255
-0.143226 0.0259395 1.739 255 255 255
0.241379 0.190642 0.755 255 255 255
0.250099 0.219306 0.748 255 255 255
-0.00639262 -0.170301 1.092 255 255 255
0.0603966 -0.216308 1.048 255 255 255
0.0151844 0.0617155 1.11 255 255 255
0.137342 -0.148719 0.744 255 255 255
0.218973 -0.115998 0.714 255 255 255
-0.101836 -0.0157973 1.664 255 255 255
0.219438 -0.131154 0.708 255 255 255
0.31198 0.220529 0.651 0 0 0
0.255973 0.174774 0.72 0 0 0
0.185317 -0.253059 0.701 255 255 255
-0.400459 -0.309232 2.092 255 255 255
0.0470176 -0.0718532 1.137 255 255 255
0.171533 -0.244458 0.696 0 0 0
0.204517 -0.198538 0.653 0 0 0
0.300151 0.0354807 0.62 255 255 255
0.304745 0.0390703 0.613 0 0 0
0.0399699 0.173301 1.096 255 255 255
-0.230013 -0.25732 1.821 255 255 255
0.273978 0.0162643 0.659 0 0 0
0.149651 -0.0755637 0.739 255 255 255
0.291617 0.179229 0.675 0 0 0
0.236329 -0.0476542 0.7 255 255 255
0.221185 -0.220516 0.652 255 255 255
-0.0750322 0.511658 1.372 255 255 255
0.0611544 0.0372259 1.032 255 255 255
-0.151718 0.0995176 1.739 255 255 255
0.209114 0.0441792 0.772 0 0 0
-0.791199 -0.157783 2.953 255 255 255
0.244432 0.100342 0.724 255 255 255
-0.323497 -0.587517 1.882 255 255 255
0.232616 0.27786 0.801 255 255 255
-0.302855 -0.367982 1.887 255 255 255
-1.05253 -0.0352871 2.768 255 255 255
-0.918075 0.306959 2.092 255 255 255
-1.04335 0.33195 2.057 255 255 255
0.255955 0.106039 0.707 255 255 255
0.260882 0.292291 0.751 255 255 255
-0.282488 0.0331535 2.004 255 255 255
0.00541529 -0.472593 1.384 255 255 255
0.13943 -0.278812 0.805 255 255 255
0.236329 -0.0533498 0.7 0 0 0
-0.0405589 -0.54804 1.416 255 255 255
-0.334633 0.455223 2.085 255 255 255
0.297578 0.155678 0.659 255 255 255
-0.221391 -0.18896 1.848 255 255 255
0.308647 0.0178852 0.605 255 255 255
0.117844 -0.174918 0.868 0 0 0
0.306018 0.0965408 0.63 255 255 255
0.26481 -0.146901 0.632 255 255 255
0.256591 -0.207979 0.627 255 255 255
-0.76648 0.348866 2.078 255 255 255
-0.377439 0.62936 1.71 255 255 255
-0.130707 -0.301732 1.587 0 0 0
0.185395 0.0919583 0.817 0 0 0
-0.284563 -0.486683 1.848 255 255 255
0.284388 -0.0921534 0.61 255 255 255
-0.849175 0.419324 1.935 255 255 255
0.272315 -0.0115478 0.655 255 255 255
0.155749 -0.28944 0.751 0 0 0
0.299736 -0.0407784 0.599 255 255 255
0.22158 0.212269 0.785 255 255 255
-0.202665 -0.0703957 1.815 255 255 255
0.115685 0.120806 0.842 255 255 255
0.153879 0.0946596 0.841 255 255 255
-1.22613 -0.144775 2.982 255 255 255
0.22738 -0.00452946 0.726 255 255 255
0.323882 0.232789 0.641 255 255 255
-0.310625 0.573028 1.842 255 255 255
0.186247 0.200992 0.845 255 255 255
0.180925 -0.171667 0.66 255 255 255
-0.348937 0.482857 2.03 255 255 255
-0.880302 0.540359 1.719 255 255 255
0.138977 -0.0604153 0.81 255 255 255
-0.521886 0.633374 1.691 255 255 255
0.100656 -0.326716 0.866 255 255 255
0.258454 -0.0882926 0.655 255 255 255
0.0928853 -0.312634 0.886 255 255 255
-0.592105 0.620553 1.664 255 255 255
-0.413799 -0.509978 2.024 255 255 255
-0.448214 0.558357 1.853 255 255 255
-0.275231 0.594794 1.826 255 255 255
-0.244253 -0.621416 1.753 255 255 255
-1.02738 0.0692508 2.479 255 255 255
-0.118087 -0.416412 1.591 255 255 255
-0.942896 0.355382 2.057 255 255 255
0.115438 0.0834861 0.882 255 255 255
-0.69815 0.312633 2.204 255 255 255
0.224652 0.112248 0.765 0 0 0
0.257504 -0.144001 0.642 255 255 255
0.107658 -0.298866 0.901 255 255 255
0.0353748 -0.345431 0.97 255 255 255
-0.374946 0.471557 2.01 255 255 255
-0.16222 0.612429 1.567 255 255 255
-0.673961 0.41705 2.064 255 255 255
-0.59475 0.298642 2.261 255 255 255
0.27796 -0.216093 0.588 255 255 255
0.247071 -0.238157 0.634 0 0 0
0.123943 0.252863 0.924 255 255 255
0.0650655 0.407689 1.098 255 255 255
-0.823372 0.420625 1.941 255 255 255
0.226256 -0.00455442 0.73 255 255 255
0.275983 -0.0794166 0.627 0 0 0
0.103769 -0.0575431 0.96 255 255 255
0.255573 0.273684 0.757 255 255 255
0.242993 0.285997 0.784 255 255 255
0.231803 0.249316 0.785 255 255 255
-0.822471 0.307677 2.22 255 255 255
-0.329176 0.0639699 2.051 255 255 255
0.300036 0.151535 0.655 255 255 255
0.0123733 0.440735 1.187 255 255 255
-0.215816 0.477924 1.905 0 0 0
0.285953 -0.103554 0.607 255 255 255
-0.655102 0.462592 1.893 255 255 255
0.245052 -0.152796 0.662 255 255 255
-0.53681 0.628758 1.686 255 255 255
0.0840339 -0.0700029 1.137 255 255 255
-0.123958 -0.573332 1.567 255 255 255
0.0621037 0.152984 1.02 255 255 255
-1.1941 -0.238341 2.939 255 255 255
0.252762 0.191154 0.738 255 255 255
-0.140925 -0.283485 1.646 255 255 255
0.113998 -0.17127 0.871 0 0 0
0.239073 0.150332 0.744 255 255 255
-0.139041 -0.419763 1.624 255 255 255
-0.833792 0.356462 2.044 255 255 255
0.269837 0.00125629 0.662 0 0 0
-0.598438 0.508704 1.87 255 255 255
-0.199675 0.295687 1.87 255 255 255
-0.497239 0.362846 2.204 255 255 255
-0.712413 0.480104 1.842 255 255 255
0.00253176 -0.0988698 1.108 0 0 0
-0.0249537 0.279574 1.217 255 255 255
-0.542193 0.537694 1.865 255 255 255
-0.327011 0.488006 1.997 255 255 255
-0.217235 -0.273178 1.789 255 255 255
-0.175988 -0.339815 1.7 255 255 255
0.251503 0.138044 0.724 0 0 0
0.00649911 0.294281 1.173 255 255 255
-0.771897 0.585568 1.696 255 255 255
0.126348 0.12058 0.831 255 255 255
-0.117602 0.0927076 1.62 255 255 255
0.195236 -0.242494 0.64 255 255 255
0.273468 -0.201914 0.597 0 0 0
-0.325388 -0.627917 1.893 255 255 255
0.0688179 0.282575 0.997 255 255 255
0.265204 -0.21221 0.607 0 0 0
-0.229135 0.550178 1.887 255 255 255
0.198819 0.233977 0.84 255 255 255
0.200977 0.299375 0.855 255 255 255
0.133975 0.268414 0.931 255 255 255
-0.615475 0.61136 1.691 255 255 255
0.167034 -0.00483517 0.775 255 255 255
-1.11054 0.0502878 2.54 255 255 255
0.112555 0.113645 0.905 255 255 255
-0.691 0.383971 2.085 255 255 255
0.169881 -0.233695 0.708 0 0 0
0.0758118 0.155126 0.924 255 255 255
0.121407 0.05661 0.825 255 255 255
0.303969 0.159329 0.652 255 255 255
-0.747877 0.403615 2.064 255 255 255
0.282538 -0.0733667 0.619 0 0 0
-0.343219 -0.366415 1.978 255 255 255
0.0394958 0.143047 1.083 255 255 255
0.022957 -0.0589013 1.137 255 255 255
0.282968 0.217964 0.697 255 255 255
-0.658667 0.520507 1.826 255 255 255
-0.388747 -0.102973 2.121 255 255 255
0.276279 0.211587 0.706 255 255 255
-0.244979 0.61133 1.779 255 255 255
-0.435966 -0.392245 2.099 255 255 255
0.316816 0.111689 0.623 255 255 255
-0.234813 -0.147732 1.859 255 255 255
0.272034 0.227401 0.716 255 255 255
-0.193268 0.0328895 1.81 255 255 255
-0.373668 -0.297364 2.057 255 255 255
0.226 0.283618 0.81 255 255 255
-0.245457 -0.240085 1.848 255 255 255
0.124627 0.0860039 0.811 255 255 255
-0.71841 0.474109 1.842 255 255 255
-0.122573 -0.388768 1.616 255 255 255
0.268219 0.128358 0.697 0 0 0
0.0648486 0.250576 0.986 255 255 255
-0.258337 -0.213194 1.876 255 255 255
0.135189 -0.0477587 0.819 255 255 255
0.274031 -0.0386019 0.644 0 0 0
0.204226 -0.0870885 0.745 255 255 255
0.254697 -0.190999 0.635 0 0 0
-0.247045 -0.513334 1.794 255 255 255
0.174329 0.148933 0.854 255 255 255
-0.693919 0.0221777 2.638 0 0 0
0.314761 0.189987 0.648 255 255 255
-0.118836 -0.202017 1.637 255 255 255
-0.947781 0.0388422 2.604 255 255 255
0.201854 -0.104628 0.732 255 255 255
-0.0774345 0.523965 1.375 255 255 255
0.302736 0.0331929 0.615 255 255 255
0.19134 0.110166 0.814 0 0 0
-0.0267798 0.214956 1.21 255 255 255
0.070767 0.0122448 1.05 0 0 0
-0.433844 0.535639 1.923 255 255 255
-0.104748 0.341969 1.381 255 255 255
0.285188 0.160166 0.678 0 0 0
0.128121 -0.303192 0.825 0 0 0
-0.0392598 -0.0320786 1.171 255 255 255
-0.00718292 0.415652 1.227 255 255 255
-0.232049 0.435892 1.911 255 255 255
0.254145 0.0538819 0.702 255 255 255
0.256601 -0.0711365 0.664 255 255 255
0.213546 0.124444 0.779 255 255 255
-0.290495 0.63848 1.774 255 255 255
-0.0256714 0.430233 1.252 255 255 255
-0.970202 0.361871 2.037 255 255 255
0.00855906 0.392815 1.194 255 255 255
-0.420802 0.51694 1.935 255 255 255
-0.725679 0.215636 2.402 255 255 255
0.272792 0.157389 0.7 0 0 0
0.149246 -0.042977 0.737 255 255 255
0.269254 -0.20265 0.605 255 255 255
-0.200371 -0.201016 1.821 255 255 255
0.238127 -0.233231 0.649 255 255 255
0.198839 0.026901 0.781 0 0 0
-0.838806 0.388166 1.985 255 255 255
0.226862 -0.100912 0.706 255 255 255
0.256457 -0.0250818 0.675 255 255 255
0.0134739 0.060341 1.118 255 255 255
0.252035 -0.0741807 0.672 255 255 255
-0.833376 0.454787 1.899 255 255 255
0.197123 0.151601 0.816 255 255 255
-0.0843839 -0.408871 1.543 255 255 255
0.207822 0.145669 0.791 255 255 255
0.289531 0.22171 0.691 255 255 255
0.326521 0.230661 0.638 0 0 0
-0.380629 -0.738007 1.923 255 255 255
-0.228528 0.0617615 1.882 255 255 255
-0.363404 -0.450271 2.037 255 255 255
0.158365 0.323185 0.923 255 255 255
0.213324 0.247513 0.817 255 255 255
0.232758 0.175279 0.763 255 255 255
-0.54423 0.545769 1.831 255 255 255
-0.610125 0.423768 2.064 255 255 255
0.0941958 0.199809 0.958 0 0 0
-0.326127 -0.224103 1.972 255 255 255
-0.914414 0.248989 2.278 255 255 255
0.248252 0.237978 0.761 255 255 255
-0.0774345 0.517252 1.375 255 255 255
0.0224514 -0.2509 1.029 255 255 255
-0.409085 -0.567296 2.017 255 255 255
-1.00692 0.182552 2.329 255 255 255
0.151863 -0.00225611 0.756 0 0 0
-0.12149 0.353688 1.419 255 255 255
0.265663 -0.110053 0.639 255 255 255
0.277196 0.0570159 0.659 0 0 0
-0.607768 0.586454 1.748 255 255 255
0.304865 0.0899316 0.634 0 0 0
-0.170641 0.14896 1.789 255 255 255
0.17711 0.161441 0.854 255 255 255
0.25475 -0.0860043 0.662 255 255 255
0.156539 0.304448 0.93 255 255 255
0.265041 0.166813 0.716 0 0 0
-0.336836 0.472542 2.057 255 255 255
0.0797373 0.370816 1.012 255 255 255
-0.799664 0.518694 1.789 255 255 255
0.101385 -0.146256 1.085 255 255 255
0.246255 0.0879481 0.719 255 255 255
-1.24577 0.150736 2.365 255 255 255
0.1915 0.250594 0.85 255 255 255
-0.967801 0.106586 2.411 255 255 255
0.216193 0.169897 0.784 255 255 255
0.234622 -0.231831 0.651 255 255 255
0.290953 -0.0966619 0.601 255 255 255
-0.630115 0.572115 1.739 255 255 255
0.231468 -0.00451698 0.724 255 255 255
0.280844 0.0449449 0.655 0 0 0
-0.0312015 0.28633 1.229 255 255 255
0.0931199 0.327788 0.963 255 255 255
-0.513698 0.54045 1.929 255 255 255
0.240322 -0.244851 0.638 255 255 255
0.256527 0.0374028 0.693 0 0 0
-0.0658547 -0.548306 1.466 255 255 255
0.153612 -0.100949 0.797 255 255 255
0.295686 -0.00585754 0.617 0 0 0
-0.361325 -0.16576 2.044 255 255 255
-0.729057 0.60782 1.637 255 255 255
-0.343864 0.162797 2.121 255 255 255
0.256543 0.0214273 0.687 255 255 255
0.156717 0.153467 0.88 255 255 255
-0.29686 -0.103142 1.991 255 255 255
-0.414978 0.600414 1.739 255 255 255
0.184118 -0.218555 0.634 255 255 255
0.308792 0.153272 0.64 0 0 0
-0.602081 0.428575 2.071 255 255 255
-0.202057 -0.619653 1.664 255 255 255
-0.501138 0.515337 1.929 255 255 255
0.154961 0.0499355 0.804 255 255 255
0.251266 -0.234232 0.629 255 255 255
-1.0744 0.199253 2.303 255 255 255
0.068314 -0.0928156 1.122 255 255 255
-0.196631 0.526963 1.87 0 0 0
0.144143 0.293329 0.938 255 255 255
0.122652 -0.123147 0.758 255 255 255
-0.0651568 -0.23471 1.505 255 255 255
0.296205 0.176284 0.668 0 0 0
0.149347 -0.219026 0.709 255 255 255
-1.5123 -0.200122 2.871 255 255 255
-1.55621 -0.28065 2.982 255 255 255
-0.215706 -0.548279 1.686 255 255 255
0.264301 0.182613 0.714 0 0 0
0.225144 0.063329 0.746 0 0 0
-0.463371 0.618685 1.719 255 255 255
0.195932 0.080426 0.795 255 255 255
0.313272 0.0929905 0.62 0 0 0
0.126031 -0.178743 0.866 0 0 0
-0.0477067 0.445697 1.297 255 255 255
0.147104 -0.250171 0.693 255 255 255
-0.134495 0.210378 1.633 255 255 255
0.136688 -0.0237977 0.82 255 255 255
0.0748921 -0.169209 1.085 255 255 255
0.101275 -0.0801766 1.03 255 255 255
0.132143 0.205634 0.908 255 255 255
0.276354 -0.122333 0.612 0 0 0
-0.245171 0.17425 1.941 255 255 255
0.217947 0.0631975 0.759 255 255 255
0.235526 -0.0671152 0.701 255 255 255
-0.0926521 -0.181715 1.599 255 255 255
0.227213 -0.114863 0.7 0 0 0
-0.0275987 0.345315 1.247 255 255 255
0.146246 0.212709 0.913 255 255 255
-0.559561 0.262143 2.329 255 255 255
-0.273168 0.644254 1.774 255 255 255
0.279629 0.192702 0.7 255 255 255
0.301823 0.186594 0.666 0 0 0
-0.829944 0.504214 1.779 255 255 255
0.2455 0.240159 0.764 255 255 255
0.103795 -0.232271 0.893 255 255 255
0.228699 -0.0267167 0.719 255 255 255
-1.30388 -0.0612107 2.719 255 255 255
-1.42571 -0.229866 2.953 255 255 255
-1.28336 -0.0716319 2.78 255 255 255
-0.959155 -0.115658 2.982 255 255 255
-0.0619572 0.0833366 1.244 255 255 255
-0.200315 0.492019 1.876 0 0 0
0.0108722 -0.247524 1.043 255 255 255
0.290753 0.171032 0.673 255 255 255
-0.322917 -0.233731 1.972 255 255 255
0.251335 -0.0493206 0.676 0 0 0
0.066183 -0.15537 1.087 255 255 255
-0.393416 0.615888 1.719 255 255 255
0.142453 0.259718 0.927 255 255 255
0.163246 0.120438 0.869 255 255 255
0.259932 -0.0258699 0.667 255 255 255
-0.113191 -0.427841 1.595 255 255 255
-0.190322 0.074126 1.81 255 255 255
-0.502679 0.465852 1.972 255 255 255
0.0331647 -0.211594 1.05 255 255 255
-0.421459 0.644924 1.664 255 255 255
0.00950869 -0.180899 1.081 255 255 255
-0.362155 -0.257122 2.03 255 255 255
-0.407614 0.467269 1.978 255 255 255
0.156717 0.146307 0.88 255 255 255
-0.118928 0.364462 1.416 255 255 255
0.0868286 -0.0266018 1.102 255 255 255
0.0253925 0.00205522 1.083 255 255 255
0.255926 -0.237176 0.618 255 255 255
-0.66339 0.604852 1.673 255 255 255
0.0482212 -0.142198 1.081 255 255 255
0.259937 0.171952 0.718 0 0 0
0.247883 0.196604 0.745 255 255 255
-1.41809 -0.106389 2.743 255 255 255
0.147911 0.187282 0.905 0 0 0
0.0303068 -0.0735738 1.135 255 255 255
-1.16164 0.181847 2.32 255 255 255
0.192349 -0.183158 0.655 0 0 0
-0.607165 0.276869 2.294 255 255 255
0.130332 -0.0358947 0.822 255 255 255
-1.32601 -0.0833343 2.719 255 255 255
0.107553 -0.0725558 0.952 255 255 255
-1.38795 -0.174707 2.996 255 255 255
0.311755 0.0850559 0.621 0 0 0
0.287313 -0.0715411 0.612 0 0 0
-0.364652 -0.44184 2.044 255 255 255
-0.398185 0.557688 1.831 255 255 255
-0.762117 0.585901 1.705 255 255 255
0.194883 0.0675736 0.796 255 255 255
0.0547488 -0.349131 0.95 255 255 255
0.0163483 -0.197842 1.068 0 0 0
0.222685 -0.176868 0.693 255 255 255
0.237608 -0.115577 0.684 255 255 255
0.259047 -0.180096 0.633 0 0 0
-0.174985 -0.0485973 1.774 255 255 255
0.201385 -0.208054 0.643 0 0 0
0.228765 0.10382 0.758 0 0 0
-0.798032 -0.041071 2.857 255 255 255
-0.824848 -0.138561 2.953 255 255 255
0.295126 0.0994244 0.642 255 255 255
0.165907 -0.167636 0.764 255 255 255
-0.00684338 0.0935311 1.169 255 255 255
0.322298 0.218525 0.642 255 255 255
-0.32847 -0.6464 1.893 255 255 255
-0.0537706 0.0690547 1.242 255 255 255
0.277861 -0.184118 0.596 255 255 255
-1.16058 0.0421864 2.55 255 255 255
-0.782246 0.499727 1.837 255 255 255
-0.0531238 0.311571 1.275 255 255 255
0.104577 -0.320047 0.852 0 0 0
0.223899 -0.213555 0.66 255 255 255
0.287867 -0.0434958 0.624 255 255 255
-0.157078 -0.171564 1.705 255 255 255
0.12443 0.0461463 0.855 255 255 255
-1.12444 0.186342 2.329 255 255 255
-0.833786 0.382098 2.004 255 255 255
0.144326 -0.273466 0.775 0 0 0
-0.896377 0.466029 1.882 255 255 255
-0.318823 -0.281462 1.947 255 255 255
0.203121 -0.0430248 0.759 255 255 255
0.26172 -0.132514 0.637 255 255 255
-0.743839 0.278645 2.278 255 255 255
0.0644782 0.370805 1.059 255 255 255
-0.750965 0.575597 1.724 255 255 255
-0.299158 0.624046 1.774 255 255 255
-0.306701 0.472542 2.057 255 255 255
-0.0534243 0.124837 1.234 255 255 255
0.22885 0.19317 0.775 255 255 255
-0.28792 0.654151 1.724 255 255 255
0.238947 -0.18 0.663 0 0 0
0.188532 -0.0636848 0.755 255 255 255
-0.753777 0.253579 2.32 255 255 255
0.30065 0.0819355 0.636 255 255 255
-0.387437 0.62752 1.705 255 255 255
-0.405178 -0.429369 2.064 255 255 255
0.180527 -0.0322868 0.768 255 255 255
-0.738799 0.469639 1.848 255 255 255
0.308018 0.087591 0.632 0 0 0
0.24147 0.23611 0.767 255 255 255
0.107956 -0.163127 1.046 255 255 255
0.231291 -0.0786347 0.702 255 255 255
0.176098 0.0927364 0.836 255 255 255
-0.706086 0.621282 1.603 255 255 255
0.0593016 0.331833 1.029 255 255 255
-0.062582 -0.3369 1.502 255 255 255
-0.949827 -0.0905061 2.953 255 255 255
0.213511 0.189914 0.793 255 255 255
0.0241967 -0.238196 1.032 255 255 255
0.241938 -0.0626934 0.69 0 0 0
-1.23644 -0.0301043 2.707 255 255 255
0.283977 -0.108493 0.607 255 255 255
-0.762082 0.362077 2.057 255 255 255
-0.985986 0.0344584 2.593 255 255 255
0.236788 -0.201579 0.663 0 0 0
0.13764 -0.12825 0.759 0 0 0
0.0359758 -0.0590049 1.139 255 255 255
0.162158 -0.0576148 0.725 0 0 0
0.280307 -0.0738408 0.623 255 255 255
-0.813684 0.0931369 2.582 255 255 255
-0.837995 0.370538 2.03 255 255 255
0.258708 -0.116334 0.645 0 0 0
0.29681 -0.0758701 0.599 0 0 0
0.0320127 0.307399 1.13 255 255 255
-0.278717 0.474842 2.024 0 0 0
-0.313287 -0.16313 1.972 255 255 255
0.156853 0.0488086 0.807 255 255 255
0.204733 0.129425 0.794 255 255 255
0.0455182 -0.323189 0.951 0 0 0
0.167575 0.11154 0.855 255 255 255
-0.132954 -0.483872 1.583 255 255 255
0.0408974 -0.244366 0.989 0 0 0
-0.334692 0.574855 1.81 255 255 255
-1.00687 0.0872933 2.42 255 255 255
-0.157215 0.00335706 1.769 255 255 255
-0.673649 0.482861 1.876 255 255 255
-0.135237 -0.237371 1.642 255 255 255
-0.113551 -0.0159207 1.677 255 255 255
0.243419 0.0635534 0.721 0 0 0
0.0251745 -0.303622 1.004 255 255 255
0.17385 -0.155733 0.67 255 255 255
0.0754664 0.235811 0.978 255 255 255
-0.319979 0.46384 2.078 255 255 255
-1.08371 0.337657 2.051 255 255 255
-0.02782 0.450361 1.257 255 255 255
0.265616 0.226875 0.737 255 255 255
0.292844 -0.0553338 0.609 255 255 255
-0.163964 -0.184162 1.719 255 255 255
-0.244979 -0.529307 1.779 255 255 255
0.258783 0.0565743 0.693 255 255 255
-0.934947 0.33659 2.107 255 255 255
-0.459589 0.646822 1.655 255 255 255
0.128864 -0.170512 0.744 255 255 255
-0.235942 -0.301771 1.821 255 255 255
0.245016 0.0442215 0.712 255 255 255
0.184484 0.14733 0.837 255 255 255
0.265831 0.0681831 0.685 255 255 255
-0.516291 0.249771 2.392 0 0 0
0.221701 -0.160875 0.697 255 255 255
-0.196105 0.182602 1.865 255 255 255
0.050786 -0.334131 0.934 0 0 0
0.273984 -0.0601393 0.639 255 255 255
0.289042 0.00325115 0.631 255 255 255
0.294032 0.00219258 0.622 0 0 0
0.22898 -0.0644198 0.709 255 255 255
0.0746298 0.267162 0.988 255 255 255
0.000911498 -0.469103 1.387 255 255 255
0.208886 0.0200464 0.762 255 255 255
-0.448918 -0.328405 2.128 255 255 255
-1.03838 0.126675 2.42 255 255 255
0.222422 0.170081 0.779 255 255 255
0.0184425 -0.125529 1.089 255 255 255
-0.268354 0.573221 1.882 255 255 255
0.301145 -0.041544 0.596 0 0 0
-0.0595364 -0.391612 1.487 255 255 255
0.0565066 0.230149 1.009 255 255 255
0.275955 0.125581 0.688 255 255 255
-0.147786 -0.480553 1.633 255 255 255
-0.715038 0.591924 1.739 255 255 255
-0.300004 0.465847 2.057 0 0 0
-0.208294 0.514961 1.893 0 0 0
0.292509 0.174059 0.672 0 0 0
-0.05407 -0.432586 1.47 255 255 255
-0.705709 0.493697 1.848 255 255 255
-0.108389 0.474779 1.429 255 255 255
0.143712 0.0925211 0.822 0 0 0
-0.0183233 0.00222602 1.173 255 255 255
0.242409 0.0839628 0.725 255 255 255
-0.782173 0.348687 2.057 255 255 255
-0.271082 0.659762 1.724 255 255 255
0.262715 -0.176348 0.627 0 0 0
0.132551 -0.256898 0.836 0 0 0
0.0755362 0.0572269 1 255 255 255
0.236333 0.122321 0.743 255 255 255
0.190516 0.0363935 0.794 255 255 255
-0.387631 -0.158373 2.078 255 255 255
-0.234655 -0.0576812 1.882 255 255 255
-1.50507 -0.215108 2.884 255 255 255
0.038657 -0.198085 1.06 255 255 255
-0.92798 0.335312 2.099 255 255 255
0.205264 -0.0961378 0.74 255 255 255
-0.487409 0.639732 1.686 255 255 255
0.314781 0.0918332 0.619 0 0 0
-0.442851 0.529535 1.935 255 255 255
-1.19616 0.038514 2.582 255 255 255
-0.878845 0.0776306 2.626 255 255 255
-0.371307 -0.19237 2.044 255 255 255
-0.349326 -0.625351 1.923 255 255 255
-0.187375 0.035835 1.81 255 255 255
0.211755 0.324523 0.848 255 255 255
0.26325 -0.0405734 0.659 255 255 255
-0.2063 -0.091372 1.821 255 255 255
0.194085 0.159016 0.82 255 255 255
0.233037 -0.180793 0.674 0 0 0
0.306782 0.204711 0.665 255 255 255
0.000795179 0.39611 1.21 255 255 255
-0.564777 0.116982 2.383 255 255 255
0.019865 0.357273 1.173 255 255 255
-0.21253 0.546971 1.876 0 0 0
0.260379 0.179629 0.716 0 0 0
-0.668418 0.431862 1.978 255 255 255
0.107602 0.0349744 0.854 0 0 0
0.29477 -0.123906 0.591 255 255 255
0.256995 -0.0998648 0.654 0 0 0
0.157373 -0.0730074 0.714 255 255 255
-1.11939 -0.0122161 2.649 255 255 255
-0.97465 0.090143 2.499 255 255 255
0.122652 -0.12438 0.758 255 255 255
0.264037 0.125065 0.704 0 0 0
-0.332386 0.472388 2.071 255 255 255
0.26062 -0.197211 0.622 255 255 255
-0.886273 0.121553 2.561 255 255 255
0.175761 0.063553 0.828 255 255 255
0.193827 -0.161289 0.675 0 0 0
0.0867323 -0.0490823 1.124 255 255 255
0.000729462 -0.10808 1.11 0 0 0
0.126778 -0.0293129 0.825 255 255 255
-0.489957 -0.102049 2.253 255 255 255
0.156135 -0.166337 0.747 255 255 255
0.288391 0.0666093 0.648 255 255 255
0.0342416 0.385337 1.143 255 255 255
0.143022 0.0164549 0.768 255 255 255
0.307741 0.169679 0.651 255 255 255
0.27118 -0.122504 0.623 0 0 0
-0.654358 0.484405 1.882 255 255 255
0.258027 0.0600441 0.694 255 255 255
-0.76488 0.426403 1.953 255 255 255
-0.178621 0.397 1.753 255 255 255
0.209918 -0.231967 0.634 0 0 0
0.24146 0.00133789 0.705 0 0 0
-1.01915 0.472344 1.959 255 255 255
0.19929 0.143282 0.814 255 255 255
0.150433 -0.00348176 0.755 0 0 0
-0.972452 0.477924 1.905 255 255 255
0.324419 0.234508 0.64 255 255 255
0.153634 0.19443 0.904 255 255 255
0.125296 -0.306132 0.833 0 0 0
0.108078 0.0525585 0.869 0 0 0
-0.988576 0.245282 2.278 255 255 255
0.269592 -0.0347839 0.651 0 0 0
0.273624 -0.0177514 0.648 0 0 0
0.282264 0.158938 0.687 255 255 255
-0.482622 -0.0690519 2.253 0 0 0
-0.687198 0.279042 2.312 255 255 255
0.112689 -0.267383 0.861 0 0 0
-0.888253 0.345484 2.078 255 255 255
-0.0295672 -0.360988 1.442 255 255 255
0.280831 -0.194085 0.588 0 0 0
-0.830728 0.262964 2.303 255 255 255
0.170322 -0.158499 0.756 255 255 255
0.0614476 -0.302183 0.958 0 0 0
-0.333767 0.579142 1.805 255 255 255
0.240002 -0.144169 0.672 0 0 0
-0.745304 0.394149 2.085 255 255 255
-0.102278 0.347954 1.378 255 255 255
0.141922 -0.0253937 0.749 255 255 255
0.267135 0.0343358 0.677 0 0 0
0.206408 0.0557733 0.776 255 255 255
-0.867761 0.565043 1.668 255 255 255
-0.996827 0.353136 2.044 255 255 255
0.106702 0.168813 0.893 255 255 255
0.0192553 -0.0644521 1.137 255 255 255
0.0806718 -0.206641 0.928 0 0 0
0.0889568 0.189262 0.952 0 0 0
-0.0194924 -0.530071 1.393 255 255 255
-0.290495 0.635593 1.774 255 255 255
-0.233159 -0.0725289 1.87 255 255 255
0.165141 -0.0510936 0.733 0 0 0
0.0630507 -0.202295 1.064 255 255 255
-0.722611 0.0760342 2.572 255 255 255
0.181259 0.138454 0.841 255 255 255
-0.854185 0.581329 1.668 255 255 255
0.0115915 0.0437308 1.112 255 255 255
-1.12322 0.237121 2.236 255 255 255
0.0465233 -0.259146 0.972 0 0 0
0.157613 -0.113227 0.766 255 255 255
0.23558 -0.168978 0.675 0 0 0
0.164395 -0.0476447 0.735 0 0 0
0.198518 0.206271 0.833 255 255 255
-0.8522 0.570082 1.691 255 255 255
-0.696734 0.544744 1.779 255 255 255
0.275026 0.15558 0.697 0 0 0
-0.0894073 -0.38125 1.543 255 255 255
-0.790072 0.236523 2.338 255 255 255
-0.735392 0.507109 1.81 255 255 255
0.143902 0.228564 0.917 255 255 255
-1.14474 0.0798766 2.561 255 255 255
0.241879 0.0222382 0.713 255 255 255
0.304727 0.00312749 0.607 0 0 0
0.221587 0.318217 0.828 255 255 255
0.0936079 0.0608326 0.866 255 255 255
-0.0560219 0.370964 1.294 255 255 255
0.0738345 0.0441641 0.999 255 255 255
-0.462169 0.579485 1.779 255 255 255
0.137096 -0.0280916 0.756 255 255 255
0.110549 -0.0908292 0.777 255 255 255
-0.7447 0.566011 1.729 255 255 255
-0.491774 -0.195185 2.228 255 255 255
-0.0664836 -0.476472 1.48 255 255 255
0.297264 -0.0473634 0.596 0 0 0
0.223183 0.0855426 0.76 0 0 0
-0.392016 0.0146306 2.158 255 255 255
0.296789 -0.0256865 0.611 255 255 255
-0.0516089 0.377921 1.289 255 255 255
-0.39041 -0.23711 2.057 255 255 255
-0.392331 0.421293 2.085 255 255 255
0.00444101 0.0520234 1.135 255 255 255
-0.888689 0.169994 2.42 255 255 255
-0.329624 -0.664082 1.882 255 255 255
0.151358 0.221888 0.908 255 255 255
-0.404047 0.000585655 2.166 255 255 255
-1.27526 0.0592923 2.572 255 255 255
-0.274173 0.36666 1.991 255 255 255
0.0616386 0.242553 0.986 255 255 255
-0.27679 0.48137 2.01 0 0 0
-0.631917 0.149934 2.479 255 255 255
0.0548508 0.176649 1.073 255 255 255
0.0956553 0.210501 0.957 0 0 0
0.252784 -0.190863 0.638 255 255 255
0.273181 0.174725 0.701 255 255 255
-0.785107 0.449739 1.917 255 255 255
-0.174208 0.628063 1.607 0 0 0
0.192474 -0.0662297 0.756 255 255 255
-0.208088 0.652637 1.691 0 0 0
0.172721 0.222113 0.874 255 255 255
-0.0215003 -0.0756867 1.139 255 255 255
-0.104478 -0.464112 1.543 255 255 255
0.271662 -0.00836285 0.656 255 255 255
0.0632436 0.248971 0.986 255 255 255
0.147975 -0.00225313 0.755 0 0 0
0.292074 0.171616 0.671 0 0 0
0.19529 -0.0399928 0.772 255 255 255
-0.37703 -0.596968 1.953 0 0 0
0.302525 -0.05581 0.593 255 255 255
0.150205 -0.186311 0.73 255 255 255
0.290527 -0.0301492 0.621 255 255 255
0.132104 0.228813 0.918 0 0 0
-0.760233 0.0517726 2.615 255 255 255
0.257539 -0.110889 0.65 0 0 0
0.233914 0.0824201 0.743 255 255 255
0.150983 0.00766625 0.764 0 0 0
-0.0111958 0.35833 1.229 255 255 255
0.156212 -0.114612 0.784 255 255 255
-0.217175 0.206411 1.917 255 255 255
0.157551 -0.192514 0.731 0 0 0
-0.460782 -0.0212277 2.236 255 255 255
0.30922 0.0730465 0.622 0 0 0
0.159072 -0.116168 0.701 255 255 255
-0.00295442 -0.0663024 1.137 0 0 0
0.0223311 -0.104091 1.106 255 255 255
0.144939 -0.145423 0.752 0 0 0
-0.356696 -0.52685 1.929 255 255 255
0.189796 0.000213875 0.791 255 255 255
-1.20125 0.0935337 2.593 255 255 255
0.267391 -0.032916 0.656 0 0 0
0.279137 0.0279331 0.656 255 255 255
-0.803547 0.525372 1.753 255 255 255
-0.0682805 -0.123266 1.52 255 255 255
0.108909 -0.0912351 0.937 255 255 255
0.0943187 -0.0171883 0.823 255 255 255
0.308113 0.0972562 0.628 255 255 255
0.0171137 0.0894506 1.118 255 255 255
-1.47636 -0.27182 2.939 255 255 255
-0.259504 0.216198 1.978 255 255 255
0.0398233 0.407657 1.143 255 255 255
-0.214456 0.308565 1.893 255 255 255
-0.114318 0.454329 1.416 255 255 255
0.0777964 0.121945 0.912 255 255 255
0.111788 -0.11249 1.05 255 255 255
-0.275603 0.290232 1.978 255 255 255
0.277862 0.258861 0.716 255 255 255
-0.815657 0.34534 2.057 255 255 255
0.225017 -0.0293397 0.726 255 255 255
0.0140645 0.298473 1.167 255 255 255
0.0643892 -0.220973 1.03 255 255 255
0.221917 -0.0825333 0.716 0 0 0
0.237069 0.00252393 0.716 0 0 0
-0.170252 0.298223 1.848 255 255 255
0.256536 0.012429 0.684 255 255 255
0.226672 -0.0817264 0.709 0 0 0
0.294644 0.031025 0.632 0 0 0
0.279391 -0.200167 0.589 0 0 0
-1.28678 0.118135 2.489 255 255 255
-0.713047 0.54663 1.748 255 255 255
0.167977 0.329042 0.902 255 255 255
0.282738 -0.195333 0.586 255 255 255
-0.446652 0.574855 1.81 255 255 255
-0.763558 0.4023 1.991 255 255 255
-0.530821 -0.175521 2.303 255 255 255
0.298761 -0.0427279 0.599 0 0 0
-0.271557 0.289351 1.972 255 255 255
-0.194899 -0.518412 1.696 255 255 255
-0.436068 0.576443 1.815 255 255 255
0.0817396 -0.262605 0.923 255 255 255
-0.321154 -0.375002 1.923 255 255 255
-0.56146 0.0749175 2.402 255 255 255
-1.04162 0.293518 2.143 255 255 255
0.257665 -0.107151 0.653 0 0 0
0.268979 -0.0941591 0.637 0 0 0
-0.46202 0.308301 2.278 255 255 255
-0.901048 0.337598 2.092 255 255 255
0.20827 0.155664 0.783 255 255 255
0.0521144 0.0859636 1.053 255 255 255
0.0345545 0.112455 1.094 255 255 255
0.190601 0.0156209 0.789 255 255 255
0.218593 -0.141723 0.709 255 255 255
0.0677425 0.0203923 1.03 255 255 255
-0.519054 0.637522 1.673 255 255 255
0.286492 -0.190211 0.582 0 0 0
0.00265514 0.115663 1.162 255 255 255
0.197411 0.104496 0.801 255 255 255
0.11628 -0.0543939 0.799 0 0 0
0.298301 -0.0305075 0.608 255 255 255
0.0239623 -0.287445 1.022 255 255 255
-0.47718 0.421293 2.085 255 255 255
0.307553 0.224256 0.662 255 255 255
0.309536 0.124813 0.633 255 255 255
-0.752877 -0.0265156 2.793 255 255 255
-1.51709 -0.2303 2.898 255 255 255
0.14473 -0.275251 0.791 255 255 255
0.121646 -0.26552 0.855 0 0 0
-1.26167 -0.0299709 2.695 255 255 255
0.0213289 0.301349 1.149 255 255 255
0.0104851 0.440651 1.192 255 255 255
0.162897 -0.242276 0.693 0 0 0
-0.395725 -0.291233 2.085 255 255 255
-0.109962 -0.203055 1.624 255 255 255
0.069805 0.267162 0.988 255 255 255
0.138967 0.212942 0.914 0 0 0
-0.459704 0.573489 1.815 255 255 255
0.262033 0.142507 0.711 255 255 255
-0.420367 0.37225 2.196 255 255 255
-0.0611191 0.410598 1.313 255 255 255
0.00473447 0.403986 1.21 255 255 255
0.192901 0.128869 0.815 255 255 255
0.279881 -0.119151 0.611 0 0 0
0.192224 -0.26357 0.681 0 0 0
-0.783955 0.429581 1.953 255 255 255
0.00822215 0.207497 1.147 255 255 255
0.153659 -0.0827167 0.784 255 255 255
-0.368977 0.489801 1.978 255 255 255
0.0968099 0.235325 0.938 255 255 255
0.1271 -0.101288 0.77 0 0 0
-1.06592 0.0132519 2.572 255 255 255
0.112496 -0.0966512 0.773 255 255 255
0.135111 -0.238926 0.835 0 0 0
0.144893 -0.0595948 0.799 255 255 255
-0.882374 0.28292 2.253 255 255 255
-0.656989 0.0340332 2.561 0 0 0
0.295937 0.227588 0.685 255 255 255
0.304905 0.140824 0.645 0 0 0
0.180753 -0.245073 0.701 255 255 255
-1.03359 0.317359 2.071 255 255 255
0.102302 0.0567355 0.868 0 0 0
0.187234 -0.150305 0.675 0 0 0
0.0728564 -0.00850342 1.081 0 0 0
0.300836 0.262527 0.686 255 255 255
-0.628291 0.274208 2.303 255 255 255
0.0781527 -0.247495 0.934 255 255 255
0.252436 -0.000933577 0.688 255 255 255
0.278831 -0.167629 0.596 0 0 0
0.165406 0.28711 0.904 255 255 255
0.252279 -0.173254 0.642 0 0 0
0.0855629 -0.33222 0.9 255 255 255
0.0486862 0.0619735 1.053 255 255 255
0.0191942 -0.28409 1.034 255 255 255
0.257405 0.232695 0.748 255 255 255
-1.34322 0.0255876 2.55 255 255 255
-0.144796 0.0846316 1.724 255 255 255
0.273465 -0.149728 0.61 0 0 0
0.224564 -0.106656 0.706 255 255 255
-0.450543 0.531177 1.941 255 255 255
-0.0296761 0.364161 1.249 255 255 255
0.0799142 0.0731742 0.974 255 255 255
0.291439 0.268268 0.701 255 255 255
0.204694 0.176848 0.804 255 255 255
0.268219 0.12609 0.697 0 0 0
0.271053 -0.0765368 0.637 0 0 0
-1.42648 -0.218166 2.925 255 255 255
0.268599 0.174658 0.71 0 0 0
0.0736478 0.219221 0.975 255 255 255
0.220451 0.170518 0.781 255 255 255
0.290301 -0.0506267 0.612 255 255 255
-0.244492 0.0347248 1.911 255 255 255
-1.27967 -0.061751 2.743 255 255 255
0.147038 -0.236332 0.709 255 255 255
0.039367 -0.281952 0.991 0 0 0
0.284619 0.189949 0.69 255 255 255
0.220803 -0.14666 0.705 255 255 255
0.185354 0.0648877 0.811 255 255 255
0.120735 0.13676 0.839 255 255 255
-0.784515 0.365186 2.037 255 255 255
-0.491497 0.0156747 2.312 255 255 255
-0.867446 0.160075 2.449 255 255 255
-0.47451 0.599775 1.729 255 255 255
-0.780156 -0.00833507 2.793 255 255 255
-0.228244 -0.368218 1.784 255 255 255
-0.144347 -0.606937 1.595 255 255 255
0.28014 0.0085847 0.646 255 255 255
0.282468 0.26709 0.71 255 255 255
-0.511557 0.555342 1.853 255 255 255
-0.354671 -0.159108 2.044 255 255 255
0.258786 -0.14876 0.64 0 0 0
0.298133 0.0264002 0.62 255 255 255
-0.316844 0.576965 1.826 255 255 255
0.175488 0.277693 0.888 255 255 255
0.0100189 0.178247 1.139 255 255 255
0.238885 -0.0113781 0.711 255 255 255
0.136719 0.0383886 0.782 255 255 255
-0.0731288 -0.09928 1.571 255 255 255
0.206392 -0.113378 0.727 255 255 255
0.1341 -0.137039 0.753 255 255 255
0.0243932 -0.0906654 1.118 255 255 255
-0.482086 0.143037 2.303 255 255 255
-1.26563 0.10905 2.561 255 255 255
0.126952 -0.161475 0.747 255 255 255
0.0599227 -0.189506 1.07 255 255 255
0.255502 0.224789 0.746 255 255 255
-0.301447 -0.692721 1.805 255 255 255
0.1733 -0.248273 0.694 0 0 0
0.302413 0.262106 0.682 255 255 255
0.0252049 -0.155404 1.075 255 255 255
0.261416 0.0735964 0.694 0 0 0
0.0294791 -0.111089 1.104 255 255 255
0.177977 0.291486 0.886 255 255 255
0.0727216 -0.178809 1.079 255 255 255
-1.15104 -0.238341 2.939 255 255 255
-0.0602346 0.31832 1.294 255 255 255
0.0637567 0.157173 0.994 255 255 255
-0.512455 0.459232 1.985 255 255 255
-0.50695 0.561015 1.794 255 255 255
-0.432293 0.647632 1.664 255 255 255
-0.220392 0.0126441 1.865 255 255 255
0.161115 -0.22049 0.71 0 0 0
-0.470942 0.639732 1.686 255 255 255
0.055437 0.143951 1.051 255 255 255
0.180249 0.300557 0.883 255 255 255
-0.139618 -0.500656 1.571 255 255 255
-0.535082 -0.239064 2.338 255 255 255
-0.806362 0.378012 2.017 255 255 255
-0.803276 0.473959 1.865 255 255 255
-0.113114 -0.512958 1.524 255 255 255
-1.24528 -0.0165956 2.66 255 255 255
0.18515 -0.215459 0.634 255 255 255
-0.234482 -0.64093 1.744 255 255 255
0.124721 -0.193621 0.857 0 0 0
-0.693773 -0.221956 2.793 0 0 0
-0.0952461 -0.488062 1.516 255 255 255
0.188672 0.25097 0.856 255 255 255
-0.695115 0.619962 1.62 255 255 255
-0.415026 -0.594077 2.03 255 255 255
-0.752037 0.405593 2.057 255 255 255
0.133111 -0.205326 0.831 0 0 0
0.181325 0.114367 0.835 255 255 255
0.0774727 0.0786957 1.004 255 255 255
0.0758765 0.202419 0.963 255 255 255
0.154297 -0.28311 0.744 0 0 0
