ply
format ascii 1.0
comment Created by Open3D
element vertex 1297
property double x
property double y
property double z
property uchar red
property uchar green
property uchar blue
end_header
-0.0662902 0.515657 1.591 255 255 255
0.403219 0.20489 2.128 255 255 255
0.509881 0.595196 1.603 255 255 255
0.655614 0.317683 2.03 255 255 255
0.414675 -0.0509591 2.44 255 255 255
-0.187931 -0.317504 1.073 255 255 255
-0.312923 0.147098 0.627 255 255 255
-0.312259 0.116146 0.604 255 255 255
-0.118681 0.492229 1.599 255 255 255
0.840075 -0.153603 1.821 255 255 255
-0.341764 0.220141 1.452 255 255 255
0.126149 -0.0144743 2.32 255 255 255
0.891637 -0.594946 1.848 255 255 255
0.0437295 0.41199 1.744 255 255 255
0.872847 -0.509587 1.947 255 255 255
0.620483 0.206107 1.345 255 255 255
-0.29544 0.132058 0.614 255 255 255
0.534276 0.544197 1.646 255 255 255
0.0274985 -0.248275 2.638 255 255 255
0.593182 0.386192 1.491 255 255 255
0.322647 0.030485 2.294 255 255 255
-0.300324 0.0430729 1.381 255 255 255
-0.301583 0.0405616 1.452 255 255 255
-0.00147536 0.564378 1.52 255 255 255
-0.185047 -0.163757 0.884 255 255 255
-0.286852 0.167982 0.661 255 255 255
-0.09008 -0.134839 2.449 255 255 255
-0.214942 0.0124136 0.627 255 255 255
-0.258567 -0.0522853 0.701 255 255 255
-0.30308 -0.0747926 0.72 255 255 255
0.608408 0.20084 1.208 255 255 255
-0.356148 -0.222647 0.856 0 0 0
0.517152 0.249955 2.071 255 255 255
-0.315374 0.103526 1.378 255 255 255
-0.170773 0.292233 1.887 255 255 255
-0.028267 -0.00310197 2.286 255 255 255
-0.256418 -0.19427 0.892 255 255 255
0.177583 0.483611 1.668 255 255 255
-0.191368 -0.156375 0.867 255 255 255
-0.187504 0.0519568 0.624 255 255 255
0.51754 -0.277219 2.755 255 255 255
0.533072 0.515366 1.729 255 255 255
-0.295508 0.0905319 0.561 255 255 255
0.202844 -0.401021 2.871 255 255 255
0.338679 0.51078 1.686 255 255 255
0.519263 0.337434 1.917 255 255 255
0.103772 0.215275 2.03 255 255 255
-0.2071 -0.185754 0.886 255 255 255
-0.329869 -0.194839 0.875 255 255 255
-0.365862 -0.260481 0.801 255 255 255
-0.309288 0.0470735 1.305 255 255 255
0.534098 0.448823 1.789 255 255 255
-0.138306 -0.48664 1.336 255 255 255
-0.226146 0.416504 1.682 255 255 255
-0.277019 -0.225732 0.932 255 255 255
-0.309673 0.253466 0.794 255 255 255
-0.353276 -0.266702 0.808 255 255 255
-0.285639 -0.457047 1.222 255 255 255
-0.179261 -0.163603 0.891 255 255 255
0.884304 -0.589027 2.024 255 255 255
-0.0948781 0.26712 1.905 255 255 255
0.0817395 0.526056 1.599 255 255 255
-0.39561 -0.140308 0.785 255 255 255
0.519613 0.556235 1.642 255 255 255
0.184924 -0.0146428 2.347 255 255 255
-0.0752875 0.391 1.739 255 255 255
0.884611 -0.750994 2.071 255 255 255
-0.311075 -0.0440228 2.286 255 255 255
-0.309111 -0.213537 0.906 255 255 255
0.580287 0.252489 2.092 255 255 255
0.880845 -0.557849 1.972 255 255 255
-0.316756 -0.229809 0.924 255 255 255
-0.253006 0.065486 0.55 255 255 255
-0.228088 0.000173317 0.641 255 255 255
0.29962 0.439431 1.763 255 255 255
-0.461337 -0.554994 2.996 255 255 255
-0.390709 -0.261383 0.788 255 255 255
-0.313158 0.0338316 1.286 255 255 255
-0.304467 0.224794 0.771 255 255 255
-0.298688 0.105211 1.057 255 255 255
-0.327839 -0.03907 0.67 255 255 255
-0.242977 -0.418827 1.198 255 255 255
0.770948 0.149239 1.758 255 255 255
-0.20698 -0.069739 0.741 255 255 255
-0.214871 -0.469954 1.262 0 0 0
-0.0638055 0.343109 1.815 255 255 255
-0.0866703 0.553901 1.539 255 255 255
-0.293751 0.187268 0.723 255 255 255
-0.31863 0.264338 1.027 255 255 255
0.847668 -0.234896 1.831 255 255 255
-0.160874 0.563086 1.484 255 255 255
0.133439 0.592429 1.535 255 255 255
0.154068 -0.0697097 2.402 255 255 255
0.599161 0.361938 1.182 255 255 255
0.833518 -0.461162 2.166 255 255 255
-0.360338 0.236112 0.697 255 255 255
0.773774 -0.00687278 2.303 255 255 255
-0.0615886 0.33232 1.837 255 255 255
-0.222354 -0.333327 1.079 255 255 255
1.00204 -0.728116 2.731 255 255 255
0.624922 -0.0649068 2.519 255 255 255
0.562874 0.257563 2.078 255 255 255
0.537967 0.526087 1.7 255 255 255
0.576165 0.464987 1.784 255 255 255
0.271038 0.540203 1.642 255 255 255
-0.294384 0.354988 1.729 255 255 255
0.0945313 0.0340988 2.286 255 255 255
0.423237 0.103268 2.253 255 255 255
-0.318789 0.359572 1.724 255 255 255
0.668956 0.132599 2.253 255 255 255
0.87889 -0.742506 2.114 255 255 255
0.685795 0.36152 1.929 255 255 255
0.300006 0.119984 2.158 255 255 255
-0.167623 -0.247219 0.994 255 255 255
-0.330612 -0.284298 0.817 255 255 255
0.842475 -0.196136 1.859 255 255 255
0.808091 -0.249497 2.294 255 255 255
0.341289 0.3619 1.882 255 255 255
-0.06294 -0.292418 2.649 255 255 255
-0.190856 0.0439034 0.625 255 255 255
-0.277865 0.095888 2.092 255 255 255
-0.377495 -0.153062 0.812 255 255 255
0.512524 -0.139723 2.615 255 255 255
-0.317988 -0.0499042 0.684 255 255 255
-0.284007 -0.325732 1.06 255 255 255
-0.170618 -0.435177 1.239 255 255 255
0.794958 0.122106 1.966 255 255 255
0.287526 -0.0148112 2.374 255 255 255
-0.362521 0.406432 1.254 255 255 255
0.151955 0.421469 1.748 255 255 255
-0.0078101 0.340325 1.848 255 255 255
-0.366373 0.389504 1.351 255 255 255
-0.30643 0.00217143 0.616 255 255 255
0.010408 -0.280646 2.66 255 255 255
0.109587 0.405558 1.753 255 255 255
-0.107597 0.123123 2.092 255 255 255
-0.285092 0.0714903 0.548 255 255 255
-0.297191 0.216898 0.69 255 255 255
-0.210208 -0.0206573 0.674 255 255 255
0.827963 -0.246303 2.107 255 255 255
-0.140687 -0.503864 1.359 255 255 255
-0.300619 0.208887 0.675 255 255 255
-0.292734 0.17174 1.985 255 255 255
-0.276364 -0.265521 0.978 255 255 255
-0.146812 0.367422 1.748 255 255 255
-0.242765 -0.200561 1.247 255 255 255
-0.307691 0.133801 1.013 255 255 255
0.816021 -0.120481 2.01 255 255 255
0.626318 -0.229971 2.78 255 255 255
-0.167937 -0.236631 0.977 255 255 255
-0.191439 -0.121062 0.819 255 255 255
-0.324397 0.257511 1.068 255 255 255
-0.190796 0.135368 2.071 255 255 255
0.612951 0.228744 1.324 255 255 255
-0.342384 -0.243294 0.836 255 255 255
0.240289 0.127007 2.158 255 255 255
-0.225033 -0.482336 1.273 255 255 255
-0.200321 -0.147598 0.857 255 255 255
-0.112941 0.453753 1.668 255 255 255
0.303225 0.395098 1.837 255 255 255
0.0884566 0.467118 1.677 255 255 255
-0.28304 0.17497 1.985 255 255 255
-0.10153 0.459404 1.659 255 255 255
-0.0744306 0.306048 1.859 255 255 255
-0.267283 -0.486248 1.267 255 255 255
-0.214987 0.474014 1.599 255 255 255
-0.211837 -0.0051288 0.652 255 255 255
-0.291137 0.0781582 0.551 255 255 255
0.760399 0.206612 2.01 255 255 255
-0.14829 0.0152136 2.244 255 255 255
-0.306422 -0.282016 2.593 255 255 255
0.229341 0.215275 2.03 255 255 255
-0.270147 0.11733 0.6 255 255 255
-0.205502 0.36553 1.739 255 255 255
-0.205644 0.0626747 0.565 255 255 255
0.866753 -0.266211 1.821 255 255 255
0.871934 -0.692359 2.057 255 255 255
0.375798 -0.305554 2.768 255 255 255
0.599304 0.331891 1.171 255 255 255
1.03376 -0.761539 2.805 255 255 255
0.638721 0.0431243 1.252 255 255 255
0.459814 0.573039 1.629 255 255 255
-0.338371 0.236466 1.319 255 255 255
-0.377964 0.26808 0.722 255 255 255
0.572787 0.0085306 2.42 255 255 255
0.59539 0.407983 1.234 255 255 255
0.677684 -0.256005 2.768 255 255 255
0.35128 -0.107815 2.469 255 255 255
0.836917 -0.413614 2.121 255 255 255
0.13129 -0.320649 2.743 255 255 255
-0.0977895 -0.0451975 2.347 255 255 255
0.625602 0.0241928 2.411 255 255 255
-0.299296 0.0893774 2.099 255 255 255
-0.293032 0.0251653 0.591 255 255 255
-0.353236 -0.226353 0.849 255 255 255
-0.345846 -0.246355 0.828 255 255 255
-0.351983 0.456391 1.583 255 255 255
-0.353408 0.389235 1.189 255 255 255
-0.302644 0.0929228 1.116 255 255 255
-0.205368 -0.192602 0.891 255 255 255
0.806154 -0.137911 2.365 255 255 255
0.77444 0.197669 1.923 255 255 255
-0.221451 -0.369751 2.743 255 255 255
-0.300554 0.244195 0.714 255 255 255
-0.199997 0.0461671 0.589 255 255 255
-0.279484 0.0502731 0.56 255 255 255
-0.206883 -0.0365826 2.286 255 255 255
0.262332 0.341366 1.887 255 255 255
-0.31095 0.241226 0.832 255 255 255
0.638769 0.239519 2.128 255 255 255
-0.315549 -0.267486 0.848 255 255 255
-0.0975637 0.351764 1.784 255 255 255
0.863097 -0.451819 2.044 255 255 255
-0.31001 0.179818 0.994 255 255 255
0.0267984 0.242813 1.959 255 255 255
-0.218665 -0.0906713 0.765 255 255 255
0.724612 -0.108548 2.582 255 255 255
0.61002 0.259495 1.327 255 255 255
-0.372882 -0.0875593 0.719 255 255 255
0.390124 -0.04643 2.411 255 255 255
0.790815 -0.308956 2.32 255 255 255
-0.366017 0.283317 0.731 255 255 255
-0.327225 0.337231 1.739 255 255 255
-0.396622 -0.224194 0.816 255 255 255
-0.149717 -0.111815 2.383 255 255 255
-0.4089 -0.220996 0.814 255 255 255
0.453226 0.428763 1.815 255 255 255
0.906991 -0.648653 2.347 255 255 255
0.327753 -0.231374 2.743 255 255 255
0.320124 0.487209 1.719 255 255 255
-0.0231585 0.463683 1.655 255 255 255
-0.366007 0.478684 1.555 0 0 0
0.0959516 0.123095 2.151 255 255 255
-0.360401 -0.16447 2.158 0 0 0
-0.0918256 0.0972173 2.121 255 255 255
-0.32744 0.421181 1.668 255 255 255
-0.292842 0.208819 0.693 255 255 255
0.387159 0.525991 1.682 255 255 255
-0.182893 0.00133599 0.704 255 255 255
-0.37384 0.555378 1.439 0 0 0
-0.321595 0.145844 0.626 255 255 255
-0.338871 0.368379 1.098 255 255 255
0.287384 0.504039 1.691 255 255 255
-0.314985 0.0820735 1.357 255 255 255
0.35584 -0.139299 2.53 255 255 255
0.11182 0.338295 1.887 255 255 255
0.397125 0.217302 2.114 255 255 255
-0.0826383 0.158422 2.064 255 255 255
-0.254822 -0.04745 0.697 255 255 255
0.655155 -0.233483 2.768 255 255 255
-0.357084 0.385223 1.642 255 255 255
-0.322556 -0.0746888 0.719 255 255 255
0.349771 0.237273 2.078 255 255 255
-0.316816 -0.0253657 0.654 255 255 255
-0.167136 -0.439241 2.731 255 255 255
-0.318051 -0.264278 0.851 255 255 255
-0.201481 -0.147426 0.856 255 255 255
0.372647 0.478788 1.729 255 255 255
-0.359518 0.124031 1.997 0 0 0
-0.347076 0.238267 0.7 255 255 255
-0.195493 0.0301414 0.614 255 255 255
-0.354343 -0.284104 0.787 255 255 255
-0.282438 -0.36212 1.108 0 0 0
0.681954 0.0125203 2.43 255 255 255
-0.239098 -0.166502 0.861 255 255 255
-0.304973 0.269778 0.733 255 255 255
-0.379058 -0.28376 0.762 255 255 255
-0.240406 0.102697 2.092 255 255 255
-0.33005 -0.429651 2.755 255 255 255
0.810365 -0.165545 2.269 255 255 255
0.62619 0.248505 1.466 255 255 255
-0.142655 -0.488814 1.336 255 255 255
0.794691 0.0280726 1.882 255 255 255
-0.0123825 0.466376 1.655 255 255 255
-0.346119 -0.140681 2.347 255 255 255
0.523895 0.249955 2.071 255 255 255
0.0564047 0.230579 1.991 255 255 255
-0.317622 0.15026 1.439 255 255 255
0.347366 -0.312859 2.793 255 255 255
0.414032 0.122541 2.204 255 255 255
0.864537 -0.506806 2.121 255 255 255
0.440361 0.584244 1.616 255 255 255
-0.206183 -0.06733 2.32 255 255 255
-0.275423 0.152058 2.024 255 255 255
-0.126443 -0.0652804 2.383 255 255 255
0.776773 0.0840009 2.136 255 255 255
0.0903069 -0.313419 2.719 255 255 255
-0.227468 -0.0872594 0.757 255 255 255
-0.364548 -0.12102 0.776 255 255 255
0.878631 -0.541725 2.057 255 255 255
-0.135834 0.214121 1.959 255 255 255
-0.302467 0.127385 2.051 255 255 255
0.862261 -0.64747 2.107 255 255 255
0.597831 0.322905 1.187 255 255 255
0.500791 0.502808 1.744 255 255 255
-0.0508788 0.506571 1.595 255 255 255
0.313773 -0.174498 2.626 255 255 255
-0.23796 -0.370492 1.128 255 255 255
0.530978 0.232839 2.099 255 255 255
-0.237036 0.344754 1.763 255 255 255
-0.190658 0.0621892 0.605 255 255 255
0.738321 0.194449 2.166 0 0 0
0.588516 0.371622 1.342 255 255 255
-0.314795 -0.393086 1.114 255 255 255
0.653161 -0.0917406 2.582 255 255 255
0.257812 0.480213 1.714 255 255 255
0.546658 0.39482 1.893 255 255 255
-0.259371 0.0388133 2.136 255 255 255
0.309474 0.583715 1.579 255 255 255
-0.256055 -0.14407 0.821 255 255 255
-0.368404 0.271179 0.724 255 255 255
-0.312455 -0.0326182 2.269 255 255 255
-0.137586 -0.244039 2.593 255 255 255
0.121415 -0.212958 2.626 255 255 255
-0.283541 0.519854 1.52 255 255 255
-0.288024 0.100974 0.579 255 255 255
0.29476 -0.13324 2.572 255 255 255
0.0637476 0.407246 1.748 255 255 255
0.853509 -0.314362 2.037 255 255 255
-0.309572 -0.318039 0.843 255 255 255
-0.311638 -0.362119 0.964 0 0 0
-0.309006 0.0610683 1.244 255 255 255
-0.198291 0.153561 2.044 255 255 255
-0.309099 -0.268845 0.889 255 255 255
-0.0878056 0.000618101 2.286 255 255 255
0.603808 0.321392 1.342 255 255 255
-0.289462 0.177426 0.685 255 255 255
0.524945 0.061744 2.347 255 255 255
0.586604 0.478813 1.4 255 255 255
-0.334708 0.374704 1.691 255 255 255
0.196188 0.381505 1.815 255 255 255
-0.308717 0.242865 0.852 255 255 255
-0.263424 0.360615 1.729 255 255 255
0.550123 0.366322 1.905 255 255 255
-0.0119096 -0.375275 2.818 255 255 255
0.789981 0.0556047 2.253 255 255 255
-0.370755 -0.245061 2.22 0 0 0
-0.368768 0.403849 1.305 255 255 255
-0.243225 -0.19121 1.239 255 255 255
0.16701 -0.320649 2.743 255 255 255
-0.364783 0.531832 1.498 255 255 255
0.790437 -0.317151 2.411 255 255 255
-0.153312 0.253918 1.899 255 255 255
-0.33211 -0.248855 0.841 255 255 255
-0.312642 0.262405 0.895 255 255 255
0.663848 0.140893 1.439 255 255 255
-0.192755 -0.412058 1.201 255 255 255
-0.302444 -0.323092 0.895 0 0 0
-0.317953 0.273771 0.862 255 255 255
0.544993 0.552233 1.646 0 0 0
-0.204883 -0.349498 1.108 255 255 255
0.809925 -0.0104377 1.673 255 255 255
-0.0382555 -0.118898 2.449 255 255 255
-0.0418897 0.462282 1.65 255 255 255
0.594677 0.44757 1.696 0 0 0
-0.352504 0.220577 0.684 255 255 255
-0.268981 0.0328593 0.591 255 255 255
0.585901 0.332813 1.491 255 255 255
-0.307914 -0.0280408 0.667 255 255 255
0.604981 0.38833 1.229 255 255 255
-0.131886 0.572746 1.484 255 255 255
0.078528 0.306453 1.899 255 255 255
-0.33426 -0.0770288 0.719 255 255 255
-0.145545 -0.392069 2.743 255 255 255
-0.219267 -0.0051288 0.652 255 255 255
-0.136245 -0.292418 2.649 255 255 255
0.601999 0.395685 1.227 255 255 255
0.831589 -0.190488 2.024 255 255 255
-0.0202234 0.0439523 2.22 255 255 255
0.683465 0.366322 1.905 255 255 255
-0.345914 -0.123961 2.32 255 255 255
-0.257489 0.0218955 0.607 255 255 255
0.39023 0.0812694 2.253 255 255 255
-0.107713 0.188847 2.03 255 255 255
-0.314026 -0.0225843 1.281 255 255 255
-0.190767 -0.0368845 0.712 255 255 255
-0.297593 0.0416196 1.104 255 255 255
-0.200738 0.0785838 0.554 255 255 255
0.82441 -0.302908 2.871 0 0 0
-0.285002 0.147328 0.685 255 255 255
-0.25671 0.0142237 0.617 255 255 255
-0.229132 0.00121643 0.641 255 255 255
0.566153 0.474023 1.753 255 255 255
-0.337189 -0.0868785 0.733 255 255 255
-0.141336 0.472331 1.62 255 255 255
0.58371 0.489536 1.336 255 255 255
0.694198 -0.266163 2.78 255 255 255
-0.131385 -0.295496 2.638 255 255 255
-0.335177 0.214697 0.676 255 255 255
0.82864 -0.265601 2.181 255 255 255
0.893767 -0.712713 1.865 255 255 255
0.497407 0.350822 1.905 255 255 255
0.575085 0.101812 2.303 255 255 255
-0.236299 -0.121395 0.795 255 255 255
-0.354888 -0.045717 2.189 255 255 255
-0.296035 -0.139379 0.817 255 255 255
0.784483 -0.245413 2.479 255 255 255
-0.163452 -0.22314 0.96 255 255 255
-0.0364127 0.273625 1.929 255 255 255
-0.279535 0.130632 0.612 255 255 255
0.396691 0.277219 2.024 255 255 255
-0.194326 -0.0130181 0.676 255 255 255
0.460485 0.30976 1.959 255 255 255
-0.339488 0.336829 1.1 255 255 255
0.474771 0.601517 1.599 255 255 255
-0.0988293 0.456704 1.659 255 255 255
0.619489 0.0726406 2.329 255 255 255
-0.332964 -0.138697 0.813 255 255 255
0.0749432 0.109094 2.151 255 255 255
0.963623 -0.677564 2.638 255 255 255
-0.274622 -0.208327 0.909 255 255 255
-0.314667 -0.148619 0.824 255 255 255
-0.346134 0.331136 1.232 255 255 255
-0.231251 0.125257 2.071 255 255 255
0.21831 0.497183 1.668 255 255 255
0.465993 0.32699 1.929 255 255 255
-0.312372 0.145646 1.145 255 255 255
-0.193366 0.0516238 0.62 255 255 255
0.606139 0.328577 1.372 255 255 255
-0.0764503 0.55496 1.535 255 255 255
0.154628 0.584473 1.547 255 255 255
-0.195737 -0.0867093 0.763 255 255 255
0.815258 -0.121992 2.092 255 255 255
-0.322093 -0.0992121 0.745 255 255 255
0.800756 -0.189603 2.338 255 255 255
0.45176 0.424254 1.821 255 255 255
0.577666 0.437526 1.452 255 255 255
0.678974 0.0486353 1.412 255 255 255
-0.427989 -0.20081 0.852 255 255 255
-0.366509 -0.193796 0.864 255 255 255
0.761432 -0.388447 2.953 255 255 255
0.842367 -0.408976 1.7 255 255 255
-0.306945 0.161104 0.969 255 255 255
0.865775 -0.350409 1.753 255 255 255
-0.16901 -0.172289 0.914 255 255 255
0.587049 0.431715 1.532 255 255 255
-0.360825 -0.0577802 0.685 255 255 255
0.785133 0.0785622 1.714 255 255 255
-0.181474 -0.0600157 0.771 255 255 255
0.271588 0.14602 2.128 255 255 255
-0.285113 0.362378 1.724 255 255 255
0.808742 0.0444275 2.244 255 255 255
-0.151509 0.471165 1.616 255 255 255
-0.101239 0.553875 1.532 255 255 255
0.815924 -0.135155 2.085 255 255 255
0.826762 -0.424952 2.294 255 255 255
0.557542 0.301469 2.01 255 255 255
-0.309555 -0.0708816 0.716 255 255 255
-0.222454 0.0546886 0.568 255 255 255
0.21236 0.359338 1.853 255 255 255
0.144718 -0.400041 2.831 255 255 255
0.291475 0.297008 1.959 255 255 255
0.259974 0.209388 2.037 255 255 255
0.655213 0.265465 2.114 255 255 255
-0.406079 -0.219688 0.819 255 255 255
-0.30458 -0.284402 0.897 255 255 255
-0.246854 0.0338211 0.591 255 255 255
0.475829 0.150536 2.143 255 255 255
-0.362854 -0.189139 0.862 255 255 255
0.522007 0.379417 1.893 255 255 255
-0.245293 0.549468 1.513 255 255 255
0.838174 -0.166908 1.686 255 255 255
0.729269 -0.276498 2.793 255 255 255
0.619881 -0.315188 2.898 255 255 255
-0.0776457 0.540804 1.559 255 255 255
0.603938 0.328399 1.362 255 255 255
-0.163247 0.447524 1.655 255 255 255
-0.0652495 0.00803005 2.278 255 255 255
0.30249 0.433693 1.763 255 255 255
-0.36072 -0.258493 0.807 255 255 255
0.745509 -0.161678 2.626 255 255 255
0.196289 0.393508 1.789 255 255 255
-0.31729 0.0917347 1.603 255 255 255
0.711083 -0.276498 2.793 255 255 255
0.726417 -0.230362 2.731 255 255 255
0.163656 0.367391 1.848 255 255 255
0.535934 0.0796352 2.312 255 255 255
-0.222751 0.011375 0.626 255 255 255
-0.469449 -0.499002 2.925 255 255 255
0.0764902 0.000622698 2.303 255 255 255
-0.237486 0.0943515 0.562 255 255 255
-0.292693 0.198489 0.677 255 255 255
-0.313065 0.165779 1.991 255 255 255
-0.333735 0.301797 1.007 255 255 255
-0.356202 0.188424 1.893 255 255 255
0.670016 -0.236869 2.755 255 255 255
-0.366007 0.473623 1.555 0 0 0
0.175736 -0.247126 2.672 255 255 255
-0.204125 -0.0982891 0.776 255 255 255
0.649489 0.311161 1.646 255 255 255
-0.26943 -0.237321 0.948 255 255 255
0.468531 0.307667 1.966 255 255 255
-0.376292 0.477523 1.535 255 255 255
0.0674666 0.118761 2.136 255 255 255
-0.311242 0.083495 1.547 255 255 255
-0.0775138 -0.0257116 2.312 255 255 255
-0.278426 -0.0268341 0.664 255 255 255
-0.271648 0.124067 0.619 255 255 255
0.470728 -0.098903 2.55 255 255 255
-0.365474 -0.184821 0.855 255 255 255
-0.296766 -0.0617618 0.705 255 255 255
0.853003 -0.272441 1.997 255 255 255
-0.392387 -0.207901 0.847 0 0 0
-0.319886 0.373932 1.7 255 255 255
-0.303323 -0.0670978 2.312 255 255 255
-0.308242 0.135 1.217 255 255 255
-0.322506 -0.30427 0.81 0 0 0
-0.405267 -0.226025 0.799 255 255 255
-0.290457 0.146858 0.751 255 255 255
-0.286587 0.00016845 0.623 255 255 255
-0.337321 0.440187 1.599 255 255 255
-0.311233 0.278118 0.798 255 255 255
0.0252967 0.140614 2.099 255 255 255
0.560578 0.535926 1.629 0 0 0
0.802455 0.0191512 2.278 255 255 255
0.804478 -0.0294954 1.673 255 255 255
-0.223928 0.0182695 0.618 255 255 255
0.198327 0.217502 2.051 255 255 255
0.005877 0.582137 1.502 255 255 255
0.469563 0.494294 1.744 255 255 255
-0.270069 0.00823919 0.62 255 255 255
0.819415 -0.115733 2.166 255 255 255
0.318792 0.578925 1.587 255 255 255
-0.279769 -0.0233438 0.657 255 255 255
0.467575 -0.314203 2.805 255 255 255
0.805989 0.0198832 1.705 255 255 255
-0.198144 0.056592 0.578 255 255 255
-0.27869 0.366921 1.719 255 255 255
-0.276572 -0.0446629 0.689 255 255 255
-0.310134 0.222132 0.909 255 255 255
0.23049 0.311294 1.929 255 255 255
-0.291383 0.155175 0.744 255 255 255
0.83212 -0.433109 2.278 255 255 255
0.388956 0.478727 1.739 255 255 255
-0.384921 -0.522692 2.898 255 255 255
-0.199373 0.0194311 0.623 255 255 255
-0.0936402 -0.381036 2.793 255 255 255
-0.250375 -0.160141 1.16 255 255 255
0.143447 -0.0377028 2.356 255 255 255
-0.339182 -0.223302 0.892 0 0 0
0.214098 0.369195 1.842 255 255 255
-0.341481 -0.285362 0.805 255 255 255
-0.207018 -0.104805 0.787 255 255 255
-0.335426 -0.0296681 0.655 255 255 255
0.680965 0.315648 2.017 255 255 255
-0.319271 -0.177092 0.858 255 255 255
0.405611 0.0232797 2.32 255 255 255
0.313505 -0.194072 2.66 255 255 255
-0.298791 -0.279773 0.989 255 255 255
-0.330581 0.355391 0.983 255 255 255
0.60066 0.321124 1.516 255 255 255
-0.296235 0.201799 0.712 255 255 255
-0.403791 -0.26072 0.786 255 255 255
0.809452 -0.0837078 2.469 255 255 255
0.639175 0.0497477 1.265 255 255 255
0.635262 0.251556 1.528 255 255 255
0.848051 -0.413371 1.673 255 255 255
-0.341121 -0.290873 0.795 0 0 0
0.869929 -0.387451 1.779 255 255 255
-0.318265 0.227135 0.687 255 255 255
0.415902 0.103268 2.253 255 255 255
-0.188152 -0.0191212 0.698 255 255 255
-0.190492 0.337248 1.784 255 255 255
-0.31132 -0.0290389 0.665 255 255 255
-0.370956 0.426553 1.587 0 0 0
-0.294829 0.189782 0.662 255 255 255
0.0132472 0.349347 1.848 255 255 255
-0.195316 0.00334904 0.65 255 255 255
0.572931 0.494761 1.4 255 255 255
-0.314229 -0.266532 0.921 255 255 255
-0.191352 0.521703 1.555 255 255 255
-0.272931 0.120078 0.604 255 255 255
-0.0820662 0.373444 1.763 255 255 255
0.00856508 0.0682741 2.189 255 255 255
-0.169725 -0.0564383 2.338 255 255 255
-0.32068 -0.00595358 1.291 255 255 255
-0.375302 -0.122112 0.767 255 255 255
-0.292879 -0.240928 0.944 255 255 255
0.807504 -0.0239785 1.668 255 255 255
-0.279729 -0.0843228 0.742 255 255 255
-0.171685 -0.0763332 2.365 255 255 255
0.865152 -0.293504 1.882 255 255 255
0.426828 0.122097 2.196 255 255 255
-0.297949 0.175765 0.65 255 255 255
0.751082 0.240267 1.865 255 255 255
-0.37264 0.353778 1.551 255 255 255
-0.239096 0.558809 1.505 255 255 255
-0.154655 -0.485521 1.327 255 255 255
0.343199 0.197313 2.121 255 255 255
0.140171 0.402888 1.779 255 255 255
-0.08436 0.117148 2.107 255 255 255
0.869744 -0.523708 2.092 255 255 255
0.583868 -0.154472 2.649 255 255 255
0.668508 -0.337165 2.925 255 255 255
0.121894 0.188011 2.057 255 255 255
-0.305434 0.240159 0.764 255 255 255
0.835155 -0.106863 1.691 255 255 255
0.0155413 -0.364414 2.805 255 255 255
-0.315315 -0.561445 2.953 255 255 255
0.819596 -0.0939325 1.758 255 255 255
0.0548178 -0.0374148 2.338 255 255 255
-0.153016 -0.0766237 2.374 255 255 255
0.0475092 0.46166 1.677 255 255 255
0.407644 -0.448228 2.967 255 255 255
0.557603 0.549806 1.449 255 255 255
-0.147761 0.0297142 2.236 255 255 255
0.597589 0.397329 1.333 255 255 255
-0.253966 0.0255911 0.601 255 255 255
-0.265435 0.0282879 0.596 255 255 255
-0.208322 -0.020688 0.675 255 255 255
0.32149 -0.109998 2.519 255 255 255
-0.297929 -0.0121708 0.632 255 255 255
-0.273414 0.0406019 0.578 255 255 255
0.831453 -0.13731 1.882 255 255 255
0.554162 0.572746 1.484 255 255 255
0.102457 0.419702 1.729 255 255 255
-0.23674 0.023871 0.607 255 255 255
0.601639 0.310074 1.286 255 255 255
-0.304608 -0.310532 0.872 255 255 255
0.646577 0.194511 1.491 255 255 255
0.568918 0.4823 1.466 255 255 255
-0.322261 0.221314 1.911 255 255 255
0.552487 0.337453 1.935 255 255 255
-0.377737 -0.169347 0.827 255 255 255
-0.199183 0.00539731 0.642 255 255 255
-0.298314 -0.050342 0.69 255 255 255
-0.246036 0.0426301 0.58 255 255 255
0.421742 0.517787 1.7 255 255 255
0.476635 -0.129557 2.582 255 255 255
0.496678 0.534202 1.682 255 255 255
-0.368161 0.117179 1.991 255 255 255
-0.209264 0.311646 1.821 255 255 255
-0.223983 -0.327064 1.07 255 255 255
-0.297001 -0.0806936 0.731 255 255 255
-0.119808 0.567916 1.484 255 255 255
0.847153 -0.344392 2.719 255 255 255
-0.346196 0.200799 1.923 255 255 255
-0.156717 0.529474 1.563 255 255 255
0.595776 0.343771 1.953 255 255 255
0.605658 0.310357 1.351 255 255 255
-0.181945 -0.0639452 0.773 255 255 255
0.825777 -0.157097 1.729 255 255 255
-0.326354 0.254412 1.092 255 255 255
0.689672 -0.270687 2.78 255 255 255
0.877012 -0.660147 2.03 255 255 255
-0.27639 0.0585378 0.552 255 255 255
0.216165 0.152945 2.128 255 255 255
-0.320295 -0.195953 0.88 255 255 255
0.721722 0.107693 2.269 0 0 0
0.365509 -0.0744767 2.43 255 255 255
-0.308386 0.213641 0.917 255 255 255
0.901753 -0.744915 1.941 255 255 255
-0.249778 0.1378 2.057 255 255 255
-0.18259 0.406741 1.71 255 255 255
-0.331233 -0.287844 0.812 255 255 255
-0.325218 0.329016 0.931 255 255 255
-0.138917 0.539972 1.535 255 255 255
-0.261934 -0.0387166 0.683 255 255 255
0.272145 0.353506 1.87 255 255 255
0.824736 -0.361966 2.228 255 255 255
0.58732 0.376285 1.375 255 255 255
0.431752 0.612993 1.575 255 255 255
-0.248342 0.0509913 0.568 255 255 255
-0.332062 -0.0814351 0.727 255 255 255
0.543915 0.51805 1.71 255 255 255
-0.33665 -0.267311 0.822 255 255 255
0.604794 0.373817 1.275 255 255 255
-0.226526 0.465925 1.607 255 255 255
-0.346896 -0.161295 1.876 255 255 255
-0.351104 0.228126 0.69 255 255 255
-0.261539 0.0647084 0.551 255 255 255
0.829109 -0.1859 2.01 255 255 255
-0.31298 0.219895 0.978 255 255 255
-0.221346 -0.00304498 2.244 255 255 255
0.0544533 0.421293 1.724 255 255 255
0.297494 -0.0188161 2.392 255 255 255
-0.379603 -0.252696 0.797 255 255 255
-0.270999 0.062131 0.552 255 255 255
-0.366153 0.493942 1.524 0 0 0
-0.337121 0.163687 0.64 255 255 255
-0.222098 -0.201742 0.906 255 255 255
-0.213379 0.36448 1.734 255 255 255
0.811663 -0.113256 2.057 255 255 255
-0.244369 0.0558405 0.561 255 255 255
0.611941 0.255456 1.375 255 255 255
-0.208477 0.0757422 0.553 255 255 255
0.482054 0.463956 1.769 255 255 255
0.635179 -0.346684 2.925 255 255 255
0.476429 0.30976 1.959 255 255 255
-0.379049 0.530347 1.487 0 0 0
-0.242828 -0.0491419 0.705 255 255 255
-0.220482 -0.38591 2.731 255 255 255
0.880678 -0.619533 2.338 255 255 255
0.856737 -0.255575 1.729 255 255 255
0.688067 0.16317 2.22 255 255 255
0.30759 0.346586 1.882 255 255 255
-0.414609 -0.227911 0.792 255 255 255
-0.302461 -0.332578 0.874 255 255 255
-0.307068 0.083525 1.381 255 255 255
-0.076253 -0.171487 2.519 255 255 255
0.599825 0.0619808 2.356 255 255 255
-0.235996 0.0762263 0.55 255 255 255
-0.214997 0.0615367 0.563 255 255 255
-0.309481 0.0391405 1.324 255 255 255
-0.213302 0.320657 1.805 255 255 255
-0.288799 0.180359 0.663 255 255 255
0.502091 0.212612 2.136 255 255 255
-0.300174 -0.047678 0.684 255 255 255
-0.0346888 -0.144559 2.479 255 255 255
0.819318 -0.359092 2.085 255 255 255
-0.321971 0.237697 0.695 255 255 255
0.582438 0.474562 1.267 255 255 255
0.365753 0.311031 1.947 255 255 255
-0.278841 0.501495 1.563 255 255 255
0.821402 -0.194131 2.099 255 255 255
-0.0529334 0.146462 2.085 255 255 255
-0.348207 0.258138 0.714 255 255 255
0.868484 -0.375244 2.925 0 0 0
-0.364827 0.284507 0.731 255 255 255
-0.326629 0.283319 1.087 255 255 255
-0.326461 -0.295044 0.81 0 0 0
0.638102 0.202299 1.477 255 255 255
0.0013702 0.153248 2.085 255 255 255
0.568848 0.000654333 2.42 255 255 255
-0.377468 -0.128265 0.774 255 255 255
-0.29596 -0.0100818 0.63 255 255 255
-0.300487 0.0365846 0.574 255 255 255
0.380303 -0.274023 2.768 255 255 255
0.825457 -0.126134 1.655 255 255 255
-0.265514 0.538141 1.502 255 255 255
0.836005 -0.379938 2.051 255 255 255
0.796059 0.0164189 1.953 255 255 255
-0.330063 0.170502 1.432 255 255 255
0.336699 -0.284259 2.78 255 255 255
-0.310839 0.152453 1.1 255 255 255
-0.0582265 0.536249 1.583 255 255 255
0.901412 -0.801515 2.143 255 255 255
0.116254 0.0902617 2.204 255 255 255
-0.280036 0.028098 0.592 255 255 255
-0.26087 0.00527121 0.627 255 255 255
0.260464 -0.19758 2.649 255 255 255
0.615981 0.215061 1.281 255 255 255
-0.0716152 0.234989 1.947 255 255 255
-0.196003 0.533931 1.532 255 255 255
0.778019 -0.389524 2.925 255 255 255
-0.0654585 -0.357918 2.755 255 255 255
-0.322637 0.262785 0.714 255 255 255
0.0512847 -0.185317 2.54 255 255 255
0.204407 -0.214823 2.649 255 255 255
0.0298035 0.250831 1.947 255 255 255
0.852814 -0.283335 1.744 255 255 255
0.0468225 0.221525 1.997 255 255 255
0.152234 0.320887 1.893 255 255 255
-0.313852 0.124045 0.609 255 255 255
-0.187876 0.0900161 2.114 255 255 255
0.843104 -0.30758 2.871 0 0 0
0.0170178 -0.0611706 2.374 255 255 255
-0.321208 -0.186004 0.867 255 255 255
-0.168121 0.567916 1.484 255 255 255
-0.2358 -0.19498 0.902 255 255 255
0.289011 0.0624626 2.236 255 255 255
0.66093 -0.0112523 2.44 255 255 255
-0.277333 0.00220315 0.625 255 255 255
-0.276297 0.501495 1.563 255 255 255
-0.181981 -0.0967508 0.784 255 255 255
-0.242765 -0.202591 1.247 255 255 255
0.508283 -0.108127 2.572 255 255 255
0.904912 -0.738598 1.941 255 255 255
0.864318 -0.41198 1.935 255 255 255
-0.23516 0.236863 1.911 255 255 255
0.568209 0.497507 1.535 255 255 255
0.800623 -0.141237 2.294 255 255 255
0.105705 0.238607 2.004 255 255 255
0.838074 -0.129795 1.779 255 255 255
-0.316381 -0.0289079 0.662 255 255 255
-0.301773 0.235315 0.698 255 255 255
-0.264294 0.0364579 0.587 255 255 255
-0.19798 -0.0219801 0.681 255 255 255
0.698976 0.0163963 1.406 255 255 255
-0.173845 0.292233 1.887 255 255 255
-0.324496 -0.316759 0.815 255 255 255
-0.329715 0.166709 1.345 255 255 255
0.163021 0.577374 1.555 255 255 255
0.215726 -0.0499567 2.392 255 255 255
0.603906 0.310716 1.372 255 255 255
0.753177 0.0898999 2.286 255 255 255
-0.327535 0.315831 0.96 255 255 255
0.727431 0.266895 1.799 255 255 255
-0.388981 -0.28128 0.762 255 255 255
0.637581 0.210928 1.487 255 255 255
-0.366743 -0.277967 0.77 255 255 255
-0.281984 -0.0701059 0.72 255 255 255
-0.260815 0.00826577 0.622 255 255 255
0.320955 0.0786722 2.181 255 255 255
0.792668 0.000505621 1.87 255 255 255
-0.197224 0.0402615 0.601 255 255 255
0.82111 -0.213313 2.228 255 255 255
-0.305834 0.244209 0.765 255 255 255
0.722308 -0.122185 2.604 255 255 255
0.201855 -0.389767 2.857 255 255 255
0.167137 0.113379 2.166 255 255 255
0.0409075 0.57382 1.532 255 255 255
-0.199063 0.0724021 0.562 255 255 255
0.583223 0.449438 1.815 255 255 255
0.833102 -0.0647873 2.365 255 255 255
0.595572 0.473047 1.291 255 255 255
-0.262092 -0.239073 0.955 255 255 255
0.860373 -0.421356 1.865 255 255 255
0.551104 0.552806 1.502 255 255 255
-0.190026 0.0276776 0.65 255 255 255
0.88209 -0.521245 2.004 255 255 255
0.615952 0.204216 2.121 255 255 255
-0.180641 -0.230951 0.96 255 255 255
0.607428 0.350448 1.406 255 255 255
0.631562 0.0963886 1.283 255 255 255
-0.320156 0.258977 0.952 255 255 255
0.871823 -0.452067 2.755 0 0 0
-0.373566 -0.292728 0.766 0 0 0
0.0229917 0.587026 1.502 255 255 255
-0.191896 -0.00764007 0.687 255 255 255
-0.141153 0.0840009 2.136 255 255 255
0.881459 -0.552244 2.01 255 255 255
0.320548 0.0519384 2.253 255 255 255
-0.321901 -0.359236 1.083 255 255 255
-0.365627 -0.0966843 0.735 255 255 255
0.110923 0.528688 1.607 255 255 255
-0.367592 0.40297 1.316 255 255 255
-0.307626 0.276272 1.842 255 255 255
0.620682 0.19693 1.313 255 255 255
0.580041 0.342478 1.47 255 255 255
0.374966 0.454054 1.753 255 255 255
-0.320035 0.224571 0.686 255 255 255
-0.124907 0.514337 1.579 255 255 255
0.555275 0.557133 1.629 0 0 0
-0.321033 -0.323002 1.024 255 255 255
-0.299517 0.207375 0.781 255 255 255
-0.440266 -0.204778 0.857 255 255 255
-0.395854 -0.23017 0.809 255 255 255
0.821179 -0.191226 2.143 255 255 255
0.515806 0.531344 1.673 255 255 255
-0.346779 0.221343 1.859 255 255 255
0.761303 -0.16264 2.509 255 255 255
0.860431 -0.401913 2.719 255 255 255
0.55398 0.537242 1.633 0 0 0
-0.33479 0.263851 1.587 255 255 255
-0.312118 0.163687 0.64 255 255 255
-0.262495 0.213982 1.929 255 255 255
-0.30644 0.0312272 1.187 255 255 255
0.590648 0.304867 1.192 255 255 255
0.610378 0.276949 1.278 255 255 255
-0.512576 -0.547548 2.982 255 255 255
-0.344817 0.286869 0.734 255 255 255
-0.343957 -0.193949 0.871 255 255 255
0.831337 -0.414208 2.236 255 255 255
-0.237787 -0.239671 0.97 255 255 255
-0.302125 0.123427 1.051 255 255 255
-0.140329 0.511768 1.579 255 255 255
0.609802 0.255779 1.308 255 255 255
0.0908928 0.315724 1.899 255 255 255
-0.279867 0.0217151 0.602 255 255 255
-0.0960775 0.151704 2.064 255 255 255
-0.0921647 0.0545929 2.212 255 255 255
-0.178671 -0.484672 1.313 255 255 255
0.894605 -0.629907 1.899 255 255 255
-0.172335 -0.331444 1.096 255 255 255
-0.207356 0.209124 1.972 255 255 255
-0.264541 0.379465 1.7 255 255 255
-0.192654 0.00566634 0.674 255 255 255
-0.245505 0.0502433 0.57 255 255 255
-0.0365665 0.551397 1.539 255 255 255
-0.321088 0.147098 0.627 255 255 255
-0.171388 -0.221281 0.952 255 255 255
-0.194782 -0.00963163 0.67 255 255 255
-0.292842 0.199797 0.693 255 255 255
-0.215198 -0.205143 0.908 255 255 255
-0.393003 -0.126774 0.765 255 255 255
-0.337496 0.336655 1.06 255 255 255
0.603108 0.343412 1.396 255 255 255
-0.275377 -0.199738 0.897 255 255 255
-0.247312 0.423453 1.677 255 255 255
0.870855 -0.511942 2.128 255 255 255
0.636664 0.135971 1.244 255 255 255
-0.166453 0.505336 1.583 255 255 255
-0.321663 -0.342659 1.059 0 0 0
-0.327912 -0.235571 0.889 0 0 0
-0.313101 0.253076 0.868 255 255 255
0.614967 0.105972 2.312 255 255 255
0.828003 -0.0903314 2.329 255 255 255
-0.226477 0.022148 0.614 255 255 255
-0.272772 -0.0177514 0.648 255 255 255
-0.389491 -0.280407 0.763 255 255 255
-0.201381 -0.103261 0.785 255 255 255
-0.0166097 0.0439523 2.22 255 255 255
-0.140687 -0.506075 1.359 255 255 255
-0.0456811 -0.0859846 2.42 255 255 255
-0.190525 -0.0502411 0.738 255 255 255
0.846461 -0.285506 2.044 255 255 255
0.587635 0.458831 1.381 255 255 255
0.484994 0.596681 1.607 255 255 255
0.598147 0.468028 1.283 255 255 255
-0.283944 0.353192 1.734 255 255 255
0.605699 0.328598 1.327 255 255 255
0.572494 0.447659 1.439 255 255 255
-0.299047 -0.485184 2.844 255 255 255
0.827423 -0.38566 2.499 255 255 255
0.837697 -0.110466 1.748 255 255 255
-0.360486 0.256616 0.713 255 255 255
0.556357 0.548412 1.477 255 255 255
0.0364592 0.55713 1.555 255 255 255
-0.392463 -0.219688 0.824 255 255 255
-0.29078 -0.0645106 0.71 255 255 255
-0.382082 -0.229017 0.819 255 255 255
-0.380275 0.431868 1.473 255 255 255
-0.293678 -0.116417 0.779 255 255 255
0.843795 -0.245929 1.917 255 255 255
0.803954 -0.00628786 2.107 255 255 255
-0.323947 0.425586 1.664 255 255 255
-0.390641 -0.289671 0.758 255 255 255
-0.258987 0.0945194 0.563 255 255 255
0.371689 -0.346155 2.805 255 255 255
0.817288 -0.314484 2.278 255 255 255
-0.273716 -0.0303928 0.671 255 255 255
-0.385071 0.506177 1.473 255 255 255
0.715701 0.231607 2.151 255 255 255
0.469498 0.369422 1.905 255 255 255
-0.25251 -0.199826 0.904 255 255 255
-0.211312 -0.162487 0.862 255 255 255
-0.272788 0.337093 1.753 255 255 255
-0.30394 0.121089 1.017 255 255 255
-0.304394 -0.352726 0.923 255 255 255
-0.249601 -0.296629 1.025 255 255 255
-0.129059 0.525729 1.567 255 255 255
-0.22915 0.100194 0.564 255 255 255
0.525229 0.527156 1.677 255 255 255
0.74051 0.232316 2.064 255 255 255
-0.162903 -0.2607 1.015 255 255 255
0.7027 0.351134 1.941 0 0 0
-0.280777 -0.017724 0.647 255 255 255
-0.350389 -0.240384 0.826 255 255 255
-0.318365 0.215865 1.077 255 255 255
-0.126403 0.551461 1.505 255 255 255
0.284224 0.299276 1.953 255 255 255
0.571077 0.479219 1.599 255 255 255
0.779706 -0.234325 2.626 255 255 255
0.382709 0.411685 1.831 255 255 255
-0.305742 0.199899 0.667 255 255 255
-0.331541 -0.0341907 0.66 255 255 255
-0.113596 0.406085 1.719 255 255 255
0.470822 0.554185 1.668 255 255 255
-0.0104769 -0.156661 2.479 255 255 255
0.750727 0.230818 1.887 255 255 255
-0.239951 -0.262864 0.992 255 255 255
-0.32011 -0.233068 0.925 255 255 255
0.209447 0.109854 2.166 255 255 255
0.83238 -0.228422 2.01 255 255 255
-0.321293 0.0872221 1.302 255 255 255
0.236241 0.388215 1.805 255 255 255
-0.331659 0.358284 0.991 255 255 255
0.0113901 -0.449243 2.911 255 255 255
-0.304853 0.131909 1.037 255 255 255
-0.315773 -0.104368 0.756 255 255 255
0.876406 -0.641415 2.044 255 255 255
-0.295525 0.181103 0.654 255 255 255
-0.199558 0.104234 0.566 255 255 255
-0.255321 0.0523748 0.563 255 255 255
-0.337647 0.261033 1.779 255 255 255
0.531643 0.00461145 2.43 255 255 255
-0.371002 -0.163369 0.824 255 255 255
-0.00594003 0.00433817 2.286 255 255 255
-0.310704 -0.0279987 0.666 255 255 255
-0.234571 -0.132569 0.816 255 255 255
0.641758 0.169694 1.406 255 255 255
0.414056 0.571096 1.616 255 255 255
-0.325383 0.273727 0.977 255 255 255
-0.221998 -0.260744 0.984 255 255 255
0.0626489 -0.281912 2.672 255 255 255
-0.219247 -0.333945 1.081 255 255 255
0.215458 0.296518 1.935 255 255 255
-0.355587 -0.0651965 1.923 255 255 255
-0.305435 -0.410956 1.154 255 255 255
-0.0865681 0.569312 1.494 255 255 255
0.823879 -0.535072 2.286 255 255 255
-0.292308 -0.192092 0.882 255 255 255
0.298389 0.00824155 2.338 255 255 255
-0.172863 -0.052431 2.329 255 255 255
0.760669 0.128193 2.064 255 255 255
-0.198537 -0.0661214 0.741 255 255 255
-0.392338 -0.133648 0.776 255 255 255
0.239311 0.562261 1.591 255 255 255
0.855449 -0.482987 1.779 255 255 255
-0.292884 0.149852 0.63 255 255 255
0.752458 0.232525 1.876 255 255 255
-0.0856347 0.20976 1.978 255 255 255
-0.372256 -0.237182 0.815 255 255 255
-0.194763 -0.138256 0.851 255 255 255
-0.301717 -0.0695217 0.714 255 255 255
-0.242445 -0.255632 0.989 255 255 255
-0.362366 0.369667 1.275 255 255 255
-0.269883 0.450126 1.616 255 255 255
0.109819 0.541548 1.591 255 255 255
0.136531 0.245168 1.978 255 255 255
-0.285544 0.156037 0.689 255 255 255
-0.0746183 0.485635 1.603 255 255 255
-0.421094 -0.187269 0.841 255 255 255
0.151717 0.161108 2.099 255 255 255
-0.210424 -0.0653183 0.732 255 255 255
-0.249971 -0.154423 0.841 255 255 255
-0.308745 0.148914 1.062 255 255 255
-0.403024 -0.259771 0.787 255 255 255
0.833582 -0.177995 1.959 255 255 255
0.819007 -0.29292 2.615 255 255 255
-0.328014 0.255924 1.122 255 255 255
0.173319 0.440668 1.734 255 255 255
-0.286435 -0.473584 1.234 255 255 255
0.81358 0.0154442 2.278 255 255 255
0.811612 -0.060596 2.212 255 255 255
0.681746 -0.152769 2.695 255 255 255
-0.376661 -0.576664 2.982 255 255 255
0.79056 -0.0553644 1.633 255 255 255
0.0282856 -0.0490168 2.347 255 255 255
-0.28498 -0.192963 0.886 255 255 255
-0.162929 0.492229 1.599 255 255 255
-0.238841 -0.0856865 0.754 255 255 255
0.824671 -0.171093 1.953 255 255 255
-0.269611 0.0790549 0.551 255 255 255
-0.26875 -0.277169 0.997 255 255 255
0.620682 0.19052 1.313 255 255 255
-0.345299 -0.141517 0.814 255 255 255
-0.292367 0.447069 1.624 255 255 255
-0.347601 -0.0398007 0.664 255 255 255
-0.282359 0.149772 0.634 255 255 255
0.833953 -0.273335 2.158 255 255 255
-0.234632 -0.0307099 0.678 255 255 255
-0.298246 0.193395 0.781 255 255 255
-0.324275 -0.154473 2.383 255 255 255
-0.305685 0.0149386 1.281 255 255 255
0.64204 0.341734 1.978 255 255 255
0.583623 0.436662 1.473 255 255 255
0.781197 -0.327745 2.884 255 255 255
-0.170618 -0.437193 1.239 255 255 255
0.662223 0.317683 2.03 255 255 255
-0.288662 0.148852 0.725 255 255 255
-0.300983 0.536521 1.484 255 255 255
0.23629 0.52417 1.642 255 255 255
0.259485 0.457399 1.744 255 255 255
0.501987 0.247418 2.078 255 255 255
0.449865 0.603022 1.603 255 255 255
-0.172952 0.570331 1.484 255 255 255
0.762229 0.0979334 1.664 255 255 255
-0.138111 -0.539966 2.967 255 255 255
-0.221871 0.04554 0.581 255 255 255
0.347416 0.3619 1.882 255 255 255
-0.267846 0.00221725 0.629 255 255 255
0.226647 0.0827869 2.196 255 255 255
-0.348106 -0.0950618 0.741 255 255 255
-0.268764 0.00626144 0.624 255 255 255
-0.307507 -0.0573273 0.693 255 255 255
0.706931 -0.052609 2.519 0 0 0
-0.249182 0.00427799 0.631 255 255 255
0.647753 0.145814 1.375 255 255 255
-0.298579 0.198704 0.772 255 255 255
-0.297872 0.0922933 1.412 255 255 255
-0.313619 -0.25663 0.902 0 0 0
-0.297491 -0.568935 2.967 255 255 255
0.847919 -0.443211 2.114 255 255 255
0.860964 -0.427682 1.893 255 255 255
0.729744 -0.0276346 1.435 255 255 255
0.584925 0.43328 1.52 255 255 255
-0.30946 0.13402 0.967 255 255 255
0.833152 -0.248917 2.044 255 255 255
0.267347 -0.238199 2.719 255 255 255
0.471344 0.450077 1.794 255 255 255
-0.221778 0.0350771 0.596 255 255 255
0.604155 0.465435 1.305 255 255 255
0.421191 -0.239501 2.684 255 255 255
0.892376 -0.675883 1.831 255 255 255
0.578907 0.436033 1.409 255 255 255
0.585788 0.477305 1.409 255 255 255
0.293658 0.208804 2.064 255 255 255
-0.119374 0.364837 1.763 255 255 255
-0.421461 -0.375346 2.626 255 255 255
0.656628 0.146153 2.236 255 255 255
0.578236 0.358931 1.509 255 255 255
-0.282873 -0.175112 0.862 255 255 255
-0.26375 0.0780164 0.55 255 255 255
0.59828 0.443563 1.169 255 255 255
0.806163 0.0117371 2.278 255 255 255
-0.395164 -0.227339 0.813 255 255 255
-0.308866 0.227281 0.872 255 255 255
-0.207865 -0.13285 0.826 255 255 255
-0.246001 0.101082 0.569 255 255 255
0.28951 0.0761908 2.212 255 255 255
0.544634 0.0471794 2.383 255 255 255
0.0287135 0.14403 2.099 255 255 255
-0.275478 -0.044617 1.316 255 255 255
-0.297948 0.434057 1.655 255 255 255
0.823879 -0.0886637 2.286 255 255 255
-0.33426 -0.0741694 0.714 255 255 255
-0.131036 -0.416108 1.286 255 255 255
-0.29067 0.192729 0.68 255 255 255
0.664983 0.0764307 2.329 255 255 255
-0.362173 -0.129724 2.107 0 0 0
-0.301204 -0.310251 0.9 0 0 0
0.609047 0.23528 2.121 255 255 255
0.855999 -0.513416 2.43 255 255 255
-0.338287 0.317232 1.036 255 255 255
-0.299846 0.0401102 0.571 255 255 255
-0.322748 -0.237557 0.875 0 0 0
-0.253816 0.0476271 0.572 255 255 255
0.840093 -0.204921 1.753 255 255 255
-0.315556 -0.251725 0.895 0 0 0
-0.0963723 0.230392 1.935 255 255 255
-0.0753253 -0.491683 2.967 255 255 255
0.250027 0.209388 2.037 255 255 255
-0.058303 0.38817 1.739 255 255 255
-0.316617 -0.259497 0.928 0 0 0
0.27143 0.0193614 2.303 255 255 255
-0.327748 -0.243505 0.851 255 255 255
0.837465 -0.477018 2.158 255 255 255
-0.249879 -0.160225 0.85 255 255 255
0.759693 0.211139 1.991 255 255 255
0.84746 -0.245986 1.87 255 255 255
-0.368747 -0.0920827 0.727 255 255 255
0.20148 0.527693 1.62 255 255 255
0.600072 0.471482 1.31 255 255 255
0.080239 0.00811817 2.303 255 255 255
0.54075 0.260065 2.071 255 255 255
-0.200426 0.422443 1.673 255 255 255
-0.287639 -0.231799 0.932 255 255 255
-0.302241 0.0582745 1.149 255 255 255
-0.284732 0.155663 0.637 255 255 255
0.122895 -0.339985 2.755 255 255 255
-0.263787 0.0355631 0.588 255 255 255
0.215078 0.501407 1.664 255 255 255
0.291703 -0.146364 2.582 255 255 255
0.531643 0.199359 2.143 255 255 255
-0.380841 -0.0915761 0.723 255 255 255
0.79659 0.0520365 1.978 255 255 255
-0.335301 0.386542 1.032 255 255 255
-0.359298 -0.0540387 0.68 255 255 255
-0.355541 0.346511 1.599 255 255 255
0.583549 0.420116 1.449 255 255 255
0.579599 -0.426231 2.982 255 255 255
-0.32648 0.338838 0.893 255 255 255
0.611825 -0.056258 2.499 255 255 255
-0.277501 -0.00188009 0.63 255 255 255
0.819701 -0.130855 2.244 255 255 255
-0.20355 0.498949 1.571 255 255 255
-0.238218 0.150234 2.044 255 255 255
0.00350059 0.563848 1.532 255 255 255
0.649161 0.246445 2.128 255 255 255
0.68654 0.0137671 1.372 255 255 255
-0.336084 0.166288 0.642 255 255 255
-0.0978372 0.349839 1.789 255 255 255
0.697537 0.329469 1.805 255 255 255
-0.359871 -0.243083 0.817 255 255 255
-0.227634 -0.104273 0.783 255 255 255
-0.050215 -0.126868 2.449 255 255 255
0.0333855 0.0822214 2.181 255 255 255
-0.377217 0.435163 1.452 255 255 255
-0.30345 -0.025676 0.662 255 255 255
-0.296884 0.00418308 0.617 255 255 255
0.220893 0.597425 1.535 255 255 255
0.628564 0.0711903 1.244 255 255 255
0.767069 0.163516 1.789 255 255 255
-0.333689 -0.0436257 0.673 255 255 255
-0.289658 -0.00837264 1.342 255 255 255
-0.300795 0.0322477 0.58 255 255 255
-0.250042 0.420724 1.677 255 255 255
-0.396163 -0.148011 0.799 255 255 255
-0.286908 0.15249 0.709 255 255 255
0.825989 -0.369925 2.051 255 255 255
-0.174292 0.303023 1.859 255 255 255
-0.170073 -0.325251 2.707 255 255 255
-0.371679 0.335243 1.547 255 255 255
0.0481339 -0.214502 2.593 255 255 255
0.190255 0.446311 1.734 255 255 255
0.787988 0.172778 1.997 255 255 255
-0.192668 0.0677108 0.593 255 255 255
0.179073 0.471247 1.682 255 255 255
0.285575 0.599578 1.547 255 255 255
0.322512 0.60305 1.543 255 255 255
-0.382145 0.551499 1.435 255 255 255
0.650526 0.402902 1.805 0 0 0
-0.376484 0.410978 1.567 255 255 255
0.478726 0.527609 1.696 255 255 255
-0.214915 -0.0239833 0.675 255 255 255
0.586073 0.0655634 2.347 255 255 255
-0.359082 -0.0887771 0.729 255 255 255
0.680574 0.184469 2.173 255 255 255
-0.273702 0.434057 1.655 255 255 255
-0.0209058 0.247662 1.947 255 255 255
0.786905 -0.326494 2.365 255 255 255
0.352063 0.306572 1.959 255 255 255
-0.265263 0.026525 0.6 255 255 255
-0.260944 -0.122067 1.297 255 255 255
-0.335529 0.513637 1.509 255 255 255
0.179425 0.198728 2.064 255 255 255
-0.310294 0.285601 0.74 255 255 255
0.903195 -0.790883 2.181 255 255 255
-0.128335 0.542483 1.528 255 255 255
0.84532 -0.426403 2.099 255 255 255
0.561828 0.53427 1.498 255 255 255
0.0465684 0.41199 1.744 255 255 255
-0.364874 -0.138388 0.796 255 255 255
0.067876 -0.29882 2.707 255 255 255
0.372836 0.159716 2.173 255 255 255
-0.320544 -0.0122093 0.634 255 255 255
0.330791 -0.201011 2.695 255 255 255
0.48508 0.594763 1.616 255 255 255
0.83574 -0.407569 2.181 255 255 255
0.503668 0.28939 2.017 255 255 255
-0.310429 0.180039 0.654 255 255 255
-0.334654 0.341745 1.719 255 255 255
-0.278578 -0.191412 2.459 255 255 255
0.367573 0.252469 2.064 255 255 255
0.73722 -0.142162 2.582 255 255 255
0.173146 0.590026 1.555 255 255 255
0.00786469 0.203341 2.01 255 255 255
-0.333861 0.263527 1.633 255 255 255
-0.235664 0.297254 1.842 255 255 255
0.80333 -0.0679744 1.682 255 255 255
0.243902 0.338295 1.887 255 255 255
0.274066 0.37519 1.842 255 255 255
-0.319436 0.292435 0.851 255 255 255
0.215714 0.0264604 2.269 255 255 255
-0.335586 0.263967 1.799 255 255 255
-0.252086 0.0759491 0.548 255 255 255
0.345888 -0.34776 2.818 255 255 255
-0.258968 -0.203217 0.906 255 255 255
0.28786 0.428944 1.779 255 255 255
-0.258482 -0.0272382 0.674 255 255 255
-0.305469 0.0217715 1.316 255 255 255
-0.0165728 -0.400041 2.831 255 255 255
-0.300087 0.1997 0.796 255 255 255
-0.41071 -0.253367 0.787 255 255 255
-0.0803643 0.355661 1.789 255 255 255
0.0240065 0.000622698 2.303 255 255 255
0.849142 -0.481441 1.784 255 255 255
0.630308 0.382116 1.876 255 255 255
-0.276648 0.0291105 0.593 255 255 255
-0.366345 0.482803 1.289 255 255 255
0.720758 -0.298687 2.831 255 255 255
-0.215036 -0.184937 0.889 255 255 255
-0.226673 0.159116 2.03 255 255 255
-0.0587474 0.167437 2.051 255 255 255
-0.271714 -0.0144754 0.643 255 255 255
-0.0321844 0.449945 1.705 255 255 255
0.681207 -0.310472 2.898 255 255 255
-0.280455 -0.0983463 0.757 255 255 255
0.807618 -0.00275459 2.03 255 255 255
-0.309848 -0.261023 0.887 255 255 255
-0.341548 -0.299329 0.79 0 0 0
-0.248663 0.10459 0.573 255 255 255
0.787988 0.0622857 1.997 255 255 255
-0.350148 -0.283332 0.792 255 255 255
0.57183 0.375623 1.905 255 255 255
0.416578 0.475516 1.748 255 255 255
0.571717 0.318059 1.991 255 255 255
0.367993 0.528728 1.682 255 255 255
-0.00933721 0.527336 1.595 255 255 255
0.681552 -0.137799 2.66 255 255 255
-0.230938 -0.0104819 0.655 255 255 255
-0.366972 -0.0764344 2.057 255 255 255
-0.305443 0.0879282 1.494 255 255 255
0.875283 -0.62541 2.057 255 255 255
-0.335633 0.469054 1.591 255 255 255
0.529115 0.531014 1.655 255 255 255
0.854018 -0.359092 1.905 255 255 255
0.692717 0.255618 1.686 255 255 255
-0.306729 -0.315511 0.874 255 255 255
-0.149536 -0.501652 1.359 255 255 255
0.880189 -0.529224 1.985 255 255 255
-0.374701 -0.0874375 0.718 255 255 255
0.445485 0.453374 1.784 255 255 255
0.33782 -0.0507503 2.43 255 255 255
-0.333019 -0.255977 0.833 255 255 255
-0.330545 -0.0619275 0.694 255 255 255
0.425892 0.468121 1.763 255 255 255
0.421546 0.110159 2.244 255 255 255
0.410147 0.197964 2.128 255 255 255
-0.351739 -0.0480778 0.674 255 255 255
-0.306852 -0.349048 0.954 0 0 0
-0.311407 -0.0197685 0.645 255 255 255
-0.0764569 0.509196 1.587 255 255 255
0.500791 0.508484 1.744 255 255 255
-0.357719 -0.0730267 0.703 255 255 255
0.398268 0.0525147 2.278 255 255 255
-0.307513 0.209049 0.91 255 255 255
0.875157 -0.472602 1.71 255 255 255
-0.172261 0.157424 2.051 255 255 255
-0.410676 -0.217497 0.831 255 255 255
0.846313 -0.465203 2.136 255 255 255
0.771938 -0.0453607 1.563 255 255 255
0.0184152 0.567348 1.528 255 255 255
-0.200506 0.0316687 0.605 255 255 255
-0.283757 0.161764 0.649 255 255 255
