ply
format ascii 1.0
comment Created by Open3D
element vertex 1297
property double x
property double y
property double z
property uchar red
property uchar green
property uchar blue
end_header
0.467821 0.546129 1.567 0 0 0
0.0207475 0.0128544 0.777 255 255 255
0.140295 -0.395879 1.143 255 255 255
-0.33949 -0.319017 0.981 255 255 255
-0.275976 -0.13493 0.944 255 255 255
0.537312 0.486846 1.607 255 255 255
0.802973 0.586285 1.579 255 255 255
-0.205468 0.0248037 1.005 255 255 255
-0.692217 0.511653 1.378 255 255 255
-0.608604 0.347227 1.567 255 255 255
0.228985 -0.356402 0.917 0 0 0
-0.810266 0.324332 1.543 255 255 255
0.0456529 -0.367999 1.104 255 255 255
0.0758279 -0.0241965 0.681 255 255 255
-0.475124 0.526626 1.406 255 255 255
0.0351956 0.0618435 0.789 255 255 255
-0.0691748 -0.256065 0.932 255 255 255
0.246745 -0.213502 0.945 255 255 255
-0.0892372 -0.158152 0.811 255 255 255
0.366713 -0.168561 0.918 255 255 255
-0.0879369 0.40111 1.135 255 255 255
0.0918628 0.369742 0.95 255 255 255
0.00971517 -0.242415 0.932 255 255 255
0.144257 0.109767 0.724 255 255 255
-0.471911 -0.191935 1.104 255 255 255
-0.0866437 -0.168733 0.824 255 255 255
0.38113 -0.294638 0.835 255 255 255
0.32435 0.0473341 0.644 255 255 255
0.0407716 0.238228 0.914 255 255 255
0.330026 -0.117897 0.854 255 255 255
0.10826 0.207627 0.817 255 255 255
-0.210727 -0.296192 0.969 255 255 255
1.00618 0.29167 1.966 255 255 255
-0.543376 0.488731 1.429 255 255 255
-0.0217319 0.0782391 0.856 255 255 255
0.300737 0.050726 0.634 255 255 255
0.246553 0.037549 0.638 255 255 255
0.163196 -0.0355754 0.709 255 255 255
-0.0729022 0.0242476 0.868 255 255 255
-0.145723 0.332089 1.139 255 255 255
-0.549025 -0.155871 1.215 255 255 255
-0.194562 0.0936337 1.043 255 255 255
-0.0436449 -0.0552824 0.775 255 255 255
0.648198 0.592025 1.547 255 255 255
0.200865 0.132643 0.684 255 255 255
0.168754 -0.047191 0.728 255 255 255
-0.271777 0.0692813 1.087 255 255 255
-0.61282 -0.294044 1.167 0 0 0
-0.152487 0.158449 1.034 255 255 255
0.256174 0.0443249 0.631 255 255 255
-0.234409 0.0746007 1.062 255 255 255
0.0965264 0.279257 0.893 255 255 255
-0.15006 -0.0864241 0.873 255 255 255
0.203234 -0.285223 1.02 0 0 0
0.217766 -0.256981 0.988 255 255 255
-0.434203 0.501258 1.445 255 255 255
0.270355 0.00242523 0.688 255 255 255
-0.653232 0.340453 1.595 255 255 255
-0.15642 -0.0397374 0.91 255 255 255
-0.696123 0.357622 1.535 255 255 255
0.0358856 -0.0249427 0.702 255 255 255
0.27797 0.0856903 0.584 255 255 255
-0.164133 0.0332043 0.964 255 255 255
-0.536668 0.0998867 1.359 255 255 255
0.181884 0.189953 0.738 255 255 255
-0.0232604 0.0843006 0.861 255 255 255
0.13936 0.0935374 0.717 255 255 255
0.19754 -0.026308 0.708 255 255 255
0.322897 -0.212123 0.9 255 255 255
-0.14147 -0.287026 0.97 255 255 255
-0.724123 0.208704 1.62 255 255 255
0.809729 0.436399 1.774 255 255 255
-0.0513247 -0.113278 0.758 255 255 255
0.0373368 0.136434 0.837 255 255 255
-0.631596 0.213696 1.524 255 255 255
0.244476 0.037549 0.638 255 255 255
0.140295 0.164696 0.76 255 255 255
0.0121764 -0.0688385 0.719 255 255 255
-0.844175 0.240725 1.659 255 255 255
0.135652 0.0297473 0.649 255 255 255
0.122165 0.00658254 0.656 255 255 255
-0.606134 0.438737 1.48 255 255 255
-0.568643 -0.288909 1.132 255 255 255
0.208218 -0.367342 1.004 255 255 255
0.145657 0.0524862 0.656 0 0 0
0.160239 0.139799 0.727 255 255 255
-0.677597 0.412692 1.473 255 255 255
-0.0113095 -0.0728518 0.724 255 255 255
-0.292691 -0.193721 0.924 255 255 255
-0.596771 0.377062 1.543 255 255 255
-0.816815 0.279797 1.575 255 255 255
-0.459925 -0.136012 1.132 0 0 0
-0.0944118 0.198557 1.007 0 0 0
0.701431 0.443953 1.714 255 255 255
-0.149783 0.14902 1.027 255 255 255
-0.313397 -0.413156 1.072 0 0 0
0.276763 -0.0694711 0.793 255 255 255
0.153292 -0.0616289 0.745 255 255 255
0.152901 0.0159435 0.646 255 255 255
0.232746 -0.354902 0.97 255 255 255
-0.348969 0.38801 1.369 255 255 255
-0.183036 -0.218343 0.861 255 255 255
-0.497946 -0.208176 1.114 255 255 255
0.264109 -0.186405 0.925 255 255 255
-0.233858 -0.305933 0.98 255 255 255
-0.437325 -0.387456 1.027 255 255 255
-0.292259 -0.29407 0.942 255 255 255
-0.24832 0.0414892 1.055 0 0 0
0.152009 0.0844849 0.7 255 255 255
0.138546 -0.0818499 0.764 255 255 255
-0.574762 0.500234 1.409 255 255 255
0.0357755 0.0811341 0.802 255 255 255
0.195307 0.214437 0.748 255 255 255
0.342952 -0.0458547 0.765 255 255 255
0.134295 0.289682 0.847 255 255 255
0.10706 0.318105 0.896 255 255 255
0.185459 0.126494 0.693 255 255 255
-0.122545 -0.403042 1.037 0 0 0
0.0850488 -0.00640817 0.675 255 255 255
0.323947 -0.274709 0.849 255 255 255
0.205817 0.153312 0.697 255 255 255
0.534679 0.341964 1.532 255 255 255
-0.139425 0.182535 1.037 255 255 255
0.0461043 -0.011218 0.701 255 255 255
-0.325259 0.236679 1.252 255 255 255
0.2751 0.0995139 0.576 255 255 255
0.0334083 0.135717 0.841 255 255 255
-0.375403 -0.399737 1.055 255 255 255
0.311708 -0.281394 0.861 255 255 255
0.191769 -0.219665 0.932 255 255 255
0.13317 0.247991 0.823 255 255 255
0.0736109 -0.0253047 0.681 255 255 255
-0.427099 0.124346 1.27 255 255 255
-0.452583 -0.255029 1.039 255 255 255
-0.461469 0.333608 1.442 255 255 255
-0.123677 -0.0825692 0.848 255 255 255
0.375795 -0.03035 0.751 255 255 255
-0.0273651 -0.221892 0.904 255 255 255
-0.190044 -0.138479 0.861 255 255 255
-0.713507 0.306204 1.579 255 255 255
-0.00862218 0.0054441 0.803 255 255 255
0.145357 -0.175724 0.872 255 255 255
0.334213 -0.0032604 0.707 255 255 255
-0.00660648 -0.200932 0.883 255 255 255
0.215962 -0.165943 0.888 255 255 255
-0.0329955 0.392302 1.09 255 255 255
0.730286 0.525322 1.629 255 255 255
-0.387993 -0.129817 1.066 255 255 255
0.252593 -0.288935 0.916 255 255 255
-0.610064 -0.283134 1.169 255 255 255
-0.158724 -0.378176 1.02 255 255 255
-0.219889 -0.0633934 0.954 255 255 255
0.300279 0.0770844 0.606 255 255 255
0.305507 -0.246527 0.892 255 255 255
-0.241398 -0.102996 0.947 255 255 255
-0.35521 0.455486 1.449 0 0 0
-0.592853 -0.15007 1.249 255 255 255
-0.377042 -0.141538 1.05 255 255 255
0.353404 -0.220218 0.874 255 255 255
0.285251 -0.0627683 0.774 255 255 255
0.265103 0.00465087 0.686 255 255 255
-0.633013 0.166171 1.498 255 255 255
0.66831 0.540314 1.595 255 255 255
-0.167681 -0.372993 1.024 255 255 255
-0.271517 0.0473913 1.072 255 255 255
0.356592 -0.198942 0.9 255 255 255
-0.100856 0.450812 1.178 255 255 255
0.0957592 -0.176105 0.86 255 255 255
0.21176 0.110636 0.659 255 255 255
0.411424 -0.104525 0.847 255 255 255
0.759886 0.405784 1.779 0 0 0
-0.676217 0.428596 1.47 255 255 255
-0.438289 -0.342938 0.963 255 255 255
0.388652 -0.088385 0.825 255 255 255
0.175761 -0.125087 0.828 255 255 255
-0.0179387 -0.10423 0.755 255 255 255
-0.144452 -0.0635569 0.891 255 255 255
0.065007 -0.388848 1.128 255 255 255
-0.279586 0.24115 1.213 255 255 255
1.01233 0.275302 2.01 255 255 255
-0.132901 -0.352502 1.013 255 255 255
0.13658 -0.0904785 0.774 255 255 255
-0.411847 -0.305579 0.935 0 0 0
0.306449 0.0263093 0.669 255 255 255
0.0412623 0.253137 0.925 255 255 255
-0.392252 -0.188542 1.036 255 255 255
0.210329 0.0970262 0.62 255 255 255
0.538584 0.467374 1.603 255 255 255
0.15409 0.15013 0.743 255 255 255
-0.425031 -0.323883 0.944 255 255 255
0.434819 -0.157463 0.923 255 255 255
0.177652 0.289604 0.812 255 255 255
0.172919 -0.157818 0.875 255 255 255
0.318253 0.0416197 0.653 255 255 255
-0.46059 -0.385091 1.012 255 255 255
-0.51838 0.159935 1.381 255 255 255
0.283007 0.0523731 0.629 255 255 255
0.175769 -0.00199648 0.669 255 255 255
0.248397 0.0888446 0.586 255 255 255
-0.0460694 0.144757 0.925 255 255 255
0.122408 -0.0117946 0.669 255 255 255
0.153265 0.274777 0.823 255 255 255
0.513238 0.56745 1.535 255 255 255
0.632614 0.498599 1.637 255 255 255
-0.271774 0.220254 1.196 255 255 255
0.19557 0.178785 0.722 0 0 0
0.0415455 0.181037 0.868 255 255 255
0.302163 -0.225509 0.895 255 255 255
0.402805 -0.243006 0.864 255 255 255
0.0508404 0.28174 0.935 255 255 255
-0.0332913 0.182104 0.947 255 255 255
-0.147102 -0.353278 1.02 255 255 255
0.105403 -0.407204 1.128 0 0 0
0.0510095 -0.0791715 0.739 255 255 255
0.317684 -0.000951217 0.701 255 255 255
-0.407259 -0.356139 1.053 255 255 255
0.804457 0.578925 1.587 255 255 255
0.200298 0.0511242 0.614 255 255 255
0.163113 0.138044 0.724 255 255 255
-0.294797 0.24593 1.227 255 255 255
0.17341 0.118489 0.699 255 255 255
0.0924829 0.0984544 0.774 255 255 255
-0.416474 0.429867 1.491 0 0 0
0.316169 -0.323526 0.843 255 255 255
-0.239351 0.487318 1.354 255 255 255
-0.671796 0.481443 1.435 255 255 255
0.111934 0.0250698 0.665 255 255 255
0.344141 -0.0886399 0.815 255 255 255
0.705042 0.592029 1.567 255 255 255
-0.10509 -0.042851 0.854 255 255 255
-0.0801244 -0.106436 0.762 255 255 255
-0.316324 0.313208 1.299 255 255 255
-0.0380329 0.306523 1.034 255 255 255
-0.40389 0.486075 1.463 255 255 255
-0.741508 0.161358 1.595 255 255 255
-0.229072 -0.0316307 0.98 255 255 255
0.323882 0.0491998 0.641 255 255 255
-0.726168 0.0247162 1.494 255 255 255
-0.0180421 0.349231 1.046 255 255 255
-0.0281824 0.165391 0.931 0 0 0
0.15858 0.0994164 0.709 255 255 255
0.225936 -0.0820836 0.778 255 255 255
0.615324 0.471763 1.655 0 0 0
0.0921906 -0.00746213 0.671 255 255 255
-0.191932 0.514331 1.316 255 255 255
-0.483468 0.475143 1.466 255 255 255
-0.416451 -0.38837 1.025 255 255 255
0.240535 -0.0905732 0.797 255 255 255
0.277725 -0.211763 0.951 255 255 255
0.00593543 -0.162815 0.828 255 255 255
-0.156556 0.179697 1.05 255 255 255
-0.321925 0.355327 1.322 255 255 255
0.25786 0.11594 0.588 255 255 255
-0.211214 -0.32648 1.009 255 255 255
-0.0733954 -0.155513 0.811 255 255 255
0.471402 0.576552 1.513 255 255 255
0.326894 -0.0912925 0.815 255 255 255
-0.0347672 0.314163 1.037 255 255 255
-0.304575 0.326743 1.294 255 255 255
0.500843 0.399661 1.543 255 255 255
0.0295033 0.0765763 0.809 255 255 255
-0.746214 0.0126526 1.505 255 255 255
-0.0878331 -0.00257244 0.862 255 255 255
0.805848 0.529597 1.659 255 255 255
0.150564 0.0495069 0.645 255 255 255
0.34764 0.0081282 0.697 255 255 255
-0.227891 0.106704 1.072 255 255 255
-0.531049 -0.17881 1.171 255 255 255
-0.611318 0.510422 1.393 255 255 255
-0.305728 0.0637508 1.114 255 255 255
0.0242576 -0.106024 0.768 255 255 255
0.190793 -0.376094 1.112 255 255 255
0.960114 0.369904 1.876 255 255 255
-0.276031 -0.329714 0.994 255 255 255
-0.0932277 0.148827 0.961 255 255 255
0.535661 0.550311 1.579 255 255 255
0.165019 0.0392528 0.632 255 255 255
0.38465 -0.197512 0.887 255 255 255
0.371838 -0.201159 0.884 255 255 255
-0.449821 -0.276613 1.025 255 255 255
0.227859 0.0344343 0.638 255 255 255
0.0417756 -0.124804 0.792 255 255 255
0.0681953 -0.132407 0.815 255 255 255
0.276123 0.0248436 0.659 255 255 255
0.0651223 -0.396893 1.13 255 255 255
-0.595763 0.0227972 1.378 255 255 255
0.211502 -0.0087453 0.686 255 255 255
0.333107 -0.0748212 0.795 255 255 255
0.428801 0.536886 1.555 255 255 255
0.0849532 -0.188172 0.864 255 255 255
0.0449517 0.0319438 0.78 255 255 255
0.0688123 0.0386975 0.763 255 255 255
-0.197681 -0.325833 1.007 255 255 255
-0.692153 0.521678 1.369 255 255 255
0.680397 0.541669 1.599 255 255 255
-0.0659118 0.342055 1.077 255 255 255
0.770105 0.601486 1.539 255 255 255
0.0113275 -0.0226802 0.74 255 255 255
0.139323 0.079352 0.705 255 255 255
0.170794 0.105067 0.693 255 255 255
-0.627681 0.0676347 1.425 255 255 255
-0.394757 -0.29918 0.92 0 0 0
-0.00229182 0.142334 0.882 255 255 255
0.114821 0.267686 0.856 255 255 255
-0.267921 0.297054 1.232 255 255 255
0.197534 0.0342184 0.634 255 255 255
-0.00352046 -0.165154 0.833 255 255 255
-0.0379586 0.0332307 0.845 0 0 0
0.00446448 -0.424895 1.141 255 255 255
-0.154601 0.211374 1.072 255 255 255
-0.514794 -0.0322601 1.252 255 255 255
0.0861496 0.14418 0.797 255 255 255
0.0898414 0.0101133 0.678 255 255 255
0.293962 0.0112993 0.683 255 255 255
0.043682 0.0751006 0.78 0 0 0
0.0766374 -0.0517282 0.709 255 255 255
0.125422 -0.0634518 0.738 255 255 255
-0.457899 -0.297624 1.017 255 255 255
0.0899156 -0.0288816 0.687 255 255 255
-0.41924 0.123856 1.265 255 255 255
-0.678782 0.523906 1.369 255 255 255
-0.103982 -0.0602756 0.845 255 255 255
0.373879 -0.0910701 0.825 255 255 255
-0.500163 0.470221 1.473 255 255 255
0.0935645 0.0168073 0.681 255 255 255
-0.182204 0.150359 1.06 255 255 255
0.210914 -0.289349 1.017 0 0 0
-0.00991068 0.180492 0.923 255 255 255
-0.0477169 -0.147078 0.801 255 255 255
-0.311555 0.532619 1.422 255 255 255
-0.461722 -0.223006 1.072 255 255 255
0.0582003 -0.245185 0.931 255 255 255
-0.195291 0.25416 1.147 255 255 255
-0.72539 -0.00674677 1.463 255 255 255
0.0689198 -0.148771 0.84 255 255 255
0.0397566 0.248621 0.925 255 255 255
-0.0741165 -0.114175 0.764 255 255 255
-0.869713 0.064731 1.646 255 255 255
-0.394899 -0.242202 1 0 0 0
0.3399 -0.268971 0.844 255 255 255
0.415904 -0.252263 0.862 255 255 255
-0.713222 -0.134041 1.354 255 255 255
0.0562574 -0.0567407 0.714 255 255 255
0.13783 0.277425 0.835 255 255 255
-0.441158 -0.397595 1.036 255 255 255
0.0576527 0.127699 0.816 255 255 255
0.197621 0.0652187 0.615 255 255 255
-0.191911 0.216278 1.106 255 255 255
-0.0652447 0.410756 1.126 0 0 0
0.0875629 -0.186334 0.862 255 255 255
0.235203 -0.0279643 0.721 255 255 255
-0.271376 -0.0845164 0.983 255 255 255
0.372974 -0.321814 0.835 255 255 255
-0.371079 -0.27582 0.917 255 255 255
-0.0019878 -0.106855 0.765 255 255 255
0.111623 -0.0896602 0.767 255 255 255
-0.128838 0.0902373 0.97 255 255 255
0.109268 0.122687 0.768 255 255 255
0.340532 -0.184699 0.924 255 255 255
-0.112171 0.43665 1.176 255 255 255
0.216932 -0.175118 0.898 255 255 255
0.234926 0.00781333 0.67 255 255 255
0.266743 -0.245797 0.945 0 0 0
-0.0423597 -0.23225 0.91 255 255 255
0.213172 -0.347213 1.012 255 255 255
0.307237 0.072868 0.612 255 255 255
-0.133271 -0.155617 0.798 255 255 255
-0.224496 0.361549 1.247 255 255 255
-0.237324 -0.117157 0.937 0 0 0
0.140934 0.0128491 0.649 255 255 255
-0.361437 -0.195399 1.002 255 255 255
0.127698 0.0354598 0.657 255 255 255
0.321658 -0.324898 0.843 255 255 255
0.109758 0.253543 0.86 255 255 255
0.147346 0.193428 0.771 255 255 255
0.368819 -0.0447264 0.767 255 255 255
-0.109388 -0.049858 0.855 255 255 255
-0.481215 0.314656 1.452 255 255 255
0.284137 0.091236 0.583 255 255 255
0.0668618 -0.0894861 0.755 255 255 255
-0.0941366 0.311084 1.079 255 255 255
-0.536509 0.0767985 1.342 255 255 255
-0.400443 0.0369597 1.185 255 255 255
-0.435653 -0.253755 1.027 255 255 255
0.148624 -0.35671 1.108 255 255 255
-0.307189 0.0809288 1.126 255 255 255
0.139231 0.0211998 0.646 255 255 255
0.0176552 -0.0941505 0.753 255 255 255
-0.0710294 0.371514 1.102 255 255 255
-0.783709 0.12073 1.607 255 255 255
-0.382328 0.277396 1.33 255 255 255
-0.224212 -0.233018 0.874 255 255 255
0.336922 -0.278632 0.84 255 255 255
-0.0391916 -0.0555951 0.762 255 255 255
-0.334082 0.428691 1.4 255 255 255
-0.234703 0.180516 1.13 255 255 255
0.0666247 -0.00317739 0.689 255 255 255
-0.511903 -0.00583368 1.265 255 255 255
0.113097 -0.186296 0.875 255 255 255
0.322482 -0.0809017 0.804 255 255 255
-0.13098 -0.120937 0.792 0 0 0
-0.404458 -0.373196 1.02 255 255 255
-0.62162 -0.17833 1.262 255 255 255
-0.154103 0.270273 1.106 255 255 255
-0.668513 -0.212284 1.281 255 255 255
-0.832241 0.0768899 1.62 255 255 255
-0.158743 -0.0625949 0.898 255 255 255
-0.298859 -0.0973693 1 255 255 255
0.011614 0.116284 0.849 255 255 255
0.0412623 -0.240595 0.925 255 255 255
-0.402629 -0.00157134 1.158 255 255 255
-0.819379 0.292613 1.575 255 255 255
-0.132893 -0.202671 0.854 255 255 255
-0.378008 -0.292829 0.905 255 255 255
0.0986513 -0.246288 0.941 255 255 255
-0.179765 0.0930053 1.036 255 255 255
-0.26959 -0.182301 0.912 255 255 255
0.2374 -0.0699622 0.77 255 255 255
0.130508 0.0044407 0.655 255 255 255
0.0687734 0.025351 0.736 255 255 255
-0.0728596 0.00438467 0.851 255 255 255
0.191522 -0.134371 0.844 255 255 255
-0.649417 -0.145284 1.297 255 255 255
0.218404 0.0790567 0.606 255 255 255
0.0988404 -0.441908 1.137 255 255 255
0.29597 -0.225805 0.945 0 0 0
-0.354382 -0.244395 0.928 255 255 255
-0.662084 -0.187497 1.297 255 255 255
0.0352901 -0.446341 1.178 0 0 0
-0.288415 -0.244978 0.866 255 255 255
0.276796 0.073392 0.6 255 255 255
-0.427603 -0.354646 0.978 255 255 255
0.127788 0.0118475 0.652 255 255 255
0.262807 0.104339 0.582 255 255 255
0.0672546 -0.0265293 0.684 255 255 255
0.179318 0.00556545 0.662 255 255 255
-0.291758 0.443653 1.362 255 255 255
-0.633442 -0.123124 1.286 255 255 255
0.110975 0.156337 0.78 255 255 255
-0.698838 0.523906 1.369 255 255 255
0.132852 -0.405179 1.143 0 0 0
0.257591 -0.311848 0.892 255 255 255
0.114679 -0.106221 0.788 255 255 255
0.00386583 0.294495 0.988 255 255 255
-0.229718 0.156884 1.106 255 255 255
0.0915407 -0.346862 1.094 255 255 255
-0.0123249 -0.0151942 0.789 255 255 255
-0.536275 -0.115008 1.222 255 255 255
-0.320985 0.376482 1.336 255 255 255
0.143636 0.124067 0.739 255 255 255
0.0427617 -0.0831154 0.742 255 255 255
0.102498 0.00452206 0.667 255 255 255
-0.049542 0.0350153 0.855 255 255 255
-0.24319 -0.286406 0.942 255 255 255
0.151427 -0.297787 1.029 255 255 255
0.643123 0.44586 1.7 255 255 255
0.209381 0.174236 0.713 255 255 255
0.287774 0.047706 0.635 255 255 255
0.268214 -0.0331105 0.731 255 255 255
0.48339 0.453312 1.637 255 255 255
-0.368592 0.220278 1.275 255 255 255
0.0104369 0.138342 0.866 255 255 255
0.00494774 -0.210473 0.893 255 255 255
0.234187 -0.301691 0.914 255 255 255
-0.112098 0.340521 1.118 0 0 0
0.0588427 0.0471151 0.779 255 255 255
-0.155142 -0.119922 0.839 255 255 255
-0.683995 0.517252 1.375 255 255 255
0.253949 -0.138318 0.86 255 255 255
-0.544172 -0.129953 1.213 255 255 255
-0.101403 0.393946 1.141 255 255 255
-0.190187 0.333931 1.185 255 255 255
-0.0996926 -0.0786042 0.821 255 255 255
0.228898 0.0344343 0.638 255 255 255
0.198304 0.210018 0.741 255 255 255
-0.214595 0.316506 1.192 255 255 255
-0.426124 0.178741 1.305 255 255 255
0.340014 -0.0692082 0.79 255 255 255
-0.16975 -0.0490501 0.918 255 255 255
-0.148618 -0.301388 0.986 255 255 255
-0.188225 0.0224767 0.975 255 255 255
-0.0935392 0.0704609 0.918 255 255 255
-0.418441 -0.178055 1.064 255 255 255
-0.0489679 -0.166986 0.822 255 255 255
0.355917 -0.156816 0.902 255 255 255
-0.6211 -0.0539915 1.336 255 255 255
-0.279211 -0.201614 0.886 255 255 255
-0.652041 0.519451 1.369 255 255 255
-0.336498 -0.328719 0.991 255 255 255
0.556695 0.585704 1.524 255 255 255
0.492711 -0.202203 0.972 0 0 0
-0.0163093 0.0972484 0.864 255 255 255
0.0257824 -0.0828913 0.74 255 255 255
-0.300629 -0.362169 1.017 255 255 255
-0.373166 0.256757 1.313 255 255 255
0.0507842 0.178743 0.857 255 255 255
0.19171 -0.0635161 0.753 255 255 255
0.084179 0.0604872 0.756 255 255 255
-0.200235 0.118747 1.055 255 255 255
0.359032 -0.252009 0.847 255 255 255
-0.345326 -0.244216 0.916 255 255 255
0.236549 0.0594314 0.607 255 255 255
0.503519 0.461543 1.583 255 255 255
-0.693399 0.29497 1.616 255 255 255
-0.586225 0.30408 1.555 0 0 0
0.0952302 0.175098 0.808 255 255 255
0.542954 0.565083 1.563 255 255 255
0.121578 0.13113 0.759 255 255 255
-0.00230481 -0.204729 0.887 255 255 255
0.078011 -0.0530312 0.711 255 255 255
-0.511839 0.5221 1.4 255 255 255
-0.0852728 0.0245548 0.879 255 255 255
0.0360014 0.275526 0.945 255 255 255
-0.650082 0.409945 1.498 255 255 255
0.00577883 0.383873 1.043 255 255 255
-0.271761 0.109268 1.116 255 255 255
0.193094 -0.116353 0.833 255 255 255
-0.367147 0.213214 1.27 255 255 255
0.117866 -0.0871639 0.767 255 255 255
0.178854 0.0637338 0.63 255 255 255
0.079386 -0.0264905 0.683 255 255 255
-0.61833 0.400749 1.528 255 255 255
0.100071 -0.406087 1.13 0 0 0
-0.116211 -0.161585 0.815 255 255 255
-0.279703 0.221911 1.205 255 255 255
-0.0869896 0.0685163 0.912 255 255 255
-0.250909 0.0627386 1.066 255 255 255
0.10844 0.133204 0.771 255 255 255
-0.143366 -0.300471 0.983 255 255 255
-0.781293 0.279018 1.646 255 255 255
-0.0721885 0.435974 1.149 0 0 0
-0.126623 -0.0440552 0.878 255 255 255
-0.0281296 0.433039 1.108 255 255 255
-0.0912717 -0.380771 1.027 255 255 255
0.136919 0.0128689 0.65 255 255 255
0.231955 -0.251711 0.98 255 255 255
0.267108 0.102859 0.579 255 255 255
0.214819 -0.347213 1.012 255 255 255
0.727532 0.507999 1.659 255 255 255
0.0540858 -0.395054 1.13 255 255 255
-0.171444 -0.287491 0.961 255 255 255
-0.724814 -0.0368209 1.429 255 255 255
0.000578312 0.143443 0.88 255 255 255
0.622053 0.556857 1.583 255 255 255
-0.241255 -0.162881 0.895 255 255 255
0.143621 0.0774283 0.698 255 255 255
0.0709531 -0.406037 1.135 255 255 255
-0.483595 -0.284709 1.055 255 255 255
-0.268549 0.3463 1.273 255 255 255
-0.0634638 -0.362541 1.037 255 255 255
-0.52697 0.488448 1.435 255 255 255
-0.367256 -0.257029 0.93 255 255 255
-0.0296172 -0.342983 1.034 0 0 0
-0.290461 -0.0479544 1.022 255 255 255
0.208218 -0.267678 1.004 255 255 255
0.257978 -0.108918 0.828 255 255 255
-0.37347 -0.382028 1.017 255 255 255
-0.680141 0.0361073 1.463 255 255 255
-0.0536505 -0.111749 0.756 255 255 255
0.179426 -0.348181 1.087 255 255 255
-0.252525 -0.096599 0.96 255 255 255
0.185279 0.0302813 0.638 255 255 255
0.00978092 -0.0416941 0.715 255 255 255
0.17411 -0.00418632 0.671 255 255 255
0.37312 -0.247143 0.854 255 255 255
0.231991 0.105042 0.608 255 255 255
0.423065 -0.0968268 0.84 255 255 255
-0.0856359 -0.0767851 0.802 255 255 255
0.0689257 -0.0635139 0.725 255 255 255
-0.0393571 -0.403679 1.07 255 255 255
-0.736143 0.326827 1.567 255 255 255
-0.539535 0.489682 1.425 255 255 255
-0.0256815 -0.042175 0.766 255 255 255
-0.276938 -0.40217 1.066 255 255 255
-0.210223 -0.18617 0.83 255 255 255
0.0903385 -0.066873 0.736 255 255 255
0.724511 0.517412 1.646 255 255 255
0.279478 -0.0489412 0.755 255 255 255
0.173822 -0.079571 0.766 255 255 255
-0.134464 0.212364 1.051 255 255 255
-0.225506 0.187871 1.13 255 255 255
0.0372998 -0.212594 0.902 255 255 255
0.297662 -0.112529 0.845 255 255 255
0.159743 0.0860195 0.694 255 255 255
-0.805769 0.198001 1.686 0 0 0
-0.629468 -0.0304815 1.354 255 255 255
-0.707752 -0.108793 1.369 255 255 255
0.181736 0.256653 0.784 255 255 255
-0.421098 -0.283455 0.974 255 255 255
-0.291457 0.00201537 1.062 255 255 255
0.312523 -0.307505 0.848 255 255 255
0.104015 -0.129754 0.815 255 255 255
0.0558006 0.0328725 0.772 255 255 255
-0.373819 -0.285987 0.902 255 255 255
0.122957 -0.0140346 0.672 255 255 255
-0.550131 0.383598 1.539 255 255 255
0.741547 0.47631 1.71 255 255 255
0.206831 -0.046575 0.737 255 255 255
0.221933 -0.329023 1.022 255 255 255
0.503519 0.451239 1.583 255 255 255
-0.123903 -0.175576 0.831 255 255 255
-0.0343551 -0.404567 1.077 255 255 255
-0.322935 -0.130436 1.004 255 255 255
-0.134057 0.296733 1.104 255 255 255
0.120212 0.0226299 0.657 255 255 255
0.473096 0.461786 1.62 255 255 255
-0.528985 0.113406 1.362 255 255 255
-0.0298283 -0.0979997 0.745 255 255 255
0.220251 -0.0327029 0.722 255 255 255
0.0235627 -0.438375 1.167 255 255 255
-0.0957153 0.303497 1.077 255 255 255
-0.195915 -0.178807 0.821 255 255 255
-0.270245 0.38481 1.291 255 255 255
-0.00580722 0.287615 0.992 255 255 255
0.716792 0.484776 1.691 255 255 255
0.0754242 0.0903324 0.78 255 255 255
0.127552 0.280364 0.848 255 255 255
-0.312004 0.539891 1.393 255 255 255
-0.0463588 -0.347357 1.032 255 255 255
0.793514 0.553942 1.612 255 255 255
0.74828 0.481823 1.7 255 255 255
0.0413859 -0.0803741 0.739 255 255 255
0.391349 -0.179099 0.934 0 0 0
-0.448307 -0.326284 0.951 0 0 0
-0.115 0.277207 1.077 255 255 255
0.261604 0.0715583 0.601 255 255 255
-0.291365 -0.392496 1.068 255 255 255
-0.180468 -0.246449 0.897 255 255 255
0.0924251 0.0651487 0.753 255 255 255
0.209293 0.0840971 0.614 255 255 255
-0.477716 0.481313 1.463 255 255 255
-0.310241 0.47046 1.416 255 255 255
-0.583183 0.0135865 1.354 255 255 255
-0.479213 -0.0673998 1.189 255 255 255
0.194357 0.160567 0.709 255 255 255
-0.153498 -0.233724 0.893 255 255 255
-0.0409626 -0.0550684 0.772 255 255 255
0.0439624 0.17657 0.86 255 255 255
0.266452 -0.118981 0.842 255 255 255
0.0593615 0.190565 0.86 255 255 255
-0.701901 0.515015 1.375 255 255 255
0.0740147 -0.0492116 0.706 255 255 255
-0.375598 0.0934106 1.217 255 255 255
0.0846582 -0.181914 0.861 255 255 255
0.123496 -0.173505 0.868 255 255 255
-0.268508 -0.192528 0.884 255 255 255
0.379209 0.576019 1.48 255 255 255
0.165019 0.0382243 0.632 255 255 255
0.160733 -0.0823855 0.769 255 255 255
-0.588806 0.121565 1.432 255 255 255
0.569383 0.359099 1.763 255 255 255
-0.287749 -0.237382 0.864 255 255 255
-0.739676 -0.0184722 1.449 255 255 255
-0.0553167 -0.116356 0.762 255 255 255
0.209227 0.0723918 0.608 255 255 255
-0.100787 0.295936 1.075 255 255 255
-0.274682 0.169335 1.167 255 255 255
-0.313172 0.143848 1.176 255 255 255
0.0780549 -0.0431592 0.701 255 255 255
-0.240472 0.379718 1.267 255 255 255
-0.504374 -0.111902 1.189 255 255 255
-0.523983 0.141648 1.378 255 255 255
-0.569602 0.15279 1.419 255 255 255
0.335504 0.0315154 0.664 255 255 255
-0.309782 0.158448 1.185 255 255 255
0.0180529 -0.357067 1.066 255 255 255
-0.241473 0.496083 1.366 255 255 255
0.0751959 0.160155 0.819 255 255 255
0.0363761 -0.078743 0.735 255 255 255
-0.344812 0.305152 1.319 255 255 255
0.164029 -0.110504 0.81 255 255 255
0.161895 0.0792145 0.684 255 255 255
0.168675 0.0221132 0.642 255 255 255
0.000520481 -0.132537 0.792 255 255 255
0.0416173 0.078535 0.789 255 255 255
0.263067 0.0528874 0.623 255 255 255
-0.218275 -0.078339 0.947 255 255 255
-0.243933 -0.269557 0.916 255 255 255
0.248732 -0.299198 0.902 255 255 255
0.114783 0.299942 0.877 255 255 255
-0.362953 -0.214307 0.984 255 255 255
0.106008 0.360012 0.925 255 255 255
-0.650924 0.52566 1.362 255 255 255
0.241449 0.0865707 0.59 255 255 255
-0.560538 0.0309371 1.342 255 255 255
0.0118055 0.136459 0.863 255 255 255
-0.277169 -0.248948 0.875 255 255 255
0.11594 -0.3311 1.089 255 255 255
-0.0807853 -0.0610865 0.819 255 255 255
0.404934 -0.195405 0.884 255 255 255
0.124621 -0.163241 0.866 0 0 0
0.135952 0.0478673 0.666 255 255 255
-0.348315 -0.214415 0.97 255 255 255
0.169208 -0.193035 0.893 255 255 255
-0.182954 -0.12208 0.874 255 255 255
-0.0779209 0.361232 1.098 255 255 255
-0.12589 -0.106418 0.809 255 255 255
0.104073 -0.185444 0.871 255 255 255
-0.673314 0.283747 1.612 0 0 0
-0.521842 -0.124447 1.198 255 255 255
0.1717 0.236001 0.779 255 255 255
0.238825 -0.337021 0.909 255 255 255
0.194446 0.148488 0.701 255 255 255
-0.278072 -0.265143 0.901 255 255 255
0.262421 -0.327329 0.879 0 0 0
-0.0398926 0.0574112 0.857 255 255 255
-0.335653 -0.216633 0.952 255 255 255
-0.0341957 -0.386988 1.072 255 255 255
-0.535668 -0.0782991 1.239 255 255 255
-0.593169 0.527287 1.372 255 255 255
0.143364 -0.192963 0.886 255 255 255
-0.52174 -0.0384337 1.254 255 255 255
-0.529024 -0.337807 1.06 255 255 255
0.189794 -0.156215 0.874 255 255 255
-0.623042 0.485044 1.425 255 255 255
-0.175297 0.00179903 0.948 255 255 255
-0.112321 -0.255647 0.925 255 255 255
-0.0740459 0.250917 1.02 255 255 255
-0.535493 -0.15369 1.198 255 255 255
0.494048 0.397369 1.637 255 255 255
0.00224156 -0.293474 0.981 0 0 0
-0.436091 -0.32217 0.948 0 0 0
0.236716 0.0843996 0.595 255 255 255
0.0710531 0.22008 0.866 255 255 255
-0.317495 -0.0974654 1.018 255 255 255
-0.00900873 0.0643973 0.839 255 255 255
-0.325489 0.350227 1.319 0 0 0
-0.619722 -0.149044 1.275 255 255 255
0.22412 -0.0941085 0.794 255 255 255
-0.512271 -0.103432 1.203 255 255 255
0.256902 0.0786223 0.588 255 255 255
-0.516034 -0.241749 1.11 255 255 255
-0.070641 -0.222099 0.893 255 255 255
0.450542 0.485952 1.587 255 255 255
0.415371 -0.111468 0.858 255 255 255
0.187699 -0.40743 1.16 0 0 0
-0.402933 -0.23358 1.012 0 0 0
0.31391 -0.263402 0.871 255 255 255
-0.66982 0.428234 1.477 255 255 255
0.246142 -0.0621196 0.766 255 255 255
0.338961 -0.120394 0.852 255 255 255
0.0482361 0.115464 0.814 255 255 255
-0.203605 0.0414451 1.012 255 255 255
0.40851 -0.296755 0.841 255 255 255
0.299557 0.00132081 0.696 255 255 255
-0.454266 0.42586 1.52 0 0 0
0.180292 -0.0409274 0.722 255 255 255
-0.739945 0.245611 1.62 255 255 255
0.282198 -0.0629305 0.776 255 255 255
-0.328381 0.355327 1.322 0 0 0
-0.0964922 0.356665 1.106 255 255 255
-0.172697 -0.189076 0.825 255 255 255
-0.36566 0.244618 1.294 255 255 255
0.121127 -0.00520746 0.662 255 255 255
0.204737 0.160808 0.705 255 255 255
-0.332323 -0.282942 0.897 255 255 255
-0.401175 0.150022 1.26 255 255 255
-0.00789807 0.114517 0.867 255 255 255
0.318235 -0.24404 0.883 255 255 255
-0.401613 -0.382028 1.017 255 255 255
0.137654 -0.00852858 0.669 255 255 255
-0.0870179 -0.0136665 0.854 255 255 255
-0.177255 -0.221276 0.867 255 255 255
-0.110768 0.164928 0.992 255 255 255
-0.107989 -0.375757 1.027 0 0 0
-0.31184 -0.21691 0.914 255 255 255
-0.245782 -0.218213 0.855 255 255 255
-0.147645 0.242188 1.085 255 255 255
-0.628127 0.0989474 1.442 255 255 255
-0.0692171 0.0415301 0.875 0 0 0
-0.537327 0.40218 1.524 255 255 255
-0.30324 0.249947 1.237 255 255 255
0.045532 -0.233305 0.92 255 255 255
0.183077 -0.335131 1.057 255 255 255
-0.659795 -0.150427 1.305 255 255 255
-0.0778396 0.186016 0.984 255 255 255
0.170911 -0.010882 0.68 255 255 255
-0.281857 -0.292822 0.938 255 255 255
0.13925 0.0450135 0.656 255 255 255
0.176803 0.0340025 0.63 255 255 255
0.357986 -0.0253259 0.747 255 255 255
-0.247025 -0.321293 0.988 255 255 255
-0.248414 0.018916 1.041 255 255 255
0.0300714 -0.0958826 0.757 255 255 255
-0.790345 0.2695 1.637 255 255 255
0.179594 0.0636326 0.629 255 255 255
-0.120203 0.221567 1.046 255 255 255
-0.0570124 0.00707872 0.842 255 255 255
-0.0942044 -0.411981 1.06 255 255 255
-0.0431209 -0.418588 1.077 255 255 255
0.14048 -0.0790517 0.761 255 255 255
-0.613791 -0.191673 1.242 255 255 255
-0.772347 0.350034 1.513 255 255 255
0.892702 0.427246 1.784 255 255 255
-0.258049 -0.0667839 0.981 255 255 255
-0.0919315 0.0988356 0.932 255 255 255
0.15113 -0.00198753 0.666 255 255 255
-0.32339 0.0109776 1.094 255 255 255
-0.37362 0.182394 1.257 255 255 255
0.273563 -0.297332 0.892 255 255 255
0.3616 -0.123353 0.863 255 255 255
-0.331773 -0.0486919 1.075 255 255 255
-0.127459 -0.269718 0.948 255 255 255
-0.0373853 -0.0490397 0.776 255 255 255
0.0448364 0.0761741 0.778 0 0 0
-0.490846 0.078747 1.302 255 255 255
-0.205337 0.0870943 1.046 255 255 255
-0.199686 0.000262004 0.969 255 255 255
-0.321719 -0.307851 0.966 255 255 255
0.500688 0.391911 1.659 255 255 255
0.221363 0.0849737 0.606 255 255 255
0.155544 0.288574 0.828 255 255 255
-0.200147 0.174445 1.092 255 255 255
0.0132282 -0.279844 0.967 0 0 0
0.00947272 0.00404976 0.786 255 255 255
0.0405732 0.279843 0.944 255 255 255
-0.251319 0.285842 1.21 255 255 255
0.0500791 -0.236557 0.921 255 255 255
0.166529 -0.0644835 0.75 255 255 255
0.154504 0.162658 0.745 255 255 255
0.174752 0.0340025 0.63 255 255 255
0.0052616 -0.0810248 0.734 255 255 255
-0.0460034 0.0679573 0.867 255 255 255
0.0655257 -0.406753 1.137 255 255 255
0.240257 0.107387 0.599 255 255 255
0.392891 -0.283428 0.834 255 255 255
0.268064 0.0921749 0.577 255 255 255
0.861692 0.464578 1.739 255 255 255
0.745206 0.60774 1.555 255 255 255
0.609657 0.549315 1.591 255 255 255
0.271383 -0.178238 0.914 255 255 255
-0.25604 0.190971 1.16 255 255 255
-0.35462 0.0393698 1.143 255 255 255
-0.0481114 0.201477 0.966 255 255 255
0.0325416 -0.247495 0.934 255 255 255
0.511014 0.419401 1.551 255 255 255
-0.262 0.214733 1.187 0 0 0
0.449255 -0.343783 0.892 255 255 255
0.104811 0.133376 0.772 255 255 255
-0.0632947 -0.0725101 0.784 255 255 255
-0.0583405 -0.0843475 0.753 255 255 255
-0.465882 0.0390494 1.252 255 255 255
0.227597 -0.242493 0.975 255 255 255
-0.718656 0.446758 1.459 255 255 255
-0.145452 0.394638 1.182 255 255 255
-0.271056 0.539588 1.416 255 255 255
-0.379928 -0.277926 0.924 255 255 255
0.177452 0.0281165 0.636 255 255 255
0.47002 -0.193055 0.958 255 255 255
0.426714 -0.248631 0.864 255 255 255
0.332274 0.0103072 0.691 255 255 255
-0.510455 -0.249856 1.098 255 255 255
0.450883 0.460645 1.616 255 255 255
-0.40245 0.355787 1.4 255 255 255
0.170841 -0.0537711 0.737 255 255 255
0.185227 0.148188 0.705 255 255 255
-0.149972 -0.0567495 0.898 255 255 255
-0.588454 -0.125176 1.244 255 255 255
-0.366019 0.189818 1.252 255 255 255
-0.129603 -0.349205 1.013 255 255 255
-0.436563 -0.156085 1.092 255 255 255
-0.271366 -0.297767 0.944 255 255 255
0.00716122 -0.306987 0.999 255 255 255
-0.00875438 0.237967 0.961 255 255 255
0.0374999 0.276771 0.944 255 255 255
-0.291424 -0.195877 0.92 255 255 255
0.410653 0.542191 1.563 255 255 255
0.719197 0.529019 1.616 255 255 255
0.07304 -0.236589 0.927 0 0 0
0.377052 -0.317738 0.835 255 255 255
0.634825 0.512068 1.629 255 255 255
0.826161 0.392236 1.81 255 255 255
-0.238461 -0.0825389 0.96 255 255 255
0.131816 0.124195 0.747 255 255 255
-0.466188 0.370637 1.487 255 255 255
0.1561 -0.0164873 0.683 255 255 255
0.239705 -0.0206053 0.71 255 255 255
-0.0249561 0.253013 0.983 255 255 255
-0.423167 -0.153318 1.085 255 255 255
-0.282729 -0.254377 0.879 255 255 255
0.420752 -0.123644 0.875 255 255 255
0.12552 -0.0872775 0.768 255 255 255
0.445024 0.485806 1.595 255 255 255
-0.147482 -0.0989016 0.858 255 255 255
0.05212 -0.0200249 0.69 255 255 255
-0.189409 -0.17639 0.816 255 255 255
-0.199936 0.0637858 1.027 255 255 255
-0.139291 0.180673 1.036 255 255 255
-0.270879 -0.13393 0.937 255 255 255
-0.87291 0.122903 1.71 0 0 0
-0.334858 0.121809 1.185 255 255 255
-0.125256 -0.179633 0.831 255 255 255
0.350361 -0.238512 0.863 255 255 255
0.311655 -0.289849 0.857 255 255 255
-0.232986 -0.141054 0.914 255 255 255
0.681901 0.449531 1.714 255 255 255
-0.294038 -0.272211 0.905 255 255 255
0.198642 -0.322371 1.022 255 255 255
-0.0239172 0.0382727 0.835 0 0 0
0.272274 -0.181808 0.917 255 255 255
0.0476963 -0.0290498 0.691 255 255 255
-0.0148656 -0.075312 0.725 255 255 255
-0.698241 0.410731 1.466 255 255 255
-0.539358 -0.0610267 1.257 255 255 255
-0.134446 -0.311646 0.988 255 255 255
-0.639772 0.51052 1.381 255 255 255
0.810327 0.443805 1.769 255 255 255
0.284666 -0.296614 0.877 255 255 255
0.0222158 -0.200172 0.886 255 255 255
0.347714 -0.224485 0.874 255 255 255
0.00060197 0.186577 0.916 255 255 255
-0.00207355 0.0106046 0.798 255 255 255
-0.591601 0.0846742 1.4 255 255 255
0.175006 -0.208098 0.908 255 255 255
-0.0665241 -0.0333002 0.824 255 255 255
0.257847 0.062014 0.613 255 255 255
-0.403125 0.109918 1.247 255 255 255
0.204457 -0.184501 0.901 255 255 255
0.197576 -0.0995891 0.807 255 255 255
-0.240669 0.535309 1.387 255 255 255
0.176794 -0.0166563 0.69 255 255 255
0.000690031 0.388158 1.05 255 255 255
-0.742097 0.463197 1.422 255 255 255
0.230507 0.0820426 0.599 255 255 255
-0.353142 -0.184689 0.997 255 255 255
-0.762936 0.366298 1.509 255 255 255
-0.238567 -0.28823 0.948 255 255 255
-0.155207 -0.222655 0.878 255 255 255
0.178446 -0.310699 1.05 255 255 255
-0.50023 0.440371 1.502 255 255 255
0.338895 -0.00791809 0.712 255 255 255
-0.664034 0.410456 1.491 255 255 255
0.389661 -0.213622 0.882 255 255 255
0.254012 -0.0182429 0.708 255 255 255
-0.0141612 0.0296148 0.821 255 255 255
0.390713 -0.276226 0.841 0 0 0
-0.00542434 -0.0741322 0.725 255 255 255
0.893834 0.440926 1.769 255 255 255
-0.171297 -0.16099 0.812 255 255 255
-0.362766 -0.0372939 1.1 255 255 255
0.25005 -0.344847 0.891 0 0 0
0.0676329 0.18088 0.841 255 255 255
-0.0293118 -0.381087 1.085 255 255 255
0.147913 0.178535 0.761 255 255 255
0.764572 0.60305 1.543 255 255 255
0.676148 0.530329 1.62 255 255 255
0.236885 0.0792908 0.593 255 255 255
-0.104679 0.0679142 0.924 255 255 255
-0.225155 -0.0392004 0.97 255 255 255
-0.360047 -0.2938 0.908 255 255 255
0.382733 -0.165393 0.917 255 255 255
0.0678398 -0.167903 0.861 255 255 255
-0.448428 0.186073 1.327 255 255 255
0.195143 -0.269312 1.004 0 0 0
0.144055 0.118611 0.735 255 255 255
-0.150321 0.0489932 0.966 255 255 255
0.00788139 0.166464 0.896 255 255 255
-0.459403 0.110104 1.297 0 0 0
0.397988 -0.192602 0.891 255 255 255
-0.456766 0.470047 1.48 255 255 255
0.258708 -0.0561787 0.77 255 255 255
-0.887176 0.196878 1.7 255 255 255
-0.0434075 -0.224089 0.901 255 255 255
0.206831 -0.0453757 0.737 255 255 255
0.181398 0.21673 0.756 255 255 255
0.18614 -0.100402 0.803 255 255 255
-0.0771044 0.382124 1.112 255 255 255
0.285635 -0.280335 0.898 255 255 255
-0.154486 -0.180143 0.821 255 255 255
-0.0336319 0.0289332 0.84 0 0 0
-0.0284219 0.114787 0.891 255 255 255
0.237033 0.0402813 0.632 255 255 255
0.149524 -0.201198 0.897 255 255 255
-0.573442 -0.252112 1.149 0 0 0
-0.22797 0.24995 1.171 255 255 255
-0.575377 -0.311363 1.12 0 0 0
-0.0802667 0.26834 1.036 255 255 255
-0.163407 -0.293038 0.969 255 255 255
-0.11389 -0.0183578 0.879 255 255 255
0.138771 0.0997872 0.72 255 255 255
-0.152044 -0.0651527 0.893 255 255 255
0.653931 0.514583 1.637 255 255 255
0.368799 -0.182282 0.927 0 0 0
-0.0482672 0.00293636 0.833 255 255 255
-0.212572 0.204435 1.12 255 255 255
-0.394478 0.02895 1.173 255 255 255
0.25319 0.0665646 0.609 255 255 255
-0.347911 -0.418303 1.104 255 255 255
0.180369 0.0261694 0.639 255 255 255
-0.0545702 -0.289884 0.969 255 255 255
-0.204638 -0.0594669 0.941 255 255 255
-0.0430338 0.239668 0.994 0 0 0
-0.00723495 0.258336 0.967 255 255 255
0.0643643 0.328173 0.955 255 255 255
-0.552733 -0.23736 1.141 0 0 0
0.351971 -0.205883 0.892 255 255 255
0.109367 -0.0814213 0.76 255 255 255
-0.442994 -0.00358411 1.201 255 255 255
0.218852 0.0944686 0.61 255 255 255
-0.154481 -0.00727629 0.925 255 255 255
0.0485324 0.122837 0.819 255 255 255
0.0269134 0.272346 0.95 255 255 255
-0.0466446 -0.132305 0.783 255 255 255
-0.494414 -0.00169889 1.252 255 255 255
-0.445185 -0.201695 1.07 255 255 255
0.108089 0.0186606 0.668 255 255 255
0.171986 0.000180347 0.667 255 255 255
0.132582 -0.15302 0.872 255 255 255
0.108301 -0.418897 1.12 0 0 0
0.0565354 0.359457 0.981 255 255 255
-0.31298 -0.154902 0.983 255 255 255
-0.854845 0.241451 1.664 255 255 255
0.086941 0.0525437 0.748 255 255 255
-0.421965 0.124052 1.267 255 255 255
0.135619 0.219681 0.798 255 255 255
-0.755635 0.374899 1.524 255 255 255
-0.817343 0.272284 1.591 255 255 255
0.00174572 -0.105472 0.764 255 255 255
0.0904594 0.316146 0.92 255 255 255
0.20793 -0.174923 0.897 255 255 255
0.209652 -0.00424247 0.68 255 255 255
0.0231273 0.0102591 0.772 255 255 255
-0.213568 0.0876772 1.053 255 255 255
0.0611385 0.35995 0.978 255 255 255
-0.113067 0.229418 1.043 255 255 255
0.126051 0.0172052 0.654 255 255 255
-0.0189391 -0.394587 1.098 255 255 255
-0.133847 -0.0474471 0.888 255 255 255
-0.385955 0.125849 1.244 255 255 255
-0.187091 0.370066 1.215 255 255 255
0.0842794 -0.27949 0.988 255 255 255
-0.378192 -0.083683 1.098 255 255 255
-0.535193 0.214778 1.432 255 255 255
-0.0225719 0.202778 0.95 255 255 255
-0.212654 0.312626 1.192 255 255 255
-0.312408 -0.239457 0.882 255 255 255
0.543835 0.386589 1.551 255 255 255
-0.236552 0.0324684 1.041 255 255 255
0.0458539 0.21774 0.897 255 255 255
-0.378426 -0.294627 0.906 255 255 255
0.26546 0.124016 0.59 255 255 255
-0.717906 0.401795 1.477 255 255 255
-0.489492 -0.336005 0.984 0 0 0
-0.229656 -0.24 0.884 255 255 255
0.0236366 -0.126899 0.789 255 255 255
0.380874 -0.192056 0.909 0 0 0
-0.433864 -0.0851035 1.141 255 255 255
0.650583 0.502794 1.642 255 255 255
-0.370409 0.193082 1.26 255 255 255
-0.243453 0.538729 1.39 255 255 255
0.0385412 0.170361 0.864 255 255 255
0.220419 -0.0923489 0.79 255 255 255
0.150038 -0.0560173 0.735 255 255 255
-0.0345325 0.301985 1.03 255 255 255
0.0327158 -0.253404 0.939 255 255 255
0.443481 -0.210945 0.895 255 255 255
0.318856 -0.0601714 0.773 255 255 255
0.207293 0.157839 0.702 255 255 255
-0.27806 -0.0942101 0.984 255 255 255
-0.475611 -0.346143 0.972 0 0 0
0.163561 0.065197 0.655 255 255 255
-0.0832513 -0.0272411 0.844 255 255 255
-0.235817 -0.00944612 0.995 255 255 255
-0.156602 0.0846796 1.017 255 255 255
-0.157964 0.174238 1.048 255 255 255
0.400237 -0.218866 0.88 255 255 255
0.179048 0.00234415 0.665 255 255 255
-0.52116 -0.102064 1.21 255 255 255
-0.692943 -0.00196078 1.445 255 255 255
0.335776 -0.224594 0.88 255 255 255
0.0895054 0.114596 0.781 255 255 255
-0.483568 -0.208481 1.106 255 255 255
-0.408321 -0.361536 0.997 255 255 255
0.230122 0.0721742 0.598 255 255 255
-0.0854213 -0.20411 0.866 255 255 255
-0.379172 -0.315382 0.937 255 255 255
-0.00325421 -0.0223466 0.77 255 255 255
0.24104 0.0835485 0.589 255 255 255
0.384625 0.547523 1.571 255 255 255
-0.533406 -0.164144 1.189 255 255 255
0.251053 0.102893 0.59 255 255 255
-0.476952 0.441636 1.498 255 255 255
-0.0404146 -0.0851845 0.739 255 255 255
-0.00540329 0.186501 0.923 255 255 255
0.317196 0.0296637 0.671 255 255 255
0.0865618 -0.0360557 0.696 255 255 255
-0.559908 -0.182627 1.196 255 255 255
-0.172144 -0.134053 0.842 255 255 255
-0.129546 0.201485 1.039 255 255 255
0.0766813 0.122809 0.793 255 255 255
0.0795024 0.314203 0.932 255 255 255
0.150256 0.140185 0.748 255 255 255
-0.0528996 0.082609 0.888 255 255 255
0.257936 0.107917 0.586 255 255 255
-0.510393 -0.125025 1.185 255 255 255
-0.408713 -0.364607 1.01 255 255 255
-0.340649 -0.17516 0.989 255 255 255
-0.420196 0.531202 1.406 255 255 255
-0.483217 -0.236304 1.085 255 255 255
0.140308 0.0107699 0.651 255 255 255
0.127138 -0.0649156 0.741 255 255 255
-0.64556 0.035515 1.439 255 255 255
-0.313628 -0.295332 0.951 255 255 255
-0.748041 0.0530098 1.539 255 255 255
0.0803807 0.0456636 0.755 255 255 255
0.292463 -0.0517388 0.76 255 255 255
-0.480254 -0.336105 0.975 0 0 0
-0.19549 0.074029 1.03 255 255 255
0.182724 0.174108 0.727 255 255 255
-0.294842 0.0263586 1.068 0 0 0
0.0984498 -0.0128833 0.669 255 255 255
0.266279 0.0357505 0.643 255 255 255
0.177563 -0.079571 0.766 255 255 255
-0.45388 0.177034 1.324 255 255 255
-0.123306 -0.201517 0.855 255 255 255
0.0577233 0.131844 0.817 255 255 255
0.364761 -0.0367034 0.756 255 255 255
0.816188 0.448038 1.763 255 255 255
-0.040177 0.330507 1.046 255 255 255
-0.588064 -0.0062026 1.345 255 255 255
-0.0965303 -0.0558181 0.84 255 255 255
-0.567747 0.507237 1.403 255 255 255
0.187253 -0.431517 1.169 0 0 0
0.252224 -0.226265 0.96 255 255 255
0.289844 -0.255162 0.902 255 255 255
0.353686 -0.181495 0.923 0 0 0
-0.315841 -0.316126 0.977 255 255 255
0.385662 -0.254584 0.851 255 255 255
-0.617228 0.353971 1.563 255 255 255
-0.604336 0.522822 1.372 255 255 255
0.587823 0.535123 1.595 255 255 255
0.418535 -0.176624 0.937 0 0 0
-0.0432503 0.247377 0.999 0 0 0
0.136504 0.113517 0.733 255 255 255
0.14392 -0.01416 0.678 255 255 255
0.259267 0.0621152 0.614 255 255 255
0.297547 -0.212653 0.955 255 255 255
-0.308935 -0.00678172 1.087 255 255 255
-0.524735 -0.0681077 1.237 255 255 255
0.525918 0.376405 1.724 255 255 255
0.418369 -0.0887064 0.828 255 255 255
0.140313 0.110374 0.728 255 255 255
0.22523 -0.00652209 0.687 255 255 255
-0.462988 0.515191 1.425 255 255 255
-0.344743 0.354511 1.327 0 0 0
-0.0735539 -0.315818 0.991 255 255 255
-0.365862 -0.303268 0.942 255 255 255
-0.686543 0.481709 1.422 255 255 255
-0.596407 -0.00844751 1.354 255 255 255
0.0772002 -0.0825702 0.748 255 255 255
0.254031 0.118811 0.588 255 255 255
-0.305463 -0.333285 0.995 255 255 255
0.152492 -0.00637969 0.672 255 255 255
0.082855 -0.0444264 0.703 255 255 255
0.891457 0.448349 1.753 255 255 255
-0.35474 0.327855 1.324 255 255 255
0.0449848 0.194997 0.88 255 255 255
0.299883 -0.0629305 0.776 255 255 255
0.316544 -0.307428 0.844 255 255 255
-0.370584 0.0398865 1.158 255 255 255
0.351358 -0.241041 0.862 255 255 255
-0.454428 0.342995 1.442 255 255 255
-0.185158 0.0322919 0.984 255 255 255
0.211663 0.102747 0.618 255 255 255
-0.764423 0.160852 1.616 255 255 255
0.0451382 -0.195184 0.883 255 255 255
-0.502527 -0.00579678 1.257 255 255 255
-0.264659 0.275613 1.217 255 255 255
0.0952482 0.118914 0.776 255 255 255
0.494354 0.410534 1.595 255 255 255
0.0533323 -0.215052 0.9 255 255 255
-0.738099 0.104171 1.555 255 255 255
-0.18615 0.0894604 1.034 255 255 255
0.34394 -0.0511666 0.77 255 255 255
-0.098964 -0.161585 0.815 255 255 255
0.26396 -0.160343 0.889 255 255 255
0.633175 0.597425 1.535 255 255 255
-0.118876 -0.00558384 0.895 255 255 255
0.070991 0.0201691 0.722 255 255 255
-0.42831 -0.275298 1.002 255 255 255
-0.0460074 -0.141916 0.794 255 255 255
0.251516 -0.0230452 0.714 255 255 255
0.199591 0.0765995 0.618 255 255 255
0.259487 -0.250881 0.941 255 255 255
-0.515601 0.483782 1.449 255 255 255
-0.36103 0.0768675 1.176 255 255 255
0.0392578 -0.0214849 0.701 255 255 255
-0.14902 -0.201432 0.843 255 255 255
0.128999 0.304988 0.867 255 255 255
0.0798484 0.0416997 0.75 255 255 255
-0.446501 0.478832 1.47 255 255 255
0.169315 0.0918597 0.687 255 255 255
-0.205508 -0.0520306 0.945 255 255 255
-0.738601 0.36012 1.535 255 255 255
0.162445 0.0476308 0.634 255 255 255
-0.0536593 -0.035458 0.812 255 255 255
-0.195846 0.340923 1.196 255 255 255
0.125736 0.115685 0.747 255 255 255
0.225782 0.0344343 0.638 255 255 255
-0.370344 -0.419524 1.112 255 255 255
0.854641 0.505292 1.686 255 255 255
0.244195 0.111912 0.592 255 255 255
0.142878 -0.190873 0.883 255 255 255
-0.624545 -0.272818 1.182 255 255 255
-0.103993 -0.308743 0.989 255 255 255
0.0534504 0.356991 0.983 255 255 255
-0.182161 0.44343 1.249 255 255 255
-0.0809803 0.0288461 0.879 255 255 255
0.181721 -0.408612 1.158 0 0 0
0.110099 0.0218889 0.667 255 255 255
0.0641251 0.355672 0.975 255 255 255
-0.698999 -0.178877 1.327 255 255 255
-0.202335 0.120692 1.057 255 255 255
-0.281461 0.0351141 1.07 0 0 0
-0.681419 0.355383 1.547 255 255 255
0.141016 0.077872 0.702 255 255 255
0.142859 -0.00967476 0.673 255 255 255
0.262603 -0.258658 0.925 255 255 255
0.778098 0.525447 1.646 255 255 255
-0.682118 0.454066 1.452 255 255 255
-0.386099 0.0230651 1.165 255 255 255
0.0577359 -0.034622 0.69 255 255 255
0.096173 0.187455 0.816 255 255 255
-0.26089 -0.131981 0.934 0 0 0
-0.195332 0.16803 1.085 255 255 255
0.220928 0.0294264 0.642 255 255 255
-0.254367 -0.0799935 0.967 255 255 255
0.345153 -0.141857 0.882 255 255 255
-0.0960065 -0.115072 0.77 255 255 255
0.251962 -0.137997 0.858 255 255 255
0.299584 -0.158689 0.896 255 255 255
-0.171242 0.42633 1.229 255 255 255
-0.277005 -0.251517 0.879 255 255 255
0.0221896 0.367684 1.017 255 255 255
-0.357403 -0.295741 0.928 255 255 255
-0.285744 -0.191593 0.921 255 255 255
-0.411118 -0.26125 0.992 255 255 255
0.720723 0.583715 1.579 255 255 255
0.0785524 -0.192531 0.871 255 255 255
0.0102476 -0.445207 1.165 255 255 255
0.0255239 0.143038 0.852 255 255 255
-0.218322 0.155182 1.094 255 255 255
-0.159347 0.125256 1.024 255 255 255
-0.613771 -0.162542 1.267 255 255 255
-0.73845 0.436859 1.442 255 255 255
0.283295 -0.0330652 0.73 255 255 255
-0.715832 0.461709 1.439 255 255 255
0.22163 -0.0973016 0.799 255 255 255
0.148881 0.291362 0.836 255 255 255
0.316867 -0.0717794 0.79 255 255 255
0.3558 -0.153198 0.898 255 255 255
0.236073 -0.0471438 0.746 255 255 255
0.30873 -0.00324657 0.704 255 255 255
-0.229718 0.158684 1.106 255 255 255
0.305926 -0.148769 0.889 255 255 255
0.0832567 -0.181914 0.861 255 255 255
0.191245 -0.331845 1.036 0 0 0
-0.171707 -0.0815014 0.897 255 255 255
-0.505696 -0.382628 0.997 255 255 255
-0.0248829 0.00423525 0.822 0 0 0
-0.438568 -0.0151577 1.189 255 255 255
-0.207517 -0.327472 1.007 255 255 255
0.240593 -0.331335 0.939 255 255 255
0.298286 -0.00437349 0.701 255 255 255
0.227531 -0.0639378 0.758 255 255 255
0.109124 -0.212359 0.901 255 255 255
-0.0348764 0.133231 0.908 255 255 255
0.407024 -0.2416 0.864 255 255 255
0.44537 -0.312309 0.873 255 255 255
0.0736656 -0.0729605 0.737 255 255 255
-0.87334 0.183046 1.7 255 255 255
0.168637 0.0589798 0.634 255 255 255
-0.134489 -0.240484 0.902 255 255 255
0.0758062 -0.166928 0.856 255 255 255
-0.361728 -0.260613 0.916 0 0 0
0.143437 0.29827 0.844 255 255 255
0.310921 0.0366957 0.66 255 255 255
0.0760272 -0.152046 0.843 255 255 255
-0.204203 -0.0608686 0.939 255 255 255
0.0963971 0.348315 0.934 255 255 255
-0.556584 0.334376 1.543 0 0 0
-0.107366 -0.10122 0.789 0 0 0
0.198566 0.0342184 0.634 255 255 255
0.325388 -0.30807 0.842 0 0 0
-0.297872 0.482917 1.412 255 255 255
0.144489 0.018046 0.646 255 255 255
-0.442322 0.423899 1.513 0 0 0
0.180167 -0.0674599 0.756 255 255 255
0.0857379 0.0766438 0.77 255 255 255
0.277647 -0.254002 0.93 255 255 255
0.175028 -0.310699 1.05 255 255 255
-0.593677 0.407581 1.535 255 255 255
-0.147595 0.128728 1.012 255 255 255
0.0754874 -0.0322824 0.688 255 255 255
-0.408095 0.440813 1.487 0 0 0
-0.650082 0.397756 1.498 255 255 255
0.0263739 0.117084 0.835 255 255 255
