ply
format ascii 1.0
comment Created by Open3D
element vertex 1331
property double x
property double y
property double z
property uchar red
property uchar green
property uchar blue
end_header
-0.474913 0.323778 1.299 255 255 255
0.277364 -0.284691 1.327 255 255 255
-0.479142 0.321664 1.299 255 255 255
-0.191929 -0.0160697 1.445 255 255 255
-0.678212 -0.289342 1.799 0 0 0
-0.796624 -0.217053 1.591 0 0 0
-0.489526 0.466452 1.351 255 255 255
-0.237398 -0.258441 1.575 255 255 255
-0.697743 -0.321787 1.664 255 255 255
-0.0895481 0.359323 0.972 255 255 255
-0.411802 -0.376084 1.714 255 255 255
0.294685 -0.348728 1.308 255 255 255
-0.733065 -0.229913 1.646 255 255 255
0.423385 0.161338 0.98 0 0 0
-0.727612 0.301049 1.502 255 255 255
-0.792822 -0.249369 1.599 255 255 255
0.234255 -0.206649 1.247 255 255 255
0.129017 0.0653282 1.11 0 0 0
0.328919 -0.249918 1.139 0 0 0
0.0729153 -0.114062 1.302 255 255 255
-0.412717 0.0419966 1.114 255 255 255
-0.559285 0.270557 1.339 255 255 255
0.0629658 0.210029 0.816 255 255 255
-0.562031 -0.0379568 1.176 255 255 255
0.0750351 0.20467 0.832 255 255 255
0.231112 0.247389 0.787 255 255 255
0.394261 0.142184 0.991 0 0 0
-0.658805 -0.314813 1.794 0 0 0
0.293232 0.140664 1.027 255 255 255
0.0858615 0.248796 0.76 255 255 255
-0.0513903 0.0757545 1.104 255 255 255
-0.788046 -0.266806 1.579 255 255 255
-0.352457 -0.412555 1.923 0 0 0
0.25478 0.260611 0.762 255 255 255
-0.0909918 0.148468 0.893 255 255 255
-0.709584 -0.190426 1.629 255 255 255
-0.330955 -0.135097 1.7 255 255 255
-0.750755 -0.366501 1.555 255 255 255
0.146271 0.192559 0.869 255 255 255
0.120842 -0.0276675 1.229 255 255 255
0.281281 0.128417 1.064 255 255 255
-0.651222 0.424677 1.473 255 255 255
-0.714541 -0.528967 1.972 0 0 0
0.121191 0.0304116 1.156 0 0 0
-0.494528 -0.0575735 1.227 255 255 255
-0.47011 -0.280497 1.744 255 255 255
-0.136601 0.206045 0.958 255 255 255
-0.678758 0.0900709 1.378 255 255 255
-0.327143 0.382141 1.185 255 255 255
-0.867029 -0.500265 1.865 255 255 255
-0.116545 0.387575 1 255 255 255
0.232831 0.164302 0.951 255 255 255
-0.192165 -0.0411461 1.502 255 255 255
-0.647292 -0.150271 1.853 255 255 255
-0.00222946 0.265519 0.858 255 255 255
-0.183343 0.116589 0.966 255 255 255
-0.672542 0.14999 1.393 255 255 255
-0.465048 0.39101 1.319 255 255 255
0.00192852 0.188393 0.844 255 255 255
0.061694 0.2576 0.783 255 255 255
0.158923 0.18663 0.909 255 255 255
0.267769 -0.416132 1.333 255 255 255
-0.349366 0.291375 1.169 255 255 255
0.0264096 -0.216758 1.308 0 0 0
0.426854 -0.0374183 1.007 0 0 0
-0.236491 0.379375 1.104 255 255 255
0.45423 0.215619 0.932 255 255 255
0.137116 0.192465 0.856 255 255 255
0.0185222 -0.120821 1.354 0 0 0
-0.590623 0.347969 1.387 255 255 255
-0.156701 0.283771 1.007 255 255 255
0.292086 0.221611 0.861 0 0 0
-0.386615 -0.49668 2.037 255 255 255
-0.457512 0.288763 1.257 255 255 255
0.202367 0.113258 1.068 0 0 0
-0.370784 0.014334 1.705 0 0 0
-0.671278 -0.219887 1.714 255 255 255
-0.24418 -0.315915 1.62 0 0 0
-0.345259 0.0680703 1.068 255 255 255
0.448713 0.0910564 0.93 255 255 255
0.0763006 0.270451 0.776 255 255 255
0.415833 0.0896642 0.981 255 255 255
-0.55355 0.344859 1.357 255 255 255
0.269071 0.0394788 1.203 0 0 0
0.0229303 -0.10099 1.354 0 0 0
-0.674355 0.421454 1.487 0 0 0
0.391955 0.115325 1.01 255 255 255
0.290128 -0.177528 1.201 255 255 255
-0.431993 -0.158299 1.774 255 255 255
0.16571 -0.292487 1.406 0 0 0
0.388062 0.270663 0.773 255 255 255
-0.356001 -0.175259 1.714 0 0 0
0.451376 0.0825916 0.92 255 255 255
-0.203051 0.275245 1.043 255 255 255
-0.755353 -0.649674 1.978 255 255 255
-0.515391 0.324279 1.327 255 255 255
0.287298 -0.305501 1.333 255 255 255
-0.422212 0.130287 1.192 255 255 255
0.270782 -0.0281528 1.348 0 0 0
-0.649373 0.538141 1.502 0 0 0
0.289053 -0.237669 1.283 0 0 0
0.431473 0.0700188 0.932 0 0 0
0.417004 0.172501 0.98 255 255 255
-0.586791 0.332256 1.378 255 255 255
0.207707 -0.383548 1.396 255 255 255
0.406639 0.195459 0.952 255 255 255
0.000546768 0.239872 0.832 255 255 255
-0.698014 -0.413027 2.017 255 255 255
-0.776868 0.176693 1.484 255 255 255
-0.61725 -0.070801 1.249 255 255 255
-0.510074 -0.0354914 1.158 255 255 255
-0.121064 0.35883 0.997 255 255 255
0.199614 -0.383189 1.403 255 255 255
0.131072 0.12228 1.027 0 0 0
-0.665748 0.418189 1.484 255 255 255
-0.375647 0.198865 1.162 255 255 255
0.243114 0.184682 0.914 255 255 255
0.274279 -0.394439 1.333 255 255 255
0.179442 -0.450361 1.406 255 255 255
-0.155057 0.0607727 1.126 255 255 255
-0.0827861 0.15399 0.883 255 255 255
-0.0186179 0.328276 0.908 255 255 255
-0.482007 -0.219081 1.799 255 255 255
-0.355274 -0.420092 1.646 255 255 255
0.20916 0.17501 0.942 255 255 255
0.419139 0.247944 0.86 255 255 255
-0.232444 -0.349846 1.794 255 255 255
0.275567 -0.0362282 1.406 255 255 255
0.184912 -0.243438 1.362 0 0 0
0.0448711 -0.0699874 1.351 0 0 0
0.317662 0.0833814 1.187 255 255 255
0.461456 0.148669 0.95 255 255 255
-0.226681 0.399481 1.1 255 255 255
-0.388851 0.0219365 1.108 255 255 255
-0.705924 -0.261533 1.677 0 0 0
-0.621292 -0.23954 1.821 255 255 255
-0.353093 -0.212558 1.7 255 255 255
-0.165706 0.0564047 1.149 255 255 255
-0.347434 -0.342127 1.815 0 0 0
-0.449509 0.0375098 1.143 0 0 0
-0.750156 0.316206 1.528 255 255 255
0.436703 0.0319299 0.927 255 255 255
0.217598 0.146985 0.98 255 255 255
0.436143 -0.0404612 1.477 255 255 255
-0.569627 0.25702 1.348 255 255 255
-0.153118 0.281572 1.005 255 255 255
-0.401356 -0.0603144 1.779 255 255 255
-0.570393 -0.00910913 1.158 0 0 0
-0.702539 0.285066 1.47 255 255 255
0.297692 0.238142 0.826 255 255 255
-0.479346 -0.0144055 1.13 255 255 255
-0.295189 0.437445 1.173 255 255 255
0.183377 0.0897707 1.122 255 255 255
0.321182 0.189558 0.916 255 255 255
0.348749 0.196581 0.914 255 255 255
0.410431 0.223329 0.896 255 255 255
-0.0778456 0.0194884 1.178 255 255 255
-0.936844 -0.576124 1.947 255 255 255
-0.12341 -0.293842 1.739 0 0 0
-0.363787 0.074588 1.087 255 255 255
-0.392893 0.086733 1.13 255 255 255
-0.365908 -0.326653 1.748 0 0 0
-0.67451 -0.328744 1.744 255 255 255
-0.0713599 0.117041 0.983 255 255 255
-0.20043 -0.0388822 1.509 255 255 255
0.597506 -0.201014 1.673 255 255 255
-0.20675 -0.246761 1.616 0 0 0
0.321199 0.0517358 1.215 255 255 255
-0.72991 -0.666888 1.953 255 255 255
-0.169342 -0.124807 1.539 255 255 255
0.251099 0.181275 0.927 0 0 0
0.111957 0.304065 0.778 0 0 0
-0.329343 0.15811 1.102 255 255 255
-0.0703849 0.071377 1.092 255 255 255
-0.667218 0.363017 1.466 255 255 255
-0.695331 0.599679 1.567 255 255 255
-0.399707 0.0171588 1.71 255 255 255
0.479545 0.160358 0.937 255 255 255
-0.425182 -0.215553 1.794 255 255 255
0.0583688 0.169065 0.91 255 255 255
-0.575856 0.181069 1.322 255 255 255
0.161562 -0.32535 1.39 255 255 255
0.364154 0.0119999 1.029 255 255 255
0.42179 0.161338 0.98 0 0 0
-0.60759 0.457844 1.449 255 255 255
0.316687 -0.305174 1.26 0 0 0
0.184412 -0.352727 1.409 255 255 255
-0.4959 0.521756 1.381 255 255 255
-0.370164 0.0131544 1.128 255 255 255
-0.67451 -0.354286 1.744 255 255 255
-0.68114 -0.500127 1.799 255 255 255
-0.106828 0.187075 0.904 0 0 0
-0.602872 0.476708 1.449 255 255 255
0.38505 0.273555 0.767 255 255 255
0.604022 -0.0866685 1.215 255 255 255
0.27573 0.276557 0.732 255 255 255
0.289165 -0.109967 1.189 255 255 255
0.210581 -0.402874 1.4 255 255 255
-0.687842 -0.57792 1.997 0 0 0
0.3008 0.271012 0.753 255 255 255
-0.104354 -0.107355 1.505 0 0 0
0.40956 0.0280251 0.948 255 255 255
-0.596915 -0.238093 1.81 255 255 255
0.282607 -0.116259 1.194 255 255 255
-0.250425 0.372405 1.11 0 0 0
-0.267244 -0.470161 2.037 0 0 0
-0.49923 0.518385 1.384 255 255 255
0.315866 -0.0909957 1.1 0 0 0
-0.761792 -0.649674 1.978 255 255 255
-0.342024 -0.157228 1.7 0 0 0
-0.721417 -0.235842 1.65 255 255 255
0.419337 0.143502 0.978 255 255 255
0.0434586 0.0483638 1.094 255 255 255
0.0669617 0.00214442 1.13 255 255 255
-0.78661 -0.201541 1.571 0 0 0
0.124774 -0.626642 2.228 0 0 0
0.275161 0.175606 0.937 255 255 255
-0.326354 0.126465 1.092 255 255 255
-0.0723142 -0.0385162 1.406 255 255 255
-0.0739601 0.150761 0.898 255 255 255
-0.140154 -0.247304 1.637 0 0 0
0.239381 0.0326741 1.242 255 255 255
0.487019 -0.0729639 1.555 255 255 255
0.141384 0.129364 1.017 0 0 0
0.396655 0.269306 0.78 255 255 255
0.305092 -0.3101 1.289 255 255 255
0.231601 0.200878 0.887 255 255 255
-0.0926521 -0.189521 1.599 255 255 255
0.233196 0.239351 0.803 255 255 255
0.0814495 -0.0150429 1.18 0 0 0
0.37789 0.0519889 1.176 255 255 255
-0.639844 0.08811 1.348 255 255 255
-0.132194 -0.337331 1.821 0 0 0
-0.0400465 0.310338 0.925 0 0 0
0.132141 0.254978 0.742 255 255 255
-0.625834 -0.172951 1.87 255 255 255
-0.694177 -0.572422 1.978 0 0 0
0.293802 -0.110486 1.154 255 255 255
0.087958 0.202296 0.839 255 255 255
0.257986 0.274238 0.729 255 255 255
0.219175 0.22952 0.824 255 255 255
-0.144875 0.172967 0.931 255 255 255
-0.666164 -0.415689 2.03 255 255 255
-0.303912 -0.0866683 1.673 255 255 255
-0.967643 -0.477808 1.837 255 255 255
-0.732907 -0.370273 1.571 255 255 255
0.0798926 -0.147315 1.278 255 255 255
0.160018 -0.0244571 1.27 0 0 0
-0.604736 0.251528 1.378 0 0 0
-0.753217 -0.439209 1.71 255 255 255
0.591295 -0.129297 1.563 255 255 255
0.173798 0.102701 1.085 0 0 0
-0.700693 -0.395515 1.633 255 255 255
-0.266446 -0.455868 1.416 0 0 0
0.0350598 -0.179126 1.313 255 255 255
-0.570895 0.266386 1.351 255 255 255
-0.803233 0.471412 1.599 255 255 255
0.379941 0.238148 0.86 255 255 255
-0.273612 -0.117246 1.607 255 255 255
0.117055 0.205759 0.842 255 255 255
0.296487 -0.290897 1.316 255 255 255
0.128516 -0.298758 1.425 255 255 255
0.292832 -0.0547651 1.412 0 0 0
-0.161129 -0.187854 1.607 255 255 255
0.271249 0.0872982 1.162 255 255 255
-0.72609 0.341742 1.509 0 0 0
-0.601719 0.416057 1.435 255 255 255
-0.361007 -0.36771 1.87 0 0 0
-0.326937 0.0254966 1.106 255 255 255
-0.329075 0.413495 1.192 255 255 255
0.265376 -0.332348 1.354 255 255 255
-0.094811 0.108646 0.994 255 255 255
-0.35317 0.100358 1.098 255 255 255
-0.143262 -0.188438 1.612 255 255 255
-0.184201 0.0967642 1.005 255 255 255
-0.702051 -0.225784 1.655 255 255 255
-0.736268 -0.69867 1.953 255 255 255
0.367498 0.112042 1.073 0 0 0
0.359777 0.234494 0.862 255 255 255
-0.198663 0.207778 1.012 255 255 255
0.0147056 0.0545214 1.075 0 0 0
0.262588 -0.375582 1.351 255 255 255
0.314636 -0.294922 1.26 0 0 0
-0.61048 0.193835 1.351 0 0 0
-0.0445921 0.165309 0.867 255 255 255
-0.59004 0.474437 1.435 255 255 255
0.156397 -0.17492 1.21 0 0 0
0.0740255 0.14539 0.98 255 255 255
0.147954 0.189053 0.879 255 255 255
-0.136409 0.396368 1.027 255 255 255
-0.318016 -0.409373 1.799 255 255 255
0.453724 0.156399 0.95 255 255 255
0.332207 0.12789 1.089 255 255 255
-0.267813 0.386471 1.13 255 255 255
0.271957 0.187489 0.906 255 255 255
-0.626445 0.148322 1.357 255 255 255
0.334923 0.283742 0.726 255 255 255
0.382951 0.142751 1.03 0 0 0
0.174141 0.253925 0.746 255 255 255
-0.718198 -0.543088 2.037 0 0 0
-0.0807793 0.0287526 1.165 255 255 255
0.285027 -0.112561 1.196 255 255 255
0.321129 -0.405645 1.286 0 0 0
-0.438789 0.316609 1.262 255 255 255
0.0749616 -0.217866 1.265 0 0 0
-0.796839 -0.221994 1.571 0 0 0
-0.715223 -0.650372 2.01 0 0 0
-0.094712 0.166235 0.887 255 255 255
0.382014 0.148067 1.032 0 0 0
0.103117 0.194038 0.863 255 255 255
-0.57763 0.548353 1.439 255 255 255
0.31416 0.277459 0.744 255 255 255
0.00199479 0.176398 0.873 255 255 255
0.332412 0.201908 0.898 255 255 255
0.224958 0.236457 0.811 255 255 255
0.427265 -0.0206864 1.439 255 255 255
-0.0480403 -0.425695 1.587 255 255 255
-0.690461 -0.15624 1.528 0 0 0
-0.735342 -0.576487 1.959 255 255 255
0.273349 0.0936374 1.147 255 255 255
-0.254462 0.33985 1.104 0 0 0
-0.327208 -0.0360055 1.724 0 0 0
-0.184915 0.116589 0.966 255 255 255
0.149369 0.107437 1.062 255 255 255
0.272369 -0.378291 1.345 255 255 255
-0.53616 0.385782 1.369 255 255 255
0.408317 0.00855836 1.018 255 255 255
-0.508503 -0.332446 1.779 255 255 255
-0.189678 0.39666 1.073 255 255 255
-0.629876 0.0358406 1.283 255 255 255
-0.0975131 0.310172 0.957 255 255 255
-0.0270977 -0.211767 1.571 255 255 255
-0.152033 0.111557 0.977 255 255 255
0.287104 -0.0213855 1.213 255 255 255
0.172576 -0.103498 1.227 255 255 255
0.298138 0.175939 0.947 255 255 255
0.224819 -0.276684 1.362 255 255 255
-0.106931 -0.057131 1.473 0 0 0
-0.759907 0.577552 1.612 255 255 255
-0.364545 -0.123308 1.769 0 0 0
-0.614775 -0.411167 2.024 255 255 255
-0.341996 0.0202425 1.114 255 255 255
-0.487626 0.361781 1.322 255 255 255
0.386634 0.0452856 0.988 0 0 0
0.234068 0.237622 0.806 255 255 255
0.466165 -0.00744935 0.947 255 255 255
0.154774 -0.338922 1.39 255 255 255
0.201797 0.165511 0.958 255 255 255
0.454831 0.0444758 0.906 255 255 255
-0.80173 0.598344 1.655 255 255 255
0.184064 0.134065 1.015 255 255 255
-0.37729 -0.0308176 1.748 255 255 255
0.260537 0.261413 0.768 255 255 255
0.0479781 0.243857 0.788 255 255 255
-0.538459 0.309085 1.336 255 255 255
-0.692549 -0.1619 1.691 255 255 255
-0.212499 0.153628 0.992 255 255 255
-0.501298 -0.35172 1.774 255 255 255
0.0566136 0.315994 0.84 255 255 255
-0.13259 0.0550793 1.122 255 255 255
0.0506361 0.271755 0.81 255 255 255
-0.441877 0.223601 1.225 255 255 255
-0.536285 0.304737 1.336 255 255 255
0.224465 -0.178525 1.249 0 0 0
0.349164 0.0835219 1.189 255 255 255
0.346081 0.240525 0.839 255 255 255
0.310983 0.253444 0.798 255 255 255
-0.180926 -0.351552 1.865 255 255 255
0.176917 0.122253 1.041 255 255 255
-0.738126 -0.640559 2.01 0 0 0
0.291939 0.178656 0.937 0 0 0
0.304263 -0.258914 1.18 0 0 0
-0.01031 -0.0287794 1.378 255 255 255
0.117917 0.10541 1.059 0 0 0
0.380405 0.101281 1.07 255 255 255
-0.554354 0.00783733 1.156 0 0 0
-0.735911 0.0650407 1.419 255 255 255
0.191639 -0.100073 1.234 255 255 255
-0.0900274 0.10248 1.013 255 255 255
-0.364978 -0.440719 1.923 255 255 255
-0.431353 -0.0933982 1.748 255 255 255
-0.0881373 0.0305695 1.162 255 255 255
-0.236326 -0.515864 1.429 255 255 255
-0.703731 -0.565971 2.024 0 0 0
-0.702931 -0.731158 2.121 255 255 255
-0.517148 -0.350821 1.799 255 255 255
-0.758225 0.0284106 1.435 255 255 255
-0.0852728 0.166167 0.879 255 255 255
0.535986 -0.208557 1.668 255 255 255
-0.360491 0.0218574 1.104 255 255 255
-0.294106 -0.538823 1.416 255 255 255
0.183802 -0.0809636 1.249 255 255 255
-0.443285 -0.38157 1.739 255 255 255
-0.339699 -0.428572 1.87 255 255 255
0.142393 0.187836 0.88 255 255 255
0.202786 -0.279935 1.378 0 0 0
0.242379 -0.0103284 1.313 255 255 255
-0.712787 0.521703 1.555 255 255 255
-0.455095 -0.0890137 1.774 255 255 255
-0.257189 0.0751172 1.022 255 255 255
0.175623 0.256186 0.742 255 255 255
-0.489604 -0.0430649 1.784 255 255 255
-0.814036 0.291427 1.555 255 255 255
-0.679967 -0.331543 1.729 255 255 255
0.193758 0.19636 0.927 255 255 255
-0.762278 -0.199429 1.595 0 0 0
-0.681538 -0.280228 1.691 255 255 255
-0.0684126 0.156864 0.883 255 255 255
-0.330938 0.0150432 1.132 255 255 255
0.187697 0.272867 0.71 255 255 255
0.504555 -0.0646998 1.539 255 255 255
0.269513 0.227953 0.843 255 255 255
-0.681597 -0.744542 2.017 0 0 0
-0.517973 -0.00336029 1.126 255 255 255
0.307462 0.262874 0.776 255 255 255
0.0416778 0.0608259 1.094 0 0 0
-0.804394 0.458697 1.591 255 255 255
-0.234053 0.171246 1.03 255 255 255
0.0217051 0.0650177 1.075 0 0 0
-0.228079 0.212038 1.041 0 0 0
-0.0369159 0.245348 0.886 255 255 255
-0.611211 0.451703 1.452 255 255 255
-0.0219806 0.0875147 1.072 255 255 255
-0.0450132 -0.0963915 1.487 255 255 255
0.201309 -0.0529408 1.31 255 255 255
-0.509388 0.50153 1.381 255 255 255
-0.242885 -0.20368 1.629 0 0 0
0.299012 -0.142116 1.167 255 255 255
-0.580482 -0.0654478 1.842 255 255 255
0.366631 0.0339984 1.036 255 255 255
-0.0524865 0.297519 0.932 0 0 0
-0.489657 -0.416021 1.753 0 0 0
0.311387 -0.398201 1.289 255 255 255
0.439795 -0.0602007 1.062 255 255 255
0.290981 -0.356758 1.33 255 255 255
-0.386141 -0.344612 1.724 255 255 255
-0.174352 -0.129816 1.539 255 255 255
-0.0800088 -0.0543624 1.463 0 0 0
0.111739 0.0790601 1.1 255 255 255
-0.237007 0.192077 1.043 255 255 255
0.140689 0.130375 1.012 0 0 0
-0.353368 -0.444188 1.911 255 255 255
0.267283 -0.187786 1.299 0 0 0
-0.0951154 0.0858003 1.051 255 255 255
-0.363276 0.325353 1.196 255 255 255
0.0661741 -0.0234364 1.217 255 255 255
-0.131303 -0.107355 1.505 255 255 255
0.0163483 0.0767602 1.068 255 255 255
0.366529 0.160809 1.017 0 0 0
-0.641907 -0.110047 1.357 255 255 255
0.0296515 -0.0748249 1.359 0 0 0
-0.743775 -0.360511 1.551 255 255 255
-0.618788 0.512322 1.47 0 0 0
-0.612573 -0.32615 1.876 0 0 0
-0.0891834 0.284783 0.935 0 0 0
-0.27701 0.038922 1.13 255 255 255
0.216585 -0.308618 1.366 255 255 255
-0.331493 -0.398459 1.513 255 255 255
0.169376 0.0891306 1.114 255 255 255
-0.889611 0.545878 1.71 255 255 255
0.101011 0.0917677 1.081 255 255 255
-0.0314145 0.143585 0.937 255 255 255
-0.648597 -0.455295 1.677 0 0 0
-0.472189 0.423614 1.327 255 255 255
0.42222 0.0082473 0.981 255 255 255
-0.642376 -0.129999 1.865 255 255 255
-0.7665 -0.729122 1.941 255 255 255
-0.651529 -0.145507 1.831 255 255 255
-0.598204 -0.257997 1.805 255 255 255
-0.733089 -0.701848 1.953 255 255 255
-0.114509 0.268332 0.969 255 255 255
-0.882863 0.606457 1.724 255 255 255
0.159241 -0.105925 1.232 255 255 255
-0.322741 -0.18337 1.686 255 255 255
0.00587091 0.224129 0.819 255 255 255
-0.17104 0.381422 1.055 255 255 255
0.256717 0.266065 0.746 255 255 255
-0.306826 0.0239539 1.118 255 255 255
-0.0562794 0.0205332 1.13 255 255 255
-0.188522 -0.121746 1.532 255 255 255
0.335924 0.228883 0.862 255 255 255
-0.40383 -0.0150174 1.178 255 255 255
-0.413498 -0.0772478 1.769 255 255 255
-0.74075 0.367459 1.524 255 255 255
0.457781 0.0474245 0.906 255 255 255
0.152016 0.25785 0.733 255 255 255
-0.244884 0.0542678 1.07 255 255 255
0.079163 0.221895 0.792 255 255 255
0.401902 0.14628 0.986 0 0 0
0.00593951 0.0491358 1.072 0 0 0
0.0553707 -0.0497548 1.339 255 255 255
-0.117765 0.127962 0.957 255 255 255
0.278713 -0.394931 1.313 255 255 255
0.442998 0.0447703 0.912 255 255 255
-0.0253058 -0.405548 1.62 0 0 0
0.403919 0.0284981 0.964 0 0 0
0.278339 0.130393 1.066 255 255 255
-0.836262 0.486751 1.633 255 255 255
0.0150917 0.214549 0.813 255 255 255
0.389925 0.0166926 1.009 0 0 0
-0.716715 -0.434011 1.978 0 0 0
-0.471115 0.112843 1.213 255 255 255
-0.484006 0.0113188 1.128 0 0 0
0.278246 -0.201336 1.291 0 0 0
-0.720737 -0.313635 1.595 0 0 0
0.433975 -0.0370467 0.997 255 255 255
-0.696777 -0.638647 2.004 255 255 255
-0.773 -0.312074 1.524 255 255 255
0.181925 -0.284635 1.39 255 255 255
-0.424165 0.467523 1.299 255 255 255
0.143982 -0.00359605 1.205 255 255 255
-0.346294 0.01499 1.128 255 255 255
0.311049 0.233717 0.844 255 255 255
0.44848 0.159827 0.952 255 255 255
-0.17944 -0.187854 1.607 255 255 255
0.271198 0.201008 0.875 255 255 255
0.176992 -0.0867127 1.244 255 255 255
-0.385789 -0.313986 1.71 0 0 0
-0.111765 -0.295819 1.734 0 0 0
0.519215 -0.05054 1.041 255 255 255
-0.11032 0.270526 0.96 255 255 255
-0.578626 -0.031969 1.167 0 0 0
0.242848 0.164294 0.96 255 255 255
-0.305135 0.385405 1.16 255 255 255
-0.51477 0.373283 1.348 255 255 255
-0.0978532 -0.00369154 1.237 0 0 0
0.203912 -0.0783762 1.273 255 255 255
-0.1125 0.130392 0.952 255 255 255
-0.395322 0.226323 1.187 255 255 255
-0.0855638 0.155251 0.882 255 255 255
-0.11165 0.285553 0.958 255 255 255
0.0950462 -0.108475 1.286 255 255 255
0.127669 -0.164732 1.237 255 255 255
0.0271554 0.0478775 1.083 0 0 0
-0.280009 -0.00486138 1.629 0 0 0
-0.0411032 -0.0509868 1.435 255 255 255
0.315503 0.197373 0.904 255 255 255
-0.587569 0.0916704 1.305 255 255 255
-0.219796 0.260006 1.05 255 255 255
-0.232479 -0.295992 1.612 0 0 0
0.138752 0.126674 1.022 0 0 0
0.165833 -0.0226196 1.283 255 255 255
-0.720928 -0.391833 1.607 0 0 0
0.300652 -0.375344 1.297 255 255 255
0.27099 0.253785 0.795 255 255 255
0.0159566 -0.1677 1.324 255 255 255
-0.178143 -0.0649336 1.487 0 0 0
0.0321768 0.208485 0.81 255 255 255
0.441638 0.109325 0.944 255 255 255
-0.269438 0.153373 1.057 255 255 255
-0.0315688 0.276436 0.898 255 255 255
-0.514296 0.270513 1.297 255 255 255
0.0520236 0.253796 0.791 255 255 255
0.203153 -0.0340638 1.322 0 0 0
-0.0824464 -0.21869 1.603 255 255 255
-0.708462 -0.628024 1.991 0 0 0
-0.701323 -0.461568 1.893 255 255 255
0.407331 0.196594 0.95 255 255 255
0.054194 0.205383 0.824 255 255 255
0.24843 0.0498405 1.217 0 0 0
-0.333956 -0.395997 1.513 255 255 255
0.259074 0.161338 0.98 255 255 255
0.0655548 0.319754 0.832 255 255 255
0.0455686 -0.285414 1.372 255 255 255
-0.599859 -0.0979115 1.342 255 255 255
-0.596151 -0.112809 1.882 255 255 255
-0.677246 -0.587368 1.985 0 0 0
-0.230299 0.265681 1.059 255 255 255
-0.509121 0.0206968 1.139 0 0 0
-0.246837 -0.346511 1.603 0 0 0
0.295718 -0.16709 1.169 255 255 255
0.427838 0.0625695 0.934 0 0 0
-0.70664 0.448122 1.52 255 255 255
-0.440164 0.257999 1.237 255 255 255
0.432142 0.101487 0.957 255 255 255
0.313738 -0.372542 1.273 255 255 255
-0.0929179 0.266987 0.942 255 255 255
0.15407 0.0177803 1.192 255 255 255
-0.534985 0.376045 1.366 255 255 255
0.112279 0.149601 0.966 255 255 255
-0.0915138 0.15848 0.884 255 255 255
-0.543785 0.490017 1.406 255 255 255
0.048613 -0.0842395 1.333 255 255 255
0.274265 0.260013 0.775 255 255 255
-0.0628518 0.100554 1.027 255 255 255
0.273004 0.258751 0.775 255 255 255
-0.154642 0.325667 1.015 255 255 255
-0.0724132 -0.421908 1.612 0 0 0
-0.441774 0.141278 1.203 255 255 255
-0.481777 -0.045333 1.22 255 255 255
0.328499 0.244121 0.819 255 255 255
-0.488666 0.345935 1.319 255 255 255
-0.157085 -0.481378 2.071 255 255 255
-0.521183 0.39181 1.359 255 255 255
0.432984 0.198557 0.952 255 255 255
0.0914448 0.0962372 1.072 255 255 255
-0.00109681 0.00214442 1.13 255 255 255
-0.158072 -0.279399 1.686 0 0 0
0.374006 0.288743 0.745 255 255 255
0.0857398 0.187548 0.872 255 255 255
-0.544737 -0.436738 1.853 0 0 0
-0.714443 -0.165238 1.616 255 255 255
-0.15732 0.124423 0.942 255 255 255
0.0460901 0.277456 0.823 255 255 255
0.179869 0.239705 0.787 255 255 255
-0.912483 -0.577076 1.929 255 255 255
-0.199363 0.101064 0.999 255 255 255
0.228531 -0.162265 1.249 0 0 0
0.111601 0.165924 0.934 255 255 255
0.406726 0.0325499 0.945 0 0 0
0.211733 0.138747 1.013 0 0 0
-0.427896 -0.074369 1.769 255 255 255
0.0256607 0.144135 0.961 255 255 255
-0.109258 0.191699 0.912 255 255 255
0.082797 0.0806118 1.073 255 255 255
0.365864 0.0426765 1.239 255 255 255
-0.604118 -0.342636 1.917 255 255 255
-0.426218 -0.201602 1.774 255 255 255
-0.0882239 0.268235 0.941 255 255 255
0.187795 -0.0272548 1.305 0 0 0
-0.404951 0.274028 1.21 255 255 255
0.1154 0.198032 0.85 255 255 255
0.0876617 -0.150526 1.27 255 255 255
0.209515 -0.367391 1.378 255 255 255
-0.678353 -0.106772 1.831 255 255 255
-0.803451 0.526842 1.642 255 255 255
-0.440601 0.231953 1.227 255 255 255
0.205386 0.195936 0.925 255 255 255
0.0592204 0.242619 0.784 255 255 255
-0.316528 -0.444833 1.403 255 255 255
-0.0689643 0.332639 0.95 255 255 255
-0.80968 0.505353 1.633 255 255 255
-0.396214 -0.360397 1.719 255 255 255
-0.0779069 -0.0141569 1.273 255 255 255
0.374998 0.234713 0.868 255 255 255
0.175851 0.0202164 1.222 255 255 255
0.0151207 -0.413547 1.719 255 255 255
0.219634 0.0959274 1.13 255 255 255
-0.91036 0.560795 1.739 255 255 255
-0.303529 -0.150446 1.686 255 255 255
-0.833373 0.521498 1.659 255 255 255
-0.621325 0.224129 1.375 255 255 255
0.0220025 0.198679 0.824 255 255 255
0.0640944 0.218108 0.797 255 255 255
-0.803881 0.486943 1.616 255 255 255
-0.842742 -0.542755 1.865 255 255 255
-0.558247 0.199521 1.316 255 255 255
0.358526 0.19338 0.92 255 255 255
0.299746 0.231791 0.847 255 255 255
0.0445131 0.157647 0.93 255 255 255
-0.225339 -0.101536 1.528 0 0 0
-0.0497176 0.360108 0.937 255 255 255
-0.536437 0.460824 1.387 255 255 255
0.292814 -0.0872594 1.196 255 255 255
0.308589 0.196718 0.901 255 255 255
-0.194174 0.166292 0.981 255 255 255
0.502032 -0.0397764 1.452 255 255 255
-0.360542 0.319041 1.187 255 255 255
0.100434 0.154598 0.958 255 255 255
-0.545702 0.546868 1.429 255 255 255
-0.766772 -0.65853 1.966 255 255 255
-0.772542 -0.350192 1.528 0 0 0
0.31501 0.1129 1.116 255 255 255
0.459103 0.19034 0.942 0 0 0
-0.135262 0.297901 0.994 255 255 255
0.337768 0.27958 0.74 255 255 255
-0.64033 0.0430887 1.313 255 255 255
-0.227841 -0.454702 1.449 255 255 255
-0.0891834 0.287826 0.935 0 0 0
0.1822 -0.254712 1.375 255 255 255
-0.120306 0.14052 0.917 255 255 255
-0.664977 -0.207634 1.705 255 255 255
-0.107242 0.0176759 1.185 255 255 255
-0.0830954 0.293912 0.935 0 0 0
-0.573121 0.49328 1.422 255 255 255
0.253964 0.269217 0.738 255 255 255
0.327481 0.237041 0.851 255 255 255
0.158002 -0.0772064 1.254 0 0 0
0.316861 0.279202 0.739 255 255 255
-0.261949 -0.422 1.442 255 255 255
0.0316604 0.224593 0.797 255 255 255
-0.443344 0.0940912 1.176 255 255 255
0.212002 0.177887 0.941 255 255 255
0.271631 0.147279 1.015 255 255 255
-0.68609 -0.284823 1.789 0 0 0
-0.499886 -0.330577 1.769 255 255 255
-0.306141 0.171517 1.096 255 255 255
0.384214 0.00691529 1.02 0 0 0
-0.497573 0.176678 1.26 255 255 255
-0.668385 -0.489769 2.078 255 255 255
-0.00674863 0.35106 0.902 255 255 255
-0.0168044 -0.026171 1.359 255 255 255
-0.434062 0.108036 1.182 255 255 255
0.281455 0.082398 1.173 255 255 255
-0.278205 0.313791 1.12 255 255 255
0.0304771 -0.504903 1.991 255 255 255
0.0672523 -0.20299 1.275 0 0 0
0.191652 0.261785 0.734 255 255 255
0.267328 -0.0312244 1.387 255 255 255
-0.164482 0.390745 1.057 255 255 255
0.0721873 -0.152778 1.289 255 255 255
-0.23204 -0.13938 1.591 255 255 255
-0.0917208 0.174699 0.886 255 255 255
0.371121 0.167422 1.007 0 0 0
0.243769 0.19876 0.884 0 0 0
-0.158265 0.388158 1.05 255 255 255
0.328485 0.155078 1.012 255 255 255
-0.484906 0.514995 1.369 255 255 255
-0.376003 -0.294966 1.729 0 0 0
0.345696 0.00840005 1.239 255 255 255
0.252913 0.0887286 1.156 255 255 255
0.559176 -0.11367 1.524 255 255 255
-0.234585 0.0346829 1.112 255 255 255
0.294345 -0.415108 1.316 0 0 0
0.115943 0.21059 0.834 255 255 255
0.195783 0.247988 0.769 255 255 255
0.0164566 -0.0133785 1.203 255 255 255
0.493348 -0.0883737 1.559 255 255 255
0.132314 -0.283046 1.416 255 255 255
-0.665783 -0.337305 1.805 0 0 0
-0.0772197 -0.0386806 1.412 255 255 255
-0.201489 -0.278318 1.616 255 255 255
-0.343069 0.120232 1.1 255 255 255
0.226419 0.175997 0.931 255 255 255
-0.214393 -0.444547 1.47 255 255 255
-0.0714946 -0.0817072 1.484 255 255 255
-0.22591 -0.467056 1.422 255 255 255
0.221518 -0.266967 1.369 0 0 0
-0.0340955 -0.0393107 1.435 255 255 255
-0.669426 -0.29227 1.799 0 0 0
-0.210448 0.399618 1.081 255 255 255
0.249588 0.0575725 1.213 0 0 0
-0.671329 -0.295551 1.7 0 0 0
0.292212 0.186169 0.914 0 0 0
0.0283424 -0.240633 1.299 0 0 0
0.0529492 0.325519 0.847 255 255 255
0.015824 -0.23468 1.313 0 0 0
-0.880633 0.445285 1.677 255 255 255
0.37721 0.0662747 1.192 255 255 255
-0.18147 0.136015 0.948 255 255 255
-0.0706919 0.283869 0.932 0 0 0
0.342498 -0.2485 1.141 0 0 0
-0.0170833 -0.359452 1.591 255 255 255
-0.433204 -0.252116 1.744 255 255 255
-0.670518 0.221844 1.403 255 255 255
-0.515403 0.302316 1.316 255 255 255
0.0525116 0.195702 0.84 255 255 255
0.140979 0.160834 0.958 255 255 255
-0.675725 -0.364142 1.899 255 255 255
0.214952 0.123662 1.053 0 0 0
-0.0978396 0.0797854 1.062 255 255 255
0.224602 0.111324 1.083 255 255 255
-0.30039 0.0204969 1.128 255 255 255
0.109045 0.0376411 1.147 255 255 255
0.347467 0.179021 0.947 255 255 255
0.364119 0.172302 0.988 0 0 0
-0.619576 -0.558421 1.997 255 255 255
-0.166674 0.405654 1.06 255 255 255
-0.299105 -0.440049 1.463 255 255 255
0.0698434 0.154038 0.945 255 255 255
-0.0075428 0.200991 0.828 255 255 255
0.308821 0.202778 0.889 255 255 255
0.468635 -0.0515333 1.52 255 255 255
-0.486557 -0.0295546 1.147 255 255 255
-0.627716 0.0673022 1.327 255 255 255
-0.302288 0.0827298 1.034 255 255 255
0.0822115 0.135609 1.002 255 255 255
-0.229429 0.254376 1.055 255 255 255
-0.295404 0.0168555 1.13 255 255 255
0.0767641 0.240167 0.768 255 255 255
-0.446432 -0.0774661 1.774 255 255 255
0.00990659 0.200872 0.822 255 255 255
0.112515 -0.237899 1.319 0 0 0
0.104576 0.0447926 1.139 255 255 255
-0.442893 0.274546 1.239 255 255 255
-0.850605 0.535343 1.677 255 255 255
-0.141519 -0.319758 1.789 255 255 255
-0.504568 0.259242 1.283 255 255 255
-0.736034 -0.60461 1.978 255 255 255
0.208768 0.231075 0.82 255 255 255
-0.616463 -0.0804355 1.842 255 255 255
0.228976 -0.0190045 1.322 255 255 255
0.246645 -0.405459 1.348 255 255 255
-0.124125 0.124977 0.958 255 255 255
-0.528977 0.0612155 1.247 255 255 255
-0.482998 0.444877 1.339 255 255 255
-0.328188 -0.124031 1.7 255 255 255
0.246107 0.275129 0.722 255 255 255
-0.365479 0.282117 1.178 255 255 255
-0.429198 0.305951 1.252 255 255 255
-0.623275 0.106893 1.336 255 255 255
0.0628448 -0.0979324 1.313 255 255 255
-0.150145 0.319823 1.007 255 255 255
-0.44398 0.367433 1.289 255 255 255
0.14463 -0.0674305 1.262 255 255 255
0.236198 -0.25906 1.351 0 0 0
-0.565524 0.181973 1.313 255 255 255
0.199214 0.276728 0.714 255 255 255
0.446936 -0.0797266 1.539 255 255 255
-0.120745 0.0215326 1.185 255 255 255
-0.344941 0.126287 1.106 255 255 255
0.0116462 -0.182782 1.324 255 255 255
-0.460136 0.000304995 1.128 0 0 0
0.27812 0.262944 0.758 255 255 255
-0.168288 0.164474 0.952 255 255 255
0.182878 0.243294 0.778 255 255 255
-0.118911 0.030701 1.167 0 0 0
-0.356503 0.1272 1.114 255 255 255
0.202344 -0.317364 1.375 255 255 255
-0.673465 -0.290175 1.734 255 255 255
0.365362 0.114212 1.077 0 0 0
-0.296331 0.0380954 1.106 255 255 255
0.0703242 0.159331 0.931 255 255 255
-0.829009 0.41007 1.624 255 255 255
-0.382124 0.0148837 1.12 255 255 255
0.311633 0.0706839 1.201 0 0 0
0.32874 -0.241014 1.132 0 0 0
0.457867 0.0988448 0.918 255 255 255
-0.0432907 0.312015 0.93 0 0 0
0.165772 0.243617 0.775 255 255 255
0.444764 0.185002 0.954 255 255 255
0.227682 -0.0709035 1.327 0 0 0
-0.126739 -0.117463 1.509 255 255 255
0.248239 0.104005 1.118 255 255 255
-0.312606 0.0547528 1.046 255 255 255
-0.435054 -0.0827237 1.763 255 255 255
-0.851299 0.523176 1.673 255 255 255
0.388735 0.123947 1.041 255 255 255
-0.57176 -0.260934 1.805 0 0 0
0.393287 0.114754 1.005 255 255 255
0.281521 0.168116 0.964 255 255 255
-0.163736 -0.222782 1.633 0 0 0
-0.490274 0.257221 1.273 255 255 255
-0.0403918 -0.315438 1.591 255 255 255
0.348653 0.252146 0.798 255 255 255
-0.364342 0.040451 1.073 255 255 255
-0.265129 -0.501765 1.409 0 0 0
0.345119 -0.167114 1.156 255 255 255
0.285225 0.0875235 1.165 255 255 255
0.326618 0.232861 0.856 255 255 255
0.20962 0.272238 0.73 255 255 255
-0.200587 0.368051 1.066 255 255 255
-0.179031 0.417224 1.072 255 255 255
0.388075 0.167885 1 255 255 255
0.245751 0.219037 0.851 255 255 255
0.413517 0.0682792 0.95 0 0 0
0.097568 0.131631 1.009 255 255 255
0.0736994 -0.0681742 1.316 255 255 255
0.240841 0.226877 0.834 255 255 255
-0.231519 0.396261 1.106 255 255 255
-0.204748 0.273548 1.043 255 255 255
0.427649 0.0455067 0.927 255 255 255
-0.349389 0.062974 1.07 255 255 255
0.478471 -0.0297907 0.972 255 255 255
0.257044 0.243575 0.804 255 255 255
0.491762 -0.0419981 0.999 255 255 255
-0.295943 0.450047 1.176 255 255 255
0.646517 -0.177734 1.659 255 255 255
-0.351771 0.384295 1.21 255 255 255
-0.50992 0.28215 1.302 255 255 255
-0.67068 -0.592991 2.004 0 0 0
0.0568445 0.0292541 1.112 255 255 255
0.181101 -0.412959 1.419 255 255 255
-0.287522 -0.401855 1.705 255 255 255
0.227405 0.0248271 1.254 255 255 255
-0.544462 0.443369 1.396 255 255 255
-0.0570471 0.15244 0.908 255 255 255
0.154266 -0.313079 1.406 255 255 255
-0.630599 0.169312 1.366 255 255 255
0.443833 0.0693427 0.923 0 0 0
0.288629 0.237085 0.827 255 255 255
0.351134 0.220523 0.879 0 0 0
0.189784 0.249188 0.765 255 255 255
0.130835 -0.296439 1.425 255 255 255
0.033449 0.0830067 1.059 255 255 255
-0.112028 0.23012 0.948 255 255 255
0.395235 0.215977 0.908 255 255 255
-0.654639 -0.405908 2.099 255 255 255
0.12954 0.249617 0.755 255 255 255
-0.0646472 0.19442 0.871 255 255 255
0.0933816 0.0529686 1.116 255 255 255
-0.0497158 0.177556 0.858 255 255 255
-0.134495 0.162016 0.912 255 255 255
-0.211936 0.0642314 1.062 255 255 255
0.231285 -0.409846 1.348 255 255 255
0.118697 0.102637 1.066 0 0 0
0.337594 0.193183 0.912 255 255 255
0.209033 -0.115979 1.254 255 255 255
-0.736966 -0.476323 1.744 255 255 255
0.4682 0.149899 0.948 255 255 255
0.519766 -0.0433854 1.032 255 255 255
0.382892 0.221129 0.893 255 255 255
-0.635226 -0.204549 1.853 255 255 255
0.423385 0.00185976 0.98 255 255 255
-0.509677 -0.0181153 1.132 255 255 255
0.287954 -0.160679 1.192 255 255 255
0.0647354 0.268561 0.789 255 255 255
0.24271 -0.195994 1.27 0 0 0
-0.189333 0.0601031 1.081 255 255 255
-0.138108 -0.167016 1.583 255 255 255
0.350894 0.202679 0.908 255 255 255
-0.203032 -0.150028 1.567 255 255 255
0.0979983 -0.222861 1.27 255 255 255
-0.701916 -0.119319 1.362 255 255 255
0.178473 -0.0229017 1.299 0 0 0
0.386041 0.240387 0.858 255 255 255
0.146561 0.235863 0.787 255 255 255
0.0921882 0.21534 0.816 255 255 255
0.455692 0.00938212 0.935 0 0 0
-0.746893 0.448529 1.547 255 255 255
-0.505537 -0.235331 1.789 255 255 255
0.205773 0.197872 0.92 255 255 255
0.247817 -0.227888 1.275 255 255 255
-0.76723 -0.576487 1.959 255 255 255
-0.0247478 0.174579 0.864 255 255 255
-0.443664 -0.0138682 1.763 255 255 255
0.258655 -0.405838 1.342 255 255 255
-0.287536 0.33806 1.128 0 0 0
-0.0523213 0.0204242 1.124 255 255 255
-0.714541 -0.535385 1.972 0 0 0
-0.398587 0.0201698 1.11 255 255 255
-0.241325 -0.439338 1.445 255 255 255
0.134774 0.00797293 1.176 255 255 255
0.263032 0.0787813 1.176 255 255 255
0.241187 -0.252869 1.33 0 0 0
-0.301366 0.255012 1.118 255 255 255
-0.0808881 0.158834 0.878 255 255 255
0.0403256 0.169422 0.904 255 255 255
-0.0326223 -0.284369 1.591 0 0 0
-0.328355 -0.389957 1.445 255 255 255
-0.269429 -0.391919 1.47 255 255 255
-0.207104 0.0869514 1.005 255 255 255
-0.173899 -0.121984 1.535 255 255 255
-0.388677 -0.0485973 1.774 255 255 255
-0.0669569 -0.420599 1.607 255 255 255
-0.769684 0.552687 1.616 255 255 255
0.137284 0.185813 0.884 255 255 255
0.30323 -0.289253 1.299 255 255 255
-0.412612 -0.182099 1.753 255 255 255
0.190611 0.217376 0.834 255 255 255
-0.0818292 -0.204107 1.591 255 255 255
0.361563 0.103364 1.092 255 255 255
-0.111534 0.136606 0.931 255 255 255
-0.746097 -0.181935 1.535 0 0 0
-0.200967 0.266247 1.041 255 255 255
-0.148779 0.142053 0.927 255 255 255
0.147063 0.160666 0.957 255 255 255
0.216157 0.23916 0.798 255 255 255
-0.401811 -0.379979 1.719 255 255 255
0.366426 0.178333 0.977 0 0 0
0.088201 0.0860102 1.075 255 255 255
0.13521 -0.0719914 1.27 255 255 255
0.330299 -0.388728 1.265 0 0 0
-0.436929 -0.00719972 1.154 255 255 255
-0.462451 0.194805 1.232 255 255 255
0.0322045 0.0702658 1.075 0 0 0
0.067869 0.129731 1.007 255 255 255
0.0607157 0.199803 0.84 255 255 255
-0.468051 -0.0221847 1.152 255 255 255
-0.048826 0.165309 0.867 255 255 255
0.396469 0.230273 0.878 255 255 255
0.414236 0.0162293 0.981 255 255 255
-0.13455 0.367886 1.013 255 255 255
0.293979 -0.15395 1.185 255 255 255
-0.369822 0.306807 1.192 255 255 255
0.393197 0.187141 0.957 255 255 255
0.0566498 -0.323856 1.487 255 255 255
-0.796031 -0.248745 1.595 0 0 0
-0.00380784 0.34334 0.901 255 255 255
0.3763 0.188807 0.942 0 0 0
-0.207799 -0.0953619 1.509 0 0 0
0.205922 -0.330703 1.384 255 255 255
0.317146 0.20544 0.888 255 255 255
0.183621 0.254066 0.75 255 255 255
0.276972 -0.110924 1.425 255 255 255
0.315938 0.0554611 1.21 255 255 255
0.346982 0.217215 0.883 0 0 0
-0.107581 0.178526 0.898 255 255 255
0.114568 -0.558322 2.107 255 255 255
0.378492 0.0592544 1.132 255 255 255
-0.224611 0.318085 1.073 255 255 255
0.0843199 0.224473 0.792 255 255 255
0.35096 0.223791 0.875 255 255 255
0.0407808 0.27377 0.824 255 255 255
0.392128 0.0833986 1.064 255 255 255
-0.66468 -0.270493 1.81 0 0 0
0.15965 0.049479 1.162 255 255 255
0.228574 0.0787813 1.176 255 255 255
-0.0473871 0.106299 1.018 255 255 255
0.0608748 0.0675123 1.087 0 0 0
-0.130299 0.250902 0.981 255 255 255
-0.352692 0.431149 1.22 255 255 255
0.266126 0.264534 0.752 255 255 255
-0.176625 0.417406 1.068 255 255 255
0.413599 -0.00473611 1.027 255 255 255
0.278398 -0.109123 1.201 255 255 255
-0.240525 0.156009 1.029 255 255 255
0.0937479 -0.0735219 1.297 255 255 255
0.130933 0.254978 0.742 255 255 255
-0.0856788 0.240885 0.93 255 255 255
-0.663953 0.0737261 1.366 255 255 255
-0.553302 0.33454 1.351 255 255 255
-0.161336 0.0697274 1.094 255 255 255
0.172016 -0.0791207 1.252 255 255 255
0.342945 0.0730617 1.208 0 0 0
0.291746 -0.125989 1.176 255 255 255
0.217687 -0.249537 1.359 255 255 255
-0.0668502 0.311442 0.942 255 255 255
0.334923 -0.221806 1.128 255 255 255
-0.732622 -0.306897 1.587 0 0 0
0.456222 -0.0687121 1.06 255 255 255
0.28118 -0.100343 1.213 255 255 255
0.103486 0.17167 0.916 255 255 255
0.382848 0.0167422 1.012 255 255 255
0.00805732 0.164217 0.916 255 255 255
0.0725697 0.134246 1.004 255 255 255
0.343519 0.0637037 1.217 0 0 0
-0.375231 0.0253578 1.7 0 0 0
-0.24179 -0.242333 1.587 0 0 0
-0.700508 0.0682354 1.39 255 255 255
0.0741333 0.321262 0.822 255 255 255
-0.511518 0.40929 1.351 255 255 255
-0.16991 0.0515026 1.165 255 255 255
-0.107833 0.330385 0.98 255 255 255
0.14697 -0.0889511 1.247 255 255 255
-0.374532 0.140301 1.147 255 255 255
0.272721 -0.388805 1.336 255 255 255
-0.201569 0.320724 1.053 255 255 255
0.252048 -0.183814 1.286 0 0 0
0.460269 0.229276 0.908 255 255 255
0.16723 0.119207 1.044 255 255 255
0.401339 0.225236 0.892 255 255 255
-0.682398 -0.198725 1.7 255 255 255
0.148518 -0.41878 1.439 255 255 255
-0.187727 -0.155128 1.567 255 255 255
0.446062 -0.0402108 0.995 255 255 255
0.404655 0.137556 0.981 255 255 255
-0.275308 0.244197 1.094 0 0 0
0.0416778 0.0590456 1.094 0 0 0
0.198259 0.203589 0.88 255 255 255
-0.475309 -0.354607 1.774 255 255 255
-0.643547 0.367223 1.445 255 255 255
0.473143 -0.143448 1.551 255 255 255
-0.12447 0.0819742 1.068 255 255 255
0.276786 -0.176534 1.294 255 255 255
0.329825 -0.29869 1.225 255 255 255
-0.73714 0.245563 1.477 255 255 255
0.396713 0.215977 0.908 255 255 255
-0.00134336 -0.0334091 1.384 255 255 255
0.149092 -0.0325951 1.265 0 0 0
-0.440073 0.212761 1.22 255 255 255
0.206867 -0.157667 1.229 0 0 0
0.125399 -0.278437 1.416 0 0 0
-0.0586848 0.0722921 1.106 255 255 255
0.146096 0.249375 0.758 255 255 255
0.284015 0.241438 0.81 255 255 255
0.0591448 0.235938 0.783 255 255 255
0.380386 0.0581571 1.046 255 255 255
0.0519889 -0.515924 1.947 255 255 255
-0.130215 0.360074 1.005 255 255 255
-0.409091 0.0184297 1.114 255 255 255
-0.294084 0.0205696 1.132 255 255 255
0.241394 0.23704 0.813 255 255 255
0.31705 -0.051772 1.143 0 0 0
0.346917 0.277995 0.752 255 255 255
0.0931564 0.186769 0.875 255 255 255
0.0559601 -0.175507 1.302 255 255 255
-0.349834 -0.0736964 1.753 0 0 0
-0.243565 0.0331098 1.12 255 255 255
0.114709 -0.358548 1.587 0 0 0
-0.0742234 0.355707 0.958 255 255 255
0.18904 0.249451 0.762 255 255 255
-0.160441 -0.0525856 1.48 255 255 255
-0.182586 -0.334368 1.821 255 255 255
-0.706312 -0.25271 1.691 0 0 0
-0.162933 0.157644 0.939 255 255 255
0.317671 -0.267768 1.152 0 0 0
-0.667138 0.511181 1.509 255 255 255
-0.428066 -0.0290399 1.203 255 255 255
0.235385 -0.34021 1.359 255 255 255
-0.173813 0.373134 1.051 255 255 255
0.163235 0.215291 0.826 255 255 255
0.463977 -0.0121363 0.952 255 255 255
0.308729 -0.361527 1.278 255 255 255
0.0366187 0.234784 0.792 255 255 255
-0.853025 0.443486 1.65 255 255 255
-0.102851 0.151714 0.895 255 255 255
0.0930724 0.122875 1.032 255 255 255
-0.120741 -0.0568595 1.466 0 0 0
-0.037897 -0.303253 1.595 255 255 255
-0.756091 0.367614 1.535 255 255 255
0.420679 -0.0324053 1.004 0 0 0
0.377159 0.0607597 1.198 255 255 255
-0.390895 -0.0395765 1.758 255 255 255
-0.786193 0.359751 1.555 255 255 255
0.1294 0.12228 1.027 0 0 0
0.0242504 0.298332 0.856 255 255 255
0.11138 0.198265 0.851 255 255 255
-0.338548 -0.0476385 1.739 0 0 0
0.0886845 0.241087 0.763 255 255 255
-0.215553 0.253908 1.046 255 255 255
-0.423492 0.503459 1.31 255 255 255
-0.238214 -0.0474138 1.547 255 255 255
-0.151482 0.296291 1.005 255 255 255
0.118267 -0.0340784 1.244 255 255 255
0.278436 -0.0894504 1.254 0 0 0
0.351319 0.243934 0.832 255 255 255
0.414742 0.0179166 0.986 255 255 255
-0.201952 0.326483 1.055 255 255 255
-0.0545247 -0.156068 1.551 255 255 255
-0.18399 0.248083 1.022 255 255 255
0.414462 -0.00305888 1.025 255 255 255
-0.719558 -0.52546 2.099 0 0 0
-0.0511335 0.344124 0.935 255 255 255
0.10388 -0.407463 1.753 0 0 0
0.376774 0.0512249 1.203 255 255 255
0.429168 0.0110436 0.947 255 255 255
-0.218157 -0.349185 1.821 255 255 255
0.00945511 -0.255071 1.319 255 255 255
0.337595 -0.199522 1.137 255 255 255
0.290685 0.22021 0.861 0 0 0
0.278246 -0.0542738 1.291 0 0 0
-0.079643 0.370064 0.967 255 255 255
-0.687756 -0.315067 1.686 255 255 255
-0.21539 -0.108995 1.528 0 0 0
-0.639078 -0.201016 1.821 255 255 255
-0.11135 0.195734 0.917 255 255 255
0.0761174 0.200754 0.844 255 255 255
-0.464899 0.0934315 1.192 255 255 255
0.0529224 0.1525 0.945 255 255 255
-0.406356 -0.039689 1.763 255 255 255
-0.164784 0.0212419 1.169 255 255 255
-0.192571 0.0118004 1.176 255 255 255
-0.301477 0.0593443 1.037 255 255 255
-0.0859578 -0.228918 1.62 0 0 0
-0.14292 0.245396 0.991 255 255 255
0.268777 0.260953 0.763 255 255 255
0.297621 0.0973705 1.147 255 255 255
0.232024 0.206225 0.867 255 255 255
-0.0790664 0.33614 0.96 255 255 255
-0.554336 -0.142139 1.865 255 255 255
-0.205468 0.175267 1.005 255 255 255
0.199765 0.211742 0.844 255 255 255
0.194424 0.200019 0.923 255 255 255
-0.141145 0.0488403 1.147 255 255 255
0.264788 -0.138142 1.351 0 0 0
0.258688 0.222405 0.848 255 255 255
-0.750702 -0.722805 1.941 255 255 255
-0.741539 -0.295992 1.612 255 255 255
-0.70237 -0.755501 2.151 0 0 0
-0.524526 0.204135 1.291 255 255 255
-0.351681 -0.301052 1.748 255 255 255
0.0724176 0.263796 0.775 255 255 255
0.0654899 0.189294 0.867 255 255 255
0.399706 0.26754 0.786 255 255 255
-0.352779 0.121106 1.108 255 255 255
-0.586079 0.070002 1.297 255 255 255
-0.379684 -0.401812 1.659 255 255 255
0.446931 0.138138 0.952 255 255 255
-0.268879 -0.322877 1.642 255 255 255
0.0174247 0.299367 0.863 255 255 255
-0.531718 -0.0783762 1.273 255 255 255
0.0462095 -0.316248 1.463 255 255 255
-0.118813 0.142013 0.917 255 255 255
-0.00214111 0.226838 0.824 255 255 255
0.190976 -0.329874 1.39 255 255 255
-0.431264 0.176223 1.201 255 255 255
-0.372809 0.391918 1.234 255 255 255
0.0857966 -0.14881 1.273 255 255 255
-0.212819 0.104562 0.986 255 255 255
-0.515711 -0.195117 1.794 255 255 255
-0.688304 0.391045 1.491 255 255 255
0.111146 0.127207 1.013 255 255 255
0.0582398 0.259245 0.788 255 255 255
-0.0895382 0.149922 0.893 255 255 255
0.416576 0.00859198 1.022 255 255 255
0.181944 0.156074 0.977 255 255 255
-0.665739 0.213462 1.393 255 255 255
0.246914 0.178084 0.934 255 255 255
-0.160476 0.205992 0.98 255 255 255
-0.130692 -0.0971045 1.498 255 255 255
0.334919 0.0919423 1.173 255 255 255
-0.0613381 -0.119253 1.532 255 255 255
-0.688164 -0.41631 2.017 255 255 255
-0.130848 -0.0102655 1.305 0 0 0
-0.00825335 0.16095 0.906 255 255 255
-0.49328 -0.0603955 1.244 255 255 255
-0.176187 0.297183 1.025 255 255 255
0.236822 0.225506 0.839 255 255 255
-0.581108 0.0526663 1.286 255 255 255
-0.312372 0.309616 1.145 255 255 255
-0.381856 -0.466199 1.978 255 255 255
0.27588 -0.0382423 1.396 255 255 255
0.169552 -0.43836 1.419 255 255 255
0.065183 0.248678 0.779 255 255 255
-0.0198746 0.304202 0.898 255 255 255
0.22252 -0.0706364 1.322 0 0 0
0.37477 0.119197 1.059 0 0 0
0.0540713 0.315751 0.843 255 255 255
0.570963 -0.0622164 1.13 255 255 255
-0.116206 0.257559 0.97 255 255 255
0.420249 0.213768 0.924 255 255 255
-0.056628 0.0169599 1.137 255 255 255
0.281127 -0.360781 1.345 255 255 255
-0.429973 0.124468 1.192 255 255 255
-0.121543 0.166479 0.904 255 255 255
0.383171 0.109782 1.068 255 255 255
0.37784 0.140617 1.039 0 0 0
-0.601695 0.0684671 1.308 255 255 255
0.424675 0.120477 0.972 255 255 255
-0.23722 -0.28178 1.591 255 255 255
-0.548121 -0.0588905 1.213 255 255 255
0.150639 0.230498 0.795 255 255 255
-0.721264 0.169311 1.422 255 255 255
-0.764589 -0.351108 1.532 0 0 0
0.240071 0.235717 0.813 255 255 255
-0.489369 -0.0673236 1.26 255 255 255
-0.306274 -0.164165 1.686 255 255 255
0.0428783 -0.226546 1.291 0 0 0
0.458345 0.0760202 0.913 255 255 255
-0.499886 -0.411182 1.769 255 255 255
-0.178254 -0.244735 1.62 0 0 0
-0.661725 -0.308974 1.794 255 255 255
-0.000900747 0.157308 0.928 255 255 255
-0.13499 0.282772 0.992 255 255 255
-0.177391 0.319366 1.032 255 255 255
0.0582133 -0.154675 1.305 255 255 255
0.106098 0.0547847 1.116 255 255 255
-0.670438 -0.296057 1.719 0 0 0
-0.200967 0.267941 1.041 255 255 255
-0.677246 -0.584138 1.985 0 0 0
-0.346415 0.0879229 1.077 255 255 255
-0.532508 -0.167364 1.842 255 255 255
-0.799741 0.512068 1.629 255 255 255
-0.204446 0.0995374 1 255 255 255
-0.605983 0.0821079 1.322 255 255 255
0.0973348 0.307347 0.793 255 255 255
-0.347817 0.198635 1.139 255 255 255
0.39301 0.119285 1.03 255 255 255
0.0315355 -0.0915641 1.345 0 0 0
-0.107341 0.173755 0.896 255 255 255
-0.431906 -0.0395383 1.225 255 255 255
-0.0471927 -0.182243 1.559 255 255 255
-0.497946 0.481332 1.362 255 255 255
0.39467 0.0640563 0.98 255 255 255
0.228629 0.100546 1.12 255 255 255
-0.460346 0.444202 1.324 255 255 255
-0.0566937 -0.0433988 1.416 255 255 255
-0.352872 0.0403379 1.07 255 255 255
0.459355 0.104002 0.924 255 255 255
0.0371121 -0.255462 1.31 255 255 255
-0.288993 0.367951 1.141 255 255 255
0.033424 -0.0365165 1.333 255 255 255
-0.506851 0.199217 1.273 255 255 255
-0.345921 0.00962605 1.145 255 255 255
0.0307433 0.286942 0.843 255 255 255
-0.694335 -0.516548 1.826 255 255 255
-0.635169 0.38758 1.442 255 255 255
0.0488196 -0.515924 1.947 255 255 255
-0.691274 -0.276416 1.668 255 255 255
-0.711431 -0.119056 1.359 255 255 255
0.04331 -0.542145 1.985 255 255 255
0.196908 -0.345917 1.4 255 255 255
0.317236 -0.216174 1.137 255 255 255
-0.21083 -0.180009 1.607 255 255 255
-0.576273 0.323403 1.369 255 255 255
-0.647584 0.138495 1.369 0 0 0
0.354425 0.0950785 1.12 255 255 255
0.0881883 0.170921 0.912 255 255 255
0.133271 0.212793 0.832 255 255 255
0.121611 0.0229661 1.16 255 255 255
-0.320028 0.08385 1.048 255 255 255
0.176395 0.188003 0.923 255 255 255
-0.274706 -0.238142 1.629 255 255 255
-0.0176203 0.00397625 1.128 255 255 255
-0.676247 -0.481378 2.071 255 255 255
-0.415387 -0.129468 1.815 255 255 255
-0.72594 -0.328529 1.567 0 0 0
0.114988 -0.0494515 1.275 255 255 255
0.0489636 0.0985168 1.059 255 255 255
0.0286479 -0.206903 1.313 0 0 0
-0.0550795 0.240437 0.9 255 255 255
0.161446 -0.233916 1.333 0 0 0
0.156525 0.172925 0.939 255 255 255
0.103143 0.178924 0.9 255 255 255
0.242434 0.205045 0.874 0 0 0
0.0939201 0.172027 0.91 255 255 255
0.0676096 0.214544 0.808 255 255 255
0.298842 0.0332147 1.189 0 0 0
0.22396 -0.222707 1.281 255 255 255
-0.169416 -0.461387 2.057 255 255 255
-0.461875 0.373419 1.31 255 255 255
0.162038 -0.172665 1.208 0 0 0
-0.777962 -0.351755 1.524 0 0 0
-0.022151 -0.349916 1.583 255 255 255
0.315189 -0.219175 1.143 255 255 255
0.396388 0.205633 0.928 255 255 255
0.28468 -0.0506094 1.362 0 0 0
0.342654 -0.339322 1.265 255 255 255
-0.108678 0.161909 0.895 255 255 255
0.278887 -0.0136676 1.229 255 255 255
-0.227673 -0.353115 1.826 255 255 255
-0.44156 0.431965 1.313 255 255 255
0.419611 0.190079 0.964 255 255 255
0.116221 -0.00737441 1.182 255 255 255
-0.328188 0.0170584 1.7 0 0 0
0.228938 0.0919309 1.149 255 255 255
-0.36979 -0.406583 1.853 0 0 0
0.155555 0.276723 0.711 255 255 255
-0.728052 -0.415311 1.659 255 255 255
-0.562723 0.260244 1.342 255 255 255
-0.694558 -0.337876 1.65 255 255 255
-0.325765 0.134063 1.096 255 255 255
0.0528154 -0.418394 1.763 255 255 255
-0.731499 -0.313058 1.579 0 0 0
0.255511 0.12058 1.087 255 255 255
-0.295968 -0.0103504 1.659 0 0 0
0.533736 -0.170076 1.612 255 255 255
0.217374 0.204052 0.882 255 255 255
0.0669629 0.265922 0.785 255 255 255
-0.305719 -0.10541 1.668 255 255 255
0.509565 -0.107276 1.539 255 255 255
-0.127587 -0.284868 1.719 0 0 0
0.00245178 0.0579122 1.073 0 0 0
0.429433 -0.0353177 0.994 255 255 255
0.451126 0.106761 0.935 255 255 255
0.0725003 0.203804 0.834 255 255 255
0.0143955 -0.285039 1.381 255 255 255
0.0285533 0.16795 0.904 255 255 255
0.257263 0.142034 1.037 0 0 0
-0.189501 0.389313 1.072 255 255 255
