ply
format ascii 1.0
comment Created by Open3D
element vertex 1326
property double x
property double y
property double z
property uchar red
property uchar green
property uchar blue
end_header
0.252237 0.187333 0.793 0 0 0
-0.231913 0.397451 1.043 255 255 255
0.139905 -0.339179 1.043 255 255 255
-0.137705 0.0937806 0.858 255 255 255
-0.71771 0.644167 1.705 255 255 255
-0.41974 -0.0778125 1.143 255 255 255
0.290493 0.030017 1.141 0 0 0
0.117959 0.210176 0.729 255 255 255
0.142033 0.246832 0.659 255 255 255
0.266293 0.179332 0.729 255 255 255
0.0813022 0.0874461 1.372 255 255 255
-1.16826 -0.990672 2.672 0 0 0
0.0229172 0.211284 0.69 255 255 255
-0.325457 -0.0457817 1.089 255 255 255
-0.621325 0.0540736 1.375 255 255 255
-0.224641 0.0382916 0.935 0 0 0
0.166598 -0.173482 1.242 255 255 255
0.294392 0.197202 0.684 255 255 255
0.120914 0.0235133 1.294 255 255 255
-0.714809 0.00513246 1.456 255 255 255
0.272823 0.141007 0.961 255 255 255
-0.37634 -0.093932 1.182 255 255 255
0.327062 0.177966 0.714 255 255 255
0.244895 0.0763569 1.087 0 0 0
-0.0664111 -0.542567 1.729 255 255 255
0.232123 0.199392 0.765 255 255 255
-0.297577 -0.19497 1.319 255 255 255
0.250506 0.045868 1.12 255 255 255
-0.028501 0.120261 1.39 255 255 255
0.115035 0.234646 1.21 255 255 255
-0.177283 -0.515355 1.686 0 0 0
0.333715 -0.0638227 1.232 255 255 255
-0.544035 0.19015 1.372 255 255 255
-0.243978 -0.185507 1.393 255 255 255
-0.358423 -0.0726015 1.12 255 255 255
-0.43876 0.347743 1.286 255 255 255
-0.504591 -0.284691 1.327 255 255 255
0.226883 0.14628 1.094 255 255 255
-0.133204 0.096348 0.856 255 255 255
0.203339 -0.394586 1.055 0 0 0
0.287713 0.139028 0.969 255 255 255
-0.25228 -0.0115213 1.036 255 255 255
0.129739 -0.31449 1.057 255 255 255
-0.23003 0.0131694 0.991 255 255 255
-0.165727 -0.358295 1.422 0 0 0
-0.530635 -0.176012 1.372 255 255 255
-0.0835701 -0.0175154 1.575 255 255 255
-0.368443 -0.129704 1.289 0 0 0
0.199635 -0.264874 1.072 255 255 255
-0.345844 -0.212615 1.283 255 255 255
-0.00180072 0.205436 0.693 255 255 255
0.0499259 -0.262512 1.369 255 255 255
0.405056 -0.0316216 0.851 0 0 0
-0.318501 -0.0115991 1.043 255 255 255
-0.0287675 0.112253 1.403 255 255 255
0.151256 -0.268834 1.591 255 255 255
0.319681 0.172991 0.775 0 0 0
-0.198778 -0.606935 1.637 255 255 255
0.137551 0.248836 0.653 255 255 255
-0.35384 -0.115735 1.297 0 0 0
-0.287016 -0.217089 1.31 255 255 255
-0.739901 0.279797 1.575 255 255 255
0.326075 0.150308 0.913 255 255 255
0.412824 -0.031998 0.825 0 0 0
-0.584547 0.0900709 1.378 0 0 0
-0.117779 0.113134 0.826 0 0 0
0.237137 0.0906641 1.068 255 255 255
0.28232 -0.233958 1.516 255 255 255
-0.246897 0.0532631 0.905 255 255 255
0.134505 0.200782 1.283 255 255 255
-0.0914945 0.320246 0.844 255 255 255
-0.401831 -0.217882 1.302 255 255 255
0.00262939 0.216708 0.672 255 255 255
-0.239443 -0.18324 1.393 255 255 255
-0.165021 0.295285 0.925 255 255 255
-0.55058 0.262378 1.4 255 255 255
-0.520979 0.440985 1.425 255 255 255
-0.0239731 0.182214 1.27 255 255 255
0.0125346 -0.215276 1.425 255 255 255
0.300554 0.218679 0.668 255 255 255
0.564991 -0.373837 1.513 255 255 255
-0.226847 0.0126526 1.505 255 255 255
-0.109046 0.144715 1.324 255 255 255
-0.54007 -0.156998 1.362 255 255 255
0.390079 -0.335221 1.719 255 255 255
0.428376 -0.0249366 1.194 0 0 0
-0.551196 0.058797 1.33 255 255 255
0.307548 0.181756 0.734 255 255 255
-0.292056 -0.144978 1.333 255 255 255
0.300422 0.174501 0.749 255 255 255
-0.471396 -0.199308 1.278 255 255 255
-0.479231 0.265811 1.305 255 255 255
-0.311614 -0.0307628 1.06 255 255 255
0.0546027 0.215585 0.693 255 255 255
-0.792046 -0.454994 1.686 0 0 0
0.202366 0.117288 1.106 255 255 255
-0.44143 -0.0188194 1.176 255 255 255
0.0908514 0.0837228 1.348 255 255 255
-0.0445162 0.136659 0.814 255 255 255
-0.757618 0.0725233 1.528 255 255 255
0.245841 -0.032054 1.244 255 255 255
0.354527 -0.0109746 1.156 255 255 255
0.33274 0.169481 0.788 255 255 255
-0.201602 0.00997415 0.994 255 255 255
-0.127522 0.117678 0.811 0 0 0
0.268492 0.180382 0.719 255 255 255
0.2921 -0.204771 1.466 255 255 255
-0.227372 0.0269852 0.966 0 0 0
-0.445576 0.0553694 1.208 255 255 255
0.271227 -0.0647034 1.249 255 255 255
0.169321 -0.347018 1.036 255 255 255
0.407438 0.033062 0.877 255 255 255
-0.434279 -0.085551 1.147 255 255 255
-0.0717664 0.246694 0.793 255 255 255
0.397296 -0.0223388 1.16 255 255 255
-0.547535 0.534199 1.491 255 255 255
0.358828 -0.0621069 0.891 0 0 0
-0.0622994 0.0753243 1.439 255 255 255
-0.0630403 0.0201063 1.513 255 255 255
0.42006 -0.106483 0.937 255 255 255
0.212276 0.17316 1.13 0 0 0
-0.244428 -0.129203 1.422 255 255 255
-0.145175 -0.589867 1.664 255 255 255
-0.729746 -0.119441 1.416 0 0 0
-0.624236 0.0202415 1.357 255 255 255
0.0833422 0.22891 0.679 255 255 255
-0.0946755 -0.243777 1.547 255 255 255
-0.272954 0.317148 1.064 255 255 255
-0.106383 0.0854991 0.888 255 255 255
0.483322 -0.193806 1.205 255 255 255
0.12035 0.215448 0.715 255 255 255
-0.248369 0.0761583 0.864 255 255 255
0.110037 0.226061 0.694 255 255 255
-0.114045 -0.0481494 1.571 255 255 255
0.112228 0.195731 1.291 255 255 255
-0.688493 -0.361343 1.502 255 255 255
-0.393475 0.0184627 1.116 255 255 255
0.0272515 0.217819 1.249 255 255 255
0.0494883 -0.114464 1.357 255 255 255
-0.450267 -0.137452 1.283 255 255 255
-0.314037 -0.155978 1.316 0 0 0
0.327119 0.122865 1.018 0 0 0
0.162472 -0.0794367 1.257 0 0 0
-0.115736 0.123708 1.378 255 255 255
-0.158559 0.0846068 0.85 255 255 255
0.0349185 0.229642 0.662 255 255 255
-0.666206 -0.101214 1.357 0 0 0
0.262156 0.215775 0.69 0 0 0
0.194001 -0.107851 1.187 255 255 255
-0.117351 0.115402 0.823 0 0 0
0.287705 0.228396 0.671 0 0 0
-0.062759 0.162649 0.762 255 255 255
0.309782 0.173353 0.76 0 0 0
-0.10432 0.0530253 1.47 255 255 255
0.305349 -0.255229 1.571 0 0 0
0.00994982 0.250866 0.65 255 255 255
0.309678 -0.0270372 1.201 255 255 255
0.273053 0.247932 0.692 255 255 255
-0.650635 0.503976 1.595 255 255 255
0.113991 0.247394 0.652 255 255 255
-0.362179 -0.0299502 1.032 255 255 255
-0.203661 -0.497503 1.7 255 255 255
-0.65737 -0.136547 1.357 255 255 255
-0.204175 0.0547358 0.905 255 255 255
0.257557 0.181319 0.752 255 255 255
0.25905 0.138269 1.087 255 255 255
-0.0423107 0.193388 1.262 255 255 255
0.331613 -0.0994813 1.278 0 0 0
0.142428 0.054636 1.192 255 255 255
-0.41445 0.138046 1.192 255 255 255
0.199673 -0.216544 1.234 0 0 0
0.15831 -0.264628 1.064 255 255 255
0.182772 0.190323 1.242 255 255 255
-0.750059 -0.0020327 1.498 255 255 255
-0.365492 -0.125217 1.286 0 0 0
-0.281928 0.410659 1.106 255 255 255
-0.253476 0.306523 1.034 0 0 0
-0.0530798 -0.495091 1.664 0 0 0
-0.659792 -0.190244 1.362 0 0 0
0.409806 -0.188132 1.158 255 255 255
-0.377781 -0.147315 1.278 0 0 0
-0.70037 -0.0844714 1.372 255 255 255
0.352458 0.0877778 1.034 255 255 255
-0.223368 -0.198678 1.406 255 255 255
0.0567663 0.04457 1.429 255 255 255
-0.131946 -0.0737147 1.571 255 255 255
0.354476 -0.0280502 1.162 255 255 255
0.402738 -0.00402593 0.873 255 255 255
-1.17475 -0.946381 2.707 0 0 0
0.0155589 0.183126 1.291 0 0 0
-0.206456 -0.315874 1.313 0 0 0
0.397793 -0.0281708 1.167 255 255 255
-0.389289 0.0430145 1.141 255 255 255
-0.0243551 -0.259268 1.412 255 255 255
0.387242 -0.163946 1.147 255 255 255
0.0293597 0.247143 0.635 255 255 255
-0.256675 -0.0445021 1.452 255 255 255
0.293146 -0.131666 1.33 0 0 0
0.187891 0.213972 0.738 255 255 255
0.142906 0.0626045 1.196 255 255 255
0.0680619 0.0466657 1.422 255 255 255
-0.622516 0.388757 1.52 255 255 255
-0.115157 0.282413 0.867 255 255 255
-1.01959 0.179694 1.966 255 255 255
0.432896 0.0919537 0.854 255 255 255
-0.0841361 0.0441661 1.494 255 255 255
0.210128 -0.0514455 1.273 255 255 255
-0.0573437 -0.0452446 1.559 255 255 255
0.141969 -0.0888736 1.275 255 255 255
-0.537209 0.191541 1.366 255 255 255
0.0382415 0.197225 0.725 255 255 255
0.297948 -0.0114018 1.201 0 0 0
-0.952691 0.0453377 1.837 255 255 255
-0.371635 0.390479 1.217 255 255 255
0.174724 0.0410134 1.137 255 255 255
-0.0106916 0.112008 1.429 255 255 255
-0.119053 -0.188176 1.505 0 0 0
0.151656 -0.172513 1.362 0 0 0
-0.222821 0.347824 1.017 255 255 255
0.373175 0.0735225 0.938 255 255 255
0.439959 -0.0906677 0.947 0 0 0
0.117096 0.182073 0.787 255 255 255
-0.281497 -0.124115 1.366 255 255 255
0.127155 0.188854 0.778 255 255 255
-0.273456 -0.117501 1.393 255 255 255
0.257144 0.0880861 1.079 255 255 255
0.13375 0.184635 0.787 255 255 255
0.401842 -0.229994 1.539 255 255 255
-1.27008 -0.915963 2.449 255 255 255
0.200081 -0.0515264 1.275 255 255 255
0.214353 0.222368 0.734 255 255 255
-0.17785 -0.335124 1.505 0 0 0
0.168306 -0.145193 1.225 255 255 255
-0.134178 -0.405425 1.769 255 255 255
-0.331284 -0.46937 1.595 255 255 255
0.00963045 0.202969 0.704 255 255 255
0.313862 0.131148 1.018 0 0 0
-0.740008 0.357813 1.603 255 255 255
0.0862752 0.231198 0.676 255 255 255
0.18777 -0.0797526 1.262 0 0 0
-0.654075 0.205457 1.432 255 255 255
-0.97225 0.419853 1.923 255 255 255
0.377834 0.0906984 0.942 255 255 255
0.563825 -0.328033 1.484 255 255 255
-0.47056 -0.0116486 1.227 255 255 255
0.298272 -0.179352 1.416 255 255 255
0.408625 -0.00723716 1.16 0 0 0
0.352908 -0.131667 1.229 255 255 255
-0.467794 -0.093747 1.156 255 255 255
-0.403465 -0.496281 1.668 255 255 255
-0.327549 0.204736 1.102 255 255 255
0.000449506 0.210559 0.684 255 255 255
-1.06615 0.290394 2.024 255 255 255
0.0348532 -0.424878 1.39 0 0 0
-0.697484 -0.167372 1.393 255 255 255
-0.0194202 0.230779 0.678 255 255 255
-0.549701 -0.270375 1.375 0 0 0
-0.227719 0.285247 0.995 255 255 255
0.0192414 0.194667 1.257 0 0 0
-0.653669 -0.49225 1.484 0 0 0
-0.162363 0.0911574 0.834 255 255 255
0.197463 0.199588 0.761 255 255 255
-0.461263 -0.190242 1.273 255 255 255
-0.684305 0.484231 1.607 255 255 255
-0.838681 0.625253 1.714 255 255 255
-0.28891 0.305318 1.059 0 0 0
-0.708571 -0.118597 1.406 0 0 0
-0.692153 0.481616 1.607 0 0 0
0.131628 0.249808 0.65 255 255 255
0.388567 0.135154 0.942 255 255 255
0.226365 -0.119291 1.205 255 255 255
0.137885 0.210423 0.734 255 255 255
-0.232854 -0.154658 1.422 255 255 255
-0.0104504 0.244046 0.669 255 255 255
0.0797214 0.246349 0.641 255 255 255
0.176973 -0.0597319 1.273 0 0 0
-0.0397028 0.197521 0.705 255 255 255
-0.0630403 -0.0980769 1.513 255 255 255
0.09682 -0.0145684 1.31 255 255 255
-0.440843 0.248838 1.262 255 255 255
0.258489 0.188423 0.714 255 255 255
0.0968421 -0.134326 1.403 255 255 255
-0.567092 -0.168112 1.278 255 255 255
-0.175757 -0.307592 1.646 255 255 255
-0.0926497 0.177763 0.763 255 255 255
0.269582 0.140674 0.918 255 255 255
0.389084 0.0830405 0.925 255 255 255
0.408321 0.0823521 0.901 255 255 255
-0.0930828 0.22562 0.81 255 255 255
-0.124848 0.152682 0.794 0 0 0
0.163517 -0.110113 1.234 0 0 0
0.151478 -0.259098 1.077 0 0 0
0.411822 0.126397 0.912 0 0 0
0.326987 0.123897 1.055 0 0 0
-0.188148 -0.149386 1.509 255 255 255
-0.412152 -0.0604546 1.098 255 255 255
0.0301521 0.184509 1.286 255 255 255
0.106234 0.247692 0.65 255 255 255
0.0784036 0.0368307 1.4 255 255 255
-0.265505 -0.119252 1.387 255 255 255
0.0868477 0.136977 1.354 255 255 255
-0.577056 0.20445 1.409 255 255 255
-0.288787 -0.0518395 1.459 255 255 255
-0.508242 0.381 1.384 255 255 255
0.242763 -0.0870612 1.249 0 0 0
-0.268745 -0.164488 1.369 0 0 0
-0.571249 0.217742 1.406 255 255 255
-0.781699 -0.299053 1.484 255 255 255
0.184339 -0.102056 1.187 255 255 255
-0.686969 0.428054 1.583 0 0 0
0.386986 -0.04858 0.857 0 0 0
-0.372692 -0.271224 1.227 255 255 255
0.00899065 0.179872 0.746 255 255 255
0.414857 -0.259098 1.579 0 0 0
0.422354 0.022572 0.858 255 255 255
0.0380728 -0.690339 2.051 255 255 255
0.316176 -0.036656 1.196 255 255 255
0.0460599 0.159556 1.322 255 255 255
-0.730057 0.107953 1.502 255 255 255
0.0498165 -0.130784 1.366 255 255 255
-0.184794 -0.240063 1.463 255 255 255
-1.36381 -0.917966 2.638 0 0 0
0.14893 0.104189 1.182 255 255 255
0.107599 0.233639 1.215 255 255 255
0.0539061 -0.103422 1.357 255 255 255
0.210716 0.213972 0.738 0 0 0
0.502951 -0.249666 1.229 255 255 255
-0.711306 -0.209308 1.416 0 0 0
-0.339536 -0.219589 1.275 255 255 255
0.254914 0.128233 1.077 255 255 255
0.328701 -0.0210152 1.192 255 255 255
-0.0576895 0.111149 0.852 255 255 255
-0.619383 0.1796 1.449 0 0 0
0.303032 -0.175798 1.406 255 255 255
0.333672 -0.120018 1.345 0 0 0
0.430734 0.0840069 0.858 255 255 255
0.336443 0.128898 0.964 255 255 255
0.197418 -0.00356919 1.196 255 255 255
-0.782002 -0.322332 1.48 255 255 255
0.302447 0.174451 0.843 255 255 255
0.338465 0.0889663 1.048 255 255 255
-0.622986 0.209904 1.463 0 0 0
0.186194 0.119621 1.128 255 255 255
-0.343384 -0.46129 1.603 255 255 255
0.365566 0.0585066 0.942 255 255 255
0.427442 0.0378865 0.857 255 255 255
-0.501624 -0.218887 1.308 255 255 255
0.0373829 -0.0224041 1.4 255 255 255
0.410226 0.0419098 0.883 255 255 255
-0.135695 -0.386718 1.789 255 255 255
-0.385474 0.455625 1.249 255 255 255
0.161508 0.158975 1.234 255 255 255
-0.627167 0.108011 1.378 255 255 255
0.407969 0.16665 0.897 255 255 255
0.353541 0.218969 0.693 255 255 255
-0.929464 0.0743308 1.815 255 255 255
0.359433 0.0324465 0.942 255 255 255
-0.207495 0.11149 0.814 255 255 255
0.180777 -0.185529 1.215 0 0 0
0.179045 -0.0555887 1.273 255 255 255
0.0217212 0.0973692 1.419 255 255 255
0.349839 0.171262 0.73 255 255 255
-0.218439 0.321514 0.997 255 255 255
0.0957781 -0.319981 1.025 0 0 0
-0.685684 -0.0202121 1.406 255 255 255
-0.605664 0.295236 1.473 255 255 255
0.262351 0.156688 0.874 255 255 255
-0.68665 -0.475506 1.477 255 255 255
0.136415 0.192173 0.766 255 255 255
0.327948 0.240129 0.689 255 255 255
-0.612147 -0.0062026 1.345 255 255 255
-0.0766199 -0.302235 1.646 0 0 0
-0.050386 0.20932 0.71 255 255 255
-0.335392 0.0233296 1.012 255 255 255
0.0056031 0.0819489 1.432 255 255 255
0.39142 0.165801 0.814 255 255 255
0.055991 -0.103194 1.354 255 255 255
0.188688 0.227707 1.215 0 0 0
-0.364009 -0.0748228 1.126 255 255 255
0.250555 0.238686 0.708 255 255 255
-0.704324 0.445391 1.599 255 255 255
0.161708 0.200737 0.756 255 255 255
0.277254 0.126118 1.089 0 0 0
-0.357573 -0.476727 1.62 255 255 255
0.275145 0.188257 0.709 255 255 255
0.10644 0.180103 0.784 255 255 255
0.0278487 0.192909 0.731 255 255 255
0.0329436 -0.254314 1.043 255 255 255
-0.100797 0.13657 0.798 255 255 255
-0.446927 0.165668 1.239 255 255 255
0.164617 -0.289508 1.06 255 255 255
-0.33927 0.361143 1.167 255 255 255
0.338685 0.175642 0.714 255 255 255
-0.667115 0.146479 1.425 255 255 255
0.368657 -0.0886029 0.958 255 255 255
-0.17186 0.103097 0.821 255 255 255
0.400857 -0.0125355 0.872 255 255 255
-0.266282 0.352678 1.072 0 0 0
0.414272 -0.0325169 1.187 0 0 0
-0.892886 0.550547 1.837 255 255 255
0.341542 0.146322 0.935 255 255 255
0.190405 0.163357 1.165 255 255 255
-0.996955 0.435938 1.953 255 255 255
-0.00301754 0.197718 0.714 255 255 255
-0.175185 0.254779 0.931 255 255 255
-0.100743 -0.00466442 1.563 255 255 255
0.353771 -0.162616 1.372 0 0 0
-0.689195 -0.196417 1.39 0 0 0
-0.407947 -0.259343 1.237 0 0 0
-0.0876376 0.0749579 1.432 255 255 255
0.308898 -0.126302 1.342 0 0 0
-0.951997 0.145712 1.859 255 255 255
-0.342432 0.454567 1.198 255 255 255
-0.257237 -0.26605 1.289 0 0 0
0.113547 -0.116672 1.357 255 255 255
0.191146 0.0323487 1.158 255 255 255
-1.2813 -0.920538 2.44 255 255 255
-0.65015 0.252065 1.487 255 255 255
-0.0260684 0.126224 1.381 255 255 255
0.257833 0.233254 0.709 255 255 255
0.388665 -0.0198783 0.883 255 255 255
-0.0133457 0.199231 0.707 255 255 255
-0.136363 -0.13184 1.563 255 255 255
0.512812 -0.14322 1.002 255 255 255
0.360511 -0.0373317 0.888 255 255 255
0.415655 0.102879 0.901 255 255 255
-0.981698 0.487174 1.917 255 255 255
-0.645899 -0.441689 1.445 255 255 255
-0.428891 0.0564334 1.189 255 255 255
0.35671 -0.156938 1.208 255 255 255
0.596807 -0.371574 1.494 0 0 0
0.381502 -0.0089754 1.141 255 255 255
0.0389919 0.231467 0.658 255 255 255
0.317862 0.165978 0.878 255 255 255
0.332566 0.0701351 1.073 255 255 255
0.23338 0.234204 0.719 255 255 255
-0.00754844 0.201536 0.703 255 255 255
0.135332 -0.0139234 1.252 255 255 255
-0.173679 0.224051 0.923 255 255 255
-0.67357 -0.0375848 1.372 255 255 255
0.195792 0.250639 0.678 255 255 255
0.183807 -0.15478 1.222 0 0 0
0.324874 -0.194379 1.442 255 255 255
-0.237651 0.102871 0.841 0 0 0
0.152692 0.22302 1.244 255 255 255
-0.657312 0.319641 1.509 0 0 0
0.243982 -0.221765 1.422 255 255 255
-0.901313 0.549048 1.842 255 255 255
-0.618908 -0.450717 1.459 0 0 0
0.4252 -0.0794743 1.196 0 0 0
0.109447 0.250646 0.644 255 255 255
-0.0557522 0.16143 0.768 255 255 255
0.202123 0.238039 0.696 255 255 255
0.354447 0.205487 0.697 255 255 255
-0.221847 -0.541314 1.734 255 255 255
-0.036279 0.0887536 1.429 255 255 255
0.461746 -0.209494 1.205 255 255 255
0.248756 0.0336123 1.137 255 255 255
-0.0603549 0.251213 0.779 255 255 255
0.178276 -0.127251 1.225 255 255 255
-0.268009 0.111047 0.873 255 255 255
0.133525 0.218384 0.717 255 255 255
0.0300006 -0.371066 1.375 255 255 255
0.0991236 0.242543 0.659 255 255 255
0.219659 0.205916 0.748 0 0 0
-0.113499 0.180793 0.787 255 255 255
0.418829 0.058349 0.871 255 255 255
-0.6166 0.488806 1.555 255 255 255
-0.573162 -0.134309 1.273 0 0 0
-1.28363 -0.924298 2.572 255 255 255
0.411271 -0.285084 1.595 255 255 255
-0.637148 0.291272 1.502 0 0 0
-0.244345 0.106738 0.85 255 255 255
-0.433048 0.154805 1.217 255 255 255
-0.247903 0.384384 1.068 255 255 255
0.102808 0.239338 0.662 255 255 255
-0.0512905 -0.227536 1.459 255 255 255
0.132304 0.211871 1.262 255 255 255
-0.248083 0.25389 1.012 255 255 255
-0.632101 0.13337 1.409 255 255 255
-0.353021 -0.182852 1.294 255 255 255
-0.452974 0.215789 1.273 255 255 255
0.377389 -0.0576122 0.867 0 0 0
0.00472397 0.224312 0.659 255 255 255
-0.282703 0.382274 1.102 255 255 255
-0.24573 -0.164007 1.403 0 0 0
0.0827682 -0.0491974 1.324 0 0 0
-1.25289 -0.959729 2.695 0 0 0
0.143467 0.212232 0.732 255 255 255
0.155268 0.254249 0.656 255 255 255
-0.129476 0.12173 1.381 255 255 255
-0.238112 -0.160463 1.412 255 255 255
-0.250176 -0.0117837 1.498 255 255 255
-0.180667 0.0522678 1.449 255 255 255
0.249194 0.0299644 1.139 255 255 255
0.24256 0.201872 0.729 255 255 255
0.0540148 0.213207 0.7 255 255 255
0.315443 -0.0803154 1.239 255 255 255
0.361319 0.0219234 0.951 255 255 255
-0.248203 0.102468 0.849 0 0 0
0.1057 -0.305851 1.075 0 0 0
0.0396962 0.24301 0.635 255 255 255
-0.602285 0.117319 1.409 0 0 0
0.211675 0.223258 0.733 255 255 255
0.385419 -0.195322 1.449 255 255 255
-0.911318 0.365988 1.826 255 255 255
-0.677529 -0.0949379 1.362 0 0 0
0.329704 -0.0638227 1.232 255 255 255
-0.23664 -0.503256 1.739 255 255 255
-0.266044 0.00775432 1.505 255 255 255
-0.308418 0.203975 1.079 255 255 255
0.120174 0.249133 0.651 255 255 255
0.397398 -0.0082989 1.055 255 255 255
0.0669045 0.207593 0.716 255 255 255
0.0445973 -0.674678 2.044 255 255 255
-0.00138995 -0.0368982 1.432 255 255 255
0.394118 0.16384 0.798 255 255 255
0.413004 -0.0888486 0.928 0 0 0
0.237249 -0.251787 1.396 255 255 255
0.338173 0.131487 0.96 255 255 255
-0.158242 0.187887 0.887 255 255 255
-0.322167 0.220876 1.102 255 255 255
0.0853938 0.0514968 1.366 255 255 255
-0.129511 0.300814 0.888 255 255 255
0.0541711 -0.272139 1.027 255 255 255
-0.419757 -0.498996 1.668 0 0 0
-0.188261 -0.4742 1.686 0 0 0
-0.422457 0.406845 1.281 255 255 255
0.213112 0.250631 0.684 255 255 255
-0.221043 0.110312 0.825 0 0 0
-0.166453 -0.0742778 1.583 255 255 255
-0.0967547 0.178461 0.766 255 255 255
0.409816 0.00583732 0.861 255 255 255
0.484346 -0.151352 1.165 255 255 255
-0.139682 0.115498 0.805 0 0 0
-0.24996 -0.544393 1.753 255 255 255
-0.328203 -0.0775569 1.33 0 0 0
0.261239 0.181252 0.789 255 255 255
-0.0835226 -0.41163 1.677 0 0 0
-0.462451 0.0865425 1.232 255 255 255
-0.370982 -0.045067 1.072 255 255 255
-0.418271 0.00586855 1.139 255 255 255
0.389687 0.163175 0.902 255 255 255
0.179897 0.233878 1.196 0 0 0
0.144057 -0.0344345 1.257 255 255 255
-0.230518 0.117084 0.835 255 255 255
-0.13821 0.0569838 1.449 255 255 255
-0.285945 -0.236132 1.286 0 0 0
0.406083 0.0143599 0.868 255 255 255
-0.390668 -0.127459 1.227 0 0 0
-0.141451 -0.119123 1.563 255 255 255
0.201568 -0.259882 1.073 255 255 255
0.145173 0.14668 1.249 255 255 255
-0.0818722 0.00795011 1.543 255 255 255
-0.50137 -0.454512 1.616 255 255 255
0.395665 0.000307969 1.139 0 0 0
-0.928682 0.577856 1.774 255 255 255
-0.333379 -0.278073 1.222 0 0 0
0.351978 -0.0204511 1.16 255 255 255
0.0625299 -0.302222 1.027 255 255 255
0.202579 -0.00355725 1.192 255 255 255
-0.326217 -0.0237954 1.057 255 255 255
0.258403 0.254713 0.686 255 255 255
0.10803 -0.140874 1.4 255 255 255
-0.052273 0.136155 0.811 255 255 255
-0.0681874 -0.0380198 1.575 255 255 255
0.285902 0.256571 0.685 255 255 255
0.470685 -0.0880434 0.969 0 0 0
-0.741046 -0.286205 1.48 255 255 255
-0.19454 0.385699 0.991 255 255 255
-0.203267 -0.241311 1.442 255 255 255
-0.218135 -0.130547 1.463 255 255 255
0.0517734 -0.121267 1.359 255 255 255
-0.225898 0.0964703 0.833 0 0 0
-0.621788 0.0677936 1.381 255 255 255
-0.161958 -0.2257 1.494 255 255 255
0.369664 -0.219734 1.52 255 255 255
-0.713507 -0.029761 1.425 255 255 255
-0.793558 0.490006 1.719 255 255 255
-0.760854 0.555208 1.696 255 255 255
-0.445837 -0.514046 1.664 255 255 255
0.416631 -0.0722286 1.205 255 255 255
-0.498363 0.0393613 1.262 255 255 255
0.24982 0.155951 1.007 0 0 0
-0.0227033 0.171072 0.75 255 255 255
-0.314738 -0.165926 1.31 255 255 255
0.296205 0.226288 0.668 0 0 0
-0.622856 0.0179933 1.354 255 255 255
-0.00457787 0.154193 0.782 255 255 255
0.0102866 0.217801 0.672 255 255 255
0.164518 0.178303 1.257 255 255 255
-0.144379 -0.418874 1.753 255 255 255
-0.200502 -0.168215 1.439 255 255 255
-0.969216 0.362391 1.917 255 255 255
-0.642847 -0.0931256 1.336 255 255 255
0.237902 0.217775 0.715 255 255 255
0.159179 0.0394387 1.145 255 255 255
0.0974852 -0.00178981 1.319 255 255 255
0.225575 0.229942 0.724 255 255 255
-0.854464 0.569773 1.794 255 255 255
-0.309495 -0.114886 1.362 255 255 255
0.0583306 0.226213 0.671 255 255 255
-0.210426 -0.533822 1.71 255 255 255
-0.164581 0.215502 0.906 255 255 255
-0.387426 -0.438843 1.646 255 255 255
0.35316 0.0402559 1.116 255 255 255
-0.83284 0.515794 1.779 0 0 0
-0.994119 0.0468679 1.899 255 255 255
0.125853 0.198014 0.755 255 255 255
-0.196005 -0.138176 1.494 255 255 255
-0.50811 0.22967 1.342 255 255 255
0.0769496 0.245406 0.644 255 255 255
0.162907 0.250808 0.661 255 255 255
-0.0148949 0.234553 0.673 255 255 255
0.396921 -0.0140666 0.879 255 255 255
0.3763 0.0937643 0.942 0 0 0
-0.519497 0.363651 1.378 255 255 255
0.429936 0.0858013 0.862 255 255 255
0.17093 0.237887 0.689 255 255 255
0.368666 -0.0376018 1.165 255 255 255
0.256971 0.146703 0.9 255 255 255
0.272659 0.230706 0.691 255 255 255
-0.107707 0.0854028 0.887 255 255 255
-0.120599 0.135072 1.357 255 255 255
-0.0733954 0.27605 0.811 255 255 255
-0.460447 -0.111256 1.294 255 255 255
-0.343893 -0.291095 1.21 0 0 0
0.263822 -0.247612 1.509 255 255 255
-0.0750963 0.195692 0.737 0 0 0
-0.507885 -0.516271 1.62 255 255 255
0.0196302 0.0354163 1.435 255 255 255
0.00170231 0.178418 0.745 255 255 255
0.416805 -0.254579 1.567 0 0 0
-0.364929 0.228331 1.158 255 255 255
-0.26613 -0.0563166 1.452 255 255 255
-0.0605155 0.162045 0.765 255 255 255
0.37832 -0.0469663 0.879 0 0 0
0.313128 0.215159 0.674 255 255 255
0.542405 -0.322878 1.505 255 255 255
0.049335 -0.00883432 1.416 255 255 255
-0.121917 0.287867 0.875 255 255 255
0.336966 -0.0846883 1.244 255 255 255
0.24609 -0.00551547 1.196 255 255 255
-0.300353 0.0019072 1.005 255 255 255
0.0254685 0.138798 1.372 255 255 255
-0.549983 -0.297563 1.387 0 0 0
-0.572181 -0.0905465 1.299 0 0 0
0.224841 0.218459 0.741 0 0 0
-0.497255 -0.282974 1.319 255 255 255
0.377921 -0.00995322 0.895 255 255 255
0.398873 -0.0126074 0.877 255 255 255
0.311377 0.042072 1.116 255 255 255
-0.363219 -0.118199 1.278 0 0 0
0.0905134 0.261831 1.173 0 0 0
-0.249205 0.0623078 0.887 0 0 0
0.383412 0.16973 0.84 255 255 255
-0.500748 -0.107669 1.185 255 255 255
-0.362219 -0.259763 1.239 0 0 0
-0.163772 0.258691 0.918 255 255 255
-0.259062 -0.0979634 1.439 255 255 255
-0.45518 0.29162 1.297 255 255 255
0.140619 0.102165 1.227 255 255 255
-0.313321 -0.172716 1.313 255 255 255
-0.603702 -0.0409469 1.336 255 255 255
-0.147122 0.175198 0.84 255 255 255
0.379984 -0.00557136 0.893 255 255 255
-0.764892 0.646942 1.705 255 255 255
-0.307259 0.0367565 0.975 255 255 255
-0.2789 0.02665 0.954 255 255 255
-0.879876 0.155402 1.763 255 255 255
-0.334718 -0.447129 1.599 255 255 255
-0.122912 0.221869 0.862 255 255 255
-0.395553 0.0393698 1.143 255 255 255
-0.0492522 0.116421 0.85 255 255 255
0.405094 -0.0303433 0.854 0 0 0
-0.852916 0.00852717 1.655 255 255 255
-0.0750322 0.118704 1.372 255 255 255
-0.338165 -0.448247 1.603 255 255 255
-0.0340242 -0.134772 1.432 255 255 255
0.360583 0.147261 0.941 255 255 255
-0.617812 0.142239 1.429 0 0 0
0.0581951 -0.169296 1.354 255 255 255
0.421838 -0.022955 1.192 255 255 255
-0.0895203 0.213182 0.779 255 255 255
-0.509042 -0.240424 1.333 255 255 255
0.0844488 -0.130537 1.387 255 255 255
0.262652 0.155443 0.875 255 255 255
0.318123 -0.0269246 1.196 255 255 255
0.352908 -0.149667 1.229 255 255 255
-0.938477 0.445516 1.899 0 0 0
0.334824 0.208129 0.687 255 255 255
0.0148229 -0.207881 1.422 255 255 255
-0.416391 0.136107 1.192 255 255 255
-0.0905662 -0.0529912 1.563 255 255 255
-0.811672 0.640491 1.71 255 255 255
-0.197425 -0.294625 1.563 255 255 255
-0.358582 -0.0373429 1.051 255 255 255
-1.14572 -1.01253 2.743 0 0 0
-0.0156337 -0.400033 1.456 255 255 255
0.249285 0.193925 0.768 255 255 255
-0.512479 -0.248599 1.342 255 255 255
-0.60425 -0.412959 1.419 255 255 255
0.277188 0.178782 0.825 0 0 0
-0.48199 0.506033 1.406 255 255 255
0.422495 0.0536621 0.864 255 255 255
-0.627082 0.164995 1.445 0 0 0
0.407438 -0.0110315 1.162 255 255 255
-0.283841 -0.45671 1.535 255 255 255
0.12387 0.0086848 1.281 255 255 255
0.286847 0.219006 0.669 255 255 255
-0.521324 -0.0266909 1.278 255 255 255
0.381502 0.00582218 1.13 255 255 255
-0.492674 -0.236646 1.324 255 255 255
-0.00324153 0.168709 0.767 255 255 255
0.184259 -0.139212 1.225 255 255 255
0.415408 -0.0935803 0.93 255 255 255
0.358023 -0.0475006 0.889 255 255 255
-0.914291 0.568051 1.826 255 255 255
-0.416242 -0.104893 1.22 255 255 255
0.425274 -0.112976 1.18 0 0 0
-0.678326 0.547495 1.624 0 0 0
-0.689537 0.471156 1.607 255 255 255
-0.021963 -0.354264 1.406 0 0 0
0.365578 0.140939 0.95 255 255 255
-0.0682357 0.159396 1.286 255 255 255
-0.856192 0.560128 1.81 255 255 255
-0.338777 0.460049 1.192 255 255 255
0.218044 -0.0748162 1.283 0 0 0
-0.159964 0.0762088 1.412 255 255 255
-0.124892 0.0780975 0.886 0 0 0
-0.0776418 0.167411 0.75 255 255 255
0.303739 0.241419 0.68 0 0 0
-0.491196 0.0267606 1.249 255 255 255
0.222937 0.193679 0.772 255 255 255
0.255037 0.0616043 1.108 0 0 0
0.179169 -0.224079 1.422 255 255 255
0.469714 -0.105172 0.967 255 255 255
0.307963 0.201065 0.682 255 255 255
-0.286373 -0.00661765 1.435 0 0 0
-0.10503 0.0509775 1.48 255 255 255
0.429348 0.0112558 0.847 255 255 255
0.196942 -0.0134007 1.205 255 255 255
-0.432958 -0.16535 1.257 255 255 255
-0.0194924 -0.314718 1.393 255 255 255
0.306403 0.202987 0.681 255 255 255
0.404811 0.140999 0.93 255 255 255
0.186745 0.213003 0.743 255 255 255
-0.539569 -0.309974 1.372 0 0 0
0.36312 0.0975228 0.964 0 0 0
0.117496 -0.31634 1.087 255 255 255
-0.164156 0.0546258 1.449 255 255 255
-1.16117 -0.976427 2.78 0 0 0
0.0218743 0.0259664 1.429 255 255 255
-0.39021 0.273944 1.201 255 255 255
-0.208822 -0.213917 1.416 0 0 0
0.411628 -0.156966 1.137 255 255 255
0.117346 0.23934 0.665 255 255 255
-0.545663 -0.454596 1.607 255 255 255
-0.282006 0.02665 0.954 255 255 255
-0.131546 0.309427 0.892 255 255 255
0.413307 0.13827 0.912 255 255 255
-0.0366091 -0.119287 1.442 255 255 255
-0.612332 0.248505 1.466 255 255 255
-0.390486 -0.509802 1.659 255 255 255
-0.288363 -0.14313 1.336 255 255 255
-0.0647878 0.197127 0.729 255 255 255
-0.456671 -0.514046 1.664 255 255 255
-0.703268 -0.113534 1.4 0 0 0
-0.770403 0.257515 1.612 255 255 255
0.123616 -0.207881 1.422 255 255 255
0.0915928 0.10431 1.359 255 255 255
0.335311 0.250977 0.688 255 255 255
-0.621662 0.460971 1.555 255 255 255
-0.554743 -0.440421 1.603 255 255 255
-0.320587 -0.0676132 1.128 255 255 255
-0.172293 0.00795011 1.543 255 255 255
0.209189 0.109889 1.104 255 255 255
-0.227492 -0.513097 1.734 255 255 255
-0.152349 0.0702483 0.878 255 255 255
0.510293 -0.244222 1.242 255 255 255
0.0672616 0.221765 1.237 255 255 255
0.123717 0.11886 1.324 255 255 255
-0.105038 0.124473 0.821 255 255 255
0.239146 0.159202 1.085 255 255 255
-0.846797 0.42144 1.784 255 255 255
-0.471152 -0.0738755 1.169 255 255 255
-0.287389 -0.0115769 1.041 255 255 255
-0.0345258 0.170883 1.278 0 0 0
0.203385 0.180773 0.804 255 255 255
0.334824 0.232725 0.687 255 255 255
-1.24239 -0.9489 2.582 0 0 0
0.0996515 0.20684 0.734 255 255 255
0.412624 -0.0484002 0.83 255 255 255
-0.132869 0.0933183 1.393 255 255 255
-0.0151613 -0.37186 1.412 255 255 255
-0.79125 0.480213 1.714 255 255 255
-0.602285 -0.256425 1.409 255 255 255
-0.666488 0.31327 1.502 255 255 255
0.183894 0.23915 0.683 255 255 255
0.362501 -0.0419975 1.182 255 255 255
0.0358498 0.181814 0.749 255 255 255
0.0602653 -0.179913 1.351 255 255 255
-0.174003 0.317237 0.941 255 255 255
-0.229108 0.00997415 0.994 255 255 255
0.323814 0.252112 0.685 0 0 0
0.445179 -0.127414 1.075 255 255 255
0.0460323 0.220255 0.683 255 255 255
0.337551 0.209552 0.688 255 255 255
0.0607972 0.184743 0.756 255 255 255
-0.0576202 0.124637 0.831 255 255 255
-0.627749 -0.240063 1.463 255 255 255
-0.0771059 0.108376 0.852 255 255 255
-0.106487 0.146315 1.319 255 255 255
-0.202582 -0.503125 1.691 255 255 255
0.124548 0.241857 0.663 255 255 255
-0.625367 -0.213875 1.463 255 255 255
0.126302 -0.393234 1.029 255 255 255
0.168851 0.254339 0.659 255 255 255
-0.108541 0.147263 0.779 255 255 255
0.263094 0.180766 0.73 255 255 255
-0.671235 0.134316 1.419 255 255 255
0.282 0.17609 0.772 255 255 255
-0.0197639 0.206792 0.69 255 255 255
0.436949 -0.0638682 1.16 255 255 255
-1.22236 -0.974041 2.593 255 255 255
0.0213692 -0.0882208 1.396 255 255 255
0.353256 -0.00534023 1.158 255 255 255
-1.1169 -1.03867 2.695 0 0 0
0.0680619 0.058236 1.422 255 255 255
-0.734915 -0.0138891 1.463 255 255 255
-0.297912 -0.302402 1.257 255 255 255
-0.905373 0.568051 1.826 255 255 255
-0.53725 0.11533 1.333 255 255 255
0.287503 0.178378 0.805 255 255 255
0.240861 0.23936 0.71 255 255 255
-0.283513 0.0944302 0.877 0 0 0
-0.454924 -0.0934227 1.152 255 255 255
-0.507714 0.0927878 1.291 255 255 255
0.387928 -0.0582743 0.856 255 255 255
0.00467379 0.248455 0.652 255 255 255
-0.227319 -0.34623 1.348 255 255 255
0.359308 0.0633511 1.02 0 0 0
-0.131888 0.249421 0.875 255 255 255
0.20295 0.198871 0.763 255 255 255
-0.321516 -0.00302904 1.015 255 255 255
-0.259719 0.396099 1.081 0 0 0
-0.0442081 0.286362 0.785 255 255 255
-0.534694 -0.253025 1.354 0 0 0
-0.220941 -0.0718847 1.532 255 255 255
-0.490577 -0.140323 1.33 255 255 255
-0.651583 0.0545455 1.387 255 255 255
-0.223502 0.0438557 0.924 0 0 0
-0.426796 0.00218617 1.152 255 255 255
-0.390263 -0.236743 1.278 255 255 255
-0.136107 0.0871388 1.403 255 255 255
0.202205 -0.137219 1.225 0 0 0
0.175338 0.124713 1.141 255 255 255
-0.187049 0.253997 0.945 255 255 255
0.179483 0.0979393 1.132 255 255 255
-0.489252 0.0929777 1.265 255 255 255
-0.638968 0.486072 1.579 255 255 255
-0.0301886 0.27628 0.754 255 255 255
-0.450971 -0.475989 1.673 255 255 255
-0.0580633 0.173395 0.734 255 255 255
0.491759 -0.272233 1.396 255 255 255
-0.19996 0.116808 0.805 255 255 255
-0.155142 0.0944345 0.839 255 255 255
0.105832 0.0496118 1.316 255 255 255
0.377366 -0.0882511 0.989 255 255 255
-0.0317596 -0.1911 1.435 255 255 255
0.366313 0.0181551 0.917 255 255 255
0.365118 0.123805 0.961 255 255 255
0.375141 0.176737 0.733 255 255 255
-0.255053 0.19528 1.007 255 255 255
-0.536919 0.313839 1.406 255 255 255
-0.0177206 0.201239 0.698 255 255 255
0.267802 -0.0668962 1.252 0 0 0
-0.152368 0.153088 0.824 255 255 255
-0.161038 0.138469 0.794 255 255 255
-0.0124018 0.190912 0.719 255 255 255
-0.157631 -0.163218 1.547 255 255 255
-0.232864 0.381422 1.055 255 255 255
0.477623 -0.114559 0.98 255 255 255
-0.994066 0.195754 1.935 255 255 255
-0.0371422 0.0599151 1.463 255 255 255
-0.716896 0.0554174 1.47 255 255 255
-0.112298 -0.174403 1.513 0 0 0
-0.216899 0.0589322 1.439 255 255 255
-0.339889 0.05442 1.073 255 255 255
0.273784 0.241951 0.691 255 255 255
-0.246872 -0.19646 1.359 255 255 255
0.0570549 0.231268 1.234 255 255 255
0.209533 -0.153077 1.257 255 255 255
-0.319174 -0.203051 1.302 255 255 255
-0.186553 -0.150079 1.516 255 255 255
-0.0774204 -0.279383 1.607 255 255 255
-0.165872 -0.37308 1.739 255 255 255
0.131552 0.20985 0.732 255 255 255
0.230315 0.187452 1.085 0 0 0
0.368313 -0.101502 1.227 255 255 255
0.210218 0.23523 0.708 255 255 255
-0.134495 0.0625798 0.912 0 0 0
0.301073 0.197202 0.684 255 255 255
0.127153 0.228888 1.232 255 255 255
-0.164135 -0.579035 1.664 0 0 0
-0.168873 0.0970038 0.826 255 255 255
0.114169 -0.230692 1.449 0 0 0
0.374408 -0.097964 1.208 0 0 0
0.341859 0.127593 0.966 255 255 255
-0.199602 0.280191 0.961 255 255 255
-0.113221 0.28111 0.863 255 255 255
-0.294754 -0.381767 1.477 0 0 0
-0.374813 -0.0466369 1.068 255 255 255
0.407815 0.113164 0.913 255 255 255
-0.617653 -0.208146 1.473 255 255 255
0.384013 -0.24882 1.579 255 255 255
0.311488 0.207115 0.68 255 255 255
-0.277754 0.227721 1.043 255 255 255
-0.104589 -0.366678 1.805 255 255 255
0.0235526 0.220198 0.676 255 255 255
-0.689054 -0.473103 1.477 255 255 255
0.0964505 -0.0315021 1.305 255 255 255
0.345066 -0.0867127 1.244 255 255 255
-0.177649 -0.192448 1.463 0 0 0
0.210468 0.257169 0.672 255 255 255
0.272352 0.176981 0.739 255 255 255
-0.0177071 -0.379457 1.432 255 255 255
0.356842 0.0530254 1.013 0 0 0
-0.202313 -0.250073 1.452 255 255 255
0.169321 -0.394223 1.036 0 0 0
-0.094009 -0.469495 1.719 255 255 255
-0.675803 -0.111264 1.372 255 255 255
0.30233 -0.0939793 1.26 255 255 255
0.421628 0.121128 0.895 255 255 255
-0.17822 -0.323786 1.393 255 255 255
-0.20693 0.243921 0.966 255 255 255
-0.587415 0.0471542 1.369 0 0 0
0.031404 0.206405 0.704 255 255 255
0.320671 -0.0549426 1.213 255 255 255
-0.523233 0.385404 1.4 255 255 255
0.397898 -0.0154793 0.878 255 255 255
-0.960164 0.527283 1.893 255 255 255
-0.0948293 -0.462304 1.734 0 0 0
0.0787231 -0.235261 1.366 255 255 255
-0.692169 -0.154102 1.396 255 255 255
0.339297 0.215955 0.687 255 255 255
-0.44386 -0.471669 1.677 255 255 255
-0.713984 0.521297 1.633 255 255 255
0.196369 0.246952 0.68 255 255 255
0.123144 -0.304797 1.09 0 0 0
-0.38393 -0.131249 1.244 0 0 0
0.194038 -0.271344 1.07 255 255 255
0.0676671 0.198091 0.737 255 255 255
0.196124 0.245819 0.683 255 255 255
-0.474674 -0.108488 1.173 255 255 255
0.0204966 0.152892 1.339 255 255 255
0.246448 0.194328 0.723 255 255 255
-0.336847 -0.291817 1.213 0 0 0
0.190757 0.191661 0.774 255 255 255
0.317358 0.224598 0.676 255 255 255
0.348035 0.0870943 1.046 255 255 255
0.384442 0.0836689 0.932 255 255 255
-0.163163 0.0846742 1.4 255 255 255
-0.302004 -0.304447 1.257 255 255 255
0.127185 0.178524 0.794 255 255 255
-0.271188 -0.348721 1.393 0 0 0
-0.414547 -0.207289 1.302 0 0 0
-0.613706 0.546129 1.567 255 255 255
-1.02592 0.387263 1.997 255 255 255
0.189241 -0.327009 1.053 255 255 255
0.158276 0.0846722 1.152 255 255 255
-0.319075 0.00833977 0.992 255 255 255
-0.287474 -0.139405 1.342 255 255 255
-0.0704665 0.11901 0.839 255 255 255
0.180033 0.0101725 1.21 255 255 255
-0.445837 -0.56008 1.664 255 255 255
-0.157094 -0.179507 1.494 0 0 0
0.00896015 0.230412 0.655 255 255 255
-0.639899 0.366895 1.532 0 0 0
0.240207 -0.2115 1.4 255 255 255
-0.203152 0.263536 0.963 255 255 255
-0.341474 -0.0287913 1.051 255 255 255
-0.319439 -0.478863 1.575 255 255 255
0.415567 0.160595 0.904 255 255 255
0.186278 0.232101 0.709 255 255 255
0.182067 -0.232407 1.445 255 255 255
0.410433 -0.194883 1.176 255 255 255
-0.229906 0.0102306 1.509 255 255 255
-0.194668 -0.287286 1.381 255 255 255
-0.281404 -0.231284 1.294 0 0 0
-0.299437 0.249753 1.072 255 255 255
0.102781 0.234499 0.676 255 255 255
0.306184 0.0022393 1.18 255 255 255
-0.409215 0.383871 1.247 255 255 255
-0.026899 -0.0622262 1.425 255 255 255
0.157691 -0.167032 1.302 0 0 0
0.251045 0.0813631 1.083 0 0 0
0.203464 0.0817322 1.112 0 0 0
0.430128 -0.102126 0.939 255 255 255
-0.713614 -0.389265 1.535 255 255 255
-0.329684 -0.121389 1.336 255 255 255
0.295793 0.110472 1.092 0 0 0
0.190003 -0.23882 1.47 0 0 0
-0.179358 0.142525 0.795 0 0 0
-0.230979 -0.517406 1.739 255 255 255
-0.240591 0.0269658 1.484 255 255 255
0.104676 0.246528 1.182 255 255 255
-0.506872 0.238976 1.333 255 255 255
0.343328 -0.231894 1.535 255 255 255
-0.120737 0.0747712 0.898 255 255 255
-0.180731 0.0635356 0.884 255 255 255
0.114713 0.209563 0.731 255 255 255
-0.546269 0.185685 1.372 255 255 255
-0.104632 -0.200954 1.509 0 0 0
-0.48686 0.383809 1.362 255 255 255
-0.613944 -0.203093 1.316 255 255 255
-0.911982 0.588132 1.753 255 255 255
0.392312 0.170758 0.888 255 255 255
-0.388437 0.464869 1.252 255 255 255
0.0443144 -0.0566992 1.403 255 255 255
-0.0937356 -0.39282 1.714 0 0 0
0.0878621 -0.289695 1.03 0 0 0
0.139245 0.238168 1.198 255 255 255
-0.0447149 0.15139 0.794 255 255 255
-0.144776 0.251646 0.893 255 255 255
-0.328381 -0.074939 1.322 0 0 0
0.387514 -0.270894 1.182 255 255 255
0.306458 0.115803 1.092 0 0 0
0.322748 0.151627 0.912 255 255 255
-0.0936386 0.102709 0.851 0 0 0
0.00784122 -0.661475 2.004 0 0 0
-0.101341 0.0912475 1.396 255 255 255
0.0698352 0.207324 1.247 255 255 255
-0.825886 0.339083 1.734 255 255 255
0.0174898 0.230412 0.655 255 255 255
-0.619969 0.0360941 1.372 255 255 255
-0.20287 -0.276825 1.456 255 255 255
0.331469 0.205893 0.687 255 255 255
-0.323373 0.215105 1.1 255 255 255
-0.433071 0.199138 1.234 255 255 255
0.270064 0.197542 0.693 0 0 0
0.051273 -0.225632 1.036 0 0 0
0.216023 0.0210784 1.16 255 255 255
-0.924199 0.577217 1.799 255 255 255
0.0961383 0.183866 0.773 255 255 255
-0.619656 -0.204121 1.412 255 255 255
0.400005 -0.0249875 0.861 255 255 255
-0.263069 0.000406119 1.502 255 255 255
0.0445274 -0.234062 1.036 0 0 0
0.412324 -0.0346411 0.824 0 0 0
-0.485178 0.35118 1.339 255 255 255
-0.00425589 0.187121 0.727 255 255 255
-0.710481 0.00275548 1.452 255 255 255
-0.147094 -0.534561 1.686 0 0 0
0.168201 0.234045 0.701 255 255 255
-0.59897 -0.250077 1.412 255 255 255
-0.312511 0.379786 1.132 255 255 255
0.0697333 0.0645823 1.409 255 255 255
-0.47163 -0.528517 1.65 0 0 0
-0.451313 0.456793 1.342 255 255 255
-0.318501 -0.0132964 1.043 255 255 255
0.41533 -0.158816 1.137 255 255 255
-0.243437 0.028232 0.955 255 255 255
-0.81078 -0.462551 1.714 0 0 0
0.415673 0.157873 0.828 255 255 255
0.139258 -0.280212 1.064 0 0 0
-0.558686 0.428936 1.463 255 255 255
-1.25526 -0.941732 2.54 255 255 255
0.193194 -0.253369 1.075 255 255 255
0.347185 -0.208711 1.477 255 255 255
0.0906302 -0.239571 1.378 255 255 255
0.403615 0.0216693 0.878 255 255 255
0.0538869 0.239118 0.644 255 255 255
0.183807 -0.142848 1.222 0 0 0
-0.0524664 0.134009 0.814 255 255 255
-0.233995 -0.251836 1.336 255 255 255
-0.815511 0.595235 1.724 255 255 255
0.248698 0.221927 0.706 255 255 255
-0.0253063 0.210671 0.688 255 255 255
0.142079 -0.388896 1.022 255 255 255
-0.571822 0.0354627 1.348 0 0 0
0.203108 -0.0580227 1.281 0 0 0
-0.134874 -0.540585 1.705 0 0 0
0.307459 0.0936999 1.083 0 0 0
-0.141929 -0.503033 1.758 0 0 0
-0.530032 -0.293767 1.359 255 255 255
0.220462 0.157456 0.855 0 0 0
-0.120918 -0.39026 1.876 255 255 255
-0.182415 0.242698 0.937 255 255 255
-0.431908 -0.552219 1.673 255 255 255
0.431949 0.0167098 0.844 255 255 255
0.15067 -0.284065 1.059 255 255 255
-0.318102 -0.13969 1.324 255 255 255
-0.624745 0.194684 1.456 0 0 0
-0.630443 -0.218025 1.342 255 255 255
-0.218188 0.0585657 0.896 255 255 255
-0.0443207 0.156459 0.787 255 255 255
0.0564882 0.0698063 1.422 255 255 255
-0.306681 -0.214438 1.294 255 255 255
-0.0938638 -0.336335 1.769 0 0 0
-0.455046 0.236505 1.273 255 255 255
0.378148 -0.242352 1.165 0 0 0
0.487793 -0.103185 0.978 255 255 255
-0.361798 -0.115665 1.273 0 0 0
-0.158249 0.0891853 0.841 255 255 255
-0.0468914 -0.102466 1.47 255 255 255
0.0658834 0.217841 0.693 255 255 255
-1.02599 0.131704 1.966 255 255 255
-0.243511 0.388139 1.064 255 255 255
0.189556 0.184053 0.79 255 255 255
0.21458 0.0973133 1.104 255 255 255
-0.960702 0.156204 1.876 255 255 255
-0.684246 -0.489928 1.477 255 255 255
-0.181227 -0.00464054 1.555 255 255 255
-0.0657009 0.114767 0.848 255 255 255
0.212522 -0.0256258 1.227 255 255 255
-0.00670471 0.182252 0.736 255 255 255
0.355356 0.0451939 0.986 0 0 0
-0.06875 0.27202 0.803 255 255 255
0.287862 0.153409 0.905 255 255 255
-0.0332076 0.150665 0.797 255 255 255
-0.332115 -0.447129 1.599 255 255 255
-1.16914 -0.986386 2.684 0 0 0
-0.113634 -0.639306 1.763 255 255 255
0.177745 0.223489 0.726 255 255 255
0.155982 -0.169979 1.342 0 0 0
-0.268732 0.407891 1.089 0 0 0
-0.0226163 0.19518 0.709 255 255 255
0.376465 -0.00412738 0.895 255 255 255
0.102193 -0.0629687 1.297 255 255 255
-0.185314 -0.330786 1.33 255 255 255
0.346395 0.230372 0.69 255 255 255
0.169139 0.157802 0.842 255 255 255
-0.66186 -0.485214 1.47 255 255 255
0.427935 -0.140807 1.141 0 0 0
0.163198 -0.277957 1.062 255 255 255
-0.435002 -0.497799 1.664 255 255 255
-0.102946 0.106459 1.387 255 255 255
-0.403051 -0.289425 1.187 0 0 0
0.222453 0.0594115 1.135 0 0 0
-0.230726 0.268784 0.994 255 255 255
-0.238434 0.295353 1.013 255 255 255
0.0775064 0.186454 0.763 255 255 255
0.371305 0.0783516 0.941 255 255 255
-1.00031 0.458528 1.941 255 255 255
-0.393203 0.0525734 1.147 255 255 255
-0.60194 -0.417578 1.419 255 255 255
0.274511 0.234864 0.69 255 255 255
-0.744691 -0.279437 1.445 255 255 255
-0.146283 -0.620986 1.646 255 255 255
-0.0932372 0.273348 0.835 255 255 255
0.141232 0.235125 0.681 255 255 255
-0.578267 -0.108728 1.289 0 0 0
0.120631 -0.266665 1.116 255 255 255
-0.235817 0.235052 0.995 255 255 255
0.181521 0.00231521 1.22 255 255 255
-0.230474 0.223299 0.986 255 255 255
-0.90346 0.522519 1.865 0 0 0
-0.020136 -0.0534706 1.439 255 255 255
-0.848467 0.593044 1.734 255 255 255
-0.208665 -0.0711582 1.571 255 255 255
-0.779567 0.604698 1.719 255 255 255
-0.567629 -0.0592456 1.308 0 0 0
-0.0544116 0.130848 1.359 255 255 255
-0.32133 0.02119 0.989 255 255 255
-0.617716 -0.200507 1.387 255 255 255
0.0123627 0.190269 0.73 255 255 255
0.019893 0.18448 0.745 255 255 255
-0.20652 0.0600238 0.896 255 255 255
-0.184067 -0.305562 1.403 255 255 255
-0.503799 -0.15319 1.348 255 255 255
0.208878 0.212143 0.74 0 0 0
-0.073229 -0.0713217 1.52 255 255 255
-0.34227 -0.0251775 1.043 255 255 255
-0.289513 -0.0792296 1.439 255 255 255
-0.196942 0.0103051 1.52 255 255 255
0.177001 0.204842 0.753 255 255 255
0.00951246 0.170957 1.327 255 255 255
-0.78296 -0.249511 1.491 0 0 0
0.139964 0.00647653 1.257 255 255 255
0.170659 0.112303 1.147 255 255 255
0.37282 0.0167958 1.126 255 255 255
0.390002 -0.210118 1.406 0 0 0
-0.177626 0.0838105 0.842 255 255 255
-0.191249 -0.291761 1.575 255 255 255
0.322699 0.237621 0.685 255 255 255
0.217023 0.179877 1.126 0 0 0
-0.307498 -0.016739 1.046 255 255 255
-0.346856 -0.467671 1.607 255 255 255
-0.171341 -0.171867 1.491 255 255 255
-0.00734944 -0.542875 1.739 255 255 255
-0.613586 0.0729164 1.393 255 255 255
-0.0163231 0.207011 0.687 255 255 255
-1.17167 -0.990552 2.66 255 255 255
-0.634047 0.565088 1.599 255 255 255
-0.142186 0.126023 0.797 0 0 0
-0.632749 0.339286 1.509 0 0 0
0.156574 0.252498 0.657 255 255 255
-0.584547 0.0811011 1.378 0 0 0
-0.460139 0.129689 1.242 255 255 255
-0.203267 -0.161526 1.442 255 255 255
-0.295805 0.198471 1.059 255 255 255
-0.409894 0.448877 1.294 255 255 255
0.211005 -0.363339 1.059 0 0 0
-0.0350934 0.0364528 1.477 255 255 255
0.391155 0.163175 0.902 255 255 255
-0.289927 0.428901 1.116 255 255 255
-0.63789 0.270994 1.498 0 0 0
-0.109407 0.0764872 0.901 255 255 255
0.153919 -0.140467 1.254 255 255 255
0.00281966 0.20717 1.234 0 0 0
0.411181 -0.00395675 0.858 255 255 255
0.2285 -0.0935147 1.227 255 255 255
-0.115423 0.317004 0.869 255 255 255
0.226691 0.189275 0.785 255 255 255
0.0347661 0.176211 1.302 255 255 255
0.300037 0.00984463 1.171 255 255 255
0.225947 0.0864903 1.081 255 255 255
-0.0171875 0.233744 0.677 255 255 255
-0.0991796 0.311823 0.851 255 255 255
-0.846304 -0.0128771 1.637 255 255 255
-0.477063 0.117215 1.26 255 255 255
-0.157925 0.104942 0.825 255 255 255
-0.729887 -0.287643 1.439 255 255 255
0.13178 0.234089 0.678 255 255 255
0.0715776 -0.251378 1.357 255 255 255
0.102452 -0.339997 1.025 0 0 0
-0.0646405 0.16607 0.755 255 255 255
0.327428 0.0970676 1.062 255 255 255
-0.233692 0.374845 1.051 255 255 255
0.136953 0.14467 1.267 255 255 255
-0.107895 -0.40405 1.763 255 255 255
0.0449708 -0.173703 1.354 255 255 255
0.204173 -0.127979 1.213 255 255 255
0.247425 0.194423 0.719 255 255 255
-0.487357 0.325032 1.339 255 255 255
-0.241726 0.0246666 1.491 255 255 255
-0.372515 0.30843 1.176 255 255 255
0.339568 -0.0505743 1.203 255 255 255
-0.0811232 -0.671176 1.947 0 0 0
-0.45938 -0.516754 1.664 255 255 255
0.172873 0.0909708 1.137 255 255 255
0.435374 -0.0625682 1.171 255 255 255
0.00803856 0.219437 0.667 255 255 255
0.268145 0.0599092 1.11 255 255 255
-0.00806688 -0.318057 1.378 255 255 255
-1.36381 -0.905087 2.638 0 0 0
0.303371 0.0653806 1.081 255 255 255
-0.0187367 0.15725 1.339 255 255 255
-0.553336 -0.12142 1.247 0 0 0
-0.25986 -0.129972 1.381 255 255 255
-1.01294 0.48557 1.923 255 255 255
-0.707017 -0.347369 1.505 0 0 0
0.223436 -0.0745246 1.278 0 0 0
0.150474 -0.153486 1.313 0 0 0
0.423418 -0.127388 1.154 0 0 0
-0.156682 -0.395443 1.763 255 255 255
-0.330963 0.441227 1.178 255 255 255
-0.178876 -0.403056 1.784 255 255 255
-0.247911 0.0557738 0.898 255 255 255
-0.0711041 0.288022 0.815 255 255 255
0.325996 0.191626 0.692 255 255 255
-0.730506 -0.457599 1.555 255 255 255
-0.13161 -0.0964772 1.567 255 255 255
0.27766 0.138736 0.925 255 255 255
-0.239798 -0.133831 1.422 255 255 255
0.324994 0.181829 0.702 255 255 255
0.222572 0.186017 1.108 0 0 0
0.358959 0.0937794 0.974 0 0 0
-0.124688 0.0871388 1.403 255 255 255
-0.296572 -0.258014 1.26 255 255 255
0.00362908 0.245334 0.655 255 255 255
0.0143307 0.168553 0.772 255 255 255
-0.2459 0.0600238 0.896 255 255 255
0.409973 0.073065 0.895 255 255 255
-0.199363 0.366053 0.999 255 255 255
0.380937 -0.0882809 1.21 0 0 0
-0.0237169 0.127914 1.375 255 255 255
0.308594 0.0975838 1.087 0 0 0
-0.634226 0.194684 1.456 255 255 255
-0.0491252 -0.626104 1.935 255 255 255
0.118607 0.2397 0.666 255 255 255
0.303597 0.173353 0.76 0 0 0
-0.528936 0.54453 1.473 255 255 255
0.193675 -0.286479 1.068 255 255 255
0.305639 0.175093 0.833 255 255 255
-0.0531596 0.110733 1.384 255 255 255
0.237342 0.242721 0.703 255 255 255
-0.419388 -0.220105 1.278 255 255 255
-0.377293 0.29619 1.173 255 255 255
-0.383546 0.0594115 1.135 255 255 255
-0.0269745 0.100381 1.429 255 255 255
-0.40736 -0.187999 1.286 255 255 255
0.387186 -0.184363 1.158 255 255 255
-0.125035 0.18125 0.812 255 255 255
0.208491 -0.389436 1.055 255 255 255
-0.308143 -0.253309 1.257 255 255 255
-0.267283 -0.269757 1.267 255 255 255
-1.27733 -0.912597 2.44 255 255 255
0.37269 0.0241504 0.918 255 255 255
-0.994159 0.515125 1.905 255 255 255
0.34987 -0.224681 1.52 255 255 255
0.119595 -0.313666 1.09 255 255 255
-0.79536 0.574452 1.729 255 255 255
-0.224456 -0.0471686 1.539 255 255 255
-0.00370277 -0.219914 1.425 255 255 255
-0.223681 -0.0626803 1.551 255 255 255
-0.172896 0.0848772 0.839 255 255 255
0.299444 -0.0550332 1.215 255 255 255
-0.399097 0.441593 1.273 255 255 255
0.00561484 -0.186429 1.435 255 255 255
-0.131546 0.0757232 0.892 255 255 255
-0.769806 -0.461951 1.633 255 255 255
-0.315563 -0.0553952 1.104 255 255 255
0.415855 -0.0823438 1.104 255 255 255
0.0359815 0.0611036 1.435 255 255 255
-0.0334226 0.300464 0.772 255 255 255
-0.131546 0.319588 0.892 255 255 255
0.428369 -0.299903 1.591 255 255 255
0.0103153 0.0565905 1.439 255 255 255
-0.0115419 0.190031 1.267 0 0 0
0.151356 0.0860687 1.171 255 255 255
0.2198 0.0116399 1.16 255 255 255
-0.252271 -0.0253465 1.05 255 255 255
-0.912485 0.577217 1.799 255 255 255
0.213414 0.114653 1.098 255 255 255
