ply
format ascii 1.0
comment Created by Open3D
element vertex 1322
property double x
property double y
property double z
property uchar red
property uchar green
property uchar blue
end_header
0.524745 0.112304 1.059 0 0 0
0.660206 -0.264735 1.646 0 0 0
0.0988443 0.0662878 1.096 255 255 255
0.311876 0.216014 0.85 255 255 255
-0.647467 0.190149 2.044 255 255 255
0.804589 -0.534723 2.136 255 255 255
0.232081 0.0850446 1.085 0 0 0
-0.598301 -0.529741 2.024 255 255 255
0.375965 0.228188 0.774 255 255 255
0.121491 0.0139474 1.196 255 255 255
0.277149 0.247988 0.769 255 255 255
-0.627374 -0.333035 2.158 255 255 255
-0.371485 -0.53222 2.519 255 255 255
0.394662 -0.0593441 1.359 255 255 255
0.191346 0.258499 0.715 255 255 255
0.0827127 -0.393413 2.374 255 255 255
-0.218189 0.320967 2.212 255 255 255
0.851383 -0.506622 2.064 255 255 255
-0.664103 0.180171 2.044 255 255 255
0.270178 0.126674 1.022 255 255 255
-0.741807 0.0456092 1.848 255 255 255
-0.534756 -0.735571 2.196 255 255 255
0.730391 -0.667619 2.32 255 255 255
0.310694 -0.196308 1.612 255 255 255
0.326838 0.150399 0.992 0 0 0
-0.318475 -0.779917 2.695 255 255 255
-0.539654 0.175812 2.392 255 255 255
-0.472757 -0.371073 2.626 255 255 255
-0.720485 -0.282548 1.705 255 255 255
-0.338746 -0.310232 2.582 255 255 255
0.308239 -0.158183 1.547 255 255 255
-0.556138 -0.303832 2.43 255 255 255
0.536526 0.101638 1.112 255 255 255
-0.702948 -0.558078 1.539 255 255 255
-0.849448 0.542564 1.691 255 255 255
-0.297497 -0.794136 2.626 255 255 255
-0.749885 0.04221 1.831 255 255 255
0.234631 -0.01389 1.249 255 255 255
-0.843639 0.386714 1.637 255 255 255
-0.426292 0.436072 1.705 255 255 255
0.308824 0.0581731 1.147 255 255 255
-0.798339 0.0110984 1.637 255 255 255
0.374134 0.196122 0.866 255 255 255
0.0192659 0.201409 0.883 255 255 255
0.265537 -0.380693 2.253 0 0 0
0.133586 0.0748958 1.118 0 0 0
0.594322 -0.198985 1.571 0 0 0
-0.625339 -0.128933 2.151 255 255 255
-0.691189 -0.583948 1.575 255 255 255
0.758596 -0.184617 1.516 255 255 255
-0.391861 -0.028603 2.572 255 255 255
-0.381385 -0.820598 2.615 255 255 255
0.330218 0.19443 0.904 255 255 255
-0.348631 -0.590052 2.593 255 255 255
0.375677 0.172105 0.96 255 255 255
0.580257 -0.671672 2.402 255 255 255
0.403744 0.185612 0.863 255 255 255
0.39423 -0.495834 2.365 0 0 0
0.320682 0.206468 0.874 0 0 0
-0.343389 -0.798573 2.684 255 255 255
0.0977991 -0.0262162 1.487 255 255 255
0.0978994 0.263126 0.748 255 255 255
-0.769956 0.44707 1.748 255 255 255
-0.378256 0.316141 1.865 255 255 255
-0.581643 -0.501684 2.253 255 255 255
0.0448614 -0.930415 2.649 255 255 255
0.354822 0.0299866 1.215 255 255 255
-0.354132 0.405552 1.705 255 255 255
-0.611774 0.428251 1.696 255 255 255
-0.76449 -0.305163 1.633 255 255 255
0.108931 -0.405766 2.356 255 255 255
0.80084 -0.819807 2.173 255 255 255
-0.594556 -0.728208 1.947 255 255 255
0.886668 -0.533143 2.037 0 0 0
0.270268 0.218766 0.872 255 255 255
0.875449 -0.780348 2.114 255 255 255
0.365814 0.198252 0.863 255 255 255
-0.537623 -0.662481 2.383 255 255 255
-0.542761 -0.175406 2.459 255 255 255
0.200981 0.137639 1.017 0 0 0
-0.314522 0.63739 1.763 255 255 255
0.418953 -0.115945 1.459 255 255 255
0.244253 0.260307 0.72 255 255 255
-0.355307 0.186785 2.383 255 255 255
-0.20582 -0.564595 2.499 0 0 0
-0.582064 -0.754384 1.991 255 255 255
0.551407 0.0781561 1.139 0 0 0
-0.0321312 0.227816 0.914 255 255 255
0.0850347 0.0576841 1.102 255 255 255
0.433925 -0.0473024 1.273 255 255 255
0.427747 -0.103967 1.425 255 255 255
0.150979 0.259645 0.728 255 255 255
0.28649 0.0386584 1.178 255 255 255
-0.657632 -0.149472 2.004 255 255 255
-0.630266 0.484313 1.616 255 255 255
-0.561759 0.383124 1.729 255 255 255
0.778936 -0.84767 2.181 255 255 255
-0.51208 -0.599662 2.32 255 255 255
-0.279042 -0.86553 2.499 255 255 255
-0.579005 0.102406 2.604 255 255 255
0.0526363 0.268133 0.745 255 255 255
-0.693986 0.310071 1.865 255 255 255
0.0101115 0.254178 0.839 255 255 255
-0.715711 -0.403992 1.668 255 255 255
-0.734117 -0.500538 1.452 255 255 255
0.00386583 0.170694 0.988 255 255 255
0.160785 -0.936854 2.572 255 255 255
0.395698 0.0218234 1.201 255 255 255
-0.188508 -0.875767 2.383 0 0 0
0.461538 -0.185254 1.563 0 0 0
-0.649954 -0.337274 1.887 255 255 255
0.138364 0.267644 0.724 255 255 255
-0.0454459 0.274744 0.831 255 255 255
-0.737144 0.318149 1.859 255 255 255
-0.340454 0.209821 2.143 255 255 255
0.756643 -0.324031 1.719 255 255 255
0.388867 0.201979 0.855 0 0 0
-0.668375 -0.111048 1.959 255 255 255
0.267314 0.0444094 1.178 0 0 0
0.203244 -0.417884 2.338 255 255 255
0.346935 0.238314 0.739 255 255 255
0.387437 0.228897 0.803 255 255 255
0.245715 -0.81673 2.499 255 255 255
0.502057 -0.64431 2.402 255 255 255
0.124883 0.0365854 1.173 255 255 255
-0.0887708 0.310709 0.795 0 0 0
0.259821 0.270946 0.705 0 0 0
0.767965 -0.43551 2.03 255 255 255
0.0238537 0.233164 0.842 255 255 255
-0.579189 0.505122 1.543 255 255 255
0.205513 0.0491384 1.154 255 255 255
-0.811145 0.43015 1.62 255 255 255
-0.308748 -0.0156535 2.509 255 255 255
-0.814142 0.112671 1.642 255 255 255
-0.736103 -0.438426 1.442 255 255 255
0.740788 -0.387635 1.893 255 255 255
-0.514736 -0.451998 2.44 255 255 255
-0.539202 -0.639639 2.356 255 255 255
-0.597327 -0.65049 2.151 255 255 255
0.566749 -0.104123 1.396 255 255 255
-0.532896 0.177457 2.312 255 255 255
-0.0063142 0.0797452 2.43 255 255 255
-0.666902 -0.497544 1.769 255 255 255
-0.633303 -0.257303 2.085 255 255 255
-0.491297 -0.606641 2.347 255 255 255
-0.28713 0.244494 1.947 0 0 0
0.204045 -0.62995 2.392 255 255 255
-0.52538 0.210503 1.985 255 255 255
-0.461353 -0.401107 2.684 0 0 0
0.122219 0.242328 0.763 0 0 0
0.108285 0.0522067 1.139 255 255 255
0.389796 0.164979 0.964 0 0 0
0.782024 -0.732772 2.22 0 0 0
0.286072 0.201786 0.904 255 255 255
0.209078 0.228619 0.816 255 255 255
0.202642 0.200758 0.906 255 255 255
-0.735392 0.00343486 1.81 255 255 255
0.661224 -0.229124 1.603 255 255 255
-0.54394 -0.364233 2.411 255 255 255
0.167078 -0.947354 2.479 255 255 255
0.253137 0.205743 0.902 255 255 255
-0.672686 -0.161559 1.953 255 255 255
-0.348458 0.444025 1.805 255 255 255
-0.764602 0.464137 1.686 255 255 255
-0.196181 -0.422465 2.43 255 255 255
-0.600997 -0.4643 1.917 255 255 255
0.0257935 0.216007 0.861 255 255 255
0.156334 -0.0201156 1.257 255 255 255
-0.706225 -0.14511 1.826 255 255 255
-0.538888 -0.672799 2.338 255 255 255
-0.185115 0.0753839 2.55 255 255 255
-0.293867 0.602382 1.831 255 255 255
-0.0557508 0.066269 2.519 255 255 255
-0.491215 -0.734449 2.365 255 255 255
0.555992 0.0817194 1.137 255 255 255
0.436401 0.175414 0.92 255 255 255
-0.382236 0.333302 1.826 255 255 255
0.449281 -0.12398 1.442 255 255 255
0.850193 -0.642534 2.037 255 255 255
-0.66224 -0.294284 1.887 255 255 255
0.737823 -0.824911 2.196 255 255 255
0.0170218 0.105257 1.112 255 255 255
0.239488 -0.0373217 1.286 0 0 0
-0.726026 -0.228239 1.673 255 255 255
-0.224392 -0.158353 2.572 255 255 255
-0.780372 0.323594 1.805 255 255 255
0.139241 0.237978 0.761 255 255 255
0.375478 0.252917 0.736 255 255 255
-0.537228 -0.274756 2.489 255 255 255
-0.135304 -0.758703 2.55 255 255 255
-0.782365 0.151523 1.719 255 255 255
-0.619559 -0.642533 1.966 255 255 255
-0.789527 -0.14917 1.532 255 255 255
-0.28831 -0.179978 2.582 255 255 255
-0.689226 -0.52136 1.724 255 255 255
-0.456124 0.350371 1.734 255 255 255
-0.805217 0.415356 1.624 255 255 255
-0.415569 0.31524 1.842 255 255 255
-0.592949 -0.639507 2.017 255 255 255
-0.73845 -0.490051 1.442 255 255 255
0.181883 0.255265 0.719 255 255 255
-0.203367 -0.528121 2.519 255 255 255
0.599017 0.0276866 1.201 0 0 0
0.502186 -0.288182 1.739 255 255 255
-0.525171 0.43377 1.729 255 255 255
0.775605 -0.701334 2.212 0 0 0
-0.432471 0.485452 1.513 255 255 255
-0.58989 -0.109282 2.329 255 255 255
0.226988 0.201423 0.909 255 255 255
0.209387 -0.12607 1.524 255 255 255
-0.690171 -0.0543775 1.985 255 255 255
-0.481066 0.581829 1.567 255 255 255
-0.631495 -0.307406 2.057 255 255 255
0.120906 -0.935495 2.615 255 255 255
-0.628291 0.105559 2.303 255 255 255
-0.613286 0.300347 1.789 255 255 255
-0.603828 0.456704 1.659 0 0 0
0.551841 0.0429974 1.192 255 255 255
-0.00488554 0.115065 1.156 255 255 255
-0.662793 -0.476968 1.789 255 255 255
0.710634 -0.209413 1.535 0 0 0
-0.784102 0.374683 1.729 255 255 255
-0.355117 0.19617 2.356 255 255 255
0.9608 -0.668987 1.978 255 255 255
-0.391353 0.557422 1.686 255 255 255
-0.687295 -0.342163 1.831 255 255 255
-0.273268 0.594543 1.853 255 255 255
-0.719012 -0.5314 1.52 255 255 255
0.205769 -0.0972165 1.463 0 0 0
0.129755 0.275129 0.722 255 255 255
-0.785089 0.0140986 1.677 255 255 255
0.232455 0.247964 0.75 255 255 255
0.00667631 0.296639 0.759 255 255 255
-0.711103 0.255522 1.911 255 255 255
0.755086 -0.627142 2.338 255 255 255
-0.590325 0.454005 1.659 255 255 255
0.58486 -0.823337 2.312 255 255 255
0.537083 -0.327401 1.799 255 255 255
0.348901 0.232407 0.751 255 255 255
0.0815397 -0.0754268 1.456 255 255 255
0.417018 -0.336183 1.799 255 255 255
0.00943372 -0.478014 2.411 255 255 255
0.286517 -0.0413458 1.281 255 255 255
-0.465125 0.577795 1.591 255 255 255
-0.424437 0.503921 1.502 255 255 255
0.843076 -0.620352 2.085 255 255 255
0.0614179 0.21389 0.831 255 255 255
0.053446 0.23379 0.793 255 255 255
-0.190517 -0.383489 2.459 255 255 255
0.0850687 0.226898 0.787 255 255 255
-0.535627 0.123023 2.684 255 255 255
-0.180359 -0.446191 2.43 255 255 255
0.986648 -0.71038 1.959 255 255 255
-0.330305 -0.237599 2.615 255 255 255
0.233138 -0.21514 1.677 255 255 255
-0.524079 -0.696123 2.392 255 255 255
-0.255515 -0.410601 2.43 255 255 255
-0.668375 0.214121 1.959 255 255 255
-0.147678 -0.297857 2.479 255 255 255
0.311387 0.230344 0.729 255 255 255
-0.34035 0.361968 1.763 255 255 255
0.131837 0.269936 0.727 255 255 255
-0.142479 -0.0981273 2.53 255 255 255
0.0209379 0.128533 1.037 0 0 0
0.267798 0.137098 1.013 0 0 0
-0.750962 -0.367412 1.65 255 255 255
0.572713 0.0466803 1.187 255 255 255
0.711385 -0.0968896 1.39 255 255 255
-0.417187 -0.4309 2.626 255 255 255
0.817787 -0.221298 1.603 0 0 0
0.254046 0.0974332 1.066 0 0 0
0.687837 -0.171867 1.491 0 0 0
0.254882 0.0552943 1.165 255 255 255
0.531116 -0.688338 2.392 255 255 255
-0.485835 -0.883843 2.303 255 255 255
0.528959 0.0123322 1.229 255 255 255
0.152957 -0.104074 1.459 255 255 255
0.705291 -0.702941 2.312 0 0 0
0.205504 0.220243 0.845 255 255 255
-0.720547 0.517217 1.612 255 255 255
-0.249049 0.267567 2.051 255 255 255
0.102422 -0.336735 2.383 255 255 255
0.622008 -0.151137 1.502 0 0 0
0.35752 0.182481 0.941 255 255 255
-0.595532 0.385938 1.729 255 255 255
0.408011 0.131109 1.005 255 255 255
0.291946 -0.00976989 1.242 255 255 255
-0.390076 0.385938 1.729 0 0 0
-0.688705 -0.61164 1.587 255 255 255
0.222858 0.241651 0.785 255 255 255
-0.334612 0.591013 1.842 255 255 255
0.334187 0.220307 0.84 255 255 255
-0.790905 0.641873 1.744 255 255 255
0.186752 0.158652 0.945 255 255 255
0.0503012 0.129971 0.984 255 255 255
-0.777419 0.0280581 1.696 255 255 255
-0.599231 0.350355 1.748 255 255 255
0.059486 0.0679471 1.094 255 255 255
0.112411 0.014029 1.203 255 255 255
0.344997 0.186802 0.932 255 255 255
0.047933 -0.292967 2.374 255 255 255
0.452055 0.0286292 1.16 255 255 255
0.202831 0.230038 0.807 255 255 255
-0.664346 -0.276736 1.893 255 255 255
-0.209197 -0.036514 2.54 255 255 255
0.320291 0.225091 0.747 255 255 255
0.205688 0.00231901 1.222 255 255 255
-0.658037 -0.495957 1.784 255 255 255
0.887458 -0.825926 2.143 0 0 0
-0.0680521 -0.134594 2.519 255 255 255
-0.623653 -0.0142622 2.286 255 255 255
0.0290678 0.262195 0.763 255 255 255
-0.500764 -0.384117 2.489 255 255 255
0.277617 0.155711 0.995 0 0 0
0.172403 0.241539 0.749 255 255 255
0.380365 0.168981 0.96 255 255 255
0.152247 0.203358 0.879 255 255 255
-0.72111 -0.584105 1.535 255 255 255
0.00943372 -0.423085 2.411 0 0 0
-0.46284 0.491549 1.532 255 255 255
-0.684994 -0.128122 1.882 255 255 255
0.332343 0.189972 0.918 255 255 255
0.53236 -0.195945 1.547 255 255 255
-0.289851 0.516863 1.923 255 255 255
0.98027 -0.681689 1.959 255 255 255
-0.84024 0.238839 1.646 255 255 255
0.562173 -0.00782362 1.254 255 255 255
0.835882 -0.639002 2.136 255 255 255
-0.404421 0.0927762 2.572 255 255 255
-0.535627 0.0356677 2.684 255 255 255
0.46103 -0.66109 2.392 255 255 255
-0.76598 0.46166 1.677 255 255 255
-0.0205227 -0.842909 2.743 255 255 255
-0.351355 -0.579145 2.582 255 255 255
-0.422043 0.536641 1.547 255 255 255
-0.513887 0.0318481 2.731 255 255 255
-0.74559 -0.294914 1.65 255 255 255
0.212332 0.224162 0.834 0 0 0
-0.817715 0.154726 1.607 255 255 255
-0.239794 0.277771 2.212 255 255 255
0.014869 0.260915 0.801 255 255 255
-0.00889592 0.104806 1.189 255 255 255
-0.244266 0.31064 1.985 0 0 0
-0.0706656 0.2725 0.858 255 255 255
-0.646448 0.291259 1.842 255 255 255
-0.759859 -0.101341 1.646 255 255 255
-0.113114 -0.881176 2.43 255 255 255
0.142819 0.251017 0.741 255 255 255
0.657372 -0.192427 1.539 255 255 255
0.250365 0.253578 0.731 255 255 255
-0.0231385 -0.925198 2.54 255 255 255
-0.749985 -0.396316 1.543 255 255 255
-0.566669 -0.0940102 2.53 255 255 255
-0.608165 -0.195019 2.312 255 255 255
0.0572957 -0.772769 2.626 255 255 255
0.601203 -0.653305 2.392 255 255 255
-0.776596 -0.294887 1.551 255 255 255
0.209361 0.262099 0.709 255 255 255
0.825911 -0.650641 2.261 255 255 255
-0.660776 0.183497 2.044 255 255 255
-0.70424 -0.538607 1.673 255 255 255
-0.41902 -0.754671 2.509 255 255 255
0.341852 -0.887691 2.459 255 255 255
0.0957319 0.0688988 1.081 255 255 255
0.233492 0.21766 0.862 255 255 255
-0.0227382 0.213616 0.957 255 255 255
-0.140576 0.320018 2.181 255 255 255
0.29266 0.0686466 1.135 255 255 255
0.19028 0.237358 0.767 255 255 255
0.718015 -0.602702 2.392 0 0 0
0.735963 -0.1499 1.466 255 255 255
0.151242 0.266594 0.718 255 255 255
0.570288 0.0501603 1.178 255 255 255
0.269462 -0.735777 2.42 255 255 255
-0.556204 -0.767733 2.196 255 255 255
0.541602 -0.0359686 1.313 255 255 255
-0.692177 -0.55762 1.595 255 255 255
-0.41576 0.624207 1.696 255 255 255
0.488253 -0.0704761 1.319 255 255 255
0.210733 -0.0881655 1.432 0 0 0
0.123901 0.199193 0.861 255 255 255
0.210044 -0.408696 2.329 255 255 255
-0.804812 -0.105316 1.547 255 255 255
0.00928895 -0.258198 2.374 255 255 255
-0.424871 0.533866 1.539 255 255 255
0.278197 0.244755 0.726 255 255 255
0.0387443 0.131019 1.017 0 0 0
0.0247771 0.284275 0.746 255 255 255
0.52663 -0.00169889 1.252 0 0 0
0.161573 -0.716686 2.519 255 255 255
-0.672284 -0.46737 1.753 255 255 255
-0.0662233 0.132309 2.312 255 255 255
-0.005025 0.0990011 1.189 255 255 255
0.263666 0.177105 0.945 255 255 255
0.405486 0.206088 0.849 255 255 255
0.128049 0.175995 0.9 255 255 255
-0.638834 0.16738 2.092 255 255 255
0.455749 0.170492 0.951 0 0 0
-0.282248 0.573491 1.893 255 255 255
0.146874 0.148029 0.966 255 255 255
-0.781069 0.0169179 1.686 255 255 255
-0.62792 -0.525211 1.923 255 255 255
-0.719697 -0.138329 1.815 255 255 255
0.297503 0.223893 0.833 255 255 255
-0.515739 -0.847559 2.286 255 255 255
0.0696403 0.0546865 1.114 255 255 255
-0.695591 0.173903 2.01 255 255 255
0.215746 0.0707472 1.11 255 255 255
0.526817 0.0812163 1.13 255 255 255
0.459295 -0.732283 2.383 0 0 0
0.143496 0.162644 0.924 255 255 255
0.197611 0.197202 0.91 255 255 255
-0.479737 0.285334 1.882 255 255 255
-0.737781 0.0668407 1.853 255 255 255
-0.298775 0.6235 1.789 255 255 255
0.281655 -0.2983 1.893 255 255 255
-0.147082 -0.336834 2.469 255 255 255
0.338954 0.244581 0.722 255 255 255
-0.0718661 -0.94657 2.509 255 255 255
0.0861818 0.259639 0.752 255 255 255
-0.242274 -0.718527 2.54 0 0 0
0.216314 -0.555291 2.356 255 255 255
0.268129 -0.357262 2.244 0 0 0
-0.0439633 0.133281 2.329 255 255 255
-0.587054 -0.265467 2.303 255 255 255
0.489754 0.151796 0.96 255 255 255
-0.366741 -0.94104 2.572 255 255 255
0.392459 -0.229124 1.603 255 255 255
0.120518 0.0592544 1.132 255 255 255
-0.668795 -0.594822 1.633 255 255 255
-0.237047 0.188459 2.22 255 255 255
0.536692 -0.203578 1.567 255 255 255
0.893299 -0.576236 2.037 255 255 255
0.00480369 0.228799 0.867 255 255 255
0.711725 -0.262 1.629 255 255 255
-0.0900308 0.0382008 2.561 255 255 255
-0.746752 -0.553738 1.449 255 255 255
-0.635323 -0.311441 1.917 255 255 255
0.419753 -0.172095 1.559 0 0 0
-0.750157 -0.0198953 1.789 255 255 255
0.958193 -0.453951 1.953 0 0 0
-0.45589 0.192183 2.402 255 255 255
-0.334736 0.256478 1.966 255 255 255
-0.637708 -0.580149 1.784 255 255 255
-0.718692 0.000508865 1.882 255 255 255
0.253252 0.200823 0.913 255 255 255
-0.288269 0.0909223 2.312 255 255 255
0.00730084 0.256854 0.83 255 255 255
0.525243 0.0222595 1.225 255 255 255
0.564441 -0.148219 1.473 255 255 255
0.35312 0.0977726 1.051 0 0 0
-0.47412 0.07562 2.707 255 255 255
-0.728923 -0.39189 1.686 255 255 255
-0.712136 -0.481289 1.48 255 255 255
-0.192894 0.28292 2.253 255 255 255
0.170224 -0.0567963 1.351 255 255 255
0.253754 0.16482 0.954 255 255 255
0.42198 0.0357121 1.145 255 255 255
0.290424 0.236599 0.73 0 0 0
0.0495647 0.0910037 1.072 255 255 255
-0.60209 -0.0451975 2.347 255 255 255
0.126584 0.17453 0.9 255 255 255
-0.797772 0.0390689 1.583 255 255 255
-0.469073 -0.102371 2.755 255 255 255
0.179439 0.163876 0.931 255 255 255
-0.457598 -0.780123 2.411 255 255 255
0.570288 0.0520773 1.178 255 255 255
0.313609 -0.959277 2.489 255 255 255
0.0724581 0.17619 0.901 0 0 0
0.490136 0.120572 0.999 0 0 0
0.0572093 -0.575089 2.44 0 0 0
-0.5771 -0.20261 2.402 255 255 255
-0.715038 0.37685 1.739 255 255 255
-0.624704 -0.440491 1.831 255 255 255
-0.402969 0.502712 1.591 255 255 255
0.211215 0.230708 0.814 255 255 255
-0.573044 0.000686779 2.54 255 255 255
-0.449783 0.502479 1.505 255 255 255
-0.779567 0.45364 1.719 255 255 255
0.0879265 -0.140594 2.411 0 0 0
0.332584 0.187309 0.927 255 255 255
-0.0310245 -0.109562 2.509 255 255 255
0.32692 0.198884 0.891 0 0 0
0.856798 -0.305635 1.758 255 255 255
0.561955 -0.228097 1.633 0 0 0
0.506579 -0.374623 1.859 255 255 255
-0.620956 -0.637744 1.991 255 255 255
-0.671777 0.182869 2.037 255 255 255
-0.404543 0.479828 1.567 255 255 255
0.105899 -0.238881 2.374 255 255 255
-0.741975 -0.304172 1.642 255 255 255
0.601989 -0.784656 2.32 255 255 255
0.314378 -0.640401 2.402 255 255 255
-0.141297 -0.762837 2.509 255 255 255
0.756784 -0.297896 1.682 255 255 255
-0.782063 -0.00495091 1.659 255 255 255
-0.0533172 0.150328 2.244 255 255 255
0.266617 0.121431 1.034 255 255 255
0.380307 0.0258822 1.208 255 255 255
-0.359768 0.5358 1.848 255 255 255
0.489339 0.0142273 1.22 0 0 0
-0.64558 -0.429537 1.929 255 255 255
-0.848064 0.248248 1.62 255 255 255
-0.0473611 -0.0850639 2.509 255 255 255
-0.590485 0.36836 1.739 255 255 255
-0.0927377 -0.896501 2.638 255 255 255
0.846233 -0.306741 1.748 255 255 255
-0.752196 0.322433 1.815 255 255 255
0.629974 -0.646969 2.383 255 255 255
-0.822322 0.157615 1.637 255 255 255
0.385738 0.0762164 1.085 255 255 255
0.372766 0.101729 1.039 0 0 0
0.83219 -0.588578 2.181 255 255 255
0.229144 0.126234 1.032 0 0 0
-0.636859 0.366921 1.719 255 255 255
-0.604317 -0.405502 2.189 255 255 255
0.660136 -0.425209 2.044 255 255 255
-0.835472 0.192022 1.591 255 255 255
-0.723267 -0.403907 1.624 255 255 255
-0.693256 -0.217019 1.831 255 255 255
0.94217 -0.444175 1.966 0 0 0
-0.6596 -0.581682 2.01 255 255 255
0.24997 0.243129 0.794 0 0 0
0.271368 -0.695125 2.402 255 255 255
-0.623188 0.31112 1.784 255 255 255
0.571155 0.0983711 1.116 255 255 255
-0.315146 -0.278536 2.561 255 255 255
-0.532408 0.201464 2.024 255 255 255
-0.00256053 -0.741957 2.638 255 255 255
0.464811 0.125198 0.997 0 0 0
0.407788 0.112034 1.025 0 0 0
0.967515 -0.745448 1.959 255 255 255
0.854743 -0.607386 2.064 0 0 0
-0.633119 -0.402475 2.03 255 255 255
-0.742253 0.0179013 1.784 255 255 255
-0.0490052 0.301039 0.78 255 255 255
0.322624 0.22238 0.767 255 255 255
0.114987 0.117959 1.048 0 0 0
-0.465716 0.501358 1.509 255 255 255
0.223488 0.240059 0.801 0 0 0
0.455612 -0.138349 1.47 255 255 255
-0.759174 -0.22544 1.633 255 255 255
0.394949 0.116695 1.022 0 0 0
-0.74325 -0.381078 1.456 255 255 255
0.568145 -0.0163942 1.286 255 255 255
0.990174 -0.616939 1.966 255 255 255
-0.419347 0.520104 1.528 255 255 255
0.0367226 0.274298 0.742 255 255 255
-0.666328 0.235713 1.953 255 255 255
-0.74765 0.470744 1.71 255 255 255
0.34912 0.0855933 1.092 255 255 255
0.227347 -0.133861 1.528 255 255 255
-0.171896 0.159716 2.173 255 255 255
-0.439776 0.477868 1.612 0 0 0
-0.722714 -0.456278 1.477 255 255 255
0.279716 -0.382343 2.22 0 0 0
-0.248561 -0.318027 2.479 255 255 255
0.466426 -0.613695 2.42 255 255 255
-0.857914 0.584859 1.686 255 255 255
-0.870362 0.547679 1.673 255 255 255
-0.76316 -0.00235972 1.739 255 255 255
-0.743191 -0.12262 1.719 255 255 255
0.15054 -0.55317 2.347 255 255 255
-0.433621 -0.641862 2.499 255 255 255
-0.449338 -0.497598 2.43 0 0 0
0.470118 -0.516565 2.303 0 0 0
0.233212 0.227413 0.831 255 255 255
0.271274 0.250004 0.714 255 255 255
-0.329268 -0.487462 2.479 255 255 255
0.125231 0.255666 0.744 255 255 255
-0.649191 0.404363 1.7 255 255 255
-0.502712 -0.631457 2.383 255 255 255
-0.691121 0.294522 1.882 255 255 255
0.360438 0.0577673 1.139 0 0 0
0.123797 -0.373661 2.347 255 255 255
0.636073 -0.225164 1.612 255 255 255
0.836212 -0.780909 2.173 0 0 0
-0.739448 0.159437 1.953 255 255 255
0.222761 0.0694377 1.118 255 255 255
-0.593156 0.455976 1.637 255 255 255
-0.0355007 0.277779 0.82 255 255 255
-0.807139 0.443766 1.612 255 255 255
-0.442692 -0.639591 2.459 255 255 255
-0.0698897 -0.499646 2.44 255 255 255
0.3895 -0.0814056 1.396 255 255 255
0.163446 0.0982559 1.075 255 255 255
0.848737 -0.597191 2.099 255 255 255
-0.0286364 0.165884 1.06 255 255 255
0.325983 -0.148391 1.524 255 255 255
0.571106 0.0023247 1.225 255 255 255
0.478497 0.168234 0.947 0 0 0
-0.63302 -0.690084 1.929 255 255 255
0.648109 -0.0504236 1.357 0 0 0
-0.0387968 0.221025 0.969 255 255 255
-0.634447 -0.337392 1.905 255 255 255
-0.664611 -0.403631 1.826 255 255 255
-0.723545 0.29284 1.911 255 255 255
-0.1696 0.26623 2.236 255 255 255
0.716837 -0.236359 1.599 255 255 255
-0.728066 0.0398303 1.859 255 255 255
0.445311 -0.0661832 1.319 255 255 255
-0.753366 -0.257785 1.571 255 255 255
-0.754632 -0.408132 1.579 255 255 255
1.0091 -0.768772 1.978 255 255 255
-0.806946 0.330443 1.748 255 255 255
0.565764 -0.706338 2.374 255 255 255
-0.842227 0.415356 1.624 255 255 255
-0.163985 -0.884546 2.365 0 0 0
-0.165366 0.283406 2.228 255 255 255
0.043972 0.255987 0.763 255 255 255
-0.284752 0.449009 1.997 255 255 255
-0.761808 0.229927 1.831 255 255 255
-0.0335826 0.283529 0.806 255 255 255
0.204992 -0.148113 1.547 255 255 255
0.755696 -0.542596 2.196 255 255 255
0.264204 0.0586295 1.156 255 255 255
0.855193 -0.72918 2.057 255 255 255
-0.263982 -0.613464 2.55 0 0 0
-0.404519 -0.284939 2.743 255 255 255
0.437219 -0.623183 2.411 0 0 0
0.219613 0.0102734 1.222 255 255 255
0.383396 0.0124125 1.237 255 255 255
-0.0316328 0.256342 0.86 255 255 255
-0.471495 -0.0974611 2.743 255 255 255
-0.215406 -0.485495 2.469 255 255 255
-0.699745 -0.460419 1.637 255 255 255
0.110652 0.155179 0.952 0 0 0
0.0449572 0.114329 1.046 0 0 0
0.235677 -0.095821 1.442 255 255 255
0.079535 0.122584 0.989 255 255 255
0.535335 -0.591795 2.411 0 0 0
0.132446 -0.307251 2.365 255 255 255
-0.6511 -0.593302 1.705 255 255 255
-0.352008 0.205222 2.286 255 255 255
0.0990184 0.125256 1.024 255 255 255
-0.816992 0.394705 1.637 255 255 255
-0.334609 0.370267 1.748 255 255 255
-0.811258 0.244643 1.686 255 255 255
-0.109314 0.13354 2.269 255 255 255
0.652407 -0.0574269 1.366 0 0 0
-0.746413 0.33038 1.794 255 255 255
-0.761041 -0.0786502 1.62 255 255 255
0.373874 -0.671604 2.459 255 255 255
0.427572 -0.113337 1.456 255 255 255
0.32552 0.156224 0.988 0 0 0
-0.70028 -0.22534 1.826 255 255 255
-0.243342 0.460366 2.004 255 255 255
-0.352687 0.362768 1.753 255 255 255
0.399968 -0.063908 1.362 255 255 255
-0.273004 0.290082 1.893 0 0 0
-0.226224 -0.0794725 2.593 255 255 255
-0.85561 0.514854 1.655 255 255 255
0.278092 -0.38146 2.236 0 0 0
-0.41294 0.339198 1.779 255 255 255
0.873707 -0.689878 2.03 255 255 255
0.252014 0.0667995 1.135 255 255 255
0.150946 0.0100716 1.198 255 255 255
0.166031 0.0838163 1.092 0 0 0
0.0490546 0.15916 0.93 255 255 255
-0.784607 -0.070977 1.567 255 255 255
0.0329815 -0.403468 2.411 255 255 255
0.7495 -0.754448 2.22 255 255 255
-0.742863 -0.254701 1.668 255 255 255
-0.746707 -0.171869 1.629 255 255 255
0.94537 -0.405783 1.966 255 255 255
-0.473145 -0.551735 2.278 255 255 255
0.608174 -0.464527 2.071 255 255 255
0.372356 0.242757 0.749 255 255 255
0.747114 -0.319552 1.71 255 255 255
0.293435 0.22796 0.833 255 255 255
0.222695 -0.39289 2.303 255 255 255
0.7385 -0.394431 1.911 255 255 255
0.34504 0.116695 1.022 255 255 255
0.298948 0.122865 1.018 255 255 255
0.481307 0.113236 1.036 0 0 0
0.914178 -0.758312 2.01 255 255 255
0.402311 0.000338523 1.252 0 0 0
-0.0250726 0.291843 0.786 255 255 255
-0.203459 -0.0830144 2.572 255 255 255
-0.683541 -0.352148 1.821 255 255 255
-0.263582 0.406512 2.114 255 255 255
0.609903 -0.623183 2.411 0 0 0
0.442365 0.121296 1.005 0 0 0
-0.744352 -0.372153 1.477 255 255 255
-0.0919191 -0.918397 2.499 255 255 255
0.13321 0.247302 0.748 255 255 255
-0.565667 -0.101737 2.42 255 255 255
0.219035 0.0928347 1.073 0 0 0
0.131478 -0.765249 2.572 255 255 255
0.977125 -0.597059 1.985 255 255 255
-0.815117 0.147821 1.677 255 255 255
-0.456567 -0.78833 2.365 255 255 255
0.442103 -0.829963 2.374 0 0 0
0.0851473 0.211003 0.825 255 255 255
-0.518918 0.216963 1.985 255 255 255
-0.647603 -0.571286 1.748 255 255 255
-0.644583 -0.188606 2.004 255 255 255
0.165713 0.0139007 1.192 255 255 255
0.371047 -0.0956217 1.439 255 255 255
-0.75127 -0.157349 1.616 255 255 255
-0.645685 -0.559575 1.774 255 255 255
-0.673406 -0.411154 1.794 255 255 255
-0.833101 0.664303 1.714 255 255 255
-0.794515 -0.14917 1.532 255 255 255
-0.54628 0.100732 2.672 255 255 255
-0.660586 -0.414508 1.848 255 255 255
0.0318107 0.231225 0.835 255 255 255
0.677761 -0.0975867 1.4 255 255 255
-0.792546 0.228373 1.729 255 255 255
0.26844 0.0877596 1.075 0 0 0
0.0561227 0.0937875 1.064 0 0 0
0.360133 0.226191 0.789 255 255 255
-0.69006 -0.552303 1.633 255 255 255
-0.483969 -0.179281 2.572 255 255 255
-0.325388 0.542686 1.893 255 255 255
0.210699 0.130255 1.024 0 0 0
0.295231 -0.398223 2.228 0 0 0
0.10485 0.151799 0.97 255 255 255
-0.755847 0.182253 1.831 255 255 255
-0.763789 0.64948 1.734 255 255 255
0.577357 -0.702475 2.374 255 255 255
0.351286 -0.0779632 1.416 255 255 255
0.17626 0.0507069 1.147 255 255 255
-0.188031 -0.487462 2.479 255 255 255
0.344502 -0.169993 1.563 255 255 255
-0.240491 -0.326096 2.479 255 255 255
0.564597 -0.860366 2.261 0 0 0
0.303082 0.17921 0.948 255 255 255
0.00613614 0.244005 0.856 255 255 255
0.300846 0.0910037 1.072 0 0 0
0.440427 -0.849908 2.365 255 255 255
-0.720928 -0.410139 1.607 255 255 255
0.166052 0.056012 1.141 255 255 255
0.0691249 -0.00728162 2.44 255 255 255
-0.742981 0.164818 1.905 255 255 255
-0.643656 0.404363 1.7 255 255 255
0.542167 0.0572883 1.167 255 255 255
0.138237 0.206678 0.863 255 255 255
-0.41556 0.482501 1.551 255 255 255
-0.50927 -0.0465085 2.638 255 255 255
0.368748 0.13438 1.005 255 255 255
0.764803 -0.712133 2.212 0 0 0
0.455826 -0.784481 2.365 0 0 0
-0.24008 0.310353 2.004 255 255 255
-0.0847848 0.304096 0.819 255 255 255
-0.747474 -0.38125 1.543 255 255 255
0.29533 0.0493939 1.16 255 255 255
-0.679359 -0.407716 1.779 255 255 255
-0.702948 -0.560583 1.539 255 255 255
-0.710133 -0.532812 1.655 255 255 255
-0.690721 0.0803829 2.044 255 255 255
-0.244139 -0.0840472 2.604 255 255 255
0.0932142 0.0546865 1.114 255 255 255
0.106944 0.178418 0.883 255 255 255
-0.584759 -0.346557 2.294 255 255 255
0.471511 0.00626013 1.215 255 255 255
-0.761353 0.242519 1.859 255 255 255
-0.600731 0.442051 1.696 255 255 255
0.555902 -0.372233 1.893 255 255 255
-0.782046 -0.273823 1.532 255 255 255
0.2812 0.221869 0.862 255 255 255
-0.0880412 -0.768496 2.626 255 255 255
-0.503874 0.457899 1.714 255 255 255
-0.561759 0.385938 1.729 255 255 255
0.243029 0.18841 0.925 255 255 255
0.313518 0.211624 0.866 0 0 0
0.262919 -0.298723 2.114 255 255 255
-0.828694 0.180752 1.583 255 255 255
0.0134246 0.211458 0.877 255 255 255
-0.613265 0.55545 1.579 255 255 255
0.0362373 -0.783848 2.649 0 0 0
0.0693414 0.23339 0.783 255 255 255
-0.252288 0.285291 1.923 255 255 255
-0.663149 -0.202875 1.953 255 255 255
0.41833 0.179429 0.888 255 255 255
-0.555722 -0.559662 2.037 255 255 255
0.250118 0.0863302 1.079 0 0 0
0.99338 -0.466955 1.941 255 255 255
0.157208 0.224907 0.789 255 255 255
0.195422 0.00231521 1.22 255 255 255
0.155515 -0.0243993 1.267 255 255 255
0.138449 0.255659 0.737 255 255 255
-0.0884435 -0.699028 2.638 255 255 255
-0.25524 0.1106 2.253 255 255 255
-0.281151 0.234233 2.143 255 255 255
0.0823305 0.190485 0.866 0 0 0
-0.743068 0.00627105 1.779 255 255 255
0.818161 -0.754448 2.22 0 0 0
-0.779122 -0.0641352 1.587 255 255 255
-0.7383 0.182263 1.893 255 255 255
-0.317944 -0.285639 2.55 255 255 255
0.509902 -0.411267 1.917 255 255 255
0.348637 0.269777 0.699 255 255 255
0.690283 -0.856609 2.204 255 255 255
-0.292513 -0.179978 2.582 255 255 255
0.986648 -0.691253 1.959 255 255 255
0.492852 -0.130748 1.439 255 255 255
0.398637 0.133979 1.002 255 255 255
-0.819491 0.370852 1.686 255 255 255
-0.0829553 0.286261 0.841 255 255 255
-0.490236 -0.245195 2.561 255 255 255
0.500558 -0.353115 1.826 255 255 255
0.0367592 0.255165 0.768 255 255 255
-0.750543 -0.276955 1.655 255 255 255
0.0786688 -0.930884 2.626 255 255 255
0.304283 0.225249 0.833 255 255 255
-0.328918 0.64619 1.748 255 255 255
-0.865046 0.5759 1.668 255 255 255
-0.689226 -0.490499 1.724 255 255 255
-0.776769 0.394895 1.719 255 255 255
-0.651882 -0.029283 2.037 255 255 255
0.471171 0.142328 0.97 255 255 255
-0.750626 0.231552 1.893 255 255 255
0.0765595 0.156728 0.952 255 255 255
-0.279333 0.389458 1.959 255 255 255
0.0219817 -0.971264 2.499 255 255 255
-0.0141525 0.222873 0.906 255 255 255
0.113363 0.217948 0.806 255 255 255
0.131722 0.223576 0.798 255 255 255
0.202673 -0.060378 1.333 255 255 255
-0.231482 -0.340852 2.469 255 255 255
0.154325 -0.052981 1.366 0 0 0
-0.59903 -0.45483 1.853 255 255 255
0.125036 0.182524 0.889 255 255 255
-0.627987 0.455113 1.673 0 0 0
0.104858 0.273649 0.737 255 255 255
0.032306 0.219645 0.848 255 255 255
-0.510739 0.184739 2.459 255 255 255
-0.376076 -0.73256 2.731 255 255 255
0.488589 -0.110223 1.387 255 255 255
-0.263582 0.413392 2.114 255 255 255
0.09077 -0.0893969 1.452 255 255 255
0.986943 -0.449388 1.947 0 0 0
0.0530953 0.176671 0.896 255 255 255
-0.683027 -0.4224 1.744 255 255 255
0.621382 -0.757197 2.294 255 255 255
0.305379 0.0764407 1.114 255 255 255
-0.580607 -0.052609 2.519 255 255 255
-0.845438 0.600094 1.763 255 255 255
0.139511 0.262734 0.73 255 255 255
-0.677063 -0.348548 1.758 255 255 255
-0.647845 -0.250568 2.004 255 255 255
-0.808974 0.0156034 1.555 255 255 255
-0.732857 0.473794 1.616 255 255 255
0.0319349 0.107842 1.066 255 255 255
-0.596313 -0.531015 2.253 255 255 255
0.830764 -0.581905 2.196 255 255 255
-0.571073 0.0947241 2.626 255 255 255
-0.0604989 -0.356125 2.383 255 255 255
-0.819776 0.328741 1.739 255 255 255
-0.196793 0.0957553 2.54 255 255 255
0.566083 0.0298632 1.21 255 255 255
0.47521 -0.150332 1.494 255 255 255
-0.670602 0.00727569 2.064 255 255 255
0.0751863 0.201943 0.849 255 255 255
0.341666 0.189505 0.923 255 255 255
0.286252 0.123107 1.02 255 255 255
0.449305 -0.0857562 1.357 0 0 0
-0.0408399 0.280448 0.82 255 255 255
0.669936 -0.831987 2.244 255 255 255
0.31533 0.184163 0.934 255 255 255
-0.294132 0.049278 2.489 255 255 255
-0.733756 -0.490051 1.442 255 255 255
0.459954 -0.199491 1.575 255 255 255
-0.598204 0.294221 1.805 255 255 255
-0.413619 0.19601 2.107 0 0 0
-0.745693 -0.444947 1.555 255 255 255
0.0396118 0.183764 0.888 0 0 0
-0.0574122 0.280489 0.828 255 255 255
-0.228311 0.475532 1.959 255 255 255
-0.0830648 -0.719682 2.604 255 255 255
0.67292 -0.0810557 1.39 0 0 0
-0.425769 -0.849908 2.365 255 255 255
0.511045 -0.340295 1.821 255 255 255
-0.52114 -0.558656 2.261 255 255 255
0.829824 -0.475103 2.044 255 255 255
-0.528041 -0.749915 2.228 255 255 255
-0.473241 -0.398469 2.582 255 255 255
-0.638163 -0.562094 1.81 255 255 255
-0.366497 0.642929 1.724 255 255 255
-0.739715 -0.199353 1.637 255 255 255
0.124341 0.115313 1.055 0 0 0
0.516411 0.105911 1.1 255 255 255
0.294718 0.00231521 1.22 255 255 255
-0.756169 -0.00240043 1.769 255 255 255
-0.419696 -0.629102 2.615 255 255 255
0.321962 0.248494 0.713 255 255 255
-0.728555 -0.451196 1.484 255 255 255
0.379677 0.0182725 1.225 255 255 255
0.301608 0.15232 0.994 0 0 0
-0.776868 -0.238679 1.484 255 255 255
0.116976 -0.802159 2.53 255 255 255
0.374573 0.242184 0.751 255 255 255
-0.326064 0.625805 1.779 255 255 255
0.151329 -0.0679693 1.4 255 255 255
0.716632 -0.732665 2.253 255 255 255
0.330814 0.225298 0.76 255 255 255
-0.233236 0.275587 2.253 255 255 255
0.990112 -0.436714 1.947 255 255 255
0.737079 -0.157807 1.473 255 255 255
-0.825622 0.173461 1.587 255 255 255
0.151695 -0.280311 2.365 255 255 255
0.336768 0.240163 0.73 255 255 255
-0.574755 0.31714 1.769 255 255 255
0.124382 -0.00583368 1.265 255 255 255
-0.00593311 0.286699 0.793 255 255 255
0.20664 0.0772701 1.1 0 0 0
-0.771557 0.153229 1.805 255 255 255
0.316489 0.147616 0.995 0 0 0
0.188225 0.263208 0.712 255 255 255
-0.684994 -0.125059 1.882 255 255 255
0.234334 0.22579 0.835 255 255 255
-0.57591 -0.284159 2.365 255 255 255
0.565235 -0.433623 1.991 255 255 255
0.521764 -0.178024 1.502 255 255 255
-0.744441 -0.424344 1.563 255 255 255
-0.590024 0.32754 1.763 255 255 255
-0.243648 -0.402693 2.43 255 255 255
-0.453493 0.418488 1.724 255 255 255
0.0103887 0.22748 0.862 255 255 255
0.667548 -0.839937 2.236 255 255 255
0.3109 -0.24733 1.655 255 255 255
-0.759727 0.0985533 1.826 255 255 255
0.0488287 0.220133 0.824 255 255 255
0.208665 0.239834 0.775 255 255 255
0.414141 0.231559 0.817 0 0 0
0.177791 0.0330191 1.182 255 255 255
-0.724518 -0.422476 1.575 255 255 255
0.722693 -0.160204 1.473 255 255 255
-0.763386 0.228311 1.842 255 255 255
-0.376056 -0.862446 2.55 255 255 255
0.109749 0.0753428 1.098 255 255 255
0.00932416 -0.294078 2.383 255 255 255
0.390004 0.0678229 1.092 255 255 255
-0.327891 0.617327 1.805 255 255 255
-0.147552 -0.458396 2.411 255 255 255
-0.0780838 -0.416276 2.329 0 0 0
0.012799 0.121263 1.062 255 255 255
-0.521338 0.183276 2.55 255 255 255
0.400259 -0.744594 2.449 255 255 255
0.74494 -0.551297 2.261 255 255 255
-0.705007 0.479575 1.583 255 255 255
-0.367384 -0.970839 2.519 255 255 255
-0.606766 -0.570439 2.064 255 255 255
0.581252 0.0765706 1.143 255 255 255
-0.663155 0.341039 1.744 255 255 255
0.265645 0.255862 0.724 255 255 255
-0.744848 0.476521 1.691 255 255 255
0.245404 0.232976 0.822 255 255 255
0.131363 -0.0213799 1.336 255 255 255
-0.173158 -0.46391 2.44 255 255 255
-0.311863 0.020757 2.469 255 255 255
0.364977 0.212745 0.848 255 255 255
0.589721 0.0100716 1.198 255 255 255
-0.64244 -0.294555 1.929 255 255 255
0.161427 -0.0523992 1.351 0 0 0
-0.0108952 0.10153 1.196 255 255 255
0.463412 0.131292 0.994 255 255 255
0.547125 -0.321768 1.784 255 255 255
-0.17138 0.320967 2.212 255 255 255
0.415291 -0.138471 1.524 255 255 255
0.668956 -0.794993 2.253 255 255 255
0.750715 -0.520976 2.151 255 255 255
-0.4625 -0.896516 2.356 255 255 255
0.454091 -0.831338 2.356 0 0 0
-0.378715 -0.824049 2.626 255 255 255
0.161115 0.271712 0.71 255 255 255
0.157052 0.136653 1.022 255 255 255
-0.753055 -0.247384 1.603 255 255 255
-0.129449 0.191542 2.173 255 255 255
0.0933968 -0.828658 2.561 255 255 255
-0.572338 0.148389 2.593 255 255 255
-0.666403 0.48499 1.559 255 255 255
0.475849 -0.142743 1.466 255 255 255
0.286288 0.0566501 1.154 255 255 255
0.0531764 0.235178 0.789 255 255 255
0.339344 0.0608248 1.162 255 255 255
-0.721274 -0.0273855 1.905 255 255 255
0.766043 -0.689867 2.269 255 255 255
-0.720485 -0.376884 1.705 255 255 255
0.135189 -0.0713514 1.422 255 255 255
0.0535001 0.0776946 1.081 255 255 255
0.108276 0.26293 0.744 255 255 255
0.355732 -0.472742 2.365 0 0 0
0.0570501 0.155784 0.937 255 255 255
-0.649012 0.112593 2.22 255 255 255
-0.702197 -0.300448 1.831 255 255 255
0.0694653 0.0707887 1.083 255 255 255
-0.820022 0.309346 1.71 255 255 255
-0.192658 -0.0530476 2.54 255 255 255
-0.0796922 0.282409 0.85 255 255 255
0.2893 -0.918773 2.489 255 255 255
0.411197 0.181087 0.882 255 255 255
-0.631495 -0.210331 2.057 255 255 255
0.507138 -0.484238 2.128 255 255 255
0.928657 -0.551836 1.985 255 255 255
-0.551718 0.314261 1.769 255 255 255
0.680458 -0.22942 1.587 255 255 255
0.929369 -0.684125 1.966 0 0 0
-0.694776 0.326697 1.774 255 255 255
0.00192167 0.256152 0.841 255 255 255
0.364542 0.205959 0.86 255 255 255
-0.743795 -0.331079 1.567 255 255 255
0.180292 0.255155 0.722 255 255 255
-0.678427 0.589173 1.637 255 255 255
-0.0751713 0.25742 0.878 255 255 255
0.34796 0.149535 0.997 0 0 0
0.270802 0.214341 0.883 255 255 255
-0.463011 0.566858 1.575 255 255 255
-0.866831 0.561574 1.682 255 255 255
-0.34448 0.603025 1.815 255 255 255
0.252201 0.166372 0.954 255 255 255
-0.490053 -0.171574 2.582 255 255 255
-0.749328 0.211831 1.882 255 255 255
0.370499 0.214125 0.848 255 255 255
-0.193017 -0.459939 2.44 255 255 255
-0.23207 -0.610106 2.519 0 0 0
0.706333 -0.610487 2.392 0 0 0
0.330674 0.217493 0.845 255 255 255
-0.571073 0.107544 2.626 255 255 255
0.233138 -0.658494 2.411 255 255 255
-0.645582 -0.610418 1.997 255 255 255
-0.280913 0.183928 2.253 255 255 255
-0.530232 -0.791479 2.107 255 255 255
-0.168532 -0.50968 2.489 255 255 255
0.0685869 0.173126 0.908 255 255 255
0.160043 0.249662 0.737 255 255 255
-0.237409 -0.50563 2.489 255 255 255
0.249115 -0.115205 1.48 255 255 255
0.362733 0.0299866 1.215 255 255 255
-0.781078 -0.154458 1.535 255 255 255
-0.60783 -0.499743 2.228 255 255 255
0.0165603 0.284288 0.759 255 255 255
-0.65997 -0.250548 1.953 255 255 255
-0.732814 0.132508 1.978 255 255 255
-0.501286 0.347549 1.734 255 255 255
0.656427 -0.732236 2.286 255 255 255
0.0790109 0.093903 1.046 0 0 0
-0.499102 -0.870542 2.278 255 255 255
-0.425532 -0.258317 2.793 255 255 255
0.251088 0.149835 0.999 0 0 0
-0.18827 -0.450146 2.43 255 255 255
0.834822 -0.64747 2.107 255 255 255
0.112552 0.0724228 1.108 255 255 255
-0.615692 -0.059573 2.312 255 255 255
-0.218023 -0.259593 2.499 255 255 255
-0.626266 -0.716435 1.899 255 255 255
0.643379 -0.698305 2.347 255 255 255
0.1637 -0.691949 2.489 255 255 255
0.288616 -0.5888 2.383 255 255 255
0.229832 0.206062 0.897 255 255 255
0.427659 0.00226208 1.192 255 255 255
-0.767803 -0.00514488 1.724 255 255 255
-0.171896 0.15618 2.173 255 255 255
-0.600072 -0.688412 1.997 255 255 255
-0.652946 -0.597381 2.03 255 255 255
0.433653 -0.0713844 1.336 255 255 255
0.166911 0.213033 0.866 255 255 255
-0.701769 -0.525168 1.7 255 255 255
-0.59842 -0.450983 2.22 255 255 255
-0.685177 -0.574 1.673 255 255 255
-0.0715797 -0.0643914 2.499 255 255 255
-0.381112 0.393746 1.714 0 0 0
0.0534135 0.257329 0.756 0 0 0
0.400738 0.229798 0.825 255 255 255
0.0953785 -0.028636 1.487 255 255 255
0.673759 -0.299025 1.673 0 0 0
0.777931 -0.314661 1.729 0 0 0
-0.0160549 0.293277 0.783 255 255 255
0.437079 -0.293842 1.739 0 0 0
-0.38474 -0.0465085 2.638 255 255 255
-0.393416 0.63547 1.719 255 255 255
0.135156 0.112304 1.059 0 0 0
-0.392498 -0.753582 2.604 0 0 0
0.141803 -0.219193 2.329 0 0 0
0.288559 0.201908 0.898 255 255 255
0.752122 -0.803469 2.196 255 255 255
0.359139 0.246777 0.732 255 255 255
0.677395 -0.719867 2.294 255 255 255
-0.670487 -0.611061 1.599 255 255 255
0.486882 0.111137 1.048 0 0 0
-0.800967 0.0247462 1.659 255 255 255
0.212479 -0.432603 2.356 255 255 255
-0.795847 0.26896 1.774 255 255 255
0.700072 -0.0968896 1.39 255 255 255
-0.744104 -0.329209 1.595 255 255 255
0.739339 -0.704176 2.244 0 0 0
0.433695 0.102445 1.064 0 0 0
-0.705422 -0.312181 1.779 255 255 255
-0.674538 -0.282503 1.87 255 255 255
-0.783486 -0.0610872 1.575 255 255 255
-0.371326 0.318006 1.876 255 255 255
-0.362826 -0.851046 2.604 255 255 255
0.0464173 0.187836 0.88 255 255 255
-0.599418 0.493865 1.563 255 255 255
0.347111 0.252222 0.717 255 255 255
0.423625 0.148185 0.988 255 255 255
0.623014 -0.0137566 1.237 255 255 255
0.336356 0.0202991 1.227 255 255 255
0.414977 -0.0757058 1.375 255 255 255
0.229975 -0.895643 2.55 0 0 0
-0.572535 -0.274688 2.383 255 255 255
0.0556619 -0.513174 2.374 255 255 255
-0.152267 0.218584 2.196 255 255 255
-0.293223 -0.0719372 2.626 255 255 255
0.944428 -0.747904 1.991 255 255 255
-0.0608973 0.300796 0.786 255 255 255
0.0145727 0.17222 0.952 255 255 255
0.114217 0.00236076 1.244 255 255 255
0.341291 -0.0269624 1.291 255 255 255
0.522045 0.101638 1.112 255 255 255
0.360326 0.187252 0.884 255 255 255
0.0406784 -0.421506 2.402 0 0 0
0.109764 -0.3316 2.374 255 255 255
-0.0434494 -0.593709 2.519 0 0 0
0.0162106 0.122644 1.059 255 255 255
0.320086 0.120022 1.022 255 255 255
-0.486068 -0.22019 2.561 255 255 255
-0.716003 -0.491758 1.551 255 255 255
-0.465266 -0.548144 2.294 255 255 255
-0.0986227 0.13407 2.278 255 255 255
0.200306 0.131664 1.022 0 0 0
0.251602 -0.0839171 1.4 255 255 255
0.216617 -0.00571377 1.239 255 255 255
-0.72058 -0.514104 1.673 255 255 255
-0.63302 -0.316529 1.929 255 255 255
0.214182 0.139841 1.009 0 0 0
0.563994 0.059086 1.165 255 255 255
-0.780084 0.112048 1.758 255 255 255
0.478603 0.0218597 1.203 255 255 255
-0.407496 -0.845096 2.44 255 255 255
0.221308 -0.79233 2.499 255 255 255
-0.496197 -0.0512251 2.66 255 255 255
0.115746 0.0436554 1.158 255 255 255
0.322464 0.250561 0.709 255 255 255
-0.774602 0.445391 1.599 255 255 255
0.437539 0.0391632 1.137 255 255 255
-0.772591 -0.308432 1.543 255 255 255
0.836817 -0.643739 2.212 255 255 255
0.782487 -0.826375 2.181 255 255 255
-0.338515 0.422056 1.799 255 255 255
-0.380521 -0.697006 2.731 255 255 255
0.457926 -0.812168 2.356 0 0 0
-0.557956 0.303258 1.789 0 0 0
0.00232611 0.151028 1.018 255 255 255
0.881083 -0.809324 2.136 255 255 255
-0.762544 -0.142708 1.543 255 255 255
0.568527 -0.683398 2.402 255 255 255
0.722704 -0.492973 2.151 255 255 255
0.0659199 0.170921 0.912 255 255 255
0.281192 -0.115517 1.484 0 0 0
-0.816992 0.117656 1.637 255 255 255
-0.0598512 -0.0280136 2.519 255 255 255
0.194073 -0.0768621 1.396 255 255 255
-0.34448 0.449438 1.815 255 255 255
-0.85336 0.633359 1.744 255 255 255
-0.393416 0.397692 1.719 0 0 0
-0.684878 -0.321202 1.865 255 255 255
-0.604598 -0.468097 1.959 255 255 255
-0.767667 -0.0189612 1.705 255 255 255
0.29428 0.232716 0.752 0 0 0
0.671559 -0.172674 1.498 0 0 0
-0.827759 0.271237 1.664 255 255 255
0.530984 -0.799057 2.374 255 255 255
0.0300297 0.114135 1.06 255 255 255
0.062896 0.206574 0.851 255 255 255
0.854189 -0.270016 1.696 255 255 255
-0.135304 -0.625913 2.55 255 255 255
0.854979 -0.468827 2.017 255 255 255
-0.0186223 -0.0317304 2.489 255 255 255
0.86049 -0.656843 2.03 255 255 255
0.154342 0.22771 0.781 255 255 255
0.0946985 0.269468 0.742 255 255 255
0.374117 0.227889 0.786 255 255 255
0.129731 0.0647808 1.132 0 0 0
0.307206 0.157512 0.986 0 0 0
-0.755301 0.148738 1.859 255 255 255
0.311774 0.0496068 1.165 255 255 255
-0.793278 0.055034 1.677 255 255 255
-0.371857 -0.347011 2.638 255 255 255
-0.83338 0.20505 1.612 255 255 255
0.0903429 -0.746179 2.593 255 255 255
-0.711812 0.481684 1.616 255 255 255
-0.0785686 -0.838446 2.743 255 255 255
0.308099 0.114478 1.032 255 255 255
0.201773 -0.787334 2.509 0 0 0
0.400297 0.147885 0.986 255 255 255
0.204748 -0.394425 2.312 255 255 255
-0.310963 0.504232 1.899 255 255 255
0.36895 0.210081 0.854 0 0 0
-0.670528 0.436072 1.705 255 255 255
-0.543296 0.407266 1.724 255 255 255
-0.208137 0.329353 2.22 255 255 255
-0.713614 -0.581607 1.535 255 255 255
0.807914 -0.819807 2.173 255 255 255
-0.63302 -0.677528 1.929 255 255 255
0.23583 0.0043499 1.234 255 255 255
-0.667272 0.484928 1.567 255 255 255
0.557184 -0.566267 2.338 0 0 0
0.197221 -0.258979 2.312 0 0 0
-0.0508747 0.253134 0.878 255 255 255
-0.680471 -0.273904 1.853 255 255 255
0.291292 0.173668 0.96 255 255 255
0.855401 -0.582323 2.107 255 255 255
-0.668832 -0.516056 1.744 255 255 255
0.327954 0.259141 0.701 255 255 255
-0.0336212 -0.90633 2.719 255 255 255
0.464642 0.0824672 1.122 255 255 255
0.245018 -0.489994 2.374 0 0 0
-0.757543 -0.344937 1.484 255 255 255
0.647824 -0.382851 1.947 255 255 255
0.195833 0.265585 0.706 255 255 255
-0.619406 -0.373167 2.107 255 255 255
0.242306 0.18298 0.928 255 255 255
0.204424 0.270163 0.7 255 255 255
0.150428 0.077832 1.108 0 0 0
-0.733719 -0.414863 1.595 255 255 255
0.430232 0.185716 0.857 255 255 255
0.103589 0.248537 0.763 255 255 255
0.84701 -0.604743 2.078 255 255 255
-0.455658 0.146004 2.626 255 255 255
-0.616878 0.0242831 2.42 255 255 255
-0.616745 0.143583 2.374 255 255 255
-0.472205 0.559996 1.563 255 255 255
0.682556 -0.264651 1.629 255 255 255
-0.565667 -0.278953 2.42 255 255 255
0.456229 -0.196428 1.571 255 255 255
-0.785149 -0.0784263 1.563 255 255 255
-0.696366 0.205289 1.966 255 255 255
-0.0105191 -0.0479321 2.489 255 255 255
-0.451134 -0.277219 2.755 255 255 255
0.67949 -0.234341 1.603 255 255 255
0.7676 -0.204949 1.539 255 255 255
-0.00766142 0.153584 1.024 255 255 255
-0.294132 -0.335512 2.489 255 255 255
0.458695 0.149756 0.967 255 255 255
-0.787183 0.326697 1.774 255 255 255
-0.74429 -0.123739 1.696 255 255 255
-0.532896 -0.432049 2.312 255 255 255
-0.167173 0.323393 2.204 255 255 255
-0.141616 0.352803 2.143 0 0 0
0.409632 0.206088 0.849 255 255 255
0.368222 0.0934349 1.06 0 0 0
0.186721 0.106306 1.068 255 255 255
0.0823237 -0.0594069 1.47 255 255 255
0.558325 -0.430792 1.978 255 255 255
0.13245 0.259257 0.737 255 255 255
-0.59786 0.366581 1.744 255 255 255
-0.81568 0.0969519 1.603 255 255 255
0.884529 -0.498368 2.017 255 255 255
0.679389 -0.48053 2.158 255 255 255
0.980573 -0.677726 1.966 255 255 255
0.363337 -0.750675 2.469 255 255 255
-0.717322 -0.514132 1.691 255 255 255
0.209887 -0.285828 2.286 0 0 0
0.244403 0.261556 0.717 255 255 255
0.856999 -0.761275 2.128 255 255 255
0.281048 -0.0535066 1.324 255 255 255
0.340325 -0.579346 2.392 255 255 255
0.216513 0.119207 1.044 255 255 255
0.0019468 0.249797 0.852 255 255 255
-0.298775 0.626411 1.789 255 255 255
-0.63616 -0.435816 1.929 255 255 255
-0.847528 0.310169 1.655 255 255 255
-0.735233 -0.335272 1.528 255 255 255
0.438831 0.163952 0.958 0 0 0
0.665625 -0.254672 1.633 255 255 255
0.178261 0.242433 0.748 255 255 255
0.137123 0.23612 0.763 0 0 0
-0.525208 -0.428033 2.509 255 255 255
0.0280372 0.119893 1.05 0 0 0
-0.611256 0.401176 1.71 255 255 255
-0.701298 0.0195971 1.953 255 255 255
0.401791 -0.299913 1.758 255 255 255
-0.287749 -0.903354 2.469 0 0 0
-0.864354 0.504019 1.646 255 255 255
0.132859 0.129029 1.041 0 0 0
0.81222 -0.257323 1.65 0 0 0
-0.508442 -0.72226 2.338 255 255 255
0.303125 0.148209 0.999 0 0 0
-0.407577 -0.910672 2.489 255 255 255
0.0217143 0.214443 0.866 255 255 255
0.240037 0.249403 0.747 255 255 255
-0.428891 -0.724885 2.519 255 255 255
0.530491 -0.185104 1.52 255 255 255
-0.747321 -0.325549 1.642 255 255 255
-0.667156 -0.596016 1.629 255 255 255
-0.831157 0.320477 1.71 255 255 255
0.333899 0.156382 0.989 0 0 0
-0.643865 -0.529211 1.769 255 255 255
-0.597376 -0.515454 2.114 255 255 255
0.768706 -0.170691 1.502 255 255 255
-0.16174 0.268903 2.228 255 255 255
0.467521 0.13385 0.989 255 255 255
-0.849576 0.319018 1.659 255 255 255
0.65413 -0.755623 2.278 255 255 255
0.305685 -0.557412 2.365 255 255 255
0.587059 -0.00564921 1.225 255 255 255
0.227496 0.251035 0.734 255 255 255
-0.330396 -0.54292 2.55 255 255 255
-0.381548 0.329331 1.837 255 255 255
-0.0898574 0.272851 0.868 255 255 255
-0.778378 0.30325 1.842 255 255 255
0.735798 -0.605893 2.374 0 0 0
-0.230775 -0.688159 2.55 0 0 0
-0.743137 -0.329368 1.571 255 255 255
0.78025 -0.520819 2.136 255 255 255
0.924982 -0.673384 1.991 0 0 0
-0.54765 -0.777792 2.044 255 255 255
0.138173 0.269627 0.723 255 255 255
-0.796356 0.201876 1.719 255 255 255
0.793155 -0.682536 2.294 255 255 255
0.303746 0.0686466 1.135 255 255 255
0.100036 0.00487866 1.384 255 255 255
0.0469975 0.180035 0.891 0 0 0
0.0543251 0.0520234 1.135 255 255 255
-0.028697 0.222406 0.948 255 255 255
0.181862 0.0507069 1.147 255 255 255
-0.451187 -0.706122 2.44 255 255 255
0.288757 -0.00771756 1.237 255 255 255
0.112967 0.22504 0.794 255 255 255
-0.0254907 -0.358643 2.374 255 255 255
