ply
format ascii 1.0
comment Created by Open3D
element vertex 1302
property double x
property double y
property double z
property uchar red
property uchar green
property uchar blue
end_header
-0.564749 0.287648 1.39 255 255 255
0.0190863 -0.595433 1.831 255 255 255
-0.463383 0.259196 1.559 255 255 255
0.423802 0.00341929 0.97 255 255 255
0.315624 0.217218 0.677 255 255 255
0.388091 -0.340927 2.499 255 255 255
0.121714 -0.0438313 1.947 255 255 255
0.492749 0.309543 1.899 255 255 255
-0.512419 -0.174828 1.087 255 255 255
-0.345355 -0.176398 1.509 255 255 255
0.198997 -0.0600411 1.959 255 255 255
0.149614 0.199701 0.573 255 255 255
0.295541 0.416469 1.739 255 255 255
-0.261364 0.118984 1.734 255 255 255
0.131078 0.0190552 1.899 255 255 255
0.521321 0.247633 1.972 255 255 255
-0.291299 0.310619 1.815 255 255 255
0.126528 -0.118026 2.024 0 0 0
0.364892 -0.127648 2.189 255 255 255
-0.458347 0.177214 1.509 255 255 255
-0.529303 0.113167 1.308 255 255 255
-0.142808 0.448324 1.668 255 255 255
-0.102792 -0.441213 1.774 255 255 255
-0.142749 -0.00867903 1.882 255 255 255
-0.364617 -0.356471 1.313 255 255 255
-0.452069 0.514111 1.555 255 255 255
0.508239 -0.0399256 1.237 255 255 255
0.0706275 0.183158 0.533 255 255 255
0.60764 -0.199776 1.281 255 255 255
-0.334692 0.324491 1.81 255 255 255
0.193991 -0.709996 2.151 255 255 255
-0.275278 -0.0167942 1.769 255 255 255
0.475412 -0.436199 2.509 255 255 255
-0.232978 -0.0321046 1.821 255 255 255
0.81374 -0.597984 2.151 255 255 255
0.556272 -0.902912 2.383 255 255 255
0.0110608 0.279135 1.543 255 255 255
0.262769 0.351131 1.826 255 255 255
0.154925 -0.119601 2.051 0 0 0
-0.363206 -0.00990118 1.587 255 255 255
-0.589776 0.402495 1.412 255 255 255
0.294675 0.252 0.667 255 255 255
-0.133476 -0.600849 1.559 255 255 255
0.369897 -0.881039 2.286 255 255 255
-0.453772 -0.0494204 1.33 255 255 255
-0.69348 0.512298 1.333 255 255 255
0.120158 -0.384918 2.278 255 255 255
-0.405226 -0.269574 1.327 255 255 255
0.49796 -0.951716 2.459 255 255 255
-0.569996 0.554343 1.48 255 255 255
0.565001 -0.0880941 1.359 255 255 255
0.00502263 0.209225 0.571 255 255 255
0.54239 0.0181424 2.158 255 255 255
0.0577579 0.0542388 1.739 0 0 0
-0.0473582 0.0546754 1.753 0 0 0
0.423341 0.0700554 1.26 255 255 255
-0.522435 -0.224325 1.03 255 255 255
-0.141838 -0.114547 1.911 255 255 255
0.3049 -0.0151268 1.923 255 255 255
-0.288279 -0.220298 1.559 255 255 255
-0.427949 0.133805 1.607 255 255 255
-0.407093 0.0590742 1.567 255 255 255
-0.454622 -0.216025 1.156 255 255 255
-0.324008 -0.426982 1.313 255 255 255
0.668956 -0.835323 2.253 255 255 255
-0.425674 -0.315392 1.096 255 255 255
0.844491 -0.4419 2.158 255 255 255
-0.119649 0.370852 1.686 255 255 255
0.702266 -0.658675 2.121 0 0 0
0.114861 -0.673651 2.051 255 255 255
-0.637965 0.306216 1.27 255 255 255
-0.638961 0.42106 1.319 255 255 255
0.323717 0.219947 0.662 255 255 255
-0.385992 -0.432973 1.194 255 255 255
0.456573 0.257929 1.929 255 255 255
0.496723 0.0567719 2.158 255 255 255
-0.226037 -0.47326 1.516 255 255 255
0.346028 0.33922 1.842 255 255 255
0.559332 -0.240562 2.43 255 255 255
0.476466 -0.901751 2.411 255 255 255
0.0629368 0.183502 0.534 255 255 255
0.266701 0.233508 0.696 255 255 255
1.01277 -0.769643 2.085 255 255 255
-0.352285 -0.279354 1.409 255 255 255
-0.597526 0.505915 1.425 255 255 255
0.0130597 0.188686 0.557 255 255 255
0.299723 0.25005 0.659 255 255 255
0.119402 0.216519 0.554 255 255 255
-0.423211 0.0128123 1.524 255 255 255
-0.367671 -0.340066 1.324 255 255 255
-0.250771 -0.0574193 1.779 255 255 255
0.129544 0.181684 0.575 255 255 255
0.131656 0.20666 0.564 255 255 255
-0.0440223 0.116162 1.734 255 255 255
-0.466462 -0.0878811 1.232 255 255 255
0.0884751 0.199018 0.536 255 255 255
0.0712914 0.40446 1.724 255 255 255
-0.458144 0.278501 1.612 255 255 255
0.580623 -0.109526 1.324 255 255 255
0.458366 -0.857008 2.44 255 255 255
0.528118 -0.421209 2.469 255 255 255
-0.390455 -0.308153 1.239 255 255 255
-0.22662 -0.54879 1.412 255 255 255
-0.130614 -0.0936519 1.929 255 255 255
-0.244331 -0.44243 1.463 255 255 255
-0.277722 -0.109939 1.696 255 255 255
0.0514972 0.162713 1.719 255 255 255
0.366888 0.146718 0.738 255 255 255
-0.408403 0.436751 1.655 255 255 255
-0.347872 -0.160369 1.52 255 255 255
-0.359736 -0.112285 1.539 255 255 255
-0.507896 0.104248 1.33 255 255 255
-0.555126 0.539216 1.505 255 255 255
-0.329081 -0.238036 1.48 255 255 255
-0.541591 -0.0815686 1.118 255 255 255
0.0566286 0.394454 1.705 255 255 255
-0.123765 0.065747 1.744 255 255 255
-0.51505 -0.246593 1.032 255 255 255
0.618583 -0.184929 1.265 255 255 255
-0.493719 -0.236479 1.062 255 255 255
-0.451012 -0.379023 1.009 255 255 255
0.490474 -0.657477 2.365 255 255 255
-0.278489 -0.334374 1.48 255 255 255
-0.220586 -0.377203 1.547 255 255 255
-0.37054 0.2008 1.784 255 255 255
0.251706 0.260185 0.677 0 0 0
-0.29804 0.0964845 1.686 255 255 255
0.371893 0.137446 0.753 255 255 255
0.753287 -0.537304 2.189 255 255 255
-0.509726 0.306739 1.494 255 255 255
-0.434934 0.544544 1.513 255 255 255
0.76235 -0.394474 2.269 255 255 255
0.81502 -0.56253 2.136 255 255 255
-0.536132 -0.088846 1.118 255 255 255
-0.277065 0.380772 1.744 255 255 255
-0.452246 -0.0701555 1.313 255 255 255
0.542964 -0.66387 2.294 255 255 255
-0.26174 0.435664 1.682 255 255 255
-0.518392 0.266046 1.484 255 255 255
-0.207178 -0.332636 1.599 255 255 255
0.350985 0.0291316 1.953 255 255 255
-0.332886 0.170266 1.739 255 255 255
-0.127668 0.0151242 1.799 255 255 255
-0.581174 0.07304 1.176 255 255 255
-0.425239 -0.147708 1.4 255 255 255
0.19432 -0.611048 2.278 255 255 255
-0.398779 0.0398834 1.616 255 255 255
-0.109822 -0.426213 1.748 255 255 255
0.0921064 -0.484164 2.143 255 255 255
-0.553501 0.394263 1.494 255 255 255
0.344945 0.193222 0.674 255 255 255
0.663195 -0.0231871 2.085 255 255 255
0.136139 0.273274 1.842 255 255 255
-0.464975 0.0894219 1.403 255 255 255
-0.611306 0.203645 1.213 255 255 255
0.836215 -0.518868 2.128 255 255 255
-0.457589 -0.364897 1.02 255 255 255
-0.224603 -0.225191 1.691 255 255 255
-0.291857 0.43019 1.682 255 255 255
0.460378 0.327048 1.893 255 255 255
0.90207 -0.722485 2.057 255 255 255
-0.517422 0.20445 1.409 255 255 255
-0.631653 0.478016 1.378 255 255 255
-0.518711 -0.120507 1.108 255 255 255
0.370262 0.128019 0.77 255 255 255
-0.417136 -0.199694 1.366 255 255 255
-0.180387 -0.324495 1.664 255 255 255
0.866833 -0.599994 2.085 255 255 255
0.303652 0.219601 0.695 255 255 255
0.108099 -0.216235 2.338 255 255 255
-0.276239 -0.462864 1.362 255 255 255
-0.187588 -0.228867 1.784 255 255 255
-0.355655 0.0276776 1.673 255 255 255
0.26434 -0.632936 2.374 255 255 255
0.22865 0.394866 1.769 255 255 255
-0.257366 0.477603 1.62 255 255 255
-0.479022 -0.134289 1.165 255 255 255
0.447118 0.0571665 2.173 255 255 255
-0.526731 -0.0869602 1.141 255 255 255
-0.682208 0.514722 1.345 255 255 255
0.368242 0.0477252 0.941 255 255 255
-0.0261962 0.23515 1.677 0 0 0
-0.38644 -0.16426 1.425 255 255 255
-0.619859 0.300062 1.297 255 255 255
0.641312 -0.488485 2.312 255 255 255
-0.0267117 -0.642349 1.71 255 255 255
-0.60614 0.380491 1.366 255 255 255
-0.304056 -0.186676 1.575 255 255 255
-0.64978 0.301153 1.249 255 255 255
-0.0191019 -0.575628 1.779 255 255 255
-0.590995 0.313481 1.327 255 255 255
-0.159308 -0.222369 1.826 255 255 255
0.231131 0.236528 0.705 255 255 255
-0.309937 -0.11117 1.633 255 255 255
0.707932 -0.62407 2.181 255 255 255
-0.120817 -0.168465 1.923 255 255 255
-0.125138 -0.457738 1.686 255 255 255
-0.568212 0.476552 1.463 255 255 255
0.403714 -0.462256 2.684 255 255 255
0.0896619 -0.110668 2.01 255 255 255
0.314072 0.220095 0.669 255 255 255
-0.23868 -0.266182 1.655 255 255 255
-0.455587 0.469983 1.603 255 255 255
-0.151768 -0.337946 1.677 255 255 255
-0.654924 0.413292 1.308 255 255 255
0.325072 -0.313752 2.684 255 255 255
0.604951 -0.642455 2.22 255 255 255
-0.481237 0.307663 1.535 255 255 255
-0.549333 0.161245 1.336 255 255 255
0.548356 -0.0789698 1.16 255 255 255
0.63867 -0.111431 2.151 0 0 0
0.227064 -0.497598 2.43 255 255 255
1.03294 -0.622927 2.071 255 255 255
0.58065 -0.359758 2.356 255 255 255
0.600609 -0.602034 2.286 255 255 255
0.98199 -0.8158 2.099 255 255 255
-0.385826 0.196748 1.748 255 255 255
-0.385196 -0.360678 1.275 255 255 255
-0.181992 -0.245557 1.758 255 255 255
0.576453 -0.0990467 1.152 255 255 255
-0.52553 -0.177927 1.053 255 255 255
-0.2305 0.130757 1.779 255 255 255
0.190997 0.082229 1.794 255 255 255
0.0888962 0.0683884 1.739 0 0 0
0.336204 0.167389 0.761 255 255 255
-0.35443 -0.0430363 1.571 255 255 255
0.345053 -0.163636 2.294 255 255 255
-0.426036 -0.169526 1.273 255 255 255
0.258674 0.227349 0.705 255 255 255
-0.0339588 -0.552823 1.799 255 255 255
-0.339308 -0.368828 1.375 255 255 255
0.403795 0.0561464 0.904 255 255 255
-0.388245 0.516756 1.563 255 255 255
-0.193385 -0.49933 1.551 255 255 255
0.701695 -0.730999 2.151 255 255 255
-0.559064 -0.0200103 1.135 255 255 255
0.419506 0.0704446 1.267 255 255 255
0.618336 -0.429805 2.383 255 255 255
-0.53807 0.100332 1.254 255 255 255
-0.292551 0.101972 1.686 255 255 255
-0.0534198 -0.387972 1.865 255 255 255
-0.590074 0.555382 1.47 255 255 255
0.326938 0.195568 0.694 255 255 255
-0.58888 0.546927 1.473 255 255 255
0.309477 0.0449429 1.821 255 255 255
-0.457564 -0.0510417 1.316 255 255 255
-0.59004 0.500124 1.435 255 255 255
0.807384 -0.698902 2.107 255 255 255
0.309508 0.240737 0.657 255 255 255
0.217097 0.0574513 1.842 255 255 255
0.432928 0.0411978 0.868 255 255 255
-0.507417 -0.262976 1.037 255 255 255
0.706948 -0.431398 2.269 255 255 255
-0.448766 0.483503 1.579 255 255 255
0.167653 0.220385 1.826 255 255 255
0.252281 0.23485 0.7 0 0 0
0.365253 0.145098 0.742 255 255 255
0.408201 0.0719836 0.832 255 255 255
-0.13527 0.0895098 1.71 255 255 255
-0.442748 -0.258471 1.112 255 255 255
-0.412999 0.218495 1.696 255 255 255
0.124561 0.373444 1.763 255 255 255
0.121173 0.197198 0.558 255 255 255
-0.477677 -0.125453 1.171 255 255 255
-0.130142 0.281124 1.612 255 255 255
0.127049 0.148726 1.719 0 0 0
-0.49776 -0.154613 1.147 255 255 255
-0.514599 0.266584 1.487 255 255 255
-0.55941 -0.0653853 1.062 255 255 255
-0.403365 0.538583 1.524 255 255 255
0.740806 -0.294994 2.329 255 255 255
-0.467558 -0.0166747 1.308 255 255 255
0.396195 0.019244 0.972 255 255 255
0.498931 0.312633 1.899 255 255 255
0.249253 -0.056679 1.953 0 0 0
0.227064 -0.501553 2.43 255 255 255
-0.503395 0.000337711 1.249 255 255 255
-0.648764 0.521756 1.381 255 255 255
0.365884 -0.248572 2.356 255 255 255
-0.340643 -0.159142 1.532 255 255 255
-0.0777421 -0.164138 2.024 255 255 255
0.762527 -0.246728 2.303 255 255 255
-0.494769 -0.234339 1.068 255 255 255
-0.481263 -0.32911 1.007 255 255 255
0.61298 0.0893774 2.099 255 255 255
0.166337 0.219494 0.576 255 255 255
0.97955 -0.581543 2.044 255 255 255
0.521178 -0.128453 2.143 255 255 255
0.0434463 -0.566402 1.853 255 255 255
0.416291 0.0865341 0.816 255 255 255
-0.0190574 -0.179866 2.092 255 255 255
-0.431148 0.125695 1.571 255 255 255
0.765468 -0.55813 2.173 255 255 255
0.0453935 0.368399 1.7 255 255 255
0.304692 -0.530471 2.55 255 255 255
0.364372 0.0839382 0.935 255 255 255
-0.409528 -0.411578 1.077 255 255 255
-0.172279 -0.121219 1.87 255 255 255
-0.48546 -0.363426 0.951 255 255 255
-0.476261 -0.275319 1.039 255 255 255
-0.36448 -0.3388 1.336 255 255 255
0.299018 0.246573 0.667 255 255 255
-0.193321 0.552636 1.571 255 255 255
-0.48789 -0.363227 0.984 255 255 255
-0.485978 0.476999 1.583 255 255 255
0.869744 -0.578178 2.092 255 255 255
-0.327416 0.0694573 1.696 255 255 255
0.407593 0.062129 1.225 255 255 255
0.0839278 0.151061 0.552 255 255 255
-0.598845 0.0797343 1.162 255 255 255
-0.327451 0.443876 1.682 255 255 255
0.403714 -0.536508 2.684 255 255 255
-0.388033 0.223621 1.758 255 255 255
0.948817 -0.422652 2.064 0 0 0
-0.294384 0.0651815 1.729 255 255 255
0.304018 0.144433 0.836 255 255 255
0.0738828 0.406085 1.719 255 255 255
-0.487394 -0.335664 0.983 255 255 255
0.00430033 -0.0148043 1.882 255 255 255
-0.416053 0.40652 1.686 255 255 255
-0.344791 0.404363 1.7 255 255 255
0.344571 0.179672 0.707 255 255 255
0.322699 0.207523 0.685 255 255 255
0.333189 0.443093 1.7 255 255 255
-0.123009 -0.556289 1.555 255 255 255
-0.0484358 -0.599438 1.691 255 255 255
0.457932 -0.759639 2.459 255 255 255
0.568602 -0.539634 2.338 255 255 255
0.218393 0.347277 1.853 255 255 255
-0.430614 -0.227296 1.227 255 255 255
0.763281 -0.368956 2.294 255 255 255
-0.35643 -0.00478379 1.603 255 255 255
-0.592376 0.437074 1.435 255 255 255
-0.505309 0.452931 1.571 255 255 255
-0.141396 0.510479 1.591 255 255 255
-0.426212 -0.0827782 1.381 255 255 255
-0.40507 0.028692 1.579 255 255 255
-0.385612 0.117521 1.673 255 255 255
0.361297 -0.804572 2.402 0 0 0
-0.652849 0.371986 1.283 255 255 255
0.121691 0.370575 1.763 255 255 255
-0.415406 0.273392 1.729 255 255 255
-0.177704 0.131022 1.744 255 255 255
0.942097 -0.543569 2.064 255 255 255
-0.364162 0.401596 1.7 255 255 255
-0.36756 0.143964 1.729 255 255 255
-0.517496 -0.247974 1.017 255 255 255
-0.132449 -0.560979 1.547 255 255 255
-0.411398 -0.231747 1.333 255 255 255
-0.459615 -0.202789 1.145 255 255 255
0.914123 -0.389385 1.815 255 255 255
-0.452507 0.235066 1.62 255 255 255
-0.124368 -0.216938 1.882 255 255 255
0.342609 0.161369 0.756 255 255 255
0.0210252 -0.353945 2.017 255 255 255
0.333017 0.184755 0.727 255 255 255
-0.471764 -0.262116 1.075 255 255 255
0.728292 -0.863128 2.278 0 0 0
-0.628954 0.267557 1.244 255 255 255
0.611773 -0.602034 2.286 255 255 255
-0.533509 0.185041 1.351 255 255 255
-0.415047 -0.274205 1.205 255 255 255
-0.54058 0.00984463 1.171 255 255 255
-0.010703 0.202224 0.567 255 255 255
0.797209 -0.802124 2.212 0 0 0
0.479496 -0.432116 2.509 255 255 255
0.175346 0.221399 0.581 255 255 255
0.542577 -0.536354 2.374 255 255 255
0.426085 0.0156669 0.947 255 255 255
0.371192 -0.872923 2.294 255 255 255
-0.409104 -0.392956 1.124 255 255 255
0.34607 0.210614 2.017 255 255 255
-0.111204 -0.560582 1.567 255 255 255
0.576066 -0.0200694 2.114 255 255 255
0.718471 -0.413753 2.294 255 255 255
0.144543 -0.34319 2.374 255 255 255
0.547868 -0.847259 2.347 255 255 255
-0.050877 -0.292963 2.004 255 255 255
-0.164194 -0.0883075 1.882 255 255 255
-0.175972 -0.243383 1.784 255 255 255
-0.425752 0.290545 1.714 255 255 255
0.0106181 0.163981 0.572 255 255 255
-0.499345 -0.336653 0.972 255 255 255
-0.479154 -0.22525 1.1 255 255 255
-0.559627 0.0612668 1.208 255 255 255
-0.536202 -0.153318 1.085 255 255 255
-0.199141 -0.0693 1.865 255 255 255
-0.473908 -0.359192 0.995 255 255 255
-0.500105 0.272984 1.509 255 255 255
0.14495 0.195971 0.573 255 255 255
0.055878 0.188363 0.533 255 255 255
-0.26613 -0.384757 1.452 255 255 255
0.552164 0.155402 1.763 255 255 255
-0.102081 0.44561 1.668 255 255 255
-0.199951 -0.362797 1.583 255 255 255
-0.0738627 -0.0558084 1.923 0 0 0
-0.434793 0.345721 1.739 0 0 0
-0.146314 -0.0308696 1.929 0 0 0
0.053411 0.407726 1.691 255 255 255
-0.389783 0.368473 1.753 255 255 255
0.111487 0.178074 0.555 255 255 255
-0.282798 0.0950752 1.71 255 255 255
0.756851 -0.13121 2.189 255 255 255
0.0393929 0.160675 0.545 255 255 255
1.00261 -0.66223 2.078 255 255 255
0.864631 -0.340212 2.228 255 255 255
-0.387078 0.50149 1.579 255 255 255
-0.330189 0.441139 1.682 255 255 255
0.0256608 0.16543 0.555 255 255 255
-0.616046 0.493356 1.409 255 255 255
-0.309941 -0.231491 1.516 255 255 255
-0.464899 -0.145161 1.192 255 255 255
0.592657 -0.163144 1.322 255 255 255
0.31492 -0.325394 2.672 255 255 255
-0.00769599 -0.583291 1.821 255 255 255
-0.0755959 -0.604758 1.624 255 255 255
-0.455461 0.538583 1.524 255 255 255
-0.316899 0.174914 1.729 255 255 255
-0.558707 0.303045 1.409 255 255 255
-0.425239 -0.136317 1.4 255 255 255
0.0312933 0.181293 0.543 255 255 255
0.423623 -0.377013 2.469 255 255 255
-0.39979 0.0394638 1.599 255 255 255
-0.657137 0.497114 1.375 255 255 255
0.286138 0.138606 0.895 255 255 255
-0.51965 -0.239425 1.002 255 255 255
0.350545 -0.247206 2.582 255 255 255
-0.125509 0.435244 1.691 255 255 255
-0.497915 -0.327724 0.988 255 255 255
-0.586356 0.0319855 1.145 255 255 255
-0.172279 -0.0116668 1.87 255 255 255
-0.488969 -0.21388 1.106 255 255 255
-0.103309 -0.218094 1.947 255 255 255
-0.120677 -0.545866 1.591 255 255 255
-0.278157 0.230778 1.769 255 255 255
-0.600514 0.535658 1.449 255 255 255
-0.00240051 0.203505 0.568 255 255 255
0.426084 -0.46678 2.66 255 255 255
-0.453144 0.0224001 1.354 255 255 255
0.196508 -0.073053 1.966 255 255 255
-0.512748 0.153525 1.384 255 255 255
-0.230383 0.463281 1.673 255 255 255
-0.399373 0.491118 1.587 255 255 255
0.222602 0.225782 0.722 0 0 0
-0.106931 0.343315 1.659 255 255 255
0.810934 -0.43292 2.22 255 255 255
0.910608 -0.676904 2.092 255 255 255
-0.375614 0.104157 1.677 255 255 255
-0.487206 0.40331 1.587 255 255 255
0.27184 0.162423 0.817 255 255 255
-0.214684 -0.349685 1.559 255 255 255
-0.400636 -0.29156 1.319 255 255 255
-0.107589 -0.428651 1.758 255 255 255
-0.495522 0.00854242 1.26 255 255 255
0.307703 0.1518 0.803 255 255 255
-0.161077 -0.438034 1.633 255 255 255
0.527315 -0.0603955 1.244 255 255 255
-0.374227 0.506629 1.579 255 255 255
0.13805 -0.774811 2.099 255 255 255
-0.256773 -0.220125 1.633 255 255 255
-0.0708318 0.415428 1.7 255 255 255
-0.568209 0.195442 1.262 255 255 255
-0.50256 -0.0257302 1.232 255 255 255
-0.123353 -0.338236 1.779 255 255 255
-0.332394 -0.293235 1.432 255 255 255
0.80732 -0.43292 2.22 255 255 255
-0.602176 0.225888 1.26 255 255 255
-0.473587 0.150798 1.422 255 255 255
0.500236 0.0532601 2.158 255 255 255
0.0122184 0.175122 0.56 255 255 255
-0.562507 0.0365854 1.173 255 255 255
-0.549319 -0.0972636 1.09 255 255 255
0.290276 0.213121 0.715 255 255 255
0.140523 -0.73232 2.085 255 255 255
0.836917 -0.534419 2.121 255 255 255
-0.375175 0.495032 1.583 255 255 255
0.324518 0.112167 0.917 255 255 255
-0.516798 0.0267178 1.247 255 255 255
0.315968 0.1783 0.76 255 255 255
0.620958 -0.153167 1.225 255 255 255
0.554996 0.148738 1.859 255 255 255
-0.558667 0.21223 1.302 255 255 255
0.778726 -0.499973 2.151 255 255 255
-0.496778 -0.171013 1.132 255 255 255
-0.523953 -0.0942219 1.139 255 255 255
-0.180251 -0.249972 1.769 255 255 255
0.397459 0.0830563 0.821 255 255 255
-0.208088 0.283894 1.691 255 255 255
0.567038 -0.0585582 1.449 255 255 255
0.533701 0.21676 2.044 255 255 255
0.892762 -0.620249 2.051 255 255 255
-0.260387 0.563706 1.473 255 255 255
0.0579062 -0.491734 2.044 255 255 255
-0.154521 0.258793 1.62 255 255 255
0.870688 -0.746769 2.078 255 255 255
-0.598583 0.502536 1.422 255 255 255
-0.19575 -0.216645 1.779 255 255 255
-0.014036 -0.491005 1.876 255 255 255
-0.488994 -0.358059 0.983 255 255 255
0.279669 0.246226 0.678 255 255 255
-0.410284 -0.315339 1.22 255 255 255
-0.273188 0.482876 1.62 255 255 255
-0.575468 0.0579265 1.18 255 255 255
-0.39549 0.365621 1.753 255 255 255
-0.483683 0.00869836 1.283 255 255 255
0.828156 -0.585298 2.143 255 255 255
0.240243 0.256557 0.682 255 255 255
-0.475308 0.282131 1.532 255 255 255
-0.557682 -0.0688418 1.062 255 255 255
0.54437 -0.330343 2.365 255 255 255
0.365926 0.109118 0.847 255 255 255
0.493211 -0.0169754 2.158 255 255 255
-0.233137 0.3024 1.734 255 255 255
-0.178043 -0.211 1.805 255 255 255
-0.616695 0.261128 1.252 255 255 255
-0.293806 -0.171735 1.603 255 255 255
-0.494806 -0.292947 1.018 255 255 255
-0.331921 -0.394043 1.354 255 255 255
0.877869 -0.579114 2.071 255 255 255
0.766936 -0.619294 2.128 255 255 255
-0.549941 0.256906 1.359 255 255 255
0.26672 -0.816271 2.173 255 255 255
-0.321743 0.248617 1.837 255 255 255
-0.24725 0.282648 1.734 255 255 255
-0.00393144 0.263859 1.513 255 255 255
-0.351547 0.243488 1.821 255 255 255
0.297071 0.407246 1.748 255 255 255
-0.46621 -0.274681 1.043 255 255 255
-0.320308 -0.260414 1.484 255 255 255
-0.168673 -0.313986 1.71 255 255 255
0.224522 0.282621 1.905 255 255 255
0.278661 0.444396 1.705 255 255 255
-0.334094 -0.395801 1.345 255 255 255
0.300018 0.149246 0.825 255 255 255
-0.378253 -0.0849557 1.543 255 255 255
-0.503376 -0.0378207 1.234 255 255 255
-0.151768 -0.387069 1.677 255 255 255
-0.649801 0.38597 1.302 255 255 255
-0.397887 0.000419368 1.551 255 255 255
-0.26425 0.518079 1.567 255 255 255
0.571958 -0.658 2.261 255 255 255
-0.420214 -0.261735 1.22 255 255 255
0.0144785 0.359375 1.646 255 255 255
-0.380829 0.431002 1.664 255 255 255
-0.39734 0.283394 1.774 255 255 255
0.321282 0.140506 0.821 255 255 255
-0.444505 -0.0108161 1.375 255 255 255
0.0195458 0.166305 0.561 255 255 255
0.85418 -0.596547 2.121 255 255 255
0.449119 -0.573173 2.593 255 255 255
0.931319 -0.694997 2.085 0 0 0
-0.0729523 -0.620615 1.624 255 255 255
-0.575664 0.170797 1.247 255 255 255
0.847919 -0.752826 2.114 255 255 255
0.0794525 0.18524 0.534 255 255 255
-0.451731 0.297768 1.646 255 255 255
0.405809 0.0963128 0.798 255 255 255
-0.0895988 -0.482562 1.799 255 255 255
0.277712 -0.279485 2.649 255 255 255
-0.407819 0.165076 1.686 255 255 255
0.117204 0.113667 1.739 0 0 0
-0.43901 0.0773134 1.477 255 255 255
-0.477651 -0.0347085 1.267 255 255 255
-0.137154 -0.515099 1.633 255 255 255
0.241959 -0.802126 2.173 255 255 255
0.456083 -0.432737 2.561 255 255 255
-0.657862 0.405595 1.297 255 255 255
-0.158541 0.341682 1.691 255 255 255
0.22421 -0.0245914 1.929 255 255 255
-0.440596 -0.0735585 1.336 255 255 255
0.218183 0.175812 1.826 0 0 0
0.348021 0.182353 0.691 255 255 255
0.507894 -0.939875 2.449 255 255 255
0.380261 0.311646 1.893 255 255 255
-0.510793 -0.214037 1.037 255 255 255
-0.541125 -0.146664 1.05 255 255 255
0.300881 0.358842 1.805 255 255 255
0.353465 0.167962 0.711 0 0 0
-0.509545 0.203591 1.419 255 255 255
-0.222852 -0.496899 1.528 255 255 255
-0.191735 0.195713 1.579 255 255 255
0.654546 -0.249517 2.402 255 255 255
-0.045197 0.218254 1.673 0 0 0
-0.258715 -0.361123 1.491 255 255 255
-0.0213177 -0.57747 1.724 255 255 255
-0.121204 -0.346565 1.748 255 255 255
0.315109 -0.172101 2.469 255 255 255
-0.450907 0.182146 1.551 255 255 255
-0.41081 -0.382371 1.104 255 255 255
-0.515153 -0.160753 1.112 255 255 255
0.197752 -0.399495 2.459 255 255 255
0.177518 -0.571345 2.253 255 255 255
-0.452977 0.227382 1.603 255 255 255
-0.287474 -0.429861 1.342 255 255 255
-0.0678581 -0.14767 2.024 255 255 255
-0.547158 0.193857 1.336 255 255 255
0.782646 -0.435689 2.253 255 255 255
-0.266639 0.282595 1.769 255 255 255
0.77357 -0.792749 2.196 0 0 0
-0.267036 0.574519 1.47 255 255 255
0.277631 0.0866673 1.826 0 0 0
0.345669 0.265851 1.941 255 255 255
0.668786 -0.137174 2.228 0 0 0
0.478126 -0.10497 2.092 255 255 255
-0.00857927 -0.313281 2.03 255 255 255
-0.492324 -0.247875 1.059 255 255 255
0.45334 -0.691324 2.593 255 255 255
0.549618 -0.0620311 1.322 255 255 255
0.320076 0.149556 0.798 255 255 255
-0.423999 -0.260858 1.305 255 255 255
0.42606 0.117927 2.121 255 255 255
-0.511548 -0.14471 1.128 255 255 255
0.891701 -0.637615 2.064 255 255 255
-0.522453 0.00427588 1.213 255 255 255
-0.341046 -0.273593 1.439 255 255 255
-0.558844 0.276796 1.381 255 255 255
0.0431853 0.181911 0.537 255 255 255
-0.242665 -0.451564 1.439 255 255 255
0.623411 -0.17924 1.254 255 255 255
-0.571317 0.000305536 1.13 255 255 255
-0.489369 -0.00170975 1.26 255 255 255
-0.246401 -0.116155 1.748 255 255 255
-0.412509 -0.373397 1.154 255 255 255
-0.38445 -0.244777 1.345 255 255 255
0.397602 0.0757688 0.844 255 255 255
0.392827 0.125242 2.128 255 255 255
-0.380765 -0.0372473 1.543 255 255 255
-0.614761 0.136425 1.178 255 255 255
-0.454606 0.134633 1.473 255 255 255
0.691521 -0.412486 2.329 255 255 255
-0.421592 -0.359016 1.104 255 255 255
0.331886 0.224099 1.991 255 255 255
0.287989 0.231495 0.69 255 255 255
-0.397659 -0.420644 1.16 255 255 255
0.730674 -0.792749 2.196 255 255 255
-0.194737 0.394962 1.744 255 255 255
0.0561743 0.145935 0.553 255 255 255
0.093184 0.205013 0.538 255 255 255
-0.584657 0.426583 1.439 255 255 255
-0.424826 -0.273874 1.162 255 255 255
-0.273418 -0.492806 1.359 255 255 255
1.01615 -0.561585 2.044 0 0 0
-0.0244585 -0.0606234 1.978 255 255 255
-0.323821 -0.394916 1.357 255 255 255
0.349965 0.123433 0.832 255 255 255
0.076681 0.16551 1.719 255 255 255
0.222088 0.189877 0.815 0 0 0
-0.234482 0.386448 1.744 255 255 255
0.381058 0.08599 0.85 255 255 255
0.814202 -0.574836 2.143 255 255 255
-0.547777 0.536766 1.505 255 255 255
-0.598674 0.542984 1.456 255 255 255
-0.468355 -0.0761598 1.237 255 255 255
-0.231369 0.534976 1.535 255 255 255
0.29618 0.429003 1.71 255 255 255
-0.299688 0.506629 1.579 255 255 255
-0.494142 -0.361136 0.941 255 255 255
0.144191 0.200511 0.57 255 255 255
0.835882 -0.569482 2.136 255 255 255
-0.426026 -0.353183 1.07 255 255 255
-0.559407 0.155346 1.27 255 255 255
0.888692 -0.341382 2.189 255 255 255
0.430557 -0.232643 2.312 255 255 255
0.369343 -0.623201 2.626 255 255 255
0.261891 -0.00575666 1.929 0 0 0
-0.101239 0.239749 1.532 255 255 255
0.300836 0.231269 0.686 255 255 255
-0.376827 -0.427397 1.234 255 255 255
0.023031 -0.0181422 1.911 255 255 255
-0.496757 -0.154883 1.149 255 255 255
-0.413894 -0.30719 1.196 255 255 255
-0.207916 0.0962865 1.784 255 255 255
-0.423738 0.411553 1.673 255 255 255
-0.615707 0.495821 1.403 255 255 255
0.190411 0.00981527 1.905 255 255 255
0.835243 -0.412626 2.189 255 255 255
0.704455 -0.492427 2.261 255 255 255
-0.266222 0.539643 1.52 255 255 255
-0.412319 -0.378948 1.089 255 255 255
-0.426018 0.402818 1.682 255 255 255
0.307981 0.143742 0.832 255 255 255
-0.445818 -0.364931 1.039 255 255 255
-0.430501 -0.256856 1.162 255 255 255
0.0868919 0.184533 0.537 255 255 255
-0.249248 0.00638033 1.81 255 255 255
0.126698 -0.284696 2.402 255 255 255
-0.601731 0.14605 1.194 255 255 255
0.481653 -0.499528 2.499 255 255 255
0.627594 -0.184795 2.374 0 0 0
0.549151 -0.507365 2.42 255 255 255
0.590567 -0.284159 2.365 255 255 255
-0.602972 0.447417 1.416 255 255 255
-0.48275 0.280658 1.524 255 255 255
-0.379414 0.556209 1.498 255 255 255
-0.296228 0.552927 1.509 255 255 255
0.906848 -0.513748 2.107 255 255 255
-0.125152 0.319972 1.65 255 255 255
0.448975 -0.0609162 2.099 255 255 255
-0.448248 0.259092 1.673 255 255 255
-0.146944 0.52474 1.595 255 255 255
1.03969 -0.68696 2.071 255 255 255
-0.380161 -0.458232 1.194 255 255 255
0.0173989 -0.450105 1.978 255 255 255
-0.584988 0.00211405 1.114 255 255 255
0.28701 0.190346 0.749 255 255 255
-0.468706 -0.110577 1.217 255 255 255
0.0187655 0.150022 0.565 255 255 255
-0.337753 -0.333677 1.387 255 255 255
-0.118054 -0.0653999 1.929 255 255 255
-0.394886 -0.136145 1.422 255 255 255
-0.172863 0.202391 1.571 255 255 255
-0.560792 0.181069 1.322 255 255 255
-0.599847 0.162136 1.198 255 255 255
-0.497348 -0.0500715 1.239 255 255 255
0.125644 0.158148 1.7 0 0 0
0.360684 -0.0293837 2.044 0 0 0
-0.470149 -0.185421 1.13 255 255 255
0.120424 0.28952 1.831 255 255 255
-0.165277 -0.285619 1.794 255 255 255
0.586258 -0.16592 1.327 255 255 255
0.15696 0.198872 0.576 255 255 255
-0.206365 -0.294282 1.677 255 255 255
0.43224 0.0464701 0.861 255 255 255
-0.39154 -0.330303 1.262 255 255 255
-0.110476 -0.376084 1.714 255 255 255
0.93855 -0.521821 2.071 255 255 255
0.98974 -0.436455 2.004 0 0 0
-0.504945 0.327232 1.466 255 255 255
-0.290262 -0.162553 1.642 255 255 255
0.230621 0.202291 0.781 255 255 255
0.650781 -0.273651 2.374 255 255 255
0.300363 0.24114 0.67 255 255 255
0.0291606 -0.548196 1.905 255 255 255
-0.421883 -0.374276 1.051 255 255 255
-0.50393 0.253968 1.47 255 255 255
-0.220264 -0.220857 1.7 255 255 255
0.0543701 0.229541 1.637 255 255 255
0.300021 0.192526 0.748 255 255 255
0.0682436 -0.232929 2.278 255 255 255
0.35705 0.341289 1.837 255 255 255
0.230048 0.18192 0.815 255 255 255
-0.473629 0.308346 1.551 255 255 255
0.470065 0.00413891 2.181 255 255 255
-0.339951 -0.047131 1.624 255 255 255
0.204731 -0.0119975 1.923 255 255 255
-0.444887 -0.20254 1.165 255 255 255
0.662374 -0.273651 2.374 255 255 255
0.440092 0.0294368 0.897 255 255 255
0.479496 -0.530107 2.509 255 255 255
-0.382441 0.266895 1.799 255 255 255
-0.288363 -0.44968 1.336 255 255 255
-0.322389 -0.395368 1.351 255 255 255
0.231924 -0.0373789 1.941 255 255 255
-0.0663921 -0.50767 1.805 255 255 255
-0.51957 -0.240142 1.005 255 255 255
-0.191352 -0.480374 1.555 255 255 255
0.257527 0.346133 1.831 255 255 255
-0.406222 0.23197 1.714 255 255 255
-0.398018 0.162814 1.691 255 255 255
0.676527 -0.298414 2.356 255 255 255
0.663747 -0.189603 2.338 255 255 255
0.19098 0.231542 0.718 255 255 255
-0.665758 0.404276 1.26 255 255 255
-0.484851 0.491279 1.571 255 255 255
0.386261 0.0946551 0.806 255 255 255
-0.44361 -0.27871 1.128 255 255 255
0.797784 -0.408387 2.244 255 255 255
0.662374 -0.281377 2.374 255 255 255
-0.422935 -0.271983 1.162 255 255 255
-0.00955966 0.364509 1.633 255 255 255
0.500097 -0.813572 2.338 255 255 255
0.672692 -0.401932 2.356 255 255 255
0.0263728 0.166927 0.551 255 255 255
0.0428132 -0.626493 1.826 255 255 255
-0.641146 0.299704 1.26 255 255 255
0.628573 -0.697604 2.189 255 255 255
-0.170812 -0.407688 1.65 255 255 255
0.795018 -0.163792 2.196 255 255 255
-0.36693 0.119417 1.7 255 255 255
-0.498435 0.0105676 1.257 255 255 255
-0.0456861 0.343049 1.595 255 255 255
0.25082 -0.706196 2.286 255 255 255
0.650248 0.0598646 2.143 255 255 255
-0.255515 -0.226682 1.642 255 255 255
-0.327555 -0.226605 1.484 255 255 255
1.05317 -0.622927 2.071 255 255 255
0.721851 -0.385955 2.329 255 255 255
0.401152 0.231274 1.997 255 255 255
0.548883 0.210827 2.051 255 255 255
0.0398931 0.243804 1.591 255 255 255
0.297739 0.428464 1.719 255 255 255
-0.26314 0.415981 1.691 255 255 255
0.391677 0.0344936 2.085 255 255 255
-0.0455257 -0.196941 2.057 255 255 255
0.254881 -0.443327 2.55 255 255 255
-0.56356 0.0946857 1.208 255 255 255
-0.171666 -0.169344 1.831 255 255 255
-0.564032 0.447462 1.477 255 255 255
-0.0297367 0.115492 1.724 255 255 255
-0.320383 -0.384162 1.39 255 255 255
-0.16435 -0.513367 1.563 255 255 255
0.559769 -0.330343 2.365 255 255 255
0.470913 -0.190042 2.253 255 255 255
-0.613763 0.487363 1.425 255 255 255
0.968615 -0.439344 1.917 0 0 0
-0.0273834 0.0461173 1.753 255 255 255
0.242526 -0.677775 2.278 255 255 255
-0.174951 -0.0489313 1.899 0 0 0
0.13778 -0.548159 2.204 255 255 255
0.192252 -0.388467 2.44 255 255 255
0.382901 -0.793477 2.44 0 0 0
0.817242 -0.580482 2.151 255 255 255
0.12038 0.386448 1.744 255 255 255
-0.0935455 0.0435114 1.763 255 255 255
-0.551822 -0.108775 1.081 255 255 255
0.0921367 0.199389 0.537 255 255 255
0.466309 -0.948333 2.44 255 255 255
0.4523 -0.0200856 1.043 0 0 0
-0.422472 0.413037 1.668 255 255 255
-0.256304 0.140334 1.719 255 255 255
0.275472 0.166685 0.793 255 255 255
0.611312 -0.162542 1.267 0 0 0
0.418266 -0.647514 2.638 255 255 255
0.0664037 0.157735 0.541 255 255 255
-0.158182 -0.578955 1.528 255 255 255
0.0382232 0.207917 0.541 255 255 255
0.649248 -0.573374 2.261 255 255 255
-0.335501 -0.197472 1.52 255 255 255
0.108365 -0.0404123 1.935 255 255 255
0.543032 -0.0333181 1.48 255 255 255
-0.291676 -0.147234 1.65 255 255 255
-0.00518908 -0.343936 1.997 255 255 255
0.533679 -0.0728428 1.07 255 255 255
-0.214323 0.0878224 1.789 255 255 255
-0.533442 0.522328 1.52 255 255 255
0.298742 0.202149 0.73 255 255 255
-0.390106 0.045981 1.646 255 255 255
0.576719 -0.108864 1.22 255 255 255
-0.45094 -0.0018373 1.354 255 255 255
0.00985671 -0.648003 1.779 255 255 255
-0.682136 0.465409 1.299 255 255 255
0.291692 0.0419795 1.821 255 255 255
0.00683954 0.0687423 1.748 255 255 255
0.32013 0.11465 0.913 255 255 255
-0.137162 -0.261136 1.848 255 255 255
-0.565144 0.0825477 1.203 255 255 255
-0.14804 -0.521192 1.579 255 255 255
-0.301458 -0.346106 1.429 255 255 255
0.575409 -0.104463 1.342 255 255 255
0.455864 0.0289833 2.181 255 255 255
0.413233 -0.834398 2.479 255 255 255
-0.550534 -0.0468327 1.114 255 255 255
-0.485709 -0.171113 1.145 255 255 255
0.740707 -0.586419 2.173 255 255 255
-0.428318 -0.349999 1.05 255 255 255
0.507798 -0.594303 2.374 255 255 255
0.50479 -0.0564991 1.126 255 255 255
-0.510424 0.46827 1.571 255 255 255
0.570782 -0.0476719 1.477 255 255 255
0.184125 0.383699 1.784 255 255 255
-0.111443 -0.460971 1.729 255 255 255
-0.288991 0.140071 1.65 255 255 255
0.278755 0.164518 0.795 255 255 255
-0.571626 0.0521657 1.18 255 255 255
-0.439776 0.157831 1.612 255 255 255
0.348339 -0.367666 2.695 255 255 255
-0.319543 -0.454153 1.33 255 255 255
-0.45889 0.0222512 1.345 255 255 255
-0.414746 0.510428 1.567 255 255 255
-0.0305076 -0.336358 1.953 255 255 255
0.326778 0.206691 0.675 0 0 0
0.0793037 0.195302 0.533 255 255 255
0.523732 -0.469918 2.43 255 255 255
-0.139618 0.235626 1.571 255 255 255
0.740707 -0.572275 2.173 255 255 255
0.531773 0.22452 2.024 255 255 255
-0.183293 0.555887 1.595 255 255 255
-0.626269 0.497891 1.396 255 255 255
0.0475029 0.0323262 1.779 0 0 0
0.0807403 0.035835 1.81 255 255 255
0.320392 0.262692 1.941 255 255 255
-0.697419 0.510994 1.324 255 255 255
-0.203342 -0.0897194 1.848 255 255 255
-0.164135 -0.373237 1.664 255 255 255
-0.64429 0.407257 1.33 255 255 255
-0.490442 -0.168954 1.143 255 255 255
-0.452208 0.13703 1.473 255 255 255
-0.24327 0.459182 1.668 255 255 255
0.161194 -0.62407 2.181 255 255 255
0.177283 -0.465325 2.347 255 255 255
-0.0975676 -0.222626 1.959 255 255 255
0.357387 -0.781119 2.402 255 255 255
0.00133406 -0.124983 2.03 0 0 0
0.57924 -0.0632593 2.064 255 255 255
-0.416763 -0.351461 1.12 255 255 255
0.0802648 -0.751233 1.941 255 255 255
-0.576062 0.364556 1.39 255 255 255
0.144355 0.2216 0.567 255 255 255
0.516234 0.264207 1.929 255 255 255
-0.238094 -0.18242 1.729 255 255 255
0.149386 -0.408696 2.329 255 255 255
-0.4151 -0.369408 1.087 255 255 255
-0.355854 -0.391908 1.289 255 255 255
-0.349978 0.0139473 1.659 255 255 255
-0.654938 0.371986 1.283 255 255 255
-0.314753 -0.437518 1.319 255 255 255
-0.19461 -0.527551 1.502 255 255 255
0.201615 -0.806966 2.085 255 255 255
0.368954 0.111384 0.823 255 255 255
-0.381833 0.274418 1.81 255 255 255
-0.0863838 -0.0558084 1.923 255 255 255
-0.461836 0.273974 1.571 255 255 255
0.654407 -0.612718 2.204 255 255 255
-0.116796 -0.271766 1.859 255 255 255
-0.526648 0.507741 1.551 255 255 255
0.289112 0.231495 0.69 255 255 255
-0.558156 0.075897 1.222 255 255 255
-0.677147 0.493933 1.348 255 255 255
-0.492814 0.559385 1.487 255 255 255
-0.509619 -0.311294 0.992 255 255 255
-0.226484 0.324754 1.748 255 255 255
-0.183092 -0.472534 1.571 255 255 255
0.262404 0.180685 0.781 255 255 255
0.611312 -0.176974 1.267 255 255 255
-0.528878 0.0508644 1.242 255 255 255
-0.440951 -0.225301 1.185 255 255 255
-0.0379417 -0.123752 2.01 0 0 0
-0.607108 0.0956705 1.149 255 255 255
-0.411714 -0.345608 1.201 0 0 0
0.941256 -0.438598 2.092 255 255 255
-0.344596 -0.389216 1.294 255 255 255
0.0948315 0.150887 0.558 255 255 255
0.907203 -0.516899 2.092 255 255 255
0.493939 -0.451154 2.479 255 255 255
-0.525212 -0.101581 1.118 255 255 255
0.0901973 0.178557 1.71 0 0 0
0.310401 0.113195 1.978 255 255 255
-0.429585 0.412047 1.664 255 255 255
0.414111 0.384435 1.774 255 255 255
0.409191 0.0155083 1.167 255 255 255
0.292045 0.223635 0.697 255 255 255
0.558504 0.0781311 2.166 255 255 255
-0.515558 -0.265825 0.991 255 255 255
0.310543 0.171429 0.768 255 255 255
0.239301 0.087577 1.784 255 255 255
0.0567456 0.203108 0.533 255 255 255
-0.404312 -0.339222 1.257 255 255 255
0.79826 -0.136881 2.166 255 255 255
0.716977 -0.516011 2.22 255 255 255
0.349488 0.114189 0.854 255 255 255
-0.45694 0.511669 1.563 255 255 255
-0.397627 0.434057 1.655 255 255 255
0.41853 -0.586949 2.695 255 255 255
-0.00618478 0.217619 0.576 255 255 255
0.272488 -0.754448 2.22 255 255 255
0.747214 -0.618986 2.151 255 255 255
-0.0842926 -0.072347 1.947 255 255 255
0.229122 0.250184 0.692 255 255 255
-0.0116464 0.203505 0.568 255 255 255
0.534394 0.161108 2.099 255 255 255
-0.085466 -0.501838 1.774 255 255 255
-0.478854 -0.158253 1.16 255 255 255
0.265741 0.104496 1.826 0 0 0
-0.109896 0.408327 1.705 255 255 255
0.26595 0.232709 0.697 255 255 255
0.844478 -0.563617 2.114 255 255 255
0.979083 -0.62541 2.057 255 255 255
0.42052 0.0659541 1.222 255 255 255
0.0508674 -0.0366856 1.905 255 255 255
0.365789 0.0911494 0.901 255 255 255
-0.583423 0.0516795 1.169 255 255 255
-0.522725 -0.233017 1.024 255 255 255
-0.389783 0.220132 1.753 255 255 255
0.297554 0.202149 0.73 255 255 255
1.0262 -0.629667 2.071 255 255 255
0.376919 0.122237 2.136 255 255 255
0.418081 -0.0449234 2.151 255 255 255
-0.481819 -0.188 1.102 255 255 255
-0.455987 -0.166079 1.189 255 255 255
0.119756 -0.66223 2.078 255 255 255
-0.447026 -0.242856 1.132 255 255 255
-0.374939 0.0380374 1.65 255 255 255
0.738788 -0.098865 2.107 255 255 255
0.84866 -0.248704 2.253 255 255 255
0.538904 -0.528743 2.392 255 255 255
0.406931 0.0158819 0.96 255 255 255
0.0893476 0.199018 0.536 255 255 255
-0.624655 0.323732 1.316 255 255 255
1.00261 -0.655466 2.078 255 255 255
-0.655988 0.356266 1.257 255 255 255
-0.29686 0.455373 1.664 255 255 255
-0.0320145 -0.573611 1.696 255 255 255
0.98578 -0.72918 2.057 0 0 0
0.0546506 0.163865 0.538 255 255 255
0.411329 0.282162 1.923 255 255 255
-0.555824 0.282075 1.396 255 255 255
0.0714951 0.187495 0.533 255 255 255
0.0584596 0.243034 1.603 255 255 255
-0.292681 0.185092 1.719 255 255 255
-0.329334 -0.294668 1.439 255 255 255
-0.391465 -0.114427 1.47 255 255 255
-0.060958 -0.541314 1.734 255 255 255
0.38539 0.0384145 0.938 255 255 255
0.365074 0.132512 0.767 255 255 255
0.173156 0.220074 0.58 255 255 255
0.980356 -0.506612 1.985 0 0 0
0.520994 0.11139 2.128 255 255 255
0.753287 -0.533742 2.189 255 255 255
-0.43909 -0.216669 1.18 255 255 255
0.314703 0.169149 0.769 255 255 255
-0.536509 0.216566 1.342 255 255 255
0.543773 -0.405841 2.449 255 255 255
-0.0411997 0.11334 1.734 255 255 255
0.948664 -0.757735 2.071 255 255 255
-0.455262 -0.278368 1.057 255 255 255
-0.48473 -0.163351 1.156 255 255 255
-0.510781 -0.298784 0.988 255 255 255
0.870688 -0.750151 2.078 255 255 255
0.710117 -0.49968 2.244 255 255 255
0.212186 -0.715819 2.158 255 255 255
-0.120997 -0.401855 1.705 255 255 255
-0.513438 0.252758 1.463 255 255 255
-0.22237 -0.508888 1.429 255 255 255
-0.427385 -0.254598 1.169 255 255 255
-0.289307 0.494692 1.607 255 255 255
-0.308072 -0.49756 1.291 255 255 255
-0.272867 -0.456546 1.39 255 255 255
-0.230979 -0.191965 1.739 255 255 255
0.300109 -0.440487 2.582 255 255 255
-0.148307 -0.244634 1.837 255 255 255
0.407726 0.253278 1.966 255 255 255
0.0267984 -0.531856 1.959 255 255 255
-0.31869 0.466632 1.637 255 255 255
0.311716 0.202501 0.727 255 255 255
-0.00760301 0.00341399 1.799 255 255 255
-0.542436 -0.0458686 1.135 255 255 255
-0.359775 -0.336008 1.351 255 255 255
-0.0835092 0.0034045 1.794 255 255 255
0.24605 0.233086 0.705 0 0 0
0.0981068 0.185907 0.541 255 255 255
0.372075 0.082609 0.888 0 0 0
-0.341555 0.253764 1.831 255 255 255
-0.569846 0.302445 1.375 255 255 255
-0.0129735 -0.634433 1.734 255 255 255
-0.270404 -0.3369 1.502 255 255 255
-0.276428 -0.00524635 1.758 255 255 255
0.492179 -0.287403 2.392 255 255 255
-0.169872 -0.507031 1.567 255 255 255
0.121542 0.0395946 1.848 255 255 255
-0.286443 -0.406782 1.39 255 255 255
-0.516561 -0.251593 1.025 255 255 255
0.574123 -0.123841 1.339 255 255 255
-0.425304 -0.353753 1.051 255 255 255
0.353985 0.10012 0.916 255 255 255
-0.459184 -0.106097 1.234 255 255 255
0.319268 -0.83929 2.244 255 255 255
0.472893 0.147445 2.099 255 255 255
-0.354304 -0.384112 1.291 255 255 255
0.265195 0.231907 0.698 255 255 255
0.270064 0.407979 1.739 255 255 255
-0.528985 -0.212188 1.02 255 255 255
-0.192448 -0.0811779 1.859 255 255 255
-0.519533 0.0184814 1.239 255 255 255
0.798111 -0.62622 2.128 255 255 255
-0.515084 -0.0369319 1.205 255 255 255
0.120738 0.211872 0.556 255 255 255
0.527149 0.275903 1.923 255 255 255
-0.166481 -0.578196 1.513 255 255 255
-0.272654 -0.0362144 1.734 255 255 255
-0.18392 -0.208062 1.805 255 255 255
-0.642837 0.380425 1.327 255 255 255
0.107601 0.181509 0.549 255 255 255
0.910278 -0.465745 2.107 255 255 255
-0.475229 -0.15704 1.165 255 255 255
-0.211927 -0.178004 1.769 255 255 255
-0.275429 -0.144615 1.682 255 255 255
0.178148 -0.521862 2.261 255 255 255
0.30252 0.220732 0.695 255 255 255
-0.0745245 0.378412 1.659 255 255 255
0.519854 -0.947846 2.449 255 255 255
0.627594 -0.412729 2.374 255 255 255
0.392827 0.107927 2.128 255 255 255
0.240775 0.234713 0.703 0 0 0
0.342881 0.385518 1.779 255 255 255
-0.253458 -0.232592 1.646 255 255 255
0.0363945 0.190836 0.54 255 255 255
-0.402453 -0.220183 1.369 255 255 255
0.875449 -0.522335 2.114 255 255 255
-0.544461 0.0462566 1.227 255 255 255
0.148556 -0.0975844 2.01 0 0 0
-0.0428866 -0.531168 1.805 255 255 255
0.246421 0.204087 0.737 255 255 255
0.765468 -0.586419 2.173 255 255 255
0.255064 0.185055 0.778 255 255 255
-0.0844191 -0.615771 1.591 255 255 255
1.02689 -0.81548 2.107 255 255 255
-0.167292 -0.322456 1.696 255 255 255
-0.358215 -0.410474 1.275 255 255 255
0.254282 0.205085 0.732 255 255 255
-0.4505 -0.288326 1.062 255 255 255
-0.0791548 0.235835 1.539 255 255 255
0.0904924 -0.333019 2.278 255 255 255
-0.622431 0.20352 1.178 255 255 255
0.362442 -0.591706 2.638 255 255 255
-0.309013 -0.404092 1.322 255 255 255
-0.38536 -0.309839 1.333 255 255 255
-0.478842 -0.299752 1.03 255 255 255
-0.429198 -0.160617 1.252 255 255 255
-0.416596 -0.202795 1.357 255 255 255
0.563619 -0.907638 2.365 255 255 255
-0.179615 -0.503193 1.563 255 255 255
0.435211 -0.0119216 1.072 0 0 0
-0.0794659 0.0350232 1.769 0 0 0
-0.213724 0.0933833 1.784 255 255 255
-0.310883 -0.451989 1.33 255 255 255
0.504004 -0.429245 2.469 255 255 255
-0.478678 0.123669 1.403 255 255 255
0.214541 0.263189 1.899 255 255 255
0.322632 0.168116 0.77 255 255 255
-0.671123 0.433546 1.286 255 255 255
-0.34032 -0.210124 1.487 255 255 255
0.295159 0.222002 0.699 255 255 255
-0.237036 -0.125758 1.763 255 255 255
-0.29173 -0.299674 1.524 255 255 255
-0.517381 -0.0115347 1.215 255 255 255
0.0649786 -0.661119 1.865 255 255 255
-0.45307 0.155833 1.516 255 255 255
0.870085 -0.249559 2.196 255 255 255
-0.410559 -0.311752 1.128 255 255 255
0.638128 -0.713722 2.173 255 255 255
0.256248 0.191652 0.759 255 255 255
-0.552868 -0.0671092 1.09 255 255 255
-0.560412 0.359822 1.425 255 255 255
-0.440304 -0.190568 1.173 255 255 255
0.715032 -0.563734 2.181 255 255 255
0.809296 -0.741513 2.121 255 255 255
-0.109574 0.127717 1.7 255 255 255
-0.337764 -0.272382 1.445 255 255 255
-0.205873 -0.301747 1.673 255 255 255
0.340415 0.189123 0.687 255 255 255
0.188048 -0.0767177 1.978 255 255 255
0.0622865 -0.570685 1.972 255 255 255
0.227603 0.416469 1.739 255 255 255
0.347029 0.105459 0.898 255 255 255
0.706831 -0.694343 2.114 255 255 255
-0.397101 -0.234443 1.336 255 255 255
-0.523547 0.0954767 1.299 255 255 255
-0.417871 -0.292645 1.169 255 255 255
-0.45509 -0.219037 1.162 255 255 255
0.596227 -0.116816 1.18 255 255 255
-0.638401 0.33232 1.275 255 255 255
0.0320955 0.0905043 1.729 255 255 255
0.654678 -0.705702 2.181 255 255 255
0.0385764 0.159193 0.546 255 255 255
0.484772 -0.2179 2.356 255 255 255
-0.577818 0.359166 1.378 255 255 255
0.324888 0.440327 1.7 255 255 255
-0.255559 -0.150156 1.714 255 255 255
-0.488644 0.154334 1.412 255 255 255
-0.432122 -0.0948717 1.33 255 255 255
0.396433 0.0364268 1.11 255 255 255
0.202292 -0.802866 2.092 255 255 255
0.126346 0.230883 1.748 255 255 255
-0.404718 -0.0711735 1.466 255 255 255
0.436487 0.0330997 0.878 255 255 255
-0.278157 0.0465382 1.769 255 255 255
0.0210294 0.17262 0.552 255 255 255
0.291971 0.14165 0.869 255 255 255
-0.00149769 0.254025 1.543 255 255 255
0.00109025 0.40271 1.659 255 255 255
-0.567371 0.376054 1.425 255 255 255
-0.01545 0.224014 1.696 0 0 0
0.64915 -0.219064 2.411 255 255 255
-0.323698 0.132544 1.691 255 255 255
0.376197 0.11646 0.785 255 255 255
0.640477 -0.67021 2.181 255 255 255
0.384898 0.234524 1.997 255 255 255
-0.376592 -0.381095 1.267 255 255 255
-0.400833 -0.0721931 1.487 255 255 255
0.33512 0.179332 0.729 255 255 255
-0.308509 -0.262345 1.509 255 255 255
-0.591035 0.082117 1.169 255 255 255
-0.460768 0.260138 1.612 255 255 255
0.369299 -0.126715 2.173 255 255 255
0.73288 -0.286244 1.432 255 255 255
-0.281184 -0.405463 1.409 255 255 255
-0.478679 0.517837 1.551 255 255 255
0.058313 0.139908 0.565 255 255 255
-0.587164 0.1171 1.196 255 255 255
-0.24831 0.521843 1.563 255 255 255
-0.0204549 -0.442794 1.905 255 255 255
-0.449688 -0.177084 1.198 255 255 255
-0.173303 0.215721 1.575 255 255 255
-0.401851 0.54556 1.509 255 255 255
-0.516197 -0.300471 0.983 255 255 255
-0.461617 0.262521 1.579 255 255 255
-0.466024 0.34477 1.603 255 255 255
0.63867 0.0215839 2.151 255 255 255
-0.58766 0.129747 1.205 255 255 255
0.257241 0.216051 0.717 255 255 255
0.0388039 0.304782 1.655 255 255 255
-0.227131 0.331388 1.753 255 255 255
-0.174796 -0.423123 1.637 255 255 255
-0.327525 -0.25369 1.473 255 255 255
-0.316373 0.00597847 1.696 255 255 255
-0.319237 0.441139 1.682 255 255 255
0.197418 -0.697604 2.189 255 255 255
0.387827 -0.0766756 2.158 255 255 255
-0.431543 -0.159976 1.247 255 255 255
0.53335 0.221882 2.03 255 255 255
0.253026 0.105879 1.799 0 0 0
-0.394206 0.0159245 1.587 255 255 255
0.392711 0.0534985 0.909 255 255 255
0.746689 -0.368088 2.312 255 255 255
-0.373184 0.184718 1.769 255 255 255
-0.0900168 0.209375 1.646 0 0 0
0.791208 -0.556332 2.166 255 255 255
-0.532922 0.0609701 1.242 255 255 255
0.755813 -0.223365 2.294 255 255 255
-0.436395 0.413509 1.659 255 255 255
0.285317 0.137456 0.897 255 255 255
0.275353 0.422869 1.719 255 255 255
0.445559 -0.0848265 2.099 255 255 255
-0.170764 0.254146 1.624 255 255 255
-0.298191 0.305719 1.821 255 255 255
0.561425 0.217932 2.024 255 255 255
0.496723 0.0743308 2.158 255 255 255
-0.247306 -0.521216 1.412 255 255 255
-0.287594 0.00613005 1.739 255 255 255
0.075187 -0.427853 2.158 255 255 255
0.408212 -0.103702 2.136 255 255 255
0.237059 0.0819999 1.789 255 255 255
0.534261 -0.0638227 1.232 255 255 255
-0.306735 -0.384647 1.4 255 255 255
-0.525079 0.44621 1.539 255 255 255
0.175148 -0.305925 2.479 255 255 255
-0.133134 -0.543636 1.555 255 255 255
0.122519 0.196993 0.56 255 255 255
-0.43293 0.124735 1.559 255 255 255
0.00674901 0.190614 0.56 255 255 255
-0.00555026 -0.194077 2.136 255 255 255
-0.410065 -0.417545 1.102 255 255 255
0.426494 0.0709693 0.836 255 255 255
-0.437325 -0.39247 1.027 255 255 255
0.434924 0.0491007 0.858 255 255 255
0.717655 -0.551553 2.189 255 255 255
0.326902 0.142475 0.802 255 255 255
-0.52223 -0.159596 1.104 255 255 255
0.448975 0.164524 2.099 255 255 255
-0.372303 -0.437193 1.239 255 255 255
0.032668 -0.551963 1.929 255 255 255
-0.197178 -0.55138 1.449 255 255 255
0.561543 -0.0947267 1.192 255 255 255
-0.575814 0.00948313 1.128 255 255 255
0.0227851 0.172307 0.551 255 255 255
0.513071 -0.71319 2.261 255 255 255
-0.602972 0.500415 1.416 255 255 255
0.342548 -0.326856 2.684 255 255 255
-0.332021 -0.0841299 1.624 255 255 255
-0.475553 0.185772 1.442 255 255 255
-0.307473 0.543157 1.516 255 255 255
0.0533751 0.182633 0.534 255 255 255
0.428096 -0.0888729 2.114 255 255 255
-0.284365 -0.327998 1.473 255 255 255
-0.578507 -0.00693769 1.112 255 255 255
0.271944 0.257259 0.678 255 255 255
0.198999 0.23538 0.705 255 255 255
-0.27095 -0.301679 1.547 255 255 255
-0.167748 0.207504 1.571 255 255 255
0.167133 0.38955 1.758 255 255 255
-0.119113 -0.282187 1.848 255 255 255
0.96955 -0.446691 2.051 0 0 0
-0.0375434 -0.509023 1.831 255 255 255
0.137852 -0.205659 2.392 255 255 255
-0.366425 -0.258046 1.393 255 255 255
-0.552724 0.213208 1.308 255 255 255
0.104828 0.366079 1.769 255 255 255
0.834977 -0.221357 2.236 0 0 0
0.85122 -0.820122 2.212 0 0 0
0.39203 0.122367 0.766 255 255 255
0.979744 -0.514779 2.017 0 0 0
-0.275278 0.368958 1.769 255 255 255
0.879619 -0.217147 2.158 0 0 0
-0.528007 0.488806 1.555 255 255 255
0.767015 -0.242031 2.294 255 255 255
0.0833196 0.155317 0.548 255 255 255
-0.471482 0.00462838 1.313 255 255 255
0.0536711 -0.11721 2.01 0 0 0
-0.385808 0.47802 1.595 255 255 255
0.718028 -0.856025 2.269 0 0 0
0.476605 -0.875182 2.392 255 255 255
0.273866 0.152956 0.861 255 255 255
0.675933 -0.584025 2.204 255 255 255
0.203321 0.36896 1.826 255 255 255
0.0291963 0.12952 1.724 255 255 255
0.290287 0.374172 1.794 255 255 255
0.537349 0.028784 2.166 255 255 255
-0.248631 -0.13981 1.724 255 255 255
0.299594 0.354923 1.815 255 255 255
-0.487225 -0.299752 1.03 255 255 255
-0.418033 -0.11069 1.422 255 255 255
-0.244658 -0.245228 1.659 255 255 255
