ply
format ascii 1.0
comment Created by Open3D
element vertex 1308
property double x
property double y
property double z
property uchar red
property uchar green
property uchar blue
end_header
0.544417 0.177543 1.21 255 255 255
0.572953 0.0594456 2.128 255 255 255
0.11006 0.181147 1.633 255 255 255
0.0409462 0.0907941 1.633 255 255 255
-0.230995 0.419605 1.62 255 255 255
-0.463136 0.433474 1.351 255 255 255
-0.333718 0.263849 1.686 255 255 255
-0.306864 0.0545764 1.513 255 255 255
0.281913 0.497608 1.583 255 255 255
0.277065 0.243299 1.842 255 255 255
-0.371242 0.202701 1.429 255 255 255
-0.391947 -0.192267 0.91 255 255 255
-0.487521 0.090112 0.952 255 255 255
-0.0567886 -0.0147571 1.876 0 0 0
0.387405 0.345958 1.784 255 255 255
0.881893 -0.329486 2.181 255 255 255
-0.370374 -0.143261 0.991 255 255 255
0.0976002 0.263903 1.603 0 0 0
0.650024 0.195887 1.668 255 255 255
-0.469138 0.197415 1.132 255 255 255
0.420887 -0.896994 2.43 0 0 0
-0.14596 -0.162899 1.673 255 255 255
0.181241 -0.573956 2.166 255 255 255
0.869391 -0.707027 2.051 0 0 0
-0.0389377 -0.107647 1.899 255 255 255
0.55701 0.110291 2.107 255 255 255
-0.219903 0.41594 1.616 255 255 255
0.626697 -0.596418 2.158 255 255 255
0.434443 0.284622 1.092 255 255 255
0.489357 0.234989 1.947 255 255 255
0.964326 -0.554171 1.959 255 255 255
0.0106546 -0.0871019 1.923 255 255 255
0.29639 -0.488974 2.55 255 255 255
-0.259485 -0.330127 1.167 255 255 255
0.0847702 0.507823 1.559 255 255 255
-0.183434 -0.381329 1.348 255 255 255
-0.500692 0.235144 1.077 255 255 255
0.566834 0.196128 1.322 255 255 255
-0.513305 0.197896 1.012 255 255 255
0.907512 -0.619814 2.017 0 0 0
0.319416 0.266098 0.723 0 0 0
-0.0480348 -0.365237 1.677 255 255 255
-0.108436 0.209284 1.528 0 0 0
-0.223801 -0.378587 1.232 255 255 255
0.425132 -0.314187 2.303 255 255 255
0.442157 0.299479 1.149 255 255 255
-0.430914 0.0360976 1.048 255 255 255
-0.394835 -0.278627 0.786 255 255 255
-0.269175 -0.355807 1.128 255 255 255
-0.216316 -0.308286 1.308 255 255 255
0.42821 0.286361 1.059 255 255 255
0.896838 -0.551132 2.03 255 255 255
-0.369589 -0.254088 0.878 255 255 255
0.452293 -0.118784 2.037 255 255 255
0.158894 0.221337 1.616 0 0 0
0.941582 -0.726269 1.985 255 255 255
0.112341 0.532222 1.52 255 255 255
0.234059 0.109881 1.724 255 255 255
-0.467231 0.252866 1.203 255 255 255
0.916332 -0.651394 2.044 255 255 255
-0.268977 -0.390571 1.112 255 255 255
0.396525 0.336273 1.826 255 255 255
-0.29279 -0.30225 1.12 255 255 255
0.464374 0.235491 1.055 255 255 255
-0.119684 -0.423981 1.425 255 255 255
-0.509025 0.451338 1.289 255 255 255
0.633408 -0.474118 2.244 255 255 255
-0.46866 0.333831 1.265 255 255 255
0.255104 0.414451 1.696 255 255 255
-0.491121 0.377863 1.254 255 255 255
-0.341345 0.130903 1.513 255 255 255
-0.276999 -0.0288478 1.498 255 255 255
0.382808 0.33679 0.999 255 255 255
0.548843 -0.55779 2.303 255 255 255
0.168121 0.0907813 1.682 255 255 255
-0.176824 0.261946 1.607 255 255 255
0.345048 0.326463 1.821 255 255 255
0.848754 -0.804507 2.151 0 0 0
-0.369095 -0.0598489 1.087 255 255 255
-0.421755 -0.0890401 0.93 255 255 255
-0.504932 0.149489 0.986 255 255 255
0.804651 -0.241371 2.253 255 255 255
-0.261133 -0.367334 1.141 255 255 255
0.248455 0.518079 1.567 255 255 255
0.455263 -0.541704 2.604 255 255 255
0.0765631 0.519019 1.547 255 255 255
0.771104 -0.832968 2.189 255 255 255
0.400903 0.481684 1.616 255 255 255
-0.136901 -0.249369 1.599 255 255 255
0.238931 -0.462009 2.43 255 255 255
-0.238412 0.429779 1.599 255 255 255
0.238028 0.430611 1.673 255 255 255
0.488016 0.417274 1.719 255 255 255
0.351547 0.267119 0.698 0 0 0
-0.0772066 -0.074885 1.853 255 255 255
-0.166041 -0.250067 1.509 255 255 255
0.22511 0.0269986 1.81 255 255 255
-0.483878 0.389254 1.278 255 255 255
0.445244 0.242273 0.972 255 255 255
0.812265 -0.40828 2.204 255 255 255
-0.0941731 -0.0710163 1.831 0 0 0
0.212319 -0.347663 2.489 255 255 255
-0.00186653 -0.0651965 1.923 255 255 255
-0.0490392 0.43015 1.62 255 255 255
0.0871947 0.281094 1.513 255 255 255
-0.257193 0.30982 1.744 255 255 255
-0.363411 -0.304765 0.822 255 255 255
-0.498256 0.484099 1.339 255 255 255
0.569699 0.185544 2.03 255 255 255
0.642069 -0.483343 2.236 255 255 255
0.804377 -0.430827 2.173 255 255 255
0.0412722 -0.588843 1.646 255 255 255
-0.359993 -0.0519897 1.108 255 255 255
-0.413278 -0.175286 0.856 255 255 255
0.498171 0.245921 1.237 255 255 255
-0.400453 0.428823 1.513 255 255 255
-0.249479 -0.4306 1.122 255 255 255
-0.236052 -0.158355 1.456 255 255 255
-0.334704 0.291794 1.705 255 255 255
0.883621 -0.703092 2.03 255 255 255
-0.3199 -0.151859 1.247 255 255 255
0.523436 0.165723 2.03 255 255 255
-0.345464 -0.309217 0.897 255 255 255
-0.371948 -0.167749 0.974 255 255 255
-0.297892 0.504928 1.505 255 255 255
0.255224 -0.8128 2.136 255 255 255
-0.429127 -0.122499 0.877 255 255 255
0.642611 -0.0616042 2.01 255 255 255
-0.287705 -0.400321 1.03 255 255 255
-0.413175 -0.0889384 0.945 255 255 255
0.494323 -0.3111 2.365 255 255 255
-0.452827 -0.00595194 0.954 255 255 255
-0.233681 0.554831 1.456 255 255 255
0.629974 -0.228153 2.383 255 255 255
0.321325 0.275129 0.722 0 0 0
-0.156316 0.477379 1.559 255 255 255
-0.0257744 -0.48287 1.65 255 255 255
0.14931 0.398289 1.686 255 255 255
-0.551544 0.41866 1.158 255 255 255
-0.551106 0.333357 1.066 255 255 255
0.0341025 -0.599847 1.563 255 255 255
-0.31154 0.439466 1.587 255 255 255
0.574123 0.185576 1.339 255 255 255
0.571204 0.229074 1.978 255 255 255
0.345849 0.258573 0.712 0 0 0
-0.424638 0.259359 1.294 255 255 255
0.436676 0.564224 1.487 255 255 255
0.120988 0.184254 1.637 255 255 255
-0.0528046 -0.466048 1.575 255 255 255
-0.313408 -0.24413 1.043 255 255 255
-0.492457 0.138045 1.02 255 255 255
0.377137 0.235083 0.744 255 255 255
0.360916 0.253939 0.712 255 255 255
0.602117 -0.211035 2.365 255 255 255
-0.223104 0.483774 1.547 255 255 255
-0.438385 0.218864 1.232 255 255 255
-0.203747 -0.410665 1.232 255 255 255
-0.390525 0.251456 1.39 255 255 255
-0.208413 0.117081 1.629 255 255 255
0.42798 0.251221 0.918 255 255 255
0.415013 0.556359 1.505 255 255 255
0.102754 -0.640077 1.734 255 255 255
-0.321897 -0.289773 0.948 255 255 255
0.061869 0.193362 1.624 255 255 255
0.752201 -0.45986 2.228 255 255 255
-0.484068 0.141623 1.034 255 255 255
0.542223 0.425491 1.696 255 255 255
0.306905 -0.300163 2.604 255 255 255
-0.302744 -0.329423 1.013 255 255 255
0.20397 -0.0301975 1.887 255 255 255
-0.35474 0.0822322 1.324 255 255 255
-0.49778 0.0909872 0.945 255 255 255
-0.146309 0.134176 1.677 255 255 255
-0.472286 0.116383 1.034 255 255 255
-0.331291 -0.0209318 1.308 255 255 255
-0.538243 0.336829 1.1 255 255 255
-0.257553 -0.178504 1.357 255 255 255
0.805089 -0.200255 2.204 255 255 255
-0.25672 0.555378 1.439 255 255 255
0.0765764 0.544021 1.498 255 255 255
-0.429572 -0.169127 0.813 255 255 255
-0.208665 -0.119732 1.571 255 255 255
-0.0276333 -0.365122 1.769 255 255 255
-0.387844 -0.00676924 1.085 255 255 255
0.55909 -0.81419 2.196 255 255 255
0.935254 -0.324742 2.173 255 255 255
-0.430757 0.166388 1.173 255 255 255
-0.0477797 -0.0301175 1.882 0 0 0
-0.411436 -0.135097 0.904 255 255 255
0.666023 0.192967 1.848 255 255 255
-0.342583 0.0629833 1.327 255 255 255
0.711146 0.247099 1.848 255 255 255
0.376461 -0.0516368 2.004 255 255 255
0.745533 -0.0264909 2.078 255 255 255
-0.00379112 0.27581 1.459 255 255 255
0.612443 -0.510824 2.261 255 255 255
-0.373312 -0.201033 0.93 255 255 255
-0.250073 0.327796 1.734 255 255 255
0.272378 0.55525 1.502 255 255 255
-0.309495 -0.0594751 1.362 255 255 255
0.761437 -0.642148 2.057 255 255 255
0.247386 -0.781642 2.099 255 255 255
-0.347641 0.213158 1.575 255 255 255
-0.40971 -0.14135 0.897 255 255 255
-0.112817 -0.382988 1.52 255 255 255
0.577518 -0.729866 2.158 255 255 255
-0.510921 0.494932 1.31 255 255 255
0.0217095 0.462709 1.587 255 255 255
-0.29289 -0.291378 1.149 255 255 255
0.426683 -0.583326 2.719 255 255 255
0.424453 0.177591 0.832 255 255 255
0.638644 -0.0252994 1.435 255 255 255
0.357164 0.567661 1.509 255 255 255
-0.169984 0.395911 1.642 255 255 255
-0.167664 0.563097 1.459 255 255 255
-0.331327 -0.155084 1.085 255 255 255
1.11373 -0.302248 2.356 255 255 255
0.18711 -0.707975 1.935 255 255 255
-0.473098 0.0121993 0.918 255 255 255
0.927427 -0.812052 2.107 0 0 0
-0.334764 -0.15247 1.079 255 255 255
-0.178677 -0.271339 1.452 255 255 255
-0.314036 0.0218674 1.466 255 255 255
-0.414524 0.40166 1.442 255 255 255
0.283401 0.38141 1.734 255 255 255
-0.185649 -0.155524 1.571 255 255 255
0.417405 0.120782 1.997 255 255 255
0.230959 0.498865 1.587 255 255 255
0.581167 -0.589745 2.212 255 255 255
0.619292 0.130271 1.734 255 255 255
0.665705 0.224099 1.991 255 255 255
-0.448432 0.166143 1.145 255 255 255
0.463255 0.493214 1.449 255 255 255
-0.290207 0.147338 1.612 255 255 255
0.704336 -0.113778 1.403 255 255 255
-0.394769 -0.0242006 1.075 255 255 255
-0.0578644 -0.358485 1.646 255 255 255
0.946761 -0.372569 2.143 255 255 255
-0.379025 -0.152834 0.98 255 255 255
-0.0630403 -0.496945 1.513 255 255 255
-0.494677 0.190492 1.053 255 255 255
-0.394662 0.338383 1.473 255 255 255
-0.241753 -0.263656 1.319 255 255 255
0.498266 0.206625 1.132 255 255 255
0.300256 0.431213 1.686 255 255 255
-0.0896553 0.512275 1.505 255 255 255
0.620195 0.33531 1.837 255 255 255
0.399296 0.160339 2.004 255 255 255
0.593308 0.163988 1.416 0 0 0
-0.450937 -0.0652634 0.875 255 255 255
-0.363117 -0.256507 0.912 255 255 255
-0.508822 0.147822 0.975 255 255 255
-0.166618 -0.389636 1.354 255 255 255
-0.367763 0.246132 1.452 255 255 255
0.0716742 -0.238217 2.158 255 255 255
-0.344868 0.167002 1.551 255 255 255
-0.373935 -0.0496431 1.096 255 255 255
-0.0381175 -0.18706 1.859 255 255 255
-0.378557 0.37986 1.524 255 255 255
-0.25981 0.0566685 1.571 255 255 255
0.3859 -0.260447 2.228 255 255 255
-0.411532 -0.166251 0.867 255 255 255
-0.037802 0.370669 1.591 255 255 255
-0.0120907 0.431718 1.616 255 255 255
0.787719 0.028279 2.128 0 0 0
-0.174118 -0.24515 1.494 255 255 255
-0.0651436 -0.316936 1.696 255 255 255
-0.152178 -0.320154 1.47 255 255 255
-0.475952 0.210278 1.122 255 255 255
0.993042 -0.605344 1.991 255 255 255
0.879354 -0.369518 2.166 255 255 255
-0.0108183 -0.297223 1.848 255 255 255
0.580019 -0.193407 2.338 0 0 0
-0.205251 -0.429665 1.229 255 255 255
0.757602 -0.474556 2.212 255 255 255
0.0477641 -0.586691 1.686 255 255 255
-0.192716 0.12326 1.677 255 255 255
-0.235686 0.0819596 1.616 255 255 255
-0.255944 -0.314962 1.242 255 255 255
-0.462324 0.0454231 0.991 255 255 255
-0.248895 -0.0804144 1.505 255 255 255
0.190405 0.0922925 1.71 255 255 255
0.585902 0.330227 1.842 255 255 255
-0.023072 0.262388 1.477 255 255 255
-0.0647902 -0.455069 1.555 255 255 255
0.300541 -0.526321 2.55 255 255 255
-0.205257 -0.00497777 1.668 255 255 255
0.356738 -0.229276 2.479 255 255 255
-0.47973 0.0701927 0.955 255 255 255
-0.220768 0.0512134 1.642 255 255 255
0.448276 -0.206676 2.196 255 255 255
0.197873 0.202378 1.591 255 255 255
-0.301243 -0.309261 0.951 255 255 255
0.913367 -0.584945 1.966 255 255 255
-0.567647 0.425554 1.112 255 255 255
-0.336824 -0.297401 0.938 255 255 255
-0.261839 -0.053616 1.509 255 255 255
-0.463001 0.0485503 0.989 255 255 255
-0.504443 0.304821 1.141 255 255 255
-0.108262 -0.169368 1.769 255 255 255
0.076419 -0.477662 1.848 255 255 255
0.276824 -0.424402 2.561 255 255 255
0.48777 0.206432 1.092 255 255 255
-0.455671 0.00179714 0.947 255 255 255
-0.296411 -0.0664418 1.416 255 255 255
0.628166 -0.748501 2.151 255 255 255
0.703811 0.296243 1.893 255 255 255
0.759572 0.0289526 1.941 0 0 0
0.109799 -0.219632 2.294 255 255 255
-0.335529 0.501358 1.509 255 255 255
-0.122647 0.191057 1.583 0 0 0
0.0839204 0.484588 1.591 255 255 255
0.548366 -0.810617 2.196 255 255 255
-0.236717 0.350137 1.719 255 255 255
-0.523919 0.295658 1.1 255 255 255
-0.106195 -0.289843 1.607 255 255 255
-0.477277 0.0386602 0.944 255 255 255
-0.45467 -0.022136 0.917 255 255 255
-0.412525 -0.23761 0.803 255 255 255
0.63021 -0.631536 2.158 255 255 255
-0.35749 -0.317186 0.83 255 255 255
0.529427 -0.44105 2.402 255 255 255
0.427427 0.252413 1.911 255 255 255
0.038288 0.0987664 1.633 0 0 0
0.106257 -0.357054 2.22 255 255 255
0.675441 -0.0423963 2.03 255 255 255
0.311595 0.334229 1.799 255 255 255
-0.40573 -0.173433 0.882 255 255 255
-0.23722 0.171309 1.591 255 255 255
-0.486346 0.549553 1.412 255 255 255
-0.327169 0.140666 1.539 255 255 255
-0.509449 0.413668 1.239 255 255 255
0.643283 -0.435689 2.253 255 255 255
-0.142508 0.50254 1.52 255 255 255
0.449441 0.528857 1.539 255 255 255
-0.223084 0.0900713 1.62 255 255 255
-0.0442244 0.0750329 1.637 255 255 255
0.394327 0.551397 1.539 255 255 255
-0.500488 0.525665 1.345 255 255 255
0.0366989 -0.546979 1.682 255 255 255
-0.515068 0.202236 1.009 255 255 255
0.537545 0.134936 1.149 255 255 255
-0.383387 0.069448 1.18 255 255 255
0.769232 -0.673651 2.051 0 0 0
0.382124 0.179694 1.966 255 255 255
-0.0297305 0.477152 1.575 255 255 255
0.121694 -0.402538 2.173 255 255 255
0.516218 -0.762489 2.181 255 255 255
-0.0402801 0.531773 1.491 255 255 255
-0.205461 -0.295632 1.378 255 255 255
-0.257353 -0.373649 1.149 255 255 255
0.608957 0.357062 1.753 255 255 255
-0.349595 -0.0908303 1.098 255 255 255
0.896838 -0.607291 2.03 255 255 255
0.966601 -0.288869 2.196 255 255 255
0.406592 0.309696 1.039 255 255 255
-0.0830147 -0.0716756 1.848 255 255 255
0.393955 -0.527889 2.707 255 255 255
-0.466378 0.339283 1.27 255 255 255
-0.528814 0.416043 1.205 255 255 255
0.151517 -0.0871019 1.923 255 255 255
-0.141852 -0.275352 1.513 255 255 255
-0.446989 0.032817 1 255 255 255
-0.340998 -0.0739628 1.141 255 255 255
-0.15554 0.386511 1.659 255 255 255
-0.0329104 0.532766 1.487 255 255 255
0.533167 0.0783055 1.198 255 255 255
-0.358521 -0.214858 0.951 255 255 255
-0.140154 -0.218 1.637 255 255 255
-0.43934 -0.088008 0.889 255 255 255
-0.509173 0.178733 0.988 255 255 255
0.470789 0.221861 1.098 255 255 255
0.150385 -0.668977 1.87 255 255 255
-0.402995 0.00205522 1.083 255 255 255
-0.156237 -0.00238551 1.758 0 0 0
0.350162 0.259791 0.709 0 0 0
0.0839178 -0.554786 1.815 255 255 255
0.508373 0.244494 1.947 255 255 255
0.995212 -0.194396 2.261 255 255 255
-0.467077 0.0398888 0.974 255 255 255
0.369273 -0.825601 2.329 0 0 0
-0.364684 -0.294579 0.831 255 255 255
-0.370681 -0.0124999 1.124 255 255 255
-0.117941 -0.430725 1.432 255 255 255
-0.377063 0.348531 1.528 255 255 255
-0.289886 -0.295754 1.13 255 255 255
-0.357285 0.116659 1.429 255 255 255
-0.258614 -0.177715 1.351 255 255 255
0.525239 -0.701166 2.189 255 255 255
-0.420826 -0.194503 0.814 255 255 255
-0.405735 -0.224232 0.821 255 255 255
-0.325091 -0.17523 1.112 255 255 255
-0.139133 -0.354597 1.484 255 255 255
0.406106 -0.65889 2.615 255 255 255
-0.308172 -0.294616 1.066 255 255 255
-0.378811 -0.235178 0.893 255 255 255
0.911516 -0.600668 1.997 255 255 255
0.529207 0.136741 2.092 255 255 255
0.557542 -0.071417 2.01 255 255 255
-0.162825 0.503921 1.502 255 255 255
0.289181 -0.612801 2.356 255 255 255
0.50556 -0.642097 2.244 255 255 255
0.788286 -0.512136 2.158 255 255 255
0.871584 -0.116107 2.173 255 255 255
-0.061832 -0.538134 1.484 255 255 255
-0.264386 -0.142436 1.393 255 255 255
-0.355504 -0.0204158 1.158 255 255 255
0.727071 -0.00951834 2.064 255 255 255
-0.45646 0.386717 1.319 255 255 255
0.656089 -0.671238 2.128 255 255 255
-0.375149 -0.24781 0.871 255 255 255
0.931022 -0.746265 2.004 255 255 255
-0.371083 -0.115347 1.015 255 255 255
0.695597 -0.592273 2.143 255 255 255
0.433157 -0.267227 2.286 255 255 255
0.474774 0.446613 1.682 255 255 255
-0.480019 0.35422 1.257 255 255 255
-0.33278 -0.102854 1.132 255 255 255
0.470628 0.218163 1.046 255 255 255
-0.249135 -0.24311 1.324 255 255 255
0.579507 0.100337 2.114 255 255 255
-0.19102 0.564309 1.456 255 255 255
0.43574 0.275509 1.044 255 255 255
-0.500166 0.193775 1.043 255 255 255
-0.318039 -0.215224 1.132 255 255 255
0.637236 -0.631536 2.158 255 255 255
0.950622 -0.399159 2.136 255 255 255
0.555909 0.0210784 1.16 255 255 255
0.905418 -0.675622 2.057 255 255 255
-0.414487 -0.0830499 0.948 255 255 255
0.63843 -0.472427 2.236 255 255 255
0.614249 0.0619628 1.513 255 255 255
0.127958 0.211862 1.624 255 255 255
0.750298 -0.430297 2.244 255 255 255
-0.326461 0.0822537 1.524 255 255 255
-0.17005 -0.31106 1.439 255 255 255
0.740946 0.0947383 2.143 0 0 0
0.459968 0.333225 1.842 255 255 255
0.417388 0.192001 0.886 255 255 255
-0.401098 -0.248401 0.817 255 255 255
0.748044 -0.650888 2.085 255 255 255
-0.521357 0.491311 1.273 255 255 255
-0.406708 -0.206114 0.851 255 255 255
-0.109217 -0.365235 1.539 255 255 255
-0.309873 -0.325359 0.935 255 255 255
0.410587 0.258258 0.906 255 255 255
0.440974 -0.796396 2.499 0 0 0
-0.290837 -0.15503 1.308 255 255 255
-0.227415 -0.413752 1.178 255 255 255
0.785425 -0.308457 2.261 0 0 0
0.299048 0.339139 1.794 255 255 255
-0.334617 -0.22156 0.995 255 255 255
0.922959 -0.158357 2.22 255 255 255
-0.347363 -0.044836 1.156 255 255 255
-0.420688 0.405508 1.439 255 255 255
0.416686 0.484313 1.616 255 255 255
0.341971 -0.2221 2.489 255 255 255
0.406421 0.397192 1.729 255 255 255
-0.0525209 -0.524742 1.494 255 255 255
0.234008 -0.448293 2.42 255 255 255
-0.180667 -0.254272 1.449 255 255 255
-0.463937 0.0518738 0.991 255 255 255
0.702574 0.0877636 2.143 255 255 255
0.0724432 0.203933 1.624 255 255 255
0.6209 0.328296 1.848 255 255 255
-0.37023 0.298924 1.595 255 255 255
-0.324077 -0.0577284 1.322 255 255 255
-0.175194 -0.365276 1.387 255 255 255
-0.287086 0.0480008 1.539 255 255 255
0.570657 -0.262222 2.411 255 255 255
-0.498193 0.220592 1.083 255 255 255
-0.453066 -0.00591451 0.948 255 255 255
-0.141519 -0.0140727 1.789 0 0 0
-0.565205 0.393168 1.073 255 255 255
0.61461 -0.44986 2.269 255 255 255
-0.00435758 -0.485314 1.677 255 255 255
0.424001 -0.413342 2.519 255 255 255
0.70246 -0.012796 2.051 255 255 255
0.474687 -0.81239 2.402 255 255 255
-0.177991 -0.429613 1.308 255 255 255
0.849359 -0.563509 2.051 255 255 255
0.93667 -0.414979 2.128 255 255 255
0.393483 0.387054 1.734 255 255 255
0.397947 0.573904 1.487 255 255 255
0.604038 0.0560399 1.425 255 255 255
-0.501295 0.493758 1.324 255 255 255
0.684188 0.0600881 2.151 255 255 255
-0.485763 0.185725 1.075 255 255 255
0.310694 0.477868 1.612 255 255 255
-0.161815 -0.132554 1.668 255 255 255
0.514955 0.224331 1.229 255 255 255
0.568044 0.130119 1.227 255 255 255
-0.0857456 0.384382 1.616 255 255 255
-0.0445894 0.549324 1.473 255 255 255
0.357885 0.327359 1.826 255 255 255
-0.15825 -0.474705 1.286 255 255 255
-0.30869 0.424574 1.599 255 255 255
0.433653 0.26878 1 255 255 255
-0.375632 -0.196915 0.932 255 255 255
-0.360789 -0.269988 0.888 255 255 255
-0.196071 -0.405645 1.26 255 255 255
0.367114 -0.399314 2.672 255 255 255
0.78923 -0.538478 2.151 255 255 255
-0.458065 -0.0189217 0.906 255 255 255
0.0653865 0.391518 1.646 255 255 255
-0.0175179 -0.0839726 1.923 0 0 0
0.0800857 -0.249559 2.196 255 255 255
-0.209204 -0.390786 1.265 255 255 255
-0.342703 -0.193024 1.024 255 255 255
0.415435 -0.145334 2.085 255 255 255
0.720893 0.0175287 2.085 255 255 255
-0.146747 0.0423021 1.714 255 255 255
0.260183 -0.584024 2.303 255 255 255
-0.462164 0.179557 1.124 255 255 255
0.471544 0.135825 2.078 255 255 255
0.892762 -0.690339 2.051 0 0 0
0.492559 0.223272 1.171 255 255 255
0.389415 0.490984 1.612 255 255 255
-0.0832393 -0.0959931 1.853 0 0 0
-0.333385 0.00476233 1.351 255 255 255
0.636537 0.217619 1.991 255 255 255
0.514835 0.0526956 1.039 255 255 255
0.49843 0.497678 1.567 255 255 255
0.585725 -0.494152 2.286 255 255 255
0.620457 -0.274358 2.347 255 255 255
-0.121501 0.408025 1.637 255 255 255
-0.483019 0.513992 1.409 255 255 255
-0.187659 0.263527 1.633 255 255 255
-0.243239 -0.221895 1.339 255 255 255
0.392279 0.145898 1.985 255 255 255
0.718472 -0.699427 2.078 0 0 0
-0.200964 0.267077 1.655 255 255 255
-0.0684273 -0.51392 1.47 255 255 255
-0.323269 -0.189922 1.053 255 255 255
0.417247 -0.0393625 2.044 0 0 0
0.521813 0.214219 1.217 255 255 255
-0.103391 -0.487 1.393 255 255 255
-0.46419 0.0617983 0.995 255 255 255
0.65499 -0.376422 2.294 255 255 255
-0.481237 0.0595003 0.958 255 255 255
-0.311971 0.18452 1.616 255 255 255
-0.462521 0.0078942 0.939 255 255 255
0.401571 0.399125 1.156 0 0 0
-0.0132354 -0.379516 1.769 255 255 255
0.816949 -0.766587 2.114 0 0 0
1.16861 -0.3316 2.374 255 255 255
-0.363928 0.161477 1.375 255 255 255
0.0488196 -0.34483 1.947 255 255 255
0.415796 0.327225 1.859 255 255 255
-0.264441 0.496422 1.524 255 255 255
0.113137 -0.244907 2.286 255 255 255
0.29494 0.406085 1.719 255 255 255
0.576553 -0.861769 2.236 255 255 255
-0.0954043 -0.494887 1.409 255 255 255
0.614026 0.348054 1.81 255 255 255
0.534045 0.109855 1.122 0 0 0
0.587761 0.11874 1.547 255 255 255
0.0277332 0.542568 1.494 255 255 255
0.699314 0.275903 1.923 255 255 255
0.413424 -0.132205 2.092 255 255 255
-0.422927 -0.0386691 0.997 255 255 255
0.10017 -0.46716 2.024 255 255 255
-0.303379 -0.309828 0.948 255 255 255
-0.445952 0.0346165 1.005 255 255 255
-0.540467 0.471561 1.227 255 255 255
0.00628784 0.209644 1.607 255 255 255
-0.153099 0.561939 1.456 255 255 255
-0.198175 -0.037753 1.677 255 255 255
0.129926 -0.327833 2.32 255 255 255
0.628032 0.176239 2.037 255 255 255
-0.320019 -0.267222 1.126 255 255 255
-0.0434233 -0.569474 1.516 255 255 255
-0.535231 0.42134 1.176 255 255 255
0.513787 -0.269061 2.402 0 0 0
-0.356356 -0.102444 1.07 255 255 255
-0.397977 -0.148612 0.924 255 255 255
0.436004 0.27722 1.057 255 255 255
0.418801 0.351128 1.178 0 0 0
0.439486 0.163898 0.867 255 255 255
0.673534 -0.0864087 1.333 255 255 255
-0.00948356 0.179705 1.62 255 255 255
-0.336334 0.0494903 1.372 255 255 255
-0.419033 0.140221 1.194 255 255 255
0.759662 -0.323175 2.261 0 0 0
-0.326378 0.338962 1.705 255 255 255
1.09552 -0.356509 2.286 255 255 255
-0.221423 -0.407255 1.187 255 255 255
-0.39463 0.505083 1.491 255 255 255
-0.198811 -0.375271 1.319 255 255 255
-0.263455 -0.387567 1.135 255 255 255
-0.318128 0.0169328 1.452 255 255 255
0.54516 0.44762 1.607 255 255 255
-0.342598 -0.162815 1.044 255 255 255
-0.461018 0.236975 1.192 255 255 255
-0.393937 -0.163973 0.901 255 255 255
0.378971 -0.141406 2.128 255 255 255
0.69344 -0.543742 2.158 255 255 255
-0.216062 0.424084 1.607 255 255 255
-0.446481 -0.108404 0.845 255 255 255
-0.478824 0.0400687 0.941 255 255 255
-0.228922 0.074437 1.624 255 255 255
-0.0573437 -0.471461 1.559 255 255 255
-0.149277 -0.475276 1.299 255 255 255
0.879138 -0.235067 2.228 0 0 0
0.482569 -0.833109 2.383 255 255 255
-0.171847 0.220809 1.539 255 255 255
-0.0508432 -0.042368 1.882 0 0 0
0.880036 -0.712146 2.037 255 255 255
0.285271 0.35623 1.763 255 255 255
-0.214133 -0.128635 1.555 255 255 255
-0.300044 0.547723 1.456 255 255 255
0.195721 0.18452 1.616 0 0 0
0.403694 0.353673 1.779 255 255 255
-0.428758 0.153678 1.178 255 255 255
0.332348 0.440181 1.668 255 255 255
0.658555 -0.767613 2.136 255 255 255
0.598362 0.231588 1.972 255 255 255
0.0325664 -0.112137 1.923 0 0 0
-0.0233404 0.0384524 1.668 0 0 0
0.594324 -0.648915 2.181 255 255 255
-0.479854 0.118706 1.025 255 255 255
0.717499 0.122711 2.085 255 255 255
-0.546436 0.382115 1.128 255 255 255
-0.512259 0.367756 1.176 255 255 255
0.426854 -0.668978 2.638 255 255 255
0.365465 -0.358562 2.66 255 255 255
-0.295845 -0.361121 0.974 255 255 255
0.524832 0.402319 1.739 255 255 255
0.429501 -0.114027 2.071 255 255 255
-0.516187 0.387945 1.203 255 255 255
0.596716 0.299688 1.876 255 255 255
-0.492041 0.0703945 0.937 255 255 255
-0.423757 -0.180811 0.812 255 255 255
0.263392 0.399325 1.714 255 255 255
0.278013 -0.417853 2.572 255 255 255
0.599674 0.158614 1.62 255 255 255
0.631375 0.0546631 1.587 255 255 255
0.775196 -0.046938 2.085 255 255 255
-0.436956 -0.0869508 0.893 255 255 255
0.525364 0.107701 1.1 0 0 0
0.527369 0.215969 1.299 0 0 0
0.566939 0.221525 1.997 255 255 255
-0.125518 -0.326954 1.524 255 255 255
-0.402704 -0.231475 0.823 255 255 255
0.572971 0.0163322 1.229 0 0 0
0.44576 0.553219 1.477 255 255 255
-0.32709 -0.127359 1.171 255 255 255
0.1001 -0.273273 2.244 255 255 255
0.295822 0.324491 1.81 255 255 255
-0.405572 -0.246272 0.81 255 255 255
-0.240061 -0.0102693 1.646 255 255 255
-0.375741 0.379573 1.543 255 255 255
-0.416897 -0.108569 0.916 255 255 255
-0.187056 -0.388345 1.327 255 255 255
-0.315901 -0.23248 1.029 255 255 255
-0.372912 -0.074756 1.048 255 255 255
0.0272996 0.383431 1.612 255 255 255
-0.180568 -0.215917 1.528 255 255 255
0.853898 -0.391929 2.173 255 255 255
0.376588 0.227771 0.76 255 255 255
-0.373092 -0.091022 1.039 255 255 255
0.409806 0.48024 1.62 255 255 255
0.620071 -0.419124 2.303 255 255 255
-0.191592 -0.291802 1.425 255 255 255
-0.329772 -0.11363 1.167 255 255 255
0.744099 -0.153629 2.204 0 0 0
-0.238783 0.327796 1.734 255 255 255
0.834749 -0.0799272 2.151 255 255 255
0.16054 -0.0362427 1.882 255 255 255
-0.431086 -0.0370014 0.954 255 255 255
-0.328688 -0.205092 1.043 255 255 255
-0.396962 0.460426 1.528 255 255 255
0.284788 0.538222 1.516 255 255 255
0.976555 -0.664783 2.024 0 0 0
-0.390171 -0.12786 0.972 255 255 255
0.743697 -0.606902 2.121 255 255 255
-0.296334 0.0603658 1.535 255 255 255
0.698627 -0.37009 2.278 0 0 0
0.422384 0.295061 1.012 255 255 255
-0.508175 0.35857 1.171 255 255 255
0.230353 -0.104126 2.01 0 0 0
-0.393581 -0.0455889 1.044 255 255 255
0.568602 -0.345595 2.338 255 255 255
-0.212385 -0.377455 1.297 255 255 255
-0.400615 -0.159611 0.893 255 255 255
-0.564743 0.424766 1.139 255 255 255
-0.278691 0.515824 1.494 255 255 255
0.511618 -0.229402 2.356 255 255 255
-0.324628 -0.182309 1.169 255 255 255
0.192694 0.199789 1.591 255 255 255
0.0193157 -0.364367 1.853 255 255 255
-0.470401 0.147463 1.064 255 255 255
-0.4962 0.0830337 0.942 255 255 255
-0.43101 0.413727 1.419 255 255 255
0.00385247 -0.460482 1.686 255 255 255
-0.210077 0.403927 1.642 255 255 255
-0.469049 0.0763711 0.995 255 255 255
0.452945 0.525409 1.551 255 255 255
-0.0928839 0.451723 1.603 255 255 255
0.650097 0.329331 1.837 255 255 255
-0.40611 -0.209912 0.844 255 255 255
-0.196028 0.378184 1.682 255 255 255
0.426901 -0.424402 2.561 255 255 255
-0.281101 -0.206352 1.283 255 255 255
-0.430808 0.0844303 1.1 255 255 255
0.152385 -0.41516 2.261 255 255 255
-0.45279 -0.0531675 0.887 255 255 255
0.0634816 0.558026 1.477 255 255 255
-0.0251809 0.186687 1.612 255 255 255
-0.292213 0.357333 1.7 255 255 255
-0.451138 0.328015 1.316 255 255 255
-0.174795 -0.423674 1.316 255 255 255
0.548452 -0.029283 2.037 255 255 255
-0.487218 0.197185 1.09 255 255 255
0.376309 -0.33973 2.615 255 255 255
-0.0599184 0.416635 1.629 255 255 255
0.528502 -0.370795 2.329 255 255 255
0.525512 0.157424 2.051 255 255 255
-0.0879712 -0.148081 1.826 255 255 255
0.706294 -0.216746 2.303 0 0 0
-0.079626 -0.480593 1.456 255 255 255
0.484514 0.516501 1.547 255 255 255
0.299193 0.509198 1.579 255 255 255
0.915732 -0.16197 2.22 255 255 255
0.0724514 0.502778 1.567 255 255 255
0.692109 -0.564374 2.143 255 255 255
-0.0255514 -0.329343 1.826 255 255 255
1.12894 -0.454596 2.22 255 255 255
0.687264 -0.640071 2.128 255 255 255
0.978156 -0.372569 2.143 255 255 255
0.587825 0.158832 1.316 255 255 255
0.593152 -0.139434 2.151 255 255 255
-0.307409 0.274973 1.739 255 255 255
-0.474132 0.446665 1.351 255 255 255
-0.24677 -0.434523 1.118 255 255 255
-0.274214 -0.061799 1.47 255 255 255
-0.363426 -0.0535015 1.102 255 255 255
0.0247368 0.397531 1.616 255 255 255
-0.515357 0.197177 1 255 255 255
0.349664 0.102951 1.799 0 0 0
-0.184373 -0.202445 1.539 255 255 255
-0.165911 0.14005 1.682 255 255 255
0.755828 -0.187933 2.228 255 255 255
-0.532955 0.398587 1.171 255 255 255
0.416064 0.395519 1.734 255 255 255
0.521308 0.221214 1.305 0 0 0
0.763977 -0.494557 2.189 255 255 255
-0.311415 0.555007 1.432 255 255 255
0.377519 0.236228 0.74 255 255 255
-0.387754 0.180658 1.319 255 255 255
-0.412894 0.210192 1.252 255 255 255
-0.35421 -0.263927 0.912 255 255 255
0.211608 0.379211 1.724 255 255 255
0.678155 0.0773015 2.143 255 255 255
-0.271651 0.00546734 1.551 255 255 255
-0.419071 0.0160947 1.079 255 255 255
-0.0939159 -0.0529933 1.826 0 0 0
0.61445 0.299324 1.893 255 255 255
-0.411637 -0.101241 0.945 255 255 255
-0.40343 0.328125 1.47 255 255 255
-0.367754 -0.175473 0.939 255 255 255
-0.31617 -0.286949 0.954 255 255 255
1.06385 -0.479451 2.092 255 255 255
-0.321871 -0.104342 1.313 255 255 255
0.289129 0.329469 1.805 255 255 255
0.134482 0.519019 1.547 255 255 255
-0.310133 -0.285742 1.085 255 255 255
0.909678 -0.674678 2.044 255 255 255
0.268115 0.415981 1.691 255 255 255
0.710272 0.138269 2.064 255 255 255
0.228446 0.384822 1.724 255 255 255
-0.35456 0.433206 1.583 255 255 255
-0.383405 0.0817929 1.192 255 255 255
0.0801759 0.445968 1.62 255 255 255
-0.322158 0.476263 1.539 255 255 255
-0.464992 0.0450564 0.983 255 255 255
-0.0622244 0.435423 1.62 255 255 255
-0.155117 0.0618268 1.714 255 255 255
-0.231284 0.506365 1.502 255 255 255
0.224334 0.485806 1.595 255 255 255
-0.56202 0.38662 1.094 255 255 255
-0.238998 -0.397274 1.169 255 255 255
0.356092 0.260304 0.698 0 0 0
-0.392933 -0.0327943 1.07 255 255 255
0.494382 -0.583724 2.347 255 255 255
0.051948 0.543905 1.491 255 255 255
-0.18608 -0.321694 1.384 255 255 255
-0.327794 -0.171467 1.16 255 255 255
0.440277 0.55361 1.491 255 255 255
-0.468177 0.0377532 0.96 255 255 255
0.076104 0.0700882 1.646 0 0 0
0.662242 0.196799 2.01 255 255 255
0.140146 -0.230278 2.365 255 255 255
-0.540893 0.430455 1.18 255 255 255
-0.393649 -0.169084 0.897 255 255 255
-0.376209 0.118509 1.252 255 255 255
0.490525 0.484588 1.591 255 255 255
-0.220826 -0.225823 1.39 255 255 255
-0.28585 -0.237469 1.249 255 255 255
0.512754 -0.679736 2.212 255 255 255
0.208809 0.560139 1.502 255 255 255
0.346802 -0.189374 2.383 0 0 0
0.525265 0.042669 1.085 0 0 0
0.432724 0.226166 0.938 255 255 255
-0.355122 0.0121215 1.208 255 255 255
0.0485576 -0.272426 2.071 255 255 255
-0.263396 0.483774 1.547 255 255 255
0.455374 0.146659 0.947 255 255 255
0.678155 -0.606222 2.143 255 255 255
-0.200458 -0.0684834 1.629 255 255 255
-0.386438 -0.0461565 1.057 255 255 255
0.00747733 -0.270038 1.911 255 255 255
-0.32531 0.287755 1.714 255 255 255
0.511515 -0.334181 2.338 255 255 255
0.216144 0.55525 1.502 255 255 255
0.376098 0.236689 1.935 255 255 255
0.413972 -0.437162 2.638 255 255 255
-0.2202 -0.256389 1.372 255 255 255
1.1436 -0.396039 2.278 255 255 255
0.431785 0.207746 1.959 255 255 255
-0.520791 0.459135 1.242 255 255 255
-0.284037 -0.0399681 1.459 255 255 255
-0.252896 0.336262 1.734 255 255 255
0.00879291 0.225113 1.587 255 255 255
0.6735 -0.82688 2.173 0 0 0
0.427366 0.525582 1.559 255 255 255
0.723504 0.0947383 2.143 255 255 255
-0.398156 0.353489 1.409 255 255 255
-0.514174 0.36967 1.176 255 255 255
-0.496666 0.137651 1.005 255 255 255
-0.379692 -0.245249 0.862 255 255 255
-0.328078 0.0820378 1.52 255 255 255
-0.47601 0.405039 1.302 255 255 255
-0.48594 0.0444728 0.937 255 255 255
-0.352699 -0.233674 0.952 255 255 255
0.682846 0.0797959 1.805 255 255 255
0.404912 0.274679 1.893 255 255 255
-0.163163 -0.364143 1.4 255 255 255
-0.382872 0.4917 1.502 255 255 255
-0.491994 0.199075 1.081 255 255 255
-0.137243 -0.244776 1.603 255 255 255
0.78923 -0.503474 2.151 255 255 255
0.825451 -0.0967497 2.136 255 255 255
0.153472 0.254485 1.487 255 255 255
-0.286584 -0.392701 1.032 255 255 255
0.61076 0.16458 2.057 255 255 255
0.54701 -0.0293837 2.044 255 255 255
-0.38075 0.374656 1.513 255 255 255
-0.0514311 0.557499 1.463 255 255 255
0.534772 0.100337 2.114 255 255 255
-0.180199 -0.233849 1.484 255 255 255
0.137929 -0.688895 1.826 255 255 255
0.763955 -0.187259 2.22 255 255 255
-0.177382 -0.483494 1.244 255 255 255
0.353321 0.275678 0.791 255 255 255
-0.393777 -0.186586 0.904 255 255 255
-0.267044 0.122731 1.599 0 0 0
-0.0537433 0.133472 1.603 255 255 255
-0.0515487 -0.446623 1.616 255 255 255
-0.093203 0.0516188 1.655 255 255 255
-0.040798 0.178262 1.607 255 255 255
-0.282795 -0.0143923 1.516 255 255 255
-0.380821 -0.239306 0.871 255 255 255
0.701348 0.228738 1.87 255 255 255
-0.32344 -0.289773 0.948 255 255 255
-0.383948 -0.268975 0.823 255 255 255
0.756671 -0.803613 2.158 255 255 255
-0.430444 -0.10607 0.871 255 255 255
0.931319 -0.467668 2.085 255 255 255
-0.136926 0.234313 1.513 255 255 255
-0.492566 0.0735225 0.938 255 255 255
0.478309 0.118917 2.078 255 255 255
0.385626 0.356031 1.051 255 255 255
0.384397 0.377934 1.744 255 255 255
-0.557396 0.37108 1.085 255 255 255
-0.0833477 0.229203 1.48 255 255 255
0.363835 0.293773 0.839 255 255 255
0.68862 0.1052 2.143 255 255 255
1.03281 -0.802197 2.064 255 255 255
0.144297 -0.629417 1.87 255 255 255
-0.0601887 0.487478 1.567 255 255 255
0.0129389 -0.396051 1.805 255 255 255
-0.072009 0.136081 1.603 255 255 255
0.327387 0.360942 1.758 255 255 255
-0.130317 0.0743583 1.682 255 255 255
0.643232 0.33033 1.826 255 255 255
-0.406126 -0.259508 0.771 255 255 255
0.190279 0.0123052 1.815 255 255 255
-0.424621 -0.0562142 0.964 255 255 255
0.391055 -0.681539 2.572 0 0 0
-0.327812 -0.0728984 1.286 255 255 255
0.500623 0.0747497 1.017 255 255 255
0.607601 0.0531335 1.473 255 255 255
0.456376 0.291206 1.176 255 255 255
-0.223607 -0.384826 1.22 255 255 255
0.481918 0.375246 1.758 255 255 255
-0.268568 -0.125193 1.403 255 255 255
0.378154 -0.180764 2.143 255 255 255
0.115659 0.176262 1.637 255 255 255
0.977245 -0.283774 2.212 255 255 255
0.871127 -0.740884 2.071 255 255 255
-0.12554 0.197799 1.555 0 0 0
-0.0488692 0.32202 1.532 255 255 255
-0.40955 -0.190649 0.826 255 255 255
-0.329558 -0.10467 1.173 255 255 255
-0.36468 -0.28907 0.863 255 255 255
0.475353 -0.188206 2.189 255 255 255
-0.418252 0.0771268 1.124 255 255 255
-0.0402968 -0.374895 1.696 255 255 255
-0.501639 0.135459 0.989 255 255 255
0.347694 -0.257698 2.561 255 255 255
0.116552 0.517677 1.543 255 255 255
-0.0303345 0.183493 1.607 255 255 255
-0.467635 0.0696836 0.992 255 255 255
0.386423 0.287001 1.893 255 255 255
-0.387512 0.278414 1.412 255 255 255
-0.225657 -0.198678 1.406 255 255 255
0.259645 -0.710186 2.173 255 255 255
0.200967 0.249608 1.595 255 255 255
-0.0769983 -0.0295734 1.848 255 255 255
-0.351709 -0.268031 0.921 255 255 255
-0.177447 -0.29059 1.442 255 255 255
1.11028 -0.222581 2.365 0 0 0
0.590264 0.173518 2.044 255 255 255
0.234687 -0.0209852 1.887 255 255 255
-0.41636 0.295186 1.342 255 255 255
-0.328232 -0.165111 1.196 255 255 255
0.0886911 -0.52117 1.853 255 255 255
0.723187 -0.481614 2.228 255 255 255
-0.38239 0.0882737 1.201 255 255 255
-0.291849 0.482501 1.551 255 255 255
0.191101 0.20929 0.54 0 0 0
-0.179707 -0.443493 1.305 255 255 255
0.745533 -0.0197277 2.078 255 255 255
0.935767 -0.33427 2.166 255 255 255
0.513363 0.200756 1.162 255 255 255
-0.478286 0.0940875 0.994 255 255 255
0.0389481 -0.332225 1.929 255 255 255
0.202909 -0.70652 1.966 255 255 255
-0.504204 0.303183 1.128 255 255 255
-0.202514 -0.147101 1.563 255 255 255
-0.32382 0.0878433 1.535 255 255 255
-0.388434 -0.228857 0.869 255 255 255
0.420393 -0.488243 2.707 255 255 255
0.130222 0.268556 1.498 255 255 255
-0.503543 0.12548 0.974 255 255 255
0.13043 -0.234353 2.329 255 255 255
0.578313 0.115805 1.267 255 255 255
0.877783 -0.788978 2.128 255 255 255
-0.130084 -0.406327 1.412 255 255 255
0.424188 -0.124557 2.078 255 255 255
0.249042 0.485952 1.587 255 255 255
0.439699 -0.839068 2.469 0 0 0
0.460905 -0.565014 2.519 255 255 255
-0.488856 0.535778 1.406 255 255 255
-0.125539 -0.0916415 1.769 255 255 255
0.531873 -0.0392276 2.037 255 255 255
0.616904 -0.642998 2.173 255 255 255
-0.246488 -0.225239 1.333 255 255 255
0.645847 -0.298414 2.356 255 255 255
-0.0777865 0.231806 1.466 255 255 255
0.683662 0.282162 1.923 255 255 255
0.372839 0.233004 0.765 255 255 255
-0.295344 -0.24928 1.189 255 255 255
0.509958 0.475622 1.587 255 255 255
-0.484091 0.441706 1.336 255 255 255
-0.485806 0.128965 1.027 255 255 255
0.379413 -0.746657 2.469 0 0 0
-0.494469 0.375754 1.247 255 255 255
-0.499079 0.132084 1 255 255 255
0.254427 0.403958 1.71 255 255 255
-0.414971 -0.10813 0.925 255 255 255
0.325327 -0.259811 2.582 255 255 255
-0.488034 0.0570946 0.944 255 255 255
0.429916 0.264357 0.966 255 255 255
0.912118 -0.16197 2.22 255 255 255
-0.408329 0.386035 1.445 255 255 255
0.940494 -0.434324 2.121 255 255 255
0.377826 0.254783 0.819 255 255 255
0.637236 -0.606954 2.158 255 255 255
-0.506613 0.392871 1.237 255 255 255
-0.390525 0.249194 1.39 255 255 255
0.173739 0.535755 1.516 255 255 255
-0.366639 -0.188697 0.944 255 255 255
-0.494048 0.195024 1.059 255 255 255
0.788469 -0.416352 2.228 255 255 255
-0.439852 0.0337687 1.029 255 255 255
0.673612 -0.469047 2.22 255 255 255
0.516913 0.229878 1.294 0 0 0
0.67228 -0.0899983 1.322 255 255 255
0.0373099 -0.54217 1.71 255 255 255
0.928223 -0.615064 1.991 255 255 255
-0.343593 0.0457027 1.267 255 255 255
-0.238998 -0.402982 1.169 255 255 255
-0.00180441 -0.317144 1.859 255 255 255
0.205251 0.17275 1.629 255 255 255
-0.115657 -0.243844 1.668 255 255 255
0.412514 0.343154 1.831 255 255 255
-0.201415 -0.35246 1.322 255 255 255
-0.396589 0.185613 1.265 255 255 255
-0.0237042 -0.0618735 1.917 0 0 0
-0.171102 0.483745 1.555 255 255 255
0.615364 0.0494026 2.143 255 255 255
-0.407253 -0.116031 0.928 255 255 255
0.452953 0.407266 1.724 255 255 255
0.378419 0.341892 0.963 255 255 255
-0.276701 0.482501 1.551 255 255 255
-0.396706 0.342752 1.412 255 255 255
0.0663183 0.52521 1.543 255 255 255
-0.349339 0.500029 1.505 255 255 255
-0.351497 0.124196 1.463 255 255 255
0.465007 0.111399 2.064 0 0 0
-0.412287 0.00202296 1.066 255 255 255
0.178841 0.203937 1.583 255 255 255
0.069069 0.248871 1.607 255 255 255
-0.261364 0.25443 1.734 255 255 255
0.630021 -0.187494 2.312 0 0 0
-0.479772 0.0529308 0.952 255 255 255
0.60879 0.0227972 1.378 255 255 255
-0.273336 -0.194527 1.316 255 255 255
-0.43299 -0.0301278 0.983 255 255 255
0.348641 0.268549 0.69 0 0 0
0.770053 -0.531658 2.166 255 255 255
-0.174024 -0.112668 1.655 255 255 255
-0.146108 -0.0341629 1.774 0 0 0
-0.39421 -0.230685 0.86 255 255 255
0.644647 0.070097 2.136 255 255 255
0.0108171 0.52837 1.509 255 255 255
0.512375 0.0592501 2.121 255 255 255
0.0416285 0.34038 1.559 255 255 255
-0.0115744 -0.578602 1.547 255 255 255
-0.105672 0.503862 1.524 255 255 255
-0.342368 0.0769104 1.425 255 255 255
-0.553923 0.434794 1.171 255 255 255
0.513602 -0.480218 2.383 255 255 255
-0.312404 0.394197 1.646 255 255 255
0.430432 0.320032 1.87 255 255 255
-0.130765 -0.176281 1.724 255 255 255
0.361466 0.183726 1.941 255 255 255
0.553589 0.275042 1.917 255 255 255
-0.333044 0.194611 1.591 255 255 255
-0.43264 -0.0378159 0.975 255 255 255
-0.0758733 -0.1862 1.821 255 255 255
-0.37805 0.341964 1.532 255 255 255
0.599674 0.155978 1.62 255 255 255
0.220454 -0.145413 2.136 255 255 255
-0.165986 0.188656 1.629 0 0 0
-0.198039 0.50751 1.491 255 255 255
-0.317621 -0.0986037 1.322 255 255 255
-0.53785 0.299581 1.057 255 255 255
0.868567 -0.481053 2.114 255 255 255
0.510289 0.194536 1.126 255 255 255
0.309838 0.569312 1.494 255 255 255
-0.111214 0.499028 1.532 255 255 255
0.0738478 -0.023699 1.859 255 255 255
0.795591 -0.261548 2.269 255 255 255
0.0695646 -0.00544928 1.826 255 255 255
0.897663 -0.248674 2.22 255 255 255
0.594799 -0.455352 2.278 255 255 255
-0.377776 -0.0266018 1.102 255 255 255
-0.472031 0.0561396 0.981 255 255 255
-0.382699 -0.291615 0.79 255 255 255
-0.323571 -0.308622 0.935 255 255 255
-0.374767 0.298447 1.539 255 255 255
-0.413753 -0.190831 0.821 255 255 255
-0.393724 -0.215792 0.862 255 255 255
0.358814 0.481684 1.616 255 255 255
-0.331218 -0.0388321 1.267 255 255 255
-0.230676 -0.169735 1.452 255 255 255
0.393611 0.213182 0.779 255 255 255
-0.411372 0.240759 1.319 255 255 255
0.374125 -0.380206 2.66 255 255 255
0.111528 0.543104 1.509 255 255 255
-0.355204 0.078747 1.302 255 255 255
0.136713 -0.10339 1.935 255 255 255
0.608116 -0.397325 2.329 0 0 0
-0.135931 -0.327123 1.502 255 255 255
-0.222023 0.534942 1.473 255 255 255
-0.155022 -0.469235 1.294 255 255 255
-0.242975 0.19718 1.612 255 255 255
-0.210714 -0.451645 1.192 255 255 255
-0.406708 -0.207498 0.851 255 255 255
-0.3099 -0.349879 0.904 255 255 255
-0.404739 -0.267798 0.766 255 255 255
0.546618 -0.67623 2.189 255 255 255
0.576815 -0.309916 2.356 255 255 255
0.559075 0.0205696 1.132 255 255 255
-0.31107 -0.262599 1.154 255 255 255
0.821974 -0.128034 2.136 255 255 255
-0.286517 -0.390472 1.044 255 255 255
-0.520708 0.425079 1.237 255 255 255
0.140901 -0.688895 1.826 255 255 255
-0.326345 0.462157 1.559 255 255 255
0.113137 -0.315588 2.286 255 255 255
0.305738 0.167358 1.799 255 255 255
0.795941 -0.670313 2.051 0 0 0
0.522396 0.133336 2.092 255 255 255
-0.132766 0.18144 1.612 0 0 0
-0.20928 0.506365 1.502 255 255 255
-0.0112222 -0.220972 1.917 255 255 255
-0.339939 -0.0254169 1.217 255 255 255
0.474774 0.292693 1.239 0 0 0
-0.233141 -0.201808 1.396 255 255 255
0.593621 -0.00747424 1.198 255 255 255
0.656089 0.128705 2.128 255 255 255
0.416469 0.183666 0.835 255 255 255
-0.410542 -0.203238 0.828 255 255 255
-0.299396 -0.312593 0.991 255 255 255
-0.448456 -0.0873226 0.854 255 255 255
-0.525087 0.495181 1.267 255 255 255
-0.500628 0.271871 1.12 255 255 255
0.429971 -0.748636 2.53 0 0 0
-0.0270866 0.00893421 1.734 0 0 0
-0.273709 -0.331935 1.147 255 255 255
-0.416036 -0.209331 0.815 255 255 255
-0.48217 0.229758 1.128 255 255 255
-0.340239 -0.239074 0.974 255 255 255
0.164523 0.163839 1.646 0 0 0
-0.260363 -0.0224115 1.559 255 255 255
0.714834 0.270277 1.842 255 255 255
-0.498435 0.403314 1.257 255 255 255
0.469432 -0.739322 2.356 255 255 255
0.318824 0.284424 1.876 255 255 255
-0.0163427 -0.367363 1.794 255 255 255
-0.0162516 -0.00242079 1.784 0 0 0
-0.30918 0.519569 1.477 255 255 255
0.122637 -0.47385 2.128 255 255 255
-0.38716 0.548288 1.445 255 255 255
-0.214684 -0.123892 1.559 255 255 255
-0.167708 -0.306377 1.439 255 255 255
0.379619 -0.604585 2.638 0 0 0
0.485648 -0.065327 2.024 255 255 255
1.0064 -0.214393 2.278 255 255 255
-0.37365 -0.110175 1.013 255 255 255
-0.274447 0.245343 1.71 255 255 255
-0.172863 0.184495 1.571 255 255 255
-0.216401 -0.426045 1.213 255 255 255
-0.498441 0.42253 1.278 255 255 255
-0.376135 0.221571 1.387 255 255 255
-0.371884 -0.168437 0.978 255 255 255
0.604202 0.157613 1.442 0 0 0
0.438441 0.062504 2.004 255 255 255
-0.347126 -0.295603 0.909 255 255 255
-0.0412296 -0.41712 1.624 255 255 255
0.0510276 -0.0678994 1.911 255 255 255
0.389741 0.253543 0.86 255 255 255
1.10292 -0.231155 2.374 255 255 255
-0.215028 0.509936 1.491 255 255 255
0.622285 0.174335 1.696 255 255 255
0.407551 0.196473 0.804 255 255 255
-0.450899 -0.0791692 0.856 255 255 255
-0.415232 0.0145116 1.092 255 255 255
-0.190602 -0.147147 1.591 255 255 255
0.652328 0.327436 1.81 255 255 255
0.432315 0.168813 0.893 255 255 255
-0.457712 0.139007 1.079 255 255 255
-0.459859 0.127702 1.044 255 255 255
0.36886 0.300647 1.882 255 255 255
-0.436551 0.437742 1.422 255 255 255
-0.0371128 -0.273439 1.81 255 255 255
-0.357428 -0.0935625 1.068 255 255 255
0.308843 -0.227543 2.55 255 255 255
0.596251 -0.561379 2.228 255 255 255
0.265363 0.421485 1.691 255 255 255
0.0199828 -0.114906 1.917 0 0 0
0.172478 0.539216 1.505 255 255 255
-0.34476 -0.118984 1.094 255 255 255
-0.0312406 -0.473561 1.655 255 255 255
-0.349038 -0.0480519 1.143 255 255 255
-0.437337 0.0117083 1.004 255 255 255
0.329881 0.464351 1.629 255 255 255
0.648628 0.162329 2.071 255 255 255
-0.0474348 0.222276 1.567 255 255 255
0.219856 0.564449 1.494 255 255 255
-0.442844 0.0508575 1.036 255 255 255
-0.272352 0.0282559 1.555 255 255 255
-0.220155 0.564748 1.445 255 255 255
0.54052 -0.314948 2.365 255 255 255
0.392766 0.3922 1.169 0 0 0
0.62387 -0.54884 2.236 255 255 255
-0.257966 -0.314962 1.242 255 255 255
-0.323748 -0.106451 1.262 255 255 255
-0.234917 0.561596 1.449 255 255 255
0.520331 0.162515 1.12 255 255 255
-0.24358 -0.343987 1.182 255 255 255
-0.374138 -0.279027 0.825 255 255 255
-0.0730138 -0.502979 1.466 255 255 255
-0.192499 0.191376 1.524 255 255 255
-0.421978 -0.0683361 0.958 255 255 255
-0.340798 -0.319966 0.863 255 255 255
-0.325518 -0.133459 1.126 255 255 255
-0.069079 0.536521 1.484 255 255 255
0.0444322 0.041068 1.664 0 0 0
-0.310248 -0.172428 1.249 255 255 255
-0.491534 0.168746 1.025 255 255 255
0.0329716 -0.584193 1.633 255 255 255
0.545945 0.0264418 1.147 255 255 255
0.692454 0.142108 2.071 255 255 255
-0.495797 0.537566 1.387 255 255 255
1.07398 -0.430437 2.189 255 255 255
1.00959 -0.325788 2.204 255 255 255
0.708327 -0.259081 2.347 255 255 255
-0.199602 -0.278437 1.416 255 255 255
0.378436 0.357694 1.036 255 255 255
-0.548987 0.378 1.1 255 255 255
0.344557 0.352359 1.758 255 255 255
-0.474791 0.33705 1.254 255 255 255
-0.187556 -0.323229 1.362 255 255 255
0.275767 -0.736618 2.107 255 255 255
0.315935 0.0216791 1.859 255 255 255
0.522071 0.056552 1.152 255 255 255
-0.10292 0.215609 1.52 255 255 255
0.0779697 0.366267 1.629 255 255 255
-0.341676 0.435782 1.583 255 255 255
0.399693 0.38773 1.167 0 0 0
0.837944 -0.711509 2.064 255 255 255
0.787719 -0.00635053 2.128 255 255 255
-0.359913 -0.272961 0.893 255 255 255
-0.463818 -0.0199458 0.886 255 255 255
-0.559135 0.413684 1.124 255 255 255
0.707732 -0.324057 2.32 255 255 255
0.778064 -0.374686 2.261 255 255 255
-0.385378 -0.129439 0.984 255 255 255
-0.293835 -0.312475 1.124 255 255 255
-0.385578 -0.290877 0.788 255 255 255
-0.294202 -0.383499 1.072 255 255 255
0.930136 -0.434324 2.121 255 255 255
-0.309993 -0.134309 1.273 255 255 255
0.0765764 0.546458 1.498 255 255 255
-0.382323 0.134808 1.252 255 255 255
-0.35818 0.0100212 1.192 255 255 255
-0.428108 0.253078 1.273 255 255 255
-0.364478 0.243159 1.477 255 255 255
-0.519592 0.467559 1.305 255 255 255
0.443035 0.160955 0.874 255 255 255
0.669073 -0.00278309 2.051 255 255 255
-0.0766199 0.0540167 1.646 255 255 255
-0.486752 0.135914 1.029 255 255 255
-0.401037 0.328125 1.47 255 255 255
0.657401 -0.351845 2.329 255 255 255
0.461707 0.516642 1.555 255 255 255
0.319642 -0.0118477 1.899 0 0 0
-0.171794 -0.068136 1.686 255 255 255
0.174906 -0.715599 1.905 255 255 255
-0.368923 0.262819 1.466 255 255 255
0.374336 0.335343 1.805 255 255 255
0.769232 -0.650287 2.051 255 255 255
-0.323395 -0.275393 0.957 255 255 255
-0.28319 -0.163144 1.322 255 255 255
-0.302942 0.407427 1.624 255 255 255
0.207431 -0.346266 2.479 255 255 255
-0.380279 -0.288851 0.793 255 255 255
0.171361 -0.660742 1.935 255 255 255
0.373076 0.437467 1.668 255 255 255
-0.326478 -0.0604826 1.289 255 255 255
0.40191 -0.442796 2.672 255 255 255
-0.261181 -0.131794 1.425 255 255 255
0.27606 0.49892 1.579 255 255 255
-0.112807 -0.426097 1.456 255 255 255
0.0726663 0.130335 1.629 255 255 255
-0.307695 0.38226 1.664 255 255 255
0.0451861 0.249608 1.595 255 255 255
0.594704 0.156115 1.387 0 0 0
-0.0616653 -0.522233 1.48 255 255 255
0.34757 -0.821518 2.286 255 255 255
-0.310696 0.402697 1.637 255 255 255
0.732908 -0.700441 2.071 0 0 0
0.883352 -0.543088 2.037 255 255 255
-0.0615715 0.17521 1.603 0 0 0
0.258079 -0.322838 2.582 255 255 255
0.603348 -0.0387077 2.01 255 255 255
-0.182718 -0.329152 1.359 255 255 255
-0.238899 -0.273893 1.327 255 255 255
0.63003 0.275327 1.941 255 255 255
-0.314995 -0.2485 1.141 255 255 255
-0.409582 0.10767 1.178 255 255 255
0.501115 0.0764798 1.018 255 255 255
-0.392447 0.184261 1.299 255 255 255
-0.49258 0.509411 1.378 255 255 255
0.146218 0.380921 1.682 255 255 255
0.635305 -0.719719 2.128 255 255 255
-0.509719 0.195756 1.018 255 255 255
-0.150076 0.249649 1.547 255 255 255
-0.394474 0.440534 1.528 255 255 255
0.505844 -0.406538 2.383 0 0 0
-0.52696 0.333865 1.114 255 255 255
0.559208 -0.57171 2.269 255 255 255
-0.0101802 -0.409869 1.739 255 255 255
0.487331 0.329426 1.821 255 255 255
-0.168571 -0.209611 1.555 255 255 255
0.143111 0.234486 1.616 0 0 0
-0.240092 -0.308444 1.265 255 255 255
0.18628 0.282029 1.559 255 255 255
-0.496927 0.281988 1.124 255 255 255
0.409307 0.191295 0.857 255 255 255
-0.218134 0.107386 1.603 255 255 255
-0.443793 -0.0471418 0.91 255 255 255
0.132041 0.551184 1.491 255 255 255
0.379011 0.0244784 1.842 255 255 255
0.0724906 0.0175902 1.753 255 255 255
-0.269014 -0.412108 1.083 255 255 255
-0.372159 0.138073 1.302 255 255 255
-0.421607 0.0196429 1.081 255 255 255
-0.258381 -0.309396 1.244 255 255 255
-0.279125 0.0723744 1.579 255 255 255
0.966528 -0.634017 2.01 255 255 255
0.212876 0.498865 1.587 255 255 255
0.129905 -0.590579 1.882 255 255 255
