ply
format ascii 1.0
comment Created by Open3D
element vertex 1317
property double x
property double y
property double z
property uchar red
property uchar green
property uchar blue
end_header
-0.700014 -0.864154 2.449 255 255 255
-0.0437684 0.40446 1.724 255 255 255
0.199479 0.219165 1.563 255 255 255
-0.207071 0.500212 1.559 255 255 255
0.0704359 0.537463 1.579 255 255 255
-0.274214 0.567342 1.47 255 255 255
0.248344 -0.145933 1.322 255 255 255
0.36608 0.108987 0.891 255 255 255
0.357953 0.0521911 0.967 255 255 255
0.67132 -0.349981 1.445 255 255 255
0.552886 -0.33916 1.449 255 255 255
-0.221124 -0.204505 2.136 255 255 255
-0.61841 0.481481 1.516 255 255 255
-0.513934 -0.803815 2.278 255 255 255
-0.623151 -0.464864 1.682 255 255 255
0.197689 -0.803666 2.509 0 0 0
0.688236 -0.355068 1.466 255 255 255
-0.0366622 -0.656292 2.347 255 255 255
-0.602829 -0.0024927 1.837 255 255 255
0.493655 0.000264167 0.977 255 255 255
-0.623909 0.461978 1.567 255 255 255
0.206115 0.158352 0.648 255 255 255
-0.611741 -0.846501 2.479 255 255 255
0.386981 -0.119347 1.114 255 255 255
0.28182 -0.165744 1.26 255 255 255
0.459491 -0.280421 1.348 255 255 255
-0.382643 0.0617132 1.637 0 0 0
-0.0360465 0.369524 1.758 255 255 255
0.338098 0.0745414 0.951 255 255 255
0.345697 -0.316713 1.412 255 255 255
0.200403 0.1874 0.65 255 255 255
-0.495111 -0.692949 2.329 255 255 255
-0.615344 -0.300146 1.319 255 255 255
0.204492 0.199062 0.63 255 255 255
-0.615265 -0.537458 1.456 255 255 255
-0.280697 0.244925 1.633 0 0 0
0.266974 0.0620287 1.185 255 255 255
0.206465 -0.109211 1.403 255 255 255
-0.698732 -0.699432 2.338 255 255 255
-0.653948 -0.0981676 1.442 255 255 255
-0.256138 0.437054 1.646 255 255 255
0.300458 0.119944 0.64 255 255 255
0.250525 0.137934 1.208 255 255 255
0.155481 -0.198725 1.724 255 255 255
0.23386 0.184416 0.629 255 255 255
-0.505289 0.124392 1.587 255 255 255
-0.611547 -0.143942 1.198 255 255 255
-0.587752 -0.368633 2.55 255 255 255
-0.0578332 -0.737088 2.278 255 255 255
0.427388 -0.696365 1.87 0 0 0
-0.619283 -0.211046 1.249 255 255 255
-0.640677 -0.0860198 1.327 255 255 255
0.276365 -0.629907 1.899 255 255 255
0.284856 -0.181863 1.302 255 255 255
0.329255 -0.161937 1.187 255 255 255
-0.530882 0.15893 1.571 255 255 255
-0.00237708 -0.373959 2.449 255 255 255
-0.456221 0.530808 1.502 255 255 255
-0.330391 0.209863 1.629 255 255 255
0.356125 -0.170583 1.18 255 255 255
-0.412804 0.169569 1.599 255 255 255
0.181104 -0.828162 2.347 0 0 0
0.438099 -0.0174187 0.988 255 255 255
0.268138 0.182657 0.623 255 255 255
-0.589437 0.135062 1.591 255 255 255
-0.64985 0.178303 1.257 255 255 255
0.165973 0.265852 0.716 255 255 255
0.239597 0.152518 0.62 255 255 255
0.621567 -0.495281 1.629 255 255 255
0.425554 0.110757 0.882 255 255 255
0.339426 0.0931728 0.921 255 255 255
0.257147 -0.19004 1.393 255 255 255
-0.506402 0.358478 1.528 255 255 255
-0.206214 0.554343 1.48 255 255 255
-0.675379 0.31942 1.463 255 255 255
-0.626587 -0.641482 1.769 255 255 255
0.212898 0.146666 0.643 255 255 255
0.165283 0.393225 1.463 255 255 255
-0.520538 -0.41851 2.43 255 255 255
-0.550306 -0.847815 2.338 255 255 255
0.230306 0.312416 1.27 255 255 255
0.611001 -0.393903 1.505 255 255 255
-0.0873213 -0.617483 2.374 255 255 255
0.0869569 0.0290897 2.189 255 255 255
-0.405685 -0.34179 2.338 0 0 0
0.259239 0.116302 0.626 255 255 255
0.227573 0.171505 0.623 255 255 255
0.31299 0.0707229 0.984 255 255 255
-0.613661 -0.212159 1.187 255 255 255
-0.459106 0.0201047 1.724 255 255 255
0.108038 0.506503 1.603 255 255 255
-0.50635 0.236448 1.543 255 255 255
-0.278567 0.193172 1.668 255 255 255
0.0225784 0.0957551 2.166 255 255 255
-0.0860935 -0.497504 2.449 255 255 255
-0.435054 0.00334567 1.763 255 255 255
-0.622039 -0.46139 1.65 255 255 255
0.273639 0.136719 1.048 255 255 255
0.256545 0.153367 1.147 255 255 255
-0.619789 0.452716 1.173 255 255 255
-0.445201 -0.117618 2.017 0 0 0
-0.329525 -0.615142 2.365 255 255 255
0.742478 -0.776156 1.997 255 255 255
0.359326 -0.237889 1.273 255 255 255
0.297719 -0.129417 1.208 255 255 255
-0.534926 -0.079582 1.893 255 255 255
0.542448 -0.654183 1.837 255 255 255
-0.264622 0.339676 1.616 255 255 255
0.26137 -0.707911 1.997 255 255 255
-0.65347 -0.0420502 1.372 255 255 255
0.799939 -0.558245 1.734 255 255 255
-0.645328 -0.142338 1.539 255 255 255
0.132503 0.0389235 1.966 255 255 255
0.427346 -0.259725 1.31 255 255 255
0.542139 -0.141281 1.192 0 0 0
0.223857 0.251943 1.257 0 0 0
0.798904 -0.388168 1.571 255 255 255
-0.317881 0.268651 1.409 255 255 255
-0.374095 0.550816 1.477 255 255 255
0.137839 0.304001 1.865 255 255 255
0.229703 0.345711 1.378 255 255 255
-0.290378 -0.112862 1.991 255 255 255
-0.613661 -0.202501 1.187 255 255 255
-0.720684 -0.618928 2.626 255 255 255
0.500184 -0.184862 1.237 255 255 255
0.612783 -0.214288 1.319 255 255 255
-0.58371 -0.337481 1.122 255 255 255
0.97531 -0.748396 2.092 255 255 255
0.613317 -0.291802 1.425 0 0 0
-0.625556 -0.200471 1.327 255 255 255
0.28492 0.157059 0.622 255 255 255
-0.635226 -0.480272 1.769 255 255 255
-0.0586632 -0.405138 2.469 255 255 255
0.23634 0.231809 0.647 255 255 255
-0.301591 0.547285 1.487 255 255 255
0.511218 -0.295929 1.369 255 255 255
-0.348002 0.176262 1.637 255 255 255
0.215088 0.188083 0.631 255 255 255
0.312459 0.193282 0.652 255 255 255
0.211779 0.171552 1.283 255 255 255
0.449259 0.0274338 0.928 0 0 0
0.200044 -0.0849044 1.456 255 255 255
-0.6295 -0.282738 1.513 255 255 255
0.391428 0.115585 0.886 255 255 255
-0.178696 0.503989 1.555 255 255 255
0.299105 0.0877448 0.96 255 255 255
-0.158307 -0.277111 2.338 255 255 255
0.175103 0.41342 1.372 255 255 255
-0.545716 -0.0203068 1.826 255 255 255
0.199334 0.122007 1.624 0 0 0
0.386569 -0.179019 1.185 255 255 255
-0.686861 -0.899695 2.459 0 0 0
0.258542 0.107213 1.173 255 255 255
-0.62262 -0.093932 1.182 255 255 255
0.500575 -0.0384216 1.034 255 255 255
-0.599393 0.231955 1.452 255 255 255
0.331679 0.171163 0.665 255 255 255
-0.32972 0.257866 1.551 0 0 0
0.246434 -0.0970682 1.247 255 255 255
0.282418 0.219206 0.644 255 255 255
-0.627716 -0.178877 1.327 255 255 255
-0.597216 -0.790854 2.469 255 255 255
-0.594664 -0.0916129 1.887 0 0 0
-0.0818749 -0.124442 2.329 255 255 255
0.235577 0.167086 1.265 255 255 255
0.211221 -0.309274 1.655 255 255 255
-0.44348 -0.232929 2.278 255 255 255
0.311383 0.0240443 1.043 255 255 255
0.225459 0.219887 0.646 255 255 255
0.36193 0.175642 0.714 255 255 255
0.850746 -0.54978 1.734 255 255 255
0.373421 0.0820641 0.931 255 255 255
-0.612473 -0.23907 1.196 255 255 255
-0.584258 0.437985 1.591 255 255 255
-0.524692 0.437985 1.591 255 255 255
-0.605784 0.505083 1.491 255 255 255
0.283917 0.119422 0.951 255 255 255
0.26194 0.0996051 1.13 255 255 255
0.415807 -0.24813 1.294 255 255 255
-0.692223 -0.474224 2.099 255 255 255
-0.194179 0.167436 1.739 255 255 255
0.271512 0.246071 0.643 255 255 255
0.395234 0.138822 0.869 0 0 0
0.397039 0.0577599 0.955 255 255 255
-0.611803 -0.309708 1.176 255 255 255
0.0428461 -0.419264 2.53 255 255 255
0.179081 0.32567 1.459 255 255 255
-0.275191 0.401215 1.664 255 255 255
-0.614834 -0.251808 1.22 255 255 255
-0.272842 0.102819 1.7 0 0 0
0.335359 0.0969267 0.914 255 255 255
-0.0696033 -0.580641 2.43 255 255 255
0.402648 0.0730522 0.932 255 255 255
0.252509 0.177708 0.627 255 255 255
0.0484984 -0.214337 2.402 255 255 255
-0.634403 -0.18656 1.384 255 255 255
-0.283998 0.1796 1.668 255 255 255
0.156383 -0.208343 1.734 255 255 255
-0.459944 0.501308 1.539 255 255 255
-0.651822 0.106831 1.422 255 255 255
0.310097 -0.525474 1.71 255 255 255
-0.276055 0.234869 1.637 0 0 0
0.0131035 -0.661325 2.365 255 255 255
0.31462 0.217463 0.661 255 255 255
0.228766 -0.715355 2.085 255 255 255
-0.164773 -0.140294 2.22 255 255 255
-0.603901 0.192505 1.595 255 255 255
-0.661061 -0.0216199 1.351 255 255 255
0.0914855 -0.838871 2.303 255 255 255
-0.637214 -0.344966 1.799 255 255 255
0.124637 -0.44424 2.604 255 255 255
-0.712135 -0.366799 2.626 255 255 255
-0.152939 0.359915 1.753 255 255 255
-0.618955 -0.593562 1.587 255 255 255
-0.631693 0.520936 1.403 0 0 0
-0.671431 0.237223 1.47 255 255 255
-0.663399 0.224099 1.432 255 255 255
-0.443029 -0.819476 2.22 255 255 255
-0.652885 -0.103064 1.551 255 255 255
-0.605554 -0.528901 1.579 255 255 255
0.266797 0.206277 0.627 255 255 255
-0.646604 0.396856 1.624 255 255 255
-0.63012 0.515501 1.452 255 255 255
0.401424 -0.521172 1.696 255 255 255
0.552857 -0.439322 1.599 255 255 255
0.173938 -0.0628541 1.769 255 255 255
-0.396537 0.539892 1.48 255 255 255
0.231188 -0.303803 1.571 255 255 255
0.0954158 -0.151132 2.22 0 0 0
-0.676557 -0.802918 2.572 0 0 0
0.462585 -0.145161 1.192 0 0 0
-0.517842 -0.879773 2.312 255 255 255
-0.624674 -0.191389 1.339 255 255 255
-0.625455 -0.454119 1.624 255 255 255
0.67082 -0.353308 1.449 255 255 255
0.280818 -0.0220884 1.147 255 255 255
0.210338 -0.154706 1.513 255 255 255
0.220489 0.178501 1.273 255 255 255
-0.5173 0.253339 1.509 255 255 255
-0.113596 0.40049 1.719 255 255 255
-0.605983 -0.32019 1.322 255 255 255
0.275494 -0.0749351 1.156 255 255 255
-0.33215 0.363063 1.516 255 255 255
-0.246267 -0.128453 2.143 0 0 0
0.195034 -0.646373 2.582 255 255 255
-0.633502 0.48232 1.299 255 255 255
0.28547 0.0866477 0.983 255 255 255
0.218122 -0.168986 1.466 255 255 255
0.00552965 -0.566437 2.42 255 255 255
0.186957 0.180061 0.674 255 255 255
-0.488572 0.282358 1.432 255 255 255
0.457322 -0.0802553 1.1 255 255 255
-0.4949 -0.0868302 1.917 255 255 255
-0.117946 0.563316 1.491 255 255 255
-0.275538 0.0155362 1.848 255 255 255
-0.596076 0.505083 1.491 255 255 255
-0.0829535 0.575692 1.473 255 255 255
0.594778 -0.456953 1.579 255 255 255
-0.69401 0.410767 1.547 255 255 255
-0.676769 0.359194 1.633 255 255 255
0.148957 0.151361 1.972 255 255 255
0.0384063 -0.391287 2.509 0 0 0
-0.356885 -0.464046 2.42 255 255 255
-0.216735 -0.0752827 1.941 255 255 255
0.582778 -0.21941 1.324 255 255 255
0.269776 0.104376 0.634 0 0 0
0.211763 0.304813 1.439 0 0 0
-0.453604 0.236448 1.543 255 255 255
0.265961 -0.118146 1.234 255 255 255
-0.136352 -0.144425 2.228 255 255 255
-0.40121 -0.847217 2.189 255 255 255
0.169773 -0.343655 2.519 0 0 0
-0.621442 0.00916607 1.779 255 255 255
0.233295 -0.0806542 1.31 255 255 255
-0.0392623 0.358453 1.774 255 255 255
0.326456 0.198101 0.661 0 0 0
-0.634693 0.0519487 1.22 255 255 255
0.216766 0.171372 1.616 0 0 0
-0.635333 -0.194102 1.406 255 255 255
0.0558502 0.490852 1.603 255 255 255
-0.340442 0.513637 1.509 255 255 255
0.300382 -0.197148 1.305 255 255 255
0.0563184 -0.151795 2.402 0 0 0
-0.665573 0.0594646 1.452 255 255 255
0.257348 0.142199 0.619 255 255 255
-0.47844 -0.0541252 1.865 255 255 255
0.240373 0.207006 1.187 255 255 255
0.31678 0.0206695 1.044 255 255 255
-0.665129 -0.0199389 1.387 255 255 255
-0.598935 -0.431879 1.302 255 255 255
-0.624354 0.339776 1.227 255 255 255
0.245105 -0.388907 1.595 255 255 255
-0.0234104 0.438778 1.673 255 255 255
-0.278775 -0.633842 2.392 255 255 255
0.494387 0.00340519 0.966 0 0 0
-0.652207 -0.0960571 1.52 255 255 255
-0.00634019 -0.515529 2.44 255 255 255
-0.687999 -0.853655 2.253 255 255 255
-0.63786 -0.611636 1.826 255 255 255
0.33772 0.0250505 1.015 255 255 255
0.124908 0.254906 0.728 255 255 255
-0.339177 0.199749 1.633 255 255 255
-0.485142 -0.606594 2.392 255 255 255
-0.431865 0.214241 1.583 255 255 255
-0.57359 0.448663 1.583 255 255 255
-0.675607 0.303298 1.551 255 255 255
-0.608121 -0.297319 1.18 255 255 255
0.422155 -0.225813 1.275 255 255 255
0.301632 -0.563111 1.758 0 0 0
0.418434 -0.375681 1.491 255 255 255
0.413959 0.050572 0.937 255 255 255
0.419504 -0.0361349 1.017 255 255 255
-0.624007 -0.0656301 1.192 255 255 255
0.636576 -0.261702 1.342 255 255 255
-0.0559783 -0.102881 2.356 255 255 255
0.274672 0.116946 1.039 255 255 255
-0.681115 -0.447144 2.672 255 255 255
0.267717 -0.948333 2.44 0 0 0
0.170988 0.158946 1.739 255 255 255
0.0015483 -0.635805 2.356 255 255 255
-0.146056 0.37402 1.739 255 255 255
0.65076 -0.244894 1.322 255 255 255
0.233687 -0.145916 1.362 255 255 255
-0.303336 0.50254 1.52 255 255 255
-0.406097 0.469271 1.583 255 255 255
0.351698 0.109476 0.895 255 255 255
-0.665281 0.414166 1.599 255 255 255
-0.63492 0.216859 1.232 255 255 255
1.08735 -0.809199 2.173 255 255 255
-0.131011 -0.731587 2.261 255 255 255
-0.731906 -0.266355 2.449 255 255 255
-0.403294 -0.18042 2.181 255 255 255
0.197689 -0.558688 2.509 255 255 255
1.08382 -0.833952 2.173 255 255 255
0.899839 -0.627734 1.865 255 255 255
-0.658745 -0.0570257 1.682 255 255 255
0.169194 0.405939 1.416 255 255 255
-0.563539 0.148008 1.591 255 255 255
0.796584 -0.565515 1.739 0 0 0
0.200151 -0.474247 2.392 0 0 0
0.366706 -0.0183531 1.041 255 255 255
0.208263 0.196699 0.629 255 255 255
0.245912 0.238089 1.124 255 255 255
0.151871 0.0182124 1.815 0 0 0
0.368664 -0.0844452 1.108 0 0 0
-0.143128 0.273809 1.887 255 255 255
-0.453624 0.0955793 1.624 0 0 0
0.223133 0.111494 0.684 0 0 0
-0.624764 0.280263 1.22 255 255 255
0.294528 -0.0529282 1.128 255 255 255
-0.72107 -0.49601 2.312 255 255 255
0.0846938 -0.488974 2.55 255 255 255
-0.465716 0.349109 1.509 255 255 255
-0.590479 0.21672 1.477 255 255 255
-0.218201 0.529771 1.513 255 255 255
-0.690523 -0.746179 2.593 0 0 0
0.204303 -0.0552542 1.487 255 255 255
0.344168 -0.509868 1.686 255 255 255
-0.612471 -0.379122 1.422 255 255 255
-0.683071 -0.216393 2.051 255 255 255
0.253507 -0.0304641 1.262 255 255 255
0.0689925 -0.0630888 2.303 255 255 255
-0.67596 -0.179358 2.01 255 255 255
0.648111 -0.340499 1.425 0 0 0
-0.0390189 0.367706 1.763 255 255 255
-0.639622 0.0985668 1.587 255 255 255
0.331591 0.208583 0.667 0 0 0
-0.345474 -0.125822 1.991 255 255 255
-0.377641 0.536626 1.491 255 255 255
-0.583143 -0.398679 2.53 255 255 255
0.25094 0.132255 1.21 255 255 255
0.3842 0.0561469 0.954 255 255 255
0.410431 0.103766 0.896 255 255 255
0.239953 0.288058 1.498 0 0 0
0.236653 -0.114325 1.305 0 0 0
0.196206 0.137524 1.62 0 0 0
0.644725 -0.444692 1.563 255 255 255
-0.15992 -0.590066 2.42 255 255 255
-0.644903 -0.300376 1.696 255 255 255
-0.643569 -0.297416 1.664 255 255 255
-0.677118 0.368028 1.412 255 255 255
0.0369062 -0.309304 2.411 255 255 255
0.274453 -0.609524 1.865 255 255 255
-0.395785 -0.663931 2.347 255 255 255
-0.605383 -0.463894 2.572 255 255 255
-0.596365 -0.836257 2.449 255 255 255
0.335135 -0.447481 1.591 255 255 255
0.149819 0.199584 1.826 255 255 255
-0.650168 -0.243063 1.575 255 255 255
-0.685923 0.366689 1.563 255 255 255
0.148652 -0.133109 1.71 255 255 255
-0.19701 0.0627285 1.739 255 255 255
-0.630979 0.474045 1.244 255 255 255
0.487143 -0.379513 1.516 255 255 255
0.650729 -0.54165 1.691 255 255 255
-0.615593 0.259161 1.187 255 255 255
-0.0295777 -0.314651 2.392 255 255 255
0.591526 -0.180098 1.26 255 255 255
0.340657 0.241373 0.683 255 255 255
0.220639 0.0598688 1.406 255 255 255
0.213932 0.0841235 1.47 255 255 255
-0.603752 -0.45789 1.498 255 255 255
-0.0221365 -0.541097 2.43 255 255 255
-0.627645 -0.238361 1.384 255 255 255
-0.165644 0.520104 1.528 255 255 255
0.161081 0.487914 1.513 255 255 255
0.0641383 -0.601312 2.402 255 255 255
-0.652885 -0.12578 1.551 255 255 255
0.440588 0.0544939 0.901 255 255 255
0.268901 -0.0592304 1.22 0 0 0
-0.671092 0.456669 1.409 255 255 255
0.257019 -0.435856 1.655 255 255 255
-0.652229 -0.147578 1.784 255 255 255
0.509249 -0.339161 1.439 255 255 255
-0.577175 0.279608 1.505 255 255 255
-0.683879 0.383477 1.393 255 255 255
-0.188881 0.0797367 1.947 255 255 255
0.601302 -0.363491 1.452 255 255 255
0.432103 -0.0174363 0.989 255 255 255
0.119276 0.233249 1.959 255 255 255
0.21389 0.317411 1.422 0 0 0
-0.617795 -0.560007 1.705 255 255 255
-0.210126 -0.154505 2.166 255 255 255
-0.65769 0.166692 1.4 255 255 255
-0.552182 -0.659729 2.43 255 255 255
-0.706875 -0.739631 2.459 255 255 255
0.297376 -0.057917 1.118 255 255 255
0.333378 -0.0118994 1.07 255 255 255
-0.296646 0.420315 1.633 255 255 255
-0.365759 0.165202 1.633 255 255 255
-0.045305 0.434369 1.677 255 255 255
0.576072 -0.122785 1.182 0 0 0
-0.405907 -0.141941 2.085 0 0 0
0.15176 -0.311877 2.561 0 0 0
-0.622549 -0.615251 1.583 255 255 255
0.271729 -0.131038 1.242 0 0 0
0.544645 -0.280334 1.369 255 255 255
0.231708 0.263436 1.1 255 255 255
-0.301006 -0.265776 2.212 255 255 255
-0.131996 -0.0290405 2.278 255 255 255
0.28583 0.113693 0.942 255 255 255
0.0093985 -0.33942 2.402 255 255 255
-0.1741 0.217309 1.959 255 255 255
-0.633515 0.343836 1.249 255 255 255
0.465118 -0.00287684 0.964 255 255 255
-0.040925 0.469998 1.612 255 255 255
-0.547129 0.249048 1.559 255 255 255
-0.65522 0.0521803 1.673 255 255 255
0.216177 -0.209611 1.555 255 255 255
0.217535 0.193606 1.305 255 255 255
0.256807 0.176859 1.085 255 255 255
0.270489 0.0723406 1.135 255 255 255
-0.299912 -0.750837 2.286 255 255 255
0.00720735 0.333225 1.842 255 255 255
0.34111 -0.202979 1.237 255 255 255
-0.687374 -0.306387 2.55 255 255 255
-0.610695 0.195713 1.579 255 255 255
-0.3989 0.00632393 1.794 255 255 255
-0.231781 -0.55296 2.43 255 255 255
0.224727 -0.0689931 1.375 255 255 255
0.549658 -0.29885 1.393 255 255 255
0.155028 0.492597 1.551 255 255 255
0.433085 -0.342889 1.435 255 255 255
0.196198 -0.213322 1.642 255 255 255
0.371776 0.0485874 0.958 255 255 255
0.00921852 -0.681813 2.356 255 255 255
-0.19086 0.20991 1.551 255 255 255
-0.303323 -0.289078 2.312 255 255 255
-0.624737 -0.139089 1.26 255 255 255
-0.411135 -0.307854 2.204 255 255 255
-0.359138 0.517173 1.505 255 255 255
-0.267939 -0.0839726 1.923 255 255 255
0.212949 -0.0813396 1.357 0 0 0
0.335933 -0.535071 1.714 255 255 255
0.187143 0.192227 0.663 255 255 255
-0.637933 0.51642 1.422 255 255 255
0.179275 0.429225 1.387 255 255 255
0.136195 0.249137 0.725 255 255 255
0.325191 0.0348576 1.012 255 255 255
0.238389 0.219206 0.644 255 255 255
-0.662252 0.0560583 1.487 255 255 255
0.120966 0.0483882 2.099 255 255 255
0.260561 0.134782 1.132 255 255 255
1.00608 -0.807125 2.158 255 255 255
0.521467 -0.145892 1.198 0 0 0
-0.536156 0.457807 1.579 255 255 255
-0.196585 -0.834521 2.212 255 255 255
0.118383 -0.758404 2.392 255 255 255
-0.107394 0.152058 2.024 255 255 255
-0.405846 0.508822 1.524 255 255 255
-0.354257 0.132986 1.629 255 255 255
0.399895 0.133778 0.873 255 255 255
0.160421 0.289321 1.659 255 255 255
-0.339859 -0.434855 2.411 255 255 255
0.233213 0.305533 1.21 255 255 255
0.441408 -0.646348 1.815 255 255 255
0.641616 -0.267259 1.348 255 255 255
0.373047 -0.0514139 1.059 255 255 255
-0.327758 0.268816 1.422 255 255 255
-0.62982 -0.40621 1.7 255 255 255
-0.669505 -0.744254 2.071 255 255 255
0.254742 0.218542 0.63 255 255 255
0.735263 -0.571286 1.748 255 255 255
0.081772 -0.721221 2.347 255 255 255
-0.65186 -0.332225 1.929 255 255 255
-0.125468 0.29903 1.853 255 255 255
-0.681003 0.47644 1.47 0 0 0
0.449406 -0.429774 1.583 255 255 255
0.426846 -0.337468 1.422 255 255 255
0.307981 -0.121019 1.165 255 255 255
-0.187494 0.215906 1.655 255 255 255
-0.604915 -0.542238 1.551 255 255 255
-0.465808 0.305136 1.463 255 255 255
-0.743651 -0.368088 2.312 255 255 255
0.290635 0.122171 0.63 255 255 255
0.283776 0.111422 0.633 0 0 0
-0.276679 0.188306 1.673 255 255 255
0.177583 -0.189556 1.668 255 255 255
-0.152552 -0.703334 2.253 255 255 255
-0.208413 0.186005 1.629 255 255 255
0.310548 0.0367209 1.018 255 255 255
-0.243618 0.466208 1.599 255 255 255
0.142507 0.128556 2.017 255 255 255
0.277052 0.149009 0.618 0 0 0
-0.392477 0.561939 1.456 255 255 255
-0.622203 0.354248 1.215 255 255 255
0.118821 -0.0368201 1.763 255 255 255
-0.63823 0.480555 1.283 255 255 255
0.241254 0.20163 1.201 255 255 255
-0.121845 0.0223565 2.228 255 255 255
-0.424946 -0.50946 2.449 255 255 255
-0.153312 0.260098 1.899 255 255 255
0.127052 0.454824 1.682 255 255 255
0.384234 -0.0062826 1.007 255 255 255
-0.516995 0.52785 1.48 255 255 255
-0.191888 0.190447 1.978 255 255 255
0.284727 -0.260064 1.429 255 255 255
-0.581163 0.240818 1.555 255 255 255
0.18287 -0.55513 2.53 255 255 255
0.115838 0.00351646 1.853 255 255 255
-0.640841 -0.337876 1.65 255 255 255
-0.229651 0.0876907 1.729 255 255 255
-0.0926521 0.492229 1.599 255 255 255
0.0538702 -0.272548 2.469 0 0 0
-0.329176 -0.139627 2.051 255 255 255
-0.376581 -0.404974 2.42 255 255 255
0.466933 -0.0141024 0.981 255 255 255
-0.541559 -0.122952 1.997 0 0 0
0.149408 0.255342 1.821 255 255 255
-0.638155 -0.439909 1.65 255 255 255
0.336808 -0.408467 1.551 255 255 255
-0.0245458 -0.177945 2.286 255 255 255
-0.630115 0.0202797 1.739 255 255 255
0.539527 -0.357732 1.477 0 0 0
-0.279656 0.0995225 1.691 0 0 0
0.0156569 0.57236 1.502 255 255 255
-0.689624 -0.381354 2.638 255 255 255
-0.387461 0.361548 1.52 255 255 255
0.408175 -0.459405 1.624 255 255 255
-0.213471 0.0519705 1.758 255 255 255
0.239809 -0.152229 1.359 255 255 255
0.125691 0.371043 1.779 255 255 255
-0.298308 -0.0681126 1.917 0 0 0
-0.426182 0.32796 1.491 255 255 255
-0.0518444 0.327436 1.81 255 255 255
0.239139 -0.101164 1.273 255 255 255
-0.589582 -0.317586 2.54 255 255 255
0.282112 -0.033665 1.16 255 255 255
-0.478721 0.497589 1.543 255 255 255
-0.456022 -0.0741191 1.911 255 255 255
0.0185443 0.362358 1.779 255 255 255
0.4699 0.0243872 0.927 255 255 255
0.278391 -0.589473 1.831 255 255 255
-0.6118 -0.0204291 1.837 255 255 255
-0.0495243 0.400006 1.729 255 255 255
-0.0751539 -0.283078 2.356 0 0 0
-0.00496561 0.258632 1.911 255 255 255
1.00593 -0.724944 2.064 255 255 255
-0.307911 -0.77444 2.236 255 255 255
0.355318 -0.304602 1.378 0 0 0
0.0444028 -0.139486 2.392 0 0 0
0.404747 -0.0466537 1.03 255 255 255
0.619073 -0.810359 2.085 255 255 255
0.292372 -0.418914 1.543 255 255 255
0.827723 -0.565515 1.739 0 0 0
-0.365973 0.258935 1.513 0 0 0
-0.519961 0.345139 1.524 255 255 255
0.235194 0.283539 1.252 0 0 0
0.242633 -0.162971 1.375 255 255 255
0.9742 -0.84767 2.181 255 255 255
0.0711195 -0.679295 2.374 255 255 255
0.297518 -0.179669 1.257 255 255 255
-0.643189 0.0533113 1.252 255 255 255
0.174143 0.218351 0.684 255 255 255
0.294859 0.128476 0.927 255 255 255
-0.0221365 -0.367103 2.43 255 255 255
0.153146 0.347892 1.668 255 255 255
0.00682389 0.380772 1.744 255 255 255
0.256174 0.205539 0.631 255 255 255
0.202935 0.188093 0.638 255 255 255
-0.639913 0.102948 1.575 255 255 255
0.223977 0.183684 0.63 255 255 255
-0.740524 -0.388747 2.519 255 255 255
0.0212076 -0.595718 2.411 255 255 255
-0.672997 0.259901 1.463 255 255 255
-0.614292 -0.377318 1.215 255 255 255
-0.335554 0.490056 1.543 255 255 255
0.206219 0.148876 0.687 255 255 255
-0.616695 -0.207478 1.252 255 255 255
0.434797 -0.66614 1.837 255 255 255
-0.685498 -0.760023 2.269 255 255 255
-0.662439 -0.0528361 1.637 255 255 255
-0.649943 -0.250067 1.509 255 255 255
-0.23355 0.414451 1.696 255 255 255
-0.66631 -0.0323089 1.547 255 255 255
0.234646 0.180779 1.26 255 255 255
0.103006 -0.455023 2.593 255 255 255
-0.640488 -0.065736 1.354 255 255 255
0.179597 -0.940492 2.43 255 255 255
0.609985 -0.180098 1.26 255 255 255
-0.643079 0.0832783 1.642 255 255 255
0.462795 -0.0763964 1.096 255 255 255
0.412465 -0.542227 1.719 0 0 0
-0.686309 0.420273 1.466 255 255 255
-0.261773 0.119417 1.7 0 0 0
-0.695402 -0.847934 2.392 255 255 255
-0.609814 -0.484378 1.646 255 255 255
0.259045 0.182079 0.628 255 255 255
0.28415 0.127962 0.957 255 255 255
-0.155569 0.403287 1.719 255 255 255
0.358284 0.0824166 0.935 255 255 255
0.300457 0.206122 0.649 255 255 255
0.201344 0.223703 0.633 255 255 255
-0.566129 0.166131 1.591 255 255 255
-0.186798 -0.525096 2.411 255 255 255
0.229885 -0.71465 2.338 0 0 0
-0.365485 0.195522 1.62 255 255 255
0.638507 -0.636631 1.821 255 255 255
-0.42061 0.394161 1.551 255 255 255
-0.483685 0.210993 1.559 255 255 255
-0.743545 -0.589459 2.572 255 255 255
-0.606755 -0.396736 1.319 255 255 255
-0.611145 -0.338602 1.31 255 255 255
-0.541456 0.447214 1.587 255 255 255
0.23677 -0.56138 1.929 255 255 255
0.32004 0.100229 0.917 255 255 255
-0.669825 0.279638 1.532 255 255 255
0.45065 -0.671942 1.853 255 255 255
-0.661438 -0.0244002 1.384 255 255 255
0.731689 -0.383518 1.532 255 255 255
-0.656119 -0.0421393 1.452 255 255 255
-0.730445 -0.454784 2.392 255 255 255
0.261061 -0.0626708 1.249 0 0 0
0.31462 0.216387 0.661 255 255 255
0.194047 0.135221 1.624 0 0 0
0.287363 0.113693 0.942 255 255 255
0.28759 -0.138003 1.232 0 0 0
-0.482953 -0.0509258 1.859 255 255 255
0.467955 -0.0953163 1.13 255 255 255
0.220731 0.0743737 1.378 255 255 255
-0.597069 -0.372987 1.13 255 255 255
0.286229 0.0943853 0.964 255 255 255
0.573631 -0.708523 1.911 255 255 255
0.212694 0.137048 0.652 255 255 255
0.0868516 0.244494 1.947 255 255 255
-0.218134 0.300423 1.603 255 255 255
-0.611032 0.0351222 1.774 0 0 0
0.227064 -0.691365 2.43 0 0 0
-0.608697 -0.497188 1.463 255 255 255
0.252829 0.173435 1.182 255 255 255
-0.194317 0.0877115 1.848 0 0 0
-0.508975 0.189718 1.551 255 255 255
-0.104544 0.425586 1.664 255 255 255
-0.053781 -0.572732 2.43 255 255 255
0.130779 0.106101 2.092 255 255 255
0.469847 -0.481641 1.655 255 255 255
-0.336418 0.521031 1.502 255 255 255
-0.652835 -0.0396434 1.366 255 255 255
0.362934 -0.0609376 1.075 255 255 255
-0.378127 -0.647307 2.356 255 255 255
-0.0364637 0.134738 2.114 255 255 255
0.188289 -0.258213 1.691 255 255 255
-0.300128 0.252203 1.595 0 0 0
0.0130038 -0.1445 2.347 255 255 255
-0.195184 0.100033 1.748 255 255 255
0.334763 0.188523 0.669 255 255 255
0.273749 0.0620912 1.055 255 255 255
0.194237 0.226743 0.63 255 255 255
0.230129 0.258746 1.194 0 0 0
-0.0652218 0.448446 1.629 255 255 255
0.255363 -0.0133785 1.203 255 255 255
0.390246 0.00187684 0.989 0 0 0
0.0920415 0.272774 1.923 255 255 255
-0.633462 -0.663348 1.805 255 255 255
0.402276 0.135044 0.872 255 255 255
-0.0855752 0.24542 1.905 255 255 255
-0.647396 0.143185 1.31 255 255 255
0.308345 0.0190796 1.05 255 255 255
0.293637 -0.187063 1.294 255 255 255
-0.321748 0.523475 1.502 255 255 255
-0.680696 0.445317 1.439 255 255 255
0.302616 0.102415 0.937 255 255 255
0.177526 0.232425 0.64 255 255 255
-0.608539 -0.532469 1.516 255 255 255
-0.330532 0.419264 1.579 255 255 255
-0.672271 -0.931218 2.479 0 0 0
-0.346881 -0.143383 2.057 255 255 255
0.0857959 0.566341 1.532 255 255 255
-0.650401 -0.158745 1.779 255 255 255
-0.6319 -0.458216 1.784 255 255 255
0.209017 -0.390093 1.905 255 255 255
-0.524493 -0.398738 2.43 255 255 255
-0.556956 0.204452 1.587 255 255 255
0.393331 -0.086935 1.072 255 255 255
0.533537 -0.515355 1.686 0 0 0
0.32504 -0.0137299 1.077 255 255 255
-0.608769 0.37057 1.185 255 255 255
0.246364 0.12921 1.257 255 255 255
0.291311 -0.10932 1.182 255 255 255
0.130744 -0.111793 1.769 255 255 255
0.0532375 -0.324936 2.44 255 255 255
0.236932 0.125048 0.629 255 255 255
0.375677 0.0471266 0.96 255 255 255
0.0014747 0.0407757 2.244 255 255 255
-0.39811 0.140507 1.624 0 0 0
-0.238001 0.491211 1.579 255 255 255
-0.295071 -0.410601 2.43 255 255 255
-0.615336 -0.21341 1.194 255 255 255
-0.528445 0.134044 1.579 255 255 255
0.0938284 -0.808024 2.269 255 255 255
0.222273 -0.859229 2.338 0 0 0
-0.155793 0.362768 1.753 255 255 255
0.220804 0.105894 1.351 255 255 255
-0.612152 0.393542 1.173 255 255 255
0.0154637 0.372385 1.758 255 255 255
0.252717 0.132339 0.62 255 255 255
-0.657398 0.0179136 1.348 255 255 255
0.319542 0.170742 0.647 0 0 0
0.63665 -0.614302 1.799 255 255 255
0.102171 -0.296474 2.572 0 0 0
-0.697083 -0.528551 2.212 255 255 255
-0.632946 -0.310822 1.739 255 255 255
-0.424562 0.498879 1.547 255 255 255
-0.609646 -0.298622 1.267 255 255 255
0.773458 -0.423113 1.587 255 255 255
0.214722 0.151279 0.636 255 255 255
0.487325 -0.0914763 1.128 255 255 255
-0.725298 -0.440524 2.278 255 255 255
0.370004 -0.0132072 1.036 0 0 0
-0.256675 0.257947 1.452 255 255 255
-0.571764 0.525242 1.466 255 255 255
0.364205 -0.26673 1.313 255 255 255
-0.634602 -0.12329 1.31 255 255 255
0.317861 -0.179082 1.225 255 255 255
0.261076 -0.634739 1.923 255 255 255
-0.190798 0.375767 1.734 255 255 255
0.279928 0.187523 1.046 255 255 255
0.224736 -0.358335 1.696 255 255 255
0.21812 0.125402 1.348 255 255 255
-0.147082 -0.425227 2.469 255 255 255
0.0344254 0.430523 1.705 255 255 255
-0.65282 -0.303542 2.561 255 255 255
0.221295 0.081892 1.354 255 255 255
-0.687618 -0.82968 2.228 255 255 255
-0.0840844 -0.717356 2.286 255 255 255
-0.593802 -0.0510902 1.865 255 255 255
0.142136 0.312242 1.842 255 255 255
0.632493 -0.306089 1.416 0 0 0
-0.619348 0.426935 1.225 255 255 255
0.25233 0.239064 1.12 255 255 255
0.0324754 -0.254334 2.374 255 255 255
-0.256773 0.337935 1.633 255 255 255
-0.334781 0.0546074 1.664 0 0 0
-0.685298 -0.712953 2.078 255 255 255
0.225412 -0.792596 2.593 0 0 0
0.157646 0.210971 1.748 255 255 255
0.197439 0.217176 1.567 255 255 255
-0.637275 -0.211494 1.463 255 255 255
0.253641 -0.0284452 1.362 0 0 0
0.175183 0.194145 0.697 255 255 255
-0.445024 0.149961 1.612 255 255 255
0.0147024 0.164099 2.051 255 255 255
1.01888 -0.692894 2.01 0 0 0
0.242057 0.200341 1.205 255 255 255
0.447828 -0.462048 1.624 255 255 255
-0.66957 -0.663664 1.991 255 255 255
0.319316 0.188265 0.653 0 0 0
-0.511675 0.395677 1.567 255 255 255
-0.361374 0.328835 1.484 255 255 255
-0.604184 0.31389 1.147 255 255 255
-0.135271 -0.550498 2.402 255 255 255
-0.22618 0.390433 1.724 255 255 255
0.161081 0.463293 1.513 255 255 255
-0.692216 0.432304 1.543 255 255 255
-0.360152 -0.799121 2.244 255 255 255
-0.265327 -0.203739 2.128 255 255 255
0.152675 -0.106143 1.724 255 255 255
0.197178 -0.0158828 1.673 0 0 0
-0.59902 -0.591544 1.624 255 255 255
-0.619972 0.170448 1.583 255 255 255
0.353995 0.123254 0.879 255 255 255
0.250904 0.191203 1.173 255 255 255
-0.448347 -0.7077 2.303 255 255 255
-0.688188 -0.654524 2.649 255 255 255
-0.72369 -0.324379 2.561 255 255 255
0.343148 -0.11811 1.137 255 255 255
0.262053 0.166436 0.623 255 255 255
-0.355862 -0.352731 2.44 255 255 255
0.149869 0.387627 1.724 255 255 255
-0.68479 0.355162 1.473 255 255 255
-0.492559 0.397211 1.563 255 255 255
0.626839 -0.255229 1.354 0 0 0
-0.439937 0.19778 1.575 255 255 255
-0.416615 0.098222 1.624 0 0 0
-0.593122 0.429136 1.587 255 255 255
-0.406845 -0.290445 2.181 255 255 255
0.260282 0.197325 0.631 255 255 255
-0.190492 0.264669 1.784 255 255 255
0.563519 -0.0906738 1.141 255 255 255
0.218471 0.134318 0.644 255 255 255
0.0483024 0.424974 1.705 255 255 255
0.15858 0.210179 0.709 255 255 255
0.912147 -0.617664 1.853 255 255 255
-0.699479 -0.406711 2.121 255 255 255
-0.50672 -0.30424 2.402 0 0 0
0.262733 0.0330687 1.257 255 255 255
0.342019 -0.425039 1.575 255 255 255
-0.648957 -0.016272 1.714 255 255 255
0.205546 -0.328744 1.744 255 255 255
0.0209522 0.193528 2.01 255 255 255
0.227573 0.169477 0.623 255 255 255
-0.0901026 0.524233 1.555 255 255 255
-0.0714277 0.354667 1.784 255 255 255
-0.610242 0.363 1.173 255 255 255
0.282374 0.170248 1.024 255 255 255
-0.237727 0.456882 1.612 255 255 255
0.375127 -0.451981 1.607 255 255 255
0.150229 0.194172 1.831 255 255 255
-0.148219 -0.220266 2.189 255 255 255
0.329684 0.174436 0.661 255 255 255
-0.636113 -0.627741 1.821 255 255 255
0.255706 -0.456006 1.7 0 0 0
0.292156 0.128615 0.928 255 255 255
0.179866 0.143967 1.664 255 255 255
0.319855 0.12141 0.908 255 255 255
0.227052 0.0960221 1.336 255 255 255
-0.313389 -0.718943 2.303 255 255 255
0.119574 0.556857 1.583 255 255 255
0.218734 -0.00948317 1.52 255 255 255
-0.259361 0.337047 1.616 255 255 255
0.292227 -0.373254 1.491 255 255 255
-0.0609813 -0.308149 2.402 0 0 0
0.612839 -0.245225 1.372 255 255 255
-0.396193 0.205483 1.595 255 255 255
0.489828 -0.485424 1.668 255 255 255
-0.0735363 0.44532 1.637 255 255 255
0.338498 0.0824166 0.935 255 255 255
0.575553 -0.376008 1.502 255 255 255
0.340377 -0.0787506 1.104 255 255 255
0.543896 -0.469306 1.659 255 255 255
-0.689868 0.387369 1.505 255 255 255
0.159058 0.389401 1.494 255 255 255
-0.608375 -0.307165 1.227 255 255 255
-0.137332 -0.134507 2.244 255 255 255
-0.0162028 0.555382 1.509 255 255 255
-0.554372 0.134723 1.587 255 255 255
0.246192 0.062746 1.322 255 255 255
-0.31311 0.457255 1.595 255 255 255
-0.666214 -0.00475991 1.595 255 255 255
0.0165429 0.50403 1.587 255 255 255
-0.614209 -0.80131 2.489 255 255 255
0.259695 0.106561 1.187 255 255 255
0.664813 -0.22795 1.299 255 255 255
0.267186 0.101944 1.077 255 255 255
-0.644947 0.110601 1.232 255 255 255
-0.598708 0.410534 1.595 255 255 255
0.171774 -0.214184 1.691 255 255 255
-0.544185 0.101659 1.595 255 255 255
-0.658196 0.398515 1.62 255 255 255
0.390147 0.0487396 0.961 255 255 255
-0.0211344 -0.0409021 2.32 255 255 255
-0.0218814 -0.335511 2.402 255 255 255
-0.656144 0.0428802 1.535 255 255 255
0.280407 0.13438 1.005 255 255 255
0.318377 0.114022 0.908 255 255 255
0.177848 -0.301121 1.972 255 255 255
-0.627405 -0.391279 1.563 255 255 255
-0.648639 -0.230446 1.559 255 255 255
0.100147 0.0922303 2.166 255 255 255
0.0571413 0.19092 2.017 255 255 255
-0.00805099 0.282621 1.905 255 255 255
0.198897 0.180549 0.652 255 255 255
0.494472 -0.29881 1.372 255 255 255
-0.374207 0.537606 1.487 255 255 255
-0.566658 0.256816 1.459 255 255 255
0.00397358 0.38534 1.739 255 255 255
-0.612766 -0.547575 1.439 255 255 255
-0.639835 -0.266731 1.52 255 255 255
-0.0420568 -0.782546 2.228 255 255 255
-0.646076 -0.127553 1.456 255 255 255
0.267693 -0.236147 1.425 255 255 255
0.392028 0.0760855 0.932 255 255 255
0.127825 0.231986 0.738 255 255 255
0.155427 0.471093 1.555 255 255 255
-0.207157 0.483503 1.579 255 255 255
0.62079 -0.197134 1.291 0 0 0
0.0093985 -0.601312 2.402 255 255 255
0.243585 0.106781 1.308 255 255 255
0.336797 0.112766 0.898 255 255 255
0.139327 0.18987 1.972 255 255 255
-0.109747 -0.0179193 2.278 255 255 255
-0.299476 0.50515 1.513 255 255 255
0.202333 0.154916 0.689 255 255 255
-0.658708 -0.0400777 1.463 255 255 255
0.248286 -0.157227 1.345 255 255 255
0.158536 0.194232 0.714 255 255 255
-0.535216 -0.0831866 1.905 255 255 255
-0.660004 0.240839 1.381 255 255 255
0.278351 -0.429431 1.563 255 255 255
-0.656237 0.0935649 1.547 255 255 255
-0.544026 0.251514 1.543 255 255 255
0.249927 0.0389927 1.319 255 255 255
-0.654404 -0.145775 1.664 255 255 255
-0.24118 0.482151 1.583 255 255 255
-0.729845 -0.264512 2.469 255 255 255
-0.420198 0.535186 1.487 255 255 255
0.562786 -0.447807 1.583 255 255 255
0.214685 0.0831022 1.412 255 255 255
0.412844 -0.71805 1.887 255 255 255
-0.682394 0.284858 1.494 255 255 255
-0.655308 0.162644 1.445 255 255 255
-0.19575 0.162602 1.779 255 255 255
0.308627 0.237514 0.669 255 255 255
-0.385864 0.0388673 1.686 0 0 0
0.720343 -0.760022 1.972 255 255 255
-0.245605 0.319689 1.595 255 255 255
0.43652 -0.696365 1.87 0 0 0
0.253092 0.222996 0.631 255 255 255
0.105152 0.177969 2.057 255 255 255
-0.651295 -0.593642 1.882 255 255 255
0.474227 -0.178643 1.222 0 0 0
-0.655445 0.159183 1.435 255 255 255
0.202324 0.177837 0.646 255 255 255
0.249287 0.146228 0.619 255 255 255
0.495285 -0.0349206 1.03 255 255 255
0.285396 -0.0449136 1.158 255 255 255
-0.404051 0.0175902 1.753 255 255 255
0.430795 -0.57412 1.714 255 255 255
-0.645301 -0.390796 2.615 255 255 255
-0.588246 0.481256 1.547 255 255 255
0.744535 -0.422476 1.575 255 255 255
-0.173863 0.372945 1.734 255 255 255
0.289267 -0.43308 1.567 255 255 255
0.21793 -0.514294 1.929 255 255 255
0.259666 0.236719 0.632 255 255 255
0.509724 -0.235752 1.319 0 0 0
-0.676095 -0.222516 2.449 255 255 255
0.250355 0.0472538 1.31 255 255 255
-0.612141 0.389903 1.203 255 255 255
0.15732 -0.929678 2.392 255 255 255
-0.682394 0.279995 1.494 255 255 255
-0.523652 0.0201047 1.724 255 255 255
0.0248404 -0.127327 2.383 255 255 255
-0.632707 0.0340807 1.22 255 255 255
0.339224 -0.0984684 1.124 0 0 0
-0.413217 -0.296016 2.196 255 255 255
-0.598389 -0.418982 1.227 255 255 255
-0.552673 0.530014 1.466 255 255 255
-0.705065 -0.205264 2.181 255 255 255
0.0560365 0.20976 1.978 255 255 255
-0.691299 0.438393 1.487 255 255 255
0.565996 -0.489722 1.637 255 255 255
0.395316 -0.247171 1.289 255 255 255
-0.626263 0.0934515 1.633 255 255 255
0.931956 -0.632068 1.887 0 0 0
-0.659185 0.0656887 1.384 255 255 255
0.579631 -0.435943 1.559 255 255 255
0.211949 0.21164 0.637 255 255 255
-0.139476 -0.830314 2.22 0 0 0
-0.524608 -0.262369 2.449 255 255 255
0.560659 -0.278297 1.381 255 255 255
-0.619675 -0.22988 1.31 255 255 255
-0.356777 -0.737868 2.269 255 255 255
0.582839 -0.595422 1.769 255 255 255
-0.379744 0.25825 1.509 0 0 0
-0.35426 0.246511 1.559 255 255 255
0.189587 0.182792 0.664 255 255 255
-0.297159 0.553219 1.477 255 255 255
0.161524 0.352825 1.616 255 255 255
0.315687 0.00204004 1.075 255 255 255
0.069069 0.489461 1.607 255 255 255
-0.312546 -0.180764 2.143 255 255 255
0.361823 -0.100476 1.126 0 0 0
0.725726 -0.742613 1.935 0 0 0
-0.64503 0.484169 1.509 255 255 255
0.3184 0.0140199 1.055 255 255 255
-0.32552 -0.0239157 1.876 255 255 255
-0.00145789 0.562583 1.502 255 255 255
0.47312 -0.019142 0.994 255 255 255
0.00622524 0.500123 1.591 255 255 255
-0.42419 -0.701201 2.294 255 255 255
-0.617771 0.473759 1.539 255 255 255
-0.537142 -0.912188 2.347 255 255 255
0.227385 -0.355059 1.655 255 255 255
0.278951 -0.0706186 1.147 255 255 255
-0.207457 0.507633 1.543 255 255 255
-0.644269 -0.0561283 1.739 255 255 255
-0.272482 0.384968 1.664 255 255 255
0.192059 -0.0465701 1.7 255 255 255
-0.48922 -0.254334 2.374 255 255 255
-0.0748668 -0.637195 2.347 255 255 255
0.443925 -0.15512 1.194 0 0 0
-0.136307 0.434057 1.655 255 255 255
-0.0662233 -0.134821 2.312 255 255 255
-0.633412 -0.717207 2.55 255 255 255
-0.308845 -0.055286 1.905 255 255 255
-0.356974 -0.719867 2.294 255 255 255
0.626669 -0.311224 1.429 0 0 0
-0.651905 0.0977089 1.273 255 255 255
0.157594 0.222429 0.715 255 255 255
0.139223 0.161379 2.017 255 255 255
0.272712 0.125138 1.051 255 255 255
0.650454 -0.194691 1.275 255 255 255
0.719506 -0.658005 1.831 255 255 255
-0.363088 0.499028 1.532 255 255 255
0.207194 -0.226515 1.603 0 0 0
-0.737409 -0.308149 2.402 255 255 255
-0.329762 0.532843 1.494 255 255 255
-0.634109 -0.401864 2.604 255 255 255
-0.631149 0.528873 1.412 0 0 0
-0.356543 0.546181 1.484 255 255 255
-0.188803 0.213976 1.62 255 255 255
0.675928 -0.65918 1.826 255 255 255
0.727803 -0.522387 1.691 0 0 0
-0.678089 -0.207446 1.997 255 255 255
-0.161558 0.273809 1.887 255 255 255
0.141255 -0.244774 2.32 0 0 0
0.0135268 0.301446 1.887 255 255 255
0.207479 0.356915 1.336 255 255 255
0.24753 0.19022 1.203 255 255 255
-0.435303 -0.337795 2.236 255 255 255
-0.325127 0.549324 1.473 255 255 255
0.576472 -0.336802 1.449 255 255 255
0.269161 -0.194677 1.362 255 255 255
-0.412176 0.272596 1.442 255 255 255
0.541931 -0.357732 1.477 0 0 0
0.152199 0.20555 0.717 255 255 255
-0.22179 -0.834521 2.212 255 255 255
-0.468573 0.28762 1.435 255 255 255
0.49794 -0.229003 1.305 255 255 255
-0.308724 0.116256 1.655 255 255 255
-0.614212 -0.279717 1.294 255 255 255
0.697671 -0.314328 1.422 255 255 255
0.0435718 0.0989132 2.158 255 255 255
0.244758 -0.340245 1.528 255 255 255
0.377784 -0.560174 1.714 0 0 0
-0.689321 0.364021 1.52 255 255 255
-0.598495 -0.405394 1.165 255 255 255
-0.479298 -0.0961889 1.917 255 255 255
0.11818 0.513046 1.599 255 255 255
-0.174352 0.51383 1.539 255 255 255
-0.617398 -0.122497 1.198 255 255 255
-0.378938 -0.737868 2.269 255 255 255
0.775682 -0.546609 1.724 255 255 255
-0.241205 0.256883 1.473 255 255 255
-0.223032 0.102819 1.7 255 255 255
0.177738 -0.355478 2.459 0 0 0
-0.252571 -0.616948 2.402 255 255 255
0.179753 0.386028 1.324 255 255 255
0.328546 -0.0312562 1.077 0 0 0
-0.275705 0.543905 1.491 255 255 255
-0.378137 -0.394784 2.43 255 255 255
0.262106 0.192749 1.085 255 255 255
0.218965 -0.331695 1.673 255 255 255
0.134574 0.3978 1.744 255 255 255
-0.66946 0.250256 1.435 255 255 255
-0.553898 0.238182 1.571 0 0 0
-0.236717 0.372516 1.719 255 255 255
0.0253303 -0.564823 2.43 255 255 255
0.427834 -0.738068 1.899 255 255 255
0.169233 0.445839 1.456 255 255 255
0.28721 0.171586 0.627 255 255 255
-0.164135 -0.672717 2.261 255 255 255
0.636466 -0.597105 1.774 0 0 0
-0.0976926 -0.34876 2.44 255 255 255
-0.605375 -0.492204 1.316 255 255 255
0.311879 -0.163134 1.225 0 0 0
0.447873 -0.14673 1.189 0 0 0
-0.658947 0.0381527 1.655 255 255 255
0.542016 -0.452867 1.629 255 255 255
0.196443 0.16722 0.658 255 255 255
-0.715046 -0.46463 2.269 255 255 255
-0.597785 -0.439445 1.234 255 255 255
0.2599 -0.00346772 1.162 255 255 255
-0.615773 0.434051 1.169 255 255 255
-0.636558 0.479062 1.524 255 255 255
0.112126 0.282179 0.722 255 255 255
0.366024 -0.503214 1.673 255 255 255
-0.476906 0.262426 1.425 255 255 255
-0.662076 -0.0422693 1.543 255 255 255
0.302634 0.169405 0.638 0 0 0
0.598034 -0.11642 1.176 0 0 0
0.0417112 0.362358 1.779 255 255 255
0.250011 0.231211 0.631 255 255 255
-0.486508 -0.0111926 1.794 255 255 255
0.0160859 0.0407757 2.244 255 255 255
-0.608727 -0.487672 1.435 255 255 255
-0.336522 0.471847 1.583 255 255 255
0.187063 0.215787 0.637 255 255 255
0.185911 0.245214 1.535 255 255 255
-0.43942 0.514907 1.52 255 255 255
-0.0225828 -0.435018 2.479 0 0 0
-0.0163883 0.351794 1.799 255 255 255
-0.192275 0.218535 1.887 255 255 255
0.180369 0.229983 0.639 255 255 255
0.0831665 0.26188 1.935 255 255 255
0.186632 -0.279091 1.753 255 255 255
0.286694 0.00208369 1.098 255 255 255
-0.183382 0.360905 1.744 255 255 255
-0.604872 0.490377 1.513 255 255 255
0.203521 -0.0400675 1.555 255 255 255
0.237036 0.234647 1.152 255 255 255
-0.00208783 0.102093 2.151 255 255 255
0.163224 0.247582 1.633 255 255 255
0.0517054 0.477287 1.637 255 255 255
-0.622742 0.532817 1.435 255 255 255
-0.644324 -0.0247835 1.724 255 255 255
-0.602486 -0.513438 1.571 255 255 255
0.289578 -0.0105948 1.116 255 255 255
-0.456721 0.212617 1.571 0 0 0
-0.504023 0.477278 1.567 255 255 255
-0.653232 0.0601298 1.595 255 255 255
0.443541 0.0828235 0.875 255 255 255
-0.475334 0.543214 1.463 255 255 255
-0.616372 -0.398801 1.505 255 255 255
-0.614367 0.385701 1.227 255 255 255
-0.654924 0.200437 1.308 255 255 255
-0.684491 -0.260632 2.509 255 255 255
-0.596262 -0.411175 1.139 255 255 255
0.0606842 0.463497 1.664 255 255 255
0.302697 0.0952972 0.942 255 255 255
0.224339 -0.577009 2.32 0 0 0
0.272051 0.189346 0.625 255 255 255
-0.680736 -0.706969 2.604 255 255 255
0.286094 0.0785389 1.002 255 255 255
-0.677373 -0.374936 2.024 255 255 255
0.228358 -0.659945 2.402 0 0 0
-0.193234 0.128047 1.959 255 255 255
-0.0656477 -0.568778 2.43 255 255 255
-0.17949 -0.0916967 2.269 255 255 255
0.361613 0.0549378 0.96 255 255 255
-0.340813 0.445752 1.591 255 255 255
0.140994 -0.48456 2.593 255 255 255
0.160149 0.272984 0.732 255 255 255
0.239739 0.18911 0.631 255 255 255
-0.702575 -0.888619 2.53 0 0 0
0.267743 0.09688 0.639 0 0 0
-0.178695 0.30325 1.842 255 255 255
-0.378284 0.546181 1.484 255 255 255
0.228781 -0.394923 1.748 255 255 255
0.435357 -0.564432 1.71 0 0 0
0.401294 -0.0377899 1.017 255 255 255
-0.651905 0.230291 1.273 255 255 255
-0.313553 -0.515241 2.42 255 255 255
0.262112 0.184123 0.628 255 255 255
-0.296632 -0.875084 2.261 255 255 255
-0.614556 0.349358 1.185 255 255 255
-0.613513 -0.276034 1.348 255 255 255
0.245515 0.220278 0.638 255 255 255
-0.621476 0.519216 1.351 255 255 255
0.196356 -0.350436 1.997 0 0 0
-0.341835 0.0748495 1.633 0 0 0
0.323912 0.0613636 0.988 255 255 255
-0.629491 0.0357704 1.21 255 255 255
-0.591287 0.476154 1.555 255 255 255
-0.652844 0.0630276 1.539 255 255 255
0.143477 0.103905 1.985 255 255 255
-0.715225 -0.60545 2.719 255 255 255
0.243585 -0.0698884 1.308 255 255 255
-0.161661 -0.0549899 2.278 255 255 255
0.525485 -0.340575 1.445 255 255 255
-0.63951 0.227804 1.237 255 255 255
0.218128 0.0682354 1.39 255 255 255
-0.0940664 -0.385915 2.449 255 255 255
0.54177 -0.493406 1.686 0 0 0
-0.597023 0.0854792 1.633 255 255 255
-0.326678 -0.00852224 1.848 255 255 255
-0.107283 0.368473 1.753 255 255 255
0.217667 0.240658 0.651 255 255 255
-0.662616 -0.249373 2.519 255 255 255
-0.723933 -0.413812 2.449 255 255 255
-0.693727 -0.759885 2.236 255 255 255
-0.615034 -0.189254 1.201 255 255 255
0.380269 -0.221106 1.26 255 255 255
0.315096 0.218869 0.662 255 255 255
0.855357 -0.693223 1.929 255 255 255
-0.0203692 -0.785356 2.236 255 255 255
-0.646121 -0.376991 1.744 255 255 255
0.270627 0.232008 0.636 255 255 255
0.683394 -0.79212 2.064 255 255 255
0.369396 0.0441855 0.964 255 255 255
-0.243828 0.15073 1.71 0 0 0
0.0204863 -0.222983 2.329 255 255 255
-0.265106 0.176051 1.686 255 255 255
0.485462 -0.0277503 1.013 255 255 255
-0.452851 -0.501489 2.449 255 255 255
-0.627783 -0.124934 1.262 255 255 255
-0.663211 0.0531335 1.473 255 255 255
0.3383 -0.717422 1.935 255 255 255
0.305351 -0.101815 1.141 255 255 255
-0.439621 0.273036 1.432 255 255 255
0.142095 0.243238 0.725 255 255 255
-0.0788868 0.0261688 2.244 255 255 255
0.0761913 -0.0777747 2.294 0 0 0
-0.523932 0.367019 1.543 255 255 255
-0.748703 -0.374391 2.561 255 255 255
-0.65299 0.000399359 1.477 255 255 255
-0.420156 0.51746 1.513 255 255 255
-0.129338 -0.280311 2.365 0 0 0
-0.375175 0.227121 1.583 255 255 255
-0.597607 0.107118 1.599 255 255 255
-0.139812 0.454862 1.633 255 255 255
-0.350257 -0.092778 1.911 255 255 255
-0.266222 0.512434 1.52 255 255 255
-0.592703 0.452668 1.579 255 255 255
0.147191 0.292291 0.751 255 255 255
0.101945 0.271883 0.742 255 255 255
-0.227143 0.225974 1.575 0 0 0
0.369197 0.0833098 0.928 255 255 255
0.307441 -0.092044 1.135 255 255 255
-0.6642 -0.935252 2.479 0 0 0
0.471751 -0.0600873 1.06 255 255 255
-0.654518 -0.190828 1.567 255 255 255
-0.159953 0.548896 1.498 255 255 255
-0.333431 -0.702941 2.312 255 255 255
-0.614061 -0.161936 1.173 255 255 255
-0.27339 0.237533 1.637 0 0 0
-0.665272 0.25416 1.333 255 255 255
-0.0718683 -0.157045 2.253 255 255 255
0.215303 -0.111264 1.372 255 255 255
-0.468116 -0.649779 2.365 255 255 255
0.280416 0.253474 0.654 255 255 255
0.183952 0.22408 0.637 255 255 255
0.267034 0.139668 1.098 255 255 255
-0.322336 0.16344 1.642 255 255 255
-0.574697 -0.879074 2.392 255 255 255
0.280856 0.113612 0.995 255 255 255
0.204992 -0.107833 1.547 255 255 255
0.662382 -0.422837 1.539 255 255 255
-0.597939 -0.421252 1.222 255 255 255
-0.623574 0.20134 1.47 255 255 255
-0.486567 0.0537214 1.637 0 0 0
0.339236 -0.048556 1.072 255 255 255
-0.380012 -0.419751 2.392 255 255 255
-0.330923 -0.881872 2.269 255 255 255
0.175244 -0.327833 2.32 0 0 0
0.437038 -0.214594 1.27 255 255 255
-0.64577 -0.254303 1.505 255 255 255
-0.370939 -0.178517 2.158 255 255 255
-0.511746 0.134383 1.583 255 255 255
-0.419578 -0.0578344 1.887 255 255 255
-0.599481 0.0437829 1.774 0 0 0
0.278938 0.0946912 1.036 255 255 255
0.367464 0.187142 0.718 255 255 255
-0.54282 0.116939 1.591 0 0 0
0.33316 -0.61671 1.789 255 255 255
0.132837 0.115147 2.071 255 255 255
0.0184995 0.544968 1.535 255 255 255
0.625009 -0.454638 1.571 255 255 255
-0.617186 -0.560961 1.513 255 255 255
-0.162103 0.383124 1.729 255 255 255
0.323188 0.246589 0.679 255 255 255
0.566073 -0.252465 1.351 255 255 255
-0.592088 0.0648045 1.719 255 255 255
0.537069 -0.25458 1.339 255 255 255
0.281802 0.123543 1.01 255 255 255
0.0408009 0.323075 1.87 255 255 255
-0.586824 0.24681 1.456 255 255 255
-0.256239 0.365632 1.7 255 255 255
0.263634 -0.0879161 1.205 255 255 255
0.662685 -0.253439 1.333 255 255 255
0.360125 -0.43086 1.587 255 255 255
-0.654862 -0.129225 1.532 255 255 255
-0.115721 -0.296423 2.402 0 0 0
-0.20532 0.548758 1.491 255 255 255
0.193178 0.187314 1.595 255 255 255
0.0707452 0.474554 1.646 255 255 255
0.266278 -0.37776 1.509 255 255 255
0.208594 0.201113 0.63 255 255 255
-0.573616 0.55617 1.429 255 255 255
-0.612723 -0.505876 1.691 255 255 255
0.785642 -0.45601 1.612 0 0 0
0.362969 0.0429704 0.972 255 255 255
-0.473057 -0.0899497 1.917 255 255 255
0.0732811 0.430523 1.705 255 255 255
-0.0685237 0.354667 1.784 255 255 255
0.584249 -0.298129 1.422 255 255 255
0.227176 0.125996 0.639 255 255 255
-0.638552 0.463312 1.305 255 255 255
0.619691 -0.336804 1.429 255 255 255
-0.17286 0.401655 1.724 255 255 255
-0.610157 -0.539594 1.406 255 255 255
-0.415519 -0.106061 1.985 255 255 255
-0.661407 -0.0809805 1.668 255 255 255
-0.0467948 -0.430984 2.479 0 0 0
-0.130203 -0.642742 2.312 255 255 255
0.186659 0.187434 0.669 255 255 255
-0.431278 -0.761996 2.253 255 255 255
-0.711352 -0.501554 2.269 255 255 255
0.124063 0.253231 0.73 255 255 255
-0.553354 -0.0976942 1.947 0 0 0
-0.711183 -0.774479 2.561 0 0 0
-0.634285 -0.541113 1.799 255 255 255
-0.0793733 0.23922 1.905 255 255 255
-0.175789 0.206542 1.978 255 255 255
-0.091795 0.18987 1.972 255 255 255
0.0937035 0.563919 1.539 255 255 255
