ply
format ascii 1.0
comment Created by Open3D
element vertex 1325
property double x
property double y
property double z
property uchar red
property uchar green
property uchar blue
end_header
0.168533 -0.427198 1.583 255 255 255
-0.747132 0.539736 1.473 255 255 255
0.606984 -0.659848 1.87 255 255 255
0.275727 -0.129485 1.173 0 0 0
0.517722 -0.386312 1.595 255 255 255
0.460653 -0.598107 1.821 255 255 255
-0.078949 0.187761 1.535 255 255 255
0.536692 0.604779 1.567 255 255 255
0.132094 -0.186249 1.26 255 255 255
0.235433 -0.661803 1.893 255 255 255
0.189816 -0.0903137 1.185 255 255 255
0.148524 0.197434 0.891 255 255 255
0.828363 -0.782546 2.228 255 255 255
0.410206 -0.0345719 1.128 255 255 255
0.236323 0.114591 0.857 255 255 255
-1.01893 -0.312058 2.402 0 0 0
0.661667 -0.476769 1.705 255 255 255
0.144356 0.073516 0.866 255 255 255
0.380216 -0.243392 1.387 0 0 0
0.137717 0.000303373 1.122 0 0 0
-0.734959 0.552164 1.449 255 255 255
-0.263759 -0.273002 1.769 0 0 0
0.347851 -0.118535 1.178 255 255 255
0.229971 0.105231 0.849 255 255 255
0.045258 0.346427 1.053 255 255 255
-0.697734 0.0659502 1.677 255 255 255
-0.12974 0.350355 1.748 255 255 255
0.233849 0.366846 0.988 255 255 255
-0.473987 0.0363299 2.196 255 255 255
0.0682545 0.0698401 1.294 255 255 255
0.46547 0.0679813 1.124 255 255 255
0.701356 -0.692824 1.991 255 255 255
-0.846137 -0.415238 2.411 255 255 255
0.672664 -0.51155 1.748 255 255 255
-0.134937 0.376833 1.779 255 255 255
0.0479497 0.227692 0.938 255 255 255
-0.617228 0.442994 1.563 255 255 255
0.159004 0.136973 0.832 255 255 255
-0.57826 0.022196 2.212 255 255 255
0.100942 0.106546 0.92 255 255 255
-0.604338 -0.585181 2.449 255 255 255
-0.912856 -0.485861 2.411 0 0 0
-0.0176205 -0.0668641 1.425 255 255 255
0.796467 -0.83461 2.261 0 0 0
0.137074 0.0481432 0.892 255 255 255
0.19579 -0.167044 1.21 255 255 255
-0.431457 0.476821 1.591 255 255 255
-0.726168 0.233802 1.494 255 255 255
-0.809848 0.103635 1.547 0 0 0
0.480831 0.0407609 1.13 255 255 255
0.430087 0.258592 1.167 0 0 0
0.14933 -0.369143 1.494 255 255 255
0.282554 -0.319283 1.466 0 0 0
-0.511892 0.436978 1.616 255 255 255
0.0232859 0.0563112 1.375 255 255 255
0.0519689 0.397222 1.124 255 255 255
0.103602 0.262101 0.904 255 255 255
0.0601315 0.191211 1.348 255 255 255
-0.495368 0.252089 1.473 255 255 255
0.590188 -0.259192 1.387 0 0 0
0.112373 0.0137841 1.182 255 255 255
0.148892 0.0183635 1.11 0 0 0
0.473536 0.00772208 1.139 255 255 255
-0.576281 -0.0560037 2.32 255 255 255
-0.653755 0.286301 1.452 255 255 255
0.063572 0.175605 0.921 255 255 255
0.184925 0.0070535 0.839 255 255 255
0.450216 0.552991 1.445 255 255 255
0.0756204 -0.0582773 1.242 255 255 255
-0.687596 0.374784 1.429 255 255 255
0.155827 0.208128 0.875 255 255 255
0.222857 -0.017606 0.843 0 0 0
0.480105 -0.560045 1.794 255 255 255
0.434248 -0.483447 1.739 255 255 255
0.0268538 -0.0580778 1.33 255 255 255
0.36913 0.0218574 1.104 255 255 255
-1.1669 -0.530647 2.236 255 255 255
0.472635 0.0388532 1.128 255 255 255
-0.565458 0.109187 1.758 255 255 255
-0.323798 0.349016 1.815 255 255 255
-1.14661 -0.551745 2.204 255 255 255
-0.738094 -0.616231 2.43 255 255 255
0.804478 0.572182 1.673 255 255 255
-0.326647 0.313106 1.865 255 255 255
0.387482 -0.517337 1.758 255 255 255
0.476168 0.157444 1.192 255 255 255
0.598536 0.377271 1.316 255 255 255
0.383838 -0.182871 1.265 255 255 255
0.136625 -0.566711 1.734 255 255 255
-0.190967 -0.454512 1.616 0 0 0
0.688206 0.619732 1.599 255 255 255
0.312946 -0.302056 1.452 255 255 255
-0.649964 0.333718 1.403 255 255 255
0.296699 -0.198926 1.289 255 255 255
0.416451 -0.0327943 1.13 255 255 255
-0.0187138 0.39608 1.198 0 0 0
-0.613423 0.294905 1.403 255 255 255
0.397521 -0.356094 1.532 0 0 0
-0.437918 -0.353489 2.092 255 255 255
-0.523278 0.524521 1.505 255 255 255
-0.125479 0.581468 1.494 255 255 255
0.16553 0.322022 0.974 255 255 255
0.582186 -0.624778 1.821 255 255 255
-1.02131 -0.258666 2.244 255 255 255
-0.697378 0.256981 1.516 255 255 255
-0.288417 -0.335341 1.779 255 255 255
0.0981478 0.323843 0.908 255 255 255
-0.715961 0.42228 1.473 255 255 255
0.437371 -0.513071 1.763 255 255 255
-0.693304 -0.47645 2.572 255 255 255
-1.09917 -0.35755 2.269 255 255 255
0.261628 -0.14262 1.187 0 0 0
-0.340008 0.455976 1.637 255 255 255
0.564 0.135764 1.189 255 255 255
-0.718648 0.121196 1.579 255 255 255
-1.12442 -0.523682 2.253 255 255 255
-0.48262 0.000604582 2.236 255 255 255
-0.881411 -0.5929 2.338 255 255 255
-0.620284 -0.545328 2.449 255 255 255
0.0794171 0.360832 0.931 255 255 255
-0.327428 -0.475459 1.887 0 0 0
0.368466 -0.342471 1.505 0 0 0
-0.420389 -0.246481 2.024 255 255 255
-0.706758 -0.295948 2.278 255 255 255
0.525773 -0.622249 1.831 0 0 0
-0.297105 -0.274546 1.779 255 255 255
-0.641162 0.315685 1.384 255 255 255
-0.397955 -0.556327 1.978 255 255 255
0.597521 -0.0152724 1.198 255 255 255
0.139547 -0.237051 1.291 255 255 255
-0.522691 0.307062 1.532 255 255 255
0.463361 0.284005 1.194 255 255 255
0.894311 -0.424579 1.753 0 0 0
0.440579 0.185445 1.185 255 255 255
0.465669 -0.140861 1.205 255 255 255
-0.643918 0.350546 1.425 255 255 255
-0.169699 0.333225 1.842 255 255 255
0.109141 0.215711 0.939 255 255 255
-0.179245 -0.338877 1.629 255 255 255
-0.497292 -0.292701 2.253 0 0 0
0.302994 -0.198926 1.289 255 255 255
-0.0462543 0.567348 1.528 255 255 255
0.0747615 -0.691646 1.882 255 255 255
-0.471502 0.427007 1.659 255 255 255
-0.0548425 -0.0359921 1.491 255 255 255
0.0159566 -0.156927 1.324 255 255 255
-0.710051 -0.535047 2.572 255 255 255
-0.904063 -0.170221 2.099 255 255 255
-0.212149 -0.167865 1.724 255 255 255
-0.369032 -0.00628786 2.107 255 255 255
0.584663 0.218717 1.22 255 255 255
0.57091 -0.640975 1.842 255 255 255
0.786969 -0.360221 1.583 255 255 255
0.0272778 -0.034811 1.351 255 255 255
0.18948 0.0165316 0.835 255 255 255
0.163459 0.142731 0.834 255 255 255
-0.147083 -0.120748 1.655 255 255 255
0.0305273 -0.143725 1.302 255 255 255
0.0479535 0.360663 1.075 255 255 255
0.7368 0.609417 1.62 255 255 255
-0.716896 0.270713 1.47 255 255 255
-0.7286 0.22894 1.494 255 255 255
-0.0980549 0.485269 1.646 255 255 255
-0.149325 -0.133808 1.65 255 255 255
-0.952522 -0.141465 2.078 255 255 255
0.0383586 0.225113 1.354 255 255 255
-0.633994 0.320005 1.393 255 255 255
0.467527 -0.0762183 1.147 0 0 0
0.889574 -0.763524 2.236 255 255 255
-0.704964 0.301517 1.381 255 255 255
0.127709 0.179037 0.908 255 255 255
-0.086915 -0.241781 1.459 0 0 0
-0.386485 0.444008 1.642 255 255 255
0.315283 -0.0750886 1.13 255 255 255
0.568762 0.0458938 1.167 0 0 0
-0.956251 -0.0498848 1.821 0 0 0
-0.707988 -0.813194 2.294 255 255 255
0.37282 -0.0455048 1.126 0 0 0
0.405169 -0.757671 2.017 255 255 255
-0.278203 -0.201568 1.826 0 0 0
0.568053 0.201172 1.21 255 255 255
0.743983 -0.843575 2.236 255 255 255
-0.031023 0.113668 1.513 0 0 0
0.217088 -0.421108 1.599 255 255 255
0.000952243 0.146588 1.449 0 0 0
0.0855929 0.244712 0.916 255 255 255
0.594117 0.35705 1.297 0 0 0
0.612806 -0.221274 1.362 0 0 0
-1.13464 -0.226559 2.181 255 255 255
0.66151 -0.165293 1.305 255 255 255
0.318511 -0.569354 1.805 255 255 255
0.26102 0.202902 0.909 255 255 255
0.217752 -0.190438 1.234 255 255 255
-0.395469 0.332406 1.805 255 255 255
0.566255 0.302358 1.254 0 0 0
0.32323 -0.578415 1.815 255 255 255
-0.684679 -0.763995 2.54 255 255 255
-0.297087 0.159664 2.037 255 255 255
0.0382212 -0.70185 1.893 255 255 255
0.331188 -0.54463 1.763 0 0 0
0.614657 0.0706839 1.201 255 255 255
-0.731122 0.0860857 1.595 0 0 0
0.441397 -0.150416 1.203 255 255 255
0.4992 0.263297 1.215 255 255 255
0.375076 -0.371053 1.532 0 0 0
-0.672371 -0.459708 2.572 255 255 255
0.429396 -0.0978468 1.16 0 0 0
-0.721779 -0.171024 2.244 255 255 255
0.149214 -0.243308 1.302 255 255 255
-1.06545 -0.11678 2.121 255 255 255
0.331183 -0.156029 1.201 0 0 0
0.342017 0.246724 1.059 255 255 255
-0.412936 0.569064 1.487 255 255 255
0.0786038 -0.199235 1.291 255 255 255
0.0781977 -0.570067 1.753 255 255 255
-0.337479 0.419425 1.705 255 255 255
0.301152 0.317538 1.037 255 255 255
-0.754936 0.483077 1.498 255 255 255
-0.245507 -0.0767653 1.826 0 0 0
-0.532312 0.566678 1.456 255 255 255
-0.073229 0.569325 1.52 255 255 255
-0.858188 -0.0479006 1.859 255 255 255
-0.461098 -0.494335 2.22 0 0 0
0.39775 -0.0760854 1.145 255 255 255
-0.612603 0.529277 1.484 255 255 255
-0.566508 -0.725654 2.374 0 0 0
0.652104 -0.328696 1.487 255 255 255
0.697915 0.419847 1.432 255 255 255
-0.518164 0.298495 1.579 255 255 255
-0.927496 -0.573234 2.32 255 255 255
0.450357 0.00583248 1.132 255 255 255
-0.235614 -0.349023 1.691 255 255 255
0.448389 -0.545311 1.784 255 255 255
0.169497 0.0833128 0.837 255 255 255
0.10945 0.0911763 0.916 255 255 255
-0.93829 -0.545531 2.347 255 255 255
-0.918075 -0.162844 2.092 255 255 255
0.579488 0.527927 1.487 255 255 255
-0.257125 -0.251994 1.763 0 0 0
-0.693872 0.20187 1.587 255 255 255
-0.828399 -0.261382 2.236 255 255 255
0.533952 -0.367444 1.559 255 255 255
-0.458573 -0.0288238 2.261 255 255 255
1.0097 -0.724535 2.228 255 255 255
-0.256144 0.474955 1.629 255 255 255
0.200224 -0.171406 1.213 255 255 255
-0.0602571 -0.0118387 1.505 255 255 255
-0.753835 0.500231 1.491 255 255 255
-0.648023 0.434607 1.516 255 255 255
-0.551978 -0.446596 2.329 0 0 0
0.260733 0.254395 0.908 255 255 255
0.464558 -0.201024 1.289 255 255 255
0.571319 -0.402294 1.607 255 255 255
0.130825 0.223031 0.889 255 255 255
-0.705904 0.22253 1.551 255 255 255
-0.67409 0.240739 1.571 255 255 255
0.508488 -0.208121 1.294 0 0 0
0.174742 0.172924 0.877 255 255 255
-0.142899 0.529755 1.579 255 255 255
0.193396 0.246864 0.871 255 255 255
0.385278 -0.500172 1.748 255 255 255
0.12126 0.206199 0.904 255 255 255
0.13443 -0.0626751 1.173 255 255 255
0.477449 -0.143415 1.21 255 255 255
0.429116 0.178902 1.18 255 255 255
0.0996259 0.307589 0.908 255 255 255
0.306531 0.175695 0.989 255 255 255
0.475855 -0.552662 1.789 255 255 255
0.100318 0.0829413 1.154 255 255 255
0.51588 0.494593 1.406 0 0 0
0.580706 -0.276718 1.419 255 255 255
0.14514 -0.0585563 1.167 255 255 255
-0.117602 0.216612 1.62 255 255 255
0.232645 0.246732 0.891 255 255 255
0.250949 0.0638717 0.869 255 255 255
-0.728597 -0.104722 2.312 255 255 255
-0.664463 0.171372 1.616 255 255 255
-0.794868 0.454701 1.509 255 255 255
-0.746284 0.288421 1.439 0 0 0
0.0808184 -0.132938 1.26 255 255 255
0.108631 -0.253883 1.324 255 255 255
0.160528 0.160147 0.862 255 255 255
0.552387 0.141569 1.189 255 255 255
-0.657473 0.09671 1.599 0 0 0
0.482671 0.0536331 1.13 255 255 255
-0.0359487 0.125979 1.513 0 0 0
0.235017 0.234605 0.889 255 255 255
-0.395789 0.497608 1.583 255 255 255
-0.114918 -0.568345 1.739 255 255 255
0.0772845 0.186014 0.906 255 255 255
-0.302282 -0.361803 1.81 255 255 255
-0.522964 0.56226 1.463 255 255 255
-0.711782 -0.76616 2.356 255 255 255
-0.682002 -0.511921 2.561 255 255 255
0.344104 -0.0547638 1.128 255 255 255
-0.680161 0.311046 1.354 255 255 255
-0.725674 0.507455 1.498 255 255 255
0.793418 0.588481 1.65 255 255 255
0.55355 0.407253 1.316 255 255 255
0.520803 -0.407801 1.629 255 255 255
0.355609 -0.652561 1.893 0 0 0
-0.886635 -0.687111 2.236 255 255 255
-0.326678 -0.351355 1.848 255 255 255
0.29235 -0.0591085 1.141 255 255 255
0.0698334 0.218209 0.905 255 255 255
-0.736039 0.426204 1.47 255 255 255
-0.17903 0.357877 1.815 255 255 255
-0.644277 0.507612 1.513 255 255 255
0.634422 -0.463482 1.677 255 255 255
0.958993 -0.622063 2.057 0 0 0
0.145132 -0.337499 1.452 0 0 0
0.562103 -0.0421041 1.185 0 0 0
-0.396472 0.316141 1.865 255 255 255
-1.03844 -0.352462 2.411 255 255 255
-0.484469 0.480615 1.595 255 255 255
0.144176 -0.365975 1.491 255 255 255
0.638756 -0.636839 1.865 0 0 0
0.118037 0.0286785 1.162 255 255 255
-0.7835 -0.150587 2.212 255 255 255
-0.788851 -0.602702 2.392 255 255 255
-0.706338 0.550356 1.463 255 255 255
-0.0500889 -0.0044585 1.494 255 255 255
0.74723 -0.714868 2.064 255 255 255
-0.518279 0.35623 1.763 255 255 255
-0.116733 0.418488 1.724 255 255 255
-0.51729 0.424691 1.65 255 255 255
0.0778123 0.0897738 1.278 255 255 255
-0.265761 0.130833 1.953 255 255 255
0.00962304 0.315408 1.094 255 255 255
-0.814874 -0.226099 2.143 255 255 255
-0.678282 0.392149 1.459 255 255 255
-0.44718 0.412662 1.7 255 255 255
-0.44269 -0.653625 2.051 255 255 255
0.69561 -0.373474 1.563 255 255 255
0.0636017 -0.561465 1.744 255 255 255
-0.278418 0.515597 1.575 255 255 255
-0.934254 -0.803641 2.121 255 255 255
-0.832524 -0.302574 2.329 0 0 0
0.452153 0.274151 1.185 255 255 255
-0.10712 0.433298 1.705 255 255 255
0.280256 -0.435204 1.603 255 255 255
0.0438083 -0.0425723 1.319 255 255 255
0.0761075 -0.293767 1.359 0 0 0
0.0983032 0.0943055 1.09 0 0 0
0.544803 -0.661965 1.876 255 255 255
-0.68846 -0.0713812 2.329 255 255 255
-0.588097 -0.0290405 2.278 255 255 255
0.347419 -0.548807 1.758 0 0 0
0.164213 0.033506 0.852 255 255 255
-0.544969 -0.0140563 2.253 255 255 255
-0.71919 -0.865457 2.294 255 255 255
0.482807 -0.0330555 1.139 255 255 255
-0.518351 0.553219 1.477 255 255 255
0.512228 -0.568803 1.794 255 255 255
-0.12318 -0.0154176 1.624 255 255 255
-0.310049 0.111021 2.057 255 255 255
-0.729416 -0.432116 2.509 0 0 0
-0.302428 0.210503 1.985 255 255 255
0.539464 -0.206903 1.313 255 255 255
0.387934 -0.0307363 1.122 255 255 255
-0.403804 0.184664 2.057 255 255 255
-0.710651 -0.742147 2.365 255 255 255
0.25926 -0.650493 1.887 255 255 255
0.22723 -0.111902 1.189 255 255 255
-0.653669 0.401284 1.484 255 255 255
0.0872213 0.192532 0.902 255 255 255
0.150992 -0.532261 1.705 0 0 0
-0.14804 -0.328476 1.579 255 255 255
-0.0413896 -0.114832 1.445 255 255 255
0.000897698 -0.248599 1.366 255 255 255
-0.0469871 0.240104 1.473 255 255 255
-0.232666 0.114405 1.842 255 255 255
0.0430194 0.208712 1.362 255 255 255
-0.992316 -0.584652 2.22 255 255 255
0.0519704 0.235836 0.928 255 255 255
0.732296 -0.77859 2.128 0 0 0
0.254466 -0.179374 1.227 255 255 255
0.654005 -0.197039 1.333 255 255 255
-0.0633801 -0.455535 1.583 0 0 0
0.38304 -0.396846 1.575 0 0 0
0.342084 0.287032 1.081 255 255 255
0.457445 0.367131 1.225 0 0 0
0.0137805 -0.137328 1.322 255 255 255
0.754054 -0.59346 1.911 0 0 0
-0.753835 0.517215 1.491 255 255 255
0.410433 0.319912 1.176 255 255 255
-0.381503 0.418733 1.691 255 255 255
-0.653152 0.447994 1.528 255 255 255
-0.038254 -0.170135 1.416 255 255 255
0.101085 -0.619288 1.805 255 255 255
0.0902628 0.312471 0.918 255 255 255
-0.972008 -0.472321 2.402 255 255 255
-0.768689 -0.616948 2.402 255 255 255
0.481359 0.575711 1.498 255 255 255
-0.143579 0.450743 1.677 255 255 255
0.661561 -0.299597 1.429 255 255 255
0.134321 0.152828 0.893 255 255 255
-0.661518 0.273708 1.513 255 255 255
-1.11189 -0.306692 2.303 0 0 0
-0.5771 -0.183066 2.402 255 255 255
0.641145 0.170215 1.273 255 255 255
0.195851 -0.00659979 0.839 0 0 0
0.212255 0.141319 0.85 255 255 255
-0.452479 0.487304 1.583 255 255 255
0.49641 -0.480684 1.719 255 255 255
-0.537977 0.519622 1.505 255 255 255
0.0799845 0.00439573 1.247 255 255 255
0.604645 0.0777172 1.189 255 255 255
0.733304 -0.299976 1.442 255 255 255
0.390195 -0.100336 1.167 255 255 255
0.190509 0.181744 0.858 255 255 255
0.0998812 -0.120933 1.242 255 255 255
0.558728 -0.26258 1.393 255 255 255
-1.08617 -0.706997 2.121 255 255 255
-0.374713 -0.350085 1.941 255 255 255
-0.815157 -0.669079 2.312 255 255 255
-0.561723 -0.459736 2.338 255 255 255
-0.977696 -0.0727929 1.959 0 0 0
-0.140821 0.57236 1.502 255 255 255
0.230418 0.178176 0.861 255 255 255
-0.697129 -0.845063 2.32 255 255 255
-0.387442 -0.753713 2.024 255 255 255
-0.482491 0.518839 1.539 255 255 255
0.419886 -0.550915 1.774 255 255 255
0.0412817 0.182012 1.378 255 255 255
0.112431 0.294465 0.904 255 255 255
0.428762 -0.524547 1.763 255 255 255
0.287444 -0.671206 1.911 255 255 255
0.735976 0.608279 1.624 255 255 255
-1.04291 -0.599103 2.22 255 255 255
0.693481 -0.309145 1.452 255 255 255
-0.241204 -0.145486 1.794 255 255 255
0.148403 -0.141144 1.242 255 255 255
-0.257809 0.24374 1.941 255 255 255
0.0812968 0.251221 0.918 255 255 255
-0.264928 -0.157942 1.837 255 255 255
0.507309 0.405819 1.291 255 255 255
-0.589062 0.022196 2.212 255 255 255
0.580544 0.310521 1.254 255 255 255
-1.1137 -0.488748 2.261 255 255 255
0.347961 0.26022 1.072 255 255 255
0.107134 0.123023 0.909 255 255 255
0.432988 0.333138 1.196 0 0 0
-0.923512 -0.647469 2.329 255 255 255
-0.623228 -0.648513 2.509 255 255 255
0.556348 -0.476497 1.714 255 255 255
0.128195 -0.166008 1.262 255 255 255
-0.17899 0.0117221 1.729 255 255 255
-0.230853 -0.723023 1.876 255 255 255
0.265099 0.21238 0.918 255 255 255
0.240317 0.291453 0.932 255 255 255
-0.0178307 0.00977633 1.442 255 255 255
0.670722 0.609757 1.607 255 255 255
0.595228 -0.328033 1.484 255 255 255
-0.643377 0.103665 1.714 255 255 255
-0.0628996 0.547523 1.571 255 255 255
-0.951905 -0.645749 2.244 255 255 255
0.62021 0.489509 1.452 0 0 0
-0.139618 0.532184 1.571 255 255 255
0.102022 -0.00940805 1.196 255 255 255
-0.891245 -0.135155 2.085 255 255 255
0.188067 -0.0135545 0.847 0 0 0
0.0199203 -0.720963 1.911 255 255 255
-0.1881 -0.723023 1.876 255 255 255
-0.516873 -0.831266 2.166 255 255 255
-0.0560563 -0.374075 1.524 255 255 255
-0.373851 -0.552474 1.953 255 255 255
-0.758911 -0.555558 2.459 255 255 255
-0.623383 -0.841632 2.43 0 0 0
-0.653063 -0.904885 2.338 0 0 0
-0.296339 0.398849 1.724 255 255 255
-0.48452 -0.438106 2.228 0 0 0
0.196317 -0.00935269 0.841 0 0 0
-0.653648 0.0871835 1.719 255 255 255
0.450943 0.200119 1.192 255 255 255
-0.316875 0.510471 1.575 255 255 255
-0.746052 -0.196803 2.166 255 255 255
-0.0225722 -0.00196078 1.445 255 255 255
-0.755284 0.108074 1.575 255 255 255
-0.66087 0.0632335 1.753 255 255 255
0.566916 -0.0305853 1.187 0 0 0
0.578715 0.29222 1.237 255 255 255
-0.346198 0.552806 1.502 255 255 255
-0.0736515 -0.204682 1.432 255 255 255
0.0863405 0.331053 0.924 255 255 255
-0.533069 0.496398 1.555 255 255 255
0.441251 -0.667074 1.917 255 255 255
0.182193 0.00978416 0.839 255 255 255
0.257488 0.360062 0.974 255 255 255
0.126708 -0.584331 1.753 255 255 255
-0.752728 0.295719 1.429 0 0 0
0.543515 -0.165664 1.244 255 255 255
-0.437288 -0.136688 2.057 255 255 255
-0.916522 -0.809324 2.136 255 255 255
-0.280051 -0.713345 1.899 255 255 255
0.0679908 -0.182145 1.289 0 0 0
0.410581 -0.00701256 1.124 255 255 255
-0.718373 0.0530224 1.7 255 255 255
-0.38097 0.507908 1.575 255 255 255
0.20262 0.223413 0.868 255 255 255
0.0249673 0.11199 1.345 255 255 255
0.205411 -0.0120611 0.839 0 0 0
-0.676034 0.0676019 1.719 255 255 255
-0.549007 0.478364 1.579 255 255 255
-0.255283 0.327164 1.876 255 255 255
-1.10286 -0.409244 2.269 255 255 255
0.3383 -0.685933 1.935 0 0 0
0.143007 -0.634534 1.815 255 255 255
-0.528659 0.287681 1.459 255 255 255
-0.730039 0.0985668 1.587 0 0 0
0.424152 0.0943722 1.156 0 0 0
-1.01765 -0.565005 2.228 255 255 255
-0.595592 0.0781497 1.705 255 255 255
0.0992287 0.124241 0.918 255 255 255
0.00795074 0.187205 1.435 255 255 255
0.456109 -0.213313 1.313 0 0 0
0.980742 -0.536445 1.941 0 0 0
0.173031 0.356299 0.999 255 255 255
-0.825418 -0.688896 2.278 255 255 255
0.249561 -0.472619 1.624 255 255 255
-0.715737 0.173825 1.567 255 255 255
-0.448073 0.390957 1.714 255 255 255
0.238745 0.375922 0.995 255 255 255
0.443662 0.375559 1.22 0 0 0
-0.390511 -0.176359 1.941 255 255 255
-0.773204 0.524376 1.477 255 255 255
-0.37703 -0.514336 1.953 255 255 255
0.0566746 0.334586 1.012 255 255 255
0.556701 -0.315384 1.459 255 255 255
-0.247658 -0.661958 1.842 255 255 255
-0.112257 -0.213952 1.48 0 0 0
-0.130842 -0.693484 1.887 255 255 255
-0.47748 0.193259 1.539 255 255 255
-0.581687 0.546927 1.473 255 255 255
0.172703 -0.20217 1.257 255 255 255
0.359007 0.407097 1.196 255 255 255
-0.0666235 -0.470547 1.599 0 0 0
0.227207 0.0554936 0.849 255 255 255
0.108255 0.315758 0.906 255 255 255
-0.928578 -0.162299 2.085 255 255 255
0.596578 0.165113 1.22 0 0 0
-0.0222598 0.260107 1.425 255 255 255
-0.953846 -0.0583861 1.905 0 0 0
-0.73714 0.238352 1.477 255 255 255
-0.595209 0.199175 1.696 255 255 255
-0.564032 0.344109 1.477 255 255 255
-0.631917 -0.503598 2.479 255 255 255
0.230816 -0.00662339 0.842 0 0 0
0.385419 -0.0069876 1.12 255 255 255
-0.605664 0.537339 1.473 255 255 255
-0.199266 -0.143442 1.734 255 255 255
0.00735236 -0.209109 1.327 255 255 255
-0.439351 -0.750417 2.051 255 255 255
-0.687821 0.183036 1.603 255 255 255
-0.0644719 -0.741137 1.923 255 255 255
-0.00608156 -0.35087 1.439 255 255 255
-0.784822 -0.448027 2.44 0 0 0
-0.114154 -0.180829 1.505 0 0 0
-0.581668 0.427628 1.591 255 255 255
-0.599991 0.312216 1.409 255 255 255
0.291874 -0.250237 1.375 255 255 255
-1.07999 -0.267948 2.143 255 255 255
0.389438 -0.122785 1.182 255 255 255
-0.583622 0.518548 1.509 255 255 255
-0.11978 0.0783138 1.65 0 0 0
-0.779255 -0.0114609 1.837 255 255 255
-0.186858 -0.625163 1.805 255 255 255
0.124727 -0.445231 1.583 255 255 255
0.363603 0.338745 1.149 255 255 255
-0.822744 -0.837488 2.173 255 255 255
0.390042 0.417251 1.22 255 255 255
-0.366881 0.440801 1.65 255 255 255
0.514287 -0.835219 2.158 255 255 255
-0.643569 0.162922 1.664 255 255 255
0.43666 -0.256935 1.387 255 255 255
-0.158828 -0.0135614 1.724 0 0 0
-0.072384 0.142128 1.555 255 255 255
0.0276032 -0.394032 1.487 255 255 255
0.156034 0.289889 0.927 255 255 255
-0.846599 -0.595183 2.347 255 255 255
0.170778 -0.332086 1.449 0 0 0
0.0180752 -0.552602 1.734 255 255 255
-0.660359 -0.158949 2.392 255 255 255
0.289291 0.191065 0.969 255 255 255
-0.198029 -0.00237194 1.748 255 255 255
-0.376321 -0.192896 1.917 255 255 255
0.0447011 -0.131188 1.283 255 255 255
-0.407665 -0.712519 2.01 255 255 255
-0.173221 0.0474895 1.7 255 255 255
0.317622 -0.63821 1.887 0 0 0
0.562967 -0.558257 1.779 255 255 255
-0.145206 0.00873842 1.696 0 0 0
-0.904453 -0.145822 2.092 255 255 255
-0.589636 0.537606 1.487 255 255 255
0.476016 0.118622 1.154 0 0 0
-0.289798 -0.688583 1.882 255 255 255
0.247621 -0.754384 1.991 255 255 255
0.55685 -0.390858 1.603 255 255 255
0.249689 -0.00533428 0.855 255 255 255
-0.139469 -0.0658325 1.629 255 255 255
0.238218 0.179832 0.869 255 255 255
0.193481 -0.374579 1.516 255 255 255
-0.562775 0.559238 1.449 255 255 255
0.0414336 -0.704074 1.899 255 255 255
-0.289488 0.569064 1.487 255 255 255
-1.07148 -0.248783 2.099 255 255 255
-0.478215 0.179906 2.004 255 255 255
0.584244 0.186186 1.215 0 0 0
0.603605 -0.293849 1.435 0 0 0
0.65253 0.224428 1.275 0 0 0
-0.422759 -0.625602 2.004 255 255 255
0.559106 0.395303 1.319 255 255 255
0.277231 -0.165484 1.213 255 255 255
0.554506 0.433982 1.339 255 255 255
-0.443985 0.167927 2.057 255 255 255
-0.622658 0.0935879 1.734 255 255 255
-0.14794 -0.277219 1.551 255 255 255
-0.75397 0.257581 1.477 255 255 255
0.538572 -0.652014 1.865 255 255 255
0.178096 0.0220721 0.839 255 255 255
0.181235 -0.0966665 1.192 255 255 255
0.210375 0.129947 0.848 255 255 255
0.398481 -0.0345106 1.126 0 0 0
-0.255957 -0.071249 1.837 0 0 0
0.104706 -0.224239 1.302 0 0 0
-0.816212 -0.094642 2.017 255 255 255
0.540962 -0.147667 1.229 255 255 255
0.0621388 -0.328319 1.393 255 255 255
0.0162097 -0.0740541 1.345 255 255 255
0.0849205 0.0598033 1.26 255 255 255
0.476905 -0.119642 1.189 255 255 255
0.359862 0.346224 1.149 255 255 255
-0.480324 0.312501 1.826 255 255 255
-0.439351 -0.673651 2.051 255 255 255
0.243204 -0.0552008 1.137 255 255 255
0.749193 0.539567 1.624 0 0 0
-0.0445894 0.0411482 1.473 255 255 255
-0.316052 0.193528 2.01 255 255 255
-0.746849 -0.491394 2.499 255 255 255
-0.16367 -0.689441 1.876 255 255 255
-0.692606 -0.16039 2.356 255 255 255
-1.06897 -0.179498 2.128 255 255 255
0.133314 0.271446 0.896 255 255 255
-0.0753006 -0.398909 1.563 255 255 255
0.569244 -0.282526 1.425 0 0 0
0.0463445 -0.442658 1.547 255 255 255
0.685803 -0.250237 1.375 0 0 0
-0.375422 0.485806 1.595 255 255 255
0.230784 0.0626222 0.852 255 255 255
0.0435165 0.223916 1.249 255 255 255
-1.09998 -0.744964 2.121 255 255 255
0.41442 -0.159167 1.21 255 255 255
-0.252138 0.519401 1.571 255 255 255
0.176482 -0.352925 1.477 0 0 0
0.119474 -0.527891 1.691 255 255 255
-0.525345 0.300374 1.463 255 255 255
-0.796794 0.101379 1.551 0 0 0
0.484872 0.387873 1.26 255 255 255
0.163945 0.323607 0.974 255 255 255
0.478245 0.138342 1.178 255 255 255
-0.896265 -0.297274 2.347 255 255 255
-0.392668 -0.45898 2.017 255 255 255
-0.872856 -0.306082 2.356 0 0 0
0.016752 0.0207337 1.39 255 255 255
-0.571903 0.1607 1.893 255 255 255
-0.108931 0.153817 1.571 255 255 255
0.162245 -0.626012 1.799 255 255 255
-0.666407 0.548851 1.459 255 255 255
0.0659199 0.286682 0.912 255 255 255
0.153674 -0.199328 1.252 0 0 0
-0.41676 0.326463 1.821 255 255 255
0.191851 -0.159167 1.21 255 255 255
-1.03048 -0.764563 2.099 255 255 255
-0.701327 0.00938247 1.821 255 255 255
0.21654 0.085204 0.856 255 255 255
0.334379 -0.0909917 1.145 255 255 255
0.000927928 0.00497736 1.412 255 255 255
0.411514 -0.0762183 1.147 255 255 255
-0.369773 0.511731 1.571 255 255 255
0.456956 -0.360226 1.539 0 0 0
-0.614267 0.022196 2.212 255 255 255
-0.136985 -0.714979 1.887 0 0 0
-0.860093 0.00890845 1.729 255 255 255
0.255192 0.0426594 0.869 255 255 255
-0.399485 0.570595 1.491 255 255 255
0.199819 0.178535 0.856 255 255 255
-0.837582 -0.147844 2.121 255 255 255
-0.607601 0.478497 1.571 255 255 255
0.773835 -0.555115 1.876 0 0 0
-0.951517 -0.758771 2.121 255 255 255
0.177035 0.0911574 0.834 255 255 255
-0.062707 0.211032 1.505 255 255 255
0.408491 -0.0800908 1.149 0 0 0
-0.172131 -0.172713 1.637 255 255 255
0.345061 -0.460753 1.677 255 255 255
-0.965582 -0.81819 2.114 255 255 255
-0.0976131 0.519549 1.595 255 255 255
0.773534 0.532187 1.642 0 0 0
-0.746733 0.200239 1.516 255 255 255
0.094982 0.270053 0.906 255 255 255
0.602205 0.373419 1.31 255 255 255
-0.133095 -0.133681 1.616 255 255 255
0.0678053 -0.105185 1.247 255 255 255
0.560446 -0.521571 1.753 255 255 255
0.22337 0.235895 0.883 255 255 255
-0.508297 -0.471831 2.286 0 0 0
0.273563 0.0292727 0.892 0 0 0
-0.29483 0.338299 1.837 255 255 255
-0.463053 0.562833 1.477 255 255 255
-0.705065 -0.226559 2.181 255 255 255
-0.758923 0.161955 1.551 0 0 0
-0.204552 -0.674118 1.859 255 255 255
0.180355 -0.273207 1.378 255 255 255
-0.572052 0.531832 1.498 255 255 255
-0.165185 0.539158 1.547 255 255 255
-0.782962 0.171846 1.505 255 255 255
-0.711821 -0.712587 2.519 255 255 255
-0.757978 -0.449334 2.469 0 0 0
-0.871543 -0.685918 2.244 255 255 255
-0.227673 0.357074 1.826 255 255 255
0.144356 0.100292 0.866 255 255 255
0.179053 -0.0368271 1.141 255 255 255
0.522902 -0.609961 1.821 255 255 255
0.0294115 0.0179136 1.348 255 255 255
0.628201 -0.400922 1.612 255 255 255
0.217493 -0.409166 1.583 255 255 255
0.466541 -0.652561 1.893 255 255 255
-0.762609 -0.40266 2.383 255 255 255
-0.0187952 -0.417617 1.52 255 255 255
-0.886979 -0.159973 2.099 255 255 255
0.300075 -0.315369 1.47 0 0 0
-0.958503 -0.0957396 1.972 0 0 0
-1.11123 -0.670285 2.136 255 255 255
-0.498159 0.300615 1.826 255 255 255
-0.500849 0.00782559 2.22 255 255 255
0.0757261 0.169609 0.905 255 255 255
0.0120948 0.248743 1.375 255 255 255
0.461496 -0.0921837 1.16 0 0 0
-0.197326 0.343332 1.848 255 255 255
0.11884 0.0534396 0.908 255 255 255
-0.102597 0.0509327 1.633 0 0 0
-0.421676 0.0746063 2.166 255 255 255
-0.164135 -0.153899 1.664 0 0 0
0.559821 0.216028 1.205 255 255 255
-0.300403 0.182869 2.037 255 255 255
0.662109 -0.164913 1.302 255 255 255
-0.00139965 0.232704 1.442 0 0 0
-0.0926339 0.55966 1.555 255 255 255
0.332685 0.163807 0.995 0 0 0
-0.962669 -0.202333 2.078 255 255 255
-0.451231 0.30506 1.853 255 255 255
0.161459 0.00446711 0.867 0 0 0
-0.0193269 -0.452323 1.563 255 255 255
0.148956 0.0576121 0.86 255 255 255
0.385038 0.107434 1.135 255 255 255
0.395944 -0.0344493 1.124 255 255 255
0.622452 -0.375386 1.571 255 255 255
0.272889 -0.151234 1.194 0 0 0
-0.622648 0.0605072 2.166 255 255 255
0.605859 -0.640056 1.848 0 0 0
-0.86258 0.00611242 1.734 255 255 255
0.33259 0.24486 1.051 255 255 255
0.18639 0.303585 0.951 255 255 255
0.655688 -0.63246 1.87 255 255 255
0.580009 -0.598727 1.805 255 255 255
-0.0147889 0.325353 1.196 0 0 0
-0.219178 0.117981 1.805 255 255 255
0.413546 -0.178525 1.249 255 255 255
0.0283424 -0.107458 1.299 255 255 255
-0.062707 -0.0681687 1.505 255 255 255
0.156295 0.120725 0.832 255 255 255
0.541749 -0.661965 1.876 255 255 255
-0.0416526 -0.657957 1.882 255 255 255
-0.302277 0.449957 1.664 255 255 255
0.518112 -0.206493 1.297 255 255 255
-0.409643 0.0327563 2.196 255 255 255
0.48556 -0.745229 2.01 0 0 0
0.257549 -0.00395675 0.858 255 255 255
0.161831 0.205287 0.869 255 255 255
0.344016 0.397136 1.178 255 255 255
0.212696 0.355738 1.002 255 255 255
-0.704205 0.152801 1.587 255 255 255
0.476526 -0.803573 2.085 255 255 255
0.0962836 0.0043076 1.222 255 255 255
0.0662501 -0.557025 1.739 255 255 255
0.311238 -0.15292 1.192 255 255 255
0.180713 -0.610368 1.779 255 255 255
0.563063 0.0136092 1.167 255 255 255
0.226922 0.371301 1 255 255 255
0.129192 -0.57982 1.748 255 255 255
0.0655658 0.157308 0.928 255 255 255
0.433919 0.0899043 1.147 0 0 0
0.733535 -0.568236 1.859 0 0 0
0.00263686 0.355242 1.154 255 255 255
0.293232 0.321161 1.027 255 255 255
-0.508161 0.425166 1.673 255 255 255
-0.113759 -0.0934765 1.603 255 255 255
0.510585 -0.0817637 1.173 255 255 255
0.020109 -0.375174 1.47 255 255 255
0.194142 0.240363 0.868 255 255 255
0.519805 0.0376411 1.147 0 0 0
-0.74213 0.443232 1.487 255 255 255
-0.154959 0.446613 1.682 255 255 255
0.0421982 0.0808033 1.336 255 255 255
0.299082 0.12548 0.95 255 255 255
-0.448918 -0.366498 2.128 255 255 255
-0.999415 -0.463275 2.356 255 255 255
0.427532 -0.0421745 1.135 255 255 255
-0.535733 0.393297 1.7 255 255 255
-0.698013 0.264875 1.491 255 255 255
-1.11837 -0.352168 2.212 255 255 255
0.269864 -0.214775 1.322 255 255 255
0.444829 0.00399035 1.132 255 255 255
-0.474564 0.383706 1.719 255 255 255
-0.0407245 -0.546228 1.714 255 255 255
0.423059 -0.0107088 1.128 255 255 255
0.00319897 -0.00417798 1.4 255 255 255
-0.905899 -0.592941 2.294 255 255 255
0.0931294 -0.338349 1.416 0 0 0
-0.103902 0.286371 1.612 255 255 255
0.0772845 0.18454 0.906 255 255 255
0.433075 -0.0237043 1.135 255 255 255
-0.118836 -0.487058 1.637 255 255 255
-0.727787 -0.0530104 2.196 255 255 255
0.547827 0.264814 1.222 0 0 0
0.329951 -0.213911 1.33 255 255 255
0.0140203 -0.0740541 1.345 255 255 255
-0.0288905 -0.286232 1.409 0 0 0
0.15775 -0.195253 1.252 0 0 0
-0.0574545 -0.282173 1.435 255 255 255
0.137284 0.182936 0.884 255 255 255
-0.15792 -0.296887 1.575 255 255 255
0.387854 -0.090296 1.16 255 255 255
-0.550106 0.266118 1.498 255 255 255
0.156785 -0.106265 1.213 255 255 255
-0.0536654 -0.142062 1.459 255 255 255
-0.191222 -0.186393 1.664 255 255 255
0.702175 -0.369032 1.555 255 255 255
0.22973 0.191145 0.869 255 255 255
0.2486 0.201784 0.891 255 255 255
0.225293 0.125659 0.847 255 255 255
-0.792946 -0.0235588 1.848 255 255 255
-0.582706 0.386966 1.513 255 255 255
0.520712 -0.0277363 1.149 255 255 255
-0.559763 0.465042 1.595 255 255 255
-0.246538 -0.539754 1.729 255 255 255
0.584244 0.188163 1.215 0 0 0
0.271378 -0.245655 1.362 255 255 255
-0.571408 0.332793 1.459 255 255 255
0.554053 0.211402 1.201 255 255 255
0.427341 -0.537847 1.769 255 255 255
-0.00138315 0.0282126 1.425 255 255 255
-0.682115 0.558883 1.442 255 255 255
-0.0297722 -0.0232362 1.452 255 255 255
0.467769 -0.421056 1.629 0 0 0
0.348288 -0.522928 1.748 255 255 255
0.633432 0.31035 1.27 255 255 255
0.369259 -0.513013 1.753 255 255 255
0.481359 0.573274 1.498 255 255 255
-0.019323 0.324428 1.237 0 0 0
-0.709717 0.545813 1.47 255 255 255
-0.319179 0.547006 1.513 255 255 255
-0.436843 0.050463 2.189 255 255 255
0.299903 -0.159938 1.201 0 0 0
0.357325 0.327229 1.135 255 255 255
0.0148959 0.165494 1.429 255 255 255
0.737611 0.610542 1.616 255 255 255
0.0829992 -0.210226 1.294 255 255 255
-0.745482 0.0288522 1.744 255 255 255
0.476021 0.356636 1.237 255 255 255
-0.82535 0.00047669 1.763 255 255 255
0.234716 -0.0974481 1.178 0 0 0
-0.488578 0.232816 1.929 255 255 255
0.0771425 0.0621973 1.267 255 255 255
0.224657 -0.449253 1.616 0 0 0
-0.665086 0.341296 1.406 255 255 255
-0.574982 0.220089 1.646 255 255 255
0.290944 -0.190242 1.273 255 255 255
0.587302 -0.531462 1.748 255 255 255
-0.750546 0.185746 1.539 255 255 255
0.567691 0.403265 1.324 255 255 255
-0.499547 0.217796 1.935 255 255 255
-0.193118 0.488361 1.612 255 255 255
-0.75873 -0.40266 2.383 255 255 255
0.254302 -0.15174 1.198 255 255 255
0.570666 -0.408184 1.62 255 255 255
0.589361 -0.508803 1.729 255 255 255
-0.551689 0.516092 1.509 255 255 255
0.302962 -0.0905149 1.139 255 255 255
-0.371967 0.146462 2.085 255 255 255
0.176611 -0.0885345 1.187 255 255 255
0.253398 -0.328152 1.463 0 0 0
-0.163173 0.446613 1.682 255 255 255
-0.232849 0.470806 1.633 255 255 255
0.643293 0.284425 1.265 255 255 255
0.148273 -0.101896 1.208 255 255 255
-0.950084 -0.742011 2.173 255 255 255
-0.541297 0.352456 1.579 255 255 255
-0.602858 -0.118668 2.365 255 255 255
-0.0903344 -0.106133 1.559 255 255 255
-0.23978 0.564449 1.494 255 255 255
-0.655286 0.544328 1.466 255 255 255
-1.00354 -0.239445 2.107 255 255 255
0.516796 -0.208925 1.299 255 255 255
0.0526415 0.209575 1.273 255 255 255
-0.55388 0.121643 1.655 255 255 255
0.712473 -0.425707 1.668 0 0 0
-0.834697 -0.707 2.253 255 255 255
0.566924 -0.282526 1.425 0 0 0
-0.820875 -0.676435 2.286 255 255 255
-0.828181 -0.00535378 1.794 255 255 255
-0.631352 0.533991 1.477 255 255 255
0.071891 -0.388229 1.502 255 255 255
0.0766675 -0.307068 1.369 0 0 0
-0.612311 -0.828286 2.449 255 255 255
0.884705 -0.534373 1.911 255 255 255
0.510728 -0.573316 1.799 255 255 255
-0.212228 0.154587 1.821 255 255 255
-0.00612383 0.535658 1.449 255 255 255
-0.134557 0.364227 1.774 255 255 255
-0.0919215 -0.180468 1.502 0 0 0
-0.911264 -0.149227 2.092 255 255 255
0.0957159 0.245396 0.913 255 255 255
0.194917 0.0355551 0.835 255 255 255
0.638752 0.5807 1.599 255 255 255
-0.130006 -0.546228 1.714 255 255 255
0.136231 0.0425268 0.896 255 255 255
-0.144389 0.170121 1.655 255 255 255
0.311982 0.129165 0.966 0 0 0
0.39636 -0.0683924 1.141 255 255 255
-0.147312 -0.400291 1.599 255 255 255
-0.977629 -0.617976 2.236 255 255 255
0.149195 -0.0643637 1.169 255 255 255
0.403431 -0.301964 1.463 255 255 255
-0.171118 0.374172 1.794 255 255 255
0.126064 0.0575794 1.1 0 0 0
0.181996 0.206917 0.864 255 255 255
-0.791542 -0.686496 2.32 255 255 255
-0.670858 -0.885452 2.347 0 0 0
0.638473 -0.377297 1.579 255 255 255
0.388794 0.0456223 1.114 255 255 255
-0.735568 0.192738 1.555 255 255 255
0.263521 0.282945 0.939 255 255 255
0.0547137 -0.128094 1.273 255 255 255
-0.663118 -0.204112 2.374 255 255 255
0.399603 -0.0179873 1.124 0 0 0
-0.661998 -0.0281617 1.959 255 255 255
-0.359111 0.305794 1.876 255 255 255
-0.568322 0.220624 1.65 255 255 255
0.581397 -0.0643849 1.205 255 255 255
0.000734719 0.307773 1.118 255 255 255
0.216405 -0.00248888 0.834 255 255 255
0.0952966 0.318283 0.909 255 255 255
-0.0661526 0.184418 1.528 255 255 255
-0.995457 -0.393413 2.374 255 255 255
-0.798373 -0.60203 2.374 255 255 255
0.543034 0.340692 1.291 255 255 255
0.975858 -0.814231 2.329 255 255 255
-0.345601 0.530231 1.543 255 255 255
-0.716265 0.241061 1.509 255 255 255
-0.0322243 0.234963 1.456 255 255 255
-0.700827 -0.379038 2.509 0 0 0
0.124361 0.334149 0.916 255 255 255
-0.628338 0.163296 1.696 255 255 255
-0.810005 -0.242412 2.196 255 255 255
0.166404 -0.411627 1.563 255 255 255
-0.840251 -0.677775 2.278 255 255 255
0.589463 0.0769982 1.178 255 255 255
0.194334 -0.116941 1.201 255 255 255
0.111205 0.113771 0.906 255 255 255
0.543939 -0.316248 1.463 255 255 255
-0.0550999 0.25393 1.498 255 255 255
0.000920042 0.1029 1.4 255 255 255
-0.598347 0.149591 1.729 255 255 255
0.46423 0.51885 1.416 255 255 255
0.146874 0.344529 0.966 255 255 255
-1.11342 -0.399025 2.253 255 255 255
-1.12954 -0.65049 2.151 255 255 255
-0.861351 -0.329086 2.356 0 0 0
-0.558669 -0.85199 2.22 255 255 255
-0.924885 -0.18327 2.092 255 255 255
-1.0147 -0.446228 2.347 255 255 255
0.633877 -0.62299 1.842 0 0 0
-0.1228 0.582726 1.491 255 255 255
-0.788916 -0.737868 2.269 255 255 255
-0.618382 0.522081 1.498 255 255 255
0.17432 0.115587 0.834 255 255 255
0.29987 -0.364513 1.505 0 0 0
-0.532798 0.148262 1.682 255 255 255
-0.531045 0.2052 1.935 255 255 255
0.593523 -0.543085 1.758 255 255 255
0.260734 -0.289483 1.425 255 255 255
-0.0987277 -0.301068 1.494 255 255 255
-0.918878 -0.520785 2.356 255 255 255
-0.00138703 -0.343781 1.429 255 255 255
0.034778 0.153858 1.387 0 0 0
0.428132 -0.267689 1.396 255 255 255
0.602878 0.239882 1.237 255 255 255
0.24248 -0.646701 1.876 255 255 255
-0.888197 -0.543789 2.356 255 255 255
0.340049 0.198189 1.022 0 0 0
-0.0603423 0.521958 1.571 255 255 255
-0.664671 0.234256 1.579 255 255 255
0.605226 -0.236811 1.375 0 0 0
-0.470239 -0.452958 2.212 0 0 0
-0.0173114 -0.273013 1.4 0 0 0
0.774611 0.603678 1.633 255 255 255
-0.6511 0.0947973 1.705 255 255 255
0.163246 0.236398 0.869 255 255 255
0.0450844 -0.187063 1.294 0 0 0
0.631343 -0.602721 1.826 0 0 0
-0.666894 -0.260334 2.43 255 255 255
-0.242999 -0.578493 1.744 255 255 255
-1.17723 -0.129922 2.228 255 255 255
-0.551436 0.420641 1.624 255 255 255
-0.824527 -0.0389503 1.865 255 255 255
0.577474 -0.0741896 1.205 0 0 0
-0.380528 0.353361 1.763 255 255 255
-0.435966 0.123535 2.099 255 255 255
-0.886979 -0.163389 2.099 255 255 255
-0.684068 0.0297621 1.799 255 255 255
0.400312 0.0787051 1.147 255 255 255
0.225825 0.134245 0.849 255 255 255
0.132094 -0.184198 1.26 255 255 255
0.876965 0.543156 1.719 255 255 255
-0.760698 -0.688266 2.365 255 255 255
0.396691 -0.773475 2.024 255 255 255
-0.773019 0.278947 1.463 0 0 0
0.225293 -0.031473 0.847 0 0 0
-0.0674947 0.490064 1.559 255 255 255
-0.205468 -0.0855927 1.763 0 0 0
-0.650673 -0.238302 2.489 255 255 255
0.516908 0.430978 1.31 255 255 255
-0.427902 0.426609 1.668 255 255 255
-0.0954099 0.00803255 1.559 255 255 255
-0.775494 -0.580025 2.411 255 255 255
-0.736542 -0.385686 2.374 255 255 255
0.295971 0.205649 0.986 255 255 255
-0.413796 0.326463 1.821 255 255 255
0.0787384 0.317237 0.941 255 255 255
0.094982 0.172745 0.906 255 255 255
-0.117766 -0.276625 1.52 255 255 255
0.537545 0.0377067 1.149 0 0 0
-1.03641 -0.543938 2.261 255 255 255
-0.903139 -0.530472 2.365 255 255 255
0.200617 0.320766 0.975 255 255 255
0.470764 0.284957 1.198 255 255 255
0.492197 0.0354002 1.135 255 255 255
0.153317 0.356402 0.977 255 255 255
0.270389 -0.424179 1.591 255 255 255
-0.859256 0.0476291 1.705 255 255 255
0.480108 0.103923 1.137 0 0 0
0.4934 -0.0951257 1.173 255 255 255
0.492922 0.139279 1.154 0 0 0
-0.769383 -0.0114921 1.842 255 255 255
-0.423211 0.531143 1.524 255 255 255
-0.292982 0.0412015 1.923 255 255 255
-0.746229 0.198294 1.52 255 255 255
0.163249 0.0539846 0.847 255 255 255
0.381091 -0.00879448 1.118 255 255 255
0.385419 -0.00516499 1.12 255 255 255
-0.680878 -0.0713812 2.329 255 255 255
-0.992712 -0.665544 2.189 255 255 255
0.776508 0.599828 1.637 255 255 255
-0.895336 0.0531783 1.705 255 255 255
0.489487 0.477445 1.396 255 255 255
0.185569 0.19499 0.861 255 255 255
-0.907638 -0.773837 2.173 255 255 255
-0.143604 0.131696 1.646 255 255 255
-0.687618 -0.253196 2.228 255 255 255
0.501254 0.288204 1.22 255 255 255
0.98544 -0.953739 2.55 255 255 255
-0.0419911 0.296219 1.466 255 255 255
0.581419 -0.0228972 1.189 0 0 0
-0.146127 -0.626895 1.81 255 255 255
-0.703226 0.198282 1.579 255 255 255
0.52883 -0.615888 1.821 255 255 255
0.16655 0.333574 0.98 255 255 255
-0.368417 0.452204 1.633 255 255 255
0.193326 0.0137974 0.834 255 255 255
-0.13434 0.0600232 1.664 0 0 0
0.0963427 -0.0620614 1.198 255 255 255
-0.381856 -0.46298 1.978 255 255 255
0.416451 -0.0309554 1.13 255 255 255
0.458005 -0.322546 1.47 255 255 255
-0.65299 0.531587 1.477 255 255 255
0.235765 -0.0038968 0.845 0 0 0
-0.80449 0.145012 1.532 0 0 0
-0.593819 0.263592 1.555 255 255 255
0.681787 -0.211946 1.345 255 255 255
0.0399336 0.22596 1.333 255 255 255
-0.948178 -0.427008 2.411 255 255 255
-0.713186 0.191675 1.567 255 255 255
0.0255809 -0.659848 1.87 255 255 255
-0.116659 0.199183 1.607 255 255 255
-0.540605 -0.188873 2.329 0 0 0
-1.12376 -0.462148 2.312 0 0 0
0.538511 -0.568803 1.794 255 255 255
0.207153 -0.141755 1.196 255 255 255
0.59643 0.238913 1.232 255 255 255
0.457101 -0.542408 1.784 255 255 255
-0.0870316 -0.17558 1.502 0 0 0
-1.06758 -0.514817 2.329 255 255 255
-0.67753 0.4283 1.494 255 255 255
0.0254685 -0.280949 1.372 255 255 255
-0.635626 0.523087 1.487 255 255 255
-0.77932 0.444073 1.498 255 255 255
0.113161 0.0782535 1.114 0 0 0
-0.423683 -0.12132 2.024 255 255 255
0.578034 -0.0424238 1.194 0 0 0
0.00987804 0.0811011 1.378 255 255 255
0.796579 0.60485 1.629 255 255 255
0.552945 -0.157947 1.247 255 255 255
-0.809157 -0.596556 2.383 255 255 255
0.204913 0.160051 0.854 255 255 255
0.50795 0.12989 1.154 255 255 255
0.493666 -0.0594193 1.147 255 255 255
-0.532112 0.278636 1.449 255 255 255
0.340808 0.258763 1.066 255 255 255
0.484934 0.141331 1.171 0 0 0
0.462584 -0.562964 1.794 255 255 255
0.768812 -0.35658 1.567 255 255 255
-0.738118 0.0793298 1.616 0 0 0
0.551408 0.400828 1.316 255 255 255
-0.102806 -0.42265 1.595 255 255 255
-0.655197 0.0801076 2.037 255 255 255
0.0967448 -0.0388283 1.203 255 255 255
0.585257 -0.114161 1.213 255 255 255
0.250089 0.186233 0.886 255 255 255
-1.12229 -0.464391 2.286 0 0 0
-0.725187 0.525507 1.487 255 255 255
0.394815 0.262334 1.126 255 255 255
-0.421975 0.401176 1.71 255 255 255
0.672997 -0.634078 1.893 0 0 0
0.382118 0.141712 1.1 255 255 255
-0.251358 0.54247 1.535 255 255 255
0.373696 -0.136825 1.187 255 255 255
-0.181914 0.525945 1.583 255 255 255
0.600441 -0.121964 1.232 255 255 255
-0.434232 -0.0425977 2.212 255 255 255
0.432727 -0.108118 1.169 0 0 0
0.826897 0.545316 1.691 255 255 255
-0.395044 0.268803 1.917 255 255 255
0.722645 0.391006 1.412 255 255 255
-0.147083 -0.099202 1.655 255 255 255
0.717166 -0.810117 2.166 255 255 255
0.116975 0.1269 0.905 255 255 255
0.134201 -0.0530402 1.171 255 255 255
-0.382314 -0.01337 2.143 255 255 255
0.144152 0.257158 0.882 255 255 255
-0.952459 -0.487956 2.402 0 0 0
-0.612283 0.127655 1.953 255 255 255
-0.165417 -0.116895 1.677 255 255 255
0.664506 -0.74861 2.037 255 255 255
-0.357963 -0.154693 1.87 255 255 255
0.0673478 0.346885 1.024 255 255 255
0.0908514 -0.284809 1.348 255 255 255
0.604882 0.0179145 1.201 255 255 255
0.49754 -0.0711727 1.156 255 255 255
-0.98478 -0.561759 2.244 255 255 255
-0.296596 0.331303 1.848 255 255 255
-0.776718 0.258752 1.47 255 255 255
-0.352821 0.54459 1.52 255 255 255
0.139821 0.242383 0.891 255 255 255
-0.379023 -0.0742049 1.997 255 255 255
-0.341421 0.149855 2.085 255 255 255
-0.211595 0.275903 1.923 255 255 255
-0.744031 0.0343303 1.734 255 255 255
0.480953 0.00957561 1.139 255 255 255
0.567384 -0.522928 1.748 255 255 255
0.100174 0.128021 0.913 255 255 255
1.14978 -0.868358 2.519 255 255 255
0.334363 -0.217537 1.339 255 255 255
-0.845357 -0.491613 2.42 0 0 0
-0.299533 0.227684 1.966 255 255 255
-0.0223686 0.357072 1.185 0 0 0
0.584231 -0.368083 1.551 255 255 255
0.405413 -0.178525 1.249 255 255 255
-0.425545 0.415981 1.691 255 255 255
-0.592378 -0.290267 2.449 255 255 255
0.346166 0.360554 1.147 255 255 255
-0.925898 -0.358643 2.374 0 0 0
0.531678 0.10875 1.169 255 255 255
0.79774 -0.633166 1.997 0 0 0
-0.214078 -0.00239229 1.763 255 255 255
0.499387 0.097031 1.143 255 255 255
-0.627244 0.537339 1.473 255 255 255
-0.889187 -0.672717 2.261 255 255 255
0.0238109 0.236047 1.406 255 255 255
0.261061 -0.562462 1.774 255 255 255
-0.248201 0.498784 1.595 255 255 255
-0.471536 0.561027 1.466 255 255 255
-0.246538 0.394379 1.729 255 255 255
-0.940329 -0.415238 2.411 255 255 255
0.00420893 -0.62299 1.842 255 255 255
-0.0983475 0.105039 1.607 0 0 0
-0.9446 -0.49371 2.392 0 0 0
-0.655531 0.099809 1.607 0 0 0
-0.129891 0.107327 1.642 255 255 255
0.294508 -0.0809619 1.135 255 255 255
-0.377658 0.353361 1.763 255 255 255
-0.0947784 -0.42159 1.591 255 255 255
-0.212298 0.522046 1.579 255 255 255
0.841799 -0.658885 2.057 0 0 0
-0.654855 0.0884832 2.078 255 255 255
0.229487 0.370187 0.997 255 255 255
0.0392913 -0.458581 1.567 255 255 255
0.301801 0.229724 1 255 255 255
0.173169 0.0790373 0.835 255 255 255
-0.0625592 -0.187728 1.445 255 255 255
0.146874 0.368109 0.966 255 255 255
0.230222 0.290202 0.928 255 255 255
-0.0496196 0.0365269 1.48 255 255 255
0.0692567 -0.223997 1.313 255 255 255
-1.06862 -0.54884 2.236 255 255 255
0.59414 0.137363 1.203 0 0 0
0.226137 0.0428564 0.845 255 255 255
0.500353 -0.135875 1.213 0 0 0
-0.0105943 -0.0457031 1.416 255 255 255
0.920295 -0.492575 1.882 255 255 255
-0.9457 -0.670104 2.204 255 255 255
0.217368 0.0400112 0.843 255 255 255
-0.0757374 0.4367 1.686 255 255 255
-0.839751 -0.190079 2.092 255 255 255
-0.497336 0.177819 1.603 255 255 255
-0.7579 0.272362 1.466 255 255 255
-0.475154 0.272213 1.876 255 255 255
0.288111 -0.324938 1.47 0 0 0
0.482819 -0.456344 1.691 0 0 0
-0.0304316 -0.232336 1.375 255 255 255
-0.339644 0.352967 1.805 255 255 255
0.398423 -0.396846 1.575 0 0 0
-0.3403 0.381645 1.748 255 255 255
-0.591968 0.103433 2.107 255 255 255
0.359319 0.0109977 1.096 255 255 255
-0.128923 -0.508631 1.664 255 255 255
0.0408716 -0.144948 1.294 255 255 255
-0.780666 -0.153629 2.204 255 255 255
0.438195 0.151243 1.189 255 255 255
-0.470699 0.411101 1.705 255 255 255
0.666185 0.47644 1.47 0 0 0
-0.886739 -0.367758 2.383 255 255 255
-0.63685 0.478684 1.555 255 255 255
-0.721305 0.248389 1.494 255 255 255
-0.701711 -0.839068 2.469 0 0 0
0.651949 -0.546483 1.769 0 0 0
0.44923 0.321384 1.203 0 0 0
0.431041 -0.143702 1.196 255 255 255
0.568569 -0.441994 1.668 255 255 255
0.298924 0.323845 1.041 255 255 255
-0.360439 0.361968 1.763 255 255 255
0.0952966 0.288698 0.909 255 255 255
-0.550532 0.392802 1.686 255 255 255
0.604169 -0.143758 1.265 255 255 255
0.0826108 0.149311 0.916 255 255 255
-0.173407 -0.422406 1.624 255 255 255
-0.688045 0.523033 1.48 255 255 255
0.508239 -0.170771 1.237 255 255 255
0.0589505 0.0210932 1.275 255 255 255
0.541737 0.5084 1.432 0 0 0
-0.375577 0.306772 1.882 255 255 255
-0.70044 0.264875 1.491 255 255 255
-0.616745 -0.10753 2.374 255 255 255
-0.396426 0.438116 1.65 255 255 255
-0.627117 0.339902 1.429 255 255 255
0.197635 0.0328374 0.835 255 255 255
0.107156 0.0219869 1.21 255 255 255
0.481659 0.163811 1.196 255 255 255
-0.561723 -0.771721 2.338 255 255 255
-0.153384 -0.242507 1.555 255 255 255
0.221418 0.135467 0.848 255 255 255
-1.1487 -0.486982 2.236 255 255 255
0.137129 0.130999 0.883 255 255 255
0.342725 0.301028 1.1 255 255 255
0.899054 -0.598864 1.991 0 0 0
-0.704911 -0.391287 2.509 0 0 0
0.734824 0.413518 1.459 255 255 255
-1.08347 -0.354564 2.347 255 255 255
-0.00840056 0.243251 1.435 255 255 255
0.202808 -0.0302367 0.851 0 0 0
-0.107821 -0.371562 1.555 255 255 255
-0.512981 0.289313 1.571 255 255 255
0.089841 -0.304172 1.366 255 255 255
-0.770824 0.502657 1.491 255 255 255
0.13547 0.158285 0.891 255 255 255
-0.13779 0.0494577 1.673 0 0 0
-0.253727 -0.126932 1.821 255 255 255
-0.597276 0.525549 1.494 255 255 255
-0.225514 0.230392 1.935 255 255 255
1.2732 -1.06068 2.925 255 255 255
-0.336754 -0.507895 1.905 0 0 0
0.0280279 -0.61927 1.831 0 0 0
0.271017 0.0733099 0.898 255 255 255
0.160113 0.150114 0.845 255 255 255
-0.520399 -0.827741 2.166 255 255 255
-0.688705 0.11148 1.587 255 255 255
0.541182 -0.483482 1.719 255 255 255
-0.173303 0.528413 1.575 255 255 255
-0.676003 -0.869151 2.365 0 0 0
-0.563799 0.530808 1.502 255 255 255
-1.02365 -0.177052 2.099 255 255 255
-1.121 -0.13163 2.196 255 255 255
-0.353027 0.3632 1.769 255 255 255
-0.199416 0.547063 1.52 255 255 255
-0.172644 0.362782 1.81 255 255 255
0.129187 0.159828 0.908 255 255 255
0.770355 0.579935 1.664 255 255 255
-0.539702 0.326612 1.758 255 255 255
0.525556 0.416591 1.305 255 255 255
0.204186 0.00429708 0.834 255 255 255
0.204449 -0.156289 1.203 255 255 255
-0.0273774 0.328454 1.237 255 255 255
0.506054 0.22703 1.222 0 0 0
-0.775905 0.52775 1.473 255 255 255
-0.745155 0.065085 1.655 255 255 255
0.756586 0.615586 1.595 255 255 255
0.442203 -0.00337223 1.13 255 255 255
-0.758327 -0.0176486 1.859 255 255 255
0.989118 -0.619556 2.071 255 255 255
-0.436555 0.415981 1.691 255 255 255
-0.267043 0.349113 1.831 255 255 255
0.497219 -0.0932168 1.173 255 255 255
0.386473 0.363 1.173 255 255 255
-0.894347 -0.705283 2.158 255 255 255
0.0440164 0.224894 0.952 255 255 255
