ply
format ascii 1.0
comment Created by Open3D
element vertex 1273
property double x
property double y
property double z
property uchar red
property uchar green
property uchar blue
end_header
0.0840844 0.171465 0.612 255 255 255
-0.35351 0.101518 0.788 255 255 255
0.174468 0.0306197 0.493 255 255 255
0.194779 -0.132979 0.397 255 255 255
0.0811714 0.201496 0.628 255 255 255
0.085377 0.0226956 0.533 255 255 255
0.163405 -0.00301964 0.484 255 255 255
0.0665403 0.183243 0.625 255 255 255
-0.223107 -0.0906403 0.627 255 255 255
-0.0033251 0.00569951 0.568 255 255 255
-0.0709451 -0.0563291 0.569 255 255 255
0.127063 -0.115877 0.44 255 255 255
0.14501 -0.0593976 0.463 255 255 255
0.205268 0.0509567 0.488 255 255 255
0.112187 -0.153451 0.427 255 255 255
-0.243247 0.320132 0.851 255 255 255
0.0402014 0.0464513 0.569 255 255 255
0.0840852 0.130958 0.591 255 255 255
-0.153665 -0.0768449 0.599 255 255 255
0.0877437 0.081983 0.565 255 255 255
-0.515841 0.382578 1.017 255 255 255
-0.0738243 0.156442 0.681 255 255 255
-0.304349 -0.13397 0.639 255 255 255
0.166697 0.0376389 0.501 255 255 255
0.0287275 0.183574 0.644 255 255 255
-0.0518647 -0.169445 0.501 255 255 255
0.186671 -0.0437188 0.449 255 255 255
-0.245014 0.0439731 0.708 255 255 255
-0.252219 -0.0637539 0.644 255 255 255
0.236529 0.212634 0.558 255 255 255
-0.0464801 -0.124118 0.523 255 255 255
-0.421047 0.0853107 0.817 255 255 255
0.021258 0.00650722 0.558 255 255 255
0.187024 -0.141377 0.397 255 255 255
-0.371466 0.0479481 0.772 255 255 255
0.147896 -0.142728 0.416 255 255 255
0.0107617 -0.0527652 0.533 255 255 255
-0.324778 0.280236 0.869 255 255 255
-0.143822 -0.0997191 0.579 255 255 255
0.166212 -0.000655404 0.483 255 255 255
-0.0917372 -0.12379 0.544 255 255 255
-0.0863263 0.0954775 0.658 255 255 255
-0.299858 -0.219634 0.595 255 255 255
0.166763 -0.152744 0.398 255 255 255
-0.200624 0.182765 0.758 255 255 255
-0.0135891 0.0830979 0.614 255 255 255
-0.208542 0.200434 0.769 255 255 255
0.0758351 -0.119177 0.464 255 255 255
-0.382152 -0.0318773 0.73 255 255 255
-0.0190097 -0.0118417 0.567 255 255 255
-0.0963367 -0.134304 0.54 255 255 255
0.0547503 -0.0713243 0.499 255 255 255
0.0967118 0.249808 0.65 255 255 255
-0.25816 0.0196383 0.703 255 255 255
-0.130611 0.171022 0.719 255 255 255
-0.222574 0.105199 0.725 255 255 255
0.128566 -0.0586409 0.469 255 255 255
-0.330286 -0.0854963 0.675 255 255 255
0.110491 -0.0328263 0.494 255 255 255
0.164844 0.203535 0.584 255 255 255
-0.260997 -0.0359059 0.672 255 255 255
-0.239685 0.235138 0.802 255 255 255
-0.13165 -0.185291 0.53 255 255 255
0.135699 0.191871 0.598 255 255 255
-0.0215912 0.132222 0.644 255 255 255
0.14706 -0.0398135 0.472 255 255 255
0.161532 -0.036953 0.465 255 255 255
-0.00357633 -0.167111 0.478 255 255 255
-0.0971754 0.266271 0.75 255 255 255
0.0471472 0.132407 0.611 255 255 255
-0.0137994 0.206078 0.673 255 255 255
-0.0669447 0.114577 0.657 255 255 255
-0.362567 0.223632 0.858 255 255 255
0.126061 -0.0158799 0.492 255 255 255
-0.0355047 0.0292578 0.596 255 255 255
0.126604 0.00673753 0.507 255 255 255
-0.222875 0.0571458 0.7 255 255 255
-0.24365 -0.213189 0.57 255 255 255
-0.0430592 0.0698973 0.621 255 255 255
0.106222 -0.152083 0.431 255 255 255
0.26077 0.180581 0.528 255 255 255
-0.128974 0.0611195 0.657 255 255 255
0.209007 -0.0915189 0.411 255 255 255
-0.123922 -0.030658 0.611 255 255 255
0.00834906 -0.125021 0.493 255 255 255
-0.166174 0.11508 0.706 255 255 255
-0.308402 -0.171906 0.622 255 255 255
-0.275921 -0.01109 0.693 255 255 255
-0.245922 0.0357052 0.704 255 255 255
-0.30444 -0.18906 0.612 255 255 255
-0.0462395 -0.10853 0.53 255 255 255
-0.280423 -0.0364403 0.682 255 255 255
0.167044 0.175151 0.572 255 255 255
0.206316 -0.0393516 0.441 255 255 255
0.0265349 -0.119783 0.488 255 255 255
0.190671 -0.0747571 0.43 255 255 255
0.0166731 -0.106064 0.502 255 255 255
-0.204634 -0.0616348 0.633 255 255 255
-0.428092 0.12796 0.844 255 255 255
0.165443 0.0934676 0.531 255 255 255
-0.0592774 0.122756 0.655 255 255 255
-0.235088 -0.114553 0.613 255 255 255
-0.082702 -0.0470357 0.58 255 255 255
0.0268067 -0.113789 0.493 255 255 255
-0.320792 -0.205972 0.609 255 255 255
0.105766 -0.149623 0.432 255 255 255
0.12446 0.00178015 0.505 255 255 255
0.0708008 -0.0719251 0.492 255 255 255
-0.115655 -0.00588602 0.62 255 255 255
0.172696 0.0653818 0.514 255 255 255
0.197218 -0.0768347 0.426 255 255 255
0.179099 0.0802209 0.518 255 255 255
-0.322071 0.350671 0.901 255 255 255
-0.282804 -0.109364 0.635 255 255 255
-0.044862 0.112833 0.647 255 255 255
-0.10643 -0.159976 0.529 255 255 255
0.192665 -0.140309 0.394 255 255 255
-0.0861755 -0.174518 0.516 255 255 255
0.181288 0.220239 0.588 255 255 255
0.0894397 -0.0965954 0.468 255 255 255
0.090693 0.104408 0.572 255 255 255
0.111638 -0.110455 0.45 255 255 255
-0.0368081 -0.0533283 0.557 255 255 255
-0.205247 -0.17948 0.569 255 255 255
-0.139383 0.162336 0.722 255 255 255
-0.135093 -0.0917118 0.582 255 255 255
0.0797501 0.0193344 0.536 255 255 255
0.104079 0.0519927 0.54 255 255 255
0.0181543 0.100752 0.606 255 255 255
0.227945 0.203189 0.557 255 255 255
-0.261741 -0.145758 0.61 255 255 255
-0.229212 -0.123513 0.608 255 255 255
-0.405998 0.2727 0.905 255 255 255
-0.233797 0.0689385 0.716 255 255 255
-0.0357512 -0.103824 0.528 255 255 255
-0.396078 0.168785 0.849 255 255 255
-0.36762 0.0848472 0.788 255 255 255
0.203297 0.0916103 0.511 255 255 255
-0.370255 0.198032 0.85 255 255 255
0.201633 0.0907787 0.511 255 255 255
0.089605 0.0967917 0.571 255 255 255
0.158577 -0.08652 0.44 255 255 255
-0.105483 0.295636 0.766 255 255 255
-0.10044 -0.0923826 0.563 255 255 255
0.0813773 -0.062444 0.493 255 255 255
0.105393 -0.042839 0.489 255 255 255
0.0928376 0.0341626 0.536 255 255 255
-0.2597 0.311897 0.855 255 255 255
0.123954 -0.0221945 0.49 255 255 255
-0.152962 0.102812 0.693 255 255 255
0.245148 0.122099 0.503 255 255 255
-0.17374 -0.0453807 0.622 255 255 255
-0.12171 0.0906769 0.67 255 255 255
0.192503 0.018798 0.478 255 255 255
0.0551941 0.149554 0.612 255 255 255
0.0385547 0.241868 0.669 255 255 255
-0.203244 -0.181297 0.566 255 255 255
0.0638493 -0.108316 0.476 255 255 255
-0.0738806 0.289075 0.749 255 255 255
-0.318497 0.33083 0.891 255 255 255
-0.0834965 -0.0827773 0.56 255 255 255
-0.213143 -0.130457 0.599 255 255 255
0.0497176 0.175761 0.631 255 255 255
0.137204 0.0440587 0.519 255 255 255
-0.060619 -0.166196 0.506 255 255 255
0.123823 -0.149613 0.424 255 255 255
0.122765 -0.118741 0.44 255 255 255
-0.31549 -0.178991 0.622 255 255 255
0.0122613 -0.131965 0.489 255 255 255
-0.329415 -0.0528926 0.694 255 255 255
0.0417132 -0.101726 0.489 255 255 255
-0.248054 0.236897 0.808 255 255 255
0.0524248 -0.101683 0.485 255 255 255
-0.307121 0.0202249 0.724 255 255 255
-0.113875 -0.143266 0.544 255 255 255
-0.346054 0.301831 0.891 255 255 255
0.0334964 -0.0872141 0.497 255 255 255
-0.0839025 0.1943 0.71 255 255 255
-0.488551 0.270913 0.945 255 255 255
0.00331881 0.0644968 0.599 255 255 255
0.0654387 -0.0916412 0.482 255 255 255
-0.263495 -0.003182 0.69 255 255 255
0.13718 -0.108935 0.438 255 255 255
0.063581 -0.111718 0.474 255 255 255
-0.116322 -0.177381 0.527 255 255 255
-0.0197454 0.084782 0.619 255 255 255
-0.0197521 -0.0732603 0.537 255 255 255
-0.361751 0.103322 0.792 255 255 255
-0.250573 -0.148004 0.607 255 255 255
-0.0844896 0.0756301 0.644 255 255 255
-0.0421536 0.131082 0.654 255 255 255
0.00589999 0.0102848 0.566 255 255 255
-0.221419 0.0570641 0.699 255 255 255
0.0604673 -0.137459 0.462 255 255 255
-0.0118356 0.110366 0.627 255 255 255
-0.252172 0.189034 0.784 255 255 255
-0.298439 -0.178687 0.614 255 255 255
0.121955 -0.0625902 0.47 255 255 255
0.175136 -0.0174272 0.469 255 255 255
0.187067 -0.0731648 0.433 255 255 255
-0.276635 -0.169582 0.61 255 255 255
-0.251701 -0.198052 0.58 255 255 255
-0.0722887 0.147811 0.677 255 255 255
0.179099 -0.117504 0.413 255 255 255
-0.0340524 -0.0765885 0.542 255 255 255
0.0455787 -0.163872 0.456 255 255 255
0.160429 -0.041404 0.464 255 255 255
-0.188719 -0.0722425 0.618 255 255 255
-0.252439 0.0299344 0.703 255 255 255
0.101833 -0.12198 0.452 255 255 255
0.200843 0.0131853 0.472 255 255 255
-0.25248 -0.0677348 0.642 255 255 255
-0.103306 -0.0233101 0.601 255 255 255
-0.149905 0.0364177 0.655 255 255 255
-0.37006 0.288769 0.9 255 255 255
0.0513465 -0.0188669 0.531 255 255 255
0.093697 -0.111917 0.459 255 255 255
-0.0427168 -0.0859722 0.54 255 255 255
-0.281793 0.2729 0.842 255 255 255
0.0226107 0.130321 0.62 255 255 255
0.234136 0.186938 0.544 255 255 255
0.0159945 0.0781436 0.599 255 255 255
0.167681 0.172986 0.571 255 255 255
-0.323609 -0.0340332 0.701 255 255 255
-0.29501 0.318463 0.873 255 255 255
0.213511 0.0374667 0.478 255 255 255
-0.0616334 0.143887 0.669 255 255 255
-0.237276 -0.176609 0.584 255 255 255
0.199049 0.215553 0.573 255 255 255
-0.0960966 -0.154811 0.529 255 255 255
0.176761 -0.111177 0.417 255 255 255
0.0767032 0.148822 0.601 255 255 255
-0.208172 -0.211046 0.557 255 255 255
0.184834 -0.15133 0.391 255 255 255
-0.111584 -0.0461599 0.593 255 255 255
0.204779 0.163636 0.546 255 255 255
-0.0202837 0.0572665 0.605 255 255 255
-0.0469286 -0.181614 0.492 255 255 255
-0.00282313 0.201286 0.668 255 255 255
-0.00309679 -0.0670038 0.529 255 255 255
-0.238753 -0.216835 0.565 255 255 255
-0.0282555 0.0943403 0.629 255 255 255
-0.214299 0.24861 0.795 255 255 255
-0.163141 -0.0123248 0.64 255 255 255
-0.0395943 0.27 0.724 255 255 255
-0.0261475 -0.0989624 0.525 255 255 255
-0.357883 0.105899 0.792 255 255 255
-0.272039 -0.099906 0.634 255 255 255
0.175103 0.186973 0.574 255 255 255
-0.10643 -0.170307 0.529 255 255 255
-0.203233 -0.000898296 0.662 255 255 255
0.162729 -0.00692903 0.482 255 255 255
0.0680114 0.152009 0.602 255 255 255
0.0559718 0.117134 0.599 255 255 255
0.171399 0.176703 0.571 255 255 255
-0.33254 0.0897533 0.775 255 255 255
0.126451 0.0481682 0.527 255 255 255
0.0762327 0.220278 0.638 255 255 255
-0.360763 -0.014058 0.73 255 255 255
0.0103767 0.000151145 0.559 255 255 255
0.188853 0.0884793 0.517 255 255 255
-0.168233 -0.150902 0.566 255 255 255
-0.265003 0.186152 0.788 255 255 255
-0.139043 -0.171846 0.542 255 255 255
0.170106 -0.117165 0.419 255 255 255
-0.245228 -0.135926 0.606 255 255 255
0.225187 -0.0206457 0.44 255 255 255
-0.197458 -0.16013 0.576 255 255 255
-0.00426466 0.00850232 0.57 255 255 255
-0.278937 -0.188282 0.6 255 255 255
0.14264 0.0738702 0.533 255 255 255
0.00525133 0.0652529 0.597 255 255 255
0.0747775 -0.168863 0.44 255 255 255
-0.342986 0.230116 0.851 255 255 255
0.109829 -0.0178365 0.502 255 255 255
0.0388836 0.145925 0.622 255 255 255
0.000312814 -0.169511 0.476 255 255 255
0.0240752 0.265565 0.691 255 255 255
-0.274833 -0.221085 0.581 255 255 255
0.108923 -0.0561107 0.48 255 255 255
-0.207841 0.0784266 0.707 255 255 255
0.228889 0.0520275 0.476 255 255 255
-0.415587 0.115032 0.83 255 255 255
0.225497 0.0983616 0.503 255 255 255
-0.356112 -0.080776 0.691 255 255 255
0.0141148 0.0814739 0.602 255 255 255
0.201333 0.0796931 0.504 255 255 255
0.16324 0.179813 0.575 255 255 255
0.0777933 0.0906035 0.573 255 255 255
-0.380211 0.208758 0.86 255 255 255
0.0622296 -0.0118865 0.528 255 255 255
-0.309132 -0.146795 0.636 255 255 255
-0.0507004 -0.144566 0.514 255 255 255
-0.177953 -0.0870262 0.602 255 255 255
0.210146 -0.0378303 0.44 255 255 255
0.0379777 -0.119879 0.482 255 255 255
-0.152943 -0.161226 0.554 255 255 255
0.188797 -0.0574228 0.442 255 255 255
-0.442163 0.374712 0.975 255 255 255
-0.0491224 -0.142333 0.515 255 255 255
-0.247362 0.009196 0.692 255 255 255
-0.125652 0.209563 0.731 255 255 255
-0.326301 -0.0395102 0.697 255 255 255
0.102637 0.0788675 0.556 255 255 255
-0.161931 -0.161193 0.557 255 255 255
-0.098242 0.0458549 0.638 255 255 255
-0.494667 0.257789 0.942 255 255 255
0.08994 0.201551 0.625 255 255 255
-0.475363 0.344034 0.978 255 255 255
0.0525736 0.0271469 0.553 255 255 255
-0.229114 0.00128665 0.678 255 255 255
0.0492732 -0.133721 0.47 255 255 255
0.164334 -0.0775627 0.442 255 255 255
0.0266758 -0.0287996 0.539 255 255 255
0.21111 0.119456 0.52 255 255 255
-0.124191 0.0678428 0.66 255 255 255
0.0835969 0.0408694 0.544 255 255 255
0.051178 -0.163531 0.453 255 255 255
0.182835 -0.0563643 0.445 255 255 255
-0.360638 -0.0672109 0.702 255 255 255
0.0993774 0.0128338 0.52 255 255 255
-0.0933527 -0.149043 0.533 255 255 255
-0.0190889 -0.059057 0.543 255 255 255
0.119848 -0.0895092 0.459 255 255 255
-0.0995191 0.175972 0.706 255 255 255
-0.229446 -0.205608 0.567 255 255 255
-0.126283 0.0219755 0.638 255 255 255
-0.0753563 -0.0247617 0.589 255 255 255
0.174305 -0.117003 0.416 255 255 255
0.167247 0.103555 0.534 255 255 255
-0.343685 -0.118486 0.669 255 255 255
0.164016 -0.148472 0.404 255 255 255
0.0855701 -0.164767 0.433 255 255 255
0.140872 -0.116416 0.434 255 255 255
-0.0280759 0.0896721 0.625 255 255 255
-0.259167 0.178371 0.782 255 255 255
-0.283933 0.0282756 0.719 255 255 255
0.177995 -0.119901 0.412 255 255 255
0.0439178 -0.137545 0.47 255 255 255
0.0113021 -0.0774119 0.518 255 255 255
0.0330723 0.151179 0.627 255 255 255
0.141927 -0.0278738 0.478 255 255 255
-0.09453 0.0424722 0.634 255 255 255
-0.0954544 -0.124018 0.545 255 255 255
-0.135227 0.0285585 0.646 255 255 255
0.233606 0.0493904 0.473 255 255 255
0.011395 -0.137482 0.486 255 255 255
0.141433 -0.137558 0.423 255 255 255
-0.285907 0.0355413 0.724 255 255 255
-0.0204027 0.2009 0.674 255 255 255
-0.212542 -0.0936641 0.62 255 255 255
-0.000568791 0.0392566 0.586 255 255 255
0.113041 0.230478 0.629 255 255 255
-0.196388 0.0620335 0.691 255 255 255
-0.0506018 -0.147624 0.513 255 255 255
-0.0277911 0.170593 0.667 255 255 255
0.121677 0.0848669 0.548 255 255 255
0.126288 -0.0994708 0.45 255 255 255
0.0690955 0.232525 0.649 255 255 255
-0.0347025 -0.17414 0.489 255 255 255
-0.0849021 -0.149646 0.529 255 255 255
0.00668933 -0.134352 0.489 255 255 255
0.206316 -0.0422222 0.441 255 255 255
0.221988 -0.0137307 0.448 255 255 255
0.0574552 -0.148289 0.456 255 255 255
-0.367295 0.213359 0.856 255 255 255
-0.127933 0.123999 0.698 255 255 255
0.146118 -0.153051 0.411 255 255 255
0.140779 -0.153796 0.413 255 255 255
0.207418 -0.00137575 0.461 255 255 255
-0.0707854 -0.00471189 0.599 255 255 255
0.126384 -0.140577 0.428 255 255 255
0.225941 0.00233402 0.453 255 255 255
0.112354 -0.141514 0.433 255 255 255
-0.213709 0.0926283 0.719 255 255 255
0.0156741 0.0517418 0.587 255 255 255
0.119385 -0.0812478 0.463 255 255 255
-0.365542 -0.0327482 0.723 255 255 255
0.186136 0.157018 0.554 255 255 255
-0.00514324 -0.165902 0.479 255 255 255
-0.213921 -0.0743149 0.627 255 255 255
0.214698 -0.0300902 0.442 255 255 255
0.191461 -0.0840638 0.424 255 255 255
0.183344 -0.109293 0.415 255 255 255
0.166834 -0.0752342 0.441 255 255 255
0.212078 -0.0549075 0.428 255 255 255
-0.0415642 -0.0481477 0.56 255 255 255
-0.305356 -0.108774 0.65 255 255 255
-0.328634 -0.140507 0.65 255 255 255
-0.360708 0.161329 0.825 255 255 255
0.0579137 0.103677 0.589 255 255 255
0.104519 0.201329 0.615 255 255 255
0.223303 0.203009 0.559 255 255 255
0.223597 0.0386142 0.473 255 255 255
-0.304627 -0.046565 0.684 255 255 255
0.0650582 0.0324875 0.552 255 255 255
-0.0476683 0.225881 0.704 255 255 255
-0.181358 -0.176044 0.561 255 255 255
0.251791 0.172314 0.529 255 255 255
-0.133049 0.0578239 0.656 255 255 255
0.062995 -0.131259 0.464 255 255 255
-0.126758 0.25588 0.759 255 255 255
-0.0368187 -0.0966369 0.531 255 255 255
-0.0749725 -0.0341717 0.586 255 255 255
0.0834349 -0.122317 0.456 255 255 255
-0.0340167 0.20136 0.683 255 255 255
-0.0685835 -0.177021 0.504 255 255 255
0.16046 0.0831718 0.526 255 255 255
0.141108 -0.156106 0.412 255 255 255
-0.297272 0.284126 0.851 255 255 255
-0.178693 0.0065725 0.655 255 255 255
-0.0726074 0.0427491 0.623 255 255 255
-0.178073 -0.159754 0.568 255 255 255
-0.160464 0.00227718 0.646 255 255 255
-0.0153242 -0.0721169 0.535 255 255 255
0.200489 -0.101304 0.41 255 255 255
-0.353623 0.0159621 0.745 255 255 255
0.0897961 0.199198 0.624 255 255 255
-0.233983 -0.0654408 0.64 255 255 255
0.0280614 -0.0353514 0.532 255 255 255
0.119127 -0.0833277 0.462 255 255 255
0.124703 0.15575 0.583 255 255 255
-0.235082 -0.199739 0.574 255 255 255
0.191059 0.156779 0.55 255 255 255
0.195088 -0.0921763 0.417 255 255 255
0.0738069 0.207876 0.635 255 255 255
0.15032 -0.0685863 0.454 255 255 255
-0.00824487 -0.171001 0.478 255 255 255
0.246228 0.170915 0.53 255 255 255
0.0331828 -0.0060609 0.545 255 255 255
-0.0550464 -0.0802579 0.549 255 255 255
-0.151649 -0.14077 0.566 255 255 255
-0.0006445 0.190356 0.664 255 255 255
0.190918 0.199004 0.571 255 255 255
-0.206601 -0.130022 0.597 255 255 255
-0.163136 -0.139024 0.574 255 255 255
0.0752945 0.25036 0.657 255 255 255
-0.121571 -0.166144 0.535 255 255 255
0.00185466 -0.168798 0.474 255 255 255
-0.0321588 -0.05404 0.555 255 255 255
0.173418 -0.0650542 0.445 255 255 255
0.130102 -0.0990288 0.448 255 255 255
0.17477 -0.0335613 0.46 255 255 255
-0.268775 -0.0681569 0.646 255 255 255
0.0328822 -0.0409446 0.526 255 255 255
-0.251827 -0.066794 0.643 255 255 255
-0.180332 0.313989 0.817 255 255 255
-0.206151 -0.098592 0.613 255 255 255
0.162705 0.00570256 0.489 255 255 255
-0.31506 0.00964782 0.726 255 255 255
-0.368242 0.131037 0.812 255 255 255
-0.187743 0.091972 0.705 255 255 255
0.244776 0.206901 0.55 255 255 255
0.0870449 -0.0811065 0.48 255 255 255
-0.349369 -0.0323405 0.714 255 255 255
-0.0921129 0.0685062 0.646 255 255 255
0.105863 0.208008 0.617 255 255 255
0.0267136 0.186247 0.646 255 255 255
0.144789 0.127278 0.558 255 255 255
0.0661296 -0.0728735 0.493 255 255 255
0.023239 0.111344 0.61 255 255 255
-0.0341612 -0.0964549 0.53 255 255 255
0.104464 0.0548313 0.542 255 255 255
-0.077811 -0.101357 0.552 255 255 255
0.196268 0.227506 0.587 255 255 255
-0.463655 0.24508 0.923 255 255 255
-0.00174615 0.218895 0.672 255 255 255
0.253649 0.130026 0.502 255 255 255
0.166228 0.0160803 0.49 255 255 255
-0.249085 -0.0826265 0.636 255 255 255
0.0813383 -0.019897 0.513 255 255 255
0.104141 -0.0695861 0.476 255 255 255
-0.0648356 -0.154716 0.52 255 255 255
-0.286773 -0.216828 0.59 255 255 255
0.191997 -0.126803 0.402 255 255 255
-0.202374 -0.125924 0.596 255 255 255
-0.221378 -0.0944195 0.625 255 255 255
0.123153 -0.076727 0.463 255 255 255
-0.0422276 0.206792 0.69 255 255 255
0.171816 0.0988381 0.532 255 255 255
-0.156616 0.231481 0.76 255 255 255
-0.0800407 -0.0937793 0.555 255 255 255
0.110834 0.15954 0.59 255 255 255
-0.176057 -0.0761457 0.609 255 255 255
-0.340375 -0.0388164 0.705 255 255 255
-0.231295 -0.0423293 0.653 255 255 255
0.217317 0.0535786 0.483 255 255 255
-0.254645 -0.171111 0.598 255 255 255
0.0790996 0.215448 0.636 255 255 255
0.110206 0.11549 0.567 255 255 255
0.16662 -0.0183455 0.473 255 255 255
-0.310848 0.184346 0.814 255 255 255
0.202194 0.0241923 0.477 255 255 255
0.133593 -0.150252 0.42 255 255 255
0.064469 -0.162456 0.448 255 255 255
-0.0386034 -0.183314 0.488 255 255 255
0.19417 -0.0726579 0.43 255 255 255
-0.388507 0.141533 0.827 255 255 255
-0.0590111 0.137409 0.664 255 255 255
0.175065 -0.120864 0.413 255 255 255
0.0583306 0.258971 0.671 255 255 255
-0.0777014 -0.0360173 0.585 255 255 255
0.13093 0.0184326 0.511 255 255 255
-0.322528 0.231518 0.841 255 255 255
0.155027 0.0770332 0.525 255 255 255
0.0863383 0.100102 0.574 255 255 255
0.00539963 -0.0807837 0.518 255 255 255
-0.028122 -0.0904175 0.53 255 255 255
0.0818758 -0.0328003 0.506 255 255 255
0.133584 -0.0409255 0.476 255 255 255
0.0243691 -0.171291 0.462 255 255 255
0.113374 0.0844348 0.551 255 255 255
0.0250326 -0.0636906 0.523 255 255 255
0.107511 -0.161031 0.425 255 255 255
0.0882422 -0.124736 0.454 255 255 255
-0.417089 0.116804 0.833 255 255 255
-0.047241 -0.126429 0.522 255 255 255
-0.176747 0.132778 0.721 255 255 255
-0.0673414 -0.0217747 0.586 255 255 255
-0.228501 0.196445 0.773 255 255 255
0.0619856 0.231478 0.652 255 255 255
0.211519 0.0789025 0.499 255 255 255
-0.192622 -0.197287 0.554 255 255 255
0.117137 0.233549 0.629 255 255 255
-0.347166 0.00621279 0.739 255 255 255
0.00361287 -0.112228 0.504 255 255 255
-0.187051 -0.164027 0.57 255 255 255
-0.33535 0.0775934 0.767 255 255 255
0.131264 -0.093293 0.452 255 255 255
0.126975 -0.137735 0.43 255 255 255
-0.0490304 -0.186872 0.489 255 255 255
-0.104801 0.0439156 0.64 255 255 255
-0.408797 0.348233 0.942 255 255 255
-0.344497 0.0998536 0.785 255 255 255
-0.215334 0.214725 0.78 255 255 255
-0.130229 -0.00697281 0.627 255 255 255
-0.0207866 0.0869368 0.62 255 255 255
-0.224525 0.226477 0.79 255 255 255
0.18627 0.0555753 0.501 255 255 255
-0.0705837 0.272355 0.74 255 255 255
0.0550097 -0.110008 0.48 255 255 255
0.0584408 0.21635 0.648 255 255 255
-0.0732212 0.00506944 0.603 255 255 255
-0.227553 0.0271351 0.69 255 255 255
0.225038 0.16121 0.535 255 255 255
0.17393 -0.11061 0.42 255 255 255
-0.135171 0.204805 0.731 255 255 255
0.185792 -0.00899328 0.467 255 255 255
-0.0164281 -0.155359 0.49 255 255 255
-0.332561 0.0518067 0.755 255 255 255
0.18666 0.140277 0.545 255 255 255
-0.179924 0.061405 0.684 255 255 255
-0.215906 -0.124666 0.604 255 255 255
0.0163613 -0.0715112 0.518 255 255 255
-0.215146 -0.0376705 0.646 255 255 255
0.124331 -0.0827867 0.459 255 255 255
0.0163484 0.185854 0.652 255 255 255
0.134791 -0.0745703 0.459 255 255 255
0.143608 0.110237 0.55 255 255 255
0.115314 -0.0673222 0.471 255 255 255
-0.00375244 0.148296 0.641 255 255 255
0.00897015 0.0430711 0.586 255 255 255
0.0080265 0.203935 0.666 255 255 255
-0.123461 -0.0994444 0.572 255 255 255
0.160454 0.000131678 0.487 255 255 255
0.173169 -0.0562653 0.45 255 255 255
0.222276 0.220142 0.568 255 255 255
0.178004 -0.0646156 0.442 255 255 255
0.112022 -0.133062 0.44 255 255 255
-0.497321 0.27853 0.95 255 255 255
-0.194646 -0.155443 0.576 255 255 255
-0.109788 -0.0359045 0.599 255 255 255
0.152319 0.045219 0.513 255 255 255
-0.202925 0.0966318 0.714 255 255 255
-0.286127 -0.146601 0.622 255 255 255
0.104005 -0.0914359 0.465 255 255 255
0.242827 0.172426 0.532 255 255 255
-0.0159814 -0.136834 0.501 255 255 255
-0.11709 -0.192425 0.519 255 255 255
0.189651 -0.0519024 0.444 255 255 255
-0.276572 -0.0177534 0.689 255 255 255
0.0541276 -0.153211 0.453 255 255 255
0.199269 0.0388046 0.485 255 255 255
-0.1577 0.111664 0.699 255 255 255
0.115931 -0.117653 0.444 255 255 255
0.171618 0.19486 0.578 255 255 255
-0.104245 0.0493534 0.643 255 255 255
0.241017 0.0606754 0.477 255 255 255
-0.275304 -0.223536 0.58 255 255 255
-0.265616 -0.0994333 0.631 255 255 255
-0.133317 -0.200717 0.523 255 255 255
-0.156795 0.146858 0.721 255 255 255
0.0972012 -0.141976 0.441 255 255 255
-0.151678 0.145281 0.719 255 255 255
0.0308005 -0.171669 0.457 255 255 255
0.21827 0.109905 0.511 255 255 255
-0.00126804 -0.144401 0.488 255 255 255
0.115103 0.128834 0.573 255 255 255
0.106997 0.0473345 0.537 255 255 255
0.139847 0.0655682 0.529 255 255 255
0.216814 -0.0313148 0.439 255 255 255
-0.134523 -0.0769102 0.592 255 255 255
0.196572 -0.0213496 0.455 255 255 255
-0.39436 0.0395597 0.78 255 255 255
-0.00582107 0.140554 0.639 255 255 255
0.0439208 -0.106065 0.487 255 255 255
0.121809 -0.0206417 0.491 255 255 255
0.0284337 -0.160986 0.467 255 255 255
0.220527 -0.000616052 0.454 255 255 255
-0.234524 0.173928 0.768 255 255 255
-0.0334149 -0.069157 0.546 255 255 255
0.0979451 0.0577955 0.545 255 255 255
-0.0422234 -0.120714 0.523 255 255 255
-0.367425 0.148703 0.822 255 255 255
0.170115 -0.140618 0.406 255 255 255
0.136453 0.0326967 0.513 255 255 255
0.209322 0.126344 0.524 255 255 255
0.115559 -0.0659289 0.472 255 255 255
-0.070287 0.203244 0.701 255 255 255
0.105912 -0.0627461 0.477 255 255 255
0.0191626 -0.0980896 0.503 255 255 255
0.134961 -0.0518823 0.47 255 255 255
0.127081 -0.138487 0.428 255 255 255
-0.113654 0.0619993 0.655 255 255 255
-0.291917 -0.163966 0.615 255 255 255
-0.170045 0.182776 0.743 255 255 255
0.0224725 0.18071 0.645 255 255 255
-0.111229 0.246641 0.746 255 255 255
-0.0211273 -0.165843 0.488 255 255 255
0.163463 0.094687 0.533 255 255 255
-0.442254 0.102382 0.837 255 255 255
-0.174644 -0.0176419 0.644 255 255 255
-0.404806 0.0544142 0.793 255 255 255
-0.111071 -0.023504 0.606 255 255 255
0.210953 0.0271255 0.474 255 255 255
0.2099 -0.0635136 0.425 255 255 255
-0.0818812 0.0720359 0.64 255 255 255
0.0443976 -0.144267 0.467 255 255 255
0.0929494 -0.0155696 0.508 255 255 255
0.216587 0.0995349 0.509 255 255 255
0.225526 0.207929 0.56 255 255 255
0.0514866 0.0234621 0.551 255 255 255
0.0391644 -0.11082 0.487 255 255 255
0.0820799 0.0754132 0.564 255 255 255
-0.164066 -0.188219 0.546 255 255 255
-0.288501 -0.178105 0.612 255 255 255
-0.100704 0.263478 0.749 255 255 255
-0.044186 0.26103 0.722 255 255 255
-0.321566 -0.123467 0.655 255 255 255
0.135644 -0.1441 0.42 255 255 255
0.122269 0.137008 0.576 255 255 255
0.139512 0.0675443 0.531 255 255 255
-0.213385 0.0861746 0.714 255 255 255
0.0804852 -0.165909 0.436 255 255 255
0.133512 -0.0460557 0.473 255 255 255
0.198092 -0.00964882 0.462 255 255 255
0.119628 -0.125615 0.439 255 255 255
-0.016294 -0.165163 0.486 255 255 255
-0.0098931 0.265962 0.707 255 255 255
-0.167143 0.0811497 0.691 255 255 255
0.194957 -0.107571 0.411 255 255 255
0.159358 0.0278554 0.501 255 255 255
-0.0104972 0.207959 0.672 255 255 255
0.132376 -0.109682 0.441 255 255 255
-0.129006 0.00941221 0.631 255 255 255
-0.088695 -0.0542101 0.576 255 255 255
0.0830085 -0.0157229 0.513 255 255 255
0.177617 -0.0476887 0.452 255 255 255
-0.0518039 -0.106742 0.534 255 255 255
-0.397995 0.0988346 0.808 255 255 255
-0.235668 0.0974756 0.729 255 255 255
0.125041 -0.133059 0.433 255 255 255
-0.347053 0.0985761 0.785 255 255 255
0.131699 -0.10149 0.446 255 255 255
0.0606223 -0.1135 0.475 255 255 255
0.0233095 -0.124292 0.487 255 255 255
-0.0861877 0.279696 0.75 255 255 255
0.0985141 0.0259687 0.529 255 255 255
-0.218837 -0.102917 0.615 255 255 255
-0.281245 -0.0332078 0.684 255 255 255
-0.154143 0.21322 0.748 255 255 255
0.19783 0.151528 0.544 255 255 255
0.191162 -0.12384 0.403 255 255 255
0.0774639 -0.0208126 0.515 255 255 255
0.202992 0.131736 0.532 255 255 255
-0.00423473 0.000153038 0.566 255 255 255
0.128768 0.196093 0.602 255 255 255
0.0830431 -0.0770566 0.484 255 255 255
0.221245 0.119377 0.516 255 255 255
0.123206 0.140757 0.576 255 255 255
0.237174 0.105098 0.5 255 255 255
0.204251 0.0139238 0.471 255 255 255
-0.277582 0.056031 0.73 255 255 255
-0.102876 -0.000835877 0.616 255 255 255
-0.147246 0.169142 0.726 255 255 255
0.16295 0.0801441 0.523 255 255 255
0.254126 0.210223 0.547 255 255 255
0.0383645 -0.00073682 0.543 255 255 255
0.0659163 -0.0050316 0.53 255 255 255
0.108447 -0.00893853 0.507 255 255 255
-0.304416 -0.11793 0.648 255 255 255
-0.428589 0.306085 0.935 255 255 255
0.0820253 0.088274 0.57 255 255 255
0.232331 0.189403 0.546 255 255 255
0.0441234 0.0302244 0.56 255 255 255
0.187598 -0.114259 0.411 255 255 255
0.150197 0.00818912 0.495 255 255 255
-0.0236991 0.0754715 0.617 255 255 255
0.0908034 0.214781 0.631 255 255 255
0.195297 -0.0926322 0.416 255 255 255
0.127469 -0.100711 0.449 255 255 255
-0.301929 -0.0423589 0.688 255 255 255
-0.149843 0.0611471 0.669 255 255 255
-0.0855933 0.0411137 0.629 255 255 255
0.229709 0.183397 0.544 255 255 255
-0.271061 -0.00207407 0.695 255 255 255
-0.0234162 -0.0263702 0.562 255 255 255
-0.00720484 0.206558 0.671 255 255 255
-0.266456 -0.140718 0.614 255 255 255
0.197183 -0.0666688 0.432 255 255 255
0.170418 -0.0106933 0.475 255 255 255
-0.0569558 0.249762 0.72 255 255 255
0.027133 -0.0956854 0.499 255 255 255
-0.0273744 0.157343 0.657 255 255 255
-0.39653 0.198022 0.862 255 255 255
0.127779 -0.115877 0.44 255 255 255
0.162638 0.076593 0.522 255 255 255
-0.0037583 0.149572 0.642 255 255 255
-0.0880127 -0.107133 0.554 255 255 255
0.13453 -0.106093 0.441 255 255 255
0.0914583 -0.147717 0.441 255 255 255
-0.0937699 -0.0828893 0.567 255 255 255
-0.154638 -0.190017 0.541 255 255 255
0.00370665 0.207031 0.669 255 255 255
0.108195 -0.0170196 0.502 255 255 255
0.242512 0.151346 0.522 255 255 255
0.0533907 0.0142851 0.543 255 255 255
0.09714 -0.0252891 0.504 255 255 255
0.197796 -0.13518 0.394 255 255 255
0.0149298 -0.0650353 0.527 255 255 255
0.0631259 0.101846 0.584 255 255 255
0.0626478 0.143393 0.607 255 255 255
-0.241678 -0.120341 0.612 255 255 255
0.151762 -0.127232 0.423 255 255 255
-0.14912 -0.119408 0.574 255 255 255
-0.0908507 -0.0372853 0.59 255 255 255
-0.200412 0.166964 0.748 255 255 255
0.156022 -0.134604 0.416 255 255 255
0.0881851 -0.152762 0.439 255 255 255
-0.203384 0.277247 0.803 255 255 255
-0.0920284 0.0402175 0.631 255 255 255
0.226364 -0.00935643 0.448 255 255 255
-0.0483982 0.211462 0.698 255 255 255
-0.0890737 -0.0116316 0.604 255 255 255
-0.514597 0.324998 0.983 255 255 255
-0.326144 -0.0926333 0.671 255 255 255
-0.0301854 -0.0835909 0.536 255 255 255
-0.287445 -0.170694 0.614 255 255 255
-0.29399 -0.0473992 0.68 255 255 255
-0.183745 0.230768 0.77 255 255 255
0.0596281 0.10237 0.587 255 255 255
-0.16922 0.12568 0.714 255 255 255
-0.0346678 -0.130673 0.512 255 255 255
0.087444 0.204888 0.629 255 255 255
0.0209313 -0.125877 0.487 255 255 255
-0.223694 0.0491016 0.699 255 255 255
0.058183 0.23753 0.657 255 255 255
0.0867538 0.225823 0.639 255 255 255
0.107782 0.0250604 0.528 255 255 255
-0.0238083 -0.0895551 0.53 255 255 255
-0.114553 0.00830563 0.625 255 255 255
0.12428 0.170101 0.59 255 255 255
0.222288 0.0643249 0.487 255 255 255
0.0299678 -0.0523245 0.52 255 255 255
-0.0950554 -0.166548 0.528 255 255 255
0.095024 0.0154906 0.524 255 255 255
-0.270644 -0.115963 0.626 255 255 255
0.173659 -0.108818 0.421 255 255 255
-0.252874 -0.121932 0.615 255 255 255
0.13352 0.155754 0.576 255 255 255
0.232394 0.0398141 0.469 255 255 255
0.0909247 -0.134322 0.449 255 255 255
-0.266148 -0.148979 0.611 255 255 255
-0.313076 -0.0576115 0.683 255 255 255
-0.398856 0.201293 0.864 255 255 255
0.203484 0.010858 0.471 255 255 255
-0.338941 -0.0196964 0.719 255 255 255
0.00268808 0.24055 0.687 255 255 255
-0.352116 0.284918 0.888 255 255 255
0.0954678 0.138417 0.59 255 255 255
0.256843 0.212778 0.549 255 255 255
-0.456574 0.272666 0.93 255 255 255
-0.275843 0.293129 0.849 255 255 255
0.249596 0.169411 0.528 255 255 255
-0.129705 -0.0701666 0.592 255 255 255
0.0436374 -0.144267 0.467 255 255 255
-0.193633 -0.122395 0.593 255 255 255
-0.0288868 0.00393223 0.58 255 255 255
0.0544491 -0.0889933 0.489 255 255 255
0.128037 -0.121919 0.436 255 255 255
0.119135 0.142432 0.579 255 255 255
0.119252 -0.0128061 0.497 255 255 255
-0.164108 0.118695 0.707 255 255 255
-0.0580335 0.114942 0.653 255 255 255
0.115412 0.0135747 0.516 255 255 255
0.0498306 -0.149915 0.461 255 255 255
0.0764906 0.233582 0.649 255 255 255
0.101513 -0.0818851 0.471 255 255 255
0.150029 -0.128305 0.422 255 255 255
-0.44191 0.286595 0.931 255 255 255
0.136728 0.0913296 0.544 255 255 255
-0.0046186 -0.116196 0.507 255 255 255
-0.209457 -0.103242 0.611 255 255 255
0.168263 0.0283845 0.496 255 255 255
-0.171768 0.167587 0.74 255 255 255
0.200452 -0.126189 0.398 255 255 255
0.0695642 -0.0939922 0.478 255 255 255
0.0769891 -0.043075 0.501 255 255 255
-0.164551 -0.205706 0.536 255 255 255
-0.353743 0.0345142 0.753 255 255 255
-0.107389 -0.106661 0.561 255 255 255
0.117028 -0.0566548 0.478 255 255 255
0.0253903 0.119068 0.614 255 255 255
-0.0849942 -0.136543 0.535 255 255 255
-0.423744 0.179211 0.866 255 255 255
0.149342 -0.129678 0.422 255 255 255
0.189808 -0.0330506 0.453 255 255 255
-0.199681 -0.0272 0.647 255 255 255
0.16324 0.177005 0.575 255 255 255
-0.275173 -0.0352268 0.68 255 255 255
-0.122483 -0.185751 0.524 255 255 255
0.183562 0.14488 0.549 255 255 255
-0.11525 -0.0576426 0.592 255 255 255
0.174335 -0.0976319 0.426 255 255 255
-0.24211 -0.0844301 0.634 255 255 255
-0.120878 0.0444646 0.648 255 255 255
0.0378212 -0.173468 0.452 255 255 255
0.155276 0.201166 0.591 255 255 255
-0.0193701 0.274391 0.717 255 255 255
0.00199552 -0.103604 0.51 255 255 255
0.0649616 -0.0437628 0.509 255 255 255
0.0708324 0.0516306 0.555 255 255 255
0.0968256 -0.00817748 0.511 255 255 255
-0.355643 0.178945 0.832 255 255 255
-0.333339 -0.13903 0.653 255 255 255
-0.0982568 -0.0947932 0.561 255 255 255
-0.145636 -0.108387 0.575 255 255 255
-0.26846 0.0139182 0.703 255 255 255
0.00341215 -0.164088 0.476 255 255 255
-0.0276553 0.272024 0.72 255 255 255
-0.0364777 -0.0618324 0.552 255 255 255
-0.122132 -0.0237367 0.612 255 255 255
-0.231922 -0.0955893 0.626 255 255 255
-0.118529 -0.159774 0.537 255 255 255
-0.118089 0.117573 0.687 255 255 255
-0.130714 0.0566698 0.655 255 255 255
0.145627 -0.0969832 0.442 255 255 255
0.0390522 -0.0503399 0.517 255 255 255
-0.442184 0.19921 0.886 255 255 255
0.205688 0.0550399 0.489 255 255 255
-0.249334 -0.154153 0.604 255 255 255
-0.34085 -0.109175 0.672 255 255 255
-0.277542 -0.16217 0.612 255 255 255
0.0703943 -0.121728 0.468 255 255 255
-0.082751 -0.0991983 0.555 255 255 255
0.108757 0.140811 0.584 255 255 255
0.10079 -0.139823 0.441 255 255 255
0.0840575 -0.0935805 0.472 255 255 255
-0.13786 -0.144357 0.555 255 255 255
-0.449224 0.238404 0.909 255 255 255
0.074697 -0.0982466 0.476 255 255 255
0.207668 -0.0275209 0.447 255 255 255
-0.0418193 0.232094 0.702 255 255 255
0.169418 0.0200673 0.49 255 255 255
0.221716 0.0720444 0.491 255 255 255
0.00814702 0.228998 0.676 255 255 255
-0.259402 0.0642585 0.729 255 255 255
-0.167167 -0.0956969 0.595 255 255 255
0.0365967 -0.00868958 0.543 255 255 255
0.171879 -0.109926 0.42 255 255 255
0.0696325 -0.122489 0.468 255 255 255
-0.0467668 0.138519 0.659 255 255 255
0.0694285 0.023164 0.544 255 255 255
-0.371396 0.019836 0.754 255 255 255
-0.250968 0.147575 0.761 255 255 255
0.0805748 -0.0648508 0.493 255 255 255
0.184374 0.0661415 0.507 255 255 255
-0.294566 -0.201646 0.602 255 255 255
0.119337 -0.0255912 0.494 255 255 255
-0.31787 0.0863305 0.767 255 255 255
0.100351 0.19001 0.614 255 255 255
-0.205428 -0.072159 0.626 255 255 255
0.0816896 0.167651 0.609 255 255 255
-0.0220412 -0.0911078 0.529 255 255 255
-0.349307 0.140114 0.811 255 255 255
-0.326148 -0.0263451 0.709 255 255 255
-0.179014 -0.152235 0.571 255 255 255
0.116865 -0.0707013 0.468 255 255 255
-0.241342 0.156861 0.758 255 255 255
-0.326021 -0.085243 0.673 255 255 255
-0.299986 -0.144844 0.632 255 255 255
-0.117969 -0.0444537 0.596 255 255 255
0.0086875 -0.175801 0.468 255 255 255
-0.133599 0.145773 0.71 255 255 255
-0.102808 -0.19528 0.511 255 255 255
0.0400601 0.0407519 0.567 255 255 255
-0.338875 -0.0837931 0.679 255 255 255
-0.0926237 0.181716 0.706 255 255 255
0.263483 0.184715 0.53 255 255 255
0.200835 -0.0492867 0.44 255 255 255
0.0998144 0.157456 0.593 255 255 255
0.0582144 0.168464 0.623 255 255 255
0.16578 -0.126177 0.415 255 255 255
0.161514 0.122768 0.55 255 255 255
0.123933 0.223864 0.622 255 255 255
0.260705 0.166317 0.521 255 255 255
0.161241 -0.152317 0.402 255 255 255
0.0879976 0.0624686 0.555 255 255 255
-0.340553 -0.0409944 0.703 255 255 255
0.210544 -0.0504996 0.432 255 255 255
0.189588 0.229629 0.59 255 255 255
-0.289815 -0.0472598 0.678 255 255 255
0.0928032 -0.140774 0.444 255 255 255
-0.178752 0.168493 0.744 255 255 255
-0.0973707 0.0653524 0.646 255 255 255
0.0152185 -0.0883177 0.508 255 255 255
-0.0372573 -0.112632 0.525 255 255 255
-0.126951 -0.176467 0.532 255 255 255
-0.171535 -0.186913 0.55 255 255 255
-0.154011 -0.0436552 0.612 255 255 255
-0.164963 -0.175968 0.555 255 255 255
-0.146792 0.146247 0.718 255 255 255
-0.338088 0.17215 0.819 255 255 255
-0.383386 0.213947 0.864 255 255 255
-0.132992 -0.0353963 0.607 255 255 255
-0.204702 -0.145745 0.586 255 255 255
-0.378339 0.0548618 0.781 255 255 255
0.202998 -0.108511 0.407 255 255 255
-0.0517624 -0.155279 0.508 255 255 255
-0.0695412 0.0639361 0.632 255 255 255
0.142021 0.0367989 0.512 255 255 255
-0.37269 0.315671 0.91 255 255 255
0.122898 -0.0996919 0.451 255 255 255
-0.136265 -0.176706 0.538 255 255 255
0.0517077 -0.0707949 0.501 255 255 255
0.19782 -0.107976 0.41 255 255 255
-0.361265 -0.0705374 0.701 255 255 255
0.092651 -0.099003 0.465 255 255 255
0.066508 -0.138946 0.457 255 255 255
-0.263162 -0.123533 0.618 255 255 255
0.0504712 -0.148841 0.46 255 255 255
-0.367974 0.322655 0.913 255 255 255
0.101933 -0.130521 0.446 255 255 255
0.0103639 -0.159106 0.475 255 255 255
-0.389407 0.0162406 0.758 255 255 255
0.0160977 0.169422 0.642 255 255 255
-0.0517226 0.0737511 0.628 255 255 255
-0.048638 0.155005 0.67 255 255 255
-0.0994512 0.0317492 0.626 255 255 255
-0.394675 0.0753457 0.796 255 255 255
0.104479 -0.0337664 0.496 255 255 255
-0.237305 -0.119151 0.611 255 255 255
0.151792 -0.0411745 0.47 255 255 255
-0.0830964 0.212525 0.713 255 255 255
-0.204813 -0.046694 0.64 255 255 255
-0.124666 -0.104479 0.569 255 255 255
0.164584 -0.154427 0.399 255 255 255
0.244988 0.11183 0.501 255 255 255
-0.222967 -0.21765 0.56 255 255 255
-0.026842 0.0808831 0.62 255 255 255
0.0210549 -0.158869 0.472 255 255 255
0.190481 -0.0771954 0.428 255 255 255
0.22843 0.02038 0.461 255 255 255
0.0215886 0.189515 0.65 255 255 255
0.00213247 -0.0308939 0.545 255 255 255
-0.117141 -0.183695 0.523 255 255 255
0.14715 -0.0490603 0.465 255 255 255
0.233642 0.0635324 0.481 255 255 255
0.117172 0.129993 0.574 255 255 255
-0.197257 -0.173303 0.57 255 255 255
0.127171 0.0562048 0.53 255 255 255
0.0026646 0.234017 0.681 255 255 255
0.157653 0.0388379 0.506 255 255 255
0.104054 0.0110985 0.518 255 255 255
0.11245 -0.151721 0.428 255 255 255
-0.071169 -0.153055 0.523 255 255 255
0.212078 -0.0563005 0.428 255 255 255
-0.0976112 0.222307 0.726 255 255 255
-0.233138 -0.20653 0.567 255 255 255
0.177199 -0.0788019 0.433 255 255 255
0.244692 0.0924408 0.489 255 255 255
0.0402721 0.0520985 0.57 255 255 255
0.202469 -0.0277056 0.45 255 255 255
-0.434251 0.319784 0.944 255 255 255
-0.0407392 -0.131438 0.515 255 255 255
0.00786983 0.180826 0.653 255 255 255
-0.0700832 -0.0303054 0.585 255 255 255
0.208571 0.116918 0.52 255 255 255
-0.044903 0.0146107 0.592 255 255 255
0.0959384 -0.103701 0.459 255 255 255
0.0256772 0.238192 0.674 255 255 255
-0.176199 -0.13975 0.577 255 255 255
0.161452 0.0445138 0.505 255 255 255
0.11387 -0.0939908 0.459 255 255 255
-0.0420247 0.127498 0.652 255 255 255
-0.00921173 -0.153931 0.488 255 255 255
0.160401 0.155538 0.565 255 255 255
0.0041694 -0.168027 0.474 255 255 255
-0.502536 0.307754 0.969 255 255 255
-0.0900997 0.259808 0.742 255 255 255
-0.0560269 -0.0442139 0.568 255 255 255
0.0989243 -0.0736134 0.477 255 255 255
-0.155261 -0.0437266 0.613 255 255 255
0.0676511 0.0851571 0.574 255 255 255
0.184447 -0.123082 0.407 255 255 255
0.0893644 0.193187 0.621 255 255 255
-0.113198 -0.141756 0.545 255 255 255
0.131644 -0.158298 0.416 255 255 255
0.137231 0.0961079 0.546 255 255 255
-0.0316401 -0.121012 0.517 255 255 255
0.085834 0.000986811 0.52 255 255 255
-0.099483 -0.142562 0.538 255 255 255
0.244988 0.114276 0.501 255 255 255
0.194222 -0.0854438 0.424 255 255 255
-0.227414 0.0328918 0.693 255 255 255
-0.038858 0.210161 0.69 255 255 255
-0.116028 0.00522917 0.622 255 255 255
-0.0710891 0.215948 0.709 255 255 255
-0.293758 0.297272 0.861 255 255 255
-0.143611 -0.187388 0.536 255 255 255
-0.0014967 0.0198399 0.576 255 255 255
0.145203 0.157082 0.574 255 255 255
-0.139092 -0.0240858 0.621 255 255 255
0.0978375 0.0277428 0.53 255 255 255
-0.0906521 -0.0279187 0.595 255 255 255
0.0459071 -0.0812312 0.5 255 255 255
0.217653 0.217369 0.568 255 255 255
0.0101675 -0.177324 0.466 255 255 255
0.0704374 -0.0865081 0.484 255 255 255
-0.101611 -0.140455 0.54 255 255 255
-0.224624 0.096807 0.724 255 255 255
-0.0413024 -0.00647237 0.582 255 255 255
0.0326216 -0.0951102 0.496 255 255 255
0.00806117 -0.158666 0.476 255 255 255
0.0901858 -0.104831 0.464 255 255 255
0.202299 -0.0319568 0.448 255 255 255
-0.158229 -0.0133037 0.637 255 255 255
0.00339065 -0.172291 0.473 255 255 255
0.247292 0.096814 0.491 255 255 255
0.0452533 -0.124583 0.476 255 255 255
-0.0335984 -0.0347244 0.564 255 255 255
-0.201314 -0.157195 0.579 255 255 255
0.0324556 -0.082206 0.506 255 255 255
0.018068 -0.0255256 0.544 255 255 255
0.05203 -0.157243 0.454 255 255 255
-0.0485106 -0.00463323 0.589 255 255 255
0.171606 0.0282701 0.494 255 255 255
0.0957383 -0.090696 0.469 255 255 255
-0.48557 0.380684 0.999 255 255 255
0.220049 -0.0108628 0.45 255 255 255
-0.141503 -0.0921846 0.585 255 255 255
-0.0535609 -0.090868 0.543 255 255 255
-0.0782338 -0.0892635 0.555 255 255 255
-0.146384 0.140014 0.716 255 255 255
0.136138 -0.126647 0.428 255 255 255
-0.140364 0.158591 0.721 255 255 255
0.0100752 -0.116798 0.499 255 255 255
0.0982376 -0.0870652 0.47 255 255 255
-0.0367398 -0.167416 0.495 255 255 255
0.232736 0.0702297 0.484 255 255 255
0.0693397 -0.0704667 0.493 255 255 255
-0.442163 0.376299 0.975 255 255 255
-0.28392 0.128096 0.763 255 255 255
-0.252199 -0.182264 0.59 255 255 255
0.195027 0.104225 0.52 255 255 255
0.0129625 0.161064 0.642 255 255 255
0.12343 0.108597 0.56 255 255 255
-0.224243 -0.132628 0.6 255 255 255
0.173028 -0.0663531 0.444 255 255 255
0.186859 0.136227 0.543 255 255 255
0.205956 -0.110614 0.405 255 255 255
0.176091 0.137482 0.548 255 255 255
0.112647 -0.0193928 0.5 255 255 255
0.00858746 0.00380341 0.561 255 255 255
0.153421 0.209305 0.595 255 255 255
-0.0802087 0.20873 0.708 255 255 255
-0.375302 0.0364041 0.767 255 255 255
-0.218594 -0.121134 0.606 255 255 255
-0.00903952 0.149453 0.646 255 255 255
0.200933 0.0770794 0.503 255 255 255
0.0419981 0.0245798 0.556 255 255 255
-0.353278 -0.0625521 0.701 255 255 255
-0.00818534 -0.0876885 0.524 255 255 255
0.0107031 0.139015 0.632 255 255 255
-0.0588515 0.0473577 0.617 255 255 255
-0.0660646 0.165308 0.681 255 255 255
-0.0359848 0.144734 0.658 255 255 255
-0.156516 -0.0283546 0.626 255 255 255
0.00440856 0.103249 0.615 255 255 255
0.0831382 -0.0850121 0.48 255 255 255
0.0329475 0.0146271 0.556 255 255 255
-0.16211 0.0714229 0.684 255 255 255
0.19964 -0.0975384 0.411 255 255 255
-0.420216 0.339294 0.947 255 255 255
0.125805 -0.0182447 0.491 255 255 255
-0.214972 -0.139544 0.588 255 255 255
0.172793 -0.12183 0.414 255 255 255
-0.202729 -0.044611 0.64 255 255 255
0.0579375 -0.000727322 0.536 255 255 255
-0.169314 0.0216592 0.66 255 255 255
-0.175817 0.135312 0.722 255 255 255
0.189488 -0.0301683 0.454 255 255 255
-0.0755941 0.0576739 0.631 255 255 255
0.269449 0.210065 0.542 255 255 255
-0.324925 -0.0841478 0.673 255 255 255
0.00921276 -0.0290667 0.544 255 255 255
-0.120737 -0.152723 0.543 255 255 255
0.27483 0.207254 0.537 255 255 255
0.217746 -0.0333818 0.438 255 255 255
-0.190044 0.264093 0.791 255 255 255
0.0678471 -0.140868 0.456 255 255 255
0.183253 -0.101282 0.421 255 255 255
0.164075 0.219956 0.595 255 255 255
-0.14964 -0.110451 0.576 255 255 255
-0.234465 -0.0484814 0.65 255 255 255
-0.0208183 -0.0624763 0.542 255 255 255
-0.183517 0.00873088 0.657 255 255 255
-0.0838471 -0.187976 0.507 255 255 255
0.163713 -0.0115387 0.478 255 255 255
0.0777242 -0.130358 0.453 255 255 255
-0.221144 -0.215828 0.56 255 255 255
0.0296948 0.0968256 0.6 255 255 255
0.136092 0.169032 0.583 255 255 255
-0.312923 -0.165125 0.627 255 255 255
0.101207 -0.131247 0.446 255 255 255
-0.0594753 -0.0705503 0.557 255 255 255
0.034195 0.0019282 0.547 255 255 255
0.185995 0.107546 0.528 255 255 255
0.11394 -0.143666 0.431 255 255 255
-0.0875826 -0.097743 0.557 255 255 255
0.157096 0.114347 0.544 255 255 255
-0.465169 0.357496 0.98 255 255 255
0.139319 0.059317 0.527 255 255 255
0.190183 0.02122 0.48 255 255 255
0.255129 0.171663 0.527 255 255 255
0.173288 0.00563259 0.483 255 255 255
0.162696 0.212347 0.59 255 255 255
-0.116554 -0.154515 0.54 255 255 255
-0.234592 -0.0733117 0.636 255 255 255
0.0933885 0.136266 0.589 255 255 255
0.170274 -0.0478997 0.454 255 255 255
-0.170059 -0.0579746 0.616 255 255 255
-0.0514895 -0.132375 0.522 255 255 255
-0.218955 -0.148912 0.591 255 255 255
0.162546 -0.110804 0.426 255 255 255
0.121531 0.18821 0.605 255 255 255
-0.437335 0.140595 0.854 255 255 255
0.204348 0.0178316 0.473 255 255 255
0.129728 -0.146506 0.423 255 255 255
0.168361 0.0495425 0.506 255 255 255
0.200471 0.0436299 0.486 255 255 255
-0.179255 -0.169342 0.563 255 255 255
0.117858 0.146959 0.582 255 255 255
-0.0814127 0.287402 0.751 255 255 255
-0.233586 0.248731 0.808 255 255 255
-0.0840125 -0.18504 0.508 255 255 255
0.13303 0.0945037 0.547 255 255 255
-0.0553465 0.154374 0.672 255 255 255
0.210248 0.0703566 0.496 255 255 255
-0.163984 -0.204342 0.537 255 255 255
-0.0773881 -0.10974 0.549 255 255 255
0.164447 0.0623981 0.517 255 255 255
0.116045 -0.141562 0.431 255 255 255
-0.0161264 -0.174422 0.481 255 255 255
-0.0392362 -0.168561 0.496 255 255 255
-0.262423 0.0459538 0.721 255 255 255
0.0449363 0.122852 0.608 255 255 255
-0.152728 -0.0724516 0.603 255 255 255
0.00991921 0.175224 0.648 255 255 255
0.117806 -0.0566548 0.478 255 255 255
0.147968 -0.131739 0.422 255 255 255
0.131892 0.145619 0.573 255 255 255
0.0335551 0.252846 0.678 255 255 255
-0.495272 0.298024 0.958 255 255 255
0.148745 0.187705 0.588 255 255 255
0.190978 0.0309758 0.486 255 255 255
0.213904 0.0285473 0.472 255 255 255
0.0510564 -0.0239157 0.528 255 255 255
0.0477251 -0.0742039 0.502 255 255 255
0.123044 -0.118293 0.441 255 255 255
-0.188444 -0.144252 0.58 255 255 255
-0.0684476 -0.11826 0.535 255 255 255
-0.214859 -0.0531084 0.642 255 255 255
-0.0439034 -0.0612653 0.555 255 255 255
0.198133 0.142505 0.54 255 255 255
0.201765 0.0735117 0.501 255 255 255
-0.0338174 0.188026 0.679 255 255 255
0.213955 0.161837 0.54 255 255 255
0.273295 0.201751 0.534 255 255 255
0.191095 0.214411 0.58 255 255 255
0.23912 0.0844832 0.489 255 255 255
0.194267 -0.117573 0.404 255 255 255
-0.495984 0.338704 0.981 255 255 255
-0.0685399 0.0159161 0.605 255 255 255
-0.32608 -0.108627 0.662 255 255 255
0.171617 -0.134672 0.408 255 255 255
0.180738 0.0446174 0.497 255 255 255
-0.233853 -0.110923 0.615 255 255 255
0.213524 0.00161447 0.458 255 255 255
-0.367781 0.233032 0.867 255 255 255
0.132277 0.0268529 0.513 255 255 255
0.177506 -0.104956 0.422 255 255 255
-0.184558 -0.106884 0.598 255 255 255
0.122842 -0.152702 0.423 255 255 255
0.140607 0.175624 0.586 255 255 255
-0.119238 -0.189775 0.521 255 255 255
-0.245683 -0.0260639 0.672 255 255 255
-0.140412 -0.117442 0.569 255 255 255
-0.300878 0.0285509 0.726 255 255 255
0.0130888 -0.0686656 0.522 255 255 255
-0.181898 0.188661 0.752 255 255 255
-0.188063 -0.209543 0.546 255 255 255
-0.148791 -0.101779 0.58 255 255 255
0.133647 -0.0349476 0.479 255 255 255
0.18441 0.0770921 0.514 255 255 255
0.0384533 -0.0275598 0.532 255 255 255
0.147626 0.103914 0.545 255 255 255
0.221916 0.0419576 0.476 255 255 255
-0.0890497 0.181459 0.705 255 255 255
0.110618 -0.151377 0.429 255 255 255
0.132964 -0.129037 0.429 255 255 255
0.183686 -0.135624 0.401 255 255 255
0.191245 -0.0905346 0.422 255 255 255
0.183529 0.0900117 0.521 255 255 255
0.216371 -0.0461745 0.431 255 255 255
0.159479 0.236246 0.607 255 255 255
0.15649 -0.00224585 0.487 255 255 255
0.100224 0.01368 0.52 255 255 255
0.194653 -0.146125 0.389 255 255 255
-0.22378 -0.161956 0.586 255 255 255
0.230375 0.0351597 0.468 255 255 255
-0.0422089 -0.174762 0.493 255 255 255
0.160638 -0.12252 0.421 255 255 255
0.173257 -0.0248991 0.466 255 255 255
-0.0181749 -0.109233 0.517 255 255 255
0.147328 0.161098 0.575 255 255 255
-0.248581 -0.185796 0.586 255 255 255
-0.403758 0.109242 0.817 255 255 255
-0.364098 0.18045 0.839 255 255 255
-0.325187 0.0665503 0.755 255 255 255
-0.0123718 -0.0225908 0.559 255 255 255
0.182691 -0.0445485 0.45 255 255 255
0.106037 -0.123087 0.448 255 255 255
-0.195128 0.0985399 0.711 255 255 255
0.211193 -0.0138839 0.453 255 255 255
0.00224202 0.0169392 0.573 255 255 255
-0.157782 -0.177711 0.552 255 255 255
-0.531021 0.351897 1.005 255 255 255
-0.0366354 -0.187723 0.483 255 255 255
-0.203069 0.12087 0.727 255 255 255
-0.449675 0.377018 0.981 255 255 255
-0.150053 0.100121 0.69 255 255 255
-0.447458 0.163237 0.871 255 255 255
0.197619 0.143649 0.541 255 255 255
-0.370255 0.199415 0.85 255 255 255
-0.267028 0.148932 0.768 255 255 255
0.168116 0.105293 0.534 255 255 255
0.00253548 0.160461 0.648 255 255 255
0.0835675 0.192795 0.623 255 255 255
0.187365 -0.0971711 0.421 255 255 255
0.0558119 -0.0910069 0.487 255 255 255
0.175913 -0.118748 0.415 255 255 255
0.166647 -0.148472 0.404 255 255 255
