ply
format ascii 1.0
comment Created by Open3D
element vertex 1285
property double x
property double y
property double z
property uchar red
property uchar green
property uchar blue
end_header
0.261894 -0.243513 0.772 255 255 255
0.306994 -0.189437 0.815 255 255 255
-0.191105 -0.0599903 0.841 255 255 255
-0.269099 -0.094453 0.808 255 255 255
-0.0658695 -0.232008 0.755 255 255 255
-0.0709005 0.395901 1.1 255 255 255
-0.348718 -0.0138045 0.783 255 255 255
-0.0260503 -0.204628 0.777 255 255 255
0.36258 -0.0812964 0.879 255 255 255
0.1915 -0.0993627 0.85 255 255 255
0.248574 0.125803 0.989 255 255 255
0.335181 -0.0632002 0.886 255 255 255
-0.357224 0.0810235 0.814 255 255 255
-0.236843 -0.0180237 0.863 255 255 255
-0.341686 -0.176349 0.678 255 255 255
-0.00611267 -0.119437 0.817 255 255 255
-0.184006 -0.116228 0.804 255 255 255
0.27474 -0.212266 0.806 255 255 255
0.0819487 -0.0254519 0.877 255 255 255
-0.301907 0.106546 0.92 255 255 255
0.406325 0.166727 0.93 255 255 255
0.285592 0.32931 1.087 255 255 255
-0.0181974 0.299014 1.055 255 255 255
-0.267851 0.25389 1.012 255 255 255
-0.0371046 -0.250757 0.745 255 255 255
0.12563 -0.0227521 0.883 255 255 255
0.123467 -0.115826 0.839 255 255 255
-0.292657 -0.0886399 0.815 255 255 255
-0.0222061 0.34396 1.083 255 255 255
-0.0114603 -0.122395 0.819 255 255 255
0.451724 0.345488 1.015 255 255 255
0.355713 0.30222 1.085 255 255 255
0.254101 0.287032 1.081 255 255 255
-0.348568 0.169416 0.945 255 255 255
-0.0910845 -0.145012 0.804 255 255 255
-0.411899 0.161336 0.839 255 255 255
0.3441 0.359998 1.122 255 255 255
-0.347636 -0.0588069 0.74 255 255 255
-0.355128 0.170411 0.942 255 255 255
-0.0324874 0.124836 0.969 255 255 255
0.00220272 0.127329 0.964 255 255 255
0.261184 -0.00424267 0.92 255 255 255
-0.0683668 -0.126946 0.814 255 255 255
0.0431255 0.438735 1.132 255 255 255
-0.256434 -0.227705 0.741 255 255 255
0.0852848 -0.196233 0.789 255 255 255
0.326016 0.33443 1.098 255 255 255
-0.248821 -0.259557 0.719 255 255 255
-0.346698 0.325539 1.041 255 255 255
-0.0576896 -0.087781 0.832 255 255 255
-0.0504024 0.230834 1.012 255 255 255
0.433012 0.159745 0.916 255 255 255
-0.0229719 -0.152482 0.802 255 255 255
0.396366 -0.18303 0.816 255 255 255
0.118527 -0.207525 0.788 255 255 255
-0.380797 0.0287643 0.763 255 255 255
0.170667 -0.188188 0.804 255 255 255
-0.199072 -0.236784 0.743 255 255 255
-0.367289 0.08164 0.807 255 255 255
0.0800428 0.326336 1.083 255 255 255
0.0243722 0.144203 0.972 255 255 255
-0.329627 0.185584 0.957 255 255 255
0.413148 0.0644597 0.877 255 255 255
-0.279549 0.0230981 0.878 255 255 255
0.0226433 -0.0756693 0.848 255 255 255
0.391476 0.211637 0.984 255 255 255
0.366942 -0.146559 0.843 255 255 255
-0.238597 0.31981 1.05 255 255 255
-0.0965622 -0.276641 0.727 255 255 255
-0.356651 0.0840096 0.844 255 255 255
-0.0368124 0.382674 1.098 255 255 255
-0.34768 -0.0536252 0.735 255 255 255
0.00823496 -0.175912 0.79 255 255 255
0.444555 0.0801585 0.877 255 255 255
-0.331597 -0.238229 0.701 255 255 255
0.401468 -0.213734 0.792 255 255 255
0.185366 -0.113365 0.841 255 255 255
0.363258 -0.0291131 0.902 255 255 255
-0.073295 -0.279353 0.731 255 255 255
0.281674 0.398636 1.128 255 255 255
-0.30064 0.39017 1.089 255 255 255
0.450643 0.203922 0.934 255 255 255
-0.116356 -0.152578 0.789 255 255 255
-0.321141 0.191065 0.969 255 255 255
-0.0988286 -0.037554 0.86 255 255 255
0.355964 -0.143815 0.843 255 255 255
0.23004 0.389644 1.118 255 255 255
-0.0179214 0.264045 1.039 255 255 255
-0.470704 0.327501 0.931 255 255 255
-0.138492 0.0549777 0.909 255 255 255
0.243244 -0.0392134 0.898 255 255 255
0.287713 0.101182 0.969 255 255 255
0.289225 -0.285971 0.758 255 255 255
-0.211053 0.432793 1.112 255 255 255
0.404204 -0.00823094 0.867 255 255 255
-0.0949893 0.147569 0.963 255 255 255
-0.118684 0.0554011 0.916 255 255 255
-0.291833 0.00874996 0.872 255 255 255
-0.387808 0.251313 0.897 255 255 255
-0.121153 0.362252 1.085 255 255 255
-0.093571 0.191834 0.981 255 255 255
-0.245049 -0.135456 0.794 255 255 255
-0.249353 0.183747 0.972 255 255 255
0.313447 -0.172965 0.825 255 255 255
0.385694 -0.144156 0.845 255 255 255
0.392523 0.0269608 0.912 255 255 255
-0.247439 0.347235 1.066 255 255 255
-0.271282 0.0274157 0.879 255 255 255
0.142564 0.0151871 0.918 255 255 255
0.265638 0.303985 1.085 255 255 255
-0.339409 -0.170268 0.703 255 255 255
0.0696073 -0.143193 0.816 255 255 255
-0.385565 0.265925 0.902 255 255 255
-0.375183 0.346101 0.966 255 255 255
-0.162438 -0.278664 0.72 255 255 255
0.00539653 0.142915 0.974 255 255 255
-0.0160549 -0.193466 0.783 255 255 255
0.297484 0.107601 0.97 255 255 255
0.355236 0.0275225 0.931 255 255 255
0.365635 0.312237 1.083 255 255 255
-0.0651828 -0.112414 0.824 255 255 255
0.403652 -0.124188 0.831 255 255 255
-0.0660649 -0.281347 0.73 255 255 255
-0.355793 -0.0414942 0.732 255 255 255
-0.264615 -0.186301 0.754 255 255 255
-0.162843 -0.1007 0.816 255 255 255
0.440158 0.350443 1.015 255 255 255
-0.291841 -0.231453 0.73 255 255 255
0.146204 0.145785 0.972 255 255 255
0.179247 0.0244661 0.93 255 255 255
0.172695 -0.283491 0.745 255 255 255
0.0152756 0.028133 0.902 255 255 255
-0.0268908 -0.084826 0.843 255 255 255
-0.357102 0.263634 0.999 255 255 255
0.0429346 -0.265305 0.745 255 255 255
0.303042 -0.269747 0.768 255 255 255
-0.168543 -0.200858 0.758 255 255 255
0.485462 0.321728 1.013 255 255 255
-0.138371 0.000237939 0.88 255 255 255
0.138382 0.0361802 0.92 255 255 255
0.250582 0.290551 1.081 255 255 255
-0.244704 -0.0123774 0.861 255 255 255
-0.438976 0.317385 0.928 255 255 255
0.15459 0.150995 0.975 255 255 255
0.408264 -0.115491 0.808 255 255 255
-0.0773483 -0.0924126 0.825 255 255 255
0.205919 0.00322189 0.914 255 255 255
0.180882 -0.255469 0.759 255 255 255
0.330361 -0.173385 0.827 255 255 255
0.152972 0.200529 1.017 255 255 255
0.0751554 0.0345322 0.916 255 255 255
0.142242 -0.022881 0.888 255 255 255
-0.436955 0.267393 0.902 255 255 255
0.019626 -0.28447 0.735 255 255 255
-0.197076 0.0915744 0.92 255 255 255
0.223523 -0.0158848 0.901 255 255 255
0.0225506 -0.174658 0.796 255 255 255
-0.339949 -0.12006 0.739 255 255 255
-0.291624 0.27906 1.032 255 255 255
0.390387 0.10569 0.939 255 255 255
-0.33562 0.109302 0.918 255 255 255
-0.362482 0.154786 0.848 255 255 255
0.0223185 -0.26773 0.745 255 255 255
0.250629 -0.221467 0.792 255 255 255
0.116728 0.0931125 0.951 255 255 255
0.271898 0.375089 1.118 255 255 255
-0.273341 -0.107202 0.805 255 255 255
-0.105924 0.2182 0.992 255 255 255
-0.406355 0.219175 0.868 255 255 255
-0.293336 0.246569 1.009 255 255 255
-0.305275 0.0159541 0.878 255 255 255
0.387497 0.148276 0.978 255 255 255
-0.348372 -0.0282402 0.76 255 255 255
0.488544 0.393208 1.059 255 255 255
-0.334982 -0.226186 0.65 255 255 255
0.154758 -0.056331 0.869 255 255 255
-0.0850382 0.330923 1.075 255 255 255
0.399202 -0.207555 0.803 255 255 255
0.226822 -0.0891279 0.858 255 255 255
-0.0162301 0.264045 1.039 255 255 255
0.146866 -0.246559 0.762 255 255 255
-0.320378 -0.268638 0.709 255 255 255
0.0918227 -0.199053 0.79 255 255 255
0.271958 -0.108295 0.855 255 255 255
0.220128 -0.277336 0.758 255 255 255
0.387578 0.0153029 0.925 255 255 255
-0.34154 -0.166785 0.698 255 255 255
0.000696603 0.302156 1.06 255 255 255
-0.319719 -0.106936 0.803 255 255 255
-0.252804 -0.128995 0.794 255 255 255
-0.162889 -0.272389 0.722 255 255 255
-0.00802088 -0.253861 0.747 255 255 255
-0.33716 -0.21892 0.68 255 255 255
0.338165 -0.128411 0.85 255 255 255
0.401129 0.13422 0.925 255 255 255
-0.354695 0.0982614 0.873 255 255 255
-0.377294 0.384532 0.988 255 255 255
-0.338609 0.113784 0.918 255 255 255
-0.0919881 -0.0868426 0.836 255 255 255
0.209508 -0.126749 0.839 255 255 255
0.376229 0.036888 0.938 255 255 255
0.0501587 -0.207218 0.782 255 255 255
-0.341133 0.168767 0.95 255 255 255
-0.355584 0.121706 0.858 255 255 255
0.392181 -0.0669159 0.878 255 255 255
0.203162 -0.118839 0.841 255 255 255
-0.0769171 -0.259757 0.743 255 255 255
0.187705 0.338552 1.094 255 255 255
-0.118403 -0.112005 0.821 255 255 255
-0.149574 -0.037292 0.854 255 255 255
-0.141651 -0.150961 0.794 255 255 255
0.391476 0.214839 0.984 255 255 255
0.332584 0.00175918 0.927 255 255 255
0.518703 0.313992 1.02 255 255 255
-0.297066 0.229963 0.994 255 255 255
-0.341251 -0.171732 0.686 255 255 255
-0.19567 0.0174225 0.88 255 255 255
0.282487 -0.126878 0.849 255 255 255
-0.00771588 -0.0879852 0.847 255 255 255
0.202077 -0.196038 0.804 255 255 255
0.200171 0.343893 1.094 255 255 255
0.260968 -0.0131393 0.914 255 255 255
0.00955708 -0.171418 0.793 255 255 255
0.137012 0.108391 0.963 255 255 255
0.305014 0.0230761 0.935 255 255 255
0.408262 0.140061 0.914 255 255 255
0.25035 -0.191382 0.812 255 255 255
0.314279 -0.0601804 0.884 255 255 255
-0.132124 -0.167744 0.776 255 255 255
-0.0726969 -0.275649 0.737 255 255 255
-0.350129 0.0260433 0.835 255 255 255
0.324577 0.00933195 0.93 255 255 255
0.10735 -0.0718668 0.852 255 255 255
0.00501423 0.0326448 0.905 255 255 255
-0.0772616 0.132634 0.957 255 255 255
0.408024 -0.0298459 0.84 255 255 255
0.248011 -0.187649 0.813 255 255 255
0.24993 -0.215353 0.798 255 255 255
0.022008 0.360374 1.09 255 255 255
-0.432202 0.203169 0.866 255 255 255
-0.0492062 -0.10059 0.826 255 255 255
-0.149983 0.331 1.064 255 255 255
-0.396342 0.0836709 0.789 255 255 255
0.293231 -0.0725484 0.877 255 255 255
0.0972885 0.0606574 0.928 255 255 255
0.268177 -0.262358 0.772 255 255 255
-0.311682 -0.0245232 0.845 255 255 255
0.391896 0.0106588 0.914 255 255 255
-0.190427 -0.255068 0.733 255 255 255
0.169394 0.154643 0.978 255 255 255
0.379224 0.328822 1.057 255 255 255
-0.13086 -0.191737 0.776 255 255 255
0.171335 -0.219344 0.789 255 255 255
0.135722 -0.0763832 0.856 255 255 255
0.288284 -0.262358 0.772 255 255 255
0.353593 -0.0754887 0.878 255 255 255
-0.436398 0.345167 0.942 255 255 255
0.0904948 -0.0689316 0.85 255 255 255
0.127972 -0.220225 0.783 255 255 255
0.0812854 -0.258008 0.752 255 255 255
0.251229 -0.216652 0.798 255 255 255
0.0150175 -0.149863 0.809 255 255 255
0.389266 0.116816 0.955 255 255 255
-0.0718296 0.106591 0.947 255 255 255
-0.289081 -0.183347 0.757 255 255 255
0.0666244 0.207983 1.013 255 255 255
-0.318808 -0.103144 0.804 255 255 255
0.398797 0.205553 0.963 255 255 255
-0.158407 -0.27159 0.723 255 255 255
-0.330734 -0.0218503 0.848 255 255 255
-0.385523 0.11428 0.815 255 255 255
0.196968 -0.0689789 0.868 255 255 255
-0.04216 0.303588 1.053 255 255 255
-0.0366558 -0.133897 0.816 255 255 255
0.17188 -0.11213 0.842 255 255 255
0.355112 -0.254268 0.778 255 255 255
-0.347937 -0.0574191 0.787 255 255 255
0.180766 0.0840914 0.954 255 255 255
0.05664 0.382553 1.108 255 255 255
0.0099445 0.110483 0.954 255 255 255
0.279727 0.138959 0.991 255 255 255
-0.342114 -0.122453 0.711 255 255 255
0.106941 -0.00849676 0.895 255 255 255
0.124624 -0.25658 0.755 255 255 255
0.0959231 -0.12236 0.837 255 255 255
0.390389 -0.187278 0.823 255 255 255
0.29235 0.425512 1.141 255 255 255
-0.244202 0.148362 0.958 255 255 255
0.305015 -0.256408 0.773 255 255 255
0.0237207 -0.245444 0.751 255 255 255
-0.348402 -0.0643023 0.734 255 255 255
-0.0508567 -0.0930847 0.831 255 255 255
-0.128065 0.0103556 0.888 255 255 255
0.253124 -0.180143 0.821 255 255 255
-0.158595 0.0775908 0.914 255 255 255
0.0937752 -0.258694 0.754 255 255 255
0.350207 -0.272955 0.77 255 255 255
-0.245805 0.0603588 0.901 255 255 255
0.399965 0.0868471 0.902 255 255 255
-0.0185768 0.329786 1.077 255 255 255
-0.490933 0.332403 0.932 255 255 255
0.020635 0.231451 1.022 255 255 255
0.421084 0.161236 0.916 255 255 255
0.31644 0.348201 1.102 255 255 255
-0.321199 -0.161854 0.772 255 255 255
-0.117086 -0.252862 0.737 255 255 255
0.143045 0.083827 0.951 255 255 255
-0.235091 0.356499 1.073 255 255 255
-0.168659 0.179002 0.972 255 255 255
0.0974916 0.322215 1.081 255 255 255
0.278244 0.0578855 0.932 255 255 255
-0.261403 -0.266257 0.715 255 255 255
0.447266 0.190326 0.927 255 255 255
-0.345006 -0.181579 0.657 255 255 255
0.46931 0.150966 0.917 255 255 255
0.462356 0.187309 0.927 255 255 255
-0.277575 -0.170869 0.773 255 255 255
0.0306891 0.0603959 0.924 255 255 255
0.100847 -0.0945409 0.844 255 255 255
-0.169692 -0.0941755 0.817 255 255 255
0.357336 -0.145187 0.843 255 255 255
-0.25127 -0.217764 0.74 255 255 255
0.3734 0.387262 1.106 255 255 255
0.268422 0.230672 1.041 255 255 255
-0.230021 -0.100453 0.814 255 255 255
-0.300179 0.200224 0.983 255 255 255
0.395404 -0.0313382 0.882 255 255 255
-0.230956 -0.112861 0.808 255 255 255
-0.28341 -0.218673 0.739 255 255 255
0.147033 0.310475 1.083 255 255 255
0.270792 -0.143119 0.847 255 255 255
-0.336916 -0.196832 0.684 255 255 255
0.542095 0.399277 1.066 255 255 255
0.13695 -0.241315 0.769 255 255 255
-0.300758 -0.261715 0.709 255 255 255
-0.154257 0.294761 1.046 255 255 255
0.226704 -0.11213 0.842 255 255 255
0.399594 -0.164757 0.831 255 255 255
-0.341694 -0.164042 0.696 255 255 255
-0.255411 0.428901 1.116 255 255 255
0.24642 -0.266749 0.763 255 255 255
-0.0308604 -0.0926155 0.839 255 255 255
-0.341287 -0.0134424 0.84 255 255 255
0.277549 -0.0247918 0.905 255 255 255
0.378489 0.210666 1.018 255 255 255
0.180907 0.14539 0.98 255 255 255
-0.088599 0.114055 0.945 255 255 255
0.266743 0.0848359 0.945 255 255 255
-0.126625 0.278249 1.029 255 255 255
-0.329058 -0.209232 0.723 255 255 255
0.164662 -0.0215325 0.892 255 255 255
-0.281126 0.162345 0.967 255 255 255
-0.423366 0.263861 0.895 255 255 255
0.426718 0.0361938 0.85 255 255 255
-0.153213 -0.154753 0.787 255 255 255
0.369416 0.067848 0.944 255 255 255
-0.135479 0.267516 1.02 255 255 255
-0.279628 -0.237469 0.723 255 255 255
-0.341694 -0.153848 0.696 255 255 255
-0.357138 -0.132216 0.678 255 255 255
0.129237 -0.113365 0.841 255 255 255
0.12319 -0.141053 0.819 255 255 255
-0.31343 -0.0527682 0.835 255 255 255
-0.315928 -0.232003 0.728 255 255 255
0.375965 -0.269335 0.774 255 255 255
-0.304198 -0.00392447 0.851 255 255 255
0.0093522 -0.211942 0.776 255 255 255
-0.186101 0.046901 0.896 255 255 255
-0.14526 -0.274739 0.722 255 255 255
-0.152477 0.0760202 0.913 255 255 255
0.269989 -0.26669 0.77 255 255 255
0.157009 -0.221631 0.788 255 255 255
-0.1227 0.109673 0.947 255 255 255
0.204192 -0.261782 0.763 255 255 255
0.0922746 -0.0996792 0.841 255 255 255
-0.375498 0.132272 0.828 255 255 255
-0.364693 0.267563 0.955 255 255 255
0.0536539 0.0638835 0.931 255 255 255
-0.322451 -0.00529061 0.848 255 255 255
0.191841 -0.287953 0.744 255 255 255
-0.341865 -0.169825 0.674 255 255 255
-0.159599 0.257946 1.015 255 255 255
0.0878535 -0.197517 0.789 255 255 255
0.169324 0.311084 1.079 255 255 255
-0.128577 -0.233735 0.741 255 255 255
-0.170465 0.28827 1.041 255 255 255
-0.122008 0.004565 0.886 255 255 255
-0.0505327 -0.187334 0.784 255 255 255
0.366041 0.305816 1.079 255 255 255
0.0297536 -0.252103 0.749 255 255 255
-0.266206 0.418614 1.108 255 255 255
-0.0566073 0.0281019 0.901 255 255 255
0.0239387 -0.0781518 0.845 255 255 255
-0.0641381 0.0740088 0.925 255 255 255
0.408388 -0.00395675 0.858 255 255 255
-0.118691 -0.104242 0.823 255 255 255
-0.104508 -0.213506 0.768 255 255 255
0.167695 -0.217051 0.79 255 255 255
0.247111 -0.223196 0.789 255 255 255
0.214031 -0.0302419 0.892 255 255 255
-0.322954 0.234816 0.994 255 255 255
0.146666 -0.062964 0.863 255 255 255
0.0020085 -0.0169274 0.879 255 255 255
-0.350472 0.0430592 0.849 255 255 255
-0.433866 0.322609 0.93 255 255 255
0.272127 -0.0740599 0.878 255 255 255
-0.0389095 0.242601 1.013 255 255 255
0.123886 0.322215 1.081 255 255 255
-0.107875 -0.235943 0.748 255 255 255
-0.328388 -0.203498 0.732 255 255 255
-0.116281 0.377765 1.089 255 255 255
0.162508 -0.262375 0.754 255 255 255
0.076058 0.0590835 0.927 255 255 255
-0.104642 0.18207 0.98 255 255 255
-0.0541195 0.0975277 0.934 255 255 255
-0.0506387 -0.141438 0.806 255 255 255
0.00293459 -0.243897 0.75 255 255 255
0.262106 0.30222 1.085 255 255 255
0.349445 0.127799 0.992 255 255 255
0.400923 -0.0859329 0.854 255 255 255
0.407558 0.346114 1.012 255 255 255
-0.253288 0.114247 0.934 255 255 255
-0.155628 -0.112237 0.813 255 255 255
-0.18877 -0.119854 0.802 255 255 255
0.217407 -0.0431119 0.888 255 255 255
-0.22336 -0.174282 0.777 255 255 255
-0.375062 0.316041 0.942 255 255 255
-0.341453 0.194785 0.964 255 255 255
0.217805 -0.0782305 0.861 255 255 255
-0.0826204 0.109673 0.947 255 255 255
-0.327939 -0.188945 0.731 255 255 255
-0.261668 -0.048925 0.839 255 255 255
0.184445 0.301184 1.075 255 255 255
-0.311041 -0.0424998 0.847 255 255 255
-0.366535 0.163643 0.851 255 255 255
-0.175987 -0.0247844 0.854 255 255 255
0.12206 -0.0297673 0.878 255 255 255
0.0670987 -0.268581 0.744 255 255 255
0.137599 -0.00270077 0.905 255 255 255
0.0848454 0.0297978 0.908 255 255 255
0.0826917 -0.110628 0.841 255 255 255
0.257163 -0.142443 0.843 255 255 255
0.202 0.379375 1.104 255 255 255
0.298358 0.0323087 0.938 255 255 255
0.231287 0.354085 1.098 255 255 255
-0.270676 0.284947 1.029 255 255 255
0.399478 -0.0407753 0.869 255 255 255
-0.309613 -0.170244 0.759 255 255 255
-0.124866 -0.17957 0.778 255 255 255
0.1729 -0.099012 0.847 255 255 255
-0.0995711 -0.113203 0.82 255 255 255
0.430311 0.180492 0.923 255 255 255
-0.398178 0.149875 0.836 255 255 255
-0.210809 -0.0912908 0.827 255 255 255
-0.185926 0.394799 1.092 255 255 255
-0.235447 -0.240425 0.732 255 255 255
-0.302652 -0.165218 0.776 255 255 255
0.410285 -0.0949206 0.812 255 255 255
0.394365 0.0430014 0.906 255 255 255
0.17187 -0.272693 0.752 255 255 255
-0.331528 -0.034068 0.843 255 255 255
0.252047 -0.266203 0.765 255 255 255
-0.0919228 -0.238058 0.747 255 255 255
0.147432 -0.159865 0.813 255 255 255
-0.3637 0.376725 1.066 255 255 255
-0.0467041 -0.189886 0.784 255 255 255
0.392272 0.200835 0.986 255 255 255
0.079895 0.322215 1.081 255 255 255
0.424059 0.370214 1.024 255 255 255
-0.369237 0.226751 0.898 255 255 255
-0.321714 0.0617564 0.9 255 255 255
0.237132 -0.186097 0.812 255 255 255
0.0782671 -0.18502 0.796 255 255 255
-0.348989 0.0979834 0.91 255 255 255
-0.101587 0.00167758 0.884 255 255 255
0.274122 -0.162248 0.832 255 255 255
-0.00740615 -0.134728 0.813 255 255 255
-0.194769 -0.167124 0.779 255 255 255
0.397508 -0.0495437 0.874 255 255 255
0.141733 -0.260287 0.748 255 255 255
-0.414073 0.308165 0.923 255 255 255
-0.476988 0.296235 0.914 255 255 255
0.407704 0.377045 1.029 255 255 255
-0.0628035 -0.0900538 0.828 255 255 255
-0.0381832 -0.0730813 0.85 255 255 255
0.41412 0.309463 1 255 255 255
0.378783 0.301301 1.051 255 255 255
-0.112861 -0.122368 0.81 255 255 255
0.189076 -0.219066 0.788 255 255 255
0.0848603 -0.0688505 0.849 255 255 255
0.303751 0.443453 1.149 255 255 255
0.32965 -0.164955 0.832 255 255 255
-0.0882523 -0.165857 0.779 255 255 255
0.0549794 0.104274 0.954 255 255 255
-0.0715375 -0.237794 0.75 255 255 255
0.00447125 -0.154746 0.807 255 255 255
0.0838608 -0.117191 0.839 255 255 255
0.0208804 0.115503 0.957 255 255 255
0.208088 0.00770925 0.917 255 255 255
-0.196926 0.431758 1.114 255 255 255
-0.0866162 -0.148011 0.799 255 255 255
0.303539 -0.181258 0.82 255 255 255
-0.374529 -0.00831844 0.748 255 255 255
-0.215266 0.0189403 0.884 255 255 255
-0.274865 -0.179598 0.762 255 255 255
0.335462 -0.176564 0.823 255 255 255
-0.0539123 0.0341175 0.905 255 255 255
0.312624 0.0398132 0.935 255 255 255
-0.367335 0.0858979 0.81 255 255 255
0.375175 -0.145187 0.843 255 255 255
-0.352464 0.0767753 0.871 255 255 255
-0.149409 0.281828 1.036 255 255 255
-0.0851773 0.0278523 0.893 255 255 255
-0.00893657 0.155117 0.981 255 255 255
-0.350599 0.026713 0.814 255 255 255
-0.333323 -0.200255 0.712 255 255 255
0.0396702 -0.0584104 0.858 255 255 255
-0.372127 0.379655 1.027 255 255 255
-0.0572993 -0.217131 0.772 255 255 255
0.287146 -0.211739 0.804 255 255 255
-0.297868 -0.110994 0.804 255 255 255
0.292469 -0.0684226 0.879 255 255 255
0.0665003 -0.100035 0.844 255 255 255
0.175082 0.021301 0.924 255 255 255
-0.197554 -0.176356 0.775 255 255 255
0.282097 0.130499 0.988 255 255 255
-0.21099 0.147569 0.963 255 255 255
0.0045045 -0.137374 0.813 255 255 255
-0.272561 0.0972449 0.917 255 255 255
0.404951 -0.065776 0.845 255 255 255
0.235283 0.172055 1.015 255 255 255
0.162479 -0.0315514 0.888 255 255 255
-0.0972697 0.0103089 0.884 255 255 255
-0.361525 0.149485 0.908 255 255 255
-0.163093 -0.0385912 0.852 255 255 255
0.308566 -0.246667 0.782 255 255 255
-0.276988 -0.149952 0.782 255 255 255
0.0563809 -0.167305 0.798 255 255 255
0.108266 -0.204961 0.788 255 255 255
-0.319427 -0.112904 0.799 255 255 255
-0.269996 0.17854 0.961 255 255 255
0.34126 -0.280775 0.764 255 255 255
-0.167843 0.392302 1.09 255 255 255
0.000638772 0.137876 0.972 255 255 255
-0.0974924 -0.10181 0.825 255 255 255
-0.0349788 0.196191 0.995 255 255 255
0.139013 -0.287609 0.74 255 255 255
-0.0327836 0.347485 1.083 255 255 255
0.126432 0.115017 0.966 255 255 255
-0.043394 0.126021 0.966 255 255 255
-0.27285 -0.212602 0.743 255 255 255
0.328997 0.339235 1.102 255 255 255
0.20688 -0.108404 0.845 255 255 255
-0.370005 -0.0701886 0.709 255 255 255
-0.203157 -0.16395 0.782 255 255 255
-0.0162338 -0.0571471 0.86 255 255 255
-0.324868 0.140999 0.93 255 255 255
-0.0284142 0.190757 0.992 255 255 255
0.406702 0.401062 1.048 255 255 255
0.386868 0.334091 1.036 255 255 255
-0.359005 0.143454 0.898 255 255 255
-0.426017 0.287535 0.91 255 255 255
0.191645 0.135048 0.986 255 255 255
-0.0941305 -0.0779668 0.843 255 255 255
-0.177466 0.00735615 0.875 255 255 255
-0.319423 -0.182378 0.753 255 255 255
0.320389 0.0689671 0.918 0 0 0
0.0955452 0.212882 1.005 255 255 255
0.143361 -0.176632 0.805 255 255 255
-0.44967 0.262698 0.901 255 255 255
0.00692467 0.130737 0.966 255 255 255
0.416844 0.148333 0.91 255 255 255
0.201582 0.355704 1.092 255 255 255
0.347565 0.164633 1.01 255 255 255
-0.214364 0.375683 1.083 255 255 255
0.400817 0.350509 1.02 255 255 255
-0.0858025 -0.117962 0.816 255 255 255
-0.32093 -0.0176268 0.844 255 255 255
-0.313628 -0.245857 0.72 255 255 255
-0.067023 -0.147826 0.798 255 255 255
0.113674 0.154643 0.978 255 255 255
-0.34139 -0.0307298 0.827 255 255 255
-0.0281564 0.161832 0.983 255 255 255
-0.0363765 0.356955 1.085 255 255 255
0.367436 -0.223792 0.805 255 255 255
-0.0805989 -0.0671511 0.845 255 255 255
-0.0840606 -0.246125 0.742 255 255 255
-0.351146 0.0585999 0.854 255 255 255
-0.171716 -0.22651 0.745 255 255 255
-0.301036 -0.18973 0.753 255 255 255
0.18539 -0.0100199 0.901 255 255 255
-0.0919742 0.167888 0.981 255 255 255
-0.210983 -0.178304 0.778 255 255 255
0.456075 0.330637 1.01 255 255 255
-0.259893 0.186526 0.97 255 255 255
-0.357855 0.106086 0.834 255 255 255
0.324197 0.224971 1.046 255 255 255
-0.163206 -0.244666 0.734 255 255 255
-0.469545 0.359328 0.947 255 255 255
-0.341298 -0.132939 0.724 255 255 255
0.0151844 0.388662 1.11 255 255 255
0.069871 0.0469138 0.925 255 255 255
0.281982 -0.0686561 0.882 255 255 255
0.378489 0.205696 1.018 255 255 255
-0.250781 -0.208111 0.753 255 255 255
-0.0266991 -0.0169852 0.882 255 255 255
0.222858 -0.225897 0.785 255 255 255
-0.0596002 -0.144832 0.803 255 255 255
0.386142 0.247302 1.012 255 255 255
0.119982 0.376018 1.11 255 255 255
-0.0710305 -0.196775 0.771 255 255 255
-0.342228 -0.0460858 0.813 255 255 255
0.32837 -0.0447075 0.891 255 255 255
-0.291616 0.324778 1.044 255 255 255
-0.253414 0.239525 1.007 255 255 255
0.0870051 -0.084826 0.843 255 255 255
0.0784218 -0.152873 0.811 255 255 255
-0.32705 -0.136128 0.783 255 255 255
0.22526 0.194863 1.022 255 255 255
0.342398 -0.287102 0.761 255 255 255
-0.332997 0.226956 0.995 255 255 255
-0.368906 0.392338 1.066 255 255 255
0.232751 -0.209895 0.797 255 255 255
-0.320676 0.049428 0.889 255 255 255
-0.171787 -0.0493915 0.847 255 255 255
0.306932 0.172394 1.017 255 255 255
-0.119591 0.0708447 0.923 255 255 255
-0.122137 0.415757 1.11 255 255 255
-0.367512 0.380425 1.057 255 255 255
0.255568 -0.187013 0.816 255 255 255
-0.327475 0.343732 1.05 255 255 255
0.322372 -0.202023 0.807 255 255 255
-0.107779 0.273831 1.025 255 255 255
0.105164 -0.221782 0.784 255 255 255
0.196781 -0.0824339 0.861 255 255 255
-0.332906 -0.14194 0.753 255 255 255
-0.347882 0.279685 1.01 255 255 255
0.285228 0.0276408 0.935 255 255 255
-0.175213 -0.139561 0.788 255 255 255
0.0169094 -0.216713 0.775 255 255 255
0.12641 0.140319 0.978 255 255 255
-0.043874 0.303588 1.053 255 255 255
-0.349332 -0.0624201 0.726 255 255 255
0.395824 -0.110688 0.852 255 255 255
-0.0903773 0.191834 0.981 255 255 255
-0.231387 0.337926 1.064 255 255 255
0.376557 0.408532 1.11 255 255 255
0.104138 0.19731 1.009 255 255 255
-0.272696 0.0481972 0.893 255 255 255
-0.372666 0.0981232 0.813 255 255 255
-0.221292 0.20285 0.988 255 255 255
0.504059 0.388038 1.059 255 255 255
0.0672791 -0.259592 0.746 255 255 255
0.0941557 -0.212655 0.788 255 255 255
-0.144732 -0.0600616 0.842 255 255 255
0.0881979 -0.00267689 0.897 255 255 255
-0.419953 0.209729 0.864 255 255 255
0.160958 0.360264 1.106 255 255 255
-0.0210721 -0.197802 0.78 255 255 255
-0.178277 0.0188332 0.879 255 255 255
0.414581 0.0628169 0.874 255 255 255
-0.0867623 -0.22955 0.755 255 255 255
0.178576 -0.250019 0.765 255 255 255
-0.312729 0.0901752 0.921 255 255 255
0.334187 -0.155606 0.84 255 255 255
0.0247107 -0.279478 0.744 255 255 255
-0.0471171 0.148276 0.978 255 255 255
0.113356 -0.0425779 0.877 255 255 255
-0.0674375 -0.278544 0.732 255 255 255
-0.300916 0.383433 1.09 255 255 255
0.359245 0.311048 1.085 255 255 255
0.0628115 -0.152114 0.814 255 255 255
-0.122521 0.244927 1.009 255 255 255
0.385288 0.204698 0.997 255 255 255
-0.185315 -0.113611 0.804 255 255 255
0.144998 0.268456 1.043 255 255 255
0.140022 -0.115964 0.84 255 255 255
0.484709 0.254127 0.975 255 255 255
-0.269886 0.0756038 0.908 255 255 255
-0.0132621 -0.0757586 0.849 255 255 255
-0.0306646 0.239304 1.013 255 255 255
0.031357 0.0104955 0.9 255 255 255
-0.141696 -0.00687511 0.874 255 255 255
-0.355883 0.103698 0.883 255 255 255
0.155163 0.00173261 0.913 255 255 255
-0.367859 0.394812 1.068 255 255 255
0.405247 0.166906 0.931 255 255 255
0.372942 -0.110328 0.86 255 255 255
-0.27543 0.0116146 0.874 255 255 255
-0.0386861 -0.151365 0.803 255 255 255
0.299594 -0.263614 0.772 255 255 255
-0.0120045 0.404199 1.118 255 255 255
0.250585 0.1398 0.997 255 255 255
0.203619 -0.240676 0.775 255 255 255
-0.341757 -0.143922 0.72 255 255 255
-0.35672 -0.122205 0.69 255 255 255
-0.453871 0.206225 0.867 255 255 255
-0.191155 0.00595936 0.879 255 255 255
0.200451 -0.191754 0.808 255 255 255
-0.080588 -0.118107 0.817 255 255 255
0.0755805 -0.184788 0.795 255 255 255
-0.0828597 -0.180372 0.776 255 255 255
-0.0625922 -0.00980865 0.882 255 255 255
-0.437439 0.20505 0.868 255 255 255
0.10366 0.305577 1.072 255 255 255
0.400441 0.217148 0.952 255 255 255
-0.113354 0.0175413 0.886 255 255 255
-0.347942 -0.0436483 0.77 255 255 255
-0.215724 0.00166999 0.88 255 255 255
0.135995 -0.095101 0.849 255 255 255
-0.0923182 -0.0857889 0.839 255 255 255
0.176395 0.0152698 0.923 255 255 255
0.0504131 -0.257853 0.748 255 255 255
0.354212 -0.10017 0.869 255 255 255
-0.33297 -0.245474 0.665 255 255 255
-0.351565 0.115627 0.909 255 255 255
0.399327 0.010239 0.878 255 255 255
0.154417 -0.172031 0.808 255 255 255
0.287267 -0.105513 0.855 255 255 255
0.0669542 0.131279 0.97 255 255 255
-0.337767 -0.20694 0.688 255 255 255
0.381886 -0.187051 0.822 255 255 255
0.401941 0.12276 0.941 255 255 255
-0.293225 0.0616191 0.898 255 255 255
0.119102 0.00913126 0.91 255 255 255
0.202766 -0.17949 0.812 255 255 255
0.380313 0.129442 0.98 255 255 255
0.405565 0.128723 0.918 255 255 255
-0.327586 -0.0176895 0.847 255 255 255
-0.170879 -0.270838 0.721 255 255 255
-0.141607 0.0565191 0.91 255 255 255
0.171103 -0.0693762 0.873 255 255 255
-0.0205998 -0.0392706 0.867 255 255 255
-0.166167 0.0918731 0.923 255 255 255
-0.107618 -0.052456 0.852 255 255 255
-0.159854 0.197626 0.986 255 255 255
-0.0387492 0.0804625 0.93 255 255 255
0.324577 0.00479171 0.93 255 255 255
0.387306 0.104274 0.954 255 255 255
-0.112401 -0.104622 0.826 255 255 255
0.193275 -0.183228 0.811 255 255 255
0.107423 0.202236 1.009 255 255 255
0.137329 0.00618987 0.913 255 255 255
-0.277169 0.0144757 0.875 255 255 255
-0.0968295 -0.00549026 0.88 255 255 255
0.0313823 -0.183626 0.79 255 255 255
0.284606 0.335541 1.09 255 255 255
-0.124796 0.196419 0.988 255 255 255
-0.327297 -0.117662 0.796 255 255 255
0.427142 0.317599 1 255 255 255
0.384264 -0.0878447 0.873 255 255 255
-0.307705 -0.155115 0.776 255 255 255
0.114105 0.200793 1.01 255 255 255
0.370133 0.190802 1.027 255 255 255
0.285838 0.050572 0.937 255 255 255
0.114783 -0.0411507 0.877 255 255 255
-0.464531 0.28013 0.91 255 255 255
-0.324261 0.0289774 0.883 255 255 255
-0.384132 0.156246 0.841 255 255 255
-0.127909 0.0614976 0.918 255 255 255
0.2589 0.275966 1.079 255 255 255
0.357146 0.154867 1 255 255 255
-0.287174 0.088195 0.916 255 255 255
-0.0258936 0.022311 0.904 255 255 255
0.369599 -0.0532874 0.889 255 255 255
0.144279 -0.127198 0.833 255 255 255
0.190388 -0.118557 0.839 255 255 255
0.11412 -0.240688 0.767 255 255 255
0.25528 -0.061619 0.884 255 255 255
0.145427 -0.278727 0.742 255 255 255
0.0897044 0.101805 0.96 255 255 255
0.215088 -0.266399 0.762 255 255 255
0.19839 0.352795 1.094 255 255 255
0.14107 0.0271382 0.918 255 255 255
-0.389095 0.0161764 0.755 255 255 255
0.368822 0.139099 0.992 255 255 255
0.000509309 -0.207885 0.775 255 255 255
0.126612 -0.271367 0.745 255 255 255
-0.350177 -0.0302288 0.748 255 255 255
-0.227844 -0.256294 0.723 255 255 255
0.401115 -0.203921 0.799 255 255 255
0.0698728 -0.202653 0.789 255 255 255
-0.121764 0.157135 0.964 255 255 255
-0.233831 -0.0493915 0.847 255 255 255
-0.26707 -0.185074 0.754 255 255 255
-0.0558504 -0.173963 0.787 255 255 255
0.0271554 0.340435 1.083 255 255 255
0.252995 0.0488901 0.934 0 0 0
0.397844 -0.16922 0.833 255 255 255
-0.0510159 -0.20708 0.772 255 255 255
-0.137048 0.376377 1.085 255 255 255
-0.360828 0.00143277 0.755 255 255 255
0.339656 -0.155606 0.84 255 255 255
0.29508 -0.163208 0.83 255 255 255
0.198813 0.305249 1.077 255 255 255
0.13485 0.134436 0.97 255 255 255
-0.333608 0.216586 0.992 255 255 255
0.0540485 0.184671 0.994 255 255 255
-0.180443 -0.0705172 0.836 255 255 255
0.155298 -0.203921 0.799 255 255 255
0.279427 -0.0658601 0.883 255 255 255
-0.306541 0.319225 1.037 255 255 255
-0.129167 0.435634 1.124 255 255 255
-0.256678 -0.0761171 0.823 255 255 255
-0.352947 0.0621076 0.845 255 255 255
-0.364386 0.181246 0.869 255 255 255
0.264055 0.357309 1.108 255 255 255
0.0118602 -0.0406815 0.867 255 255 255
-0.0257743 -0.141789 0.808 255 255 255
0.299594 -0.261101 0.772 255 255 255
0.339765 -0.0261774 0.902 255 255 255
-0.22279 -0.00971968 0.874 255 255 255
0.172534 -0.0926641 0.852 255 255 255
-0.0828475 -0.0553586 0.854 255 255 255
-0.388037 0.131952 0.826 255 255 255
-0.245302 -0.190234 0.755 255 255 255
0.0237605 0.356499 1.089 255 255 255
-0.171817 -0.0275639 0.854 255 255 255
-0.322957 -0.189434 0.747 255 255 255
0.393024 -0.100298 0.858 255 255 255
0.393024 -0.0975054 0.858 255 255 255
0.376038 0.177254 1.007 255 255 255
0.0356583 -0.279854 0.745 255 255 255
-0.388441 0.0087346 0.749 255 255 255
-0.357537 0.155088 0.873 255 255 255
-0.240738 0.2204 1.002 255 255 255
-0.0604652 0.241428 1.015 255 255 255
-0.032111 -0.0310184 0.873 255 255 255
-0.162423 -0.162678 0.782 255 255 255
-0.170411 -0.263718 0.724 255 255 255
0.00493666 -0.00120904 0.891 255 255 255
0.0169666 0.0582549 0.914 255 255 255
-0.180727 0.00737296 0.877 255 255 255
-0.383941 -0.004648 0.745 255 255 255
-0.136726 0.0673997 0.917 255 255 255
0.400268 0.300298 1.002 255 255 255
0.175045 -0.133654 0.831 255 255 255
-0.284274 0.181229 0.967 255 255 255
-0.254112 0.031707 0.879 255 255 255
-0.0780512 -0.210457 0.766 255 255 255
-0.00342748 -0.142315 0.811 255 255 255
0.314779 0.224326 1.043 255 255 255
-0.113001 0.242362 1.012 255 255 255
0.170358 -0.091599 0.855 255 255 255
0.259909 0.0414231 0.937 255 255 255
-0.0622938 0.0571402 0.92 255 255 255
0.210084 0.176662 1.013 255 255 255
0.221243 -0.0690583 0.869 255 255 255
0.0692273 0.436972 1.137 255 255 255
0.432662 0.142253 0.909 255 255 255
-0.303165 0.319225 1.037 255 255 255
-0.286027 0.223718 0.995 255 255 255
-0.230955 0.000237398 0.878 255 255 255
0.132141 -0.279934 0.742 255 255 255
0.308587 0.0594021 0.932 0 0 0
-0.225239 -0.0011914 0.878 255 255 255
-0.256024 -0.204706 0.754 255 255 255
0.133085 0.427003 1.145 255 255 255
-0.364887 0.237827 0.924 255 255 255
0.245771 0.426625 1.149 255 255 255
-0.172472 -0.218415 0.759 255 255 255
-0.147652 -0.248589 0.728 255 255 255
-0.0962794 -0.0125786 0.875 255 255 255
-0.0227714 -0.167969 0.795 255 255 255
0.0227431 0.137593 0.97 255 255 255
-0.273439 -0.271314 0.713 255 255 255
0.442331 0.174484 0.923 255 255 255
-0.172619 -0.112099 0.812 255 255 255
-0.334885 0.24217 0.991 255 255 255
0.401098 0.192615 0.961 255 255 255
-0.0296022 0.0787793 0.928 255 255 255
-0.0808865 0.2908 1.044 255 255 255
-0.338607 0.012843 0.861 255 255 255
0.350632 -0.0405842 0.896 255 255 255
-0.0336009 0.401306 1.11 255 255 255
0.0171494 -0.189091 0.786 255 255 255
0.409307 -0.0471854 0.857 255 255 255
0.0617153 0.441744 1.135 255 255 255
0.317037 -0.128259 0.849 255 255 255
-0.136122 0.0175017 0.884 255 255 255
-0.169014 -0.139739 0.789 255 255 255
0.25311 0.207515 1.027 255 255 255
-0.1156 0.125744 0.952 255 255 255
0.409063 -0.0241169 0.831 255 255 255
-0.162938 0.362676 1.081 255 255 255
0.391038 0.0284449 0.912 255 255 255
-0.274468 0.314163 1.037 255 255 255
-0.357211 0.0839811 0.817 255 255 255
0.40706 0.113784 0.918 255 255 255
0.316439 -0.0672208 0.882 255 255 255
-0.0350981 -0.236608 0.754 255 255 255
0.0642058 -0.0730813 0.85 255 255 255
0.0132329 0.377313 1.098 255 255 255
-0.337746 -0.16596 0.714 255 255 255
0.283417 -0.0672208 0.882 255 255 255
-0.347451 0.201147 0.972 255 255 255
0.295843 0.112915 0.975 255 255 255
0.180381 -0.0826254 0.863 255 255 255
-0.0903773 0.190238 0.981 255 255 255
0.272434 0.17422 1.018 255 255 255
-0.296549 0.371764 1.087 255 255 255
-0.32364 -0.105629 0.803 255 255 255
0.329348 -0.193069 0.808 255 255 255
0.00242665 0.306183 1.062 255 255 255
-0.0885052 0.107789 0.944 255 255 255
0.181365 -0.0866373 0.861 255 255 255
-0.235729 0.2869 1.03 255 255 255
-0.352612 -0.0277943 0.748 255 255 255
-0.0649454 -0.121357 0.821 255 255 255
0.0434001 -0.0702321 0.849 255 255 255
-0.361997 0.304629 1.022 255 255 255
0.286468 0.137485 0.992 255 255 255
-0.380698 0.311314 0.937 255 255 255
0.256581 -0.189437 0.815 255 255 255
-0.153842 0.0395664 0.895 255 255 255
0.256377 0.162506 1.007 255 255 255
-0.124172 -0.0669127 0.842 255 255 255
-0.213594 -0.116063 0.812 255 255 255
0.411494 0.125843 0.908 255 255 255
0.433122 0.286897 0.984 255 255 255
-0.0249737 -0.121949 0.825 255 255 255
0.242346 -0.204942 0.803 255 255 255
0.0128708 -0.23107 0.76 255 255 255
0.285958 -0.140362 0.847 255 255 255
0.247441 0.274943 1.075 255 255 255
0.112947 0.415893 1.13 255 255 255
0.476986 0.179219 0.932 255 255 255
0.381176 -0.0532874 0.889 255 255 255
-0.171991 -0.14925 0.785 255 255 255
-0.0445155 0.0649069 0.924 255 255 255
0.139206 0.305249 1.077 255 255 255
0.298384 -0.0980736 0.863 255 255 255
-0.174988 0.169512 0.972 255 255 255
0.00356063 0.0594808 0.91 255 255 255
-0.120702 0.0103439 0.887 255 255 255
0.427435 0.230605 0.95 255 255 255
0.0718581 0.0299291 0.912 255 255 255
0.303286 0.324004 1.087 255 255 255
-0.271848 -0.12109 0.793 255 255 255
-0.135233 0.0763532 0.917 255 255 255
-0.180635 -0.258293 0.732 255 255 255
-0.182194 0.316393 1.05 255 255 255
-0.311682 -0.0272734 0.845 255 255 255
-0.0364881 0.189143 0.992 255 255 255
-0.0580026 -0.149311 0.799 255 255 255
0.283743 -0.190295 0.813 255 255 255
-0.184102 0.17232 0.97 255 255 255
0.0470421 -0.0913589 0.84 255 255 255
0.392711 0.0268721 0.909 255 255 255
0.0433669 0.19731 1.009 255 255 255
-0.309262 -0.108243 0.803 255 255 255
0.276622 0.115089 0.98 255 255 255
0.186804 -0.254332 0.763 255 255 255
0.283244 -0.17473 0.827 255 255 255
-0.264649 -0.169391 0.772 255 255 255
-0.343894 -0.164213 0.678 255 255 255
-0.343322 -0.177574 0.662 255 255 255
-0.0628481 0.312749 1.055 255 255 255
0.455336 0.393284 1.05 255 255 255
0.00961734 -0.166006 0.798 255 255 255
-0.176571 0.179002 0.972 255 255 255
0.420539 0.0464161 0.86 255 255 255
0.112902 0.239735 1.029 255 255 255
0.447749 0.289671 0.988 255 255 255
-0.257188 0.416811 1.108 255 255 255
-0.287172 -0.191926 0.752 255 255 255
-0.257614 -0.0710179 0.826 255 255 255
-0.376391 0.128075 0.827 255 255 255
0.234402 0.23734 1.048 255 255 255
-0.228467 0.377446 1.083 255 255 255
0.406445 -0.173131 0.807 255 255 255
0.0730572 0.441447 1.139 255 255 255
-0.0767836 -0.137332 0.805 255 255 255
0.116739 0.141765 0.977 255 255 255
-0.163491 0.048575 0.9 255 255 255
0.246464 -0.260658 0.767 255 255 255
-0.169432 -0.0248424 0.856 255 255 255
-0.169206 -0.224369 0.75 255 255 255
-0.377706 0.17349 0.845 255 255 255
-0.0973093 0.135465 0.955 255 255 255
-0.0736286 0.0462544 0.912 255 255 255
-0.338979 0.158484 0.944 255 255 255
0.216373 -0.253235 0.771 255 255 255
0.0232589 0.176228 0.992 255 255 255
0.391218 0.107447 0.941 255 255 255
0.0773076 -0.11213 0.842 255 255 255
-0.0943497 -0.170489 0.777 255 255 255
0.209032 0.211908 1.024 255 255 255
0.31398 0.0517076 0.93 0 0 0
0.247477 -0.173252 0.82 255 255 255
0.0599733 0.420319 1.137 255 255 255
-0.106405 0.0507624 0.913 255 255 255
-0.16678 0.201446 0.989 255 255 255
-0.0149891 -0.0351188 0.869 255 255 255
-0.396876 0.172258 0.839 255 255 255
-0.0659134 -0.028048 0.869 255 255 255
-0.487898 0.333919 0.932 255 255 255
-0.0870498 -0.144832 0.803 255 255 255
0.403652 -0.120131 0.831 255 255 255
-0.120203 -0.0615048 0.843 255 255 255
-0.389702 0.257439 0.898 255 255 255
0.390579 -0.271503 0.773 255 255 255
-0.367208 0.31172 1.018 255 255 255
0.281695 0.1184 0.981 255 255 255
-0.00108128 0.397314 1.114 255 255 255
-0.134196 0.127293 0.952 255 255 255
-0.291966 0.0987371 0.917 255 255 255
-0.299396 0.211529 0.991 255 255 255
0.40696 -0.0373357 0.855 255 255 255
-0.243182 0.136875 0.954 255 255 255
0.0651877 -0.044707 0.863 255 255 255
-0.308616 0.0585657 0.896 255 255 255
-0.227205 -0.0508298 0.848 255 255 255
0.499666 0.389025 1.057 255 255 255
0.389741 -0.10613 0.86 255 255 255
0.530724 0.359726 1.037 255 255 255
0.26216 -0.185261 0.82 255 255 255
-0.0589351 -0.281347 0.73 255 255 255
0.404242 0.269783 0.98 255 255 255
0.196398 -0.167803 0.813 255 255 255
0.300947 -0.191618 0.813 255 255 255
0.329671 -0.0784355 0.879 255 255 255
-0.289818 -0.247715 0.722 255 255 255
0.411273 -0.0227372 0.83 255 255 255
0.0898492 -0.220506 0.784 255 255 255
-0.308488 0.00725527 0.863 255 255 255
-0.0408291 -0.27706 0.725 255 255 255
0.169113 0.0477252 0.941 255 255 255
-0.468388 0.277425 0.906 255 255 255
0.0129216 -0.229499 0.763 255 255 255
-0.088599 0.115592 0.945 255 255 255
0.284541 0.289326 1.083 255 255 255
-0.304799 -0.271712 0.705 255 255 255
-0.0414804 -0.0572135 0.861 255 255 255
-0.204375 0.0496504 0.893 255 255 255
0.428425 0.0992744 0.882 255 255 255
-0.275261 0.161673 0.963 255 255 255
0.0926351 -0.0555531 0.857 255 255 255
-0.0690958 0.333489 1.072 255 255 255
-0.254605 0.0632912 0.901 255 255 255
0.376667 -0.0233448 0.906 255 255 255
0.142758 0.213349 1.015 255 255 255
-0.246857 -0.072362 0.826 255 255 255
0.1531 -0.260983 0.75 255 255 255
-0.367894 0.0225265 0.762 255 255 255
0.134172 -0.0790767 0.855 255 255 255
-0.450519 0.319582 0.93 255 255 255
0.0986513 0.0814142 0.941 255 255 255
-0.42167 0.102779 0.808 255 255 255
0.351544 -0.160882 0.839 255 255 255
0.00940245 0.0266652 0.902 255 255 255
0.0223185 -0.268942 0.745 255 255 255
-0.441317 0.245833 0.893 255 255 255
0.363218 0.175704 1.017 255 255 255
-0.380737 0.252434 0.901 255 255 255
-0.0285799 -0.204628 0.777 255 255 255
0.36913 0.365002 1.104 255 255 255
-0.101105 0.260487 1.025 255 255 255
-0.462521 0.341012 0.939 255 255 255
-0.00501692 -0.0625262 0.857 255 255 255
0.0592745 -0.165533 0.802 255 255 255
0.139179 0.196443 1.013 255 255 255
0.181651 0.247137 1.039 255 255 255
0.435677 0.0447025 0.854 255 255 255
0.0334055 0.0390041 0.916 255 255 255
0.123411 -0.100509 0.848 255 255 255
0.098825 0.234778 1.022 255 255 255
0.201422 -0.0994796 0.851 255 255 255
-0.358023 0.0942013 0.825 255 255 255
0.296207 -0.25515 0.773 255 255 255
-0.15985 -0.123615 0.801 255 255 255
0.230612 -0.163311 0.817 255 255 255
0.00434936 -0.187573 0.785 255 255 255
-0.387043 0.0389511 0.768 255 255 255
0.275182 0.348201 1.102 255 255 255
-0.317069 0.0202636 0.879 255 255 255
-0.295427 -0.227633 0.733 255 255 255
0.444314 0.180688 0.924 255 255 255
-0.105975 -0.0844235 0.839 255 255 255
-0.292122 -0.204567 0.749 255 255 255
-0.350561 0.0201638 0.817 255 255 255
0.362567 0.149535 0.997 255 255 255
0.515894 0.388289 1.055 255 255 255
0.270049 -0.124115 0.849 255 255 255
0.191936 0.292271 1.068 255 255 255
0.366039 -0.260263 0.777 255 255 255
0.332512 0.314255 1.09 255 255 255
-0.249045 0.189462 0.977 255 255 255
-0.0135745 -0.0337046 0.869 255 255 255
0.0409648 -0.0156204 0.886 255 255 255
-0.190831 -0.273185 0.721 255 255 255
0.122483 0.3601 1.1 255 255 255
-0.161565 -0.195204 0.76 255 255 255
0.263459 0.343364 1.098 255 255 255
-0.128786 0.032212 0.893 255 255 255
-0.276357 -0.0920505 0.81 255 255 255
-0.276068 -0.119951 0.794 255 255 255
-0.022886 -0.157112 0.799 255 255 255
0.2826 0.357954 1.11 255 255 255
0.0737173 -0.0784293 0.848 255 255 255
0.0722085 0.154484 0.977 255 255 255
-0.429279 0.365104 0.95 255 255 255
-0.419582 0.0996537 0.804 255 255 255
0.0724223 -0.0757586 0.849 255 255 255
0.300369 -0.0739756 0.877 255 255 255
0.261978 0.206244 1.029 255 255 255
0.29536 -0.166656 0.827 255 255 255
0.373066 0.339178 1.079 255 255 255
-0.0857952 -0.0765041 0.842 255 255 255
0.0344878 -0.0974923 0.834 255 255 255
0.213604 -0.195699 0.808 255 255 255
-0.302501 0.269876 1.029 255 255 255
0.201582 0.348596 1.092 255 255 255
0.160486 -0.0215566 0.893 255 255 255
-0.0110811 0.253869 1.032 255 255 255
0.107933 -0.191257 0.795 255 255 255
0.244228 0.226847 1.039 255 255 255
0.15491 -0.207301 0.797 255 255 255
-0.0415049 -0.268453 0.737 255 255 255
-0.10135 0.350362 1.081 255 255 255
-0.365665 0.218468 0.9 255 255 255
-0.171045 0.0712494 0.909 255 255 255
0.430232 0.0448596 0.857 255 255 255
0.403767 0.23826 0.975 255 255 255
0.263717 0.166277 1.01 255 255 255
-0.0563214 0.14104 0.972 255 255 255
0.403295 -0.156284 0.822 255 255 255
-0.075772 0.0706144 0.92 255 255 255
0.1988 -0.17949 0.812 255 255 255
0.354759 -0.22977 0.803 255 255 255
0.266452 -0.146385 0.842 255 255 255
0.279857 -0.153688 0.837 255 255 255
-0.337841 -0.0605644 0.812 255 255 255
-0.255134 -0.182862 0.755 255 255 255
-0.372543 0.361866 1.01 255 255 255
0.29433 -0.190295 0.813 255 255 255
-0.151475 -0.124232 0.805 255 255 255
-0.0934932 0.38236 1.092 255 255 255
0.294724 0.0972193 0.961 255 255 255
-0.145072 0.354981 1.079 255 255 255
0.385589 0.236706 1.002 255 255 255
-0.0905202 -0.219183 0.766 255 255 255
0.148216 -0.257322 0.75 255 255 255
0.391639 0.143535 0.957 255 255 255
-0.387387 -0.0142506 0.74 255 255 255
-0.0658695 -0.22955 0.755 255 255 255
-0.242673 -0.0975634 0.812 255 255 255
0.206787 0.179959 1.013 255 255 255
-0.311495 -0.151327 0.776 255 255 255
0.357799 -0.105217 0.864 255 255 255
0.398707 0.140536 0.937 255 255 255
0.22935 -0.236184 0.781 255 255 255
0.0739084 0.192295 1 255 255 255
0.0211057 -0.270155 0.745 255 255 255
-0.282132 -0.080135 0.823 255 255 255
0.309123 -0.250148 0.777 255 255 255
0.0548058 -0.178095 0.794 255 255 255
0.304783 -0.166656 0.827 255 255 255
0.355751 0.390148 1.13 255 255 255
0.414246 -0.0147389 0.836 255 255 255
0.0637392 0.381862 1.106 255 255 255
0.214914 -0.00566495 0.908 255 255 255
-0.188783 0.271815 1.03 255 255 255
0.00338847 -0.0392253 0.866 255 255 255
-0.457131 0.316359 0.925 255 255 255
0.355087 0.262977 1.062 255 255 255
-0.21726 0.156972 0.963 255 255 255
0.192034 0.154616 0.988 255 255 255
-0.12134 -0.24097 0.741 255 255 255
-0.300018 -0.140503 0.779 255 255 255
0.126432 0.111873 0.966 255 255 255
-0.368506 0.293899 0.986 255 255 255
-0.369586 0.250948 0.917 255 255 255
-0.144513 -0.194759 0.768 255 255 255
-0.349341 -0.016687 0.799 255 255 255
-0.393595 0.0624874 0.781 255 255 255
0.288778 0.194523 1.029 255 255 255
-0.321284 0.172105 0.96 255 255 255
-0.325736 0.319841 1.039 255 255 255
0.160789 -0.212982 0.794 255 255 255
0.238201 0.00771765 0.918 255 255 255
-0.261962 0.379208 1.083 255 255 255
-0.40635 0.0807946 0.786 255 255 255
0.190771 -0.193903 0.806 255 255 255
-0.258396 0.0737997 0.904 255 255 255
-0.208971 0.200224 0.983 255 255 255
0.405544 0.319823 1.007 255 255 255
-0.343865 -0.15118 0.689 255 255 255
0.173458 0.333211 1.094 255 255 255
-0.0267775 -0.272283 0.728 255 255 255
-0.33598 -0.0854859 0.786 255 255 255
-0.275391 0.0347251 0.883 255 255 255
0.237282 0.0412021 0.932 255 255 255
-0.193049 0.294197 1.044 255 255 255
-0.1242 -0.228334 0.751 255 255 255
0.407858 0.180181 0.937 255 255 255
-0.0113513 0.0674732 0.918 255 255 255
-0.160835 -0.135285 0.793 255 255 255
0.366063 0.227939 1.044 255 255 255
-0.26423 0.0909772 0.914 255 255 255
-0.335822 -0.0756682 0.804 255 255 255
0.399775 0.0220889 0.895 255 255 255
0.23521 -0.284552 0.751 255 255 255
-0.243053 -0.231274 0.737 255 255 255
0.391187 0.0971101 0.93 255 255 255
-0.226562 -0.0345934 0.856 255 255 255
-0.304714 -0.199533 0.753 255 255 255
-0.181193 0.268827 1.025 255 255 255
0.0473916 0.230463 1.025 255 255 255
-0.0961002 0.033929 0.9 255 255 255
0.418859 0.0961852 0.88 255 255 255
-0.324514 -0.22664 0.726 255 255 255
0.133487 -0.226415 0.778 255 255 255
-0.335392 0.276946 1.012 255 255 255
0.35512 -0.158528 0.841 255 255 255
-0.124098 0.0828609 0.923 255 255 255
-0.107283 0.166861 0.975 255 255 255
0.199805 0.353927 1.092 255 255 255
0.462893 0.281062 0.986 255 255 255
-0.0894984 -0.156628 0.79 255 255 255
0.171254 -0.154573 0.813 255 255 255
-0.215892 -0.211151 0.764 255 255 255
0.130534 0.248109 1.036 255 255 255
-0.328378 0.358704 1.064 255 255 255
0.392095 0.0830405 0.925 255 255 255
0.310593 -0.191854 0.814 255 255 255
0.18788 -0.115964 0.84 255 255 255
0.470407 0.17543 0.928 255 255 255
0.0146648 -0.18234 0.79 255 255 255
-0.0845937 -0.0281448 0.872 255 255 255
-0.409325 0.110532 0.807 255 255 255
-0.355634 -0.0562015 0.722 255 255 255
0.318044 -0.130868 0.848 255 255 255
-0.197549 0.272342 1.032 255 255 255
0.289131 -0.282149 0.761 255 255 255
0.0869862 0.382968 1.104 255 255 255
-0.246885 -0.016446 0.854 255 255 255
0.102484 -0.174887 0.803 255 255 255
-0.364693 0.266009 0.955 255 255 255
-0.119073 0.130803 0.955 255 255 255
0.373284 0.170191 1.004 255 255 255
0.125646 0.320456 1.081 255 255 255
-0.128745 0.0874616 0.924 255 255 255
0.270516 -0.29305 0.754 255 255 255
0.19991 -0.284252 0.747 255 255 255
-0.239605 0.108167 0.934 255 255 255
0.291898 0.0745688 0.932 0 0 0
-0.0531537 -0.239915 0.749 255 255 255
0.333622 -0.132404 0.849 255 255 255
-0.336795 -0.13949 0.74 255 255 255
0.084422 -0.0127655 0.888 255 255 255
0.142758 0.215 1.015 255 255 255
-0.377962 0.230783 0.891 255 255 255
-0.229201 -0.154163 0.784 255 255 255
0.0480061 -0.12042 0.833 255 255 255
0.398286 0.204486 0.958 255 255 255
-0.328394 -0.0381382 0.842 255 255 255
-0.232773 0.10176 0.931 255 255 255
0.370451 0.355704 1.092 255 255 255
0.0722148 0.371953 1.098 255 255 255
0.321326 0.0619665 0.925 0 0 0
0.143529 0.0595296 0.934 255 255 255
-0.168981 -0.0878493 0.82 255 255 255
-0.221288 -0.108667 0.816 255 255 255
-0.0520209 -0.0954435 0.828 255 255 255
-0.373701 0.382982 1.036 255 255 255
0.362969 0.0935869 0.972 255 255 255
0.107049 0.410756 1.126 255 255 255
-0.306752 -0.17549 0.755 255 255 255
0.155842 0.291531 1.059 255 255 255
0.124995 -0.124188 0.831 255 255 255
-0.341587 -0.16691 0.68 255 255 255
-0.0873751 -0.138815 0.806 255 255 255
0.0962632 0.338155 1.087 255 255 255
-0.128338 -0.267991 0.726 255 255 255
0.340837 -0.223984 0.801 255 255 255
-0.0362424 0.341566 1.081 255 255 255
-0.304415 0.0522625 0.888 255 255 255
0.230966 0.0578234 0.931 255 255 255
-0.282766 -0.112023 0.802 255 255 255
0.315581 -0.222193 0.79 255 255 255
0.24325 -0.273274 0.757 255 255 255
-0.446815 0.206225 0.867 255 255 255
-0.25859 -0.13315 0.788 255 255 255
-0.281327 0.331771 1.05 255 255 255
