ply
format ascii 1.0
comment Created by Open3D
element vertex 1295
property double x
property double y
property double z
property uchar red
property uchar green
property uchar blue
end_header
-0.190723 0.393001 2.411 255 255 255
-0.387243 0.480134 2.151 255 255 255
-0.0882027 0.343648 2.509 255 255 255
-0.448511 -0.939515 2.469 255 255 255
-0.284107 0.311629 2.582 255 255 255
-0.90794 0.311989 1.953 255 255 255
-0.543623 -0.205346 2.638 255 255 255
-0.38462 0.46159 2.196 255 255 255
-0.777905 0.623011 1.848 255 255 255
0.286469 0.171756 0.606 255 255 255
-0.0293715 0.560753 2.099 255 255 255
-0.877665 0.478348 2.143 255 255 255
0.250349 0.0654271 0.573 255 255 255
-0.816212 -0.0093016 2.017 255 255 255
0.254213 0.0271469 0.553 255 255 255
-0.81181 0.5061 2.099 255 255 255
0.229532 0.109336 0.599 255 255 255
-0.50275 0.183756 2.743 255 255 255
-0.472402 -0.497529 2.489 255 255 255
-0.767269 -0.151099 2.071 255 255 255
-0.852328 0.10558 2.017 255 255 255
0.180669 -0.00816533 0.568 255 255 255
0.245019 -0.02154 0.533 255 255 255
-0.0447199 0.504577 2.181 255 255 255
0.262428 0.0940529 0.577 255 255 255
0.290473 0.155343 0.596 255 255 255
-0.581691 0.198083 2.695 255 255 255
0.030928 0.145651 2.967 255 255 255
0.289355 0.0881191 0.569 255 255 255
-0.908823 0.634653 1.821 255 255 255
-0.647724 0.446562 2.228 255 255 255
-0.784331 -0.108906 1.978 255 255 255
0.21524 -0.149471 0.489 255 255 255
0.17717 -0.0351999 0.557 255 255 255
0.140078 0.147355 0.665 255 255 255
0.200202 0.491576 2.303 255 255 255
-0.595758 -0.670166 2.158 255 255 255
0.231146 0.0720134 0.581 255 255 255
-0.273542 0.543441 2.085 255 255 255
0.198672 0.167072 0.641 255 255 255
0.200816 0.233159 0.669 255 255 255
-0.165492 0.50807 2.136 255 255 255
-0.772468 -0.470683 1.821 255 255 255
0.182951 0.116758 0.623 255 255 255
0.159316 -0.047235 0.571 0 0 0
-0.811769 -0.542199 1.659 255 255 255
0.284831 0.24284 0.64 255 255 255
0.0088781 0.484319 2.269 255 255 255
-0.83676 0.673992 1.739 255 255 255
-0.778125 0.388437 2.383 255 255 255
0.263481 0.249424 0.649 255 255 255
-0.542548 -0.789798 2.228 255 255 255
-0.45314 -0.495323 2.54 255 255 255
0.188216 -0.0899057 0.527 255 255 255
-0.614032 0.326256 2.44 255 255 255
-0.629984 -0.566092 2.204 255 255 255
-0.781475 -0.0397476 2.064 255 255 255
0.232375 -0.152969 0.48 255 255 255
-0.0294834 0.552604 2.107 255 255 255
0.134592 0.19501 2.911 255 255 255
0.212775 -0.1552 0.487 255 255 255
-0.830285 -0.13546 1.899 255 255 255
0.190428 -0.102899 0.519 255 255 255
-0.701297 -0.583708 2.017 255 255 255
0.184769 -0.114677 0.515 255 255 255
-0.701297 -0.429439 2.017 255 255 255
-0.75041 -0.529211 1.769 255 255 255
-0.913833 0.40828 2.037 255 255 255
-0.119954 0.117822 2.996 255 255 255
0.241863 0.0656555 0.575 255 255 255
-0.719106 0.565922 1.941 255 255 255
-0.446713 0.263675 2.649 255 255 255
0.133241 0.459636 2.312 255 255 255
-0.855514 0.248974 2.212 255 255 255
0.0733025 0.612207 2.01 255 255 255
-0.918058 0.228738 1.87 255 255 255
0.171515 0.185193 0.661 255 255 255
0.170801 -0.191999 0.494 255 255 255
0.195819 -0.0816384 0.529 255 255 255
-0.149272 0.657655 1.887 255 255 255
-0.77451 -0.543439 1.714 255 255 255
0.168263 -0.191162 0.496 0 0 0
-0.520185 -0.575454 2.392 255 255 255
-0.805357 0.301252 2.253 255 255 255
-0.381515 -0.494169 2.982 255 255 255
-0.333508 0.481492 2.189 255 255 255
-0.521661 0.593019 1.947 255 255 255
-0.695527 -0.710981 1.837 255 255 255
-0.208679 0.665952 1.842 255 255 255
-0.315556 0.424581 2.347 255 255 255
0.200606 -0.0806248 0.528 255 255 255
-0.760853 -0.359707 1.959 255 255 255
-0.802263 0.0105984 2.057 255 255 255
0.209021 -0.166157 0.482 255 255 255
-0.742463 0.399372 2.356 255 255 255
-0.339414 -0.486738 2.996 255 255 255
-0.649957 -0.297419 2.261 255 255 255
-0.433928 -0.63208 2.818 255 255 255
-0.315654 0.596187 1.947 255 255 255
0.146201 -0.0653581 0.567 255 255 255
0.135145 -0.10495 0.552 255 255 255
-0.494954 -0.840865 2.383 255 255 255
-0.542539 0.326256 2.44 255 255 255
0.207458 -0.132227 0.499 255 255 255
-0.889319 0.0244784 1.842 255 255 255
-0.939366 0.195264 1.87 255 255 255
0.149184 -0.0914137 0.541 255 255 255
-0.833918 0.648196 1.769 255 255 255
-0.345541 0.464376 2.244 255 255 255
-0.624571 -0.559756 2.236 255 255 255
-0.800115 -0.440095 1.758 255 255 255
-0.35539 0.533871 2.128 255 255 255
-0.590391 0.607377 1.893 255 255 255
-0.746061 -0.404425 1.929 255 255 255
-0.620793 -0.31044 2.303 255 255 255
-0.673578 0.0609357 2.469 255 255 255
0.199632 0.0131863 0.572 255 255 255
0.171424 0.0335922 0.587 255 255 255
-0.310153 -0.813395 2.996 255 255 255
0.236395 0.0330761 0.562 255 255 255
-0.882524 0.574026 1.905 255 255 255
0.217454 -0.0933611 0.513 255 255 255
0.201737 0.504775 2.278 255 255 255
0.227308 -0.119806 0.498 255 255 255
-0.763198 -0.216393 2.051 255 255 255
-0.643415 -0.332022 2.107 255 255 255
-0.702952 0.0429744 2.365 255 255 255
0.182802 0.632341 1.991 255 255 255
0.211879 0.24725 2.805 255 255 255
-0.386181 0.532031 2.107 255 255 255
0.113076 0.508149 2.212 255 255 255
0.270676 0.248271 0.646 255 255 255
-0.751467 -0.508755 1.758 255 255 255
0.220299 -0.132778 0.495 255 255 255
-0.877996 0.000508865 1.882 255 255 255
-0.545312 0.0668076 2.898 255 255 255
-0.669504 -0.0865414 2.329 255 255 255
-0.423038 0.4709 2.173 255 255 255
0.26077 -0.0204787 0.528 255 255 255
-0.608144 0.664462 1.774 255 255 255
-0.575667 -0.707828 2.244 255 255 255
0.177048 -0.161137 0.498 255 255 255
-0.864807 -0.318617 1.705 255 255 255
0.0253932 0.545746 2.107 255 255 255
0.229673 0.020164 0.559 255 255 255
0.200312 0.56289 2.107 255 255 255
-0.0317077 0.15938 2.953 255 255 255
-0.31996 0.66911 1.81 255 255 255
-0.761316 -0.184176 2.064 255 255 255
-0.810881 -0.356486 1.769 255 255 255
0.182444 0.282663 2.707 255 255 255
0.218806 0.100563 0.599 255 255 255
0.211619 -0.174476 0.479 255 255 255
-0.794834 0.17589 2.244 255 255 255
-0.643485 0.523083 2.085 255 255 255
-0.743011 -0.138713 2.253 255 255 255
-0.529048 -0.39398 2.695 255 255 255
-0.300737 0.635102 1.893 255 255 255
0.203377 0.0626736 0.591 255 255 255
-0.462016 0.607614 1.923 255 255 255
0.210204 -0.139745 0.494 255 255 255
-0.851808 0.0131594 1.941 255 255 255
-0.793839 0.64679 1.789 255 255 255
0.187901 -0.143356 0.501 255 255 255
-0.354407 0.523684 2.143 255 255 255
-0.544904 0.0474969 2.871 255 255 255
-0.100112 0.565287 2.078 255 255 255
-0.811518 -0.27946 1.87 255 255 255
0.190557 -0.0928048 0.524 255 255 255
0.158323 -0.00929769 0.581 255 255 255
0.234732 -0.108082 0.5 255 255 255
-0.792076 0.507817 2.092 255 255 255
-0.545331 -0.501579 2.489 255 255 255
0.197641 0.0658917 0.594 255 255 255
-0.748097 -0.372459 1.959 255 255 255
0.241089 -0.105219 0.498 255 255 255
-0.673578 -0.0354933 2.469 255 255 255
-0.657502 0.302008 2.469 255 255 255
-0.202108 0.676917 1.784 255 255 255
0.16956 0.195264 0.666 255 255 255
0.199192 -0.180684 0.481 255 255 255
0.189823 0.0265388 0.579 255 255 255
0.273202 0.211365 0.63 255 255 255
-0.300508 0.294334 2.615 255 255 255
0.228862 0.513901 2.253 255 255 255
0.211984 -0.0883703 0.518 255 255 255
-0.93774 0.167903 1.837 255 255 255
-0.455337 -0.473471 2.649 255 255 255
0.170949 -0.0670098 0.543 255 255 255
-0.156881 0.414013 2.374 255 255 255
-0.874468 -0.32274 1.655 255 255 255
-0.0431517 0.469347 2.286 255 255 255
-0.896759 0.423713 2.114 255 255 255
-0.816751 0.117462 2.244 255 255 255
-0.256396 0.687078 1.758 255 255 255
0.192484 -0.128754 0.511 255 255 255
-0.656969 0.643879 1.789 255 255 255
-0.265979 -0.946184 2.939 255 255 255
-0.388097 0.603232 1.929 255 255 255
0.237349 -0.147974 0.479 255 255 255
-0.22942 0.533262 2.085 255 255 255
0.0653933 0.387239 2.449 255 255 255
-0.498285 0.183756 2.743 255 255 255
-0.557811 -0.223887 2.604 255 255 255
0.151579 0.518768 2.196 255 255 255
-0.836424 0.22419 2.181 255 255 255
-0.829935 -0.472292 1.719 255 255 255
-0.897899 0.6467 1.805 255 255 255
0.180559 0.245819 0.683 255 255 255
-0.65323 0.618256 1.87 255 255 255
-0.567936 -0.749915 2.228 255 255 255
-0.548157 -0.120484 2.66 255 255 255
0.202533 -0.155676 0.491 255 255 255
0.265927 -0.0161826 0.528 255 255 255
0.231989 -0.162539 0.476 255 255 255
0.111491 0.525872 2.181 255 255 255
0.259265 0.0486236 0.562 255 255 255
-0.329343 0.591668 1.953 255 255 255
-0.500558 -0.272389 2.707 255 255 255
0.208169 -0.0893855 0.519 255 255 255
0.198325 0.104566 0.611 255 255 255
-0.729271 0.531471 2.078 255 255 255
-0.797148 -0.610445 1.691 255 255 255
-0.159998 0.636028 1.905 255 255 255
0.192097 -0.15775 0.495 255 255 255
-0.704253 -0.15617 2.294 255 255 255
0.140524 0.12856 0.652 255 255 255
-0.780754 0.00393017 2.071 255 255 255
-0.758295 -0.0245995 2.212 255 255 255
-0.495139 -0.77213 2.294 255 255 255
-0.457799 0.504502 2.121 255 255 255
0.225248 0.0594138 0.578 255 255 255
0.189839 0.0816092 0.603 255 255 255
-0.344924 0.404746 2.365 255 255 255
-0.636424 -0.686574 2.03 255 255 255
-0.720602 -0.484671 1.887 255 255 255
0.225907 0.158579 0.624 255 255 255
-0.0109471 0.663902 1.87 255 255 255
0.235719 0.191041 0.634 255 255 255
-0.778454 -0.0709262 2.092 255 255 255
-0.842287 0.00697253 1.978 255 255 255
-0.902919 0.246779 1.991 255 255 255
-0.71443 -0.550885 2.017 255 255 255
-0.715947 0.569081 1.941 255 255 255
0.161422 0.231031 0.682 255 255 255
-0.243212 -0.960302 2.953 255 255 255
0.205031 0.0735008 0.593 255 255 255
-0.734732 -0.624272 1.794 255 255 255
-0.769882 -0.421356 1.865 255 255 255
-0.854235 -0.419072 1.642 255 255 255
0.295642 0.138669 0.587 255 255 255
-0.232592 0.567066 2.024 255 255 255
0.296592 0.210367 0.621 255 255 255
-0.929204 0.27864 1.899 255 255 255
-0.954584 0.349649 1.882 255 255 255
-0.75041 -0.532089 1.769 255 255 255
-0.690962 -0.172445 2.312 255 255 255
-0.811874 -0.136552 1.959 255 255 255
-0.638472 -0.716578 1.985 255 255 255
-0.706883 -0.655967 1.859 255 255 255
0.358415 0.305098 2.672 255 255 255
-0.79809 -0.332446 1.779 255 255 255
0.244774 0.00014763 0.546 255 255 255
-0.173121 0.670958 1.815 255 255 255
-0.553572 -0.219649 2.604 255 255 255
-0.555955 -0.797981 2.181 255 255 255
0.240405 -0.13635 0.482 255 255 255
-0.575423 -0.301891 2.479 255 255 255
0.0348358 0.593049 2.057 255 255 255
-0.914659 0.276178 1.947 255 255 255
0.269465 0.0820679 0.572 255 255 255
-0.0757281 0.39856 2.374 255 255 255
-0.827603 0.21129 2.158 255 255 255
-0.779947 0.304681 2.365 255 255 255
-0.404544 0.541616 2.078 255 255 255
-0.652905 -0.214884 2.365 255 255 255
-0.84597 -0.486069 1.616 255 255 255
-0.47454 -0.87474 2.479 255 255 255
0.14041 -0.102406 0.548 255 255 255
-0.235123 0.228783 2.695 255 255 255
0.268974 0.466594 2.347 255 255 255
-0.426349 0.397846 2.347 255 255 255
0.247813 0.0413806 0.563 255 255 255
-0.644389 -0.354672 2.099 255 255 255
0.19738 -0.0919521 0.524 255 255 255
0.178331 0.268619 0.696 255 255 255
0.214733 0.102386 0.604 255 255 255
-0.650443 -0.523416 2.064 255 255 255
-0.821895 -0.210062 1.991 255 255 255
0.25535 -0.0675175 0.507 255 255 255
-0.770747 0.0980639 2.303 255 255 255
0.206907 0.329759 2.626 255 255 255
-0.922343 0.448796 2.071 255 255 255
0.192565 0.447497 2.347 255 255 255
-0.691865 -0.293451 2.151 255 255 255
0.196073 -0.0355877 0.549 255 255 255
-0.827126 -0.119134 1.935 255 255 255
-0.819045 0.0565404 2.024 255 255 255
0.215649 0.0841159 0.593 255 255 255
0.1878 0.00479201 0.57 255 255 255
-0.753999 -0.598359 1.744 255 255 255
-0.899067 0.312927 2.064 255 255 255
-0.836327 -0.314553 1.744 255 255 255
-0.404393 0.572956 2.01 255 255 255
0.201716 0.238579 0.672 255 255 255
-0.768544 -0.306008 2.004 255 255 255
-0.111762 0.500893 2.244 255 255 255
-0.801617 -0.165199 1.997 255 255 255
0.269263 0.0259622 0.547 255 255 255
0.0748981 0.624401 1.966 255 255 255
-0.935619 0.193969 1.887 255 255 255
-0.278996 -1.04164 2.925 255 255 255
0.14871 0.0661732 0.624 0 0 0
0.242255 -0.135285 0.481 255 255 255
-0.439701 0.589364 1.935 255 255 255
-0.705422 0.64607 1.779 255 255 255
-0.876137 -0.0328804 1.865 255 255 255
-0.908215 0.438258 2.085 255 255 255
-0.337543 -1.04378 2.743 255 255 255
-0.636574 -0.101737 2.42 255 255 255
0.26386 0.061646 0.564 255 255 255
-0.88106 0.110764 1.882 255 255 255
0.146272 0.102239 0.64 255 255 255
-0.799556 -0.565832 1.673 255 255 255
0.142664 -0.0926353 0.543 255 255 255
0.167836 0.236233 0.681 255 255 255
-0.675479 -0.283774 2.212 255 255 255
-0.0892046 0.504573 2.228 255 255 255
-0.934296 0.288262 1.842 255 255 255
-0.350109 -0.825621 2.604 255 255 255
-0.520296 0.487135 2.151 255 255 255
0.14481 0.146652 0.657 255 255 255
-0.84654 0.59931 1.887 255 255 255
0.153858 -0.0339384 0.582 255 255 255
-0.770317 -0.136582 2.107 255 255 255
-0.526903 0.432147 2.286 255 255 255
0.156766 0.0098104 0.593 255 255 255
0.284135 0.15515 0.599 255 255 255
0.213366 0.00841282 0.564 255 255 255
-0.736423 0.0376865 2.278 255 255 255
-0.868951 -0.0589378 1.923 255 255 255
-0.730125 -0.0357825 2.236 255 255 255
0.220634 -0.0348098 0.537 255 255 255
0.137417 0.253306 0.707 255 255 255
-0.336083 -0.841549 2.844 255 255 255
-0.774011 0.413123 2.347 255 255 255
-0.455681 0.1234 2.898 255 255 255
0.159594 0.0460529 0.6 255 255 255
-0.716208 -0.566923 1.959 255 255 255
0.176158 -0.0727909 0.54 255 255 255
-0.48585 0.0249437 2.967 255 255 255
-0.390431 0.339565 2.509 255 255 255
-0.7657 -0.34483 1.947 255 255 255
-0.716141 0.516348 2.099 255 255 255
0.167808 0.258444 0.69 255 255 255
-0.390185 -0.766144 2.561 255 255 255
-0.908468 -0.0110679 1.774 255 255 255
0.236247 0.0609769 0.575 255 255 255
-0.760181 0.565922 1.941 255 255 255
-0.723378 -0.167437 2.151 255 255 255
-0.411029 -0.953685 2.561 255 255 255
0.0862195 0.573977 2.085 255 255 255
-0.746641 -0.374931 1.972 255 255 255
0.157457 -0.0509519 0.571 0 0 0
-0.878817 0.173903 2.01 255 255 255
0.240987 0.408695 2.411 255 255 255
-0.24264 0.495653 2.173 255 255 255
0.184834 -0.139846 0.506 255 255 255
0.128049 -0.0887726 0.541 255 255 255
-0.0268329 0.362612 2.499 255 255 255
-0.164537 0.388189 2.43 255 255 255
-0.918763 0.314433 1.929 255 255 255
-0.882995 0.433611 2.236 255 255 255
-0.723758 -0.61299 1.848 255 255 255
-0.933158 0.634951 1.805 255 255 255
-0.828732 -0.394321 1.758 255 255 255
-0.909823 0.416645 2.204 255 255 255
0.135071 0.0700099 0.622 255 255 255
-0.809388 -0.279151 1.953 255 255 255
-0.842227 -0.506975 1.624 255 255 255
0.258714 0.0289467 0.553 255 255 255
0.164262 0.26333 0.694 255 255 255
0.223685 0.256021 0.669 255 255 255
-0.482608 0.688498 1.769 255 255 255
-0.63583 0.546502 1.997 255 255 255
-0.669601 -0.705467 1.972 255 255 255
-0.820147 -0.382878 1.758 255 255 255
0.256392 0.0767503 0.574 255 255 255
0.244966 0.244641 0.656 255 255 255
-0.939385 0.460715 2.064 255 255 255
-0.48717 -0.74594 2.402 255 255 255
-0.721006 -0.157045 2.253 255 255 255
-0.765057 0.0824597 2.286 255 255 255
0.162994 -0.093519 0.543 0 0 0
0.181465 -0.1574 0.499 255 255 255
-0.717882 -0.00309112 2.278 255 255 255
0.158648 0.154134 0.648 255 255 255
-0.696578 -0.180315 2.269 255 255 255
0.158603 0.181966 0.661 255 255 255
-0.906661 0.255726 1.985 255 255 255
0.142509 -0.0644354 0.567 255 255 255
0.152965 0.253166 0.694 255 255 255
-0.536093 0.292424 2.561 255 255 255
0.192485 0.653022 1.865 255 255 255
-0.700827 0.143582 2.509 255 255 255
0.263849 0.0920152 0.576 255 255 255
0.312899 0.153842 2.939 255 255 255
0.241507 -0.0301003 0.531 255 255 255
0.256451 0.138983 0.605 255 255 255
0.226372 0.0381178 0.569 255 255 255
-0.407723 -0.73352 2.593 255 255 255
-0.894639 0.25843 2.085 255 255 255
0.265969 -0.00246721 0.535 255 255 255
-0.652319 -0.665768 1.978 255 255 255
-0.280892 -0.706134 2.996 255 255 255
0.212171 -0.179976 0.475 255 255 255
-0.563088 -0.795479 2.064 255 255 255
0.207456 -0.104639 0.511 255 255 255
-0.687509 -0.72632 1.959 255 255 255
-0.603605 -0.303832 2.43 255 255 255
0.304611 0.183419 0.599 255 255 255
0.161428 0.172853 0.655 255 255 255
-0.66163 -0.464735 2.057 255 255 255
0.113533 0.47099 2.294 255 255 255
-0.907529 0.0570687 1.739 255 255 255
-0.84868 0.144566 2.158 255 255 255
-0.149919 0.611406 1.935 255 255 255
-0.49499 -0.734213 2.402 255 255 255
0.22911 -0.151567 0.483 255 255 255
0.256809 -0.0688947 0.505 255 255 255
-0.634846 -0.374636 2.196 255 255 255
0.193121 0.0550726 0.592 255 255 255
-0.543741 -0.825844 2.189 255 255 255
-0.713671 0.447906 2.253 255 255 255
0.167105 -0.113633 0.542 0 0 0
0.219875 0.164205 0.63 255 255 255
0.267961 0.396017 2.479 255 255 255
-0.843505 0.118761 2.136 255 255 255
-0.776571 0.453421 2.244 255 255 255
-0.162362 0.32862 2.519 255 255 255
-0.546977 0.680425 1.763 255 255 255
-0.336892 0.558524 2.078 255 255 255
0.221259 -0.0167036 0.545 255 255 255
-0.0673485 0.682832 1.831 255 255 255
-0.772918 -0.415286 1.865 255 255 255
-0.902722 0.135925 1.935 255 255 255
0.220896 -0.114591 0.5 255 255 255
0.197676 0.099269 0.609 255 255 255
0.217641 -0.119473 0.5 255 255 255
0.22189 0.162403 0.627 255 255 255
0.175947 -0.0387558 0.556 255 255 255
0.142237 0.135546 0.655 255 255 255
-0.903421 -0.0651383 1.753 255 255 255
0.256497 0.0327229 0.556 255 255 255
-0.646585 -0.19873 2.356 255 255 255
0.18952 0.380394 2.509 255 255 255
-0.736542 0.205396 2.374 255 255 255
0.135101 0.255456 0.713 255 255 255
-0.0975102 0.593416 2.024 255 255 255
-0.848301 0.159201 2.166 255 255 255
0.193601 -0.0783428 0.53 255 255 255
-0.823064 -0.324037 1.734 255 255 255
-0.785107 0.587001 1.917 255 255 255
-0.832688 0.17101 2.228 255 255 255
0.166403 -0.0101021 0.573 255 255 255
-0.90057 0.338667 2.037 255 255 255
0.335155 0.308057 2.66 255 255 255
-0.0964033 0.576864 2.071 255 255 255
-0.753604 -0.550368 1.763 255 255 255
-0.726391 -0.190715 2.099 255 255 255
0.0979954 0.636915 1.917 255 255 255
0.244226 0.299399 2.66 255 255 255
0.181546 -0.126754 0.513 255 255 255
-0.261398 0.468553 2.212 255 255 255
0.370309 0.144276 2.939 255 255 255
0.243075 0.188511 0.629 255 255 255
-0.862678 -0.0883075 1.882 255 255 255
-0.938342 0.174119 1.905 255 255 255
-0.421716 -0.957889 2.55 255 255 255
-0.378593 0.440824 2.312 255 255 255
-0.121473 0.698228 1.794 255 255 255
-0.913833 0.368501 2.037 255 255 255
0.220649 -0.182671 0.47 255 255 255
-0.864916 -0.356198 1.673 255 255 255
-0.285856 -0.923552 2.898 255 255 255
-0.402484 0.662402 1.784 255 255 255
-0.873806 -0.346158 1.664 255 255 255
-0.179748 0.442349 2.32 255 255 255
-0.852642 0.533705 2.01 255 255 255
-0.623653 -0.349069 2.286 255 255 255
0.279355 0.218542 0.63 255 255 255
-0.379535 0.574952 2.017 255 255 255
-0.52788 0.29062 2.582 255 255 255
-0.927111 0.29053 1.876 255 255 255
-0.662758 0.495957 2.114 255 255 255
0.179036 0.216829 0.669 255 255 255
-0.616835 0.471161 2.158 255 255 255
-0.644888 -0.491514 2.057 255 255 255
-0.210934 0.608838 1.917 255 255 255
-0.799989 0.403206 2.356 255 255 255
-0.687257 -0.44081 2.024 255 255 255
-0.901427 0.407721 2.085 255 255 255
0.251696 -0.00948506 0.538 255 255 255
-0.671768 -0.560782 2.078 255 255 255
0.0893943 0.616902 2.004 255 255 255
0.23519 0.0677618 0.577 255 255 255
0.219149 0.193605 0.646 255 255 255
-0.887274 0.136207 1.985 255 255 255
0.241449 0.0980922 0.59 255 255 255
0.0777088 0.246249 2.743 255 255 255
0.231522 0.176788 0.631 255 255 255
-0.75381 -0.0897165 2.22 255 255 255
-0.546275 0.653085 1.848 255 255 255
-0.700519 -0.0852409 2.294 255 255 255
0.140154 -0.101329 0.547 255 255 255
-0.805295 0.362078 2.338 255 255 255
-0.665994 0.44424 2.253 255 255 255
0.176899 0.0286196 0.583 255 255 255
-0.788426 -0.323512 1.81 255 255 255
-0.756532 0.142478 2.294 255 255 255
-0.515159 -0.544924 2.54 255 255 255
-0.645645 -0.496473 2.092 255 255 255
-0.771889 -0.336318 1.848 255 255 255
-0.40475 0.476634 2.151 255 255 255
-0.750196 0.470247 2.22 255 255 255
-0.874519 -0.259861 1.758 255 255 255
-0.902681 0.601922 1.876 255 255 255
0.0933435 0.692854 1.826 255 255 255
-0.597181 -0.334087 2.42 255 255 255
-0.202604 0.277312 2.615 255 255 255
0.273468 0.139088 0.597 255 255 255
-0.719812 -0.594031 1.893 255 255 255
0.203653 0.163956 0.637 255 255 255
-0.368489 -0.702706 2.844 255 255 255
0.27945 0.246733 0.642 255 255 255
-0.566692 0.50963 2.128 255 255 255
-0.912642 0.191699 1.991 255 255 255
-0.235014 -1.06034 2.911 255 255 255
0.193102 -0.0750341 0.531 255 255 255
0.199323 0.0834332 0.602 255 255 255
0.154321 0.164634 0.652 255 255 255
-0.493889 0.681726 1.789 255 255 255
-0.882145 0.631689 1.821 255 255 255
0.211577 -0.12019 0.503 255 255 255
0.00928895 0.441056 2.374 255 255 255
0.288008 0.094767 0.57 255 255 255
0.160499 0.600542 2.037 255 255 255
0.270724 0.06795 0.563 255 255 255
-0.530303 0.518308 2.121 255 255 255
-0.572014 -0.674963 2.244 255 255 255
-0.687374 0.25382 2.55 255 255 255
0.195338 -0.0563022 0.542 255 255 255
-0.973284 0.392015 1.865 255 255 255
0.143267 0.12605 0.65 255 255 255
-0.0566565 0.618555 1.978 255 255 255
-0.379781 -0.961223 2.604 255 255 255
0.181473 0.194091 0.662 255 255 255
-0.348058 0.621663 1.899 255 255 255
0.138583 0.2717 0.713 255 255 255
-0.206353 0.535052 2.092 255 255 255
-0.807726 -0.544052 1.673 255 255 255
0.202115 0.246964 0.677 255 255 255
-0.594662 0.532795 2.057 255 255 255
0.174865 -0.129258 0.513 255 255 255
-0.711971 -0.455194 1.905 255 255 255
0.071176 0.534146 2.143 255 255 255
-0.93165 0.408188 2.004 255 255 255
-0.837375 0.0330377 1.997 255 255 255
-0.300961 0.441125 2.294 255 255 255
-0.897662 0.384788 2.166 255 255 255
0.239632 -0.0684497 0.514 255 255 255
-0.858106 0.037597 1.899 255 255 255
0.169761 -0.122416 0.523 255 255 255
0.201638 0.107725 0.612 255 255 255
0.168263 -0.124491 0.521 255 255 255
-0.719932 0.681606 1.744 255 255 255
0.166128 -0.0888244 0.536 0 0 0
-0.255515 0.360508 2.43 255 255 255
-0.920606 0.377145 2.03 255 255 255
-0.721259 0.499397 2.114 255 255 255
0.263407 0.0784815 0.573 255 255 255
0.18916 -0.0117582 0.563 255 255 255
0.230251 0.0137223 0.556 255 255 255
-0.6429 -0.511942 2.128 255 255 255
-0.825418 0.375028 2.278 255 255 255
-0.81575 -0.0488584 2.024 255 255 255
0.299707 0.166291 0.597 255 255 255
-0.217178 0.497582 2.166 255 255 255
0.164338 -0.14172 0.522 255 255 255
0.16756 -0.0895293 0.535 0 0 0
0.272135 0.242554 0.642 255 255 255
-0.473744 -0.372851 2.982 255 255 255
-0.0734632 0.454099 2.303 255 255 255
0.0645607 0.602606 2.044 255 255 255
-0.758485 -0.390093 1.905 255 255 255
0.236809 -0.0191156 0.538 255 255 255
-0.944582 0.633764 1.81 255 255 255
-0.753131 -0.406296 1.923 255 255 255
-0.663118 -0.053444 2.374 255 255 255
-0.795988 0.0602837 2.158 255 255 255
0.278446 0.117253 0.585 255 255 255
-0.498598 -0.659297 2.519 255 255 255
-0.892308 -0.0763308 1.748 255 255 255
0.162312 0.163071 0.65 255 255 255
-0.930505 0.162115 1.947 255 255 255
-0.850299 -0.202748 1.81 255 255 255
0.238043 0.0799881 0.584 255 255 255
-0.787429 -0.648254 1.682 255 255 255
-0.815117 -0.528978 1.677 255 255 255
-0.725298 -0.125424 2.278 255 255 255
-0.641356 0.36626 2.365 255 255 255
0.22937 -0.161328 0.477 255 255 255
-0.640309 0.635795 1.859 255 255 255
-0.234164 0.240952 2.684 255 255 255
-0.0848121 0.615802 1.959 255 255 255
0.232506 0.234323 0.657 255 255 255
-0.123978 0.688792 1.831 255 255 255
-0.628146 -0.622063 2.057 255 255 255
0.243326 -0.019009 0.535 255 255 255
-0.704655 -0.220658 2.158 255 255 255
-0.920444 0.469986 2.121 255 255 255
-0.930194 0.162615 1.953 255 255 255
-0.629653 -0.640274 2.051 255 255 255
-0.712279 0.199875 2.55 255 255 255
0.24658 -0.103989 0.496 255 255 255
-0.677321 -0.580516 2.064 255 255 255
-0.436952 -0.199084 2.996 255 255 255
-0.841252 -0.518968 1.612 255 255 255
0.165822 -0.0119253 0.571 255 255 255
-0.546872 0.380202 2.356 255 255 255
0.23023 -0.0235368 0.539 255 255 255
0.372578 0.332647 2.649 255 255 255
-0.744347 -0.619644 1.748 255 255 255
0.187303 0.18486 0.656 255 255 255
0.224678 -0.106275 0.503 255 255 255
-0.881261 -0.127543 1.71 255 255 255
-0.0602704 0.402423 2.374 255 255 255
-0.751178 0.147358 2.312 255 255 255
-0.192497 0.497582 2.166 255 255 255
-0.331608 0.203448 2.768 255 255 255
-0.862457 0.154277 2.01 255 255 255
-0.0136341 0.447855 2.329 255 255 255
-0.785521 -0.00948606 2.057 255 255 255
-0.823372 -0.113186 1.941 255 255 255
-0.431873 0.317429 2.561 255 255 255
-0.642358 -0.166106 2.383 255 255 255
0.158323 -0.017807 0.581 0 0 0
0.245618 0.135045 0.605 255 255 255
-0.496433 0.299467 2.55 255 255 255
0.17331 0.13472 0.636 255 255 255
0.145494 0.187715 0.67 255 255 255
0.24518 0.0655413 0.574 255 255 255
0.106861 0.238121 2.805 255 255 255
0.272861 0.0600821 0.558 255 255 255
-0.727031 -0.635408 1.826 255 255 255
-0.765078 0.0316376 2.121 255 255 255
-0.933818 0.161358 1.865 255 255 255
-0.699057 -0.265862 2.099 255 255 255
-0.798022 0.238923 2.253 255 255 255
-0.848103 -0.0406629 1.947 255 255 255
-0.610255 0.273492 2.54 255 255 255
-0.698076 -0.0291425 2.286 255 255 255
0.309535 0.431686 2.365 255 255 255
0.201638 -0.0649084 0.533 255 255 255
-0.615001 0.651517 1.794 255 255 255
-0.627807 -0.0159779 2.561 255 255 255
-0.77373 -0.446451 1.831 255 255 255
-0.559774 0.105746 2.805 255 255 255
-0.585489 0.681356 1.758 255 255 255
-0.619015 -0.387089 2.269 255 255 255
-0.874221 -0.28298 1.691 255 255 255
-0.397517 0.624753 1.899 255 255 255
0.253503 0.164833 0.617 255 255 255
-0.557055 -0.717284 2.228 255 255 255
0.160523 0.196144 0.669 255 255 255
-0.963775 0.609973 1.882 255 255 255
0.208957 0.185482 0.647 255 255 255
-0.391609 0.35405 2.44 255 255 255
-0.67947 -0.241187 2.286 255 255 255
0.191089 -0.00261017 0.566 255 255 255
0.228565 -0.0924511 0.508 255 255 255
0.281086 0.210359 0.627 255 255 255
0.175244 0.465002 2.32 255 255 255
-0.738092 -0.631747 1.774 255 255 255
-0.889708 0.411243 2.253 255 255 255
0.222241 0.0808099 0.59 255 255 255
-0.896018 0.268349 2.057 255 255 255
-0.141904 0.363327 2.449 255 255 255
0.247464 0.0208098 0.552 255 255 255
-0.952931 0.312501 1.826 255 255 255
-0.839293 0.17146 2.143 255 255 255
-0.491215 -0.880697 2.365 255 255 255
0.215464 -0.136806 0.495 255 255 255
0.221969 0.175084 0.636 255 255 255
-0.515826 -0.842618 2.303 255 255 255
0.203829 -0.00983767 0.558 255 255 255
0.295587 0.132484 0.585 255 255 255
-0.480648 0.601959 1.935 255 255 255
-0.797265 -0.370639 1.81 255 255 255
-0.882502 0.292745 2.244 255 255 255
-0.835929 0.175141 2.189 255 255 255
-0.450703 -0.239019 2.78 255 255 255
-0.57362 0.506167 2.128 255 255 255
-0.653154 -0.0157845 2.53 255 255 255
-0.673133 0.476786 2.136 255 255 255
0.258372 -0.0549594 0.513 255 255 255
-0.686765 -0.722517 1.966 255 255 255
-0.895178 -0.166502 1.71 255 255 255
0.264367 0.243014 0.646 255 255 255
-0.937339 0.174923 1.848 255 255 255
0.0634706 0.65047 1.911 255 255 255
-0.563003 0.41825 2.312 255 255 255
-0.849385 -0.237719 1.853 255 255 255
-0.907939 -0.03611 1.729 255 255 255
0.145684 0.103603 0.642 255 255 255
-0.485645 -0.739352 2.32 255 255 255
-0.604447 0.0699783 2.66 255 255 255
0.387821 0.237554 2.695 255 255 255
-0.231178 0.407826 2.383 255 255 255
-0.430562 0.650964 1.842 255 255 255
0.36228 0.225971 2.768 255 255 255
0.250603 0.0207721 0.551 255 255 255
0.304102 0.209387 0.598 255 255 255
-0.778269 -0.611739 1.71 255 255 255
-0.808798 -0.565496 1.664 255 255 255
0.0750544 0.694587 1.815 255 255 255
0.244094 0.0433665 0.565 255 255 255
-0.655389 -0.0727604 2.374 255 255 255
0.0905202 0.517114 2.189 255 255 255
0.221488 0.0747948 0.588 255 255 255
-0.698323 -0.279924 2.128 255 255 255
0.155467 0.187678 0.666 255 255 255
-0.880057 -0.215558 1.724 255 255 255
-0.5991 -0.696261 2.196 255 255 255
0.220688 -0.102995 0.507 255 255 255
-0.566335 -0.592505 2.236 255 255 255
0.165487 0.165187 0.65 255 255 255
-0.877669 0.51969 2.085 255 255 255
-0.0710463 0.413123 2.347 255 255 255
0.141551 0.247027 0.699 255 255 255
0.19143 -0.0705072 0.536 255 255 255
-0.892222 0.275762 2.196 255 255 255
0.184624 0.0706977 0.602 255 255 255
-0.779963 -0.305754 1.882 255 255 255
0.0734109 0.683158 1.848 255 255 255
-0.459862 -0.7955 2.509 255 255 255
0.187828 -0.181023 0.484 255 255 255
0.145662 0.0641423 0.624 255 255 255
-0.2027 0.218506 2.731 255 255 255
-0.902697 0.301853 2.128 255 255 255
-0.385543 0.550227 2.085 255 255 255
0.169633 -0.124252 0.52 255 255 255
0.162005 -0.0546242 0.561 0 0 0
-0.638809 -0.469725 2.173 255 255 255
-0.74547 -0.339709 2.03 255 255 255
-0.72483 0.547504 2.037 255 255 255
0.194808 0.127705 0.622 255 255 255
-0.801185 0.058859 2.107 255 255 255
-0.616597 0.529105 2.03 255 255 255
0.21229 -0.131697 0.497 255 255 255
-0.726766 -0.615997 1.848 255 255 255
-0.269081 0.56128 2.051 255 255 255
0.24442 0.168193 0.622 255 255 255
-0.323995 -0.849755 2.78 255 255 255
0.20432 0.588958 2.078 255 255 255
0.264604 -0.0244934 0.522 255 255 255
-0.696665 0.0277898 2.383 255 255 255
-0.653995 0.349658 2.383 255 255 255
-0.191588 0.475884 2.196 255 255 255
0.30126 0.234208 0.612 0 0 0
-0.200028 0.241939 2.695 255 255 255
0.142713 -0.0812991 0.55 255 255 255
-0.576816 0.0331658 2.844 255 255 255
-0.370412 0.215943 2.755 255 255 255
-0.805769 -0.531817 1.686 255 255 255
0.285054 0.117396 0.581 255 255 255
-0.63045 0.604296 1.893 255 255 255
-0.764602 -0.647052 1.686 255 255 255
0.243905 0.115578 0.596 255 255 255
-0.542761 -0.479527 2.459 255 255 255
0.152074 0.0407974 0.609 0 0 0
0.300189 0.212368 0.618 255 255 255
-0.602803 -0.295454 2.459 255 255 255
-0.750001 -0.390649 1.923 255 255 255
-0.675461 0.644983 1.784 255 255 255
-0.871456 -0.257997 1.805 255 255 255
-0.328706 0.229801 2.707 255 255 255
0.194898 -0.177922 0.482 255 255 255
0.156808 0.072868 0.612 255 255 255
-0.951542 0.615213 1.87 255 255 255
-0.764687 -0.417993 1.905 255 255 255
0.219202 -0.123048 0.498 255 255 255
-0.589467 -0.542171 2.269 255 255 255
-0.472737 0.547929 2.051 255 255 255
-0.533966 -0.79866 2.253 255 255 255
0.15273 0.0941903 0.628 255 255 255
0.272714 0.0240935 0.545 255 255 255
0.124588 -0.077243 0.553 255 255 255
-0.526999 -0.572179 2.479 255 255 255
0.20781 0.199035 0.65 255 255 255
0.193918 0.265146 0.687 255 255 255
-0.613794 -0.777938 2.01 255 255 255
-0.849141 0.15119 2.057 255 255 255
0.241887 0.402344 2.42 255 255 255
-0.882871 -0.108914 1.769 255 255 255
0.175316 0.0545663 0.597 255 255 255
0.210527 0.664144 1.837 255 255 255
-0.530214 -0.574313 2.42 255 255 255
0.2292 -0.0761255 0.515 255 255 255
0.211177 -0.17489 0.478 255 255 255
-0.16463 0.654584 1.887 255 255 255
-0.819294 -0.3628 1.744 255 255 255
-0.778287 0.457439 2.228 255 255 255
-0.0358343 0.459791 2.294 255 255 255
-0.658056 -0.368335 2.099 255 255 255
-0.929572 0.136807 1.821 255 255 255
0.141818 -0.105465 0.55 255 255 255
-0.811077 0.292314 2.269 255 255 255
0.143738 0.0956902 0.638 255 255 255
-0.919124 0.3375 1.991 255 255 255
0.237463 -0.137704 0.484 255 255 255
-0.700203 0.235997 2.582 255 255 255
-0.508996 0.598811 1.935 255 255 255
-0.0046616 0.692389 1.794 255 255 255
-0.0638055 0.691634 1.815 255 255 255
-0.489566 -0.442222 2.695 255 255 255
-0.898745 0.297137 2.071 255 255 255
-0.550202 0.220567 2.649 255 255 255
-0.240218 0.667934 1.831 255 255 255
-0.399964 -0.565259 2.805 255 255 255
0.233871 0.0182462 0.556 255 255 255
-0.201741 0.399352 2.402 255 255 255
0.164338 -0.14087 0.522 255 255 255
0.285083 0.161537 0.601 255 255 255
-0.901577 0.328778 2.017 255 255 255
-0.669419 0.0935337 2.593 255 255 255
0.0580236 0.520407 2.173 255 255 255
0.18554 0.651513 1.887 255 255 255
-0.00621546 0.421044 2.392 255 255 255
-0.702952 0.000639462 2.365 255 255 255
0.208469 -0.0697814 0.524 255 255 255
-0.655303 0.140544 2.604 255 255 255
-0.873233 -0.243602 1.744 255 255 255
0.270032 0.137375 0.598 255 255 255
0.100874 0.428401 2.347 255 255 255
-0.0956029 0.349009 2.489 255 255 255
0.216618 -0.0809397 0.519 255 255 255
-0.280399 0.282752 2.626 255 255 255
0.183495 0.107776 0.618 255 255 255
-0.0797154 0.350411 2.499 255 255 255
0.211301 0.547559 2.114 255 255 255
-0.484743 -0.872125 2.449 255 255 255
-0.650315 -0.0362121 2.519 255 255 255
0.292946 0.210368 0.624 255 255 255
-0.816125 -0.548664 1.646 255 255 255
0.228407 0.124045 0.609 255 255 255
-0.480982 0.332827 2.43 255 255 255
-0.845852 -0.388868 1.673 255 255 255
-0.436601 -0.784662 2.54 255 255 255
-0.753151 -0.276125 2.024 255 255 255
-0.723818 0.128616 2.383 255 255 255
0.149734 0.10798 0.637 255 255 255
-0.901411 0.323331 2.024 255 255 255
-0.744684 -0.053976 2.236 255 255 255
0.293616 0.232606 0.632 255 255 255
0.168028 -0.163402 0.505 255 255 255
-0.764301 -0.251318 2.01 255 255 255
-0.267197 0.513222 2.143 255 255 255
-0.416439 -0.690104 2.793 255 255 255
0.23528 0.149044 0.614 255 255 255
-0.574137 0.212825 2.66 255 255 255
0.178441 -0.053261 0.547 255 255 255
-0.913125 0.306568 2.212 255 255 255
0.1985 -0.0517964 0.541 255 255 255
-0.521537 -0.0739767 2.871 255 255 255
-0.557945 0.445818 2.261 255 255 255
-0.293864 -0.94725 2.884 255 255 255
-0.452717 -0.499418 2.561 255 255 255
0.458246 0.165798 2.982 255 255 255
0.229352 0.0924879 0.591 255 255 255
0.253474 0.0876317 0.578 255 255 255
-0.811285 -0.407106 1.815 255 255 255
-0.0412079 0.29263 2.638 255 255 255
0.225523 -0.0481558 0.53 255 255 255
-0.943591 0.45625 2.044 255 255 255
-0.0340721 0.687823 1.805 255 255 255
-0.82065 -0.172951 1.87 255 255 255
-0.448785 -0.172869 2.884 255 255 255
0.279563 0.549782 2.136 255 255 255
0.210525 0.517568 2.253 255 255 255
-0.622101 -0.339091 2.294 255 255 255
-0.688861 -0.615613 1.972 255 255 255
-0.871908 -0.301652 1.719 255 255 255
0.237722 0.617622 2.017 255 255 255
-0.842919 -0.46295 1.646 255 255 255
0.178597 -0.0876644 0.529 255 255 255
-0.0122876 0.557337 2.099 255 255 255
-0.0561922 0.404746 2.365 255 255 255
0.166638 0.187911 0.663 255 255 255
-0.891884 0.391539 2.204 255 255 255
0.248884 -0.0948734 0.499 255 255 255
0.148948 0.0733988 0.625 255 255 255
0.219309 0.458955 2.347 255 255 255
-0.393427 -0.682671 2.857 255 255 255
-0.719299 0.103046 2.42 255 255 255
-0.49205 0.483281 2.181 255 255 255
-0.869354 0.0278936 1.87 255 255 255
-0.809333 -0.596248 1.682 255 255 255
-0.502789 0.494136 2.151 255 255 255
-0.591457 -0.723448 2.181 255 255 255
0.0188242 0.321212 2.626 255 255 255
-0.39084 -0.750399 2.593 255 255 255
0.226372 0.0371919 0.569 255 255 255
0.282335 0.202934 0.623 255 255 255
-0.861558 0.0405588 1.893 255 255 255
-0.464588 -0.19652 2.755 255 255 255
0.184886 -0.128424 0.513 255 255 255
-0.419375 0.246325 2.695 255 255 255
0.229829 -0.171963 0.47 255 255 255
-0.630415 -0.266655 2.489 255 255 255
-0.432466 -0.776395 2.54 255 255 255
-0.407097 0.257268 2.672 255 255 255
-0.866085 -0.0632291 1.959 255 255 255
0.0665506 0.556032 2.107 255 255 255
-0.565529 0.40393 2.338 255 255 255
0.146831 0.275555 0.708 255 255 255
0.182555 0.0413746 0.589 255 255 255
-0.588733 -0.635048 2.158 255 255 255
0.24613 -0.129828 0.484 255 255 255
-0.309443 -0.74906 2.898 255 255 255
-0.807071 0.0614305 2.078 255 255 255
0.0672993 0.284629 2.684 255 255 255
-0.645205 0.370108 2.365 255 255 255
0.109094 0.653585 1.893 255 255 255
-0.610899 -0.342824 2.294 255 255 255
0.224084 0.232175 2.844 255 255 255
-0.765416 -0.635826 1.7 255 255 255
-0.592378 0.327459 2.449 255 255 255
0.19662 0.114258 0.615 255 255 255
-0.418989 0.443307 2.286 255 255 255
0.199396 0.0216392 0.574 255 255 255
-0.689636 -0.690187 1.947 255 255 255
-0.902838 0.0735401 1.87 255 255 255
-0.753725 0.495853 2.099 255 255 255
0.22925 -0.156094 0.48 255 255 255
-0.473744 -0.343735 2.982 255 255 255
0.269592 0.221658 0.636 255 255 255
0.165872 -0.0865293 0.538 0 0 0
0.15606 0.212022 0.678 255 255 255
-0.845926 -0.213454 1.826 255 255 255
0.163336 0.056096 0.603 255 255 255
0.164832 0.565691 2.092 255 255 255
-0.859993 -0.244634 1.837 255 255 255
0.257429 -0.000731392 0.539 255 255 255
-0.714758 -0.335341 2.085 255 255 255
-0.625835 -0.305493 2.294 255 255 255
0.246619 -0.0919925 0.501 255 255 255
-0.826707 0.589527 1.905 255 255 255
0.076511 0.515194 2.196 255 255 255
-0.00181508 0.663902 1.87 255 255 255
-0.946599 0.310378 1.831 255 255 255
0.272065 0.00710962 0.535 255 255 255
-0.654839 0.0406809 2.459 255 255 255
0.149875 -0.116205 0.55 255 255 255
-0.531286 0.539792 2.071 255 255 255
0.21552 -0.0518979 0.533 255 255 255
0.255987 -0.0713601 0.505 255 255 255
-0.435414 -0.873268 2.582 255 255 255
-0.473071 0.332827 2.43 255 255 255
-0.645553 -0.487933 2.114 255 255 255
-0.753784 -0.201652 2.071 255 255 255
-0.65438 0.465858 2.166 255 255 255
-0.0121647 0.578814 2.078 255 255 255
0.229814 -0.0520722 0.526 255 255 255
-0.698076 -0.163065 2.286 255 255 255
0.263661 0.156492 0.608 255 255 255
-0.746287 -0.510482 1.815 255 255 255
-0.643723 -0.486469 2.064 255 255 255
0.1723 -0.175826 0.496 255 255 255
-0.509412 -0.226397 2.684 255 255 255
-0.922166 0.316585 1.923 255 255 255
-0.25149 0.603826 1.941 255 255 255
0.288825 0.256292 2.755 255 255 255
-0.679853 -0.0455441 2.365 255 255 255
-0.836425 -0.527665 1.583 255 255 255
-0.749853 0.564503 1.947 255 255 255
0.132204 0.478456 2.294 255 255 255
-0.76763 -0.491524 1.789 255 255 255
0.24948 -0.0138368 0.537 255 255 255
0.23124 -0.121746 0.496 255 255 255
-0.845012 -0.181626 1.805 255 255 255
-0.916354 0.194352 1.985 255 255 255
0.182225 -0.055727 0.545 255 255 255
-0.763575 0.634653 1.821 255 255 255
-0.958672 0.622293 1.837 255 255 255
-0.630943 -0.552138 2.22 255 255 255
0.216177 0.240784 0.666 255 255 255
-0.570803 -0.431429 2.392 255 255 255
-0.323667 -0.998822 2.857 255 255 255
0.263302 0.0994323 0.581 255 255 255
-0.885147 -0.0763029 1.815 255 255 255
-0.813146 -0.41075 1.719 255 255 255
-0.895766 0.300569 2.004 255 255 255
-0.820661 -0.391443 1.784 255 255 255
0.254867 0.380394 2.509 255 255 255
0.23253 0.513901 2.253 255 255 255
-0.448593 0.492298 2.143 255 255 255
-0.250515 0.244223 2.672 255 255 255
-0.464987 -0.452574 2.731 255 255 255
-0.957973 0.33823 1.853 255 255 255
-0.68539 -0.433234 2.099 255 255 255
0.378517 0.215943 2.755 255 255 255
-0.249804 0.572051 2.03 255 255 255
0.281945 0.0834894 0.569 255 255 255
-0.700544 0.0277898 2.383 255 255 255
0.141815 0.145833 0.663 255 255 255
-0.76334 -0.353243 1.941 255 255 255
-0.51381 -0.86919 2.294 255 255 255
-0.474803 -0.419709 2.871 255 255 255
-0.800989 -0.444089 1.729 255 255 255
-0.870766 -0.072124 1.941 255 255 255
0.258128 0.0945419 0.58 255 255 255
-0.831922 0.102093 2.151 255 255 255
-0.684068 -0.0112938 2.449 255 255 255
-0.153713 0.560013 2.071 255 255 255
-0.458029 -0.491394 2.499 255 255 255
0.217035 -0.074326 0.52 255 255 255
-0.804197 -0.545353 1.677 255 255 255
0.153626 0.209506 0.677 255 255 255
0.202104 0.665952 1.842 255 255 255
0.20148 0.0331916 0.58 255 255 255
-0.415257 0.544685 2.064 255 255 255
0.24103 -0.0629599 0.517 255 255 255
0.218606 -0.137858 0.493 255 255 255
0.183966 0.117772 0.623 255 255 255
-0.132892 0.388189 2.43 255 255 255
0.25741 0.0639318 0.568 255 255 255
0.145831 0.135987 0.652 255 255 255
-0.879174 -0.19059 1.779 255 255 255
-0.886127 0.447789 2.181 255 255 255
0.225008 -0.0778017 0.515 255 255 255
-0.898029 0.570926 1.905 255 255 255
-0.128139 0.511638 2.151 255 255 255
-0.393468 0.399372 2.356 255 255 255
0.176802 0.0384991 0.589 255 255 255
-0.855421 -0.325878 1.714 255 255 255
0.234645 0.236461 0.657 255 255 255
-0.769875 -0.199705 2.051 255 255 255
0.19036 -0.12484 0.512 255 255 255
0.168674 0.151555 0.646 255 255 255
0.192783 0.0806279 0.603 255 255 255
-0.843524 0.163853 2.181 255 255 255
0.172466 -0.0610483 0.545 255 255 255
0.143491 -0.0790428 0.553 255 255 255
0.228517 0.267393 2.731 255 255 255
0.167185 -0.111939 0.56 0 0 0
-0.842742 -0.257468 1.865 255 255 255
-0.649779 -0.269347 2.44 255 255 255
0.146459 -0.064549 0.568 255 255 255
0.235886 -0.00429498 0.546 255 255 255
0.185898 -0.151206 0.5 255 255 255
-0.770961 -0.427691 1.853 255 255 255
-0.187315 0.630934 1.899 255 255 255
-0.616878 -0.113552 2.42 255 255 255
-0.229876 -1.02279 2.967 255 255 255
0.163894 0.0125126 0.584 255 255 255
-0.716205 -0.157602 2.261 255 255 255
0.0189822 0.516814 2.158 255 255 255
-0.488001 0.558201 2.004 255 255 255
0.203301 -0.160612 0.489 255 255 255
0.194156 0.250272 0.68 255 255 255
0.257313 -0.0414032 0.521 255 255 255
-0.653057 0.543518 2.01 255 255 255
-0.762612 0.028877 2.173 255 255 255
0.20095 0.124468 0.616 255 255 255
-0.801907 -0.292568 1.876 255 255 255
0.189637 -0.152725 0.497 255 255 255
-0.855475 0.00682096 1.935 255 255 255
-0.860412 -0.319363 1.724 255 255 255
0.203154 0.497122 2.294 255 255 255
-0.608677 0.0515549 2.604 255 255 255
0.223861 0.027736 0.565 255 255 255
0.160639 0.00969459 0.586 255 255 255
0.170667 -0.126303 0.518 255 255 255
-0.570579 -0.0254808 2.684 255 255 255
-0.844358 0.55353 1.953 255 255 255
-0.875809 -0.258187 1.673 255 255 255
-0.444238 0.260441 2.66 255 255 255
-0.540554 -0.461636 2.449 255 255 255
0.202375 -0.00803594 0.559 255 255 255
-0.646513 0.540247 2.01 255 255 255
-0.828081 0.0302802 2.03 255 255 255
0.243711 0.189233 0.628 255 255 255
0.0577883 0.640902 1.929 255 255 255
-0.535295 -0.717284 2.228 255 255 255
0.180694 0.00108359 0.571 255 255 255
0.150923 0.25353 0.695 255 255 255
-0.495261 0.422012 2.312 255 255 255
-0.853341 0.167437 2.051 255 255 255
-0.403612 0.658436 1.789 255 255 255
0.259769 0.24957 2.78 255 255 255
0.117776 0.536354 2.166 255 255 255
0.248546 0.0605527 0.571 255 255 255
0.196551 0.0429976 0.585 255 255 255
-0.827702 -0.1376 1.929 255 255 255
0.198102 0.266993 0.686 255 255 255
0.190989 -0.0260418 0.555 255 255 255
0.250158 -0.058526 0.515 255 255 255
0.167946 -0.112416 0.528 255 255 255
0.245011 -0.0641424 0.513 255 255 255
-0.366731 0.237554 2.695 255 255 255
-0.606121 -0.0819815 2.54 0 0 0
-0.426713 -0.662638 2.831 255 255 255
0.258014 -0.0446226 0.519 255 255 255
0.25196 -0.0189379 0.533 255 255 255
0.178676 -0.075882 0.537 255 255 255
-0.438515 -0.219357 2.818 255 255 255
0.209522 -0.122402 0.502 255 255 255
-0.174326 0.284044 2.638 255 255 255
0.208696 -0.102344 0.512 255 255 255
0.0169151 0.632649 1.923 255 255 255
-0.0329677 0.422376 2.356 255 255 255
0.269652 0.0490974 0.557 255 255 255
-0.859579 -0.0570563 1.966 255 255 255
-0.61233 0.228237 2.638 255 255 255
0.153611 0.151203 0.649 255 255 255
0.23747 -0.0510215 0.524 255 255 255
0.237528 -0.129577 0.489 255 255 255
-0.66226 -0.269999 2.278 255 255 255
0.193981 0.0333633 0.583 255 255 255
-0.586208 -0.736329 2.136 255 255 255
-0.41668 -0.650126 2.857 255 255 255
-0.261195 -1.01792 2.939 255 255 255
-0.664363 -0.693723 1.966 255 255 255
-0.890662 0.0552815 1.87 255 255 255
-0.888597 0.0306554 1.853 255 255 255
0.0398605 0.331234 2.604 255 255 255
-0.897642 0.514626 2.092 255 255 255
-0.658048 -0.461936 2.121 255 255 255
-0.754668 -0.596644 1.739 255 255 255
-0.492539 -0.67041 2.53 255 255 255
0.201359 -0.147784 0.494 255 255 255
0.15157 0.048205 0.615 255 255 255
-0.533759 -0.189527 2.719 255 255 255
-0.595809 0.357413 2.383 255 255 255
-0.817876 -0.407512 1.729 255 255 255
0.150199 0.578814 2.078 255 255 255
-0.021797 0.598478 2.03 255 255 255
0.258703 0.000145467 0.538 255 255 255
-0.369735 -0.775717 2.593 255 255 255
0.182118 0.412618 2.411 255 255 255
0.245931 -0.0734374 0.508 255 255 255
-0.597435 -0.781209 2.01 255 255 255
0.228475 -0.0244139 0.539 255 255 255
-0.799421 -0.459294 1.744 255 255 255
0.26062 0.186413 0.622 255 255 255
-0.725775 -0.407526 1.959 255 255 255
0.189229 0.131793 0.627 255 255 255
0.230503 -0.0943706 0.505 255 255 255
-0.356222 -0.75706 2.857 255 255 255
-0.706883 -0.671093 1.859 255 255 255
-0.43152 0.624753 1.899 255 255 255
0.2058 -0.029952 0.544 255 255 255
0.170341 -0.187554 0.495 255 255 255
-0.798962 0.616997 1.848 255 255 255
-0.636751 -0.563381 2.166 255 255 255
0.238251 -0.0900828 0.504 255 255 255
0.214795 0.716238 1.848 255 255 255
-0.827521 -0.376084 1.714 255 255 255
-0.492329 0.501118 2.136 255 255 255
-0.509442 0.182952 2.731 255 255 255
0.256342 0.495396 2.269 255 255 255
-0.733557 0.536421 2.071 255 255 255
-0.166724 0.628701 1.911 255 255 255
-0.759482 0.555706 1.972 255 255 255
0.190771 0.158232 0.639 255 255 255
0.23846 -0.158333 0.475 255 255 255
0.305827 0.38882 2.459 255 255 255
-0.526298 -0.829021 2.236 255 255 255
-0.67403 -0.318376 2.085 255 255 255
0.207483 -0.121827 0.503 255 255 255
-0.605531 0.109919 2.684 255 255 255
0.155338 -0.0226507 0.584 0 0 0
-0.570134 -0.293295 2.509 255 255 255
-0.761893 0.0460866 2.151 255 255 255
-0.561966 -0.31371 2.509 255 255 255
0.262035 -0.0548523 0.512 255 255 255
-0.0179714 0.40326 2.402 255 255 255
-0.954049 0.341366 1.887 255 255 255
0.27871 0.179311 0.615 255 255 255
-0.887714 0.659843 1.739 255 255 255
-0.667148 -0.442683 2.128 255 255 255
-0.817053 -0.217422 1.941 255 255 255
-0.840251 0.378736 2.278 255 255 255
-0.815227 -0.500269 1.7 255 255 255
0.280621 0.187926 0.617 255 255 255
0.2332 0.0953732 0.591 255 255 255
-0.84031 0.0885934 2.004 255 255 255
-0.221933 0.590298 1.959 255 255 255
-0.455777 -0.828164 2.509 255 255 255
0.230191 0.0361384 0.567 255 255 255
-0.013385 0.696282 1.789 255 255 255
0.284668 0.133617 0.59 255 255 255
0.231214 -0.163314 0.476 255 255 255
-0.551441 -0.790574 2.22 255 255 255
0.310912 0.32268 2.638 255 255 255
0.165034 -0.160354 0.511 0 0 0
0.19619 -0.0748928 0.53 255 255 255
0.270136 0.0528177 0.558 255 255 255
0.220066 0.255282 2.793 255 255 255
0.332174 0.235998 2.78 255 255 255
-0.794319 -0.364748 1.81 255 255 255
-0.947527 0.533705 2.01 255 255 255
-0.153298 0.365962 2.44 255 255 255
-0.935241 0.329122 1.905 255 255 255
0.168603 -0.183459 0.497 255 255 255
0.19518 -0.0346943 0.549 255 255 255
0.144956 0.513484 2.204 255 255 255
0.348145 0.277756 2.66 255 255 255
0.236737 0.0369304 0.565 255 255 255
0.16837 -0.0588162 0.549 255 255 255
0.222796 -0.0322481 0.538 255 255 255
-0.887618 0.0370229 1.87 255 255 255
0.229345 0.0137223 0.556 255 255 255
-0.613757 0.0383648 2.572 255 255 255
0.273028 0.182197 0.618 255 255 255
-0.713119 -0.409977 2.051 255 255 255
0.151949 0.100482 0.629 255 255 255
0.241911 0.197231 0.634 255 255 255
-0.462275 -0.454201 2.768 255 255 255
0.201794 0.0618163 0.592 255 255 255
-0.462434 0.323402 2.479 255 255 255
0.169958 0.173919 0.655 255 255 255
0.274622 0.101213 0.575 255 255 255
0.228577 -0.115986 0.499 255 255 255
-0.859758 0.666411 1.734 255 255 255
-0.264693 0.511638 2.151 255 255 255
-0.742397 -0.482106 1.842 255 255 255
0.124137 -0.0787569 0.551 255 255 255
0.178608 0.112522 0.622 255 255 255
-0.462275 -0.251501 2.768 255 255 255
0.15454 -0.0338801 0.581 255 255 255
-0.824674 -0.412315 1.691 255 255 255
-0.675627 0.629026 1.848 255 255 255
0.169301 -0.0982355 0.535 255 255 255
0.172048 0.138475 0.639 255 255 255
0.187762 0.0933227 0.609 255 255 255
0.221674 0.357563 2.55 255 255 255
-0.872467 -0.241153 1.789 255 255 255
-0.812956 -0.160976 1.985 255 255 255
-0.44438 -0.724468 2.561 255 255 255
0.147344 0.41022 2.42 255 255 255
0.222824 -0.0969648 0.51 255 255 255
-0.136717 0.674944 1.842 255 255 255
-0.739805 -0.643768 1.744 255 255 255
-0.292662 -0.834491 2.967 255 255 255
0.15587 -0.0093777 0.586 0 0 0
0.231524 0.137603 0.612 255 255 255
-0.856007 -0.280336 1.779 255 255 255
0.16838 -0.0273819 0.564 255 255 255
-0.887176 -0.212558 1.7 255 255 255
-0.833977 0.0549202 1.966 255 255 255
0.194919 -0.173147 0.484 255 255 255
-0.531258 -0.152146 2.684 255 255 255
-0.735791 -0.549837 1.848 255 255 255
-0.471947 0.313587 2.53 255 255 255
0.133964 0.237199 0.707 0 0 0
-0.467365 0.670899 1.799 255 255 255
0.155259 0.370012 2.55 255 255 255
-0.069442 0.463524 2.294 255 255 255
0.23758 0.0100304 0.552 255 255 255
0.197814 0.209298 0.659 255 255 255
0.182858 -0.0350735 0.555 255 255 255
-0.870358 -0.30197 1.705 255 255 255
-0.961662 0.188829 1.837 255 255 255
-0.939152 0.134779 1.794 255 255 255
-0.911842 0.223367 1.876 255 255 255
-0.170105 0.514887 2.107 255 255 255
0.23683 0.325486 2.626 255 255 255
-0.515739 -0.668995 2.286 255 255 255
0.176405 -0.110713 0.52 255 255 255
-0.881749 0.658902 1.744 255 255 255
0.157503 0.0544925 0.607 255 255 255
0.164941 0.591319 2.051 255 255 255
0.219403 0.0166436 0.563 255 255 255
-0.655334 0.553002 1.997 255 255 255
-0.777643 -0.0677477 2.099 255 255 255
-0.419093 -0.703321 2.638 255 255 255
0.178759 -0.16614 0.496 255 255 255
-0.51013 0.667134 1.837 255 255 255
-0.145056 0.521434 2.092 255 255 255
0.28007 0.191248 0.618 255 255 255
-0.560682 -0.782546 2.228 255 255 255
-0.711103 -0.571691 1.911 255 255 255
-0.317014 0.66911 1.81 255 255 255
