ply
format ascii 1.0
comment Created by Open3D
element vertex 1312
property double x
property double y
property double z
property uchar red
property uchar green
property uchar blue
end_header
0.199355 0.429018 1.646 255 255 255
-1.04029 -0.471102 2.871 255 255 255
0.533551 -0.472111 2.996 0 0 0
-0.719901 0.200237 1.779 255 255 255
-0.00407175 0.479828 1.567 255 255 255
-0.916218 -0.259718 2.54 255 255 255
0.181275 0.154277 2.01 255 255 255
-0.127979 0.0767928 2.037 255 255 255
0.418061 0.428464 1.719 255 255 255
0.698942 -0.46053 2.953 0 0 0
-0.601827 0.41458 1.524 255 255 255
0.53419 0.490017 1.406 255 255 255
0.273147 -0.0291425 2.286 255 255 255
-0.316538 0.459221 1.524 255 255 255
0.125697 0.523958 1.532 255 255 255
0.641562 -0.231103 2.638 255 255 255
-0.665951 0.498104 1.403 255 255 255
0.176581 0.511669 1.563 255 255 255
0.596227 0.426614 1.18 255 255 255
0.152329 0.531143 1.524 255 255 255
0.208172 0.516845 1.571 255 255 255
-0.38166 0.0307873 2.064 255 255 255
0.051872 0.283561 1.831 255 255 255
-0.215921 -0.0528415 2.189 255 255 255
0.110899 0.329584 1.774 255 255 255
0.397448 0.391 1.739 255 255 255
0.798061 -0.109562 2.509 255 255 255
0.173476 0.324542 1.794 255 255 255
-0.289016 0.414683 1.591 255 255 255
-0.466638 -0.110991 2.212 255 255 255
0.320194 0.492077 1.607 255 255 255
-0.955293 -0.124621 1.972 255 255 255
0.554938 0.138103 1.966 255 255 255
0.522932 -0.0298054 2.338 255 255 255
0.563985 0.140368 1.953 255 255 255
-1.08921 -0.745051 2.649 255 255 255
0.582798 0.49005 1.286 255 255 255
0.56984 -0.258786 1.244 255 255 255
-0.0329622 0.211985 1.911 255 255 255
0.0846022 0.420591 1.655 255 255 255
-0.29639 0.236127 1.81 255 255 255
-0.974789 -0.607341 1.966 255 255 255
0.0606225 0.57057 1.466 255 255 255
0.0558497 0.57057 1.466 255 255 255
0.571922 -0.0900211 1.262 255 255 255
0.282861 0.345958 1.784 255 255 255
0.555888 0.363399 1.403 255 255 255
-0.79373 0.300731 1.633 255 255 255
0.0848895 0.558912 1.473 255 255 255
-0.478761 0.0863387 1.953 255 255 255
-0.952522 -0.104267 2.078 0 0 0
-1.08701 -0.786863 2.719 255 255 255
0.524049 0.208032 1.575 255 255 255
0.0628727 0.240793 1.893 255 255 255
0.350349 0.304001 1.865 255 255 255
-0.983778 -0.345293 2.024 255 255 255
-0.748881 0.479107 1.435 255 255 255
-1.01296 0.00366069 1.929 255 255 255
0.570106 0.471468 1.281 255 255 255
0.470592 0.198903 1.935 255 255 255
-0.0669778 0.524494 1.491 255 255 255
-0.442691 0.502564 1.442 255 255 255
-0.509462 0.0339311 2.051 255 255 255
-1.10417 -0.796815 2.593 255 255 255
0.138014 0.555623 1.477 255 255 255
0.28274 -0.00304498 2.244 255 255 255
-0.743515 0.051221 1.947 255 255 255
-0.90273 -0.465683 2.925 255 255 255
-0.389482 0.315648 1.714 255 255 255
-0.769943 0.413713 1.494 255 255 255
-0.00648728 0.500005 1.535 255 255 255
-0.94415 -0.676881 2.996 255 255 255
-0.855398 -0.431398 2.269 255 255 255
-0.272566 0.250855 1.789 255 255 255
-0.950493 -0.451822 1.917 0 0 0
-0.885218 0.0228452 1.959 255 255 255
0.59414 0.21567 1.203 255 255 255
-0.0370463 -0.316096 2.996 255 255 255
-0.692257 0.0264584 1.991 255 255 255
0.454241 0.319316 1.831 0 0 0
-0.643517 0.499166 1.419 255 255 255
0.00606873 0.490073 1.551 255 255 255
-0.456815 0.528914 1.406 255 255 255
0.196465 0.36836 1.739 255 255 255
-0.475553 -0.118618 2.22 255 255 255
-0.250628 0.0475814 2.064 255 255 255
0.178568 0.249303 1.911 255 255 255
-1.04578 -0.348369 2.383 255 255 255
0.911127 -0.331039 2.793 255 255 255
-0.136774 0.471254 1.539 255 255 255
-0.908474 -0.174053 2.236 0 0 0
0.550988 -0.010662 2.312 255 255 255
-0.512576 0.268539 1.734 255 255 255
0.102512 -0.225242 2.479 255 255 255
0.571524 0.265304 1.313 255 255 255
0.361309 -0.358578 2.831 255 255 255
-1.02083 -0.28938 2.173 255 255 255
0.588265 -0.140627 1.203 255 255 255
0.275434 0.000606745 2.244 255 255 255
-0.737144 0.148738 1.859 255 255 255
0.361518 0.185544 2.03 255 255 255
-0.498453 0.305667 1.705 255 255 255
0.489608 -0.179686 2.519 255 255 255
0.318945 0.51816 1.575 255 255 255
0.339969 0.572572 1.509 255 255 255
-0.368023 -0.145609 2.365 0 0 0
0.221505 0.352359 1.758 255 255 255
-0.227408 0.238077 1.848 255 255 255
0.526281 0.450181 1.494 255 255 255
-0.94415 -0.672006 2.996 255 255 255
0.239164 0.244609 1.923 255 255 255
0.586778 -0.125485 1.208 255 255 255
-0.344388 0.382698 1.62 255 255 255
-0.671935 0.433553 1.487 255 255 255
-0.112303 0.476222 1.547 255 255 255
0.573085 -0.0247074 1.283 255 255 255
0.540318 -0.0309543 1.375 255 255 255
-1.00297 -0.404498 2.649 255 255 255
-1.04927 -0.252406 2.356 255 255 255
-0.932984 -0.222008 1.799 0 0 0
-0.428069 -0.237499 2.871 0 0 0
-0.938186 -0.173634 1.911 255 255 255
0.243071 0.473794 1.616 255 255 255
0.5182 0.201339 1.646 255 255 255
-0.293614 0.448529 1.547 255 255 255
-0.0482701 -0.0171563 2.181 255 255 255
0.687955 -0.326535 2.755 255 255 255
-0.440538 -0.23419 2.831 0 0 0
-0.224736 0.509936 1.491 255 255 255
-0.619559 0.0741161 1.966 255 255 255
-0.0870588 0.307686 1.748 255 255 255
0.511735 0.115026 2.01 255 255 255
-0.220568 0.337128 1.724 255 255 255
0.159475 0.152058 2.024 255 255 255
-0.585395 0.109704 1.917 255 255 255
-0.760827 -0.37117 2.857 255 255 255
-0.801251 0.323898 1.616 255 255 255
-0.729057 0.306795 1.637 255 255 255
-0.701058 0.277921 1.705 255 255 255
0.0794272 0.280179 1.848 255 255 255
0.264718 -0.158751 2.449 255 255 255
0.28936 0.362768 1.753 255 255 255
-0.762019 0.0135865 2.004 255 255 255
-0.112061 0.393659 1.655 255 255 255
-0.565831 0.47179 1.463 255 255 255
-0.880233 0.00701836 1.991 255 255 255
-0.949969 -0.119134 1.935 255 255 255
0.284126 0.189027 1.997 255 255 255
-0.815689 -0.0828458 2.136 255 255 255
-0.303703 0.305222 1.734 255 255 255
-0.52463 0.389413 1.583 255 255 255
0.588744 -0.0153999 1.208 255 255 255
0.56253 -0.0297612 1.322 255 255 255
0.589695 0.371442 1.194 255 255 255
-0.517233 0.525157 1.39 255 255 255
0.597257 -0.170603 1.167 255 255 255
0.577055 -0.367525 1.196 255 255 255
-0.192138 0.359252 1.696 255 255 255
0.583337 -0.208511 1.234 255 255 255
0.537208 0.493347 1.396 255 255 255
0.0806307 0.263054 1.876 255 255 255
0.448796 0.335353 1.821 0 0 0
-0.660316 0.230355 1.744 255 255 255
-0.0126144 0.390058 1.686 255 255 255
0.526654 0.188613 1.502 255 255 255
-0.645899 0.487149 1.445 255 255 255
-0.0797901 0.5536 1.459 255 255 255
-0.108456 0.5061 1.494 255 255 255
0.582193 0.41724 1.262 255 255 255
0.273911 0.406741 1.71 255 255 255
-0.964653 -0.129832 2.166 0 0 0
0.466069 0.247209 1.763 255 255 255
0.287448 0.524514 1.571 255 255 255
0.594474 -0.0225121 1.169 255 255 255
0.241636 0.444008 1.642 255 255 255
0.592291 -0.263778 1.176 255 255 255
0.534226 0.4411 1.456 255 255 255
-0.117575 -0.0923837 2.286 255 255 255
-0.942204 -0.073759 1.985 255 255 255
-0.512146 0.110734 1.935 255 255 255
0.428817 0.33531 1.837 255 255 255
-0.550588 0.224025 1.784 255 255 255
-0.911982 -0.484486 1.753 0 0 0
0.523344 0.0434771 2.196 255 255 255
0.567545 0.215969 1.299 255 255 255
0.174269 -0.148441 2.411 255 255 255
0.479752 0.223356 1.826 255 255 255
-0.522298 0.511937 1.416 255 255 255
-0.795641 -0.148582 2.236 255 255 255
0.53701 0.525108 1.378 255 255 255
0.0745646 -0.209949 2.489 255 255 255
-0.352724 0.466979 1.509 255 255 255
0.513271 0.438671 1.513 255 255 255
0.263338 -0.099425 2.365 255 255 255
-0.0188468 -0.187884 2.519 0 0 0
0.591197 -0.165801 1.201 255 255 255
0.50226 0.267172 1.532 255 255 255
-0.376364 0.390747 1.599 255 255 255
0.504096 -0.208579 2.572 255 255 255
-0.899115 -0.3482 2.898 255 255 255
-0.247217 0.0278006 2.092 255 255 255
0.271038 0.452024 1.642 255 255 255
0.582267 -0.0846913 1.215 255 255 255
0.0763651 0.520188 1.543 255 255 255
-0.778324 0.280311 1.686 255 255 255
-1.0442 -0.314484 2.278 255 255 255
-0.551438 -0.0515621 2.136 255 255 255
0.55476 0.498067 1.324 255 255 255
-0.656753 0.437146 1.491 255 255 255
-0.453169 0.480977 1.484 255 255 255
-0.714539 0.367154 1.587 255 255 255
-0.186856 0.121671 1.959 255 255 255
-0.376739 -0.041423 2.151 255 255 255
0.879735 -0.315926 2.78 255 255 255
-0.45625 0.158119 1.899 255 255 255
0.504394 0.102516 1.494 255 255 255
0.070513 -0.2221 2.489 255 255 255
-0.285859 0.224702 1.837 255 255 255
0.219309 -0.0872102 2.347 255 255 255
0.592419 0.0705035 1.232 255 255 255
0.41214 0.556026 1.559 255 255 255
-0.979711 -0.335543 2.831 255 255 255
0.564138 0.152549 1.336 255 255 255
-0.986042 -0.178908 2.121 255 255 255
0.466871 0.248786 1.734 255 255 255
0.571702 -0.234899 1.257 255 255 255
0.555439 -0.156175 1.336 255 255 255
-0.0772044 0.108484 2.01 255 255 255
-0.927281 -0.222749 1.805 255 255 255
0.587232 -0.24839 1.213 255 255 255
-0.750038 0.210971 1.748 255 255 255
0.583694 0.08591 1.252 255 255 255
-1.03374 -0.334062 2.707 255 255 255
-0.118932 0.22231 1.893 255 255 255
-0.268163 0.431017 1.575 255 255 255
-0.669421 0.487149 1.445 255 255 255
0.269709 0.506613 1.587 255 255 255
0.452775 -0.338504 2.743 0 0 0
-0.366868 0.391725 1.603 255 255 255
-0.802464 0.102493 1.899 255 255 255
0.487019 0.471254 1.539 255 255 255
0.430414 -0.280646 2.66 255 255 255
-0.381308 0.497937 1.477 255 255 255
-0.46276 -0.11542 2.228 255 255 255
0.438883 0.475707 1.65 255 255 255
-0.421676 -0.0593358 2.166 255 255 255
0.59612 0.23188 1.176 255 255 255
-0.495807 0.332516 1.659 255 255 255
-1.05311 -0.635805 2.356 255 255 255
-1.12659 -0.847613 2.818 0 0 0
-0.652176 -0.230487 2.449 255 255 255
-0.698213 -0.295496 2.638 255 255 255
-0.860304 0.166892 1.794 255 255 255
0.321551 0.239094 1.929 255 255 255
0.559596 -0.252263 1.262 255 255 255
0.732235 -0.161148 2.55 255 255 255
-0.607469 0.255163 1.739 255 255 255
0.572379 0.0513558 1.254 255 255 255
-0.35539 -0.0202024 2.128 255 255 255
-0.0937326 0.233269 1.882 255 255 255
-0.0125042 0.0422892 2.136 255 255 255
-0.712201 0.149218 1.865 255 255 255
-0.36981 0.0107788 2.092 255 255 255
0.886993 -0.448781 2.939 0 0 0
-0.387017 0.188424 1.893 255 255 255
0.362097 0.40049 1.719 255 255 255
0.045781 0.465905 1.616 255 255 255
0.900934 -0.343174 2.818 255 255 255
0.573662 -0.126221 1.275 255 255 255
-1.04604 -0.304082 2.638 255 255 255
-0.0255526 -0.254862 2.805 255 255 255
-0.230592 0.189022 1.899 255 255 255
-0.972143 -0.0622608 1.929 255 255 255
0.59269 -0.011136 1.173 255 255 255
-0.895336 -0.451798 1.705 255 255 255
0.578503 -0.0282303 1.254 255 255 255
0.225732 0.31948 1.815 255 255 255
-0.943737 -0.0390928 2.03 255 255 255
0.546048 0.137203 1.425 255 255 255
-0.638828 -0.223425 2.459 255 255 255
0.454865 0.342799 1.753 255 255 255
0.535015 0.445317 1.439 255 255 255
-0.971978 -0.135933 2.151 0 0 0
0.596377 0.0250466 1.169 255 255 255
0.0228911 -0.0101271 2.196 255 255 255
0.207432 0.321545 1.81 255 255 255
0.267255 0.542786 1.543 255 255 255
-0.82216 0.286356 1.642 255 255 255
-0.0230096 0.534942 1.473 255 255 255
-1.06149 -0.49968 2.244 255 255 255
-0.0181769 0.543421 1.47 255 255 255
0.332281 0.396044 1.724 255 255 255
0.364069 -0.0371267 2.32 255 255 255
-1.10789 -0.743014 2.582 255 255 255
0.119272 0.50149 1.579 255 255 255
-0.509404 0.0174698 2.078 255 255 255
0.0620894 0.504039 1.563 255 255 255
-0.0816599 0.483777 1.539 255 255 255
0.180959 0.491211 1.579 255 255 255
0.382055 -0.226651 2.54 255 255 255
-0.76488 0.0482007 1.953 255 255 255
0.318512 -0.249363 2.561 255 255 255
0.593032 -0.135121 1.189 255 255 255
-1.10924 -0.558688 2.509 255 255 255
-0.344729 0.455453 1.528 255 255 255
-0.725425 0.0636977 1.941 255 255 255
0.573667 -0.0625803 1.289 255 255 255
-0.628903 0.531752 1.372 255 255 255
-1.06712 -0.499535 2.459 255 255 255
-0.703308 0.0826496 1.941 255 255 255
-0.888446 -0.522802 2.925 255 255 255
0.503499 0.53573 1.559 255 255 255
0.563467 0.0883779 2.158 255 255 255
0.215913 0.116314 2.092 255 255 255
0.207431 -0.205071 2.479 255 255 255
-0.396789 0.405893 1.587 255 255 255
-0.692121 0.421007 1.494 255 255 255
0.537436 0.130271 1.734 255 255 255
0.629316 -0.44252 2.898 0 0 0
0.601989 0.178902 1.18 255 255 255
0.223094 0.54069 1.516 255 255 255
0.19124 0.491211 1.579 255 255 255
0.537208 0.48426 1.396 255 255 255
0.534269 -0.107601 1.354 255 255 255
-0.548288 0.43328 1.52 255 255 255
-0.404252 0.240767 1.779 255 255 255
-0.757739 0.146183 1.865 255 255 255
-0.725184 0.114854 1.899 255 255 255
-0.821851 -0.07963 2.143 255 255 255
-0.854911 0.205869 1.753 255 255 255
0.593582 -0.102658 1.194 255 255 255
0.586649 -0.00562615 1.22 255 255 255
0.574188 0.0127135 1.267 255 255 255
0.643246 -0.120354 2.479 255 255 255
-0.294039 0.198307 1.87 255 255 255
0.497145 0.414583 1.571 255 255 255
0.590668 0.120164 1.169 255 255 255
-0.372475 0.537284 1.416 255 255 255
0.539089 0.529104 1.425 255 255 255
-1.07699 -0.78176 2.392 255 255 255
0.566403 0.231645 1.316 255 255 255
0.400684 0.259444 1.917 255 255 255
0.0475029 0.307353 1.779 255 255 255
-0.58522 -0.0907227 2.158 255 255 255
-0.687137 -0.262604 2.489 255 255 255
-1.1215 -0.530107 2.509 255 255 255
-0.839981 0.160955 1.826 255 255 255
-0.181979 0.145822 1.941 255 255 255
-0.31035 0.0602184 2.037 255 255 255
-0.23379 0.412593 1.603 255 255 255
-0.869401 -0.475203 2.925 255 255 255
-0.462939 0.180626 1.876 255 255 255
-0.483728 0.426973 1.551 255 255 255
0.184566 0.575161 1.484 255 255 255
-0.213689 0.542732 1.449 255 255 255
0.572967 0.192344 1.242 255 255 255
-0.609059 -0.0761426 2.143 255 255 255
0.550679 -0.0831785 1.351 255 255 255
-0.515983 0.461409 1.491 255 255 255
0.541665 -0.155038 1.345 255 255 255
0.770844 -0.192583 2.582 255 255 255
-0.436601 -0.18945 2.54 0 0 0
-0.964233 -0.127182 2.181 255 255 255
0.590668 0.116359 1.169 255 255 255
-0.0283525 0.511254 1.502 255 255 255
-0.422258 0.348661 1.646 255 255 255
-0.998373 -0.320649 2.743 255 255 255
-0.239745 0.256036 1.805 255 255 255
0.570238 0.00244046 1.286 255 255 255
-0.918065 -0.394203 1.81 0 0 0
-0.778336 -0.540368 2.996 255 255 255
-0.0157044 0.0757143 2.099 255 255 255
-0.919303 -0.22132 1.842 255 255 255
-0.3952 0.406916 1.591 255 255 255
-0.709909 0.154788 1.859 255 255 255
0.197178 0.416998 1.673 255 255 255
0.590586 -0.159884 2.53 255 255 255
-0.534053 -0.0480861 2.136 255 255 255
-0.723406 0.468126 1.459 255 255 255
0.588605 -0.350356 2.731 255 255 255
0.556017 0.345873 1.327 255 255 255
0.587179 0.305005 1.185 255 255 255
0.658789 -0.467541 2.967 0 0 0
-0.486933 -0.197874 2.44 0 0 0
-0.196035 0.475604 1.513 255 255 255
-0.911787 -0.236577 1.821 255 255 255
0.571587 -0.00380495 1.275 255 255 255
0.365957 0.393238 1.724 255 255 255
0.100066 -0.245273 2.519 0 0 0
-0.517824 0.293334 1.714 255 255 255
0.314569 0.561258 1.505 255 255 255
0.552944 0.506817 1.33 255 255 255
0.156084 0.404363 1.7 255 255 255
-0.0783613 0.271472 1.81 255 255 255
0.229774 -0.183409 2.459 255 255 255
-0.406579 0.381983 1.595 255 255 255
-0.0244599 0.327598 1.748 255 255 255
-0.0434494 -0.183785 2.519 0 0 0
-0.62096 -0.260741 2.55 255 255 255
-0.647805 0.112824 1.917 255 255 255
-0.619067 0.255768 1.724 255 255 255
0.407596 0.406806 1.734 255 255 255
-0.532315 -0.051731 2.143 255 255 255
-0.659427 0.269597 1.705 255 255 255
0.329881 0.477606 1.629 255 255 255
-0.492324 -0.0339422 2.121 255 255 255
0.790812 -0.100992 2.499 255 255 255
0.515913 0.221382 1.543 255 255 255
0.220812 0.304237 1.848 255 255 255
0.596233 0.115961 1.165 255 255 255
0.521751 0.0327813 1.422 255 255 255
0.532413 0.270706 1.432 255 255 255
0.538179 -0.0827782 1.381 255 255 255
0.173184 -0.223885 2.509 255 255 255
-0.307256 0.488099 1.491 255 255 255
0.346737 0.225483 1.947 255 255 255
-0.707407 -0.286236 2.593 255 255 255
0.109245 -0.194619 2.449 255 255 255
-0.969294 -0.0274717 1.911 255 255 255
0.488058 0.510488 1.583 255 255 255
-1.07758 -0.77721 2.402 255 255 255
-0.307439 0.206217 1.859 255 255 255
-0.757551 -0.729638 2.953 255 255 255
-0.352442 0.442117 1.551 255 255 255
-0.469947 0.512872 1.425 255 255 255
-0.328188 0.343501 1.7 255 255 255
-1.07 -0.614306 2.953 255 255 255
0.452356 -0.0413781 2.347 255 255 255
0.00516633 -0.0509001 2.261 255 255 255
0.321983 0.41606 1.714 255 255 255
-0.730637 0.197897 1.784 255 255 255
-0.649685 0.0172428 2.051 255 255 255
-1.04222 -0.750195 2.166 255 255 255
-0.170955 0.35006 1.705 255 255 255
-0.68326 0.0978342 1.929 255 255 255
0.584306 -0.304878 1.187 255 255 255
-0.0369639 0.0354531 2.143 255 255 255
-0.537183 0.413528 1.567 255 255 255
-0.325523 -0.00286858 2.114 255 255 255
0.42303 -0.0257116 2.312 255 255 255
0.273761 -0.297496 2.695 0 0 0
0.528169 0.173022 1.893 255 255 255
-1.12128 -0.832545 2.695 255 255 255
0.572971 -0.305666 1.229 255 255 255
1.04289 -0.337026 2.805 255 255 255
-0.168121 0.524447 1.484 255 255 255
-0.31503 -0.262466 2.996 255 255 255
-1.04657 -0.779266 2.996 255 255 255
0.440397 0.148007 2.107 255 255 255
0.0273182 0.14028 1.997 255 255 255
0.519319 0.420817 1.502 255 255 255
-0.338818 -0.1993 2.615 0 0 0
-0.735449 0.257074 1.714 255 255 255
-0.333488 0.0407252 2.057 255 255 255
-0.593765 0.382319 1.575 255 255 255
-0.943669 -0.219898 1.935 0 0 0
-0.405559 0.401738 1.591 255 255 255
0.584397 -0.133993 1.232 255 255 255
-0.324076 0.250154 1.784 255 255 255
0.565536 -0.156927 1.324 255 255 255
0.602886 0.178599 1.178 255 255 255
-0.625481 0.243143 1.734 255 255 255
0.573786 -0.125996 1.294 255 255 255
-0.118017 0.256744 1.831 255 255 255
-0.307872 0.16739 1.899 255 255 255
-0.316194 0.431712 1.559 255 255 255
-0.5987 0.347566 1.616 255 255 255
-0.00456805 0.315168 1.758 255 255 255
0.544068 0.36625 1.432 255 255 255
0.120282 0.568184 1.466 255 255 255
-0.220325 0.48665 1.494 255 255 255
0.00818345 0.543605 1.477 255 255 255
0.107554 0.301758 1.815 255 255 255
0.411066 0.304001 1.865 255 255 255
0.113615 0.429018 1.646 255 255 255
0.680979 -0.121325 2.499 255 255 255
0.485753 0.45754 1.535 255 255 255
-0.965989 -0.537729 1.923 0 0 0
0.408041 0.370267 1.748 255 255 255
0.413336 0.319274 1.848 255 255 255
0.242646 0.511768 1.579 255 255 255
0.588071 0.46468 1.257 255 255 255
0.569573 -0.0775634 1.294 255 255 255
0.695703 -0.0223669 2.356 255 255 255
0.592035 0.064065 1.187 255 255 255
-0.947023 0.0444692 1.929 255 255 255
-0.309264 0.5157 1.466 255 255 255
0.556686 0.0918798 1.339 255 255 255
0.348248 -0.141119 2.42 255 255 255
-0.565803 -0.019927 2.099 255 255 255
1.01636 -0.457485 2.996 0 0 0
-0.879027 -0.127182 2.181 255 255 255
0.34372 0.214887 1.966 255 255 255
0.372523 0.218086 1.966 255 255 255
-0.844871 0.301716 1.624 255 255 255
-0.437624 0.272143 1.739 255 255 255
-0.823771 -0.0408453 2.121 255 255 255
-0.173034 0.143105 1.947 255 255 255
-0.645582 0.042787 1.997 255 255 255
0.133178 0.521465 1.532 255 255 255
-0.383944 0.372152 1.62 255 255 255
0.00414723 0.284036 1.815 255 255 255
-0.583142 0.265717 1.734 255 255 255
-1.10503 -0.897196 2.615 255 255 255
0.536781 0.462739 1.366 255 255 255
-0.715568 0.0944005 1.923 255 255 255
-0.142212 0.143987 1.959 255 255 255
-0.00191991 0.145383 1.978 255 255 255
0.545254 0.302695 1.429 255 255 255
0.18783 0.460645 1.616 255 255 255
0.540318 -0.0242416 1.375 255 255 255
0.53019 0.160292 1.445 255 255 255
-0.758784 0.270387 1.71 255 255 255
0.0783004 -0.205071 2.479 255 255 255
0.169511 0.35421 1.753 255 255 255
-1.07201 -0.480602 2.347 255 255 255
-0.738424 0.300446 1.646 255 255 255
0.317427 0.536886 1.555 255 255 255
0.506006 0.299674 1.599 255 255 255
0.549514 0.0902505 1.416 255 255 255
-0.490267 0.325208 1.677 255 255 255
0.572967 0.319676 1.242 255 255 255
-1.02218 -0.701259 2.996 255 255 255
-0.65362 0.453442 1.473 255 255 255
0.836863 -0.135716 2.54 255 255 255
0.556461 0.365343 1.393 255 255 255
-0.0824269 0.396352 1.655 255 255 255
0.300143 0.296243 1.893 255 255 255
-0.706642 0.0547246 1.959 255 255 255
0.140281 -0.0213036 2.244 255 255 255
-0.68504 0.0138102 2.037 255 255 255
0.871823 -0.304119 2.755 255 255 255
-1.07449 -0.5776 2.755 255 255 255
-0.65802 0.419208 1.505 255 255 255
0.586256 0.270942 1.289 255 255 255
-0.952387 -0.108246 1.966 255 255 255
-0.12554 0.442049 1.587 255 255 255
0.55177 -0.182505 1.322 255 255 255
-0.356912 0.257412 1.774 255 255 255
0.0268762 0.480787 1.587 255 255 255
-0.608877 0.274608 1.719 255 255 255
-0.379976 0.0845231 1.985 255 255 255
-0.668984 0.487468 1.439 255 255 255
0.505967 -0.0931628 2.402 255 255 255
0.53948 -0.0564163 1.396 255 255 255
-0.123768 0.00752949 2.136 255 255 255
0.524209 0.516142 1.502 255 255 255
0.588395 0.433267 1.249 255 255 255
0.542872 0.299296 1.435 255 255 255
-0.375337 -0.0308069 2.143 255 255 255
0.595357 -0.00917992 1.167 255 255 255
0.588064 0.279703 1.244 255 255 255
-0.853827 0.162041 1.805 255 255 255
0.376915 -0.188935 2.479 255 255 255
-0.222757 0.48665 1.494 255 255 255
0.549419 0.420626 1.381 255 255 255
-0.400966 0.437907 1.563 255 255 255
0.418094 0.264852 1.911 255 255 255
-0.763035 0.00713469 2.024 255 255 255
-0.552717 0.241471 1.763 255 255 255
0.0905202 0.0041541 2.189 255 255 255
0.0996429 0.371869 1.729 255 255 255
0.638008 0.0968964 2.114 255 255 255
-0.773317 0.0875918 1.911 255 255 255
-0.794115 -0.775625 2.982 255 255 255
-0.300983 0.497882 1.484 255 255 255
0.580262 -0.168363 1.249 255 255 255
-0.371911 0.513237 1.459 255 255 255
-1.07107 -0.725515 2.312 255 255 255
0.88073 -0.220044 2.66 255 255 255
0.549852 0.217283 1.333 255 255 255
0.211668 -0.0833909 2.347 255 255 255
-0.939366 -0.200339 1.87 255 255 255
-0.533213 0.484783 1.452 255 255 255
0.55177 -0.186808 1.322 255 255 255
-0.493477 0.177574 1.876 255 255 255
-0.945986 0.0101296 1.966 255 255 255
-0.154092 -0.267341 2.996 255 255 255
-0.629642 0.455839 1.473 255 255 255
0.486565 0.252203 1.595 255 255 255
0.56984 -0.26486 1.244 255 255 255
0.659811 -0.279953 2.695 255 255 255
0.595572 0.260085 1.247 255 255 255
-0.726256 0.500163 1.396 255 255 255
0.553922 -0.229835 1.322 255 255 255
0.0872873 0.561309 1.473 255 255 255
0.521349 0.467639 1.48 255 255 255
-0.0088413 0.0822706 2.092 255 255 255
-0.801401 -0.23331 2.479 255 255 255
0.370564 0.481436 1.633 255 255 255
0.0454158 0.52342 1.516 255 255 255
0.581643 0.169361 1.222 255 255 255
-0.368539 0.440727 1.555 255 255 255
0.755161 -0.246016 2.66 255 255 255
0.982676 -0.42965 2.939 255 255 255
-0.229087 0.544803 1.442 255 255 255
0.11781 0.364578 1.748 255 255 255
-0.781053 0.264822 1.71 255 255 255
0.236802 0.548015 1.509 255 255 255
-0.451187 -0.178021 2.44 0 0 0
0.3758 0.438847 1.705 255 255 255
0.449472 0.235376 1.899 255 255 255
-0.402493 -0.0815993 2.196 255 255 255
-0.0022111 -0.0661111 2.278 255 255 255
-0.0506436 0.392495 1.673 255 255 255
-0.247076 0.489081 1.494 255 255 255
0.541428 0.381686 1.339 255 255 255
-0.421913 0.220788 1.805 255 255 255
0.0669954 -0.232051 2.509 255 255 255
0.466426 -0.121428 2.42 255 255 255
-0.714661 0.0852777 1.929 255 255 255
-0.270023 0.232907 1.831 255 255 255
-0.863625 -0.142351 2.196 255 255 255
0.579484 -0.347959 1.189 255 255 255
0.0742317 -0.34307 2.78 0 0 0
0.146993 0.0218849 2.181 255 255 255
-0.911737 -0.283055 1.815 255 255 255
0.575795 -0.222625 1.257 255 255 255
-0.0780838 -0.113072 2.329 0 0 0
-0.672634 0.133396 1.899 255 255 255
-0.321321 0.452544 1.535 255 255 255
-0.328207 0.480639 1.498 255 255 255
0.589719 -0.157198 1.21 255 255 255
-0.489098 0.329877 1.673 255 255 255
0.527706 0.394717 1.505 255 255 255
-0.506314 0.471318 1.484 255 255 255
0.189809 -0.281332 2.626 0 0 0
0.53327 0.410295 1.473 255 255 255
-0.952447 -0.0217191 1.953 255 255 255
-0.63045 0.132975 1.893 255 255 255
-0.10872 0.481576 1.532 255 255 255
-0.411676 0.459612 1.509 255 255 255
0.243902 0.27995 1.887 255 255 255
-0.763789 0.237499 1.734 255 255 255
-0.908823 -0.260284 1.821 255 255 255
0.533784 0.136493 1.442 255 255 255
-0.937294 -0.506086 1.842 255 255 255
0.537789 0.422407 1.33 255 255 255
0.57922 0.283301 1.26 255 255 255
0.140601 0.505286 1.559 255 255 255
0.558226 0.0605946 1.322 255 255 255
-0.247076 0.491512 1.494 255 255 255
0.112322 0.540026 1.487 255 255 255
0.497859 0.208975 1.686 255 255 255
-0.118241 0.230206 1.882 255 255 255
-0.47084 -0.16053 2.303 0 0 0
-1.03266 -0.395051 2.615 255 255 255
0.184268 0.173824 1.972 255 255 255
0.5398 0.156812 1.779 255 255 255
-0.758778 0.445059 1.477 255 255 255
-0.159795 0.40906 1.62 255 255 255
0.227152 0.557155 1.494 255 255 255
0.716535 -0.0708125 2.44 255 255 255
-0.682669 -0.249517 2.402 255 255 255
-0.288709 0.535153 1.435 255 255 255
0.163656 0.298223 1.848 255 255 255
-0.983076 -0.217026 2.057 0 0 0
-0.334718 0.496589 1.473 255 255 255
-1.07097 -0.684423 2.615 255 255 255
0.00603742 0.492567 1.543 255 255 255
-0.0355844 -0.062404 2.278 255 255 255
0.600417 0.177435 1.196 255 255 255
-0.0832765 0.279968 1.789 255 255 255
0.565472 -0.219649 2.604 255 255 255
0.548233 0.0704039 1.345 255 255 255
-0.53345 0.0620986 1.991 255 255 255
0.174429 0.346905 1.774 255 255 255
-1.15873 -0.993787 2.996 255 255 255
-0.333488 0.0440726 2.057 255 255 255
-0.688018 0.237549 1.714 255 255 255
0.44462 -0.125884 2.43 255 255 255
-0.331745 0.233181 1.81 255 255 255
0.566083 -0.330476 1.21 255 255 255
0.337893 0.390433 1.724 255 255 255
0.264313 0.128627 2.071 255 255 255
0.179323 -0.115256 2.374 255 255 255
0.566031 -0.276087 1.249 255 255 255
0.204168 -0.17405 2.44 255 255 255
0.519769 0.307551 1.547 255 255 255
-0.731122 0.34824 1.595 255 255 255
-0.556802 0.196505 1.853 255 255 255
-0.5723 -0.06199 2.136 255 255 255
-0.266591 0.39917 1.612 255 255 255
-0.363405 0.509883 1.463 255 255 255
-0.542877 0.438801 1.505 255 255 255
-0.444193 0.328892 1.668 255 255 255
-0.507193 0.16378 1.893 255 255 255
0.84872 -0.439215 2.939 255 255 255
0.42988 -0.10056 2.392 255 255 255
-1.16078 -0.896538 2.857 0 0 0
-0.277018 0.246402 1.799 255 255 255
-0.609945 0.465601 1.466 255 255 255
-0.20666 0.428703 1.595 255 255 255
-1.05941 -0.280584 2.469 255 255 255
-0.140154 0.402697 1.637 255 255 255
-1.02089 -0.379262 2.78 255 255 255
0.0831181 0.137923 2.01 255 255 255
0.433309 0.418488 1.724 255 255 255
-1.11105 -0.349905 2.66 255 255 255
-0.236311 0.348212 1.696 255 255 255
0.59269 0.0843069 1.173 255 255 255
-0.502644 0.376792 1.595 255 255 255
0.588725 -0.429736 1.154 255 255 255
0.185101 0.21281 1.947 255 255 255
0.108397 -0.169383 2.43 255 255 255
-0.762278 0.350836 1.595 255 255 255
-0.72075 0.168909 1.848 255 255 255
-0.7603 0.386046 1.559 255 255 255
-0.0997068 0.447214 1.587 255 255 255
0.332728 0.000611342 2.261 255 255 255
-0.3379 0.501386 1.466 255 255 255
0.509902 0.156498 1.917 255 255 255
0.593585 -0.296957 1.171 255 255 255
-0.728667 0.485097 1.432 255 255 255
0.360261 0.456704 1.659 255 255 255
-0.630638 0.0889669 1.941 255 255 255
-0.0113627 0.190044 1.941 255 255 255
-0.289758 0.428828 1.567 255 255 255
0.259495 0.474967 1.62 255 255 255
0.0938967 -0.315038 2.695 0 0 0
0.881667 -0.1404 2.55 255 255 255
0.870087 -0.178022 2.615 255 255 255
0.771128 -0.315926 2.78 255 255 255
-0.610858 0.208343 1.799 255 255 255
0.27241 0.287001 1.893 255 255 255
0.214414 0.393238 1.724 255 255 255
0.140659 0.526451 1.532 255 255 255
0.465504 0.292428 1.794 255 255 255
0.592012 0.425636 1.227 255 255 255
0.143934 -0.0249553 2.244 255 255 255
-0.385626 0.379123 1.616 255 255 255
-0.526802 -0.020003 2.107 255 255 255
-1.02131 -0.199524 2.236 255 255 255
-0.811179 0.367873 1.579 255 255 255
0.565112 0.318721 1.313 255 255 255
0.0375962 -0.0283011 2.22 255 255 255
-0.291196 0.39955 1.603 255 255 255
-0.772696 0.190248 1.794 255 255 255
0.333769 -0.296729 2.649 0 0 0
-0.0623262 0.257645 1.859 255 255 255
0.557274 0.51331 1.33 255 255 255
-0.493721 0.225909 1.799 255 255 255
-0.340798 -0.10977 2.261 255 255 255
0.441676 0.538825 1.583 255 255 255
0.00963508 0.328741 1.739 255 255 255
-0.684825 0.423438 1.494 255 255 255
-0.288731 0.246402 1.799 255 255 255
0.772538 -0.118197 2.519 255 255 255
-0.100826 -0.0135135 2.166 255 255 255
0.540457 -0.165612 1.342 255 255 255
-0.97538 -0.0651965 1.923 255 255 255
-0.778336 -0.715885 2.996 255 255 255
0.368763 0.396044 1.724 255 255 255
-0.730226 0.321268 1.616 255 255 255
0.112741 -0.0549899 2.278 255 255 255
-0.721955 0.37463 1.575 255 255 255
0.539476 -0.161604 1.345 255 255 255
-0.4606 0.5084 1.432 255 255 255
-0.896681 -0.399071 1.729 255 255 255
0.589206 0.199697 1.213 255 255 255
-0.283546 0.425891 1.575 255 255 255
-0.0147212 0.439607 1.616 255 255 255
-0.0831787 0.52678 1.477 255 255 255
0.761402 -0.423656 2.898 255 255 255
-0.641425 -0.0942344 2.158 255 255 255
0.570106 0.0086848 1.281 255 255 255
0.529299 0.0852798 1.449 255 255 255
-0.445024 0.365068 1.612 255 255 255
-0.323606 0.49313 1.477 255 255 255
-1.03498 -0.766765 2.173 0 0 0
0.197917 0.296973 1.859 255 255 255
-0.606377 0.244545 1.744 255 255 255
0.500981 0.510428 1.567 255 255 255
-0.435107 0.279019 1.729 255 255 255
-0.49678 0.523164 1.409 255 255 255
-0.621539 0.369737 1.587 255 255 255
-0.0402903 0.462709 1.587 255 255 255
-0.0435117 0.154099 1.966 255 255 255
-0.465722 -0.22203 2.684 0 0 0
0.170033 0.0462366 2.158 255 255 255
-0.755054 0.477104 1.429 255 255 255
-0.14871 0.246296 1.842 255 255 255
0.801296 -0.252604 2.684 255 255 255
0.257924 -0.395117 2.967 255 255 255
-0.722598 0.262039 1.71 255 255 255
-0.216917 -0.079447 2.236 255 255 255
-0.581691 -0.275567 2.695 255 255 255
0.530128 0.205175 1.498 255 255 255
-0.790322 0.271573 1.7 255 255 255
-1.15429 -1.11718 2.911 255 255 255
0.570106 -0.216453 1.281 255 255 255
0.569656 0.229442 1.257 255 255 255
0.517003 0.491462 1.524 255 255 255
-0.505248 0.351062 1.62 255 255 255
-0.955374 -0.142927 1.959 255 255 255
0.104499 -0.342968 2.743 0 0 0
-0.192829 0.456878 1.567 255 255 255
-0.604891 0.0367781 2.024 255 255 255
-0.707249 0.40747 1.516 255 255 255
-0.0103851 0.297828 1.774 255 255 255
0.549549 0.298313 1.387 255 255 255
-0.505801 0.0622857 1.997 255 255 255
-0.0892897 0.0110415 2.143 255 255 255
-0.244266 0.0974441 1.985 255 255 255
-1.03486 -0.680701 2.158 255 255 255
0.0798364 0.415752 1.668 255 255 255
0.0198855 0.411265 1.65 255 255 255
-0.582628 0.246508 1.758 255 255 255
0.594823 0.437157 1.237 255 255 255
-0.809903 -0.192314 2.42 0 0 0
-0.467961 0.243663 1.779 255 255 255
0.135415 -0.30535 2.649 0 0 0
-0.854196 0.0875918 1.911 255 255 255
-0.914835 -0.281944 1.753 255 255 255
-0.134967 0.471187 1.547 255 255 255
0.595526 0.431676 1.194 255 255 255
-1.05117 -0.66754 2.684 255 255 255
-0.87118 0.270422 1.659 255 255 255
0.383744 0.307036 1.865 255 255 255
0.598182 -0.411961 2.818 0 0 0
0.37469 0.341279 1.821 255 255 255
0.27721 0.116314 2.092 255 255 255
-0.845041 0.152956 1.837 255 255 255
-0.68681 0.486138 1.442 255 255 255
-0.261384 -0.277092 2.996 255 255 255
0.563851 0.454791 1.281 255 255 255
-0.525474 0.329109 1.642 255 255 255
0.217632 0.260098 1.899 255 255 255
0.178921 0.279208 1.882 255 255 255
0.593585 -0.251223 1.171 255 255 255
0.0325742 0.0490568 2.128 255 255 255
0.141368 0.00059593 2.204 255 255 255
0.177488 0.43332 1.642 255 255 255
0.69873 -0.130495 2.519 255 255 255
-0.466035 -0.051731 2.143 255 255 255
-0.508001 0.354575 1.612 255 255 255
-0.227298 -0.146717 2.383 0 0 0
0.493341 0.55822 1.551 0 0 0
0.385591 0.510382 1.607 255 255 255
0.590683 -0.0249783 1.196 255 255 255
-0.483745 0.429793 1.543 255 255 255
-0.406888 0.105732 1.959 255 255 255
-0.599515 0.0432156 2.017 255 255 255
-0.454327 -0.261239 2.982 255 255 255
-1.04575 -0.566906 2.166 0 0 0
-0.928291 -0.0709262 2.092 255 255 255
-0.170827 -0.207226 2.719 0 0 0
-1.10239 -0.774117 2.66 255 255 255
-0.698954 0.492239 1.419 255 255 255
0.587187 -0.0333387 1.217 255 255 255
-0.0287018 0.403923 1.664 255 255 255
-0.230191 0.393741 1.633 255 255 255
0.586222 0.160482 1.215 255 255 255
-0.695083 0.527204 1.366 255 255 255
0.30249 0.361968 1.763 255 255 255
-0.434528 0.367691 1.612 255 255 255
-0.128225 0.393659 1.655 255 255 255
-0.3863 0.332435 1.7 255 255 255
-0.327582 0.527315 1.452 255 255 255
0.521557 0.1756 1.583 255 255 255
-1.16647 -0.956996 2.871 0 0 0
-0.351443 0.322163 1.719 255 255 255
0.0561636 0.396718 1.691 255 255 255
0.370492 0.422869 1.719 255 255 255
0.572118 -0.224833 2.615 255 255 255
0.687767 -0.467541 2.967 0 0 0
0.0977991 0.542446 1.487 255 255 255
0.0538532 0.388904 1.705 255 255 255
-0.618822 0.431454 1.505 255 255 255
-0.427583 0.141341 1.923 255 255 255
0.163014 0.246193 1.911 255 255 255
0.0437295 0.332525 1.744 255 255 255
0.404329 0.302741 1.876 255 255 255
-1.10215 -0.322593 2.649 255 255 255
-0.631249 0.319196 1.646 255 255 255
-0.0488149 0.55957 1.456 255 255 255
0.479477 0.448529 1.547 255 255 255
-0.816212 0.0136747 2.017 255 255 255
-0.581644 0.488498 1.449 255 255 255
0.564474 -0.233745 1.273 255 255 255
0.346517 0.488148 1.62 255 255 255
0.527398 0.287458 1.47 255 255 255
0.304823 -0.052431 2.329 255 255 255
0.458945 0.30953 1.826 0 0 0
0.550737 0.0999033 1.39 255 255 255
-0.66861 0.33517 1.607 255 255 255
-0.321018 0.355227 1.677 255 255 255
0.535334 -0.00190379 1.403 255 255 255
-1.02472 -0.347135 2.672 255 255 255
-0.533566 0.21315 1.815 255 255 255
-0.176051 0.404785 1.624 255 255 255
0.573667 -0.148583 1.289 255 255 255
-0.20719 0.515828 1.487 255 255 255
0.107299 0.0996247 2.099 255 255 255
-0.620034 0.440371 1.502 255 255 255
-0.984847 -0.0834486 1.911 255 255 255
0.0212718 0.491337 1.555 255 255 255
-0.270514 0.446934 1.559 255 255 255
0.155719 0.00418256 2.204 255 255 255
-0.703047 0.0944005 1.923 255 255 255
0.0601703 0.223719 1.905 255 255 255
-0.808608 0.367873 1.579 255 255 255
0.504817 0.128905 1.579 255 255 255
-0.511657 0.358706 1.607 255 255 255
0.593298 0.0712473 1.178 255 255 255
-0.428582 0.491843 1.466 255 255 255
0.559769 -0.0416955 2.365 255 255 255
0.596227 -0.182104 1.18 255 255 255
-0.25981 0.437592 1.571 255 255 255
-0.683501 0.338705 1.599 255 255 255
-0.898911 0.134579 1.831 255 255 255
-0.28227 0.543767 1.403 255 255 255
0.0178849 0.536521 1.484 255 255 255
-0.264227 0.300008 1.753 255 255 255
0.545512 0.510129 1.333 255 255 255
0.568965 0.211535 1.26 255 255 255
0.85578 -0.145797 2.572 255 255 255
-0.93475 -0.208761 1.837 255 255 255
0.304571 0.528279 1.567 255 255 255
0.526521 0.264267 1.435 255 255 255
0.46436 0.513046 1.599 255 255 255
0.40902 -0.133793 2.43 255 255 255
0.967596 -0.467236 2.996 0 0 0
-0.254729 0.398515 1.62 255 255 255
0.560337 -0.114093 1.327 255 255 255
0.138241 0.392098 1.719 255 255 255
-0.289119 0.345338 1.682 255 255 255
-1.19388 -1.06281 2.793 255 255 255
-0.627053 0.282638 1.7 255 255 255
0.547303 0.0512329 1.359 255 255 255
-0.90492 0.220568 1.734 255 255 255
0.503331 -0.223157 1.26 255 255 255
0.375811 0.562454 1.535 255 255 255
-0.112412 0.227747 1.887 255 255 255
-0.785291 -0.530309 2.967 255 255 255
0.279087 -0.00304498 2.244 255 255 255
-0.374444 0.287774 1.748 255 255 255
-0.805261 0.204174 1.763 255 255 255
0.583632 0.195213 1.222 255 255 255
-0.621748 0.0461982 2.004 255 255 255
0.370487 -0.262025 2.604 255 255 255
-0.746902 -0.255438 2.459 255 255 255
0.787656 -0.188381 2.582 255 255 255
-0.849106 0.319479 1.607 255 255 255
-0.3952 0.401738 1.591 255 255 255
0.10669 0.500184 1.583 255 255 255
0.0811261 0.501448 1.587 255 255 255
-0.0898501 0.246337 1.865 255 255 255
0.169546 -0.0553761 2.294 255 255 255
-0.934912 -0.0190251 2.004 255 255 255
-0.451616 0.540991 1.39 255 255 255
0.319467 0.0222763 2.22 255 255 255
0.268475 0.289163 1.887 255 255 255
-0.633119 0.0269767 2.03 255 255 255
0.970241 -0.315926 2.78 255 255 255
-0.692574 -0.0546515 2.121 255 255 255
0.0577579 0.354211 1.739 255 255 255
-0.37911 0.333412 1.705 255 255 255
-0.454529 0.0775514 1.972 255 255 255
0.591181 -0.167458 1.213 255 255 255
0.463763 0.280309 1.81 0 0 0
0.532031 0.483694 1.463 255 255 255
-0.686876 0.376235 1.571 255 255 255
-0.933463 -0.10793 2.151 255 255 255
-0.455651 0.220054 1.799 255 255 255
-0.186836 0.549496 1.442 255 255 255
0.567815 -0.295226 1.244 255 255 255
-0.461749 0.12333 1.935 255 255 255
-0.676622 0.163864 1.859 255 255 255
0.573504 0.334475 1.252 255 255 255
-0.122702 0.15308 1.953 255 255 255
0.594599 -0.0340423 1.173 255 255 255
0.786196 -0.156999 2.55 255 255 255
-1.05642 -0.659895 2.743 255 255 255
-0.411566 0.540326 1.4 255 255 255
-0.7901 0.099403 1.899 255 255 255
-0.185904 0.497804 1.491 255 255 255
-0.312537 0.52036 1.459 255 255 255
-0.946853 -0.43161 2.857 255 255 255
-0.649498 0.443554 1.48 255 255 255
-0.451727 0.166861 1.893 255 255 255
-0.555955 -0.098788 2.181 255 255 255
-1.11395 -0.768496 2.626 255 255 255
-0.828623 -0.0337181 2.107 255 255 255
-0.660667 0.302652 1.673 255 255 255
-0.557805 0.538656 1.384 255 255 255
-0.173034 0.136768 1.947 255 255 255
-0.565859 0.0588585 1.991 255 255 255
0.585628 -0.323653 1.178 255 255 255
0.314702 0.576605 1.494 255 255 255
0.560337 0.441476 1.297 255 255 255
-0.659774 0.322779 1.637 255 255 255
-0.905907 -0.290275 1.769 255 255 255
0.575012 -0.0329301 1.278 255 255 255
0.188042 0.533931 1.532 255 255 255
0.514289 0.444475 1.516 255 255 255
0.584663 -0.00364081 1.22 255 255 255
-0.545053 0.402824 1.575 255 255 255
-0.472836 0.528914 1.406 255 255 255
-0.137829 0.564748 1.445 255 255 255
-0.391225 0.428454 1.575 255 255 255
0.499416 0.208479 1.682 255 255 255
0.599383 -0.202699 2.604 255 255 255
0.437907 0.018941 2.253 255 255 255
-0.936968 -0.111016 2.143 255 255 255
0.482379 0.384857 1.607 255 255 255
0.528031 0.0807306 1.452 255 255 255
-0.468383 0.472062 1.494 255 255 255
-1.02453 -0.430363 2.649 255 255 255
-0.167668 0.530258 1.48 255 255 255
-0.505562 0.266483 1.739 255 255 255
-0.289591 0.453723 1.539 255 255 255
-0.859072 -0.262813 2.53 255 255 255
0.116155 0.473771 1.607 255 255 255
0.572365 0.174757 1.232 255 255 255
-0.0586964 -0.0971968 2.312 255 255 255
0.181525 0.0871493 2.128 255 255 255
0.163152 -0.367792 2.831 0 0 0
0.551728 0.298925 1.359 255 255 255
0.142666 0.400003 1.705 255 255 255
-0.668406 0.172381 1.853 255 255 255
-0.37548 0.498986 1.473 255 255 255
-0.270704 0.283699 1.758 255 255 255
-0.54374 -0.281043 2.793 255 255 255
0.374636 0.307036 1.865 255 255 255
0.587059 -0.0196036 1.225 255 255 255
0.572192 0.285938 1.281 255 255 255
0.406732 -0.146255 2.44 255 255 255
-0.441563 0.192838 1.876 255 255 255
-0.944543 -0.132788 1.905 255 255 255
-0.579365 0.186952 1.848 255 255 255
-0.724284 0.515015 1.375 255 255 255
-0.254878 0.0210621 2.099 255 255 255
0.561226 0.0434497 1.324 255 255 255
-0.920534 -0.297961 2.66 255 255 255
-0.0109983 0.545813 1.47 255 255 255
-0.420705 0.252947 1.763 255 255 255
0.182118 -0.148441 2.411 255 255 255
-0.391449 -0.208926 2.684 0 0 0
-0.647076 -0.116961 2.189 255 255 255
-0.24954 -0.162736 2.449 0 0 0
0.556935 0.381493 1.294 255 255 255
-0.0429817 0.456108 1.591 255 255 255
0.303899 0.437995 1.691 255 255 255
-0.639656 0.47179 1.463 255 255 255
0.076104 0.42634 1.646 255 255 255
-1.0897 -0.789807 2.53 255 255 255
-0.325838 0.0472817 2.051 255 255 255
-0.255093 0.256677 1.789 255 255 255
-0.905237 -0.283231 1.779 255 255 255
-0.649737 0.308219 1.659 255 255 255
0.43144 0.212333 1.972 255 255 255
-0.430099 0.525763 1.416 255 255 255
0.601117 -0.24931 2.649 255 255 255
0.592385 0.138577 1.18 255 255 255
0.111232 0.531868 1.505 255 255 255
0.462443 0.357956 1.677 255 255 255
-0.172229 0.242638 1.837 255 255 255
0.596377 0.251426 1.169 255 255 255
0.113037 0.0598646 2.143 255 255 255
0.571214 -0.277674 1.247 255 255 255
-0.686412 0.253691 1.71 255 255 255
-0.754325 0.446251 1.473 255 255 255
0.505568 0.057377 2.181 255 255 255
0.105318 0.0698345 2.128 255 255 255
0.119683 -0.0473878 2.269 255 255 255
-0.00830879 0.157299 1.966 255 255 255
-0.928944 0.173203 1.769 255 255 255
-0.562309 0.314563 1.664 255 255 255
0.235308 0.487025 1.599 255 255 255
0.58602 -0.05358 1.227 255 255 255
-0.204616 0.551499 1.435 255 255 255
0.565936 0.204638 1.281 255 255 255
-0.718709 0.248706 1.714 255 255 255
0.506096 0.126655 1.583 0 0 0
0.485345 0.518246 1.591 0 0 0
-0.0118737 0.462709 1.587 255 255 255
-0.771067 -0.0721467 2.128 255 255 255
-0.253861 0.519641 1.491 255 255 255
-1.06428 -0.654437 2.684 255 255 255
0.556361 -0.0191626 1.333 255 255 255
-0.650308 0.172381 1.853 255 255 255
0.430963 0.0297142 2.236 255 255 255
0.432042 0.519549 1.595 255 255 255
0.249789 0.567916 1.484 255 255 255
-0.0781183 0.337231 1.739 255 255 255
-0.243757 0.428054 1.583 255 255 255
0.765387 -0.109562 2.509 255 255 255
0.556163 0.359948 1.381 255 255 255
-0.325031 -0.0711367 2.204 255 255 255
0.595899 0.203143 1.187 255 255 255
-0.0890937 -0.226501 2.793 255 255 255
0.0441977 -0.00653257 2.189 255 255 255
-0.700894 0.481445 1.442 255 255 255
0.560838 0.350771 1.313 255 255 255
-0.91993 0.0901321 1.899 255 255 255
0.576701 0.316376 1.237 255 255 255
0.459968 0.282267 1.842 0 0 0
-1.12019 -0.523769 2.479 255 255 255
0.0674229 0.126081 2.03 255 255 255
-0.918817 -0.115733 2.166 255 255 255
-0.407526 0.150259 1.917 255 255 255
-0.629036 0.470372 1.466 255 255 255
0.119563 0.332471 1.774 255 255 255
0.570063 -0.22852 1.267 255 255 255
-0.520183 -0.23843 2.672 255 255 255
0.243221 -0.0635546 2.32 255 255 255
-0.780814 -0.175726 2.356 0 0 0
-0.220147 0.2625 1.789 255 255 255
-0.618664 0.402585 1.535 255 255 255
-0.16021 0.317422 1.739 255 255 255
0.530884 0.173963 1.87 255 255 255
-1.1178 -0.75251 2.615 255 255 255
0.217631 0.4752 1.603 255 255 255
-0.903529 -0.478168 1.71 255 255 255
0.385308 0.519549 1.595 255 255 255
-0.975971 -0.179612 1.876 0 0 0
-1.0734 -0.338467 2.707 255 255 255
0.0420882 0.195147 1.929 255 255 255
-0.99441 -0.0760569 1.882 255 255 255
0.552346 0.318248 1.366 255 255 255
0.470982 0.283921 1.659 255 255 255
0.537246 0.23554 1.445 255 255 255
0.893046 -0.252604 2.684 255 255 255
0.583322 0.0823581 1.26 255 255 255
0.0206187 0.151821 1.978 255 255 255
-0.761625 -0.0546515 2.121 255 255 255
0.417694 0.185544 2.03 0 0 0
-0.414677 0.455542 1.52 255 255 255
-1.02637 -0.244585 2.392 255 255 255
0.27676 0.513064 1.583 255 255 255
-0.0607675 0.220619 1.905 255 255 255
0.377611 0.485559 1.629 255 255 255
-1.00979 0.00684211 1.941 255 255 255
-0.484152 0.353699 1.62 255 255 255
0.377427 -0.347594 2.78 0 0 0
-0.312828 0.352498 1.677 255 255 255
-0.830743 0.108331 1.893 255 255 255
-0.458161 0.306563 1.71 255 255 255
0.716375 0.0577716 2.196 255 255 255
0.585065 -0.0654535 1.225 255 255 255
-0.729774 0.162894 1.848 255 255 255
0.370657 0.515648 1.599 255 255 255
-0.657426 -0.313085 2.755 255 255 255
-0.744984 0.482766 1.432 255 255 255
-0.782085 0.199112 1.769 255 255 255
-1.03007 -0.364414 2.805 255 255 255
-0.734297 0.200734 1.758 255 255 255
-0.0426928 0.195147 1.929 255 255 255
-0.473603 0.361607 1.62 255 255 255
0.495847 0.359252 1.575 255 255 255
0.455135 0.290922 1.859 0 0 0
-0.328942 0.456741 1.524 255 255 255
-0.49707 0.269313 1.739 255 255 255
-1.04007 -0.35755 2.269 255 255 255
-0.637016 -0.251459 2.499 255 255 255
0.601989 0.182743 1.18 255 255 255
-1.11441 -0.559247 2.53 255 255 255
-0.0315574 -0.295734 2.939 255 255 255
-1.0516 -0.645272 2.719 255 255 255
-0.448634 -0.100192 2.212 255 255 255
-0.577076 0.533052 1.387 255 255 255
0.421907 0.548679 1.567 255 255 255
-0.676463 0.208922 1.779 255 255 255
-0.612761 0.517384 1.412 255 255 255
0.257818 0.269369 1.899 255 255 255
0.427341 0.3632 1.769 255 255 255
0.583322 0.28125 1.26 255 255 255
0.520318 0.205483 1.595 255 255 255
0.369164 0.440327 1.7 255 255 255
-0.195968 0.197666 1.893 255 255 255
0.114511 0.546181 1.484 255 255 255
0.289723 0.553025 1.516 255 255 255
0.596098 -0.230681 1.203 255 255 255
0.592291 0.0481614 1.176 255 255 255
0.135017 0.249303 1.911 255 255 255
-0.368232 0.324961 1.719 255 255 255
-1.13737 -0.625595 2.499 255 255 255
0.457717 0.429261 1.7 0 0 0
0.576375 -0.298392 1.232 255 255 255
-0.901383 0.0963127 1.899 255 255 255
-0.251434 0.509936 1.491 255 255 255
0.551164 0.0954769 1.769 255 255 255
-0.339074 0.400152 1.595 255 255 255
0.543451 0.217328 1.449 255 255 255
-0.448545 0.225281 1.794 255 255 255
-0.44146 0.309346 1.71 255 255 255
-0.182874 0.110365 1.985 255 255 255
0.175126 0.396044 1.724 255 255 255
0.586622 -0.347246 1.18 255 255 255
0.567104 0.208258 1.265 255 255 255
0.493552 0.570836 1.498 0 0 0
0.054037 -0.382922 2.911 0 0 0
-0.358934 0.522421 1.445 255 255 255
0.501072 0.550356 1.463 255 255 255
0.59263 0.233878 1.196 255 255 255
0.0675768 0.274906 1.853 255 255 255
-0.658577 0.264822 1.71 255 255 255
0.667458 -0.112286 2.479 255 255 255
-0.342049 0.488222 1.484 255 255 255
0.569814 0.0684924 2.196 0 0 0
-0.945433 -0.188771 1.876 255 255 255
-0.555168 0.142667 1.899 255 255 255
-0.518221 0.265717 1.734 255 255 255
-0.327674 0.53307 1.442 255 255 255
0.119517 -0.0906805 2.338 255 255 255
0.043269 0.0319657 2.143 255 255 255
0.539683 0.488437 1.351 255 255 255
-0.327679 -0.0167394 2.128 255 255 255
-0.954001 -0.135032 1.893 255 255 255
-1.03026 -0.370689 2.818 255 255 255
0.595111 0.426128 1.217 255 255 255
0.534413 0.495598 1.463 255 255 255
0.780075 0.0236409 2.356 255 255 255
0.312775 0.346927 1.789 255 255 255
-1.17698 -1.06163 2.743 255 255 255
-1.08051 -0.668866 2.982 255 255 255
-1.03929 -0.443758 2.22 255 255 255
-0.952914 -0.106869 1.941 255 255 255
0.5841 -0.426718 1.156 255 255 255
-0.61857 -0.116961 2.189 255 255 255
0.156829 0.483211 1.595 255 255 255
-0.0557593 0.327598 1.748 255 255 255
-0.592928 0.0239181 2.051 255 255 255
0.384501 0.35757 1.784 255 255 255
0.517346 0.164162 1.705 0 0 0
0.124985 0.345928 1.769 255 255 255
0.431593 -0.0412195 2.338 255 255 255
0.587355 0.375853 1.234 255 255 255
-0.932295 -0.296155 1.899 0 0 0
-0.369533 0.127263 1.947 255 255 255
-0.991028 -0.0952858 1.899 0 0 0
-0.613074 0.172939 1.859 255 255 255
-0.853689 -0.51339 2.953 255 255 255
0.575735 0.274936 1.308 255 255 255
0.0137836 0.484928 1.567 255 255 255
0.5841 -0.434243 1.156 255 255 255
-0.178308 0.54509 1.449 255 255 255
-0.756951 0.415928 1.502 255 255 255
-0.0704568 0.371952 1.691 255 255 255
0.531077 0.399675 1.487 255 255 255
0.582193 0.0927572 1.262 255 255 255
0.0616339 0.314261 1.769 255 255 255
0.833875 -0.273597 2.719 255 255 255
-1.01478 -0.234127 2.365 255 255 255
0.121582 -0.0248664 2.236 255 255 255
-0.407148 0.243663 1.779 255 255 255
-0.0110208 0.532544 1.473 255 255 255
0.0431026 0.375313 1.719 255 255 255
-0.223441 0.385223 1.642 255 255 255
0.48469 0.145822 1.941 255 255 255
-0.118697 0.294303 1.753 255 255 255
-0.446234 0.523458 1.416 255 255 255
-0.0287737 0.267279 1.842 255 255 255
-0.698119 0.0640915 1.953 255 255 255
0.478776 0.535123 1.595 255 255 255
0.436967 0.134292 2.107 255 255 255
0.7479 -0.178514 2.561 255 255 255
-0.99418 0.0440543 1.911 255 255 255
-0.67359 0.445963 1.48 255 255 255
0.552665 -0.212142 1.319 0 0 0
-0.0038275 0.52775 1.473 255 255 255
0.500436 0.188424 1.893 255 255 255
0.421497 0.536102 1.575 255 255 255
0.534718 0.223931 1.477 255 255 255
-0.699177 0.455839 1.473 255 255 255
0.137354 0.512789 1.551 255 255 255
0.2783 0.433957 1.686 255 255 255
-0.355882 0.440727 1.555 255 255 255
-0.830677 -0.0408453 2.121 255 255 255
0.397071 0.577249 1.502 255 255 255
-0.554702 0.307017 1.682 255 255 255
-0.495921 0.346644 1.624 255 255 255
0.322306 -0.0920768 2.374 255 255 255
0.584397 0.0223867 1.232 255 255 255
-0.773507 0.446251 1.473 255 255 255
0.207786 0.353361 1.763 255 255 255
-0.446495 0.472062 1.494 255 255 255
0.308357 -0.0760427 2.356 255 255 255
0.430523 0.513046 1.599 255 255 255
-0.981539 -0.150587 2.212 0 0 0
-0.396937 0.208566 1.853 255 255 255
-0.362365 0.176102 1.893 255 255 255
-1.15665 -1.00809 2.78 255 255 255
0.567815 -0.260811 1.244 255 255 255
-0.302825 0.54605 1.403 255 255 255
-0.506592 0.386837 1.583 255 255 255
-0.352701 0.297612 1.739 255 255 255
-0.74588 0.488894 1.416 255 255 255
-0.275603 0.100319 1.978 255 255 255
0.668775 -0.125392 2.499 255 255 255
0.283662 -0.103667 2.374 255 255 255
0.593152 -0.23616 1.201 255 255 255
-0.435197 0.129225 1.929 255 255 255
-0.125152 0.331517 1.724 255 255 255
-0.3783 0.0341461 2.064 255 255 255
-0.481204 0.337947 1.646 255 255 255
-0.618508 -0.207293 2.411 0 0 0
-0.529181 0.44775 1.494 255 255 255
-0.0521595 0.273122 1.821 255 255 255
-0.318268 0.250154 1.784 255 255 255
-0.254196 -0.0821939 2.212 255 255 255
-1.11198 -0.899185 2.572 255 255 255
0.559106 -0.175652 1.319 255 255 255
0.672892 -0.250345 2.66 255 255 255
-0.528041 -0.137174 2.228 0 0 0
-1.14815 -0.973617 2.626 255 255 255
-0.418894 0.505004 1.449 255 255 255
0.297766 0.460041 1.642 255 255 255
0.460263 0.498854 1.612 255 255 255
-0.465628 0.353013 1.629 255 255 255
-0.0700818 0.378184 1.682 255 255 255
