ply
format ascii 1.0
comment Created by Open3D
element vertex 1311
property double x
property double y
property double z
property uchar red
property uchar green
property uchar blue
end_header
0.40955 -0.233074 2.143 255 255 255
-0.219489 0.125688 1.673 255 255 255
-0.124761 0.498433 1.308 255 255 255
0.409308 0.125612 0.951 255 255 255
-1.23228 -0.899507 2.561 255 255 255
0.440781 -0.795468 2.78 255 255 255
0.325372 0.34766 1.278 255 255 255
0.410119 0.000240373 0.889 255 255 255
-0.409301 0.147704 1.616 255 255 255
-0.192302 -0.745051 2.649 255 255 255
0.0325664 -0.0777139 1.923 255 255 255
-0.208413 0.37711 1.429 255 255 255
-0.0919215 0.31327 1.502 255 255 255
-1.18442 -0.880384 2.53 255 255 255
-0.0886698 0.109881 1.724 255 255 255
0.394116 -0.238421 0.78 255 255 255
-0.313823 0.160454 1.612 255 255 255
0.337516 0.143532 1.143 255 255 255
0.39063 0.272454 1.079 255 255 255
-0.390232 0.21773 1.571 255 255 255
0.243381 0.210243 1.535 255 255 255
-1.18437 -0.944503 2.593 255 255 255
-0.849887 -0.14497 2.294 255 255 255
-1.2386 -0.638877 2.411 255 255 255
0.398461 0.00173072 0.912 255 255 255
0.316487 0.266516 1.319 255 255 255
0.400695 -0.150789 0.814 255 255 255
-0.458164 0.399149 1.369 255 255 255
-1.04066 -0.467845 2.303 255 255 255
0.366507 -0.220376 0.842 255 255 255
-0.707416 -0.427646 2.329 255 255 255
-0.511223 0.0202797 1.739 255 255 255
0.433786 0.149111 0.924 255 255 255
-0.852792 -0.462148 2.312 255 255 255
0.412919 0.253137 1.009 255 255 255
-0.86833 -0.0504601 1.842 0 0 0
-0.91261 -0.719816 2.53 255 255 255
0.419557 0.220089 0.986 255 255 255
-0.751928 0.25928 1.473 255 255 255
0.425917 0.1305 0.92 255 255 255
0.263932 -0.411629 2.303 255 255 255
-0.254372 0.301876 1.494 255 255 255
-0.683197 0.426701 1.297 255 255 255
-0.545169 0.000472634 1.748 255 255 255
-0.250796 0.319207 1.473 255 255 255
0.444269 0.35022 0.991 255 255 255
-0.0956313 -0.170666 1.985 255 255 255
0.412088 0.352795 1.094 255 255 255
-0.499578 -0.0609924 1.799 0 0 0
0.813339 -1.02279 2.967 0 0 0
-0.295546 0.467219 1.31 255 255 255
0.433786 0.146104 0.924 255 255 255
-0.739009 -0.230026 2.286 255 255 255
-0.223127 0.271245 1.513 255 255 255
-0.10576 0.499196 1.31 255 255 255
-0.608445 0.139036 1.607 255 255 255
-0.300274 -0.430951 2.347 255 255 255
0.0290145 -0.279003 2.121 255 255 255
0.423698 0.0937464 0.912 255 255 255
0.443417 0.0576384 1.848 0 0 0
-0.314461 0.231882 1.563 255 255 255
0.397226 0.00919147 0.916 255 255 255
-0.31983 0.328154 1.449 255 255 255
-0.889731 -0.44487 2.32 255 255 255
0.253881 0.465144 1.4 255 255 255
-0.712789 -0.0899102 1.985 0 0 0
0.131189 0.035934 1.815 255 255 255
0.345676 0.0985713 1.098 255 255 255
0.391927 0.170557 1.036 255 255 255
-0.299753 -0.639684 2.572 255 255 255
0.424833 0.314937 1.034 255 255 255
-0.615019 0.249142 1.484 255 255 255
-0.0769487 -0.271784 2.092 255 255 255
-0.736445 -0.0517744 1.784 0 0 0
-0.211369 -0.860226 2.672 0 0 0
-0.758447 -0.947076 2.684 255 255 255
0.22421 -0.0591217 1.929 255 255 255
-0.305893 -1.03976 2.78 255 255 255
-0.794763 -0.603601 2.509 255 255 255
0.178827 -0.826685 2.719 255 255 255
0.367377 -0.214032 0.844 255 255 255
0.389824 -0.128108 0.848 255 255 255
-0.524281 0.261745 1.487 255 255 255
0.286398 -0.55296 2.43 255 255 255
0.262205 0.263939 1.459 255 255 255
-1.13063 -0.434115 2.303 255 255 255
-0.273477 0.186844 1.591 255 255 255
-0.552073 0.408381 1.348 255 255 255
0.331482 0.451653 1.302 255 255 255
-0.0235558 -0.0645862 1.905 255 255 255
0.347026 0.0972857 1.7 255 255 255
0.415693 0.158776 0.955 255 255 255
-0.313761 0.0989928 1.682 255 255 255
0.387778 -0.178552 0.826 255 255 255
-0.270206 0.194122 1.587 255 255 255
-0.728273 -1.10576 2.857 255 255 255
0.421571 0.37775 1.064 255 255 255
0.39613 -0.0861123 1.972 255 255 255
0.0359265 -0.49206 2.347 0 0 0
-0.559919 -0.309549 2.269 255 255 255
-0.731986 -0.423312 2.347 255 255 255
-0.213099 0.360169 1.445 255 255 255
0.298738 -0.527044 2.402 255 255 255
-0.684377 -0.636725 2.479 255 255 255
0.327655 0.0945193 1.7 255 255 255
-0.29922 0.324107 1.452 255 255 255
-0.772257 -0.00517473 1.734 255 255 255
-0.293759 -0.674445 2.593 255 255 255
-0.637563 -0.767003 2.55 0 0 0
0.123344 -0.0745845 1.923 255 255 255
0.214103 -0.493858 2.374 255 255 255
-0.373933 0.222276 1.567 255 255 255
0.380584 -0.104155 0.891 255 255 255
0.543628 -0.645284 2.561 255 255 255
-0.119491 -0.826061 2.66 0 0 0
0.603689 -0.576795 2.499 255 255 255
0.212344 -0.806231 2.695 255 255 255
-0.277186 0.363432 1.412 255 255 255
0.00428662 -0.03918 1.876 255 255 255
0.377955 -0.195912 0.837 255 255 255
-0.0651447 0.511205 1.308 255 255 255
-0.281336 -0.147017 1.929 255 255 255
-1.09339 -0.591795 2.411 255 255 255
-1.11632 -0.282528 2.32 255 255 255
0.150431 0.182315 1.668 0 0 0
0.236408 -0.645707 2.53 0 0 0
0.523557 -0.9214 2.967 255 255 255
0.408216 0.081447 0.924 255 255 255
-0.472434 0.139814 1.616 255 255 255
0.0978607 0.39972 1.452 255 255 255
-0.282526 0.397079 1.393 255 255 255
-0.619015 -0.287394 2.269 255 255 255
-0.756014 0.218379 1.505 255 255 255
-0.0688252 0.117955 1.719 255 255 255
-0.369587 -0.0652702 1.837 255 255 255
-0.344968 -0.478139 2.392 255 255 255
-0.196633 0.364872 1.445 255 255 255
0.38746 -0.227481 0.795 255 255 255
-0.00165978 0.122903 1.71 255 255 255
-0.0124711 0.457072 1.369 255 255 255
-0.556885 0.0478805 1.714 255 255 255
0.394365 -0.0262935 0.906 255 255 255
0.372893 -0.0968485 0.904 255 255 255
-0.0227947 0.186005 1.629 255 255 255
0.320088 -0.921906 2.793 0 0 0
0.391847 -0.0498589 1.935 255 255 255
0.180738 0.10427 1.724 255 255 255
-0.219754 0.465528 1.342 255 255 255
0.160564 0.422779 1.442 255 255 255
0.259689 0.407198 1.445 0 0 0
-0.754632 0.146891 1.579 255 255 255
0.142507 -0.166853 2.017 255 255 255
-0.104632 0.295085 1.509 255 255 255
0.495532 -0.108145 2.024 255 255 255
0.246787 0.109615 1.677 255 255 255
0.292074 0.398717 1.345 255 255 255
-0.183172 -0.216838 2.024 255 255 255
-0.547003 0.48602 1.27 255 255 255
-0.361459 0.364953 1.409 255 255 255
0.026402 0.271881 1.559 255 255 255
-0.744594 -0.165545 2.269 255 255 255
-0.0166968 0.268653 1.555 255 255 255
-1.13264 -0.611412 2.411 255 255 255
0.271056 -0.184801 2.071 255 255 255
-0.18154 0.351063 1.456 255 255 255
-0.496752 0.292243 1.47 255 255 255
0.200086 -0.674445 2.593 255 255 255
-0.133932 -0.967379 2.78 255 255 255
0.20343 0.0035715 1.882 255 255 255
0.43653 0.171296 0.914 255 255 255
-0.149524 0.382205 1.422 255 255 255
-0.803566 0.195255 1.535 255 255 255
0.513337 -0.412486 2.329 255 255 255
0.342654 0.46352 1.265 255 255 255
-0.234422 -0.111087 1.905 255 255 255
0.121582 -0.392376 2.236 255 255 255
-0.389051 -0.0373631 1.789 255 255 255
-0.782671 -0.200967 2.294 255 255 255
-0.675896 0.0741372 1.677 255 255 255
-0.471186 0.223893 1.543 255 255 255
-0.717761 -0.322767 2.338 255 255 255
-0.999383 -0.53432 2.365 255 255 255
0.30895 0.108438 1.659 255 255 255
0.533848 -0.370403 2.303 255 255 255
-0.226224 -0.598491 2.593 255 255 255
-0.35732 0.165187 1.607 255 255 255
-0.206113 -0.193862 1.991 255 255 255
-0.229297 0.277159 1.505 255 255 255
-0.852802 -0.90938 2.638 255 255 255
-0.243872 0.107778 1.691 255 255 255
0.416193 0.266729 1.017 255 255 255
-0.833848 0.144687 1.583 255 255 255
0.889053 -0.6776 2.672 255 255 255
0.448097 -0.561269 2.449 255 255 255
-0.0660525 -0.944759 2.78 255 255 255
0.622216 -0.460829 2.383 255 255 255
-0.217298 0.475441 1.327 255 255 255
-0.515967 0.251492 1.498 255 255 255
-0.357119 0.483772 1.286 255 255 255
-0.83294 -0.0947568 2.092 255 255 255
0.775756 -0.464503 2.402 255 255 255
0.374593 -0.278982 0.787 255 255 255
0.247886 0.0365873 1.848 255 255 255
-1.18758 -0.776199 2.411 255 255 255
-0.693207 0.317477 1.412 255 255 255
-0.297715 0.416971 1.369 255 255 255
-0.610613 -0.0137502 1.748 255 255 255
-0.269334 0.424583 1.372 255 255 255
-0.265327 -0.321479 2.128 0 0 0
0.420596 0.298687 1.036 255 255 255
-0.880983 -0.350745 2.347 255 255 255
-1.01958 -0.86733 2.54 255 255 255
0.457214 0.280218 0.935 255 255 255
-0.0327158 -0.497783 2.338 0 0 0
-0.862264 -0.0283891 1.774 0 0 0
0.427457 0.21361 0.964 255 255 255
0.351503 -0.080808 0.958 255 255 255
0.391064 -0.14482 0.833 255 255 255
-0.308644 0.397288 1.378 255 255 255
0.214916 0.173024 1.583 255 255 255
-0.564829 -0.031276 1.774 255 255 255
0.39429 0.321885 1.104 255 255 255
-0.587483 -0.859521 2.604 255 255 255
-0.906535 -0.0279731 1.748 0 0 0
-0.391524 0.489096 1.289 255 255 255
-0.290568 -0.0946836 1.887 255 255 255
0.22572 0.290678 1.551 255 255 255
0.280436 -0.450048 2.347 255 255 255
-1.07275 -0.281377 2.374 255 255 255
0.346893 0.458165 1.273 255 255 255
0.319642 -0.0211186 1.899 255 255 255
-0.843898 -0.222983 2.329 255 255 255
0.259002 0.196336 1.524 255 255 255
0.0866947 0.388463 1.463 255 255 255
0.321769 -0.341434 2.236 255 255 255
-0.139618 0.256078 1.571 255 255 255
0.302487 0.314899 1.333 255 255 255
-0.681158 0.23261 1.502 255 255 255
-1.00311 -0.332857 2.383 255 255 255
0.340441 -0.0660514 0.994 255 255 255
0.373807 -0.207794 2.099 255 255 255
0.323353 0.291965 1.262 255 255 255
-0.629502 0.451646 1.278 255 255 255
0.168091 0.331992 1.532 255 255 255
0.40739 0.241903 1.024 255 255 255
-1.25079 -0.919488 2.582 255 255 255
-0.167691 0.280658 1.524 255 255 255
-0.205377 0.463222 1.348 255 255 255
0.284267 -0.980393 2.844 0 0 0
-0.93103 -0.615582 2.459 255 255 255
0.329561 0.270514 1.239 255 255 255
-0.652256 -0.268932 2.269 255 255 255
-0.480282 -0.681177 2.509 255 255 255
0.318031 0.473865 1.299 255 255 255
-0.483969 -0.752693 2.572 255 255 255
-0.59227 0.129615 1.62 255 255 255
-0.147508 -0.980951 2.78 255 255 255
-0.304829 0.208561 1.579 255 255 255
-1.20661 -0.77721 2.402 255 255 255
-1.26569 -0.944273 2.604 255 255 255
0.371195 -0.222102 0.828 255 255 255
-0.821862 -0.908861 2.649 255 255 255
0.459355 0.311506 0.924 255 255 255
0.764056 -0.9115 2.982 255 255 255
0.443934 0.197226 0.917 255 255 255
-0.503566 0.431065 1.33 255 255 255
-0.047677 0.254167 1.575 255 255 255
-0.165738 -0.814936 2.638 0 0 0
-0.218963 -0.963203 2.768 255 255 255
0.294752 0.0368051 1.859 255 255 255
-0.110825 -0.94969 2.768 255 255 255
-0.273033 -0.99023 2.768 255 255 255
0.358283 -0.225857 0.842 255 255 255
-0.762278 0.117233 1.595 255 255 255
-0.903139 -0.391921 2.365 255 255 255
-0.308727 -0.749362 2.649 255 255 255
-0.489715 0.461181 1.299 255 255 255
0.0122003 0.447282 1.387 255 255 255
0.276206 0.347196 1.375 255 255 255
-0.623889 0.332144 1.406 255 255 255
-0.619885 0.374944 1.362 255 255 255
0.397217 -0.091599 0.855 255 255 255
-0.258924 0.465694 1.33 255 255 255
0.134743 0.420433 1.442 255 255 255
0.110713 0.280926 1.567 255 255 255
-0.295036 -0.0111302 1.784 255 255 255
0.127939 -0.37873 2.22 255 255 255
-0.706201 0.36493 1.366 255 255 255
-0.164142 0.335302 1.47 255 255 255
-0.312275 0.487754 1.291 255 255 255
-0.242764 0.00338552 1.784 255 255 255
-0.266604 0.418379 1.381 255 255 255
-0.669596 -0.520785 2.356 255 255 255
0.0544863 -0.342422 2.173 255 255 255
0.10642 0.262521 1.579 255 255 255
0.58832 -0.432603 2.356 255 255 255
-0.697217 0.223278 1.505 255 255 255
-0.192731 -0.26838 2.092 0 0 0
0.455254 0.215778 0.901 255 255 255
-0.16113 -0.0638064 1.882 255 255 255
0.236802 0.361387 1.509 255 255 255
0.340933 -0.218872 2.107 255 255 255
-0.215834 0.408911 1.387 255 255 255
0.384661 -1.06097 2.939 255 255 255
0.0498512 -0.618085 2.469 0 0 0
-0.482677 0.390237 1.369 255 255 255
-0.108993 0.132544 1.691 255 255 255
0.285955 0.233073 1.459 255 255 255
0.512522 -0.232313 2.136 255 255 255
-1.28363 -0.911741 2.572 255 255 255
0.416622 0.0711806 1.81 255 255 255
0.382774 -0.0678739 0.91 255 255 255
0.321553 0.141573 1.173 255 255 255
-0.544208 0.436706 1.308 255 255 255
0.418292 0.0933751 0.923 255 255 255
-0.982372 -0.846663 2.54 255 255 255
-0.0418952 0.432801 1.384 255 255 255
0.34282 -0.926451 2.793 0 0 0
-0.13622 0.429615 1.381 255 255 255
-0.919864 -0.642591 2.44 255 255 255
0.710043 -0.329178 2.303 255 255 255
-0.649779 -0.57906 2.44 255 255 255
-0.725622 0.142111 1.583 255 255 255
-0.370167 0.138288 1.629 255 255 255
0.410147 0.377143 1.108 255 255 255
-0.127621 -0.74074 2.649 255 255 255
0.411135 -0.0387271 0.855 255 255 255
0.428263 -0.480218 2.383 255 255 255
-0.0227909 0.377904 1.459 255 255 255
0.826515 -0.718518 2.695 255 255 255
0.3788 -0.140855 0.867 255 255 255
0.352113 0.480904 1.262 255 255 255
-0.18011 -0.791432 2.66 255 255 255
-0.254047 0.240126 1.567 255 255 255
-0.567988 -0.113939 2.01 0 0 0
-0.162072 -0.079582 1.893 255 255 255
0.395811 -0.397325 2.329 255 255 255
0.378747 0.419924 1.222 255 255 255
-0.355073 -0.0946836 1.887 0 0 0
-0.0943019 0.240002 1.583 255 255 255
0.342927 0.0394331 1.046 255 255 255
0.0811035 -0.0332682 1.887 255 255 255
-0.125252 0.428297 1.384 255 255 255
0.351657 -0.0674045 0.967 255 255 255
0.834601 -0.734933 2.707 255 255 255
-0.211944 0.448085 1.362 255 255 255
-0.0162743 -0.940235 2.78 0 0 0
0.389781 -0.999045 2.871 0 0 0
0.742204 -1.03238 2.953 0 0 0
-0.638429 0.376329 1.359 255 255 255
0.128925 -0.159732 2.01 255 255 255
-0.633224 0.43081 1.316 255 255 255
0.38465 -0.128287 2.03 255 255 255
-0.365575 -0.0168416 1.774 255 255 255
-0.0886762 -0.0769864 1.905 255 255 255
-0.179795 -0.560514 2.593 255 255 255
-1.07815 -0.231737 2.303 255 255 255
-0.295863 -0.016984 1.789 255 255 255
-0.307721 -0.690019 2.604 255 255 255
0.710227 -0.450891 2.392 255 255 255
0.224772 -0.40859 2.286 255 255 255
0.326181 0.375002 1.265 255 255 255
-0.174723 -0.165833 1.966 255 255 255
0.047616 -0.0582022 1.899 255 255 255
0.576026 -1.00358 2.939 0 0 0
0.387242 0.345621 1.147 255 255 255
-0.492425 0.400656 1.359 255 255 255
-0.237398 0.225974 1.575 255 255 255
-0.100183 0.165607 1.637 255 255 255
-0.235305 -1.07786 2.857 255 255 255
0.415515 0.146194 0.944 255 255 255
0.0755093 0.0302087 1.826 255 255 255
0.388542 0.14247 1.587 255 255 255
0.312126 -0.22723 2.121 255 255 255
-0.49534 0.249719 1.502 255 255 255
-0.834277 0.0198832 1.705 255 255 255
0.376086 0.105362 1.025 255 255 255
0.0841177 0.287411 1.547 255 255 255
-0.257297 -0.23149 2.037 255 255 255
-0.625284 0.405284 1.345 255 255 255
0.804531 -0.433683 2.383 255 255 255
-0.433064 0.467829 1.294 255 255 255
-0.0219831 0.256078 1.571 255 255 255
-0.564119 0.213849 1.543 255 255 255
-0.243162 0.339217 1.456 255 255 255
-0.487507 0.210452 1.555 255 255 255
-0.257607 0.271245 1.513 255 255 255
0.435446 0.248653 0.954 255 255 255
0.418174 0.0757515 1.779 255 255 255
-1.1201 -0.407116 2.32 255 255 255
0.236675 0.245937 1.524 255 255 255
-0.0349113 -0.187194 2.024 255 255 255
0.0818771 -0.0614861 1.905 255 255 255
0.248612 0.44237 1.422 255 255 255
-0.257465 0.455625 1.345 255 255 255
-0.0446404 -0.186547 2.017 255 255 255
-0.304271 -0.396014 2.236 255 255 255
-0.507358 0.325889 1.439 255 255 255
0.396399 -0.213581 0.782 255 255 255
0.398094 0.0211626 0.918 255 255 255
0.358252 0.0399948 1.017 255 255 255
-0.510858 -0.685135 2.479 255 255 255
0.195721 0.213448 1.616 255 255 255
0.353477 -0.538771 2.402 255 255 255
0.505623 -0.36149 2.294 255 255 255
-0.799397 0.166599 1.571 255 255 255
-0.607033 0.290056 1.459 255 255 255
-0.251384 0.104716 1.686 255 255 255
-0.0105419 0.419983 1.409 255 255 255
-0.714998 -0.306364 2.329 255 255 255
0.24827 -0.260121 2.136 255 255 255
-0.384358 -0.630063 2.55 255 255 255
-0.913202 -0.449106 2.303 255 255 255
0.327985 0.0157716 1.876 255 255 255
-1.13071 -0.706338 2.374 0 0 0
0.331042 0.257999 1.237 255 255 255
-0.411546 0.49005 1.286 255 255 255
0.403652 -0.106608 0.831 255 255 255
-0.783663 -0.174225 2.286 255 255 255
0.106301 -0.526753 2.383 255 255 255
-0.27251 -1.06391 2.857 255 255 255
0.375008 -0.111905 0.895 255 255 255
0.394726 0.445043 1.158 255 255 255
-0.410175 0.334324 1.435 255 255 255
-0.645645 -0.121992 2.092 255 255 255
0.362515 0.0858097 1.748 255 255 255
-0.886663 -0.153633 2.312 255 255 255
-1.22569 -0.712484 2.356 0 0 0
0.715515 -0.921206 2.982 255 255 255
-0.467603 0.0506698 1.714 255 255 255
-0.534367 -1.03077 2.768 255 255 255
0.383865 -0.226591 0.801 255 255 255
0.370985 -0.571118 2.44 255 255 255
0.386981 0.299421 1.114 255 255 255
0.395091 -0.211104 0.787 255 255 255
-0.0461332 0.290578 1.524 255 255 255
0.093595 -0.976016 2.818 0 0 0
0.316109 0.112362 1.167 0 0 0
-0.622449 0.268868 1.473 255 255 255
0.686865 -0.458677 2.392 255 255 255
0.354566 -0.055269 0.975 255 255 255
0.187478 -0.12783 1.972 255 255 255
-0.807015 -0.734256 2.509 255 255 255
-0.445451 -0.560808 2.347 0 0 0
-0.417646 0.394185 1.375 255 255 255
-0.245891 0.0947973 1.705 255 255 255
0.235084 0.105026 1.691 255 255 255
-0.00556174 0.503623 1.316 255 255 255
0.363446 0.150651 1.087 255 255 255
-0.466829 0.0061794 1.753 255 255 255
0.5826 -0.120359 2.064 255 255 255
0.0835355 0.458073 1.372 255 255 255
-0.422125 0.321744 1.452 255 255 255
0.377919 -0.238202 0.805 255 255 255
-0.661162 0.0201047 1.724 255 255 255
-0.405851 0.443531 1.322 255 255 255
-1.11671 -1.02133 2.684 255 255 255
-0.0148761 0.189119 1.633 255 255 255
-1.01612 -0.999244 2.707 255 255 255
-0.556462 0.408381 1.348 255 255 255
-1.02841 -0.918473 2.615 255 255 255
0.691244 -1.04738 2.982 0 0 0
-0.445161 0.381 1.384 255 255 255
0.427941 0.0365344 0.858 255 255 255
0.0863972 0.420654 1.419 255 255 255
-0.560996 -0.00808414 1.753 255 255 255
-0.667543 0.356924 1.378 255 255 255
0.0375232 -0.869692 2.743 0 0 0
-0.04698 0.082538 1.739 255 255 255
0.399395 -0.117921 0.825 255 255 255
-0.808686 -0.643344 2.489 255 255 255
0.0614068 -0.597137 2.449 0 0 0
-0.161084 -0.989999 2.78 255 255 255
0.115543 -0.613395 2.499 0 0 0
-0.638695 -1.07726 2.831 255 255 255
-0.844879 0.10972 1.599 255 255 255
0.48542 -0.627592 2.54 255 255 255
-0.86742 -0.0438133 1.815 0 0 0
0.352205 -0.127012 0.931 255 255 255
-1.15833 -0.936295 2.582 255 255 255
-0.918538 -0.518926 2.365 255 255 255
0.39384 0.0937794 0.974 255 255 255
-0.00718461 0.13325 1.7 255 255 255
-0.48829 0.391605 1.366 255 255 255
-0.618546 -0.0429442 1.779 255 255 255
0.11449 -0.532635 2.392 255 255 255
0.292592 0.268816 1.422 255 255 255
-0.563613 -0.294779 2.269 255 255 255
-0.324726 -0.258896 2.044 0 0 0
0.373809 -0.170903 0.862 255 255 255
-0.631396 -0.730173 2.509 255 255 255
0.336206 0.123575 1.114 255 255 255
-0.548839 -0.442476 2.269 255 255 255
-0.60455 -0.0490082 1.789 0 0 0
-0.0561382 -0.249676 2.078 255 255 255
-0.068783 -0.0329685 1.87 255 255 255
0.190676 -0.53887 2.42 255 255 255
-0.531833 -0.211193 2.244 255 255 255
-0.756105 -0.828031 2.572 0 0 0
0.696098 -0.930911 2.982 255 255 255
0.327699 0.228888 1.232 255 255 255
-0.142817 0.026387 1.769 255 255 255
-0.298929 0.220848 1.575 255 255 255
0.0853083 0.515474 1.33 255 255 255
-0.892828 -0.223845 2.338 255 255 255
-0.0797768 -1.12369 2.953 255 255 255
-0.569613 0.249054 1.498 255 255 255
-0.696578 -0.17293 2.269 255 255 255
-0.618822 0.225727 1.505 255 255 255
-1.12505 -0.680643 2.42 255 255 255
0.368109 -0.277873 2.166 255 255 255
-0.455651 -0.0551373 1.799 255 255 255
-0.244503 0.395662 1.396 255 255 255
0.0804039 0.102347 1.739 255 255 255
-0.724519 0.338208 1.384 255 255 255
0.381955 -0.14951 0.852 255 255 255
-0.415257 -0.224482 2.064 255 255 255
0.284646 0.113838 1.659 255 255 255
0.442319 0.0600879 1.831 0 0 0
-0.291299 -0.0319989 1.815 255 255 255
-0.534985 0.389382 1.366 255 255 255
0.386858 0.363246 1.18 255 255 255
-0.302177 0.431618 1.359 255 255 255
0.371585 0.13698 1.05 255 255 255
-0.718998 0.163208 1.563 255 255 255
0.30625 0.108438 1.659 255 255 255
-0.48686 -0.0226154 1.774 255 255 255
0.272165 -0.900141 2.768 0 0 0
-1.07612 -0.375094 2.356 255 255 255
-0.150391 -0.0113923 1.826 255 255 255
-0.892711 -0.0023068 1.7 255 255 255
0.856806 -0.911744 2.967 255 255 255
0.465776 0.275111 0.913 255 255 255
-0.646427 0.399607 1.348 255 255 255
-0.294812 0.333608 1.442 255 255 255
0.445244 0.307125 0.972 255 255 255
-0.165986 0.167448 1.629 255 255 255
0.297326 0.436041 1.359 255 255 255
0.450071 0.383478 1.015 255 255 255
-0.0778334 -0.515529 2.44 255 255 255
-0.772587 -0.695113 2.53 255 255 255
-0.0931244 -0.732119 2.649 255 255 255
0.377782 -0.29551 0.77 255 255 255
0.465816 0.325206 0.916 255 255 255
0.660355 -0.616111 2.561 255 255 255
-0.539272 0.204862 1.551 255 255 255
-0.307721 -0.694256 2.604 255 255 255
0.383905 0.0876907 1.729 255 255 255
-1.12086 -0.583948 2.411 255 255 255
-0.550563 0.431965 1.313 255 255 255
-0.0761912 -0.748145 2.66 255 255 255
-0.605522 0.474562 1.267 255 255 255
-0.87453 -0.630139 2.469 255 255 255
-0.633827 0.162309 1.579 255 255 255
-0.0692264 0.213804 1.599 255 255 255
-0.700272 -0.180315 2.269 255 255 255
-0.511394 -0.895929 2.649 255 255 255
-0.67069 0.121106 1.612 255 255 255
0.37683 -0.271987 0.789 255 255 255
-0.492491 -0.127939 2.078 0 0 0
-1.03024 -0.327737 2.374 255 255 255
-0.967055 -0.723625 2.459 255 255 255
0.411287 -0.311207 2.228 255 255 255
-0.152033 -1.03524 2.78 255 255 255
0.371516 0.339567 1.205 255 255 255
-0.638273 -0.439574 2.312 255 255 255
-1.02262 -0.716086 2.42 0 0 0
0.377374 0.0712992 1.015 255 255 255
-0.334626 0.267839 1.494 255 255 255
-0.0910067 0.18452 1.616 255 255 255
0.324099 0.377373 1.273 255 255 255
0.371577 -0.092812 1.978 255 255 255
-0.352737 0.396423 1.375 255 255 255
0.410781 0.33 1.072 255 255 255
-0.263148 0.173032 1.607 255 255 255
0.399428 0.113946 0.957 255 255 255
0.399268 0.111473 1.664 255 255 255
-0.584275 0.0145358 1.729 255 255 255
-0.0453461 0.322186 1.498 255 255 255
-0.381624 0.483552 1.291 255 255 255
1.01136 -0.993824 2.967 255 255 255
0.572592 -0.784362 2.805 0 0 0
-0.143586 0.413425 1.387 255 255 255
0.109548 -0.299334 2.143 255 255 255
-0.211962 0.108352 1.7 255 255 255
0.370546 -0.0154748 0.967 255 255 255
-0.49073 0.152111 1.607 255 255 255
-0.595022 0.373822 1.366 255 255 255
-0.495674 0.356275 1.393 255 255 255
-0.592424 -0.933973 2.684 255 255 255
0.047315 0.334375 1.498 255 255 255
0.319351 -0.575089 2.44 255 255 255
-0.798548 -0.170505 2.286 255 255 255
-0.939444 -0.452854 2.303 255 255 255
0.326404 -0.788688 2.695 255 255 255
0.315011 0.103778 1.156 0 0 0
-0.886588 -0.585942 2.469 255 255 255
0.294971 0.211032 1.505 255 255 255
-0.541021 -0.00523143 1.753 255 255 255
0.405258 0.317803 1.09 255 255 255
0.205251 0.151543 1.629 255 255 255
-0.84041 -0.747596 2.499 255 255 255
0.135678 0.406808 1.452 255 255 255
-0.604241 -0.228316 2.269 255 255 255
0.0183401 -0.240338 2.085 255 255 255
-0.682999 0.196851 1.528 255 255 255
0.123652 -0.134657 1.978 255 255 255
-0.334682 -0.195128 2.004 255 255 255
-0.660656 0.435639 1.286 255 255 255
-0.148733 0.44691 1.372 255 255 255
0.453932 0.299814 0.944 255 255 255
0.736858 -0.415013 2.365 255 255 255
-1.2538 -1.09019 2.805 255 255 255
-0.235422 -0.826956 2.649 0 0 0
-0.564962 -1.07726 2.831 255 255 255
0.642831 -0.172478 2.085 255 255 255
0.349688 -1.12902 2.967 255 255 255
0.273607 0.468358 1.396 255 255 255
0.272644 -0.80294 2.684 255 255 255
-0.501489 0.424313 1.336 255 255 255
-0.943115 -0.435811 2.312 255 255 255
0.260673 0.331039 1.505 0 0 0
-0.537233 0.0611775 1.696 255 255 255
0.593654 -0.636949 2.561 255 255 255
-0.456031 -0.0344518 1.789 255 255 255
-0.646077 0.426527 1.316 255 255 255
-0.378797 0.32108 1.449 255 255 255
-1.0339 -1.02137 2.719 255 255 255
0.000970644 0.363338 1.477 255 255 255
-0.0531125 -0.153036 1.966 255 255 255
-0.830321 -0.638174 2.469 255 255 255
0.862956 -0.681948 2.672 255 255 255
-0.419936 0.456954 1.299 255 255 255
0.926821 -0.773589 2.719 255 255 255
-0.665326 -0.774479 2.561 0 0 0
-0.797361 0.168725 1.567 255 255 255
-0.0943019 0.245154 1.583 255 255 255
0.108115 -0.0147571 1.876 255 255 255
-0.467376 -0.692308 2.55 255 255 255
0.267693 0.401563 1.425 255 255 255
0.117091 0.400821 1.456 255 255 255
0.222926 0.13672 1.642 255 255 255
0.0656075 0.0414723 1.799 255 255 255
-0.299195 0.23697 1.563 255 255 255
0.429228 0.0433635 0.855 255 255 255
0.358233 0.174015 1.524 255 255 255
-0.460632 -0.738812 2.582 255 255 255
-0.756452 0.287272 1.445 255 255 255
-0.408583 0.274963 1.48 255 255 255
-0.0384877 0.0853679 1.739 255 255 255
-0.058393 -0.0936519 1.929 255 255 255
0.333864 -0.564823 2.43 255 255 255
0.771136 -0.340475 2.329 255 255 255
-0.168702 0.0740482 1.739 255 255 255
-0.0578942 -0.334208 2.143 255 255 255
-0.491821 0.0794055 1.673 255 255 255
-0.460995 0.482842 1.278 255 255 255
0.15816 -0.625121 2.53 0 0 0
-0.77466 -0.129922 2.228 255 255 255
-1.23535 -0.609757 2.42 255 255 255
-0.462237 0.45057 1.305 255 255 255
-0.19906 -1.05368 2.805 255 255 255
-0.82813 -0.368423 2.338 255 255 255
0.411911 -0.107868 0.81 255 255 255
0.2906 0.289986 1.369 255 255 255
0.368886 -0.111683 0.905 255 255 255
-0.367792 -0.414667 2.181 0 0 0
0.446822 -0.337893 2.261 255 255 255
0.319197 -1.05641 2.953 255 255 255
-0.36371 -0.0284692 1.779 255 255 255
0.433735 0.125011 0.902 255 255 255
-0.795663 -0.670329 2.499 255 255 255
0.434186 0.337178 1.005 255 255 255
0.0912288 0.258034 1.583 255 255 255
-0.431156 0.127685 1.629 255 255 255
-0.658415 0.25928 1.473 255 255 255
-0.474773 0.129935 1.624 255 255 255
0.115509 0.377331 1.466 255 255 255
-0.0813312 0.167859 1.633 255 255 255
0.710724 -0.716734 2.672 255 255 255
0.283211 0.252 1.445 255 255 255
0.108488 -0.84811 2.731 255 255 255
0.00665173 0.13325 1.7 255 255 255
-0.272849 0.283939 1.502 255 255 255
0.381037 0.0580303 0.986 255 255 255
-0.608036 -0.896501 2.638 255 255 255
0.297217 0.234963 1.456 255 255 255
-1.29899 -0.907842 2.561 255 255 255
-0.226395 0.283939 1.502 255 255 255
0.371622 -0.39579 2.32 255 255 255
-0.877605 -0.22765 2.338 255 255 255
-0.283823 -0.23812 2.037 255 255 255
0.385746 0.09247 0.994 255 255 255
-0.129912 0.459168 1.362 255 255 255
-0.115831 -0.976427 2.78 255 255 255
-0.536364 0.364443 1.381 255 255 255
-0.595513 -0.351554 2.278 255 255 255
-0.76133 -0.274977 2.32 255 255 255
-0.0999581 0.233447 1.591 255 255 255
-0.840652 0.124706 1.591 255 255 255
0.381019 0.229842 1.102 255 255 255
0.277268 0.2155 1.502 255 255 255
0.334329 0.126738 1.126 255 255 255
-0.649221 -0.933973 2.684 255 255 255
0.304861 0.225262 1.47 255 255 255
0.0235034 -0.755868 2.672 255 255 255
-0.366731 -0.924644 2.695 255 255 255
0.320725 0.4928 1.31 255 255 255
0.218146 0.288154 1.551 255 255 255
-0.119684 0.38533 1.425 255 255 255
0.370329 0.245406 1.124 255 255 255
0.555857 -0.829919 2.884 255 255 255
-0.82813 -0.337986 2.338 255 255 255
-0.479478 -0.73352 2.593 255 255 255
0.375765 -0.271289 0.806 255 255 255
-0.895352 -0.75655 2.449 0 0 0
0.358575 -0.00626389 1.004 255 255 255
-0.247358 0.127336 1.659 255 255 255
-0.771043 -0.345595 2.338 255 255 255
-0.464393 0.202391 1.571 255 255 255
0.305629 -0.28938 2.173 255 255 255
0.421467 0.299793 1.034 255 255 255
-0.112752 0.448161 1.369 255 255 255
-0.500857 -0.165613 2.173 255 255 255
-0.53214 0.413115 1.342 255 255 255
0.418261 0.26818 1.01 255 255 255
-0.202599 0.0349045 1.763 255 255 255
-0.10423 0.151634 1.659 255 255 255
-0.1027 0.467488 1.354 255 255 255
-0.739033 0.315453 1.403 255 255 255
-1.00707 -0.750681 2.43 0 0 0
-0.514742 -0.679607 2.459 0 0 0
-0.114685 -0.732119 2.649 255 255 255
-0.53986 0.35777 1.39 255 255 255
-0.576414 -0.627579 2.383 255 255 255
-0.467455 0.366818 1.39 255 255 255
0.090183 0.430529 1.406 255 255 255
0.0792858 0.283106 1.551 255 255 255
0.112636 0.315378 1.524 255 255 255
-0.379252 -0.0314523 1.784 255 255 255
0.215295 0.191675 1.567 255 255 255
0.0481148 -0.538387 2.383 0 0 0
0.354289 -0.0207178 0.992 255 255 255
-0.635743 0.455806 1.278 255 255 255
-0.176494 0.494242 1.297 255 255 255
-0.482152 -1.06281 2.805 255 255 255
-0.660674 -0.391251 2.338 255 255 255
0.0839373 0.149496 1.696 255 255 255
0.201615 -0.216587 2.085 255 255 255
-0.646703 0.448511 1.275 255 255 255
0.310466 0.394271 1.33 255 255 255
-0.559763 0.161358 1.595 255 255 255
0.635613 -0.706254 2.649 0 0 0
-1.01103 -0.734863 2.43 0 0 0
-0.817543 -0.685135 2.479 255 255 255
-0.258337 -0.0788673 1.876 255 255 255
-0.586607 -0.120359 2.064 255 255 255
0.325621 0.182165 1.33 255 255 255
0.366534 0.0711806 1.81 255 255 255
-0.0817624 0.49171 1.336 255 255 255
0.348185 -0.303163 2.196 255 255 255
0.400979 -0.126547 0.82 255 255 255
-0.765127 -0.626503 2.519 255 255 255
-0.603238 0.0997946 1.65 255 255 255
-1.01937 -0.837764 2.489 255 255 255
0.0738979 -0.282455 2.121 255 255 255
-0.482974 0.260545 1.494 255 255 255
-0.444244 0.0644652 1.71 255 255 255
-0.196005 0.299445 1.494 255 255 255
-1.00687 -0.574313 2.42 255 255 255
0.462804 0.306312 0.913 255 255 255
-0.753967 0.142111 1.583 255 255 255
0.359429 0.209938 1.13 255 255 255
-0.368535 -0.552395 2.499 255 255 255
0.243074 -0.237584 2.121 255 255 255
0.412694 0.430208 1.11 255 255 255
-0.293896 -0.156434 1.929 255 255 255
0.394105 0.226257 1.06 255 255 255
0.370122 -0.0699624 0.938 255 255 255
0.351446 0.449821 1.267 255 255 255
0.420747 0.0550906 0.887 255 255 255
-0.312928 -0.139425 1.911 0 0 0
-0.564736 0.251492 1.498 255 255 255
0.171133 -0.269535 2.128 255 255 255
-0.0594025 -0.837882 2.684 0 0 0
-0.548839 -0.379705 2.269 255 255 255
0.421139 0.0115216 0.867 255 255 255
-0.914305 -0.385686 2.374 255 255 255
-0.186543 -0.945229 2.755 255 255 255
0.190131 0.361387 1.509 255 255 255
0.434797 0.0602848 1.837 0 0 0
-0.49436 0.0692525 1.691 255 255 255
-0.295724 -0.163725 1.941 255 255 255
-0.263021 -0.224088 2.03 255 255 255
-0.290969 0.126338 1.646 255 255 255
0.390733 -0.128878 0.844 255 255 255
-0.426266 -0.350496 2.136 255 255 255
-0.630099 0.46096 1.275 255 255 255
0.0184401 0.0695682 1.769 255 255 255
0.50613 -0.687302 2.626 0 0 0
-0.620981 0.0609971 1.691 255 255 255
-0.370905 0.488907 1.283 255 255 255
0.349204 -0.43477 2.347 255 255 255
-0.319298 0.413835 1.366 255 255 255
0.257433 -0.86453 2.755 255 255 255
-0.858766 -0.880709 2.604 255 255 255
0.038489 0.292675 1.535 255 255 255
-0.619015 -0.202469 2.269 255 255 255
0.872776 -0.658835 2.649 255 255 255
0.312161 0.213195 1.234 255 255 255
-0.594101 0.365731 1.369 255 255 255
0.419592 0.10012 0.916 255 255 255
-0.59773 0.210791 1.539 255 255 255
0.647848 -0.620278 2.561 255 255 255
0.475211 -0.027903 1.941 255 255 255
-0.323748 0.101428 1.677 255 255 255
-1.15638 -1.01674 2.695 255 255 255
-0.140997 0.454735 1.362 255 255 255
-0.396569 0.324896 1.445 255 255 255
0.167784 -1.15468 2.996 255 255 255
0.44296 0.384831 1.041 255 255 255
-1.13007 -0.872457 2.519 255 255 255
0.363051 0.0792595 1.055 255 255 255
-0.489655 0.323438 1.449 255 255 255
0.522514 -0.0245914 1.929 255 255 255
-0.935033 -0.599575 2.459 255 255 255
0.415355 -0.0613589 0.841 255 255 255
0.445862 -0.928964 2.871 255 255 255
0.39287 -0.0747347 0.886 255 255 255
0.511865 -0.517371 2.43 255 255 255
0.153177 -0.457966 2.329 255 255 255
0.423156 0.384384 1.068 255 255 255
-0.121948 -0.141614 1.941 255 255 255
-0.456234 0.467829 1.294 255 255 255
-0.477254 0.0174497 1.739 255 255 255
0.326181 0.372943 1.265 255 255 255
-0.0950501 -0.462952 2.374 255 255 255
0.400351 -0.148504 0.816 255 255 255
0.187668 -0.182392 2.044 255 255 255
-0.302081 -0.33072 2.143 0 0 0
-1.1201 -0.418442 2.32 255 255 255
-1.06592 -0.7095 2.411 0 0 0
0.376513 -0.278838 0.783 255 255 255
-0.415357 0.264164 1.487 255 255 255
-0.527394 0.311648 1.449 255 255 255
-0.345161 0.276264 1.487 255 255 255
-1.05577 -1.05211 2.707 255 255 255
-0.567092 0.474523 1.278 255 255 255
-0.253045 -0.171093 1.953 255 255 255
0.43814 0.169047 0.902 255 255 255
-1.19343 -0.428685 2.294 255 255 255
0.767926 -0.641868 2.615 255 255 255
0.423103 0.269317 1.002 255 255 255
0.430977 -0.0436962 1.941 255 255 255
-1.06976 -0.738122 2.402 0 0 0
-0.287197 0.321801 1.463 255 255 255
-0.14669 0.35037 1.463 255 255 255
-0.336754 -0.107987 1.905 0 0 0
0.418676 -0.132951 2.051 255 255 255
0.406955 -0.0628417 1.947 255 255 255
-0.5239 -0.838334 2.604 255 255 255
-0.184015 -0.585832 2.593 255 255 255
-0.572535 -0.631457 2.383 0 0 0
0.854326 -0.60693 2.593 255 255 255
0.135064 -0.155994 2.004 255 255 255
-0.8829 -0.450861 2.312 255 255 255
0.451867 0.249045 0.921 255 255 255
0.104115 0.142382 1.71 255 255 255
-0.215947 0.145089 1.646 255 255 255
0.420051 0.121121 0.917 255 255 255
-0.842476 -0.86433 2.593 255 255 255
0.320164 -0.400385 2.303 255 255 255
0.0676256 0.321124 1.516 255 255 255
-0.23204 0.202378 1.591 255 255 255
-0.642783 0.0947105 1.655 255 255 255
-0.724518 0.151645 1.575 255 255 255
-0.761806 -0.0490082 1.789 0 0 0
-0.0627483 0.482965 1.348 255 255 255
0.353963 0.43092 1.254 255 255 255
-0.351877 0.103598 1.668 255 255 255
0.158288 0.115492 1.724 255 255 255
0.438844 0.342606 0.997 255 255 255
0.378983 0.206721 1.066 255 255 255
-0.396193 0.174336 1.595 255 255 255
-0.487567 -0.938341 2.684 255 255 255
-0.409975 -1.04429 2.78 255 255 255
0.450631 0.335731 0.95 255 255 255
-0.973115 -0.137504 2.294 255 255 255
-1.05022 -0.705576 2.411 255 255 255
0.254142 -0.882123 2.768 255 255 255
-0.480818 0.427445 1.339 255 255 255
0.0698357 0.0748573 1.758 255 255 255
0.558821 -0.26915 2.181 255 255 255
-0.939886 -1.05329 2.768 255 255 255
0.0839098 0.393713 1.456 255 255 255
-0.0333973 0.312274 1.509 255 255 255
-0.491106 0.00900634 1.748 255 255 255
-0.224393 0.359421 1.442 255 255 255
0.0318168 0.483981 1.357 255 255 255
0.396506 0.0868308 0.95 255 255 255
0.592492 -0.204505 2.136 255 255 255
-0.425333 0.149496 1.607 255 255 255
-0.631431 -0.805255 2.593 0 0 0
-0.663997 -0.794547 2.572 0 0 0
0.315286 0.124181 1.171 255 255 255
-0.317944 -0.576117 2.55 255 255 255
0.103091 0.513451 1.336 255 255 255
-0.546648 0.355508 1.39 255 255 255
-1.05191 -0.434115 2.303 255 255 255
-0.31986 0.392803 1.378 255 255 255
-0.452561 0.0118848 1.753 255 255 255
-0.0046616 0.0325988 1.794 255 255 255
0.416487 0.0798604 0.906 255 255 255
0.0309962 0.501617 1.322 255 255 255
-0.188265 0.374023 1.435 255 255 255
0.371188 -0.217497 0.831 255 255 255
-0.46645 -1.04917 2.793 255 255 255
0.166184 0.0417259 1.81 255 255 255
-0.169279 0.286585 1.516 255 255 255
0.10013 -0.241145 2.092 255 255 255
0.38596 -0.0270481 0.932 255 255 255
0.0780488 -0.886947 2.755 0 0 0
0.349446 -0.00256869 1.893 255 255 255
0.315867 0.207653 1.225 255 255 255
0.376994 -0.271539 0.784 255 255 255
0.330873 0.160144 1.583 255 255 255
0.356077 -0.0286733 0.988 255 255 255
0.00838509 -0.309796 2.143 255 255 255
0.135318 0.323666 1.528 255 255 255
0.195721 0.205558 1.616 255 255 255
-0.470931 0.125034 1.629 255 255 255
-0.501443 0.447415 1.302 255 255 255
-0.553314 -0.497826 2.303 255 255 255
-0.713955 -0.501588 2.338 255 255 255
-0.426852 0.324107 1.452 255 255 255
-0.419388 0.49532 1.278 255 255 255
-0.18425 0.463081 1.354 255 255 255
0.606146 -0.180468 2.099 255 255 255
0.467307 0.296884 0.916 255 255 255
-0.257797 -0.366566 2.212 255 255 255
-0.210343 0.436064 1.366 255 255 255
-0.280989 -0.450549 2.411 255 255 255
0.0528434 0.396536 1.449 255 255 255
-0.0694985 0.152457 1.668 255 255 255
-1.00317 -0.449106 2.303 255 255 255
-1.31621 -0.888619 2.53 255 255 255
0.326866 0.128455 1.158 255 255 255
0.627143 -0.114412 2.078 255 255 255
-1.19501 -0.856745 2.509 255 255 255
-0.317232 0.155593 1.616 255 255 255
-0.537983 0.480555 1.283 255 255 255
0.335956 0.111138 1.659 255 255 255
0.411807 0.41841 1.098 255 255 255
-0.306129 -0.30002 2.099 255 255 255
-0.0449929 0.485183 1.342 255 255 255
-0.560796 -1.017 2.743 255 255 255
0.368269 -0.0581819 0.945 255 255 255
0.426545 0.329943 1.018 255 255 255
-0.609435 0.236233 1.494 255 255 255
0.176482 0.446055 1.419 255 255 255
0.387268 -0.105583 0.867 255 255 255
-1.12724 -0.697382 2.383 0 0 0
-0.707014 -0.732803 2.561 255 255 255
-0.753604 -0.042558 1.763 0 0 0
-0.676306 -0.652862 2.479 255 255 255
-0.606638 -0.333019 2.278 255 255 255
-0.599839 -0.0742384 1.837 0 0 0
0.429527 0.0649102 0.864 255 255 255
0.429091 0.128162 0.914 255 255 255
0.305223 0.233834 1.449 255 255 255
-0.402669 -0.722722 2.615 255 255 255
-0.968181 -0.968931 2.672 255 255 255
0.714765 -0.903139 2.939 255 255 255
-0.140165 0.473252 1.333 255 255 255
0.388937 0.279803 1.094 255 255 255
-0.568892 0.388242 1.362 255 255 255
-0.0464553 -0.265862 2.099 255 255 255
0.80458 -0.736061 2.695 255 255 255
-0.122027 0.254167 1.575 255 255 255
0.577516 -0.595435 2.509 255 255 255
0.0105919 -0.814226 2.707 255 255 255
-0.108701 0.406779 1.403 255 255 255
-0.396938 0.250883 1.509 255 255 255
0.161476 0.449791 1.409 255 255 255
-0.132401 0.355132 1.463 255 255 255
-0.376836 0.480705 1.289 255 255 255
0.400449 -0.383138 2.312 255 255 255
-0.262494 0.341357 1.445 255 255 255
0.418656 0.0674645 0.898 255 255 255
-0.718425 -0.823846 2.572 0 0 0
0.418706 0.238858 0.984 255 255 255
0.0160859 -0.404735 2.244 255 255 255
0.393733 0.224321 1.059 255 255 255
-1.12 -0.277791 2.312 255 255 255
-0.135062 -0.717215 2.626 255 255 255
0.159251 0.311777 1.543 255 255 255
1.03068 -1.01314 2.967 0 0 0
-1.12371 -0.802907 2.469 255 255 255
0.148967 -0.743816 2.66 255 255 255
-0.331659 -0.895321 2.66 255 255 255
0.0629302 -0.794205 2.684 255 255 255
-0.647131 0.0144937 1.724 255 255 255
-0.120569 -0.816044 2.684 255 255 255
-0.0255089 0.183804 1.633 255 255 255
-0.365695 0.236448 1.543 255 255 255
0.0834555 0.0416106 1.805 255 255 255
-0.367951 -0.903708 2.672 255 255 255
0.355958 -0.123183 0.925 255 255 255
0.65756 -0.351665 2.303 255 255 255
-0.760266 -0.215899 2.294 255 255 255
-0.615019 0.253972 1.484 255 255 255
0.644718 -0.40647 2.338 255 255 255
0.613578 -1.03767 2.982 0 0 0
0.247509 0.437571 1.429 255 255 255
-0.0975676 -0.146115 1.959 255 255 255
0.250774 -0.425993 2.32 255 255 255
-0.613277 0.437373 1.31 255 255 255
-0.804751 0.0116543 1.719 255 255 255
-0.277701 0.037452 1.748 255 255 255
-0.549333 -0.808671 2.604 0 0 0
-0.622583 -0.0399367 1.774 255 255 255
0.311688 0.328006 1.299 255 255 255
-0.0792847 -0.931672 2.768 0 0 0
-0.111986 0.500562 1.308 255 255 255
-0.84819 -0.188143 2.32 255 255 255
-0.572275 0.242871 1.505 255 255 255
-0.555746 -1.07726 2.831 255 255 255
-0.726361 -0.0136794 1.739 255 255 255
-0.326259 0.0676019 1.719 255 255 255
-0.454983 0.335252 1.429 255 255 255
0.0793298 -0.171698 1.997 255 255 255
0.460148 0.340207 0.941 255 255 255
-0.769751 -0.863759 2.604 0 0 0
-0.478562 0.357042 1.396 255 255 255
0.758984 -0.420455 2.374 255 255 255
-0.236646 0.277159 1.505 255 255 255
-0.813684 -0.843856 2.582 0 0 0
-0.105314 0.33125 1.484 255 255 255
0.234039 0.119596 1.664 255 255 255
0.951174 -0.846917 2.831 0 0 0
0.37782 -0.296081 0.765 255 255 255
0.0409014 -0.768913 2.672 255 255 255
0.378094 -0.2705 0.781 255 255 255
0.19106 0.239825 1.599 255 255 255
-0.103229 0.393775 1.422 255 255 255
-1.03444 -0.775158 2.42 0 0 0
-0.896634 -0.273306 2.338 255 255 255
0.567299 -0.177727 2.107 255 255 255
-0.725929 0.127615 1.595 255 255 255
0.404263 0.178134 1.012 255 255 255
-0.635235 -0.175999 2.261 255 255 255
0.452249 0.351763 0.96 255 255 255
0.388232 -0.272242 0.761 255 255 255
-0.028501 0.427891 1.39 255 255 255
-0.635777 -0.00518965 1.739 255 255 255
-1.21443 -0.628674 2.402 255 255 255
-0.0468992 -0.870932 2.719 0 0 0
0.385035 -0.0757469 0.898 255 255 255
0.0904329 0.452362 1.375 255 255 255
-0.0282015 0.32862 1.494 255 255 255
-0.157331 0.385589 1.409 255 255 255
-0.192312 0.0149141 1.774 255 255 255
0.322132 -0.298635 2.189 255 255 255
-0.368361 -0.390005 2.143 0 0 0
0.394423 -0.183454 0.812 255 255 255
0.0212686 -1.12902 2.967 255 255 255
0.458562 0.232078 0.896 255 255 255
0.209857 0.411046 1.442 255 255 255
0.612575 -0.75589 2.719 0 0 0
0.359805 0.248244 1.137 255 255 255
0.418908 -0.017773 0.851 255 255 255
-0.236096 0.458835 1.348 255 255 255
0.379799 -0.290053 0.759 255 255 255
0.291726 0.0368051 1.859 255 255 255
-0.392007 -0.00813025 1.763 255 255 255
-0.23522 0.200292 1.595 255 255 255
-0.688413 0.367153 1.366 255 255 255
-0.362688 -0.0168416 1.774 255 255 255
0.404211 -0.0433528 0.864 255 255 255
-0.330416 0.409389 1.366 255 255 255
0.968129 -0.912247 2.953 0 0 0
0.664848 -0.481937 2.411 255 255 255
0.45757 0.335969 0.942 255 255 255
0.420925 -0.0693917 1.953 255 255 255
0.344843 -0.648259 2.54 0 0 0
-0.0663921 0.0151747 1.805 255 255 255
-0.310009 -0.756802 2.66 255 255 255
-0.00287987 -1.12419 2.967 255 255 255
-0.673277 -0.464097 2.303 255 255 255
-0.0368658 -0.136133 1.953 255 255 255
0.117157 0.29825 1.551 255 255 255
-1.11904 -0.0659257 2.151 255 255 255
-0.238119 -0.0172309 1.815 255 255 255
-0.443877 -0.912134 2.684 255 255 255
-0.666395 -1.00351 2.755 255 255 255
0.0411526 -0.580641 2.43 0 0 0
0.0340398 -0.176087 2.01 255 255 255
-0.0727989 0.444677 1.372 255 255 255
0.420164 0.0954394 0.914 255 255 255
-1.11255 -0.293854 2.32 255 255 255
0.424576 0.18345 0.954 255 255 255
0.396364 0.19974 1.03 255 255 255
0.401585 0.25951 1.048 255 255 255
0.481332 -0.073053 1.966 255 255 255
0.468058 0.372851 0.954 255 255 255
0.153432 0.20085 1.642 255 255 255
-0.036381 -0.465546 2.329 255 255 255
-0.197529 0.0206295 1.769 255 255 255
-0.31066 0.38634 1.387 255 255 255
0.353704 -0.0671954 0.964 255 255 255
0.962719 -0.974285 2.996 255 255 255
0.334493 0.0280966 1.068 255 255 255
-0.31626 0.361134 1.412 255 255 255
-0.54279 0.490282 1.265 255 255 255
0.254069 -0.83111 2.719 255 255 255
-0.803996 0.151645 1.575 255 255 255
0.18923 0.05336 1.805 255 255 255
-0.0480403 0.23286 1.587 255 255 255
-0.186886 0.40301 1.39 255 255 255
0.0209613 -0.538387 2.383 0 0 0
0.386585 0.0858267 0.992 255 255 255
0.399445 0.175418 1.025 255 255 255
-0.500192 0.203904 1.563 255 255 255
-0.0225722 0.388387 1.445 255 255 255
0.382839 0.313343 1.145 255 255 255
0.380975 0.311479 1.145 255 255 255
0.394552 0.0170444 0.938 255 255 255
-0.573411 0.447807 1.297 255 255 255
0.15211 0.307551 1.547 255 255 255
0.104702 -1.03175 2.871 255 255 255
0.437636 0.202603 0.942 255 255 255
0.00148061 -0.406358 2.253 255 255 255
-0.441034 0.324107 1.452 255 255 255
0.320693 0.171713 1.571 255 255 255
0.281907 0.485799 1.381 255 255 255
-0.264795 0.349937 1.432 255 255 255
0.0795326 0.23318 1.607 255 255 255
0.420055 0.0764872 0.901 255 255 255
-0.337434 -0.77362 2.572 255 255 255
-0.557811 -0.817146 2.604 255 255 255
-1.27868 -0.609757 2.42 255 255 255
0.130466 0.0416106 1.805 255 255 255
0.160731 -0.10786 1.959 255 255 255
-0.634948 0.0795953 1.677 255 255 255
-0.300737 -0.101146 1.893 255 255 255
0.37329 0.0309089 0.991 255 255 255
0.0165984 -0.0424806 1.887 255 255 255
-0.564595 0.400067 1.357 255 255 255
-0.0926443 -0.102749 1.923 255 255 255
-0.0460885 -0.786306 2.672 255 255 255
-1.06312 -0.815662 2.459 255 255 255
0.373014 0.0574513 1.842 0 0 0
-0.125202 0.460368 1.359 255 255 255
0.165056 -0.56924 2.449 0 0 0
-0.658278 0.426227 1.302 255 255 255
0.490988 -0.341572 2.261 255 255 255
-0.356634 -0.579833 2.53 255 255 255
0.709749 -0.281188 2.22 255 255 255
0.100503 -0.64159 2.53 0 0 0
-0.651477 0.414976 1.327 255 255 255
0.417828 -0.0500505 0.835 255 255 255
0.354805 -0.0626836 0.967 255 255 255
0.422257 -0.75589 2.719 0 0 0
0.435938 0.0800042 0.86 255 255 255
-0.348959 0.0205596 1.763 255 255 255
0.367156 0.141594 1.072 255 255 255
-0.423201 0.132986 1.629 255 255 255
-0.36946 0.493241 1.278 255 255 255
-0.18104 0.277145 1.532 255 255 255
0.0995289 -0.113536 1.947 255 255 255
-0.506865 -0.776628 2.582 0 0 0
0.622032 -0.921858 2.953 255 255 255
-0.591973 0.398445 1.359 255 255 255
-0.299808 0.088777 1.696 255 255 255
0.301751 0.265752 1.359 255 255 255
-0.24628 -0.511917 2.582 255 255 255
0.133958 -0.513173 2.392 255 255 255
0.0256462 -0.290313 2.128 255 255 255
-0.147071 0.318255 1.491 255 255 255
0.365838 -0.208638 0.85 255 255 255
-0.0559309 0.228269 1.591 255 255 255
0.326866 0.132224 1.158 255 255 255
0.381493 0.00958281 0.955 255 255 255
-0.584213 0.213849 1.543 255 255 255
-0.575025 0.134555 1.616 255 255 255
-0.0660213 -0.386274 2.181 0 0 0
-0.0579677 0.0961316 1.729 255 255 255
0.0941802 0.512298 1.333 255 255 255
-0.617104 0.281905 1.466 255 255 255
-1.09315 -0.227989 2.303 255 255 255
0.16585 -0.39378 2.244 255 255 255
-0.857305 -0.7041 2.489 255 255 255
0.158288 0.112687 1.724 255 255 255
0.336966 0.326264 1.244 255 255 255
-0.584165 -0.0548308 1.789 0 0 0
-0.204481 -0.940746 2.755 255 255 255
0.167107 -0.407801 2.261 255 255 255
-0.234599 0.0677985 1.724 255 255 255
0.456037 0.312975 0.942 255 255 255
0.375283 -0.00257684 1.899 255 255 255
-0.656432 0.326668 1.412 255 255 255
-0.0890937 -1.01281 2.793 255 255 255
-0.802571 -0.088383 2.024 255 255 255
0.0830889 -0.343683 2.181 255 255 255
0.100738 0.0829652 1.748 255 255 255
-0.387701 -0.946152 2.719 255 255 255
0.367112 0.0460648 1.005 255 255 255
-0.698734 0.0635604 1.686 255 255 255
-0.629642 0.266471 1.473 255 255 255
0.432176 0.148087 0.927 255 255 255
0.121095 0.44695 1.393 255 255 255
0.112822 0.0125628 1.853 255 255 255
-0.495281 0.479586 1.286 255 255 255
0.363628 0.316506 1.192 255 255 255
0.349759 0.108894 1.094 255 255 255
0.354909 0.37633 1.229 255 255 255
0.428125 0.287903 1.01 255 255 255
-0.150034 0.412531 1.384 255 255 255
0.344293 -0.934996 2.805 0 0 0
0.310368 -0.0211186 1.899 255 255 255
0.143434 -0.222623 2.078 255 255 255
-1.0311 -0.815662 2.459 255 255 255
-1.02591 -0.492247 2.312 255 255 255
-0.274399 0.423274 1.375 255 255 255
-0.272398 0.0119933 1.769 255 255 255
-0.416165 -0.74196 2.593 255 255 255
-0.314944 -1.05333 2.78 255 255 255
0.337662 0.146515 1.603 255 255 255
0.758984 -0.428182 2.374 255 255 255
0.446838 0.215039 0.923 255 255 255
0.499998 -0.533188 2.43 255 255 255
-0.0731713 -0.0769864 1.905 255 255 255
-0.165153 -0.0765015 1.893 255 255 255
-0.908347 -0.222983 2.329 255 255 255
-0.488287 0.169569 1.599 255 255 255
-0.48729 0.328915 1.442 255 255 255
-0.149967 0.486672 1.305 255 255 255
-1.09049 -1.01259 2.684 255 255 255
-0.935049 -0.142838 2.32 255 255 255
0.714865 -0.294131 2.236 255 255 255
-1.07065 -0.0930708 2.303 255 255 255
0.122082 0.394524 1.459 255 255 255
-0.567306 -0.294779 2.269 255 255 255
0.680277 -0.721082 2.672 0 0 0
0.049296 -0.13704 1.966 255 255 255
-0.340335 0.320261 1.456 255 255 255
0.278737 -0.188807 2.078 255 255 255
0.444532 0.333082 0.988 255 255 255
0.278454 -0.169666 2.051 255 255 255
0.374425 -0.544713 2.411 255 255 255
-0.803881 0.0872191 1.616 255 255 255
0.34802 -0.0947398 0.957 255 255 255
-0.35393 0.457605 1.313 255 255 255
0.36112 -0.129213 0.904 255 255 255
0.368016 -0.0156348 0.977 255 255 255
-0.540371 0.424572 1.33 255 255 255
-0.324231 0.00911454 1.769 255 255 255
-0.217234 0.397934 1.396 255 255 255
-0.337965 0.320261 1.456 255 255 255
0.0584728 -0.221123 2.064 255 255 255
0.178098 0.426838 1.432 255 255 255
-0.208232 0.38641 1.412 255 255 255
-0.669711 0.0422033 1.71 255 255 255
0.416026 0.107808 0.918 255 255 255
0.405166 0.312814 1.085 255 255 255
-0.0660213 -0.382724 2.181 0 0 0
0.267687 0.333705 1.463 255 255 255
0.372286 0.41431 1.247 255 255 255
-0.642801 0.431457 1.305 255 255 255
-0.0413185 0.0853679 1.739 255 255 255
0.39482 -0.124314 0.841 255 255 255
-0.358786 0.00335706 1.769 255 255 255
-0.146389 -0.454784 2.392 255 255 255
0.108502 0.0332711 1.831 255 255 255
-0.539925 0.187528 1.575 255 255 255
0.952862 -0.798272 2.743 0 0 0
-0.751217 0.294625 1.435 255 255 255
-0.682412 0.175025 1.555 255 255 255
-0.643079 0.101983 1.642 255 255 255
0.394726 -0.0805565 0.871 255 255 255
-1.17708 -0.737244 2.374 0 0 0
-0.262073 -0.51412 2.572 255 255 255
-0.042587 -0.593978 2.469 255 255 255
-0.7299 -0.384224 2.365 255 255 255
0.33857 0.0261365 1.059 255 255 255
0.399085 -0.903044 2.805 255 255 255
0.188784 -0.755868 2.672 255 255 255
0.439321 0.0403231 1.882 255 255 255
-0.627338 -0.608322 2.43 255 255 255
-0.775102 0.186229 1.543 255 255 255
0.406031 -0.141864 0.801 255 255 255
-0.0739517 0.280185 1.535 255 255 255
0.0333963 -0.143876 1.972 255 255 255
0.997595 -0.772558 2.731 255 255 255
0.409556 -0.0796573 0.832 255 255 255
0.384782 -0.00435335 0.944 255 255 255
0.136628 -0.401083 2.244 255 255 255
-0.372967 0.418348 1.359 255 255 255
0.649619 -0.192836 2.085 255 255 255
0.167137 -0.313121 2.166 255 255 255
-0.0354714 0.511022 1.313 255 255 255
-0.612372 0.360622 1.375 255 255 255
0.394198 0.389851 1.162 255 255 255
0.500526 0.0489059 1.859 0 0 0
-0.0654777 -0.139312 1.953 255 255 255
0.269002 0.477845 1.384 255 255 255
0.383866 0.301902 1.137 255 255 255
0.364809 -0.0629947 0.948 255 255 255
0.336651 0.00713902 1.053 255 255 255
-1.10535 -0.586128 2.42 255 255 255
-0.739901 0.151645 1.575 255 255 255
