ply
format ascii 1.0
comment Created by Open3D
element vertex 1301
property double x
property double y
property double z
property uchar red
property uchar green
property uchar blue
end_header
-0.0137442 0.123062 1.837 255 255 255
-0.706449 -0.485735 2.43 255 255 255
-0.92873 -0.382724 2.181 255 255 255
-0.228884 0.459828 1.384 255 255 255
-0.109089 -0.154747 2.121 255 255 255
0.227823 -0.0625374 0.575 255 255 255
-0.358587 -0.626455 2.604 255 255 255
0.275106 0.0602362 0.586 255 255 255
-0.46442 -0.0270548 1.882 255 255 255
-0.5115 0.262914 1.551 255 255 255
0.0464626 0.12715 1.853 255 255 255
0.51322 -0.166202 2.278 255 255 255
0.303384 0.195102 0.644 255 255 255
0.233018 0.312333 1.696 255 255 255
-0.679293 0.150706 1.62 255 255 255
0.167631 0.180323 0.802 255 255 255
-0.973518 -0.0922656 2.037 255 255 255
0.259876 0.184958 0.684 255 255 255
-0.66448 -0.425494 2.338 255 255 255
0.474213 -0.441861 2.615 255 255 255
0.249689 0.0697848 0.62 255 255 255
-0.0814178 0.325012 1.583 255 255 255
-0.624286 0.0972857 1.7 255 255 255
0.266426 0.184439 0.678 255 255 255
-1.0568 -0.791901 2.55 255 255 255
-0.681792 0.179527 1.595 255 255 255
-0.844069 -0.464707 2.383 255 255 255
-0.239108 0.00359237 1.893 255 255 255
0.246756 0.242795 0.738 255 255 255
-0.980407 0.00378974 1.997 255 255 255
-0.166384 -0.776462 2.793 0 0 0
-0.831824 -0.751402 2.626 255 255 255
-0.529607 0.0717917 1.753 255 255 255
-0.650004 0.129017 1.646 255 255 255
-0.385999 0.307938 1.524 255 255 255
0.167168 0.0912712 1.923 255 255 255
-0.429773 0.424197 1.378 255 255 255
-0.131746 -0.0925826 2.044 255 255 255
-0.346617 0.181108 1.682 255 255 255
-0.519326 -0.956118 2.911 255 255 255
-0.323147 0.486268 1.345 255 255 255
-0.0517448 -0.337986 2.338 255 255 255
-0.0937326 0.0678868 1.882 255 255 255
-0.679518 0.387159 1.366 255 255 255
-1.03129 -1.05591 2.925 255 255 255
0.215699 -0.115305 2.158 255 255 255
-0.31439 -0.517781 2.489 255 255 255
0.0629302 -0.619495 2.684 255 255 255
0.249245 -0.0316309 0.558 255 255 255
0.239283 0.077002 0.638 255 255 255
-0.938973 0.00376696 1.985 255 255 255
-0.336892 -0.171899 2.078 255 255 255
-0.217466 -0.573858 2.54 255 255 255
-0.724829 0.0237076 1.784 255 255 255
0.255244 -0.659748 2.78 255 255 255
-0.174368 0.255555 1.633 255 255 255
0.25953 0.0570772 0.603 255 255 255
-0.300171 0.364076 1.48 255 255 255
-0.831747 -0.913654 2.768 255 255 255
-0.474969 -0.387089 2.269 0 0 0
-0.655138 0.121937 1.659 255 255 255
0.288882 0.0807999 0.583 255 255 255
0.198556 0.155288 1.865 255 255 255
0.127431 0.204174 1.763 255 255 255
0.607757 -0.32466 2.499 255 255 255
-0.308849 -0.270823 2.166 255 255 255
0.745902 -0.342387 2.54 255 255 255
0.25442 -0.172808 2.22 255 255 255
-0.0722026 -0.758243 2.844 255 255 255
-0.356912 0.0726517 1.774 255 255 255
0.274652 0.146666 0.643 255 255 255
-1.4386 -1.07455 2.911 255 255 255
-1.00304 -0.455859 2.244 0 0 0
0.649014 -0.281259 2.44 255 255 255
0.123729 0.0695822 1.929 255 255 255
-0.444728 -0.210505 2.092 255 255 255
0.241118 -0.114723 0.519 255 255 255
-0.287207 0.296227 1.567 255 255 255
-0.40735 -0.255683 2.128 255 255 255
-0.58484 0.392261 1.384 255 255 255
-1.26074 -0.976993 2.731 255 255 255
-0.968407 -0.59044 2.374 255 255 255
-0.611404 -0.217026 2.057 0 0 0
-0.0803643 0.131492 1.789 255 255 255
-0.584823 0.0683884 1.739 255 255 255
0.155158 0.364076 1.48 255 255 255
-0.070163 -0.888219 2.953 0 0 0
-0.301687 0.214732 1.646 255 255 255
-0.674527 0.427692 1.313 255 255 255
-1.05161 -0.350326 2.114 0 0 0
0.0603733 -0.245908 2.261 255 255 255
0.252101 -0.0826289 0.519 255 255 255
0.183712 0.215372 0.787 255 255 255
-0.793382 -0.970927 2.857 255 255 255
0.247938 -0.150136 0.486 255 255 255
-0.596728 0.370673 1.396 255 255 255
-0.178412 -0.755998 2.768 0 0 0
-0.428656 0.174977 1.65 255 255 255
-0.749007 0.0683884 1.739 255 255 255
0.281877 0.209816 0.678 255 255 255
0.0775819 0.00688441 1.953 255 255 255
0.175457 0.106251 1.911 255 255 255
0.269414 0.0486263 0.584 255 255 255
-0.409942 0.196608 1.629 255 255 255
-0.193615 0.439681 1.406 255 255 255
0.26416 0.277405 1.719 255 255 255
-0.0293551 -0.389549 2.374 255 255 255
0.26718 0.0752361 0.607 255 255 255
-1.04787 -0.751663 2.499 255 255 255
-0.508541 0.00351646 1.853 255 255 255
-0.353069 0.420478 1.403 255 255 255
0.272597 -0.0139914 0.543 255 255 255
-0.117867 0.46865 1.351 255 255 255
-0.180687 -0.546134 2.489 0 0 0
-0.485945 0.499584 1.289 255 255 255
-0.61 0.453089 1.294 255 255 255
-1.018 -0.470351 2.261 255 255 255
-0.952336 -0.209801 2.085 255 255 255
-0.398729 -0.46232 2.411 255 255 255
0.0429773 0.237549 1.714 255 255 255
-0.510921 0.465087 1.31 255 255 255
-0.710148 0.257596 1.491 255 255 255
-0.398253 -0.89918 2.793 255 255 255
0.307897 -0.516579 2.649 255 255 255
-0.193504 0.423858 1.422 255 255 255
-0.0533669 0.242757 1.673 255 255 255
0.19674 0.0773173 0.697 255 255 255
-0.0938174 0.47365 1.322 255 255 255
0.693108 -0.64421 2.831 255 255 255
0.293852 0.072331 0.576 255 255 255
0.30724 0.158551 0.616 255 255 255
-0.374268 0.124628 1.734 255 255 255
0.257429 -0.0948154 0.503 255 255 255
0.20989 0.296941 0.814 255 255 255
0.276539 -0.193709 2.253 255 255 255
-0.304429 0.17107 1.691 255 255 255
0.373027 -0.343329 2.402 255 255 255
-1.01067 -0.524061 2.303 255 255 255
-1.3721 -1.06913 2.871 255 255 255
0.24111 -0.0184297 0.571 255 255 255
-0.690468 0.00621465 1.763 255 255 255
-0.600116 -0.253169 2.136 0 0 0
-0.070163 -0.873803 2.953 0 0 0
-0.155644 0.110802 1.784 255 255 255
-0.894697 -0.50708 2.294 255 255 255
-0.00451868 0.195735 1.739 255 255 255
0.262706 0.0373494 0.586 255 255 255
-0.136842 -0.283215 2.236 255 255 255
-0.970713 -0.971514 2.805 255 255 255
0.0529951 0.173203 1.769 255 255 255
-0.657449 -0.215654 2.044 0 0 0
0.286466 0.160312 0.639 255 255 255
0.0301315 0.395905 1.381 255 255 255
0.318851 -0.0831173 2.143 255 255 255
0.112012 0.483389 1.242 255 255 255
0.262953 0.122027 0.64 255 255 255
-0.872076 -0.410569 2.236 255 255 255
-0.449169 -0.838446 2.743 255 255 255
0.237509 0.106831 0.662 255 255 255
0.58818 -0.447606 2.649 255 255 255
-0.115154 0.523477 1.345 255 255 255
-0.0764279 0.511211 1.319 255 255 255
-0.793744 0.0827753 1.744 255 255 255
0.163256 -0.671749 2.755 255 255 255
-0.752736 -0.947996 2.844 255 255 255
-0.389051 0.0587095 1.789 255 255 255
0.179268 0.217478 0.79 255 255 255
-0.317391 0.098022 1.763 255 255 255
0.389509 0.062504 2.004 255 255 255
0.223054 0.110353 0.677 255 255 255
-1.19187 -0.61899 2.365 255 255 255
-1.02099 -0.904645 2.768 255 255 255
-0.503874 0.12319 1.714 255 255 255
0.245432 0.0619123 0.622 255 255 255
-0.028267 -0.296988 2.286 255 255 255
-0.669529 -0.532943 2.411 0 0 0
0.821289 -0.706134 2.996 255 255 255
0.557406 -0.665681 2.844 255 255 255
-0.0273053 0.176836 1.748 255 255 255
0.19729 0.145113 0.724 255 255 255
-0.237321 0.142375 1.744 255 255 255
-0.555007 0.358506 1.429 255 255 255
-0.339284 0.475148 1.357 255 255 255
0.262911 -0.0671665 0.517 255 255 255
-0.433491 0.481405 1.308 255 255 255
0.0791472 -0.360003 2.383 255 255 255
0.413497 -0.402796 2.53 255 255 255
-0.604473 -0.536128 2.499 255 255 255
0.25761 0.201527 0.699 255 255 255
0.24325 0.276148 0.757 255 255 255
-0.165911 0.22764 1.682 255 255 255
0.869066 -0.624517 2.911 255 255 255
0.246787 0.322479 1.677 255 255 255
0.253311 -0.0145067 0.563 255 255 255
-0.971582 -0.909866 2.743 255 255 255
-0.448125 0.364276 1.452 255 255 255
0.221468 0.0110661 0.609 255 255 255
0.245677 0.245319 0.742 255 255 255
0.356629 -0.146456 2.204 255 255 255
-0.923628 -0.0559938 2.044 255 255 255
-1.33931 -0.908861 2.649 255 255 255
-0.206093 0.136698 1.744 255 255 255
-0.982905 -0.712201 2.489 255 255 255
-0.56064 -0.582125 2.54 255 255 255
-1.29619 -0.90455 2.649 255 255 255
0.203618 -0.662782 2.755 255 255 255
0.0451368 0.416137 1.359 255 255 255
-0.732233 -0.754895 2.684 255 255 255
-0.248676 0.139537 1.744 255 255 255
-0.690725 0.351721 1.384 255 255 255
-0.494151 0.117955 1.719 255 255 255
-0.12272 -0.28788 2.244 255 255 255
0.290911 0.25426 0.697 255 255 255
-0.593094 -0.818631 2.707 255 255 255
-0.26991 -0.322031 2.253 255 255 255
-0.790694 -0.0182562 1.923 255 255 255
-0.585671 0.300845 1.477 255 255 255
-1.05674 -0.223721 2.057 255 255 255
0.207699 -0.246728 2.303 255 255 255
-0.174024 0.237452 1.655 255 255 255
-0.62479 -0.127784 1.923 255 255 255
-0.296781 0.468025 1.375 255 255 255
-0.31737 0.00663413 1.882 255 255 255
-0.339061 0.506906 1.297 255 255 255
-0.0801834 0.350528 1.559 255 255 255
0.312133 0.190438 0.632 255 255 255
0.228469 0.277478 0.778 255 255 255
0.131647 -0.579326 2.66 255 255 255
-0.537741 0.203396 1.599 255 255 255
-0.829983 -0.989701 2.871 255 255 255
0.115851 0.38641 1.412 255 255 255
-1.09181 -0.954772 2.731 255 255 255
-0.750133 -0.444105 2.356 255 255 255
-1.01863 -0.639213 2.383 255 255 255
-0.630271 0.491057 1.267 255 255 255
-0.461912 0.112687 1.724 255 255 255
-0.0456911 -0.851238 2.925 0 0 0
-0.219641 0.28335 1.595 255 255 255
0.22285 0.365639 1.603 255 255 255
0.247886 -0.118757 0.497 255 255 255
-1.01071 -0.583038 2.329 255 255 255
-0.226913 -0.0501681 1.947 255 255 255
0.168569 -0.836958 2.925 255 255 255
0.10803 0.394518 1.4 255 255 255
0.637506 -0.599233 2.731 255 255 255
0.0828648 -0.813158 2.925 255 255 255
0.0457673 0.237549 1.714 255 255 255
-0.403683 0.485662 1.308 255 255 255
-0.460772 -0.28995 2.151 255 255 255
0.131004 0.3159 1.629 255 255 255
0.45874 0.0372687 2.051 255 255 255
-0.423113 0.408413 1.393 255 255 255
-0.541802 0.411187 1.372 255 255 255
-0.161558 0.0189348 1.887 255 255 255
0.245213 -0.0521794 0.545 255 255 255
-0.173303 0.325932 1.575 255 255 255
-0.711331 -0.188803 1.972 255 255 255
-0.339244 0.416281 1.412 255 255 255
-0.5434 0.492314 1.281 255 255 255
-0.388059 0.255458 1.583 255 255 255
0.516194 -0.0875342 2.166 0 0 0
0.183297 0.235138 0.802 255 255 255
0.190566 0.137886 1.876 255 255 255
-0.944042 -0.486784 2.269 255 255 255
0.241477 -0.462256 2.54 255 255 255
-0.895676 -0.936648 2.743 255 255 255
0.243514 -0.0820314 0.526 255 255 255
-0.149498 0.371634 1.491 255 255 255
0.312191 0.154029 0.61 255 255 255
-0.155793 0.148815 1.753 255 255 255
-0.872443 -0.980225 2.857 255 255 255
-0.374423 -0.738191 2.719 0 0 0
0.285532 0.26556 0.709 255 255 255
-0.702244 0.229776 1.532 255 255 255
0.412612 0.104112 1.929 255 255 255
-0.473097 0.389961 1.4 255 255 255
-0.690808 0.0785622 1.714 255 255 255
0.229758 -0.0877723 0.557 255 255 255
0.0853083 0.444051 1.33 0 0 0
0.232188 -0.0923742 0.552 255 255 255
-0.803234 0.129615 1.62 255 255 255
-0.640677 0.430092 1.327 255 255 255
-0.86811 -1.08524 2.953 255 255 255
0.205421 0.0861158 0.677 255 255 255
-0.182361 0.470869 1.39 255 255 255
0.266466 -0.031256 0.536 255 255 255
0.299654 0.258818 0.691 255 255 255
0.302354 0.235298 0.672 255 255 255
-0.216964 0.43374 1.409 255 255 255
-0.283123 0.274182 1.587 255 255 255
0.0890762 0.367036 1.463 255 255 255
0.199854 0.216384 1.769 255 255 255
0.193579 0.315002 0.841 255 255 255
-0.646165 -0.0666559 1.876 255 255 255
0.0931882 0.284777 1.664 255 255 255
-0.657894 0.254514 1.516 255 255 255
-0.27563 0.491329 1.359 255 255 255
-0.316858 0.335268 1.502 255 255 255
0.0344254 0.241851 1.705 255 255 255
-0.936025 -0.153947 2.064 255 255 255
0.0680659 0.297768 1.646 255 255 255
0.460652 0.0467976 2.03 255 255 255
-0.995468 -0.636492 2.402 255 255 255
0.278878 0.32171 1.673 255 255 255
-0.765783 -0.501553 2.43 255 255 255
0.705521 -0.494832 2.719 255 255 255
0.769485 -0.459765 2.695 255 255 255
0.217353 0.143532 1.87 255 255 255
-0.564657 -0.0206738 1.859 255 255 255
0.348968 0.187698 1.826 255 255 255
-0.688627 0.227728 1.535 255 255 255
-0.596232 -0.196394 2.017 255 255 255
-0.110259 -0.117794 2.078 255 255 255
-0.863737 -0.0892564 2.044 255 255 255
-0.00984651 0.260486 1.682 255 255 255
-0.199 -0.0535009 1.953 255 255 255
0.0828256 -0.0876537 2.085 255 255 255
-0.504415 -0.347307 2.204 0 0 0
-0.837577 0.084877 1.729 255 255 255
-0.739237 0.0210493 1.805 255 255 255
-0.024341 -0.638466 2.672 0 0 0
0.137969 -0.135933 2.151 255 255 255
-0.247653 0.305428 1.575 255 255 255
-1.09511 -0.429439 2.166 255 255 255
0.345187 -0.248549 2.32 255 255 255
-0.521046 0.0717917 1.753 255 255 255
-0.431598 -0.266072 2.128 255 255 255
-0.500372 -0.998752 2.911 255 255 255
-0.812704 0.0874371 1.724 255 255 255
0.275957 0.188523 0.669 255 255 255
0.831879 -0.484095 2.684 255 255 255
-0.58132 0.224545 1.583 255 255 255
-0.119539 0.191241 1.724 255 255 255
-0.434793 0.0966876 1.739 255 255 255
-0.76088 0.207921 1.555 255 255 255
0.723225 -0.561203 2.719 255 255 255
0.263533 -0.181331 2.236 255 255 255
-0.0996545 -0.517781 2.489 255 255 255
-0.762002 0.216921 1.547 255 255 255
-0.383981 0.0699614 1.779 255 255 255
-0.486607 0.481316 1.302 255 255 255
0.242411 0.099912 0.652 255 255 255
-0.412432 0.0270732 1.815 255 255 255
-1.08722 -0.237917 2.064 255 255 255
0.25443 -0.141897 2.189 255 255 255
0.278557 0.260823 1.739 255 255 255
-0.543349 0.138552 1.664 255 255 255
0.312627 0.19589 0.633 255 255 255
0.0726142 0.490394 1.26 255 255 255
-0.534954 0.372162 1.419 255 255 255
0.0912288 0.33274 1.583 255 255 255
-0.158307 -0.372228 2.338 255 255 255
-0.337072 -0.287948 2.189 255 255 255
-0.179829 0.336887 1.543 255 255 255
0.23459 -0.100588 0.543 255 255 255
-0.0280704 0.410288 1.369 255 255 255
0.232842 0.0020974 0.595 255 255 255
0.0609303 0.474738 1.273 255 255 255
0.167115 0.154288 1.853 255 255 255
0.247858 -0.388467 2.44 255 255 255
-0.702313 0.237245 1.516 255 255 255
-0.590325 0.138135 1.659 255 255 255
-0.360907 -0.304268 2.204 255 255 255
0.167677 -0.147932 2.173 255 255 255
-0.5988 -0.555558 2.459 0 0 0
-0.306791 0.0423483 1.837 255 255 255
-0.40686 -0.516089 2.561 255 255 255
-0.218858 0.411534 1.452 255 255 255
-1.03296 -0.0919485 2.03 255 255 255
0.470419 -0.674918 2.768 255 255 255
0.245755 0.0696632 0.628 255 255 255
0.404235 -0.263908 2.356 255 255 255
-0.197466 0.52332 1.339 255 255 255
-1.06109 -1.12987 2.982 255 255 255
-0.477444 -0.545531 2.582 255 255 255
0.279285 0.242375 0.702 255 255 255
0.116376 0.353723 1.477 255 255 255
0.242149 0.0829051 1.947 255 255 255
-0.274222 0.511986 1.31 255 255 255
0.253413 -0.0676081 0.527 255 255 255
0.256869 0.258905 0.736 255 255 255
0.266109 0.00654221 0.561 255 255 255
-0.419696 -0.675912 2.615 0 0 0
-0.417495 -0.308191 2.181 255 255 255
-0.0103207 0.166878 1.763 255 255 255
-0.598625 -0.657787 2.561 0 0 0
0.0210666 0.18537 1.748 255 255 255
0.267997 -0.0427376 0.527 255 255 255
0.281505 0.240202 0.699 255 255 255
0.0843964 -0.594984 2.672 255 255 255
-1.14405 -0.671672 2.402 255 255 255
-0.956289 -0.143383 2.057 255 255 255
0.208611 0.267679 0.794 255 255 255
0.261553 -0.0600556 0.521 255 255 255
-0.233107 0.363628 1.498 255 255 255
0.177564 0.236572 1.748 255 255 255
-0.0458002 0.372194 1.513 255 255 255
-0.00165978 0.223081 1.71 255 255 255
0.0204399 0.257134 1.696 255 255 255
0.292916 -0.0302893 2.107 255 255 255
-0.294342 0.381321 1.463 255 255 255
-0.356458 0.0362507 1.831 255 255 255
-0.803823 -1.10561 2.982 255 255 255
0.81611 -0.66084 2.925 255 255 255
-1.42651 -0.994734 2.768 255 255 255
0.190399 0.263846 0.81 255 255 255
-1.14245 -0.474697 2.196 255 255 255
-0.148031 0.174914 1.729 255 255 255
0.279945 0.148174 0.636 255 255 255
-0.707405 0.000482368 1.784 255 255 255
-0.634447 -0.0800865 1.905 255 255 255
-0.91367 -0.381783 2.196 255 255 255
0.248077 0.189555 0.701 255 255 255
0.241829 0.0910664 0.642 255 255 255
-0.824398 0.0630675 1.831 255 255 255
-0.0460121 0.368968 1.52 255 255 255
-0.549944 -0.10339 1.935 255 255 255
0.24758 0.131807 0.663 255 255 255
-0.441994 0.35037 1.463 255 255 255
0.237069 -0.0321977 0.568 255 255 255
0.2779 0.0210737 0.559 255 255 255
-0.693304 -0.685725 2.572 255 255 255
0.0193868 -0.211015 2.204 255 255 255
-0.105602 -0.816834 2.871 0 0 0
0.259618 0.267652 0.737 255 255 255
0.171117 0.279372 0.845 255 255 255
-0.544321 0.252818 1.551 255 255 255
-0.536437 0.397626 1.387 255 255 255
0.186193 -0.745563 2.831 255 255 255
0.17083 0.0789995 1.929 255 255 255
-0.0033338 0.459677 1.283 255 255 255
-1.06204 -0.944632 2.793 255 255 255
0.2007 0.276686 0.809 255 255 255
0.268807 -0.0318885 0.532 255 255 255
-1.02412 -0.287448 2.107 255 255 255
0.22775 -0.0542908 2.107 255 255 255
0.132041 0.35465 1.491 255 255 255
-0.983738 -0.620857 2.402 255 255 255
-0.364783 0.3295 1.498 255 255 255
0.269936 0.0290612 0.573 255 255 255
-0.524429 0.247776 1.567 255 255 255
0.0545529 0.148661 1.821 255 255 255
0.0488627 0.33776 1.547 255 255 255
-0.0377352 0.222429 1.705 255 255 255
-0.0704568 0.234361 1.691 255 255 255
-1.08321 -0.91433 2.743 255 255 255
-0.18823 -0.974285 2.996 255 255 255
0.231681 0.00404748 0.597 255 255 255
-0.81325 -0.604367 2.43 255 255 255
0.973675 -0.609338 2.884 255 255 255
-0.843568 -0.30033 2.228 255 255 255
-0.562268 0.479586 1.286 255 255 255
-0.517418 0.480705 1.289 255 255 255
0.243323 0.0644506 0.627 255 255 255
0.206643 0.0182415 0.653 255 255 255
-0.597203 -0.947132 2.898 255 255 255
-0.988051 -0.51828 2.294 255 255 255
-1.06285 -0.0521522 2.024 255 255 255
-0.0912483 0.376487 1.491 0 0 0
0.30983 -0.471901 2.593 255 255 255
-0.694553 0.260545 1.494 255 255 255
0.256878 0.00854706 0.573 255 255 255
-0.732929 -0.778013 2.719 255 255 255
-0.521649 -0.602015 2.572 0 0 0
-0.300693 -0.172478 2.085 255 255 255
0.00124403 0.0621225 1.893 255 255 255
0.0181273 0.204225 1.739 255 255 255
0.247906 -0.0418415 0.549 255 255 255
0.066191 0.145217 1.815 255 255 255
-0.0127208 -0.197439 2.173 255 255 255
-0.392219 0.259952 1.579 255 255 255
-1.03605 -1.05116 2.925 255 255 255
-0.647648 0.155978 1.62 255 255 255
-1.08407 -0.931672 2.768 255 255 255
-0.610982 0.411108 1.357 255 255 255
0.227823 -0.0672159 0.575 255 255 255
-0.460408 0.395363 1.403 255 255 255
0.53113 -0.134507 2.244 255 255 255
-1.01813 -0.588336 2.32 255 255 255
-0.0871209 0.360418 1.547 255 255 255
0.225998 0.0454605 1.972 255 255 255
-0.0559309 0.316298 1.591 255 255 255
0.290439 0.112215 0.604 255 255 255
0.220523 0.10469 0.676 255 255 255
-0.530611 0.0270732 1.815 255 255 255
0.0102866 0.371687 1.435 255 255 255
-0.117788 -0.388072 2.365 255 255 255
0.23872 0.162386 0.697 255 255 255
0.119977 -0.312551 2.347 255 255 255
0.254605 -0.000773458 0.57 255 255 255
0.242483 0.0439862 0.612 255 255 255
0.485113 -0.186764 2.303 255 255 255
0.21791 0.251468 0.772 255 255 255
-0.0860464 0.387056 1.406 255 255 255
-0.16903 0.309555 1.583 255 255 255
0.160996 0.413835 1.366 255 255 255
-0.947781 -0.800196 2.604 255 255 255
-0.529942 0.343955 1.456 255 255 255
0.0303134 0.303388 1.633 255 255 255
-0.53725 -0.00852224 1.848 255 255 255
0.282915 0.0677175 1.966 255 255 255
-0.0467088 -0.288534 2.278 255 255 255
0.320174 0.0770402 1.959 255 255 255
0.239533 -0.134839 0.512 255 255 255
0.21571 0.0453222 1.966 255 255 255
0.0454541 -0.615127 2.684 255 255 255
-1.35595 -1.01729 2.818 255 255 255
0.191455 0.221639 0.782 255 255 255
0.287563 0.0981198 0.596 255 255 255
-0.0152405 0.264537 1.673 255 255 255
-0.460318 -0.673069 2.604 0 0 0
-0.0237323 0.235054 1.696 255 255 255
0.106543 0.484081 1.249 255 255 255
-0.590702 0.113282 1.691 255 255 255
-0.19195 -0.175456 2.121 255 255 255
-0.175952 0.462818 1.393 255 255 255
0.226492 -0.045615 0.574 255 255 255
-0.373601 0.291427 1.555 255 255 255
-0.548839 0.0465382 1.769 255 255 255
-0.0963804 0.389438 1.39 255 255 255
-1.01701 -0.342257 2.128 255 255 255
-0.198641 0.492414 1.362 255 255 255
-0.158722 0.312131 1.583 255 255 255
-0.960255 -0.0988953 2.037 255 255 255
-0.026167 0.0857126 1.87 255 255 255
0.285586 0.0997547 0.6 255 255 255
0.105406 0.431618 1.366 255 255 255
-0.0287737 0.114405 1.842 255 255 255
0.287554 0.0994222 0.598 255 255 255
-0.683027 0.0345283 1.744 255 255 255
-0.273846 0.327646 1.535 255 255 255
0.243994 -0.116328 0.504 255 255 255
-0.481207 0.403522 1.384 255 255 255
-0.389501 0.113667 1.739 255 255 255
0.126521 -0.0636883 2.078 255 255 255
-0.579159 0.448032 1.31 255 255 255
0.65418 -0.460189 2.672 255 255 255
0.251555 0.242871 0.731 255 255 255
0.0334158 0.283237 1.655 255 255 255
-0.015376 0.373241 1.432 255 255 255
-1.04653 -1.12502 2.982 255 255 255
-0.119533 0.525665 1.345 0 0 0
0.254343 -0.100123 0.505 255 255 255
-0.176684 0.481304 1.381 255 255 255
0.244165 0.00396612 0.585 255 255 255
-0.379581 0.376091 1.452 255 255 255
-0.707755 0.17174 1.595 255 255 255
0.256875 0.131541 0.651 255 255 255
-1.02402 -0.313519 2.121 255 255 255
0.320036 0.227949 0.648 255 255 255
0.275163 0.0868026 0.605 255 255 255
0.0833817 -0.0984896 2.099 255 255 255
-0.0795925 -0.393413 2.374 255 255 255
-0.212481 0.336887 1.543 255 255 255
0.108219 -0.223831 2.261 255 255 255
-0.905223 -0.438106 2.228 0 0 0
-0.957898 -0.306309 2.143 255 255 255
-0.136285 -0.47586 2.42 255 255 255
-0.351829 0.0836771 1.763 255 255 255
0.215917 0.119728 0.693 255 255 255
0.645263 -0.163065 2.286 255 255 255
-0.579344 0.123627 1.682 255 255 255
0.284378 0.266714 0.709 255 255 255
-0.0995225 -0.768598 2.831 255 255 255
0.506251 -0.486403 2.649 255 255 255
0.266416 0.0938478 0.619 255 255 255
0.575889 -0.516716 2.672 255 255 255
0.270978 0.00286472 0.556 255 255 255
-0.532378 -0.656118 2.604 0 0 0
-0.466001 0.301049 1.502 255 255 255
-0.113469 0.510422 1.351 255 255 255
0.226033 0.160114 0.707 255 255 255
0.311501 0.21596 0.65 255 255 255
-0.66224 -0.106967 1.887 255 255 255
0.407577 -0.0694261 2.151 255 255 255
-0.850701 0.111161 1.62 255 255 255
0.172589 0.383011 1.425 255 255 255
-0.533791 -0.526321 2.55 255 255 255
-0.612069 -0.428769 2.356 255 255 255
-0.0278653 0.418348 1.359 255 255 255
-0.91973 -0.441732 2.228 0 0 0
-0.674439 -0.0326688 1.853 255 255 255
-0.822684 -0.416999 2.312 255 255 255
-0.814202 -1.03674 2.898 255 255 255
-0.417004 0.0585455 1.784 255 255 255
0.0139265 0.428661 1.336 255 255 255
0.428263 -0.286322 2.383 255 255 255
0.178185 0.344001 1.624 255 255 255
-0.125156 0.109169 1.805 255 255 255
-0.524014 -0.0239157 1.876 255 255 255
-0.590195 0.468028 1.283 255 255 255
0.2512 0.187339 0.697 255 255 255
-0.765478 -0.975576 2.857 255 255 255
-0.516191 -0.421101 2.356 255 255 255
-0.676468 0.324983 1.435 255 255 255
0.74725 -0.668888 2.898 255 255 255
-0.237718 0.0250099 1.882 255 255 255
-1.19121 -0.715622 2.459 255 255 255
0.0836823 0.0195369 1.947 255 255 255
0.307241 0.153041 0.614 255 255 255
-0.0559942 -0.538661 2.53 255 255 255
-0.318179 -0.53222 2.519 255 255 255
0.089841 0.424949 1.366 255 255 255
0.137331 0.350221 0.923 255 255 255
0.165349 -0.152584 2.189 255 255 255
-0.180445 0.271303 1.616 255 255 255
0.304837 0.266304 0.69 255 255 255
0.0801579 0.115833 1.865 255 255 255
0.313544 0.244355 0.661 255 255 255
0.130478 -0.813158 2.925 255 255 255
0.333296 0.261573 1.744 255 255 255
0.251483 -0.0897086 0.516 255 255 255
-0.661998 -0.168431 1.959 255 255 255
0.259087 0.0445506 0.593 255 255 255
0.219286 -0.0302566 0.603 255 255 255
0.262345 0.117125 0.636 255 255 255
-0.0452626 0.0408159 1.905 255 255 255
-0.870172 -0.442476 2.269 0 0 0
0.163125 0.162365 1.842 255 255 255
0.303673 0.188093 0.638 255 255 255
0.271652 0.230294 0.7 255 255 255
-0.605254 -0.489513 2.469 255 255 255
0.231434 0.274981 0.771 255 255 255
0.269557 -0.0149024 0.544 255 255 255
-1.10514 -0.950328 2.731 255 255 255
-0.16483 0.368504 1.498 255 255 255
0.187382 0.152309 0.736 255 255 255
-1.55376 -1.1303 2.996 255 255 255
-0.389274 0.466667 1.339 255 255 255
0.28873 0.130306 1.899 255 255 255
-0.170297 -0.92227 2.939 255 255 255
-0.146665 0.018995 1.893 255 255 255
-0.759715 -0.219241 2.078 255 255 255
0.227427 -0.0577582 0.574 255 255 255
-0.61792 0.277007 1.491 255 255 255
-0.0902355 0.25553 1.65 255 255 255
-0.532817 0.456439 1.322 255 255 255
-0.39974 0.441174 1.375 255 255 255
0.171553 0.204622 0.79 255 255 255
-0.996827 -0.0692988 2.044 255 255 255
0.251824 -0.108896 0.5 255 255 255
0.249565 0.371781 1.607 255 255 255
-0.923872 -0.872016 2.695 255 255 255
0.269385 0.251512 1.753 255 255 255
-0.641631 0.295236 1.473 255 255 255
-0.338865 0.317858 1.524 255 255 255
-0.676216 0.432448 1.308 255 255 255
0.370819 -0.0477484 2.121 255 255 255
-0.963082 -0.879781 2.719 255 255 255
-1.06285 -0.0389773 2.024 255 255 255
0.71308 -0.514793 2.731 255 255 255
-0.487408 0.253522 1.571 255 255 255
-1.49524 -1.1498 2.996 255 255 255
0.249539 0.332516 1.659 255 255 255
-0.693365 -0.120387 1.905 255 255 255
0.16652 -0.132864 2.158 255 255 255
0.302326 0.217134 0.66 255 255 255
0.81891 -0.539374 2.743 255 255 255
0.24817 0.117605 0.656 255 255 255
0.27362 0.303157 1.691 255 255 255
-0.127216 0.204078 1.714 255 255 255
0.000866811 0.433939 1.319 255 255 255
-0.082734 0.0285051 1.911 255 255 255
-0.419257 0.0724469 1.769 255 255 255
-0.429422 -0.750337 2.731 0 0 0
-0.263148 0.248871 1.607 255 255 255
0.265157 0.0390557 0.583 255 255 255
0.929513 -0.560221 2.78 255 255 255
-0.464288 0.381761 1.429 255 255 255
0.248351 -0.0975352 0.513 255 255 255
-0.297198 0.143964 1.729 255 255 255
0.0560839 -0.37304 2.392 255 255 255
-0.384023 -0.216159 2.114 255 255 255
-0.736033 0.340407 1.393 255 255 255
0.0429304 0.137558 1.831 255 255 255
-0.300447 0.273491 1.583 255 255 255
-0.526888 0.0856134 1.744 255 255 255
-0.933609 -0.0493412 2.044 255 255 255
-0.517649 -0.200289 2.057 255 255 255
0.208225 0.0476281 0.648 255 255 255
-1.15439 -0.670237 2.383 255 255 255
0.24619 0.100973 1.929 255 255 255
0.200991 0.210596 0.765 255 255 255
0.23898 0.0605619 0.629 255 255 255
0.29073 0.198382 1.815 255 255 255
0.0619457 0.346564 1.498 255 255 255
0.0370906 0.13203 1.837 255 255 255
0.232532 0.0395164 0.62 255 255 255
-0.661521 -0.614067 2.469 0 0 0
-0.0270878 0.374023 1.435 255 255 255
-0.0455715 0.318887 1.591 255 255 255
-0.490098 -0.100241 1.935 255 255 255
-0.586219 0.453771 1.302 255 255 255
0.0931427 0.101576 1.882 255 255 255
0.0540884 -0.475359 2.479 255 255 255
0.247886 0.177931 1.848 255 255 255
-0.593155 0.432252 1.327 255 255 255
0.247557 -0.0707136 0.531 255 255 255
0.409747 -0.332845 2.411 255 255 255
0.242934 0.242576 0.741 255 255 255
-0.0963323 0.462484 1.327 255 255 255
0.256179 -0.0764211 0.517 255 255 255
-1.19324 -0.83013 2.54 255 255 255
-0.315588 0.422276 1.409 255 255 255
-0.826843 0.0995526 1.646 255 255 255
-0.582684 0.272702 1.494 255 255 255
0.343512 -0.141897 2.189 255 255 255
0.215058 0.0113024 0.622 255 255 255
0.597534 -0.217068 2.347 255 255 255
0.709286 -0.269061 2.402 255 255 255
-0.0937356 0.212446 1.714 255 255 255
-0.558359 0.220502 1.591 255 255 255
-0.537144 0.494398 1.281 255 255 255
0.114152 0.463924 1.289 255 255 255
-0.23339 0.455323 1.384 255 255 255
-0.259296 0.473531 1.378 255 255 255
-1.12371 -0.887307 2.649 255 255 255
0.316217 0.206517 0.634 255 255 255
0.437521 -0.40598 2.55 255 255 255
-0.91223 -0.127508 2.071 255 255 255
-0.044822 0.471334 1.275 255 255 255
-0.698158 0.387387 1.359 255 255 255
-0.428868 0.230858 1.591 255 255 255
-0.212863 -0.227682 2.158 255 255 255
-0.479121 0.415228 1.378 255 255 255
-0.775203 -0.376422 2.294 255 255 255
-0.0142529 0.0408159 1.905 255 255 255
0.182444 -0.615993 2.707 255 255 255
-0.553354 -0.123042 1.947 255 255 255
0.223613 0.257082 0.77 255 255 255
0.642264 -0.486079 2.695 255 255 255
-0.730486 0.0998168 1.696 255 255 255
-0.268146 0.0844365 1.779 255 255 255
0.243462 0.0709103 0.63 255 255 255
0.301637 0.194958 0.647 255 255 255
-0.260387 0.376736 1.473 255 255 255
-0.156316 0.335306 1.559 255 255 255
0.235719 0.0651702 0.634 255 255 255
-0.130208 -0.00886811 1.923 255 255 255
0.0158244 0.149792 1.799 255 255 255
0.388873 0.133818 1.905 255 255 255
-0.803563 -0.0845007 2.01 255 255 255
0.23945 -0.0635921 0.544 255 255 255
0.176898 0.163951 0.774 255 255 255
0.247548 0.197801 0.706 255 255 255
-0.199512 -0.19335 2.128 255 255 255
0.248383 -0.157751 0.49 255 255 255
-0.747839 0.267903 1.442 255 255 255
0.68549 -0.374849 2.593 255 255 255
0.278937 -0.40112 2.469 255 255 255
-0.236623 0.287094 1.587 255 255 255
0.362042 -0.728735 2.911 255 255 255
0.377654 0.204965 1.821 255 255 255
-0.597414 -0.0235588 1.848 255 255 255
-0.193729 -0.513445 2.449 0 0 0
0.256882 0.226236 0.716 255 255 255
0.0351399 0.437235 1.316 255 255 255
-0.221079 0.437393 1.406 255 255 255
-0.387008 0.165566 1.691 255 255 255
-0.0367052 -0.158721 2.128 255 255 255
0.294824 0.157552 0.628 255 255 255
0.672972 -0.551863 2.695 255 255 255
-0.644627 0.475484 1.275 255 255 255
-0.970202 -0.0922656 2.037 255 255 255
0.40276 -0.352731 2.44 255 255 255
-1.21144 -0.84116 2.561 255 255 255
0.217417 -0.029421 0.606 255 255 255
0.222516 0.138368 0.696 255 255 255
0.225809 0.0672461 0.644 255 255 255
-0.869456 -0.267299 2.166 255 255 255
-0.624139 0.298441 1.477 255 255 255
0.303215 0.270106 0.694 255 255 255
-0.219974 -0.152631 2.092 255 255 255
-0.988179 -0.531556 2.303 255 255 255
-0.0787537 0.447834 1.322 255 255 255
0.256606 0.215703 0.712 255 255 255
-0.172195 -0.354261 2.32 255 255 255
0.209812 0.252825 0.784 255 255 255
0.260549 -0.0743048 0.514 255 255 255
0.278443 0.0689361 0.587 255 255 255
-0.0521432 -0.363592 2.356 255 255 255
-0.42265 -0.0209852 1.887 255 255 255
0.0470799 -0.723084 2.78 255 255 255
-0.026092 -0.438282 2.43 255 255 255
0.224774 0.102517 0.669 255 255 255
-0.434047 0.233447 1.591 255 255 255
-0.265505 0.447282 1.387 255 255 255
0.307714 0.146839 0.609 255 255 255
0.266614 0.0111663 0.564 255 255 255
-0.538274 0.129102 1.682 255 255 255
-1.09471 -0.803652 2.561 255 255 255
-0.199951 0.301827 1.583 255 255 255
-0.437433 -0.117064 1.953 255 255 255
-0.424688 0.0941276 1.744 255 255 255
-0.499691 -0.0116356 1.865 255 255 255
-0.791105 -0.371389 2.286 255 255 255
-0.529141 0.366006 1.422 255 255 255
-0.672773 -0.214177 2.03 0 0 0
-0.0878058 0.155402 1.763 255 255 255
0.0542052 -0.0589137 2.03 255 255 255
0.101749 0.066443 1.929 255 255 255
-0.223006 -0.383642 2.338 255 255 255
-0.584258 0.217913 1.591 255 255 255
0.589485 -0.391061 2.561 255 255 255
-1.24778 -0.947076 2.684 255 255 255
-0.261404 0.407849 1.439 255 255 255
-0.215719 -0.651511 2.672 255 255 255
-0.600864 0.164797 1.629 255 255 255
-0.53037 -0.7057 2.615 255 255 255
-0.423038 0.3424 1.48 255 255 255
-1.01255 -1.13472 2.982 255 255 255
0.219286 -0.0214251 0.603 255 255 255
-0.130111 0.15452 1.753 255 255 255
-1.01662 -0.161878 2.037 255 255 255
0.134791 0.47113 1.247 255 255 255
-0.318371 -0.11686 2.004 255 255 255
-0.139105 -0.717375 2.793 255 255 255
-0.557421 0.283183 1.498 255 255 255
-1.00668 -0.128729 2.037 255 255 255
0.239405 0.308364 0.789 255 255 255
-0.730923 0.0151242 1.799 255 255 255
-1.45913 -1.14928 2.982 255 255 255
0.272491 0.16722 0.658 255 255 255
-0.700906 -0.384464 2.32 255 255 255
0.240186 0.219667 0.729 255 255 255
-0.342182 0.477444 1.351 255 255 255
0.256982 0.0833022 0.623 255 255 255
-0.621976 -0.575089 2.44 0 0 0
-0.571089 0.404015 1.378 255 255 255
-0.185001 0.25024 1.633 255 255 255
0.233357 0.0653758 0.636 255 255 255
-0.237406 0.168797 1.724 255 255 255
-0.475973 0.131558 1.714 255 255 255
-0.846396 -0.842833 2.672 255 255 255
0.514875 -0.477782 2.649 255 255 255
0.0296028 0.196748 1.748 255 255 255
-0.736291 0.144715 1.612 255 255 255
-0.901188 -0.288447 2.166 255 255 255
0.197867 0.0937897 0.693 255 255 255
0.539423 -0.0266693 2.092 255 255 255
-0.36399 0.200238 1.637 255 255 255
0.239113 -0.0966979 0.522 255 255 255
0.0955908 0.195013 1.758 255 255 255
0.315161 0.25711 0.669 255 255 255
-0.202179 -0.0535009 1.953 255 255 255
0.269345 0.0537437 0.588 255 255 255
-0.228157 -0.446999 2.392 0 0 0
-0.145646 -0.19894 2.151 255 255 255
0.517689 -0.0691679 2.143 255 255 255
0.470358 -0.0945838 2.166 255 255 255
0.298948 0.180069 0.639 255 255 255
0.0808313 -0.286303 2.32 255 255 255
-0.372598 0.265762 1.583 255 255 255
-1.27358 -0.761778 2.519 255 255 255
0.0215077 0.475686 1.27 255 255 255
0.104871 -0.412291 2.44 255 255 255
-0.677087 -0.401115 2.329 255 255 255
-0.570255 0.446818 1.319 255 255 255
-0.45669 0.419712 1.378 255 255 255
-0.0155156 0.369575 1.445 255 255 255
0.242992 -0.0573953 0.544 255 255 255
-0.656413 -1.09617 2.996 255 255 255
0.239843 0.187726 0.707 255 255 255
-0.669029 0.452381 1.286 255 255 255
0.262112 0.0685466 0.609 255 255 255
-0.677063 0.0147796 1.758 255 255 255
0.238399 0.356335 1.62 255 255 255
-0.197769 0.443309 1.403 255 255 255
-0.0510293 -0.0517914 2.01 255 255 255
-0.748122 0.168296 1.587 255 255 255
0.199648 0.147469 0.724 255 255 255
0.0796388 0.453734 1.308 255 255 255
-0.60861 -0.169549 1.972 255 255 255
-0.352938 0.239825 1.599 255 255 255
-0.616145 0.4289 1.33 255 255 255
-0.0660988 0.402256 1.372 255 255 255
0.406338 -0.585901 2.731 255 255 255
-0.370927 -0.564346 2.572 255 255 255
-0.242525 0.305428 1.575 255 255 255
0.325367 -0.187038 2.261 255 255 255
0.314657 -0.771369 2.911 255 255 255
0.262431 -0.00439724 0.559 255 255 255
0.212607 0.0641311 0.655 255 255 255
0.229759 -0.747761 2.857 255 255 255
-0.28792 0.151964 1.724 255 255 255
-0.180359 -0.48969 2.43 0 0 0
-0.372617 0.0530348 1.794 255 255 255
0.183671 0.198471 0.776 255 255 255
0.29436 0.120476 0.606 255 255 255
-0.217947 0.134167 1.748 255 255 255
0.226634 -0.0370786 0.572 255 255 255
-0.0589208 -0.208813 2.181 255 255 255
-0.325929 0.230565 1.607 255 255 255
-0.182755 0.45375 1.393 255 255 255
-0.609594 0.161649 1.624 255 255 255
0.221516 0.140302 0.7 255 255 255
-0.187716 0.126352 1.758 255 255 255
-0.767769 0.0302915 1.831 255 255 255
0.028717 0.342795 1.547 255 255 255
0.166125 0.249197 0.827 255 255 255
-0.15119 0.513759 1.354 255 255 255
0.213014 0.0331867 0.634 255 255 255
-0.793229 -0.13403 2.017 255 255 255
0.583 -0.128167 2.261 255 255 255
-0.942389 -0.712201 2.489 255 255 255
-0.885135 -0.776628 2.582 255 255 255
0.247435 0.270292 0.751 255 255 255
0.382901 -0.364643 2.44 255 255 255
0.301846 0.170897 0.632 255 255 255
0.250196 0.172605 0.688 255 255 255
-0.841657 -0.261228 2.204 255 255 255
-0.637863 -0.563177 2.44 0 0 0
0.244329 -0.133287 0.503 255 255 255
-1.10107 -0.990214 2.743 255 255 255
-0.652405 0.32108 1.449 255 255 255
0.226098 -0.0390084 0.573 255 255 255
-1.10224 -0.313683 2.099 255 255 255
0.130763 -0.232008 2.269 255 255 255
-0.510773 0.373679 1.416 255 255 255
-0.664792 -0.903044 2.805 255 255 255
-0.251529 -0.073053 1.966 255 255 255
0.295642 0.0966382 0.587 255 255 255
0.882011 -0.528126 2.731 255 255 255
-0.801943 -0.999045 2.871 255 255 255
-0.79796 0.124343 1.62 255 255 255
-0.428134 -0.255683 2.128 255 255 255
0.282468 0.264779 0.71 255 255 255
0.230906 -0.0464905 0.562 255 255 255
0.145741 0.337047 1.616 255 255 255
0.282217 0.0653951 0.581 255 255 255
-0.931298 -1.06068 2.925 255 255 255
0.0830263 -0.356125 2.383 255 255 255
0.283192 0.152867 0.634 255 255 255
-0.679827 -0.520958 2.392 0 0 0
-0.939586 0.0357242 1.966 255 255 255
-0.320891 0.339251 1.498 255 255 255
0.263848 -0.0373617 0.536 255 255 255
-0.875147 -0.154469 2.071 255 255 255
-0.166801 0.245525 1.637 255 255 255
0.302736 0.147285 0.615 255 255 255
0.265572 0.219528 0.702 255 255 255
0.252114 0.300548 0.769 255 255 255
-0.0892348 0.0129967 1.917 255 255 255
0.2277 0.103451 0.668 255 255 255
0.234501 -0.0802579 0.549 255 255 255
-0.309341 0.231856 1.616 255 255 255
0.869853 -0.497053 2.707 255 255 255
-0.0823903 0.381321 1.463 255 255 255
0.243183 -0.095957 0.518 255 255 255
-0.513876 0.416971 1.369 255 255 255
0.812569 -0.510269 2.707 255 255 255
-0.0139537 0.0976233 1.865 255 255 255
-0.26238 -0.709187 2.66 0 0 0
0.192058 0.153653 0.731 255 255 255
-0.882251 -0.32357 2.189 255 255 255
-0.517063 -1.00356 2.925 255 255 255
-0.890832 -0.210505 2.092 255 255 255
-0.156658 -0.213635 2.158 255 255 255
0.248651 -0.0760395 0.526 255 255 255
-0.56648 -0.0298454 1.865 255 255 255
-0.586055 0.196079 1.603 255 255 255
-1.3129 -1.07296 2.844 255 255 255
-1.47378 -1.10927 2.953 255 255 255
0.110899 -0.790318 2.911 255 255 255
-1.12812 -0.462497 2.189 255 255 255
0.104948 0.456941 1.305 255 255 255
-0.16272 -0.113256 2.057 255 255 255
0.25747 0.209882 0.708 255 255 255
-0.0193244 0.398153 1.381 255 255 255
-0.297532 0.244417 1.595 255 255 255
-0.830301 -0.888631 2.719 255 255 255
0.149549 0.348194 0.906 255 255 255
-0.0503948 -0.147844 2.121 255 255 255
-0.562311 0.392261 1.384 255 255 255
-0.693468 0.291447 1.466 255 255 255
0.232455 0.234538 0.75 255 255 255
-0.743455 0.250879 1.48 255 255 255
-0.270604 0.441463 1.39 255 255 255
0.297641 0.168343 0.634 255 255 255
0.284477 0.195264 0.666 255 255 255
0.307481 0.205169 0.646 255 255 255
-0.663054 -1.07649 2.982 255 255 255
-0.580637 0.097858 1.71 255 255 255
-1.09998 -0.310067 2.121 255 255 255
0.279958 0.185753 0.663 255 255 255
-0.323213 -0.194131 2.099 255 255 255
0.467491 -0.027039 2.121 255 255 255
-0.183824 -0.153725 2.107 255 255 255
-0.908859 -0.117397 2.071 255 255 255
-0.540677 -0.12621 1.947 255 255 255
-0.339162 -0.186675 2.092 255 255 255
-0.0328124 0.4004 1.381 255 255 255
0.135239 -0.808398 2.925 255 255 255
-0.360102 -0.603569 2.615 255 255 255
-0.814466 -0.178061 2.071 255 255 255
-0.508702 0.298844 1.491 255 255 255
0.226509 -0.593967 2.707 255 255 255
0.438019 -0.54551 2.707 255 255 255
-0.113999 -0.493519 2.449 255 255 255
-0.0375831 -0.0383418 1.991 255 255 255
-0.0184149 0.435093 1.316 255 255 255
-0.168074 0.518063 1.348 255 255 255
-0.271082 0.157575 1.724 255 255 255
0.211982 0.0125521 0.634 255 255 255
-0.415248 0.50246 1.291 255 255 255
-0.718648 0.185435 1.579 255 255 255
0.740929 -0.539079 2.719 255 255 255
-0.434945 -0.351362 2.253 0 0 0
-0.489426 0.192886 1.62 255 255 255
0.243656 -0.131352 0.505 255 255 255
-0.69071 0.369572 1.375 255 255 255
-0.841951 -0.153947 2.064 255 255 255
-0.705453 0.225817 1.539 255 255 255
-0.438313 -0.777003 2.731 255 255 255
0.123982 0.389961 1.4 255 255 255
-0.528486 0.345373 1.452 255 255 255
0.0563297 0.257134 1.696 255 255 255
-0.188335 0.333586 1.551 255 255 255
-0.256926 0.351564 1.509 255 255 255
-0.598723 -0.53419 2.509 255 255 255
0.195519 -0.344491 2.383 255 255 255
-0.969488 -1.0556 2.911 255 255 255
0.216069 0.215316 1.784 255 255 255
0.28336 0.0319898 0.559 255 255 255
-0.470223 0.029944 1.81 255 255 255
-0.711817 0.0940189 1.691 255 255 255
-0.41793 -0.579842 2.604 255 255 255
0.486358 -0.590345 2.731 255 255 255
0.252877 -0.0260887 0.556 255 255 255
-0.287056 0.12314 1.753 255 255 255
0.743502 -0.376439 2.604 255 255 255
-0.323266 -1.0037 2.982 255 255 255
0.294096 0.14142 0.62 255 255 255
-0.0656477 -0.458054 2.43 255 255 255
0.276955 0.270578 1.729 255 255 255
-0.341764 0.387905 1.452 255 255 255
-0.410222 0.392944 1.419 255 255 255
-0.410196 -0.528724 2.582 255 255 255
-0.374369 -0.317315 2.22 255 255 255
-0.477534 0.394812 1.393 255 255 255
0.230631 -0.0279159 0.575 255 255 255
-0.306447 0.0366863 1.853 255 255 255
-0.439937 0.261856 1.575 255 255 255
-0.844236 0.0934515 1.633 255 255 255
0.00740223 0.428661 1.336 255 255 255
0.277923 0.0724135 0.592 255 255 255
0.253264 0.0940585 0.634 255 255 255
0.266346 0.181426 0.675 255 255 255
0.0654986 -0.289078 2.312 255 255 255
-0.430994 0.173232 1.659 255 255 255
-0.780513 -0.947996 2.844 255 255 255
0.599836 -0.147083 2.269 255 255 255
-0.723045 0.178176 1.583 255 255 255
-0.846772 -0.957673 2.818 255 255 255
-0.101567 -0.297419 2.261 255 255 255
-0.477362 0.126347 1.719 255 255 255
-0.417496 -0.851524 2.831 255 255 255
-0.615249 0.128027 1.668 255 255 255
0.249924 0.123822 0.655 255 255 255
0.253785 -0.0198973 0.56 255 255 255
0.0482965 -0.376933 2.392 255 255 255
-0.757423 -0.894635 2.793 255 255 255
-0.0585469 -0.072625 2.044 255 255 255
0.088421 0.471468 1.281 255 255 255
0.226358 0.182722 0.719 255 255 255
0.609542 -0.191918 2.32 255 255 255
-0.330015 0.140742 1.724 255 255 255
0.218922 -0.00277618 0.602 255 255 255
-0.341911 0.352765 1.473 255 255 255
-0.00995703 -0.348256 2.356 255 255 255
0.214103 -0.327737 2.374 255 255 255
0.835289 -0.49485 2.695 255 255 255
-0.423767 0.292675 1.535 255 255 255
-0.833974 -0.432049 2.312 255 255 255
-0.151527 0.21133 1.705 255 255 255
0.260997 -0.0553906 0.525 255 255 255
0.145919 -0.106074 2.114 255 255 255
-0.747611 0.208456 1.559 255 255 255
0.807465 -0.657677 2.911 255 255 255
-0.434886 -0.643406 2.604 0 0 0
-0.231746 0.355531 1.505 255 255 255
0.298603 0.254713 0.686 255 255 255
-0.695621 0.0703992 1.719 255 255 255
-0.242003 0.481578 1.369 255 255 255
0.514875 -0.473471 2.649 255 255 255
-1.13414 -0.505176 2.236 255 255 255
0.0134636 -0.430374 2.43 255 255 255
-0.210417 0.447912 1.396 255 255 255
-0.888689 -0.6452 2.42 255 255 255
0.611555 -0.512392 2.695 255 255 255
0.193492 0.186958 0.76 255 255 255
-0.296134 0.473702 1.372 255 255 255
-0.99647 -0.176857 2.057 255 255 255
0.161677 0.373728 1.452 255 255 255
-1.03784 -0.335451 2.107 255 255 255
-0.144759 -0.48969 2.43 0 0 0
0.45141 -0.0587058 2.143 255 255 255
-0.317194 0.481773 1.357 255 255 255
-0.611026 0.425529 1.333 255 255 255
0.208541 0.0645228 0.659 255 255 255
0.37687 0.0807605 1.972 255 255 255
-0.85165 0.0764361 1.729 255 255 255
0.221409 0.16635 1.853 255 255 255
0.288379 0.204711 0.665 255 255 255
0.406635 -0.746519 2.925 255 255 255
0.524678 -0.631018 2.793 255 255 255
0.871432 -0.557803 2.768 255 255 255
0.319844 0.15364 1.882 255 255 255
0.361883 -0.61701 2.731 255 255 255
-0.896504 -0.330695 2.189 255 255 255
-0.475404 -0.0116356 1.865 255 255 255
0.185717 0.199219 0.774 255 255 255
0.360712 -0.0621931 2.143 255 255 255
-0.246334 0.291523 1.583 255 255 255
-0.84052 -0.872016 2.695 255 255 255
-0.758628 -1.01295 2.884 255 255 255
0.221204 0.214789 0.745 255 255 255
0.0483246 0.393111 1.387 255 255 255
-0.572489 0.352268 1.432 255 255 255
-0.588664 0.196079 1.603 255 255 255
-0.0111488 -0.587413 2.638 0 0 0
0.0340759 0.416137 1.359 255 255 255
-0.259653 -0.0972932 2.004 255 255 255
-1.06647 -0.424341 2.158 255 255 255
-0.593752 0.35294 1.416 255 255 255
0.224755 0.0696651 0.647 255 255 255
-0.895796 -0.34962 2.196 255 255 255
-0.195311 -0.529692 2.469 0 0 0
-0.765813 0.233074 1.505 255 255 255
0.266023 0.108843 0.63 255 255 255
0.288388 -0.019927 2.099 255 255 255
0.189563 0.119522 0.726 255 255 255
-0.0841827 -0.917487 2.939 255 255 255
0.212223 0.137103 0.707 255 255 255
-0.216615 0.364599 1.502 255 255 255
0.206892 0.107323 0.693 255 255 255
0.0534811 0.337638 1.535 255 255 255
0.587214 -0.519037 2.684 255 255 255
0.321294 0.219928 0.64 255 255 255
-0.561351 -0.0582022 1.899 255 255 255
-0.399012 0.140334 1.719 255 255 255
0.277474 0.069171 0.589 255 255 255
-0.0495394 -0.101226 2.085 255 255 255
0.235725 0.143984 0.685 255 255 255
0.145857 0.290715 0.875 255 255 255
0.172339 -0.124966 2.143 255 255 255
-1.19794 -0.845847 2.55 255 255 255
-0.21611 0.520975 1.333 255 255 255
-0.179617 -0.47586 2.42 0 0 0
-0.606963 0.0236412 1.779 255 255 255
-0.40404 0.205558 1.616 255 255 255
-0.490267 0.153279 1.677 255 255 255
-0.821578 -0.652862 2.479 255 255 255
0.725359 -0.378029 2.615 255 255 255
-0.457357 -0.89009 2.793 255 255 255
-0.247263 0.420114 1.425 255 255 255
-0.652521 0.268556 1.498 255 255 255
0.454681 -0.390444 2.53 255 255 255
-0.6313 0.426736 1.33 255 255 255
-0.105978 0.124967 1.779 255 255 255
-0.595143 -0.984541 2.911 255 255 255
-0.447776 -1.03227 2.939 255 255 255
0.128596 -0.33804 2.365 255 255 255
0.211188 0.242356 0.775 255 255 255
0.299571 0.100973 1.929 255 255 255
-0.265708 0.269695 1.591 255 255 255
0.405068 0.110047 1.923 255 255 255
-0.46442 -0.0301175 1.882 255 255 255
-0.656868 -0.417884 2.338 255 255 255
-0.0853385 0.498067 1.324 255 255 255
-0.508077 -0.353441 2.22 0 0 0
-0.35451 0.124628 1.734 255 255 255
-0.631726 0.367609 1.393 255 255 255
-0.0316858 0.120073 1.837 255 255 255
-0.848702 -0.359969 2.261 255 255 255
-0.926791 -0.089562 2.051 255 255 255
-0.692071 -0.192012 1.972 0 0 0
0.259647 -0.0612542 0.524 255 255 255
-0.603034 0.407291 1.359 255 255 255
-1.35101 -0.941976 2.707 255 255 255
0.29345 -0.260884 2.329 255 255 255
-0.844406 0.074126 1.81 255 255 255
-0.127518 0.286371 1.612 255 255 255
-0.0865381 -0.285368 2.253 255 255 255
0.221075 0.293333 0.797 255 255 255
-0.835027 -0.256706 2.196 255 255 255
-0.544208 0.462248 1.308 255 255 255
0.215658 0.260073 1.734 255 255 255
-1.00004 -0.105525 2.037 255 255 255
-1.03093 -0.306616 2.121 255 255 255
-0.39261 0.241215 1.591 255 255 255
0.122831 0.408911 1.387 255 255 255
-0.421785 0.356535 1.459 255 255 255
-0.651477 0.430092 1.327 255 255 255
0.184346 0.177831 0.758 255 255 255
0.616338 -0.41034 2.604 255 255 255
0.0965796 0.134579 1.831 255 255 255
-1.23258 -0.761778 2.519 255 255 255
0.0882925 0.160156 1.784 255 255 255
-0.423462 0.470023 1.33 255 255 255
-0.0549465 0.351428 1.563 255 255 255
0.263533 -0.177692 2.236 255 255 255
-0.366117 -0.0748172 1.929 255 255 255
-0.164561 0.401205 1.432 0 0 0
-0.337747 -0.951848 2.898 255 255 255
0.232014 0.0666196 0.638 255 255 255
-0.501201 0.112687 1.724 255 255 255
-0.209871 0.419558 1.439 255 255 255
-0.0176593 0.491173 1.262 255 255 255
-0.606734 -0.46232 2.411 255 255 255
0.461313 -0.369393 2.499 255 255 255
0.0233337 0.489227 1.257 255 255 255
0.268263 -0.00075446 0.556 255 255 255
0.259541 -0.0523692 0.529 255 255 255
-0.0748045 0.288097 1.607 255 255 255
-0.320382 0.111411 1.748 255 255 255
0.311901 0.224025 1.784 255 255 255
0.403459 -0.285241 2.374 255 255 255
-0.0461579 0.436238 1.313 255 255 255
0.172561 0.316518 1.646 255 255 255
0.14973 0.363628 1.498 255 255 255
-0.317892 0.352985 1.484 255 255 255
0.0556163 0.446772 1.294 255 255 255
-0.211103 0.069253 1.837 255 255 255
0.258372 -0.0816736 0.513 255 255 255
0.0278835 0.395905 1.381 255 255 255
-0.457984 -0.161322 2.03 255 255 255
-0.0445736 0.0798818 1.876 255 255 255
-0.200409 0.109871 1.769 255 255 255
-0.949313 -0.188171 2.071 255 255 255
-0.372446 0.3424 1.48 255 255 255
-0.338818 -0.599313 2.615 255 255 255
0.0157879 0.435242 1.31 255 255 255
0.185237 0.194935 0.772 255 255 255
-0.482933 -0.809821 2.707 255 255 255
-1.03957 -0.124983 2.03 255 255 255
-0.722283 0.25517 1.491 255 255 255
-0.169514 0.452456 1.396 255 255 255
0.862462 -0.484095 2.684 255 255 255
-1.02083 -0.395465 2.173 0 0 0
0.279759 0.166245 0.65 255 255 255
-0.434442 0.252882 1.583 255 255 255
-0.501138 -0.0873737 1.929 255 255 255
0.469727 -0.362403 2.479 255 255 255
0.172128 0.323403 0.871 255 255 255
0.602781 -0.556249 2.695 255 255 255
0.616537 -0.296655 2.469 255 255 255
-1.13143 -0.573234 2.32 255 255 255
-0.548487 0.300462 1.487 255 255 255
0.247388 -0.120132 0.496 255 255 255
-1.23336 -0.570627 2.356 255 255 255
0.307354 0.184727 1.826 255 255 255
-0.251384 0.18977 1.686 255 255 255
-0.257029 0.445987 1.39 255 255 255
0.195038 0.207229 0.771 255 255 255
-0.643373 0.293634 1.477 255 255 255
-0.253786 0.40361 1.449 255 255 255
-0.560105 -0.511724 2.519 255 255 255
-0.519496 0.398486 1.39 255 255 255
0.24083 0.022544 0.598 255 255 255
-0.30482 0.4431 1.381 255 255 255
-0.441046 0.284157 1.543 255 255 255
0.239113 -0.094999 0.522 255 255 255
0.218196 0.0795365 0.659 255 255 255
0.00149704 -0.284827 2.278 255 255 255
-0.459181 -1.07649 2.982 255 255 255
-0.807867 -0.662196 2.499 255 255 255
-0.509318 0.433474 1.351 255 255 255
0.188668 0.21373 0.781 255 255 255
-0.759368 -0.324318 2.269 255 255 255
-0.475538 0.00649313 1.842 255 255 255
0.27094 -0.0122692 0.545 255 255 255
-0.186798 -0.446626 2.411 255 255 255
-0.749064 -0.36149 2.294 255 255 255
0.266934 -0.0403935 0.53 255 255 255
0.236738 -0.0973174 0.53 255 255 255
-0.577848 0.419941 1.357 255 255 255
-0.131474 -0.305856 2.269 255 255 255
-0.60759 0.328154 1.449 255 255 255
0.764975 -0.408809 2.649 255 255 255
0.307208 0.14264 0.608 255 255 255
-0.727341 -0.410892 2.32 255 255 255
-0.427789 0.240608 1.587 255 255 255
0.316925 -0.0405757 2.107 255 255 255
0.248172 0.0174418 0.59 255 255 255
0.0679183 0.379089 1.419 255 255 255
0.274531 -0.378966 2.43 255 255 255
0.0460077 0.307002 1.624 255 255 255
0.13521 0.463286 1.27 255 255 255
0.220726 0.312617 0.81 255 255 255
-0.715209 0.0731966 1.719 255 255 255
-0.00545412 -0.115568 2.099 255 255 255
-0.459944 0.280915 1.539 255 255 255
0.0909636 0.340776 1.494 255 255 255
0.335155 -0.501409 2.66 255 255 255
0.099824 -0.0257132 2.017 255 255 255
0.170007 -0.0854327 2.114 255 255 255
0.131743 -0.248627 2.286 255 255 255
-0.77198 -0.738582 2.626 255 255 255
-0.850965 -0.474955 2.338 0 0 0
-0.918696 -0.171899 2.078 255 255 255
