ply
format ascii 1.0
comment Created by Open3D
element vertex 1319
property double x
property double y
property double z
property uchar red
property uchar green
property uchar blue
end_header
0.621783 0.265029 1.935 255 255 255
-0.379792 0.298755 0.784 255 255 255
-0.00142683 0.143928 1.47 255 255 255
-0.224138 0.096682 2.037 255 255 255
-0.387661 0.260133 0.757 0 0 0
-0.710597 -0.568171 1.997 255 255 255
0.137561 0.222315 1.947 255 255 255
-0.236211 0.020448 0.887 255 255 255
0.0672616 -0.289538 1.237 0 0 0
0.406641 -0.431316 1.333 255 255 255
-1.01079 -0.0772046 2.392 255 255 255
-0.663407 -0.713868 1.917 255 255 255
-0.368272 0.156204 1.876 255 255 255
-0.14954 0.516954 1.595 255 255 255
0.443365 0.303585 0.951 255 255 255
-0.292351 0.220389 1.017 0 0 0
-0.347088 0.293183 0.989 255 255 255
-0.200931 -0.0384515 2.181 255 255 255
-0.941912 -0.513494 2.092 255 255 255
0.272112 -0.327691 1.4 255 255 255
-0.69896 -0.655554 1.929 255 255 255
-0.183105 0.114942 1.953 255 255 255
-0.347316 -0.247939 2.121 255 255 255
0.388962 -0.477169 1.31 255 255 255
0.00632306 0.352825 1.616 255 255 255
0.598916 -0.199647 1.254 255 255 255
-0.237933 -0.0477297 0.842 0 0 0
-0.583818 -0.542173 1.997 255 255 255
0.325599 -0.170122 1.247 255 255 255
-0.193321 0.54241 1.571 255 255 255
-0.353167 0.201703 0.917 255 255 255
-0.0474047 0.469069 1.655 255 255 255
-0.266326 0.0302802 2.03 255 255 255
-0.260923 -0.0463044 0.841 0 0 0
0.541854 0.289163 1.887 255 255 255
-1.02592 -0.698162 1.997 255 255 255
0.103773 0.302045 1.853 0 0 0
-1.00642 -0.676539 2.01 255 255 255
-0.304762 -0.298811 2.044 255 255 255
0.568487 -0.288796 1.336 255 255 255
0.294754 -0.306844 1.378 255 255 255
-0.31553 -0.275796 2.071 255 255 255
0.525776 -0.269574 1.327 255 255 255
-0.201668 -0.077777 2.189 255 255 255
-0.183422 -0.468883 1.923 255 255 255
0.288753 -0.484955 1.291 255 255 255
0.238515 0.283921 1.893 255 255 255
-0.358301 0.250519 0.889 255 255 255
0.321856 -0.0428349 2.051 255 255 255
-0.655 -0.734032 1.929 255 255 255
-0.146661 -0.0522863 2.166 255 255 255
0.150336 0.302701 0.958 255 255 255
-0.370968 -0.371642 2.024 255 255 255
-0.303505 -0.103416 2.204 255 255 255
0.0688928 -0.154294 1.267 255 255 255
-0.232664 0.174795 0.975 255 255 255
0.487211 -0.264256 1.322 255 255 255
0.0263409 -0.396795 1.419 0 0 0
-0.241399 0.214427 1.753 255 255 255
0.34121 -0.378622 1.403 255 255 255
0.15346 0.348867 1.799 255 255 255
0.516696 -0.467334 1.283 255 255 255
-0.237426 0.174795 0.975 0 0 0
-1.04414 -0.334189 2.286 255 255 255
0.488999 0.166258 1 255 255 255
0.104769 -0.394618 1.387 255 255 255
0.023015 -0.318094 1.359 255 255 255
0.0149184 -0.534972 1.696 0 0 0
0.0917964 -0.0823249 1.27 255 255 255
0.547884 -0.189443 1.254 255 255 255
-0.473419 0.145371 0.91 255 255 255
0.22207 0.296465 0.958 255 255 255
-0.637942 -0.401847 2.078 255 255 255
-0.34898 0.149371 1.018 255 255 255
-0.762531 -0.709197 1.947 255 255 255
-0.362643 0.296813 0.889 0 0 0
-0.319806 -0.527049 1.953 255 255 255
0.469485 0.0962456 0.983 255 255 255
0.420903 -0.184929 1.265 255 255 255
0.547169 -0.460352 1.281 0 0 0
-0.799209 -0.628024 1.991 255 255 255
0.475916 -0.00899992 0.948 255 255 255
-0.144842 -0.559677 1.831 255 255 255
-0.943115 0.0721104 2.312 0 0 0
0.616273 -0.174631 1.208 255 255 255
-0.213013 0.123419 0.958 255 255 255
0.303775 0.248949 1.012 255 255 255
0.383252 -0.108118 1.169 255 255 255
0.203569 -0.0451145 2.004 255 255 255
-0.0611829 -0.219057 1.362 0 0 0
-0.387226 0.286373 0.742 255 255 255
0.018358 -0.0345791 1.342 255 255 255
0.180208 -0.358073 1.412 255 255 255
-0.0409263 -0.124925 1.283 255 255 255
0.0730833 -0.190777 1.305 0 0 0
0.32419 -0.235496 1.342 255 255 255
-0.194016 0.132776 1.935 255 255 255
0.397901 -0.0644555 1.997 255 255 255
-0.298123 0.245792 1.055 255 255 255
-0.0471918 -0.160419 1.283 255 255 255
0.371516 -0.0565412 1.205 255 255 255
0.430361 0.297677 0.967 255 255 255
0.283036 -0.384827 1.409 0 0 0
-1.24962 -0.241699 2.402 255 255 255
-0.466012 0.137967 0.91 255 255 255
-0.0181034 -0.501637 1.686 0 0 0
0.0653079 0.339292 0.969 0 0 0
-0.261732 0.272293 0.995 0 0 0
0.0577579 0.342891 1.739 255 255 255
-1.25437 -0.265924 2.374 255 255 255
0.649794 -0.35087 1.439 255 255 255
-0.159795 0.498694 1.62 255 255 255
-0.649832 -0.681679 1.923 255 255 255
0.322249 -0.375534 1.4 0 0 0
-0.348865 0.212054 0.95 255 255 255
-0.194843 0.16635 1.853 255 255 255
-0.0400872 0.522046 1.579 255 255 255
0.125119 -0.165241 1.339 255 255 255
0.393044 0.290844 0.992 255 255 255
0.473724 0.025571 0.972 255 255 255
-0.0337293 0.164095 1.524 255 255 255
-0.456163 0.0420312 0.917 255 255 255
0.561147 -0.256553 1.294 255 255 255
-0.411025 -0.689441 1.876 255 255 255
-0.108703 0.107358 1.876 255 255 255
-0.204356 0.298434 1.041 0 0 0
-0.11045 -0.651797 1.758 255 255 255
0.0884573 -0.140243 1.252 255 255 255
0.501135 -0.426786 1.319 255 255 255
0.025023 -0.229968 1.348 255 255 255
-0.222691 0.178881 0.98 255 255 255
-0.330261 0.300892 1.032 255 255 255
-0.46606 -0.356574 2.051 255 255 255
-0.402162 0.227472 0.798 255 255 255
0.270544 -0.434053 1.369 0 0 0
0.526964 -0.400045 1.33 255 255 255
-0.977938 -0.352168 2.212 255 255 255
-0.129801 -0.305201 1.917 255 255 255
-0.662462 -0.26915 2.181 255 255 255
0.429638 0.0433655 2.024 255 255 255
-0.103951 -0.545448 1.794 255 255 255
0.164119 -0.489047 1.412 0 0 0
-0.209894 0.114065 0.958 255 255 255
-0.240778 -0.0713075 0.862 255 255 255
-1.14653 -0.320282 2.32 255 255 255
-0.294739 0.337472 0.921 0 0 0
-0.178466 -0.397394 1.972 255 255 255
-0.155356 0.533539 1.575 255 255 255
0.296471 0.0852311 1.004 255 255 255
0.479219 0.087978 0.98 255 255 255
0.506907 -0.355553 1.439 0 0 0
0.260661 0.26983 0.986 255 255 255
0.691839 0.243083 1.911 255 255 255
-0.374452 0.000583492 2.158 0 0 0
0.185885 0.137198 2.099 255 255 255
-0.177027 0.248682 1.06 0 0 0
0.316862 -0.247517 1.348 255 255 255
0.271309 0.0600313 1.02 255 255 255
-0.280405 -0.601071 1.821 255 255 255
-0.356081 0.210676 0.898 255 255 255
0.577262 -0.479862 1.283 255 255 255
-0.66442 -0.730893 1.929 255 255 255
0.466345 -0.272348 1.33 255 255 255
-0.896778 -0.315289 2.181 255 255 255
-0.743475 -0.402492 2.099 255 255 255
0.369289 0.0810472 1.034 0 0 0
0.0646657 -0.0984694 1.265 255 255 255
-0.215982 0.085958 0.924 255 255 255
0.0153963 0.134999 1.477 255 255 255
-0.746583 -0.292026 2.22 255 255 255
-0.473221 0.201958 0.939 255 255 255
0.253537 -0.108239 1.213 255 255 255
0.350272 0.322331 0.938 255 255 255
0.0169807 0.4617 1.629 255 255 255
-0.278282 0.356719 1.887 0 0 0
0.399014 -0.482826 1.308 255 255 255
-0.195022 -0.699201 1.799 255 255 255
0.611411 -0.303704 1.354 255 255 255
0.317184 -0.506039 1.313 255 255 255
0.0545922 0.309067 1.004 0 0 0
0.345185 -0.118938 1.182 255 255 255
0.494581 -0.0991693 1.132 255 255 255
-0.59195 -0.206676 2.196 255 255 255
0.102723 -0.288974 1.252 0 0 0
-0.334187 0.259527 1.055 255 255 255
-0.383543 0.0596193 1.013 255 255 255
-0.190324 0.0798323 2.03 255 255 255
0.639319 -0.434943 1.286 255 255 255
-0.452911 -0.565471 1.911 255 255 255
-0.13952 -0.402584 1.966 255 255 255
-0.255482 0.317643 0.92 255 255 255
-0.370299 0.199656 0.863 255 255 255
0.22528 -0.198356 1.313 255 255 255
0.0863129 0.394962 1.744 255 255 255
0.0715769 -0.124975 1.242 255 255 255
0.265376 -0.488789 1.354 255 255 255
0.592006 -0.407004 1.297 255 255 255
0.355356 0.300317 0.986 255 255 255
0.29809 0.224123 1.05 255 255 255
-0.464274 -0.275949 2.151 255 255 255
-0.0136688 -0.128094 1.273 0 0 0
-0.205502 0.294782 1.739 0 0 0
-0.249443 0.0987295 0.931 255 255 255
-0.252267 -0.414535 1.947 255 255 255
-0.334398 0.31389 1.009 0 0 0
0.417542 0.24253 1.041 255 255 255
-0.926154 -0.53503 2.057 255 255 255
-0.252445 -0.00115883 0.854 255 255 255
0.376749 0.224506 1.036 255 255 255
-0.102595 0.153151 1.876 255 255 255
0.432727 -0.121434 1.169 255 255 255
-0.23959 -0.420872 1.947 255 255 255
0.385578 -0.446212 1.313 255 255 255
-0.177106 -0.257122 2.03 255 255 255
-0.20376 0.0441405 0.93 255 255 255
-0.00772149 -0.0683296 1.319 255 255 255
-0.449637 0.237265 0.867 255 255 255
0.511891 -0.135557 1.176 255 255 255
-0.832688 0.12025 2.228 0 0 0
0.313267 -0.239863 1.342 255 255 255
0.586177 0.328341 1.815 255 255 255
0.505481 0.178201 0.994 255 255 255
-0.225243 0.32008 1.013 255 255 255
0.15103 -0.0950389 1.247 255 255 255
0.473127 0.265316 1.044 255 255 255
0.485454 0.31656 0.967 255 255 255
0.0746653 -0.255964 1.26 255 255 255
0.0604038 -0.104397 1.262 255 255 255
0.689549 0.0586812 1.985 255 255 255
0.27687 0.0972456 1.01 255 255 255
0.189739 -0.467074 1.381 0 0 0
-0.179622 -0.577364 1.821 255 255 255
0.308717 0.252243 1.012 255 255 255
0.302223 -0.20904 1.313 255 255 255
0.471731 -0.0186644 1.966 255 255 255
0.0208477 0.526182 1.524 255 255 255
-0.0441212 -0.192385 1.316 255 255 255
-0.558378 0.0466449 2.356 255 255 255
0.266815 0.145246 1.048 255 255 255
-0.278717 -0.332118 2.024 255 255 255
-0.194062 0.37534 1.108 255 255 255
0.415886 0.343467 0.921 255 255 255
-0.730439 -0.214602 2.204 255 255 255
-1.12254 -0.527976 2.151 255 255 255
0.673552 -0.319939 1.396 255 255 255
-0.308049 -0.0237543 2.136 255 255 255
-0.440772 0.0186189 0.869 0 0 0
-0.658282 -0.394439 2.057 255 255 255
0.639073 -0.494766 1.273 255 255 255
0.649786 -0.43285 1.286 255 255 255
-0.408801 0.166376 1.923 255 255 255
0.10338 -0.305174 1.26 0 0 0
-0.383116 0.174977 0.873 255 255 255
-0.360375 0.129564 0.924 255 255 255
-0.696425 -0.436678 2.051 255 255 255
-0.56303 -0.527767 2.004 255 255 255
-0.073915 -0.530706 1.774 255 255 255
-0.201953 0.14858 0.98 0 0 0
-0.453789 -0.412182 1.997 255 255 255
-0.3541 0.120552 0.96 0 0 0
0.406712 0.344586 0.924 255 255 255
-0.213209 -0.0602249 0.864 255 255 255
-0.281945 -0.666944 1.831 255 255 255
-0.715947 -0.653315 1.941 255 255 255
0.0952831 0.358966 0.938 255 255 255
-0.281657 -0.482554 1.953 255 255 255
0.0854344 -0.208925 1.299 0 0 0
0.770183 0.00969676 1.882 255 255 255
0.245714 0.229707 1.06 255 255 255
0.427881 0.07545 0.983 255 255 255
-0.0818579 -0.152593 1.27 255 255 255
-0.269558 0.192295 1 255 255 255
0.169797 0.350608 0.928 255 255 255
-1.02603 -0.265696 2.338 255 255 255
0.261644 0.127335 1.041 255 255 255
0.770069 0.362378 1.724 255 255 255
0.434627 -0.394036 1.339 0 0 0
-0.196495 0.390058 1.686 255 255 255
-0.904352 -0.732696 1.959 255 255 255
0.115623 0.366663 1.758 255 255 255
0.0310559 -0.541329 1.673 0 0 0
0.188945 0.398713 1.748 255 255 255
-0.816212 -0.573861 2.017 255 255 255
-0.0791233 -0.395045 1.899 255 255 255
-0.216541 0.379499 1.094 255 255 255
0.387561 -0.127917 1.194 255 255 255
0.793928 0.383179 1.668 255 255 255
0.699124 -0.353308 1.449 255 255 255
0.310142 -0.439082 1.357 255 255 255
-0.460447 0.0560222 0.902 255 255 255
-0.404666 0.0604815 1 255 255 255
-0.12974 0.259329 1.748 0 0 0
-0.412049 -0.245367 2.099 255 255 255
0.144472 -0.160838 1.357 255 255 255
-0.490699 -0.157676 2.114 255 255 255
-0.817156 -0.501713 2.044 255 255 255
-0.200186 0.376894 1.102 255 255 255
0.464325 0.350546 0.916 255 255 255
-0.180075 0.538479 1.567 255 255 255
0.0672523 -0.082649 1.275 255 255 255
-0.366303 0.332614 0.92 255 255 255
-0.120407 -0.104267 2.078 255 255 255
-0.151359 -0.145334 2.085 255 255 255
-0.276006 -0.266584 2.078 255 255 255
0.307461 0.279544 0.992 255 255 255
0.170612 -0.456546 1.39 0 0 0
-0.957342 -0.637288 2.01 255 255 255
0.246446 -0.247325 1.359 255 255 255
0.298402 0.101671 1.005 255 255 255
0.119276 -0.0377256 1.959 0 0 0
0.647745 0.0133289 1.966 255 255 255
-0.327116 0.319689 1.017 0 0 0
0.478397 -0.0719731 1.169 255 255 255
0.227795 -0.0558938 1.234 0 0 0
0.47137 0.328305 0.942 255 255 255
-0.409672 0.109967 0.977 255 255 255
-0.366104 0.26166 0.85 255 255 255
-0.234845 0.140567 0.958 255 255 255
-0.509094 -0.486825 2.01 255 255 255
0.57372 -0.285978 1.333 255 255 255
-0.342675 -0.642225 1.837 255 255 255
0.546558 -0.113908 1.114 255 255 255
0.52796 -0.0999498 1.062 255 255 255
-0.278167 0.216691 1.682 255 255 255
-0.378641 0.233688 0.806 255 255 255
0.370328 -0.422037 1.359 0 0 0
0.355586 0.319784 0.944 255 255 255
0.477126 0.17422 0.999 0 0 0
0.451573 0.0698604 0.972 255 255 255
-0.331648 -0.601513 1.859 255 255 255
0.0691725 0.370909 0.957 0 0 0
-0.188982 0.330399 1.079 255 255 255
-0.635429 -0.404555 2.092 255 255 255
-0.448765 0.124027 0.939 255 255 255
-0.107237 -0.0333661 2.085 255 255 255
-0.365478 0.191041 0.875 255 255 255
0.0870057 0.358081 1.758 255 255 255
0.531053 -0.376694 1.324 0 0 0
0.12861 -0.335957 1.308 255 255 255
0.239164 0.244609 1.923 255 255 255
-1.13226 -0.372414 2.204 255 255 255
-0.806494 -0.645513 1.985 255 255 255
0.799421 0.402142 1.624 255 255 255
-0.73413 -0.547602 2.017 255 255 255
0.440158 0.114244 1.015 255 255 255
0.45119 -0.421688 1.33 0 0 0
0.457251 -0.314254 1.381 255 255 255
-0.080959 0.195264 1.87 255 255 255
0.58716 -0.373412 1.305 0 0 0
0.31291 -0.506039 1.313 255 255 255
0.136322 -0.359977 1.342 255 255 255
0.51581 -0.0407859 1.203 255 255 255
-0.223352 0.503895 1.603 255 255 255
-0.932918 -0.00713838 2.392 255 255 255
-0.29761 0.20404 1.018 255 255 255
-0.370728 0.187233 0.864 255 255 255
-0.106574 0.271234 1.789 255 255 255
0.381541 -0.190989 1.278 255 255 255
0.688158 0.343877 1.744 255 255 255
-0.345478 0.251338 0.989 0 0 0
-0.890832 -0.493068 2.092 255 255 255
0.308831 0.319107 0.942 255 255 255
-0.263975 -0.0490999 0.842 0 0 0
-0.184567 -0.449767 1.935 255 255 255
-0.494858 -0.624163 1.929 255 255 255
0.356734 -0.236086 1.333 255 255 255
0.310194 -0.0858125 1.203 255 255 255
-1.15915 -0.34414 2.278 255 255 255
0.0898705 -0.209407 1.302 0 0 0
-0.0202419 -0.473738 1.637 0 0 0
0.521272 -0.359093 1.372 255 255 255
-0.284799 0.0271627 2.044 0 0 0
0.144176 -0.516409 1.491 255 255 255
-0.366765 0.346769 0.91 0 0 0
0.111123 0.361958 0.93 255 255 255
0.224206 -0.367618 1.459 255 255 255
0.223388 0.338106 0.931 255 255 255
-0.364555 0.109154 0.984 255 255 255
0.2752 0.23406 1.041 255 255 255
0.769908 0.394454 1.705 0 0 0
-0.290302 0.346581 0.898 255 255 255
-0.187947 0.375712 1.659 255 255 255
0.316015 0.248211 1.009 255 255 255
-0.409057 -0.490461 1.985 255 255 255
-0.166191 0.158747 1.87 255 255 255
-0.157499 -0.258663 1.991 255 255 255
-0.0772277 0.295206 1.603 255 255 255
-0.935935 -0.356567 2.173 255 255 255
-0.50104 -0.504903 1.991 255 255 255
0.622995 0.270486 1.929 255 255 255
-0.450948 0.107601 0.97 255 255 255
0.42052 -0.148814 1.222 255 255 255
0.203356 0.291788 0.958 255 255 255
0.406428 -0.0383418 1.991 255 255 255
0.0963778 -0.298445 1.249 0 0 0
0.0772948 0.311565 0.981 255 255 255
0.420319 -0.169031 1.239 255 255 255
0.113552 0.291861 1.865 0 0 0
0.118897 -0.512821 1.509 255 255 255
-0.0604307 0.0955756 1.719 255 255 255
-0.107958 -0.358234 1.917 255 255 255
0.44588 -0.375656 1.409 255 255 255
-0.374989 0.285681 0.801 255 255 255
0.457045 0.249753 1.05 255 255 255
0.476645 -0.0270822 1.203 0 0 0
0.66121 -0.0254582 1.997 255 255 255
-0.218137 0.449945 1.705 255 255 255
-0.746184 -0.442426 2.078 255 255 255
0.204166 -0.373247 1.435 255 255 255
-0.239119 0.162681 0.969 255 255 255
0.445236 -0.063156 1.182 255 255 255
-0.500751 0.0421567 2.32 255 255 255
0.244288 -0.0618188 2.017 255 255 255
0.335595 -0.0491824 1.217 255 255 255
0.373871 -0.376954 1.372 255 255 255
-0.382751 0.0622878 2.107 0 0 0
0.233475 0.323153 1.853 255 255 255
0.0446719 -0.207568 1.345 255 255 255
-0.236316 -0.0666322 0.856 0 0 0
-0.232423 0.399548 1.053 255 255 255
0.488449 0.10488 0.989 255 255 255
0.0191744 0.236036 1.591 255 255 255
0.434344 0.273922 1.013 255 255 255
-0.377356 0.295185 0.795 255 255 255
-0.792727 -0.683104 1.991 255 255 255
-1.07612 -0.0913787 2.356 255 255 255
-0.777597 -0.69867 1.953 255 255 255
0.489447 -0.0444412 1.196 255 255 255
0.44181 0.115896 1.015 255 255 255
0.291874 -0.299464 1.375 255 255 255
0.448775 0.329111 0.927 255 255 255
-0.230485 0.0713278 0.91 255 255 255
-0.355018 -0.458367 1.972 255 255 255
0.154099 0.0752093 2.085 255 255 255
0.691453 0.00374229 1.972 255 255 255
-0.599748 -0.631609 1.923 255 255 255
-0.22618 0.339933 1.724 0 0 0
-0.397849 0.101942 2.01 0 0 0
0.292372 0.0594456 2.128 0 0 0
0.076959 -0.495557 1.555 0 0 0
0.108577 -0.105354 1.249 255 255 255
-0.411753 -0.163936 2.151 255 255 255
0.451509 -0.19186 1.27 255 255 255
0.209809 0.349818 0.918 255 255 255
0.194607 0.292702 0.961 255 255 255
-0.255862 0.0464573 0.916 255 255 255
-0.365301 0.311715 0.878 255 255 255
0.43846 -0.218385 1.305 255 255 255
-0.387442 0.0927712 2.024 0 0 0
-1.10796 -0.461821 2.22 255 255 255
0.672944 -0.352727 1.409 255 255 255
0.129639 -0.312025 1.297 255 255 255
-0.307526 0.177777 1.029 255 255 255
-0.255121 0.149477 1.831 255 255 255
0.519735 -0.034661 1.966 255 255 255
-0.46065 0.0616316 0.92 255 255 255
-1.01065 -0.0217023 2.286 255 255 255
-0.0784819 0.398289 1.686 255 255 255
-0.390125 0.25151 0.757 255 255 255
0.28936 0.362768 1.753 255 255 255
0.147574 -0.246966 1.345 0 0 0
0.708551 0.186093 1.966 255 255 255
-0.33138 -0.312116 2.044 255 255 255
-1.03024 -0.0920768 2.374 255 255 255
-0.412288 -0.493691 1.985 255 255 255
-0.0632649 -0.429397 1.887 255 255 255
0.526764 -0.43387 1.308 0 0 0
0.131075 -0.0781915 1.27 255 255 255
-0.379321 0.0554302 2.107 0 0 0
0.0338315 -0.121305 1.267 255 255 255
0.430935 -0.0950492 1.149 255 255 255
-0.410369 0.0589719 1.002 255 255 255
-0.668464 -0.514779 2.017 255 255 255
0.494877 -0.487262 1.286 255 255 255
0.377891 -0.466505 1.316 255 255 255
-0.0170404 0.509196 1.587 255 255 255
-0.183667 -0.40115 1.959 255 255 255
0.025196 0.431697 1.646 0 0 0
-0.474778 -0.265448 2.151 255 255 255
0.375028 -0.0390542 1.21 0 0 0
-0.349305 0.132789 0.947 0 0 0
0.215951 -0.504976 1.362 255 255 255
0.539184 -0.444592 1.302 0 0 0
0.180528 0.308341 0.961 255 255 255
0.352103 -0.10467 1.173 255 255 255
-0.366959 -0.585964 1.917 255 255 255
-1.02591 -0.059573 2.312 255 255 255
0.233484 0.0906122 2.128 255 255 255
-0.544484 -0.274024 2.136 255 255 255
0.206194 0.372887 1.774 255 255 255
0.469049 -0.0827452 1.16 255 255 255
0.141598 -0.0727929 1.959 255 255 255
0.300774 0.0883224 1.002 0 0 0
-0.465286 0.165743 0.9 255 255 255
0.586403 -0.170081 1.232 255 255 255
0.176092 -0.0628214 1.252 0 0 0
0.32709 -0.46055 1.336 255 255 255
0.107908 -0.289916 1.265 255 255 255
-0.381174 0.281638 0.779 255 255 255
-0.983738 0.012376 2.402 255 255 255
-0.214987 0.513046 1.599 255 255 255
-0.962344 -0.523708 2.092 255 255 255
0.441087 -0.0862223 1.156 255 255 255
-1.12457 -0.392504 2.196 255 255 255
-0.226786 0.0611627 0.913 255 255 255
-0.366488 0.35237 0.913 255 255 255
0.52798 -0.195222 1.265 0 0 0
0.279458 -0.431826 1.369 0 0 0
0.633651 -0.461071 1.283 255 255 255
-0.304414 0.236758 1.053 255 255 255
-0.177023 0.431786 1.71 255 255 255
-0.370962 0.110755 0.984 255 255 255
0.464077 0.0446897 0.975 255 255 255
0.228412 -0.489872 1.357 255 255 255
-0.609139 -0.666032 1.923 255 255 255
0.112119 0.387334 1.748 255 255 255
0.1983 -0.488483 1.378 0 0 0
0.52545 -0.0682725 1.139 255 255 255
-0.205647 0.0639699 2.051 255 255 255
0.618293 -0.399176 1.299 0 0 0
-0.231822 0.37499 1.066 255 255 255
0.290258 -0.183594 1.27 255 255 255
0.492065 0.313475 0.977 255 255 255
0.0604038 -0.260477 1.262 255 255 255
0.380218 -0.0521522 2.024 255 255 255
0.145626 -0.138095 1.289 255 255 255
-0.366063 0.186342 0.873 255 255 255
0.170612 -0.433926 1.39 0 0 0
0.281221 0.0540199 1.032 255 255 255
-0.311758 -0.22992 2.114 255 255 255
-0.00834202 0.0861862 1.425 255 255 255
0.0264523 -0.400792 1.425 0 0 0
-0.347147 -0.581021 1.911 255 255 255
0.30609 -0.137508 1.21 255 255 255
-0.371484 0.0247344 2.121 0 0 0
0.0756752 0.164818 1.905 255 255 255
-0.0161367 -0.0994594 1.305 0 0 0
-0.653887 -0.626104 1.935 255 255 255
0.387541 -0.416757 1.342 0 0 0
0.483886 0.291405 0.983 255 255 255
0.666953 0.284424 1.876 255 255 255
-0.157616 -0.178662 2.078 255 255 255
0.19244 0.310496 0.958 255 255 255
-0.52949 -0.432728 2.064 255 255 255
0.17204 -0.199257 1.348 255 255 255
0.395338 -0.373902 1.369 255 255 255
-0.961386 -0.449291 2.143 255 255 255
0.0705825 0.362363 0.955 0 0 0
-0.520296 -0.265448 2.151 255 255 255
0.102472 0.34428 0.948 255 255 255
0.0391684 0.350058 0.986 255 255 255
-0.978654 -0.459459 2.158 255 255 255
0.461814 -0.379631 1.342 255 255 255
0.356539 0.0578791 1.041 0 0 0
0.0813791 0.344907 0.954 255 255 255
0.299323 0.350884 0.913 255 255 255
0.226362 0.174089 1.027 255 255 255
0.111142 0.113646 2.044 255 255 255
0.444269 0.0970289 0.991 0 0 0
-0.144558 -0.191712 2.037 255 255 255
0.278845 -0.444217 1.366 255 255 255
0.447266 0.326094 0.927 255 255 255
-0.197543 -0.188013 2.107 255 255 255
-0.454604 -0.0364546 2.278 255 255 255
0.014333 0.00037178 1.375 255 255 255
0.0288655 0.0510304 1.555 255 255 255
0.395755 0.356229 0.923 255 255 255
-0.279264 -0.0288519 0.851 255 255 255
0.508006 0.153105 1.032 255 255 255
-0.446252 -0.514482 1.978 255 255 255
-1.12258 -0.299554 2.365 255 255 255
0.187478 -0.102908 1.22 255 255 255
-0.87238 -0.668128 1.966 255 255 255
-0.846542 -0.699502 1.929 255 255 255
-0.00136471 -0.379432 1.406 0 0 0
0.0861336 -0.078684 1.278 255 255 255
-1.06245 -0.224744 2.43 255 255 255
0.364878 -0.245864 1.339 255 255 255
0.517304 -0.405285 1.333 255 255 255
-0.222571 0.0567675 0.914 255 255 255
-0.6874 -0.362193 2.064 255 255 255
-0.357725 0.260618 0.884 255 255 255
0.611435 -0.438055 1.289 255 255 255
-0.466609 0.0903132 0.938 255 255 255
0.729756 0.038191 1.929 255 255 255
-0.151411 0.552462 1.535 255 255 255
0.312699 -0.387573 1.378 255 255 255
0.420051 0.350929 0.917 255 255 255
0.46246 -0.226195 1.289 255 255 255
-0.949132 -0.395364 2.212 255 255 255
-1.21959 -0.138436 2.374 0 0 0
-0.398278 0.028877 2.173 0 0 0
-0.291569 0.20305 1.729 255 255 255
0.171862 0.347197 0.931 255 255 255
-0.796923 -0.479624 2.078 255 255 255
0.350224 -0.450839 1.333 255 255 255
0.140571 -0.380856 1.362 255 255 255
0.135443 0.414477 1.719 255 255 255
-0.940349 -0.261548 2.269 255 255 255
0.250344 -0.310184 1.393 0 0 0
-1.04932 -0.688742 2.017 255 255 255
-0.0922043 0.447675 1.686 255 255 255
0.130181 -0.559371 1.47 255 255 255
0.355839 -0.368327 1.425 255 255 255
-0.200211 0.322343 1.064 255 255 255
0.449699 0.260162 1.037 255 255 255
-0.999161 -0.173337 2.43 255 255 255
0.374193 -0.0661256 1.201 255 255 255
-0.822779 -0.554167 2.017 255 255 255
0.303429 0.270407 1 255 255 255
-0.212468 -0.0488068 0.861 0 0 0
0.039011 0.313557 1.024 255 255 255
-0.0214787 -0.221148 1.375 255 255 255
0.0963087 -0.0784993 1.275 255 255 255
0.755921 0.30172 1.763 255 255 255
-0.343989 0.304371 0.994 255 255 255
-0.851947 -0.630361 1.978 255 255 255
0.243745 0.259385 0.989 255 255 255
-0.394716 0.205632 0.804 255 255 255
0.430584 0.303943 0.957 255 255 255
0.290453 0.11582 1.029 0 0 0
-0.36982 0.309708 0.849 255 255 255
-0.42265 -0.595219 1.887 255 255 255
0.451514 -0.37725 1.357 255 255 255
0.25928 -0.119093 1.203 255 255 255
0.376924 -0.0864569 1.185 255 255 255
-0.199762 -0.631266 1.789 255 255 255
0.468007 0.0653386 1.991 0 0 0
0.265033 0.147664 1.041 255 255 255
0.552945 -0.182298 1.247 255 255 255
0.264929 -0.0830544 1.22 255 255 255
-0.388981 0.248211 0.762 255 255 255
-0.363054 0.125459 0.927 255 255 255
0.433487 -0.333671 1.406 255 255 255
0.101409 0.285791 1.865 0 0 0
0.340676 0.213977 1.034 0 0 0
-0.20063 0.346361 1.085 255 255 255
0.776494 -0.0149852 1.905 255 255 255
0.350419 -0.433094 1.359 0 0 0
-0.508905 -0.571691 1.911 255 255 255
0.677408 -0.343271 1.345 255 255 255
0.449537 -0.0312537 1.953 255 255 255
-0.0259552 0.00037178 1.375 0 0 0
0.594713 -0.335243 1.403 255 255 255
0.299881 0.319591 1.799 0 0 0
0.364006 0.238595 1.01 255 255 255
0.327133 -0.0649192 1.215 255 255 255
-0.00826592 -0.231695 1.412 255 255 255
0.149859 -0.524167 1.452 255 255 255
-0.397546 0.154958 0.923 255 255 255
0.21282 0.340174 1.831 255 255 255
0.0138327 -0.0557873 1.327 255 255 255
-0.283724 -0.260696 2.085 255 255 255
-0.382506 0.112927 0.989 255 255 255
0.400696 0.350601 0.924 255 255 255
-0.196639 0.252282 1.664 0 0 0
-0.24556 0.00742727 2.107 0 0 0
-0.0823455 -0.549362 1.769 255 255 255
0.280731 0.273625 1.929 255 255 255
-0.344912 0.310216 0.992 255 255 255
0.46838 0.343082 0.924 255 255 255
-0.245771 0.0631278 2.024 255 255 255
0.405381 -0.417068 1.336 0 0 0
-0.341149 0.177988 1.05 255 255 255
0.586985 -0.441221 1.286 255 255 255
-0.327549 0.294582 1.096 255 255 255
-0.134163 0.403411 1.696 255 255 255
0.394307 0.0483882 2.099 255 255 255
-0.16019 0.494639 1.624 255 255 255
-0.144065 -0.334292 1.941 255 255 255
0.168771 -0.178634 1.375 255 255 255
0.247446 -0.352646 1.456 0 0 0
-0.863183 -0.39752 2.204 255 255 255
0.302764 0.0525197 2.128 255 255 255
0.186677 -0.489658 1.375 0 0 0
0.246099 0.252101 0.992 255 255 255
-0.292564 -0.5017 1.941 255 255 255
0.401422 -0.0596602 1.189 255 255 255
-0.200108 0.423997 1.132 0 0 0
0.451177 0.0782493 0.978 255 255 255
-0.0378531 0.565742 1.491 255 255 255
0.523613 -0.0443669 1.194 255 255 255
-0.212172 -0.10443 2.151 255 255 255
0.196345 -0.433527 1.396 0 0 0
0.155108 -0.432595 1.393 255 255 255
0.249323 -0.402874 1.4 255 255 255
-0.127025 0.214208 1.876 255 255 255
-0.85477 0.0462885 2.338 255 255 255
0.213234 -0.292 1.449 255 255 255
-0.372577 0.167903 1.837 255 255 255
-0.0358474 0.0394442 1.412 255 255 255
-0.218339 0.278024 1.004 255 255 255
0.178454 0.0175875 2.092 255 255 255
-0.308049 0.358 0.916 0 0 0
-0.637161 -0.537304 1.991 255 255 255
-0.414813 0.0684123 0.997 255 255 255
0.0299979 0.155593 1.616 255 255 255
-0.593209 -0.600147 1.953 255 255 255
-0.116952 -0.329125 1.911 255 255 255
-0.108703 0.116516 1.876 255 255 255
0.471737 -0.398778 1.333 255 255 255
0.210333 0.240727 1.917 255 255 255
-1.02814 -0.453708 2.181 255 255 255
-0.473103 -0.447574 2.01 255 255 255
-0.38228 0.285019 0.771 255 255 255
0.214252 0.383351 1.769 255 255 255
-0.759482 -0.686213 1.972 255 255 255
0.477888 -0.230748 1.291 255 255 255
-0.888197 0.012139 2.356 255 255 255
-0.278196 -0.426398 1.929 255 255 255
-0.441728 -0.0141561 2.269 255 255 255
0.521073 0.000529685 1.959 255 255 255
0.479239 -0.287002 1.348 255 255 255
0.279659 -0.426621 1.381 255 255 255
-0.934814 -0.504965 2.099 255 255 255
-1.17297 -0.259876 2.32 255 255 255
-0.204808 -0.306924 2.01 255 255 255
-1.1137 -0.334213 2.261 255 255 255
0.368059 -0.0292813 1.213 255 255 255
0.266814 0.248504 0.997 255 255 255
-0.968098 -0.038439 2.402 255 255 255
-0.0405949 0.507842 1.599 255 255 255
-0.322789 -0.650265 1.826 255 255 255
0.474489 0.0264584 1.991 255 255 255
0.533786 -0.355522 1.393 255 255 255
0.119203 0.355915 0.934 255 255 255
-0.202132 0.203776 1.837 255 255 255
0.0614865 -0.633333 1.686 0 0 0
-0.390796 0.0981059 1.002 255 255 255
0.15907 -0.0767177 1.978 255 255 255
-0.0271477 -0.0621249 1.324 0 0 0
0.472859 0.143726 1.025 0 0 0
-0.8381 -0.608584 1.991 255 255 255
-0.40721 -0.368349 2.024 255 255 255
-0.347088 0.269042 0.989 255 255 255
0.165504 -0.0850287 1.249 255 255 255
-0.0705869 -0.590533 1.763 255 255 255
0.21335 -0.352682 1.466 255 255 255
-0.508297 -0.0179823 2.286 255 255 255
0.193813 -0.461574 1.378 0 0 0
-0.733975 -0.49506 2.044 255 255 255
-0.940743 -0.743449 1.929 255 255 255
0.270164 -0.219723 1.313 255 255 255
0.592657 -0.348158 1.322 255 255 255
-0.413233 0.0460648 1.005 255 255 255
0.482066 0.328346 0.951 255 255 255
-0.665198 -0.553108 1.978 255 255 255
0.442482 -0.107761 1.145 255 255 255
-0.166042 -0.163389 2.099 255 255 255
-0.38045 0.136192 0.918 255 255 255
0.285563 -0.368793 1.445 0 0 0
0.319328 -0.0129645 2.078 0 0 0
0.283875 0.230518 1.048 255 255 255
0.130262 0.354009 0.937 255 255 255
-0.358743 -0.22573 2.107 255 255 255
0.0715769 -0.131038 1.242 255 255 255
-0.226429 -0.027112 0.84 255 255 255
-0.524346 -0.461387 2.057 255 255 255
0.449084 -0.0775473 1.167 255 255 255
-0.319417 0.151777 1.046 255 255 255
-0.639669 -0.423327 2.051 255 255 255
0.332805 0.0563773 2.143 255 255 255
0.310633 0.272841 0.997 255 255 255
-0.205417 0.183742 0.989 255 255 255
0.132837 0.145478 2.071 255 255 255
-0.115504 -0.136289 2.051 255 255 255
0.136836 -0.382814 1.369 255 255 255
-0.378544 0.220399 0.82 255 255 255
0.488866 0.350816 1.794 255 255 255
0.430969 0.342349 0.918 255 255 255
0.141746 -0.0535171 1.273 255 255 255
-0.0949203 0.543077 1.551 255 255 255
0.245405 -0.439149 1.378 0 0 0
-0.0422252 0.203904 1.563 255 255 255
0.553589 -0.0400363 1.917 255 255 255
-0.574132 -0.421576 2.092 255 255 255
-0.356081 0.181449 0.898 255 255 255
0.0748107 -0.50065 1.563 0 0 0
-0.3256 0.302448 1.055 255 255 255
0.529072 -0.0949198 1.104 255 255 255
-0.230383 0.36527 1.673 0 0 0
-0.369119 0.217793 0.857 255 255 255
0.330465 -0.0413623 1.22 0 0 0
-0.302581 0.160967 1.018 255 255 255
-0.224229 -0.0945838 2.166 255 255 255
0.208213 -0.134537 1.237 255 255 255
0.20352 0.0651674 0.997 255 255 255
-0.809101 0.0462885 2.338 255 255 255
-0.240076 0.0159905 0.88 255 255 255
0.649665 -0.292486 1.333 255 255 255
-0.239373 0.0757704 0.91 255 255 255
0.752443 0.167406 1.972 255 255 255
0.0992222 -0.0342203 1.941 0 0 0
0.111037 0.265418 1.012 255 255 255
-0.203139 0.322163 1.719 0 0 0
0.164168 0.345596 0.939 255 255 255
-0.803263 -0.74565 1.985 255 255 255
-0.213237 0.305797 1.043 255 255 255
0.703678 -0.0152212 1.935 255 255 255
0.256025 0.341209 0.923 255 255 255
-0.166798 0.457258 1.691 255 255 255
-0.449005 0.181861 0.93 255 255 255
0.182785 0.158422 2.064 255 255 255
0.439802 0.121209 1.018 255 255 255
0.385976 -0.00607896 2.037 0 0 0
0.433936 -0.112169 1.152 255 255 255
0.578032 0.285721 1.905 255 255 255
0.249037 0.236903 1.024 255 255 255
-0.219181 -0.0439817 0.849 0 0 0
-0.451271 0.100839 0.981 255 255 255
0.690466 -0.0189587 1.997 255 255 255
0.143499 -0.523644 1.484 255 255 255
-0.00811956 0.020689 1.387 255 255 255
-1.04891 -0.413806 2.158 255 255 255
0.456547 -0.390101 1.333 255 255 255
-0.304176 0.15266 1.029 255 255 255
0.170805 -0.146485 1.289 255 255 255
0.271309 0.109828 1.02 255 255 255
0.538964 -0.193988 1.257 0 0 0
-0.246157 -0.0230659 0.842 255 255 255
-0.236158 0.311729 0.957 255 255 255
-0.376841 0.123499 0.935 255 255 255
-0.095595 -0.648089 1.748 255 255 255
0.413363 -0.22186 1.313 255 255 255
0.144685 -0.382229 1.359 255 255 255
-0.262227 -0.550765 1.882 255 255 255
-0.248612 0.149137 0.963 255 255 255
0.30412 -0.0804046 1.21 255 255 255
0.475885 0.0962456 0.983 255 255 255
0.180642 0.0107066 2.078 255 255 255
0.351317 -0.134754 1.203 255 255 255
-0.617522 -0.448492 2.044 255 255 255
-0.369462 0.336941 0.888 255 255 255
0.15775 -0.0546717 1.252 0 0 0
0.0214304 0.0140481 1.4 255 255 255
-0.185374 0.423438 1.71 255 255 255
-0.366957 0.341435 0.896 255 255 255
-0.906997 -0.247757 2.278 255 255 255
0.412991 -0.111731 1.167 255 255 255
-0.341682 0.315059 0.992 255 255 255
-0.231966 0.0757704 0.91 255 255 255
0.208466 -0.112372 1.215 255 255 255
0.159633 -0.0640682 1.985 255 255 255
-0.31068 -0.12135 2.204 255 255 255
0.223443 0.244125 0.999 255 255 255
-0.301951 0.276478 1.081 255 255 255
0.560541 -0.149291 1.194 255 255 255
-0.203731 -0.0878171 2.173 255 255 255
0.0783553 0.351485 0.955 255 255 255
0.203878 0.334215 1.831 255 255 255
0.514775 -0.438797 1.31 255 255 255
0.569499 0.298375 1.887 255 255 255
-0.00154039 0.31292 1.587 255 255 255
0.352727 0.233799 1.025 255 255 255
-0.237001 -0.271784 2.092 255 255 255
-0.127122 0.510382 1.607 255 255 255
0.496334 0.158841 1.015 255 255 255
-0.297821 -0.606352 1.837 255 255 255
0.112735 -0.138452 1.273 255 255 255
0.578522 -0.352094 1.425 255 255 255
0.294645 -0.222066 1.327 255 255 255
0.314476 0.332128 0.927 255 255 255
0.476171 0.290688 0.997 255 255 255
-0.458077 0.114899 0.952 255 255 255
-0.552424 0.0311893 2.347 255 255 255
0.329017 -0.0354643 1.222 255 255 255
-0.183752 0.513046 1.599 255 255 255
-0.696366 -0.639334 1.966 255 255 255
-1.10036 -0.467357 2.212 255 255 255
0.690757 -0.279466 1.354 255 255 255
-0.968098 -0.0306213 2.402 255 255 255
-0.88389 0.000639462 2.365 255 255 255
-0.349488 -0.429842 1.959 255 255 255
-0.233266 -0.0353137 0.84 255 255 255
0.213098 -0.139123 1.242 255 255 255
-0.96938 0.0790152 2.294 0 0 0
-0.461648 0.0709982 0.925 255 255 255
-0.135834 -0.382023 1.959 255 255 255
-0.538876 -0.309044 2.114 255 255 255
-0.388195 -0.0815993 2.196 255 255 255
-0.972008 -0.061892 2.402 255 255 255
-0.266169 -0.0246393 0.849 0 0 0
-0.216704 0.266587 1.004 255 255 255
0.0926811 -0.260867 1.254 255 255 255
0.0620249 0.36849 0.967 0 0 0
-0.143624 -0.662478 1.779 255 255 255
-0.051134 0.310858 1.603 255 255 255
0.23987 -0.263087 1.372 255 255 255
0.224953 0.297713 0.957 255 255 255
-0.140057 0.209323 1.887 255 255 255
0.126728 -0.353224 1.333 255 255 255
-0.388441 0.279324 0.749 255 255 255
-1.20383 -0.200191 2.42 255 255 255
-0.195634 0.489408 1.633 255 255 255
0.196978 0.0534965 1.022 0 0 0
-0.226852 0.344955 1.059 255 255 255
0.252995 0.330076 0.934 255 255 255
0.390498 -0.478569 1.308 255 255 255
-0.202346 0.384765 1.104 255 255 255
0.30463 -0.203519 1.305 255 255 255
0.0577226 -0.227073 1.294 255 255 255
0.299974 -0.463523 1.351 255 255 255
-0.425828 0.0979101 1 255 255 255
0.254738 0.353856 0.913 255 255 255
-0.495435 -0.0923202 2.196 255 255 255
0.290966 -0.335243 1.403 255 255 255
-0.216839 -0.594495 1.81 255 255 255
-0.761625 0.159345 2.121 0 0 0
0.127299 -0.241506 1.339 0 0 0
-1.06098 -0.276462 2.365 255 255 255
-0.459546 -0.552952 1.966 255 255 255
-0.515553 -0.512925 1.997 255 255 255
-0.73309 -0.22618 2.212 255 255 255
-0.458583 0.0411174 1.004 255 255 255
0.17417 0.286739 0.978 255 255 255
-0.910801 -0.254163 2.269 255 255 255
-0.193011 0.366134 1.102 255 255 255
-0.208735 0.434058 1.719 255 255 255
-0.472318 0.070076 0.975 255 255 255
-0.256359 -0.0272411 0.844 255 255 255
-0.411451 -0.642225 1.837 255 255 255
-0.368222 0.337007 0.892 255 255 255
-0.234708 -0.619621 1.789 255 255 255
0.596058 -0.467334 1.283 255 255 255
-0.884257 -0.574256 2.03 255 255 255
0.268521 0.14354 1.048 255 255 255
-0.467218 -0.464619 1.985 255 255 255
0.0426363 0.344116 0.992 255 255 255
-0.368635 0.335932 0.893 255 255 255
0.401097 0.28668 1 255 255 255
0.199648 0.0654943 1.002 255 255 255
-0.241045 0.434569 1.71 255 255 255
0.40897 -0.0572305 1.972 255 255 255
-0.260917 0.19554 1.789 255 255 255
-0.364257 0.301826 0.862 255 255 255
-0.401768 0.112014 0.981 255 255 255
0.365393 -0.480611 1.302 255 255 255
0.439935 0.342349 0.918 255 255 255
0.15826 0.101559 0.988 0 0 0
-0.36368 0.179429 0.888 255 255 255
0.430178 -0.0410233 1.21 255 255 255
0.432724 0.323858 0.938 255 255 255
-0.331143 -0.172572 2.128 255 255 255
0.591165 -0.323946 1.384 255 255 255
0.109384 -0.462022 1.48 255 255 255
-0.602929 -0.538915 1.985 255 255 255
0.500315 0.151132 1.03 255 255 255
0.306827 -0.468193 1.333 255 255 255
0.250296 0.324893 0.941 255 255 255
-0.359254 0.292168 0.906 0 0 0
-0.436056 0.104659 0.972 255 255 255
0.15909 0.294896 1.865 255 255 255
0.311778 -0.244777 1.345 255 255 255
-0.272654 0.403985 1.734 255 255 255
-0.291932 -0.272426 2.071 255 255 255
-0.342877 0.332553 0.977 255 255 255
0.519434 -0.087338 1.122 255 255 255
-0.36515 0.23981 0.851 255 255 255
0.203586 -0.217537 1.339 255 255 255
0.109709 -0.00903413 1.959 0 0 0
-0.116236 -0.117 2.064 255 255 255
-0.228787 0.470729 1.642 255 255 255
-0.30236 -0.597384 1.865 255 255 255
-0.952684 -0.528561 2.071 255 255 255
0.511679 -0.426982 1.313 255 255 255
0.0394369 -0.568876 1.682 255 255 255
0.202114 0.361484 1.789 255 255 255
0.285844 -0.474414 1.357 255 255 255
-0.18237 0.186553 1.013 255 255 255
-0.752037 -0.481472 2.057 255 255 255
0.163356 -0.0610219 1.991 255 255 255
-0.335384 0.227222 1.081 255 255 255
0.175103 -0.493055 1.372 0 0 0
-0.296491 0.343052 0.908 0 0 0
0.266247 0.293162 1.893 255 255 255
-0.368161 -0.404463 1.991 255 255 255
-0.832524 0.0461103 2.329 255 255 255
0.401143 -0.457284 1.308 255 255 255
-0.284476 0.0978342 1.929 255 255 255
0.454557 0.300199 0.955 255 255 255
0.0540736 0.179665 1.805 255 255 255
-0.139281 -0.173509 2.057 255 255 255
-0.0720405 0.225204 1.664 255 255 255
0.153634 -0.0189017 1.991 255 255 255
-0.00364561 -0.248483 1.403 255 255 255
0.519465 0.201787 1.015 255 255 255
-0.356933 0.107028 0.994 255 255 255
-0.463015 0.0545937 0.879 255 255 255
-0.163048 0.533539 1.575 255 255 255
-0.590766 -0.703608 1.865 255 255 255
-0.304204 0.342688 0.927 0 0 0
0.377843 -0.0735123 1.194 255 255 255
0.645664 -0.280189 1.316 255 255 255
-0.278297 0.343275 0.897 255 255 255
0.133897 0.330241 0.952 255 255 255
0.214857 0.239298 1.02 255 255 255
-0.19897 0.053957 2.051 255 255 255
-0.235693 0.338704 0.981 255 255 255
-0.202177 -0.548825 1.865 255 255 255
0.294902 -0.332247 1.4 0 0 0
-0.303352 -0.280627 2.057 255 255 255
0.736954 0.000513462 1.899 255 255 255
0.0300721 0.451241 1.62 255 255 255
0.780701 0.0568483 1.923 255 255 255
-0.334139 0.254074 1.106 255 255 255
0.683706 0.0451608 1.959 255 255 255
-1.03524 -0.517594 2.181 255 255 255
0.147795 -0.0874098 1.254 255 255 255
0.00389589 -0.532261 1.705 0 0 0
-0.478421 -0.169745 2.136 255 255 255
0.574929 0.0100317 1.947 255 255 255
0.200159 -0.0761598 1.237 255 255 255
0.307136 -0.0593275 1.222 255 255 255
0.498965 -0.171737 1.244 255 255 255
0.801476 0.39247 1.65 255 255 255
0.222811 0.227538 1.066 255 255 255
-0.179436 0.300454 1.085 0 0 0
0.801977 0.0727213 1.929 255 255 255
-0.413435 -0.702696 1.887 255 255 255
-0.0900909 0.125273 1.87 255 255 255
0.449802 0.290326 1.007 255 255 255
0.472674 0.275245 1.043 255 255 255
0.389925 0.339671 0.927 255 255 255
0.00318297 -0.230844 1.393 255 255 255
-0.370082 0.213359 0.856 255 255 255
0.0548641 0.30568 1.009 0 0 0
-0.119463 0.530976 1.575 255 255 255
0.519474 -0.400947 1.333 255 255 255
-0.215395 -0.467207 1.929 255 255 255
0.269951 -0.479784 1.366 255 255 255
-0.359175 0.269972 0.877 255 255 255
0.229737 0.287341 0.964 255 255 255
-0.00147924 0.208736 1.524 255 255 255
-0.457935 0.0649007 0.883 255 255 255
-0.223379 -0.264975 2.092 255 255 255
0.71307 0.277921 1.853 255 255 255
0.39617 -0.243661 1.327 255 255 255
-1.04033 -0.0628423 2.294 255 255 255
-0.231585 0.380425 1.057 255 255 255
-0.199352 0.258566 1.024 255 255 255
0.180859 -0.0936671 1.229 255 255 255
-0.0778768 0.38705 1.673 255 255 255
0.0824435 -0.538803 1.563 255 255 255
0.074138 -0.445701 1.498 255 255 255
-0.535985 -0.55883 1.953 255 255 255
0.282799 0.332389 1.821 255 255 255
-0.964975 -0.489472 2.151 255 255 255
-0.641161 -0.233658 2.181 255 255 255
-0.326929 -0.334251 2.037 255 255 255
0.37527 -0.127703 1.192 255 255 255
0.14738 -0.137773 1.286 255 255 255
0.376729 -0.427215 1.327 255 255 255
-0.110306 -0.163571 2.017 255 255 255
-0.565815 -0.265448 2.151 255 255 255
0.136301 0.291788 0.958 255 255 255
0.361319 0.315965 0.951 255 255 255
-0.486483 0.20392 0.941 255 255 255
-0.203883 0.532478 1.535 255 255 255
-1.02875 -0.730452 1.953 255 255 255
0.0980565 0.284872 1.859 0 0 0
0.297775 -0.25906 1.351 255 255 255
-0.430375 0.0101223 0.868 255 255 255
-0.31737 0.129139 1.882 255 255 255
0.447521 -0.284175 1.345 255 255 255
0.4112 -0.351493 1.432 255 255 255
0.108142 -0.11303 1.244 255 255 255
-0.977319 -0.707131 2.004 255 255 255
-0.342319 0.25414 1.013 255 255 255
0.211353 -0.212224 1.333 255 255 255
-0.442072 0.0903954 0.989 255 255 255
0.0567947 0.348304 1.71 255 255 255
0.476842 0.152808 1.03 0 0 0
0.426471 -0.0706102 1.178 255 255 255
0.281985 0.252254 0.999 255 255 255
-0.214934 0.218973 0.981 255 255 255
0.233155 -0.122761 1.22 255 255 255
0.177446 0.250828 1.899 255 255 255
0.167534 -0.0960563 1.234 255 255 255
-0.386956 0.0626679 1.009 255 255 255
0.203291 0.0694026 0.988 255 255 255
-0.264478 0.238588 1.682 0 0 0
0.0679206 0.325328 0.984 255 255 255
0.365956 0.306463 0.98 255 255 255
0.250564 0.0840968 1.01 255 255 255
-0.236714 0.377984 1.027 255 255 255
0.737842 0.347549 1.734 255 255 255
-0.521661 -0.639492 1.947 255 255 255
-0.459355 0.0615505 0.897 255 255 255
-0.964188 -0.061892 2.402 255 255 255
-0.0801397 0.0469328 1.784 255 255 255
-0.670784 0.211345 2.024 255 255 255
-0.813568 0.0536904 2.329 255 255 255
0.656066 -0.445407 1.286 255 255 255
-0.819749 -0.643236 1.978 255 255 255
0.51587 -0.450949 1.302 255 255 255
0.581271 -0.206753 1.26 255 255 255
-0.348199 0.189208 0.944 255 255 255
-0.421737 0.191488 0.904 255 255 255
-0.71573 -0.508187 2.03 255 255 255
0.0897435 0.0321113 1.941 0 0 0
-0.227533 0.481436 1.633 255 255 255
-0.391718 -0.56345 1.947 255 255 255
0.138837 0.295228 0.954 255 255 255
0.492738 -0.0918007 1.132 255 255 255
0.0120684 -0.354628 1.372 0 0 0
-0.272935 -0.329799 2.03 255 255 255
-0.986845 -0.608153 2.044 255 255 255
-0.200913 0.50374 1.459 255 255 255
-0.361325 -0.308789 2.044 255 255 255
0.321896 0.305525 0.977 255 255 255
-0.132194 -0.54773 1.821 255 255 255
0.116346 0.360321 1.769 255 255 255
-0.378683 0.279407 0.787 255 255 255
0.147574 -0.367348 1.345 255 255 255
0.383046 -0.437518 1.319 255 255 255
0.381091 -0.0772687 1.192 255 255 255
-0.04698 -0.542875 1.739 255 255 255
-0.0206118 0.139427 1.473 255 255 255
-0.970864 -0.399651 2.196 255 255 255
-0.481273 0.195062 0.928 255 255 255
-0.76378 -0.271324 2.228 255 255 255
-0.36127 0.299021 0.9 0 0 0
0.298214 0.32946 1.789 255 255 255
-0.945532 -0.409762 2.212 255 255 255
0.450504 0.0114285 0.98 255 255 255
-0.350743 -0.667122 1.848 255 255 255
-0.377555 0.292042 0.79 255 255 255
-0.284604 -0.612167 1.81 255 255 255
-0.233419 0.477287 1.637 255 255 255
-0.548142 -0.451047 2.071 255 255 255
-0.058005 0.467652 1.65 255 255 255
0.351801 -0.237148 1.339 255 255 255
-0.634399 -0.347082 2.158 255 255 255
-1.10814 -0.104453 2.392 255 255 255
-0.368272 -0.704705 1.876 255 255 255
0.0895171 -0.0862541 1.267 255 255 255
-0.0584706 -0.615388 1.744 255 255 255
-0.63761 -0.325937 2.181 255 255 255
0.497117 0.273154 1.048 0 0 0
-0.223373 0.190626 0.983 255 255 255
0.181484 -0.351353 1.422 255 255 255
0.118742 -0.109419 1.249 255 255 255
-0.204487 -0.610476 1.805 255 255 255
0.4698 0.0638602 0.977 255 255 255
0.0392913 -0.466231 1.567 255 255 255
-0.249895 0.122388 0.95 255 255 255
-0.747263 -0.593555 2.017 255 255 255
-0.447799 -0.176222 2.173 255 255 255
-0.418568 -0.631983 1.842 255 255 255
0.580105 -0.454495 1.294 255 255 255
-0.345664 0.152903 0.967 255 255 255
-0.17129 0.323853 1.629 255 255 255
0.353771 -0.432772 1.372 0 0 0
-0.234096 0.212588 0.981 255 255 255
-0.830524 -0.762571 2.004 255 255 255
-0.340363 0.230912 1.027 0 0 0
-0.0399642 0.389132 1.682 0 0 0
0.532153 -0.223738 1.275 255 255 255
0.24945 -0.0792134 1.222 255 255 255
-0.192883 0.261092 1.034 255 255 255
0.748777 0.248617 1.837 255 255 255
0.495641 -0.0443941 1.972 255 255 255
0.348416 0.067782 1.037 255 255 255
0.0998357 0.0100626 1.953 0 0 0
0.444307 0.106259 1.002 0 0 0
-0.37932 0.267955 0.791 255 255 255
0.178166 -0.431255 1.396 0 0 0
-0.0272199 0.113027 1.442 255 255 255
-0.556506 -0.517984 2.004 255 255 255
0.56947 -0.251367 1.289 255 255 255
-0.406309 -0.564873 1.941 255 255 255
-0.379603 0.241454 0.797 255 255 255
-0.0894413 -0.653242 1.739 255 255 255
-0.478421 -0.162793 2.136 255 255 255
0.415093 -0.207766 1.305 255 255 255
0.328363 -0.1389 1.205 255 255 255
0.362301 0.311517 0.966 255 255 255
-0.265858 -0.269965 2.078 255 255 255
-0.0930149 -0.647091 1.753 255 255 255
0.290611 -0.111714 1.187 255 255 255
-1.02364 -0.56456 2.092 255 255 255
-0.36382 0.0974441 1.985 255 255 255
0.42845 0.06704 0.977 255 255 255
0.438986 -0.27637 1.339 255 255 255
0.45267 -0.21184 1.291 255 255 255
0.484332 -0.236042 1.297 255 255 255
0.0198537 -0.181165 1.297 255 255 255
0.113444 -0.0746995 1.281 255 255 255
-0.245354 0.321568 0.927 255 255 255
0.0250641 0.0365269 1.48 255 255 255
-0.25465 -0.43221 1.941 255 255 255
0.660862 0.30325 1.842 255 255 255
-0.277174 0.170191 1.004 255 255 255
-1.08408 -0.299554 2.365 255 255 255
0.34327 0.0703267 2.143 255 255 255
-0.584348 -0.40115 2.092 255 255 255
-0.408205 0.113445 0.966 255 255 255
-0.373971 0.0771386 1.005 255 255 255
-0.653023 -0.403301 2.051 255 255 255
0.755501 0.000513462 1.899 255 255 255
0.169139 -0.181267 1.378 255 255 255
0.300934 0.215169 1.048 255 255 255
-0.147232 0.228691 1.753 255 255 255
-0.173496 0.260645 1.081 255 255 255
0.147489 0.405633 1.729 255 255 255
-0.253036 -0.0638463 0.856 0 0 0
0.30978 -0.427005 1.375 255 255 255
0.404517 -0.23146 1.319 255 255 255
0.441258 0.258474 1.037 255 255 255
0.173601 -0.0547062 1.997 255 255 255
-0.680466 -0.550595 2.004 255 255 255
-0.206903 -0.0153912 0.873 0 0 0
0.57487 -0.305229 1.351 255 255 255
-0.519411 -0.365552 2.064 255 255 255
0.0889732 -0.159071 1.289 255 255 255
0.541431 0.353736 1.794 255 255 255
0.470861 0.279262 1.039 255 255 255
0.247228 0.347206 1.821 255 255 255
-0.973518 -0.616015 2.037 255 255 255
0.271915 -0.380733 1.473 0 0 0
-0.383585 0.202338 0.828 0 0 0
0.337235 -0.329026 1.396 255 255 255
-0.237913 0.178333 0.977 255 255 255
-0.265167 -0.0764795 0.873 255 255 255
-0.228028 0.0450648 0.918 255 255 255
0.3479 -0.209518 1.316 255 255 255
-0.343868 0.233634 0.989 0 0 0
-1.13654 -0.520976 2.151 255 255 255
-0.207652 -0.198282 2.071 255 255 255
-0.526903 -0.00682205 2.286 255 255 255
0.264039 0.240236 1.024 255 255 255
-0.284563 0.141843 1.848 255 255 255
-0.604759 -0.617885 1.929 255 255 255
0.444795 0.331412 0.925 255 255 255
0.02639 -0.605525 1.724 255 255 255
-0.967533 -0.70387 2.004 255 255 255
-0.980209 -0.586872 2.051 255 255 255
-0.42324 -0.597855 1.876 255 255 255
0.00953396 -0.194432 1.33 255 255 255
-0.544437 -0.384397 2.057 255 255 255
0.178283 0.349475 0.925 255 255 255
-1.05808 -0.196252 2.42 255 255 255
-0.180316 0.419549 1.171 0 0 0
-1.03872 -0.173337 2.43 255 255 255
0.475787 -0.230748 1.291 255 255 255
0.449082 -0.460482 1.305 0 0 0
0.544041 -0.120593 1.143 255 255 255
-0.34874 0.158143 1.032 255 255 255
-0.37025 0.102278 0.995 255 255 255
0.600678 -0.348719 1.316 0 0 0
-0.99558 -0.0530388 2.356 255 255 255
0.193625 -0.149341 1.26 255 255 255
0.291938 -0.0534927 1.225 255 255 255
-0.264835 -0.0881404 2.181 255 255 255
0.115913 0.35667 0.932 255 255 255
0.38117 0.305229 0.966 255 255 255
0.105431 -0.288771 1.26 255 255 255
-0.0304899 0.571484 1.487 255 255 255
0.159469 -0.301043 1.372 255 255 255
-0.567998 -0.699408 1.87 255 255 255
-0.201334 0.138585 0.977 0 0 0
0.0924138 -0.16993 1.308 255 255 255
0.125653 0.220497 1.959 255 255 255
-0.548701 -0.644641 1.953 255 255 255
0.0478836 -0.226133 1.313 255 255 255
-0.490034 0.214183 0.939 255 255 255
-0.204911 0.322153 1.734 0 0 0
0.570842 -0.355408 1.429 255 255 255
0.266697 -0.104033 1.21 255 255 255
-0.109822 -0.653779 1.748 255 255 255
0.421434 0.302085 0.961 255 255 255
-0.206423 -0.524586 1.876 255 255 255
0.12568 -0.510442 1.502 255 255 255
0.30593 -0.125974 1.194 255 255 255
-1.18968 -0.288525 2.338 255 255 255
0.561338 0.0389235 1.966 255 255 255
0.354326 -0.479355 1.316 255 255 255
-0.0109983 -0.399095 1.47 255 255 255
-0.375711 0.288145 0.797 255 255 255
-0.229791 0.122388 0.95 255 255 255
-0.725038 -0.516264 2.01 255 255 255
0.0746192 -0.504443 1.559 0 0 0
-1.17782 -0.421485 2.236 255 255 255
0.255561 -0.17833 1.262 255 255 255
0.0777509 -0.54156 1.571 255 255 255
0.45782 -0.346833 1.432 255 255 255
0.327323 -0.096261 1.187 255 255 255
0.257571 -0.0196612 2.071 255 255 255
0.551408 -0.406541 1.316 0 0 0
0.227298 -0.29981 1.419 0 0 0
-0.028926 0.390705 1.677 0 0 0
-0.0165679 0.256536 1.543 255 255 255
0.452483 0.117316 1.013 0 0 0
0.300881 0.311845 1.805 255 255 255
0.377985 0.301417 0.974 255 255 255
-0.452706 -0.329873 2.051 255 255 255
-0.179988 -0.530733 1.887 255 255 255
-0.254408 0.315534 0.927 255 255 255
-0.377134 0.155737 0.91 255 255 255
-0.43798 -0.685165 1.848 255 255 255
0.194767 -0.351677 1.452 255 255 255
-0.664195 0.211345 2.024 255 255 255
0.242467 -0.198813 1.302 255 255 255
0.508717 0.178201 0.994 255 255 255
-0.0685818 0.359375 1.646 0 0 0
-0.194789 0.166112 1.009 255 255 255
-0.793406 -0.394962 2.151 255 255 255
-0.181904 0.387874 1.145 0 0 0
-0.783663 0.0787396 2.286 255 255 255
0.21268 -0.456827 1.384 255 255 255
0.135162 0.332639 0.95 255 255 255
0.464241 -0.42625 1.324 255 255 255
-0.343629 0.280239 1.012 255 255 255
-0.299542 -0.554396 1.905 255 255 255
-0.356772 -0.317677 2.037 255 255 255
0.149137 -0.523992 1.445 255 255 255
-0.648434 -0.579292 1.947 255 255 255
0.431244 -0.0352031 1.213 0 0 0
-0.427029 0.192547 0.909 255 255 255
