ply
format ascii 1.0
comment Created by Open3D
element vertex 1322
property double x
property double y
property double z
property uchar red
property uchar green
property uchar blue
end_header
-0.882718 0.7767 2.004 255 255 255
-0.961333 0.658844 2.338 255 255 255
0.209235 0.28179 2.831 255 255 255
-1.03902 -0.475822 2.44 255 255 255
-0.350109 0.322759 2.604 255 255 255
0.335165 0.780107 2.383 255 255 255
-0.1534 0.11944 2.805 255 255 255
0.185679 0.368375 2.755 255 255 255
-0.651517 -0.111863 2.768 255 255 255
-0.0140029 0.697417 2.392 255 255 255
1.14753 -0.799888 2.982 255 255 255
1.00284 0.306569 2.044 255 255 255
-1.09998 0.576985 2.121 255 255 255
-0.734345 0.199839 2.66 255 255 255
-0.0841537 -0.0309161 2.78 255 255 255
-0.1534 0.402448 2.805 255 255 255
-1.02123 0.477473 2.22 255 255 255
-0.615872 0.139866 2.672 0 0 0
0.243741 0.805654 2.189 255 255 255
-0.230034 -0.126508 2.793 255 255 255
-0.182472 -0.888379 2.831 0 0 0
-0.745448 -0.261153 2.638 255 255 255
-0.192367 -0.255019 2.911 0 0 0
-0.929408 -0.709016 2.383 0 0 0
-0.869456 0.730218 2.166 255 255 255
-0.920819 -0.0279951 2.196 255 255 255
-0.880719 -0.0461974 2.212 255 255 255
-1.01337 0.0679639 2.071 255 255 255
0.162402 0.129165 2.818 255 255 255
-0.179235 0.63951 2.469 255 255 255
0.928964 0.821115 2.261 255 255 255
-0.584502 -1.09966 2.953 255 255 255
0.516654 0.692726 2.593 255 255 255
-0.0869084 0.337165 2.871 255 255 255
0.0288536 -0.0578094 2.768 255 255 255
-1.0145 0.557767 2.329 255 255 255
-0.74205 -0.208927 2.43 255 255 255
-0.349738 -0.113358 2.805 255 255 255
0.2865 0.809216 2.189 255 255 255
0.0595867 0.049625 2.731 255 255 255
-0.914721 -0.91139 2.469 0 0 0
-0.856681 0.472412 2.499 255 255 255
-1.01495 -0.864154 2.449 0 0 0
-0.372301 0.239875 2.672 255 255 255
0.100486 0.712451 2.43 255 255 255
0.373775 0.84341 2.158 255 255 255
0.0288279 0.728557 2.392 255 255 255
-0.552136 0.601742 2.099 255 255 255
0.190055 0.780125 2.228 255 255 255
-1.03879 0.0467294 2.181 255 255 255
-1.01749 0.458437 2.181 255 255 255
-0.959952 0.502859 2.411 255 255 255
-0.381823 0.688498 1.769 255 255 255
-1.10356 0.685643 2.204 255 255 255
-0.0866592 0.732928 2.356 255 255 255
-0.0941996 0.663339 2.561 0 0 0
1.42942 -0.331039 2.793 255 255 255
0.960918 0.606593 2.128 255 255 255
-0.943783 0.538457 2.43 255 255 255
0.775709 0.834991 2.32 255 255 255
0.134257 -0.00837088 2.805 255 255 255
-0.625507 -0.121832 2.898 255 255 255
-1.04018 -0.0263124 2.064 255 255 255
-1.09458 0.58705 2.158 255 255 255
0.0338053 0.470918 2.805 255 255 255
1.02085 0.610063 2.925 255 255 255
-0.670847 0.433329 2.374 255 255 255
-0.0073224 0.24381 2.818 255 255 255
-0.412568 -0.876776 2.996 255 255 255
0.804562 0.826251 2.338 255 255 255
-0.585364 0.2842 2.42 255 255 255
-0.0620805 -0.28225 2.805 255 255 255
1.39994 0.490928 2.982 0 0 0
0.120043 -0.17196 2.793 255 255 255
-0.214271 0.663722 2.411 0 0 0
-1.06194 -0.106074 2.114 255 255 255
-0.983066 -0.927707 2.459 0 0 0
-0.368666 0.661347 1.789 255 255 255
-0.266261 -0.91578 2.996 255 255 255
-1.03872 -0.671592 2.43 255 255 255
-0.231383 -0.394284 2.925 0 0 0
-1.05491 -0.610825 2.44 0 0 0
-0.0303978 -0.326329 2.831 255 255 255
0.475369 0.624619 2.719 255 255 255
-0.931129 -0.154187 2.212 255 255 255
-0.441966 0.631741 1.959 255 255 255
-1.0245 -0.0764268 2.151 255 255 255
-0.390139 0.631081 1.794 255 255 255
-0.23617 0.414819 2.707 255 255 255
-0.870002 0.0732849 2.479 255 255 255
-0.12834 -0.380468 2.857 255 255 255
-0.0253248 -0.0897278 2.78 255 255 255
-0.0490553 0.34325 2.844 0 0 0
-1.08959 -0.786973 2.42 255 255 255
0.661509 0.724136 2.615 255 255 255
1.16881 0.676415 2.768 255 255 255
0.352845 0.221852 2.953 255 255 255
-0.16448 0.636589 2.489 255 255 255
-0.482719 0.260769 2.459 255 255 255
-0.663717 -0.990672 2.672 255 255 255
-0.798143 0.755451 2.099 255 255 255
-0.841417 0.587436 2.42 255 255 255
0.239275 -0.268556 2.805 255 255 255
-0.953794 -0.373976 2.53 255 255 255
0.309214 0.0349384 2.996 255 255 255
0.225029 0.666112 2.638 255 255 255
-0.0185475 0.666305 2.479 255 255 255
-1.08494 0.359059 2.181 255 255 255
-0.269383 0.240727 2.731 255 255 255
-0.316113 -0.160478 2.831 255 255 255
-0.653811 -0.0982524 2.898 255 255 255
0.312703 0.820983 2.173 255 255 255
0.74347 0.617765 2.939 255 255 255
-0.325644 0.731893 2.071 255 255 255
-0.839153 -0.432886 2.719 255 255 255
-0.973442 0.220102 2.286 255 255 255
-0.191508 0.2413 2.898 255 255 255
1.33401 -0.658546 2.719 255 255 255
-0.569847 0.599162 2.114 255 255 255
-0.499024 0.489735 2.312 255 255 255
0.756351 0.716308 2.649 255 255 255
-0.717882 0.627108 2.278 255 255 255
-1.08271 -0.718034 2.44 255 255 255
-0.562029 0.6113 2.085 255 255 255
-0.948951 0.679782 2.22 255 255 255
-0.955534 0.752932 2.092 255 255 255
-0.642846 0.655153 2.151 0 0 0
1.13977 0.625831 2.561 255 255 255
0.879138 0.703986 2.228 255 255 255
0.727872 0.824587 2.312 255 255 255
-1.08318 0.702875 2.236 255 255 255
-0.826708 0.734927 2.212 255 255 255
-1.07299 -0.0724179 2.136 255 255 255
-0.391539 0.269932 2.626 255 255 255
-0.665002 0.774946 2.078 255 255 255
-0.376671 0.533413 2.499 0 0 0
-0.270221 0.548055 2.42 255 255 255
-0.7409 0.680017 2.269 255 255 255
-0.641565 -1.00805 2.707 255 255 255
0.241319 -0.346518 2.884 255 255 255
0.280741 -0.0808951 2.953 255 255 255
0.950622 0.657537 2.136 255 255 255
0.164818 -0.267984 2.707 255 255 255
1.01249 0.4185 1.991 255 255 255
-0.570641 0.510235 2.253 255 255 255
0.00157196 0.712987 2.392 255 255 255
0.0523106 -0.136812 2.818 255 255 255
-0.874037 -0.293822 2.479 255 255 255
-0.658056 0.74862 2.099 255 255 255
0.0887459 0.657304 2.672 255 255 255
-0.447294 0.638056 1.789 255 255 255
-1.02122 0.0255274 2.189 255 255 255
-0.0728881 0.0241366 2.871 255 255 255
-0.791703 -0.0312204 2.449 255 255 255
0.10388 0.677326 2.615 255 255 255
-0.0252155 0.126873 2.768 255 255 255
-0.989084 0.0644754 2.181 255 255 255
-0.99651 0.303878 2.071 255 255 255
0.214632 0.683706 2.469 255 255 255
-0.329661 -0.842647 2.996 255 255 255
0.15857 0.730421 2.411 255 255 255
-1.0393 0.0983769 2.004 255 255 255
0.268683 0.805654 2.189 255 255 255
-0.967801 0.655875 2.411 255 255 255
0.643109 0.664272 2.755 255 255 255
-0.707482 0.319643 2.42 255 255 255
-1.14617 -0.358643 2.374 255 255 255
0.0556619 0.734665 2.374 255 255 255
0.995035 0.844155 2.244 255 255 255
-0.79298 -0.472417 2.743 255 255 255
-0.563003 0.467161 2.312 255 255 255
-0.253908 -0.998822 2.857 255 255 255
-0.952684 0.752114 2.071 255 255 255
-1.0935 0.665331 2.22 255 255 255
-0.315199 0.75741 2.114 255 255 255
-1.02553 0.000529685 1.959 255 255 255
-0.690037 -0.201906 2.707 255 255 255
-0.246069 0.275067 2.719 255 255 255
-0.165513 -0.931836 2.939 255 255 255
0.475273 0.717067 2.53 255 255 255
-0.740524 -0.0198151 2.519 255 255 255
-1.06574 0.210614 2.017 255 255 255
-1.08752 0.62015 2.151 255 255 255
-1.0845 0.711361 2.173 255 255 255
0.795806 0.680505 2.695 255 255 255
-0.622337 0.529953 2.228 255 255 255
-0.705817 0.786777 2.03 255 255 255
-0.545586 0.646115 2.024 255 255 255
-0.797016 -0.420085 2.939 255 255 255
-0.498169 0.646208 1.837 0 0 0
-0.158908 0.759345 2.189 255 255 255
-0.914494 -0.700944 2.269 0 0 0
-0.0927377 0.623183 2.638 255 255 255
-0.705352 -0.987199 2.54 255 255 255
-0.796339 -0.00313725 2.312 255 255 255
-0.802847 -0.545902 2.731 255 255 255
-0.962446 -0.328727 2.499 255 255 255
0.688396 0.78535 2.411 255 255 255
1.09247 0.590885 2.402 255 255 255
0.901234 0.840116 2.303 255 255 255
-0.748942 -0.217174 2.479 255 255 255
-0.147663 -0.363644 2.871 255 255 255
-0.793877 -0.00317253 2.338 255 255 255
-1.00355 0.129002 2.024 255 255 255
-0.0217903 0.697417 2.392 255 255 255
-0.561118 -1.10561 2.982 0 0 0
-0.160209 0.610694 2.55 255 255 255
-0.632571 -0.258699 2.953 255 255 255
-0.524065 -0.0797445 2.911 255 255 255
0.0052623 0.761414 2.303 255 255 255
0.087018 -0.0934042 2.755 255 255 255
-0.340606 -0.0950994 2.805 255 255 255
-0.940706 0.623458 2.392 255 255 255
0.937166 0.834511 2.228 255 255 255
-1.03227 0.117462 2.244 255 255 255
-0.906161 0.72087 2.128 255 255 255
-0.299559 0.711716 2.312 255 255 255
-0.405939 0.347607 2.479 255 255 255
0.801552 0.845075 2.286 255 255 255
0.277331 0.806838 2.173 255 255 255
-0.0439407 0.795699 2.143 255 255 255
-0.382093 0.633362 2.43 255 255 255
-0.0371019 0.798669 2.151 255 255 255
0.463741 0.687189 2.604 255 255 255
-0.453674 0.322378 2.411 255 255 255
0.0554193 0.686834 2.54 255 255 255
-0.827841 0.0724776 2.755 255 255 255
1.14647 0.860945 2.269 255 255 255
0.713363 0.611097 2.953 255 255 255
-0.966 0.212662 2.286 255 255 255
0.922009 0.671555 2.253 255 255 255
-1.08554 -0.858592 2.411 255 255 255
-0.387674 0.310422 2.572 255 255 255
-0.75873 -0.162228 2.383 255 255 255
-0.399935 -0.721396 2.939 255 255 255
-1.03346 0.614618 2.329 255 255 255
-0.983055 -0.461636 2.449 0 0 0
0.521922 0.649597 2.731 255 255 255
0.0280687 0.751059 2.329 255 255 255
1.45569 -0.279238 2.967 255 255 255
-1.03433 0.336482 2.128 255 255 255
-0.0126618 -0.779266 2.996 255 255 255
0.386238 0.65152 2.684 255 255 255
-0.83067 -0.152722 2.356 255 255 255
-0.78062 0.134065 2.731 255 255 255
1.06504 0.869539 2.253 255 255 255
-0.0301186 0.58047 2.805 0 0 0
0.625689 0.788204 2.338 255 255 255
-0.192457 0.490182 2.593 255 255 255
-0.427657 0.625286 1.882 255 255 255
-0.339155 -0.980519 2.831 255 255 255
0.324003 -0.0136181 2.953 255 255 255
1.42479 0.54382 2.953 255 255 255
-0.924298 0.0420114 2.312 255 255 255
1.27577 -0.537418 2.953 255 255 255
-0.935217 0.52274 2.449 255 255 255
-0.0874988 0.500683 2.743 255 255 255
0.851578 0.810679 2.44 255 255 255
-0.960696 0.32238 2.173 255 255 255
-0.989587 0.358025 2.092 255 255 255
-0.957564 -0.391988 2.54 0 0 0
-0.1526 -1.03245 2.967 255 255 255
0.472694 0.605989 2.755 255 255 255
0.774844 0.752968 2.54 255 255 255
-0.814199 0.0533565 2.695 255 255 255
-0.606592 -1.03245 2.967 255 255 255
0.725223 0.60254 2.982 255 255 255
-0.898376 0.34578 2.383 255 255 255
-0.885384 -0.791893 2.411 0 0 0
-0.99997 0.734008 2.136 255 255 255
0.0651811 -0.05806 2.78 255 255 255
-1.06944 0.356268 2.024 255 255 255
-0.803599 -0.957889 2.55 255 255 255
0.0123444 0.780125 2.228 255 255 255
-0.84656 0.192683 2.743 255 255 255
-1.05083 -0.573225 2.449 255 255 255
0.351671 0.792009 2.338 255 255 255
-0.35298 0.180437 2.831 255 255 255
0.207313 0.575905 2.805 255 255 255
-0.947273 -0.694735 2.638 255 255 255
1.04752 0.483792 2.121 255 255 255
-0.968098 -0.495774 2.402 0 0 0
-1.07299 -0.145303 2.037 255 255 255
-0.830496 0.0973387 2.582 255 255 255
0.112976 0.477466 2.844 0 0 0
-0.89972 -0.0953891 2.269 255 255 255
-1.2121 -0.298027 2.294 0 0 0
-0.699057 0.769114 2.099 255 255 255
-0.746849 0.273144 2.499 255 255 255
-0.467202 -1.11244 2.911 255 255 255
-0.684669 0.500916 2.329 255 255 255
-0.761142 -0.351663 2.967 255 255 255
-1.00327 -0.805389 2.44 0 0 0
-0.210378 -0.239732 2.898 0 0 0
-0.926496 0.565451 2.479 255 255 255
-0.770367 -0.220397 2.383 0 0 0
-0.106411 0.748353 2.286 255 255 255
-0.923033 0.681043 2.236 255 255 255
-0.88404 0.32862 2.519 255 255 255
-0.270906 0.423612 2.499 255 255 255
0.758778 0.843864 2.303 255 255 255
-0.408574 -0.713784 2.967 255 255 255
-1.05266 0.42493 2.173 255 255 255
-1.08314 -0.587571 2.459 255 255 255
0.0890078 0.551059 2.818 0 0 0
-0.959583 -0.650532 2.44 0 0 0
0.210195 0.273828 2.844 255 255 255
0.122578 0.692512 2.561 255 255 255
0.939337 0.674844 2.158 0 0 0
-0.825851 -0.0473878 2.269 255 255 255
-0.390832 0.17878 2.805 255 255 255
-0.625911 -1.08073 2.967 255 255 255
0.948596 0.861388 2.204 255 255 255
-0.517431 -1.0037 2.982 0 0 0
0.332036 0.182538 2.939 255 255 255
-0.927244 -0.943861 2.449 0 0 0
-1.13143 -0.30518 2.32 0 0 0
1.14058 0.844114 2.356 255 255 255
-0.792765 0.540672 2.44 255 255 255
0.630618 0.747582 2.593 255 255 255
-0.537623 0.341902 2.383 255 255 255
-0.500769 0.306684 2.411 255 255 255
-1.1192 0.348669 2.228 255 255 255
0.22267 0.683706 2.469 255 255 255
-0.985534 -0.105886 2.181 255 255 255
1.20371 0.667216 2.884 255 255 255
-0.796046 0.13573 2.593 255 255 255
0.095151 0.0274038 2.731 255 255 255
-1.05842 0.720614 2.107 255 255 255
0.97421 0.755783 2.189 0 0 0
0.29296 0.563966 2.884 255 255 255
0.093595 0.546474 2.818 0 0 0
-1.0194 -0.405994 2.499 255 255 255
-0.162532 0.302026 2.805 255 255 255
0.0189102 0.661819 2.638 255 255 255
-1.11624 -0.311653 2.312 0 0 0
-0.0570019 0.480293 2.78 255 255 255
-1.00674 0.684532 2.212 255 255 255
-0.487218 0.646147 2.099 255 255 255
-1.03316 -0.325431 2.303 0 0 0
-0.923357 0.123876 2.228 255 255 255
-0.582988 0.363472 2.347 255 255 255
-0.162546 0.781749 2.143 255 255 255
-0.880146 0.393757 2.44 255 255 255
-0.560468 -0.196227 2.953 255 255 255
0.0538702 0.707814 2.469 255 255 255
-0.965034 0.542981 2.347 255 255 255
0.69873 0.759041 2.519 255 255 255
-0.849758 0.255157 2.143 255 255 255
-1.09747 -0.786973 2.42 255 255 255
-0.0342271 0.415157 2.768 255 255 255
-0.843055 0.737972 2.189 255 255 255
-1.02638 -0.840865 2.383 255 255 255
0.214516 0.57982 2.78 255 255 255
-0.815305 0.116799 2.743 255 255 255
-0.299026 0.455414 2.43 255 255 255
-0.690518 0.709676 2.136 255 255 255
0.0815537 0.693989 2.582 255 255 255
-0.355946 -1.07232 2.818 255 255 255
-0.157291 0.441633 2.793 255 255 255
0.640843 0.634622 2.996 255 255 255
0.742926 0.832112 2.312 255 255 255
-0.828553 0.628868 2.383 255 255 255
-0.829307 -0.173041 2.32 255 255 255
-0.172639 -0.352916 2.898 255 255 255
0.256643 0.552555 2.898 255 255 255
-0.59995 -1.01826 2.982 255 255 255
-1.02755 -0.0337181 2.107 255 255 255
-1.02587 0.447855 2.329 255 255 255
0.486952 0.818167 2.294 255 255 255
-0.900272 -0.932583 2.43 0 0 0
-0.667431 0.78555 2.044 255 255 255
0.750879 0.692345 2.707 255 255 255
-1.07813 0.718888 2.092 255 255 255
0.437514 0.78138 2.329 255 255 255
-0.831568 0.52274 2.449 255 255 255
0.717541 0.821377 2.303 255 255 255
-0.91874 0.43058 2.469 255 255 255
-0.85148 0.675258 2.329 255 255 255
-0.863183 0.725096 2.204 255 255 255
-0.944079 -0.199565 2.278 255 255 255
-0.655271 0.168136 2.638 0 0 0
-0.505185 -1.00836 2.939 0 0 0
-0.67088 -0.268253 2.755 255 255 255
0.148143 -0.362348 2.898 255 255 255
-0.743206 0.221991 2.615 255 255 255
-0.974401 0.685643 2.204 255 255 255
-0.821371 0.0428977 2.593 255 255 255
-0.79298 -0.467953 2.743 255 255 255
-0.273343 -1.13867 2.967 255 255 255
-0.882569 -0.738621 2.469 255 255 255
-0.322194 -0.170472 2.844 255 255 255
-0.28033 0.797914 2.085 255 255 255
-0.847195 0.221769 2.228 255 255 255
0.23102 0.704542 2.43 255 255 255
-0.28655 -0.999239 2.768 255 255 255
-0.896504 -0.102713 2.189 255 255 255
-1.02917 0.072035 1.997 255 255 255
-1.05505 0.475315 2.114 255 255 255
-0.931543 -0.138777 2.196 255 255 255
-0.841098 0.336858 2.489 255 255 255
1.03666 0.502685 2.099 255 255 255
0.299969 -0.1722 2.953 255 255 255
-0.267401 0.746723 2.173 255 255 255
-0.721567 0.548508 2.338 0 0 0
0.455425 0.84754 2.196 255 255 255
-0.505168 -0.438572 2.967 255 255 255
-1.11054 0.333019 2.128 255 255 255
0.93225 0.809251 2.269 255 255 255
-1.02432 0.0216541 2.158 255 255 255
0.928895 0.154078 1.815 255 255 255
-0.89797 -0.0864141 2.228 255 255 255
0.640307 0.67477 2.743 255 255 255
0.535934 0.820825 2.312 255 255 255
0.975608 0.701155 2.707 255 255 255
-0.916522 0.699248 2.136 255 255 255
-0.502706 0.212582 2.604 255 255 255
-0.955149 -0.640976 2.449 0 0 0
-0.785412 0.25601 2.572 255 255 255
-0.430647 0.242245 2.604 255 255 255
-0.810745 -0.0955763 2.365 255 255 255
-0.146376 -0.434433 2.939 255 255 255
-0.144982 -0.335551 2.911 255 255 255
1.01586 0.404271 2.017 255 255 255
0.615035 0.709483 2.672 255 255 255
-0.245208 0.751053 2.196 255 255 255
1.49208 -1.03238 2.953 255 255 255
-0.717859 0.422805 2.402 255 255 255
0.27893 0.815315 2.158 255 255 255
-0.124342 0.135882 2.768 255 255 255
-0.623574 -1.08402 2.911 255 255 255
-0.221124 0.772244 2.136 255 255 255
-0.517544 0.51952 2.294 255 255 255
-0.710238 0.244677 2.499 255 255 255
-0.93833 0.148184 2.212 255 255 255
0.356407 0.733963 2.449 255 255 255
0.913846 0.66784 2.181 255 255 255
-0.970813 -0.0603768 2.204 255 255 255
1.21572 0.594708 2.626 255 255 255
-0.350416 -0.208646 2.925 255 255 255
1.35338 -0.670246 2.805 255 255 255
-0.43524 0.149395 2.768 255 255 255
-0.293804 0.734927 2.212 255 255 255
-1.00331 0.380246 2.121 255 255 255
0.499695 0.63182 2.731 255 255 255
0.0840312 0.183345 2.805 255 255 255
1.11278 0.609166 2.967 255 255 255
-0.0123026 -0.416082 2.911 255 255 255
0.595062 0.783985 2.383 255 255 255
-0.865053 0.591375 2.42 255 255 255
-0.548961 0.350865 2.365 255 255 255
-0.709152 0.204969 2.615 0 0 0
-0.860501 -0.349762 2.911 0 0 0
0.306848 0.781024 2.374 255 255 255
-1.09114 -0.543553 2.459 255 255 255
0.193168 0.747239 2.402 255 255 255
-0.363009 0.54748 2.489 0 0 0
0.32042 0.71068 2.479 255 255 255
-0.703801 0.0661851 2.871 255 255 255
-0.914395 0.23082 2.719 255 255 255
-0.981539 0.00779739 2.212 255 255 255
0.934248 0.708377 2.604 255 255 255
0.608525 0.827554 2.181 255 255 255
0.98716 0.397282 1.935 255 255 255
-0.836315 -0.158552 2.329 255 255 255
-0.24923 -0.217122 2.911 0 0 0
-0.0754543 -0.0356058 2.793 255 255 255
-0.981627 -0.570241 2.638 0 0 0
-0.546555 -1.03282 2.982 0 0 0
-1.06498 0.641017 2.236 255 255 255
-0.847123 0.791128 2.085 255 255 255
0.281668 0.573988 2.818 255 255 255
-0.961254 0.0844052 2.572 255 255 255
-0.912415 0.246432 2.649 255 255 255
-0.589062 0.533346 2.212 255 255 255
-0.875716 0.695598 2.236 255 255 255
-0.891521 -0.0569963 2.212 255 255 255
0.221656 0.664578 2.649 255 255 255
-0.133282 -1.1097 2.967 255 255 255
-0.197715 0.526725 2.449 255 255 255
0.0947329 0.0626811 2.719 255 255 255
-0.172335 0.0364518 2.743 255 255 255
0.60983 0.838663 2.173 255 255 255
-1.07226 -0.23955 2.236 255 255 255
-0.672423 -0.0840698 2.743 255 255 255
-0.278578 0.440841 2.459 255 255 255
0.339906 0.291759 2.884 255 255 255
-0.854977 0.384819 2.459 255 255 255
-1.04887 0.586555 2.338 255 255 255
-0.956939 0.756341 2.037 255 255 255
-0.302595 0.652926 2.459 255 255 255
0.266078 0.227152 2.898 255 255 255
-0.270952 -0.140144 2.793 255 255 255
-0.979575 -0.509402 2.411 255 255 255
-0.731705 -0.189697 2.489 255 255 255
-0.956562 0.562943 2.383 255 255 255
-0.804486 0.00811817 2.303 255 255 255
-0.0508301 0.666305 2.479 255 255 255
0.927323 0.729209 2.42 255 255 255
-0.551409 -1.06193 2.982 0 0 0
-0.254935 0.769351 2.128 255 255 255
-0.80763 -0.210068 2.312 0 0 0
0.170876 0.768151 2.312 255 255 255
0.201855 -0.134057 2.857 255 255 255
-1.2268 -0.367005 2.329 0 0 0
-0.653493 -0.936618 2.939 255 255 255
-0.0833969 0.467007 2.755 255 255 255
-0.423439 0.626985 1.799 255 255 255
-0.234767 0.64257 2.42 0 0 0
-1.02131 0.475331 2.244 255 255 255
-0.335989 0.247455 2.66 255 255 255
-0.731153 0.705027 2.143 255 255 255
0.8276 0.848795 2.286 255 255 255
0.786035 0.800341 2.374 255 255 255
-0.258203 0.379577 2.707 255 255 255
-0.702135 0.785567 2.01 255 255 255
-0.239127 0.237102 2.793 255 255 255
-1.00344 -0.179179 2.166 255 255 255
-0.807293 -0.585901 2.731 255 255 255
-0.0629437 -0.202868 2.844 255 255 255
-0.658698 -0.15057 2.818 255 255 255
-0.0529485 0.000758431 2.805 255 255 255
-0.79298 -0.485808 2.743 255 255 255
-0.817612 0.743649 2.114 255 255 255
-0.986042 -0.0650062 2.121 255 255 255
0.217448 0.0833066 2.818 255 255 255
-0.811474 0.748044 2.107 255 255 255
-0.424397 0.29799 2.469 255 255 255
-0.595106 0.593432 2.143 255 255 255
-1.05854 -0.25047 2.269 0 0 0
-0.828944 0.336858 2.489 255 255 255
0.75128 0.836368 2.303 255 255 255
-0.989999 0.211971 2.03 255 255 255
0.265242 0.594422 2.743 255 255 255
-0.376056 0.332665 2.55 255 255 255
-1.00642 0.177174 2.01 255 255 255
-0.0209866 0.470918 2.805 255 255 255
-0.506291 0.581645 2.151 255 255 255
0.558831 0.79275 2.329 255 255 255
-1.05989 -0.396268 2.489 255 255 255
0.84315 0.620708 2.953 255 255 255
-0.755871 -0.199446 2.411 255 255 255
-0.274575 0.444843 2.459 255 255 255
-0.84052 -0.429065 2.695 255 255 255
1.09242 0.776405 2.303 0 0 0
0.471225 0.774215 2.365 255 255 255
-0.844487 0.735757 2.121 255 255 255
-0.491497 0.613894 2.312 255 255 255
-0.805986 0.660098 2.329 255 255 255
-0.660146 -0.151959 2.844 255 255 255
-0.295561 -0.994734 2.768 255 255 255
-0.892783 0.310984 2.509 255 255 255
0.863746 0.836368 2.303 255 255 255
-0.869598 0.167396 2.561 255 255 255
0.108011 0.0449822 2.719 255 255 255
-0.622616 0.453391 2.338 255 255 255
0.222102 0.348741 2.707 255 255 255
-0.810729 0.750529 2.114 255 255 255
-0.144338 -0.467236 2.996 255 255 255
-0.00272262 0.475483 2.805 255 255 255
0.324134 0.142902 2.911 255 255 255
-0.986006 0.214988 2.582 255 255 255
-0.0924751 0.800052 2.136 255 255 255
-0.405113 0.486203 2.55 255 255 255
0.0109754 0.452659 2.805 255 255 255
-0.320116 0.477142 2.44 0 0 0
-0.473329 0.104803 2.78 0 0 0
-0.60151 0.778141 1.991 255 255 255
1.3524 0.602406 2.911 255 255 255
-0.563352 0.444065 2.329 255 255 255
0.519751 0.643523 2.743 255 255 255
0.655115 0.784608 2.509 255 255 255
0.692626 0.793462 2.32 255 255 255
-0.785898 -0.334052 2.898 255 255 255
-0.20425 0.475497 2.582 255 255 255
1.4943 -0.374602 2.996 255 255 255
0.0752464 0.573988 2.818 255 255 255
-0.944638 0.583067 2.402 255 255 255
0.886822 0.701458 2.22 255 255 255
-0.865966 -0.285754 2.479 255 255 255
-1.06337 -0.072625 2.044 255 255 255
0.965584 0.28973 1.911 255 255 255
-0.243673 0.232557 2.793 255 255 255
-1.20561 -0.31044 2.303 0 0 0
-0.145545 0.505147 2.743 255 255 255
0.120754 0.621862 2.707 255 255 255
-0.953394 0.575735 2.356 255 255 255
-1.12815 0.340087 2.196 255 255 255
-0.216986 0.43819 2.743 255 255 255
-0.322194 0.181266 2.844 255 255 255
-0.387319 0.421917 2.489 255 255 255
-0.105359 0.456045 2.743 255 255 255
-0.133932 0.416957 2.78 0 0 0
0.435558 0.832695 2.204 255 255 255
0.253518 0.793031 2.244 255 255 255
0.766504 0.83386 2.338 255 255 255
-0.781082 0.691959 2.236 255 255 255
-0.992531 0.0642389 2.173 255 255 255
-0.0411256 -0.788354 2.939 255 255 255
0.304898 0.823598 2.143 255 255 255
0.45756 0.777161 2.374 255 255 255
-0.593681 0.436485 2.329 255 255 255
0.918138 0.656197 2.166 255 255 255
-0.178702 0.729094 2.356 255 255 255
-0.105087 -0.36652 2.857 255 255 255
0.00151347 0.761414 2.303 255 255 255
-0.94472 0.0666039 2.253 255 255 255
-1.0781 -0.085173 2.196 255 255 255
1.34132 0.548153 2.78 255 255 255
-0.274725 0.126976 2.982 0 0 0
-0.25638 0.701091 2.365 255 255 255
0.920629 0.807874 2.286 255 255 255
-0.134639 0.795699 2.143 255 255 255
-1.04129 0.740209 2.114 255 255 255
-1.08857 0.489022 2.099 255 255 255
-0.915866 0.75629 2.064 255 255 255
-0.811635 0.578535 2.449 255 255 255
-0.144271 -0.00368953 2.719 255 255 255
0.834368 0.632114 2.939 255 255 255
-0.903289 0.679007 2.278 255 255 255
-0.846923 -0.155625 2.286 255 255 255
-0.737185 -0.206795 2.55 255 255 255
-0.217935 0.278709 2.755 255 255 255
0.0722825 0.027163 2.707 255 255 255
-0.966878 0.667729 2.228 255 255 255
-0.502764 0.408594 2.365 255 255 255
0.729974 0.673383 2.831 255 255 255
0.730406 0.643382 2.925 255 255 255
-0.766241 0.249671 2.55 255 255 255
-0.943271 0.234758 2.615 255 255 255
-0.547467 0.538591 2.204 255 255 255
0.321838 0.724955 2.459 255 255 255
-0.119631 0.727694 2.402 255 255 255
-1.02372 -0.900398 2.54 0 0 0
-0.834964 0.540881 2.459 255 255 255
-0.391637 -0.114934 2.844 255 255 255
0.828833 0.846175 2.269 255 255 255
-0.365926 0.425307 2.509 255 255 255
-0.694748 -0.276012 2.743 255 255 255
1.29047 -0.0172694 2.768 255 255 255
-0.858333 0.290026 2.54 255 255 255
-0.795184 -0.0755721 2.604 255 255 255
0.978179 0.722783 2.479 255 255 255
1.09171 0.386544 2.196 255 255 255
-0.90824 -0.108683 2.166 255 255 255
-0.304415 0.29385 2.649 255 255 255
-0.14972 -0.288179 2.911 255 255 255
-0.785412 -0.0579014 2.572 255 255 255
-0.638915 0.42621 2.356 255 255 255
-0.669396 -0.0858547 2.66 255 255 255
-1.10396 0.70253 2.212 255 255 255
0.471154 0.717067 2.53 255 255 255
-0.877332 0.219332 2.278 255 255 255
1.00959 0.746615 2.204 0 0 0
-0.276936 0.801307 2.085 255 255 255
0.874771 0.676119 2.695 255 255 255
-0.996276 0.691663 2.189 255 255 255
-0.756105 -0.254619 2.572 255 255 255
0.377759 0.834653 2.181 255 255 255
-0.763236 -0.036514 2.54 255 255 255
-0.811635 -0.258384 2.449 255 255 255
0.0431276 0.827859 2.136 255 255 255
-0.100437 -0.287483 2.857 255 255 255
0.196531 0.598071 2.719 255 255 255
-0.406666 0.624342 1.87 255 255 255
0.46538 0.8332 2.244 255 255 255
1.05808 0.636177 2.871 255 255 255
0.456244 0.81821 2.253 255 255 255
-1.03902 -0.602884 2.44 255 255 255
0.0108306 0.0142618 2.768 255 255 255
-0.299512 -0.0129355 2.805 255 255 255
-0.39306 -0.76464 2.996 255 255 255
-0.883677 -0.420584 2.615 255 255 255
1.49916 -0.757238 2.967 255 255 255
0.00635224 -0.153063 2.78 255 255 255
-0.0682147 0.0474969 2.871 255 255 255
0.949712 0.73785 2.489 255 255 255
-0.595143 -1.13139 2.911 255 255 255
-0.0586279 0.638714 2.649 255 255 255
-0.212338 -0.884557 2.925 0 0 0
-0.0389007 0.484817 2.78 255 255 255
0.00901114 0.757666 2.303 255 255 255
-0.249327 -0.111337 2.755 255 255 255
-0.68064 -0.84497 2.953 255 255 255
-0.0448475 -0.391677 2.871 255 255 255
-0.609544 0.163098 2.626 255 255 255
-0.319427 0.737268 2.166 255 255 255
-0.725244 0.314344 2.44 255 255 255
0.0196629 -0.0929973 2.743 255 255 255
0.346953 0.746115 2.411 255 255 255
0.202577 0.677056 2.519 255 255 255
0.894428 0.828518 2.212 255 255 255
-0.0672643 -0.238797 2.831 255 255 255
0.968981 -1.10213 2.884 255 255 255
1.18493 0.667216 2.884 255 255 255
-0.344536 0.664955 1.831 255 255 255
0.411629 0.25921 2.996 255 255 255
-0.79322 -0.422843 2.925 255 255 255
0.829591 0.85423 2.261 255 255 255
-0.958779 -0.588315 2.479 0 0 0
-0.277854 0.310836 2.684 255 255 255
-1.09803 0.571144 2.151 255 255 255
0.866345 0.789686 2.32 255 255 255
-0.268798 0.399952 2.638 255 255 255
-0.208418 -0.94298 2.871 0 0 0
-1.05339 0.408941 2.057 255 255 255
0.278148 0.325267 2.695 255 255 255
-0.951292 0.699248 2.136 255 255 255
0.00624027 0.111844 2.731 255 255 255
-0.521084 0.023691 2.818 255 255 255
-1.00315 0.190257 2.01 255 255 255
-1.11062 -0.684814 2.449 255 255 255
1.19081 0.668776 2.831 255 255 255
-0.693304 -0.961967 2.572 255 255 255
-0.848929 -0.623557 2.78 255 255 255
0.00868638 0.780937 2.22 255 255 255
-1.01745 0.456098 2.204 255 255 255
-1.01027 -0.178517 2.158 255 255 255
0.420043 0.812036 2.236 255 255 255
1.46052 -0.390289 2.967 255 255 255
-0.530158 0.67915 1.887 0 0 0
-1.09511 0.649148 2.166 255 255 255
-0.061815 -0.276498 2.793 255 255 255
-0.371872 0.685696 2.365 255 255 255
-0.730159 -0.0199803 2.54 255 255 255
-0.691365 -0.253639 2.695 255 255 255
-0.817543 0.367778 2.479 255 255 255
-0.26487 0.708305 2.338 255 255 255
-0.719126 0.131758 2.684 255 255 255
-0.528763 0.678229 1.893 0 0 0
-0.578333 0.0715236 2.898 255 255 255
-0.412464 0.704191 2.312 255 255 255
0.96203 0.640708 2.731 255 255 255
1.07836 -0.740527 2.939 255 255 255
-0.528747 0.474723 2.294 255 255 255
-0.388875 0.378878 2.499 255 255 255
0.277807 0.704947 2.459 255 255 255
-0.207192 0.674075 2.42 255 255 255
0.0803774 0.796828 2.204 255 255 255
-0.746776 -0.965592 2.911 255 255 255
-0.756177 -0.94768 2.857 255 255 255
-0.213471 0.555705 2.402 255 255 255
-0.110927 0.733572 2.383 255 255 255
-0.826174 0.0998645 2.649 255 255 255
-0.882079 0.633882 2.402 255 255 255
-1.05917 -0.0651011 2.017 255 255 255
1.01647 0.578277 2.982 255 255 255
-1.0689 -0.0581031 2.121 255 255 255
-0.616483 -0.276498 2.793 255 255 255
-0.574113 0.185576 2.582 255 255 255
-0.0562897 -0.47961 2.982 255 255 255
-0.625013 0.394027 2.347 255 255 255
0.0346007 0.318476 2.871 0 0 0
-0.722221 -0.551173 2.78 255 255 255
-1.02284 -0.687307 2.402 255 255 255
-0.942638 -0.112286 2.479 255 255 255
0.295703 0.223433 2.911 255 255 255
-0.995597 0.428401 2.347 255 255 255
-0.82952 -0.443685 2.731 255 255 255
-1.00721 -0.376016 2.489 0 0 0
-0.24868 0.701091 2.365 255 255 255
-0.988277 0.643993 2.312 255 255 255
-1.04973 -0.832363 2.392 0 0 0
0.851155 0.739696 2.509 255 255 255
-0.0849105 -0.0722761 2.805 255 255 255
0.825723 0.82835 2.312 255 255 255
-0.244543 0.772814 2.128 255 255 255
0.0770685 0.711412 2.44 255 255 255
0.717618 0.7206 2.572 255 255 255
0.175595 -0.360598 2.884 255 255 255
0.0149984 -0.250363 2.707 255 255 255
-0.357342 0.278479 2.626 255 255 255
-0.196561 0.744883 2.253 255 255 255
-0.22212 0.534246 2.411 255 255 255
-0.651437 -0.154168 2.572 255 255 255
-0.425312 -1.09274 2.884 255 255 255
0.0238113 -0.312036 2.707 255 255 255
0.239622 0.825497 2.121 255 255 255
0.333864 0.732223 2.43 255 255 255
-0.369149 0.643918 1.865 255 255 255
-0.31321 -0.0585821 2.805 255 255 255
0.579236 0.650709 2.793 255 255 255
-0.870774 0.71889 2.196 255 255 255
1.10538 0.865873 2.253 255 255 255
-0.114949 0.309132 2.871 255 255 255
0.0293748 0.450172 2.818 255 255 255
-0.952459 -0.484047 2.402 0 0 0
-0.269216 0.671569 2.411 255 255 255
0.287576 0.723324 2.44 255 255 255
-0.301354 0.16185 2.911 255 255 255
0.0148709 -0.287546 2.684 255 255 255
0.984313 0.849014 2.228 255 255 255
-0.651525 0.332884 2.374 255 255 255
-0.118497 0.366391 2.844 255 255 255
0.111059 0.782076 2.244 255 255 255
-0.0682147 0.0381528 2.871 255 255 255
-0.860872 0.278445 2.189 255 255 255
1.42821 0.00552425 2.911 255 255 255
0.815063 0.645521 2.871 255 255 255
-0.179235 0.603349 2.469 255 255 255
-1.07091 0.375918 2.078 255 255 255
-0.89159 0.331622 2.365 255 255 255
0.0524262 0.775649 2.236 255 255 255
-0.989293 0.0668394 2.143 255 255 255
-0.481491 0.383106 2.374 255 255 255
-0.160581 0.708496 2.43 255 255 255
0.743783 0.840116 2.303 255 255 255
-0.873976 -0.514793 2.731 255 255 255
-0.883212 0.330424 2.303 255 255 255
-0.0973078 -0.107358 2.768 255 255 255
-1.0882 -0.362506 2.374 255 255 255
-0.677539 0.710481 2.128 255 255 255
-0.7665 -0.269357 2.593 255 255 255
-0.738671 0.612243 2.32 255 255 255
-0.98024 -0.693314 2.356 255 255 255
-0.0636486 0.717593 2.356 255 255 255
-0.833312 0.228198 2.22 255 255 255
-0.913536 -0.561692 2.743 255 255 255
-1.06275 0.573509 2.286 255 255 255
1.23738 -0.0539248 2.582 255 255 255
-0.412568 -0.223462 2.996 255 255 255
0.199133 0.354925 2.755 255 255 255
0.616887 0.648444 2.884 255 255 255
0.376258 0.555034 2.911 255 255 255
0.152849 0.749084 2.383 255 255 255
-0.843202 0.699992 2.286 255 255 255
0.857108 0.652204 2.78 255 255 255
-0.305744 0.722829 1.905 255 255 255
-1.02557 0.0195971 1.953 255 255 255
-0.895796 -0.038716 2.196 255 255 255
0.0848101 0.539781 2.831 0 0 0
-0.52675 0.264771 2.459 255 255 255
-0.798143 0.765698 2.099 255 255 255
1.07489 -0.740262 2.996 255 255 255
-1.01532 -0.367915 2.489 0 0 0
-0.749273 0.693109 2.228 255 255 255
0.150311 0.642785 2.684 255 255 255
-0.931917 -0.667638 2.43 0 0 0
-1.07769 -0.850745 2.411 255 255 255
-0.829813 0.169488 2.593 255 255 255
-0.930409 0.353797 2.128 255 255 255
0.337764 0.777161 2.374 255 255 255
-0.867932 0.101087 2.374 255 255 255
0.74413 0.767158 2.479 255 255 255
-0.316113 -0.0130554 2.831 255 255 255
-0.937166 0.609478 2.383 255 255 255
1.07028 0.838767 2.32 0 0 0
-0.405939 0.351641 2.479 255 255 255
-0.557789 0.299953 2.42 255 255 255
-0.715911 -0.264519 2.672 255 255 255
-0.544244 -1.10592 2.996 0 0 0
0.365125 0.814119 2.212 255 255 255
-0.9457 0.25166 2.204 255 255 255
0.276748 -0.311865 2.911 255 255 255
-0.986425 0.16458 2.057 255 255 255
-0.150904 -0.165843 2.844 255 255 255
-0.900442 -0.331357 2.519 255 255 255
-0.189724 -0.882243 2.871 0 0 0
-0.792319 -0.0223669 2.356 255 255 255
-0.481265 -1.11836 2.939 0 0 0
-1.03066 -0.81239 2.402 255 255 255
-0.276612 0.365973 2.672 255 255 255
-0.114388 -0.394416 2.857 255 255 255
-0.495509 -0.201986 2.967 255 255 255
-1.08753 -0.188171 2.071 255 255 255
-0.376118 0.654599 2.392 255 255 255
-1.05454 -0.616231 2.43 0 0 0
0.925285 0.731033 2.158 0 0 0
-0.67077 -0.148699 2.55 255 255 255
-0.25163 -0.345349 2.996 255 255 255
-0.466329 0.146672 2.638 255 255 255
0.867184 0.611097 2.953 255 255 255
-1.01093 0.624118 2.365 255 255 255
0.612192 0.653137 2.884 255 255 255
0.871375 0.833869 2.236 255 255 255
-0.81377 0.115964 2.53 255 255 255
-1.0034 0.292694 2.189 255 255 255
-0.798373 -0.0418542 2.374 255 255 255
-0.980583 0.646445 2.294 255 255 255
-0.801401 -0.0396712 2.479 255 255 255
-0.490679 -1.10487 2.967 0 0 0
-0.613551 0.348195 2.347 255 255 255
-0.223394 0.743869 2.228 255 255 255
-0.747118 -0.528283 2.755 0 0 0
-0.655748 0.699248 2.136 255 255 255
-0.813507 0.327436 2.479 255 255 255
1.00241 0.585217 2.204 255 255 255
-0.21628 0.453687 2.626 255 255 255
1.02412 0.712669 2.684 255 255 255
-0.288327 0.421224 2.509 255 255 255
-0.988638 0.0658648 2.228 255 255 255
-0.799461 -0.00679817 2.278 255 255 255
-0.0654585 0.601506 2.755 255 255 255
-1.2028 -0.296603 2.312 0 0 0
1.38747 0.571983 2.925 255 255 255
0.967928 0.587982 2.982 255 255 255
-0.0162743 -0.0037723 2.78 255 255 255
1.17986 0.654041 2.731 255 255 255
-0.898707 -0.591889 2.78 255 255 255
-0.890178 -0.854569 2.479 255 255 255
-1.11062 -0.728653 2.449 255 255 255
-0.204667 -0.210415 2.884 255 255 255
-1.04473 -0.188638 2.114 255 255 255
-0.721006 0.686221 2.253 255 255 255
-0.64507 0.526455 2.244 255 255 255
-1.01635 0.117179 1.991 255 255 255
-1.04285 -0.497504 2.449 255 255 255
-1.05153 0.624047 2.294 255 255 255
0.00157853 0.70815 2.402 255 255 255
-1.02123 -0.198097 2.22 0 0 0
0.0339825 0.777324 2.22 255 255 255
-0.408065 0.664191 1.758 255 255 255
-0.22376 0.783203 2.128 255 255 255
0.064595 -0.20997 2.755 255 255 255
-1.01949 0.029415 1.972 255 255 255
-1.05752 -0.271833 2.392 0 0 0
0.263795 -0.080128 2.925 255 255 255
-1.08153 0.725697 2.092 255 255 255
-0.86346 -0.919949 2.449 255 255 255
-0.413225 -1.03202 2.898 255 255 255
-0.487529 0.481966 2.329 255 255 255
1.31837 -0.0129955 2.818 255 255 255
1.4943 -1.00354 2.996 255 255 255
-1.02047 0.388426 2.128 255 255 255
-1.04582 0.10816 2.004 255 255 255
-0.280989 0.581328 2.411 0 0 0
0.00186046 -0.201941 2.831 255 255 255
-0.599882 -0.823478 2.911 255 255 255
-0.0161279 0.614956 2.755 255 255 255
-0.844069 0.636624 2.383 255 255 255
-1.11565 0.355273 2.158 255 255 255
-0.196266 0.721938 2.383 255 255 255
1.0634 0.61391 2.204 255 255 255
0.374577 0.330904 2.898 255 255 255
-0.719126 0.123023 2.684 255 255 255
-0.0159874 0.622931 2.731 255 255 255
0.229363 0.521874 2.911 255 255 255
-0.702219 0.457984 2.402 255 255 255
0.859096 0.661379 2.743 255 255 255
0.696866 0.787419 2.347 255 255 255
-0.196656 0.757331 2.173 255 255 255
0.221556 0.126277 2.755 255 255 255
-0.15743 -1.12902 2.967 255 255 255
-0.835576 -0.112238 2.392 255 255 255
0.949459 0.740814 2.499 255 255 255
-1.04813 -0.191442 2.107 255 255 255
0.828278 0.725328 2.604 255 255 255
-1.05342 -0.880186 2.374 0 0 0
0.496043 0.74804 2.43 255 255 255
-0.135136 -0.168134 2.805 0 0 0
-0.925538 -0.711139 2.278 0 0 0
-0.0627002 0.780719 2.189 255 255 255
1.28345 -0.489316 2.982 255 255 255
-0.316033 0.296923 2.638 255 255 255
-0.700926 0.314531 2.411 255 255 255
-0.889899 -0.27297 2.402 0 0 0
0.533354 0.842483 2.269 255 255 255
1.47276 -0.494169 2.982 255 255 255
0.587566 0.633862 2.925 255 255 255
0.0829228 -0.125376 2.768 255 255 255
0.0244534 -0.062584 2.78 255 255 255
1.19656 0.856688 2.338 255 255 255
-0.952974 -0.407731 2.561 0 0 0
1.08111 0.474367 2.189 255 255 255
0.145032 0.774585 2.32 255 255 255
-0.9357 -0.127648 2.189 255 255 255
-1.03929 0.687007 2.22 255 255 255
-0.517847 0.143566 2.66 255 255 255
-0.231841 0.813191 2.107 255 255 255
-0.195374 0.548055 2.42 255 255 255
0.372052 0.694348 2.615 255 255 255
-1.12099 0.31763 2.189 255 255 255
-0.00266244 0.125727 2.743 255 255 255
0.620442 0.828055 2.173 255 255 255
-0.755871 -0.00719508 2.411 255 255 255
-0.760266 0.665111 2.294 255 255 255
-0.139973 0.545911 2.638 255 255 255
-0.956281 -0.618272 2.392 0 0 0
-0.992986 0.700658 2.151 255 255 255
-0.205446 0.428671 2.768 0 0 0
0.820558 0.739142 2.593 255 255 255
-0.431731 0.461416 2.42 255 255 255
-0.163936 -1.06981 2.911 255 255 255
0.594436 0.797237 2.32 255 255 255
-0.880413 -0.174225 2.286 0 0 0
-0.916264 0.225128 2.42 255 255 255
-0.305891 0.712693 2.303 255 255 255
0.709749 0.85319 2.22 255 255 255
0.988655 0.596276 2.166 255 255 255
-0.353004 0.653821 1.876 255 255 255
0.0966838 0.313439 2.911 255 255 255
0.370526 0.567422 2.831 255 255 255
-0.646528 0.0783576 2.805 255 255 255
-1.01049 -0.0799272 2.151 255 255 255
0.530236 0.801013 2.32 255 255 255
0.0865771 0.726938 2.374 255 255 255
-0.979371 0.752932 2.092 255 255 255
-0.872362 -0.338208 2.509 255 255 255
-0.927968 -0.0101271 2.196 255 255 255
-0.435247 0.685586 2.181 255 255 255
-0.825418 -0.0549899 2.278 255 255 255
-0.416479 0.656249 2.356 0 0 0
-1.06953 -0.249587 2.261 0 0 0
-1.20463 -0.268162 2.294 0 0 0
-1.01034 0.0509932 2.212 255 255 255
-0.935118 -0.142351 2.196 255 255 255
0.943273 0.659692 2.143 255 255 255
0.0329815 0.722574 2.411 255 255 255
-1.11633 0.527479 2.173 255 255 255
-0.351588 0.290079 2.615 255 255 255
0.354261 0.295907 2.925 255 255 255
0.99704 -1.11779 2.925 255 255 255
-1.04818 0.374575 2.128 255 255 255
-0.563598 0.00544834 2.871 255 255 255
-0.89906 -0.0567902 2.204 255 255 255
-0.619679 -0.816834 2.871 255 255 255
-0.127621 0.582673 2.649 255 255 255
-0.933353 0.166184 2.261 255 255 255
-0.862222 0.719522 2.22 255 255 255
-0.00706515 -0.286871 2.719 255 255 255
-0.234705 -0.356491 2.967 0 0 0
-0.568271 -0.116025 2.871 255 255 255
-0.641782 -0.793893 2.996 255 255 255
-1.05418 -0.284228 2.244 0 0 0
-1.06415 0.386063 2.078 255 255 255
-1.04 -0.129993 2.057 0 0 0
0.681962 0.71626 2.731 255 255 255
-0.952103 -0.787969 2.411 0 0 0
-0.865329 -0.0574086 2.228 255 255 255
-0.927269 0.101755 2.22 255 255 255
-0.177512 0.745559 2.244 255 255 255
-0.233819 -0.0125943 2.731 255 255 255
-0.0878816 0.47149 2.755 255 255 255
-0.96203 0.0500898 2.53 255 255 255
1.01332 0.567644 2.151 255 255 255
-0.407659 0.484296 2.54 255 255 255
0.551162 0.624978 2.884 255 255 255
-0.810947 0.464851 2.459 255 255 255
-0.833084 0.0119535 2.32 255 255 255
-0.868885 0.0698095 2.499 255 255 255
0.127379 -0.295152 2.755 255 255 255
-0.744687 -0.625782 2.831 255 255 255
-0.335912 0.690915 2.383 255 255 255
0.0110771 0.572029 2.831 0 0 0
-0.72369 -0.0368158 2.561 255 255 255
-0.555971 0.521234 2.253 255 255 255
0.858607 0.69209 2.672 255 255 255
-0.391226 0.629913 1.799 255 255 255
-0.62079 -0.895256 2.898 255 255 255
-0.518197 0.571963 2.128 255 255 255
-0.674187 -0.246726 2.925 255 255 255
-0.957036 0.56254 2.365 255 255 255
0.304316 0.816341 2.189 255 255 255
-0.270573 0.448844 2.459 255 255 255
-0.334603 -0.0992377 2.793 255 255 255
0.65648 0.762355 2.53 255 255 255
-0.164792 -0.147331 2.844 255 255 255
-0.611046 -0.303294 2.831 255 255 255
1.32865 -0.0424511 2.953 255 255 255
-0.0779127 -0.346518 2.884 255 255 255
-0.825075 -0.550347 2.731 0 0 0
-0.720204 0.787745 2.024 255 255 255
-0.799448 -0.986936 2.55 255 255 255
-0.284369 0.453317 2.44 255 255 255
1.0191 0.431016 2.004 255 255 255
-0.481647 -1.01765 2.884 0 0 0
-0.332968 -0.00852607 2.857 255 255 255
-0.52809 0.607907 2.085 255 255 255
1.1773 -1.14493 2.996 255 255 255
-0.0207996 -0.00829628 2.78 255 255 255
0.924174 0.630681 2.805 255 255 255
-1.02496 0.497241 2.244 255 255 255
-0.113789 0.542935 2.731 0 0 0
-1.01859 0.621743 2.356 255 255 255
-0.824942 -0.169922 2.329 255 255 255
-0.435646 0.635145 1.789 255 255 255
0.335249 0.700598 2.53 255 255 255
0.943947 0.608049 2.121 255 255 255
-0.86811 -0.378836 2.953 255 255 255
0.12847 0.77337 2.294 255 255 255
-0.847136 -0.368251 2.519 0 0 0
-1.09828 0.67916 2.085 255 255 255
-0.980134 0.516356 2.365 255 255 255
-1.01337 0.283657 2.071 255 255 255
0.144054 0.000761946 2.818 255 255 255
-1.12316 -0.671604 2.459 255 255 255
0.980687 0.859891 2.228 255 255 255
-0.0750901 0.796576 2.136 255 255 255
-0.81533 0.0236409 2.356 255 255 255
0.381869 0.660256 2.684 255 255 255
0.1805 0.664559 2.615 255 255 255
-1.05362 0.433844 2.064 255 255 255
0.159271 0.560772 2.844 255 255 255
-0.887275 0.314826 2.54 255 255 255
1.15292 -0.730511 2.996 255 255 255
-0.258403 0.662261 2.42 255 255 255
-0.240841 0.579158 2.402 255 255 255
-0.836342 0.435812 2.499 255 255 255
-1.02656 -0.275015 2.42 0 0 0
-0.410852 0.474303 2.509 255 255 255
-0.587768 -0.32462 2.898 255 255 255
-0.812545 -0.0628423 2.294 255 255 255
-0.837047 0.35711 2.489 255 255 255
0.157472 0.693453 2.519 255 255 255
-1.02348 -0.419867 2.509 255 255 255
0.300976 0.737086 2.42 255 255 255
-0.799989 -0.0837107 2.356 255 255 255
-0.500769 0.585252 2.411 255 255 255
-0.334581 0.406506 2.519 255 255 255
-0.993666 0.0847786 1.991 255 255 255
-0.97075 -0.477277 2.489 0 0 0
-1.09917 0.635708 2.269 255 255 255
-0.366312 0.480163 2.54 255 255 255
0.116308 0.712451 2.43 255 255 255
-0.498285 -0.0126496 2.743 255 255 255
-0.916094 0.0362467 2.43 255 255 255
-0.985164 0.0759152 2.204 255 255 255
-0.693398 0.698788 2.189 255 255 255
0.525597 0.844785 2.236 255 255 255
-0.676623 0.660536 2.204 255 255 255
-1.11873 -0.353435 2.365 255 255 255
-1.06941 -0.245038 2.253 0 0 0
-0.294746 0.744317 2.166 255 255 255
-0.0426606 0.507381 2.731 255 255 255
0.224772 0.774393 2.286 255 255 255
-0.450964 -0.98486 2.898 255 255 255
-0.948694 -0.447152 2.572 0 0 0
-0.251601 0.391831 2.731 255 255 255
0.287541 0.799878 2.253 255 255 255
-0.171805 -0.369984 2.884 255 255 255
0.2231 0.779712 2.269 255 255 255
0.297494 0.759698 2.392 255 255 255
-0.901188 0.335441 2.166 255 255 255
0.193615 -0.323332 2.805 255 255 255
-0.46178 0.401581 2.392 255 255 255
-0.832326 0.220426 2.755 255 255 255
0.0433353 0.392358 2.831 255 255 255
0.00989934 0.65531 2.53 255 255 255
-1.04473 0.542408 2.312 255 255 255
-1.01478 -0.849279 2.374 255 255 255
-0.0387328 0.0953418 2.768 255 255 255
0.339906 0.559272 2.884 255 255 255
-0.0699431 0.55219 2.755 255 255 255
-0.348739 0.166587 2.911 255 255 255
-0.299967 0.765889 2.128 255 255 255
-0.381823 0.66259 1.769 255 255 255
-0.996907 0.0912587 1.991 255 255 255
-0.896778 -0.102337 2.181 255 255 255
-1.16584 -0.405994 2.499 255 255 255
0.412976 0.755949 2.43 255 255 255
-1.07936 0.374575 2.128 255 255 255
-0.273845 -0.971012 2.871 255 255 255
-0.843729 0.760591 2.085 255 255 255
-0.411453 -0.989135 2.953 255 255 255
0.148276 -0.413605 2.996 255 255 255
-1.02027 -0.0161337 2.051 255 255 255
0.0617686 0.470676 2.831 255 255 255
-0.0623683 0.349284 2.818 0 0 0
-0.643925 -0.812268 2.939 255 255 255
-0.453674 0.338072 2.411 255 255 255
1.16431 0.654191 2.695 255 255 255
-0.108226 0.771476 2.173 255 255 255
-0.847825 -0.40753 2.884 255 255 255
-0.474551 -0.0227964 2.898 255 255 255
-0.707014 -0.0159779 2.561 255 255 255
1.10954 0.860945 2.269 255 255 255
-0.956334 0.299369 2.212 255 255 255
-0.974249 -0.421541 2.519 0 0 0
-0.986393 0.0794317 2.107 255 255 255
-0.803746 0.0626811 2.719 255 255 255
0.895444 0.604338 2.967 255 255 255
1.01334 0.553978 2.166 255 255 255
0.499409 0.57054 2.967 255 255 255
-0.172662 0.540149 2.55 255 255 255
-0.558298 -0.138075 2.844 255 255 255
0.338268 0.318646 2.831 255 255 255
-0.551438 0.560209 2.136 255 255 255
-0.916727 -0.477782 2.649 255 255 255
0.163125 0.815893 2.114 255 255 255
-0.905223 0.689483 2.228 255 255 255
-0.291889 0.401628 2.54 255 255 255
1.28886 -0.539653 2.939 255 255 255
-0.622957 0.0392425 2.953 255 255 255
-0.516291 0.331515 2.392 255 255 255
0.383496 0.242216 2.967 255 255 255
-0.31207 0.737495 1.887 255 255 255
0.0298764 0.69051 2.479 255 255 255
1.24258 0.651591 2.898 255 255 255
-0.099175 0.651971 2.582 0 0 0
-0.248661 0.551796 2.402 255 255 255
0.414305 0.775268 2.392 255 255 255
-0.958939 0.756336 2.092 255 255 255
0.657356 0.651244 2.939 255 255 255
-0.101896 0.762908 2.189 255 255 255
-0.924449 -0.726438 2.303 0 0 0
-1.08173 0.738372 2.099 255 255 255
0.55369 0.767001 2.44 255 255 255
-1.05297 -0.0620333 2.024 255 255 255
0.0411526 0.716405 2.43 255 255 255
1.02326 0.725328 2.604 255 255 255
-0.885072 0.282909 2.196 255 255 255
-1.02275 -0.803663 2.411 255 255 255
0.325932 0.583912 2.844 255 255 255
-0.722919 -0.508263 2.818 0 0 0
-0.841098 0.36116 2.489 255 255 255
-0.609117 0.624608 2.107 255 255 255
0.0342753 0.408044 2.844 255 255 255
0.348803 0.711115 2.509 255 255 255
-0.856681 0.419545 2.499 255 255 255
0.190676 0.744962 2.42 255 255 255
-1.028 0.452131 2.151 255 255 255
0.763059 0.677715 2.719 255 255 255
-0.150214 0.2219 2.831 255 255 255
0.153615 -0.209055 2.743 255 255 255
-0.789516 -0.169383 2.43 255 255 255
0.349499 0.557703 2.925 255 255 255
-0.133966 0.76647 2.189 255 255 255
-0.419071 0.0103601 2.939 255 255 255
0.418199 0.775268 2.392 255 255 255
-0.564143 0.149841 2.695 255 255 255
-0.565094 0.163843 2.638 255 255 255
-1.04862 -0.249513 2.329 255 255 255
-0.52675 0.248764 2.459 255 255 255
-1.21632 -0.383642 2.338 255 255 255
-0.0699431 -0.174103 2.755 255 255 255
-0.86823 0.0800734 2.44 255 255 255
-0.412643 0.663917 2.356 0 0 0
0.0706592 0.587746 2.818 255 255 255
-0.817479 0.71743 2.236 255 255 255
-0.705151 0.734329 2.107 255 255 255
-0.886663 0.361814 2.312 255 255 255
-0.862473 0.50692 2.469 255 255 255
-0.853279 -0.0541691 2.244 255 255 255
0.285051 0.350287 2.719 255 255 255
-0.307948 -0.196335 2.884 0 0 0
-0.0833969 0.444591 2.755 255 255 255
-0.545758 0.595721 2.114 255 255 255
0.0742317 -0.062584 2.78 255 255 255
-0.0699431 0.189043 2.755 255 255 255
0.404363 0.732681 2.499 255 255 255
-0.760869 -0.0110771 2.402 255 255 255
0.0590649 0.781722 2.212 255 255 255
0.0513243 0.791405 2.189 255 255 255
-0.940456 0.331879 2.143 255 255 255
-0.420959 0.391224 2.449 255 255 255
-0.978956 -0.572179 2.479 0 0 0
-0.671044 -0.979161 2.996 255 255 255
0.597874 0.824005 2.181 255 255 255
-1.03785 0.0315332 2.114 255 255 255
0.0657673 -0.186393 2.805 255 255 255
-0.672371 0.0299939 2.572 255 255 255
0.0598485 0.0587706 2.743 255 255 255
-0.902946 -0.0208479 2.196 255 255 255
-0.695419 0.226139 2.519 255 255 255
-0.254196 0.742126 2.212 255 255 255
-1.135 -0.38327 2.383 255 255 255
-0.740845 -0.970236 2.925 255 255 255
-0.888197 0.380202 2.356 255 255 255
-1.04239 -0.800663 2.402 255 255 255
-0.590629 0.348195 2.347 255 255 255
0.94781 0.837507 2.236 255 255 255
-0.898249 -0.761784 2.479 255 255 255
-0.115831 -0.175683 2.78 255 255 255
-0.618367 0.485922 2.294 255 255 255
0.251926 0.472383 2.898 0 0 0
0.250798 0.708496 2.43 255 255 255
-0.896027 0.358777 2.269 255 255 255
-1.01938 0.148602 1.978 255 255 255
-0.884724 -0.640108 2.793 255 255 255
-0.0840844 0.752073 2.286 255 255 255
-0.0834652 0.778548 2.173 255 255 255
-0.41234 0.43058 2.469 255 255 255
-0.96777 0.160892 2.189 255 255 255
1.08043 0.713831 2.672 255 255 255
-0.223023 0.736489 2.261 255 255 255
-0.0116433 0.14421 2.755 255 255 255
-0.800933 0.0769609 2.755 255 255 255
-0.555416 0.528217 2.236 255 255 255
-0.758729 -0.125404 2.347 255 255 255
-0.277245 0.726551 2.253 255 255 255
-0.798168 0.338169 2.469 255 255 255
-0.312121 0.730573 1.985 255 255 255
-0.469115 0.546365 2.43 255 255 255
-0.80191 -0.4992 2.743 0 0 0
-0.668455 0.659603 2.189 255 255 255
0.367356 0.731921 2.469 255 255 255
0.115497 0.246192 2.793 255 255 255
1.36842 0.00555081 2.925 255 255 255
-0.82939 -0.974799 2.54 255 255 255
-0.825075 -0.448129 2.731 255 255 255
-0.290295 0.720633 2.269 255 255 255
-0.173906 0.307051 2.768 255 255 255
-0.701124 -0.193269 2.649 255 255 255
-0.569606 0.292076 2.42 255 255 255
1.02571 0.450224 2.017 255 255 255
-0.769541 -0.470001 2.755 0 0 0
0.947004 0.635246 2.805 255 255 255
0.944883 0.621354 2.911 255 255 255
-0.350416 0.0293505 2.925 255 255 255
1.50893 -1.07179 2.996 255 255 255
-1.07367 -0.863205 2.402 255 255 255
-0.119393 -0.474758 2.982 0 0 0
-0.307844 0.438616 2.469 0 0 0
0.153721 0.704947 2.459 255 255 255
-0.701721 0.724043 2.107 255 255 255
-0.169486 -0.418084 2.925 255 255 255
-0.40379 -1.09333 2.898 255 255 255
-0.205727 -0.308208 2.967 0 0 0
0.637473 0.650193 2.871 255 255 255
-0.233381 0.790982 2.121 255 255 255
-1.0393 0.0885934 2.004 255 255 255
-0.20566 -1.00372 2.898 0 0 0
-0.98874 0.680932 2.212 255 255 255
-0.364732 0.674014 1.784 255 255 255
0.83251 0.696438 2.672 255 255 255
1.08928 -0.804741 2.982 255 255 255
0.460665 0.786963 2.312 255 255 255
0.175595 0.5405 2.884 255 255 255
0.27379 -0.130216 2.982 255 255 255
-0.602706 -0.292132 2.857 255 255 255
0.325693 0.262587 2.925 255 255 255
0.0498232 -0.27881 2.684 255 255 255
