ply
format ascii 1.0
comment Created by Open3D
element vertex 1323
property double x
property double y
property double z
property uchar red
property uchar green
property uchar blue
end_header
-0.618536 -0.260796 1.655 255 255 255
-0.749334 0.219442 1.794 255 255 255
0.026755 0.621979 2.22 255 255 255
-0.0874564 0.161108 2.099 255 255 255
-0.382223 -0.52824 1.719 255 255 255
-0.421804 0.00984618 1.911 255 255 255
-0.876515 0.108765 1.664 255 255 255
-0.106732 -0.832901 2.143 255 255 255
0.0767891 0.267754 2.312 255 255 255
-0.363623 0.265002 2.057 255 255 255
1.11667 0.758566 2.261 255 255 255
-0.698977 -0.179822 1.629 255 255 255
1.01818 0.633882 2.402 0 0 0
-0.252241 -0.609816 1.769 255 255 255
-0.225828 -0.425529 1.911 255 255 255
0.59599 0.27285 2.356 255 255 255
-0.757547 0.6866 1.779 255 255 255
-0.551578 -0.53404 1.579 255 255 255
0.552232 -0.0194218 2.469 255 255 255
0.842198 0.248764 2.459 255 255 255
-0.602175 0.548418 2.004 255 255 255
0.00143855 0.111021 2.189 255 255 255
0.803173 0.730848 2.189 255 255 255
0.879939 0.118655 2.684 0 0 0
-0.319806 -0.231479 1.953 255 255 255
1.18243 -0.103377 2.459 255 255 255
0.26434 -0.34319 2.374 0 0 0
0.723151 -0.252567 2.638 255 255 255
-0.395725 0.0819953 2.085 255 255 255
0.875049 0.234338 2.519 255 255 255
0.36089 0.345248 2.253 255 255 255
-0.768881 0.397464 1.848 255 255 255
-0.559512 -0.326941 1.705 255 255 255
-0.68193 -0.384458 1.62 255 255 255
-0.423499 -0.534725 1.62 255 255 255
1.01396 0.688116 2.347 255 255 255
-0.175704 -0.00283872 2.092 255 255 255
0.809144 0.264509 2.42 255 255 255
-0.590991 -0.532466 1.509 255 255 255
-0.0662233 0.56122 2.312 255 255 255
-0.870486 0.475264 1.779 0 0 0
-0.305075 -0.131201 2.024 255 255 255
0.880354 -0.281912 2.672 255 255 255
0.676823 -0.160047 2.469 255 255 255
0.0119566 -0.0345343 2.158 255 255 255
-0.739945 -0.226281 1.62 0 0 0
0.962088 0.714413 2.261 255 255 255
0.576882 0.729101 2.092 255 255 255
0.890351 -0.106389 2.743 255 255 255
-0.642213 -0.267959 1.633 255 255 255
-0.855879 -0.00501955 1.682 255 255 255
-0.579639 0.634623 1.929 255 255 255
-0.157187 0.672229 1.947 255 255 255
-0.156905 -0.130155 2.114 255 255 255
-0.710351 -0.321422 1.595 255 255 255
1.19044 0.480857 2.459 255 255 255
-0.562659 0.678229 1.893 255 255 255
-0.450724 0.614134 1.876 255 255 255
-0.417943 -0.00586708 1.966 255 255 255
0.280831 0.579322 2.044 255 255 255
0.303051 0.285937 2.469 255 255 255
0.299538 0.439859 2.347 0 0 0
0.407109 0.309384 2.286 255 255 255
0.01276 0.589018 2.303 255 255 255
-0.60725 0.468287 2.01 255 255 255
1.12321 -0.700529 2.66 255 255 255
-0.16596 -0.334156 2.236 255 255 255
-0.58614 0.292561 1.972 255 255 255
0.392506 0.427405 2.204 255 255 255
0.205009 0.67916 2.085 255 255 255
-0.823744 -0.382666 1.559 255 255 255
-0.4073 -0.241514 1.859 255 255 255
0.147845 0.250801 2.365 255 255 255
1.14305 -0.589562 2.707 255 255 255
1.0832 -1.01635 2.626 0 0 0
-0.101567 -0.341572 2.261 0 0 0
1.14676 -0.56502 2.695 255 255 255
0.941861 0.375846 2.479 255 255 255
-0.626249 -0.0562897 1.744 255 255 255
-0.0715812 0.362128 2.244 255 255 255
1.25557 -0.786836 2.469 0 0 0
1.04234 0.552886 2.459 255 255 255
1.23949 -0.766746 2.469 0 0 0
0.393198 -0.556915 2.43 0 0 0
0.795972 0.230959 2.44 255 255 255
0.53083 0.719876 2.085 0 0 0
-0.211066 0.678566 1.947 255 255 255
-0.401289 -0.507102 1.659 255 255 255
-0.788098 -0.115273 1.616 255 255 255
1.08974 -0.0534862 2.561 255 255 255
1.0985 -0.227325 2.695 255 255 255
0.496417 0.60699 2.286 255 255 255
-0.761033 -0.199353 1.637 255 255 255
1.19282 -0.787483 2.604 255 255 255
-0.678334 0.06547 1.815 0 0 0
0.363432 -0.172549 2.365 255 255 255
1.22096 -0.178021 2.44 255 255 255
0.443407 0.215636 2.402 255 255 255
-0.843543 -0.237371 1.642 255 255 255
0.676522 0.190663 2.383 255 255 255
-0.539475 -0.0851637 1.815 255 255 255
-0.438558 -0.305202 1.789 255 255 255
-0.821418 0.384869 1.831 255 255 255
-0.594617 -0.452659 1.591 255 255 255
0.907561 0.784342 2.085 255 255 255
-0.414054 0.361047 1.978 255 255 255
0.615166 0.230676 2.356 255 255 255
-0.716113 -0.494179 1.535 255 255 255
-0.774325 -0.461292 1.47 255 255 255
-0.151017 -0.362343 1.991 255 255 255
-0.410927 -0.331383 1.758 255 255 255
-0.54064 -0.459889 1.664 255 255 255
0.817989 0.71043 2.181 255 255 255
-0.00838909 0.720882 1.985 255 255 255
0.654546 0.180456 2.402 255 255 255
1.21641 -0.139486 2.392 255 255 255
0.224151 0.67502 1.779 255 255 255
-0.0455112 0.420465 2.411 255 255 255
-0.356057 -0.188771 1.876 255 255 255
-0.365754 -0.299379 1.789 255 255 255
-0.728909 -0.48935 1.52 255 255 255
0.380272 -0.57885 2.374 0 0 0
0.0126658 0.59211 2.286 255 255 255
0.682428 0.77489 2.051 255 255 255
0.50054 0.742981 1.917 255 255 255
1.01478 -0.0116674 2.53 255 255 255
0.815258 0.783571 2.092 255 255 255
-0.419049 0.507034 1.831 255 255 255
-0.457983 -0.446987 1.774 255 255 255
1.11167 -0.258025 2.695 255 255 255
0.437667 -0.657198 2.392 0 0 0
-0.661467 -0.391454 1.696 255 255 255
1.1918 -0.0148112 2.374 255 255 255
-0.81664 0.656832 1.769 255 255 255
-0.662938 -0.573366 1.494 255 255 255
-0.582276 0.593486 1.959 255 255 255
1.18946 -0.788263 2.499 255 255 255
-0.707249 -0.581809 1.516 255 255 255
-0.456545 0.348159 1.826 255 255 255
-0.424751 -0.479856 1.677 255 255 255
0.96295 0.0880807 2.684 255 255 255
-0.686552 0.0518227 1.753 255 255 255
-0.729812 0.554605 2.051 0 0 0
0.675033 0.357745 2.286 255 255 255
0.277592 -0.423382 2.53 0 0 0
0.839804 -0.415762 2.844 0 0 0
-0.531842 0.223424 1.985 255 255 255
0.346406 -0.141791 2.303 255 255 255
-0.31248 -0.45483 1.853 255 255 255
0.230708 0.438616 2.469 255 255 255
-0.904877 0.662402 1.784 255 255 255
-0.659201 -0.264651 1.629 255 255 255
-0.31873 0.272915 2.092 255 255 255
0.994518 0.636257 2.411 0 0 0
-0.095419 0.0113558 2.204 255 255 255
-0.034409 0.48886 2.459 255 255 255
0.941375 0.657561 2.347 255 255 255
-0.669756 -0.490496 1.555 255 255 255
-0.680626 0.657816 1.87 255 255 255
0.239914 -0.0469884 2.44 255 255 255
-0.30557 0.31793 2.143 255 255 255
-0.280093 0.407734 2.338 255 255 255
-0.662252 -0.524703 1.487 255 255 255
-0.463756 0.706669 1.831 255 255 255
-0.5226 -0.131951 1.893 255 255 255
0.0833936 0.63823 2.189 255 255 255
0.101617 -0.0512828 2.278 255 255 255
0.291869 0.581757 1.734 255 255 255
-0.621103 -0.531962 1.487 255 255 255
-0.674034 -0.221782 1.686 0 0 0
-0.468062 -0.125807 1.848 255 255 255
0.87684 -0.4713 2.844 0 0 0
0.747741 0.0430797 2.604 255 255 255
-0.693347 -0.176511 1.673 255 255 255
0.119977 -0.0299201 2.347 255 255 255
1.14696 0.347894 2.54 0 0 0
-0.519713 -0.48319 1.624 255 255 255
0.939791 0.753164 2.151 255 255 255
-0.116945 0.029289 2.204 255 255 255
-0.593732 -0.584276 1.516 255 255 255
-0.660941 0.00628868 1.784 255 255 255
0.918991 0.667678 2.329 255 255 255
1.12543 -0.263579 2.707 255 255 255
-0.0488617 0.53192 2.383 255 255 255
0.938265 0.456847 2.459 0 0 0
-0.242999 -0.581331 1.744 255 255 255
-0.473297 0.662827 1.893 255 255 255
0.738539 -0.530446 2.743 255 255 255
-0.0268697 -0.105498 2.173 255 255 255
-0.33351 0.599103 2.078 255 255 255
-0.370405 0.617704 1.935 0 0 0
-0.639496 0.0063063 1.789 255 255 255
-0.451295 0.364717 1.805 255 255 255
1.05166 -0.274023 2.768 255 255 255
-0.665181 0.574952 2.017 255 255 255
0.937872 -0.82088 2.805 255 255 255
-0.0406033 0.137097 2.151 255 255 255
-0.216141 0.580713 2.228 255 255 255
0.181185 0.634891 2.253 255 255 255
0.59028 0.20075 2.411 255 255 255
-0.285629 0.222592 2.099 255 255 255
1.15769 0.0046475 2.449 255 255 255
1.03197 0.720633 2.269 255 255 255
-0.403622 -0.221641 1.87 255 255 255
-0.776596 -0.274695 1.551 255 255 255
0.259747 0.590891 1.805 0 0 0
-0.678854 -0.210408 1.705 0 0 0
0.40807 -0.129719 2.356 255 255 255
-0.47615 -0.0580649 1.799 255 255 255
-0.725817 0.537088 1.917 255 255 255
0.7495 0.687007 2.22 0 0 0
-0.5148 0.602381 1.887 255 255 255
0.910446 -0.671972 2.953 255 255 255
0.056822 -0.200276 2.128 255 255 255
1.2454 0.227127 2.53 255 255 255
0.977441 -0.00758005 2.54 255 255 255
0.455416 0.229442 2.383 255 255 255
0.00838509 0.649229 2.143 255 255 255
-0.455911 0.151821 1.978 255 255 255
0.206374 -0.347053 2.374 255 255 255
-0.149632 0.0321895 2.158 255 255 255
0.365868 0.18874 2.459 255 255 255
-0.118643 0.26623 2.236 255 255 255
-0.843206 0.0876907 1.729 255 255 255
-0.107877 0.113379 2.166 255 255 255
0.45911 -0.50782 2.626 255 255 255
-0.64266 0.203323 1.978 255 255 255
-0.595307 -0.435151 1.673 255 255 255
-0.340297 0.523179 2.099 255 255 255
0.564809 -0.0155287 2.489 255 255 255
0.0520511 -0.0788785 2.22 255 255 255
-0.450586 -0.20796 1.779 255 255 255
0.30983 0.612068 1.724 255 255 255
-0.0705604 0.60174 2.212 255 255 255
0.277341 0.378715 2.42 255 255 255
1.01462 -0.0413195 2.582 0 0 0
-0.539875 -0.569507 1.629 255 255 255
-0.793626 -0.522663 1.502 255 255 255
-0.473222 -0.0668476 1.799 255 255 255
-0.805364 0.450129 1.842 255 255 255
-0.767945 0.277921 1.853 255 255 255
1.22731 -0.932847 2.561 255 255 255
0.139893 -0.212363 2.181 255 255 255
-0.0131892 0.216925 2.253 255 255 255
-0.657178 -0.284981 1.624 255 255 255
-0.201589 -0.0366356 2.078 255 255 255
-0.0979791 0.701129 1.905 255 255 255
-0.751668 -0.569474 1.516 255 255 255
0.172133 -0.052431 2.329 255 255 255
-0.699957 0.0834398 1.758 255 255 255
0.464398 -0.881176 2.43 0 0 0
-0.726036 0.0753751 1.705 255 255 255
1.16506 0.228411 2.499 255 255 255
-0.362173 0.377736 2.107 255 255 255
-0.443438 -0.106189 1.821 255 255 255
-0.710953 -0.494282 1.551 255 255 255
-0.226476 0.218022 2.121 255 255 255
-0.0679284 0.588535 2.244 255 255 255
-0.896165 0.613048 1.784 255 255 255
0.293818 -0.755638 2.459 0 0 0
-0.138401 0.176844 2.044 255 255 255
0.644237 0.026581 2.649 255 255 255
-0.60757 0.673032 1.87 255 255 255
0.975188 -0.195664 2.743 255 255 255
0.285813 0.483325 2.392 0 0 0
-0.394578 0.108484 2.01 255 255 255
-0.116149 0.60617 2.189 255 255 255
1.17725 -0.841143 2.626 255 255 255
0.777144 0.754626 2.196 255 255 255
0.0521902 0.58064 2.392 255 255 255
-0.441688 0.135315 1.972 255 255 255
-0.0493103 0.602467 2.228 255 255 255
0.486168 0.0086011 2.44 255 255 255
0.860924 0.175918 2.626 255 255 255
-0.183432 -0.0531828 2.064 255 255 255
-0.816319 -0.413271 1.579 255 255 255
1.06367 0.033475 2.519 255 255 255
0.734068 0.533579 2.228 255 255 255
-0.197539 -0.0264016 2.071 255 255 255
-0.498144 0.698194 1.848 255 255 255
0.422318 0.163997 2.509 255 255 255
-0.679045 0.277029 1.953 255 255 255
-0.825871 0.0376663 1.758 255 255 255
0.936296 0.75385 2.143 255 255 255
-0.13924 -0.460476 1.876 0 0 0
-0.50435 0.176495 1.966 255 255 255
-0.905125 0.307155 1.729 255 255 255
-0.558605 0.0852084 1.859 255 255 255
-0.378641 -0.158748 1.882 255 255 255
0.948951 0.120202 2.719 0 0 0
1.11221 -0.272389 2.707 255 255 255
-0.0819511 0.287032 2.228 255 255 255
1.0202 -0.755897 2.818 0 0 0
-0.535467 0.427902 1.917 255 255 255
0.137663 -0.0656177 2.261 255 255 255
0.167025 -0.478141 2.604 0 0 0
-0.0498254 0.447505 2.43 255 255 255
-0.0837594 -0.217314 2.092 255 255 255
-0.352259 -0.26919 1.905 255 255 255
-0.17911 0.616757 2.092 255 255 255
0.0733025 0.713606 2.01 255 255 255
-0.547386 -0.578432 1.567 255 255 255
-0.763698 -0.207344 1.637 0 0 0
0.707219 0.164061 2.449 255 255 255
0.941105 0.0400355 2.684 255 255 255
-0.655946 -0.374895 1.696 255 255 255
0.416205 -0.888066 2.449 0 0 0
-0.753046 0.488966 1.876 0 0 0
-0.079928 -0.282307 2.173 255 255 255
-0.727813 0.0342313 1.729 255 255 255
-0.71573 0.572051 2.03 0 0 0
-0.214325 0.443307 2.286 255 255 255
-0.677373 0.445199 2.024 255 255 255
1.12696 0.490848 2.469 255 255 255
-0.371554 0.610143 1.941 255 255 255
-0.627094 -0.445544 1.575 255 255 255
-0.577871 -0.467333 1.624 255 255 255
-0.606377 -0.235088 1.744 255 255 255
0.587418 -0.190459 2.499 255 255 255
0.0520511 -0.129456 2.22 255 255 255
0.375763 -0.511917 2.582 0 0 0
1.20194 -0.683398 2.402 0 0 0
0.883803 0.791128 2.085 255 255 255
-0.621539 -0.438608 1.587 255 255 255
-0.340454 0.122637 2.143 255 255 255
0.681093 0.646785 2.269 255 255 255
-0.398773 0.0253156 1.905 255 255 255
-0.711305 -0.286513 1.603 255 255 255
0.281767 0.640124 1.724 255 255 255
-0.684994 0.655912 1.882 255 255 255
-0.205521 -0.160288 2.017 255 255 255
0.568278 0.364871 2.261 255 255 255
-0.593287 0.691392 1.799 255 255 255
-0.493344 0.671108 1.899 255 255 255
-0.516744 0.306238 1.917 255 255 255
1.09321 0.0544212 2.54 255 255 255
0.294309 -0.845586 2.43 255 255 255
0.112245 0.658537 2.128 255 255 255
-0.080774 0.00416738 2.196 255 255 255
0.71376 0.539448 2.365 0 0 0
0.265163 0.58795 1.744 255 255 255
1.10686 -0.011386 2.469 255 255 255
-0.492063 -0.550543 1.62 255 255 255
-0.692731 -0.179888 1.705 255 255 255
-0.639728 0.449822 2.03 255 255 255
-0.425187 -0.637429 1.668 255 255 255
1.09569 -0.10568 2.615 255 255 255
0.978073 0.393564 2.489 255 255 255
1.13291 0.284352 2.356 255 255 255
-0.188449 -0.205525 2.01 255 255 255
-0.679196 -0.534382 1.487 255 255 255
-0.709855 0.684886 1.805 255 255 255
-0.764913 -0.374728 1.579 255 255 255
-0.723857 -0.108124 1.668 0 0 0
-0.692944 -0.346463 1.579 255 255 255
-0.519711 0.558526 1.905 255 255 255
1.14521 0.176246 2.509 255 255 255
-0.484807 -0.501688 1.677 255 255 255
1.01572 -0.512953 2.844 0 0 0
1.16593 -0.108548 2.582 255 255 255
0.556135 0.117385 2.561 255 255 255
0.223093 0.674944 1.842 255 255 255
0.672892 0.0266914 2.66 255 255 255
0.461208 -0.578827 2.638 255 255 255
1.01069 -0.036974 2.572 255 255 255
-0.613216 -0.39791 1.7 255 255 255
-0.777905 0.337318 1.848 255 255 255
-0.620084 0.652566 1.899 255 255 255
-0.369502 -0.468512 1.779 255 255 255
-0.403149 -0.0626481 1.941 255 255 255
0.968836 0.0297373 2.55 255 255 255
-0.386877 -0.294811 1.779 255 255 255
-0.523965 -0.497932 1.629 255 255 255
0.944962 -0.0738274 2.695 255 255 255
-0.830469 0.143127 1.686 255 255 255
-0.0331692 0.72653 1.923 255 255 255
-0.0889981 0.313415 2.136 255 255 255
0.433538 0.39656 2.212 255 255 255
-0.426403 0.0393589 1.837 255 255 255
-0.150391 -0.682952 1.826 0 0 0
1.09783 0.548614 2.44 255 255 255
0.167025 -0.482378 2.604 0 0 0
-0.491564 -0.425296 1.71 255 255 255
-0.438711 -0.278827 1.826 255 255 255
-0.843129 0.171971 1.673 255 255 255
1.1976 0.19181 2.499 255 255 255
-0.261504 0.708192 1.899 255 255 255
-0.645161 0.208488 1.966 255 255 255
0.703945 0.666488 2.236 255 255 255
-0.603412 0.0554589 1.876 255 255 255
-0.734264 -0.452323 1.563 255 255 255
-0.419757 -0.50171 1.668 255 255 255
-0.694039 -0.112079 1.729 255 255 255
0.292624 -0.664888 2.449 255 255 255
-0.699566 0.496427 1.966 0 0 0
1.08195 0.552585 2.44 255 255 255
1.05716 -0.363185 2.831 0 0 0
0.0784446 -0.237445 2.151 0 0 0
1.04719 0.0170103 2.509 255 255 255
-0.650586 -0.55242 1.477 255 255 255
-0.717122 -0.485094 1.587 255 255 255
-0.344388 -0.540726 1.769 255 255 255
0.223985 -0.106889 2.278 255 255 255
-0.12097 0.590941 2.212 255 255 255
0.691521 0.447855 2.329 255 255 255
-0.443656 0.294927 2.01 255 255 255
-0.39622 -0.448606 1.769 255 255 255
1.14874 -0.634787 2.731 255 255 255
0.181798 -0.0108649 2.356 255 255 255
-0.477416 -0.610044 1.624 255 255 255
-0.282436 0.628033 2.051 255 255 255
0.974969 -1.00351 2.755 0 0 0
-0.48016 -0.354802 1.719 255 255 255
-0.0381541 0.0833901 2.212 255 255 255
-0.280508 0.643635 2.037 255 255 255
-0.817239 -0.0134513 1.71 255 255 255
-0.757547 0.148127 1.779 255 255 255
1.09269 -0.844199 2.649 255 255 255
-0.600706 0.213154 2.01 255 255 255
-0.364162 -0.627526 1.7 255 255 255
0.285813 0.417152 2.392 255 255 255
-0.671278 -0.200362 1.714 0 0 0
0.852023 -0.753736 2.793 255 255 255
-0.176113 0.171274 2.057 255 255 255
0.325936 0.511405 2.121 255 255 255
0.980875 0.06003 2.604 255 255 255
-0.236652 0.543749 2.286 255 255 255
1.12024 -0.851671 2.593 255 255 255
-0.463998 -0.515266 1.642 255 255 255
0.458366 -0.00331094 2.44 255 255 255
1.24792 -0.374323 2.649 255 255 255
0.742992 0.5155 2.244 255 255 255
-0.417285 -0.58296 1.637 255 255 255
0.657518 -0.0491068 2.55 255 255 255
-0.825119 0.52645 1.826 255 255 255
-0.665994 -0.397063 1.607 255 255 255
0.461425 -0.111393 2.374 255 255 255
0.194042 0.13919 2.365 255 255 255
-0.591271 -0.381611 1.677 255 255 255
-0.54783 -0.460819 1.629 255 255 255
-0.746939 0.516442 1.876 0 0 0
0.0814584 0.137601 2.338 255 255 255
-0.736201 -0.456422 1.551 255 255 255
0.895347 -0.0348155 2.731 255 255 255
-0.596771 -0.529397 1.543 255 255 255
0.834482 -0.374738 2.78 255 255 255
-0.109449 0.132168 2.128 255 255 255
-0.944992 0.575612 1.794 255 255 255
0.29661 -0.581196 2.449 255 255 255
0.754058 0.0904507 2.626 0 0 0
-0.702616 -0.281998 1.607 255 255 255
-0.788462 -0.0464606 1.696 255 255 255
0.572408 0.651235 2.338 0 0 0
-0.272138 -0.500025 1.887 255 255 255
-0.50403 -0.0579035 1.794 255 255 255
-0.19738 0.589758 2.181 255 255 255
-0.178536 -0.526749 1.81 255 255 255
-0.630531 -0.0308176 1.748 255 255 255
-0.407654 -0.399695 1.744 255 255 255
0.697154 0.247892 2.374 255 255 255
1.1932 -0.439241 2.731 255 255 255
-0.866145 0.423802 1.794 255 255 255
0.907561 0.744317 2.166 255 255 255
-0.719455 0.635504 1.876 255 255 255
0.327662 -0.115557 2.303 255 255 255
0.249783 0.330078 2.499 255 255 255
-0.887453 0.287895 1.784 255 255 255
-0.220566 -0.647239 1.769 255 255 255
0.553804 0.27285 2.356 255 255 255
-0.290512 0.597728 2.085 255 255 255
0.271762 0.664303 1.714 255 255 255
0.282326 -0.601195 2.499 255 255 255
-0.520818 -0.5109 1.595 255 255 255
1.06926 0.349444 2.582 255 255 255
1.0145 0.513007 2.479 255 255 255
0.489954 0.0246745 2.459 255 255 255
-0.590366 -0.337035 1.714 255 255 255
-0.10477 0.492921 2.42 255 255 255
-0.57034 -0.140844 1.848 255 255 255
-0.631927 -0.237926 1.744 255 255 255
-0.849701 0.517244 1.784 255 255 255
0.49188 0.0452276 2.489 255 255 255
1.16675 0.0749175 2.402 255 255 255
1.21596 0.463323 2.43 0 0 0
1.13487 -0.0615558 2.55 255 255 255
-0.172103 0.569244 2.269 255 255 255
-0.247444 -0.225814 1.959 255 255 255
-0.906605 0.608569 1.859 255 255 255
0.966195 0.474777 2.469 0 0 0
-0.185298 0.621479 2.085 255 255 255
-0.81883 0.141216 1.696 255 255 255
-0.687842 0.579 1.997 255 255 255
1.21846 -0.823665 2.459 0 0 0
-0.259995 -0.622092 1.763 255 255 255
0.0502457 0.652717 2.143 255 255 255
1.21699 0.504936 2.44 255 255 255
0.111475 -0.454794 2.499 0 0 0
0.497598 -0.538457 2.672 255 255 255
0.972064 0.0306236 2.626 255 255 255
0.289181 0.510557 2.356 0 0 0
0.7609 0.391704 2.356 255 255 255
-0.256035 0.471942 2.228 255 255 255
0.693289 0.583997 2.374 0 0 0
-0.35014 0.196128 2.037 255 255 255
0.335179 -0.905674 2.411 255 255 255
-0.724406 0.31524 1.842 255 255 255
0.0825475 0.707314 2.078 255 255 255
-0.723543 -0.279383 1.607 255 255 255
0.223496 -0.170415 2.236 255 255 255
-0.359482 -0.651722 1.691 255 255 255
-0.534443 0.115295 1.959 255 255 255
-0.269568 0.192581 2.107 255 255 255
0.896706 0.14107 2.695 0 0 0
-0.515686 0.262187 1.985 255 255 255
-0.265247 -0.155449 1.997 255 255 255
-0.855467 0.442034 1.821 255 255 255
-0.718738 0.102877 1.748 255 255 255
-0.290378 -0.00270167 1.991 255 255 255
0.230487 -0.283702 2.269 255 255 255
-0.593473 0.136055 1.893 255 255 255
1.21999 -0.332612 2.626 0 0 0
0.130605 -0.239708 2.204 0 0 0
1.08855 -0.405496 2.805 255 255 255
-0.106157 -0.785403 2.064 255 255 255
0.899988 0.779362 2.099 255 255 255
-0.348771 0.540247 2.01 255 255 255
-0.267401 0.265801 2.173 255 255 255
0.630379 0.465627 2.286 255 255 255
-0.347898 -0.415286 1.865 255 255 255
1.1516 -0.140311 2.626 255 255 255
1.15686 -0.973773 2.638 255 255 255
1.08275 0.137275 2.469 255 255 255
-0.372032 0.662909 1.911 255 255 255
0.776811 -0.431678 2.768 0 0 0
0.590905 -0.249312 2.604 255 255 255
0.136296 -0.368829 2.365 0 0 0
1.13723 0.296984 2.365 255 255 255
-0.891355 0.519762 1.763 255 255 255
-0.383759 -0.134042 1.923 255 255 255
0.282196 0.536013 2.269 0 0 0
0.246699 0.343648 2.509 255 255 255
1.19764 -0.381466 2.731 255 255 255
-0.582082 -0.442966 1.682 255 255 255
-0.72933 0.633471 1.87 255 255 255
-0.491329 0.151821 1.978 255 255 255
-0.196933 -0.316585 2.03 255 255 255
0.77644 0.0177289 2.615 255 255 255
-0.419218 0.106433 1.972 255 255 255
-0.689885 0.648443 1.887 255 255 255
-0.7393 0.0227242 1.71 255 255 255
0.673967 0.59945 2.374 255 255 255
-0.252966 -0.292465 1.837 255 255 255
0.663391 0.548055 2.42 255 255 255
1.19764 -0.390354 2.731 255 255 255
-0.429348 0.565288 1.876 255 255 255
-0.471706 0.0746806 1.899 255 255 255
0.993309 -0.0901834 2.66 255 255 255
-0.490583 0.543764 1.865 255 255 255
1.21626 -0.77792 2.479 0 0 0
-0.685877 -0.552804 1.491 255 255 255
0.547892 -0.562714 2.684 255 255 255
0.38465 0.608389 2.03 255 255 255
0.031039 0.259082 2.269 255 255 255
0.217967 -0.34319 2.374 255 255 255
-0.322653 -0.605395 1.7 255 255 255
0.442326 0.0789098 2.53 255 255 255
0.855063 -0.503677 2.818 0 0 0
1.0361 -0.0673804 2.615 255 255 255
-0.474687 0.311499 1.911 255 255 255
-0.59577 0.591006 1.972 255 255 255
0.379966 -0.440487 2.582 255 255 255
0.770472 0.171477 2.499 255 255 255
0.12259 -0.184644 2.189 255 255 255
0.781794 0.652479 2.189 255 255 255
-0.510222 -0.595429 1.532 255 255 255
-0.126768 0.630833 2.128 255 255 255
-0.745482 0.125346 1.744 255 255 255
-0.0406033 -0.244445 2.151 255 255 255
0.640465 0.443703 2.269 255 255 255
0.46736 0.339004 2.236 255 255 255
1.01103 -0.746725 2.818 0 0 0
-0.821591 0.141216 1.696 255 255 255
-0.844192 0.112947 1.686 255 255 255
1.23447 0.576895 2.459 255 255 255
1.03773 0.661244 2.402 255 255 255
-0.775432 0.415364 1.821 255 255 255
-0.740884 -0.0816602 1.682 255 255 255
0.948951 0.129052 2.719 0 0 0
1.1976 -0.800463 2.499 255 255 255
-0.227501 -0.385774 1.899 255 255 255
-0.53944 -0.0788198 1.805 255 255 255
0.839682 0.787735 2.085 255 255 255
0.438808 -0.562338 2.582 0 0 0
-0.254481 -0.510742 1.848 255 255 255
0.674594 -0.62823 2.684 255 255 255
0.0588513 0.639016 2.204 255 255 255
-0.457547 -0.146381 1.842 255 255 255
1.08747 0.000672989 2.489 255 255 255
0.0645354 0.0413935 2.278 255 255 255
-0.803547 0.100319 1.753 255 255 255
-0.58614 0.308606 1.972 255 255 255
-0.456831 -0.0117042 1.876 255 255 255
-0.0979735 0.618151 2.181 255 255 255
0.587021 0.186514 2.43 255 255 255
0.0850146 0.715121 1.978 255 255 255
0.435805 0.128823 2.54 255 255 255
-0.223406 -0.240149 1.972 255 255 255
0.480716 0.469085 2.181 255 255 255
-0.526458 -0.456833 1.724 255 255 255
-0.853245 0.356891 1.81 255 255 255
1.17638 -0.107202 2.55 0 0 0
1.295 -0.45352 2.684 255 255 255
-0.218682 0.582659 2.181 255 255 255
0.781316 -0.616361 2.768 0 0 0
-0.303431 -0.279935 1.853 255 255 255
-0.487531 -0.275276 1.842 255 255 255
1.20307 0.725271 2.42 255 255 255
1.07128 -0.559234 2.844 255 255 255
-0.204281 0.17581 2.071 255 255 255
0.340369 -0.247448 2.42 255 255 255
0.236865 0.668179 1.724 0 0 0
-0.581574 -0.0258617 1.799 255 255 255
-0.629324 0.0859079 1.81 255 255 255
-0.622468 -0.276607 1.637 255 255 255
-0.048093 0.0359494 2.173 255 255 255
-0.3627 0.435892 1.911 255 255 255
0.669927 0.385129 2.294 255 255 255
0.239864 -0.149712 2.253 255 255 255
0.777589 0.718489 2.228 0 0 0
0.913918 0.00954229 2.707 255 255 255
-0.00235864 0.392144 2.43 255 255 255
-0.451852 0.450471 1.784 255 255 255
0.0191845 -0.0349023 2.181 255 255 255
-0.231321 -0.427293 1.905 255 255 255
-0.271187 -0.0552541 2.017 255 255 255
0.445677 0.476433 2.166 255 255 255
-0.688705 -0.296567 1.587 255 255 255
0.865198 -0.234325 2.626 255 255 255
0.221824 -0.298027 2.294 255 255 255
1.11874 0.710304 2.383 255 255 255
0.348185 0.458016 2.196 255 255 255
0.972018 0.693087 2.338 255 255 255
-0.49637 0.083421 1.887 255 255 255
0.200988 0.520526 2.402 255 255 255
0.963329 0.194702 2.649 255 255 255
-0.684943 -0.495557 1.555 255 255 255
1.32774 -0.569269 2.78 0 0 0
1.17438 0.22204 2.519 255 255 255
0.718718 0.117385 2.561 255 255 255
-0.704602 0.277921 1.853 255 255 255
0.00510921 -0.12675 2.236 255 255 255
-0.229985 -0.57292 1.753 255 255 255
0.0674666 0.702724 2.136 255 255 255
-0.549985 -0.508475 1.612 255 255 255
0.400397 -0.632583 2.402 0 0 0
-0.848154 -0.013412 1.705 255 255 255
-0.74824 0.0892481 1.705 255 255 255
-0.699002 -0.159995 1.7 255 255 255
0.408637 -0.448478 2.604 255 255 255
-0.868536 -0.027669 1.729 255 255 255
0.406061 0.499273 2.143 255 255 255
0.746532 0.298543 2.347 255 255 255
-0.665087 0.58225 1.997 255 255 255
0.940656 0.287628 2.519 255 255 255
0.87326 0.250787 2.479 255 255 255
0.288077 -0.0833909 2.347 255 255 255
1.18431 0.740131 2.43 255 255 255
-0.156639 -0.5033 1.865 0 0 0
1.14208 -0.567082 2.684 255 255 255
-0.145646 0.235107 2.151 255 255 255
0.378896 -0.220678 2.519 255 255 255
0.501963 -0.0873703 2.459 255 255 255
-0.0769487 -0.0947568 2.092 255 255 255
-0.422939 -0.149865 1.848 255 255 255
-0.795281 0.380275 1.882 255 255 255
-0.387464 0.0968964 2.114 255 255 255
0.499985 -0.0716542 2.469 255 255 255
-0.310988 0.540069 2.181 255 255 255
-0.324655 -0.65089 1.696 255 255 255
0.240088 0.543979 2.402 255 255 255
1.15644 -0.974523 2.561 255 255 255
0.478225 -0.0390471 2.44 255 255 255
0.899793 0.0229596 2.731 255 255 255
-0.335924 0.411243 2.253 255 255 255
0.747214 0.553642 2.151 255 255 255
0.683332 0.0706097 2.684 255 255 255
0.886657 -0.487573 2.831 0 0 0
-0.514788 -0.382277 1.668 255 255 255
0.215726 0.245879 2.392 255 255 255
-0.308628 -0.381428 1.848 255 255 255
-0.593122 -0.492842 1.587 255 255 255
0.335179 -0.784046 2.411 255 255 255
1.19238 -0.410763 2.719 255 255 255
-0.443544 0.439286 1.774 255 255 255
-0.838514 0.356891 1.81 255 255 255
0.430563 -0.015223 2.44 255 255 255
0.428655 0.633208 2.004 255 255 255
-0.277346 0.585401 2.114 255 255 255
-0.348831 -0.434658 1.87 255 255 255
-0.633672 0.69046 1.789 255 255 255
0.0572491 0.737545 1.911 255 255 255
-0.737051 -0.247304 1.637 255 255 255
0.321084 -0.603596 2.365 0 0 0
0.0466812 0.15112 2.312 255 255 255
0.99097 0.691526 2.32 255 255 255
0.679283 -0.400041 2.831 0 0 0
0.518222 0.376318 2.22 255 255 255
-0.287118 0.207536 2.085 255 255 255
0.833569 0.202424 2.53 255 255 255
-0.525045 -0.543924 1.616 255 255 255
-0.547753 0.0185937 1.853 255 255 255
0.0281771 0.301203 2.338 255 255 255
-0.564656 -0.368525 1.655 255 255 255
-0.546014 -0.0144503 1.837 255 255 255
-0.833214 0.140383 1.686 255 255 255
-0.784325 0.655396 1.821 255 255 255
-0.735219 0.551927 1.893 0 0 0
1.17944 0.355087 2.42 255 255 255
-0.339257 -0.572197 1.7 255 255 255
0.764786 0.803936 2.057 255 255 255
-0.736332 -0.57345 1.52 255 255 255
-0.865579 0.376466 1.805 255 255 255
1.21246 -0.271047 2.53 255 255 255
0.469032 0.332914 2.244 255 255 255
0.504004 0.153347 2.469 0 0 0
-0.639092 -0.394686 1.71 255 255 255
0.161214 0.565069 2.392 255 255 255
-0.19156 -0.568803 1.794 255 255 255
-0.474797 0.0746806 1.899 255 255 255
-0.509261 -0.586 1.616 255 255 255
-0.830179 0.138048 1.691 255 255 255
0.721851 0.436485 2.329 255 255 255
0.0680483 0.559614 2.402 255 255 255
-0.532514 -0.367821 1.664 255 255 255
0.990066 0.30947 2.53 255 255 255
0.0152042 -0.196166 2.121 255 255 255
-0.717194 0.598025 1.953 255 255 255
-0.556524 0.440935 1.947 255 255 255
0.767267 -0.0210186 2.672 255 255 255
-0.501343 -0.457693 1.696 255 255 255
-0.3627 0.0378346 1.911 255 255 255
0.267422 0.0633845 2.269 255 255 255
0.230487 -0.121236 2.269 255 255 255
1.13617 0.780937 2.22 255 255 255
0.2158 0.706669 1.831 255 255 255
-0.446044 -0.440797 1.784 255 255 255
-0.387364 0.473959 1.865 255 255 255
-0.678596 -0.560083 1.491 255 255 255
1.10048 0.61664 2.411 255 255 255
-0.0141141 0.518552 2.411 0 0 0
0.124272 0.575735 2.356 255 255 255
-0.366387 0.707977 1.882 255 255 255
-0.801844 -0.340319 1.551 255 255 255
0.822953 -0.393618 2.818 255 255 255
-0.785806 0.102347 1.739 255 255 255
-0.118455 -0.267299 2.166 255 255 255
-0.749161 -0.439453 1.477 255 255 255
-0.708875 0.144817 1.81 255 255 255
-0.872677 0.618566 1.826 255 255 255
1.1792 -0.200226 2.469 255 255 255
0.109347 0.016034 2.365 255 255 255
0.891354 0.809407 2.071 255 255 255
0.262451 0.533929 2.392 255 255 255
0.0339118 0.504939 2.479 255 255 255
-0.401248 0.711426 1.859 255 255 255
0.534962 -0.602778 2.707 255 255 255
0.423503 0.562045 2.143 255 255 255
0.304644 0.504631 2.166 0 0 0
-0.0542281 0.640157 2.136 255 255 255
-0.864916 0.188306 1.673 255 255 255
0.699819 0.0943273 2.615 0 0 0
-0.410841 -0.455906 1.71 255 255 255
-0.608924 -0.356198 1.673 255 255 255
-0.219818 -0.590533 1.763 255 255 255
-0.470393 -0.373295 1.714 255 255 255
-0.824152 0.304458 1.779 255 255 255
-0.149632 -0.00995183 2.158 255 255 255
0.679313 -0.122883 2.449 255 255 255
-0.762778 0.10117 1.719 255 255 255
-0.350992 0.613641 2.004 255 255 255
-0.249065 -0.0620333 2.024 255 255 255
1.31491 -0.453001 2.707 255 255 255
0.219629 0.658537 2.128 255 255 255
-0.670509 0.653585 1.893 255 255 255
-0.0141141 0.373383 2.411 255 255 255
0.548977 0.211727 2.402 255 255 255
0.393888 0.0606889 2.459 255 255 255
-0.0305189 -0.283347 2.181 255 255 255
0.292624 0.315503 2.449 255 255 255
0.507783 0.261348 2.356 255 255 255
-0.761038 -0.242446 1.571 255 255 255
0.0434409 0.710101 1.991 255 255 255
0.472758 -0.399396 2.561 255 255 255
1.19281 -0.242352 2.489 255 255 255
1.05033 0.171068 2.684 0 0 0
-0.105797 0.600961 2.196 255 255 255
-0.772381 0.552045 1.842 0 0 0
-0.598564 0.685726 1.815 255 255 255
1.22341 0.1654 2.469 255 255 255
0.257793 0.352806 2.459 255 255 255
-0.129449 0.283482 2.173 255 255 255
0.302598 0.459636 2.312 0 0 0
-0.610113 -0.180269 1.763 255 255 255
0.15857 0.487165 2.411 255 255 255
0.427767 -0.616948 2.402 0 0 0
0.340461 0.259708 2.449 0 0 0
-0.833604 -0.222782 1.633 0 0 0
1.18363 0.412398 2.53 0 0 0
1.01537 -0.209055 2.743 255 255 255
-0.260032 -0.558627 1.744 255 255 255
-0.90446 0.593626 1.744 255 255 255
0.244094 0.625708 1.865 0 0 0
-0.718272 0.240267 1.865 255 255 255
-0.435351 0.302519 2.017 255 255 255
0.601402 0.386947 2.261 255 255 255
-0.666108 -0.318551 1.62 255 255 255
-0.267023 0.227623 2.114 255 255 255
-0.687394 0.562691 2.044 255 255 255
-0.307927 -0.311514 1.826 255 255 255
1.11698 0.0539712 2.519 255 255 255
0.970231 -0.808278 2.793 255 255 255
0.64838 0.083713 2.684 255 255 255
-0.244949 0.560584 2.294 255 255 255
-0.417897 -0.535045 1.629 255 255 255
-0.729869 0.0116204 1.714 255 255 255
-0.599144 -0.116616 1.799 255 255 255
0.405896 -0.183409 2.459 255 255 255
0.964998 -0.588926 2.831 255 255 255
-0.703096 0.43985 1.985 255 255 255
0.304916 -0.830292 2.42 0 0 0
-0.795799 0.488966 1.876 255 255 255
-0.752062 -0.53244 1.502 255 255 255
0.918692 0.71743 2.236 255 255 255
-0.729475 -0.254638 1.65 255 255 255
0.469315 0.56621 2.228 255 255 255
0.831462 -0.0171883 2.755 255 255 255
0.142126 0.739047 1.923 255 255 255
0.524345 0.530725 2.278 255 255 255
-0.172529 -0.325937 2.181 255 255 255
0.984076 -0.927167 2.768 255 255 255
-0.45858 0.471824 1.799 255 255 255
-0.344337 -0.0506577 1.966 255 255 255
-0.120095 0.597387 2.196 255 255 255
-0.690006 -0.495557 1.555 255 255 255
0.610917 0.377239 2.269 255 255 255
1.03329 0.689545 2.365 255 255 255
0.253705 -0.0741702 2.42 255 255 255
1.11372 0.671705 2.44 0 0 0
-0.275055 0.656597 1.929 255 255 255
0.0781834 0.606793 2.244 255 255 255
0.811855 -0.45617 2.78 255 255 255
0.0990296 0.63643 2.22 255 255 255
0.979454 -1.01248 2.755 255 255 255
-0.188059 0.0681936 2.078 255 255 255
-0.746264 0.600785 1.882 255 255 255
-0.236818 0.0201089 2.004 255 255 255
0.614498 -0.224357 2.561 255 255 255
-0.149526 0.628037 2.107 255 255 255
0.428762 0.674687 1.763 255 255 255
0.567078 -0.0725248 2.499 255 255 255
-0.580515 -0.522832 1.624 255 255 255
1.11641 0.315705 2.42 255 255 255
1.14491 -0.646373 2.582 255 255 255
-0.567838 -0.288097 1.705 255 255 255
0.880267 0.749664 2.151 255 255 255
-0.721408 0.35121 1.842 255 255 255
0.396487 -0.589586 2.402 0 0 0
-0.713335 0.431022 1.917 255 255 255
-0.272383 0.00375368 1.978 255 255 255
-0.089964 0.680261 2.078 255 255 255
-0.462976 -0.521791 1.629 255 255 255
1.16284 0.0749175 2.402 255 255 255
-0.244895 0.398585 2.329 255 255 255
-0.489426 -0.611177 1.62 255 255 255
-0.761912 0.612635 1.853 0 0 0
-0.783675 -0.346507 1.591 255 255 255
-0.450586 0.420259 1.779 255 255 255
0.62631 0.732305 2.121 255 255 255
-0.152783 0.549933 2.312 255 255 255
0.957041 -0.400147 2.768 255 255 255
1.11618 0.573481 2.411 255 255 255
-0.33467 0.00686326 1.947 255 255 255
0.633293 0.0981681 2.604 0 0 0
-0.127539 -0.19766 2.03 255 255 255
0.248077 0.0741991 2.261 255 255 255
0.0546068 0.186342 2.329 255 255 255
-0.72353 0.0429191 1.739 255 255 255
-0.738855 -0.110241 1.659 255 255 255
-0.290817 -0.0636486 1.972 255 255 255
0.0758683 0.37199 2.402 255 255 255
-0.767421 -0.558499 1.513 255 255 255
-0.568355 0.480431 1.966 255 255 255
0.0504333 0.641152 2.151 255 255 255
0.519687 0.756966 1.978 255 255 255
0.0502457 0.691078 2.143 255 255 255
0.568113 -0.305186 2.54 255 255 255
0.670225 -0.62823 2.684 255 255 255
0.719061 0.347964 2.32 255 255 255
0.497824 -0.35892 2.54 255 255 255
-0.157912 -0.650458 1.81 255 255 255
0.378319 0.60431 1.81 255 255 255
-0.355985 0.273546 2.071 255 255 255
0.0669853 0.619185 2.236 255 255 255
-0.239108 -0.378394 1.893 255 255 255
-0.233381 0.0799595 2.121 255 255 255
-0.39127 0.170192 2.044 255 255 255
-0.581659 0.0581687 1.865 255 255 255
0.591112 0.681043 2.236 255 255 255
0.0833399 0.358763 2.392 255 255 255
1.18126 -0.402751 2.755 255 255 255
-0.673567 -0.15585 1.779 255 255 255
-0.444898 0.157779 1.972 255 255 255
0.110663 0.630101 2.236 255 255 255
-0.721308 0.464854 1.865 255 255 255
0.404398 -0.512041 2.604 0 0 0
0.927137 -0.325251 2.707 255 255 255
-0.770823 0.138188 1.763 255 255 255
-0.559133 -0.145507 1.831 255 255 255
0.00524174 0.273136 2.294 255 255 255
-0.802294 -0.425035 1.547 255 255 255
-0.722184 0.0511132 1.729 255 255 255
0.215197 0.0231091 2.303 255 255 255
-0.068257 0.427216 2.383 255 255 255
0.935673 0.0449822 2.719 255 255 255
0.265697 0.599775 1.729 255 255 255
-0.39374 -0.536572 1.65 255 255 255
-0.761038 -0.403508 1.571 255 255 255
-0.2627 0.424706 2.286 255 255 255
-0.700039 0.440799 2.004 255 255 255
0.486043 0.431621 2.189 255 255 255
-0.306791 -0.304422 1.837 255 255 255
-0.283443 0.530107 2.244 255 255 255
0.591262 0.708169 2.196 255 255 255
-0.542113 -0.581927 1.612 255 255 255
-0.783098 -0.220125 1.633 0 0 0
-0.359836 0.480806 1.929 255 255 255
-0.647759 -0.485389 1.563 255 255 255
-0.288601 -0.131201 2.024 255 255 255
-0.702178 -0.201555 1.612 255 255 255
-0.715087 0.100319 1.753 255 255 255
-0.502638 0.562235 1.876 255 255 255
-0.166042 0.615405 2.099 255 255 255
-0.844192 0.110203 1.686 255 255 255
0.389292 0.603857 2.037 255 255 255
0.808351 -0.490236 2.768 0 0 0
-0.597276 -0.573366 1.494 255 255 255
0.551941 0.411559 2.196 255 255 255
1.0721 -0.587903 2.871 255 255 255
-0.497113 -0.3903 1.691 255 255 255
-0.709136 -0.368652 1.575 255 255 255
1.07173 -0.908056 2.672 0 0 0
0.319649 -0.553899 2.383 0 0 0
-0.304844 0.644493 1.959 255 255 255
-0.19575 -0.624843 1.779 255 255 255
1.06141 -0.0755721 2.604 255 255 255
0.458919 0.688363 1.887 255 255 255
-0.413435 -0.0670467 1.887 255 255 255
0.437296 0.657523 1.941 255 255 255
0.2893 -0.400319 2.489 0 0 0
0.704189 -0.492572 2.731 255 255 255
0.568113 -0.301053 2.54 255 255 255
0.330102 -0.568447 2.347 0 0 0
-0.27242 0.638046 2.051 255 255 255
-0.831753 0.364986 1.821 255 255 255
-0.862334 0.617991 1.842 255 255 255
-0.687395 0.635779 1.923 255 255 255
0.791012 0.123071 2.593 255 255 255
-0.372397 0.565563 1.929 0 0 0
0.0609304 0.526593 2.43 255 255 255
0.0013564 0.692472 2.064 255 255 255
0.0569749 0.526593 2.43 255 255 255
-0.435153 0.357649 1.799 255 255 255
0.60353 0.380932 2.269 255 255 255
-0.314893 -0.199759 1.923 255 255 255
-1.57815 -0.286843 2.996 255 255 255
-0.264928 -0.289475 1.837 255 255 255
-0.81246 0.149848 1.7 255 255 255
0.189505 0.692472 2.064 255 255 255
0.482507 0.2 2.402 255 255 255
-0.236395 0.370617 2.32 255 255 255
0.581744 0.439311 2.228 255 255 255
-0.273591 0.26142 2.166 255 255 255
-0.264928 -0.295454 1.837 255 255 255
1.08528 -0.829147 2.684 255 255 255
-0.469541 0.701922 1.842 255 255 255
-0.830311 -0.0106935 1.714 255 255 255
0.586332 0.510315 2.303 255 255 255
0.738539 -0.4992 2.743 255 255 255
-0.661021 -0.466775 1.595 255 255 255
-0.767215 0.107386 1.729 255 255 255
-0.625698 -0.528584 1.498 255 255 255
1.24479 0.17537 2.44 255 255 255
0.653368 -0.0491068 2.55 255 255 255
1.23 0.00457539 2.411 255 255 255
0.126698 0.520526 2.402 255 255 255
-0.18066 0.119595 2.151 255 255 255
-0.739398 0.300252 1.842 0 0 0
0.99432 0.521075 2.479 255 255 255
-0.257795 -0.570704 1.729 255 255 255
0.949946 -0.0297151 2.672 255 255 255
-0.295335 -0.374623 1.859 255 255 255
1.17043 0.600905 2.459 255 255 255
-0.4769 0.699325 1.859 255 255 255
-0.845436 0.489865 1.769 0 0 0
-0.49436 -0.371038 1.691 255 255 255
0.147806 0.698462 2.092 255 255 255
-0.593649 -0.533393 1.491 255 255 255
-0.419773 0.302204 2.037 255 255 255
0.970558 -0.413661 2.768 0 0 0
-0.296333 0.00693023 1.966 255 255 255
-0.801844 -0.345367 1.551 255 255 255
0.954138 0.510938 2.469 255 255 255
-0.499442 0.63923 1.887 255 255 255
-0.189796 -0.537043 1.805 255 255 255
1.18133 -0.178259 2.499 255 255 255
-0.036343 -0.160583 2.107 255 255 255
-0.450013 0.544822 1.848 255 255 255
-0.615853 0.220194 1.985 255 255 255
-0.744127 -0.48244 1.491 255 255 255
-0.249973 -0.354757 1.882 255 255 255
-0.179255 -0.196394 2.017 255 255 255
-0.670622 -0.451521 1.587 255 255 255
-0.0599744 0.332966 2.22 255 255 255
0.305959 0.57726 1.991 255 255 255
-0.770284 0.439939 1.837 255 255 255
0.322306 -0.250471 2.374 255 255 255
-0.0208976 0.243271 2.294 255 255 255
-0.750156 -0.278946 1.575 255 255 255
1.06466 -0.981096 2.755 0 0 0
1.13358 0.250813 2.44 255 255 255
0.828928 0.751388 2.136 255 255 255
0.486704 -0.574997 2.66 255 255 255
0.53083 0.723269 2.085 0 0 0
-0.4903 -0.402494 1.696 255 255 255
-0.721959 -0.174949 1.633 255 255 255
-0.569028 -0.180126 1.734 255 255 255
0.184215 0.103359 2.338 255 255 255
0.109347 0.181525 2.365 255 255 255
-0.478378 -0.276919 1.853 255 255 255
0.285813 0.47554 2.392 0 0 0
0.643283 0.660556 2.253 255 255 255
0.0781834 -0.324397 2.244 255 255 255
-0.458943 0.413887 1.789 255 255 255
-0.399235 0.184355 2.017 255 255 255
0.967996 0.686921 2.356 255 255 255
1.09808 0.388278 2.561 255 255 255
-0.203139 -0.668109 1.719 255 255 255
-0.627685 -0.0308176 1.748 255 255 255
0.740929 -0.570052 2.719 0 0 0
-0.23748 0.355264 2.294 255 255 255
-0.548783 -0.5569 1.571 255 255 255
0.375394 -0.240405 2.469 255 255 255
1.10502 -0.532767 2.755 255 255 255
0.671494 0.141865 2.479 255 255 255
-0.716667 0.344261 1.853 255 255 255
0.697154 0.58786 2.374 0 0 0
-0.133257 0.297408 2.121 255 255 255
0.942438 -0.747845 2.805 255 255 255
0.181104 0.0884794 2.347 255 255 255
-0.468891 -0.549834 1.595 255 255 255
-0.20091 0.0511129 2.071 255 255 255
-0.728419 -0.403545 1.612 255 255 255
0.129242 -0.120083 2.181 255 255 255
0.11023 0.600261 2.303 255 255 255
0.620457 0.26035 2.347 255 255 255
-0.381704 0.472154 1.882 255 255 255
-0.696684 0.0907188 1.848 0 0 0
-0.748813 -0.427198 1.583 255 255 255
-0.0261994 0.417581 2.44 255 255 255
0.393571 0.459132 2.151 255 255 255
0.28128 0.34721 2.42 255 255 255
-0.17417 -0.564092 1.826 255 255 255
-0.49383 -0.278064 1.821 255 255 255
0.301411 0.62329 1.724 255 255 255
-0.496649 -0.283487 1.799 255 255 255
-0.342956 -0.23509 1.905 255 255 255
0.156242 0.678286 2.114 255 255 255
1.20657 -0.747172 2.672 255 255 255
0.404076 0.455631 2.151 255 255 255
0.605324 -0.110519 2.44 255 255 255
-0.70243 -0.33446 1.583 255 255 255
-0.70006 0.065747 1.744 255 255 255
-0.473081 0.474631 1.821 255 255 255
-0.517872 0.335224 1.887 255 255 255
-0.509169 -0.610098 1.583 255 255 255
1.05539 -0.683674 2.731 255 255 255
-0.749328 0.579346 1.882 255 255 255
0.755828 0.500947 2.228 255 255 255
-0.739939 -0.462233 1.473 255 255 255
0.140406 -0.220266 2.189 255 255 255
0.632613 -0.176119 2.469 255 255 255
-0.647005 -0.499265 1.543 255 255 255
0.65413 0.304594 2.278 255 255 255
0.746645 0.504545 2.244 255 255 255
-0.160765 0.603325 2.166 255 255 255
0.650248 -0.00353348 2.604 255 255 255
1.08921 0.39906 2.55 255 255 255
-0.0024159 0.490774 2.489 255 255 255
-0.280787 0.141619 2.114 255 255 255
-0.059137 -0.0279059 2.189 255 255 255
0.354134 0.551402 2.064 255 255 255
-0.539531 -0.242903 1.739 255 255 255
-0.00207327 0.0214334 2.136 255 255 255
-0.821603 -0.170555 1.668 255 255 255
-0.0209795 0.285451 2.303 255 255 255
0.254551 0.0270551 2.32 255 255 255
-0.768013 -0.347376 1.607 255 255 255
-0.29686 -0.158222 1.991 255 255 255
0.85965 -0.0405104 2.818 255 255 255
-0.706438 0.162828 1.882 0 0 0
-0.279036 0.568462 2.181 255 255 255
0.619384 -0.534109 2.672 255 255 255
0.76893 -0.382673 2.805 255 255 255
0.23778 0.28878 2.459 255 255 255
0.0574203 0.510784 2.449 255 255 255
-0.0866533 0.691127 1.929 255 255 255
-0.747823 0.298223 1.848 255 255 255
-0.0022606 0.303834 2.329 255 255 255
-0.762581 0.67982 1.784 255 255 255
-0.0973809 -0.220719 2.092 255 255 255
-0.0308407 0.61391 2.204 255 255 255
1.03887 -0.531465 2.844 0 0 0
-0.498387 -0.383659 1.686 255 255 255
1.2454 0.168046 2.449 255 255 255
-0.822147 0.229299 1.826 255 255 255
1.0547 -0.156513 2.684 255 255 255
0.0662664 -0.107391 2.212 255 255 255
0.619866 0.213122 2.374 255 255 255
1.02006 -0.839139 2.805 0 0 0
0.57025 0.0477171 2.626 255 255 255
0.602893 0.1459 2.479 255 255 255
-0.344689 0.522775 2.044 255 255 255
-0.911667 0.679862 1.769 255 255 255
-0.126839 0.00771632 2.189 255 255 255
1.21846 -0.271444 2.459 255 255 255
-0.373503 -0.266647 1.887 255 255 255
-0.578413 0.689882 1.826 255 255 255
0.742992 0.519152 2.244 255 255 255
-0.143135 -0.00646393 2.166 255 255 255
-0.444766 0.25822 2.03 255 255 255
0.951174 -0.515215 2.831 255 255 255
0.340128 0.391226 2.286 255 255 255
-0.727182 -0.478255 1.532 255 255 255
1.19398 -0.400997 2.743 255 255 255
-0.59032 0.546502 1.997 0 0 0
0.590567 0.239255 2.365 255 255 255
0.678963 -0.593288 2.684 255 255 255
1.01549 -0.958331 2.78 255 255 255
0.433409 0.16607 2.479 0 0 0
-0.174401 -0.261324 2.037 255 255 255
0.258564 0.621483 1.719 255 255 255
-0.678314 0.479764 2.017 255 255 255
-0.715201 -0.106548 1.686 0 0 0
0.943524 0.0818285 2.768 255 255 255
-0.482987 0.283807 2.024 255 255 255
0.136814 0.159036 2.374 255 255 255
-0.194854 0.419697 2.32 255 255 255
0.661487 -0.53214 2.684 255 255 255
0.812028 -0.42039 2.844 0 0 0
0.81253 0.784342 2.085 255 255 255
-0.331143 0.547722 2.128 255 255 255
-0.398164 0.627556 1.917 255 255 255
0.38095 0.137831 2.479 255 255 255
0.430563 -0.0350764 2.44 255 255 255
-0.689537 -0.394448 1.607 255 255 255
0.933734 0.684296 2.347 255 255 255
1.10731 -0.0154663 2.479 255 255 255
0.442326 0.0830269 2.53 255 255 255
-0.859703 0.420526 1.805 255 255 255
-0.68367 0.119187 1.87 255 255 255
-0.31068 0.341326 2.204 255 255 255
-0.88575 0.366079 1.769 255 255 255
0.357223 0.429575 2.253 255 255 255
-0.0572851 0.436159 2.411 255 255 255
0.348248 -0.357716 2.42 0 0 0
0.175459 0.247892 2.374 255 255 255
-0.55188 0.267495 1.953 255 255 255
0.0732021 -0.128523 2.204 255 255 255
1.18233 -0.382129 2.768 255 255 255
1.17893 -0.0223669 2.356 255 255 255
0.592119 -0.0485098 2.519 255 255 255
-0.00578932 0.203641 2.228 255 255 255
0.353532 -0.495091 2.604 255 255 255
0.35844 -0.615946 2.383 0 0 0
1.06762 0.229325 2.509 0 0 0
-0.574755 -0.157853 1.769 255 255 255
-0.0193216 0.649468 2.121 255 255 255
-0.432068 0.27626 2.017 255 255 255
0.997264 -0.485334 2.818 0 0 0
0.863746 0.517811 2.303 255 255 255
0.859955 0.376326 2.43 255 255 255
1.10638 0.524875 2.459 255 255 255
1.07471 0.193526 2.469 255 255 255
1.14305 -0.466217 2.707 255 255 255
0.294225 0.57792 1.748 255 255 255
0.175323 -0.520124 2.54 255 255 255
0.0905202 -0.127648 2.189 255 255 255
1.21252 0.0590353 2.392 255 255 255
-0.370634 0.0909529 2.136 255 255 255
1.07471 0.18549 2.469 255 255 255
-0.720435 0.522967 1.911 255 255 255
-0.203807 -0.611375 1.799 255 255 255
-0.907781 0.546275 1.784 255 255 255
-0.280311 -0.593213 1.729 255 255 255
-0.750488 -0.437217 1.494 255 255 255
1.18161 0.526725 2.449 255 255 255
-0.143155 -0.394185 1.972 255 255 255
-0.0231714 -0.0836991 2.158 255 255 255
1.11167 -0.46415 2.695 255 255 255
0.275685 0.584371 1.794 255 255 255
1.06336 0.452079 2.499 255 255 255
-0.223428 -0.306028 1.865 255 255 255
1.1764 0.0283379 2.43 255 255 255
0.943089 -0.38831 2.78 0 0 0
1.27992 -0.600016 2.755 0 0 0
0.0810697 -0.207202 2.128 255 255 255
-0.400228 -0.441213 1.774 255 255 255
-0.461122 -0.324735 1.753 255 255 255
-0.8354 0.67748 1.748 255 255 255
0.18756 -0.0775034 2.286 255 255 255
-0.654773 0.184294 1.947 255 255 255
-0.689086 -0.271279 1.637 255 255 255
-0.799788 -0.358548 1.587 255 255 255
-0.0565638 -0.307581 2.228 0 0 0
-0.879174 0.434734 1.779 255 255 255
-0.222544 0.366463 2.294 255 255 255
0.0628923 -0.0788785 2.22 255 255 255
-0.306129 0.266997 2.099 255 255 255
-0.845438 0.0377734 1.763 255 255 255
-0.0772061 -0.077995 2.099 255 255 255
0.260278 -0.465428 2.604 0 0 0
-0.446908 -0.463709 1.668 255 255 255
-0.139699 0.145059 2.114 255 255 255
-0.713574 -0.176192 1.62 255 255 255
-0.181655 -0.132498 2.044 255 255 255
-0.652895 0.074126 1.81 255 255 255
-0.0230104 -0.0308069 2.143 255 255 255
0.949349 -0.0475135 2.695 255 255 255
0.472668 0.692742 1.997 255 255 255
1.21374 -0.725506 2.55 255 255 255
-0.152203 -0.634041 1.848 0 0 0
-0.285049 0.439311 2.228 255 255 255
0.499983 0.0452276 2.489 255 255 255
0.515518 0.717459 2.078 255 255 255
0.308931 0.63547 1.719 255 255 255
-0.118404 -0.648204 1.837 0 0 0
-0.849448 0.179325 1.691 255 255 255
-0.40422 -0.128462 1.887 255 255 255
0.363684 0.171477 2.499 255 255 255
-0.758827 0.578545 1.831 255 255 255
-0.1794 0.608873 2.136 255 255 255
-0.446976 0.0654097 1.899 255 255 255
1.1345 -0.670208 2.626 255 255 255
0.161573 0.365514 2.519 255 255 255
-0.146661 -0.00998873 2.166 255 255 255
-0.275224 0.379635 2.329 255 255 255
-0.931299 0.65186 1.779 255 255 255
0.215442 -0.158928 2.228 255 255 255
-0.718988 0.378653 1.859 255 255 255
0.356501 0.641064 1.719 255 255 255
0.171392 -0.0990815 2.269 255 255 255
-0.686921 -0.386603 1.607 255 255 255
-0.437905 -0.0436962 1.941 255 255 255
-0.0225379 -0.183884 2.099 255 255 255
-0.395756 0.504231 1.876 255 255 255
0.370819 0.518308 2.121 255 255 255
-0.7364 0.294257 1.842 0 0 0
0.649217 -0.0532565 2.55 255 255 255
-0.138471 0.59239 2.204 255 255 255
0.82751 -0.907766 2.684 255 255 255
0.892319 -0.0518991 2.695 255 255 255
-0.765576 0.0843861 1.719 255 255 255
-0.865031 0.371618 1.81 255 255 255
0.36095 0.274935 2.374 255 255 255
0.238619 0.0909223 2.312 255 255 255
-0.858431 0.43018 1.821 255 255 255
-0.436535 0.423654 1.769 255 255 255
-0.50537 -0.406811 1.691 255 255 255
0.418199 -0.248478 2.392 255 255 255
-0.774049 -0.199962 1.642 255 255 255
0.368372 0.525173 2.107 255 255 255
1.19953 -0.702475 2.374 0 0 0
-0.379855 0.617704 1.935 0 0 0
-0.603901 -0.526473 1.595 255 255 255
-0.755174 0.210684 1.794 255 255 255
-0.756398 -0.251979 1.551 255 255 255
-0.300731 -0.167915 1.953 255 255 255
0.0411526 0.518685 2.43 255 255 255
1.15627 -0.492648 2.707 255 255 255
0.11583 0.496859 2.42 255 255 255
1.10441 0.294914 2.411 255 255 255
1.02634 0.564497 2.44 255 255 255
-0.398874 -0.255121 1.848 255 255 255
-0.740831 0.522548 1.876 0 0 0
-0.529509 -0.0894281 1.842 255 255 255
1.06018 -0.976612 2.755 0 0 0
0.104625 0.685166 2.114 255 255 255
-0.150187 0.0992799 2.166 255 255 255
-0.723155 0.251606 1.978 0 0 0
0.162198 -0.101642 2.244 255 255 255
-0.815139 0.380151 1.837 255 255 255
-0.649099 0.283794 1.978 255 255 255
0.72444 -0.316441 2.707 255 255 255
0.241647 0.358545 2.499 255 255 255
-0.811949 0.290798 1.784 255 255 255
-0.842422 0.201395 1.739 255 255 255
-0.499642 -0.303896 1.748 255 255 255
-0.537345 0.548428 1.935 255 255 255
-0.533706 -0.513502 1.587 255 255 255
1.16368 0.0912314 2.42 255 255 255
0.478044 -0.562011 2.66 255 255 255
-0.281818 0.610566 2.071 255 255 255
-0.581897 -0.119079 1.837 255 255 255
-0.324284 -0.202888 1.923 255 255 255
0.47903 -0.385232 2.55 255 255 255
-0.710202 -0.0137502 1.748 255 255 255
-0.681269 0.0614486 1.784 255 255 255
0.127017 -0.243295 2.204 0 0 0
1.09437 0.0967033 2.459 255 255 255
0.813543 0.197445 2.519 255 255 255
1.22246 0.108708 2.459 255 255 255
0.330616 0.554761 2.064 255 255 255
1.29356 -0.394966 2.672 255 255 255
