ply
format ascii 1.0
comment Created by Open3D
element vertex 1312
property double x
property double y
property double z
property uchar red
property uchar green
property uchar blue
end_header
-0.232444 -0.487059 1.794 255 255 255
-0.657162 0.0240697 2.064 255 255 255
0.520137 -0.63157 1.696 255 255 255
-0.800986 0.58238 1.779 255 255 255
0.78793 -0.60949 1.696 255 255 255
-0.050916 -0.615408 1.682 255 255 255
0.09118 -0.24129 1.905 0 0 0
0.259969 -0.255115 1.87 0 0 0
-0.679359 -0.540887 1.779 255 255 255
-0.623847 0.653146 1.714 255 255 255
1.01561 0.12811 2.01 255 255 255
-1.00969 0.137923 2.01 0 0 0
0.0619971 -0.591563 1.7 255 255 255
-0.179131 -0.477286 1.758 255 255 255
-0.363404 0.504411 2.037 255 255 255
0.129077 -0.157736 1.87 255 255 255
0.662888 0.138499 2.173 255 255 255
0.472273 0.64718 1.929 255 255 255
-0.0349113 0.250869 2.024 0 0 0
0.660815 0.584663 2.099 255 255 255
-0.351875 0.621299 1.87 255 255 255
-0.554305 0.48286 2.044 255 255 255
0.0138278 0.612649 1.929 255 255 255
0.678802 -0.448247 1.779 255 255 255
0.561729 0.314818 2.099 255 255 255
-0.788194 0.101322 2.064 0 0 0
-0.336754 -0.306391 1.905 255 255 255
0.63138 -0.530246 1.744 255 255 255
-0.155211 -0.459618 1.848 255 255 255
0.175413 -0.347896 1.784 255 255 255
-0.788179 -0.312708 1.887 255 255 255
-0.529758 0.623046 1.763 255 255 255
0.394525 -0.657798 1.714 255 255 255
0.0606474 -0.454146 1.826 255 255 255
0.935014 0.424496 2.189 255 255 255
0.978027 0.728216 1.911 255 255 255
0.0626714 0.487391 2.092 0 0 0
-0.0772044 0.111755 2.01 255 255 255
0.273348 -0.613942 1.724 255 255 255
-0.349378 0.470369 2.092 255 255 255
0.143871 -0.401274 1.789 255 255 255
-0.497582 0.275785 2.114 255 255 255
-0.00881172 0.560405 2.085 255 255 255
0.918044 -0.276728 2.078 255 255 255
-0.846562 0.235467 2.092 255 255 255
-0.582091 0.224925 2.121 255 255 255
-0.631231 -0.365547 1.859 255 255 255
-0.402898 -0.505861 1.748 255 255 255
-0.881914 0.339945 2.128 255 255 255
0.592506 -0.604293 1.659 255 255 255
1.00925 0.061506 1.972 255 255 255
-0.62246 -0.413162 1.842 255 255 255
0.932937 0.584883 2.244 255 255 255
0.110516 -0.175524 1.865 255 255 255
0.207925 -0.0344318 1.953 255 255 255
-0.674562 -0.519159 1.774 255 255 255
-0.70084 0.447279 2.064 255 255 255
0.312441 0.60642 1.991 255 255 255
0.382509 -0.199161 1.859 255 255 255
0.543263 0.482857 2.03 255 255 255
-0.150023 0.420273 2.114 255 255 255
-0.567838 0.634373 1.739 255 255 255
0.165131 -0.497105 1.831 255 255 255
0.102605 -0.122321 1.887 255 255 255
0.925144 0.737545 1.911 255 255 255
0.135512 -0.414074 1.794 255 255 255
0.451249 0.193312 2.078 0 0 0
-0.886905 -0.376168 1.837 255 255 255
0.495376 -0.0485205 2.01 255 255 255
-0.523397 0.428567 2.121 255 255 255
0.830764 0.368676 2.196 255 255 255
0.0287135 0.560753 2.099 255 255 255
0.296431 -0.106208 1.929 255 255 255
0.368923 0.532819 1.947 255 255 255
1.0357 0.592993 2.261 255 255 255
0.210711 0.499273 2.143 0 0 0
0.670969 -0.43621 1.789 255 255 255
0.814227 0.661244 2.03 255 255 255
-0.946599 0.554708 1.831 255 255 255
0.554895 0.0483882 2.099 255 255 255
0.687848 -0.344219 1.842 255 255 255
-0.2288 0.5319 1.991 255 255 255
0.793272 0.617843 2.143 255 255 255
0.890828 0.583742 2.212 255 255 255
-0.883389 0.164099 2.051 0 0 0
-1.02024 0.320577 2.092 0 0 0
-0.352878 0.0616931 1.978 0 0 0
0.909132 0.391539 2.204 255 255 255
0.486341 -0.191559 1.935 255 255 255
0.573088 -0.459761 1.714 255 255 255
0.606637 0.661871 1.917 255 255 255
-0.551847 0.153248 2.085 255 255 255
-0.699668 -0.621349 1.729 255 255 255
-0.78009 -0.61317 1.714 255 255 255
-0.805075 0.569459 1.821 255 255 255
-0.602047 -0.288981 1.853 255 255 255
-0.565008 0.634373 1.739 255 255 255
-0.0883537 0.673123 1.774 255 255 255
0.0041975 0.652187 1.837 255 255 255
0.782487 0.241936 2.181 255 255 255
-0.971285 -0.206199 1.985 255 255 255
-0.216569 0.395473 2.092 0 0 0
0.50205 -0.249828 1.876 255 255 255
0.198645 -0.565633 1.784 255 255 255
-0.145914 0.51408 2.01 255 255 255
-0.011433 0.0609134 1.953 255 255 255
-0.877326 -0.239305 1.842 255 255 255
0.147731 -0.229687 1.837 0 0 0
0.190997 -0.443268 1.794 255 255 255
0.463674 0.501036 1.959 255 255 255
1.12798 0.395126 2.204 255 255 255
-0.59429 -0.58937 1.655 255 255 255
-0.245507 -0.433346 1.826 255 255 255
-0.765994 0.403072 2.114 255 255 255
0.148615 0.659099 1.848 255 255 255
-0.00825385 0.0990514 1.953 0 0 0
0.703865 0.667944 1.953 255 255 255
-0.297821 -0.406062 1.837 255 255 255
0.592679 0.356592 2.064 255 255 255
0.0338961 -0.415517 1.826 255 255 255
-0.973536 0.426314 2.044 255 255 255
0.91272 0.323393 2.204 255 255 255
-0.587389 0.360115 2.166 255 255 255
0.799564 -0.45726 1.758 255 255 255
-0.476849 -0.460121 1.769 255 255 255
0.822348 0.682932 1.978 255 255 255
0.638128 0.4709 2.173 255 255 255
-0.510187 0.578317 1.859 255 255 255
0.849788 -0.00942611 2.044 255 255 255
0.783815 -0.574642 1.794 255 255 255
-0.0374698 0.591672 1.985 255 255 255
0.564926 -0.259815 1.882 255 255 255
0.999074 0.646147 2.099 255 255 255
0.167608 -0.581926 1.763 255 255 255
0.97421 0.449432 2.189 255 255 255
-0.233251 -0.192747 1.947 255 255 255
0.83305 -0.339412 1.865 255 255 255
-0.732242 0.365555 2.136 255 255 255
1.02382 0.637652 2.151 255 255 255
0.075559 -0.514477 1.758 255 255 255
-0.320261 0.651735 1.763 255 255 255
0.249331 -0.197243 1.929 255 255 255
-0.409012 -0.53786 1.714 255 255 255
0.763082 0.461065 2.228 255 255 255
0.870403 -0.00936155 2.03 255 255 255
-0.445267 -0.454399 1.758 255 255 255
0.257422 0.0760388 2.017 255 255 255
-0.671744 -0.165336 1.923 255 255 255
-0.0493731 0.450313 2.078 255 255 255
-0.839195 -0.0289955 2.017 255 255 255
-0.061684 -0.635411 1.677 255 255 255
-0.441617 0.467886 2.143 255 255 255
-0.352457 -0.0871019 1.923 255 255 255
-0.87012 -0.290891 1.905 255 255 255
-0.421635 0.218578 2.03 255 255 255
0.597875 0.038191 1.929 255 255 255
0.62157 -0.335295 1.859 255 255 255
-0.152956 0.487457 2.107 255 255 255
0.322672 0.664991 1.917 255 255 255
0.0243085 0.19092 2.017 255 255 255
0.446302 -0.353749 1.799 255 255 255
-0.328946 0.466965 2.092 255 255 255
0.09118 -0.25369 1.905 0 0 0
-0.229297 0.310156 2.024 255 255 255
0.594475 -0.376991 1.744 255 255 255
0.297593 0.335441 2.166 255 255 255
-0.529727 -0.674987 1.744 255 255 255
-0.0175725 0.119808 1.929 255 255 255
-0.351956 0.51894 1.991 255 255 255
0.484387 -0.323512 1.81 255 255 255
-0.344136 -0.068539 1.929 255 255 255
-0.608545 -0.555423 1.734 255 255 255
-0.271705 0.398243 2.071 255 255 255
0.337403 0.326093 2.128 255 255 255
0.10826 0.191699 1.991 0 0 0
0.731136 -0.125821 1.941 255 255 255
0.700466 0.274502 2.158 255 255 255
-0.357963 -0.422486 1.87 255 255 255
0.206009 -0.0876455 1.935 255 255 255
-0.80917 0.291464 2.128 255 255 255
-0.627685 -0.404736 1.831 255 255 255
0.361021 -0.266283 1.842 255 255 255
0.992489 -0.242094 2.071 255 255 255
0.179316 -0.452026 1.794 255 255 255
0.423093 0.570272 1.978 255 255 255
0.216869 -0.380524 1.815 255 255 255
-0.94897 0.538989 1.859 255 255 255
-0.278073 -0.351552 1.865 255 255 255
0.122265 -0.229413 1.859 0 0 0
0.277631 -0.281799 1.826 0 0 0
-0.527147 -0.0190251 2.004 0 0 0
0.556481 0.621603 2.03 255 255 255
0.181058 -0.134249 1.972 0 0 0
0.725863 -0.567403 1.719 255 255 255
0.34372 0.563613 1.966 255 255 255
-0.172299 0.361429 2.092 0 0 0
0.133972 0.285629 2.037 0 0 0
0.609184 0.658639 1.935 255 255 255
0.693053 -0.324933 1.923 255 255 255
0.0802697 0.532031 2.107 255 255 255
-0.307296 0.480599 2.107 255 255 255
-0.895374 -0.0870652 2.071 255 255 255
0.326668 -0.535387 1.724 255 255 255
-0.193802 -0.359849 1.815 0 0 0
0.871764 -0.169033 1.966 255 255 255
-0.766037 0.356291 2.143 255 255 255
0.872824 0.436156 2.212 255 255 255
0.269494 -0.109292 1.985 0 0 0
0.757536 -0.342127 1.815 255 255 255
-0.23502 -0.565597 1.748 255 255 255
-0.856736 -0.572197 1.7 255 255 255
0.0151646 -0.549415 1.724 255 255 255
0.774684 0.736759 1.893 255 255 255
0.178568 -0.167414 1.911 0 0 0
0.261061 -0.467195 1.774 255 255 255
-0.0738155 -0.612725 1.705 255 255 255
0.156383 -0.617503 1.734 255 255 255
0.394617 -0.466467 1.739 255 255 255
0.870157 0.695427 1.941 255 255 255
0.658918 -0.0853415 2.03 255 255 255
0.312441 0.0296984 1.991 255 255 255
-0.5043 -0.107771 2.017 255 255 255
-0.86631 -0.23077 1.87 255 255 255
0.773185 -0.616461 1.7 255 255 255
1.10201 0.476183 2.181 255 255 255
-1.01649 0.154815 2.017 0 0 0
0.715261 -0.651364 1.734 255 255 255
-0.814864 0.00715584 2.03 255 255 255
-0.308089 0.203455 2.044 255 255 255
0.717576 0.713529 1.905 255 255 255
-0.391237 0.568702 1.929 255 255 255
0.303225 -0.253603 1.837 255 255 255
-0.00181508 -0.376839 1.87 255 255 255
-0.856337 -0.302253 1.842 255 255 255
-0.982777 0.262702 2.092 255 255 255
-0.305203 -0.0594894 1.941 255 255 255
-0.478782 0.187806 2.092 255 255 255
-0.688582 -0.231479 1.953 255 255 255
-0.767269 0.0747043 2.071 255 255 255
0.664549 -0.101207 2.017 255 255 255
0.496583 -0.643467 1.691 255 255 255
0.934286 0.151436 2.107 255 255 255
0.365522 -0.334367 1.805 255 255 255
0.731544 -0.233609 1.893 255 255 255
-0.451733 0.386879 2.158 255 255 255
-0.9535 -0.0595232 2.051 255 255 255
-0.0656197 -0.490151 1.784 255 255 255
0.313717 -0.220001 1.882 255 255 255
0.415469 -0.289974 1.899 255 255 255
0.541431 -0.48122 1.794 255 255 255
0.0972764 -0.482791 1.789 255 255 255
-0.152615 0.633743 1.853 255 255 255
-0.129395 0.563395 1.911 255 255 255
0.735471 0.278445 2.189 255 255 255
-0.263171 0.365424 2.057 0 0 0
0.322216 -0.275856 1.826 255 255 255
0.522124 0.0173521 2.064 255 255 255
0.265968 0.407986 2.196 255 255 255
-0.0899904 -0.61501 1.696 255 255 255
-1.06285 -0.0126276 2.024 255 255 255
0.864142 0.217091 2.181 255 255 255
0.767569 0.477473 2.22 255 255 255
0.492431 0.632724 1.972 255 255 255
-0.535827 -0.0359128 2.037 255 255 255
0.453433 -0.125043 1.929 255 255 255
-0.300485 -0.291807 1.911 0 0 0
0.209557 -0.238376 1.882 0 0 0
0.0868723 -0.448457 1.815 255 255 255
0.572607 0.183875 2.166 255 255 255
0.269386 0.360115 2.166 255 255 255
0.658041 -0.569998 1.71 255 255 255
0.950399 0.554909 2.286 255 255 255
0.890966 -0.328999 1.966 255 255 255
-0.0570288 0.0685786 1.991 255 255 255
0.780164 -0.183806 1.953 255 255 255
0.50363 -0.371314 1.744 255 255 255
0.416622 -0.341185 1.81 255 255 255
-0.948996 0.472344 1.959 255 255 255
-0.36487 0.635768 1.799 255 255 255
-0.740172 -0.468512 1.779 255 255 255
0.911449 -0.328836 2.004 255 255 255
0.808149 -0.554528 1.758 255 255 255
0.637693 0.111809 2.136 255 255 255
-0.260162 0.561024 1.935 255 255 255
-0.437043 0.620589 1.748 255 255 255
-0.155631 -0.352305 1.853 0 0 0
0.255084 0.147411 2.051 255 255 255
-0.619215 -0.140594 2.017 255 255 255
0.225613 0.0655355 1.997 255 255 255
0.261891 -0.20666 1.929 0 0 0
0.00738342 -0.361841 1.887 0 0 0
0.276438 0.296668 2.166 255 255 255
-0.966868 0.00715584 2.03 255 255 255
-0.334674 -0.401849 1.859 255 255 255
-0.292633 0.632014 1.805 255 255 255
-0.225965 0.66174 1.744 255 255 255
0.170906 0.0325249 1.966 0 0 0
0.497224 0.445472 1.953 255 255 255
1.07985 0.609648 2.151 255 255 255
-0.453493 -0.563442 1.724 255 255 255
0.690728 0.232593 2.128 255 255 255
-0.739891 0.378038 2.128 255 255 255
0.0691595 -0.0188448 1.985 255 255 255
0.0856406 0.367912 2.071 255 255 255
0.166233 -0.364291 1.779 255 255 255
-0.915313 0.264326 2.078 255 255 255
-0.139755 0.148346 2.064 0 0 0
-0.285262 0.525208 1.978 255 255 255
0.0899144 0.541861 2.092 255 255 255
0.0614969 -0.28463 1.947 255 255 255
0.945798 0.405199 2.181 255 255 255
-0.445074 0.662568 1.724 255 255 255
-0.853488 -0.241439 1.882 255 255 255
-0.60616 -0.196508 1.985 255 255 255
0.494465 0.689601 1.882 255 255 255
0.345079 -0.234703 1.853 255 255 255
0.942827 -0.0468549 1.941 255 255 255
-0.00439396 -0.657226 1.691 255 255 255
-0.629488 -0.613578 1.677 255 255 255
0.947274 -0.0254582 1.997 255 255 255
0.589525 0.00385236 2.03 255 255 255
-0.245646 -0.54463 1.763 255 255 255
0.468612 0.48361 1.953 255 255 255
0.0665813 -0.05857 1.911 255 255 255
-0.103853 0.609302 1.899 255 255 255
0.958812 0.0635008 1.935 255 255 255
0.772004 0.295769 2.212 255 255 255
0.0758505 0.120419 1.991 255 255 255
-0.594432 0.638193 1.734 255 255 255
-0.0656789 0.58711 1.959 255 255 255
-0.130115 0.502719 2.071 255 255 255
-0.510867 -0.0388425 2.017 255 255 255
0.656089 0.242982 2.128 255 255 255
-0.776552 0.0272558 2.051 255 255 255
0.81995 0.639682 2.078 255 255 255
0.969536 0.297862 2.03 255 255 255
-0.893105 -0.533084 1.744 255 255 255
-0.526888 -0.672149 1.744 255 255 255
0.396356 -0.17741 1.853 255 255 255
-0.104131 0.68317 1.748 255 255 255
-0.00194515 0.173384 2.004 255 255 255
0.895813 0.0167384 1.991 255 255 255
-0.747594 0.548264 1.87 255 255 255
0.11215 0.671953 1.794 255 255 255
-0.966854 0.424436 2.051 255 255 255
0.692444 0.641384 2.051 255 255 255
-0.330139 0.388856 2.057 255 255 255
0.279622 -0.244539 1.859 255 255 255
0.465712 0.716757 1.865 255 255 255
-0.789871 -0.615499 1.705 255 255 255
-0.278144 0.283285 2.044 0 0 0
0.705705 -0.177127 1.985 255 255 255
-0.806168 -0.331327 1.837 255 255 255
0.42072 -0.0839726 1.923 255 255 255
0.0441919 -0.613609 1.655 255 255 255
0.199709 -0.0876455 1.935 0 0 0
1.01573 -0.158222 1.991 255 255 255
-0.395541 -0.0602557 1.966 255 255 255
0.955662 0.0697986 1.935 255 255 255
0.186292 -0.469484 1.805 255 255 255
0.183772 0.313627 2.114 255 255 255
-0.541754 0.327116 2.181 255 255 255
0.146071 -0.156595 1.893 255 255 255
-0.0616623 0.557449 2.037 255 255 255
-0.381856 0.0455988 1.978 255 255 255
-0.860458 -0.615949 1.691 255 255 255
1.01981 0.360723 2.128 255 255 255
-0.834022 -0.48414 1.794 255 255 255
0.280314 -0.319681 1.805 255 255 255
0.0839521 -0.0699317 1.882 255 255 255
-0.689327 -0.329125 1.911 255 255 255
-0.309145 0.144074 2.051 255 255 255
0.688959 0.363639 2.166 255 255 255
-0.996792 -0.117618 2.017 255 255 255
-0.789329 -0.367896 1.935 255 255 255
-0.0391517 0.665468 1.769 255 255 255
-0.673774 -0.176743 1.911 255 255 255
0.873127 -0.083702 1.991 255 255 255
-0.472368 -0.296923 1.865 255 255 255
-0.33351 0.277852 2.078 255 255 255
0.430965 -0.524989 1.784 255 255 255
0.10887 0.356592 2.064 0 0 0
0.547997 0.685292 1.887 255 255 255
0.876406 -0.0360362 2.044 255 255 255
0.417405 -0.14895 1.997 255 255 255
0.437733 -0.115626 1.929 255 255 255
0.623979 0.552232 2.173 255 255 255
0.629523 0.641646 2.01 255 255 255
0.626697 0.436044 2.158 0 0 0
0.174023 0.362988 2.121 255 255 255
0.0721559 0.34095 2.071 255 255 255
-0.574186 -0.563664 1.691 255 255 255
0.30308 0.583968 2.037 255 255 255
-0.888988 -0.0733357 2.064 255 255 255
0.524337 -0.507633 1.826 255 255 255
-0.960177 0.417761 2.051 255 255 255
0.359415 0.383904 1.947 255 255 255
0.393209 0.429673 1.911 255 255 255
0.491898 -0.530285 1.763 255 255 255
0.433538 0.192581 2.107 0 0 0
-0.756726 0.551308 1.87 255 255 255
0.62298 0.638375 2.01 255 255 255
-0.42627 0.160034 2.085 255 255 255
-0.755486 0.143069 2.085 255 255 255
0.444716 -0.608884 1.758 255 255 255
0.752601 -0.649486 1.729 255 255 255
0.250804 0.523482 2.128 255 255 255
0.441728 -0.574664 1.724 255 255 255
-0.403655 -0.590984 1.739 255 255 255
-0.958049 0.538989 1.859 255 255 255
0.363479 -0.440998 1.739 255 255 255
-0.0603515 0.432596 2.107 255 255 255
0.132837 0.330839 2.071 0 0 0
0.780719 0.454443 2.196 255 255 255
-0.806835 -0.0812298 2.01 255 255 255
0.414459 -0.0839726 1.923 255 255 255
0.684404 0.705101 1.899 255 255 255
0.307354 -0.260998 1.826 255 255 255
-0.475232 -0.447084 1.763 255 255 255
0.43786 -0.153503 1.972 255 255 255
0.277489 0.689442 1.865 255 255 255
0.216257 -0.285071 1.887 255 255 255
0.744087 0.0900522 2.037 255 255 255
-0.490634 0.157693 2.099 255 255 255
-0.749605 -0.0839542 1.997 255 255 255
0.846436 0.695236 1.923 255 255 255
-0.246795 -0.285138 1.929 0 0 0
-1.05362 0.0610166 2.064 0 0 0
-0.428785 0.509305 2.017 255 255 255
-0.782298 0.505908 1.941 255 255 255
0.0721354 0.592804 1.978 255 255 255
0.0585073 -0.218766 1.953 255 255 255
0.103189 0.557012 2.085 255 255 255
-0.21015 0.284648 2.03 255 255 255
-1.05416 0.0344936 2.085 255 255 255
-0.966886 -0.00276409 2.037 255 255 255
0.531734 -0.282571 1.831 255 255 255
0.0474556 0.257457 2.024 255 255 255
0.0699804 0.525173 2.107 255 255 255
-0.912642 0.0296984 1.991 255 255 255
-0.0772357 0.662402 1.784 255 255 255
-0.742981 -0.148288 1.905 255 255 255
0.88288 0.60685 2.166 255 255 255
0.248406 0.584644 2.051 255 255 255
0.516832 -0.279591 1.831 255 255 255
0.320749 -0.578626 1.753 255 255 255
-0.778964 -0.389477 1.887 255 255 255
0.679389 0.274502 2.158 255 255 255
0.787547 0.0946047 2.064 255 255 255
-0.753928 -0.434237 1.805 255 255 255
0.227228 -0.523059 1.758 255 255 255
-0.834226 0.62813 1.677 255 255 255
-0.377091 -0.569532 1.734 255 255 255
0.791183 0.630833 2.128 255 255 255
-0.653887 0.523237 1.935 255 255 255
-0.713119 0.457813 2.051 255 255 255
-0.63071 -0.633895 1.673 255 255 255
-1.03296 -0.00936155 2.03 255 255 255
0.0797686 0.615789 1.929 255 255 255
-0.157706 -0.458126 1.842 255 255 255
0.32951 -0.622113 1.739 255 255 255
0.754902 0.339004 2.236 255 255 255
-1.00315 0.465016 2.01 255 255 255
-0.136985 0.620806 1.887 255 255 255
-0.165854 0.656832 1.769 255 255 255
-0.209081 -0.416993 1.794 255 255 255
0.883352 0.65358 2.037 255 255 255
0.609478 0.349874 2.064 255 255 255
-0.144558 0.282315 2.037 255 255 255
-0.159815 0.401737 2.107 0 0 0
0.0801727 -0.524384 1.734 255 255 255
-0.90342 0.170775 2.051 255 255 255
0.309459 0.616679 1.972 255 255 255
-0.552289 0.591854 1.799 255 255 255
-0.575528 -0.228889 1.905 255 255 255
-0.571487 -0.461123 1.842 255 255 255
0.225998 0.616679 1.972 255 255 255
0.83477 -0.350214 1.842 0 0 0
-0.726815 0.0410023 2.071 0 0 0
-1.00006 -0.170065 1.978 255 255 255
-0.755481 0.515337 1.929 255 255 255
-0.349659 -0.65883 1.724 255 255 255
-0.375772 0.241023 1.997 255 255 255
-0.354106 -0.476968 1.789 255 255 255
0.735656 0.677479 1.953 255 255 255
0.268124 0.499241 2.128 255 255 255
-0.523432 -0.57388 1.705 255 255 255
-0.0585983 -0.409052 1.837 255 255 255
0.503684 -0.0483757 2.004 255 255 255
-0.615188 0.294927 2.128 255 255 255
-0.44146 -0.600608 1.71 255 255 255
0.694011 0.689947 1.917 255 255 255
-0.0428256 -0.18841 1.935 255 255 255
0.252264 -0.575773 1.753 255 255 255
0.516633 -0.323761 1.779 255 255 255
0.881245 0.0694741 2.017 255 255 255
0.83282 -0.106539 1.935 255 255 255
0.502154 -0.653728 1.682 255 255 255
0.11315 -0.461949 1.81 255 255 255
0.810923 0.664548 2.03 255 255 255
0.786407 0.299369 2.212 255 255 255
-0.0110817 -0.128871 1.893 255 255 255
0.0441609 0.244282 2.024 255 255 255
-0.539143 0.0801076 2.037 255 255 255
0.235072 -0.458534 1.774 255 255 255
0.0849781 -0.27849 1.905 255 255 255
0.323676 -0.604058 1.769 255 255 255
0.596076 -0.462444 1.724 255 255 255
-0.492902 0.65804 1.705 255 255 255
-0.135793 -0.645517 1.682 255 255 255
0.754747 0.651334 2.03 255 255 255
-0.49178 -0.158581 1.917 255 255 255
-0.681842 0.549834 1.865 255 255 255
0.469201 0.58604 2.01 0 0 0
-0.63554 0.541315 1.899 255 255 255
0.481302 0.111024 2.121 255 255 255
0.102605 -0.205231 1.887 255 255 255
-0.0491952 -0.423269 1.821 255 255 255
-0.789426 0.431472 2.085 255 255 255
-0.737276 -0.555362 1.779 255 255 255
0.365115 0.197964 2.128 255 255 255
0.441351 0.644493 1.959 255 255 255
-0.437852 0.246696 2.044 255 255 255
-0.507382 -0.252168 1.917 255 255 255
0.468892 -0.106869 1.941 255 255 255
-0.0223811 0.648492 1.81 255 255 255
-0.346277 0.559605 1.941 255 255 255
-0.47729 0.545493 1.947 255 255 255
-0.255667 0.659449 1.753 255 255 255
-0.717714 -0.538531 1.81 255 255 255
0.490229 -0.523548 1.799 255 255 255
0.602755 0.170324 2.173 255 255 255
0.217496 0.400159 2.212 0 0 0
-0.355272 0.659762 1.724 255 255 255
0.879009 0.676493 1.997 255 255 255
-0.732058 0.52149 1.917 255 255 255
-0.0956313 0.197582 1.985 255 255 255
0.977435 0.0417158 1.947 255 255 255
-0.738516 0.441651 2.085 255 255 255
0.447153 -0.203521 1.929 255 255 255
0.336293 0.335367 2.143 255 255 255
0.0415645 -0.0614861 1.905 255 255 255
0.798973 -0.60673 1.696 255 255 255
0.51431 -0.561727 1.677 255 255 255
0.474325 0.297308 2.004 255 255 255
-0.890622 0.431484 2.037 255 255 255
-0.0444855 -0.156461 2.01 255 255 255
-0.434535 0.611594 1.859 255 255 255
0.626863 -0.046015 2.044 255 255 255
0.894991 0.20566 2.136 255 255 255
0.687959 -0.523059 1.758 255 255 255
-0.111374 0.325065 2.099 255 255 255
0.758863 -0.0796941 1.972 255 255 255
-0.0147542 -0.0155123 1.972 255 255 255
-0.755418 -0.513385 1.774 255 255 255
0.350775 0.39018 2.064 255 255 255
0.971905 0.647396 2.092 255 255 255
0.415283 0.117282 2.173 255 255 255
-1.0301 0.071093 2.064 0 0 0
0.171776 0.504594 2.136 0 0 0
-0.197672 0.196212 2.004 255 255 255
0.522605 -0.22058 1.941 255 255 255
-0.193056 0.257457 2.024 255 255 255
-0.504332 0.16682 2.085 255 255 255
-0.388403 -0.285546 1.87 255 255 255
0.482819 -0.593934 1.691 255 255 255
0.130566 -0.203997 1.848 255 255 255
0.398176 0.388023 1.905 255 255 255
0.777826 -0.56551 1.821 255 255 255
0.330263 -0.325555 1.805 255 255 255
0.0321303 0.564168 2.099 255 255 255
-0.271645 0.617991 1.842 255 255 255
0.290254 0.099015 2.017 255 255 255
-0.737303 0.462903 2.044 255 255 255
-0.661467 0.640767 1.696 255 255 255
1.04605 0.161232 2.057 255 255 255
0.916132 0.17745 2.051 255 255 255
-0.8064 -0.430285 1.753 255 255 255
-0.155415 0.608523 1.887 255 255 255
0.233319 0.669085 1.876 255 255 255
-0.514853 0.568341 1.876 255 255 255
0.941238 0.454154 2.212 255 255 255
0.488832 -0.0550623 2.01 255 255 255
-0.329511 -0.330148 1.899 255 255 255
-0.908264 -0.130294 2.01 255 255 255
-0.810646 -0.217171 1.911 255 255 255
0.252322 -0.404153 1.815 255 255 255
0.363238 0.643154 1.917 255 255 255
0.299829 0.0229968 1.972 255 255 255
-0.877344 -0.38888 1.799 255 255 255
0.512423 0.247442 2.107 255 255 255
0.583693 0.470369 2.092 255 255 255
0.37393 -0.41292 1.789 255 255 255
-0.60384 -0.401756 1.831 255 255 255
0.32504 -0.25729 1.842 255 255 255
-0.799929 -0.35683 1.893 255 255 255
0.116213 -0.226388 1.859 0 0 0
0.657467 -0.49875 1.753 255 255 255
0.241596 -0.313703 1.893 0 0 0
-0.539847 -0.0772147 2.078 255 255 255
0.368923 -0.170568 1.947 255 255 255
-0.725775 0.488284 1.959 255 255 255
0.735733 -0.381365 1.805 255 255 255
0.895606 -0.693371 1.784 0 0 0
-0.22865 0.389445 2.078 0 0 0
0.842055 0.69274 1.899 255 255 255
0.116096 -0.46784 1.81 255 255 255
-0.935101 0.381855 2.092 255 255 255
1.0855 -0.368744 2.121 0 0 0
0.206493 -0.278191 1.882 255 255 255
-0.821422 -0.168991 1.929 255 255 255
-0.28536 0.535833 1.935 255 255 255
0.904133 0.368114 2.236 255 255 255
0.360625 -0.036339 1.887 255 255 255
1.02562 -0.165778 2.004 255 255 255
0.472658 -0.470851 1.799 255 255 255
0.271904 0.351761 2.158 255 255 255
-0.00747622 -0.175125 1.769 255 255 255
0.200938 0.216984 2.078 255 255 255
-0.576033 -0.23657 1.917 255 255 255
-0.566292 -0.159255 2.004 255 255 255
0.32998 -0.218598 1.87 255 255 255
0.489491 -0.213601 1.935 255 255 255
-0.698054 0.636126 1.691 255 255 255
0.546721 0.285159 2.107 255 255 255
-0.898294 0.102297 2.017 255 255 255
-0.188114 -0.415831 1.789 255 255 255
0.133802 -0.614681 1.734 255 255 255
-0.92148 0.398877 2.092 255 255 255
0.256884 0.204216 2.121 255 255 255
0.57063 -0.503033 1.758 255 255 255
0.621969 0.557503 2.166 255 255 255
-0.260313 -0.487108 1.805 255 255 255
-0.721259 0.403072 2.114 255 255 255
0.168102 -0.462069 1.799 255 255 255
0.921235 0.166861 2.004 255 255 255
-0.71429 -0.475382 1.794 255 255 255
0.0522739 -0.618995 1.655 255 255 255
-1.02608 -0.0415818 1.991 255 255 255
0.536766 -0.399667 1.769 255 255 255
-0.513869 -0.571286 1.748 255 255 255
-0.771806 -0.00924165 2.004 255 255 255
0.202734 -0.506181 1.769 255 255 255
0.436773 -0.519182 1.784 255 255 255
-0.109647 -0.328988 1.947 255 255 255
-0.497742 -0.0859301 2.044 255 255 255
-0.416378 -0.457242 1.769 255 255 255
-0.633646 0.572586 1.831 255 255 255
-0.6077 0.213862 2.114 255 255 255
0.290199 -0.175967 1.972 255 255 255
-0.328959 -0.517727 1.779 255 255 255
0.5742 -0.388152 1.769 255 255 255
0.561376 0.00395673 2.085 255 255 255
-0.613458 -0.525773 1.748 255 255 255
-0.559389 0.54872 1.882 255 255 255
-0.637022 0.595177 1.774 255 255 255
-0.618069 -0.0225087 2.024 255 255 255
-0.901313 -0.242303 1.842 255 255 255
-0.575299 0.643862 1.719 255 255 255
0.472051 -0.217422 1.941 255 255 255
0.890591 0.183785 2.085 255 255 255
-0.99418 0.491869 1.911 255 255 255
0.411161 -0.330328 1.799 255 255 255
0.910906 0.0790458 2.01 255 255 255
0.959999 0.525872 2.181 255 255 255
0.281604 0.636597 1.935 255 255 255
-0.459686 0.543996 1.953 255 255 255
0.0996285 -0.506147 1.779 255 255 255
-0.0359635 0.36022 2.085 255 255 255
-0.684265 -0.196629 1.923 255 255 255
-0.11663 0.300508 2.071 255 255 255
0.257749 -0.36889 1.876 255 255 255
-0.784036 0.237156 2.107 255 255 255
0.670161 -0.193278 1.985 255 255 255
-0.426664 -0.604468 1.729 255 255 255
0.731544 0.724437 1.893 255 255 255
-0.216759 0.287951 2.03 255 255 255
0.44454 0.5106 1.959 255 255 255
-0.438128 0.342341 2.143 255 255 255
-1.0544 0.263581 2.099 255 255 255
0.708049 0.0430656 2.01 255 255 255
-0.0336757 -0.524989 1.784 255 255 255
0.368127 -0.148108 2.03 255 255 255
0.392453 -0.640471 1.705 255 255 255
0.0941963 -0.626356 1.682 255 255 255
0.100469 -0.422832 1.794 255 255 255
-0.406486 -0.590984 1.739 255 255 255
-0.60981 0.404438 2.158 255 255 255
-0.548701 -0.183806 1.953 255 255 255
-0.985132 0.525601 1.876 255 255 255
-0.245563 0.501037 2.078 255 255 255
0.183862 -0.338239 1.81 255 255 255
1.04608 0.593714 2.236 255 255 255
0.534008 0.320729 2.071 0 0 0
0.821809 -0.566976 1.637 255 255 255
0.349502 0.328723 2.037 255 255 255
0.300753 0.428059 2.189 255 255 255
-0.38274 -0.354594 1.966 255 255 255
0.0556913 -0.371597 1.859 255 255 255
-0.955314 0.376301 2.099 255 255 255
-0.829873 -0.64261 1.696 255 255 255
-0.914314 -0.521678 1.763 255 255 255
-0.552354 -0.178631 1.966 255 255 255
0.899696 -0.268874 2.044 255 255 255
-0.165545 0.510809 2.01 255 255 255
-0.457769 -0.623857 1.668 255 255 255
-0.496435 -0.187995 1.899 255 255 255
-0.345787 -0.419443 1.87 255 255 255
-0.038206 0.237695 2.024 0 0 0
0.727507 -0.00276409 2.037 255 255 255
-0.250713 -0.204154 1.935 0 0 0
0.0449468 0.624436 1.917 255 255 255
-0.174292 0.629745 1.859 255 255 255
0.0529768 0.645644 1.87 255 255 255
0.395668 -0.165837 1.893 255 255 255
-0.956939 0.166294 2.037 255 255 255
0.113466 -0.379516 1.769 255 255 255
0.661758 0.704229 1.905 255 255 255
-0.198596 -0.481634 1.753 255 255 255
-0.692259 -0.567215 1.753 255 255 255
0.425766 0.242536 2.037 255 255 255
0.956259 0.236717 2.044 255 255 255
-0.839828 0.610872 1.705 255 255 255
0.868257 0.558958 2.228 255 255 255
-0.893196 -0.142022 1.991 255 255 255
0.0451532 -0.558161 1.691 255 255 255
-0.496801 -0.514815 1.789 255 255 255
0.701348 0.721721 1.87 255 255 255
0.128949 -0.533698 1.784 255 255 255
-0.316627 -0.0439664 1.953 255 255 255
0.53967 0.670201 1.923 255 255 255
-0.0892719 -0.4488 1.853 255 255 255
-0.60707 0.320367 2.136 255 255 255
0.325828 0.262132 2.143 255 255 255
-0.0373383 -0.411415 1.821 255 255 255
0.243008 -0.670846 1.748 255 255 255
-0.346042 -0.609037 1.734 255 255 255
0.562252 -0.157894 1.947 255 255 255
-0.332719 -0.378867 1.865 255 255 255
-0.0276783 -0.0219972 1.978 255 255 255
0.385535 -0.271766 1.859 255 255 255
0.790358 -0.479161 1.744 255 255 255
0.892544 0.596856 2.181 255 255 255
0.642754 0.357163 2.107 255 255 255
1.01948 0.283285 2.044 255 255 255
0.634664 0.0933671 2.037 255 255 255
-0.862921 0.42231 2.107 255 255 255
-0.559043 -0.482536 1.821 255 255 255
-0.535042 -0.358857 1.81 255 255 255
0.0846302 -0.608956 1.71 255 255 255
0.856744 0.129189 2.136 255 255 255
0.813863 0.563423 2.189 255 255 255
0.686222 -0.23901 1.887 255 255 255
0.702883 -0.530706 1.774 255 255 255
-0.691914 -0.523549 1.789 255 255 255
-0.96954 0.216253 2.071 255 255 255
0.193657 0.583968 2.037 255 255 255
0.601411 0.234233 2.143 255 255 255
0.290785 -0.373414 1.853 255 255 255
1.00621 -0.326245 2.114 255 255 255
0.304122 0.143582 2.044 255 255 255
-0.61294 -0.210452 1.935 255 255 255
-0.0641922 -0.445232 1.826 255 255 255
0.801869 0.69583 1.899 255 255 255
-0.438138 -0.00915403 1.985 255 255 255
-0.752531 -0.49029 1.774 255 255 255
0.240453 0.618989 1.959 255 255 255
0.47461 0.634649 1.978 255 255 255
-0.767248 0.466229 2.044 255 255 255
0.845419 0.693277 1.935 255 255 255
-0.688371 -0.311441 1.917 255 255 255
-0.46816 -0.331383 1.758 255 255 255
0.319089 -0.105367 1.972 255 255 255
-0.820989 0.133146 2.037 255 255 255
-0.586451 -0.490046 1.805 255 255 255
0.934284 0.0951157 2.004 255 255 255
0.307314 -0.664611 1.71 255 255 255
-0.28851 -0.13173 1.935 255 255 255
0.671179 0.25167 2.143 255 255 255
-0.452426 0.0782986 1.991 255 255 255
-0.70978 0.0205805 2.051 0 0 0
-0.430159 0.626654 1.815 255 255 255
0.705719 0.193861 2.121 255 255 255
-0.361194 -0.528726 1.739 255 255 255
0.372204 -0.57691 1.714 255 255 255
-0.120531 -0.452917 1.87 255 255 255
0.422218 0.647681 1.959 255 255 255
-0.424084 0.621682 1.853 255 255 255
0.17873 0.358603 2.136 255 255 255
-0.827702 -0.178408 1.929 255 255 255
1.00291 0.161939 2.024 255 255 255
-0.472362 -0.352408 1.763 255 255 255
0.385976 -0.122099 2.037 255 255 255
0.391967 0.244203 2.051 255 255 255
0.925382 0.0810062 1.978 255 255 255
0.234075 0.0228452 1.959 0 0 0
0.466862 0.634929 1.959 255 255 255
-0.63302 0.531032 1.929 255 255 255
0.575894 -0.112487 1.929 255 255 255
0.0634868 0.249134 2.01 255 255 255
-0.33287 -0.491787 1.769 255 255 255
0.857158 0.257563 2.078 255 255 255
-0.687931 0.288001 2.128 255 255 255
-0.745989 -0.606566 1.719 255 255 255
0.638259 -0.447084 1.763 255 255 255
0.0227418 -0.361841 1.887 255 255 255
-0.930519 0.159116 2.03 255 255 255
-0.866407 -0.0288086 2.004 255 255 255
0.778956 -0.111445 1.966 255 255 255
-0.927096 -0.0657466 2.037 255 255 255
0.00417237 -0.406602 1.826 255 255 255
0.674896 0.531363 2.189 255 255 255
0.589382 -0.0802195 1.985 255 255 255
-0.146665 0.595055 1.893 255 255 255
-0.885899 -0.455508 1.719 255 255 255
0.468134 0.682221 1.887 255 255 255
-0.280084 -0.553237 1.763 255 255 255
-0.845772 0.42231 2.107 255 255 255
0.653737 0.255157 2.143 255 255 255
0.807338 0.234837 2.181 255 255 255
0.166701 -0.516279 1.784 255 255 255
0.577173 0.638375 2.01 255 255 255
-0.446365 0.560674 1.923 255 255 255
0.766085 -0.149957 1.887 255 255 255
0.945798 0.398101 2.181 255 255 255
0.0876992 0.0741161 1.966 255 255 255
0.0893943 0.150556 2.004 255 255 255
0.0681204 0.300943 2.051 255 255 255
0.439677 -0.527892 1.784 255 255 255
-0.875837 0.557888 1.784 255 255 255
0.0992697 -0.281253 1.882 255 255 255
0.697507 0.671123 1.953 255 255 255
0.589939 -0.390059 1.739 255 255 255
0.469335 -0.252168 1.917 255 255 255
-0.494126 -0.342092 1.769 255 255 255
0.331133 -0.299628 1.826 255 255 255
0.259442 -0.541761 1.763 255 255 255
-0.233869 0.629076 1.805 255 255 255
-0.0197784 -0.395177 1.842 255 255 255
-0.611573 0.581113 1.784 255 255 255
-0.207157 -0.601447 1.753 255 255 255
-0.282436 0.280917 2.051 0 0 0
0.522425 -0.427982 1.779 255 255 255
0.584448 0.56289 2.107 255 255 255
-0.824674 0.616863 1.691 255 255 255
0.0831665 -0.210452 1.935 255 255 255
-0.157379 -0.477787 1.739 255 255 255
0.803037 0.159497 2.078 255 255 255
0.71803 0.555444 2.158 255 255 255
-0.423273 0.356085 2.121 255 255 255
0.363238 0.630675 1.917 255 255 255
0.100848 0.538888 2.107 255 255 255
0.680687 0.34712 2.151 255 255 255
-0.854112 0.584579 1.734 255 255 255
0.292379 -0.137172 1.923 255 255 255
-0.205502 -0.565515 1.739 255 255 255
-0.251437 -0.627969 1.724 255 255 255
0.400013 0.371349 1.899 255 255 255
0.939623 0.136929 2.044 255 255 255
0.925677 0.491903 2.253 255 255 255
-0.759715 0.0512857 2.078 255 255 255
0.964552 -0.152024 1.953 255 255 255
-0.55767 0.206297 2.107 255 255 255
-1.01666 0.0375049 2.064 255 255 255
0.985696 -0.249676 2.078 255 255 255
0.351133 -0.588353 1.748 255 255 255
0.629637 0.208804 2.064 255 255 255
0.0250474 -0.166365 1.831 0 0 0
-0.458759 0.450091 2.158 255 255 255
0.746152 0.610056 2.128 255 255 255
-0.362244 0.00690556 1.959 255 255 255
0.476429 -0.146115 1.959 255 255 255
0.0414979 -0.627075 1.655 255 255 255
0.482724 -0.281799 1.826 255 255 255
-0.881889 -0.0870652 2.071 255 255 255
-0.561444 -0.143377 2.01 255 255 255
-0.0785103 0.536081 2.044 255 255 255
-0.603551 -0.526332 1.769 255 255 255
0.30522 0.497599 2.121 255 255 255
0.0214422 0.285086 2.057 255 255 255
0.473907 -0.501621 1.815 255 255 255
0.223072 0.361529 2.196 0 0 0
-0.42467 0.454223 2.128 255 255 255
-0.593466 -0.0159685 2.03 255 255 255
0.24397 0.543674 2.099 255 255 255
-0.754681 -0.339556 1.935 255 255 255
0.589754 0.0693657 1.923 255 255 255
0.0694822 0.426112 2.092 0 0 0
-0.62145 -0.0965189 2.057 255 255 255
-0.691 0.0480655 2.085 255 255 255
0.316925 0.504601 2.107 255 255 255
0.76193 0.569913 2.173 255 255 255
0.486158 -0.349539 1.763 255 255 255
-0.606652 -0.538688 1.753 255 255 255
0.328731 0.617094 1.953 255 255 255
0.882904 0.188435 2.099 255 255 255
-0.850716 -0.164737 1.953 255 255 255
0.425215 -0.629905 1.714 255 255 255
-0.275984 -0.386858 1.831 255 255 255
0.333939 0.3815 2.128 255 255 255
0.405304 -0.321546 1.799 255 255 255
0.825923 -0.217422 1.941 255 255 255
0.380673 -0.49875 1.753 255 255 255
-0.236956 -0.495957 1.784 255 255 255
-0.996829 0.481908 1.959 255 255 255
-0.716208 -0.21625 1.959 255 255 255
0.124935 -0.482567 1.81 255 255 255
0.660136 -0.0659725 2.044 255 255 255
0.119089 -0.117287 1.905 255 255 255
-0.0314099 -0.446976 1.821 255 255 255
0.733288 -0.485489 1.799 255 255 255
-0.812172 0.47358 1.991 255 255 255
-0.839751 0.232063 2.092 255 255 255
0.570048 -0.545141 1.774 255 255 255
0.224874 -0.284316 1.882 255 255 255
0.953396 0.134528 2.166 255 255 255
-0.120407 0.501037 2.078 255 255 255
0.587878 0.408595 2.107 0 0 0
-0.210566 0.562124 1.972 255 255 255
0.261891 0.631484 1.929 255 255 255
0.344769 0.485106 1.972 255 255 255
-0.0353494 -0.599914 1.724 255 255 255
-0.26398 -0.394203 1.81 255 255 255
0.327045 0.427628 2.151 255 255 255
-0.586304 0.130367 2.099 255 255 255
-0.947528 -0.31173 1.81 255 255 255
-0.567452 -0.314675 1.81 255 255 255
0.526429 0.125713 2.136 255 255 255
0.588982 -0.387494 1.753 255 255 255
-0.874165 0.599775 1.729 255 255 255
-0.185687 -0.494767 1.739 255 255 255
-1.06944 0.42873 2.024 255 255 255
0.406575 -0.111439 2.024 255 255 255
0.329719 -0.128219 1.978 255 255 255
0.0315945 0.366668 2.064 255 255 255
-0.821208 0.182551 2.071 255 255 255
0.410437 0.690456 1.876 255 255 255
-0.404717 -0.62605 1.696 255 255 255
-0.133723 0.677556 1.763 255 255 255
-0.269868 0.362077 2.057 0 0 0
0.720591 0.47386 2.22 255 255 255
0.624664 0.133596 2.151 255 255 255
-0.615053 -0.302993 1.865 255 255 255
-0.79721 -0.121782 1.978 255 255 255
0.696735 -0.00942611 2.044 255 255 255
0.350121 0.595607 1.966 255 255 255
-0.316306 0.0329385 1.991 255 255 255
0.712179 0.685951 1.941 255 255 255
-0.526347 0.581525 1.831 255 255 255
-0.880633 0.619943 1.677 255 255 255
1.05981 0.405885 2.204 255 255 255
0.977268 0.0768042 1.953 255 255 255
0.117814 0.085543 1.935 255 255 255
0.690283 0.448925 2.204 255 255 255
-0.757462 -0.39869 1.887 255 255 255
0.163729 0.575432 2.078 255 255 255
-0.0141183 0.633089 1.887 255 255 255
0.67911 -0.588067 1.714 255 255 255
0.931464 0.282419 1.991 255 255 255
0.0648655 0.598025 1.953 255 255 255
0.613306 0.68965 1.899 255 255 255
0.416812 0.0999674 2.181 255 255 255
-0.92792 -0.21675 1.935 255 255 255
-0.586251 -0.032822 2.051 255 255 255
1.00297 0.0942139 1.985 255 255 255
-0.151313 -0.330002 1.953 255 255 255
-1.07091 0.318431 2.078 255 255 255
-0.211164 -0.568345 1.739 255 255 255
0.00384333 -0.640042 1.682 255 255 255
0.759901 0.116703 2.099 255 255 255
0.555099 -0.358857 1.81 255 255 255
0.539995 0.0488954 2.121 255 255 255
-0.640587 0.633621 1.714 255 255 255
0.476526 0.217714 2.085 255 255 255
-1.05278 0.0798323 2.03 255 255 255
-0.559133 0.584504 1.831 255 255 255
-0.615961 0.634373 1.739 255 255 255
0.386569 0.147598 2.151 255 255 255
0.961725 0.641752 2.107 255 255 255
0.909466 0.528868 2.286 255 255 255
0.136721 -0.491403 1.81 255 255 255
-0.315364 0.636273 1.784 255 255 255
-0.204243 0.166294 2.037 255 255 255
0.26443 -0.668962 1.758 255 255 255
-0.577538 0.432921 2.092 255 255 255
0.716448 -0.509042 1.779 255 255 255
0.583733 -0.45253 1.729 255 255 255
-0.281122 -0.631612 1.734 255 255 255
-0.595181 -0.576849 1.65 255 255 255
0.164038 -0.152818 1.923 255 255 255
0.313237 0.591363 2.017 255 255 255
0.399505 -0.48026 1.748 255 255 255
-0.556203 0.0305934 2.051 255 255 255
-0.996398 0.296746 2.092 255 255 255
-0.777819 -0.494567 1.779 255 255 255
0.42136 0.604593 1.985 255 255 255
0.344277 -0.211943 1.865 255 255 255
0.567453 -0.519182 1.784 255 255 255
-0.889785 -0.632147 1.705 255 255 255
0.679855 -0.173897 1.985 255 255 255
0.177157 -0.62674 1.744 255 255 255
0.534451 0.417239 1.985 255 255 255
0.283401 -0.538493 1.734 255 255 255
-0.748698 0.146462 2.085 255 255 255
0.596076 -0.543804 1.724 255 255 255
-0.466341 -0.15109 1.941 255 255 255
0.851729 0.574457 2.204 255 255 255
-0.00200339 0.343156 2.064 0 0 0
0.871396 0.00382769 2.017 255 255 255
-0.283917 -0.552241 1.769 255 255 255
0.932761 0.0386661 1.953 255 255 255
0.0663269 0.133781 1.997 255 255 255
0.133936 -0.189472 1.853 255 255 255
0.0159651 -0.528204 1.815 255 255 255
0.716174 -0.374617 1.815 255 255 255
0.563938 -0.364748 1.81 255 255 255
-0.0556081 -0.409052 1.837 255 255 255
-0.00534499 0.305171 2.057 0 0 0
-0.928314 0.541814 1.848 255 255 255
-0.172583 0.643175 1.779 255 255 255
-0.0225172 -0.441049 1.821 255 255 255
0.0301862 0.594215 1.972 255 255 255
1.14845 0.584883 2.244 255 255 255
0.560319 0.359789 2.044 0 0 0
0.576742 0.662909 1.911 255 255 255
0.228765 -0.154249 1.941 255 255 255
-0.258947 -0.441935 1.837 255 255 255
0.731554 -0.199739 1.985 255 255 255
-0.0218 0.668949 1.763 255 255 255
-0.323614 0.189498 2.037 255 255 255
-0.737652 -0.504576 1.794 255 255 255
0.0311947 -0.179354 1.842 0 0 0
0.796584 -0.670222 1.739 255 255 255
-0.0728198 -0.640042 1.682 255 255 255
-0.537944 0.567096 1.882 255 255 255
-0.913965 0.320508 2.114 255 255 255
0.0185336 0.42231 2.107 0 0 0
0.805231 0.669171 2.024 255 255 255
-0.835425 -0.151557 1.947 255 255 255
-0.619835 -0.552602 1.734 255 255 255
-0.259852 0.59931 1.887 255 255 255
0.83642 -0.0712038 2.004 255 255 255
-0.762692 0.481897 1.972 255 255 255
0.199758 -0.449107 1.794 255 255 255
-0.625553 0.609835 1.758 255 255 255
0.506333 -0.62605 1.696 255 255 255
0.594737 0.460026 2.107 255 255 255
0.983626 -0.00265011 1.953 255 255 255
-0.534657 0.479128 2.071 255 255 255
0.438808 0.360934 1.893 0 0 0
0.353645 0.674198 1.899 255 255 255
0.138652 -0.252881 1.876 0 0 0
-0.470237 -0.561067 1.734 255 255 255
0.294565 0.447295 2.196 255 255 255
0.662562 -0.220894 1.972 255 255 255
0.615299 -0.0158662 2.017 255 255 255
0.218359 -0.578523 1.779 255 255 255
0.252264 -0.57292 1.753 255 255 255
-0.158364 0.156887 2.044 0 0 0
-0.759188 -0.395045 1.899 255 255 255
-0.66845 -0.468133 1.87 255 255 255
0.447729 0.516975 1.959 255 255 255
-0.238783 0.672054 1.734 255 255 255
-0.116796 -0.353446 1.859 0 0 0
-0.00767063 -0.418921 1.815 255 255 255
0.993281 -0.115752 1.985 255 255 255
0.0248749 0.326362 2.064 255 255 255
0.874498 0.640898 2.071 255 255 255
0.114965 -0.602576 1.748 255 255 255
0.690337 0.0874439 1.978 255 255 255
0.70268 -0.38283 1.826 255 255 255
1.02405 0.403759 2.212 255 255 255
0.468134 0.685292 1.887 255 255 255
-0.78066 0.474828 2.01 255 255 255
-0.771239 -0.126599 1.953 255 255 255
0.849834 -0.345569 1.882 255 255 255
-0.295435 0.642438 1.769 255 255 255
-0.356298 0.632561 1.815 255 255 255
0.867467 -0.153772 1.935 255 255 255
0.0986368 -0.334236 1.87 0 0 0
0.593737 0.121779 2.128 255 255 255
-0.322307 -0.23977 1.893 0 0 0
-0.81575 0.458373 2.024 255 255 255
-0.327415 -0.171594 1.923 0 0 0
0.838178 0.049953 2.024 255 255 255
0.817334 -0.469412 1.729 0 0 0
0.205916 0.636028 1.905 255 255 255
0.395492 0.626628 1.953 255 255 255
0.653701 0.289619 2.166 255 255 255
-0.353686 -0.0121472 1.947 255 255 255
0.299663 -0.660587 1.714 255 255 255
-0.366113 -0.457776 1.865 255 255 255
-0.113126 0.603121 1.899 255 255 255
-0.685403 -0.139312 1.953 255 255 255
0.351413 0.02344 2.01 255 255 255
-0.0911898 0.0451608 1.959 255 255 255
0.0793298 0.254022 1.997 255 255 255
0.525484 -0.00280073 2.064 255 255 255
0.9032 0.364871 2.261 255 255 255
0.996512 0.110365 1.985 255 255 255
0.253117 -0.0547636 1.887 0 0 0
-0.345116 0.580762 1.917 255 255 255
0.119756 0.399589 2.078 0 0 0
0.261196 0.520019 2.128 255 255 255
-0.121136 0.144097 2.151 255 255 255
0.418987 0.369003 1.887 0 0 0
0.499014 -0.482562 1.799 255 255 255
-0.932796 0.560128 1.81 255 255 255
-0.597327 0.357621 2.151 255 255 255
1.09796 0.247321 2.166 255 255 255
-0.877648 0.063315 2.03 0 0 0
-0.169405 0.171226 2.017 255 255 255
-0.619637 -0.102913 2.051 255 255 255
-0.986276 0.234679 2.085 255 255 255
-0.538839 0.609612 1.774 255 255 255
0.947145 0.362079 2.136 255 255 255
0.669924 -0.390718 1.794 255 255 255
0.0863937 -0.434237 1.805 255 255 255
0.345818 0.467269 1.978 255 255 255
0.527705 -0.394321 1.758 255 255 255
-0.996838 -0.128219 1.978 255 255 255
-0.455051 0.0957327 2.017 255 255 255
-0.173407 0.664191 1.758 255 255 255
1.06484 0.668926 2.128 255 255 255
0.0543732 -0.418921 1.815 255 255 255
0.501924 0.624497 1.997 255 255 255
0.132735 0.053719 1.923 255 255 255
-0.0929587 0.101283 1.997 255 255 255
0.203243 -0.385952 1.799 255 255 255
0.0395538 0.083416 1.959 0 0 0
-0.758172 0.262892 2.121 0 0 0
0.436371 0.297808 1.923 255 255 255
0.00119277 -0.495714 1.815 255 255 255
0.946256 0.530719 2.294 255 255 255
0.674264 -0.302705 1.941 255 255 255
-0.74886 -0.578523 1.779 255 255 255
-0.019263 -0.545448 1.794 255 255 255
0.00109616 -0.615714 1.668 255 255 255
-0.671605 0.565494 1.837 255 255 255
0.209557 -0.235314 1.882 0 0 0
-0.334752 -0.614681 1.734 255 255 255
-0.454809 -0.573517 1.729 255 255 255
0.347795 0.232593 2.128 255 255 255
0.2091 -0.394735 1.799 255 255 255
-0.460756 0.0554509 1.985 255 255 255
-0.506291 0.473133 2.151 255 255 255
0.010721 0.0162676 1.935 255 255 255
-0.475481 -0.576722 1.673 255 255 255
-0.504246 -0.284316 1.882 255 255 255
0.745406 -0.471407 1.779 255 255 255
-0.895316 -0.239305 1.842 255 255 255
-0.809299 -0.601626 1.705 255 255 255
0.574868 -0.350144 1.826 255 255 255
-0.908001 0.0861838 2.024 255 255 255
0.117157 0.565691 2.092 255 255 255
0.912945 -0.0829032 1.972 255 255 255
0.937637 0.594541 2.212 255 255 255
-0.188518 -0.503256 1.739 255 255 255
0.497149 0.628212 1.978 255 255 255
-0.49024 -0.170524 1.911 255 255 255
-0.0745628 0.438922 2.121 255 255 255
-0.443032 0.525208 1.978 255 255 255
0.415263 -0.559011 1.719 255 255 255
-0.832223 0.45508 2.024 255 255 255
-0.674759 0.533726 1.905 255 255 255
-0.662672 0.0992924 2.092 255 255 255
-0.346335 -0.530851 1.794 255 255 255
-0.885628 0.198728 2.064 255 255 255
0.732726 -0.174948 1.997 255 255 255
0.655257 -0.575563 1.71 255 255 255
0.414984 0.429673 1.911 255 255 255
0.988463 0.623981 2.189 255 255 255
-0.818317 0.598041 1.724 255 255 255
0.155808 -0.274523 1.899 255 255 255
-0.92068 0.554642 1.821 255 255 255
0.19765 0.579322 2.044 255 255 255
-0.976282 0.212882 2.071 0 0 0
-0.996957 -0.0258024 2.024 255 255 255
-0.345199 -0.652283 1.744 255 255 255
0.560769 -0.547821 1.719 255 255 255
1.07058 0.427405 2.204 255 255 255
0.529207 0.289937 2.092 255 255 255
-0.577168 -0.614927 1.637 255 255 255
0.147923 0.633795 1.917 255 255 255
-0.734765 0.558357 1.853 255 255 255
0.955537 0.658884 2.064 255 255 255
-0.0456806 0.323004 2.064 255 255 255
0.932437 -0.0504773 1.959 255 255 255
0.824069 -0.418155 1.799 0 0 0
0.326812 -0.202888 1.923 255 255 255
0.377672 -0.312097 1.865 255 255 255
-0.761428 0.146954 2.092 255 255 255
0.602755 0.15618 2.173 255 255 255
0.375984 -0.300425 1.887 255 255 255
0.609047 0.231828 2.121 255 255 255
0.17711 -0.322807 1.929 0 0 0
-0.996608 0.443215 2.03 255 255 255
0.563038 0.209821 2.143 255 255 255
-0.811001 -0.427001 1.763 255 255 255
-0.462582 0.574744 1.887 255 255 255
0.79774 -0.0449569 1.997 255 255 255
0.568153 0.216088 2.136 255 255 255
-0.724081 -0.13446 1.929 255 255 255
-0.208112 -0.343285 1.837 255 255 255
-0.0284456 -0.491426 1.821 255 255 255
0.526495 0.67915 1.887 255 255 255
0.362372 0.342685 1.929 255 255 255
0.110212 -0.538892 1.763 255 255 255
0.108586 0.205276 1.997 255 255 255
-0.0637022 0.0882839 1.997 255 255 255
0.546901 0.0661532 2.121 255 255 255
-0.135191 0.580227 1.905 255 255 255
-0.22811 -0.235271 1.985 255 255 255
-0.381032 -0.0152684 1.941 255 255 255
-0.528763 0.536525 1.893 255 255 255
-0.398407 0.629076 1.805 255 255 255
0.467491 0.111024 2.121 255 255 255
0.812265 0.26242 2.204 255 255 255
-0.699757 0.37024 2.143 255 255 255
-0.762864 0.562865 1.848 255 255 255
0.616469 -0.535671 1.734 255 255 255
0.52731 -0.287742 1.826 255 255 255
0.0705057 -0.535036 1.705 255 255 255
-0.853936 0.271704 2.136 255 255 255
-0.556079 -0.423269 1.821 255 255 255
0.33954 0.0976312 2.057 255 255 255
0.606142 -0.13384 1.966 255 255 255
-0.86624 0.533968 1.917 255 255 255
0.964572 -0.0122657 1.966 255 255 255
0.686317 -0.109292 1.985 255 255 255
-0.0601223 0.512932 2.099 255 255 255
0.531227 0.701852 1.882 255 255 255
0.621447 0.274883 2.189 255 255 255
-0.239181 0.333212 2.024 255 255 255
0.546234 0.306959 2.092 0 0 0
0.281045 0.000528063 1.953 255 255 255
0.153018 -0.251398 1.865 0 0 0
0.586516 -0.430387 1.789 255 255 255
-0.733352 0.475007 1.997 255 255 255
-0.910693 0.433304 2.03 255 255 255
-0.854517 0.063315 2.03 0 0 0
-0.102595 -0.481846 1.876 255 255 255
0.26137 0.0395373 1.997 255 255 255
0.68308 0.529421 2.181 255 255 255
0.365205 -0.191968 1.848 255 255 255
-0.0769983 -0.381428 1.848 255 255 255
-1.05956 0.142177 2.024 0 0 0
-0.941675 0.524203 1.893 255 255 255
0.272888 0.0725039 2.01 255 255 255
0.85966 -0.554528 1.758 0 0 0
0.706439 -0.593057 1.673 255 255 255
-0.916794 -0.264693 1.831 255 255 255
0.708049 -0.0550623 2.01 255 255 255
0.57163 0.27518 2.136 255 255 255
0.424316 -0.167414 1.911 255 255 255
-0.599144 0.577217 1.799 255 255 255
-0.0493303 -0.415517 1.826 255 255 255
0.675876 0.278014 2.158 255 255 255
-0.862908 -0.430021 1.729 255 255 255
-0.63944 0.483363 1.978 255 255 255
0.850641 -0.687542 1.769 255 255 255
-0.568276 0.590209 1.794 255 255 255
-0.125466 0.202026 1.997 255 255 255
-0.299296 0.321649 2.099 0 0 0
0.481302 0.114475 2.121 255 255 255
-0.450268 0.469633 2.151 255 255 255
0.964552 -0.0248973 1.953 255 255 255
-0.820661 -0.34209 1.784 255 255 255
0.531186 -0.354694 1.789 255 255 255
0.0472915 0.197485 2.017 255 255 255
-0.8165 -0.501656 1.794 255 255 255
0.368007 0.558419 1.959 255 255 255
-1.00684 -0.0785019 2.024 255 255 255
0.0760376 0.431472 2.085 0 0 0
0.932569 0.0229269 1.966 255 255 255
-0.306129 0.314818 2.099 0 0 0
-0.688535 0.494897 1.935 255 255 255
0.83996 -0.174807 1.959 255 255 255
-0.34893 -0.208302 1.887 255 255 255
-0.47781 0.509284 2.03 255 255 255
0.3583 -0.280841 1.859 255 255 255
-0.657605 -0.0719144 2.024 255 255 255
-0.837569 0.0602184 2.037 255 255 255
-1.04385 0.0343778 2.078 255 255 255
-0.342474 -0.487403 1.774 255 255 255
0.264019 0.245608 2.151 255 255 255
0.126033 0.65173 1.87 255 255 255
-0.461224 0.613909 1.821 255 255 255
-0.761701 -0.237835 1.953 255 255 255
-0.837995 0.0732254 2.03 0 0 0
-0.59677 0.459732 2.03 255 255 255
0.0860654 -0.574004 1.739 255 255 255
-0.834859 0.47358 1.991 255 255 255
-0.339129 0.492609 2.071 255 255 255
0.1292 -0.133624 1.917 255 255 255
0.704282 0.703337 1.911 255 255 255
-0.0284456 -0.405489 1.821 255 255 255
-0.65323 -0.249029 1.87 255 255 255
-0.249965 -0.527931 1.794 255 255 255
0.576955 0.619237 2.044 255 255 255
-0.00179858 -0.156302 1.853 0 0 0
-0.688356 0.458003 2.037 255 255 255
-0.504008 -0.650413 1.724 255 255 255
-0.756848 -0.432552 1.848 255 255 255
-0.81883 -0.61777 1.696 255 255 255
0.387734 -0.330328 1.799 255 255 255
0.276313 -0.253603 1.837 255 255 255
0.775605 0.461353 2.212 255 255 255
0.6064 0.302987 2.136 255 255 255
-0.317816 -0.648542 1.734 255 255 255
-0.336698 -0.533593 1.774 255 255 255
-0.568986 -0.0823209 2.037 255 255 255
