ply
format ascii 1.0
comment Created by Open3D
element vertex 1315
property double x
property double y
property double z
property uchar red
property uchar green
property uchar blue
end_header
0.913655 0.372886 2.099 0 0 0
-0.68114 -0.558678 1.799 255 255 255
-0.540273 0.469923 1.923 255 255 255
0.863457 0.189498 2.037 255 255 255
-0.356696 0.493363 1.929 255 255 255
0.0619488 -0.384464 2.32 255 255 255
0.0836596 -0.320426 2.294 255 255 255
-0.976974 0.12811 2.01 0 0 0
-0.424961 -0.5413 2.22 255 255 255
0.909421 0.480341 2.121 255 255 255
-0.0206698 -0.819101 2.269 255 255 255
-0.0855752 0.536826 1.905 255 255 255
0.232289 0.662302 1.753 255 255 255
0.691149 -0.399922 1.953 255 255 255
0.151096 0.431621 2.189 0 0 0
0.512158 -0.453366 2.051 255 255 255
-0.118643 0.0442691 2.236 0 0 0
-0.510517 -0.160809 2.42 255 255 255
-0.915744 0.464879 1.853 255 255 255
-0.735806 0.126673 2.347 255 255 255
-0.581385 0.52645 1.826 255 255 255
-0.824901 -0.247564 1.859 0 0 0
-0.296086 0.594754 1.739 255 255 255
-0.513868 -0.63358 1.978 255 255 255
0.842196 -0.071417 2.01 255 255 255
0.219218 0.633764 1.81 255 255 255
0.111082 0.435538 2.173 0 0 0
0.287323 0.672774 1.758 255 255 255
-0.451187 0.000659741 2.44 255 255 255
-0.394602 0.611847 1.7 255 255 255
-0.292135 -0.424319 2.374 255 255 255
0.983144 0.264044 2.024 255 255 255
0.821103 0.2543 2.107 255 255 255
0.515104 0.38664 2.303 255 255 255
-0.734297 -0.551668 1.758 255 255 255
0.0570118 0.626139 1.805 255 255 255
0.885772 0.516598 2.114 255 255 255
0.701703 -0.233936 1.947 255 255 255
0.870617 -0.301769 1.935 255 255 255
0.82252 -0.637255 1.734 255 255 255
0.143911 0.53838 1.991 255 255 255
-0.568843 -0.572573 1.935 255 255 255
-0.699519 0.18801 2.303 255 255 255
0.0784207 0.647026 1.758 255 255 255
-0.853758 -0.192896 1.917 0 0 0
0.858498 -0.27886 1.929 255 255 255
0.179818 0.302617 2.236 0 0 0
-0.923949 -0.0454306 1.882 0 0 0
0.609973 0.475752 2.212 255 255 255
0.442817 -0.572559 2.024 255 255 255
0.458743 -0.366566 2.212 255 255 255
-0.192138 0.660087 1.696 255 255 255
-0.483171 -0.480334 2.173 255 255 255
-0.524014 -0.585644 1.876 255 255 255
-0.875907 0.567757 1.668 255 255 255
0.0919633 0.62113 1.799 255 255 255
0.673623 -0.0302893 2.107 255 255 255
-0.10165 0.596766 1.805 255 255 255
-0.455415 0.571015 1.753 255 255 255
-0.0447954 0.504485 2.024 255 255 255
-0.175024 -0.458396 2.411 255 255 255
-0.645777 -0.217171 1.911 255 255 255
-0.663569 0.52452 1.799 255 255 255
0.209447 -0.736096 2.166 255 255 255
-0.576379 0.615332 1.65 255 255 255
-0.204562 0.534824 1.887 255 255 255
0.667011 -0.706724 1.826 255 255 255
-0.532671 -0.578463 1.853 0 0 0
0.64665 0.176825 2.166 0 0 0
0.343437 0.600713 1.911 255 255 255
0.239657 -0.41975 2.286 255 255 255
-0.0410186 0.364815 2.173 255 255 255
-0.484665 0.615039 1.686 255 255 255
-0.650784 0.262964 2.303 255 255 255
0.549872 0.555533 2.03 255 255 255
-0.720259 0.294283 2.228 255 255 255
-0.417102 -0.516806 2.338 255 255 255
-0.0822453 0.193456 2.236 255 255 255
0.94857 0.170096 1.966 255 255 255
0.196224 0.0562493 2.44 255 255 255
0.585522 -0.737558 1.972 255 255 255
-0.224981 0.432596 2.107 255 255 255
-0.629044 0.346871 2.128 255 255 255
0.869876 -0.076744 1.899 255 255 255
-0.275486 0.369707 2.181 255 255 255
-0.700544 0.155761 2.383 255 255 255
-0.763534 0.275762 2.196 255 255 255
0.235668 0.366841 2.32 255 255 255
0.141255 -0.139063 2.32 255 255 255
-0.403432 0.60294 1.714 255 255 255
0.875552 -0.330307 1.865 255 255 255
0.511302 0.432147 2.286 0 0 0
0.128022 0.234983 2.286 0 0 0
-0.569335 0.263156 2.338 255 255 255
0.731788 -0.507693 1.87 255 255 255
-0.754347 -0.599862 1.7 255 255 255
0.626276 0.103517 2.181 0 0 0
0.163914 0.291333 2.32 0 0 0
-0.25253 0.246952 2.365 255 255 255
0.956133 0.459098 1.917 0 0 0
-0.356696 0.496502 1.929 255 255 255
0.674264 -0.429051 1.941 255 255 255
-0.485511 -0.210232 2.356 255 255 255
0.824141 0.056708 2.03 255 255 255
0.455864 0.493929 2.181 255 255 255
0.269462 0.240881 2.42 255 255 255
-0.468374 0.271808 2.347 255 255 255
0.866784 -0.150911 1.899 255 255 255
0.913367 -0.297006 1.966 255 255 255
0.0137905 0.158639 2.489 255 255 255
-0.349691 -0.614763 2.32 255 255 255
-0.129562 0.189817 2.236 0 0 0
0.770613 0.0469589 2.037 255 255 255
0.547132 -0.00301241 2.22 255 255 255
0.4049 -0.391693 2.253 255 255 255
0.811543 0.445502 2.136 255 255 255
-0.706588 -0.110657 2.071 255 255 255
0.379227 -0.234039 2.253 255 255 255
0.0488618 -0.527056 2.42 255 255 255
-0.121218 0.456751 2.092 255 255 255
0.0608273 -0.288534 2.278 255 255 255
-0.667148 0.350334 2.128 255 255 255
0.240088 0.0514644 2.402 255 255 255
0.425715 -0.0291425 2.286 255 255 255
-0.28549 -0.0937578 2.32 255 255 255
0.427462 0.49038 2.181 255 255 255
0.652147 -0.403782 1.941 255 255 255
-0.0143951 0.132718 2.459 255 255 255
0.600533 0.384038 2.244 255 255 255
-0.568369 -0.592595 2.071 255 255 255
-0.393833 0.117661 2.479 0 0 0
-0.322307 0.533444 1.893 255 255 255
-0.600997 -0.679552 1.917 255 255 255
-0.767769 -0.318326 1.831 255 255 255
0.501956 0.185513 2.228 255 255 255
0.687329 -0.652014 1.865 255 255 255
-0.546983 -0.78393 2.017 255 255 255
0.898965 0.0162676 1.935 255 255 255
0.0475864 -0.609873 2.181 255 255 255
0.681551 0.52176 2.121 255 255 255
-0.0705594 0.595388 1.837 255 255 255
0.400449 0.256467 2.312 255 255 255
-0.544806 -0.569981 2.151 255 255 255
0.386728 0.0081781 2.32 255 255 255
-0.257797 -0.107391 2.212 255 255 255
-0.981215 -0.154726 1.947 0 0 0
-0.739398 0.51008 1.842 255 255 255
-0.824527 -0.166419 1.865 0 0 0
0.911449 0.179906 2.004 255 255 255
-0.5226 0.499558 1.893 255 255 255
-0.287749 -0.517638 2.469 255 255 255
0.62258 -0.611365 1.899 255 255 255
-0.574725 -0.0410608 2.329 255 255 255
0.138417 -0.733378 2.158 255 255 255
0.864046 -0.104226 1.893 255 255 255
0.362049 0.25368 2.356 0 0 0
0.155982 -0.729866 2.158 255 255 255
-0.355228 -0.818104 2.236 255 255 255
0.88047 -0.483387 1.882 255 255 255
-0.37175 -0.40435 2.44 255 255 255
-0.556021 0.606808 1.686 255 255 255
0.365125 0.468553 2.212 255 255 255
-0.350737 0.477231 1.966 255 255 255
0.0343498 -0.83929 2.244 255 255 255
-0.67359 -0.47081 1.893 255 255 255
-0.525913 0.493425 1.905 255 255 255
0.226794 -0.220931 2.269 255 255 255
-0.777995 0.0352049 2.128 0 0 0
-0.74398 -0.153724 2.017 255 255 255
0.653281 -0.528489 1.935 255 255 255
0.962018 0.321813 2.078 255 255 255
-0.556245 -0.0490168 2.347 0 0 0
0.0824561 -0.242228 2.261 255 255 255
-0.674439 0.501064 1.853 255 255 255
-0.419949 0.639788 1.637 255 255 255
-0.617781 -0.686755 1.911 255 255 255
-0.469115 -0.169383 2.43 255 255 255
-0.814403 0.589504 1.616 255 255 255
-0.638421 -0.149498 2.196 255 255 255
0.445559 0.543674 2.099 255 255 255
0.139079 -0.175055 2.347 255 255 255
-0.479634 0.354206 2.173 255 255 255
-0.362015 -0.711853 2.189 255 255 255
0.0458321 0.213615 2.469 255 255 255
-0.204795 0.175812 2.392 255 255 255
0.375399 0.238478 2.32 255 255 255
0.35844 0.34578 2.383 255 255 255
-0.720941 -0.382451 1.929 255 255 255
-0.406015 0.568051 1.826 255 255 255
0.611886 -0.232587 2.107 255 255 255
0.948382 -0.280009 1.959 255 255 255
-0.815288 -0.606475 1.587 255 255 255
0.749222 -0.065327 2.024 255 255 255
0.930743 -0.300231 1.848 255 255 255
-0.969407 0.43963 1.887 255 255 255
0.193991 -0.457969 2.151 255 255 255
0.0380517 0.650388 1.744 255 255 255
-0.214323 0.582742 1.789 255 255 255
-0.451187 -0.0112523 2.44 255 255 255
-0.357307 0.635617 1.668 255 255 255
-0.818129 -0.0891854 1.837 0 0 0
-0.547865 0.208597 2.411 255 255 255
0.682428 -0.189692 2.051 255 255 255
-0.201651 -0.261548 2.269 0 0 0
-0.952914 0.398514 1.941 255 255 255
-0.560875 -0.699625 1.887 255 255 255
-0.943721 0.466844 1.837 255 255 255
-0.906495 -0.066265 1.865 255 255 255
-0.847472 0.588944 1.629 255 255 255
0.917973 0.166861 2.004 255 255 255
0.16392 0.57117 1.959 255 255 255
-0.219178 0.576204 1.805 255 255 255
0.448042 0.238703 2.286 255 255 255
-0.324509 -0.821811 2.329 255 255 255
0.244086 0.499349 2.071 255 255 255
-0.017298 -0.383138 2.312 255 255 255
0.245713 -0.776907 2.114 255 255 255
-0.598479 -0.589632 1.929 255 255 255
-0.106567 0.169782 2.212 0 0 0
-0.107203 -0.39289 2.303 0 0 0
0.505804 -0.0512828 2.278 255 255 255
0.350703 -0.644742 2.044 255 255 255
0.729826 -0.643973 1.842 255 255 255
0.650564 -0.0506689 2.099 255 255 255
0.249133 0.506016 2.057 255 255 255
0.351882 0.227709 2.365 255 255 255
1.01939 0.250869 2.024 255 255 255
-0.839999 0.519678 1.734 255 255 255
0.311095 -0.649621 2.114 255 255 255
0.902295 0.0750586 1.991 255 255 255
-0.0871526 0.329238 2.269 0 0 0
-0.559122 0.206953 2.392 255 255 255
-0.815746 0.410512 1.953 255 255 255
-0.215668 -0.618304 2.519 255 255 255
0.398976 -0.400442 2.261 255 255 255
-0.471966 -0.245673 2.365 255 255 255
-0.395863 -0.565286 2.303 255 255 255
-0.976781 0.274738 2.03 255 255 255
0.601547 -0.531028 2.004 255 255 255
-0.548356 -0.781209 2.01 255 255 255
-0.563175 0.603104 1.691 255 255 255
0.435349 -0.103182 2.278 0 0 0
-0.420455 -0.529479 2.294 255 255 255
0.553047 0.289093 2.244 255 255 255
-0.788361 0.160708 2.236 255 255 255
-0.599781 0.259351 2.338 255 255 255
0.239426 0.614134 1.876 255 255 255
-0.821808 0.149256 2.228 255 255 255
0.696508 0.554439 2.114 255 255 255
0.699842 -0.593015 1.842 255 255 255
-0.26221 -0.740039 2.383 255 255 255
-0.517705 -0.618132 2.044 255 255 255
-0.0949638 -0.147356 2.114 255 255 255
-0.588538 -0.59261 2.107 0 0 0
-0.43824 -0.5962 2.196 255 255 255
0.443463 -0.258666 2.244 255 255 255
0.0137905 0.154589 2.489 255 255 255
0.246842 0.226058 2.43 255 255 255
-0.184738 -0.493478 2.489 255 255 255
0.0632713 0.592627 1.905 255 255 255
0.22355 -0.468212 2.166 255 255 255
0.33516 -0.295449 2.303 255 255 255
0.403282 -0.302486 2.244 255 255 255
0.279382 0.662116 1.799 255 255 255
-0.635249 0.0639276 2.43 255 255 255
-0.188014 0.361529 2.196 255 255 255
-0.201634 0.337791 2.228 255 255 255
0.347793 -0.626897 2.107 255 255 255
-0.0442483 -0.132864 2.158 255 255 255
0.439058 0.000615938 2.278 255 255 255
0.79662 -0.366727 1.865 255 255 255
0.155513 -0.860988 2.253 255 255 255
-0.212582 0.18749 2.392 255 255 255
-0.622078 0.607501 1.629 255 255 255
0.203243 0.638695 1.799 255 255 255
0.0761526 -0.532943 2.411 255 255 255
0.585538 -0.00985038 2.136 255 255 255
0.97328 0.276771 1.997 255 255 255
0.593762 -0.122782 2.166 255 255 255
0.84701 0.216984 2.078 255 255 255
0.937081 0.491183 2.01 255 255 255
-0.252597 -0.588315 2.479 255 255 255
-0.781082 0.248037 2.236 255 255 255
-0.87565 -0.154024 1.826 255 255 255
0.867033 -0.540887 1.779 255 255 255
0.62501 -0.127648 2.189 255 255 255
-0.597191 -0.644997 1.935 255 255 255
-0.234052 0.589823 1.784 255 255 255
0.0806692 -0.600544 2.212 255 255 255
0.71844 0.135631 2.128 255 255 255
0.616739 0.618989 1.959 255 255 255
-0.76763 -0.41292 1.789 255 255 255
-0.620109 0.0162848 2.402 255 255 255
-0.674858 0.425424 1.978 255 255 255
-0.405939 0.0248752 2.479 255 255 255
0.194042 -0.237976 2.365 255 255 255
-0.1153 -0.00294864 2.173 0 0 0
0.364819 0.583922 1.959 255 255 255
0.37556 -0.270702 2.253 255 255 255
0.179323 -0.180932 2.374 0 0 0
0.219153 0.178605 2.43 255 255 255
-0.675889 0.462218 1.917 255 255 255
-0.61881 0.213695 2.338 0 0 0
0.498565 -0.440014 2.166 255 255 255
0.847275 0.397503 2.121 255 255 255
0.895813 0.6129 1.991 255 255 255
-1.0299 0.165233 2.024 255 255 255
0.63288 0.380779 2.204 255 255 255
-0.794172 -0.585352 1.607 255 255 255
-0.113007 -0.313241 2.269 255 255 255
-0.729594 0.402892 1.978 255 255 255
0.383069 -0.772697 2.057 255 255 255
-0.29247 -0.263507 2.286 0 0 0
0.883339 -0.334316 1.837 255 255 255
-0.534153 0.201499 2.42 255 255 255
0.409082 -0.514723 2.004 255 255 255
-0.850459 0.115285 2.136 255 255 255
0.28274 -0.320745 2.244 255 255 255
-0.792698 0.0247344 2.121 0 0 0
-0.0912195 -0.136582 2.107 255 255 255
-0.315534 0.480431 1.966 255 255 255
0.834049 -0.541016 1.789 255 255 255
-0.130814 -0.454784 2.392 255 255 255
-0.0828706 -0.267036 2.253 255 255 255
-0.111774 0.521615 1.929 255 255 255
0.177738 -0.0233447 2.459 0 0 0
-0.646673 -0.128989 2.212 255 255 255
0.959362 -0.254489 1.911 255 255 255
-0.667552 -0.23272 1.911 255 255 255
-0.0745797 -0.809768 2.338 255 255 255
-0.24354 -0.501567 2.469 255 255 255
-0.0710708 0.236272 2.228 255 255 255
0.323602 0.685124 1.753 255 255 255
0.480448 -0.378209 2.196 255 255 255
-0.803881 -0.522886 1.616 255 255 255
-0.755384 -0.184446 2.03 255 255 255
-0.0612982 -0.841256 2.269 255 255 255
-0.22082 -0.725975 2.44 255 255 255
-0.453963 0.620553 1.664 255 255 255
0.125714 0.275279 2.312 255 255 255
0.586809 -0.300702 2.128 255 255 255
-1.09997 0.190687 2.204 255 255 255
-0.715643 0.32263 2.128 255 255 255
-0.847505 0.212759 2.173 255 255 255
0.315615 -0.492376 2.244 255 255 255
-0.592295 0.617693 1.642 255 255 255
-0.848835 -0.32873 1.729 255 255 255
-0.115843 0.622364 1.753 255 255 255
-0.934897 0.387263 1.997 255 255 255
0.00844378 0.464138 2.158 255 255 255
0.952866 -0.262346 1.923 255 255 255
-0.752883 -0.537151 1.748 255 255 255
0.691961 -0.540585 1.837 255 255 255
0.0315842 0.610533 1.865 255 255 255
-0.62147 0.282352 2.278 255 255 255
-0.190978 -0.0528415 2.189 0 0 0
-0.227021 0.345043 2.228 255 255 255
-0.595883 -0.574349 1.941 255 255 255
-0.235942 0.563532 1.821 255 255 255
-0.347 -0.0781546 2.55 255 255 255
-0.642358 0.000644329 2.383 0 0 0
-0.22082 -0.745828 2.44 255 255 255
0.0761519 0.587001 1.917 255 255 255
-0.854075 -0.273002 1.769 255 255 255
-0.850888 -0.222749 1.805 255 255 255
0.936405 0.434799 2.037 255 255 255
-0.615188 -0.349183 2.128 255 255 255
0.533823 -0.24615 2.166 255 255 255
-0.672028 0.154242 2.42 255 255 255
-0.23929 -0.13194 2.143 255 255 255
0.473476 -0.538378 2.057 255 255 255
0.166657 0.656597 1.753 255 255 255
0.0751292 0.654724 1.748 255 255 255
0.614385 -0.169805 2.228 255 255 255
-0.829351 0.483102 1.842 255 255 255
0.979511 0.26574 2.037 255 255 255
-0.792546 -0.635901 1.664 255 255 255
-0.176404 -0.873267 2.43 255 255 255
0.240177 -0.248764 2.189 255 255 255
-0.192226 -0.465963 2.43 255 255 255
-0.260538 -0.598913 2.44 255 255 255
-0.486729 0.342565 2.189 255 255 255
0.0945313 -0.735956 2.286 255 255 255
0.955466 0.161616 1.941 255 255 255
-0.8834 0.442701 1.887 255 255 255
0.741105 -0.270445 1.959 255 255 255
0.520172 0.0626861 2.244 0 0 0
-0.842783 -0.259344 1.794 255 255 255
-0.438157 0.443215 2.03 255 255 255
0.369273 0.0840108 2.329 0 0 0
-0.612547 0.381164 2.107 255 255 255
0.722487 -0.574575 1.831 255 255 255
0.845697 -0.343049 1.789 255 255 255
0.707584 -0.628209 1.831 255 255 255
-0.506822 0.0894215 2.479 255 255 255
0.878348 0.442374 2.121 255 255 255
-0.238663 0.555043 1.842 255 255 255
0.0965796 0.61728 1.831 255 255 255
-0.741885 -0.579145 1.729 255 255 255
-0.987106 0.300569 2.004 255 255 255
0.88551 0.604998 1.997 255 255 255
-0.559055 -0.250466 2.236 255 255 255
-1.01924 0.414885 1.929 255 255 255
-0.0345534 0.00779739 2.212 255 255 255
-0.770162 0.255314 2.236 255 255 255
-0.256268 -0.313944 2.329 255 255 255
0.470944 -0.20652 2.121 255 255 255
0.421347 0.687823 1.805 255 255 255
-0.293532 0.617679 1.724 255 255 255
-0.584924 0.60519 1.659 255 255 255
-0.718198 -0.135359 2.037 255 255 255
0.173735 0.0166713 2.459 0 0 0
0.973894 0.197582 1.985 255 255 255
0.813706 -0.424193 1.905 255 255 255
-0.146665 0.539605 1.893 255 255 255
0.787988 0.621247 1.997 255 255 255
-0.419288 -0.234353 2.329 255 255 255
0.427158 0.5855 1.997 255 255 255
-0.039879 -0.3869 2.312 255 255 255
0.0914927 0.081904 2.626 255 255 255
-0.736928 0.354431 2.071 255 255 255
0.584576 -0.0365122 2.071 255 255 255
-0.145381 -0.632182 2.509 255 255 255
0.192168 0.634951 1.805 255 255 255
0.866645 0.629101 1.991 255 255 255
-0.302982 -0.624139 2.43 255 255 255
-0.00980488 -0.795983 2.32 255 255 255
0.1966 -0.638842 2.22 255 255 255
0.865125 0.36179 2.114 255 255 255
0.777766 -0.424602 1.893 255 255 255
0.821974 0.556733 2.136 255 255 255
0.348053 0.504637 2.151 255 255 255
-0.612548 -0.250511 2.143 255 255 255
0.899988 0.36947 2.099 0 0 0
0.156505 0.151546 2.44 255 255 255
0.596504 0.214325 2.189 0 0 0
-0.96575 0.232063 2.092 255 255 255
0.23511 -0.566563 2.278 255 255 255
0.518317 0.007882 2.236 255 255 255
0.559984 0.283406 2.228 255 255 255
-0.863769 -0.434539 1.65 0 0 0
0.667711 -0.109952 1.997 255 255 255
0.65399 0.689172 1.848 255 255 255
0.210373 0.0557882 2.42 255 255 255
-0.0133824 -0.620634 2.286 255 255 255
-0.345216 0.152105 2.449 0 0 0
-0.263759 0.536525 1.893 255 255 255
0.790964 -0.121412 1.972 255 255 255
0.733633 0.421394 2.173 255 255 255
-0.770431 0.490586 1.859 255 255 255
-0.72991 -0.320467 1.953 255 255 255
-0.0162581 -0.144396 2.173 0 0 0
-0.770877 -0.57362 1.664 0 0 0
-0.299559 -0.748089 2.312 255 255 255
0.626514 0.644251 1.911 255 255 255
0.431892 0.540258 2.099 255 255 255
0.680034 -0.0699769 2.064 255 255 255
0.624388 -0.666888 1.953 255 255 255
0.879747 -0.40417 1.842 255 255 255
0.58973 0.707711 1.826 255 255 255
0.69018 0.40165 2.181 255 255 255
0.516827 -0.528008 2.03 255 255 255
0.551541 0.557185 2.024 255 255 255
-0.0217903 0.097961 2.392 255 255 255
-1.00037 0.211498 1.935 255 255 255
-0.668483 0.317817 2.166 255 255 255
0.964382 0.398815 2.128 255 255 255
-0.890512 0.472963 1.826 255 255 255
-0.397868 0.0490801 2.479 255 255 255
0.72447 -0.51217 1.821 255 255 255
0.933613 0.51694 1.935 0 0 0
-0.0158166 0.382431 2.114 255 255 255
0.908265 0.14353 1.997 0 0 0
-0.173277 -0.710996 2.499 255 255 255
-0.811672 -0.391903 1.71 255 255 255
0.81707 0.000523196 1.935 255 255 255
0.90097 -0.275973 1.953 255 255 255
0.274802 -0.198166 2.181 255 255 255
0.942251 0.492626 2.057 255 255 255
-0.821441 -0.0600411 1.959 255 255 255
0.0472359 0.642438 1.769 255 255 255
-0.82286 -0.310661 1.821 0 0 0
0.789716 0.627205 1.985 255 255 255
0.187761 0.221686 2.383 255 255 255
0.703469 -0.106703 1.997 255 255 255
-0.295616 0.588132 1.753 255 255 255
-0.522107 -0.228153 2.383 255 255 255
-0.552131 0.335441 2.166 255 255 255
0.331286 0.295367 2.383 255 255 255
-0.768683 0.143598 2.253 255 255 255
0.489698 -0.459459 2.158 255 255 255
-0.802192 0.115368 2.204 255 255 255
-0.415835 -0.805848 2.136 255 255 255
-0.0889981 0.000577543 2.136 0 0 0
-0.261925 -0.0746225 2.312 255 255 255
0.209948 0.565333 1.972 255 255 255
0.824452 -0.633333 1.686 255 255 255
0.204633 -0.538478 2.269 255 255 255
0.904149 0.661588 1.953 255 255 255
-0.275293 -0.616231 2.43 255 255 255
-0.578517 0.269723 2.329 255 255 255
0.933257 0.723526 1.859 255 255 255
-0.78331 -0.33143 1.805 255 255 255
0.892011 0.153279 1.997 255 255 255
0.411078 -0.492973 2.151 255 255 255
0.521836 0.137882 2.22 255 255 255
0.400449 0.215081 2.312 255 255 255
0.683328 -0.26295 2.024 255 255 255
0.0831781 0.624058 1.799 255 255 255
0.141344 -0.588091 2.261 255 255 255
-0.784982 0.222158 2.196 255 255 255
-0.592928 -0.523457 2.051 0 0 0
-0.713615 0.392499 2.024 255 255 255
0.26466 -0.823608 2.128 255 255 255
-0.323012 -0.655045 2.143 255 255 255
0.0904924 -0.562856 2.278 255 255 255
-0.750734 -0.51594 1.763 255 255 255
0.468723 -0.0883534 2.278 255 255 255
0.361807 -0.439679 2.236 255 255 255
-0.395586 0.241986 2.392 255 255 255
0.158366 -0.0314754 2.469 255 255 255
0.381061 -0.215146 2.286 255 255 255
-0.656465 0.0123245 2.392 0 0 0
-0.613479 -0.667074 1.917 255 255 255
0.764673 -0.36889 1.876 255 255 255
0.850446 -0.385136 1.837 255 255 255
-0.491087 -0.724572 2.044 255 255 255
-0.330779 0.263345 2.374 255 255 255
0.602755 0.145571 2.173 255 255 255
-0.975031 0.389038 1.941 255 255 255
-0.534881 -0.657957 1.882 0 0 0
0.460134 0.591672 1.985 255 255 255
0.523701 0.542837 2.057 255 255 255
0.979953 0.205995 2.004 255 255 255
0.648115 -0.649276 1.929 255 255 255
-0.0517148 0.501096 2.037 255 255 255
-0.743431 0.408088 1.972 255 255 255
-0.666517 -0.578415 1.815 255 255 255
0.514608 0.195684 2.22 255 255 255
0.69495 -0.484616 1.911 255 255 255
-0.168235 0.530364 1.893 255 255 255
-0.969623 0.252469 2.064 255 255 255
-0.394426 0.516593 1.899 255 255 255
-0.352457 0.501216 1.923 255 255 255
-0.0256085 0.479128 2.071 255 255 255
-0.0922612 -0.773302 2.402 255 255 255
-0.666902 0.541682 1.769 255 255 255
-0.0024062 0.141865 2.479 255 255 255
0.310359 -0.278387 2.286 255 255 255
0.753096 -0.382926 1.87 255 255 255
-0.798623 0.562051 1.7 255 255 255
-0.658131 0.220453 2.329 0 0 0
0.284752 0.651836 1.853 255 255 255
-0.156385 -0.102294 2.107 255 255 255
-0.642456 0.573927 1.719 255 255 255
-0.79021 -0.276417 1.87 255 255 255
0.45185 0.483032 2.196 255 255 255
0.495376 -0.709248 2.01 255 255 255
0.181241 -0.464687 2.166 255 255 255
-0.30526 -0.321418 2.356 0 0 0
-0.551018 0.362988 2.121 255 255 255
0.950148 0.146218 1.905 255 255 255
-0.122899 0.442374 2.121 255 255 255
-0.780644 0.394627 1.985 255 255 255
0.472134 -0.512136 2.158 255 255 255
-0.0439407 -0.0168574 2.143 255 255 255
0.74153 0.605085 2.03 255 255 255
-0.422528 -0.511157 2.347 255 255 255
0.515585 -0.523708 2.092 255 255 255
-0.710281 0.573186 1.668 255 255 255
-0.157659 0.598064 1.774 255 255 255
-0.454363 0.170104 2.479 255 255 255
-0.263426 0.0322923 2.43 255 255 255
0.860373 -0.412251 1.865 255 255 255
-0.571944 0.418849 2.024 255 255 255
0.133702 -0.105084 2.32 255 255 255
0.243998 0.0397379 2.402 255 255 255
-0.528774 0.556324 1.779 255 255 255
0.974856 0.505892 1.917 255 255 255
-0.467952 -0.366028 2.253 255 255 255
0.539567 -0.521245 2.004 255 255 255
-0.542031 -0.0781084 2.42 255 255 255
0.866082 -0.54975 1.789 255 255 255
-0.818925 -0.113886 1.953 255 255 255
-0.0774444 0.642929 1.724 255 255 255
-0.8522 -0.42057 1.691 255 255 255
-0.877504 0.534764 1.719 255 255 255
0.885743 -0.179354 1.842 255 255 255
0.853898 0.534552 2.173 255 255 255
-0.987441 0.313871 1.985 255 255 255
-0.764351 -0.528257 1.71 255 255 255
-0.748135 -0.652539 1.686 255 255 255
0.844664 0.574914 2.064 255 255 255
0.202359 -0.508706 2.204 255 255 255
0.236582 0.356894 2.329 255 255 255
-0.921863 0.1636 2.004 255 255 255
0.492725 0.447395 2.269 255 255 255
0.338274 0.599479 1.917 255 255 255
-0.196793 -0.557324 2.54 255 255 255
0.769848 0.6963 1.859 255 255 255
0.636043 -0.118191 2.085 255 255 255
-0.0349283 0.32445 2.236 255 255 255
0.89026 -0.0276442 1.923 255 255 255
-0.437624 0.574945 1.739 255 255 255
-0.58614 -0.445531 1.972 255 255 255
-0.355655 0.6348 1.673 255 255 255
0.914048 0.532819 1.947 255 255 255
0.938902 0.489279 2.057 255 255 255
-0.763339 -0.471407 1.779 255 255 255
0.859551 0.471374 2.143 255 255 255
0.323697 0.399372 2.356 255 255 255
0.757076 -0.692935 1.821 255 255 255
-0.766969 -0.446987 1.774 255 255 255
-0.387118 0.465852 1.972 255 255 255
-0.378137 -0.129838 2.43 255 255 255
0.0945638 0.110412 2.593 255 255 255
0.371192 -0.215899 2.294 255 255 255
0.886269 0.340019 2.107 255 255 255
-0.610113 0.539845 1.763 255 255 255
0.0198178 -0.347696 2.253 255 255 255
0.0776259 -0.782546 2.228 255 255 255
0.183079 0.509284 2.03 255 255 255
0.760871 -0.571286 1.748 255 255 255
0.823508 0.686559 1.899 255 255 255
0.606047 -0.376048 2.03 255 255 255
0.326737 -0.571184 2.196 255 255 255
0.154609 -0.690002 2.294 255 255 255
-0.69889 -0.462046 1.87 255 255 255
0.668946 0.60318 1.991 255 255 255
-0.0729091 0.599092 1.821 255 255 255
0.12343 0.380779 2.204 255 255 255
0.917077 -0.173772 1.815 255 255 255
0.138546 -0.372228 2.338 255 255 255
-0.649698 0.619524 1.612 255 255 255
-0.601482 0.502618 1.87 255 255 255
-0.0325431 0.665373 1.724 255 255 255
0.477174 0.575354 2.03 255 255 255
-0.6162 0.0162848 2.402 255 255 255
0.347376 -0.648068 2.044 255 255 255
-0.123006 0.606725 1.774 255 255 255
0.796988 0.0098771 1.917 255 255 255
-0.338235 -0.236755 2.244 0 0 0
-0.987897 0.437948 1.893 255 255 255
-0.227836 0.335366 2.236 255 255 255
0.976555 0.40238 2.024 255 255 255
0.829941 -0.644308 1.686 255 255 255
0.475504 -0.549717 2.037 255 255 255
-0.885378 0.180649 2.128 255 255 255
-0.242646 -0.747591 2.42 255 255 255
-0.00944988 -0.214079 2.236 255 255 255
-0.841447 -0.44402 1.686 255 255 255
-0.35032 -0.124434 2.402 255 255 255
0.124896 0.600031 1.899 255 255 255
-0.47438 0.544279 1.826 255 255 255
0.309175 0.0746056 2.392 255 255 255
0.0154694 -0.0556049 2.158 255 255 255
0.50361 -0.541221 2.03 255 255 255
0.761876 0.290031 2.143 255 255 255
-0.260917 0.579831 1.789 255 255 255
-0.693781 0.0922988 2.347 255 255 255
-0.776769 -0.559011 1.719 255 255 255
-0.663119 0.0319202 2.402 0 0 0
-0.19933 -0.72255 2.469 255 255 255
0.525449 0.137882 2.22 255 255 255
-0.625956 -0.0955763 2.365 255 255 255
-0.525832 0.615039 1.686 255 255 255
0.941256 0.232063 2.092 255 255 255
-0.00210918 -0.292916 2.173 255 255 255
0.294828 0.266451 2.402 255 255 255
0.64587 0.69293 1.842 255 255 255
0.31577 0.016156 2.383 255 255 255
0.694266 -0.535194 1.789 255 255 255
-0.637716 -0.412634 1.953 0 0 0
-0.758963 -0.423658 1.81 255 255 255
-0.0211344 0.227151 2.32 255 255 255
-0.500913 0.351761 2.158 255 255 255
0.595624 -0.406639 2.051 255 255 255
0.0581723 -0.0371267 2.32 255 255 255
-0.627381 0.60485 1.629 255 255 255
0.766175 -0.132302 1.991 255 255 255
0.0989832 -0.291701 2.303 255 255 255
0.8224 -0.567218 1.789 255 255 255
0.372018 -0.583613 2.189 255 255 255
0.796302 0.56476 2.114 255 255 255
-0.600072 -0.402432 1.997 255 255 255
-0.834037 -0.112423 1.826 255 255 255
-0.313127 -0.0316029 2.479 255 255 255
-0.289536 0.440168 2.078 255 255 255
0.516519 0.0590344 2.244 255 255 255
-0.703375 -0.431322 1.882 255 255 255
0.444321 0.0824597 2.286 255 255 255
0.209447 -0.739621 2.166 255 255 255
-0.583513 0.529207 1.805 255 255 255
-0.162797 -0.368956 2.294 255 255 255
0.750858 -0.462069 1.799 255 255 255
0.74037 -0.652046 1.831 255 255 255
0.283579 0.521173 2.064 255 255 255
0.482353 -0.687839 2.024 255 255 255
-0.651747 0.575047 1.714 255 255 255
-0.163159 -0.822997 2.469 255 255 255
-0.156547 0.173695 2.312 255 255 255
-0.830842 0.00366069 1.929 0 0 0
0.375399 -0.139063 2.32 0 0 0
-0.461508 0.553796 1.799 255 255 255
-0.0756174 0.427628 2.151 255 255 255
0.631053 0.49919 2.173 255 255 255
-0.0295777 0.144672 2.392 255 255 255
0.487251 -0.619814 2.017 255 255 255
0.226323 -0.710033 2.228 255 255 255
0.121573 0.0337541 2.54 255 255 255
-0.381744 0.632903 1.668 255 255 255
-0.374703 -0.522875 2.383 255 255 255
0.191215 0.648196 1.769 255 255 255
-0.0197953 -0.126715 2.173 0 0 0
-0.452082 -0.648071 2.143 255 255 255
-0.471124 0.229066 2.42 255 255 255
0.689928 0.116472 2.158 255 255 255
0.53122 -0.639052 1.985 255 255 255
-0.514456 0.213314 2.42 255 255 255
-0.578126 0.614504 1.655 255 255 255
-0.408321 0.177454 2.469 255 255 255
0.857988 -0.200354 1.815 255 255 255
-0.391993 0.625401 1.677 255 255 255
0.401258 0.68947 1.794 255 255 255
0.616159 -0.0977462 2.158 255 255 255
-0.703246 -0.0552184 2.143 0 0 0
0.829514 -0.181857 1.837 255 255 255
-0.856007 -0.21954 1.779 255 255 255
0.496417 -0.0626231 2.286 255 255 255
-0.241877 0.574289 1.799 255 255 255
-0.0713449 -0.155258 2.128 255 255 255
0.725754 -0.311694 1.978 255 255 255
-0.65323 -0.49552 1.87 255 255 255
0.936234 0.0638946 1.947 255 255 255
-0.844343 -0.242303 1.842 0 0 0
-0.185656 -0.151795 2.128 0 0 0
-0.797286 -0.610044 1.624 255 255 255
-0.637764 -0.196586 2.244 255 255 255
0.0375962 0.340191 2.22 0 0 0
0.336377 0.483482 2.166 255 255 255
-0.499009 0.340087 2.196 255 255 255
0.966671 0.300275 2.024 255 255 255
0.833152 0.156887 2.044 255 255 255
-0.261927 0.485106 1.972 255 255 255
-0.589721 -0.539123 2.099 0 0 0
0.17632 0.55458 1.991 255 255 255
-0.744505 0.113055 2.303 255 255 255
0.800525 0.14115 2.107 255 255 255
0.736781 0.61434 2.017 255 255 255
-0.263082 -0.110188 2.196 255 255 255
-0.622433 0.0908922 2.411 255 255 255
0.749616 0.173723 2.128 0 0 0
0.931542 0.00981527 1.905 255 255 255
-0.554915 0.578935 1.734 255 255 255
0.376919 0.521974 2.136 255 255 255
-0.526274 0.150303 2.42 255 255 255
0.749087 -0.565349 1.774 255 255 255
0.354378 0.0428109 2.356 0 0 0
0.832781 0.686559 1.899 255 255 255
-0.496712 0.0695302 2.489 255 255 255
-0.0676862 0.233482 2.236 255 255 255
-0.620571 0.551055 1.744 255 255 255
0.179175 0.40668 2.228 255 255 255
0.304133 0.0200339 2.383 255 255 255
-0.440169 0.605323 1.705 255 255 255
0.884611 0.236474 2.071 255 255 255
-0.184315 -0.944447 2.43 255 255 255
0.891457 -0.346117 1.805 255 255 255
-0.557328 0.578402 1.724 255 255 255
-0.85643 -0.215405 1.923 0 0 0
0.780401 0.106456 2.099 0 0 0
0.610659 -0.205941 2.151 255 255 255
-0.312387 -0.611412 2.411 255 255 255
-0.886147 0.479273 1.805 255 255 255
0.793049 -0.549362 1.769 255 255 255
-0.0904478 -0.607579 2.459 255 255 255
-0.679827 0.0862833 2.392 255 255 255
0.0933958 0.421394 2.173 0 0 0
0.244935 0.642338 1.826 255 255 255
-0.164074 -0.383138 2.312 255 255 255
0.1119 -0.74035 2.189 255 255 255
0.429434 0.371111 2.347 255 255 255
-0.466578 -0.326572 2.338 255 255 255
-0.156897 0.518225 1.905 255 255 255
0.863923 0.561906 2.078 255 255 255
0.796191 -0.532283 1.789 255 255 255
-0.566767 -0.0294739 2.312 255 255 255
0.0321883 0.655124 1.734 255 255 255
-0.554915 -0.496487 2.136 255 255 255
-0.810842 -0.0668577 1.972 255 255 255
0.716277 -0.219898 1.935 255 255 255
0.0742649 -0.778079 2.236 255 255 255
0.518279 0.589311 2.01 255 255 255
-0.437318 -0.399618 2.365 255 255 255
-0.468116 -0.218733 2.365 255 255 255
-0.208735 0.632672 1.719 255 255 255
-0.3598 0.574969 1.774 255 255 255
0.0818362 -0.740694 2.244 255 255 255
-0.510408 0.496525 1.905 255 255 255
-0.0269686 -0.183969 2.181 0 0 0
0.685354 0.595175 2.03 255 255 255
0.778726 0.333118 2.151 255 255 255
-0.68244 0.016095 2.374 255 255 255
-0.0997051 -0.880096 2.303 255 255 255
-0.775432 -0.349185 1.821 255 255 255
-0.65005 -0.101279 2.236 255 255 255
-0.0695224 0.60431 1.81 255 255 255
-0.619835 0.567648 1.734 255 255 255
0.954 0.0552815 1.87 255 255 255
0.674398 -0.124183 2.017 255 255 255
-0.170563 -0.601907 2.519 255 255 255
-0.0837594 -0.0470956 2.092 255 255 255
-0.892109 0.442426 1.899 255 255 255
0.698643 -0.61629 1.831 255 255 255
-0.0540023 -0.487734 2.44 0 0 0
-0.0997051 -0.805141 2.303 255 255 255
0.102273 0.342565 2.212 255 255 255
-0.690025 -0.63454 1.719 0 0 0
0.403368 -0.418865 2.166 255 255 255
0.416002 -0.0217783 2.294 255 255 255
0.521709 0.693274 1.859 255 255 255
-0.469372 0.236061 2.411 255 255 255
-0.89417 0.377145 2.03 255 255 255
-0.278578 -0.539551 2.459 255 255 255
-0.817239 -0.375206 1.71 255 255 255
-0.645168 -0.679396 1.882 0 0 0
0.0575576 0.0221777 2.638 255 255 255
0.456901 0.169932 2.312 0 0 0
-0.60616 0.423699 1.985 255 255 255
0.611666 -0.640997 1.923 255 255 255
-0.735418 0.490445 1.87 255 255 255
0.306965 -0.175999 2.261 255 255 255
-0.81246 -0.400677 1.7 255 255 255
0.4396 0.144093 2.32 0 0 0
-0.639737 0.604144 1.62 255 255 255
0.278927 -0.422872 2.303 255 255 255
-0.163361 0.0619808 2.356 0 0 0
-0.859933 0.224606 2.151 255 255 255
-0.438244 -0.359425 2.329 255 255 255
-0.652444 -0.608002 1.842 255 255 255
-0.596593 0.53744 1.774 255 255 255
0.525597 -0.0903631 2.236 255 255 255
-0.900745 0.545878 1.71 255 255 255
0.245108 0.312617 2.338 255 255 255
0.904104 -0.0518572 1.893 255 255 255
-0.25947 0.0481099 2.43 255 255 255
0.370341 -0.202544 2.312 255 255 255
-0.725712 0.532592 1.758 255 255 255
0.773864 0.173723 2.128 0 0 0
0.134251 -0.0354933 2.469 255 255 255
-0.424384 -0.588866 2.236 0 0 0
0.19164 0.268221 2.383 0 0 0
-0.792959 -0.35172 1.774 0 0 0
0.261366 -0.729866 2.158 255 255 255
0.012084 0.30937 2.181 255 255 255
-0.851748 0.598538 1.612 255 255 255
0.996186 0.329852 2.044 255 255 255
-0.76005 -0.623619 1.682 255 255 255
0.616285 -0.13163 2.196 255 255 255
-0.595379 0.533164 1.779 255 255 255
-1.00668 0.421163 1.929 255 255 255
-0.346349 0.376343 2.158 255 255 255
0.0924637 -0.74533 2.236 255 255 255
-0.0984533 -0.551556 2.459 255 255 255
0.479344 0.672098 1.859 255 255 255
-0.55862 0.284335 2.294 255 255 255
0.565556 -0.0170383 2.166 255 255 255
0.315179 -0.750417 2.051 255 255 255
-0.0168346 0.60196 1.848 255 255 255
-0.599864 0.306568 2.212 255 255 255
0.789419 0.120978 2.114 0 0 0
-0.170497 0.469643 2.03 255 255 255
-0.776299 0.0617922 2.212 255 255 255
0.0907262 0.06003 2.604 255 255 255
-0.400383 -0.561113 2.286 255 255 255
0.283098 0.0592821 2.402 255 255 255
0.385059 0.138661 2.356 255 255 255
-0.698119 -0.349071 1.953 255 255 255
-0.473222 0.553796 1.799 255 255 255
0.897279 -0.403517 1.799 255 255 255
-0.731998 0.557143 1.719 255 255 255
0.858498 -0.0716781 1.929 255 255 255
0.429501 -0.794807 2.071 255 255 255
0.738321 0.353065 2.166 255 255 255
0.0305876 -0.658001 2.236 255 255 255
0.849359 0.190801 2.051 255 255 255
-0.195311 -0.730586 2.469 255 255 255
0.711835 -0.578027 1.842 255 255 255
0.885616 0.68439 1.893 255 255 255
0.509357 0.329132 2.294 255 255 255
0.498329 -0.340212 2.228 255 255 255
0.625606 -0.0645771 2.107 255 255 255
0.888519 -0.46361 1.805 255 255 255
-0.694034 0.1629 2.374 255 255 255
-0.430151 0.121695 2.479 0 0 0
-0.907082 0.206982 2.114 255 255 255
-0.105797 0.37225 2.196 255 255 255
0.285955 -0.589395 2.158 255 255 255
-0.0300991 -0.0169203 2.151 255 255 255
-0.585223 0.211506 2.356 255 255 255
0.0556619 -0.428182 2.374 0 0 0
-0.862271 -0.35918 1.7 255 255 255
-0.361293 -0.0668135 2.593 255 255 255
0.0513243 -0.0849015 2.189 255 255 255
0.626175 0.691049 1.837 255 255 255
-0.25638 -0.368829 2.365 255 255 255
-0.791999 -0.475262 1.624 255 255 255
-0.68268 -0.0569963 2.212 255 255 255
-0.350416 0.499641 1.929 255 255 255
-0.612455 -0.570888 1.848 255 255 255
0.767829 -0.670146 1.784 255 255 255
-0.599681 0.619622 1.633 255 255 255
0.498803 -0.573521 2.051 255 255 255
-0.137676 -0.155841 2.136 255 255 255
-0.387422 -0.647339 2.212 255 255 255
-0.814003 -0.140844 1.848 0 0 0
0.730952 -0.303405 1.966 255 255 255
-0.115547 -0.826186 2.32 255 255 255
0.885772 0.35835 2.114 255 255 255
-0.651351 0.294283 2.228 255 255 255
-0.370374 0.594148 1.729 255 255 255
0.535496 0.418727 2.294 255 255 255
0.603402 -0.443667 1.978 255 255 255
0.754055 0.131733 2.121 0 0 0
0.935041 -0.279506 1.978 255 255 255
0.455123 0.180514 2.303 0 0 0
0.134221 -0.317734 2.329 255 255 255
0.780964 -0.0972932 2.004 255 255 255
0.78701 0.678229 1.893 255 255 255
-0.325763 -0.299939 2.338 0 0 0
0.83507 0.202098 2.099 255 255 255
0.612179 0.455797 2.22 255 255 255
-0.369141 -0.736788 2.189 255 255 255
-0.153377 -0.22978 2.212 255 255 255
-0.778769 -0.432376 1.705 0 0 0
0.492611 0.364153 2.303 255 255 255
0.77314 -0.556105 1.763 255 255 255
-0.41544 0.00463042 2.44 255 255 255
-0.0635882 0.145107 2.22 255 255 255
0.4049 -0.160711 2.253 255 255 255
-0.796151 0.00402505 2.121 0 0 0
-0.823283 -0.0574973 1.876 0 0 0
-0.797903 0.252574 2.212 255 255 255
0.780701 0.0161667 1.923 255 255 255
0.375161 -0.556332 2.166 255 255 255
-0.673519 -0.567985 1.81 255 255 255
0.402691 0.172505 2.347 0 0 0
-0.607446 0.179029 2.383 255 255 255
-0.71841 0.51008 1.842 255 255 255
-0.99418 0.168447 1.911 255 255 255
0.444716 0.378749 2.347 255 255 255
0.485338 0.0818465 2.269 255 255 255
-0.983517 0.121568 2.01 0 0 0
-0.219668 -0.332926 2.303 255 255 255
0.31577 0.0316677 2.383 255 255 255
0.835402 -0.0405376 1.941 255 255 255
0.600715 -0.34088 2.057 255 255 255
-0.115003 0.284424 2.236 255 255 255
0.292495 -0.158351 2.383 255 255 255
-0.461363 -0.469253 2.204 255 255 255
-0.911264 0.259298 2.092 255 255 255
-0.105636 -0.0201359 2.121 0 0 0
-0.508328 -0.370403 2.303 255 255 255
-0.646165 -0.628384 1.876 0 0 0
-0.826117 -0.487376 1.603 255 255 255
-0.056607 0.572609 1.87 255 255 255
0.510684 -0.216159 2.114 255 255 255
0.516463 -0.332961 2.228 255 255 255
-0.631851 -0.123111 2.236 255 255 255
-0.804352 0.34432 2.071 255 255 255
-0.853111 -0.248491 1.779 255 255 255
0.0623675 0.0613209 2.66 255 255 255
0.586809 0.526945 2.128 255 255 255
0.210856 -0.223845 2.338 255 255 255
-0.216848 -0.729946 2.44 255 255 255
-0.84279 -0.534725 1.62 255 255 255
0.848737 0.249918 2.099 255 255 255
-0.386875 -0.67452 2.004 255 255 255
-0.534153 -0.13718 2.42 255 255 255
0.927029 0.66384 1.941 255 255 255
0.905536 0.120419 1.991 255 255 255
0.446092 -0.499973 2.151 255 255 255
-0.40179 -0.112749 2.582 255 255 255
0.554836 0.557185 2.024 255 255 255
-0.788771 0.598538 1.612 255 255 255
0.0170178 -0.54408 2.374 255 255 255
-0.186372 0.0389769 2.356 0 0 0
-0.778782 0.584494 1.624 255 255 255
-0.46178 0.241986 2.392 255 255 255
-0.663407 0.462218 1.917 255 255 255
0.497159 -0.609296 2.004 255 255 255
-0.154176 -0.859611 2.392 255 255 255
-0.683578 -0.115305 2.158 255 255 255
-0.261925 -0.285316 2.312 0 0 0
0.234648 -0.458493 2.204 255 255 255
-0.108728 -0.0269498 2.114 255 255 255
-0.335824 -0.749915 2.228 255 255 255
-0.855509 -0.225964 1.784 255 255 255
0.200935 -0.604888 2.228 255 255 255
0.488942 0.580241 2.024 255 255 255
0.648345 0.662827 1.893 255 255 255
-0.477849 -0.567283 2.181 255 255 255
-0.564898 0.47321 1.911 255 255 255
0.847275 0.414761 2.121 255 255 255
0.0993864 -0.61939 2.228 255 255 255
0.667648 0.557337 2.099 255 255 255
-0.508328 0.289199 2.303 255 255 255
-0.531034 0.0813532 2.479 255 255 255
-0.193579 0.313359 2.261 255 255 255
0.731269 0.434135 2.166 255 255 255
-0.786652 0.57634 1.646 255 255 255
0.0093985 0.000649466 2.402 255 255 255
-0.569792 -0.685791 1.917 255 255 255
-0.690171 0.420469 1.985 255 255 255
0.894351 -0.406445 1.799 255 255 255
0.42606 0.528663 2.121 255 255 255
0.867306 0.558524 2.078 255 255 255
0.446092 0.508137 2.151 255 255 255
0.605406 -0.640997 1.923 255 255 255
0.949669 0.421539 2.037 255 255 255
0.483492 0.663796 1.887 255 255 255
-0.240841 0.141368 2.402 255 255 255
0.788581 0.218022 2.121 255 255 255
-0.0989691 -0.847559 2.286 255 255 255
0.719529 0.083411 2.121 255 255 255
0.608769 -0.487231 1.985 255 255 255
-0.551834 0.624937 1.633 255 255 255
0.850917 -0.0459858 1.905 255 255 255
0.443463 -0.262318 2.244 255 255 255
-0.760207 -0.38888 1.799 255 255 255
0.411739 0.196269 2.312 0 0 0
0.95525 0.564503 1.947 255 255 255
0.851897 -0.633333 1.686 255 255 255
0.169643 -0.14832 2.347 255 255 255
0.699475 -0.060713 2.092 255 255 255
-0.773802 0.124321 2.236 255 255 255
0.546091 -0.498417 2.004 255 255 255
-0.801804 0.614042 1.591 255 255 255
-0.48619 0.442119 2.01 255 255 255
0.0120009 0.289619 2.166 255 255 255
-0.13164 -0.177938 2.151 0 0 0
-1.00355 0.332231 1.923 255 255 255
0.0954158 0.296839 2.22 255 255 255
-0.60349 0.444515 1.935 255 255 255
0.770613 -0.0524871 2.037 255 255 255
0.114424 -0.360564 2.312 255 255 255
-0.586205 0.584836 1.71 255 255 255
-0.212582 0.164135 2.392 255 255 255
-0.0073283 0.64948 1.734 255 255 255
0.676772 0.589301 2.044 255 255 255
0.753052 -0.553237 1.763 255 255 255
0.983587 0.365555 1.985 255 255 255
-0.509404 -0.608124 2.078 255 255 255
0.31781 0.494166 2.136 255 255 255
0.228862 -0.296367 2.253 255 255 255
-0.0819511 0.221769 2.228 255 255 255
-0.280331 0.480431 1.966 255 255 255
-0.100085 0.214518 2.228 255 255 255
0.530757 0.166182 2.212 255 255 255
0.364139 0.453813 2.228 255 255 255
-0.458935 -0.70815 2.064 255 255 255
-0.345871 0.438686 2.071 255 255 255
-0.486966 0.37024 2.143 255 255 255
0.919365 0.639143 1.972 255 255 255
0.249826 -0.166106 2.383 0 0 0
0.725986 -0.618058 1.81 255 255 255
-0.242779 -0.149377 2.143 255 255 255
-0.492714 0.608518 1.714 255 255 255
0.0914855 0.240478 2.303 255 255 255
-0.500907 -0.628758 2.057 255 255 255
0.939119 0.0609134 1.953 255 255 255
0.483627 0.114672 2.261 255 255 255
-0.680626 -0.480305 1.87 255 255 255
-0.368615 -0.0801468 2.615 255 255 255
0.479947 -0.0141062 2.261 255 255 255
0.789251 -0.0246884 2.22 255 255 255
0.752412 -0.287799 1.947 255 255 255
-0.530049 -0.636839 1.865 0 0 0
0.64639 0.342565 2.189 255 255 255
0.849124 -0.33622 1.815 255 255 255
-0.4625 -0.267742 2.356 255 255 255
-0.562354 0.280602 2.294 255 255 255
-0.333463 0.424122 2.099 255 255 255
0.121817 -0.526753 2.383 255 255 255
0.0067652 0.653235 1.729 255 255 255
-0.557804 -0.724191 1.887 255 255 255
0.592941 0.0362141 2.189 255 255 255
-0.832198 -0.466048 1.575 0 0 0
0.00399414 0.643346 1.748 255 255 255
-1.02267 0.247523 1.997 255 255 255
-0.761993 -0.164625 2.03 0 0 0
0.435568 0.657867 1.853 255 255 255
0.904362 0.177174 2.01 255 255 255
-0.189698 0.628901 1.724 255 255 255
-0.609104 -0.514336 1.953 255 255 255
0.71509 -0.0603067 2.078 255 255 255
0.274147 -0.641417 2.121 255 255 255
-0.780919 0.302987 2.136 255 255 255
-0.697803 0.283924 2.261 255 255 255
-0.11928 0.590891 1.805 255 255 255
0.0633456 -0.592505 2.236 255 255 255
-0.0742926 -0.397325 2.329 255 255 255
-0.876532 0.461863 1.853 255 255 255
-0.384957 0.493363 1.929 255 255 255
0.934103 -0.199141 1.831 255 255 255
0.650993 0.63104 1.947 255 255 255
0.492725 0.0892313 2.269 255 255 255
-0.495786 0.35412 2.151 255 255 255
-0.54191 -0.210428 2.402 255 255 255
-0.669656 -0.207981 2.136 255 255 255
-0.438983 -0.470678 2.374 255 255 255
-0.306426 0.277741 2.365 255 255 255
0.903405 0.338728 2.099 255 255 255
-0.106574 0.60021 1.789 255 255 255
-0.5733 -0.429485 1.972 255 255 255
0.638036 0.655656 1.899 255 255 255
-0.377471 -0.653378 2.196 255 255 255
-0.80543 0.460014 1.87 255 255 255
0.628544 0.618002 1.966 255 255 255
-0.273905 0.409952 2.114 255 255 255
-0.0691138 0.522022 1.966 255 255 255
0.707932 0.437142 2.181 255 255 255
-0.67204 -0.0288238 2.261 255 255 255
0.250045 0.614664 1.887 255 255 255
-0.708581 -0.122866 2.107 255 255 255
0.0343498 0.248924 2.244 0 0 0
0.631667 -0.118431 2.151 255 255 255
-0.349437 0.486956 1.941 255 255 255
-0.437471 -0.0309782 2.43 255 255 255
0.141803 -0.150972 2.329 255 255 255
0.275434 -0.306138 2.244 255 255 255
-0.863403 -0.435789 1.686 255 255 255
-0.00966119 -0.613194 2.286 255 255 255
-0.444262 -0.600564 2.173 255 255 255
0.125708 0.062688 2.54 255 255 255
0.581031 -0.297917 2.158 255 255 255
-0.0818052 -0.702151 2.44 255 255 255
0.0683033 0.216444 2.411 255 255 255
-0.334626 -0.117975 2.43 255 255 255
-0.242646 -0.467984 2.42 255 255 255
-0.749249 0.496636 1.859 255 255 255
0.322647 -0.327892 2.294 255 255 255
0.41797 -0.751815 2.064 255 255 255
-0.62276 -0.447374 1.966 255 255 255
-0.334626 -0.529234 2.43 255 255 255
0.203331 0.154879 2.43 255 255 255
-0.943591 0.289937 2.044 255 255 255
-0.369567 0.642183 1.65 255 255 255
-0.762612 0.297627 2.173 255 255 255
0.748957 0.226516 2.136 0 0 0
-0.586492 0.576725 1.719 255 255 255
0.747265 -0.685923 1.826 255 255 255
0.933778 0.499458 2.017 255 255 255
-0.452235 -0.496154 2.212 255 255 255
-0.283143 0.525864 1.899 255 255 255
-0.881304 0.449279 1.876 255 255 255
0.227076 -0.834791 2.166 255 255 255
0.230073 0.633424 1.826 255 255 255
0.561338 -0.664929 1.966 255 255 255
-0.674596 0.514674 1.837 255 255 255
-0.932088 0.162539 1.991 255 255 255
-0.802308 0.408586 1.959 255 255 255
0.542549 -0.621544 1.991 255 255 255
0.257584 -0.0963038 2.383 255 255 255
0.790805 -0.526749 1.81 255 255 255
0.395141 -0.130548 2.303 0 0 0
-0.653803 -0.362193 2.064 255 255 255
-0.0715812 0.208755 2.244 255 255 255
0.205946 -0.44056 2.204 255 255 255
-0.514378 0.426314 2.044 255 255 255
0.860373 -0.430461 1.865 255 255 255
0.547434 -0.477177 1.997 255 255 255
0.57344 -0.740409 1.997 255 255 255
-0.438983 -0.227292 2.374 255 255 255
-0.442831 -0.556332 2.166 255 255 255
0.498172 0.288673 2.329 255 255 255
-0.380066 0.545039 1.859 255 255 255
-0.826892 0.398461 1.972 255 255 255
-0.192226 -0.849541 2.43 255 255 255
-0.62279 0.499575 1.87 255 255 255
0.927229 -0.201533 1.853 255 255 255
0.748302 -0.636423 1.779 255 255 255
-0.174199 0.222156 2.347 0 0 0
0.466871 0.214773 2.269 255 255 255
-0.679247 -0.516254 1.794 255 255 255
0.736816 -0.66614 1.837 255 255 255
-0.220314 -0.640759 2.479 255 255 255
-0.0893811 -0.477826 2.43 255 255 255
0.750252 -0.715239 1.848 255 255 255
0.936283 -0.208236 1.859 255 255 255
-0.287178 -0.33804 2.365 0 0 0
-0.572427 -0.622597 1.905 255 255 255
-0.99363 0.300569 2.004 255 255 255
0.631977 -0.519093 1.947 255 255 255
0.0872336 -0.0382789 2.392 255 255 255
-0.352613 0.438686 2.071 255 255 255
0.795312 0.397414 2.158 255 255 255
-0.247625 -0.707801 2.392 255 255 255
-0.313287 0.478688 1.972 255 255 255
0.382776 -0.755205 2.092 255 255 255
0.898566 0.468074 2.128 255 255 255
-0.815736 -0.0839726 1.923 255 255 255
0.139281 0.312412 2.228 255 255 255
0.186428 -0.847809 2.228 255 255 255
-0.693165 -0.313003 1.966 255 255 255
-0.659318 0.493489 1.87 255 255 255
0.496732 -0.416188 2.189 255 255 255
0.481532 0.138261 2.286 0 0 0
0.802762 -0.642899 1.734 255 255 255
-0.761928 -0.486029 1.769 255 255 255
0.602942 -0.671327 1.966 255 255 255
0.734153 -0.300205 1.966 255 255 255
0.459226 0.54709 2.099 255 255 255
-0.528589 -0.459998 2.128 255 255 255
0.556151 -0.652997 1.959 255 255 255
0.300254 0.0122781 2.383 255 255 255
-0.283231 0.548065 1.859 255 255 255
0.962932 0.288944 2.037 255 255 255
0.463818 0.302363 2.347 255 255 255
-0.0771994 0.0899341 2.196 255 255 255
-0.196266 0.148005 2.383 255 255 255
0.692665 0.0243962 2.092 255 255 255
-0.702313 -0.373346 1.947 255 255 255
-0.331 -0.167366 2.196 255 255 255
0.658312 0.221825 2.158 0 0 0
-0.355857 0.542014 1.859 255 255 255
0.0550631 -0.835632 2.196 255 255 255
0.236582 0.353104 2.329 255 255 255
-0.411552 -0.732185 2.114 255 255 255
0.547881 0.64173 1.941 255 255 255
-0.0263133 0.454223 2.128 255 255 255
0.845129 0.624187 2.017 255 255 255
0.686953 -0.169085 2.085 255 255 255
0.444321 -0.0998239 2.286 0 0 0
-0.860223 0.133099 2.143 255 255 255
0.446474 0.230453 2.278 255 255 255
-0.718333 -0.0446101 2.136 255 255 255
-0.843206 0.529434 1.729 255 255 255
-0.853895 0.0418443 1.953 0 0 0
0.444433 0.520197 2.143 255 255 255
0.42805 -0.674562 2.064 255 255 255
-0.734641 -0.0168574 2.143 255 255 255
-0.135373 0.000598093 2.212 255 255 255
-0.181769 -0.808359 2.449 255 255 255
0.915018 -0.448671 1.865 255 255 255
-0.284505 -0.789476 2.312 255 255 255
-0.706016 0.177457 2.312 255 255 255
0.360712 -0.606222 2.143 255 255 255
-0.600231 0.601598 1.664 255 255 255
-0.677942 0.437277 1.959 255 255 255
0.22219 0.0164069 2.42 255 255 255
-0.6054 -0.432694 1.972 255 255 255
-0.956184 0.205445 2.064 255 255 255
0.598411 0.29363 2.196 255 255 255
-0.423783 0.0938327 2.489 255 255 255
0.250867 -0.322031 2.253 255 255 255
-0.77671 0.531189 1.744 255 255 255
-0.853141 0.567048 1.682 255 255 255
-0.765994 -0.0475908 2.114 255 255 255
-0.545112 0.246952 2.365 255 255 255
0.046389 -0.0074577 2.499 0 0 0
-0.463648 0.351961 2.181 255 255 255
-0.103339 0.170396 2.22 0 0 0
-0.576054 -0.388829 2.099 255 255 255
-0.167173 -0.225362 2.204 255 255 255
-0.41401 0.0692508 2.479 255 255 255
-0.470749 -0.560184 2.181 255 255 255
0.0746409 0.626139 1.805 255 255 255
-0.358634 0.132718 2.459 0 0 0
0.164668 0.3813 2.228 255 255 255
-0.874275 0.2245 2.085 255 255 255
0.536013 -0.350894 2.204 255 255 255
-0.720666 -0.195697 2.044 255 255 255
-0.254463 0.138489 2.42 255 255 255
-0.0310646 -0.234223 2.22 255 255 255
-1.00958 0.312947 1.959 255 255 255
-0.0168566 -0.871987 2.253 255 255 255
0.74262 0.295573 2.158 255 255 255
-0.897747 -0.00259312 1.911 255 255 255
0.839805 -0.321921 1.887 255 255 255
0.661758 -0.566796 1.905 255 255 255
-0.603551 0.541682 1.769 255 255 255
0.215197 0.0757908 2.43 255 255 255
0.63238 -0.385728 1.978 255 255 255
0.905296 -0.465089 1.87 255 255 255
0.620805 -0.310753 2.057 255 255 255
0.0299584 0.63956 1.769 255 255 255
0.829514 -0.352253 1.837 255 255 255
-0.393416 0.604698 1.719 255 255 255
-0.596821 -0.506425 1.997 255 255 255
-0.75435 -0.441576 1.799 255 255 255
0.875552 -0.157314 1.865 255 255 255
0.962552 -0.24749 1.905 255 255 255
-0.971522 0.378731 1.953 255 255 255
-0.664609 -0.0648921 2.236 255 255 255
-0.784296 0.523005 1.774 255 255 255
0.540443 -0.792781 2.057 255 255 255
0.858831 0.271443 2.107 255 255 255
0.215726 -0.112238 2.392 0 0 0
-0.599649 0.0520643 2.43 255 255 255
0.207925 0.569421 1.953 255 255 255
0.411468 -0.328011 2.269 255 255 255
-0.853936 0.289083 2.136 255 255 255
0.0783393 0.102838 2.615 0 0 0
-0.638538 -0.055183 2.286 0 0 0
-0.324402 0.609263 1.724 255 255 255
-0.398905 -0.643447 2.236 255 255 255
-0.397915 -0.367103 2.43 255 255 255
-0.250608 -0.327829 2.347 255 255 255
-0.644784 0.195275 2.392 255 255 255
-0.42852 -0.386326 2.402 255 255 255
0.0181554 0.497661 2.064 255 255 255
0.825457 -0.459618 1.848 255 255 255
0.645439 0.622177 1.959 255 255 255
0.862518 -0.0961889 1.917 255 255 255
