ply
format ascii 1.0
comment Created by Open3D
element vertex 1304
property double x
property double y
property double z
property uchar red
property uchar green
property uchar blue
end_header
0.26553 -1.08553 2.793 255 255 255
0.570657 0.479318 2.411 255 255 255
-0.989293 -0.051731 2.143 255 255 255
-0.229297 0.593416 2.024 255 255 255
0.609301 -0.00530902 1.779 255 255 255
-0.67364 0.26232 2.593 255 255 255
0.803706 0.27155 2.22 255 255 255
0.614194 -0.233581 1.563 255 255 255
0.249636 -1.06681 2.768 255 255 255
0.591549 0.0368307 1.719 255 255 255
0.658726 -0.745107 2.604 255 255 255
0.0528314 0.573176 2.107 255 255 255
0.710876 -0.419257 1.563 255 255 255
0.225577 -0.738716 2.805 255 255 255
0.150012 -0.4713 2.844 255 255 255
-0.981059 0.0768042 1.953 255 255 255
-0.0144774 0.652342 1.935 255 255 255
1.23449 -0.41013 2.55 255 255 255
-0.730445 0.32373 2.392 255 255 255
-0.236637 0.638908 1.923 255 255 255
-1.00657 -0.0311577 1.947 255 255 255
-0.445696 0.206854 2.695 255 255 255
0.578432 0.478052 2.347 255 255 255
-0.869274 -0.471285 1.959 255 255 255
-0.810226 -0.32478 2.469 255 255 255
0.51835 -0.138173 1.182 0 0 0
-0.805622 0.659843 1.739 255 255 255
-0.907117 0.254915 2.561 255 255 255
0.107837 0.48457 2.253 255 255 255
-0.522177 0.273427 2.66 255 255 255
0.219309 0.48951 2.347 255 255 255
0.873411 -0.311073 2.818 255 255 255
-0.595787 -0.960251 2.66 255 255 255
-0.933957 0.265851 1.941 255 255 255
0.569941 0.282373 2.884 255 255 255
-0.685498 0.447395 2.269 255 255 255
-0.665066 -0.869348 2.66 255 255 255
0.881667 -0.725506 2.55 255 255 255
-0.573124 0.441346 2.22 255 255 255
-0.788869 -0.6388 2.057 255 255 255
-0.19383 0.508126 2.181 255 255 255
-0.818449 -0.0121654 2.638 255 255 255
-0.961009 0.307092 2.004 255 255 255
0.346909 0.256911 0.68 255 255 255
0.31982 0.26476 0.686 0 0 0
-0.964653 0.0887055 2.166 255 255 255
-0.572917 0.198083 2.695 255 255 255
-0.280892 -1.03767 2.996 255 255 255
-0.0499247 0.686165 1.848 255 255 255
0.505811 -0.0798078 1.07 0 0 0
0.359272 0.602602 2.114 255 255 255
0.596963 0.0295045 1.978 255 255 255
0.317202 0.158513 0.705 0 0 0
0.580324 -0.366885 2.755 255 255 255
0.528681 -0.659895 2.743 255 255 255
-0.376252 0.565105 2.017 255 255 255
-0.224418 -0.690645 2.672 255 255 255
0.771911 -0.707218 2.719 255 255 255
-0.244491 -0.960855 2.911 255 255 255
-0.903641 -0.137035 2.114 255 255 255
-0.548356 0.55006 2.01 255 255 255
0.895551 -0.950343 2.519 255 255 255
0.23884 0.185536 2.911 255 255 255
-0.152375 0.577832 2.099 255 255 255
-0.318377 0.448349 2.312 255 255 255
0.800093 0.220973 2.22 255 255 255
0.525517 0.497073 2.402 255 255 255
-0.918696 -0.253057 2.078 255 255 255
-0.093093 0.692674 1.81 255 255 255
-0.718331 0.0695491 2.818 255 255 255
-0.895796 0.189995 2.196 255 255 255
-0.855418 -0.605602 1.853 255 255 255
0.591171 0.00594322 1.686 255 255 255
-0.733089 0.566243 1.953 255 255 255
-0.846717 0.0171526 2.53 255 255 255
0.461657 0.444427 2.479 255 255 255
0.321404 0.266264 0.687 0 0 0
0.626397 -0.433924 2.593 255 255 255
-0.755553 -0.705971 2.204 255 255 255
0.694877 -0.986936 2.55 255 255 255
0.134592 0.199748 2.911 255 255 255
0.450028 0.648965 1.779 255 255 255
-0.912083 0.124689 2.54 255 255 255
0.743856 -0.395284 1.579 255 255 255
-0.778389 -0.527056 2.42 255 255 255
-0.75989 -0.441883 2.925 255 255 255
-0.644711 -0.769587 2.181 255 255 255
-0.274089 0.682609 1.799 255 255 255
-0.771906 0.522498 2.03 255 255 255
-0.474551 0.109252 2.898 255 255 255
-0.885581 -0.641788 1.853 255 255 255
0.523798 -0.0966995 2.996 255 255 255
-0.0073224 -0.563293 2.818 255 255 255
-0.911264 -0.278593 2.092 255 255 255
-0.543484 0.521434 2.092 255 255 255
0.768209 -0.416944 1.603 255 255 255
-0.815243 -0.219773 2.22 255 255 255
0.530416 0.34141 2.684 255 255 255
-0.915955 0.217605 2.151 255 255 255
-0.942827 -0.380566 2.189 255 255 255
-0.673453 -0.403468 2.411 255 255 255
0.288973 0.172354 0.687 255 255 255
0.329463 0.243299 0.676 0 0 0
-0.706327 0.527067 1.985 255 255 255
0.76962 0.396193 2.383 255 255 255
-0.531857 -1.008 2.755 255 255 255
0.611137 -0.284868 1.719 255 255 255
-0.476975 0.445818 2.261 255 255 255
-0.18377 -0.865518 2.925 255 255 255
-0.0298501 -0.949283 2.78 255 255 255
-0.987897 0.225391 1.893 255 255 255
0.30632 0.17847 0.664 255 255 255
-0.887944 -0.0974292 2.151 255 255 255
0.343608 0.546411 2.236 255 255 255
-0.0301186 -0.528742 2.805 255 255 255
-0.96109 0.36932 2.158 255 255 255
0.822184 0.528876 2.459 255 255 255
-0.852402 0.615651 1.853 255 255 255
0.225825 0.39076 2.55 255 255 255
-0.930312 -0.0830857 2.236 255 255 255
0.129136 -0.490119 2.793 255 255 255
0.208564 0.660433 1.959 255 255 255
-0.905662 0.226416 2.392 255 255 255
0.157285 0.664991 1.917 255 255 255
-0.86975 -0.556142 1.911 255 255 255
-0.365784 0.644063 1.848 255 255 255
0.269487 -0.186949 2.884 255 255 255
0.787563 -0.428576 2.638 255 255 255
1.28282 -0.472265 2.572 255 255 255
0.296654 0.269794 0.708 255 255 255
-0.852632 -0.59261 2.107 255 255 255
-0.190517 0.384819 2.459 255 255 255
0.607138 -0.243873 1.416 0 0 0
-0.456507 0.556708 1.953 255 255 255
-0.400975 0.288858 2.604 255 255 255
0.931801 -0.591334 2.695 255 255 255
0.522497 -0.0990975 1.247 255 255 255
-0.0164206 -0.715893 2.805 255 255 255
-0.916973 -0.169087 2.044 255 255 255
0.845182 -0.307901 2.831 255 255 255
-0.252834 -0.367064 2.898 255 255 255
0.453855 -0.94104 2.572 255 255 255
-0.85129 -0.510275 1.734 255 255 255
0.372901 -0.514981 2.78 255 255 255
0.347604 0.416515 2.53 255 255 255
-0.22071 0.540258 2.099 255 255 255
-0.365161 0.665051 1.815 255 255 255
-0.252825 0.111325 2.953 255 255 255
-0.419817 -1.12666 2.911 255 255 255
-0.590272 0.32373 2.392 255 255 255
-0.944638 0.309448 2.402 255 255 255
-0.686509 0.501008 2.092 255 255 255
-0.894088 -0.249225 1.724 255 255 255
0.307237 0.00713695 0.612 255 255 255
-0.580971 0.676566 1.753 255 255 255
0.379742 -0.906807 2.831 255 255 255
0.280479 0.575995 2.143 255 255 255
-0.115395 0.359709 2.479 255 255 255
-0.352241 0.56214 2.03 255 255 255
0.596204 0.402502 2.572 255 255 255
-1.01291 -0.415431 1.997 255 255 255
-0.163613 0.631811 1.911 255 255 255
-0.67403 -0.718748 2.085 255 255 255
-0.924174 -0.0173372 2.204 255 255 255
-0.203894 0.686911 1.826 255 255 255
-0.820027 -0.256037 2.253 255 255 255
-0.6319 0.642079 1.784 255 255 255
0.562643 -0.187561 1.283 0 0 0
0.626033 -0.074369 1.769 255 255 255
0.451935 0.282553 2.793 255 255 255
0.0927647 0.255282 2.793 255 255 255
-0.77499 0.584782 1.87 255 255 255
0.769261 0.627456 2.469 255 255 255
0.0410614 0.522548 2.212 255 255 255
-0.858782 -0.0488005 2.768 255 255 255
-0.847516 -0.446956 2.037 255 255 255
-0.54628 -1.01676 2.672 255 255 255
-0.673249 0.660342 1.763 255 255 255
0.460134 0.591672 1.985 255 255 255
0.584456 0.0829652 1.748 255 255 255
0.738129 0.885844 2.615 255 255 255
-0.00602837 0.487654 2.32 255 255 255
-0.890662 -0.303805 1.87 255 255 255
-0.641324 -0.763677 2.078 255 255 255
0.419135 0.565743 2.212 255 255 255
-0.697367 -0.639808 2.236 255 255 255
0.328254 0.398317 2.572 255 255 255
0.434374 0.495142 2.374 255 255 255
-0.909634 -0.0815078 2.294 255 255 255
-0.850917 -0.155426 2.593 255 255 255
0.158543 -0.708708 2.831 255 255 255
0.145608 0.676079 1.887 255 255 255
-0.255771 0.317176 2.593 255 255 255
-0.052722 -0.51739 2.793 255 255 255
-0.31279 0.514857 2.121 255 255 255
-0.780814 -0.497781 2.356 255 255 255
0.305041 0.704209 1.848 255 255 255
-0.52114 0.423741 2.261 255 255 255
-0.1931 0.269098 2.66 255 255 255
0.649489 -0.433485 1.646 255 255 255
0.733224 -0.158552 2.329 255 255 255
0.311288 0.163011 0.654 0 0 0
0.0786688 0.342579 2.626 255 255 255
-0.680798 0.0251875 2.996 255 255 255
-0.835759 0.383786 2.286 255 255 255
-0.621081 0.0828831 2.967 255 255 255
0.633587 -0.325661 1.758 255 255 255
-0.901947 -0.104346 2.582 255 255 255
-0.844582 0.53838 1.991 255 255 255
-0.839547 -0.433103 2.338 255 255 255
0.74347 -0.214428 2.939 255 255 255
-0.964271 -0.449499 2.004 255 255 255
0.165673 0.708985 1.837 255 255 255
0.650805 -0.68546 2.54 255 255 255
-0.36602 0.566001 1.997 255 255 255
0.0677957 0.6963 1.859 255 255 255
-0.188754 0.476219 2.338 255 255 255
0.600375 -0.120952 1.587 255 255 255
0.772141 0.63994 2.44 255 255 255
-0.945962 0.222057 1.865 255 255 255
-0.0653523 0.681174 1.859 255 255 255
0.312262 0.106107 0.62 255 255 255
0.780666 0.152795 2.831 255 255 255
-0.276015 -0.867025 2.996 255 255 255
0.231711 0.659593 1.966 255 255 255
-0.495731 -1.10213 2.884 255 255 255
0.282395 -0.876899 2.78 255 255 255
0.79885 -0.197157 2.967 255 255 255
0.232214 0.517708 2.286 255 255 255
-0.764 -0.167369 2.294 255 255 255
-0.080155 0.184277 2.967 255 255 255
1.02677 -0.823266 2.519 255 255 255
-0.284433 -1.10561 2.982 255 255 255
-0.518197 0.506167 2.128 255 255 255
0.573304 0.395664 2.582 255 255 255
0.0250164 0.218291 2.844 255 255 255
-0.791887 -0.676175 2.166 255 255 255
0.61736 0.385871 2.114 255 255 255
1.05459 -0.702476 2.286 255 255 255
0.341374 0.258018 0.68 255 255 255
-0.806362 0.528999 2.017 255 255 255
0.0477235 -0.471577 2.818 255 255 255
-0.685776 -0.712519 2.01 255 255 255
0.0267984 0.644493 1.959 255 255 255
-0.0663614 -0.990083 2.793 255 255 255
0.560592 -0.180836 1.237 255 255 255
0.0155267 0.53283 2.166 255 255 255
0.44454 0.599862 1.959 255 255 255
0.461407 -0.386634 2.768 255 255 255
-0.996605 -0.447574 2.01 255 255 255
1.04608 -0.679834 2.236 255 255 255
-0.783884 -0.588195 2.044 255 255 255
-0.865191 -0.0948895 2.173 255 255 255
0.684059 -0.474091 1.62 255 255 255
-0.974299 -0.0219972 1.978 255 255 255
-0.183422 0.632649 1.923 255 255 255
-0.958955 0.388022 2.107 255 255 255
0.335178 0.290182 2.695 255 255 255
-0.730577 -0.621529 2.499 255 255 255
0.712861 0.225467 2.818 255 255 255
0.396227 0.411412 2.499 255 255 255
-0.952733 0.281371 2.212 255 255 255
0.0202937 0.231114 2.831 255 255 255
0.798061 -0.215719 2.509 255 255 255
0.174601 -0.485574 2.793 255 255 255
-0.80687 -0.614267 1.978 255 255 255
-0.287767 0.184926 2.695 255 255 255
-0.961213 0.126673 2.347 255 255 255
0.12409 0.636895 1.985 255 255 255
-0.961723 -0.430443 2.136 255 255 255
0.7461 -0.857397 2.805 255 255 255
0.377997 0.283916 2.719 255 255 255
-1.0068 0.374392 2.32 255 255 255
-0.693839 0.63449 1.779 255 255 255
0.541657 0.497898 2.024 255 255 255
-0.969245 0.388022 2.107 255 255 255
0.0617686 -0.671852 2.831 255 255 255
-0.835231 -0.593951 2.064 255 255 255
0.482886 -0.720861 2.593 255 255 255
-0.509653 0.514887 2.107 255 255 255
-0.56821 0.343168 2.365 255 255 255
-0.863183 -0.0890699 2.204 255 255 255
-0.727334 -0.0909352 2.967 255 255 255
0.63834 -0.376491 2.793 255 255 255
-0.682023 0.378168 2.32 255 255 255
0.632989 -0.305638 1.71 255 255 255
0.592341 0.0587095 1.789 0 0 0
0.271037 0.493264 2.365 255 255 255
0.261067 0.527018 2.278 255 255 255
-0.615627 0.604975 1.876 255 255 255
-0.334736 0.57961 1.966 255 255 255
-0.387529 0.652187 1.837 255 255 255
0.841805 -0.798041 2.53 255 255 255
-0.735791 0.604968 1.848 255 255 255
-0.710452 -0.784362 2.805 255 255 255
-0.00552947 0.561574 2.128 255 255 255
-0.942468 -0.0296907 2.329 255 255 255
0.848004 0.070819 2.158 255 255 255
-0.810502 -0.408577 2.044 255 255 255
-0.0993154 0.493388 2.294 255 255 255
-0.79324 -0.355412 2.303 255 255 255
0.316897 -0.560694 2.805 255 255 255
-0.279606 0.481697 2.158 255 255 255
0.113493 -0.575738 2.857 255 255 255
-0.475232 0.668949 1.763 255 255 255
0.113926 -0.91833 2.755 255 255 255
0.00575586 0.361414 2.519 255 255 255
-0.701124 0.220567 2.649 255 255 255
-0.0973078 0.243989 2.768 255 255 255
0.544863 -0.537601 2.78 255 255 255
0.256342 0.536013 2.269 255 255 255
-0.970277 0.108409 1.842 255 255 255
-0.863079 -0.493603 1.659 255 255 255
0.673598 -0.434186 1.571 255 255 255
-0.734444 -0.769515 2.996 255 255 255
-0.669559 -0.81673 2.499 255 255 255
-0.861774 -0.66704 1.935 255 255 255
0.696098 -0.222418 2.982 255 255 255
0.898271 -0.970338 2.55 255 255 255
-0.421849 0.681606 1.744 255 255 255
0.394452 0.598426 2.064 255 255 255
0.19689 0.603825 2.071 255 255 255
-0.865382 0.543589 1.929 255 255 255
0.40191 -0.995021 2.672 255 255 255
-0.718883 0.308788 2.459 255 255 255
0.509048 -0.630524 2.939 255 255 255
-0.913359 0.23518 2.402 255 255 255
-0.0637716 0.288997 2.684 255 255 255
-0.809812 -0.00804261 2.695 255 255 255
0.98489 -0.615727 2.649 255 255 255
-0.239535 -0.863461 2.967 255 255 255
-0.149031 -0.995451 2.572 255 255 255
-0.225729 0.513157 2.114 255 255 255
-0.856736 -0.489204 1.7 255 255 255
0.240384 -0.746725 2.818 255 255 255
-0.128848 0.230475 2.768 255 255 255
-0.396562 0.554134 2.037 255 255 255
-0.702293 0.071178 2.884 255 255 255
0.615279 -0.572568 2.731 255 255 255
0.301997 0.183872 0.664 255 255 255
0.620577 -0.431527 2.604 255 255 255
0.783827 -0.508299 2.793 255 255 255
0.836215 -0.664312 2.128 255 255 255
0.315771 0.121977 0.629 255 255 255
1.18816 -0.571668 2.329 255 255 255
0.724723 0.028026 2.793 255 255 255
0.125669 0.595067 2.064 255 255 255
0.340578 0.659298 2.004 255 255 255
-0.893317 -0.137035 2.114 255 255 255
-0.859519 -0.342934 2.32 255 255 255
-0.73853 -0.464909 1.959 255 255 255
-0.401827 0.224397 2.695 255 255 255
0.632877 -0.314052 1.624 255 255 255
0.347484 0.203472 2.831 255 255 255
-0.297357 0.15251 2.743 255 255 255
-0.131571 0.61938 1.991 255 255 255
0.281176 -0.66591 2.768 255 255 255
-0.875661 0.0779075 2.374 255 255 255
0.289988 0.295794 0.76 255 255 255
0.558998 0.262587 2.925 255 255 255
0.190409 0.303339 2.695 255 255 255
0.327391 0.228321 0.674 255 255 255
-0.0721235 0.501008 2.261 255 255 255
-1.00652 0.363931 2.03 255 255 255
0.813084 0.674075 2.42 255 255 255
0.832127 -0.311073 2.818 255 255 255
0.313749 0.0962438 0.615 255 255 255
-0.487365 0.385503 2.365 255 255 255
-0.944638 0.117915 2.402 255 255 255
-0.837325 -0.619785 1.887 255 255 255
-0.971285 0.320331 1.985 255 255 255
-0.934237 0.0622391 2.228 255 255 255
0.447113 0.657945 1.734 255 255 255
-0.979534 0.0142848 2.107 255 255 255
-0.104437 0.257368 2.719 255 255 255
0.294254 0.705996 1.837 255 255 255
-0.289405 0.597509 1.941 255 255 255
0.673278 0.237388 2.967 255 255 255
-0.732324 0.291727 2.519 255 255 255
-0.844069 -0.305712 2.383 255 255 255
-0.859233 -0.0889209 2.755 255 255 255
-0.849362 0.54287 1.972 255 255 255
0.258791 0.667944 1.953 255 255 255
-0.493171 -1.05641 2.953 255 255 255
-0.674917 -0.884755 2.519 255 255 255
-0.817887 -0.00770539 2.582 255 255 255
1.28673 -0.292418 2.649 255 255 255
-0.368666 0.664258 1.789 255 255 255
-0.462128 -1.08967 2.939 255 255 255
0.570973 0.100659 1.923 255 255 255
-0.707416 -0.363215 2.329 255 255 255
0.214292 0.375775 2.561 255 255 255
0.574012 0.444843 2.459 255 255 255
0.200994 0.560643 2.151 255 255 255
-0.24833 0.606985 1.941 255 255 255
-0.956813 0.170626 2.374 255 255 255
0.493696 0.56214 2.03 0 0 0
-0.706588 -0.777956 2.071 255 255 255
0.436256 -0.890471 2.78 255 255 255
0.00195969 -0.780478 2.982 255 255 255
0.496631 -0.112699 1.12 0 0 0
-0.820795 -0.344491 2.383 255 255 255
-0.784957 -0.497602 2.392 255 255 255
-0.697082 0.298293 2.54 255 255 255
-0.944834 0.292233 1.887 255 255 255
0.196758 0.565533 2.143 255 255 255
-0.94796 0.121205 2.004 255 255 255
-0.527373 -1.03041 2.755 255 255 255
-0.773504 -0.459059 2.278 255 255 255
-0.0585808 -0.538544 2.857 255 255 255
-0.809161 -0.615377 2.024 255 255 255
-0.979108 0.299511 2.136 255 255 255
0.394455 -0.387005 2.871 255 255 255
0.487107 -0.729301 2.593 255 255 255
0.609063 -0.29778 1.729 255 255 255
0.266964 0.168146 2.857 255 255 255
-0.129945 0.383254 2.449 255 255 255
0.460724 -0.752474 2.66 255 255 255
0.859007 -0.34015 2.831 255 255 255
-0.220866 0.602461 1.978 255 255 255
-0.716883 0.583066 1.935 255 255 255
0.321753 0.15713 0.643 255 255 255
-0.825423 0.0122317 2.374 255 255 255
0.152521 -0.861962 2.805 255 255 255
0.871547 -0.264236 2.857 255 255 255
0.206659 0.200708 2.925 255 255 255
-0.891904 -0.548973 2.01 255 255 255
-0.762914 0.655609 1.758 255 255 255
-0.0663078 -0.837772 2.996 255 255 255
-1.04315 0.0469589 2.037 255 255 255
0.608052 0.465627 2.286 255 255 255
-0.162083 0.558883 2.092 255 255 255
0.705787 -0.396366 1.563 255 255 255
-0.870688 0.478348 2.143 255 255 255
-0.897123 0.529381 1.923 255 255 255
-0.775068 -0.504939 2.004 255 255 255
0.348016 0.253591 0.68 255 255 255
0.228946 -0.47237 2.967 255 255 255
0.0319568 0.666867 1.887 255 255 255
-0.60521 0.291727 2.519 255 255 255
0.492126 0.557942 2.051 0 0 0
-0.694926 0.350664 2.338 255 255 255
-0.996955 -0.0280755 1.953 255 255 255
-0.782845 0.270419 2.55 255 255 255
-0.902504 -0.345569 1.882 255 255 255
-1.06305 0.27237 2.037 255 255 255
-0.477267 0.464691 2.228 255 255 255
-0.551441 0.437733 2.22 255 255 255
0.667204 -0.630693 2.604 255 255 255
0.144762 -0.456163 2.925 255 255 255
0.278454 0.668086 1.935 255 255 255
-0.26064 -0.71856 2.78 255 255 255
-0.782671 -0.271895 2.294 255 255 255
-0.79702 -0.441032 2.01 255 255 255
-0.284433 -1.01341 2.982 255 255 255
0.830504 -0.664685 2.638 255 255 255
-0.869882 -0.194447 1.997 255 255 255
0.42268 -0.347594 2.78 255 255 255
0.665713 -0.425245 1.595 255 255 255
-0.892886 -0.319369 1.837 255 255 255
0.601942 -0.492572 2.731 255 255 255
-0.885686 -0.26326 1.953 255 255 255
-0.617646 0.531471 2.078 255 255 255
-0.960192 0.574744 1.887 255 255 255
0.308214 0.207075 0.652 0 0 0
0.554525 0.325267 2.695 255 255 255
0.525597 0.517301 2.236 255 255 255
0.0851996 -0.656424 2.844 255 255 255
-0.442089 0.112906 2.871 255 255 255
0.407392 -0.722528 2.831 255 255 255
-0.882861 -0.0765588 2.638 255 255 255
-0.808217 -0.378366 2.261 255 255 255
-0.933218 0.583605 1.876 255 255 255
0.94568 -0.639928 2.66 255 255 255
-0.571875 0.630923 1.769 255 255 255
-0.30134 0.336814 2.55 255 255 255
-0.835759 0.387506 2.286 255 255 255
-0.06676 0.694587 1.815 255 255 255
0.313448 0.115959 0.641 255 255 255
-0.162187 0.675123 1.859 255 255 255
0.465215 -0.0826923 1.085 255 255 255
-0.143637 0.188508 2.884 255 255 255
0.240716 0.537802 2.261 255 255 255
0.751937 0.0270426 2.695 255 255 255
-0.394965 0.523179 2.099 255 255 255
0.824902 0.654385 2.42 255 255 255
-0.741771 0.653953 1.769 255 255 255
-0.550097 0.427859 2.244 255 255 255
0.431646 -0.97805 2.615 255 255 255
-0.135218 0.611498 1.997 255 255 255
1.11802 -0.838396 2.54 255 255 255
0.424104 0.636163 1.953 255 255 255
-0.987178 0.518771 1.978 255 255 255
-0.241643 0.217546 2.719 255 255 255
0.129274 -0.89054 2.898 255 255 255
-0.222091 0.366678 2.499 255 255 255
-0.0612616 -1.01275 2.768 255 255 255
0.613517 -0.91433 2.743 255 255 255
-0.778937 0.396328 2.294 255 255 255
-1.00024 0.411086 2.051 255 255 255
0.897871 -0.843086 2.469 255 255 255
0.652017 0.404949 2.561 255 255 255
-0.895336 -0.263126 1.705 255 255 255
0.468612 0.613915 1.953 0 0 0
-0.654255 0.345696 2.356 255 255 255
-0.266641 -1.08684 2.844 255 255 255
-0.646421 0.642079 1.784 255 255 255
0.375093 -0.644872 2.939 255 255 255
-0.683223 -0.93299 2.55 255 255 255
-0.974247 0.047565 2.22 255 255 255
0.326757 0.193578 0.653 255 255 255
0.593051 0.316279 2.731 255 255 255
0.0243479 -0.999239 2.768 255 255 255
0.0858313 0.640746 1.997 255 255 255
0.945391 -0.845197 2.499 255 255 255
-0.572805 0.668949 1.763 255 255 255
-0.896165 0.621757 1.784 255 255 255
-0.101386 -0.67035 2.884 255 255 255
1.31373 -0.527381 2.66 255 255 255
-0.936025 0.477509 2.064 255 255 255
-0.993666 0.4995 1.991 255 255 255
-0.634017 0.620747 1.815 255 255 255
-0.510076 0.41126 2.294 255 255 255
0.538867 0.517891 2.051 255 255 255
0.0809384 -0.678022 2.857 255 255 255
-0.458099 0.170365 2.743 255 255 255
-0.144737 0.408594 2.365 255 255 255
0.641708 -0.314645 1.587 0 0 0
-0.0211743 0.610261 1.972 255 255 255
1.02713 -0.921556 2.53 255 255 255
0.896706 -0.600106 2.695 255 255 255
1.03082 -0.832997 2.499 255 255 255
-0.938174 -0.433193 2.004 255 255 255
-0.176573 0.257268 2.672 255 255 255
0.543342 -0.108101 1.333 255 255 255
-0.751286 -0.74226 1.959 255 255 255
0.606336 -0.534109 2.672 255 255 255
-0.7157 0.0100252 2.844 255 255 255
-0.0153083 0.319867 2.615 255 255 255
0.470121 -0.731011 2.793 255 255 255
0.554236 -0.465683 2.925 255 255 255
0.142985 0.697068 1.853 255 255 255
0.0606558 -1.04881 2.78 255 255 255
0.264294 -0.546649 2.78 255 255 255
0.103718 -0.503696 2.844 255 255 255
-0.832043 0.609973 1.882 255 255 255
-0.41034 -1.11244 2.911 255 255 255
0.591761 0.0853322 2.004 255 255 255
0.259926 -0.773205 2.831 255 255 255
-0.408076 0.623627 1.905 255 255 255
-0.072559 0.58499 2.064 255 255 255
0.158587 0.639143 1.972 255 255 255
0.463384 0.351126 2.626 255 255 255
0.724926 0.614338 2.402 255 255 255
-0.878849 0.4096 2.244 255 255 255
0.800265 -0.700996 2.582 255 255 255
0.326314 0.199035 0.65 255 255 255
-0.0215777 -0.632804 2.884 255 255 255
-0.0114681 0.638117 1.959 255 255 255
0.513031 -0.323691 2.731 255 255 255
-0.482298 0.581258 1.929 255 255 255
0.820906 -0.1033 2.78 255 255 255
0.401875 -0.179583 2.996 255 255 255
-0.359589 0.597603 1.911 255 255 255
-0.508224 0.675635 1.758 255 255 255
-0.971707 0.244494 1.947 255 255 255
-0.862779 -0.463371 1.966 255 255 255
-0.710834 0.617794 1.815 255 255 255
-0.866125 -0.592453 1.831 255 255 255
0.566007 0.452846 2.459 255 255 255
0.17385 0.506568 2.253 255 255 255
0.780843 0.506821 2.43 255 255 255
0.827705 -0.787751 2.55 255 255 255
-0.474806 0.435867 2.286 255 255 255
-0.874381 -0.438532 1.686 255 255 255
-0.896867 0.225242 2.509 255 255 255
-0.969434 0.216984 2.078 255 255 255
-0.752877 -0.676469 2.793 255 255 255
0.415162 0.543398 2.269 255 255 255
0.440895 0.512426 2.347 255 255 255
-0.24822 -1.06735 2.793 255 255 255
-0.994066 0.419324 1.935 255 255 255
-0.974299 0.0810062 1.978 255 255 255
-0.241876 -0.0723221 2.996 255 255 255
0.0425546 0.254094 2.78 255 255 255
-0.732758 -0.487553 2.158 255 255 255
-0.550642 -0.985207 2.805 255 255 255
-0.513947 0.644165 1.758 255 255 255
-0.533979 0.667052 1.758 255 255 255
1.04823 -0.613977 2.158 255 255 255
-0.709121 0.512588 2.03 255 255 255
-0.505985 0.540874 2.037 255 255 255
-0.351047 0.409955 2.329 255 255 255
0.790537 -0.704097 2.707 255 255 255
0.76893 -0.378108 2.805 255 255 255
-0.873312 -0.166805 2.099 255 255 255
0.589768 0.0223521 1.682 255 255 255
0.834846 -0.660612 2.572 255 255 255
-0.928299 0.603004 1.842 255 255 255
0.0697064 -0.940235 2.78 255 255 255
0.429187 -0.947977 2.626 255 255 255
-0.162117 -0.999388 2.649 255 255 255
-0.369096 0.267985 2.649 255 255 255
0.307602 0.160087 0.712 255 255 255
0.518727 0.23256 2.967 255 255 255
-0.894324 0.577642 1.917 255 255 255
-0.822593 -0.558197 2.911 255 255 255
-0.877326 -0.263285 1.842 255 255 255
0.223567 -0.863327 2.78 255 255 255
-0.850459 0.0214334 2.136 255 255 255
0.307985 0.260674 0.687 0 0 0
1.30286 -0.351304 2.638 255 255 255
-0.916282 0.105755 1.848 255 255 255
-0.548187 0.387215 2.329 255 255 255
-0.906091 0.459406 2.136 255 255 255
0.166206 -0.989489 2.884 255 255 255
-0.839828 -0.523938 1.705 255 255 255
-0.67403 0.533262 2.085 255 255 255
-0.748106 0.102588 2.844 255 255 255
0.462091 -0.317844 2.719 255 255 255
-0.925043 0.527893 1.929 255 255 255
0.739191 0.00537243 2.831 255 255 255
0.169225 -0.554321 2.707 255 255 255
-0.969408 0.558088 1.893 255 255 255
0.399128 -0.438397 2.871 255 255 255
0.714514 -0.383055 1.571 255 255 255
0.562052 -0.183368 1.227 255 255 255
0.571875 -0.200537 1.403 255 255 255
0.270813 0.546411 2.236 255 255 255
-0.896681 0.667303 1.729 255 255 255
0.881667 -0.771153 2.55 255 255 255
-0.962148 0.226008 2.099 255 255 255
-0.523862 0.384036 2.356 255 255 255
-0.913411 0.0436355 2.204 255 255 255
-0.469372 0.357689 2.411 255 255 255
-0.653667 0.546834 2.085 255 255 255
-0.596517 0.179292 2.743 255 255 255
0.318117 0.142259 0.642 255 255 255
-0.245512 0.373312 2.489 255 255 255
-0.345216 0.383254 2.449 255 255 255
-0.982167 0.0251659 2.158 255 255 255
0.776113 0.612145 2.44 255 255 255
-0.576347 0.420062 2.261 255 255 255
0.457598 0.534432 2.278 255 255 255
-0.881564 -0.0988407 2.66 255 255 255
-0.856879 -0.597419 1.997 255 255 255
-0.831388 -0.656644 1.923 255 255 255
0.965259 -0.90935 2.519 255 255 255
0.608072 0.238607 2.004 255 255 255
0.43987 0.641141 1.911 255 255 255
-0.00719247 -0.688432 2.768 255 255 255
1.04587 -0.869313 2.43 255 255 255
-0.904877 0.621757 1.784 255 255 255
0.300258 0.263709 0.695 255 255 255
0.307326 0.286254 0.748 255 255 255
0.713916 -0.868457 2.684 255 255 255
-0.853246 -0.138915 2.143 255 255 255
0.782273 -0.164956 2.996 255 255 255
0.458372 -0.0633574 1.057 255 255 255
-0.927081 0.175648 2.338 255 255 255
0.0347574 -0.609338 2.884 255 255 255
1.36213 -0.53257 2.731 255 255 255
-0.890275 -0.279576 2.236 255 255 255
-1.03193 0.191218 1.953 255 255 255
-0.441617 0.488811 2.143 255 255 255
-0.96777 0.0253408 2.173 255 255 255
-0.226004 0.158848 2.857 255 255 255
0.463384 -1.01635 2.626 255 255 255
-0.693353 0.381943 2.32 255 255 255
-0.654533 -0.797646 2.303 255 255 255
0.241493 -0.257225 2.831 255 255 255
-0.401977 0.664578 1.744 255 255 255
0.61897 -0.249534 1.422 255 255 255
0.236017 0.707711 1.826 255 255 255
-0.179497 -0.780306 2.857 255 255 255
0.056393 -0.994628 2.793 255 255 255
0.355063 -0.737554 2.818 255 255 255
-0.131571 0.61614 1.991 255 255 255
0.270573 -1.00365 2.707 255 255 255
-0.0957517 0.596396 2.057 255 255 255
-0.959234 -0.460637 1.941 255 255 255
-0.800047 -0.452609 2.228 255 255 255
-0.390243 0.528243 2.092 255 255 255
0.308626 0.549726 2.22 255 255 255
0.797546 -0.479239 2.731 255 255 255
-0.772763 0.195422 2.719 255 255 255
-0.0689645 0.589701 2.057 255 255 255
-0.646826 0.242245 2.604 255 255 255
1.00239 -0.850535 2.479 255 255 255
0.694839 -0.40758 1.567 255 255 255
0.62501 0.420934 2.189 255 255 255
-0.957421 -0.223425 2.024 255 255 255
-1.05278 0.268131 2.03 255 255 255
0.827828 -0.0426523 2.967 255 255 255
-0.807867 0.273144 2.499 255 255 255
0.266167 -0.505864 2.707 255 255 255
-0.0388613 0.506568 2.253 255 255 255
0.725359 -0.89294 2.615 255 255 255
0.668764 0.264343 2.383 255 255 255
-0.66802 0.25072 2.604 255 255 255
0.225577 -0.638294 2.805 255 255 255
-0.254878 0.540258 2.099 255 255 255
0.90238 -0.570668 2.66 255 255 255
0.219286 -0.342006 2.967 255 255 255
-0.330809 0.687548 1.789 255 255 255
1.15936 -0.441589 2.54 255 255 255
-0.634669 -0.876455 2.793 255 255 255
-0.818282 -0.608467 1.929 255 255 255
-0.880926 -0.238471 1.748 255 255 255
0.604777 -0.254272 1.449 255 255 255
0.130818 0.648047 1.941 255 255 255
-0.102335 -0.48714 2.911 255 255 255
-0.45198 0.37199 2.402 255 255 255
-0.141294 0.61614 1.991 255 255 255
0.0357577 0.169792 2.967 255 255 255
0.378896 0.381911 2.519 255 255 255
0.309377 0.173909 0.659 0 0 0
0.417424 -0.99488 2.66 255 255 255
0.694056 -0.429073 1.571 255 255 255
-0.215387 -0.0861069 2.967 255 255 255
-0.782101 -0.00391342 2.884 255 255 255
-0.760153 -0.684653 2.228 255 255 255
0.465364 0.56902 2.143 255 255 255
-0.568028 0.248571 2.672 255 255 255
0.409474 0.126021 0.966 255 255 255
0.242362 0.677289 1.899 255 255 255
-0.786334 -0.212547 2.22 255 255 255
-0.955587 -0.188229 1.966 255 255 255
0.400388 0.543398 2.269 255 255 255
-0.178509 0.384819 2.459 255 255 255
-0.949416 0.393691 2.196 255 255 255
-0.357381 0.540258 2.099 255 255 255
-0.674921 -0.916392 2.55 255 255 255
0.861574 -0.548248 2.615 255 255 255
0.508214 0.568043 1.865 255 255 255
-0.683799 -0.673691 2.204 255 255 255
0.332923 0.64695 2.037 255 255 255
0.778975 -0.724786 2.638 255 255 255
-0.0758761 0.298161 2.649 255 255 255
-0.842478 -0.485238 2.017 255 255 255
-0.845022 0.063161 2.261 255 255 255
0.656835 -0.875357 2.719 255 255 255
-0.622485 0.0993373 2.884 255 255 255
0.648805 -0.120506 1.859 255 255 255
-0.816098 -0.418442 2.128 255 255 255
-0.939199 0.472388 2.071 255 255 255
-0.638013 0.295826 2.519 255 255 255
0.389394 0.340296 1.066 255 255 255
-0.638618 -0.738665 2.037 255 255 255
0.527323 -0.889184 2.604 255 255 255
0.82004 0.122097 2.196 255 255 255
0.721228 -0.551863 2.695 255 255 255
-0.890396 0.489022 2.099 255 255 255
-0.878146 -0.29374 2.261 255 255 255
-0.108832 0.476219 2.338 255 255 255
-0.0277241 0.324234 2.582 255 255 255
0.900265 -0.362091 2.719 255 255 255
0.415052 0.491278 2.374 255 255 255
-0.812308 0.512711 2.057 255 255 255
-0.394031 0.560479 2.024 255 255 255
-0.541237 0.674687 1.763 255 255 255
-0.8984 -0.540492 2.078 255 255 255
-0.685675 -0.647628 2.996 255 255 255
-0.771654 0.265409 2.582 255 255 255
1.16784 -0.503598 2.479 255 255 255
0.88506 -0.626941 2.66 255 255 255
0.266402 -0.922813 2.755 255 255 255
0.43981 0.548366 2.244 255 255 255
0.824553 0.107459 2.189 255 255 255
-0.947729 0.163334 2.128 255 255 255
-0.846152 0.377663 2.294 255 255 255
-0.916973 -0.172413 2.044 255 255 255
-0.87752 0.147188 2.572 255 255 255
-0.174247 -0.64656 2.925 255 255 255
-0.298191 0.66725 1.821 255 255 255
-0.857914 -0.438532 1.686 255 255 255
-0.997301 0.543327 1.917 255 255 255
0.316304 0.0931155 0.649 255 255 255
-0.847537 0.540817 1.953 255 255 255
0.58962 0.320881 2.695 255 255 255
-0.513347 0.490532 2.166 255 255 255
-0.613075 0.57575 1.997 255 255 255
-0.861355 -0.459389 1.682 255 255 255
-0.757803 -0.593631 2.356 255 255 255
0.807319 -0.693944 2.719 255 255 255
-0.825773 0.00413891 2.181 255 255 255
1.20409 -0.92072 2.43 255 255 255
-0.11531 0.699194 1.789 255 255 255
0.57061 0.440392 2.479 255 255 255
-0.0475201 -0.703132 2.755 255 255 255
0.205465 -0.700464 2.78 255 255 255
0.0134479 0.672138 1.876 255 255 255
0.776232 -0.894999 2.572 255 255 255
0.472694 -0.380335 2.755 255 255 255
-0.733508 0.240018 2.626 255 255 255
-0.120356 -1.02167 2.78 255 255 255
-1.03697 0.190801 2.051 255 255 255
0.663191 -0.652241 2.572 255 255 255
-0.920384 0.493228 1.966 255 255 255
-0.852605 0.624661 1.784 255 255 255
-0.053563 0.682161 1.87 255 255 255
0.0243479 -1.00374 2.768 255 255 255
0.31224 0.170982 0.656 0 0 0
-0.870437 -0.366959 2.151 255 255 255
-0.89906 -0.347307 2.204 255 255 255
0.429206 -0.924356 2.707 255 255 255
0.123396 0.215691 2.871 255 255 255
-0.891056 -0.634534 1.815 255 255 255
-0.636521 0.610982 1.848 255 255 255
0.469957 -1.00784 2.615 255 255 255
0.0998499 0.665907 1.893 255 255 255
0.536738 0.501195 1.935 255 255 255
0.315248 0.124222 0.63 255 255 255
0.857435 0.173861 2.173 255 255 255
-0.791982 0.566505 1.911 255 255 255
0.063072 0.661837 1.899 255 255 255
-0.748631 0.592323 1.865 255 255 255
-0.796908 0.0320851 2.151 255 255 255
0.414696 -0.898057 2.818 255 255 255
0.297245 0.705996 1.837 255 255 255
-0.883915 -0.699024 1.837 255 255 255
0.302764 0.589278 2.128 255 255 255
0.635842 -0.887547 2.743 255 255 255
-0.92518 -0.081042 2.181 255 255 255
-0.717788 -0.622103 2.469 255 255 255
0.296437 0.255424 0.694 255 255 255
-0.896422 -0.695379 1.935 255 255 255
0.195138 -0.390289 2.967 255 255 255
0.0795638 0.38601 2.519 255 255 255
0.809039 -0.492417 2.755 255 255 255
-0.793406 0.473133 2.151 255 255 255
1.12798 -0.963327 2.489 255 255 255
-0.628179 0.58849 1.953 255 255 255
-0.538571 0.287638 2.593 255 255 255
-0.84111 0.128371 2.615 255 255 255
-0.849626 0.405948 2.244 255 255 255
-0.96575 0.460156 2.092 0 0 0
-0.787139 0.0512059 2.818 255 255 255
-0.441893 0.222482 2.672 255 255 255
0.201844 -1.05699 2.731 255 255 255
0.82784 -0.610794 2.743 255 255 255
0.610446 -0.423656 2.898 255 255 255
0.472458 -0.392834 2.78 255 255 255
-0.860659 -0.435789 1.686 255 255 255
-0.0392506 -0.729587 2.805 255 255 255
-0.693087 -0.530132 2.051 255 255 255
-0.797176 -0.378366 2.261 255 255 255
0.572027 -0.162415 1.409 255 255 255
0.345089 0.700017 1.837 255 255 255
-0.789486 -0.491943 1.991 255 255 255
-0.873805 -0.394341 2.092 255 255 255
-0.87558 0.522022 1.966 255 255 255
0.697426 0.0152871 2.967 255 255 255
-0.833072 -0.0416604 2.898 255 255 255
0.780666 -0.358578 2.831 255 255 255
0.479482 0.523597 2.312 255 255 255
-0.702293 0.0148594 2.884 255 255 255
0.246319 0.683476 1.882 255 255 255
-0.921791 0.482367 2.085 255 255 255
0.170989 -0.158531 2.967 255 255 255
-0.782113 -0.655915 1.997 255 255 255
-0.840539 -0.375117 2.22 255 255 255
-0.992312 0.0756397 2.196 255 255 255
0.534628 -0.0773835 1.291 255 255 255
-0.540217 0.238612 2.707 255 255 255
0.773556 -0.901657 2.509 255 255 255
0.702818 -0.860764 2.743 255 255 255
0.43704 -0.702706 2.844 255 255 255
0.630618 -0.438144 2.593 255 255 255
-0.219526 0.608404 1.966 255 255 255
-0.0049968 0.654555 1.923 255 255 255
0.0647696 0.699325 1.859 255 255 255
-0.659869 -0.846353 2.196 255 255 255
-0.0660525 -0.894995 2.78 255 255 255
0.542876 -0.530309 2.967 255 255 255
-0.169405 0.604493 2.017 255 255 255
-0.82771 0.402297 2.244 255 255 255
-0.812955 0.00059593 2.204 255 255 255
-0.350877 0.450351 2.303 255 255 255
0.763806 -0.203338 2.365 255 255 255
0.371544 -0.00905243 0.814 255 255 255
-0.799501 0.46765 2.158 255 255 255
0.531911 -0.0873404 1.077 255 255 255
0.336828 0.265436 0.682 255 255 255
-0.912485 -0.318618 1.799 255 255 255
1.27927 -0.850797 2.54 255 255 255
0.615881 -0.22521 1.359 255 255 255
-0.994119 -0.407406 1.899 255 255 255
0.817023 0.666199 2.42 255 255 255
-0.815336 -0.612514 1.893 255 255 255
-0.357273 0.670199 1.805 255 255 255
-0.854441 0.542324 1.947 255 255 255
-0.955557 0.300048 2.244 255 255 255
-0.314008 0.569251 1.997 255 255 255
-0.548286 0.159835 2.793 255 255 255
-0.853621 0.370196 2.294 255 255 255
-0.690288 -0.811309 2.114 255 255 255
0.634382 -0.0278167 1.935 255 255 255
0.0245678 -0.949177 2.793 255 255 255
-0.464188 0.643543 1.821 255 255 255
0.757889 0.103195 2.996 255 255 255
-0.991745 0.384036 2.356 255 255 255
0.616201 -0.860047 2.755 255 255 255
-0.50277 0.276607 2.649 255 255 255
0.0537861 0.478456 2.294 255 255 255
1.2135 -0.840242 2.449 255 255 255
-0.353909 0.335493 2.54 255 255 255
0.865251 0.141577 2.166 255 255 255
-0.97555 0.568603 1.887 255 255 255
0.132503 0.640397 1.966 255 255 255
-0.889187 -0.0141062 2.261 255 255 255
-0.969435 0.322928 2.303 255 255 255
-0.873624 -0.340433 2.278 255 255 255
0.614194 -0.210689 1.563 255 255 255
-0.442405 0.667052 1.758 255 255 255
0.965259 -0.938045 2.519 255 255 255
-0.965368 -0.455724 1.947 255 255 255
-0.91495 0.272886 2.261 255 255 255
0.316385 0.452495 2.479 255 255 255
-0.739621 -0.740446 2.695 255 255 255
0.289665 -0.4661 2.898 255 255 255
-0.902681 -0.484899 1.876 255 255 255
0.442244 0.639746 1.935 255 255 255
-0.741501 0.668947 1.748 255 255 255
0.608891 0.533262 2.085 255 255 255
0.20188 0.264373 2.793 255 255 255
-0.657426 0.180077 2.755 255 255 255
0.595023 0.212518 2.004 255 255 255
-0.622368 -0.93943 2.626 255 255 255
0.562386 -0.5776 2.755 255 255 255
0.761286 -0.380879 1.616 255 255 255
0.0145496 0.321212 2.626 255 255 255
0.108424 0.549372 2.121 255 255 255
0.464692 0.491088 2.411 255 255 255
-0.877936 0.24658 2.561 255 255 255
-0.470665 0.558419 1.959 255 255 255
0.51735 -0.100128 1.102 255 255 255
-0.904418 -0.3317 2.244 255 255 255
0.652861 0.336958 2.649 255 255 255
1.28701 -0.472265 2.572 255 255 255
0.248407 -0.583518 2.805 255 255 255
0.0118735 0.548096 2.143 255 255 255
0.15803 -0.433107 2.996 255 255 255
-0.894915 0.615275 1.799 255 255 255
-0.846619 0.431621 2.189 255 255 255
0.0251978 0.701922 1.842 255 255 255
0.46224 0.580653 2.037 255 255 255
-0.243104 0.672944 1.853 255 255 255
-0.837569 -0.59944 2.037 255 255 255
0.371131 0.485567 2.365 255 255 255
-0.575539 -0.923784 2.884 255 255 255
0.494579 0.213247 2.967 255 255 255
0.562308 0.358512 2.649 255 255 255
0.572027 -0.164708 1.409 255 255 255
0.870634 -0.826861 2.53 255 255 255
-0.0273285 0.639341 1.953 255 255 255
-1.00321 0.0754618 2.092 255 255 255
0.501992 0.435812 2.499 255 255 255
-0.474563 0.483482 2.166 255 255 255
-0.800301 0.220567 2.649 255 255 255
-0.450067 0.603121 1.899 255 255 255
0.523719 0.539407 2.044 255 255 255
-0.973184 -0.0480979 2.303 255 255 255
-0.755728 0.668947 1.748 255 255 255
-0.421323 0.576321 1.923 255 255 255
0.147806 0.589522 2.092 255 255 255
1.04944 -0.763344 2.42 255 255 255
-0.670965 -0.853233 2.719 255 255 255
0.579905 0.0634464 1.842 255 255 255
0.0502457 0.534146 2.143 255 255 255
-0.234964 0.617704 1.935 255 255 255
-0.979582 0.223747 2.078 255 255 255
1.1547 -0.726064 2.338 255 255 255
0.702763 -0.683028 2.626 255 255 255
0.698177 -0.168518 2.078 255 255 255
-0.363376 0.530358 2.114 255 255 255
-0.078415 0.658975 1.882 255 255 255
0.623533 -0.69923 2.53 255 255 255
0.627926 -0.318436 1.719 255 255 255
0.318006 0.530444 2.261 255 255 255
-0.664454 -0.757541 2.365 255 255 255
0.798034 -0.22727 2.982 255 255 255
0.290843 0.234638 2.818 255 255 255
0.155023 -0.286168 2.939 255 255 255
0.483555 0.527018 2.278 255 255 255
0.754058 -0.554827 2.626 255 255 255
0.076419 0.707216 1.848 255 255 255
0.735634 -0.91345 2.519 255 255 255
-0.637332 0.487244 2.121 255 255 255
1.13658 -0.82893 2.499 255 255 255
-0.799676 -0.314179 2.449 255 255 255
0.619565 -0.271678 1.52 255 255 255
-0.48098 0.603121 1.899 255 255 255
0.316574 0.135784 0.672 255 255 255
-0.700639 0.243269 2.615 255 255 255
-0.119393 -0.896942 2.982 255 255 255
0.187364 -0.682368 2.78 255 255 255
-0.17318 0.611053 1.985 255 255 255
0.845133 -0.904531 2.54 255 255 255
0.744971 -0.352346 2.818 255 255 255
-0.675364 -0.801764 2.755 255 255 255
0.309744 0.0702228 0.615 255 255 255
0.299883 0.188349 0.657 255 255 255
-0.433423 0.101232 2.939 255 255 255
0.625344 -0.00586708 1.966 255 255 255
-0.166357 0.178315 2.871 255 255 255
-0.799423 -0.524754 2.604 255 255 255
0.179147 -0.485574 2.793 255 255 255
0.624739 -0.149286 1.673 255 255 255
0.639894 -0.401882 2.78 255 255 255
0.408647 0.590942 2.085 255 255 255
0.565605 0.4692 2.44 255 255 255
-0.938477 -0.187995 1.899 255 255 255
-0.66144 -0.446135 1.842 255 255 255
0.262105 -0.236604 2.805 255 255 255
-0.867072 -0.342934 2.32 255 255 255
1.12696 -0.453352 2.469 255 255 255
0.0520693 -0.985207 2.805 255 255 255
-0.697788 0.17111 2.755 255 255 255
0.742908 0.0189357 2.793 255 255 255
0.645701 -0.0490033 2.03 255 255 255
0.495895 0.585496 1.853 255 255 255
-0.933185 0.499627 1.966 255 255 255
-1.01616 0.361047 1.978 255 255 255
-0.616624 -0.990945 2.638 255 255 255
0.823375 -0.115316 2.743 255 255 255
-0.772361 -0.454429 1.997 255 255 255
0.30463 0.258438 0.687 0 0 0
1.06353 -0.819998 2.509 255 255 255
0.0903069 0.297191 2.719 255 255 255
0.366973 0.605158 2.099 255 255 255
0.0407926 -0.130216 2.982 255 255 255
-0.799851 -0.616037 1.953 255 255 255
0.279856 -0.927296 2.755 255 255 255
0.638259 -0.240518 1.763 255 255 255
0.278804 0.170488 0.684 255 255 255
-0.672144 -0.687891 2.312 255 255 255
0.227513 -1.01252 2.719 255 255 255
0.291389 0.20271 0.662 255 255 255
0.649831 -0.625422 2.672 255 255 255
-0.858938 -0.322437 2.392 255 255 255
0.961237 -0.84333 2.53 255 255 255
1.2771 -0.304082 2.638 255 255 255
0.31105 0.174715 0.658 0 0 0
-0.0306535 0.363744 2.479 255 255 255
-0.872022 0.194806 2.593 255 255 255
-0.767283 -0.630343 2.731 255 255 255
0.330021 0.266214 0.684 255 255 255
-0.808362 -0.700926 1.842 255 255 255
0.601411 0.37024 2.143 255 255 255
0.852374 -0.627475 2.626 255 255 255
-0.179617 0.398406 2.42 255 255 255
-1.00322 0.41705 2.064 255 255 255
-0.629506 -0.913673 2.638 255 255 255
0.541166 -0.954493 2.53 255 255 255
0.379742 -0.731742 2.831 255 255 255
0.501896 0.536636 2.196 255 255 255
-0.884118 -0.126402 2.44 255 255 255
-0.741202 0.448925 2.204 255 255 255
-0.891527 -0.17402 2.024 255 255 255
-0.721645 0.0836909 2.831 255 255 255
0.317671 0.137435 0.639 255 255 255
-0.803056 0.028186 2.121 255 255 255
-0.261719 0.381413 2.489 255 255 255
0.0536284 0.668988 1.893 255 255 255
-0.966878 0.297909 2.228 255 255 255
0.115838 0.700083 1.853 255 255 255
1.09617 -0.7077 2.303 255 255 255
0.499917 -0.950653 2.509 255 255 255
-0.0063142 0.384235 2.43 255 255 255
0.384805 0.682609 1.799 255 255 255
0.528339 0.509791 2.158 255 255 255
0.569191 0.119063 1.917 255 255 255
0.346672 0.684849 1.929 255 255 255
-0.98015 -0.029283 2.037 255 255 255
0.58818 0.341269 2.649 255 255 255
0.993514 -0.641592 2.649 255 255 255
0.278013 0.42343 2.572 255 255 255
0.309664 0.000169532 0.627 255 255 255
0.258315 0.642821 2.024 255 255 255
-0.611937 0.16438 2.793 255 255 255
-0.704199 -0.768609 2.064 255 255 255
-0.272255 0.485389 2.128 255 255 255
0.799782 0.584532 2.392 255 255 255
1.16762 -0.889364 2.42 255 255 255
-0.577411 -0.904043 2.78 255 255 255
0.101215 0.476934 2.269 255 255 255
0.316252 0.680682 1.935 255 255 255
-0.0298501 -0.976427 2.78 255 255 255
-0.736603 -0.704661 1.997 255 255 255
0.279869 0.64032 2.037 255 255 255
0.90224 -0.847675 2.459 255 255 255
-0.818464 -0.361243 2.269 255 255 255
-0.0360842 0.579309 2.092 255 255 255
-0.00478632 0.689932 1.842 255 255 255
0.831879 -0.650069 2.684 255 255 255
0.424656 -0.467393 2.793 255 255 255
0.537988 0.468852 2.459 255 255 255
1.09181 -0.828471 2.392 255 255 255
0.591165 -0.2271 1.384 0 0 0
-1.01006 0.43985 1.985 255 255 255
0.378903 0.653727 2.017 255 255 255
-0.712011 0.494314 2.107 255 255 255
-0.106443 0.682081 1.837 255 255 255
-0.949701 0.610335 1.837 255 255 255
-0.897092 -0.251299 1.719 255 255 255
0.605083 0.442138 2.261 255 255 255
-0.784804 -0.268512 2.626 255 255 255
0.769593 0.801579 2.55 255 255 255
0.42698 0.645167 1.923 255 255 255
0.145607 0.704209 1.848 255 255 255
-0.262439 -0.917052 2.953 255 255 255
-0.838299 -0.337026 2.805 255 255 255
0.608967 -0.259738 1.494 255 255 255
-0.474589 0.427865 2.303 255 255 255
0.666919 -0.148004 2.857 255 255 255
-0.165919 0.453391 2.338 255 255 255
-0.230469 0.571555 2.064 255 255 255
0.431047 -0.423755 2.805 255 255 255
0.817691 -0.0587058 2.143 255 255 255
0.323637 -0.0146555 0.651 255 255 255
-0.656239 -0.761673 2.22 255 255 255
0.620612 -0.00256869 1.893 255 255 255
1.28361 -0.390066 2.582 255 255 255
-0.910938 -0.146868 2.107 255 255 255
0.636228 -0.326859 1.734 255 255 255
0.100101 0.459226 2.329 255 255 255
0.179616 0.276281 2.731 255 255 255
-0.764051 -0.371007 2.261 255 255 255
0.125705 -0.957673 2.818 255 255 255
-0.285307 0.563772 2.024 255 255 255
-0.151227 0.518773 2.181 255 255 255
-0.182537 0.430044 2.356 255 255 255
-0.967127 -0.165884 1.859 255 255 255
-1.01733 0.0756397 2.196 255 255 255
0.646435 -0.229257 1.81 255 255 255
0.134592 -0.885061 2.911 255 255 255
0.362196 0.686165 1.848 255 255 255
-0.807726 -0.433697 2.037 255 255 255
-0.886961 -0.336674 2.303 255 255 255
0.374645 -0.849184 2.793 255 255 255
0.0872068 0.176062 2.911 255 255 255
-0.736299 0.632014 1.805 255 255 255
-0.964822 0.00376696 1.985 255 255 255
0.610158 -0.400041 2.831 255 255 255
-0.700906 0.408371 2.32 255 255 255
0.378495 0.352277 2.572 255 255 255
-0.964875 0.188897 2.143 255 255 255
0.439461 0.537802 2.261 255 255 255
0.0809384 -0.631529 2.857 255 255 255
0.308917 0.223269 0.672 0 0 0
-0.903289 0.397271 2.278 255 255 255
-0.332688 0.622223 1.882 255 255 255
0.827423 -0.942797 2.499 255 255 255
0.305519 0.24916 0.732 255 255 255
0.386932 0.341389 1.064 255 255 255
-0.811897 -0.260625 2.261 255 255 255
0.0834168 0.685204 1.87 255 255 255
0.167037 -1.02546 2.672 255 255 255
-0.363514 0.612392 1.899 255 255 255
0.721831 -0.479021 1.646 255 255 255
0.238931 0.459368 2.43 255 255 255
0.409529 0.583463 2.107 255 255 255
-0.760317 -0.459543 1.991 255 255 255
1.10029 -0.820208 2.402 255 255 255
0.702763 -0.892423 2.626 255 255 255
-0.91223 -0.107286 2.071 255 255 255
0.632213 -0.300124 1.664 255 255 255
0.431842 -0.555199 2.871 255 255 255
0.619071 -0.0607577 1.71 255 255 255
-0.246918 0.663022 1.859 255 255 255
-0.885966 -0.591719 1.758 255 255 255
0.472694 -0.886947 2.755 255 255 255
-0.748557 -0.715444 2.604 255 255 255
0.601338 0.397994 2.22 255 255 255
0.267659 -0.999239 2.768 255 255 255
-0.673927 0.187396 2.731 255 255 255
-0.852328 -0.488521 2.017 255 255 255
-0.927769 -0.177313 2.024 255 255 255
0.551162 0.272986 2.884 255 255 255
0.361309 -0.662638 2.831 255 255 255
-0.699391 0.0149986 2.911 255 255 255
-0.142714 0.674944 1.842 255 255 255
0.122895 -1.02593 2.755 255 255 255
0.483335 -0.443531 2.844 255 255 255
-0.0159874 -1.03032 2.731 255 255 255
-0.926904 0.103581 1.81 255 255 255
-0.770246 -0.669048 2.017 255 255 255
-0.769413 -0.69416 2.925 255 255 255
0.824779 -0.758838 2.593 255 255 255
0.12459 -0.881 2.793 255 255 255
0.375727 -0.416525 2.982 255 255 255
-0.983518 0.373094 2.044 255 255 255
-0.950163 0.537311 1.929 255 255 255
0.306091 0.194343 0.652 0 0 0
-0.505185 -1.0514 2.939 255 255 255
-0.532671 0.621682 1.853 255 255 255
0.566732 0.483241 2.411 255 255 255
-0.303374 0.679681 1.799 255 255 255
-0.520481 0.208696 2.719 255 255 255
-0.883446 -0.230595 1.753 255 255 255
-0.431136 0.585164 1.911 255 255 255
0.978073 -0.866117 2.489 255 255 255
-0.833309 -0.189692 2.051 255 255 255
-0.978938 -0.160779 1.87 255 255 255
0.400004 -0.665681 2.844 255 255 255
-0.121627 0.651513 1.887 255 255 255
-0.593751 0.159835 2.793 255 255 255
0.638219 -0.161818 2.939 255 255 255
-0.883915 -0.633257 1.837 255 255 255
0.313747 0.099142 0.627 255 255 255
-0.774449 0.303891 2.42 255 255 255
-0.780292 -0.602024 2.684 255 255 255
0.209991 -0.614509 2.78 255 255 255
0.320157 0.158422 0.644 255 255 255
-0.438509 0.626345 1.876 255 255 255
0.219041 -0.587365 2.78 255 255 255
0.827746 -0.0449234 2.151 255 255 255
0.311116 0.147578 0.647 255 255 255
0.646143 0.311555 2.768 255 255 255
-0.778426 0.282403 2.509 255 255 255
-0.0660525 -0.926663 2.78 255 255 255
0.398176 -0.763991 2.831 255 255 255
0.150098 0.670128 1.905 255 255 255
0.327968 0.292053 2.672 255 255 255
0.547633 0.490635 2.151 255 255 255
-0.93737 -0.147474 1.935 255 255 255
-0.695281 0.546079 1.972 255 255 255
0.311216 0.232642 0.677 0 0 0
0.64907 -0.206791 1.769 255 255 255
0.800093 0.213748 2.22 255 255 255
-1.00331 0.528105 1.953 255 255 255
-0.68268 -0.672537 2.212 255 255 255
0.784361 0.131166 2.967 255 255 255
0.81944 0.233727 2.204 255 255 255
0.367123 0.238121 2.805 255 255 255
-0.284433 -0.819299 2.982 255 255 255
-0.699567 -0.461394 1.905 255 255 255
-0.799851 -0.619216 1.953 255 255 255
-0.723239 0.323581 2.42 255 255 255
0.813139 0.353559 2.236 255 255 255
0.627806 -0.148579 1.696 0 0 0
-0.365235 0.24532 2.684 255 255 255
-0.182874 0.607823 1.985 255 255 255
0.00548852 0.395443 2.402 255 255 255
-1.03191 0.191806 1.959 255 255 255
0.0969278 0.40964 2.44 255 255 255
0.265749 0.218291 2.844 255 255 255
-0.568906 -0.94869 2.805 255 255 255
0.726268 -0.260859 2.871 255 255 255
0.661509 -0.624846 2.615 255 255 255
0.253922 0.68131 1.893 255 255 255
-0.703308 0.584874 1.941 255 255 255
0.224474 0.421917 2.489 255 255 255
-0.308175 0.675001 1.81 255 255 255
0.268936 -0.387409 2.982 255 255 255
-0.887861 0.62291 1.779 255 255 255
0.458597 -0.65275 2.953 255 255 255
-0.971978 0.0145831 2.151 255 255 255
0.296505 0.205008 0.659 255 255 255
-0.945321 -0.395384 1.978 255 255 255
0.925043 -0.648841 2.626 255 255 255
0.551966 -0.995361 2.561 255 255 255
1.02984 -0.842898 2.411 255 255 255
-0.653995 0.338024 2.383 255 255 255
-0.939243 0.132106 1.972 255 255 255
0.396706 0.658261 1.991 255 255 255
-0.864067 0.321294 2.374 255 255 255
-0.14596 0.361414 2.519 255 255 255
0.134257 0.242685 2.805 255 255 255
0.618218 -0.115732 1.7 0 0 0
0.5626 0.491903 2.253 255 255 255
-0.712787 0.575398 1.941 255 255 255
-0.684041 -0.775326 2.064 255 255 255
0.125268 0.645697 1.953 255 255 255
1.20952 -0.939875 2.449 255 255 255
-0.9531 -0.345081 1.815 255 255 255
-0.754596 -0.452881 2.064 255 255 255
-0.809481 -0.486706 2.582 255 255 255
0.355335 0.620676 2.071 255 255 255
0.802304 0.331622 2.365 255 255 255
0.663539 -0.480617 1.739 255 255 255
-0.870811 -0.150128 2.898 255 255 255
0.272995 0.394798 2.604 255 255 255
-0.799421 0.656064 1.744 255 255 255
0.766427 -0.652564 2.731 255 255 255
-0.817612 -0.398488 2.114 255 255 255
0.141803 0.474386 2.329 255 255 255
0.228946 -0.399945 2.967 255 255 255
0.677458 -0.228004 1.978 255 255 255
-0.296288 0.643918 1.865 255 255 255
-0.665036 -0.839222 2.731 255 255 255
-0.0939755 0.562287 2.092 255 255 255
-0.932962 0.0818465 2.269 255 255 255
0.313707 0.201586 0.648 255 255 255
0.270887 -0.676232 2.755 255 255 255
0.373327 -0.0117161 0.815 255 255 255
0.527812 -0.671768 2.649 255 255 255
-0.920327 -0.294573 2.212 255 255 255
0.291639 -0.204794 2.871 255 255 255
0.523042 -0.121594 1.118 255 255 255
-0.66943 0.665155 1.753 255 255 255
0.309989 0.552937 2.204 255 255 255
-0.942571 -0.0938056 2.071 255 255 255
