ply
format ascii 1.0
comment Created by Open3D
element vertex 1323
property double x
property double y
property double z
property uchar red
property uchar green
property uchar blue
end_header
-0.289657 0.0571277 0.874 255 255 255
-0.474563 -0.6797 2.166 255 255 255
-0.343597 0.201655 0.684 0 0 0
-0.814555 -0.623016 2.228 255 255 255
0.148957 -0.423067 1.972 255 255 255
-0.679061 -0.718472 2.166 255 255 255
0.471062 0.00380302 2.004 255 255 255
0.662562 0.029415 1.972 255 255 255
-0.162733 0.101147 0.984 255 255 255
0.429026 0.25255 0.957 255 255 255
0.127643 0.242975 1.62 255 255 255
-0.0437177 -0.0633987 0.85 255 255 255
-0.330328 0.250257 0.643 255 255 255
-0.353713 0.0199664 0.809 255 255 255
0.0439516 0.222767 1.646 0 0 0
-0.197998 0.17862 0.884 255 255 255
0.317861 -0.260814 1.225 255 255 255
-0.20034 0.20255 0.888 255 255 255
0.558935 -0.128189 1.128 255 255 255
0.0488407 0.367989 1.724 255 255 255
-0.246174 -0.0523072 0.897 255 255 255
-0.0760191 0.000249566 0.923 255 255 255
-0.686672 -0.359194 2.43 255 255 255
-0.103652 0.277718 0.942 255 255 255
-0.648237 -0.799476 2.057 255 255 255
0.647543 0.0457602 1.985 255 255 255
0.351901 -0.334993 1.205 255 255 255
0.450628 -0.507356 1.322 0 0 0
0.458468 -0.494295 1.345 0 0 0
0.512431 0.288346 1.805 255 255 255
-0.0694771 0.142132 1.002 0 0 0
-0.308901 -0.0628355 0.923 255 255 255
-0.273207 0.265918 0.689 255 255 255
-0.0097109 0.260498 1.066 255 255 255
-0.160149 0.323344 0.978 0 0 0
-0.235453 0.014618 0.98 255 255 255
0.257179 0.000373402 1.381 255 255 255
-0.224 0.178998 0.826 255 255 255
0.543798 -0.406199 1.308 0 0 0
-0.328384 -0.0218637 2.303 255 255 255
-0.0125452 -0.320258 2.143 255 255 255
0.204957 0.0881979 1.739 255 255 255
-0.604338 -0.226502 2.449 0 0 0
0.0651453 0.359435 1.71 255 255 255
-0.164056 0.158471 0.992 0 0 0
-0.37182 0.0508528 0.778 255 255 255
-0.355281 0.180779 0.828 255 255 255
0.165922 0.507499 1.535 255 255 255
0.155377 -0.416649 1.972 255 255 255
0.636403 0.284036 1.815 255 255 255
-0.804472 -0.659562 2.181 255 255 255
0.0330334 -0.10477 2.158 255 255 255
-0.447488 -0.0899228 2.42 0 0 0
0.422384 0.197896 1.012 0 0 0
0.187287 0.380921 1.682 255 255 255
0.484872 -0.214955 1.26 255 255 255
0.237257 -0.507732 1.859 255 255 255
-0.330392 0.127648 0.791 255 255 255
-0.234592 0.219681 0.798 255 255 255
0.497178 -0.214955 1.26 255 255 255
0.305076 -0.446191 1.624 255 255 255
0.165574 0.527927 1.487 255 255 255
0.310896 -0.265666 1.229 255 255 255
0.230983 0.103641 1.442 255 255 255
-0.388307 -0.00109505 0.807 255 255 255
0.175373 0.179839 1.575 255 255 255
0.456373 0.18913 1.018 255 255 255
0.339097 -0.168758 1.237 255 255 255
0.550185 -0.435998 1.308 0 0 0
-0.727664 -0.689919 2.143 255 255 255
-0.670644 -0.734939 2.173 255 255 255
-1.03135 -0.368153 2.158 0 0 0
0.401295 0.315409 0.905 255 255 255
0.186913 -0.541167 1.87 255 255 255
-0.612311 -0.134839 2.449 0 0 0
0.213158 -0.346049 1.972 255 255 255
0.401414 0.23239 0.977 255 255 255
-0.392692 0.0569233 0.792 0 0 0
-0.194728 0.223843 0.916 255 255 255
0.205499 -0.193927 1.27 255 255 255
-0.0106838 0.111993 0.995 0 0 0
-1.13946 -0.359969 2.261 0 0 0
-0.0546882 0.265525 1 255 255 255
-0.0918256 -0.399808 2.121 255 255 255
0.0879819 0.24746 1.668 255 255 255
-0.0849794 0.29517 0.939 255 255 255
0.244587 -0.103468 1.302 255 255 255
-0.275888 -0.0455876 0.88 255 255 255
-0.283532 -0.716118 1.966 255 255 255
-0.254121 0.29268 0.752 255 255 255
0.218037 0.326277 0.954 0 0 0
0.00476186 0.455835 1.217 255 255 255
0.0706778 -0.28685 2.128 255 255 255
-0.263859 0.269032 0.706 0 0 0
-0.0368658 -0.612859 1.953 255 255 255
0.831856 -0.0300214 1.876 255 255 255
-0.286355 0.125288 0.904 255 255 255
-0.753103 -0.771344 2.166 255 255 255
0.249129 0.118537 1.452 255 255 255
0.609813 0.295851 1.815 255 255 255
0.462015 -0.430345 1.33 0 0 0
-0.266911 0.250208 0.708 255 255 255
0.531773 0.132296 2.024 255 255 255
-0.0594499 -0.0354825 0.878 0 0 0
0.110509 0.569402 1.463 255 255 255
-0.158603 0.210344 1.041 255 255 255
0.466578 -0.55961 1.452 255 255 255
0.109094 -0.569387 1.893 255 255 255
-0.25825 0.0752889 0.941 255 255 255
-0.488998 -0.693926 2.092 255 255 255
0.390409 -0.277249 1.273 255 255 255
-0.521351 -0.455352 2.278 255 255 255
-0.263859 0.267883 0.706 0 0 0
-0.375619 0.0293298 0.778 255 255 255
-1.10428 -0.454775 2.136 255 255 255
0.553969 -0.160982 1.18 255 255 255
0.270212 0.378722 1.637 0 0 0
0.0486512 0.436498 1.624 255 255 255
0.0984183 0.153654 1.81 255 255 255
0.85897 0.362866 1.7 255 255 255
0.554858 -0.295595 1.299 255 255 255
-0.350332 0.131264 0.767 255 255 255
0.549635 -0.0966393 1.124 255 255 255
-0.152195 0.31985 0.958 0 0 0
-0.230902 0.0114401 0.981 255 255 255
-0.0649062 0.223138 1.007 0 0 0
-0.18897 0.136044 0.917 255 255 255
-0.296508 0.0376769 0.822 255 255 255
-0.0594974 0.0618993 0.947 0 0 0
-0.0278797 0.0242293 0.921 255 255 255
-0.931273 -0.550582 2.32 0 0 0
0.485987 0.285409 1.805 255 255 255
-0.272418 -0.026358 0.86 0 0 0
-0.830309 -0.730131 2.212 255 255 255
-0.0968357 -0.53916 2.01 255 255 255
0.196108 -0.572032 1.842 255 255 255
-0.252123 0.0798829 0.941 255 255 255
0.558925 -0.0294515 1.143 255 255 255
0.0108928 -0.508162 1.966 255 255 255
0.46712 0.223581 1.009 255 255 255
-0.218666 0.307976 0.892 255 255 255
-0.0153709 0.109154 0.984 0 0 0
0.528324 -0.279068 1.291 255 255 255
0.781385 0.0223555 1.917 255 255 255
-1.01829 -0.378375 2.329 0 0 0
-0.0212172 0.347836 1.124 255 255 255
0.29829 -0.387925 1.473 0 0 0
-1.03269 -0.412936 2.269 255 255 255
-0.446643 -0.479885 2.22 255 255 255
-0.376492 0.0982 0.772 0 0 0
0.223945 -0.0536791 1.384 0 0 0
0.560814 -0.022353 2.01 255 255 255
0.639916 -0.419314 1.283 0 0 0
-1.01071 -0.427646 2.329 255 255 255
0.439995 -0.369012 1.297 255 255 255
0.408539 -0.289573 1.291 255 255 255
0.0595782 0.390045 1.71 255 255 255
-0.88339 -0.53249 2.374 255 255 255
0.256782 0.0764247 1.416 255 255 255
-0.958558 -0.549953 2.286 0 0 0
-0.194257 0.170136 0.9 255 255 255
-0.926383 -0.681336 2.253 255 255 255
0.363629 -0.641359 1.7 255 255 255
-0.881809 -0.571668 2.329 255 255 255
0.0148457 -0.363421 2.071 255 255 255
-0.923836 -0.340819 2.44 0 0 0
-0.296 0.250269 0.677 255 255 255
-0.33712 0.190096 0.703 0 0 0
0.878788 -0.0176486 1.859 255 255 255
0.59275 -0.247076 1.267 255 255 255
0.429628 -0.561469 1.463 255 255 255
-0.329603 0.0659607 0.777 255 255 255
-0.177516 0.0533756 0.96 255 255 255
-0.318854 0.148302 0.892 255 255 255
-0.406446 0.118607 0.774 255 255 255
-0.2028 -0.72632 1.959 255 255 255
-0.352116 -0.0272162 0.888 255 255 255
0.300337 -0.43973 1.734 255 255 255
0.0206568 0.162239 1.714 255 255 255
0.261568 -0.671823 1.758 255 255 255
0.421586 0.285392 0.937 255 255 255
-0.0519489 0.390763 1.116 255 255 255
0.462963 -0.179034 1.198 255 255 255
0.350131 -0.612909 1.729 255 255 255
-0.0445921 -0.115459 0.867 255 255 255
-0.2684 0.0216468 0.939 255 255 255
0.191268 -0.00268403 1.978 255 255 255
0.167115 -0.572433 1.853 255 255 255
-0.619083 -0.224275 2.383 255 255 255
0.427691 0.244222 0.961 255 255 255
-0.431135 -0.0869136 0.85 0 0 0
-0.893981 -0.50928 2.392 255 255 255
-0.949953 -0.818719 2.189 255 255 255
-0.00931007 0.196526 1.022 255 255 255
-0.0639255 -0.521245 2.004 255 255 255
-0.31804 0.233744 0.677 255 255 255
0.0137418 -0.610921 1.917 255 255 255
0.491945 -0.0964129 1.143 255 255 255
-0.582484 -0.345792 2.392 255 255 255
0.278383 0.259104 0.964 255 255 255
0.492483 0.244516 0.981 255 255 255
0.264195 -0.155782 2.044 255 255 255
0.387734 0.275677 1.799 0 0 0
-0.679853 -0.434256 2.365 255 255 255
0.0808031 -0.289358 2.121 255 255 255
-1.11123 -0.447823 2.136 255 255 255
0.22834 -0.332235 1.911 255 255 255
0.243498 0.273593 0.988 255 255 255
-0.0437265 0.199149 1.01 255 255 255
-0.305684 0.0891207 0.867 255 255 255
-0.383293 0.10644 0.768 0 0 0
0.240536 0.339671 0.927 255 255 255
0.0615442 -0.638772 1.853 255 255 255
-0.279417 -0.029157 0.86 255 255 255
-1.00325 -0.711962 2.085 255 255 255
-0.253045 -0.714561 1.953 255 255 255
-0.245493 0.252445 0.775 255 255 255
0.180102 -0.00595959 1.997 255 255 255
-1.05769 -0.499877 2.092 255 255 255
-0.335955 0.158875 0.78 255 255 255
-0.0907446 -0.0896473 0.863 255 255 255
-0.21113 0.302846 0.916 255 255 255
0.0914908 0.0239181 2.051 255 255 255
-0.327595 0.15476 0.833 255 255 255
0.0435869 -0.662017 1.859 255 255 255
-0.00261663 0.157589 1.007 255 255 255
0.539719 -0.213931 1.254 255 255 255
0.385801 0.296698 0.939 255 255 255
-0.3873 0.104346 0.771 0 0 0
0.486554 0.233433 0.995 255 255 255
0.517319 0.208102 1.876 0 0 0
-0.191746 0.113536 0.916 255 255 255
0.628613 0.26586 1.853 255 255 255
0.0877976 0.162145 1.774 255 255 255
-0.317917 0.0827002 0.792 255 255 255
-0.296573 0.167403 0.849 255 255 255
-0.0516383 0.188163 1.004 255 255 255
-0.0454604 0.247302 1.012 255 255 255
0.612 -0.0640682 1.985 255 255 255
0.00979896 0.293982 1.114 0 0 0
0.550729 -0.369774 1.362 0 0 0
-0.366601 0.0670521 0.775 0 0 0
0.661384 0.0547246 1.959 255 255 255
-0.0630785 0.230643 1.004 0 0 0
0.466712 -0.115214 1.145 255 255 255
-0.601235 -0.115851 2.469 0 0 0
0.00996752 0.114661 1.799 255 255 255
-0.209671 0.261531 0.897 255 255 255
-0.0406374 -0.0423837 0.873 0 0 0
0.464268 0.0366509 2.017 255 255 255
-0.681848 -0.533212 2.294 255 255 255
-0.0849316 0.368331 0.992 255 255 255
-0.508504 -0.2368 2.392 255 255 255
0.412465 0.355732 1.719 255 255 255
-1.04287 -0.610594 2.03 255 255 255
0.463793 -0.122882 1.147 255 255 255
0.0335063 0.109169 1.805 255 255 255
-0.385937 -0.0848274 0.886 255 255 255
0.177024 0.188613 1.502 255 255 255
-0.810226 -0.389066 2.469 255 255 255
0.130052 -0.239265 2.136 255 255 255
0.171693 0.1131 1.87 255 255 255
-1.02161 -0.531093 2.269 255 255 255
0.575613 -0.168014 1.189 255 255 255
-0.279615 0.13736 0.906 255 255 255
-0.0398301 0.0316887 0.92 255 255 255
-0.00754919 0.129989 1.009 255 255 255
0.491319 -0.48996 1.31 255 255 255
0.879453 0.114492 1.893 255 255 255
-0.381777 -0.375109 2.286 255 255 255
0.496765 -0.0996073 1.137 255 255 255
0.255263 0.523475 1.502 255 255 255
0.469565 -0.13654 1.152 255 255 255
-0.486933 -0.102578 2.44 0 0 0
0.456423 -0.474658 1.339 0 0 0
0.294504 -0.424788 1.528 255 255 255
-0.0747414 0.147757 1.007 255 255 255
-0.710222 -0.689919 2.143 255 255 255
0.508422 -0.0989941 1.13 255 255 255
0.547661 -0.408573 1.302 0 0 0
0.126045 -0.667243 1.784 255 255 255
0.934103 0.0720064 1.831 0 0 0
-0.037016 -0.091599 0.855 0 0 0
0.355437 -0.240077 1.252 255 255 255
-0.266347 0.154492 0.854 255 255 255
-0.958816 -0.597557 2.269 0 0 0
0.0989829 0.531868 1.505 255 255 255
-0.0274509 -0.158357 2.22 255 255 255
0.401563 -0.0915331 1.201 255 255 255
-0.196199 0.117106 0.909 255 255 255
-0.120685 -0.320258 2.143 255 255 255
0.315093 -0.130917 1.222 255 255 255
0.491794 0.257535 0.964 255 255 255
0.327234 0.256466 0.96 255 255 255
-0.391932 -0.0660873 0.849 255 255 255
0.0111745 0.22533 1.072 0 0 0
-0.413093 -0.519159 2.158 255 255 255
-0.279154 0.0558849 0.924 255 255 255
-0.204058 0.122995 0.898 255 255 255
-0.718263 -0.550295 2.303 255 255 255
-0.151861 0.22819 1.053 255 255 255
-0.15569 0.311247 0.98 0 0 0
0.314169 0.342893 0.896 255 255 255
0.488191 0.261153 0.96 255 255 255
0.301968 -0.43451 1.794 255 255 255
-0.249116 0.265561 0.748 255 255 255
0.246723 -0.119401 1.291 255 255 255
-0.187595 0.324006 0.98 255 255 255
-0.329163 0.0423682 0.785 0 0 0
-0.643512 -0.711853 2.189 255 255 255
0.490438 -0.497562 1.302 255 255 255
-0.173548 0.190079 0.964 255 255 255
0.529701 0.305314 1.784 255 255 255
0.446229 0.17422 0.999 255 255 255
-0.412915 -0.575838 2.121 255 255 255
0.503282 -0.450397 1.319 0 0 0
-0.0450027 0.388077 1.124 255 255 255
0.331425 0.371952 1.691 255 255 255
0.938677 0.0403231 1.882 255 255 255
0.658732 0.234825 1.87 255 255 255
0.902996 0.0882336 1.859 255 255 255
0.57229 -0.403143 1.305 0 0 0
-0.357501 0.119092 0.761 255 255 255
0.259296 0.547723 1.456 255 255 255
-0.0339588 -0.687491 1.799 255 255 255
0.658139 -0.0316537 1.978 255 255 255
0.0595537 0.433602 1.633 255 255 255
-0.362537 -0.71727 1.978 255 255 255
-0.221847 0.171347 0.828 255 255 255
-0.396784 -0.46208 2.204 255 255 255
0.315885 -0.228159 1.265 0 0 0
-0.206176 0.174579 0.864 255 255 255
-0.372375 -0.0740374 0.895 0 0 0
-0.0283855 0.166374 0.991 255 255 255
-0.384406 0.0651958 0.783 0 0 0
-0.226323 0.209771 0.815 255 255 255
0.351444 -0.0986939 1.217 255 255 255
0.461304 0.199546 1.029 255 255 255
-0.00640433 0.295825 1.094 255 255 255
0.112691 0.47802 1.595 255 255 255
-0.760153 -0.633893 2.228 255 255 255
-0.813036 -0.49573 2.383 255 255 255
0.337609 -0.314861 1.203 0 0 0
-0.229159 0.265196 0.835 255 255 255
0.345632 0.271586 0.942 255 255 255
0.91324 0.250785 1.831 255 255 255
0.291726 -0.435127 1.859 255 255 255
-0.270371 0.248 0.705 255 255 255
0.254064 0.275646 0.967 255 255 255
-0.810947 -0.431508 2.459 255 255 255
0.201807 -0.215205 1.286 255 255 255
-0.485142 -0.225122 2.392 255 255 255
0.435186 0.340892 0.887 255 255 255
-0.249639 -0.0110319 0.992 255 255 255
0.399533 0.259861 0.961 255 255 255
0.0705183 -0.368349 2.024 255 255 255
-0.96777 -0.67836 2.173 255 255 255
-0.967226 -0.659344 2.204 255 255 255
-0.509821 -0.640927 2.166 255 255 255
0.217598 0.316032 0.98 0 0 0
-0.419239 -0.45986 2.228 255 255 255
-0.36057 0.191115 0.85 255 255 255
0.36687 -0.0110367 1.769 255 255 255
0.717196 -0.0214522 1.929 255 255 255
-0.24319 0.0830337 0.942 255 255 255
-0.254884 0.283193 0.74 255 255 255
-0.365872 0.0245462 0.787 0 0 0
-0.858454 -0.425227 2.469 255 255 255
0.213255 -0.104697 1.345 0 0 0
0.499988 -0.229318 1.283 255 255 255
-0.373922 -0.396763 2.261 255 255 255
-0.333508 0.168909 0.725 0 0 0
0.276596 -0.398824 1.859 0 0 0
0.364821 0.304669 0.917 255 255 255
-0.320601 -0.0607068 2.356 255 255 255
0.418656 0.327583 0.898 255 255 255
0.169416 0.442237 1.616 255 255 255
0.135598 -0.561221 1.876 255 255 255
-0.513308 -0.585479 2.196 255 255 255
0.583864 -0.170664 1.194 255 255 255
0.0595782 0.178557 1.71 255 255 255
0.506564 0.263564 1.837 0 0 0
-0.262337 0.237011 0.724 255 255 255
-0.075015 -0.555652 1.953 255 255 255
-0.386439 -0.771492 1.985 255 255 255
-1.01991 -0.752612 2.057 255 255 255
-0.372433 -0.0992985 0.913 255 255 255
0.00838509 -0.267948 2.143 255 255 255
-0.278198 0.0133054 0.892 255 255 255
0.0819317 0.567022 1.463 255 255 255
0.213206 0.440493 1.629 255 255 255
-0.255396 0.225982 0.738 255 255 255
0.531112 0.307353 1.779 255 255 255
-0.0202234 -0.169195 2.22 255 255 255
0.351731 -0.659169 1.696 255 255 255
0.0703584 0.298804 1.637 0 0 0
0.560554 -0.475686 1.283 255 255 255
-0.361665 0.184638 0.704 255 255 255
0.393017 0.222044 1.017 255 255 255
-0.368435 0.0219848 0.787 0 0 0
-0.675535 -0.683224 2.166 255 255 255
0.240782 -0.378882 1.911 255 255 255
-0.610511 -0.628853 2.173 255 255 255
-0.874349 -0.703408 2.196 255 255 255
0.366665 -0.388606 1.299 255 255 255
-0.230174 -0.341382 2.189 255 255 255
-0.0305911 0.278367 1.068 255 255 255
-0.392371 -0.0519635 0.844 255 255 255
-0.427984 -0.233236 2.356 255 255 255
-0.292427 0.0237168 0.849 255 255 255
0.36315 -0.599914 1.724 255 255 255
-0.0560382 -0.0646295 0.848 255 255 255
0.496501 0.228553 1.002 0 0 0
-0.282414 0.043543 0.887 0 0 0
-0.0535413 0.289964 1.041 255 255 255
0.225234 0.381112 1.659 255 255 255
-0.346438 -0.723708 1.978 255 255 255
0.417826 0.189986 1.005 0 0 0
0.505617 -0.321331 1.354 0 0 0
-0.618508 -0.128823 2.411 0 0 0
0.247318 -0.674058 1.779 255 255 255
-0.222729 0.148584 0.852 255 255 255
0.401937 -0.0645452 1.208 0 0 0
-0.275683 0.245452 0.701 255 255 255
-0.044562 0.155242 0.992 255 255 255
0.313081 -0.0879674 1.262 255 255 255
-0.345897 0.116462 0.76 255 255 255
-0.295619 0.0123358 0.827 0 0 0
-0.143139 -0.547602 2.017 255 255 255
-0.152044 0.343198 0.893 255 255 255
-0.381016 -0.246608 2.374 255 255 255
0.284316 -0.123152 1.244 255 255 255
-0.253162 0.247789 0.735 0 0 0
0.187512 0.137886 1.876 255 255 255
-0.464587 -0.147994 2.469 255 255 255
0.181552 0.460695 1.607 255 255 255
0.445078 -0.536191 1.459 255 255 255
0.108925 -0.686581 1.789 255 255 255
-0.462986 -0.380688 2.32 255 255 255
-0.39208 0.0882638 0.773 255 255 255
0.793173 -0.0549378 1.893 255 255 255
0.453812 0.118989 0.96 255 255 255
0.0795205 -0.569022 1.923 255 255 255
0.401423 -0.203051 1.302 255 255 255
0.232197 0.100802 1.435 255 255 255
-0.129262 0.304669 0.917 255 255 255
0.266063 0.136553 1.494 255 255 255
-0.33841 0.122386 0.774 255 255 255
-0.174528 -0.503295 2.078 255 255 255
-0.753047 -0.459939 2.44 255 255 255
-0.257347 -0.614103 2.064 255 255 255
-0.227621 0.273136 0.86 255 255 255
0.453503 0.0914372 0.966 255 255 255
-0.733864 -0.364959 2.469 255 255 255
-0.285433 -0.0671227 0.92 255 255 255
-0.413141 -0.705516 2.037 255 255 255
0.399395 0.308996 0.921 255 255 255
0.370847 0.329749 0.892 255 255 255
-0.255252 -0.0564335 0.893 255 255 255
0.275361 0.474589 1.575 255 255 255
-0.60506 -0.172624 2.42 0 0 0
0.138636 -0.0228757 2.057 255 255 255
0.319131 -0.344889 1.278 255 255 255
0.411822 0.308944 0.912 255 255 255
-0.217692 0.0376746 0.958 255 255 255
-0.144125 0.33489 0.898 255 255 255
0.381865 -0.63129 1.659 255 255 255
0.243256 -0.333318 1.882 255 255 255
-0.410223 0.0105116 0.791 0 0 0
0.120589 0.0758604 1.929 255 255 255
0.629538 -0.234617 1.234 255 255 255
-0.0100717 0.0353616 0.938 0 0 0
0.313104 -0.132905 1.222 255 255 255
0.196613 0.0315157 1.905 255 255 255
0.154393 0.196005 1.624 255 255 255
-0.34345 0.0644464 0.774 0 0 0
-0.297605 -0.0149504 0.848 255 255 255
-0.241552 0.135578 0.924 255 255 255
-1.0367 -0.349069 2.286 0 0 0
0.425221 0.298295 0.925 255 255 255
0.464293 0.293016 0.937 255 255 255
0.546234 0.095888 2.092 0 0 0
-0.168817 -0.57514 2.01 255 255 255
-0.0554149 0.126768 0.984 0 0 0
-0.363 -0.578178 2.092 255 255 255
-0.200254 0.23674 0.914 255 255 255
-0.506251 -0.599226 2.181 255 255 255
0.611334 -0.0385922 2.004 255 255 255
-0.225007 0.110016 0.924 255 255 255
0.155377 -0.407022 1.972 255 255 255
-0.313535 0.228369 0.684 255 255 255
0.647863 0.246337 1.865 255 255 255
0.533829 -0.0504773 1.959 255 255 255
-0.0811367 0.371522 1.005 255 255 255
0.231254 0.46331 1.607 255 255 255
0.00143855 -0.0670904 2.189 0 0 0
0.122309 -0.0599004 2.064 0 0 0
0.214264 0.566678 1.456 255 255 255
0.443883 0.141036 0.983 255 255 255
0.258619 -0.0577196 2.107 255 255 255
-0.0680492 0.306104 1.005 255 255 255
0.508495 -0.312764 1.327 0 0 0
0.461846 0.262626 0.954 255 255 255
0.386318 -0.180746 1.294 255 255 255
-0.817782 -0.47586 2.42 255 255 255
0.286716 0.467078 1.567 255 255 255
-0.275815 -0.00554641 0.889 0 0 0
0.606817 -0.346098 1.339 255 255 255
0.248463 0.260959 0.995 255 255 255
0.23207 0.354878 1.65 0 0 0
0.0836866 0.144817 1.81 255 255 255
-0.330047 -0.559618 2.099 255 255 255
-0.341084 -0.0333309 0.897 255 255 255
0.393018 -0.132962 1.187 255 255 255
0.172339 -0.149377 2.143 255 255 255
-0.261387 0.143252 0.925 255 255 255
0.565318 0.288346 1.805 0 0 0
-0.0248542 -0.457387 2.01 255 255 255
-0.186591 0.357818 0.935 0 0 0
-0.195923 0.349245 0.966 255 255 255
-0.279606 -0.491065 2.158 255 255 255
-0.279989 0.168785 0.849 255 255 255
-0.396128 0.0949204 0.776 255 255 255
0.860964 -0.0148908 1.893 255 255 255
-0.260027 0.178036 0.847 255 255 255
-0.0238363 0.28597 1.077 255 255 255
0.216943 0.288217 1.579 255 255 255
0.130818 0.0668564 1.941 255 255 255
0.271098 0.265929 0.966 255 255 255
0.0316689 -0.659848 1.87 255 255 255
0.369807 0.281678 0.945 255 255 255
0.159052 0.351658 1.673 255 255 255
0.0056514 0.141365 1.02 255 255 255
0.233181 0.279544 0.992 0 0 0
-0.168922 -0.530132 2.051 255 255 255
0.386319 0.293669 0.944 255 255 255
0.391361 0.220389 1.017 255 255 255
0.425063 -0.192444 1.247 255 255 255
0.406274 0.140799 1.959 255 255 255
-0.412136 0.0954096 0.78 255 255 255
-0.0458248 -0.701533 1.805 255 255 255
-0.323135 0.0438681 0.789 255 255 255
0.2409 0.392041 1.637 255 255 255
-0.0242125 0.308287 1.094 255 255 255
-1.04201 -0.366959 2.151 0 0 0
-0.0970888 -0.0416069 0.857 255 255 255
0.226073 0.281643 1.571 255 255 255
-0.348287 -0.326748 2.286 255 255 255
0.459328 0.311913 0.912 255 255 255
-0.432355 -0.396039 2.278 255 255 255
0.583192 -0.0547062 1.997 255 255 255
-0.178216 0.147211 0.931 255 255 255
0.384565 -0.63129 1.659 255 255 255
-0.187049 0.0848359 0.945 255 255 255
0.217884 0.0437591 1.403 255 255 255
-0.038206 -0.46716 2.024 255 255 255
0.104836 0.213318 1.677 0 0 0
-0.383193 -0.0356845 0.883 255 255 255
-0.027514 0.396047 1.158 255 255 255
0.600355 -0.264195 1.27 255 255 255
-0.18169 0.233261 0.974 255 255 255
-0.215132 -0.368527 2.181 255 255 255
0.61895 0.0980332 1.997 0 0 0
-0.200538 0.336999 0.958 255 255 255
0.426085 0.268404 0.947 255 255 255
-0.300206 0.215696 0.697 255 255 255
-0.0494063 0.172999 0.992 255 255 255
0.0564481 -0.298723 2.114 255 255 255
-0.337586 0.0531791 0.775 0 0 0
-0.213771 0.228415 0.855 255 255 255
-0.0781941 -0.638285 1.953 255 255 255
-0.704 -0.342076 2.449 255 255 255
-0.403791 0.0475385 0.786 0 0 0
-1.09733 -0.458251 2.136 255 255 255
0.491422 -0.240633 1.299 255 255 255
0.151051 0.532766 1.487 255 255 255
0.400968 0.192956 1.012 255 255 255
-0.0703785 0.186921 1.015 0 0 0
-0.0195949 -0.261947 2.151 255 255 255
-0.272176 0.0547933 0.931 255 255 255
0.408321 0.325745 0.901 255 255 255
0.325495 0.305215 0.937 255 255 255
0.0491205 0.0324091 1.959 255 255 255
0.00765584 0.227965 1.068 0 0 0
-0.330046 0.203257 0.705 255 255 255
0.369566 0.0423254 0.994 255 255 255
-0.202625 0.106314 0.918 255 255 255
-0.0250336 -0.689492 1.789 255 255 255
-0.57826 -0.578946 2.212 255 255 255
-0.225042 0.224403 0.82 255 255 255
0.390323 -0.0145762 1.853 0 0 0
0.323278 0.277175 0.935 255 255 255
0.284442 -0.0618332 1.416 255 255 255
0.210165 0.11717 1.668 255 255 255
-0.158724 0.0882492 1.02 255 255 255
0.463999 -0.366528 1.342 255 255 255
0.592285 0.0906711 2.051 0 0 0
-0.058799 -0.092229 0.848 0 0 0
-0.328899 0.204404 0.705 255 255 255
0.552288 -0.399205 1.313 255 255 255
-0.382016 -0.0611311 0.877 255 255 255
-0.0359318 0.454256 1.187 255 255 255
-0.248276 0.247666 0.768 255 255 255
0.620729 0.0466592 2.024 255 255 255
-0.750346 -0.622674 2.253 255 255 255
0.516446 -0.0765505 1.152 255 255 255
-0.192602 0.13736 0.906 255 255 255
0.459145 -0.548306 1.466 255 255 255
-0.109977 0.294544 0.918 255 255 255
-0.796933 -0.522615 2.347 255 255 255
-0.854175 -0.748292 2.181 255 255 255
-0.308175 0.0658809 0.807 255 255 255
0.44848 0.102506 0.952 255 255 255
-0.849326 -0.735571 2.196 255 255 255
0.300337 -0.510275 1.734 255 255 255
0.879035 0.289168 1.774 255 255 255
0.566073 -0.355795 1.351 255 255 255
-0.397627 -0.0593483 0.832 0 0 0
0.23785 0.289922 0.978 255 255 255
-1.11565 -0.424341 2.158 255 255 255
-0.0302621 0.45035 1.192 255 255 255
-0.0124271 0.178537 1.005 255 255 255
0.0338196 -0.480427 1.997 255 255 255
0.105342 0.493865 1.563 255 255 255
-0.276178 -0.00678858 0.863 0 0 0
-0.24779 0.073836 0.942 255 255 255
-0.56537 -0.343329 2.402 255 255 255
0.343506 0.351155 1.724 255 255 255
0.215036 0.0792497 1.729 255 255 255
-0.190202 0.348452 0.977 255 255 255
0.0997095 0.475424 1.595 255 255 255
-0.34608 0.150097 0.755 255 255 255
0.236009 0.339671 0.927 255 255 255
-0.288452 0.0574545 0.879 255 255 255
0.177781 -0.553339 1.87 255 255 255
0.197439 0.268176 1.567 255 255 255
0.319353 0.271573 1.7 0 0 0
-0.250741 0.256186 0.742 0 0 0
-0.219356 0.338998 0.913 255 255 255
-0.40497 0.077241 0.776 255 255 255
-0.00815242 -0.548824 1.929 255 255 255
0.30401 -0.0862541 1.267 255 255 255
0.583334 -0.467593 1.278 255 255 255
0.346982 0.342228 0.883 255 255 255
0.384557 0.201383 1.899 255 255 255
-0.333442 0.139141 0.908 255 255 255
-0.967801 -0.336768 2.411 0 0 0
-0.20523 0.21027 0.878 255 255 255
-0.0846907 -0.0381217 0.873 255 255 255
0.205009 -0.175871 2.085 255 255 255
-0.399607 -0.0694049 0.839 255 255 255
-0.377533 0.0840528 0.769 255 255 255
0.352483 0.331598 0.897 255 255 255
0.506071 -0.0428805 1.154 0 0 0
0.150882 0.348935 1.673 255 255 255
0.0798035 -0.695315 1.789 255 255 255
-0.0235344 0.0319299 0.927 255 255 255
-0.953621 -0.833952 2.173 255 255 255
0.396913 -0.585627 1.559 255 255 255
0.134893 -0.00612074 2.051 255 255 255
-0.324969 0.0780992 0.772 255 255 255
-0.341633 0.178124 0.71 255 255 255
0.258442 -0.0805963 2.078 255 255 255
-0.32911 0.203824 0.703 255 255 255
0.443385 -0.123125 1.167 255 255 255
0.353338 0.0942874 0.963 0 0 0
-0.0659502 0.104875 0.974 0 0 0
-0.226101 0.208135 0.819 255 255 255
0.145747 -0.416649 1.972 255 255 255
-0.435558 -0.135231 0.957 255 255 255
0.537581 -0.486125 1.283 255 255 255
0.391033 0.327945 0.895 255 255 255
0.627094 -0.356471 1.313 255 255 255
-0.211271 0.181741 0.845 255 255 255
0.0438747 -0.11257 2.173 255 255 255
0.00144841 -0.218189 2.204 255 255 255
0.453721 0.220885 1.027 255 255 255
0.0740318 -0.362834 2.03 255 255 255
-0.647936 -0.400396 2.347 255 255 255
-0.200325 -0.629736 1.966 255 255 255
0.387213 -0.392229 1.297 255 255 255
-0.181662 0.197794 0.941 255 255 255
0.297291 -0.298072 1.239 255 255 255
-1.04308 -0.664783 2.024 255 255 255
0.910746 0.259014 1.826 255 255 255
-0.698499 -0.637519 2.228 255 255 255
-0.194113 -0.417742 2.107 255 255 255
0.252881 0.332486 0.928 255 255 255
0.172407 0.275564 1.595 255 255 255
-0.670847 -0.254334 2.374 0 0 0
0.420068 -0.140689 1.187 255 255 255
-0.983339 -0.378966 2.43 255 255 255
-0.468606 -0.119869 2.469 0 0 0
-1.0627 -0.627112 2.03 255 255 255
-0.330365 0.205193 0.696 255 255 255
0.374147 0.0485503 0.989 0 0 0
-0.31294 0.0838784 0.816 255 255 255
-0.955203 -0.599927 2.278 0 0 0
0.0192636 0.0756823 1.848 255 255 255
-0.0205048 -0.0784122 0.863 0 0 0
0.297429 -0.385647 1.412 0 0 0
0.363353 0.330858 0.895 255 255 255
-1.02635 -0.666754 2.03 255 255 255
0.414933 -0.484016 1.445 255 255 255
0.479618 0.156739 1.959 255 255 255
-0.295406 0.0327981 0.834 255 255 255
0.384918 -0.343665 1.229 255 255 255
-1.03784 -0.530891 2.107 255 255 255
0.215078 0.130428 1.664 255 255 255
-0.167209 -0.657354 1.953 255 255 255
-0.305732 0.218826 0.689 255 255 255
0.521126 -0.283928 1.294 255 255 255
-0.395716 -0.0388515 0.828 255 255 255
0.200349 0.125297 1.826 255 255 255
-0.343894 0.140201 0.775 255 255 255
-0.286244 0.00434345 0.843 0 0 0
0.501232 -0.153774 1.169 255 255 255
-0.399606 -0.209429 2.347 255 255 255
0.483131 0.13693 0.988 0 0 0
0.187621 -0.174373 1.234 0 0 0
-0.721807 -0.316745 2.469 255 255 255
-0.226099 -0.0159229 0.995 255 255 255
-0.269434 0.0457521 0.932 255 255 255
0.376294 -0.57668 1.612 0 0 0
-0.339759 0.214698 0.683 255 255 255
-0.0555986 0.364435 1.081 255 255 255
0.403709 -0.282831 1.289 255 255 255
-0.0397292 0.461204 1.185 255 255 255
0.649203 -0.293319 1.289 255 255 255
-0.0849966 0.229187 1.012 0 0 0
0.473934 -0.0558084 1.923 255 255 255
0.535585 0.366921 1.719 255 255 255
-0.472625 -0.15603 2.469 255 255 255
0.341688 0.338106 1.729 255 255 255
-0.367074 0.0519849 0.776 255 255 255
0.639777 0.0394185 1.991 255 255 255
-0.321898 -0.0837895 0.939 255 255 255
0.890892 0.0156287 1.859 255 255 255
-0.0398902 -0.0301063 0.888 0 0 0
0.0239804 0.137404 1.753 255 255 255
-0.00277513 0.250559 1.068 0 0 0
0.28774 -0.315287 1.366 0 0 0
0.360635 -0.567485 1.686 0 0 0
0.495791 -0.0939432 1.935 255 255 255
0.159633 -0.464619 1.985 255 255 255
0.196838 -0.670983 1.794 255 255 255
-0.502794 -0.692044 2.107 255 255 255
0.565576 0.107359 2.051 255 255 255
0.389266 0.0919501 0.955 255 255 255
-1.01021 -0.631063 2.121 255 255 255
-0.0970048 0.236939 1.017 255 255 255
-0.668089 -0.345902 2.42 255 255 255
-0.155099 0.121209 1.018 255 255 255
-0.424382 -0.111335 0.879 255 255 255
-0.305002 -0.416188 2.189 255 255 255
0.54168 -0.237889 1.273 255 255 255
-0.184862 0.290551 0.991 255 255 255
-0.734641 -0.71433 2.143 255 255 255
-0.488242 -0.557348 2.212 255 255 255
0.477424 -0.0847788 1.162 255 255 255
0.502284 -0.336804 1.4 0 0 0
0.421205 0.0596034 1.911 0 0 0
-0.391965 -0.312551 2.347 255 255 255
0.542119 -0.154037 1.171 255 255 255
-0.4989 -0.0775274 2.402 0 0 0
-0.00117932 0.45904 1.215 255 255 255
0.582467 -0.0289955 2.017 255 255 255
-0.327906 0.105835 0.782 255 255 255
0.209434 0.301929 1.002 255 255 255
0.401929 -0.473566 1.449 255 255 255
0.947899 -0.01781 1.876 255 255 255
-0.644258 -0.501501 2.32 255 255 255
0.226965 -0.0197664 1.375 0 0 0
0.521887 -0.178562 1.208 255 255 255
-0.561444 -0.771396 2.01 255 255 255
0.433692 -0.0958555 1.182 255 255 255
0.556959 -0.392443 1.319 255 255 255
-0.398854 0.0609433 0.794 0 0 0
-0.315022 0.233673 0.68 255 255 255
0.54032 -0.051772 1.143 255 255 255
0.756413 0.0384286 1.941 255 255 255
0.449003 -0.166498 1.192 255 255 255
0.126045 -0.673049 1.784 255 255 255
0.0953782 0.420591 1.655 255 255 255
-1.0031 -0.562505 2.204 255 255 255
0.472262 0.105913 0.969 255 255 255
0.375968 0.235569 0.977 255 255 255
0.526222 -0.262261 1.291 255 255 255
0.250239 0.20764 1.516 255 255 255
-0.681101 -0.248572 2.356 0 0 0
-0.938826 -0.573234 2.32 0 0 0
-0.166562 0.102759 0.969 255 255 255
0.256677 0.491337 1.555 255 255 255
-0.304608 -0.0267258 0.872 255 255 255
-0.440724 -0.515696 2.173 255 255 255
0.4337 0.250993 0.957 255 255 255
0.247767 0.283514 0.967 255 255 255
-0.288564 0.148324 0.875 255 255 255
0.603275 -0.368159 1.294 255 255 255
-0.39035 -0.00507849 0.814 255 255 255
-0.315429 0.0618435 0.789 0 0 0
0.88588 0.114129 1.887 255 255 255
0.688243 -0.0604396 1.972 255 255 255
0.50795 -0.0485143 1.154 0 0 0
0.609807 -0.340974 1.336 255 255 255
0.665857 0.271642 1.831 255 255 255
-0.433208 -0.422993 2.244 255 255 255
-0.671723 -0.7509 2.099 255 255 255
-0.662462 -0.7128 2.181 255 255 255
-0.772221 -0.311209 2.489 255 255 255
0.387182 -0.585021 1.571 255 255 255
0.114619 -0.155005 2.173 255 255 255
-0.327003 -0.662484 2.017 255 255 255
0.256343 0.537484 1.48 255 255 255
-0.216119 -0.605496 2.024 255 255 255
-0.552532 -0.508939 2.269 255 255 255
-0.853861 -0.426949 2.479 255 255 255
-0.97534 -0.658533 2.143 255 255 255
-0.225775 0.118652 0.921 255 255 255
-0.0420103 -0.118963 0.872 255 255 255
-0.60487 -0.702384 2.204 255 255 255
-0.373859 0.141011 0.759 255 255 255
-0.177509 0.0326529 0.995 255 255 255
0.37668 0.228096 1 255 255 255
-0.336785 0.210059 0.686 255 255 255
0.429865 0.170284 0.995 255 255 255
-0.476629 -0.692016 2.128 255 255 255
0.382192 0.339083 1.734 255 255 255
-0.314843 0.0389777 0.794 255 255 255
0.291938 -0.179082 1.225 0 0 0
-0.982282 -0.58453 2.166 255 255 255
0.605883 -0.225207 1.26 255 255 255
0.225787 0.27877 0.995 0 0 0
0.55809 -0.222094 1.254 255 255 255
0.602423 -0.446065 1.27 255 255 255
-1.0315 -0.415964 2.151 255 255 255
0.0931903 -0.525429 1.947 255 255 255
0.0570936 0.369719 1.719 255 255 255
-0.316035 0.0563773 2.143 0 0 0
-0.0434667 0.189797 1.004 255 255 255
-0.112544 0.340979 0.891 255 255 255
0.51281 -0.46473 1.305 255 255 255
-0.0413726 0.00774287 0.921 255 255 255
-0.187321 0.165921 0.909 255 255 255
-0.0929334 -0.664971 1.929 255 255 255
0.556185 -0.258604 1.273 255 255 255
-0.24415 0.149271 0.864 255 255 255
-0.839974 -0.684407 2.181 255 255 255
0.242032 0.29005 1.575 255 255 255
0.479551 -0.0882559 1.158 255 255 255
-0.626842 -0.367758 2.383 255 255 255
-0.100506 0.223585 1.072 255 255 255
0.28962 -0.219974 1.354 255 255 255
-0.409897 0.0218731 0.783 255 255 255
-0.257929 -0.664929 1.966 255 255 255
0.233375 0.284271 0.986 0 0 0
0.0994268 0.428287 1.633 255 255 255
-0.677539 -0.740497 2.128 255 255 255
-0.189784 0.0590655 0.951 255 255 255
0.626492 -0.462155 1.252 255 255 255
-0.133491 0.294602 0.947 0 0 0
-0.410106 -0.388625 2.278 255 255 255
-0.0743363 0.35355 1.024 255 255 255
0.422998 0.244222 0.961 255 255 255
0.510195 -0.200154 1.232 255 255 255
0.363301 0.38705 1.673 255 255 255
0.30064 -0.572392 1.769 255 255 255
0.0188503 -0.253998 2.143 255 255 255
0.390882 0.315893 0.898 255 255 255
-0.201464 0.279996 0.955 255 255 255
-0.405408 -0.0916847 0.869 255 255 255
-0.305713 0.0892541 0.927 255 255 255
0.488669 0.256043 1.826 255 255 255
-0.00800028 0.00975344 1.893 255 255 255
-0.117682 0.335977 0.897 255 255 255
-0.203525 -0.674527 1.966 255 255 255
-0.402215 -0.030544 0.822 0 0 0
0.566071 0.190813 1.917 255 255 255
0.433497 0.0877448 0.96 255 255 255
-0.450605 -0.593814 2.136 255 255 255
0.529483 -0.458365 1.299 255 255 255
-0.736124 -0.49601 2.312 255 255 255
-1.05641 -0.616015 2.037 255 255 255
0.272653 0.538798 1.477 255 255 255
0.576404 0.0851016 2.078 255 255 255
-1.04865 -0.416539 2.136 255 255 255
-0.808016 -0.642455 2.22 255 255 255
-0.0589208 -0.272699 2.181 255 255 255
-0.0822067 0.0303557 0.925 0 0 0
0.527548 0.341821 1.748 255 255 255
0.0298954 -0.52387 1.953 255 255 255
0.965744 0.117199 1.887 255 255 255
0.205574 -0.244803 1.31 0 0 0
-0.209925 -0.632935 1.966 255 255 255
-0.256718 0.070695 0.941 255 255 255
-0.252297 -0.711885 1.972 255 255 255
-0.553434 -0.307159 2.489 255 255 255
-0.128139 -0.307452 2.151 255 255 255
-0.375695 0.165096 0.729 255 255 255
0.208116 0.326651 0.988 255 255 255
0.287364 -0.446831 1.87 255 255 255
-0.0445491 0.261504 1.029 255 255 255
-0.975749 -0.435321 2.392 255 255 255
-0.153138 0.256588 1.05 0 0 0
0.887032 0.0857126 1.87 255 255 255
0.198922 0.220809 1.539 255 255 255
0.19887 0.41996 1.642 255 255 255
-0.273453 0.0406716 0.92 255 255 255
0.234356 0.272841 0.997 0 0 0
-0.107911 0.226394 1.094 255 255 255
0.41799 0.225314 1.842 255 255 255
-0.0633194 -0.535684 1.985 255 255 255
0.432309 0.171621 1.947 255 255 255
-0.0547223 -0.095101 0.849 0 0 0
-0.468606 -0.13594 2.469 255 255 255
0.0728284 -0.486926 1.997 255 255 255
-0.371572 0.165631 0.721 255 255 255
-0.396278 -0.125366 2.42 255 255 255
-0.161485 0.271023 1.027 255 255 255
-0.3558 0.188474 0.697 255 255 255
0.125673 0.475424 1.595 255 255 255
-0.0789017 0.293347 0.958 255 255 255
-0.0195949 -0.240945 2.151 255 255 255
0.622495 -0.438833 1.273 255 255 255
0.0301499 -0.214602 2.204 255 255 255
0.291107 -0.387932 1.591 255 255 255
0.562497 -0.425523 1.302 0 0 0
0.230945 0.411943 1.642 255 255 255
-0.346163 0.172175 0.832 255 255 255
-0.726126 -0.579095 2.269 255 255 255
0.290267 -0.41224 1.378 0 0 0
0.233949 -0.576822 1.81 255 255 255
-0.586229 -0.309053 2.44 255 255 255
-0.226484 0.274854 0.861 255 255 255
0.242391 0.161296 1.498 255 255 255
0.5153 0.125708 2.024 255 255 255
0.182537 -0.374936 2.024 255 255 255
-0.15596 0.219865 1.046 255 255 255
-0.322058 0.124401 0.877 255 255 255
0.0283305 -0.353311 2.071 255 255 255
-0.657755 -0.309304 2.411 255 255 255
-0.404522 -0.104272 0.892 255 255 255
0.490005 -0.363558 1.372 255 255 255
-0.35837 0.152555 0.755 0 0 0
0.283683 0.329906 0.925 255 255 255
0.00442143 -0.00892345 1.935 0 0 0
0.591399 -0.359457 1.324 255 255 255
-0.261591 0.046243 0.942 255 255 255
-0.447159 -0.263908 2.356 255 255 255
-0.233876 0.187163 0.809 255 255 255
-0.308872 0.0940819 0.901 255 255 255
-0.288104 -0.403225 2.196 255 255 255
0.147362 0.34435 1.664 255 255 255
-0.0591198 -0.412575 2.064 255 255 255
0.420306 -0.410456 1.308 255 255 255
0.466345 -0.428181 1.33 0 0 0
-1.21543 -0.416276 2.329 255 255 255
-0.0505519 0.208394 1.015 255 255 255
-0.0675393 0.402648 1.075 255 255 255
-0.29163 0.0395561 0.863 255 255 255
0.121865 0.200744 1.686 0 0 0
-0.0849794 0.296698 0.939 255 255 255
0.0429481 0.513552 1.516 255 255 255
-0.11802 0.147349 1.027 255 255 255
0.27337 -0.292112 1.372 255 255 255
-0.143042 0.190735 1.104 255 255 255
0.570264 -0.330786 1.33 255 255 255
-0.3216 0.0848179 0.776 255 255 255
0.458945 0.232271 1.826 255 255 255
-0.310639 0.0687621 0.81 255 255 255
-0.807649 -0.44968 2.449 255 255 255
-0.0420913 0.0536216 0.937 255 255 255
-0.375084 -0.088899 0.898 255 255 255
0.501946 0.252291 1.842 0 0 0
0.237977 0.0184319 1.387 255 255 255
0.250098 -0.593809 1.799 255 255 255
-0.547176 -0.160696 2.479 255 255 255
0.198034 -0.178525 1.249 0 0 0
0.512567 -0.48796 1.299 255 255 255
-0.310182 0.0289294 0.802 255 255 255
0.476092 0.195264 1.87 255 255 255
0.397134 -0.130479 1.182 255 255 255
-0.443851 -0.407801 2.261 255 255 255
0.498988 -0.450397 1.319 0 0 0
-0.706875 -0.307458 2.459 255 255 255
-0.0998597 -0.688583 1.882 255 255 255
-0.0193167 -0.675781 1.799 255 255 255
0.31417 -0.258714 1.234 255 255 255
0.0373117 -0.431219 2.01 255 255 255
-0.251776 -0.0620866 0.912 255 255 255
-0.380749 -0.0803203 0.884 255 255 255
-0.664586 -0.538792 2.286 255 255 255
0.424112 0.347056 0.888 255 255 255
-0.0771276 0.0843558 0.975 0 0 0
0.361966 -0.190541 1.275 255 255 255
0.316172 0.288419 0.932 255 255 255
-0.59894 -0.422218 2.32 255 255 255
0.904679 0.284193 1.779 255 255 255
-0.296766 0.21473 0.705 255 255 255
0.318406 -0.381867 1.327 255 255 255
0.412225 -0.451701 1.396 0 0 0
-0.282565 0.138835 0.906 255 255 255
-0.0415408 0.183606 0.997 255 255 255
0.838144 0.360276 1.714 255 255 255
-0.95708 -0.77241 2.189 0 0 0
0.395484 0.104383 0.955 0 0 0
0.46851 -0.423852 1.33 0 0 0
-0.2722 -0.312572 2.212 255 255 255
-0.0398734 0.00324656 0.921 255 255 255
-0.615204 -0.208764 2.383 255 255 255
-0.201857 0.168169 0.882 255 255 255
-0.382933 0.0459063 0.78 255 255 255
0.316497 -0.0869453 1.491 255 255 255
0.636061 -0.430579 1.267 255 255 255
0.310952 0.305961 0.93 255 255 255
-0.230526 -0.691519 1.978 255 255 255
0.312101 0.326626 0.92 255 255 255
0.212478 -0.261839 1.354 255 255 255
0.575396 0.051804 2.099 255 255 255
0.206889 0.41996 1.642 255 255 255
-0.0589379 -0.610977 1.947 255 255 255
0.253026 -0.549896 1.799 255 255 255
-0.326064 0.251814 0.647 255 255 255
-0.0803485 -0.0973917 0.857 0 0 0
-0.24297 0.280191 0.775 255 255 255
0.0385928 0.222767 1.646 0 0 0
0.111169 -0.548824 1.929 255 255 255
0.579459 -0.242569 1.265 255 255 255
-0.953517 -0.797346 2.189 0 0 0
0.109674 -0.439286 2.017 255 255 255
0.147152 -0.391503 1.991 255 255 255
0.275559 0.345336 0.918 255 255 255
-0.707016 -0.542799 2.303 255 255 255
-0.676003 -0.476591 2.365 255 255 255
0.41348 0.163432 0.983 0 0 0
-0.320516 0.120911 0.815 255 255 255
0.680044 -0.33587 1.333 255 255 255
-0.305547 0.019917 0.807 0 0 0
0.606047 0.0765289 2.03 255 255 255
0.252135 -0.261995 1.378 255 255 255
0.424436 0.232907 1.831 0 0 0
-0.9835 -0.446626 2.411 255 255 255
-0.184291 0.14633 0.916 255 255 255
0.426898 -0.516312 1.47 255 255 255
0.168473 0.314249 1.607 0 0 0
0.386702 0.0666969 0.972 255 255 255
-0.874625 -0.240998 2.32 255 255 255
-0.0135733 0.0712952 0.97 255 255 255
0.301385 -0.382534 1.409 255 255 255
0.109293 -0.490096 2.01 255 255 255
0.296092 -0.116138 1.234 255 255 255
0.578612 -0.284266 1.286 255 255 255
-0.409643 -0.474697 2.196 255 255 255
-0.215844 -0.586422 2.085 255 255 255
0.59275 -0.467692 1.267 255 255 255
-0.944871 -0.672556 2.236 0 0 0
0.0625077 0.173396 1.714 255 255 255
-0.376305 -0.100232 0.908 255 255 255
-0.118607 -0.644224 1.991 255 255 255
-0.856475 -0.728423 2.196 255 255 255
-0.71488 -0.343473 2.459 255 255 255
0.640969 -0.335757 1.324 255 255 255
0.0809188 0.000550775 2.037 255 255 255
0.306787 -0.156549 1.205 255 255 255
-0.282647 -0.449609 2.128 255 255 255
0.198458 0.496398 1.555 255 255 255
0.280655 0.525549 1.494 255 255 255
0.229665 -0.015764 2.004 255 255 255
0.0333949 0.111734 1.799 255 255 255
-0.0823609 0.3355 1 255 255 255
-0.510226 -0.440524 2.278 255 255 255
0.632764 -0.298669 1.294 255 255 255
-0.606089 -0.197874 2.44 0 0 0
0.173607 0.546927 1.473 255 255 255
-0.158298 0.245446 1.039 255 255 255
0.401384 -0.460114 1.422 255 255 255
-0.806895 -0.50738 2.365 255 255 255
-0.320716 -0.457969 2.151 255 255 255
-0.415766 -0.099939 0.867 255 255 255
0.630906 0.0266312 2.004 255 255 255
0.588516 -0.353425 1.342 255 255 255
0.127144 -0.593015 1.842 255 255 255
0.661384 0.0611005 1.959 255 255 255
-0.0826204 0.29152 0.947 255 255 255
0.0741742 -0.519093 1.947 255 255 255
0.28786 -0.584313 1.779 255 255 255
-0.962279 -0.583433 2.286 0 0 0
0.62298 0.069233 2.01 255 255 255
0.0599808 -0.595914 1.899 255 255 255
-0.241382 -0.733402 1.911 255 255 255
-0.337536 0.0693051 0.772 255 255 255
0.353299 0.274652 0.942 255 255 255
0.62786 0.230818 1.887 255 255 255
-0.307438 0.0218849 2.181 0 0 0
-0.343958 0.0394583 0.778 255 255 255
-0.123831 0.318633 0.91 255 255 255
-0.345104 0.193595 0.687 255 255 255
-0.394716 0.00152576 0.804 255 255 255
0.581193 -0.019215 2.024 255 255 255
-0.734641 -0.801515 2.143 255 255 255
0.610227 0.0205102 2.044 255 255 255
-0.0379876 0.167648 0.989 255 255 255
0.263005 -0.154917 1.239 0 0 0
-0.265137 -0.711885 1.972 255 255 255
-0.23534 0.199338 0.805 255 255 255
0.260672 -0.0624065 1.33 255 255 255
-0.395553 -0.0641722 0.842 255 255 255
0.328943 -0.227852 1.252 0 0 0
-0.400273 0.135009 0.767 255 255 255
-0.17275 0.284843 1.005 255 255 255
0.432676 -0.465331 1.396 0 0 0
0.37059 0.279192 0.947 255 255 255
0.500661 0.362378 1.724 255 255 255
-0.379035 0.150495 0.757 0 0 0
-0.237413 0.143294 0.897 255 255 255
-0.0010774 0.312796 1.11 255 255 255
-0.0284473 0.262462 1.053 255 255 255
0.557054 -0.0842346 1.929 255 255 255
0.251025 0.319278 0.938 255 255 255
0.485166 0.087887 2.064 255 255 255
-0.0738843 0.0488901 0.934 0 0 0
-1.01341 -0.743388 2.078 255 255 255
-0.283301 0.246857 0.689 255 255 255
0.544675 -0.451988 1.305 255 255 255
0.216938 0.284768 0.999 255 255 255
-0.348324 -0.0634482 0.932 255 255 255
-0.32919 -0.0760681 0.938 255 255 255
0.472516 0.218872 1.01 255 255 255
-0.0313578 -0.0287904 0.892 255 255 255
-0.0518107 0.0257002 0.92 255 255 255
0.846514 0.354697 1.714 255 255 255
0.513811 -0.419786 1.324 0 0 0
0.226176 0.354391 0.93 0 0 0
0.394327 -0.565592 1.539 255 255 255
0.636323 -0.321548 1.31 255 255 255
-0.0137749 0.328426 1.114 0 0 0
-0.286565 0.146639 0.882 255 255 255
-0.332987 0.132294 0.788 255 255 255
0.332315 0.207748 1.769 255 255 255
-0.323179 0.143774 0.9 255 255 255
0.569007 0.325683 1.753 255 255 255
-0.370553 0.0457886 0.778 255 255 255
0.297286 -0.329346 1.369 0 0 0
0.132592 -0.659306 1.794 255 255 255
0.208749 -0.0247352 1.403 0 0 0
-0.958911 -0.625876 2.278 0 0 0
-0.459106 -0.0939559 0.877 255 255 255
-0.190202 0.275317 0.977 255 255 255
-0.430101 -0.0501164 0.814 255 255 255
0.172218 -0.0404216 2.099 0 0 0
0.667798 -0.0606234 1.978 255 255 255
-0.0809302 -0.482889 2.107 255 255 255
-0.273976 0.0266652 0.902 0 0 0
0.489054 -0.273893 1.327 255 255 255
0.456653 -0.418577 1.327 0 0 0
-0.248727 0.130966 0.934 255 255 255
0.375209 -0.132245 1.198 255 255 255
-0.00590673 0.133273 1.009 255 255 255
-0.319523 0.0300084 0.796 0 0 0
0.219547 0.357435 0.934 0 0 0
0.2647 -0.412947 1.882 255 255 255
0.288534 -0.528618 1.748 255 255 255
-0.204838 -0.00458393 0.994 255 255 255
-0.251949 0.258601 0.742 255 255 255
0.404347 -0.578114 1.539 255 255 255
0.406319 0.21566 1.034 255 255 255
-0.098405 -0.491373 2.114 255 255 255
0.169346 -0.0263124 2.064 255 255 255
-0.0952782 -0.341131 2.121 255 255 255
-0.648261 -0.695054 2.181 255 255 255
-0.460772 -0.573481 2.151 255 255 255
-0.985984 -0.801006 2.151 255 255 255
-0.0550841 0.385462 1.106 255 255 255
-0.316497 -0.734349 1.972 255 255 255
-0.166014 0.231904 1.024 255 255 255
0.545927 -0.427484 1.308 0 0 0
-0.568987 -0.562335 2.261 255 255 255
0.0999967 0.500212 1.559 255 255 255
-0.425299 -0.110829 0.875 255 255 255
0.813921 0.0446075 1.935 0 0 0
0.324741 0.341816 0.897 255 255 255
0.437173 0.105493 0.951 255 255 255
0.157477 0.123014 1.882 255 255 255
-0.253017 0.185938 0.833 255 255 255
-0.321163 0.074908 0.778 255 255 255
0.379832 -0.553425 1.583 0 0 0
-0.40159 -0.0878447 0.873 255 255 255
0.573202 -0.0944728 1.12 255 255 255
0.557933 -0.366528 1.342 0 0 0
0.91622 0.235887 1.831 255 255 255
0.585196 -0.442976 1.273 255 255 255
-0.614195 -0.77114 2.044 255 255 255
-0.189812 0.0383431 0.975 255 255 255
-0.410542 -0.0738847 0.828 255 255 255
0.313376 -0.381003 1.324 255 255 255
-0.168841 0.10066 0.964 255 255 255
0.0307218 0.261691 1.655 0 0 0
-0.602144 -0.761869 2.037 255 255 255
0.102877 -0.636246 1.837 255 255 255
-0.255457 0.0585066 0.942 255 255 255
-0.0709244 0.106787 0.977 0 0 0
0.134609 0.514907 1.52 255 255 255
-0.0760786 0.39424 1.048 255 255 255
-0.0526613 -0.122038 0.884 255 255 255
0.386257 0.241596 0.963 255 255 255
-1.01666 -0.698074 2.064 255 255 255
0.511498 -0.0808432 1.923 255 255 255
-0.287084 0.247678 0.682 255 255 255
-0.445018 -0.280311 2.365 255 255 255
-0.963555 -0.352731 2.44 0 0 0
0.453442 -0.556707 1.463 255 255 255
-0.226101 0.20547 0.819 255 255 255
0.422218 0.166302 1.959 255 255 255
0.252608 0.338162 0.927 255 255 255
0.241538 -0.476779 1.917 255 255 255
-0.354789 0.0455532 0.774 255 255 255
0.0905373 0.493836 1.571 255 255 255
0.174928 0.198786 1.505 255 255 255
-1.03652 -0.685627 2.037 255 255 255
0.0810697 -0.0721467 2.128 0 0 0
-0.980362 -0.402665 2.338 255 255 255
-0.268895 0.212549 0.729 255 255 255
0.436772 -0.53528 1.463 255 255 255
0.0714417 -0.265448 2.151 255 255 255
-0.399235 -0.705154 2.017 255 255 255
-0.35611 0.0749991 0.766 255 255 255
0.290771 -0.217537 1.339 255 255 255
0.381554 0.257268 0.963 255 255 255
-0.309318 0.224899 0.687 255 255 255
0.323688 -0.10392 1.232 255 255 255
-0.00262962 0.110613 1.012 255 255 255
-0.706339 -0.667672 2.196 255 255 255
-0.199535 0.120875 0.904 255 255 255
0.500529 0.092573 0.978 255 255 255
-0.0579695 0.336655 1.06 255 255 255
0.543921 -0.0893867 1.905 255 255 255
-0.262926 0.152595 0.875 255 255 255
0.630318 -0.306871 1.302 255 255 255
0.293747 -0.0698627 1.439 255 255 255
0.317979 -0.232853 1.257 0 0 0
0.467453 -0.401302 1.327 255 255 255
0.44244 -0.519678 1.466 255 255 255
-0.147346 0.237098 1.07 255 255 255
-0.307088 0.0531907 0.794 255 255 255
-0.317445 0.206029 0.695 255 255 255
0.512005 0.125708 2.024 255 255 255
0.383541 -0.366079 1.244 255 255 255
-0.0667627 0.120608 0.986 0 0 0
0.231417 -0.0156617 1.991 0 0 0
0.497492 0.222473 1.004 0 0 0
-0.373216 -0.557751 2.092 255 255 255
0.572625 0.0556144 2.114 255 255 255
-0.289939 0.131463 0.906 255 255 255
-0.167026 0.257556 1.02 255 255 255
0.513031 -0.0988188 1.128 255 255 255
0.403058 0.161503 0.981 255 255 255
0.57551 -0.0534443 1.139 255 255 255
0.399314 -0.320803 1.249 255 255 255
-0.651811 -0.67021 2.181 255 255 255
-0.207895 -0.393493 2.143 255 255 255
-0.0491252 -0.641849 1.935 255 255 255
0.288753 -0.268564 1.291 0 0 0
0.578748 -0.368447 1.31 0 0 0
0.321407 0.262075 0.952 255 255 255
0.404038 0.327583 0.898 255 255 255
-0.784721 -0.621614 2.236 255 255 255
-0.398821 -0.184095 2.365 255 255 255
0.291223 -0.144837 1.222 255 255 255
-0.195984 0.22041 0.908 255 255 255
0.226906 0.0314164 1.899 255 255 255
0.217598 0.00499146 1.416 0 0 0
0.282997 -0.25787 1.456 255 255 255
-0.336475 0.227643 0.672 255 255 255
0.108782 0.529419 1.505 255 255 255
-0.0488686 0.0227306 0.921 255 255 255
0.211071 0.112054 1.633 255 255 255
-0.332598 -0.0761492 0.939 255 255 255
-0.0833165 0.201807 1.032 0 0 0
0.301028 -0.373387 1.463 0 0 0
0.070503 0.549324 1.473 255 255 255
0.0466046 -0.287928 2.136 255 255 255
-0.417233 -0.020665 0.802 255 255 255
0.420144 0.103946 0.951 255 255 255
0.646303 -0.420849 1.275 0 0 0
0.106023 0.367532 1.696 255 255 255
-0.00558924 -0.275949 2.151 255 255 255
-0.468912 -0.537304 2.189 255 255 255
0.247004 -0.388211 1.911 255 255 255
-0.194954 0.339292 0.969 255 255 255
0.345377 0.259521 0.954 255 255 255
0.172866 -0.163779 1.215 255 255 255
-0.177839 0.129862 0.937 255 255 255
-0.286603 -0.380965 2.212 255 255 255
-0.181278 0.0803922 0.947 255 255 255
0.301918 -0.16801 1.217 255 255 255
0.425662 0.297828 1.774 255 255 255
0.306649 -0.247142 1.278 0 0 0
0.37489 0.387676 1.664 255 255 255
-0.433469 -0.322646 2.365 255 255 255
-0.142729 -0.67855 1.923 255 255 255
-0.367458 -0.401083 2.244 255 255 255
0.407902 0.126021 0.966 255 255 255
-0.271388 0.188636 0.827 255 255 255
-0.206949 0.0242114 0.981 255 255 255
-0.189522 0.0922313 0.942 255 255 255
-0.343896 0.168192 0.727 255 255 255
0.02963 -0.115733 2.166 255 255 255
-0.161619 0.0592662 1.007 255 255 255
-0.27574 0.226014 0.719 255 255 255
0.592021 -0.352026 1.345 255 255 255
0.276454 -0.380097 1.799 0 0 0
0.334903 -0.099667 1.229 255 255 255
-0.392114 -0.351665 2.303 255 255 255
-0.0247192 -0.0868385 0.863 0 0 0
-0.9835 -0.478014 2.411 255 255 255
0.392083 -0.332348 1.239 255 255 255
0.313424 -0.564303 1.744 255 255 255
-1.04162 -0.383031 2.143 255 255 255
0.43406 0.213574 1.024 255 255 255
0.321232 0.320477 1.71 255 255 255
-0.350737 -0.690523 1.966 255 255 255
-0.321057 -0.586422 2.085 255 255 255
-0.988051 -0.492148 2.294 255 255 255
