ply
format ascii 1.0
comment Created by Open3D
element vertex 1295
property double x
property double y
property double z
property uchar red
property uchar green
property uchar blue
end_header
-0.217674 0.219318 1.842 255 255 255
-0.532038 -0.289357 1.509 255 255 255
0.0198577 0.381823 1.905 255 255 255
0.199754 -0.0851436 0.433 255 255 255
0.12463 -0.145618 0.439 255 255 255
0.174727 0.0335673 0.555 255 255 255
-0.512768 0.365893 1.378 255 255 255
0.00571016 -0.174192 2.499 255 255 255
-0.329633 0.215029 1.831 255 255 255
-0.518206 0.155383 1.587 255 255 255
-0.488618 -0.430488 1.439 255 255 255
-0.186355 0.343909 1.599 255 255 255
-0.389849 -0.207004 1.848 255 255 255
-0.707324 -0.121603 1.47 255 255 255
0.0712152 0.326526 2.044 255 255 255
0.131688 0.280472 0.79 0 0 0
0.0365519 0.0137671 2.672 0 0 0
-0.54738 -0.303883 1.484 255 255 255
0.160708 -0.11535 0.438 255 255 255
-0.0708755 0.224183 2.114 0 0 0
-0.116689 0.481109 1.313 255 255 255
-0.608727 0.299296 1.435 255 255 255
-0.665794 -0.0299714 1.7 255 255 255
-0.123894 0.421427 1.369 255 255 255
0.12023 -0.146042 0.436 255 255 255
0.100222 -0.0751703 0.503 255 255 255
0.119826 0.0450643 0.627 255 255 255
-0.686104 -0.0438033 1.599 255 255 255
0.0917585 -0.541725 2.057 255 255 255
-0.729175 0.168295 1.563 255 255 255
0.259383 -0.355597 2.638 255 255 255
0.179587 -0.111433 0.408 255 255 255
0.111694 0.233647 0.759 255 255 255
-0.482973 0.403095 1.345 255 255 255
0.15985 -0.0117964 0.524 255 255 255
0.165052 -0.150422 0.397 255 255 255
-0.147323 0.440464 1.359 255 255 255
-0.62616 -0.186931 1.535 255 255 255
0.174938 -0.118073 0.408 255 255 255
-0.385543 0.0243146 2.085 255 255 255
-0.41153 -0.0774546 1.997 255 255 255
-0.653847 0.482048 1.249 255 255 255
-0.271779 -0.0224523 2.365 255 255 255
0.203826 -0.107309 0.41 255 255 255
0.186085 0.0775932 0.61 255 255 255
-0.643491 -0.358206 1.281 255 255 255
-0.0106924 0.19419 2.53 255 255 255
0.297785 -0.685807 2.22 255 255 255
0.137448 0.130627 0.668 255 255 255
-0.320152 0.13778 1.917 255 255 255
-0.685488 0.338984 1.378 255 255 255
-0.224159 0.304656 1.52 255 255 255
0.118546 -0.605326 2.057 255 255 255
-0.617771 -0.189923 1.539 255 255 255
-0.236482 0.359853 1.416 255 255 255
-0.637959 -0.419364 1.234 255 255 255
-0.615458 0.334427 1.387 255 255 255
-0.101993 0.291861 1.865 0 0 0
-0.606559 -0.318283 1.419 255 255 255
0.0353626 -0.579196 1.905 255 255 255
-0.53725 0.416852 1.333 255 255 255
-0.438283 -0.421086 1.551 255 255 255
-0.718848 -0.0101071 1.62 255 255 255
0.199061 0.267005 0.792 255 255 255
-0.624846 0.264074 1.473 255 255 255
0.053411 0.274938 2.278 255 255 255
0.166715 -0.138887 0.401 255 255 255
0.24 0.045219 0.513 255 255 255
-0.328422 -0.440596 1.673 255 255 255
-0.112258 0.0454093 2.499 255 255 255
0.298008 -0.0153922 0.737 255 255 255
-0.406862 -0.528898 1.384 255 255 255
0.13777 -0.109361 0.464 255 255 255
-0.00474475 -0.697809 1.826 255 255 255
-0.423412 -0.072347 1.947 255 255 255
-0.0199609 -0.556135 1.859 255 255 255
0.0847754 -0.187088 2.684 255 255 255
-0.317074 0.411612 1.366 255 255 255
0.169978 -0.133666 0.401 255 255 255
-0.0162057 -0.489361 2.166 255 255 255
-0.345973 -0.0641174 2.092 255 255 255
0.0209522 0.334178 2.01 0 0 0
0.130707 0.0151532 0.576 255 255 255
-0.27957 -0.553069 1.539 255 255 255
-0.744441 -0.116263 1.463 255 255 255
-0.526019 0.22303 1.52 255 255 255
-0.265761 -0.336358 1.953 255 255 255
-0.493539 0.356998 1.387 255 255 255
-0.701778 -0.196316 1.439 255 255 255
0.17204 0.187297 0.737 255 255 255
0.128445 -0.00990819 0.562 255 255 255
-0.0267832 -0.404766 2.166 255 255 255
-0.0113432 0.048771 2.684 255 255 255
0.247872 0.0993059 0.559 255 255 255
0.200096 0.235731 0.713 0 0 0
-0.55879 -0.388864 1.359 255 255 255
-0.48506 -0.302969 1.65 255 255 255
0.0868516 -0.690187 1.947 255 255 255
-0.544505 -0.472317 1.351 255 255 255
-0.398407 -0.260934 1.805 255 255 255
-0.528804 0.465214 1.281 255 255 255
-0.342468 0.329599 1.445 255 255 255
-0.496655 -0.11179 1.865 255 255 255
0.203011 0.2272 0.754 255 255 255
-0.509261 0.121406 1.616 255 255 255
0.220313 0.210146 0.672 255 255 255
0.0121283 -0.523055 2.189 255 255 255
0.116156 -0.507338 2.347 255 255 255
-0.210609 -0.554528 1.758 255 255 255
0.146608 0.158755 0.696 255 255 255
0.26672 -0.787982 2.173 255 255 255
-0.200905 0.338853 1.677 255 255 255
-0.611928 0.370187 1.369 255 255 255
-0.109159 -0.117975 2.43 255 255 255
-0.390082 -0.272137 1.821 255 255 255
0.124637 -0.249312 2.604 255 255 255
-0.31544 -0.478358 1.691 255 255 255
-0.65404 -0.317465 1.302 255 255 255
0.20456 0.201023 0.66 0 0 0
-0.690461 -0.0940761 1.528 255 255 255
-0.0121647 -0.537111 2.078 255 255 255
-0.592239 -0.435668 1.252 255 255 255
0.126487 -0.135674 0.456 255 255 255
0.174197 -0.0769852 0.447 255 255 255
-0.430718 0.3497 1.403 255 255 255
-0.494961 -0.504236 1.366 255 255 255
-0.503486 0.389598 1.359 255 255 255
0.0139139 -0.545921 1.941 255 255 255
0.166593 -0.127946 0.412 255 255 255
-0.455157 0.366026 1.387 255 255 255
-0.3002 -0.406766 1.714 255 255 255
0.130857 -0.118935 0.469 255 255 255
0.122381 -0.761583 2.01 255 255 255
-0.152091 0.480301 1.305 255 255 255
-0.595945 -0.225864 1.528 255 255 255
-0.489005 -0.0630266 1.859 255 255 255
0.123043 0.168676 0.724 255 255 255
-0.38667 0.181585 1.739 255 255 255
0.130608 -0.452776 2.402 255 255 255
-0.1982 0.387176 1.39 255 255 255
-0.502532 -0.335181 1.539 255 255 255
-0.573952 0.263631 1.484 255 255 255
-0.306867 -0.20164 1.972 255 255 255
-0.311941 0.488145 1.281 255 255 255
-0.348857 0.450164 1.31 255 255 255
-0.457171 0.116376 1.696 255 255 255
-0.464726 0.207921 1.555 255 255 255
-0.645945 0.362859 1.375 255 255 255
-0.421147 0.44366 1.316 255 255 255
-0.0542281 -0.406111 2.136 255 255 255
0.135689 -0.152083 0.431 255 255 255
0.142879 0.227971 0.729 0 0 0
-0.528523 -0.299973 1.513 255 255 255
0.233385 0.08898 0.557 255 255 255
0.243232 0.13118 0.592 255 255 255
-0.237036 -0.424132 1.763 255 255 255
0.197107 -0.0301426 0.465 255 255 255
-0.295968 -0.509802 1.659 255 255 255
-0.495984 -0.500845 1.375 255 255 255
-0.0490332 -0.560694 1.815 255 255 255
0.0567625 0.314977 0.908 255 255 255
0.141124 -0.159652 0.416 255 255 255
-0.678713 -0.153582 1.502 255 255 255
-0.354064 0.498307 1.275 255 255 255
-0.135818 0.308566 1.753 255 255 255
-0.0642844 0.427368 1.381 255 255 255
0.111241 -0.0756867 0.501 255 255 255
0.119324 0.251755 2.411 255 255 255
-0.125863 0.393657 1.559 255 255 255
-0.350153 -0.543211 1.498 255 255 255
0.190099 -0.0998383 0.415 255 255 255
-0.178695 -0.559831 1.624 0 0 0
0.121458 0.0794503 0.641 255 255 255
0.187049 0.000984914 0.519 255 255 255
0.170509 -0.120099 0.415 255 255 255
-0.189463 -0.415813 1.953 255 255 255
0.156426 -0.121209 0.436 255 255 255
-0.576273 0.374643 1.369 255 255 255
0.154291 -0.121765 0.438 255 255 255
-0.51808 0.494399 1.265 255 255 255
-0.59703 -0.278427 1.452 255 255 255
0.189477 -0.0689837 0.447 255 255 255
-0.550482 -0.20368 1.629 255 255 255
-0.0619104 0.476516 1.33 255 255 255
-0.494956 0.176044 1.587 255 255 255
-0.320272 0.243663 1.779 255 255 255
-0.0823826 -0.642349 1.71 255 255 255
-0.034832 0.456058 1.466 255 255 255
0.130842 -0.0322481 0.538 255 255 255
-0.580946 0.174713 1.575 255 255 255
-0.563289 -0.463855 1.333 255 255 255
-0.0182558 -0.537551 2.004 255 255 255
-0.191388 -0.554596 1.714 255 255 255
-0.0280119 0.447069 1.624 255 255 255
-0.490006 -0.36273 1.539 255 255 255
0.183253 -0.255898 2.719 255 255 255
-0.549524 0.125647 1.603 255 255 255
-0.626809 -0.399898 1.281 255 255 255
0.164268 -0.00330663 0.53 255 255 255
-0.557173 -0.267433 1.524 255 255 255
-0.524246 0.0920173 1.655 255 255 255
0.134204 0.185938 0.727 255 255 255
-0.710173 -0.123658 1.466 255 255 255
0.286517 -0.711997 2.136 255 255 255
-0.0641926 0.425944 1.429 255 255 255
-0.196639 -0.551957 1.664 255 255 255
-0.454153 0.134043 1.865 255 255 255
-0.0207366 0.407079 1.677 255 255 255
0.147579 0.0549796 0.591 255 255 255
-0.341342 -0.0867709 2.064 255 255 255
-0.599308 -0.332233 1.381 255 255 255
-0.611846 -0.451494 1.234 255 255 255
0.264019 -0.737999 2.151 255 255 255
-0.515993 -0.112423 1.826 255 255 255
0.105348 -0.0208168 0.614 255 255 255
0.119636 0.184835 0.732 255 255 255
0.117606 0.0933314 2.844 0 0 0
-0.322215 0.237925 1.758 255 255 255
-0.278489 0.299048 1.48 255 255 255
0.0778203 -0.751823 1.959 255 255 255
0.247604 0.043519 0.503 255 255 255
-0.719587 -0.0810021 1.516 255 255 255
-0.57978 -0.377934 1.336 255 255 255
-0.620976 0.146891 1.579 255 255 255
-0.399597 0.34816 1.406 255 255 255
-0.0713637 -0.428903 2.03 255 255 255
-0.149277 0.484434 1.299 255 255 255
-0.443625 0.185435 1.579 255 255 255
-0.0730401 0.334241 1.753 255 255 255
-0.244238 0.0262738 2.253 255 255 255
0.355963 0.0740711 0.945 0 0 0
-0.0675313 0.117594 2.66 255 255 255
0.211846 -0.360653 2.582 0 0 0
0.140387 -0.153753 0.424 255 255 255
-0.41616 0.149961 1.612 255 255 255
0.122644 0.219049 0.743 255 255 255
0.2776 -0.724255 2.121 255 255 255
0.323816 -0.00722462 0.761 255 255 255
-0.636316 -0.445913 1.208 255 255 255
-0.549378 -0.264319 1.595 255 255 255
0.141056 0.0294162 0.58 255 255 255
0.148771 -0.0764198 0.48 255 255 255
0.12306 -0.15068 0.431 255 255 255
0.0911273 -0.396395 2.392 255 255 255
0.133422 -0.103192 0.481 255 255 255
-0.630097 -0.0801066 1.65 255 255 255
-0.163435 0.294942 1.774 255 255 255
0.179348 -0.0793598 0.44 255 255 255
0.194331 -0.0645321 0.462 255 255 255
0.124203 -0.149955 0.435 255 255 255
-0.644324 -0.0500331 1.724 255 255 255
-0.305229 -0.364748 1.81 255 255 255
-0.483685 -0.359833 1.559 255 255 255
0.127687 -0.109909 0.483 255 255 255
0.227586 0.119903 0.584 255 255 255
-0.631136 -0.294345 1.372 255 255 255
-0.0698262 -0.572817 1.744 255 255 255
-0.118592 0.38641 1.412 255 255 255
-0.526258 0.0476083 1.929 255 255 255
-0.222401 -0.394571 1.882 255 255 255
0.166248 0.0441292 0.563 255 255 255
-0.182586 0.252378 1.821 255 255 255
-0.673532 0.278184 1.459 255 255 255
0.204919 -0.0821349 0.432 255 255 255
-0.53349 -0.415153 1.403 255 255 255
-0.0148396 0.451097 1.629 255 255 255
-0.469257 -0.4582 1.409 255 255 255
-0.0703052 -0.358067 2.204 255 255 255
-0.228215 0.481451 1.291 255 255 255
0.178692 -0.0659313 0.451 255 255 255
0.191605 0.0242703 0.549 255 255 255
-0.663953 -0.173008 1.48 255 255 255
-0.427857 0.470946 1.291 255 255 255
-0.00179373 -0.667122 1.848 255 255 255
-0.0926794 -0.459543 1.991 255 255 255
-0.570255 -0.446104 1.319 255 255 255
0.154897 -0.146403 0.413 255 255 255
-0.630055 -0.347928 1.305 255 255 255
0.205322 0.278105 0.749 255 255 255
-0.293132 -0.258614 1.966 255 255 255
0.071962 -0.139612 2.695 255 255 255
-0.0332071 0.489919 1.308 255 255 255
-0.252037 0.280658 1.524 255 255 255
-0.61801 -0.393741 1.302 255 255 255
-0.36026 -0.278191 1.882 255 255 255
-0.372375 0.253339 1.509 255 255 255
0.12753 -0.0108227 0.562 255 255 255
-0.419861 0.230826 1.539 255 255 255
-0.6511 0.000461007 1.705 255 255 255
-0.169598 -0.177519 2.189 255 255 255
-0.159009 0.381332 1.696 255 255 255
-0.370759 -0.41082 1.62 255 255 255
-0.664456 0.403265 1.31 255 255 255
-0.665103 0.0990083 1.637 255 255 255
0.0198577 -0.551296 1.905 255 255 255
-0.480648 0.0886919 1.935 255 255 255
-0.6746 -0.291827 1.33 255 255 255
0.00105345 0.480417 1.603 255 255 255
-0.308817 -0.475371 1.7 255 255 255
-0.105361 0.412537 1.677 255 255 255
0.135641 -0.0714865 0.489 255 255 255
0.127983 0.0588757 0.622 255 255 255
-0.487343 0.419022 1.333 255 255 255
-0.534632 0.194226 1.567 255 255 255
0.134845 -0.0722823 0.489 255 255 255
-0.681491 0.0437759 1.664 255 255 255
-0.740825 0.246791 1.47 255 255 255
0.158917 -0.0966255 0.447 255 255 255
-0.376063 -0.30179 1.769 255 255 255
-0.544222 0.00345574 1.821 255 255 255
0.177418 -0.0593976 0.463 255 255 255
-0.503838 -0.326009 1.543 255 255 255
0.304133 -0.499608 2.383 0 0 0
0.113255 0.174104 0.737 255 255 255
0.135698 0.261754 0.769 0 0 0
0.199183 0.184926 2.695 255 255 255
0.27721 -0.550582 2.32 255 255 255
-0.0284456 -0.568474 1.821 255 255 255
-0.359296 -0.535089 1.456 255 255 255
-0.45208 0.317182 1.442 255 255 255
-0.141153 -0.298356 2.136 255 255 255
-0.459484 -0.373474 1.563 255 255 255
0.205996 0.127541 0.593 0 0 0
-0.641984 -0.388563 1.278 255 255 255
-0.104539 -0.0156535 2.509 255 255 255
-0.17204 -0.562571 1.587 255 255 255
-0.334682 0.104899 2.004 255 255 255
-0.555824 -0.381277 1.396 255 255 255
-0.698999 -0.258777 1.327 255 255 255
0.167719 0.00790566 0.53 255 255 255
0.321916 -0.546549 2.212 255 255 255
0.052526 0.372825 0.966 255 255 255
-0.511221 -0.32182 1.535 255 255 255
0.151614 0.116683 0.645 255 255 255
-0.527764 -0.411464 1.406 255 255 255
-0.621539 -0.131282 1.587 255 255 255
-0.478247 -0.360221 1.583 255 255 255
0.208515 0.273459 0.743 255 255 255
0.100925 0.25179 0.801 255 255 255
0.122319 -0.0535797 0.524 255 255 255
0.0776802 -0.23138 2.593 255 255 255
-0.683498 0.154208 1.575 255 255 255
-0.723267 0.0823653 1.624 255 255 255
-0.363323 0.165891 1.882 255 255 255
-0.0688012 -0.186975 2.402 255 255 255
0.0296823 0.479219 1.599 255 255 255
-0.492425 0.387387 1.359 255 255 255
-0.448125 -0.520279 1.422 255 255 255
-0.0604067 -0.334156 2.236 255 255 255
0.230606 0.173353 0.76 255 255 255
-0.460473 -0.399249 1.516 255 255 255
0.210269 -0.0733576 0.43 0 0 0
-0.510376 -0.442614 1.396 255 255 255
0.12699 -0.679457 2.143 255 255 255
-0.544936 0.483953 1.27 255 255 255
0.232271 0.0475284 0.52 0 0 0
0.111491 0.30937 2.181 0 0 0
0.136472 -0.520313 2.303 255 255 255
-0.165021 0.436041 1.359 255 255 255
0.19161 -0.135842 0.378 255 255 255
-0.391895 -0.118376 2.03 255 255 255
-0.336798 -0.230056 1.941 255 255 255
-0.660297 -0.21996 1.456 255 255 255
0.130867 -0.076729 0.492 255 255 255
-0.415414 -0.528929 1.39 255 255 255
0.122204 -0.010919 0.567 255 255 255
0.112242 0.0712162 0.642 255 255 255
-0.529212 0.488995 1.267 255 255 255
0.0983132 0.117352 0.699 255 255 255
0.151274 -0.0259916 0.518 255 255 255
-0.325904 -0.0369987 2.312 255 255 255
-0.0930593 0.144784 2.53 255 255 255
-0.325135 -0.236219 1.966 255 255 255
-0.30317 0.473135 1.297 255 255 255
-0.508842 0.478683 1.278 255 255 255
0.145086 -0.034554 0.52 255 255 255
-0.573389 0.0309816 1.705 255 255 255
-0.393334 -0.505395 1.4 255 255 255
-0.420242 -0.420721 1.559 255 255 255
-0.0133824 -0.337909 2.286 255 255 255
-0.333016 -0.48344 1.616 255 255 255
-0.587375 0.33515 1.39 255 255 255
-0.524388 -0.167438 1.664 255 255 255
-0.149326 -0.337533 2.057 255 255 255
0.180571 -0.69826 2.158 255 255 255
0.186494 -0.102046 0.413 255 255 255
0.0108775 0.100279 2.78 255 255 255
0.0630945 0.165395 0.769 255 255 255
-0.484511 -0.108755 1.865 255 255 255
0.121647 0.0067871 0.582 255 255 255
0.0420882 0.389772 1.929 255 255 255
0.115987 -0.141725 0.447 255 255 255
-0.480597 -0.255461 1.691 255 255 255
-0.623071 0.374643 1.369 255 255 255
0.14442 0.0632782 0.606 255 255 255
-0.566999 -0.144959 1.686 255 255 255
0.127366 0.128169 0.678 255 255 255
-0.021797 -0.531311 2.03 255 255 255
0.174187 0.0531191 0.571 255 255 255
-0.620387 0.156373 1.571 255 255 255
-0.0420289 0.334266 1.899 255 255 255
0.100472 -0.0978875 2.755 255 255 255
-0.527727 -0.38053 1.463 255 255 255
0.0561305 0.0459914 2.78 0 0 0
-0.0225172 -0.681082 1.821 255 255 255
0.299195 -0.620634 2.286 255 255 255
-0.00225187 -0.316507 2.32 255 255 255
-0.66384 -0.303054 1.313 255 255 255
-0.252896 -0.43973 1.734 255 255 255
0.152271 -0.224925 2.719 255 255 255
0.127309 -0.0478832 0.527 255 255 255
0.156066 -0.114705 0.441 255 255 255
0.117705 -0.139855 0.448 255 255 255
0.116825 -0.0702297 0.497 255 255 255
-0.166675 0.209725 2.107 255 255 255
-0.454169 -0.39495 1.528 255 255 255
-0.0830744 0.415752 1.668 255 255 255
0.04235 -0.722805 1.941 255 255 255
-0.423849 -0.195625 1.826 255 255 255
-0.340098 0.336659 1.435 255 255 255
-0.317285 0.430318 1.348 255 255 255
-0.622443 -0.199031 1.532 255 255 255
0.115779 -0.0604364 0.503 255 255 255
0.135437 -0.112066 0.469 255 255 255
0.0281802 0.409339 1.664 255 255 255
0.0350728 0.303878 2.071 255 255 255
-0.536398 0.311997 1.429 255 255 255
-0.715336 0.0955793 1.624 255 255 255
-0.605787 -0.401851 1.294 255 255 255
0.225559 -0.630272 2.294 255 255 255
0.278516 -0.712793 2.128 255 255 255
0.208313 0.268016 0.738 255 255 255
-0.315087 0.237619 1.799 255 255 255
0.132457 -0.0603458 0.489 255 255 255
-0.489198 0.105126 1.837 255 255 255
-0.667069 -0.23711 1.445 255 255 255
-0.540862 -0.269125 1.624 255 255 255
-0.216202 -0.555423 1.734 255 255 255
-0.76508 -0.0791567 1.528 255 255 255
-0.741314 0.21593 1.505 255 255 255
-0.370899 0.25401 1.513 255 255 255
-0.165858 -0.0772046 2.392 0 0 0
-0.723788 0.1546 1.579 255 255 255
-0.313112 -0.486968 1.664 255 255 255
0.1559 -0.0326059 0.503 255 255 255
0.188963 -0.114889 0.397 255 255 255
0.182093 0.205645 0.734 0 0 0
-0.445288 -0.344254 1.642 255 255 255
-0.378191 0.358833 1.403 255 255 255
0.110127 0.0634457 0.648 255 255 255
0.132197 -0.0572892 0.497 255 255 255
-0.364545 -0.313305 1.769 255 255 255
-0.237348 -0.568504 1.494 255 255 255
0.104169 0.301252 2.253 0 0 0
-0.363312 -0.539773 1.502 255 255 255
-0.543254 -0.10953 1.779 255 255 255
0.145406 0.0652505 0.606 255 255 255
0.109599 -0.27319 2.55 255 255 255
-0.302827 -0.399071 1.729 255 255 255
0.169813 0.240813 0.743 255 255 255
0.142318 0.00378985 0.559 255 255 255
-0.567628 -0.385762 1.333 255 255 255
-0.665297 -0.15748 1.516 255 255 255
0.2018 0.211152 0.745 255 255 255
-0.183109 0.480207 1.299 255 255 255
0.152296 0.204917 0.723 255 255 255
0.225907 0.165688 0.624 255 255 255
0.0330524 0.447984 1.637 255 255 255
0.186145 -0.724944 2.064 255 255 255
-0.322072 -0.380895 1.789 255 255 255
-0.322979 0.333608 1.442 255 255 255
0.159154 -0.0680368 0.476 255 255 255
-0.480818 0.414371 1.339 255 255 255
0.183793 -0.117474 0.397 255 255 255
-0.689058 -0.0362897 1.612 255 255 255
-0.387631 -0.0569252 2.078 255 255 255
-0.453791 0.258114 1.494 255 255 255
-0.426034 -0.398394 1.571 255 255 255
-0.174068 0.345574 1.473 255 255 255
-0.674983 0.0438812 1.668 255 255 255
-0.406149 0.402868 1.359 255 255 255
-0.0288817 -0.533492 2.064 255 255 255
-0.0920067 0.341905 1.734 255 255 255
-0.472339 -0.1619 1.691 255 255 255
-0.490903 -0.405091 1.432 255 255 255
-0.558743 -0.21139 1.607 255 255 255
-0.403915 -0.088383 2.024 255 255 255
0.134019 0.212856 0.726 255 255 255
-0.039413 0.494028 1.302 255 255 255
0.238969 0.0787679 0.549 255 255 255
0.239842 0.0671825 0.535 255 255 255
0.232101 0.0419613 0.514 0 0 0
-0.675041 -0.266836 1.357 255 255 255
0.265537 -0.699668 2.253 255 255 255
0.128725 -0.0897213 0.493 255 255 255
0.0623782 0.282515 0.863 255 255 255
-0.352448 0.0613452 2.196 0 0 0
0.00868638 -0.382343 2.22 255 255 255
-0.187045 -0.578397 1.52 255 255 255
-0.484047 -0.507429 1.412 255 255 255
0.325436 -0.00226506 0.759 255 255 255
-0.5857 0.0754454 1.646 255 255 255
-0.509152 0.150597 1.591 255 255 255
0.349182 0.0560664 0.927 255 255 255
-0.094972 0.0763299 2.582 255 255 255
0.118754 0.29767 0.816 255 255 255
0.219761 0.181012 0.761 0 0 0
0.155524 -0.137919 0.422 255 255 255
-0.535199 0.368136 1.378 255 255 255
-0.619958 -0.401713 1.267 255 255 255
-0.613753 -0.295404 1.409 255 255 255
0.223572 -0.366437 2.479 255 255 255
0.146289 -0.0868094 0.477 255 255 255
-0.152229 -0.336548 2.051 255 255 255
0.137479 -0.122108 0.458 255 255 255
-0.578798 0.367334 1.375 255 255 255
-0.692169 -0.213167 1.396 255 255 255
0.16364 0.0958624 0.619 255 255 255
-0.629238 -0.0683381 1.691 255 255 255
-0.654938 -0.335799 1.283 255 255 255
0.232165 0.043804 0.516 0 0 0
-0.623924 -0.128827 1.655 255 255 255
-0.239568 0.324182 1.463 255 255 255
0.112281 0.154325 0.723 255 255 255
0.168374 -0.0676856 0.463 255 255 255
-0.586616 -0.386882 1.322 255 255 255
-0.439258 -0.0438313 1.947 255 255 255
0.120068 -0.145287 0.438 255 255 255
-0.0676652 0.441784 1.624 255 255 255
0.123395 0.244702 0.755 255 255 255
0.033718 -0.543784 1.991 0 0 0
0.161336 -0.0840969 0.458 255 255 255
-0.55355 0.393442 1.357 255 255 255
-0.363491 0.280854 1.473 255 255 255
0.203951 -0.501574 2.303 255 255 255
-0.379448 -0.305635 1.758 255 255 255
0.222395 0.215478 0.675 255 255 255
-0.743795 -0.0429267 1.567 255 255 255
-0.185215 0.451248 1.345 255 255 255
-0.135749 0.496157 1.291 255 255 255
-0.707739 0.069705 1.637 255 255 255
0.101207 0.147099 0.728 255 255 255
-0.564524 0.25517 1.491 255 255 255
-0.61463 -0.096742 1.659 255 255 255
-0.730226 0.0241048 1.616 255 255 255
0.211843 -0.0401509 0.476 255 255 255
-0.704406 -0.20455 1.354 255 255 255
-0.236154 0.395368 1.387 255 255 255
0.243275 0.0559905 0.52 255 255 255
-0.21217 -0.100566 2.303 0 0 0
-0.641648 -0.393974 1.249 255 255 255
-0.475232 -0.194614 1.763 255 255 255
-0.134845 0.396224 1.39 255 255 255
0.269088 -0.326904 2.649 255 255 255
-0.093661 -0.376057 2.085 255 255 255
0.133408 -0.147123 0.435 255 255 255
-0.202665 -0.45141 1.815 255 255 255
-0.220325 -0.573366 1.494 255 255 255
-0.152363 0.365882 1.449 255 255 255
-0.72019 0.0826189 1.629 255 255 255
0.136717 -0.0286927 0.537 255 255 255
0.165689 0.0269505 0.549 255 255 255
0.133127 -0.126659 0.461 255 255 255
-0.0769103 -0.230831 2.294 255 255 255
-0.075071 -0.569532 1.734 255 255 255
0.0491154 0.519172 1.555 255 255 255
0.17705 -0.0408241 0.466 255 255 255
-0.231873 0.409848 1.375 255 255 255
-0.16911 0.493291 1.289 255 255 255
-0.55151 0.307991 1.432 255 255 255
0.156716 -0.0389627 0.471 255 255 255
0.148676 -0.0403858 0.498 255 255 255
-0.677147 -0.251904 1.348 255 255 255
-0.414998 0.405079 1.359 255 255 255
0.1275 0.312855 0.821 0 0 0
-0.226526 -0.556585 1.607 255 255 255
-0.644719 0.400505 1.322 255 255 255
-0.683534 -0.194783 1.445 255 255 255
0.168945 0.0785349 0.602 255 255 255
-0.338255 0.493241 1.278 255 255 255
-0.502723 -0.482613 1.4 255 255 255
0.159668 0.267878 0.758 255 255 255
0.186145 -0.718226 2.064 255 255 255
0.11348 -0.00549679 0.579 255 255 255
-0.182891 -0.00313725 2.312 255 255 255
-0.468173 -0.387583 1.509 255 255 255
-0.557043 -0.330448 1.484 255 255 255
-0.0514453 0.180329 2.509 255 255 255
-0.478877 -0.323823 1.62 255 255 255
0.113329 -0.141313 0.448 255 255 255
-0.228804 0.298468 1.744 255 255 255
-0.29796 0.142223 1.935 255 255 255
0.180172 -0.117416 0.399 255 255 255
-0.409115 -0.519889 1.384 255 255 255
0.127086 -0.0813885 0.496 255 255 255
-0.287914 -0.445336 1.691 255 255 255
-0.541742 -0.487208 1.297 255 255 255
-0.566437 -0.304853 1.477 255 255 255
0.181315 0.0582294 0.585 255 255 255
0.152731 -0.152307 0.409 255 255 255
-0.143914 0.368407 1.459 255 255 255
-0.469284 -0.476607 1.416 255 255 255
0.103335 0.105275 0.687 255 255 255
-0.443194 0.143532 1.87 255 255 255
0.241153 -0.486131 2.374 255 255 255
-0.409825 0.0138102 2.037 255 255 255
-0.566999 -0.0791107 1.686 255 255 255
-0.126283 -0.454116 2.01 255 255 255
0.0134479 -0.558168 1.876 255 255 255
-0.217674 -0.413162 1.842 255 255 255
-0.264835 -0.292158 2.044 255 255 255
0.0212076 0.247832 2.411 255 255 255
-0.11687 0.383707 1.419 255 255 255
-0.345601 -0.418914 1.543 255 255 255
-0.211677 0.222316 1.842 255 255 255
-0.195219 -0.408198 1.947 255 255 255
-0.0249407 -0.534473 2.017 255 255 255
-0.708805 0.288421 1.439 255 255 255
-0.206615 0.2052 1.935 0 0 0
0.222622 -0.0568121 0.486 255 255 255
0.181195 -0.241353 2.755 255 255 255
0.199141 -0.0364298 0.468 255 255 255
0.0351152 -0.368956 2.294 255 255 255
-0.536156 0.172587 1.579 255 255 255
-0.0396315 0.413037 1.668 255 255 255
-0.586055 -0.195212 1.603 255 255 255
-0.595209 -0.412023 1.267 255 255 255
-0.193724 0.337173 1.71 255 255 255
0.216445 -0.227474 2.805 255 255 255
-0.267216 -0.508658 1.682 255 255 255
0.129008 -0.0673696 0.488 255 255 255
-0.480664 0.166131 1.591 255 255 255
0.165828 -0.0792773 0.456 255 255 255
0.207837 -0.100271 0.414 255 255 255
0.137259 -0.157573 0.425 255 255 255
-0.708719 0.271805 1.463 255 255 255
-0.490015 0.20136 1.563 255 255 255
-0.456935 0.382162 1.372 255 255 255
-0.652426 0.34046 1.384 255 255 255
0.130161 -0.0560771 0.508 255 255 255
-0.283443 0.0626861 2.244 0 0 0
-0.587956 0.150218 1.587 255 255 255
0.186145 -0.701433 2.064 255 255 255
0.163901 -0.0501404 2.844 0 0 0
0.203454 0.189327 0.653 0 0 0
0.21043 0.270051 0.737 255 255 255
-0.61954 -0.289534 1.381 255 255 255
-0.535887 0.468284 1.278 255 255 255
-0.102402 -0.508143 1.991 255 255 255
-0.468967 0.424811 1.324 255 255 255
-0.322499 0.110697 2.051 255 255 255
-0.641283 -0.428266 1.225 255 255 255
0.152623 0.179212 0.719 0 0 0
-0.351793 0.449058 1.313 255 255 255
-0.258594 0.492083 1.275 255 255 255
-0.303505 0.0866751 2.204 0 0 0
0.158794 0.0226473 0.553 255 255 255
0.231293 0.00639202 0.481 255 255 255
0.207816 0.208583 0.667 0 0 0
0.194001 0.192907 2.684 255 255 255
0.175513 0.0774264 0.601 255 255 255
0.230985 0.164672 0.624 255 255 255
-0.399724 0.496233 1.275 255 255 255
0.167867 -0.150186 0.393 255 255 255
-0.481748 0.466022 1.289 255 255 255
0.138746 -0.133248 0.443 255 255 255
-0.339784 0.416137 1.359 255 255 255
-0.308817 -0.411743 1.7 255 255 255
-0.413401 0.282188 1.48 255 255 255
-0.671326 0.293105 1.439 255 255 255
0.120159 -0.555885 2.085 255 255 255
0.165916 -0.0657892 0.471 255 255 255
0.177677 0.0140483 0.534 255 255 255
0.114628 -0.0663189 0.498 255 255 255
-0.710937 0.100616 1.62 255 255 255
0.148771 -0.0436128 0.48 255 255 255
-0.427583 -0.0871019 1.923 255 255 255
-0.281353 0.172473 1.887 255 255 255
-0.463768 -0.41581 1.487 255 255 255
-0.695004 0.0332018 1.677 255 255 255
-0.328573 0.192838 1.876 255 255 255
-0.400665 0.49532 1.278 255 255 255
-0.61718 -0.313124 1.396 255 255 255
0.172173 0.00267923 0.52 255 255 255
0.175367 -0.117031 0.409 255 255 255
0.114224 -0.10052 0.507 255 255 255
-0.588806 0.303331 1.432 255 255 255
-0.009695 -0.335358 2.294 255 255 255
-0.338249 0.464365 1.302 255 255 255
0.170182 0.092103 2.953 0 0 0
-0.339324 0.0778425 2.158 255 255 255
-0.718848 -0.0127433 1.62 255 255 255
-0.169273 0.347971 1.473 255 255 255
-0.255502 0.29246 1.677 255 255 255
-0.446501 -0.430194 1.47 255 255 255
-0.33634 0.325796 1.449 255 255 255
0.160603 -0.681896 2.173 255 255 255
-0.615173 -0.149556 1.646 255 255 255
0.11757 0.302024 0.817 255 255 255
-0.132203 0.376358 1.435 255 255 255
-0.635905 -0.00233937 1.724 255 255 255
-0.218447 0.493083 1.283 255 255 255
-0.0548343 0.364124 1.719 255 255 255
-0.316605 0.486819 1.283 255 255 255
0.169131 -0.100878 0.434 255 255 255
-0.416124 0.353509 1.4 255 255 255
0.174112 -0.130078 0.4 255 255 255
-0.389901 0.442525 1.319 255 255 255
0.127051 0.171259 0.72 255 255 255
-0.430628 0.292839 1.473 255 255 255
-0.476487 -0.408386 1.452 255 255 255
0.160239 0.185938 0.727 255 255 255
0.151473 -0.132137 0.43 255 255 255
0.13838 -0.113906 0.461 255 255 255
-0.625005 -0.117902 1.616 255 255 255
-0.368287 0.280854 1.473 255 255 255
-0.0814869 0.496352 1.297 255 255 255
-0.610187 -0.231435 1.484 255 255 255
-0.639593 -0.185357 1.502 255 255 255
0.192706 -0.0837343 0.433 255 255 255
0.223022 0.120519 0.587 0 0 0
-0.629468 0.390368 1.354 255 255 255
-0.453119 -0.194573 1.789 255 255 255
-0.395725 -0.040152 2.085 255 255 255
-0.191592 0.364459 1.425 255 255 255
0.154073 -0.10212 0.452 255 255 255
-0.496462 0.0969213 1.911 255 255 255
-0.430971 -0.184243 1.831 255 255 255
-0.548589 0.043501 1.887 255 255 255
0.12745 -0.000778885 0.574 255 255 255
0.115418 -0.0960142 0.505 255 255 255
-0.115547 -0.188143 2.32 255 255 255
-0.196685 -0.422155 1.842 255 255 255
-0.597396 -0.358505 1.387 255 255 255
0.168624 -0.0465284 0.47 255 255 255
-0.251553 0.128832 2.189 255 255 255
0.0645384 0.357818 0.935 255 255 255
0.12549 0.13532 0.692 255 255 255
-0.445015 0.292839 1.473 255 255 255
-0.221682 0.474959 1.302 255 255 255
0.10084 -0.0717531 0.502 255 255 255
-0.0766421 -0.244907 2.286 255 255 255
0.318805 -0.0317403 0.755 255 255 255
-0.222436 -0.429184 1.784 255 255 255
-0.534881 0.0219473 1.882 255 255 255
-0.167244 -0.495705 1.848 255 255 255
-0.474203 -0.310021 1.659 255 255 255
-0.747086 0.107654 1.607 255 255 255
0.208886 0.18249 0.762 255 255 255
0.22064 0.212649 0.673 255 255 255
-0.20043 -0.579123 1.509 255 255 255
-0.37729 -0.31243 1.748 255 255 255
0.0211285 -0.265152 2.402 255 255 255
-0.19795 0.26104 1.799 255 255 255
-0.753039 0.069705 1.637 255 255 255
-0.0515976 0.448714 1.539 255 255 255
-0.466932 0.235523 1.505 255 255 255
-0.0872297 -0.587411 1.696 255 255 255
-0.331551 -0.258253 1.893 255 255 255
-0.71235 -0.151085 1.432 255 255 255
0.246325 0.054508 0.514 255 255 255
-0.0837487 0.475422 1.333 255 255 255
0.0195979 -0.452609 2.228 255 255 255
-0.669825 -0.101802 1.532 255 255 255
-0.0151949 0.410323 1.668 255 255 255
0.329635 -0.00848526 0.763 255 255 255
0.149587 -0.0302064 0.518 255 255 255
0.0679245 0.167461 0.767 255 255 255
-0.520514 -0.0684454 1.842 255 255 255
0.0868527 -0.224833 2.615 255 255 255
0.148788 -0.0415849 0.493 255 255 255
-0.478764 -0.178048 1.714 255 255 255
-0.656098 0.325398 1.387 255 255 255
-0.593185 -0.448608 1.254 255 255 255
0.000868782 0.482255 1.322 255 255 255
-0.587704 -0.349894 1.435 255 255 255
0.180378 -0.134151 0.391 255 255 255
0.0705456 0.249197 0.827 255 255 255
-0.452339 -0.311703 1.668 255 255 255
-0.620665 0.286301 1.452 255 255 255
-0.399343 0.148377 1.893 255 255 255
-0.560024 0.386026 1.362 255 255 255
-0.144955 -0.466663 1.953 255 255 255
0.166299 -0.141144 0.4 255 255 255
0.217038 0.270514 0.735 255 255 255
0.141379 0.322043 0.824 255 255 255
-0.311652 -0.389705 1.763 255 255 255
0.0355426 0.4617 1.629 255 255 255
-0.601045 -0.246023 1.456 255 255 255
-0.713995 0.0356523 1.664 255 255 255
-0.569698 -0.308822 1.473 255 255 255
0.206441 -0.0953279 0.425 255 255 255
-0.753039 0.0430656 1.637 255 255 255
-0.316144 0.169941 1.893 255 255 255
0.133019 -0.0053354 0.562 255 255 255
0.125687 -0.696642 2.121 255 255 255
0.173671 0.0259148 0.546 255 255 255
-0.734069 0.0132747 1.579 255 255 255
-0.594817 0.46511 1.275 255 255 255
-0.607582 -0.299176 1.416 255 255 255
-0.798849 0.0738048 1.555 255 255 255
-0.315692 0.082523 2.189 255 255 255
0.262393 -0.714129 2.196 255 255 255
0.0590102 0.334111 0.92 255 255 255
-0.479985 0.218304 1.539 255 255 255
-0.481067 0.43311 1.31 255 255 255
0.12609 -0.741259 2.017 255 255 255
-0.465658 -0.470689 1.419 255 255 255
-0.497026 -0.218997 1.729 255 255 255
0.175366 -0.0723758 0.45 255 255 255
-0.572735 -0.47052 1.286 255 255 255
-0.0477771 0.410323 1.668 255 255 255
-0.142642 -0.450845 2.01 255 255 255
0.319259 -0.0133813 0.759 255 255 255
-0.567092 0.459965 1.278 255 255 255
-0.0433027 -0.320426 2.294 255 255 255
0.126059 -0.146333 0.439 255 255 255
0.225645 -0.0455515 0.484 255 255 255
-0.438081 -0.198588 1.799 255 255 255
-0.503799 -0.517334 1.348 255 255 255
0.165316 -0.0702481 0.465 255 255 255
0.0176804 0.34072 2.01 0 0 0
-0.719316 0.329912 1.387 255 255 255
-0.633187 0.381593 1.362 255 255 255
0.183308 -0.0978391 0.418 255 255 255
-0.697105 -0.055819 1.571 255 255 255
-0.348282 -0.351783 1.789 255 255 255
-0.611006 -0.221623 1.516 255 255 255
0.129273 -0.0953594 0.489 255 255 255
0.0390149 0.409339 1.664 255 255 255
0.0797783 -0.3746 2.402 255 255 255
-0.0877314 0.299276 1.953 0 0 0
0.126246 0.034565 0.604 255 255 255
-0.629088 -0.0108807 1.744 255 255 255
-0.431423 0.38801 1.369 255 255 255
0.136684 -0.140541 0.441 255 255 255
-0.709716 0.210107 1.516 255 255 255
0.0742871 -0.546403 2.037 255 255 255
0.11362 0.0541608 0.638 255 255 255
0.105419 0.293253 0.826 255 255 255
-0.118467 0.000664878 2.459 255 255 255
0.136497 0.0992991 0.648 255 255 255
0.208154 -0.0537673 0.48 255 255 255
0.0554508 0.258498 2.365 255 255 255
-0.565961 -0.471862 1.319 255 255 255
-0.196048 0.340616 1.659 255 255 255
-0.514431 0.431792 1.319 255 255 255
-0.608166 -0.12301 1.686 255 255 255
-0.0208478 0.401033 1.686 255 255 255
-0.370435 -0.409083 1.563 255 255 255
-0.174854 -0.479021 1.865 255 255 255
-0.0104346 -0.172101 2.469 255 255 255
0.160704 -0.065713 0.476 255 255 255
0.204194 -0.0920364 0.429 255 255 255
-0.601719 -0.29852 1.435 255 255 255
-0.119739 -0.444303 2.01 255 255 255
0.137324 0.117785 0.657 255 255 255
0.0382905 -0.382045 2.261 255 255 255
0.191113 -0.0393918 0.467 255 255 255
-0.660361 0.20764 1.516 255 255 255
-0.0812116 0.47976 1.327 255 255 255
-0.293328 0.427195 1.359 255 255 255
0.129056 0.136579 0.687 255 255 255
0.291308 -0.623931 2.312 255 255 255
-0.283392 -0.389234 1.748 255 255 255
-0.748293 0.0493099 1.668 255 255 255
-0.656956 -0.061311 1.65 255 255 255
0.203403 0.201849 0.742 255 255 255
-0.665239 0.0681468 1.664 255 255 255
0.0662658 0.236225 0.824 255 255 255
-0.313612 -0.477013 1.696 255 255 255
-0.379913 -0.326859 1.734 255 255 255
-0.471396 0.480762 1.278 255 255 255
0.182258 -0.0328128 0.46 255 255 255
0.173542 -0.0861267 0.438 255 255 255
0.12768 -0.0577305 0.508 255 255 255
0.148263 -0.113385 0.45 255 255 255
0.145234 0.186092 0.723 0 0 0
-0.297039 0.34907 1.419 255 255 255
0.179906 -0.10124 0.418 255 255 255
-0.408587 -0.159676 1.893 255 255 255
-0.593185 -0.45473 1.254 255 255 255
-0.100095 -0.206306 2.312 255 255 255
-0.49759 -0.331889 1.547 255 255 255
-0.443234 0.100659 1.923 255 255 255
-0.359544 0.21773 1.571 255 255 255
-0.412178 0.417733 1.357 255 255 255
-0.562642 -0.376733 1.396 255 255 255
0.243435 -0.119905 2.967 0 0 0
0.129799 0.0103938 0.572 255 255 255
0.10841 -0.0899041 0.503 255 255 255
-0.0328916 0.0440062 2.66 255 255 255
-0.540352 -0.309188 1.498 255 255 255
-0.114549 0.0878329 2.55 0 0 0
-0.307034 -0.141989 2.037 255 255 255
-0.236027 -0.561153 1.583 255 255 255
0.198047 -0.114089 0.401 255 255 255
0.215562 -0.0709269 0.428 0 0 0
-0.435649 -0.490051 1.442 255 255 255
-0.40598 0.380174 1.381 255 255 255
0.220038 0.0933455 0.567 0 0 0
0.131639 0.240571 0.746 255 255 255
-0.423517 -0.268675 1.705 255 255 255
-0.289591 -0.558078 1.539 255 255 255
0.134019 0.211674 0.726 255 255 255
0.180744 -0.13961 0.385 255 255 255
0.115259 -0.143908 0.447 255 255 255
-0.635359 0.325238 1.396 255 255 255
0.14819 -0.0229254 0.525 255 255 255
-0.558966 -0.336899 1.47 255 255 255
0.0861321 -0.641908 2.004 255 255 255
-0.536428 0.0595542 1.729 255 255 255
-0.394888 0.0702314 1.947 255 255 255
-0.549962 0.260022 1.491 255 255 255
-0.198886 -0.56662 1.535 255 255 255
-0.149995 0.465748 1.324 255 255 255
-0.54125 -0.0114235 1.831 255 255 255
0.161479 -0.0525447 0.476 255 255 255
-0.731499 -0.0124208 1.579 255 255 255
0.182472 0.2164 0.726 255 255 255
0.185919 -0.073247 0.442 0 0 0
-0.587571 -0.409323 1.291 255 255 255
-0.530113 -0.494224 1.31 255 255 255
0.133061 -0.0409446 0.526 255 255 255
0.0949511 0.0835446 0.683 255 255 255
-0.203392 0.320073 1.477 255 255 255
-0.670528 0.0114645 1.691 255 255 255
0.24466 -0.0684855 0.502 255 255 255
-0.0551675 0.216295 2.173 255 255 255
0.171268 -0.145338 0.392 255 255 255
0.1764 -0.104022 0.421 255 255 255
0.10463 0.134408 0.711 255 255 255
-0.281831 -0.374815 1.774 255 255 255
-0.730775 -0.00987623 1.583 255 255 255
0.143651 -0.133981 0.436 255 255 255
-0.744441 -0.0453607 1.563 255 255 255
0.224617 0.234418 0.692 255 255 255
0.00120328 -0.69972 1.831 255 255 255
-0.535773 -0.401454 1.403 255 255 255
0.176001 -0.0980944 0.425 255 255 255
-0.388452 0.407291 1.359 255 255 255
-0.0816568 -0.331765 2.22 255 255 255
-0.43804 0.362294 1.39 255 255 255
-0.0161458 -0.403271 2.158 255 255 255
0.154804 0.0966368 0.624 255 255 255
0.175893 -0.090492 0.435 255 255 255
-0.488618 -0.425805 1.439 255 255 255
0.142507 -0.715001 2.017 255 255 255
-0.631099 -0.0657802 1.696 255 255 255
-0.0481957 -0.594664 1.784 255 255 255
0.114843 0.170303 2.672 255 255 255
-0.149489 0.387683 1.4 255 255 255
-0.162629 0.336187 1.705 255 255 255
-0.663691 -0.245118 1.384 255 255 255
0.207644 0.223222 0.753 255 255 255
-0.782046 0.184901 1.532 255 255 255
0.0728838 0.246652 0.823 255 255 255
-0.257602 0.419199 1.369 255 255 255
0.163338 0.210203 0.725 0 0 0
-0.486102 -0.145389 1.691 255 255 255
0.123082 0.15256 0.704 255 255 255
-0.0582265 0.451239 1.583 255 255 255
0.148301 -0.132354 0.433 255 255 255
0.162541 -0.0901509 0.451 255 255 255
-0.620947 -0.137745 1.633 255 255 255
0.229555 0.109076 0.577 0 0 0
0.171508 -0.133333 0.4 255 255 255
-0.0136245 -0.684045 1.821 255 255 255
-0.510177 -0.0987413 1.848 255 255 255
-0.351692 0.193489 1.853 255 255 255
-0.737337 0.0132411 1.575 255 255 255
-0.44984 0.490153 1.27 255 255 255
-0.132486 0.376131 1.71 255 255 255
0.135694 -0.0554476 0.495 255 255 255
-0.679559 -0.291169 1.327 255 255 255
0.154346 -0.364959 2.469 0 0 0
-0.527013 0.0703085 1.865 255 255 255
-0.0591076 -0.579057 1.763 255 255 255
0.0539499 -0.138421 2.672 255 255 255
0.178927 0.212856 0.726 255 255 255
-0.613131 -0.027829 1.739 255 255 255
0.125813 -0.120719 0.473 255 255 255
-0.222401 -0.385383 1.882 255 255 255
-0.583266 0.272002 1.477 255 255 255
0.192364 -0.37304 2.392 255 255 255
0.236686 -0.00218129 0.473 0 0 0
0.120897 0.262346 2.365 255 255 255
-0.23659 -0.403631 1.826 255 255 255
-0.128428 0.487672 1.302 255 255 255
0.153685 -0.155254 0.408 255 255 255
-0.471551 -0.465079 1.409 255 255 255
-0.644604 -0.322284 1.313 255 255 255
0.0811449 0.262143 2.329 0 0 0
-0.0183979 -0.179407 2.459 0 0 0
0.158937 -0.103691 0.443 255 255 255
-0.509578 0.305204 1.452 255 255 255
0.135302 0.0338783 0.592 255 255 255
0.138193 0.040622 0.592 255 255 255
0.182472 -0.512631 2.269 255 255 255
-0.190724 -0.412182 1.966 255 255 255
-0.662872 0.13214 1.587 255 255 255
0.144856 -0.145807 0.427 255 255 255
-0.685672 0.299529 1.425 255 255 255
0.276692 -0.639083 2.196 255 255 255
-0.484576 -0.143818 1.705 255 255 255
-0.628903 -0.305508 1.372 255 255 255
0.144938 0.0521825 0.592 255 255 255
-0.432057 0.0852777 1.929 255 255 255
-0.220823 -0.340881 2.037 255 255 255
-0.273268 -0.322151 1.853 255 255 255
-0.576488 -0.209285 1.591 255 255 255
0.1789 -0.0146195 0.477 255 255 255
-0.682673 0.380752 1.359 255 255 255
-0.199729 -0.556105 1.763 255 255 255
-0.632343 -0.430962 1.227 255 255 255
-0.637823 0.449566 1.278 255 255 255
0.122888 0.0583286 0.627 255 255 255
-0.360439 -0.361015 1.763 255 255 255
0.22662 0.0948552 0.565 0 0 0
-0.0464662 0.455042 1.535 255 255 255
0.172422 -0.112124 0.418 255 255 255
0.179425 -0.768609 2.064 255 255 255
0.158721 -0.0315345 0.499 255 255 255
-0.174371 -0.0228036 2.402 255 255 255
-0.346301 -0.471423 1.629 255 255 255
-0.426292 -0.2659 1.705 255 255 255
0.139421 -0.104749 0.467 255 255 255
-0.376174 0.0352049 2.128 255 255 255
-0.763549 0.198294 1.52 255 255 255
0.249904 -0.0640906 0.506 255 255 255
0.112437 -0.185102 2.719 255 255 255
0.192986 -0.548526 2.22 255 255 255
-0.794019 0.0870032 1.612 255 255 255
0.148655 -0.147533 0.422 255 255 255
-0.357955 -0.196519 1.953 255 255 255
-0.460473 -0.396782 1.516 255 255 255
-0.574122 0.0652423 1.659 255 255 255
0.255318 -0.252618 2.831 255 255 255
0.0606556 0.206683 0.803 255 255 255
-0.798849 0.0889878 1.555 255 255 255
0.144382 0.140784 0.675 255 255 255
0.0105548 -0.548196 1.905 255 255 255
0.227208 0.0766421 0.553 0 0 0
0.187621 -0.0976051 0.417 255 255 255
-0.535309 0.412192 1.339 255 255 255
-0.542681 -0.283479 1.491 255 255 255
-0.391864 -0.500477 1.445 255 255 255
-0.47945 -0.452282 1.412 255 255 255
-0.397309 0.34816 1.406 255 255 255
-0.230315 -0.555423 1.734 255 255 255
-0.142383 0.493098 1.294 255 255 255
-0.352783 -0.060713 2.092 255 255 255
-0.762593 0.035225 1.528 255 255 255
-0.365192 0.245291 1.52 255 255 255
0.176116 0.1854 0.739 255 255 255
0.217688 -0.805002 2.143 255 255 255
0.306396 -0.692257 2.037 255 255 255
0.247192 -0.674969 2.22 255 255 255
-0.292096 -0.550565 1.539 255 255 255
-0.375337 0.0354531 2.143 255 255 255
-0.405826 -0.118982 1.985 255 255 255
-0.545714 -0.462349 1.354 255 255 255
0.142811 -0.160619 0.415 255 255 255
-0.211024 -0.225243 2.071 255 255 255
-0.628304 -0.383787 1.297 255 255 255
-0.381288 0.355024 1.406 255 255 255
-0.202407 0.0648091 2.32 0 0 0
-0.564893 0.193234 1.559 255 255 255
-0.069626 -0.613623 1.739 255 255 255
-0.668808 0.201296 1.524 255 255 255
0.151162 -0.162111 2.78 255 255 255
-0.393013 -0.448338 1.532 255 255 255
-0.512715 -0.343629 1.532 255 255 255
-0.341235 0.269728 1.491 255 255 255
-0.179762 -0.457846 1.853 255 255 255
-0.191833 -0.5567 1.646 255 255 255
-0.496328 -0.37062 1.52 255 255 255
0.17069 -0.0925417 0.438 255 255 255
0.340868 0.130457 1 0 0 0
-0.527352 0.128575 1.607 255 255 255
-0.393059 0.18149 1.794 255 255 255
0.174049 -0.101335 0.427 255 255 255
-0.545006 -0.495543 1.275 255 255 255
0.179948 0.0131546 0.533 255 255 255
-0.36599 0.327248 1.445 255 255 255
0.231547 0.0559927 0.528 0 0 0
-0.218756 0.241185 1.826 255 255 255
-0.349715 -0.417829 1.539 255 255 255
0.120452 -0.0913592 0.502 255 255 255
-0.683965 0.36493 1.366 255 255 255
-0.802959 0.114881 1.563 255 255 255
-0.31074 -0.567704 1.473 255 255 255
-0.641977 -0.409324 1.234 255 255 255
-0.570362 0.0390979 1.696 255 255 255
0.124272 0.276684 2.356 255 255 255
-0.711849 0.0436444 1.659 255 255 255
-0.547726 -0.399133 1.387 255 255 255
-0.621785 0.414621 1.319 255 255 255
-0.574819 0.343455 1.387 255 255 255
-0.685606 -0.290072 1.322 255 255 255
-0.61447 -0.382785 1.308 255 255 255
0.133775 -0.0681638 0.488 255 255 255
-0.425187 -0.336133 1.668 255 255 255
-0.519711 0.423614 1.327 255 255 255
0.128771 -0.141526 0.451 255 255 255
-0.394377 0.0821386 1.929 255 255 255
-0.14844 0.135541 2.303 255 255 255
-0.434259 0.381591 1.378 255 255 255
-0.377445 0.21773 1.571 255 255 255
-0.459038 -0.0806975 1.848 255 255 255
-0.670528 -0.0217358 1.705 255 255 255
-0.677643 -0.29097 1.336 255 255 255
0.155411 -0.144094 0.418 255 255 255
-0.29917 0.281103 1.487 255 255 255
-0.730506 -0.0552505 1.555 255 255 255
-0.708951 -0.00491211 1.646 255 255 255
-0.122876 0.406424 1.62 255 255 255
0.192225 -0.135226 0.378 255 255 255
-0.0312406 0.420591 1.655 255 255 255
0.118472 0.120399 0.684 255 255 255
-0.635626 -0.198025 1.487 255 255 255
-0.209213 -0.244488 2.121 255 255 255
-0.0931107 0.399347 1.409 255 255 255
-0.278547 0.214018 1.848 255 255 255
0.150982 -0.103765 0.456 255 255 255
0.342382 0.0806469 0.95 255 255 255
0.211964 0.266563 0.734 255 255 255
-0.0633385 0.426556 1.463 255 255 255
0.0634695 0.119672 2.707 255 255 255
0.170772 -0.12183 0.414 255 255 255
0.114793 0.156895 0.724 255 255 255
-0.787885 0.193856 1.524 255 255 255
-0.426705 0.487933 1.275 255 255 255
0.112208 0.189953 0.738 255 255 255
-0.0787456 0.440464 1.359 255 255 255
-0.254771 0.174508 2.017 255 255 255
0.140721 0.196953 0.724 0 0 0
-0.360729 0.461181 1.299 255 255 255
-0.490431 0.0997946 1.65 255 255 255
0.152295 -0.630326 2.107 255 255 255
-0.310437 -0.56204 1.543 255 255 255
0.194532 -0.127706 0.385 255 255 255
-0.314851 0.411612 1.366 255 255 255
0.19488 -0.442806 2.329 255 255 255
0.337461 -0.649804 2.196 255 255 255
0.188401 -0.126125 0.384 255 255 255
-0.613196 0.406006 1.333 255 255 255
0.189609 -0.115536 0.397 255 255 255
-0.579714 -0.317105 1.456 255 255 255
-0.463519 0.255683 1.494 255 255 255
-0.303496 0.403136 1.375 255 255 255
0.101615 0.314252 0.839 255 255 255
-0.618228 -0.367993 1.316 255 255 255
0.038827 -0.647256 1.923 255 255 255
0.154538 -0.0353807 0.496 255 255 255
-0.675762 -0.0475082 1.637 255 255 255
-0.168697 0.483434 1.302 255 255 255
-0.571552 -0.462178 1.322 255 255 255
0.231571 0.0880735 0.557 0 0 0
-0.591089 -0.184556 1.624 255 255 255
0.203785 0.138622 0.595 0 0 0
-0.540835 -0.483843 1.305 255 255 255
-0.600991 0.415914 1.33 255 255 255
-0.666206 -0.246961 1.357 255 255 255
0.288388 -0.730406 2.099 255 255 255
-0.665853 -0.201971 1.463 255 255 255
-0.178043 0.26191 1.805 255 255 255
-0.298108 -0.149129 2.044 255 255 255
0.12874 -0.0612666 0.49 255 255 255
0.175736 0.00507069 2.672 255 255 255
0.121933 0.0383212 0.617 255 255 255
0.14256 0.0722244 0.615 255 255 255
0.132058 -0.0254787 0.543 255 255 255
-0.565951 -0.456414 1.324 255 255 255
0.127808 0.0252505 0.593 255 255 255
0.175524 -0.0547079 0.468 255 255 255
-0.574674 -0.0305708 1.734 255 255 255
-0.337678 0.457991 1.308 255 255 255
-0.458001 0.270876 1.484 255 255 255
-0.63232 0.306486 1.425 255 255 255
0.235928 0.0664358 0.536 255 255 255
-0.20228 0.355341 1.435 255 255 255
0.151469 -0.128422 0.434 255 255 255
0.244089 -0.526623 2.365 0 0 0
0.233854 0.0306197 0.493 255 255 255
-0.537977 -0.281243 1.505 255 255 255
-0.27642 -0.485093 1.705 255 255 255
-0.655902 -0.326881 1.289 255 255 255
0.224113 -0.0733769 0.491 255 255 255
-0.00150933 0.493867 1.555 255 255 255
0.241493 -0.224976 2.831 255 255 255
-0.708532 -0.176348 1.429 255 255 255
-0.346089 0.269728 1.491 255 255 255
-0.500536 -0.527413 1.357 255 255 255
-0.187607 -0.557233 1.705 255 255 255
0.350646 0.0690167 0.939 0 0 0
-0.00203736 -0.535707 2.099 255 255 255
0.190676 -0.338425 2.638 255 255 255
0.111972 0.121807 0.692 255 255 255
-0.529509 -0.00549703 1.842 255 255 255
-0.410832 0.172368 1.821 255 255 255
0.146829 -0.157157 0.413 255 255 255
0.0734118 0.229384 0.814 255 255 255
-0.518378 0.235523 1.505 255 255 255
-0.36118 -0.44073 1.567 255 255 255
-0.0281261 -0.532618 2.01 255 255 255
0.00176385 0.0400355 2.684 0 0 0
-0.00944988 -0.366905 2.236 255 255 255
0.135161 -0.0170385 2.731 0 0 0
-0.0722484 -0.657008 1.734 255 255 255
-0.446252 0.0327234 1.978 255 255 255
0.17376 -0.0222398 0.491 255 255 255
0.163665 -0.637966 2.121 255 255 255
-0.567308 0.492445 1.26 255 255 255
-0.706696 0.299942 1.416 255 255 255
-0.513927 0.333561 1.412 255 255 255
-0.436593 0.0295045 1.978 255 255 255
0.157575 -0.455931 2.338 255 255 255
-0.461176 0.372621 1.378 255 255 255
-0.427949 0.420283 1.351 255 255 255
0.249504 0.0365296 0.497 255 255 255
-0.497722 0.277371 1.48 255 255 255
-0.680352 -0.297322 1.316 255 255 255
0.232905 0.0280984 0.491 0 0 0
-0.319353 -0.397182 1.758 255 255 255
-0.653152 -0.1637 1.528 255 255 255
0.227661 0.0308681 0.497 0 0 0
0.0975656 0.204904 2.561 0 0 0
0.0444322 0.412047 1.664 255 255 255
-0.609 0.252065 1.487 255 255 255
-0.0160935 -0.419464 2.151 255 255 255
0.153298 0.0741259 0.606 255 255 255
-0.66641 0.460237 1.273 255 255 255
-0.780126 -0.0397583 1.543 255 255 255
-0.729746 -0.154005 1.416 255 255 255
-0.671782 0.39516 1.333 255 255 255
-0.703241 -0.156833 1.442 255 255 255
-0.248216 0.492083 1.275 255 255 255
0.162868 0.123553 0.648 255 255 255
-0.158992 -0.54975 1.789 255 255 255
0.176524 -0.148621 0.384 255 255 255
0.197708 -0.116767 0.399 255 255 255
-0.661061 -0.292038 1.351 255 255 255
0.132598 -0.145666 0.437 255 255 255
-0.45139 -0.357211 1.616 255 255 255
0.245011 0.0527323 0.513 255 255 255
0.167722 0.0240493 0.544 255 255 255
-0.0108183 -0.555851 1.848 255 255 255
-0.60234 -0.177606 1.633 255 255 255
-0.581514 0.252743 1.491 255 255 255
-0.441894 0.23045 1.52 255 255 255
0.154856 -0.105329 0.45 255 255 255
0.168655 -0.00406686 0.517 255 255 255
0.236071 0.0183217 0.486 0 0 0
0.107458 0.0616207 0.651 255 255 255
-0.249715 0.15618 2.173 255 255 255
0.154139 -0.0913996 0.461 255 255 255
-0.29122 -0.126307 2.166 255 255 255
0.154049 -0.0216927 0.516 255 255 255
0.120384 -0.0651139 0.495 255 255 255
-0.4586 0.0666497 1.935 255 255 255
-0.132345 0.000654333 2.42 255 255 255
-0.497936 0.0352699 1.941 255 255 255
0.212724 0.199478 0.662 255 255 255
-0.102797 -0.412575 2.064 255 255 255
0.220813 0.25562 0.72 255 255 255
0.158678 -0.0434691 0.47 255 255 255
-0.368754 -0.377855 1.748 255 255 255
-0.378298 0.467829 1.294 255 255 255
-0.440895 0.4089 1.357 255 255 255
-0.0277241 0.0175052 2.582 255 255 255
-0.185559 -0.142379 2.253 255 255 255
-0.569798 -0.424845 1.313 255 255 255
-0.606113 0.487364 1.247 255 255 255
-0.181523 0.343501 1.7 255 255 255
-0.564255 -0.0653924 1.686 255 255 255
-0.561995 0.19729 1.551 255 255 255
0.177745 0.222307 0.726 255 255 255
-0.730039 -0.00990118 1.587 255 255 255
-0.329681 -0.0440228 2.286 255 255 255
-0.369366 -0.534382 1.487 255 255 255
-0.369356 0.405973 1.362 255 255 255
0.0958954 0.337318 0.874 255 255 255
-0.0280239 0.350816 1.794 255 255 255
0.179021 -0.0867527 0.434 255 255 255
0.154308 -0.28745 2.604 255 255 255
-0.288274 0.254707 1.532 255 255 255
-0.569872 0.155383 1.587 255 255 255
0.141718 -0.0483104 0.488 255 255 255
0.13432 0.292403 0.798 0 0 0
0.143078 0.194596 0.724 0 0 0
-0.284505 0.0156747 2.312 255 255 255
0.193245 -0.0300129 0.463 255 255 255
0.159104 -0.0426133 0.469 255 255 255
0.0683913 0.294039 0.868 255 255 255
