ply
format ascii 1.0
comment Created by Open3D
element vertex 1326
property double x
property double y
property double z
property uchar red
property uchar green
property uchar blue
end_header
0.260835 0.0807972 0.597 255 255 255
-0.298862 0.463998 2.278 255 255 255
1.04171 -0.950787 2.707 255 255 255
-0.803674 0.0151052 2.228 255 255 255
0.249612 0.250923 1.116 0 0 0
-0.853629 0.442509 1.997 255 255 255
-0.813757 0.146678 1.911 255 255 255
-0.826302 0.145311 2.469 0 0 0
-0.844383 0.206513 1.603 255 255 255
0.0602091 -1.05708 2.982 255 255 255
-0.724965 -0.303136 1.696 255 255 255
1.24654 -1.03477 2.731 255 255 255
0.247928 0.0835105 1.502 255 255 255
-0.696442 -0.413434 2.356 255 255 255
-0.856209 0.390045 1.71 255 255 255
-0.718738 -0.241316 1.748 255 255 255
0.268938 0.0189524 1.043 255 255 255
-0.853936 0.2578 2.136 255 255 255
0.216388 0.375139 1.633 255 255 255
0.0361736 0.567161 2.136 255 255 255
0.27802 -0.0197215 1.547 255 255 255
0.374661 -1.00797 2.695 255 255 255
0.257141 0.192575 1.01 255 255 255
-0.305878 0.447498 2.519 255 255 255
-0.132174 0.474233 2.347 255 255 255
0.0406918 0.653022 1.865 255 255 255
-0.67661 0.452454 2.136 255 255 255
-0.740329 -0.378762 1.513 255 255 255
-0.794299 0.00613005 1.739 255 255 255
-0.0674441 0.533579 2.228 255 255 255
1.28394 0.178015 2.793 255 255 255
-0.00952172 0.5249 2.253 255 255 255
-0.260232 0.584878 1.655 255 255 255
0.00602777 0.434295 2.638 255 255 255
0.247011 0.114265 0.626 255 255 255
0.272292 0.122637 1.03 255 255 255
-0.0663078 -0.998663 2.996 255 255 255
0.0928297 -1.12793 2.939 255 255 255
-0.56236 0.607799 1.595 255 255 255
0.224339 0.340414 2.32 0 0 0
-0.833488 0.19346 1.744 255 255 255
-0.721514 -0.596126 2.037 255 255 255
0.277618 0.0230761 0.935 255 255 255
-0.818129 0.164914 1.837 255 255 255
-0.700867 -0.563026 1.603 255 255 255
0.266306 0.179012 1.046 0 0 0
1.08337 -1.02619 2.78 255 255 255
-0.730927 -0.282702 2.261 255 255 255
-0.713914 -0.466507 1.603 255 255 255
0.302349 -0.80176 2.884 255 255 255
0.231859 0.290971 0.831 255 255 255
-0.838806 0.368785 1.985 255 255 255
0.261899 0.137738 0.845 255 255 255
-0.0317077 -1.03238 2.953 255 255 255
-0.616135 -0.999214 2.731 255 255 255
0.238301 0.137959 0.58 255 255 255
-0.0468891 0.618476 1.637 255 255 255
0.248615 0.160736 1.449 255 255 255
-0.0633767 0.604592 1.65 255 255 255
0.265149 0.0958733 1.953 255 255 255
0.270513 0.0628414 0.7 255 255 255
0.237156 0.209236 0.566 255 255 255
0.248406 0.0861017 0.607 255 255 255
-0.484636 0.314369 2.793 255 255 255
0.140171 0.512899 1.779 255 255 255
-0.357331 0.593851 1.899 255 255 255
1.41661 -0.717921 2.831 255 255 255
-0.754489 -0.391503 1.595 255 255 255
0.170625 0.514564 1.826 0 0 0
0.253624 0.0737526 0.766 255 255 255
0.251609 0.293495 0.787 0 0 0
0.239827 0.114337 0.484 255 255 255
-0.492342 0.402502 2.572 255 255 255
-0.679038 -0.64136 2.967 255 255 255
0.239945 0.275289 1 255 255 255
-0.820259 0.233905 1.612 255 255 255
-0.754654 -0.240407 2.244 255 255 255
1.32372 -0.29882 2.707 255 255 255
-0.448548 0.421619 2.561 255 255 255
-0.182278 0.610042 1.911 255 255 255
0.113137 0.495388 2.286 255 255 255
-0.00790307 0.648687 1.87 255 255 255
-0.82649 0.402278 2.128 255 255 255
1.15781 -0.953087 2.818 255 255 255
1.34905 0.162753 2.844 255 255 255
-0.788794 -0.0906659 2.44 255 255 255
-0.540856 0.37361 2.604 255 255 255
0.242016 0.192872 0.556 255 255 255
0.409756 -1.03867 2.695 255 255 255
0.240222 0.132937 0.587 255 255 255
-0.617522 0.479534 2.044 0 0 0
-0.518222 0.620777 1.595 255 255 255
0.104499 0.384625 2.743 0 0 0
-0.601171 0.553429 1.779 255 255 255
-0.84638 0.34835 1.724 255 255 255
0.250399 0.103416 0.593 255 255 255
0.247483 0.249955 0.887 0 0 0
-0.362554 0.406688 2.572 255 255 255
1.25876 -0.903708 2.672 255 255 255
-0.789356 0.539567 1.624 0 0 0
0.00184337 0.425272 2.805 255 255 255
-0.660736 -0.96458 2.66 255 255 255
-0.0049812 0.615077 1.917 255 255 255
0.0859301 0.565287 2.078 0 0 0
-0.344291 0.351844 2.996 255 255 255
1.35626 -0.33403 2.982 255 255 255
-0.723609 -0.0352871 2.768 255 255 255
1.414 0.138165 2.911 255 255 255
0.205366 0.479497 1.232 0 0 0
0.273554 0.0576068 0.72 255 255 255
-0.670965 -0.362091 2.719 255 255 255
0.209518 0.483534 1.308 255 255 255
1.05075 -0.941727 2.719 255 255 255
1.00173 -1.03279 2.996 255 255 255
0.534968 -0.999008 2.898 255 255 255
0.262864 0.0931267 0.534 255 255 255
-0.737656 -0.320132 1.459 255 255 255
0.207861 0.441759 1.923 0 0 0
-0.594797 0.416831 2.459 255 255 255
-0.448164 0.590391 1.633 255 255 255
-0.766363 -0.0714837 1.637 255 255 255
-0.721718 -0.629094 1.682 255 255 255
0.140944 0.471374 2.143 255 255 255
1.30406 0.228587 2.857 0 0 0
-0.719946 -0.513445 2.449 255 255 255
-0.721123 -0.405092 1.369 255 255 255
-0.335846 0.520038 2.114 255 255 255
-0.753862 -0.457479 1.941 255 255 255
0.284102 -0.33013 2.479 255 255 255
-0.825622 0.586673 1.587 255 255 255
0.0456602 0.646506 1.821 255 255 255
-0.859138 0.356891 1.81 0 0 0
0.224616 0.369155 2.078 0 0 0
-0.738771 -0.250763 1.429 255 255 255
-0.670954 -0.248011 2.831 255 255 255
-0.719651 -0.180678 2.719 255 255 255
-0.0267742 0.622464 1.714 255 255 255
0.261407 0.147686 0.749 0 0 0
0.299492 -0.245523 2.44 255 255 255
0.226897 0.471997 1.348 255 255 255
-0.724959 -0.345433 2.626 255 255 255
-0.475092 0.570082 1.691 255 255 255
-0.534241 0.585422 1.612 255 255 255
0.241878 0.233037 1.029 255 255 255
1.36653 0.332493 2.871 255 255 255
-0.74833 0.0371162 2.793 255 255 255
0.273431 0.0739604 1.673 255 255 255
0.24119 0.142102 0.482 255 255 255
-0.817065 0.130519 2.158 255 255 255
-0.106248 0.436407 2.55 255 255 255
1.04171 -0.955192 2.707 255 255 255
-0.692948 -0.565591 2.54 255 255 255
-0.687615 0.401581 2.392 255 255 255
0.432332 -1.02593 2.755 255 255 255
-0.398779 0.613172 1.616 255 255 255
0.256201 0.0934676 0.531 255 255 255
-0.736034 0.54774 1.978 255 255 255
-0.676765 -0.368876 2.672 255 255 255
0.265242 -0.106389 2.743 255 255 255
0.0163614 -1.02277 2.953 255 255 255
-0.00426663 0.623037 1.642 255 255 255
0.169249 0.512434 1.52 255 255 255
-0.733864 0.378348 2.469 255 255 255
-0.789399 0.0393036 1.494 255 255 255
-0.729594 0.534865 1.978 255 255 255
0.236236 0.247227 1.005 255 255 255
1.00653 -0.815178 2.967 255 255 255
-0.131837 0.606335 1.633 255 255 255
0.245016 0.109106 0.712 255 255 255
0.143995 0.443232 2.365 255 255 255
0.213234 0.43898 1.449 0 0 0
0.283238 0.0359163 0.877 255 255 255
-0.424946 0.439048 2.449 255 255 255
0.376868 -1.017 2.743 255 255 255
-0.534595 0.425523 2.44 255 255 255
-0.703453 -0.716756 1.959 255 255 255
-0.242302 0.591924 1.739 255 255 255
-0.549565 0.431613 2.303 255 255 255
-0.830153 0.190571 2.085 255 255 255
0.896562 -1.00836 2.939 255 255 255
0.246896 0.128418 0.563 255 255 255
0.168024 0.560294 1.509 0 0 0
-0.671044 -0.774391 2.996 255 255 255
-0.621524 0.588836 1.607 255 255 255
0.234264 0.290511 1.025 255 255 255
-0.733592 -0.262229 1.567 255 255 255
-0.669481 -0.488127 2.731 255 255 255
0.240273 0.136658 0.474 255 255 255
0.250619 0.0734526 0.776 255 255 255
-0.701721 -0.301163 2.107 255 255 255
-0.835645 0.517246 1.637 0 0 0
-0.802263 -0.0228757 2.057 255 255 255
-0.642331 -0.753408 1.997 255 255 255
-0.650299 0.580991 1.607 255 255 255
-0.79013 -0.143976 2.469 255 255 255
1.42312 -1.01742 2.844 255 255 255
-0.475678 0.428107 2.55 255 255 255
-0.181745 0.417451 2.561 255 255 255
-0.117319 0.618197 1.917 255 255 255
-0.644482 0.384111 2.561 255 255 255
0.252734 0.132349 0.745 0 0 0
0.251453 0.0702304 0.896 255 255 255
1.19702 -0.965476 2.925 255 255 255
-0.764489 -0.318453 2.615 255 255 255
0.276516 0.048437 0.823 255 255 255
0.680209 -0.235396 2.638 255 255 255
-0.661158 0.384111 2.561 255 255 255
-0.501159 0.577451 1.837 0 0 0
-0.0536696 0.554439 2.114 255 255 255
0.270782 0.228503 1.348 0 0 0
1.32558 -0.265707 2.684 255 255 255
-0.767719 -0.487231 1.985 255 255 255
-0.693702 -0.514617 1.432 255 255 255
-0.128596 0.416673 2.582 255 255 255
0.245055 0.226041 1.137 255 255 255
0.122159 0.560384 1.729 255 255 255
-0.121304 0.637536 1.882 255 255 255
-0.814662 0.147508 2.818 255 255 255
-0.734572 -0.254859 1.439 255 255 255
-0.779122 -0.0176489 1.587 255 255 255
0.246193 -0.0806799 2.78 255 255 255
-0.698356 -0.733097 2.967 255 255 255
-0.715123 -0.378322 1.419 255 255 255
-0.558743 0.588836 1.607 255 255 255
-0.421282 0.504255 1.997 255 255 255
0.466416 -0.317402 2.572 255 255 255
-0.794019 0.0791335 1.612 255 255 255
1.23191 -0.322708 2.615 255 255 255
-0.215132 0.536519 2.181 255 255 255
-0.719796 -0.560171 2.051 255 255 255
-0.730847 -0.557449 2.017 255 255 255
-0.666539 -0.773589 2.719 255 255 255
0.241588 0.130293 0.588 255 255 255
1.39825 -0.235016 2.898 255 255 255
-0.723607 -0.485512 1.81 255 255 255
-0.770629 0.557454 1.607 255 255 255
0.40276 -0.257435 2.44 0 0 0
-0.729695 -0.17988 2.707 255 255 255
0.257737 0.268294 1.372 0 0 0
-0.70601 -0.302505 1.633 255 255 255
-0.753051 -0.119798 1.539 255 255 255
-0.71721 -0.627192 1.794 255 255 255
-0.365784 0.595946 1.848 0 0 0
-0.48619 0.520621 2.01 255 255 255
-0.506631 0.592134 1.616 255 255 255
-0.748394 -0.578027 1.842 255 255 255
-0.0346783 0.553339 2.22 255 255 255
0.304169 -0.794254 2.857 255 255 255
-0.735621 -0.0682564 2.649 255 255 255
-0.715918 -0.615959 1.714 255 255 255
-0.739273 -0.0893717 1.491 255 255 255
-0.859999 0.362391 1.917 255 255 255
-0.780416 0.0148207 1.477 255 255 255
-0.83601 0.471163 1.941 0 0 0
-0.37987 0.577288 1.696 255 255 255
-0.653863 -1.00347 2.857 255 255 255
0.271357 0.191488 0.904 255 255 255
-0.697734 -0.477127 1.677 255 255 255
0.269345 0.0795791 0.588 255 255 255
-0.845978 0.448032 2.099 255 255 255
0.799976 -0.989489 2.884 255 255 255
-0.804402 0.0222763 2.22 255 255 255
-0.619354 0.534779 1.65 255 255 255
-0.587273 -1.11453 2.967 255 255 255
-0.732324 -0.474831 2.519 255 255 255
0.25661 0.122631 1.366 255 255 255
-0.836576 0.463409 1.935 0 0 0
-0.151884 0.617326 1.62 255 255 255
-0.704762 -0.573045 1.624 255 255 255
0.283937 -0.327136 2.55 255 255 255
-0.288671 0.598363 1.633 255 255 255
-0.697599 -0.590565 2.884 255 255 255
0.254234 0.0357121 1.145 255 255 255
-0.711365 -0.556607 1.563 255 255 255
-0.144949 0.594493 1.911 255 255 255
-0.778378 0.540055 1.842 255 255 255
0.237862 0.210286 0.559 255 255 255
-0.51108 0.409116 2.561 255 255 255
-0.705702 0.307323 2.898 255 255 255
-0.818252 0.0993557 1.959 255 255 255
0.250259 0.115638 0.771 255 255 255
0.23992 0.116709 0.651 255 255 255
-0.678551 -0.972212 2.768 255 255 255
-0.826634 0.246636 2.519 255 255 255
0.25327 0.136565 1.372 255 255 255
-0.0180827 0.55937 1.985 255 255 255
0.214541 0.423884 1.899 0 0 0
-0.0542281 0.556733 2.136 255 255 255
-0.527756 0.404949 2.561 255 255 255
0.232581 0.29993 1.673 0 0 0
-0.706875 -0.699615 2.459 255 255 255
-0.462089 0.579935 1.664 255 255 255
0.225903 0.313309 1.257 255 255 255
0.197917 0.466384 1.859 255 255 255
0.229675 0.294963 2.261 0 0 0
0.255568 0.0652877 0.816 0 0 0
0.220458 0.247184 2.857 255 255 255
0.086122 0.439546 2.593 255 255 255
0.201471 0.492229 1.599 255 255 255
1.06872 -0.976993 2.731 255 255 255
-0.814775 0.0805148 1.966 255 255 255
1.02612 -0.988912 2.996 255 255 255
-0.694049 -0.345378 2.044 255 255 255
-0.739987 -0.274734 1.445 255 255 255
-0.550756 0.606721 1.599 255 255 255
0.253941 0.137995 1.244 255 255 255
-0.67077 -0.708907 2.55 255 255 255
0.31684 -0.141095 1.978 255 255 255
-0.698319 -0.708285 2.793 255 255 255
-0.618336 0.476634 2.151 0 0 0
0.245545 0.0997264 0.784 255 255 255
-0.82265 0.184661 1.985 255 255 255
-0.785016 0.522574 1.637 0 0 0
0.226689 0.245758 2.469 255 255 255
1.42422 -0.203007 2.982 255 255 255
-0.692024 -0.539964 1.419 255 255 255
0.229429 0.279136 0.832 255 255 255
-0.73165 -0.328825 1.466 255 255 255
0.194622 0.421997 2.158 255 255 255
0.878543 -0.264494 2.911 255 255 255
0.261802 0.256326 0.783 255 255 255
-0.826759 0.387363 2.085 255 255 255
0.242794 0.240777 0.966 255 255 255
1.32598 0.165086 2.805 255 255 255
-0.237527 0.523892 2.01 255 255 255
0.305851 -0.118765 1.929 255 255 255
0.24694 0.158591 0.721 255 255 255
-0.694117 0.439555 2.158 255 255 255
-0.890466 0.504231 1.876 255 255 255
-0.905568 0.518094 1.882 255 255 255
0.264364 0.0666693 1.165 255 255 255
-0.0441739 0.450792 2.561 255 255 255
1.0517 -0.239019 2.78 255 255 255
-0.40184 0.332378 2.953 255 255 255
0.260831 0.226256 1.102 0 0 0
1.26972 -1.02271 2.939 255 255 255
-0.709357 -0.761711 2.44 255 255 255
-0.757374 -0.0654139 1.498 255 255 255
0.22092 0.341179 0.927 255 255 255
0.238962 0.118644 0.476 255 255 255
0.258632 0.143118 1.905 0 0 0
0.221373 0.362075 0.997 0 0 0
0.242021 0.208252 1.359 0 0 0
-0.152594 0.553006 1.929 255 255 255
-0.391987 0.435201 2.519 255 255 255
0.298818 -0.0496433 1.336 255 255 255
-0.0586047 0.620589 1.748 255 255 255
0.24514 0.260918 0.905 0 0 0
1.39937 -0.231374 2.743 255 255 255
1.08206 -0.923662 2.731 255 255 255
0.620151 -1.02762 2.967 255 255 255
0.91395 -0.301469 2.996 255 255 255
-0.649779 -0.825242 2.44 255 255 255
-0.821119 0.335366 2.236 0 0 0
-0.592495 0.542835 1.65 0 0 0
-0.760317 -0.242463 1.991 255 255 255
0.256379 0.180311 0.705 255 255 255
-0.657426 0.341475 2.755 0 0 0
-0.605648 0.533901 1.664 255 255 255
-0.84635 0.508256 1.753 255 255 255
0.176164 -1.07232 2.818 255 255 255
0.99704 -0.794119 2.925 255 255 255
-0.722771 -0.655121 1.744 255 255 255
0.258075 0.0469131 1.362 255 255 255
-0.81823 0.266511 2.768 255 255 255
-0.834197 0.360115 2.166 255 255 255
0.15465 0.380961 2.54 255 255 255
0.230023 0.384137 1.092 255 255 255
0.280625 -0.251473 2.719 255 255 255
-0.372577 0.592398 1.837 0 0 0
-0.854202 0.277612 2.128 255 255 255
-0.760292 -0.317402 2.572 255 255 255
-0.510274 0.579652 1.893 255 255 255
-0.71462 -0.550109 1.559 255 255 255
-0.726136 -0.56364 2.004 255 255 255
0.337849 -0.319463 2.459 255 255 255
-0.307872 0.58458 1.899 255 255 255
0.253931 0.0985399 0.711 255 255 255
0.235177 0.254783 0.819 255 255 255
-0.72533 -0.408303 1.403 255 255 255
-0.751408 -0.319875 1.491 255 255 255
-0.82813 0.377297 2.338 0 0 0
0.153605 0.536789 1.673 255 255 255
-0.742617 -0.513462 1.603 255 255 255
-0.677615 0.555317 1.616 255 255 255
-0.727273 0.00962689 2.731 255 255 255
-0.755819 -0.486369 2.338 255 255 255
0.26553 0.150744 2.793 255 255 255
-0.862457 0.442119 2.01 255 255 255
0.256858 0.0627704 0.937 255 255 255
-0.853629 0.445759 1.997 255 255 255
0.26517 0.044083 0.898 255 255 255
0.223821 0.366018 1.953 255 255 255
0.132792 0.479732 2.181 255 255 255
0.263909 0.272646 0.801 0 0 0
-0.115032 0.594391 1.659 255 255 255
-0.810226 0.0368285 2.469 255 255 255
0.276919 -0.00432421 1.449 255 255 255
-0.734339 -0.485925 2.392 255 255 255
-0.699311 -0.379619 2.626 255 255 255
-0.850988 0.287388 1.799 255 255 255
-0.824354 0.228922 2.55 255 255 255
0.919592 -1.04211 2.967 255 255 255
-0.513276 0.394131 2.572 255 255 255
-0.808811 0.116346 2.294 255 255 255
-0.732622 0.604751 1.587 255 255 255
-0.721485 0.535601 1.62 0 0 0
0.289525 -0.0199876 1.249 255 255 255
-0.790685 -0.0426156 1.893 255 255 255
-0.823984 0.159497 2.078 0 0 0
1.35056 0.284378 2.857 255 255 255
-0.723648 -0.661354 1.753 255 255 255
0.0892655 0.613568 1.865 0 0 0
-0.859102 0.534172 1.929 0 0 0
-0.297748 0.584182 1.7 255 255 255
-0.333544 0.516975 1.959 255 255 255
-0.731283 -0.496562 1.642 255 255 255
-0.777428 -0.118197 2.519 255 255 255
-0.79301 0.522574 1.637 0 0 0
-0.203787 0.518948 2.212 255 255 255
0.329843 -0.319463 2.459 255 255 255
-0.247497 0.593644 1.642 255 255 255
0.248146 0.279961 1.169 0 0 0
-0.7657 -0.230767 1.947 255 255 255
-0.741857 -0.503077 1.547 255 255 255
1.49936 -0.539653 2.939 255 255 255
0.25258 0.145699 1.333 255 255 255
0.237213 0.248505 1.466 255 255 255
1.43892 0.214639 2.857 0 0 0
-0.811145 0.126979 1.62 255 255 255
-0.798373 -0.00322138 2.374 255 255 255
-0.701327 -0.269174 1.821 255 255 255
-0.821121 0.137031 1.997 0 0 0
-0.269572 0.420223 2.604 255 255 255
0.361553 -0.268243 2.43 0 0 0
0.445767 -0.993787 2.996 255 255 255
-0.802597 0.0493099 1.668 255 255 255
-0.787129 0.0871019 1.664 255 255 255
-0.789332 0.0915169 1.646 255 255 255
-0.741411 -0.35705 1.677 255 255 255
0.238626 0.121203 0.48 255 255 255
-0.70403 -0.614805 2.044 255 255 255
-0.660833 0.548783 1.62 0 0 0
-0.832932 0.184829 1.691 255 255 255
-0.789956 -0.0585273 1.509 255 255 255
0.242469 0.318592 1.046 255 255 255
-0.739828 -0.543483 2.051 255 255 255
-0.658513 -0.975576 2.857 255 255 255
0.222359 0.369891 2.121 0 0 0
-0.735621 -0.14154 2.649 255 255 255
0.0461246 0.5682 2.114 255 255 255
0.349499 -1.00832 2.925 255 255 255
-0.690634 -0.676435 2.286 255 255 255
-0.508161 0.558569 1.673 255 255 255
-0.671958 -0.172059 1.308 255 255 255
-0.759406 -0.290608 2.672 255 255 255
0.123184 0.425967 2.489 255 255 255
-0.769599 -0.0812233 1.673 255 255 255
-0.804427 -0.0125028 2.004 255 255 255
0.239739 0.124419 0.631 255 255 255
-0.742463 -0.23707 2.356 255 255 255
-0.702899 0.528351 1.744 255 255 255
-0.691865 -0.604985 2.151 255 255 255
1.3105 -0.937571 2.707 255 255 255
0.320492 -0.10325 1.677 255 255 255
-0.785575 0.331002 2.78 255 255 255
-0.799912 0.0565242 1.567 255 255 255
-0.178477 0.361595 2.996 255 255 255
-0.0878839 0.628063 1.607 255 255 255
0.240716 0.214016 2.261 0 0 0
0.304669 -0.0612655 1.403 255 255 255
-0.772365 -0.0742617 1.48 255 255 255
-0.487803 0.375188 2.615 255 255 255
-0.814202 0.302608 2.898 255 255 255
-0.704911 -0.681177 2.509 255 255 255
-0.447819 0.460724 2.244 255 255 255
0.245499 0.188403 1.65 255 255 255
-0.818435 0.539567 1.624 255 255 255
0.260005 0.220479 0.752 255 255 255
-0.904706 0.425436 2.024 255 255 255
0.227668 0.343932 1.466 255 255 255
0.250331 0.0702926 0.783 255 255 255
0.269663 0.0176356 1.066 255 255 255
0.255646 0.147351 0.861 255 255 255
-0.741097 -0.146117 1.429 255 255 255
0.0462034 0.482673 2.489 255 255 255
-0.717845 -0.581005 2.166 255 255 255
0.525311 -0.405693 2.871 255 255 255
-0.562927 0.301597 2.844 255 255 255
1.48246 -0.581517 2.982 255 255 255
-0.698711 -0.200108 1.4 255 255 255
0.196584 0.489256 1.502 255 255 255
0.284473 -0.0230956 1.31 255 255 255
0.227656 0.299998 1.547 255 255 255
-0.832834 0.23416 2.278 255 255 255
0.0112142 0.557185 2.024 255 255 255
-0.158807 0.602492 1.637 255 255 255
0.0794652 0.411578 2.805 255 255 255
-0.239767 0.563803 1.923 255 255 255
-0.724868 -0.40636 1.543 255 255 255
-0.817239 0.134033 1.71 255 255 255
0.129964 0.38104 2.626 255 255 255
-0.546149 0.57128 1.624 255 255 255
0.245818 0.155982 0.679 255 255 255
0.0498232 0.433133 2.684 0 0 0
-0.834598 0.199645 1.7 255 255 255
-0.635557 -0.428461 2.719 255 255 255
-0.835348 0.195338 1.842 255 255 255
-0.888476 0.463376 1.724 255 255 255
1.31069 -0.328547 2.561 255 255 255
-0.714935 -0.615499 1.705 255 255 255
-0.688272 -0.831375 2.303 255 255 255
0.233265 0.199583 0.57 0 0 0
0.177239 0.327651 2.911 255 255 255
-0.724523 -0.174749 1.516 255 255 255
0.266718 0.009811 1.167 255 255 255
-0.676052 0.48006 1.991 255 255 255
-0.344178 0.520146 1.947 255 255 255
0.473642 -0.494396 2.898 0 0 0
-0.881261 0.42622 1.71 255 255 255
-0.672876 -0.663369 2.071 255 255 255
-0.808647 0.547496 1.899 0 0 0
-0.818109 0.510614 1.65 255 255 255
-0.0935111 0.424931 2.66 255 255 255
-0.756531 0.550057 1.616 255 255 255
0.272644 0.0924485 2.684 255 255 255
0.241054 0.140107 0.503 255 255 255
-0.131236 0.597091 1.659 255 255 255
-0.690442 -0.691114 2.261 255 255 255
-0.0578754 0.426253 2.615 255 255 255
0.266964 -1.08251 2.857 255 255 255
-0.662818 0.572305 1.612 255 255 255
-0.842942 0.491524 1.972 0 0 0
-0.818456 0.185637 1.865 255 255 255
-0.703344 -0.566386 2.489 255 255 255
0.168569 0.319707 2.925 255 255 255
-0.788044 0.013087 2.54 255 255 255
0.233682 0.145077 0.527 255 255 255
0.244157 0.110805 0.809 255 255 255
0.255943 0.067128 0.839 255 255 255
-0.743622 -0.458812 1.753 255 255 255
-0.763248 -0.301829 2.582 255 255 255
-0.459593 0.431613 2.303 255 255 255
0.784989 -0.994292 2.898 255 255 255
-0.709584 -0.535045 1.629 255 255 255
-0.756134 -0.223932 2.707 255 255 255
-0.720309 -0.536683 1.528 255 255 255
0.207383 0.461855 1.425 0 0 0
-0.160683 0.607501 1.629 255 255 255
-0.887539 0.40759 1.826 255 255 255
-0.070163 -1.01316 2.953 255 255 255
-0.808159 0.113282 1.691 255 255 255
0.0554193 0.471896 2.54 255 255 255
-0.323272 0.543327 1.917 255 255 255
0.248464 -0.044088 2.755 255 255 255
-0.711821 -0.659297 2.519 255 255 255
0.235936 0.145757 0.489 255 255 255
0.0350828 0.389234 2.911 255 255 255
-0.651562 0.538019 1.966 255 255 255
-0.829783 0.262586 1.595 255 255 255
0.24676 0.187024 0.522 255 255 255
-0.508984 0.535988 1.947 0 0 0
0.221761 0.399767 1.831 255 255 255
0.221964 0.395501 1.114 255 255 255
-0.722495 -0.14873 2.871 255 255 255
0.224646 0.350718 1.297 255 255 255
1.32651 0.189935 2.768 255 255 255
-0.817034 0.239745 1.616 255 255 255
-0.69412 -0.714868 2.064 255 255 255
0.227697 0.325699 1.959 255 255 255
-0.0022441 0.485973 2.312 255 255 255
-0.742166 -0.722913 2.03 255 255 255
-0.255597 0.454687 2.469 255 255 255
-0.381385 0.379443 2.615 255 255 255
-0.787107 0.501225 1.985 0 0 0
-0.765731 0.251856 2.911 255 255 255
-0.52964 0.415658 2.55 255 255 255
-0.78296 0.0295193 1.491 255 255 255
-0.0049968 0.601356 1.923 255 255 255
-0.670644 -0.819807 2.173 255 255 255
0.254282 0.202703 0.732 255 255 255
0.268443 0.0690763 0.672 255 255 255
0.258573 0.0852501 0.581 255 255 255
-0.743049 -0.144496 1.484 255 255 255
0.239742 0.30829 1.147 0 0 0
0.356805 -1.02085 2.66 255 255 255
0.239896 0.20357 0.762 255 255 255
0.214906 0.43036 1.154 255 255 255
0.428382 -0.506088 2.911 0 0 0
0.262117 0.220642 0.934 255 255 255
-0.139812 0.608993 1.633 255 255 255
1.32849 0.288463 2.996 0 0 0
-0.410912 0.609031 1.612 255 255 255
-0.313062 0.588894 1.893 255 255 255
0.0836823 0.567672 1.947 0 0 0
-0.835929 0.324754 2.189 255 255 255
0.158116 0.538917 1.532 255 255 255
0.0538532 0.624745 1.705 255 255 255
-0.739185 -0.436455 2.004 255 255 255
0.557365 -1.10005 2.967 255 255 255
0.285548 -0.301948 2.953 255 255 255
0.675915 -0.235396 2.638 255 255 255
-0.7215 -0.234282 1.4 0 0 0
0.236774 0.264411 1.744 255 255 255
-0.60021 0.604119 1.599 255 255 255
-0.700203 -0.394268 2.582 255 255 255
-0.803002 0.0344936 2.085 255 255 255
-0.222949 0.457478 2.42 255 255 255
-0.801399 -0.127327 2.383 255 255 255
-0.720563 -0.605412 2.092 255 255 255
0.245705 0.177966 0.714 255 255 255
-0.750683 -0.0959377 1.48 255 255 255
0.300104 -0.0486895 2.017 255 255 255
0.230183 0.373956 1.068 0 0 0
-0.166724 0.603823 1.911 255 255 255
1.0377 -0.976822 2.743 255 255 255
-0.720381 -0.538575 1.555 255 255 255
0.252077 0.0912253 0.736 255 255 255
-0.681186 0.561812 1.612 255 255 255
-0.0223124 0.558524 2.078 255 255 255
-0.697788 0.475581 2.085 0 0 0
-0.719364 -0.466838 1.48 255 255 255
-0.676664 -0.17058 1.313 255 255 255
0.258644 0.205851 1.108 255 255 255
-0.828929 0.191583 2.024 0 0 0
0.25872 0.0496901 1.124 255 255 255
-0.515625 0.615586 1.595 255 255 255
0.128896 0.525513 1.744 255 255 255
0.226365 0.2827 1.205 255 255 255
0.250846 0.0957202 0.743 255 255 255
-0.839446 0.283237 1.655 255 255 255
-0.822744 0.414321 2.173 255 255 255
-0.823365 0.163427 2.085 255 255 255
0.0216209 0.63984 1.794 255 255 255
0.183654 0.553036 1.439 255 255 255
-0.34206 0.512214 1.953 255 255 255
0.213439 0.494548 1.419 255 255 255
-0.421804 0.557175 1.911 0 0 0
0.226214 0.314086 0.861 255 255 255
0.20882 0.471456 1.419 0 0 0
1.29592 -0.893944 2.695 255 255 255
-0.375143 0.554066 1.911 255 255 255
1.34787 -0.32117 2.953 255 255 255
-0.729289 0.593329 1.591 255 255 255
0.301463 -0.0393054 1.882 255 255 255
-0.00585428 0.5249 2.253 255 255 255
0.25629 0.0782137 0.666 255 255 255
-0.415066 0.569785 1.682 255 255 255
0.246829 0.106286 0.776 255 255 255
-0.761274 -0.0543842 2.604 255 255 255
-0.798341 -0.12168 2.03 255 255 255
-0.614097 0.294491 2.911 255 255 255
1.04445 -1.05088 2.898 255 255 255
-0.717031 -0.625652 1.71 255 255 255
-0.8417 0.310187 2.114 255 255 255
0.285065 0.0876545 0.566 0 0 0
0.247225 0.270621 1.13 0 0 0
-0.232401 0.413487 2.615 255 255 255
0.0695656 0.362924 2.967 0 0 0
-0.852572 0.324652 1.972 255 255 255
-0.39724 0.442349 2.402 255 255 255
-0.355906 0.584863 1.769 0 0 0
0.251676 0.105391 2.078 255 255 255
-0.675311 -0.724255 2.121 255 255 255
0.266431 0.0584731 0.746 255 255 255
-0.711703 -0.605344 1.991 255 255 255
0.968323 -0.769223 2.939 255 255 255
-0.455021 0.594246 1.629 255 255 255
-0.818586 0.320881 2.695 255 255 255
-0.681036 -0.836401 2.638 255 255 255
-0.806648 0.0308305 2.32 255 255 255
0.234415 0.280785 2.236 0 0 0
0.254387 0.214758 1.046 0 0 0
0.25726 0.202999 0.535 255 255 255
0.298367 0.0402011 0.847 0 0 0
-0.641161 0.447789 2.181 255 255 255
0.302836 -0.0106138 1.118 255 255 255
-0.644203 0.40318 2.449 255 255 255
-0.689781 -0.545855 2.871 255 255 255
1.43984 0.0531502 2.925 255 255 255
0.210193 0.436478 1.567 255 255 255
-0.799277 -0.00604017 2.024 255 255 255
1.41386 0.227547 2.844 255 255 255
-0.377499 0.53251 1.923 255 255 255
-0.33661 0.603589 1.853 255 255 255
-0.789587 -0.0389853 1.513 255 255 255
-0.680434 -0.76077 2.871 255 255 255
0.288437 0.109133 1.194 255 255 255
0.239688 0.117833 0.479 255 255 255
-0.730648 0.48286 2.044 255 255 255
0.258161 0.0967944 0.521 255 255 255
-0.698054 -0.244454 1.691 255 255 255
-0.556369 0.497661 2.064 0 0 0
-0.439703 0.56389 1.714 0 0 0
0.231776 0.295176 1.575 255 255 255
-0.110952 0.487829 2.303 255 255 255
-0.707395 -0.683848 2.489 255 255 255
-0.639835 0.591451 1.607 255 255 255
0.481125 -1.04502 2.831 255 255 255
1.13315 -0.944759 2.78 255 255 255
-0.792187 0.00881055 1.71 255 255 255
0.287416 -0.0565841 2.196 255 255 255
-0.812796 0.100334 1.859 255 255 255
-0.532511 0.504411 2.037 0 0 0
0.194796 0.364738 2.695 255 255 255
0.25686 0.0592519 0.954 255 255 255
-0.415494 0.321084 2.982 255 255 255
0.236951 0.185518 0.73 255 255 255
-0.733065 0.514733 1.646 255 255 255
-0.715507 -0.499619 1.384 255 255 255
-0.408337 0.50999 2.189 255 255 255
0.255829 0.179587 0.896 255 255 255
0.232683 0.156008 0.465 255 255 255
0.228153 0.328392 2.143 0 0 0
-0.774897 -0.0626537 1.848 255 255 255
-0.027165 -0.989143 2.982 255 255 255
1.42671 0.0732265 2.967 255 255 255
0.248886 0.112635 0.601 255 255 255
-0.384358 0.411509 2.55 255 255 255
0.210683 0.50272 1.416 255 255 255
-0.721902 -0.454692 2.057 255 255 255
0.261691 0.0752268 0.615 255 255 255
-0.671684 0.551678 1.821 255 255 255
-0.909652 0.464586 1.805 255 255 255
-0.826302 0.189508 2.469 255 255 255
0.317321 -0.123561 1.815 255 255 255
-0.723994 -0.411904 2.044 255 255 255
0.107693 -1.09005 2.953 255 255 255
-0.828423 0.303426 2.818 255 255 255
0.266002 0.105599 1.198 255 255 255
-0.805278 0.016156 2.383 255 255 255
-0.60861 0.526824 1.972 0 0 0
1.22919 -0.998752 2.911 255 255 255
-0.819856 0.214518 2.347 255 255 255
0.247792 0.106767 0.655 255 255 255
-0.686217 0.569615 1.911 0 0 0
-0.568898 0.297891 2.898 255 255 255
-0.805076 0.0640828 2.294 255 255 255
-0.747321 -0.206311 2.707 255 255 255
-0.801617 -0.087204 1.997 255 255 255
-0.354936 0.601508 1.62 255 255 255
0.308569 -0.3899 2.449 255 255 255
-0.745304 -0.281054 2.085 255 255 255
-0.830309 0.205778 2.212 255 255 255
-0.893519 0.498125 1.876 255 255 255
0.0174909 0.481112 2.44 255 255 255
0.260579 0.0557364 0.832 255 255 255
0.279382 0.0712634 0.672 255 255 255
-0.22133 0.359906 2.982 255 255 255
-0.0948347 0.478795 2.469 255 255 255
0.219313 0.361584 1.083 255 255 255
-0.426461 0.572182 1.673 255 255 255
-0.483452 -1.13958 2.982 255 255 255
0.191917 0.443834 2.128 0 0 0
0.27276 0.0818463 0.577 255 255 255
-0.698034 -0.568662 2.499 255 255 255
0.106151 0.597615 1.575 0 0 0
-0.837365 0.324135 1.7 255 255 255
0.199085 0.457877 1.899 0 0 0
-0.710919 -0.577157 2.064 255 255 255
-0.81977 0.313205 2.743 255 255 255
-0.726004 -0.0840698 2.743 255 255 255
1.21899 -0.994292 2.898 255 255 255
0.243646 0.183596 0.916 255 255 255
-0.795063 -0.0435719 1.805 255 255 255
-0.835498 0.214208 1.876 255 255 255
0.259753 0.0880583 0.675 255 255 255
0.234185 0.262388 1.477 255 255 255
0.237247 0.433191 1.357 0 0 0
-0.673961 -0.620821 2.064 255 255 255
-0.691046 -0.804418 2.66 255 255 255
1.39937 -0.235838 2.743 255 255 255
-0.808564 0.0928392 1.535 255 255 255
-0.746236 -0.489024 1.583 255 255 255
-0.618151 -1.01316 2.953 255 255 255
1.31723 -0.238802 2.582 255 255 255
0.257697 0.069099 0.756 255 255 255
-0.708577 0.528351 1.744 255 255 255
1.41998 0.053659 2.953 255 255 255
-0.686113 0.423561 2.166 255 255 255
-0.672144 0.406963 2.312 255 255 255
-0.148989 0.623261 1.923 255 255 255
0.254686 0.0943202 0.723 255 255 255
-0.654046 -0.710748 1.917 255 255 255
0.230816 0.167457 0.451 255 255 255
-0.802308 0.47872 1.959 0 0 0
-0.739334 -0.47634 2.383 255 255 255
0.257015 0.0725972 0.754 255 255 255
1.32651 0.212457 2.768 255 255 255
-0.708084 -0.193378 1.567 255 255 255
-0.197199 0.613564 1.624 255 255 255
-0.70165 -0.671908 2.684 255 255 255
1.414 0.0244729 2.911 255 255 255
0.226211 0.201675 2.871 255 255 255
-0.752644 -0.128888 1.528 255 255 255
-0.763431 -0.281332 2.626 255 255 255
-0.791595 0.382945 2.499 0 0 0
-0.793787 0.0484999 1.555 255 255 255
-0.0184577 0.621483 1.719 255 255 255
-0.769022 -0.00967658 1.551 255 255 255
-0.722714 -0.408207 1.477 255 255 255
-0.00961235 0.625709 1.642 255 255 255
0.0647696 0.635795 1.859 0 0 0
0.2409 0.226877 1.637 255 255 255
-0.295455 0.62477 1.612 255 255 255
0.24022 0.119252 0.488 255 255 255
0.135512 0.520143 1.794 255 255 255
0.378067 -1.00832 2.925 255 255 255
-0.868716 0.476521 1.691 255 255 255
-0.458196 0.623891 1.603 255 255 255
-0.884123 0.505843 1.882 255 255 255
-0.72047 -0.432772 1.372 255 255 255
-0.778925 -0.199415 2.459 255 255 255
-0.819045 0.119121 2.024 255 255 255
-0.82612 0.410742 2.136 255 255 255
-0.751001 0.427859 2.244 255 255 255
-0.755056 -0.23843 2.672 255 255 255
-0.724732 -0.509722 2.55 255 255 255
-0.79713 -0.0193393 1.739 255 255 255
-0.694748 -0.664359 2.743 255 255 255
-0.701629 0.533275 1.629 0 0 0
0.209031 0.416208 1.659 255 255 255
-0.427681 0.374195 2.638 255 255 255
-0.785652 -0.112731 1.831 255 255 255
0.223859 0.371282 2.071 0 0 0
0.208722 0.454413 1.484 255 255 255
-0.739334 -0.51512 2.383 255 255 255
-0.723183 -0.616657 1.935 255 255 255
-0.53581 0.32231 2.707 255 255 255
-0.745806 -0.377675 1.953 255 255 255
0.237925 0.400398 1.336 0 0 0
-0.735418 -0.419443 1.87 255 255 255
-0.716843 -0.310656 1.677 255 255 255
-0.675479 -0.805724 2.212 255 255 255
0.249584 0.314489 0.836 255 255 255
-0.536093 0.392446 2.561 255 255 255
-0.802365 0.0484587 1.842 255 255 255
0.225209 0.273513 2.329 255 255 255
0.283098 -0.190884 2.402 255 255 255
-0.209236 0.467161 2.312 255 255 255
0.259368 0.0692819 0.674 255 255 255
-0.671067 -0.968915 2.684 255 255 255
0.158431 0.515782 1.789 0 0 0
-0.439707 0.569785 1.682 255 255 255
0.231254 0.325382 1.057 255 255 255
-0.669723 0.533707 1.655 0 0 0
-0.817612 0.131298 2.114 255 255 255
-0.728938 -0.629639 1.917 255 255 255
-0.615827 0.606721 1.599 255 255 255
-0.507722 -1.13958 2.982 255 255 255
-0.767897 -0.326342 1.646 255 255 255
-0.827482 0.194741 2.294 255 255 255
1.27129 -0.319792 2.626 255 255 255
0.277592 -0.188704 2.53 255 255 255
0.223459 0.46782 1.381 255 255 255
0.0138278 0.596954 1.929 255 255 255
-0.79564 0.0855677 1.539 255 255 255
-0.746849 0.370745 2.499 255 255 255
0.204376 0.497486 1.289 255 255 255
-0.747267 -0.427132 2.347 0 0 0
-0.706927 -0.296207 1.599 255 255 255
0.232187 0.261938 0.842 255 255 255
0.107886 0.608106 1.682 0 0 0
-0.712838 -0.602628 1.7 255 255 255
-0.286334 0.605019 1.821 255 255 255
0.107554 0.600072 1.815 0 0 0
1.27374 -0.984291 2.982 255 255 255
-0.192761 0.407909 2.78 255 255 255
-0.340925 0.563395 1.911 255 255 255
0.235568 0.222638 0.597 255 255 255
-0.182841 0.506374 2.22 255 255 255
-0.82348 0.510614 1.65 255 255 255
-0.723724 -0.226605 1.484 255 255 255
0.239682 0.137512 0.559 255 255 255
0.246829 0.105023 0.776 255 255 255
-0.726877 -0.483893 1.466 255 255 255
-0.796006 0.0680755 2.953 255 255 255
0.235229 0.262528 0.81 255 255 255
0.238631 0.323715 1.169 0 0 0
1.4713 -0.623418 2.884 255 255 255
0.256036 0.09137 0.555 255 255 255
-0.699119 0.583302 1.599 255 255 255
0.812597 -0.314619 2.982 255 255 255
-0.76479 -0.0720474 1.484 255 255 255
-0.725032 -0.18785 1.677 255 255 255
-0.198452 0.540207 1.917 255 255 255
-0.0780838 0.485756 2.329 255 255 255
0.256586 0.232718 0.76 255 255 255
-0.440407 0.602993 1.624 255 255 255
0.246431 0.107981 0.69 255 255 255
0.248132 0.208556 1.705 255 255 255
-0.438009 0.568397 1.686 255 255 255
-0.809645 -0.0224309 2.017 255 255 255
0.152054 0.532729 1.686 0 0 0
-0.051944 0.481871 2.347 255 255 255
-0.747284 -0.691309 2.044 255 255 255
-0.0410204 0.428047 2.626 255 255 255
-0.257511 0.61217 1.87 255 255 255
-0.107589 0.612696 1.758 255 255 255
-0.154139 0.62895 1.616 255 255 255
-0.727733 -0.472732 1.784 255 255 255
0.296881 -0.012044 1.083 0 0 0
-0.842107 0.260751 2.024 255 255 255
0.242362 0.232286 1.899 255 255 255
-0.695037 -0.785589 2.626 255 255 255
0.26082 0.228483 1.087 0 0 0
-0.382892 0.511681 2.166 255 255 255
-0.630609 0.312274 2.857 255 255 255
-0.691666 -0.728999 2.253 255 255 255
-0.725929 -0.531664 1.595 255 255 255
0.241195 0.214061 0.55 255 255 255
-0.74602 -0.267941 2.392 255 255 255
-0.410949 0.595705 1.633 255 255 255
-0.740631 -0.394337 1.555 255 255 255
-0.795753 -0.0327476 2.278 255 255 255
-0.715568 -0.274863 1.923 255 255 255
1.31145 -0.35989 2.638 255 255 255
-0.687198 -0.755614 2.312 255 255 255
-0.723603 -0.193465 1.655 255 255 255
-0.855467 0.302756 1.821 255 255 255
-0.651699 -0.825889 2.731 255 255 255
-0.822523 0.562261 1.591 255 255 255
-0.72939 -0.259524 1.452 255 255 255
-0.756014 -0.293489 1.505 255 255 255
0.283604 -0.0390471 2.44 255 255 255
0.243651 0.315618 0.839 255 255 255
-0.29256 0.587571 1.655 255 255 255
0.241834 0.194386 0.932 255 255 255
-0.829167 0.124004 2.805 255 255 255
-0.753366 -0.140185 1.571 255 255 255
-0.837009 0.244157 1.826 255 255 255
-0.737788 0.597003 1.587 255 255 255
0.56799 -1.00372 2.898 255 255 255
-0.716505 -0.240137 2.793 255 255 255
0.239507 0.286968 1.853 255 255 255
0.182797 0.40082 2.32 255 255 255
-0.0851662 0.607098 1.71 255 255 255
-0.809485 0.302608 2.898 255 255 255
0.251735 0.0946896 0.735 255 255 255
0.297785 -0.158357 2.22 255 255 255
-0.711431 -0.422037 1.359 255 255 255
0.275681 0.0534536 0.779 255 255 255
-0.104837 0.643154 1.917 255 255 255
0.256431 0.257559 0.97 255 255 255
-0.30536 0.475331 2.244 255 255 255
0.700952 -1.15899 2.982 255 255 255
-0.745103 -0.313024 2.44 0 0 0
0.228485 0.353433 1.456 255 255 255
-0.740172 -0.152955 1.779 255 255 255
0.0875983 0.489255 2.402 0 0 0
-0.591143 0.509114 1.978 255 255 255
-0.00258188 0.42926 2.66 255 255 255
-0.71641 -0.362526 2.626 255 255 255
-0.774543 -0.13625 2.55 255 255 255
0.17726 0.453695 2.078 255 255 255
0.238464 0.142812 0.501 255 255 255
0.246971 0.122947 0.576 255 255 255
-0.399389 0.430562 2.54 255 255 255
-0.737074 -0.38232 1.882 255 255 255
-0.710673 0.521354 1.65 0 0 0
0.259821 0.0725514 0.741 255 255 255
-0.844236 0.290101 1.633 255 255 255
-0.708459 -0.614763 2.32 255 255 255
-0.797269 0.248395 2.871 255 255 255
1.35338 -1.06281 2.805 255 255 255
-0.738393 -0.452609 2.228 255 255 255
0.292795 -0.0561738 1.39 255 255 255
-0.730725 -0.38712 1.409 255 255 255
-0.736779 -0.526495 1.905 255 255 255
0.248927 0.144717 0.862 255 255 255
0.262733 0.0981939 0.515 255 255 255
-0.566998 0.411509 2.55 255 255 255
0.212104 0.419146 1.149 0 0 0
0.210486 0.399305 1.532 255 255 255
0.277342 0.0590375 1.714 255 255 255
0.267285 0.16464 0.849 0 0 0
0.24513 -0.0488005 2.768 255 255 255
-0.152786 0.539661 1.972 255 255 255
-0.256396 0.595531 1.758 255 255 255
0.272484 0.0530098 0.811 255 255 255
-0.04256 0.58258 1.923 255 255 255
-0.723045 -0.272634 1.583 255 255 255
-0.701812 -0.165843 2.844 255 255 255
-0.654369 0.479933 2.004 255 255 255
0.187973 0.495707 1.739 0 0 0
-0.543625 0.550718 1.734 0 0 0
-0.735811 -0.170202 1.748 255 255 255
-0.652855 -0.467393 2.793 255 255 255
-0.334632 0.591974 1.893 255 255 255
-0.456467 0.502685 2.099 255 255 255
-0.690518 -0.350496 2.136 255 255 255
0.0124331 0.53741 2.244 255 255 255
-0.58199 0.596313 1.599 255 255 255
0.0583276 0.574009 1.947 255 255 255
0.302026 -0.0639563 1.412 255 255 255
-0.857678 0.362213 1.659 255 255 255
0.133114 0.394798 2.604 255 255 255
-0.304384 0.524532 2.064 255 255 255
-0.720549 -0.521172 2.411 255 255 255
-0.739399 -0.217983 2.743 255 255 255
-0.775861 0.56007 1.607 255 255 255
-0.757757 -0.238234 2.01 255 255 255
-0.799146 0.062723 1.821 255 255 255
-0.80369 -0.0916967 2.269 255 255 255
-0.73413 -0.367075 2.017 255 255 255
0.216545 0.369005 1.595 255 255 255
-0.671027 -0.335587 2.953 255 255 255
-0.70108 -0.192943 2.768 255 255 255
-0.708366 -0.559735 1.579 255 255 255
-0.750543 -0.379298 1.655 255 255 255
0.248424 0.130211 1.505 255 255 255
-0.624788 -0.936618 2.939 255 255 255
-0.729887 -0.271251 1.439 255 255 255
1.28596 -0.985725 2.768 255 255 255
0.258026 0.0882481 0.685 255 255 255
-0.422428 0.526824 1.972 0 0 0
-0.740573 -0.1776 1.794 255 255 255
0.102886 -1.02758 2.953 255 255 255
-0.305951 0.616901 1.612 255 255 255
1.34132 -0.945576 2.743 255 255 255
0.3913 -0.811331 2.953 255 255 255
0.234801 0.286906 1.198 255 255 255
-0.675889 0.571403 1.917 0 0 0
-0.928388 0.460366 2.004 255 255 255
0.287256 -0.0538648 1.516 255 255 255
-0.252288 0.529381 1.923 255 255 255
-0.655539 0.515552 1.978 0 0 0
0.253695 0.199638 0.533 255 255 255
-0.529968 0.594066 1.607 255 255 255
0.363041 -0.336848 2.44 255 255 255
-0.725184 -0.670081 1.899 255 255 255
-0.622153 0.569241 1.859 0 0 0
-0.173715 0.525915 2.196 255 255 255
0.23703 0.206102 0.937 255 255 255
-0.732281 -0.390242 1.412 255 255 255
0.243011 0.1686 2.151 255 255 255
-0.698996 -0.162137 1.387 255 255 255
-0.763575 0.536862 1.821 255 255 255
-0.757978 0.386384 2.469 0 0 0
-0.71308 -0.787334 2.509 255 255 255
0.268196 0.187895 0.712 255 255 255
-0.735233 -0.491925 1.528 255 255 255
0.265103 0.0682827 0.686 255 255 255
-0.722816 0.44424 2.181 255 255 255
0.225293 0.286925 0.847 255 255 255
-0.684174 -0.619495 2.684 255 255 255
0.123766 0.556406 1.539 0 0 0
-0.746871 -0.525211 1.923 255 255 255
0.158397 0.499558 1.893 255 255 255
0.256725 0.119512 1.784 0 0 0
-0.472419 0.614987 1.607 255 255 255
-0.363009 0.434068 2.489 255 255 255
-0.289154 0.506311 2.204 255 255 255
-0.78018 -0.165138 1.696 255 255 255
-0.793495 0.445818 2.261 255 255 255
-0.570441 0.561159 1.633 0 0 0
0.861005 -0.266734 2.884 255 255 255
-0.797269 0.154954 2.871 255 255 255
0.243646 0.0703074 0.916 255 255 255
0.248661 0.195947 0.918 255 255 255
-0.353964 0.512932 2.099 255 255 255
-0.749646 -0.33052 1.432 255 255 255
-0.126681 0.621317 1.917 255 255 255
-0.481265 -1.12793 2.939 255 255 255
-0.844406 0.262636 1.81 255 255 255
-0.396104 0.51857 1.953 255 255 255
-0.80369 0.0264604 2.269 255 255 255
-0.710793 -0.58453 2.166 255 255 255
-0.793839 -0.0140727 1.789 255 255 255
0.245691 0.358913 1.075 0 0 0
-0.604628 0.575309 1.899 0 0 0
-0.59789 -0.974285 2.996 255 255 255
-0.0334015 0.636661 1.629 255 255 255
0.287734 -0.0104627 1.677 255 255 255
0.232436 0.159857 0.463 255 255 255
-0.62957 0.426193 2.294 255 255 255
-0.833547 0.397542 2.085 255 255 255
0.265703 0.121783 1.037 255 255 255
-0.833028 0.332827 2.43 0 0 0
-0.644097 0.424808 2.228 255 255 255
-0.794224 0.0227053 1.947 255 255 255
-0.685127 -0.221428 1.567 255 255 255
1.32749 -0.315188 2.898 255 255 255
1.29105 -0.30535 2.649 255 255 255
-0.425187 0.578615 1.668 255 255 255
-0.776868 0.0100611 1.484 255 255 255
-0.63616 -0.699502 1.929 255 255 255
-0.745029 -0.517309 1.575 255 255 255
0.124887 0.528203 1.853 255 255 255
-0.526131 0.507738 2.064 0 0 0
-0.368402 0.510809 2.01 255 255 255
-0.706129 -0.663854 2.402 255 255 255
0.214376 0.349016 0.912 255 255 255
0.0305876 0.546411 2.236 255 255 255
-0.727425 -0.33818 1.425 255 255 255
-0.691371 -0.514617 1.432 255 255 255
-0.828852 0.239419 1.65 255 255 255
0.302932 -0.024149 1.254 255 255 255
-0.79301 0.51991 1.637 0 0 0
0.222044 0.334376 1.543 255 255 255
-0.715087 -0.473075 1.753 255 255 255
-0.813829 0.0970142 2.044 255 255 255
-0.62959 0.450188 2.228 255 255 255
-0.770749 -0.115711 1.831 255 255 255
-0.104837 0.633795 1.917 255 255 255
-0.737549 -0.413586 1.899 255 255 255
0.251155 0.153148 0.723 255 255 255
1.34636 -0.437804 2.898 255 255 255
-0.827262 0.147294 2.004 255 255 255
-0.746698 -0.350653 2.54 255 255 255
0.233385 0.14971 0.557 0 0 0
1.22127 -0.316961 2.638 255 255 255
0.0537076 0.433589 2.66 255 255 255
-0.613982 0.542835 1.65 0 0 0
0.234409 -1.08251 2.857 255 255 255
-0.537816 0.586221 1.607 255 255 255
-0.737427 -0.398827 1.543 255 255 255
0.208378 0.465851 1.416 0 0 0
-0.66174 -0.840195 2.871 255 255 255
0.249082 0.0986253 0.756 255 255 255
0.234723 0.347494 1.422 0 0 0
-0.587557 0.518823 1.966 255 255 255
0.240571 0.264592 1.16 255 255 255
-0.927013 0.518094 1.882 255 255 255
0.249496 0.205844 0.739 255 255 255
0.137852 0.448292 2.392 255 255 255
-0.145523 0.594901 1.668 255 255 255
-0.00282551 0.384497 2.911 255 255 255
-0.750962 -0.345931 1.65 255 255 255
0.238025 0.352678 1.072 255 255 255
0.230151 0.0786047 0.86 255 255 255
0.261546 0.238862 1.357 255 255 255
0.231774 0.149945 0.482 255 255 255
-0.77564 -0.0737147 2.54 255 255 255
-0.735428 -0.38232 1.498 255 255 255
0.258377 0.08422 0.587 255 255 255
-0.721086 -0.647294 1.826 255 255 255
1.41849 0.232175 2.844 0 0 0
-0.651397 0.485074 1.985 255 255 255
0.115088 0.553002 1.997 255 255 255
-0.780177 -0.33082 1.655 255 255 255
0.132837 0.485868 2.071 255 255 255
-0.836809 0.0576329 2.911 255 255 255
0.202648 0.507929 1.362 255 255 255
-0.846025 0.258731 1.935 0 0 0
0.243044 0.237649 0.772 255 255 255
0.255651 0.0939991 0.703 255 255 255
0.232577 0.235597 2.489 255 255 255
1.10873 0.182952 2.731 0 0 0
0.185882 0.321471 2.898 255 255 255
0.299456 0.0266061 0.9 0 0 0
-0.698213 -0.677564 2.638 255 255 255
0.239446 0.285469 1.192 255 255 255
0.297028 0.0267834 0.906 0 0 0
0.250305 0.0897982 0.586 255 255 255
-0.784649 -0.164224 2.356 255 255 255
0.243006 0.285772 1.403 255 255 255
-0.721811 -0.569482 2.136 255 255 255
0.531058 -0.979438 2.982 255 255 255
0.236462 0.142323 0.571 255 255 255
1.2933 -0.294675 2.593 255 255 255
-0.737783 -0.0591171 2.626 255 255 255
-0.431494 0.572523 1.682 255 255 255
0.260943 0.059501 0.792 255 255 255
-0.80365 -0.047748 1.978 255 255 255
-0.769972 0.554015 1.966 255 255 255
-0.41422 0.589733 1.646 255 255 255
0.0790242 0.606933 1.911 0 0 0
-0.811699 0.0749175 2.402 255 255 255
0.0613781 0.644063 1.848 0 0 0
-0.759344 -0.427001 1.763 255 255 255
-0.685211 0.582153 1.603 255 255 255
0.248434 0.251479 1.087 0 0 0
-0.622989 -0.969822 2.593 255 255 255
0.240995 0.212336 0.79 255 255 255
-0.621123 0.474436 2.173 255 255 255
-0.769972 -0.220222 1.966 255 255 255
0.254871 0.0749991 0.766 0 0 0
0.787542 -1.0226 2.925 255 255 255
-0.372642 0.441725 2.42 255 255 255
0.241717 0.225335 1.607 0 0 0
0.343242 -0.284602 2.469 255 255 255
1.43701 -1.10072 2.844 255 255 255
-0.109962 0.613564 1.624 255 255 255
0.2347 0.281132 0.822 255 255 255
-0.656989 -0.957853 2.561 255 255 255
0.243711 -0.0317725 2.857 255 255 255
0.232584 0.281575 1.452 0 0 0
0.313919 -0.126964 1.865 255 255 255
0.279998 0.0431412 1.748 255 255 255
-0.67882 -0.360598 2.884 255 255 255
0.0197387 0.541062 2.244 255 255 255
0.269281 0.0903705 0.56 255 255 255
0.241319 0.155656 2.884 255 255 255
-0.695978 -0.215841 1.342 255 255 255
-0.78241 0.56769 1.599 255 255 255
1.07275 -1.09333 2.898 255 255 255
0.267768 0.0790492 1.18 255 255 255
-0.73971 -0.152048 1.487 255 255 255
0.316942 -0.0373217 1.286 0 0 0
1.40637 0.010071 2.857 255 255 255
0.287245 -0.0135898 1.222 255 255 255
-0.811369 0.0525364 1.997 255 255 255
-0.787885 -0.0566291 1.524 255 255 255
0.189008 0.490506 1.673 0 0 0
-0.658529 -0.852812 2.898 255 255 255
0.167712 0.378311 2.55 255 255 255
0.753016 -0.28026 2.831 255 255 255
-0.819045 0.122415 2.024 255 255 255
1.29581 -0.243185 2.54 255 255 255
0.156389 0.51281 1.799 0 0 0
0.6443 -0.998653 2.967 255 255 255
-0.831618 0.45414 1.991 255 255 255
-0.711722 -0.402554 2.294 255 255 255
1.23145 -1.04184 2.939 255 255 255
0.24553 0.118443 0.523 255 255 255
0.288439 -0.0551427 1.484 255 255 255
-0.799608 -0.0231871 2.085 255 255 255
-0.0718683 0.521234 2.253 255 255 255
-0.194217 0.369064 2.939 255 255 255
-0.766315 -0.139284 1.62 255 255 255
-0.394316 0.456058 2.294 255 255 255
1.37164 0.215297 2.805 255 255 255
-0.606529 0.537696 1.659 255 255 255
0.276957 -0.0154581 1.39 255 255 255
-0.856908 0.403927 1.642 255 255 255
-0.780416 -0.122182 1.477 255 255 255
0.258437 0.140747 0.751 0 0 0
-0.70316 0.52307 1.664 255 255 255
0.487964 -1.04056 2.844 255 255 255
-0.795323 0.0768899 1.62 255 255 255
-0.458971 0.32786 2.831 255 255 255
0.25122 0.0985453 0.737 255 255 255
0.272795 0.0464667 2.347 255 255 255
1.47844 -0.168992 2.898 255 255 255
-0.859335 0.300252 1.842 255 255 255
-0.773715 0.00902763 2.561 255 255 255
0.472141 -0.464837 2.805 0 0 0
-0.781181 0.274312 2.898 255 255 255
-0.570641 0.455239 2.253 255 255 255
-0.0564556 0.640883 1.865 255 255 255
1.22938 -0.399216 2.793 255 255 255
-0.818449 0.125207 2.638 255 255 255
0.247893 0.212003 0.547 255 255 255
-0.149247 0.622598 1.62 255 255 255
-0.67698 0.565563 1.929 255 255 255
-0.774066 0.000406119 1.502 255 255 255
0.24761 0.102926 0.522 255 255 255
-0.851359 0.0924782 2.818 255 255 255
-0.710338 -0.560174 1.714 255 255 255
-0.859102 0.36152 1.929 255 255 255
0.25271 0.143905 1.357 255 255 255
1.34132 -0.275211 2.78 255 255 255
0.149277 0.514341 1.784 0 0 0
-0.478785 0.504601 2.107 0 0 0
0.2882 0.0243346 0.925 255 255 255
-0.159853 0.599774 1.705 255 255 255
-0.511404 0.564712 1.769 0 0 0
0.957842 -1.03767 2.996 255 255 255
-0.813893 0.0984428 1.941 255 255 255
-0.546089 0.576355 1.616 255 255 255
-0.796955 -0.00886811 1.923 255 255 255
-0.709725 -0.415928 1.532 255 255 255
-0.82216 0.155424 1.642 255 255 255
0.255411 0.0788671 0.681 255 255 255
0.265745 0.240474 0.765 255 255 255
-0.803847 0.0452938 2.114 255 255 255
0.311569 -0.0882592 1.603 255 255 255
0.225217 0.430925 1.378 255 255 255
1.43844 -1.06458 2.884 255 255 255
-0.709749 -0.734603 2.469 255 255 255
0.237394 0.362393 1.286 255 255 255
-0.810913 -0.0939288 2.151 255 255 255
-0.619083 0.411704 2.383 255 255 255
-0.665036 -0.839222 2.731 255 255 255
0.216709 0.359259 2.204 0 0 0
-0.702135 0.524327 1.668 255 255 255
-0.330552 0.577126 1.905 255 255 255
-0.74221 -0.391321 1.911 255 255 255
-0.751563 -0.377402 1.985 255 255 255
-0.872273 0.435577 2.01 255 255 255
-0.607714 0.577552 1.612 255 255 255
-0.711383 -0.539895 1.677 255 255 255
-0.791429 -0.160803 2.204 255 255 255
-0.762208 -0.216246 1.876 255 255 255
-0.682672 0.616631 1.591 255 255 255
1.04265 -0.246996 2.768 255 255 255
-0.241543 0.619962 1.62 255 255 255
-0.757021 0.565922 1.941 0 0 0
0.249816 0.116494 1.456 255 255 255
0.443011 -0.381662 2.582 0 0 0
0.223849 0.290006 0.852 255 255 255
-0.485684 0.61713 1.599 255 255 255
-0.243401 0.449805 2.509 255 255 255
-0.826967 0.540874 1.62 255 255 255
-0.743598 -0.102001 1.535 255 255 255
0.27286 0.0549109 0.764 255 255 255
0.298835 -0.191256 2.312 255 255 255
-0.0833807 0.417657 2.911 255 255 255
-0.735676 -0.241371 2.253 255 255 255
0.241834 0.192869 0.932 255 255 255
0.359022 -0.998796 2.925 255 255 255
-0.878253 0.40167 1.972 255 255 255
-0.835179 0.280033 1.668 255 255 255
-0.582916 0.578985 1.616 255 255 255
-0.697743 -0.25409 1.664 255 255 255
-0.690441 -0.227409 1.591 255 255 255
-0.746641 0.546079 1.972 255 255 255
-0.467173 0.600023 1.616 255 255 255
0.212072 0.454336 1.213 0 0 0
0.298653 -0.0923336 1.677 255 255 255
0.251404 0.0637295 0.975 255 255 255
-0.689974 -0.167812 1.378 255 255 255
0.271667 0.0137408 1.034 255 255 255
-0.80382 0.571461 1.595 255 255 255
-0.0507512 0.556733 2.136 255 255 255
-0.747059 -0.319337 1.624 255 255 255
0.202944 0.427127 2.064 0 0 0
1.47317 0.238788 2.925 0 0 0
1.32127 0.250688 2.844 255 255 255
0.24583 0.177218 0.711 255 255 255
0.268438 0.043944 2.051 255 255 255
-0.811283 -0.0419787 1.739 255 255 255
-0.774321 0.559284 1.929 0 0 0
-0.699311 -0.683028 2.626 255 255 255
-0.645265 0.548661 1.947 255 255 255
