ply
format ascii 1.0
comment Created by Open3D
element vertex 1325
property double x
property double y
property double z
property uchar red
property uchar green
property uchar blue
end_header
-0.576729 0.533798 2.114 0 0 0
-0.272352 0.215513 1.555 255 255 255
-0.984847 0.694008 1.911 255 255 255
-0.0741476 0.0132757 0.999 255 255 255
-1.16826 -0.89936 2.672 255 255 255
-1.06777 -1.03137 2.857 255 255 255
0.763728 -0.0234185 1.837 255 255 255
-0.966864 0.332508 2.755 255 255 255
-0.341443 0.424983 1.799 0 0 0
0.094965 -0.571367 2.604 255 255 255
0.6781 -0.616307 1.677 255 255 255
-0.0677106 0.109301 1 255 255 255
0.422549 -0.37232 2.269 255 255 255
0.153585 0.118258 0.567 255 255 255
-0.731986 0.161047 2.347 255 255 255
0.910126 0.363377 1.784 255 255 255
-0.732889 0.666867 1.887 255 255 255
0.17912 0.141671 0.497 255 255 255
0.245143 0.128179 0.498 255 255 255
-0.998148 0.321769 2.818 255 255 255
-1.18661 -1.06628 2.755 255 255 255
0.0396921 -0.999359 2.593 255 255 255
0.729955 -0.383174 1.696 255 255 255
0.186556 0.127866 0.513 255 255 255
0.0260896 0.0472694 0.826 255 255 255
0.210826 0.177122 0.457 255 255 255
-0.781585 -0.868997 2.953 255 255 255
-0.794936 0.100705 2.459 255 255 255
-1.0351 0.484859 2.459 255 255 255
0.845906 -0.61903 2.092 0 0 0
0.677765 -0.350988 1.815 255 255 255
-1.29619 0.513701 2.649 255 255 255
0.0551412 -0.541458 2.731 255 255 255
0.685923 -0.488 1.853 0 0 0
0.507262 -0.213635 2.158 255 255 255
-0.135407 0.285579 1.308 0 0 0
0.0765955 0.220789 0.779 255 255 255
0.0288792 0.224591 0.964 255 255 255
0.822449 0.0756823 1.848 255 255 255
-1.33916 -0.418469 2.831 255 255 255
0.766352 -0.203737 1.673 255 255 255
-1.08754 0.490848 2.469 255 255 255
-0.570156 0.45076 2.128 255 255 255
-0.239634 0.253377 1.524 255 255 255
0.20756 0.172292 0.458 255 255 255
-0.896951 -0.638333 2.953 255 255 255
0.0829358 0.228395 0.779 255 255 255
-0.535506 -0.149379 1.842 255 255 255
-0.239009 0.443897 1.603 255 255 255
0.728031 -0.251386 1.779 0 0 0
0.793418 -0.450649 1.65 255 255 255
0.461267 -0.26109 2.173 255 255 255
0.737876 0.204394 1.87 255 255 255
0.44016 -0.636416 1.997 255 255 255
-0.128969 -0.686017 2.871 255 255 255
-1.37888 0.450172 2.818 255 255 255
-0.709379 -0.0392802 2.228 255 255 255
0.0620839 0.0642799 0.772 255 255 255
-0.281312 0.0568265 1.445 255 255 255
0.228946 -0.486855 2.967 255 255 255
0.783302 -0.57514 2.01 0 0 0
-0.491329 0.557397 1.978 255 255 255
-1.1597 -0.909363 2.755 255 255 255
-0.144597 0.0457042 1.116 255 255 255
0.497328 -0.659632 1.941 255 255 255
0.753845 -0.424737 1.719 0 0 0
0.849732 0.174272 1.81 255 255 255
0.174883 0.153558 0.518 0 0 0
-1.40727 -0.399065 2.857 255 255 255
-0.0228743 0.0295681 0.901 255 255 255
-0.0943209 0.428815 1.393 255 255 255
0.846408 0.173307 1.686 255 255 255
0.663747 -0.645733 1.966 0 0 0
-0.0126497 0.134115 0.904 0 0 0
-1.05156 0.641752 2.107 255 255 255
0.153935 -0.427683 2.831 255 255 255
0.164026 0.111997 0.568 255 255 255
-0.309524 -0.0967513 1.456 255 255 255
0.707887 -0.0520646 1.794 255 255 255
0.781838 -0.436443 1.637 255 255 255
0.736326 -0.118042 1.821 255 255 255
-0.75439 0.651513 1.887 255 255 255
-1.22174 -0.894077 2.925 255 255 255
-0.76381 0.701582 1.865 255 255 255
0.859928 0.138048 1.691 255 255 255
0.741739 -0.574346 1.591 255 255 255
-0.17655 0.382107 1.494 255 255 255
0.528095 -0.542431 2.01 255 255 255
-1.21717 0.513313 2.582 255 255 255
0.421904 -0.587175 2.189 255 255 255
0.735733 -0.102318 1.805 255 255 255
0.695662 0.0153933 1.831 255 255 255
0.79588 -0.603402 2.017 0 0 0
-0.0757061 -0.9115 2.982 255 255 255
0.636349 -0.305864 1.941 0 0 0
-1.31853 -1.02588 2.731 255 255 255
-0.889896 0.700017 1.837 255 255 255
-0.797205 0.692477 1.865 255 255 255
-0.413003 0.646659 1.719 255 255 255
0.46791 -0.384128 2.092 255 255 255
-1.12712 -0.941401 2.939 255 255 255
0.551885 -0.533795 1.978 0 0 0
0.915702 0.421522 1.848 255 255 255
0.560519 -0.425892 1.941 0 0 0
0.056947 0.0806644 0.738 255 255 255
-0.0208968 -0.621927 2.793 255 255 255
-1.292 -0.832217 2.572 255 255 255
0.453385 -0.504903 2.057 255 255 255
0.449406 -0.60879 2.024 255 255 255
0.382091 -0.73319 2.107 255 255 255
-0.656868 0.320226 2.338 255 255 255
0.869806 0.322433 1.815 255 255 255
-1.36863 0.511733 2.707 255 255 255
0.271368 -0.44105 2.402 255 255 255
-0.244227 0.516938 1.603 255 255 255
0.807762 0.227918 1.815 255 255 255
0.142807 -0.717207 2.55 255 255 255
-0.550295 0.395473 2.092 255 255 255
-0.324649 -0.0768879 1.439 255 255 255
-0.55767 0.19601 2.107 255 255 255
0.109106 0.0729824 0.71 0 0 0
-0.612759 0.13191 2.181 255 255 255
-0.871482 0.403273 2.604 255 255 255
-0.630831 -0.109214 2.044 255 255 255
0.822061 0.209885 1.739 255 255 255
-0.764788 0.709649 1.831 255 255 255
-0.870997 -0.979161 2.996 255 255 255
0.22842 0.137844 0.455 255 255 255
0.144137 0.120233 0.581 255 255 255
0.562441 -0.42601 2.064 0 0 0
-1.05491 0.500966 2.44 255 255 255
0.774127 -0.270016 1.696 255 255 255
0.0741671 0.206154 0.767 0 0 0
0.19218 0.12662 0.508 255 255 255
0.719344 -0.277441 1.779 255 255 255
0.847924 -0.180126 1.734 255 255 255
-0.717324 0.613152 1.911 255 255 255
0.019484 0.0475555 0.831 255 255 255
0.0911685 0.21377 0.763 255 255 255
0.034432 -0.505999 2.857 255 255 255
0.0952132 0.08364 0.693 255 255 255
-0.35993 0.553629 1.789 255 255 255
-0.931917 -0.458054 2.43 255 255 255
0.11192 -0.834096 2.604 255 255 255
0.701171 0.0813722 1.911 255 255 255
0.709133 -0.277613 1.899 255 255 255
0.227384 0.134063 0.465 255 255 255
0.660007 -0.291209 1.848 255 255 255
0.209888 0.160523 0.444 255 255 255
0.212479 -0.846674 2.356 255 255 255
0.672997 -0.544743 1.893 255 255 255
-1.16805 0.451582 2.743 255 255 255
0.62536 -0.230331 1.917 255 255 255
0.191108 0.131103 0.503 255 255 255
0.0722531 0.199325 0.76 0 0 0
-0.807066 0.259083 2.561 255 255 255
0.114065 0.141425 0.629 255 255 255
-0.727178 0.343272 2.42 255 255 255
-0.25147 -0.00590746 1.281 255 255 255
0.105684 0.111598 0.634 255 255 255
-0.586851 -0.132955 1.953 255 255 255
-0.0814869 0.437254 1.297 255 255 255
0.185745 0.175653 0.504 255 255 255
-0.347581 -0.0915518 1.487 255 255 255
0.27721 -0.754453 2.32 255 255 255
-0.12282 0.375551 1.31 0 0 0
0.397073 -0.780004 2.151 255 255 255
0.746072 -0.136209 1.714 0 0 0
-0.0886055 0.0262287 0.997 255 255 255
0.0448614 -0.559687 2.649 255 255 255
0.0799672 0.0886346 0.688 255 255 255
0.74086 0.0325079 1.789 255 255 255
-0.696474 -0.228613 2.071 255 255 255
-0.15188 -0.667166 2.953 255 255 255
0.641345 0.0997108 1.966 255 255 255
0.140402 0.0924304 0.637 255 255 255
-0.069405 0.0193628 0.978 255 255 255
0.13458 0.0981854 0.634 255 255 255
0.432356 -0.653944 1.991 255 255 255
-0.283911 0.393297 1.7 255 255 255
-0.522546 0.657013 1.739 255 255 255
0.609198 -0.259442 1.997 255 255 255
-0.239331 -0.0455861 1.283 255 255 255
0.0188744 0.108948 0.805 255 255 255
0.0552096 0.13392 0.747 0 0 0
0.757579 -0.460404 1.539 255 255 255
-1.00344 0.693697 1.972 255 255 255
0.778488 -0.103338 1.724 0 0 0
-0.753959 -1.11836 2.939 255 255 255
0.0334815 0.0788074 0.779 255 255 255
0.725863 -0.374384 1.719 255 255 255
0.165025 0.224503 0.602 255 255 255
0.287024 -0.614755 2.278 255 255 255
0.111483 0.12547 0.626 0 0 0
0.867994 0.0679951 1.729 255 255 255
-0.0860911 -0.730474 2.844 255 255 255
-0.258861 0.0745915 1.425 0 0 0
-0.800532 -0.00324581 2.392 255 255 255
-1.27034 -0.928477 2.884 255 255 255
0.568347 -0.0889507 2.037 255 255 255
0.837791 0.0871835 1.719 255 255 255
-0.665779 0.43536 2.303 255 255 255
0.413424 -0.548526 2.22 255 255 255
0.571309 -0.417754 2.024 0 0 0
0.551478 -0.214626 2.099 255 255 255
-0.842742 0.677302 1.865 255 255 255
0.149106 0.221684 0.605 0 0 0
0.388503 -0.289548 2.286 255 255 255
0.090148 0.104993 0.664 255 255 255
0.0911094 -0.84613 2.615 255 255 255
-0.656868 0.324031 2.338 255 255 255
-0.0727965 0.328449 1.222 0 0 0
-0.295742 0.357103 1.673 255 255 255
-1.31093 -1.06163 2.743 255 255 255
0.584794 -0.408148 1.917 255 255 255
0.165036 0.16918 0.541 255 255 255
-0.114949 -0.704705 2.871 255 255 255
-0.669448 0.0257024 2.204 255 255 255
0.572095 -0.598802 1.959 0 0 0
-0.993536 -0.763991 2.831 255 255 255
0.737876 0.0887557 1.87 255 255 255
0.322647 -0.645205 2.294 255 255 255
-0.617868 0.479352 2.212 0 0 0
-0.267712 0.595196 1.603 0 0 0
0.532612 -0.380724 2.092 255 255 255
-0.384447 0.630725 1.729 255 255 255
0.210727 0.148704 0.452 255 255 255
0.117358 0.0792145 0.684 255 255 255
-0.103811 -0.619111 2.953 255 255 255
0.580282 -0.275527 2.044 255 255 255
0.718214 -0.504351 1.65 255 255 255
0.104982 0.112985 0.636 255 255 255
0.290732 -0.751916 2.278 255 255 255
-1.08558 -0.628126 2.996 0 0 0
-0.201505 0.500219 1.575 0 0 0
0.278737 -0.749844 2.365 255 255 255
-0.688903 0.0444275 2.244 255 255 255
-0.471199 0.611406 1.935 255 255 255
0.0301726 0.0852779 0.792 255 255 255
-0.895298 0.540029 2.286 255 255 255
-0.396148 -0.00219282 1.616 255 255 255
-0.0656081 0.237295 1.165 255 255 255
0.146137 0.159884 0.574 255 255 255
-0.638915 0.375909 2.261 255 255 255
0.688158 -0.308877 1.744 255 255 255
0.543291 -0.397169 2.107 255 255 255
0.0827479 0.576629 2.269 0 0 0
-1.218 -0.721065 2.755 255 255 255
-0.0647337 0.40931 1.22 255 255 255
0.756812 -0.397608 1.664 255 255 255
-1.31666 -1.05283 2.755 255 255 255
0.680517 -0.133364 1.959 255 255 255
-0.883685 -0.898837 2.925 255 255 255
-0.688418 -0.347575 2.057 255 255 255
0.425894 -0.568738 2.173 255 255 255
0.718214 -0.490926 1.65 0 0 0
0.788058 0.0571082 1.831 255 255 255
0.371635 -0.84184 2.166 255 255 255
0.00490896 0.168932 0.886 255 255 255
0.5703 -0.418556 2.044 0 0 0
-0.521748 -0.141282 1.815 255 255 255
-1.25847 -0.862683 2.707 255 255 255
-0.0878522 -0.00141936 1.046 255 255 255
0.77714 0.17666 1.899 255 255 255
-0.279711 0.249645 1.612 255 255 255
-0.230725 0.179228 1.409 255 255 255
-0.0105847 0.100527 0.856 255 255 255
0.773331 -0.562013 1.571 255 255 255
0.827723 -0.141026 1.739 255 255 255
0.792647 -0.0232146 1.821 255 255 255
-0.0526555 0.0808951 0.935 255 255 255
-0.194718 0.327232 1.466 255 255 255
-0.239009 0.449114 1.603 255 255 255
0.745053 -0.59815 1.539 255 255 255
0.38841 -0.826375 2.181 255 255 255
0.199807 0.167718 0.466 255 255 255
-0.824352 -0.604645 2.884 255 255 255
0.578473 -0.535044 1.959 255 255 255
-0.212713 0.067996 1.299 255 255 255
-1.40387 -0.494396 2.898 255 255 255
-0.136563 0.414839 1.362 0 0 0
-1.25353 0.543979 2.402 255 255 255
-0.737074 0.671225 1.882 255 255 255
-1.24699 -0.726794 2.54 255 255 255
-1.21632 0.624602 2.338 255 255 255
0.789645 -0.0589457 1.659 0 0 0
0.538552 -0.616037 1.953 255 255 255
0.688553 -0.621275 1.612 255 255 255
0.21026 0.168925 0.451 0 0 0
0.174485 0.190129 0.543 255 255 255
-0.0805079 0.263467 1.189 255 255 255
0.0953553 -0.457086 2.871 255 255 255
0.178216 0.143865 0.499 255 255 255
0.168397 0.19278 0.561 255 255 255
0.766497 0.239973 1.911 255 255 255
-1.07844 0.60315 2.204 255 255 255
-0.295254 0.326328 1.655 255 255 255
0.544803 -0.716917 1.876 255 255 255
0.162545 -0.485808 2.743 255 255 255
-0.531045 0.000523196 1.935 255 255 255
0.810985 -0.118697 1.664 255 255 255
0.148954 0.125 0.56 255 255 255
0.0651881 0.0926242 0.71 255 255 255
-0.0631091 0.0406648 0.955 255 255 255
0.382213 -0.788968 2.166 255 255 255
0.446321 -0.354481 2.204 255 255 255
-0.135033 -0.00146957 1.083 255 255 255
0.0666975 0.710625 2.66 0 0 0
0.34622 -0.567678 2.253 255 255 255
-1.443 0.529602 2.731 255 255 255
-0.406524 0.213008 1.789 0 0 0
-0.101878 -0.77264 2.898 255 255 255
0.0722825 -0.849468 2.707 255 255 255
0.59283 -0.0291824 2.03 255 255 255
-0.258305 -0.0336258 1.305 255 255 255
0.760423 -0.25067 1.734 255 255 255
-0.572709 0.590298 1.959 255 255 255
-0.672154 0.296984 2.365 255 255 255
0.171985 0.150497 0.522 0 0 0
0.0966331 0.117959 0.664 255 255 255
0.0767187 0.096612 0.689 255 255 255
-1.23585 -0.746505 2.509 255 255 255
-0.921863 -1.01275 2.768 255 255 255
0.5251 -0.71921 1.882 255 255 255
0.239088 -0.64552 2.392 255 255 255
0.76585 -0.388492 1.637 255 255 255
-0.0924962 0.0264129 1.004 255 255 255
-0.649278 -0.248835 2.071 255 255 255
-0.0368732 -0.989143 2.982 255 255 255
-0.958672 0.703006 1.837 255 255 255
-0.894771 -1.02703 2.884 255 255 255
0.0882587 0.309179 0.883 255 255 255
0.516013 -0.721799 1.905 0 0 0
0.80243 -0.282939 1.583 255 255 255
-0.815122 0.564913 2.181 255 255 255
0.0221627 0.136643 0.83 255 255 255
0.742097 -0.428076 1.744 255 255 255
-1.06641 0.530548 2.43 255 255 255
0.460833 -0.66484 1.947 255 255 255
-0.385808 0.00302685 1.595 255 255 255
0.725216 -0.514214 1.917 0 0 0
0.848667 0.201935 1.696 255 255 255
-0.0149374 0.0974736 0.866 255 255 255
-0.295608 0.57494 1.642 255 255 255
0.787021 -0.31215 1.7 255 255 255
0.780701 0.282162 1.923 255 255 255
-1.22063 -0.885061 2.911 255 255 255
-0.109555 0.530355 1.357 255 255 255
-0.874944 0.703006 1.837 255 255 255
0.0821478 0.145372 0.697 0 0 0
0.109072 0.100354 0.648 255 255 255
0.386562 -0.553013 2.253 255 255 255
-0.576499 -0.162713 1.929 255 255 255
0.660266 -0.0777262 2.004 255 255 255
0.383435 -0.373797 2.278 255 255 255
0.862105 0.0521183 1.763 255 255 255
0.699242 0.000536715 1.985 255 255 255
0.540355 -0.0493412 2.044 255 255 255
-0.344841 0.658724 1.714 255 255 255
0.725726 -0.663891 1.935 0 0 0
-0.332821 0.54193 1.724 255 255 255
0.825057 -0.591936 2.057 0 0 0
-0.2722 0.439291 1.696 0 0 0
-0.324307 0.140946 1.599 255 255 255
0.654508 -0.671044 1.893 0 0 0
-0.202016 0.49892 1.579 0 0 0
0.690083 0.0132814 1.959 255 255 255
0.296508 -0.376422 2.294 255 255 255
-0.782004 0.0433015 2.383 255 255 255
0.785361 -0.0452004 1.65 0 0 0
-0.718764 0.393796 2.392 255 255 255
-0.989482 0.663226 2.099 255 255 255
-0.0710708 0.43367 1.262 255 255 255
0.395923 -0.649164 2.037 255 255 255
0.206069 0.149187 0.458 255 255 255
0.169773 -0.700289 2.519 255 255 255
-0.0243896 0.348201 1.102 255 255 255
0.358491 -0.687435 2.261 255 255 255
0.0621591 0.634031 2.479 0 0 0
-0.0625131 0.113612 0.995 255 255 255
-0.548356 0.0823167 2.01 255 255 255
0.194537 -0.875229 2.469 255 255 255
0.742006 -0.316557 1.724 255 255 255
0.783635 0.0260738 1.748 255 255 255
0.41458 -0.646989 2.151 255 255 255
0.0612971 0.353636 0.932 255 255 255
0.682222 0.0463003 1.876 255 255 255
-0.0541944 -0.573887 2.871 255 255 255
-0.102114 0.125587 1.149 0 0 0
-0.159287 0.0297276 1.13 255 255 255
0.157691 0.137995 0.543 255 255 255
-1.28588 -0.80277 2.519 255 255 255
0.205552 0.1382 0.474 255 255 255
0.173758 0.126928 0.53 255 255 255
0.53686 -0.305308 2.136 255 255 255
0.0476436 0.0499355 0.804 255 255 255
0.161042 0.105648 0.584 255 255 255
-0.136589 0.550346 1.432 255 255 255
0.727629 -0.172067 1.71 255 255 255
-0.927111 0.681297 1.876 255 255 255
-0.8111 0.12725 2.509 255 255 255
-0.134258 0.541025 1.432 0 0 0
0.1526 0.166009 0.56 255 255 255
-0.263691 0.456201 1.677 0 0 0
0.424795 -0.505119 2.204 255 255 255
0.177511 0.150651 0.511 255 255 255
-1.33804 -0.711907 2.638 255 255 255
0.0645079 0.282348 0.854 255 255 255
-0.958672 0.700017 1.837 255 255 255
0.825777 -0.137401 1.729 255 255 255
0.73428 -0.596763 1.575 0 0 0
-0.236399 0.423028 1.603 255 255 255
0.391392 -0.632745 2.303 255 255 255
-0.748041 -0.327621 2.037 255 255 255
0.814234 0.334266 1.899 255 255 255
-1.04698 0.698124 2.051 255 255 255
0.0150917 0.11003 0.813 255 255 255
-0.243862 0.569948 1.535 255 255 255
0.589831 -0.192078 2.114 255 255 255
0.601411 -0.170301 2.143 255 255 255
0.156288 0.109449 0.584 255 255 255
0.176206 0.169948 0.527 255 255 255
0.788356 -0.452659 1.591 255 255 255
-0.263576 0.23697 1.563 255 255 255
0.182123 0.14505 0.492 255 255 255
-0.841655 0.622168 2.158 255 255 255
0.646512 -0.105367 1.972 255 255 255
-1.285 -0.410519 2.939 255 255 255
-1.24961 -0.817404 2.66 255 255 255
0.572312 -0.688911 1.917 255 255 255
0.0964633 0.146926 0.678 255 255 255
-0.115077 -0.569621 2.996 255 255 255
0.668011 -0.112137 1.923 255 255 255
0.809534 -0.0774215 1.65 255 255 255
0.252882 -0.592184 2.53 255 255 255
0.725401 -0.512261 1.624 255 255 255
0.547434 -0.451179 1.997 0 0 0
0.258709 -0.584595 2.43 255 255 255
0.216371 0.164941 0.431 255 255 255
0.832402 -0.145389 1.691 255 255 255
-1.43393 -0.425719 2.818 255 255 255
0.11375 -0.845847 2.55 255 255 255
-0.351194 0.518694 1.789 255 255 255
-1.08223 0.522639 2.43 255 255 255
0.558325 -0.537014 1.978 0 0 0
-1.25728 -0.880787 2.695 255 255 255
0.417893 -0.634794 2.244 255 255 255
-0.549344 -0.198512 1.911 255 255 255
-1.02153 0.0570984 2.884 255 255 255
0.654738 -0.402471 1.876 255 255 255
-1.34991 -0.963203 2.768 255 255 255
-0.269647 0.541669 1.599 255 255 255
0.59819 -0.267954 2.037 255 255 255
0.534772 -0.43289 2.114 255 255 255
0.82108 -0.265559 1.668 255 255 255
0.100652 0.096058 0.662 255 255 255
-0.220368 -0.0492576 1.27 255 255 255
0.439193 -0.593208 2.085 255 255 255
-0.180821 -0.0148135 1.162 255 255 255
0.147525 0.167491 0.565 255 255 255
0.389158 -0.469673 2.312 255 255 255
-1.31135 -1.05211 2.707 255 255 255
-1.23904 -0.925237 2.684 255 255 255
0.4678 -0.606035 2.004 255 255 255
0.116392 0.139509 0.625 255 255 255
-0.118466 0.208513 1.242 0 0 0
0.00649848 -0.901715 2.844 255 255 255
0.343429 -0.767819 2.166 255 255 255
0.580364 -0.43446 1.923 0 0 0
0.766155 0.282072 1.966 255 255 255
-1.03851 0.598203 2.173 255 255 255
-0.157238 0.0983317 1.229 0 0 0
0.0583059 0.0796788 0.74 255 255 255
0.654699 -0.0651011 2.017 255 255 255
-0.594565 0.0686531 2.092 255 255 255
-1.3187 -0.990428 2.695 255 255 255
-0.648089 -0.0975042 2.078 255 255 255
0.738715 -0.595709 1.579 0 0 0
-0.753005 0.630934 1.899 255 255 255
0.424591 -0.677815 1.985 255 255 255
-0.154312 0.169715 1.254 255 255 255
-0.802683 -0.88259 2.857 255 255 255
-1.16849 -0.901153 2.996 255 255 255
-0.236399 0.433462 1.603 255 255 255
0.712624 -0.627611 2.121 0 0 0
-1.31023 -0.999209 2.66 255 255 255
0.163852 0.173261 0.54 255 255 255
0.722656 -0.145563 1.87 255 255 255
-0.0299897 -0.571931 2.793 255 255 255
-1.09995 -0.975765 2.844 255 255 255
0.762021 -0.269511 1.784 255 255 255
-0.0730876 0.216278 1.106 255 255 255
-0.118793 -0.651016 2.967 255 255 255
-0.110444 0.124923 1.178 0 0 0
0.365852 -0.359969 2.261 255 255 255
0.392324 -0.689569 2.244 255 255 255
-1.16329 -0.91412 2.898 255 255 255
-0.738897 0.252766 2.459 255 255 255
0.126264 -0.823522 2.638 255 255 255
-0.320899 0.143189 1.595 255 255 255
0.64587 -0.461123 1.842 255 255 255
0.695662 -0.231917 1.831 0 0 0
-0.552794 -0.0589378 1.923 255 255 255
0.0454541 -0.641334 2.684 255 255 255
0.140011 0.105334 0.604 255 255 255
-1.0301 0.685755 2.064 255 255 255
0.211521 0.171098 0.449 0 0 0
0.206427 0.117143 0.521 0 0 0
0.79373 -0.570653 1.887 0 0 0
0.165673 -0.757679 2.519 255 255 255
-0.286305 0.360249 1.65 255 255 255
0.539601 -0.297095 2.204 255 255 255
-0.616488 0.502761 2.22 0 0 0
0.801688 -0.0398241 1.769 0 0 0
-1.26766 -0.751595 2.54 255 255 255
0.18627 0.164824 0.501 255 255 255
0.261067 -0.399746 2.278 0 0 0
0.684404 -0.0829246 1.899 255 255 255
-1.19037 0.469437 2.743 255 255 255
-1.06217 0.589314 2.261 255 255 255
-0.396261 0.39482 1.893 255 255 255
-1.07366 -0.970712 2.898 255 255 255
0.634944 -0.642268 1.899 255 255 255
0.56044 -0.136582 2.107 255 255 255
0.114357 0.148663 0.625 255 255 255
0.187727 -0.644126 2.54 255 255 255
-0.58293 0.565333 1.972 255 255 255
0.101872 0.0799284 0.7 255 255 255
-0.568993 0.326979 2.204 255 255 255
0.0323375 0.0791108 0.782 255 255 255
0.0621859 0.087985 0.729 255 255 255
0.132352 -0.380632 2.967 255 255 255
-0.00260518 -0.999489 2.684 255 255 255
-0.792596 -0.891587 2.871 255 255 255
0.531643 -0.191226 2.143 255 255 255
0.604809 -0.299486 2.004 255 255 255
-0.766037 -0.236561 2.143 255 255 255
0.72447 0.053833 1.821 255 255 255
0.224857 0.129302 0.484 255 255 255
-0.420008 0.608838 1.917 0 0 0
0.316991 -0.329335 2.228 255 255 255
-0.251428 0.172526 1.449 255 255 255
-0.881744 -1.04067 2.857 255 255 255
0.784659 -0.55152 1.563 0 0 0
-0.631177 -0.0636883 2.078 255 255 255
-0.924643 -1.00354 2.996 255 255 255
-0.118232 -1.02758 2.953 255 255 255
0.863306 -0.190114 1.748 255 255 255
0.0979203 0.105056 0.651 255 255 255
-1.11616 0.500905 2.479 255 255 255
0.815283 -0.0258617 1.799 255 255 255
0.0658637 0.25345 0.819 255 255 255
0.851932 0.166441 1.821 255 255 255
0.0582272 0.0976101 0.739 255 255 255
0.344986 -0.745253 2.269 255 255 255
-0.270278 -0.0125505 1.322 255 255 255
0.540914 -0.461389 1.985 255 255 255
-0.302724 -0.0883502 1.435 255 255 255
-0.951163 -0.350047 2.449 0 0 0
-0.531842 0.549679 1.985 255 255 255
0.146868 0.133874 0.559 255 255 255
0.252648 -0.75633 2.269 255 255 255
-0.807015 0.457971 2.509 255 255 255
-1.0392 0.365931 2.805 255 255 255
0.580624 -0.391091 2.057 255 255 255
0.186922 0.207277 0.551 255 255 255
0.225825 -0.605165 2.55 255 255 255
0.775459 -0.257576 1.705 255 255 255
0.839881 -0.149286 1.673 255 255 255
-0.0191596 0.272811 1.015 255 255 255
-0.97534 0.614356 2.143 255 255 255
0.1819 0.171611 0.514 255 255 255
-0.06091 0.0263986 0.945 255 255 255
0.287544 -0.571257 2.312 255 255 255
0.382394 -0.316693 2.294 255 255 255
0.0300964 0.0837769 0.79 255 255 255
0.770957 0.179751 1.899 255 255 255
0.586371 -0.716147 1.882 255 255 255
0.192953 0.138595 0.489 255 255 255
-0.522985 0.0098771 1.917 255 255 255
-0.952449 -1.04455 2.805 255 255 255
-0.485768 0.644794 1.729 255 255 255
-1.20845 -0.903139 2.939 255 255 255
0.873828 0.338281 1.805 255 255 255
0.219537 -0.745647 2.479 255 255 255
-1.22537 -0.861375 2.911 255 255 255
0.196257 -0.758404 2.392 255 255 255
-1.04057 -0.927695 2.911 255 255 255
-0.779587 0.707401 1.81 255 255 255
0.783785 -0.310294 1.705 255 255 255
0.114049 -0.433725 2.871 255 255 255
-0.319353 0.48968 1.758 255 255 255
-0.991062 0.492836 2.479 255 255 255
0.193808 0.149398 0.468 255 255 255
-0.198533 -0.0439517 1.237 255 255 255
-0.0259458 0.343265 1.092 255 255 255
-0.000816302 0.101503 0.841 255 255 255
-0.839293 0.62133 2.143 255 255 255
0.688243 -0.686213 1.972 0 0 0
-0.922877 0.214062 2.731 255 255 255
-1.07 -0.0232291 2.953 255 255 255
-0.0250629 0.0443779 0.875 255 255 255
0.00176385 -0.990754 2.684 255 255 255
-0.11322 0.135536 1.187 0 0 0
-0.113398 -0.00489752 1.062 255 255 255
0.0822486 -0.927322 2.604 255 255 255
0.501896 -0.128056 2.196 255 255 255
-0.141098 0.130506 1.194 255 255 255
0.819144 -0.124762 1.637 255 255 255
-0.107741 0.421488 1.362 255 255 255
-0.354967 0.000419368 1.551 255 255 255
0.743233 0.205551 1.853 255 255 255
0.549085 -0.253998 2.143 255 255 255
-1.24348 -0.805652 2.898 255 255 255
0.658657 -0.173088 1.905 255 255 255
0.732715 -0.126499 1.696 0 0 0
0.158852 0.148803 0.547 0 0 0
-0.774495 -0.0780798 2.303 255 255 255
-1.44808 -0.501351 2.911 255 255 255
-0.864095 0.643635 2.037 255 255 255
0.208329 0.150975 0.45 255 255 255
-0.115 0.333061 1.294 0 0 0
-0.464613 0.447272 1.947 255 255 255
0.556709 -0.69203 1.917 255 255 255
-1.2381 -0.913091 2.78 255 255 255
-1.36339 0.452659 2.805 255 255 255
-0.111735 0.46208 1.384 255 255 255
-0.172059 0.343955 1.456 255 255 255
0.609792 -0.395525 1.947 255 255 255
0.805848 -0.0778438 1.659 255 255 255
-0.173576 0.157915 1.291 0 0 0
-0.759859 -0.326535 2.051 255 255 255
0.818392 0.193901 1.774 255 255 255
0.878669 0.351969 1.815 255 255 255
-1.1985 -1.04366 2.731 255 255 255
0.194059 0.140922 0.478 255 255 255
0.0760157 0.116384 0.714 255 255 255
0.213885 0.140716 0.462 255 255 255
-0.119747 0.0501683 1.057 255 255 255
-0.179499 0.274356 1.403 255 255 255
0.163815 0.127731 0.537 255 255 255
-0.0744085 0.0721037 0.981 255 255 255
-0.220364 0.535023 1.528 255 255 255
-1.2842 -0.726794 2.54 255 255 255
0.0744324 0.198539 0.757 0 0 0
0.615483 -0.408831 1.935 255 255 255
0.718874 -0.274528 1.837 255 255 255
0.67446 -0.626572 1.668 255 255 255
-1.43595 -0.98575 2.743 255 255 255
0.165036 0.1683 0.541 255 255 255
-0.412571 0.608999 1.842 0 0 0
-1.00724 -0.688505 2.805 255 255 255
0.0807359 -0.79746 2.695 255 255 255
-0.633217 0.156507 2.228 255 255 255
-0.407292 0.353649 1.887 255 255 255
-0.00503448 0.0422176 0.86 255 255 255
-0.140964 -0.0196753 1.116 255 255 255
0.19936 -0.902979 2.479 255 255 255
-1.11484 -0.945032 2.996 255 255 255
0.653088 -0.16392 1.837 255 255 255
-0.81533 0.506723 2.356 255 255 255
0.868348 0.416724 1.923 255 255 255
-0.960788 -0.507715 2.582 255 255 255
-1.43327 0.472838 2.844 255 255 255
-0.819481 -0.445358 2.303 255 255 255
0.0351959 0.174699 0.886 255 255 255
-0.421804 0.578944 1.911 255 255 255
-0.883915 0.703006 1.837 255 255 255
0.774522 -0.195569 1.673 255 255 255
0.850079 0.109615 1.677 255 255 255
0.730689 -0.520189 1.624 255 255 255
0.18627 0.13792 0.501 255 255 255
0.160336 0.140747 0.54 255 255 255
0.553936 -0.551922 1.997 255 255 255
-0.779942 0.525148 2.286 255 255 255
-0.48489 0.428643 1.978 255 255 255
-0.515322 0.612029 1.947 255 255 255
-0.731117 0.398406 2.42 255 255 255
0.132335 0.153403 0.596 255 255 255
0.784243 -0.274925 1.659 255 255 255
0.744703 -0.474519 1.528 0 0 0
0.141592 -0.558654 2.604 255 255 255
0.227064 -0.655775 2.43 255 255 255
0.761517 -0.46028 1.547 255 255 255
-0.834657 -0.882243 2.871 255 255 255
0.5735 -0.72071 1.87 255 255 255
0.707868 -0.457693 1.696 0 0 0
0.727629 -0.380772 1.71 255 255 255
0.0752464 -0.522021 2.818 255 255 255
0.520523 -0.049993 2.071 255 255 255
0.203832 0.163348 0.458 0 0 0
0.221226 0.146401 0.445 255 255 255
0.828224 0.0499757 1.789 255 255 255
-0.274463 0.530333 1.612 255 255 255
0.693412 -0.608459 1.599 0 0 0
0.806076 0.0229767 1.729 255 255 255
0.103457 0.217096 0.753 255 255 255
0.00608597 0.0416776 0.849 255 255 255
-0.539932 0.54486 1.991 255 255 255
0.342923 -0.538387 2.383 255 255 255
0.892912 0.440276 1.826 255 255 255
-1.05755 0.672374 2.085 255 255 255
0.02267 0.150824 0.849 255 255 255
-0.00746011 -0.872899 2.871 255 255 255
0.0831629 0.13044 0.696 255 255 255
-1.1215 0.490635 2.509 255 255 255
0.668948 -0.0334798 1.899 255 255 255
-0.0804326 0.236276 1.16 255 255 255
-0.241363 0.572446 1.535 255 255 255
0.35176 -0.803469 2.196 255 255 255
0.560437 -0.561671 1.997 255 255 255
-1.30485 -1.00374 2.768 255 255 255
0.137753 0.129911 0.582 255 255 255
0.667798 0.103538 1.978 255 255 255
0.149122 0.116651 0.582 255 255 255
-0.722093 0.630934 1.899 255 255 255
-0.0824053 0.32908 1.247 255 255 255
0.272069 -0.574987 2.374 255 255 255
-1.29724 0.502848 2.66 255 255 255
-0.450067 0.250828 1.899 255 255 255
0.545635 -0.699194 1.911 255 255 255
-0.982882 0.682553 2.085 255 255 255
0.48556 -0.522805 2.01 255 255 255
0.70268 -0.296656 1.826 255 255 255
0.0797805 0.216572 0.773 255 255 255
0.721042 -0.0376972 1.805 255 255 255
-0.564287 -0.0626481 1.941 255 255 255
-0.0227462 0.41016 1.205 255 255 255
0.109599 -0.833398 2.55 255 255 255
0.812489 -0.0552288 1.629 0 0 0
-0.544009 0.580734 1.959 255 255 255
-1.218 -1.06628 2.755 255 255 255
-0.403524 0.0609971 1.691 255 255 255
0.620551 -0.236374 1.941 255 255 255
-0.957909 0.320564 2.768 255 255 255
0.186231 0.144863 0.486 255 255 255
0.796099 0.00908363 1.763 255 255 255
0.136302 0.126466 0.588 255 255 255
-0.113425 -1.02758 2.953 255 255 255
0.778098 -0.461706 1.535 255 255 255
0.619119 -0.498616 1.917 255 255 255
0.624925 -0.0446868 1.985 255 255 255
-0.992986 0.613149 2.151 255 255 255
-0.357273 0.488085 1.805 255 255 255
-0.0912494 0.514331 1.316 255 255 255
0.337919 -0.538033 2.489 255 255 255
-1.37589 -0.530087 2.939 255 255 255
-0.28901 0.264065 1.62 255 255 255
-0.596263 0.245374 2.212 255 255 255
-0.0568844 0.209079 1.106 255 255 255
0.162907 -0.359975 2.996 255 255 255
-0.256598 0.275826 1.567 255 255 255
-0.300388 -0.0883502 1.435 255 255 255
-1.28683 -0.670414 2.768 255 255 255
-0.124761 0.353692 1.308 0 0 0
-0.158338 0.396141 1.439 255 255 255
0.7676 -0.4579 1.539 255 255 255
-0.946673 0.49687 2.479 255 255 255
-0.28406 -0.0239242 1.357 255 255 255
0.665772 -0.169549 1.972 255 255 255
-0.603437 0.651528 1.905 255 255 255
-1.08662 -0.708502 2.707 255 255 255
0.137875 -0.367998 2.982 255 255 255
-0.227981 0.0962377 1.339 255 255 255
-0.188008 0.0505367 1.234 255 255 255
-1.29247 -0.730928 2.54 255 255 255
0.86745 0.445772 1.887 0 0 0
-0.000834744 0.114992 0.86 0 0 0
0.796347 -0.326811 1.571 255 255 255
-1.09759 -0.972212 2.768 255 255 255
-0.0641388 -0.635876 2.898 255 255 255
-0.00229702 0.0304488 0.884 255 255 255
-1.0172 0.631793 2.143 255 255 255
0.106069 0.165793 0.683 255 255 255
-1.34677 -0.389032 2.818 255 255 255
-0.274697 -0.0386857 1.333 255 255 255
0.182825 0.127672 0.519 255 255 255
0.782855 -0.0628345 1.691 0 0 0
-0.244837 0.395317 1.607 255 255 255
0.675403 0.100015 1.972 255 255 255
-1.15924 0.605579 2.338 255 255 255
-0.0220831 0.326281 1.077 255 255 255
0.15369 0.158934 0.564 255 255 255
-1.55804 -0.622046 2.967 255 255 255
-0.00804299 0.322176 1.075 255 255 255
-1.34225 0.540624 2.572 255 255 255
-0.443791 0.331058 1.953 255 255 255
0.61895 -0.233444 1.997 255 255 255
0.158866 0.133222 0.538 255 255 255
0.199481 0.155079 0.46 255 255 255
0.173431 0.185407 0.537 255 255 255
-0.829094 0.348184 2.604 255 255 255
0.379227 -0.553013 2.253 255 255 255
0.192097 0.170906 0.495 255 255 255
-1.08143 -0.989649 2.844 255 255 255
0.200665 0.162918 0.461 0 0 0
-0.751542 0.625592 1.911 255 255 255
0.361651 -0.74396 2.128 255 255 255
0.419135 -0.492554 2.212 255 255 255
-0.811572 0.564913 2.181 255 255 255
-0.19862 0.00227915 1.201 255 255 255
0.172368 -0.455324 2.831 255 255 255
0.757771 -0.547374 1.603 255 255 255
0.582174 -0.570798 1.929 0 0 0
-0.628887 0.241574 2.278 255 255 255
0.380146 -0.62525 2.303 255 255 255
0.0249238 0.246139 0.994 255 255 255
-0.107042 0.0171062 1.034 255 255 255
-0.889391 0.535027 2.329 255 255 255
-0.783909 0.314826 2.54 255 255 255
-0.571734 0.418213 2.121 255 255 255
-1.06641 0.534502 2.43 255 255 255
-1.18601 0.537821 2.392 255 255 255
-0.0860894 0.223796 1.135 255 255 255
-1.03488 0.502814 2.449 255 255 255
0.340461 -0.541342 2.449 255 255 255
-0.00363781 0.524378 1.4 255 255 255
-0.0832114 0.460442 1.291 255 255 255
0.471878 -0.246945 2.173 255 255 255
-0.421085 0.137314 1.789 255 255 255
-0.643072 0.533346 2.212 255 255 255
-0.070163 -0.94108 2.953 255 255 255
-1.51463 -0.510956 2.939 255 255 255
-1.18315 0.498769 2.572 255 255 255
-0.957848 0.451598 2.519 255 255 255
0.912694 0.418515 1.848 255 255 255
0.572521 -0.34204 2.064 255 255 255
0.372311 -0.525786 2.278 255 255 255
0.0846924 0.133807 0.69 255 255 255
0.688971 -0.400083 1.837 255 255 255
0.245826 -0.696396 2.42 255 255 255
-0.107363 0.310521 1.254 255 255 255
-0.227719 0.522046 1.579 255 255 255
0.326382 -0.667603 2.294 255 255 255
-1.02242 0.707082 1.947 255 255 255
-1.09142 0.598228 2.253 255 255 255
0.653445 -0.411267 1.917 255 255 255
-0.445873 0.12266 1.831 0 0 0
0.750425 -0.425972 1.724 0 0 0
-0.610881 0.551761 2.078 255 255 255
0.824193 -0.166891 1.714 255 255 255
0.127861 0.141418 0.607 255 255 255
-0.405195 0.00578812 1.642 255 255 255
-0.971308 0.587594 2.173 255 255 255
-0.0550211 0.283074 1.182 0 0 0
0.0798802 0.071153 0.739 255 255 255
-0.947689 -0.893471 2.818 255 255 255
-0.183055 0.495238 1.528 0 0 0
0.152415 0.141298 0.556 0 0 0
0.564539 -0.524158 1.966 0 0 0
-1.36795 -0.706763 2.805 255 255 255
-0.734823 -0.931836 2.939 255 255 255
0.0437333 -0.4967 2.857 255 255 255
-0.078957 0.0384611 0.978 255 255 255
0.217249 0.153014 0.437 255 255 255
-0.116602 -0.0210293 1.092 255 255 255
-0.905451 0.592146 2.151 255 255 255
0.529934 -0.557449 2.017 255 255 255
-1.20845 -0.410519 2.939 255 255 255
-0.739523 0.704617 1.865 255 255 255
0.766399 -0.540018 1.815 0 0 0
0.660732 -0.266928 1.911 0 0 0
-0.324655 0.279213 1.696 0 0 0
-1.21222 -0.789359 2.925 255 255 255
-0.820094 -0.330745 2.166 255 255 255
0.166489 0.166231 0.54 255 255 255
0.235782 0.128236 0.492 0 0 0
-0.808677 -1.07649 2.982 255 255 255
-1.38234 -0.378737 2.844 255 255 255
-0.996068 0.59113 2.173 255 255 255
0.658466 -0.0942345 1.941 255 255 255
0.160327 0.156494 0.549 255 255 255
-0.571824 -0.221566 1.978 255 255 255
0.917778 0.389852 1.799 255 255 255
0.632578 -0.340295 1.821 255 255 255
-0.0162715 0.0479268 0.862 255 255 255
0.722119 -0.575448 1.853 0 0 0
-0.0564739 0.0542511 0.948 255 255 255
0.350877 -0.466243 2.411 255 255 255
-1.09432 -0.977628 2.672 255 255 255
-0.347152 0.0934515 1.633 0 0 0
-0.307917 0.153571 1.595 255 255 255
0.77393 -0.0846945 1.805 0 0 0
-0.209706 -0.00165547 1.22 255 255 255
0.635147 -0.297304 1.947 0 0 0
0.694228 -0.00892345 1.935 255 255 255
-0.254665 0.535198 1.603 255 255 255
0.275434 -0.368218 2.244 0 0 0
0.419266 -0.432049 2.312 255 255 255
-0.418797 -0.150446 1.686 255 255 255
-0.175866 0.491536 1.509 0 0 0
0.805499 0.166861 1.893 255 255 255
0.0419882 -0.954503 2.743 255 255 255
-1.41084 0.502873 2.755 255 255 255
-0.830496 0.257006 2.582 255 255 255
-0.337647 0.382623 1.779 0 0 0
-0.269953 0.386395 1.682 255 255 255
-0.345077 0.010678 1.575 255 255 255
-0.866093 -1.09333 2.898 255 255 255
0.757953 -0.54989 1.978 0 0 0
-0.546533 0.651425 1.923 255 255 255
0.696144 -0.58937 1.655 0 0 0
0.720154 -0.206114 1.739 255 255 255
-1.16294 -0.905885 2.731 255 255 255
-0.753049 0.47362 2.402 255 255 255
-0.0412391 0.15616 1.03 255 255 255
0.179297 0.126827 0.526 255 255 255
-0.0436619 0.438924 1.242 0 0 0
-1.1922 -0.42082 2.911 255 255 255
0.769848 -0.537984 1.859 0 0 0
-0.846612 -0.808519 2.996 255 255 255
0.674719 -0.523548 1.799 255 255 255
0.590141 -0.648932 1.966 0 0 0
0.149245 0.240059 0.622 255 255 255
0.585676 -0.717667 1.87 255 255 255
-1.14474 0.492468 2.561 255 255 255
0.134884 0.137479 0.586 0 0 0
-0.253458 0.477233 1.646 255 255 255
0.535068 -0.575853 2.024 255 255 255
-0.139832 0.510928 1.466 255 255 255
0.569489 -0.162184 2.128 255 255 255
-0.0972306 0.384078 1.31 255 255 255
0.610362 -0.662561 1.959 0 0 0
-0.051124 0.119969 0.994 255 255 255
0.0156134 -0.549536 2.818 255 255 255
-1.03931 0.478795 2.469 255 255 255
-0.706741 -0.799888 2.982 255 255 255
0.716648 -0.0579035 1.794 255 255 255
0.172357 0.180743 0.531 255 255 255
-0.916168 0.67123 1.917 255 255 255
0.728028 -0.121608 1.876 255 255 255
0.588732 -0.516131 1.972 255 255 255
-0.947815 0.619301 2.136 255 255 255
-0.601282 0.520658 2.204 0 0 0
0.0840418 0.310968 0.884 255 255 255
0.567164 0.054557 1.953 255 255 255
0.140593 0.170288 0.594 255 255 255
-0.049187 0.0364555 0.927 255 255 255
0.617927 -0.365614 1.923 255 255 255
-0.001355 0.52288 1.396 255 255 255
-0.0433104 0.43138 1.232 0 0 0
-0.765473 0.0274749 2.356 255 255 255
-0.0459096 0.151621 1.022 255 255 255
-0.797779 0.623746 2.037 255 255 255
0.0980985 0.175642 0.714 255 255 255
-0.221756 -0.0599665 1.278 255 255 255
-0.615848 0.216059 2.244 255 255 255
-0.62733 0.470247 2.22 0 0 0
0.776662 -0.398861 1.583 0 0 0
-0.798368 0.701768 1.826 255 255 255
0.202531 0.12307 0.507 255 255 255
0.0911094 -0.990816 2.615 255 255 255
-0.594556 0.608861 1.947 255 255 255
0.633189 -0.40694 1.941 255 255 255
0.107726 0.135567 0.64 255 255 255
0.162893 0.227591 0.605 255 255 255
0.0582994 -0.686297 2.672 255 255 255
0.169445 0.154528 0.53 0 0 0
-0.722433 0.495396 2.269 255 255 255
0.747071 -0.189418 1.691 255 255 255
0.696658 -0.0913701 1.882 255 255 255
0.107017 0.143304 0.642 255 255 255
-0.0552137 -0.865518 2.925 255 255 255
-0.400642 0.658724 1.714 255 255 255
0.200781 0.167392 0.463 255 255 255
0.711254 -0.0760927 1.81 255 255 255
-0.0171231 -0.546602 2.925 255 255 255
-1.22249 -1.00351 2.755 255 255 255
-0.0272526 0.375486 1.147 255 255 255
0.541731 -0.622394 1.953 255 255 255
0.64331 -0.641482 1.769 0 0 0
0.591035 -0.420626 1.917 255 255 255
-0.0287445 0.299833 1.064 255 255 255
-1.30992 -0.598874 2.996 255 255 255
-0.109133 -0.820006 2.967 255 255 255
-0.347936 0.0529009 1.612 255 255 255
0.705848 -0.0974954 1.882 255 255 255
-0.804977 -0.368335 2.099 255 255 255
0.22267 -0.610049 2.469 255 255 255
-0.75567 0.602602 2.114 255 255 255
-0.891884 0.545764 2.204 255 255 255
-0.283911 0.492889 1.7 255 255 255
0.336408 -0.591771 2.261 255 255 255
0.151324 0.0940889 0.614 255 255 255
0.807504 -0.113553 1.668 255 255 255
0.632735 -0.366443 1.911 255 255 255
-0.329058 0.296987 1.719 0 0 0
-1.2256 0.527678 2.53 255 255 255
0.703598 -0.472687 1.876 0 0 0
-0.0687663 0.080683 0.969 0 0 0
0.0603869 0.105598 0.736 255 255 255
0.471062 -0.566901 2.004 255 255 255
-0.134908 0.302 1.324 0 0 0
0.740753 -0.468781 1.567 0 0 0
-1.13929 0.568962 2.392 255 255 255
-0.921768 0.456145 2.499 255 255 255
0.716086 -0.258827 1.853 255 255 255
-0.79125 0.645372 1.887 255 255 255
0.00417103 0.310805 1.066 255 255 255
0.623536 -0.105888 2.044 255 255 255
0.563869 -0.25316 2.107 255 255 255
0.196224 -0.87289 2.44 255 255 255
0.146381 -0.974799 2.54 255 255 255
-1.27396 0.458638 2.871 255 255 255
-0.870288 0.708737 1.821 255 255 255
-0.894324 0.664991 1.917 255 255 255
0.770626 0.267495 1.953 255 255 255
0.751438 -0.711962 2.085 0 0 0
0.14461 0.145272 0.568 255 255 255
0.495399 -0.350825 2.037 255 255 255
0.184344 0.161406 0.498 255 255 255
0.632684 -0.608366 1.959 255 255 255
-0.872953 -0.105058 2.499 255 255 255
-0.63204 0.349162 2.303 255 255 255
0.601594 -0.643839 1.941 0 0 0
-0.158865 0.197832 1.291 255 255 255
0.448909 -0.402692 2.253 255 255 255
0.606359 -0.675059 1.887 0 0 0
0.802961 0.131599 1.831 255 255 255
0.034432 -0.863993 2.857 255 255 255
-0.732589 -0.239445 2.107 255 255 255
-0.00218009 0.0575707 0.839 255 255 255
0.0550618 0.0753677 0.745 255 255 255
-0.100504 0.00533786 1.036 255 255 255
0.820625 0.208126 1.748 255 255 255
0.118405 0.0864445 0.671 255 255 255
0.644989 -0.135609 2.092 255 255 255
0.590141 0.0453222 1.966 255 255 255
0.378101 -0.694997 2.085 255 255 255
0.00201078 0.0288789 0.88 255 255 255
-1.19992 -0.468542 2.884 255 255 255
-1.19053 -0.477928 2.884 255 255 255
-0.837697 -0.525412 2.672 0 0 0
-0.522812 0.654628 1.905 255 255 255
0.000714347 0.334617 1.087 255 255 255
-0.0541775 0.0367701 0.935 255 255 255
0.185965 0.163837 0.498 255 255 255
0.920839 0.485147 1.805 0 0 0
0.0582304 -0.463849 2.884 255 255 255
-1.22149 -0.773339 2.53 255 255 255
-0.755571 -0.21215 2.143 255 255 255
-1.18114 0.376237 2.884 255 255 255
0.63785 0.0425299 1.985 255 255 255
-0.734314 0.569913 2.173 255 255 255
-1.09353 0.536241 2.42 255 255 255
-0.560431 -0.0899497 1.917 255 255 255
0.813664 0.201363 1.789 255 255 255
0.55358 -0.1983 2.107 255 255 255
-0.396261 0.441028 1.893 255 255 255
-0.165119 0.038002 1.158 255 255 255
-1.39576 0.505147 2.743 255 255 255
0.830706 0.302045 1.853 255 255 255
-0.769525 0.600406 2.143 255 255 255
-0.476398 0.359562 2.024 255 255 255
0.202861 0.121785 0.512 255 255 255
0.0235988 0.14256 0.833 255 255 255
-0.432884 0.614327 1.905 255 255 255
0.226297 0.142056 0.445 255 255 255
0.00182694 -0.668796 2.78 255 255 255
-0.0638316 0.295934 1.203 0 0 0
-0.918696 0.65659 2.078 255 255 255
-0.292763 0.445496 1.753 0 0 0
0.0532634 -0.948016 2.638 255 255 255
0.182182 0.127561 0.522 255 255 255
0.311114 -0.798524 2.212 255 255 255
0.108608 0.108332 0.633 255 255 255
0.14367 0.223404 0.607 0 0 0
0.51041 -0.0567334 2.071 255 255 255
0.450687 -0.424599 2.107 255 255 255
0.801322 -0.563127 1.935 0 0 0
0.197617 0.161584 0.468 0 0 0
-0.276343 0.069106 1.456 255 255 255
-0.1908 -0.0348549 1.201 255 255 255
-0.499523 -0.0501588 1.831 255 255 255
-0.0669809 0.0772892 0.966 255 255 255
-0.0552137 -0.832198 2.925 255 255 255
-0.853689 -0.796915 2.953 255 255 255
0.231301 -0.62995 2.392 255 255 255
0.749075 -0.400714 1.677 0 0 0
-1.22589 0.409909 2.857 255 255 255
0.849056 -0.150737 1.659 255 255 255
0.514901 -0.503294 1.972 255 255 255
0.576955 -0.0959089 2.044 255 255 255
0.186776 0.182477 0.498 255 255 255
-0.131342 0.268845 1.289 0 0 0
-0.251469 0.321268 1.616 255 255 255
-0.263779 0.587034 1.595 255 255 255
0.0914927 -0.601834 2.626 255 255 255
0.764214 -0.023342 1.831 255 255 255
0.103443 -0.575605 2.604 255 255 255
0.636882 -0.605985 1.972 0 0 0
-0.612489 0.327985 2.286 255 255 255
0.37734 -0.326748 2.286 255 255 255
-0.721286 0.553339 2.22 255 255 255
-1.22137 0.513313 2.582 255 255 255
0.699113 -0.149865 1.848 255 255 255
0.079196 0.126814 0.701 255 255 255
-1.09194 -0.966023 2.884 255 255 255
-0.702211 -0.273347 2.078 255 255 255
0.0142764 0.145643 0.843 255 255 255
-0.873511 -0.0317304 2.489 255 255 255
-0.926238 0.535599 2.365 255 255 255
-0.541089 0.659746 1.893 255 255 255
0.801193 -0.052707 1.633 0 0 0
0.183725 0.153056 0.492 255 255 255
-1.3439 0.503017 2.684 255 255 255
-0.00544763 0.495388 1.289 255 255 255
0.161228 0.168078 0.546 255 255 255
0.508373 -0.74405 1.947 0 0 0
-0.66586 0.0436355 2.204 255 255 255
-1.08282 0.616981 2.128 255 255 255
-0.968115 0.604609 2.158 255 255 255
-0.904453 0.640588 2.092 255 255 255
0.12426 0.103344 0.634 255 255 255
0.439193 -0.542313 2.085 255 255 255
0.757532 -0.285619 1.794 255 255 255
0.150012 -0.42039 2.844 255 255 255
0.0858014 0.0736479 0.728 255 255 255
-0.467414 0.638193 1.734 255 255 255
0.042956 0.130058 0.79 255 255 255
-1.21184 -1.04366 2.731 255 255 255
0.0203854 0.119291 0.813 255 255 255
0.755329 -0.189418 1.691 255 255 255
0.563679 -0.413258 1.941 0 0 0
0.0689262 0.0925909 0.701 255 255 255
-0.53621 0.427127 2.064 255 255 255
-0.205461 0.159587 1.378 255 255 255
-1.33624 0.500693 2.695 255 255 255
-0.350831 0.55834 1.758 255 255 255
-0.432941 -0.138727 1.677 255 255 255
0.134879 -0.444062 2.818 255 255 255
0.797877 -0.357296 1.559 255 255 255
0.742931 0.0384376 1.794 255 255 255
-0.592825 0.531015 2.173 0 0 0
-0.30747 0.174432 1.62 255 255 255
-0.17505 0.459925 1.502 0 0 0
0.732417 -0.229938 1.748 255 255 255
-0.0561165 0.0830337 0.942 255 255 255
0.737702 -0.350981 1.714 255 255 255
-1.13127 -0.936917 2.925 255 255 255
0.0288136 0.044635 0.827 255 255 255
0.566394 -0.418993 2.03 0 0 0
0.093167 0.0655346 0.73 0 0 0
0.0513825 -0.54429 2.768 255 255 255
-0.0537502 0.142044 1.013 255 255 255
-0.00601211 0.284393 1.027 255 255 255
0.164735 0.10428 0.587 255 255 255
-1.14955 -0.922958 2.911 255 255 255
-0.113987 0.459828 1.384 255 255 255
0.179746 0.199207 0.551 255 255 255
0.173184 -0.787334 2.509 255 255 255
0.673014 -0.450253 1.859 0 0 0
0.877474 0.313357 1.831 255 255 255
-1.36356 -0.589123 2.996 255 255 255
-0.615848 0.223362 2.244 255 255 255
0.194147 0.186754 0.488 255 255 255
-0.189385 0.0022393 1.18 255 255 255
-0.889657 -0.723084 2.78 255 255 255
-1.31416 -0.986936 2.55 255 255 255
0.0264054 0.039679 0.836 255 255 255
0.876147 0.260299 1.774 255 255 255
0.767263 -0.341807 1.724 255 255 255
0.797796 0.238214 1.826 255 255 255
-0.259235 0.539067 1.599 255 255 255
-1.302 -0.990214 2.743 255 255 255
-0.651295 0.692664 1.882 255 255 255
-0.0248002 0.0271382 0.918 255 255 255
0.764883 -0.168294 1.7 255 255 255
-1.34234 -0.887916 2.638 255 255 255
0.669994 -0.612725 1.705 255 255 255
0.150936 -0.830364 2.479 255 255 255
-1.07095 -0.179583 2.996 255 255 255
0.475745 -0.522805 2.01 255 255 255
-0.424759 0.0505515 1.71 255 255 255
-0.501069 0.389725 2.044 255 255 255
0.0720398 0.0705183 0.745 255 255 255
-0.169889 0.0303064 1.152 255 255 255
-1.30992 -0.589123 2.996 255 255 255
-0.514098 0.522329 2.004 255 255 255
-0.501084 0.655935 1.714 255 255 255
0.180377 0.21628 0.57 255 255 255
-1.37142 -0.699494 2.831 255 255 255
0.154806 0.112863 0.582 255 255 255
-0.0797243 0.0957259 1.029 0 0 0
-1.13498 -0.932984 2.898 255 255 255
0.7223 0.0960084 1.893 255 255 255
-0.443234 0.441759 1.923 255 255 255
0.0689257 0.124076 0.725 255 255 255
0.147525 0.166572 0.565 255 255 255
-0.346335 0.365414 1.794 0 0 0
0.709648 -0.411415 1.821 0 0 0
-0.48102 -0.679986 2.967 255 255 255
0.064068 0.112937 0.737 255 255 255
0.1491 0.164441 0.564 255 255 255
-1.08407 0.406149 2.768 255 255 255
0.00192223 -0.513282 2.925 255 255 255
-0.439258 0.342715 1.947 255 255 255
0.373807 -0.70308 2.099 255 255 255
-0.0763792 0.254867 1.185 255 255 255
0.842367 -0.165528 1.7 255 255 255
0.0735879 0.128984 0.713 255 255 255
-0.954586 0.69129 1.87 255 255 255
0.804808 0.242686 1.815 255 255 255
-0.718692 0.692664 1.882 255 255 255
-0.0119078 0.221224 0.963 255 255 255
-0.2553 0.520843 1.607 255 255 255
-0.318803 0.180148 1.624 255 255 255
-0.217222 0.426638 1.559 255 255 255
0.642736 -0.669311 1.744 0 0 0
0.666961 -0.531933 1.859 255 255 255
0.0367161 -0.549611 2.684 255 255 255
0.176931 0.203184 0.562 255 255 255
-0.136689 0.461255 1.409 255 255 255
0.00864666 0.243415 0.983 255 255 255
-0.0632413 0.067225 0.957 255 255 255
-0.0472134 0.110305 0.98 255 255 255
-0.334704 0.269597 1.705 255 255 255
-1.18312 0.618999 2.303 255 255 255
-0.0771276 0.0272366 0.975 255 255 255
-0.0230395 0.28827 1.041 255 255 255
0.361058 -0.778394 2.166 255 255 255
-1.01922 0.478795 2.469 255 255 255
0.520084 -0.580426 2.017 255 255 255
0.634999 -0.570579 2.017 0 0 0
0.0149319 -0.560635 2.695 255 255 255
0.725135 -0.393241 1.779 255 255 255
-1.28027 -0.89918 2.793 255 255 255
0.87004 -0.207025 1.7 255 255 255
-0.370141 -0.0713217 1.52 255 255 255
0.615299 -0.248911 2.017 255 255 255
0.605878 -0.704705 1.876 0 0 0
-1.0699 0.548055 2.42 255 255 255
-0.243331 0.507929 1.65 0 0 0
0.665772 -0.0476032 1.972 255 255 255
-0.269953 0.504093 1.682 255 255 255
0.701083 0.0005332 1.972 255 255 255
0.0857344 0.284536 0.844 255 255 255
0.862407 0.317373 1.837 255 255 255
0.787203 -0.426888 1.563 0 0 0
0.0943467 0.0766639 0.712 255 255 255
0.832564 0.137136 1.714 255 255 255
-0.147361 0.170797 1.247 255 255 255
-0.521748 -0.138329 1.815 255 255 255
-0.334718 0.101914 1.599 255 255 255
-0.463287 0.406139 2.01 255 255 255
0.153418 0.120173 0.563 255 255 255
0.41683 -0.738183 2.092 255 255 255
0.169218 0.126542 0.532 255 255 255
0.478819 -0.344196 2.037 255 255 255
0.536738 -0.679635 1.935 255 255 255
-0.413333 -0.143067 1.664 255 255 255
0.852094 -0.217097 1.714 0 0 0
0.684404 -0.14956 1.882 255 255 255
-0.387251 -0.10867 1.559 255 255 255
0.165564 0.126857 0.537 255 255 255
-0.605647 0.376318 2.22 255 255 255
0.12411 -0.758838 2.593 255 255 255
0.392224 -0.319308 2.286 255 255 255
-0.835348 0.69293 1.842 255 255 255
0.234592 -0.538133 2.649 0 0 0
0.0946137 0.11489 0.665 255 255 255
-0.197912 0.152739 1.357 0 0 0
-0.919457 0.585146 2.151 255 255 255
0.558312 -0.21121 2.099 255 255 255
0.0387681 0.185193 0.902 255 255 255
0.21032 0.151033 0.448 255 255 255
-0.671723 -0.306851 2.099 255 255 255
0.461731 -0.63358 1.978 255 255 255
0.774611 -0.419432 1.633 255 255 255
-0.671658 0.636028 1.905 255 255 255
-0.332946 0.107386 1.603 255 255 255
-0.694612 0.611958 1.917 255 255 255
-0.630943 0.444959 2.22 0 0 0
-0.714279 -0.278223 2.064 255 255 255
-0.144998 0.15408 1.227 255 255 255
0.0411509 0.135148 0.805 255 255 255
0.00194063 -0.998746 2.953 255 255 255
0.163473 -0.603569 2.615 255 255 255
-1.19729 0.616993 2.338 255 255 255
-0.357918 0.318933 1.779 255 255 255
-0.622827 0.562751 1.997 255 255 255
0.640498 -0.552797 2.024 255 255 255
-0.633217 0.152881 2.228 255 255 255
-1.38972 -0.494396 2.898 255 255 255
0.576882 -0.121992 2.092 255 255 255
0.498329 -0.285827 2.228 255 255 255
-0.124237 0.0488607 1.066 255 255 255
-0.238865 0.267696 1.535 255 255 255
-0.252451 -0.0205797 1.286 255 255 255
0.0945638 -0.839012 2.593 255 255 255
-0.70084 -0.28494 2.064 255 255 255
0.202797 0.134027 0.484 255 255 255
-0.59842 0.369093 2.22 255 255 255
-0.455756 0.460535 1.923 255 255 255
0.810416 0.220033 1.848 255 255 255
0.689725 -0.604293 1.659 255 255 255
0.771953 -0.41146 1.633 255 255 255
-0.847713 0.672138 1.876 255 255 255
-1.2815 -0.671972 2.953 255 255 255
-0.897141 0.357551 2.707 0 0 0
0.714039 -0.448088 1.691 255 255 255
0.519769 -0.109436 2.181 255 255 255
0.745081 0.196212 2.004 255 255 255
0.737055 -0.214933 1.719 255 255 255
0.625671 -0.357961 1.899 255 255 255
0.162414 0.125659 0.547 255 255 255
-0.413625 0.056117 1.71 255 255 255
-0.222528 0.530231 1.543 255 255 255
0.100918 -0.835578 2.649 255 255 255
-0.0710708 0.439831 1.262 255 255 255
0.728045 -0.573045 1.624 0 0 0
0.131472 0.106381 0.61 255 255 255
0.200206 -0.755595 2.347 255 255 255
0.858861 0.0429191 1.739 255 255 255
0.159607 0.183906 0.559 0 0 0
-0.869456 0.599801 2.166 255 255 255
-0.953721 0.540899 2.338 255 255 255
0.230816 0.138834 0.451 255 255 255
-1.05603 0.421082 2.719 255 255 255
-0.134914 0.534303 1.439 255 255 255
0.679168 -0.274251 1.876 255 255 255
-0.745103 0.393757 2.44 255 255 255
0.624716 -0.198341 2.037 255 255 255
-0.00360076 0.0861924 0.852 255 255 255
-0.0405184 0.145197 1.012 255 255 255
