ply
format ascii 1.0
comment Created by Open3D
element vertex 1312
property double x
property double y
property double z
property uchar red
property uchar green
property uchar blue
end_header
0.446823 -0.338208 2.509 255 255 255
0.734361 -0.391608 2.114 255 255 255
-0.340669 0.422695 2.236 255 255 255
-1.05849 -0.701224 2.114 255 255 255
0.0200543 0.565799 1.466 255 255 255
-0.0302582 -0.476163 2.818 255 255 255
-0.264948 -0.129706 1.739 255 255 255
0.0733182 0.527419 1.39 0 0 0
-0.211103 0.254596 1.837 255 255 255
-1.12341 -0.653607 2.173 255 255 255
0.772571 -0.453366 2.051 255 255 255
-1.09624 0.759513 2.286 255 255 255
-0.199983 -0.962259 2.818 255 255 255
-0.871298 -0.660964 2.884 255 255 255
-0.247875 -0.0892645 1.779 255 255 255
-1.20006 0.458041 2.755 255 255 255
-0.381777 0.461907 2.286 255 255 255
0.782996 -0.433 1.876 255 255 255
-0.430078 -0.435577 2.793 255 255 255
0.00643907 -0.783412 2.818 255 255 255
0.0203589 0.292546 1.33 255 255 255
-0.974883 -0.570832 2.181 255 255 255
0.421191 -0.405475 2.684 255 255 255
-0.648189 0.674183 2.449 255 255 255
0.928142 -0.103792 1.831 255 255 255
-0.455433 0.280007 2.32 0 0 0
0.34772 -0.667328 2.871 255 255 255
0.620091 0.00929906 2.638 255 255 255
-0.99997 -0.819752 2.136 255 255 255
0.812609 -0.270889 1.853 255 255 255
0.902093 -0.0117042 1.876 255 255 255
-0.11901 0.349769 1.677 255 255 255
0.712199 -0.38096 2.151 255 255 255
0.110159 0.160388 1.004 255 255 255
-1.15652 0.101714 2.953 255 255 255
-0.0888136 0.386285 1.624 255 255 255
0.698177 -0.28011 2.078 255 255 255
-1.06791 -0.687117 2.092 255 255 255
-1.07613 0.702391 2.818 255 255 255
-0.283086 0.742806 1.941 255 255 255
0.871764 0.0741161 1.966 255 255 255
0.186193 -1.04502 2.831 255 255 255
0.147825 0.165813 0.942 255 255 255
-0.0649516 0.515046 1.691 255 255 255
-0.397145 -0.529554 2.884 255 255 255
0.515321 -0.615728 2.338 255 255 255
0.0830504 0.297609 1.149 255 255 255
-1.31522 0.667408 2.593 255 255 255
0.843104 -0.0552885 2.871 255 255 255
-0.74313 -0.26831 2.953 255 255 255
0.820583 -0.207142 1.724 255 255 255
0.778179 -0.414523 2.057 255 255 255
-0.021565 0.633359 1.744 255 255 255
0.615655 -0.683664 2.051 255 255 255
0.46617 -0.0974611 2.743 255 255 255
-0.0255021 0.0729165 1.351 255 255 255
-0.664454 -0.884546 2.365 255 255 255
0.649581 -0.668937 2.212 255 255 255
-0.659443 0.721107 2.294 255 255 255
-0.557118 0.731033 2.158 255 255 255
0.631841 -0.601979 2.128 255 255 255
0.649525 -0.085403 2.519 255 255 255
-0.655271 -0.638928 2.638 255 255 255
-0.36822 0.746213 2.064 255 255 255
0.424408 0.0617916 2.884 255 255 255
0.153163 0.280077 0.966 255 255 255
-0.742935 -0.810602 2.42 255 255 255
-1.09995 -0.294675 2.593 255 255 255
0.496247 -0.58456 2.32 255 255 255
0.3775 -0.820411 2.684 255 255 255
-0.553055 0.70613 2.212 255 255 255
-0.975141 0.818827 2.158 255 255 255
-0.921786 -0.773837 2.173 255 255 255
-0.52964 0.361712 2.55 255 255 255
0.694098 -0.646072 2.017 255 255 255
-0.00992842 0.23574 1.327 0 0 0
0.116007 0.419172 1.124 255 255 255
0.79981 -0.0960309 1.978 255 255 255
-1.16925 0.767812 2.43 255 255 255
-0.838264 -0.375877 2.66 255 255 255
-0.308089 0.73233 2.044 0 0 0
0.823879 -0.234498 1.805 255 255 255
0.713403 -0.555652 1.953 255 255 255
0.411699 -0.720785 2.519 255 255 255
0.0449798 0.391113 1.291 0 0 0
0.406862 -0.338253 2.54 255 255 255
-0.557945 0.703375 2.261 255 255 255
-0.665198 -0.433924 2.593 255 255 255
-0.545094 -0.673069 2.604 255 255 255
0.0513543 0.46761 1.348 255 255 255
0.116563 0.193399 0.989 255 255 255
-0.842979 -0.757666 2.402 255 255 255
-1.08109 0.396965 2.831 255 255 255
-0.804634 -0.639294 2.489 255 255 255
-1.39791 0.238788 2.925 255 255 255
0.446299 0.0470502 2.844 255 255 255
-0.225221 0.499458 2.017 255 255 255
0.218579 0.275915 0.788 0 0 0
-0.727273 0.605154 2.731 255 255 255
0.00107579 0.599828 1.637 255 255 255
-1.04584 -0.563776 2.392 255 255 255
-0.82324 -0.309766 2.982 255 255 255
0.783137 -0.702641 1.929 255 255 255
-0.408637 -0.512094 2.626 255 255 255
-0.969885 -0.299586 2.884 255 255 255
0.657994 -0.315028 2.204 255 255 255
0.799662 -0.745229 2.01 255 255 255
0.430449 0.116799 2.743 255 255 255
-0.590859 -0.548777 2.638 255 255 255
-0.0915818 -0.826178 2.871 255 255 255
0.556135 -0.520256 2.561 255 255 255
-0.698034 -0.662196 2.499 255 255 255
0.219096 0.226187 0.763 255 255 255
-1.09146 0.771268 2.356 255 255 255
-0.413449 -0.521519 2.743 255 255 255
0.0244534 -0.818088 2.78 255 255 255
0.675979 -0.350781 2.181 255 255 255
-0.679355 0.62626 2.615 255 255 255
0.390473 -0.0892188 2.911 255 255 255
0.0662173 0.262083 1.149 0 0 0
0.434912 -0.720024 2.42 255 255 255
-0.340543 -0.100845 1.779 255 255 255
0.61553 -0.266355 2.449 255 255 255
-0.919803 0.470676 2.831 255 255 255
-0.753916 0.708496 2.43 255 255 255
0.579655 -0.64968 2.22 255 255 255
-0.438689 -0.931708 2.459 255 255 255
0.833498 -0.0547062 1.997 255 255 255
0.081447 0.242396 1.102 255 255 255
0.625215 -0.307251 2.365 255 255 255
-0.914414 -0.681482 2.278 255 255 255
-1.45504 0.391106 2.925 255 255 255
-1.32968 0.6951 2.54 255 255 255
0.250709 -0.942557 2.884 255 255 255
0.838964 -0.388864 1.899 255 255 255
0.777799 -0.162844 2.092 255 255 255
-0.307721 -0.825621 2.604 255 255 255
0.646912 0.0223627 2.66 255 255 255
-0.707482 0.658323 2.42 255 255 255
0.229384 0.237505 0.744 255 255 255
-0.0290663 -0.981623 2.707 255 255 255
-1.43286 0.0942175 2.871 255 255 255
-0.897347 0.696946 2.593 255 255 255
-0.971851 -0.630634 2.143 255 255 255
-1.38546 0.416891 2.939 255 255 255
-0.442692 -0.9117 2.459 255 255 255
-1.16301 -0.124813 2.66 255 255 255
0.143426 -0.989576 2.898 255 255 255
-0.268548 0.0597597 1.821 255 255 255
0.424322 -0.408809 2.649 255 255 255
-1.00284 -0.415908 2.695 255 255 255
-0.0272092 0.0953753 1.327 255 255 255
0.700831 -0.31174 2.181 255 255 255
-0.0429306 0.647133 1.691 255 255 255
0.583644 -0.13324 2.572 255 255 255
0.852092 -0.343416 1.887 255 255 255
-0.870688 0.802674 2.143 255 255 255
0.564472 -0.0868269 2.561 255 255 255
0.0621628 0.146613 1.11 255 255 255
-0.114499 0.658141 1.691 255 255 255
0.25245 0.237749 0.679 255 255 255
0.688798 0.1295 2.638 255 255 255
0.728568 -0.385712 2.158 255 255 255
0.0718413 0.499063 1.362 255 255 255
-0.999543 -0.74361 2.22 255 255 255
-0.99818 -0.315188 2.898 255 255 255
-1.05137 -0.325251 2.707 255 255 255
0.255422 0.256196 0.684 255 255 255
0.790641 -0.435956 1.837 255 255 255
-0.455165 -0.422843 2.925 255 255 255
0.604063 -0.685664 2.057 255 255 255
-0.467074 -0.912597 2.44 255 255 255
0.0639447 0.317999 1.176 255 255 255
0.142111 -1.06238 2.78 255 255 255
-0.441829 -0.384353 2.996 255 255 255
-1.07649 -0.155871 2.831 255 255 255
0.0402851 0.391461 1.422 0 0 0
-0.697691 -0.448478 2.604 255 255 255
0.011128 -0.480556 2.844 255 255 255
-1.17973 0.769656 2.411 255 255 255
-0.31246 -0.138869 1.784 255 255 255
-0.815578 0.776963 2.261 255 255 255
-0.18331 -0.707334 2.844 255 255 255
-1.36142 0.584796 2.719 255 255 255
0.88932 -0.513681 1.837 255 255 255
-0.212941 0.289983 1.853 255 255 255
-0.0848895 0.12097 1.425 255 255 255
0.882322 -0.44 1.724 255 255 255
-1.23582 0.699065 2.649 255 255 255
-0.504396 0.795529 2.044 255 255 255
-0.596365 -0.852198 2.449 255 255 255
-0.966149 0.725301 2.53 255 255 255
-0.179807 0.0227242 1.71 255 255 255
0.320931 -0.532322 2.925 255 255 255
-0.641565 -0.593967 2.707 255 255 255
0.719153 -0.470054 2.051 255 255 255
-0.734691 0.541626 2.793 255 255 255
-1.39497 0.442184 2.768 255 255 255
-0.392644 0.284526 2.181 255 255 255
0.609478 -0.704791 2.064 255 255 255
-0.729216 -0.467881 2.44 255 255 255
0.397985 -0.153703 2.967 255 255 255
-1.13517 -0.459519 2.459 255 255 255
-1.37175 0.306526 2.982 255 255 255
-0.862073 0.471518 2.982 255 255 255
-0.745854 -0.375275 2.818 255 255 255
-0.356696 0.038191 1.929 255 255 255
0.239065 0.238719 0.715 255 255 255
0.309918 -0.747683 2.911 255 255 255
-0.658867 0.548153 2.78 255 255 255
-0.774026 -0.622432 2.755 255 255 255
-0.272065 -0.0171359 1.805 255 255 255
-0.141141 -0.977566 2.66 255 255 255
-0.39245 -0.468542 2.884 255 255 255
-0.504341 0.776277 2.128 255 255 255
0.452704 -0.31906 2.519 255 255 255
0.424268 0.194914 2.982 255 255 255
-0.661922 -0.893822 2.329 255 255 255
-0.134154 0.626019 1.848 255 255 255
-0.588392 -0.820315 2.449 255 255 255
-0.0597278 0.342037 1.555 255 255 255
-0.812133 -0.756156 2.173 255 255 255
0.204499 0.183015 0.864 255 255 255
-0.080018 0.62428 1.719 255 255 255
-0.204437 -0.100845 1.779 255 255 255
0.909591 0.0222855 1.911 255 255 255
-1.38417 -0.0281675 2.967 255 255 255
-0.193809 -0.759226 2.731 255 255 255
0.1725 -1.04612 2.911 255 255 255
-0.857516 0.775102 2.356 255 255 255
0.722492 -0.493418 2.051 255 255 255
-1.05594 -0.779031 2.158 255 255 255
-0.49166 -0.710339 2.731 255 255 255
0.649819 -0.283624 2.329 255 255 255
0.783322 -0.339419 1.899 255 255 255
0.618288 -0.68022 2.071 255 255 255
0.872935 -0.0658386 1.853 255 255 255
0.636319 -0.35029 2.294 255 255 255
-0.562398 -0.821271 2.44 255 255 255
-0.683876 -0.456228 2.649 255 255 255
-1.15124 0.733803 2.604 255 255 255
0.212278 0.227127 0.779 255 255 255
-0.257297 0.345297 2.037 0 0 0
-0.806375 -0.142099 2.743 255 255 255
-0.261646 -0.0199509 1.794 255 255 255
-0.322156 0.0852777 1.929 255 255 255
0.621427 0.115778 2.719 0 0 0
-0.0305373 -0.536093 2.844 255 255 255
-0.272625 -0.977125 2.719 255 255 255
-0.993553 0.430606 2.871 255 255 255
0.417616 -0.608653 2.53 255 255 255
0.781141 0.420603 2.66 255 255 255
-1.0426 -0.640608 2.189 255 255 255
0.660643 -0.523055 2.189 255 255 255
-0.367951 -0.916752 2.672 255 255 255
-0.235364 -0.0549841 1.794 255 255 255
-0.908492 -0.690996 2.53 255 255 255
-0.730891 -0.815662 2.459 255 255 255
-0.630928 -0.639993 2.54 255 255 255
-0.962619 0.80134 2.278 255 255 255
0.861555 0.0877115 1.848 255 255 255
0.026211 0.503597 1.412 0 0 0
0.0541815 0.138466 1.132 255 255 255
0.109714 0.218304 1.015 255 255 255
0.240565 0.25187 0.716 255 255 255
-0.892868 0.79536 2.261 255 255 255
0.857378 -0.405155 1.719 255 255 255
-0.573472 0.260944 2.805 0 0 0
0.138708 -0.947132 2.898 255 255 255
0.841639 -0.365459 1.799 255 255 255
0.81524 -0.202186 1.859 255 255 255
-0.694859 0.77974 2.128 255 255 255
-0.0527827 0.226904 1.435 255 255 255
-0.0121705 0.0808033 1.336 255 255 255
0.169208 0.215316 0.893 255 255 255
-0.643286 0.712693 2.303 255 255 255
-1.04667 -0.735412 2.228 255 255 255
-0.480202 -0.884123 2.294 255 255 255
0.642754 -0.537749 2.107 255 255 255
0.74598 0.479648 2.857 0 0 0
0.211685 0.237062 0.791 255 255 255
0.693871 -0.347307 2.204 255 255 255
-0.88404 -0.577312 2.519 255 255 255
-0.722611 -0.47645 2.572 255 255 255
-1.06023 -0.460697 2.509 255 255 255
0.39592 -0.715444 2.604 255 255 255
-1.20823 0.661379 2.743 255 255 255
-0.953011 0.620536 2.78 255 255 255
-0.649524 -0.214771 2.818 255 255 255
0.32953 -0.738812 2.582 255 255 255
-1.01637 0.612422 2.805 255 255 255
0.749078 -0.359452 2.107 255 255 255
0.225413 0.20205 0.785 255 255 255
0.800647 0.016318 1.941 255 255 255
0.231373 0.296587 0.775 255 255 255
0.113468 0.304538 1.154 255 255 255
0.158732 0.25256 0.934 255 255 255
0.435805 -0.520124 2.54 255 255 255
0.842476 -0.544743 1.893 255 255 255
-0.44397 0.716599 2.189 255 255 255
0.74215 -0.124557 2.078 255 255 255
-0.148332 -0.80176 2.884 255 255 255
-0.731602 -0.363726 2.604 255 255 255
0.445967 -0.733381 2.374 255 255 255
-1.27117 0.546171 2.793 255 255 255
0.457245 -0.654062 2.499 255 255 255
-0.563896 -0.784156 2.593 255 255 255
0.508571 -0.519037 2.684 255 255 255
0.523084 -0.28745 2.604 255 255 255
0.568561 0.013592 2.638 255 255 255
-0.571062 0.401603 2.707 255 255 255
0.372403 -0.517055 2.743 255 255 255
-0.475678 -0.816799 2.55 255 255 255
-0.539386 0.663547 2.499 255 255 255
0.105311 0.437082 1.147 0 0 0
0.55273 -0.840557 2.228 255 255 255
0.937164 -0.145984 1.837 255 255 255
-0.598055 -0.422312 2.857 255 255 255
-0.0293693 0.0996942 1.327 255 255 255
0.143529 0.232801 0.934 255 255 255
0.678479 -0.522191 1.935 255 255 255
-1.01792 -0.719867 2.294 255 255 255
-0.103174 -0.848268 2.805 255 255 255
-0.213983 0.55494 2.004 255 255 255
0.753135 -0.387013 2.071 255 255 255
-0.323158 0.74051 1.935 255 255 255
0.643302 -0.573894 1.972 255 255 255
-1.10396 -0.496154 2.212 255 255 255
0.0922174 0.472143 1.336 0 0 0
-1.12076 0.770547 2.253 255 255 255
0.875038 -0.00584619 1.959 255 255 255
-1.12737 -0.168142 2.731 255 255 255
0.495249 -0.279248 2.731 255 255 255
-0.580111 -0.790097 2.793 255 255 255
-1.18365 0.0864697 2.925 255 255 255
-0.699391 -0.221859 2.911 255 255 255
-0.104072 0.592938 1.848 255 255 255
-1.54588 -0.0232291 2.953 255 255 255
-0.139702 -0.925867 2.805 255 255 255
-0.0584154 0.235447 1.459 255 255 255
-1.05308 -0.567611 2.196 255 255 255
-0.23617 -0.748148 2.707 255 255 255
1.11488 -0.807926 2.228 0 0 0
0.687773 -0.655537 2.057 0 0 0
-0.96777 -0.554594 2.173 255 255 255
-0.679964 0.802132 2.114 255 255 255
-1.18511 0.816168 2.278 255 255 255
-1.16477 -0.213294 2.684 255 255 255
-0.345172 -0.734151 2.805 255 255 255
-0.093751 -0.740527 2.939 255 255 255
-0.624542 -0.8726 2.303 255 255 255
-0.192256 0.0739604 1.673 255 255 255
-1.27863 0.435278 2.871 255 255 255
0.209544 0.224471 0.783 255 255 255
-1.23223 -0.481477 2.469 255 255 255
0.251345 0.238854 0.679 255 255 255
0.823534 -0.148973 1.837 255 255 255
0.190311 0.181292 0.883 255 255 255
-0.676003 0.720334 2.365 255 255 255
-0.0702732 -0.886627 2.768 255 255 255
-1.43101 0.527769 2.768 255 255 255
-0.51697 0.652791 2.489 255 255 255
-0.0212695 0.460489 1.52 255 255 255
-0.515887 -0.600106 2.695 255 255 255
0.133735 0.2988 0.997 0 0 0
0.691412 -0.783967 2.078 255 255 255
0.644125 -0.0775416 2.53 255 255 255
0.595896 -0.8158 2.099 255 255 255
0.08811 0.15108 1.053 255 255 255
-0.454924 -0.870745 2.55 255 255 255
0.608525 -0.506946 2.181 255 255 255
-1.23177 -0.46478 2.509 255 255 255
-1.34234 0.64894 2.638 255 255 255
0.355326 0.000772491 2.857 255 255 255
0.753026 0.584344 2.78 0 0 0
-1.07391 0.770673 2.286 255 255 255
-0.904542 -0.577312 2.519 255 255 255
0.566007 -0.455518 2.459 255 255 255
0.823534 -0.0951642 1.837 255 255 255
-1.45722 0.196886 2.939 255 255 255
-0.545631 -0.413324 2.925 255 255 255
0.78603 -0.429439 2.017 255 255 255
-1.03374 0.723181 2.707 255 255 255
-0.450703 -0.745704 2.78 255 255 255
0.0347041 0.21164 1.225 255 255 255
-1.20365 0.782804 2.278 255 255 255
0.844466 -0.3672 1.837 255 255 255
-0.21321 0.3619 1.882 255 255 255
-1.11486 -0.18307 2.755 255 255 255
0.652995 -0.046103 2.615 255 255 255
-0.0332639 0.2077 1.4 255 255 255
0.224064 0.242328 0.763 255 255 255
0.759184 -0.510736 1.87 255 255 255
0.899318 0.0162172 1.929 255 255 255
0.669998 -0.27035 2.22 255 255 255
-0.803746 -0.60545 2.719 255 255 255
-0.552371 0.608299 2.54 255 255 255
0.0257896 0.133041 1.182 255 255 255
1.04404 -0.767477 2.107 0 0 0
0.758863 -0.679794 1.972 255 255 255
-0.875164 -0.135468 2.615 255 255 255
0.259156 0.227465 0.688 255 255 255
-0.212656 -0.953102 2.582 255 255 255
-0.217324 -0.907608 2.805 255 255 255
0.111733 0.175695 0.989 255 255 255
-0.570502 0.704596 2.196 255 255 255
-1.48407 0.118684 2.898 255 255 255
-0.197568 -0.966188 2.55 255 255 255
0.856949 -0.394214 1.696 255 255 255
-1.10317 -0.67623 2.189 255 255 255
0.478916 0.179609 2.818 255 255 255
0.992998 -0.643236 1.978 0 0 0
-0.291253 0.195526 1.997 255 255 255
0.61736 -0.570497 2.114 255 255 255
0.365068 -0.657388 2.626 255 255 255
0.378965 -0.736632 2.604 255 255 255
0.882316 0.150173 1.769 255 255 255
0.548977 -0.386326 2.402 255 255 255
0.845194 -0.0753699 1.865 255 255 255
0.825307 -0.620482 1.947 255 255 255
-0.149052 -0.659456 2.898 255 255 255
-0.142714 0.540055 1.842 255 255 255
0.406259 -0.303653 2.672 255 255 255
-0.744391 -0.343561 2.939 255 255 255
0.279388 0.219287 0.68 255 255 255
0.71364 -0.186228 2.166 255 255 255
0.794691 -0.55689 1.882 255 255 255
-0.773276 -0.785652 2.392 255 255 255
0.873828 0.117981 1.805 255 255 255
0.430434 0.166616 2.831 255 255 255
0.57084 -0.631794 2.286 255 255 255
0.163807 -1.00356 2.925 255 255 255
0.0694653 0.185345 1.083 255 255 255
0.912729 -0.146381 1.842 255 255 255
-0.911264 0.807402 2.092 255 255 255
0.517697 -0.54268 2.402 255 255 255
0.812334 -0.00915403 1.985 255 255 255
0.436021 -0.724528 2.383 255 255 255
-0.220073 0.221713 1.837 0 0 0
-0.291487 0.671227 2.092 255 255 255
-0.174398 0.62586 1.893 255 255 255
0.314869 -0.881797 2.499 255 255 255
-1.23949 0.616741 2.743 255 255 255
0.530467 -0.450727 2.499 255 255 255
-1.18709 -0.218554 2.695 255 255 255
-1.27104 -0.43335 2.615 255 255 255
-0.464469 0.78555 2.044 255 255 255
0.603505 -0.67015 2.228 255 255 255
-0.155909 0.561169 1.893 255 255 255
0.0440933 0.511521 1.396 255 255 255
0.703469 -0.665664 1.997 255 255 255
0.0397538 0.404179 1.327 0 0 0
0.804319 -0.8158 2.099 0 0 0
-0.828094 0.432696 2.982 255 255 255
-0.134825 0.0324099 1.637 255 255 255
-0.204487 0.232537 1.805 255 255 255
-1.07 -0.234671 2.953 255 255 255
-0.239733 0.502668 2.057 255 255 255
0.112386 0.403937 1.143 0 0 0
-0.0686522 0.148798 1.425 0 0 0
0.266256 0.22983 0.672 255 255 255
-0.116281 0.371602 1.677 0 0 0
-1.02835 -0.683336 2.212 255 255 255
0.649155 -0.529347 2.01 255 255 255
-1.1597 0.570123 2.755 255 255 255
-0.577194 -0.778043 2.615 255 255 255
0.818796 -0.22235 1.985 255 255 255
-1.11251 -0.468536 2.695 255 255 255
0.246232 0.23224 0.699 255 255 255
-0.188114 -0.0839437 1.789 255 255 255
0.134592 -0.861375 2.911 255 255 255
0.27432 0.225792 0.673 255 255 255
-0.718425 -0.489007 2.572 255 255 255
0.561127 -0.838676 2.204 255 255 255
0.657637 -0.759307 2.057 255 255 255
-0.872022 0.688506 2.593 255 255 255
-0.752794 0.558712 2.743 255 255 255
-0.982156 -0.607776 2.561 255 255 255
-0.154498 0.194215 1.677 255 255 255
-0.504894 -0.892736 2.53 255 255 255
-0.325253 -0.64864 2.871 255 255 255
-0.980884 -0.680155 2.286 255 255 255
0.739227 -0.525924 1.997 255 255 255
0.561587 -0.642455 2.22 255 255 255
0.349499 -0.67036 2.925 255 255 255
-0.979533 -0.232827 2.871 255 255 255
-0.0347753 0.643527 1.696 255 255 255
-0.599688 -0.879644 2.383 255 255 255
0.544262 -0.846323 2.253 255 255 255
-0.268791 0.423056 2.128 255 255 255
0.793614 -0.680681 1.947 255 255 255
-0.469372 0.671569 2.411 0 0 0
0.257555 0.251727 0.675 255 255 255
-0.137015 -0.873946 2.844 255 255 255
-0.307296 0.645181 2.107 255 255 255
-1.05974 -0.543985 2.173 255 255 255
-1.20025 -0.201011 2.695 255 255 255
0.867952 0.0915452 1.805 255 255 255
0.254662 0.263316 0.691 255 255 255
0.384012 -0.187856 2.898 255 255 255
-1.31566 0.667507 2.561 255 255 255
-0.769353 -0.585157 2.707 255 255 255
-0.338818 -0.790809 2.615 255 255 255
0.346602 -0.343735 2.982 255 255 255
0.0364496 0.158059 1.154 255 255 255
-0.207302 -0.835549 2.793 255 255 255
0.509968 -0.567563 2.459 255 255 255
-1.13105 0.684448 2.626 255 255 255
-0.290329 -0.764739 2.719 255 255 255
0.835155 -0.0325287 2.925 255 255 255
0.468576 -0.279248 2.731 255 255 255
0.160734 0.249427 0.928 255 255 255
0.695267 -0.640326 2.03 255 255 255
-0.392941 0.417266 2.286 255 255 255
-1.14736 0.762355 2.53 255 255 255
-0.288345 -0.00837006 1.815 255 255 255
0.0885423 0.337594 1.198 255 255 255
-0.385543 0.156641 2.085 255 255 255
-0.348583 -0.0321046 1.821 255 255 255
-0.29481 0.749957 1.935 255 255 255
-1.14422 0.411578 2.805 255 255 255
0.749869 0.483375 2.672 255 255 255
-1.22375 0.500742 2.768 255 255 255
-1.18133 -0.322986 2.55 255 255 255
-0.218332 -0.930158 2.818 255 255 255
-1.26145 -0.295925 2.604 255 255 255
0.849658 -0.129795 1.779 255 255 255
-0.941931 0.80692 2.212 255 255 255
0.884881 -0.261202 1.729 255 255 255
-0.456984 -0.833515 2.684 255 255 255
0.885196 -0.201034 1.769 255 255 255
-0.881311 0.604344 2.768 255 255 255
0.85661 -0.0799552 1.831 255 255 255
0.47847 -0.654634 2.615 255 255 255
0.352421 -0.880095 2.449 255 255 255
0.715594 -0.576487 1.959 255 255 255
0.216792 0.25689 0.777 255 255 255
-0.851826 -0.767819 2.166 255 255 255
-1.11628 -0.598276 2.244 255 255 255
-0.867792 -0.0922131 2.857 255 255 255
-0.269081 0.67476 2.051 255 255 255
-0.952974 0.717518 2.561 255 255 255
-0.534053 0.765292 2.136 255 255 255
0.638778 -0.398963 2.212 255 255 255
0.677682 -0.508215 2.017 255 255 255
0.0456404 -0.977271 2.695 255 255 255
-1.00279 0.679348 2.78 255 255 255
0.421996 -0.301829 2.582 255 255 255
0.0910536 0.501628 1.351 0 0 0
-0.796733 -0.768848 2.189 255 255 255
0.251682 0.230038 0.689 255 255 255
-1.29536 -0.312876 2.604 255 255 255
-0.796006 0.438099 2.953 255 255 255
-0.729845 -0.802907 2.469 255 255 255
-0.238218 0.48286 2.044 255 255 255
-0.36736 -0.0240559 1.887 255 255 255
-1.1014 0.686688 2.755 255 255 255
0.822695 -0.552062 1.876 255 255 255
0.81944 -0.219033 1.848 255 255 255
0.0128111 0.114332 1.229 255 255 255
-0.895411 -0.214139 2.871 255 255 255
0.489032 -0.815409 2.269 255 255 255
-1.15073 0.570123 2.755 255 255 255
-0.857305 0.693295 2.489 255 255 255
-1.13509 0.484612 2.805 255 255 255
-1.12045 -0.207351 2.78 255 255 255
-0.895381 0.478607 2.996 255 255 255
0.906732 -0.185349 1.842 255 255 255
-0.688669 0.620194 2.719 255 255 255
-0.180543 0.201974 1.744 255 255 255
-0.331432 0.731752 2.024 0 0 0
-0.492324 0.780627 2.121 255 255 255
-0.276144 0.733755 1.959 255 255 255
-1.23877 0.293175 2.898 255 255 255
-1.16826 -0.112331 2.672 255 255 255
-0.0472829 0.11199 1.345 255 255 255
-0.478092 0.676424 2.32 255 255 255
-0.883562 0.810103 2.099 255 255 255
-0.595901 0.790982 2.121 255 255 255
-0.204886 0.169265 1.758 0 0 0
-1.13748 -0.497781 2.356 255 255 255
-0.283481 -0.948261 2.615 255 255 255
0.687929 -0.544233 1.935 255 255 255
0.602108 -0.684213 2.158 255 255 255
-1.26347 -0.426327 2.499 255 255 255
-0.126004 -0.697634 2.805 255 255 255
0.0631882 -0.990428 2.695 255 255 255
0.180219 0.208851 0.849 255 255 255
0.408464 -0.787751 2.55 255 255 255
0.871849 0.0324091 1.959 255 255 255
-1.26036 0.788691 2.509 255 255 255
-0.965692 -0.281547 2.844 255 255 255
0.544262 -0.849989 2.253 255 255 255
-0.382971 0.707612 2.228 255 255 255
0.282933 0.234999 0.65 255 255 255
0.736954 -0.599004 1.899 255 255 255
-1.38301 0.460715 2.884 255 255 255
-0.317153 0.14825 2.017 255 255 255
0.494971 -0.00380623 2.805 255 255 255
-1.1496 0.614043 2.731 255 255 255
-0.0974615 0.654638 1.682 255 255 255
-1.40938 0.278192 2.939 255 255 255
-0.0312568 -0.430294 2.911 255 255 255
0.378455 -0.362891 2.66 255 255 255
-0.894458 -0.7077 2.303 255 255 255
0.813921 -0.408831 1.935 255 255 255
0.218809 0.22465 0.762 255 255 255
-0.609359 0.289753 2.911 0 0 0
-0.0362101 0.434421 1.524 0 0 0
0.108393 0.417496 1.16 0 0 0
0.459467 -0.691949 2.489 255 255 255
0.778236 -0.171698 1.997 255 255 255
0.925162 -0.0531384 1.831 255 255 255
0.390745 0.0100252 2.844 255 255 255
0.850649 -0.488166 1.831 255 255 255
0.466786 -0.108913 2.695 255 255 255
-0.665036 0.587377 2.731 255 255 255
0.532396 -0.380067 2.489 255 255 255
0.180007 0.196186 0.848 255 255 255
-0.645807 0.695529 2.44 255 255 255
-1.05344 0.645741 2.831 255 255 255
-0.486216 -0.846663 2.54 255 255 255
0.332264 -0.743743 2.707 255 255 255
-1.11969 -0.509602 2.469 255 255 255
0.91622 -0.136568 1.831 255 255 255
0.888129 0.0532161 1.905 255 255 255
0.122692 -0.805521 2.967 255 255 255
0.65233 -0.197212 2.338 255 255 255
0.433798 -0.116551 2.884 255 255 255
-0.331071 0.35067 2.173 255 255 255
-0.883131 -0.233559 2.939 255 255 255
0.10069 0.486268 1.333 0 0 0
-0.948486 0.638632 2.78 255 255 255
-1.07402 -0.448129 2.731 255 255 255
0.91871 -0.0536318 1.848 255 255 255
-0.20675 0.193901 1.774 0 0 0
0.78603 -0.0651011 2.017 255 255 255
-0.577084 0.776277 2.128 255 255 255
-1.02907 0.726876 2.672 255 255 255
-1.0789 0.338746 2.925 255 255 255
0.546185 0.0715305 2.719 255 255 255
-0.312642 -0.689123 2.884 255 255 255
0.848646 -0.383889 1.724 255 255 255
0.0588656 0.190992 1.116 255 255 255
-0.380446 -0.922259 2.638 255 255 255
-0.0436571 0.536909 1.616 255 255 255
0.140096 0.251231 0.952 0 0 0
0.536448 -0.380067 2.489 255 255 255
-0.992761 0.824759 2.128 255 255 255
-0.691709 -0.599233 2.731 255 255 255
0.644882 -0.521154 2.196 255 255 255
0.138038 -0.989489 2.884 255 255 255
-0.580419 -0.848213 2.449 255 255 255
-0.408881 0.195232 2.136 255 255 255
0.0626397 0.259018 1.152 0 0 0
-0.621766 -0.510067 2.66 255 255 255
-0.268233 -0.0287892 1.799 255 255 255
-0.774922 -0.663601 2.459 255 255 255
-0.665491 -0.808596 2.499 255 255 255
-0.820035 -0.638294 2.805 255 255 255
0.0256587 0.140021 1.176 255 255 255
0.266554 0.261856 0.67 0 0 0
-1.1215 -0.497444 2.509 255 255 255
0.400982 -0.301881 2.695 255 255 255
0.0910439 0.433939 1.319 255 255 255
0.260011 0.207515 0.745 255 255 255
-0.0181769 0.407067 1.47 255 255 255
-0.231785 -0.686017 2.871 255 255 255
-0.642587 -0.423052 2.604 255 255 255
-1.08697 -0.505089 2.143 255 255 255
-0.0519233 0.274406 1.477 255 255 255
0.867857 0.440805 2.939 255 255 255
-0.90195 0.80567 2.151 255 255 255
-1.17265 0.771192 2.479 255 255 255
0.566378 0.147398 2.731 255 255 255
-0.917214 -0.797765 2.638 255 255 255
-0.577178 -0.615192 2.54 255 255 255
-0.568306 0.636063 2.519 255 255 255
-0.80088 0.502954 2.884 255 255 255
0.226026 0.218479 0.737 255 255 255
0.237069 0.228566 0.716 255 255 255
0.0111755 0.530656 1.559 0 0 0
-1.27883 0.5572 2.78 255 255 255
0.851453 -0.350223 1.724 255 255 255
-0.582258 0.695529 2.44 255 255 255
-0.448568 -0.510067 2.66 255 255 255
0.595897 -0.386326 2.402 255 255 255
-1.12254 -0.671492 2.151 255 255 255
-0.889308 0.714727 2.411 255 255 255
-0.564952 -0.901694 2.32 255 255 255
0.837984 0.0417158 1.947 255 255 255
-0.934237 -0.735412 2.228 255 255 255
-0.494716 0.54528 2.479 255 255 255
-0.036579 0.092909 1.354 255 255 255
0.883555 0.0761773 1.789 255 255 255
0.636357 -0.674562 2.064 255 255 255
-1.3669 0.27741 2.982 255 255 255
0.0238656 0.133041 1.182 255 255 255
-0.191026 -0.0606534 1.789 255 255 255
0.102405 0.460397 1.178 0 0 0
-0.771256 -0.507661 2.499 255 255 255
-0.13048 0.0896938 1.524 255 255 255
0.200122 0.239391 0.812 255 255 255
-1.15903 0.322914 2.911 255 255 255
-0.587752 -0.767003 2.55 255 255 255
-0.66814 -0.387854 2.54 255 255 255
-0.96203 -0.666293 2.53 255 255 255
0.745862 -0.289821 2.051 255 255 255
0.110453 0.352707 1.203 0 0 0
0.55369 -0.372584 2.44 255 255 255
0.580123 -0.510496 2.181 255 255 255
-0.18877 -0.947265 2.66 255 255 255
-0.401078 -0.885864 2.499 255 255 255
-0.740596 -0.863033 2.338 255 255 255
1.00935 -0.659108 2.037 0 0 0
0.610936 -0.550943 2.092 255 255 255
-0.495934 0.789189 2.107 255 255 255
0.327166 -0.923444 2.469 255 255 255
-0.725255 0.392978 2.939 255 255 255
0.595412 0.220363 2.871 255 255 255
-0.985833 -0.747423 2.128 255 255 255
-1.05952 -0.577591 2.672 255 255 255
0.0260951 0.183274 1.196 255 255 255
0.744684 -0.216159 2.114 255 255 255
-0.0746183 0.39955 1.603 255 255 255
-0.112827 -0.861371 2.818 255 255 255
0.789701 -0.660532 1.953 255 255 255
0.312899 -0.71183 2.939 255 255 255
-0.752977 -0.798091 2.479 255 255 255
-0.498339 -0.521164 2.695 255 255 255
0.2059 0.187723 0.841 255 255 255
0.652078 0.287675 2.755 0 0 0
-1.05077 -0.398058 2.953 255 255 255
-0.773154 -0.693203 2.479 255 255 255
1.00255 -0.676904 2.092 0 0 0
-0.750196 -0.808638 2.22 255 255 255
0.586809 -0.529257 2.128 255 255 255
0.198555 0.248335 0.811 255 255 255
0.837554 -0.351995 1.917 255 255 255
-0.803599 -0.791901 2.55 255 255 255
0.896395 -0.138786 1.821 255 255 255
0.259179 -0.813694 2.593 255 255 255
0.195432 0.212177 0.809 255 255 255
-0.369096 -0.939037 2.649 255 255 255
0.606146 -0.539123 2.099 255 255 255
-0.350109 -0.846809 2.604 255 255 255
-0.070852 -0.761067 2.982 255 255 255
0.207057 0.232499 0.793 255 255 255
0.485244 0.209222 2.911 255 255 255
0.226413 0.272472 0.771 255 255 255
-0.462464 -0.292916 2.911 0 0 0
-0.484641 0.709729 2.212 255 255 255
0.338475 -0.384353 2.996 255 255 255
0.214016 0.30818 0.83 0 0 0
-1.0768 0.454325 2.844 255 255 255
-0.745574 0.374464 2.982 255 255 255
0.529316 -0.277797 2.593 255 255 255
-0.595164 -0.894143 2.32 255 255 255
-0.176337 0.0413889 1.677 255 255 255
0.240175 0.203041 0.779 255 255 255
-0.144334 -0.815084 2.898 255 255 255
0.0868173 -0.838664 2.898 255 255 255
-0.328482 0.0751525 1.911 255 255 255
0.529216 -0.535047 2.572 255 255 255
0.832312 -0.0831866 1.905 255 255 255
0.565596 0.100748 2.793 255 255 255
0.0605007 0.21123 1.147 0 0 0
0.131792 0.171497 0.948 255 255 255
-0.225221 0.506023 2.017 255 255 255
0.0697333 0.534628 1.409 0 0 0
-1.17018 0.106014 2.939 255 255 255
0.486148 -0.044088 2.755 255 255 255
0.862366 -0.210556 1.729 255 255 255
-1.19563 -0.467523 2.32 255 255 255
0.612518 -0.168083 2.469 255 255 255
-0.541151 0.398133 2.626 255 255 255
0.598394 0.0884417 2.695 255 255 255
0.247085 0.244483 0.695 255 255 255
0.773929 -0.387289 2.037 255 255 255
0.157443 0.216215 0.909 255 255 255
-0.867638 -0.651098 2.519 255 255 255
0.304301 0.22295 0.655 0 0 0
-0.782184 0.563804 2.768 255 255 255
-0.861376 0.514827 2.898 255 255 255
-0.451336 0.729042 2.173 255 255 255
-0.140243 -0.818741 2.911 255 255 255
-0.496702 0.327459 2.449 0 0 0
0.122988 0.156807 1.002 255 255 255
-1.36585 0.571522 2.719 255 255 255
0.188056 0.187667 0.866 255 255 255
-0.67364 -0.653347 2.593 255 255 255
1.01274 -0.679169 2.099 0 0 0
0.72668 -0.711267 2.044 255 255 255
0.791872 -0.109688 1.935 255 255 255
0.790347 -0.173597 2.55 0 0 0
-1.23958 0.266068 2.911 255 255 255
-0.431873 -0.836993 2.561 255 255 255
0.831182 -0.192126 1.821 255 255 255
0.186538 0.245877 0.834 255 255 255
0.633518 -0.538301 2.044 255 255 255
0.347827 -0.430294 2.911 255 255 255
-0.523201 -0.876556 2.519 255 255 255
-1.3439 0.642785 2.684 255 255 255
0.660129 -0.195019 2.312 255 255 255
-0.209115 0.750771 1.929 0 0 0
-0.0846951 0.589809 1.758 255 255 255
-1.13371 0.856265 2.228 255 255 255
-0.896341 -0.577312 2.519 255 255 255
0.350769 -0.761021 2.615 255 255 255
0.542798 -0.396395 2.392 255 255 255
-0.426576 0.188005 2.173 0 0 0
0.87678 -0.116616 1.799 255 255 255
-0.11937 0.108456 1.509 255 255 255
-0.464513 0.772244 2.136 255 255 255
0.264517 -0.829858 2.604 255 255 255
-0.736602 -0.650069 2.684 255 255 255
0.699802 -0.684545 2.024 255 255 255
-0.360401 0.292061 2.158 255 255 255
0.0412535 -0.907101 2.695 255 255 255
-1.28912 -0.0414592 2.884 255 255 255
0.704606 0.298161 2.649 255 255 255
-1.06652 0.837173 2.151 255 255 255
-0.217842 -0.0666618 1.794 255 255 255
-0.863794 -0.447144 2.672 255 255 255
-0.859473 -0.493519 2.449 255 255 255
0.145657 0.263727 0.958 0 0 0
0.191008 0.212088 0.824 255 255 255
-0.691046 -0.46678 2.66 255 255 255
-1.38759 0.638417 2.684 255 255 255
0.849124 -0.306684 1.815 255 255 255
0.53259 -0.370872 2.509 255 255 255
-0.0800363 0.384857 1.607 255 255 255
0.316285 0.235498 0.618 255 255 255
0.794958 -0.732115 1.966 255 255 255
-1.02926 0.804154 2.286 255 255 255
0.665687 0.1556 2.719 255 255 255
0.88932 -0.157942 1.837 255 255 255
-1.07067 0.539105 2.78 255 255 255
0.0458436 -1.0433 2.707 255 255 255
-0.960156 -0.767715 2.638 255 255 255
-0.260917 0.0325079 1.789 255 255 255
0.641259 0.3516 2.953 255 255 255
-0.669358 -0.396367 2.805 255 255 255
0.180522 0.215003 0.857 255 255 255
-1.06796 -0.679736 2.212 255 255 255
0.194595 0.215341 0.811 255 255 255
-0.864641 -0.742147 2.365 255 255 255
0.173719 0.168879 0.909 255 255 255
0.15064 0.159692 0.97 255 255 255
-0.952387 0.73245 2.392 255 255 255
-0.119858 0.148949 1.547 0 0 0
-0.55063 0.49642 2.672 0 0 0
0.66684 -0.566619 1.947 255 255 255
-0.593013 -0.379477 2.996 255 255 255
0.935735 0.0157211 1.87 255 255 255
0.894 -0.191201 1.758 255 255 255
-0.574906 0.642958 2.53 255 255 255
0.648019 -0.349959 2.244 255 255 255
0.488495 -0.508127 2.743 255 255 255
-0.567322 0.81421 2.092 255 255 255
0.558001 -0.283449 2.459 255 255 255
-0.507113 -0.679047 2.695 255 255 255
-1.27417 0.750753 2.604 255 255 255
-1.00273 -0.411961 2.818 255 255 255
0.0926323 0.148373 1.046 255 255 255
-0.0108699 -0.982895 2.572 255 255 255
0.694961 -0.620933 2.01 0 0 0
-1.01658 -0.266439 2.831 255 255 255
0.289501 -0.574388 2.805 255 255 255
-0.0122525 0.280525 1.345 0 0 0
0.852217 -0.338503 1.929 255 255 255
-0.569388 -0.621756 2.638 255 255 255
-1.09121 -0.685901 2.078 255 255 255
-1.13997 -0.485355 2.212 255 255 255
0.32071 -0.699299 2.967 255 255 255
0.0239803 0.458938 1.416 0 0 0
-0.496823 -0.886859 2.392 255 255 255
0.527323 -0.122185 2.604 255 255 255
-0.429554 -0.885864 2.499 255 255 255
-1.28447 -0.417191 2.469 255 255 255
-0.875477 -0.723448 2.181 255 255 255
-1.15465 -0.441171 2.743 255 255 255
0.826805 -0.29151 1.831 255 255 255
-1.01181 0.58047 2.805 255 255 255
-0.10824 -0.843028 2.818 255 255 255
0.806534 -0.305463 2.044 255 255 255
0.374661 -0.736061 2.695 255 255 255
-0.944935 -0.752826 2.114 255 255 255
-0.0471723 -0.971264 2.499 255 255 255
0.252069 0.231607 0.687 255 255 255
0.171694 0.342213 1.03 255 255 255
0.78701 -0.489293 1.893 255 255 255
-0.697441 -0.845096 2.44 255 255 255
0.43241 0.000768976 2.844 255 255 255
0.164714 0.2799 0.96 255 255 255
-0.193938 -0.0752098 1.789 255 255 255
0.781183 -0.0721276 2.03 255 255 255
0.621336 0.337218 2.996 0 0 0
0.754747 -0.726216 2.03 255 255 255
-1.43856 0.502937 2.731 255 255 255
-0.724123 -0.651098 2.519 255 255 255
-0.0509389 0.247982 1.449 255 255 255
-0.436063 0.660472 2.278 255 255 255
0.658738 -0.0336299 2.638 255 255 255
0.165928 0.226433 0.891 255 255 255
-0.697182 0.537631 2.844 255 255 255
0.931184 -0.16392 1.837 255 255 255
-1.12316 -0.475526 2.459 255 255 255
-0.292919 0.653209 2.078 255 255 255
-1.06266 0.406179 2.831 255 255 255
0.310567 0.234004 0.633 255 255 255
0.560871 -0.683355 2.189 255 255 255
-0.961386 -0.606222 2.143 255 255 255
0.748916 -0.378176 2.078 255 255 255
-0.726025 -0.656526 2.54 255 255 255
-0.154111 -0.911815 2.818 255 255 255
0.272817 0.216408 0.703 255 255 255
0.888034 0.165435 1.81 255 255 255
-1.28651 0.726212 2.638 255 255 255
0.151365 0.171858 0.917 255 255 255
0.557662 -0.368614 2.44 255 255 255
0.26964 -0.765249 2.572 255 255 255
-1.07936 -0.775127 2.128 255 255 255
-1.37304 0.57781 2.707 255 255 255
0.762732 -0.533286 1.941 255 255 255
0.192665 0.201566 0.814 255 255 255
0.63843 -0.334156 2.236 255 255 255
-0.749837 -0.370872 2.509 255 255 255
0.000828038 0.176678 1.26 0 0 0
0.582653 -0.505119 2.204 255 255 255
0.198413 0.185397 0.862 255 255 255
-0.281501 0.228024 1.997 255 255 255
-0.708912 -0.486079 2.695 255 255 255
-0.923014 -0.784078 2.143 255 255 255
-1.12497 -0.0716319 2.78 255 255 255
0.0921542 0.357691 1.22 255 255 255
0.750718 -0.761869 2.037 255 255 255
-0.967226 -0.652171 2.204 255 255 255
0.614273 -0.101396 2.509 255 255 255
-1.00751 -0.0376456 2.953 255 255 255
-1.19701 -0.219134 2.649 255 255 255
-1.39766 0.592792 2.695 255 255 255
-1.24646 -0.298426 2.626 255 255 255
-1.09103 -0.40895 2.707 255 255 255
0.101453 0.196831 1.015 255 255 255
-0.37843 -0.545243 2.996 255 255 255
0.524422 -0.366789 2.509 255 255 255
-0.10529 0.182616 1.555 255 255 255
-0.385238 -0.584319 2.831 255 255 255
0.101247 0.372481 1.21 255 255 255
-0.651699 0.574045 2.731 255 255 255
-1.12288 -0.215449 2.953 255 255 255
-1.01067 0.787648 2.303 255 255 255
0.774048 -0.132369 1.899 255 255 255
0.782747 -0.189829 2.017 255 255 255
0.0295392 0.419413 1.463 0 0 0
0.144069 -0.960855 2.911 255 255 255
-0.0482824 0.514358 1.595 255 255 255
0.671565 -0.0788289 2.572 255 255 255
-0.81567 -0.837488 2.173 255 255 255
0.315541 -0.771917 2.793 255 255 255
-1.10305 0.746691 2.561 255 255 255
-0.458374 -0.522537 2.593 255 255 255
0.102011 0.465044 1.322 0 0 0
0.098825 0.201515 1.022 255 255 255
-0.00153263 0.617119 1.579 255 255 255
-1.12645 -0.568631 2.228 255 255 255
-1.06727 0.401572 2.831 255 255 255
-0.695751 -0.385209 2.695 255 255 255
-1.02159 -0.312252 2.871 255 255 255
0.305378 0.226194 0.646 255 255 255
0.683087 -0.156871 2.42 255 255 255
-1.1357 0.673291 2.719 255 255 255
0.329816 -0.825613 2.489 255 255 255
0.683046 0.069689 2.649 255 255 255
0.207752 0.333314 0.86 255 255 255
-0.856228 0.820351 2.099 255 255 255
0.716095 -0.52092 1.978 255 255 255
-0.534647 -0.508299 2.793 255 255 255
0.0799928 0.181237 1.059 255 255 255
-0.428332 -0.84253 2.54 255 255 255
0.114565 -0.862772 2.884 255 255 255
0.839394 -0.630997 1.893 255 255 255
-0.95097 0.816171 2.151 255 255 255
-0.0419911 0.279519 1.466 255 255 255
0.74755 0.434908 2.695 0 0 0
0.615316 -0.753762 2.107 0 0 0
0.218594 0.290447 0.807 0 0 0
-1.0807 0.787097 2.269 255 255 255
-0.394089 0.0426585 1.991 0 0 0
0.265876 -0.912635 2.66 255 255 255
-0.321633 0.117944 2.004 255 255 255
0.341748 -0.683424 2.982 255 255 255
-0.274267 -0.950376 2.53 255 255 255
-0.00885717 0.48299 1.513 255 255 255
0.0792298 0.150317 1.072 255 255 255
-0.419239 0.678606 2.228 255 255 255
-0.462272 0.74508 2.158 255 255 255
-0.22242 -0.860047 2.755 255 255 255
-0.809294 -0.78627 2.43 255 255 255
0.027784 0.177732 1.185 255 255 255
0.850104 0.0100626 1.953 255 255 255
0.746152 -0.186424 2.128 255 255 255
-1.06971 -0.0852943 2.939 255 255 255
-1.29833 0.734923 2.593 255 255 255
-0.792684 -0.570241 2.638 255 255 255
-1.20125 -0.429705 2.593 255 255 255
0.863254 -0.334246 1.714 255 255 255
-0.0888517 0.584016 1.784 255 255 255
-0.498275 -0.835549 2.793 255 255 255
0.850323 -0.319681 1.805 255 255 255
0.895032 0.0258737 1.947 255 255 255
0.690642 0.387495 2.898 0 0 0
-0.477267 0.696735 2.228 255 255 255
-0.16726 0.343055 1.784 0 0 0
-0.984802 0.686688 2.755 255 255 255
-1.00268 -0.172699 2.805 255 255 255
-0.128923 0.263114 1.664 255 255 255
0.885028 -0.0211853 1.905 255 255 255
0.476983 -0.0399641 2.78 255 255 255
0.0801909 0.124057 1.135 255 255 255
-0.404774 0.271321 2.189 255 255 255
-0.00627174 0.432678 1.484 255 255 255
0.873302 -0.0996564 1.81 255 255 255
0.760711 0.531392 2.695 0 0 0
-0.268605 -0.0855927 1.763 255 255 255
-0.31681 -0.636531 2.967 255 255 255
0.153546 -1.02244 2.911 255 255 255
0.0622106 0.380813 1.257 255 255 255
0.0940268 -0.888379 2.831 255 255 255
0.461313 -0.710996 2.499 255 255 255
0.167561 0.258878 0.924 255 255 255
-0.812737 -0.79726 2.489 255 255 255
-0.945546 -0.646999 2.519 255 255 255
-0.202599 -0.122889 1.763 255 255 255
0.501965 -0.635335 2.383 255 255 255
0.645673 -0.373959 2.151 255 255 255
-0.158872 0.65836 1.821 255 255 255
-0.781585 0.39485 2.953 255 255 255
0.0858216 0.168799 1.046 255 255 255
0.39592 -0.800196 2.604 255 255 255
-1.28689 0.729565 2.604 255 255 255
-1.23602 0.243548 2.925 255 255 255
-0.86139 -0.578827 2.638 255 255 255
-0.803662 -0.558654 2.604 255 255 255
-0.56853 0.316496 2.695 255 255 255
-1.3845 0.605949 2.695 255 255 255
-1.39393 0.437088 2.793 255 255 255
0.727977 -0.561714 1.941 255 255 255
0.84872 0.354716 2.939 255 255 255
-0.32647 -0.597905 2.967 255 255 255
-0.65809 -0.88118 2.356 255 255 255
0.768316 -0.501607 1.87 255 255 255
-0.303825 -0.947551 2.469 255 255 255
0.231452 0.252745 0.739 255 255 255
0.231434 0.291292 0.771 255 255 255
1.09886 -0.782028 2.196 0 0 0
-0.171968 0.561024 1.935 255 255 255
-0.416973 -0.900022 2.449 255 255 255
-1.1496 0.636264 2.731 255 255 255
0.000828038 0.104913 1.26 255 255 255
0.357067 0.0474969 2.871 255 255 255
-1.0337 -0.414211 2.684 255 255 255
-1.00684 -0.517594 2.181 255 255 255
-0.342969 0.355673 2.204 255 255 255
-0.649558 -0.726977 2.615 255 255 255
-0.247444 0.252377 1.959 255 255 255
-0.515159 0.575231 2.54 0 0 0
-0.277663 0.478348 2.143 255 255 255
0.153845 0.218892 0.914 255 255 255
-1.06751 -0.35989 2.638 255 255 255
0.440465 -0.516778 2.695 255 255 255
0.675861 -0.405369 2.114 255 255 255
-1.18163 0.418071 2.818 255 255 255
-0.230645 0.128268 1.826 255 255 255
0.546468 0.226054 2.884 255 255 255
0.0939086 0.354831 1.217 255 255 255
0.820109 -0.0646815 2.004 255 255 255
-0.188639 0.271992 1.794 255 255 255
-0.336877 0.162979 2.037 255 255 255
-0.5608 0.348438 2.638 255 255 255
-1.38185 0.630672 2.707 255 255 255
0.252886 -0.774117 2.66 255 255 255
-0.00885717 0.480528 1.513 255 255 255
0.273827 -0.81966 2.572 255 255 255
0.234551 0.217824 0.719 255 255 255
0.753197 -0.481956 2.017 255 255 255
0.679043 -0.230932 2.092 255 255 255
0.169324 0.206419 0.886 255 255 255
-0.469372 0.385154 2.411 255 255 255
-0.498708 0.57408 2.499 0 0 0
0.865484 0.126714 1.724 255 255 255
-0.686982 0.354716 2.939 255 255 255
0.814835 -0.148209 1.865 255 255 255
0.187209 0.238589 0.837 255 255 255
-0.769541 0.565639 2.755 255 255 255
-0.258005 -0.00825015 1.789 255 255 255
0.854652 -0.694426 2.024 0 0 0
0.161744 0.203822 0.9 255 255 255
-1.02665 -0.0326844 2.939 255 255 255
-1.04167 0.393875 2.982 255 255 255
-1.2538 0.261331 2.911 255 255 255
0.664288 -0.441227 2.121 255 255 255
-0.0990044 -0.436502 2.953 255 255 255
-1.18731 0.857909 2.261 255 255 255
0.43457 -0.689343 2.509 255 255 255
0.64368 -0.0618214 2.561 255 255 255
-1.22236 -0.210282 2.593 255 255 255
-0.409027 0.324567 2.212 255 255 255
0.161324 0.311779 0.997 255 255 255
0.529375 -0.214771 2.818 255 255 255
0.37689 -0.79247 2.649 255 255 255
-1.11492 -0.472375 2.55 255 255 255
-0.985456 -0.738475 2.173 255 255 255
-0.0636087 0.0902505 1.416 255 255 255
-0.521649 0.694209 2.329 255 255 255
-1.15206 0.822754 2.286 255 255 255
-0.29646 -0.0910717 1.758 255 255 255
0.772571 -0.389951 2.051 255 255 255
-1.4046 0.27341 2.939 255 255 255
-0.409463 0.763369 2.121 255 255 255
0.579714 0.129621 2.731 255 255 255
-0.291281 -0.647944 2.953 255 255 255
0.622467 -0.545706 2.085 255 255 255
0.773717 -0.45465 1.929 255 255 255
-0.300101 0.172259 1.991 255 255 255
0.916232 -0.0951642 1.837 255 255 255
-0.818952 -0.467522 2.459 255 255 255
0.769991 -0.413974 2.071 255 255 255
0.555709 -0.32172 2.54 255 255 255
-0.840759 0.604344 2.768 255 255 255
-0.137162 0.583917 1.848 255 255 255
-0.805964 0.729209 2.42 255 255 255
-0.577618 -0.812162 2.871 255 255 255
0.762228 -0.519865 1.87 255 255 255
-1.05033 -0.246726 2.925 255 255 255
0.186957 0.229053 0.842 255 255 255
-0.0877257 -0.437804 2.898 255 255 255
0.769805 -0.468097 1.959 255 255 255
0.135414 0.190138 0.941 255 255 255
0.0709446 0.457814 1.345 255 255 255
0.727377 0.437805 2.857 0 0 0
-0.416228 0.324567 2.212 255 255 255
-0.600149 -0.189527 2.719 255 255 255
0.78658 -0.492477 1.87 255 255 255
-0.556817 -0.518724 2.66 255 255 255
-0.906827 -0.472265 2.572 255 255 255
0.761356 -0.72952 2.03 255 255 255
-1.17577 0.862206 2.253 255 255 255
0.343047 -0.620608 2.871 255 255 255
-1.14561 -0.0591251 2.831 255 255 255
-1.2519 -0.353751 2.593 255 255 255
-0.747912 -0.457025 2.489 255 255 255
-1.24177 -0.283032 2.768 255 255 255
-0.689898 -0.759796 2.499 255 255 255
-0.94473 0.714436 2.55 255 255 255
-0.166401 -0.963851 2.719 255 255 255
-0.562788 -0.505904 2.731 255 255 255
0.696381 -0.536445 1.941 255 255 255
0.138255 0.230605 0.95 255 255 255
-1.20305 -0.0949384 2.672 255 255 255
0.460905 -0.343655 2.519 255 255 255
-0.585707 -0.526971 2.615 255 255 255
-0.15061 0.0569571 1.579 255 255 255
-0.0828162 0.615888 1.719 255 255 255
-1.04802 -0.143394 2.768 255 255 255
-1.05892 -0.626049 2.638 255 255 255
-0.142817 0.66259 1.769 255 255 255
-0.0580477 -0.810061 2.831 255 255 255
-0.0945401 0.279347 1.587 0 0 0
-0.0424414 0.511731 1.571 255 255 255
-0.861276 -0.75894 2.181 255 255 255
0.209136 0.239856 0.796 255 255 255
0.196124 -0.591222 2.982 255 255 255
-0.898884 0.69331 2.66 255 255 255
0.728846 0.388388 2.707 0 0 0
0.0287688 0.110152 1.227 255 255 255
-0.27056 0.643635 2.037 255 255 255
-0.358642 -0.78753 2.768 255 255 255
-0.33093 0.489938 2.244 255 255 255
-0.58522 0.716986 2.158 255 255 255
-1.09399 0.438965 2.805 255 255 255
-1.0818 -0.586949 2.695 255 255 255
0.755811 -0.490216 2.024 255 255 255
0.655606 -0.671246 2.196 255 255 255
-0.941494 -0.807869 2.114 255 255 255
0.849762 -0.628985 1.842 255 255 255
-0.947394 -0.661555 2.286 255 255 255
0.84617 -0.306684 1.815 255 255 255
-1.31232 0.670239 2.604 255 255 255
-0.824848 0.385239 2.953 255 255 255
-1.39723 0.518959 2.818 255 255 255
-0.938515 0.518959 2.818 255 255 255
0.641081 -0.538915 1.985 255 255 255
0.231562 0.233582 0.728 255 255 255
0.269767 0.216716 0.704 255 255 255
-0.447441 0.773724 2.121 255 255 255
-0.142941 -0.491683 2.967 255 255 255
-0.581937 0.444101 2.78 255 255 255
-1.10186 -0.291203 2.638 255 255 255
0.440301 -0.728161 2.228 255 255 255
0.708042 -0.636324 1.947 255 255 255
-0.639215 -0.403761 2.793 255 255 255
-0.502855 -0.30104 2.898 0 0 0
0.275635 -0.762853 2.55 255 255 255
-1.20559 -0.17988 2.707 255 255 255
-0.80391 0.777667 2.151 255 255 255
0.176371 0.213947 0.864 255 255 255
-1.05088 -0.813079 2.092 255 255 255
-0.954657 -0.785515 2.128 255 255 255
-0.593717 -0.611059 2.54 255 255 255
-0.561175 -0.897919 2.32 255 255 255
-0.802188 -0.794872 2.469 255 255 255
0.756196 -0.526259 1.893 255 255 255
-1.08348 -0.512063 2.143 255 255 255
-0.573286 0.712594 2.166 255 255 255
-0.756112 -0.368979 2.805 255 255 255
-0.459753 -0.429026 2.78 255 255 255
0.938779 0.000505621 1.87 255 255 255
-1.15817 0.0833021 2.982 255 255 255
-0.0436696 0.0917105 1.369 255 255 255
0.141662 0.398028 1.096 255 255 255
-0.667873 0.537302 2.818 255 255 255
0.14764 0.370127 1.062 255 255 255
-0.635652 -0.632248 2.593 255 255 255
0.390745 0.0146533 2.844 255 255 255
-0.744625 -0.6429 2.519 255 255 255
0.651093 0.341862 2.911 255 255 255
0.0523328 0.544493 1.435 255 255 255
0.00305959 0.294526 1.339 255 255 255
0.535477 -0.532926 2.582 255 255 255
-0.0225722 0.378981 1.445 0 0 0
-0.926502 -0.429651 2.755 255 255 255
0.883339 -0.660161 1.837 255 255 255
-0.693919 -0.531605 2.638 255 255 255
-0.135797 0.0874427 1.528 255 255 255
-1.16067 0.554795 2.768 255 255 255
-0.218332 -0.9164 2.818 255 255 255
-0.443102 -0.485334 2.818 255 255 255
0.708918 0.29385 2.649 255 255 255
-0.0118546 -0.907608 2.805 255 255 255
0.101153 0.178134 1.012 255 255 255
-0.40545 -0.727608 2.78 255 255 255
-0.336798 0.736489 1.941 255 255 255
0.452704 -0.519922 2.519 255 255 255
-0.929395 0.807764 2.166 255 255 255
0.863306 0.111411 1.748 255 255 255
0.22442 0.252507 0.76 255 255 255
-0.653493 -0.161818 2.939 255 255 255
0.883988 -0.0360116 1.87 255 255 255
0.214418 0.210283 0.773 255 255 255
0.426469 -0.192572 2.898 255 255 255
0.0784244 0.217469 1.085 0 0 0
0.755937 -0.150297 2.107 255 255 255
0.241056 0.237223 0.714 255 255 255
0.834235 -0.0415818 1.991 255 255 255
-1.00668 -0.600564 2.173 255 255 255
-0.927349 0.808239 2.121 255 255 255
-1.26395 0.652956 2.672 255 255 255
0.113916 0.21217 0.994 255 255 255
0.387442 -0.346776 2.604 255 255 255
0.731648 0.57872 2.911 0 0 0
0.610754 -0.323604 2.43 255 255 255
-0.602054 -0.760806 2.489 255 255 255
-1.32861 0.5572 2.78 255 255 255
0.352394 0.0474969 2.871 255 255 255
0.138797 0.416188 1.116 255 255 255
-1.13734 -0.608513 2.228 255 255 255
0.0211683 -0.590278 2.953 255 255 255
-0.427704 -0.836993 2.561 255 255 255
-0.708715 0.77974 2.128 255 255 255
0.268759 0.237183 0.662 255 255 255
-0.38499 0.263967 2.158 255 255 255
-0.213471 0.100605 1.758 255 255 255
-1.00668 -0.653607 2.173 255 255 255
-0.885817 -0.629874 2.768 255 255 255
-1.25289 0.645419 2.695 255 255 255
0.744834 -0.72952 2.03 255 255 255
0.835228 -0.0541857 1.978 255 255 255
-1.38573 -0.390618 2.672 255 255 255
-0.856681 -0.527995 2.499 255 255 255
0.643109 0.278709 2.755 255 255 255
-0.521687 0.443766 2.593 0 0 0
0.149523 -0.860758 2.925 255 255 255
-0.251476 -0.0488713 1.784 255 255 255
-0.981395 -0.615341 2.253 255 255 255
-0.249327 -0.87798 2.755 255 255 255
0.625583 -0.149193 2.489 255 255 255
-0.0739103 0.232237 1.484 0 0 0
0.825775 -0.2453 1.842 255 255 255
-0.750905 -0.495534 2.459 255 255 255
0.846185 -0.354802 1.719 255 255 255
0.0819482 0.197305 1.062 255 255 255
-0.326478 0.687921 2.166 0 0 0
-0.897229 -0.802137 2.099 255 255 255
-0.858117 -0.770301 2.173 255 255 255
-0.537266 -0.62866 2.649 255 255 255
0.0841791 0.386519 1.249 255 255 255
0.638751 0.326187 2.898 255 255 255
-0.993134 -0.387409 2.982 255 255 255
-0.374713 0.755441 1.941 255 255 255
-0.587611 -0.879042 2.32 255 255 255
-0.741044 -0.799911 2.236 255 255 255
0.818858 -0.110453 1.794 255 255 255
0.343352 -0.384353 2.996 255 255 255
0.85253 -0.330304 1.848 255 255 255
0.238234 0.242548 0.716 255 255 255
0.421191 -0.401107 2.684 255 255 255
0.516218 -0.726997 2.181 255 255 255
-0.999758 -0.78059 2.143 255 255 255
-0.235364 -0.0579035 1.794 255 255 255
0.557973 -0.5413 2.22 255 255 255
