ply
format ascii 1.0
comment Created by Open3D
element vertex 1311
property double x
property double y
property double z
property uchar red
property uchar green
property uchar blue
end_header
-0.904374 0.0871441 2.53 255 255 255
-0.0304899 0.307721 1.487 0 0 0
0.0708277 0.35433 1.229 255 255 255
-0.184948 -0.585291 2.338 255 255 255
0.0793578 -0.529511 2.649 255 255 255
-0.406214 -0.319424 2.695 255 255 255
0.574524 -0.0633904 2.626 255 255 255
-0.770419 -0.576487 1.959 255 255 255
0.737579 0.125711 2.261 255 255 255
-0.451355 0.268298 2.53 255 255 255
0.985378 0.318117 2.121 255 255 255
-1.11846 0.246842 2.44 255 255 255
-1.09261 0.426193 2.294 255 255 255
0.262953 0.174102 0.64 255 255 255
-0.0405773 0.283939 1.502 0 0 0
-0.090509 0.36942 1.655 255 255 255
-0.883463 0.511824 2.228 255 255 255
-0.592052 -0.0528235 2.743 255 255 255
-1.02448 0.515194 2.196 255 255 255
-0.92183 -0.399746 2.278 255 255 255
0.749557 -0.691695 1.81 255 255 255
0.276775 0.165078 0.658 255 255 255
-0.95444 -0.0818275 2.303 255 255 255
-1.21497 0.208466 2.365 255 255 255
-0.603412 0.708773 1.876 255 255 255
0.550988 -0.887297 2.312 255 255 255
0.0709852 -0.321722 2.831 0 0 0
-0.0370821 -0.0514992 1.225 255 255 255
-0.21002 -0.389381 2.55 255 255 255
-0.355307 0.303122 2.383 255 255 255
-1.07214 -0.369739 2.107 255 255 255
-0.755384 -0.534615 2.03 255 255 255
0.429929 0.922321 2.684 0 0 0
0.147281 0.158291 0.875 255 255 255
0.783342 -0.643063 1.848 255 255 255
-0.773608 -0.640246 1.959 255 255 255
0.611537 -0.257334 2.402 255 255 255
-0.893376 0.48457 2.253 255 255 255
0.17047 0.235397 0.892 255 255 255
0.786744 0.256877 2.499 255 255 255
0.566267 -0.842656 2.253 255 255 255
-1.18734 -0.00767555 2.572 255 255 255
-0.0533605 -0.611412 2.411 255 255 255
-0.215957 0.546296 1.853 255 255 255
-0.516795 -0.555979 2.151 255 255 255
-0.669543 0.661837 1.899 255 255 255
-0.552136 -0.641596 2.099 255 255 255
-1.09863 -0.355419 2.166 255 255 255
0.227798 0.196116 0.688 255 255 255
-0.290586 -0.531548 2.459 255 255 255
-0.637038 0.515787 2.294 255 255 255
-0.882502 -0.313442 2.244 255 255 255
0.0142211 0.0214418 1.18 255 255 255
-0.19256 -0.661385 2.338 255 255 255
0.184434 0.116834 0.843 255 255 255
0.0619388 0.126287 1.106 255 255 255
-0.361134 0.664766 1.953 255 255 255
0.278393 0.187372 0.593 255 255 255
0.140488 0.0899281 0.934 255 255 255
-0.558765 -0.668077 2.024 255 255 255
-0.00121523 -0.168767 1.252 255 255 255
-0.0982932 0.360249 1.65 255 255 255
0.735414 -0.488731 1.978 255 255 255
-1.06204 -0.388697 2.01 255 255 255
0.856254 -0.126201 1.997 255 255 255
-0.858117 0.605275 2.173 255 255 255
-0.677087 0.470596 2.329 255 255 255
-0.849385 0.691037 1.853 255 255 255
-0.97098 -0.488703 1.991 255 255 255
0.595144 0.0430797 2.604 255 255 255
-1.04544 0.40704 2.356 255 255 255
-0.887934 0.0390062 2.615 255 255 255
0.0401369 0.026557 1.152 255 255 255
0.159577 0.155131 0.835 255 255 255
-0.265943 0.418986 1.978 255 255 255
0.150698 -0.464155 2.857 255 255 255
0.48325 -0.209466 2.871 255 255 255
0.879041 0.26567 2.294 255 255 255
0.64915 -0.152364 2.411 255 255 255
-0.965441 0.0551068 2.572 255 255 255
-0.644938 -0.459459 2.158 255 255 255
-0.016891 0.158197 1.366 255 255 255
-1.07309 0.265342 2.392 255 255 255
-1.06652 -0.440467 2.151 255 255 255
-0.179748 -0.678945 2.32 255 255 255
0.148123 0.167788 0.88 0 0 0
0.403714 -0.754895 2.684 255 255 255
0.156999 0.232596 0.898 255 255 255
0.878788 -0.229413 1.859 255 255 255
0.873506 0.297722 2.402 255 255 255
-0.897043 0.48457 2.253 255 255 255
-0.280059 -0.747475 2.189 255 255 255
0.020774 -0.456668 2.898 255 255 255
-0.478575 0.323402 2.479 255 255 255
0.26195 0.163851 0.675 255 255 255
0.887929 0.229543 2.269 255 255 255
-0.65272 -0.485418 2.196 255 255 255
-1.22172 0.111839 2.44 255 255 255
0.992094 0.540796 2.128 0 0 0
0.236757 0.230824 0.688 255 255 255
-0.384807 -0.389727 2.499 255 255 255
-0.029391 -0.0379126 1.237 255 255 255
0.585684 -0.395369 2.509 255 255 255
-0.12097 -0.762528 2.212 255 255 255
0.834054 -0.187749 2.03 255 255 255
0.190756 0.202036 0.795 0 0 0
0.0467603 -0.560915 2.519 255 255 255
-0.613572 0.63104 1.947 255 255 255
-0.522107 0.41946 2.383 255 255 255
0.714105 -0.467668 2.085 255 255 255
0.686053 -0.120809 2.261 255 255 255
0.746074 -0.617313 1.947 255 255 255
0.836518 -0.654343 1.705 255 255 255
0.206907 -0.618928 2.626 255 255 255
-1.20245 0.0169425 2.499 255 255 255
0.0230781 0.0672704 1.143 255 255 255
-1.07823 0.47793 2.189 255 255 255
-0.965049 0.613518 2.128 255 255 255
0.28385 -0.657388 2.626 255 255 255
0.153167 0.117474 0.868 255 255 255
-0.859072 0.140667 2.53 255 255 255
0.190482 0.204717 0.816 255 255 255
0.638778 0.045591 2.509 255 255 255
-0.577313 0.626628 1.953 255 255 255
0.234592 -0.589863 2.649 255 255 255
-0.00992842 0.209827 1.327 0 0 0
0.918579 -0.016236 2.064 255 255 255
0.849304 -0.378873 1.714 255 255 255
-0.843527 0.231811 2.449 255 255 255
0.551746 -0.513445 2.449 255 255 255
0.725784 -0.079447 2.236 255 255 255
0.165447 0.145139 0.817 255 255 255
0.172998 0.258768 0.913 255 255 255
-1.2472 0.0250759 2.499 255 255 255
0.797141 0.345017 2.519 255 255 255
0.196925 0.231748 0.832 0 0 0
-0.475212 0.00993357 2.818 255 255 255
0.438808 -0.818646 2.582 255 255 255
-0.8102 -0.432402 2.236 255 255 255
-0.126604 0.389286 1.744 255 255 255
0.886406 0.243796 2.166 0 0 0
-0.423395 -0.00856784 2.871 255 255 255
0.499917 -0.844496 2.509 255 255 255
-0.708589 -0.39871 2.479 255 255 255
-0.192226 -0.529234 2.43 255 255 255
-0.927638 -0.514334 1.941 255 255 255
0.925785 0.368122 2.151 0 0 0
0.706212 0.321597 2.561 0 0 0
-0.875714 -0.306692 2.303 255 255 255
0.0054451 -0.623702 2.383 255 255 255
0.78923 -0.0799272 2.151 255 255 255
-0.259831 -0.356184 2.55 255 255 255
-0.111722 0.175728 1.539 255 255 255
0.177178 0.253275 0.904 255 255 255
-0.926608 -0.651448 1.821 255 255 255
0.163042 -0.632691 2.479 255 255 255
0.264878 -0.835219 2.158 255 255 255
-0.500849 -0.461821 2.22 255 255 255
0.704555 0.18669 2.54 255 255 255
-0.0111031 0.536521 1.484 255 255 255
0.807074 -0.140988 2.071 255 255 255
0.822449 -0.5348 1.848 255 255 255
-0.0889437 0.162782 1.535 255 255 255
-1.13175 -0.111833 2.469 255 255 255
0.858243 0.103777 2.114 0 0 0
-0.488242 -0.460157 2.212 255 255 255
-0.121008 -0.0357387 1.387 0 0 0
-0.999415 0.361032 2.356 255 255 255
0.634341 -0.267742 2.356 255 255 255
-0.207734 0.285469 1.734 255 255 255
0.12148 0.217633 1.06 255 255 255
0.564809 -0.432722 2.489 255 255 255
0.0944035 0.211926 1.066 255 255 255
-0.869294 0.0222702 2.649 255 255 255
-0.100182 0.13363 1.516 255 255 255
0.0154692 0.560671 1.484 255 255 255
0.664385 -0.0330562 2.593 255 255 255
0.920044 -0.0407882 1.953 0 0 0
-0.695591 -0.660185 2.01 255 255 255
-0.740043 0.508197 2.244 255 255 255
0.84746 -0.392055 1.87 255 255 255
-0.253625 0.659843 1.739 255 255 255
0.85661 -0.377919 1.831 255 255 255
-0.399281 -0.341092 2.593 255 255 255
-0.0566803 -0.524424 2.561 255 255 255
0.835882 0.0422892 2.136 255 255 255
0.108488 -0.519237 2.731 255 255 255
-0.844214 0.0393493 2.638 255 255 255
-0.727122 0.42621 2.356 255 255 255
-0.806506 -0.0342163 2.684 255 255 255
-0.0101092 -0.668875 2.392 255 255 255
-0.504415 -0.666518 2.204 255 255 255
-1.00699 -0.212642 2.383 255 255 255
-0.16021 0.676822 1.739 255 255 255
-0.982905 -0.185646 2.489 255 255 255
-0.439171 0.0325711 2.793 255 255 255
-0.56367 0.61347 1.972 255 255 255
0.981925 0.563178 2.121 255 255 255
-0.414742 0.618002 1.966 255 255 255
-0.561056 0.573928 2.244 255 255 255
-0.104345 0.544282 1.705 255 255 255
-0.564898 -0.733402 1.911 255 255 255
0.873584 -0.524547 1.763 255 255 255
0.228129 0.206493 0.689 255 255 255
0.933206 0.523482 2.128 0 0 0
-0.134846 0.190091 1.575 255 255 255
0.62245 -0.740694 2.244 255 255 255
0.0911094 -0.548248 2.615 255 255 255
0.252882 -0.695113 2.53 255 255 255
0.847816 -0.514095 1.905 255 255 255
0.268614 0.168546 0.659 255 255 255
0.745887 0.141494 2.22 255 255 255
0.888761 -0.1457 1.997 255 255 255
-1.23093 0.0250759 2.499 255 255 255
-0.834129 -0.527516 2.121 255 255 255
-0.0236134 0.151861 1.369 255 255 255
0.228151 0.257904 0.74 255 255 255
-1.11958 -0.305047 2.236 255 255 255
0.739662 0.197669 2.374 255 255 255
-1.12178 0.123244 2.43 255 255 255
-0.354888 -0.430437 2.189 255 255 255
-0.0410636 0.344233 1.52 0 0 0
-0.0550872 0.326827 1.567 0 0 0
-1.11791 0.438165 2.204 255 255 255
-0.117584 0.0140481 1.4 255 255 255
0.875 -0.255288 1.917 255 255 255
-0.50103 0.693632 1.893 255 255 255
-0.712181 0.353535 2.383 255 255 255
0.907699 0.260064 2.53 0 0 0
0.108285 0.424766 1.139 255 255 255
-0.878567 -0.0636801 2.638 255 255 255
0.458443 -0.551565 2.805 255 255 255
0.228585 0.182416 0.687 255 255 255
0.863657 -0.344371 1.859 255 255 255
0.609296 -0.277288 2.44 255 255 255
0.912446 -0.0681126 1.917 255 255 255
0.721141 -0.308784 2.136 255 255 255
-0.532954 0.0998645 2.649 255 255 255
-0.541931 -0.225385 2.672 255 255 255
0.186416 -0.367998 2.982 255 255 255
0.81023 -0.677825 1.744 255 255 255
0.692174 -0.128621 2.269 255 255 255
-0.0392616 0.0151252 1.297 255 255 255
0.642236 -0.609568 2.329 255 255 255
0.517711 -0.465218 2.78 255 255 255
0.168317 0.313162 0.981 255 255 255
-1.16991 0.260465 2.383 255 255 255
0.878788 -0.253615 1.859 255 255 255
0.00300018 0.162743 1.313 0 0 0
-1.1361 0.384624 2.269 255 255 255
0.132069 0.188205 0.939 0 0 0
-0.0107347 -0.50359 2.54 255 255 255
0.588383 0.245879 2.953 0 0 0
-0.54923 -0.39743 2.286 255 255 255
-0.608542 -0.532545 2.244 255 255 255
-0.761209 0.129888 2.561 255 255 255
-0.167212 0.517371 1.815 255 255 255
-0.0549898 -0.838315 2.166 255 255 255
-0.165705 0.390828 1.831 255 255 255
-0.955285 -0.584022 1.842 255 255 255
0.130523 0.170313 0.95 0 0 0
-0.409253 0.489655 2.294 255 255 255
0.878828 -0.146211 2.004 255 255 255
-0.417372 0.365169 2.383 255 255 255
0.811539 -0.60995 1.705 255 255 255
-1.01712 -0.455033 2.121 255 255 255
-0.759243 0.506385 2.236 255 255 255
-0.682675 0.711426 1.859 255 255 255
-0.102935 -0.132445 1.275 255 255 255
-1.25336 0.0571484 2.479 255 255 255
-0.64487 0.521243 2.269 255 255 255
0.372768 -0.365291 2.884 255 255 255
0.599048 -0.71465 2.338 255 255 255
0.0914855 -0.812636 2.303 255 255 255
0.0130196 0.175136 1.249 0 0 0
-0.242274 -0.354787 2.54 255 255 255
-0.961874 0.635661 2.121 255 255 255
-0.746149 -0.468679 2.136 255 255 255
-0.0306308 -0.843655 2.189 255 255 255
-0.900857 -0.633888 1.911 255 255 255
-0.481136 0.565225 2.196 255 255 255
0.741512 -0.656634 1.887 255 255 255
-0.304256 0.595249 1.997 255 255 255
0.742739 0.364833 2.572 0 0 0
0.207467 0.184396 0.735 255 255 255
-0.534756 0.284779 2.459 255 255 255
0.833953 0.102425 2.158 255 255 255
0.903405 0.140614 2.099 255 255 255
-0.281187 0.610261 1.972 255 255 255
0.215935 0.266617 0.765 0 0 0
-0.75768 0.495569 2.253 255 255 255
0.878348 0.19041 2.121 255 255 255
-1.16635 -0.267699 2.228 255 255 255
-0.839469 0.374334 2.392 255 255 255
-0.788671 -0.462429 2.092 255 255 255
0.853157 -0.351995 1.917 255 255 255
-0.466033 0.437192 2.374 255 255 255
-0.920017 0.634296 2.128 255 255 255
0.36095 -0.895639 2.374 255 255 255
0.511381 -0.39536 2.898 255 255 255
0.0305273 0.405039 1.302 255 255 255
-0.0158646 -0.030971 1.283 0 0 0
0.0295104 -0.473752 2.831 255 255 255
0.197876 0.264175 0.872 255 255 255
0.808776 -0.463485 1.953 255 255 255
-0.954485 0.682126 2.004 255 255 255
0.122941 -0.856687 2.261 255 255 255
0.00294534 0.134597 1.289 0 0 0
-0.781937 0.618656 2.158 255 255 255
0.669073 -0.773781 2.051 255 255 255
0.848737 0.0347252 2.099 255 255 255
-0.744789 0.556524 2.204 255 255 255
-0.0729837 -0.662418 2.411 255 255 255
0.258422 0.210306 0.612 255 255 255
-0.212656 -0.377461 2.582 255 255 255
0.754902 -0.144944 2.236 255 255 255
-0.693773 -0.0492412 2.793 255 255 255
0.142866 -0.701271 2.479 255 255 255
0.181798 -0.82367 2.356 255 255 255
-0.0113324 0.0529707 1.244 255 255 255
-0.507517 -0.0272561 2.871 255 255 255
0.0120684 0.375464 1.372 0 0 0
-1.04604 0.69968 2.017 0 0 0
0.168205 0.165156 0.824 255 255 255
0.723021 -0.243409 2.173 255 255 255
0.197061 0.210647 0.779 0 0 0
0.142857 0.164461 0.901 0 0 0
-1.0562 0.428905 2.329 255 255 255
-0.433868 0.200729 2.731 0 0 0
0.758315 -0.650834 1.853 255 255 255
-0.144802 -0.454794 2.499 255 255 255
-0.446634 -0.745892 2.085 255 255 255
-0.274173 0.6129 1.991 0 0 0
0.136231 0.118347 0.896 255 255 255
0.639894 0.208854 2.78 255 255 255
0.859025 -0.0760569 1.882 255 255 255
0.757888 -0.486195 1.905 255 255 255
-0.151943 -0.73339 2.244 255 255 255
0.791699 0.381413 2.489 0 0 0
0.71478 -0.585752 2.107 255 255 255
0.669936 -0.349959 2.244 255 255 255
-1.01049 0.588646 2.151 255 255 255
-0.901973 -0.281188 2.22 255 255 255
0.251912 0.186712 0.623 255 255 255
-0.704036 -0.185415 2.66 255 255 255
0.978472 0.583888 2.121 255 255 255
-0.55725 0.61347 1.972 255 255 255
0.501853 -0.713601 2.582 255 255 255
-0.28155 -0.756156 2.173 255 255 255
-1.02017 0.690406 2.078 255 255 255
-1.1036 0.00906641 2.572 255 255 255
0.728568 -0.347082 2.158 255 255 255
-0.955203 -0.392332 2.278 255 255 255
0.625656 0.286387 2.925 0 0 0
0.813206 -0.635724 1.769 255 255 255
-0.30557 0.398139 2.143 0 0 0
-1.07429 -0.361268 2.078 255 255 255
-0.0548939 -0.0553503 1.222 255 255 255
-0.720259 -0.427229 2.228 255 255 255
0.879737 -0.162241 1.887 255 255 255
0.492853 -0.426487 2.793 255 255 255
-0.00119776 -0.150276 1.234 255 255 255
0.22484 -0.776784 2.365 255 255 255
0.0335645 -0.0712545 1.257 255 255 255
0.0472781 0.0593695 1.1 255 255 255
-1.24125 0.0450459 2.479 255 255 255
-0.613159 -0.700121 1.966 255 255 255
0.595255 -0.360333 2.55 255 255 255
-0.892473 -0.639492 1.947 255 255 255
-0.789426 -0.464275 2.085 255 255 255
-0.532692 0.64173 1.941 255 255 255
-0.527377 -0.660147 2.03 255 255 255
0.18628 0.19241 0.798 255 255 255
-0.703453 -0.547795 1.959 255 255 255
0.735414 -0.630361 1.978 255 255 255
0.630506 -0.486279 2.356 255 255 255
0.142803 0.0994643 0.91 255 255 255
-0.100975 0.14712 1.528 255 255 255
0.402689 -0.792596 2.593 255 255 255
-0.164537 -0.521325 2.43 255 255 255
-1.04257 -0.426213 2.204 255 255 255
0.0814549 -0.335543 2.719 0 0 0
0.567489 0.887451 2.78 255 255 255
0.0363865 0.122166 1.152 255 255 255
0.73334 -0.354938 2.121 255 255 255
-0.102389 -0.565109 2.365 255 255 255
-0.488155 -0.367628 2.572 255 255 255
-0.056847 0.142499 1.48 255 255 255
0.0725543 0.530014 1.466 255 255 255
-0.839469 0.354871 2.392 255 255 255
-0.0734217 0.211216 1.524 255 255 255
-1.27974 -0.129459 2.499 255 255 255
0.0529515 0.339156 1.232 255 255 255
-0.301095 -0.795421 2.136 255 255 255
-0.696812 -0.348458 2.649 255 255 255
-0.160578 -0.755329 2.212 255 255 255
-1.26686 0.0715408 2.42 255 255 255
-0.468273 -0.201891 2.649 255 255 255
0.878654 0.262591 2.236 255 255 255
-0.430657 -0.427853 2.158 255 255 255
-0.030484 0.0233134 1.283 255 255 255
0.200386 0.148227 0.758 255 255 255
-0.465993 0.690456 1.876 255 255 255
-0.238756 -0.705305 2.236 255 255 255
-0.726366 0.589758 2.181 255 255 255
0.651408 -0.20259 2.449 255 255 255
0.649953 -0.83653 2.189 255 255 255
0.0895958 0.238419 1.092 255 255 255
0.782431 -0.664562 1.739 255 255 255
-0.631095 -0.523912 2.286 255 255 255
-0.532581 0.347386 2.449 255 255 255
0.730829 0.163517 2.383 255 255 255
-1.25822 0.0948156 2.411 255 255 255
0.0726094 0.242836 1.104 255 255 255
-0.327032 -0.561908 2.32 255 255 255
-0.911911 0.58705 2.158 255 255 255
-0.944698 -0.634795 1.799 255 255 255
-0.694049 0.62589 2.044 255 255 255
0.749405 -0.649754 1.876 255 255 255
-0.0449987 0.46827 1.571 255 255 255
-0.908783 0.694587 1.815 255 255 255
0.220747 0.168463 0.694 255 255 255
0.715483 -0.440066 2.099 255 255 255
-1.04834 0.431023 2.32 255 255 255
0.737458 -0.233074 2.143 255 255 255
-0.621174 -0.214168 2.695 255 255 255
0.0212029 0.208155 1.252 255 255 255
0.144806 0.157397 0.886 255 255 255
-0.097652 0.429381 1.734 255 255 255
0.24363 0.182526 0.644 255 255 255
-0.328277 0.594902 1.985 255 255 255
-1.07301 0.572507 2.143 255 255 255
-0.444238 -0.228702 2.66 255 255 255
-0.557945 -0.466671 2.261 255 255 255
-0.638131 0.287067 2.411 255 255 255
0.88551 -0.1457 1.997 255 255 255
-0.972479 -0.555299 1.887 255 255 255
-0.848508 -0.218224 2.638 255 255 255
0.610685 -0.00362575 2.672 255 255 255
0.510777 0.9078 2.719 255 255 255
-0.374959 0.243126 2.66 255 255 255
0.554469 -0.539905 2.479 255 255 255
0.60448 -0.393084 2.469 255 255 255
-0.0576744 -0.138787 1.239 255 255 255
-0.33939 -0.776686 2.181 255 255 255
0.540337 -0.43355 2.78 255 255 255
0.239307 0.205483 0.664 255 255 255
0.416822 -0.427314 2.684 255 255 255
0.44411 -0.884081 2.449 255 255 255
0.189007 0.173578 0.772 255 255 255
-0.783026 0.709129 1.853 255 255 255
0.822063 0.0536303 2.173 255 255 255
0.653181 -0.301773 2.212 255 255 255
0.785425 0.0668404 2.261 255 255 255
0.442426 -0.488243 2.707 255 255 255
-0.84019 -0.371636 2.383 255 255 255
0.711003 -0.010579 2.294 255 255 255
0.71346 -0.062404 2.278 255 255 255
-0.880413 -0.38999 2.286 255 255 255
0.091942 0.401167 1.244 0 0 0
-0.182891 -0.605119 2.312 255 255 255
-0.463648 -0.439512 2.181 255 255 255
0.13004 0.108826 0.914 255 255 255
-0.664953 -0.482645 2.121 255 255 255
-0.0595422 -0.820743 2.204 255 255 255
0.933505 0.268001 2.489 0 0 0
-0.126548 0.305667 1.705 255 255 255
0.725039 0.0980639 2.303 255 255 255
0.745674 -0.67327 1.882 255 255 255
0.276157 0.169396 0.654 255 255 255
0.740511 -0.218189 2.204 255 255 255
-1.15049 0.104281 2.449 255 255 255
0.458012 0.891016 2.695 0 0 0
-1.0761 0.453421 2.244 255 255 255
0.7913 0.0297142 2.236 255 255 255
-0.981475 0.463022 2.22 255 255 255
-0.857308 0.566985 2.189 255 255 255
0.477988 0.922321 2.684 255 255 255
0.876071 0.120119 2.099 0 0 0
-0.847257 0.370441 2.392 255 255 255
-0.578467 -0.250345 2.66 255 255 255
-0.477444 -0.348048 2.582 255 255 255
-0.340454 -0.72828 2.143 255 255 255
-0.276809 -0.608486 2.479 255 255 255
0.177035 0.199733 0.834 255 255 255
0.854423 -0.63246 1.691 255 255 255
-0.0698268 -0.822282 2.189 255 255 255
0.452619 -0.68615 2.638 255 255 255
-1.05336 -0.0160465 2.572 255 255 255
-0.053781 -0.560869 2.43 255 255 255
-1.04972 0.488616 2.189 255 255 255
0.696676 0.0284545 2.44 255 255 255
0.202829 0.116944 0.834 255 255 255
-1.26541 0.0641907 2.44 255 255 255
0.118437 0.131635 0.928 255 255 255
0.00592004 0.485452 1.513 255 255 255
0.0292377 0.304729 1.247 0 0 0
-0.826835 -0.29458 2.356 255 255 255
0.708048 -0.311091 2.128 255 255 255
-0.533435 -0.350123 2.695 255 255 255
0.211242 -0.754635 2.43 255 255 255
0.353025 -0.893091 2.347 255 255 255
-0.640216 0.255723 2.449 255 255 255
0.837415 -0.279166 2.071 255 255 255
0.0325213 0.376046 1.297 0 0 0
-0.00393144 0.423899 1.513 0 0 0
0.803016 0.305678 2.499 255 255 255
0.246775 0.200342 0.644 255 255 255
-0.750322 0.604609 2.158 255 255 255
-0.804422 -0.622031 1.972 255 255 255
0.755029 -0.179269 2.303 255 255 255
-0.0320283 0.0749482 1.348 255 255 255
0.923997 0.161722 2.107 255 255 255
0.11532 0.386951 1.1 255 255 255
-0.817824 -0.127018 2.707 255 255 255
-0.136848 -0.501553 2.43 255 255 255
0.244593 0.226148 0.655 255 255 255
-0.508905 0.672239 1.911 255 255 255
0.552895 -0.81486 2.32 255 255 255
-0.538873 -0.337085 2.768 255 255 255
-0.480694 0.552017 2.244 255 255 255
-0.783053 0.0308918 2.649 255 255 255
-0.239532 -0.688896 2.278 255 255 255
-0.848213 0.0676633 2.572 255 255 255
-0.525836 0.214155 2.572 255 255 255
-1.02633 0.327773 2.365 255 255 255
-0.793641 0.341902 2.383 255 255 255
-0.41429 0.284767 2.53 255 255 255
0.71456 -0.585241 2.057 255 255 255
0.00586135 0.573274 1.498 255 255 255
0.107331 0.390297 1.169 0 0 0
-0.83948 0.458187 2.286 255 255 255
1.03407 0.594969 2.136 255 255 255
-1.06398 -0.337819 2.189 255 255 255
0.0974145 0.249116 1.1 255 255 255
-1.03762 0.409304 2.347 255 255 255
0.533337 -0.663854 2.402 255 255 255
-0.152016 0.140675 1.567 255 255 255
0.435443 -0.656099 2.638 255 255 255
-0.42926 -0.699495 2.151 255 255 255
-0.493198 0.502756 2.32 255 255 255
0.568641 -0.282704 2.561 255 255 255
0.00624089 0.462446 1.595 255 255 255
-0.908931 0.287067 2.411 255 255 255
-0.506135 -0.662127 2.121 255 255 255
-0.91903 0.475331 2.244 255 255 255
0.110714 0.414421 1.126 255 255 255
0.235627 0.216708 0.672 255 255 255
-1.21378 0.127722 2.44 255 255 255
-0.436221 0.5967 1.991 255 255 255
-0.093587 0.207504 1.571 255 255 255
-0.54217 0.638571 1.941 255 255 255
0.317652 -0.838386 2.312 255 255 255
0.696508 -0.491373 2.114 255 255 255
-0.888699 -0.109562 2.509 255 255 255
-0.764304 0.717953 1.837 255 255 255
0.0580661 0.455459 1.351 255 255 255
0.832103 -0.61777 1.696 255 255 255
-0.563016 0.378226 2.392 255 255 255
-0.0689871 -0.0614666 1.225 255 255 255
-0.0843487 -0.810617 2.196 255 255 255
0.763082 0.127502 2.228 255 255 255
0.243253 0.152182 0.724 255 255 255
-0.523622 0.712145 1.853 255 255 255
0.681296 -0.086207 2.32 255 255 255
0.95399 0.50963 2.128 0 0 0
-1.00304 -0.0241137 2.54 255 255 255
0.177187 0.133972 0.798 255 255 255
0.890984 -0.0433988 2.078 255 255 255
0.00908235 0.175598 1.267 0 0 0
-1.15097 0.284804 2.392 255 255 255
1.04062 0.614952 2.121 255 255 255
-0.511914 0.0734773 2.793 0 0 0
-1.00327 0.191252 2.44 255 255 255
0.251801 -0.528991 2.604 255 255 255
-0.73759 -0.476046 2.092 255 255 255
0.800525 -0.242874 2.107 255 255 255
0.133028 0.196533 0.935 255 255 255
0.0728283 0.35833 1.229 255 255 255
0.563164 -0.776927 2.212 255 255 255
-0.90731 0.668949 1.842 255 255 255
-0.777784 0.60685 2.166 255 255 255
0.234134 0.206384 0.674 255 255 255
-1.08136 0.439587 2.286 255 255 255
0.83238 -0.140107 2.01 255 255 255
0.867753 -0.332229 1.842 255 255 255
-0.390582 -0.413753 2.294 255 255 255
-1.13577 0.101114 2.469 255 255 255
-0.674985 0.105742 2.582 255 255 255
-1.00344 0.568078 2.166 255 255 255
0.832215 0.292303 2.489 255 255 255
-0.625961 0.658752 1.917 255 255 255
-0.928555 0.283143 2.411 255 255 255
0.180336 -0.722004 2.44 255 255 255
-0.0647902 0.597618 1.555 255 255 255
-1.01092 -0.152722 2.356 255 255 255
-0.925803 0.0264706 2.638 255 255 255
-0.0628736 0.25825 1.509 255 255 255
0.652277 -0.519232 2.173 255 255 255
-0.632448 0.668018 1.899 255 255 255
-0.45447 -0.240482 2.695 255 255 255
0.804403 -0.579196 1.905 255 255 255
-0.593751 -0.167415 2.793 255 255 255
0.468354 -0.873267 2.43 255 255 255
0.785337 0.406473 2.469 0 0 0
-0.190798 0.305222 1.734 255 255 255
-0.162113 -0.707041 2.338 255 255 255
0.888694 -0.161062 1.947 255 255 255
-0.128535 0.588992 1.659 255 255 255
-0.55375 0.570276 2.244 255 255 255
-0.302403 -0.735571 2.196 255 255 255
0.862517 -0.247307 2.004 255 255 255
-0.837047 -0.359814 2.489 255 255 255
-0.998608 0.0177289 2.615 255 255 255
-0.949287 0.531417 2.204 255 255 255
0.18919 -0.83829 2.261 255 255 255
0.638644 0.0861773 2.626 255 255 255
0.732003 -0.371413 2.078 255 255 255
-0.757171 -0.581746 1.966 255 255 255
-0.555924 0.673331 1.923 255 255 255
0.125089 0.156947 0.944 255 255 255
0.812749 0.0109282 2.121 255 255 255
-0.824562 -0.551963 1.929 255 255 255
-0.529398 0.650319 1.929 255 255 255
0.910061 -0.110737 1.899 255 255 255
-0.967533 -0.47885 2.004 255 255 255
0.46925 0.913585 2.684 255 255 255
-0.500352 -0.121077 2.996 255 255 255
0.139146 -0.510141 2.638 255 255 255
-0.836576 -0.635551 1.935 255 255 255
-0.428244 -0.752644 2.03 255 255 255
0.659004 0.201599 2.572 255 255 255
0.609542 -0.49395 2.32 255 255 255
-0.0991963 0.163206 1.539 255 255 255
-0.106555 0.557968 1.696 255 255 255
-0.475816 -0.418861 2.365 255 255 255
0.719907 -0.493068 2.092 255 255 255
-0.88445 0.249785 2.43 255 255 255
0.68084 -0.353441 2.22 255 255 255
-0.28713 0.640545 1.947 0 0 0
1.03366 0.613518 2.128 255 255 255
-0.179131 0.578366 1.758 0 0 0
0.886084 -0.0495102 2.051 255 255 255
0.971567 0.490696 2.121 255 255 255
-0.933158 -0.622226 1.805 255 255 255
-0.190035 0.63948 1.753 255 255 255
0.548927 -0.521941 2.509 255 255 255
0.868501 -0.222352 1.876 255 255 255
0.840246 -0.0955804 2.037 255 255 255
0.14716 0.322481 1 255 255 255
0.56504 -0.359607 2.768 255 255 255
-0.765942 -0.157155 2.695 255 255 255
0.239227 0.178427 0.652 255 255 255
0.0932988 -0.744594 2.449 255 255 255
-0.0796727 0.0563112 1.375 255 255 255
-0.496037 -0.765184 2.037 255 255 255
-0.635871 -0.546549 2.212 255 255 255
-0.417733 -0.631617 2.22 255 255 255
0.550138 0.912944 2.695 255 255 255
0.249144 0.228973 0.642 0 0 0
0.283692 0.192789 0.586 255 255 255
-0.736602 -0.296281 2.684 255 255 255
-0.696785 0.493388 2.294 255 255 255
-0.0136463 0.412383 1.498 255 255 255
-0.114556 -0.138095 1.289 255 255 255
-0.526258 0.64718 1.929 255 255 255
-0.886129 -0.684564 1.799 255 255 255
-0.203459 -0.409483 2.572 255 255 255
0.540337 0.882927 2.78 0 0 0
0.196041 0.118301 0.834 255 255 255
0.657346 -0.764108 1.966 255 255 255
-0.81495 -0.259439 2.459 255 255 255
0.68308 -0.340134 2.181 255 255 255
0.524293 -0.813462 2.489 255 255 255
-0.297677 -0.446136 2.519 255 255 255
0.646313 -0.272962 2.303 255 255 255
0.816169 0.23332 2.383 255 255 255
0.618252 0.297461 2.805 0 0 0
-0.321993 0.612029 1.947 255 255 255
-0.711959 -0.167415 2.793 255 255 255
0.160098 -0.553597 2.561 255 255 255
0.597937 -0.281046 2.509 255 255 255
0.988824 0.430954 2.099 255 255 255
-0.540521 -0.541178 2.107 255 255 255
-0.835728 -0.491302 2.099 255 255 255
0.71298 -0.565971 2.024 255 255 255
0.263139 0.172825 0.643 255 255 255
0.778223 -0.0926187 2.121 255 255 255
-0.100464 -0.125726 1.27 255 255 255
-0.0725158 0.0927999 1.456 255 255 255
-0.0616921 -0.564823 2.43 255 255 255
0.662458 -0.159903 2.294 255 255 255
-0.623341 0.602461 1.978 255 255 255
0.876147 -0.542254 1.774 255 255 255
0.0529515 0.359205 1.232 255 255 255
-0.245208 -0.803469 2.196 255 255 255
0.592017 -0.639684 2.572 255 255 255
-0.593209 -0.720917 1.953 255 255 255
0.233331 0.272982 0.745 255 255 255
0.872735 -0.223362 1.859 255 255 255
-0.152518 0.187783 1.599 255 255 255
0.854361 -0.510161 1.753 255 255 255
0.565975 -0.618928 2.626 255 255 255
0.865448 -0.219299 1.876 255 255 255
-0.123189 -0.00651158 1.412 255 255 255
0.789898 -0.298811 2.044 255 255 255
-0.755819 0.430563 2.338 255 255 255
0.0375962 -0.833926 2.22 255 255 255
-0.979231 -0.583362 1.859 255 255 255
-0.135635 -0.0065577 1.422 255 255 255
-0.874349 0.540209 2.196 255 255 255
-0.643803 -0.59158 2.166 255 255 255
-0.142785 0.476335 1.805 255 255 255
-0.500945 -0.67348 2.071 255 255 255
0.650422 -0.648119 2.278 255 255 255
-0.649242 -0.735884 1.959 255 255 255
-0.369937 -0.158531 2.967 255 255 255
0.901662 -0.0418533 2.004 255 255 255
-0.882193 0.697541 1.815 255 255 255
0.872681 -0.343258 1.821 255 255 255
-0.201449 0.216428 1.659 255 255 255
-0.891132 -0.295639 2.22 255 255 255
-0.250559 -0.559559 2.459 255 255 255
-1.05666 -0.449682 2.196 255 255 255
0.243984 0.155951 0.709 255 255 255
-0.701134 0.627151 1.935 255 255 255
0.345613 -0.557229 2.743 255 255 255
-0.986006 -0.00770539 2.582 255 255 255
0.42591 -0.915702 2.459 255 255 255
-0.855706 0.608121 2.158 255 255 255
-0.829323 0.596856 2.181 255 255 255
0.0670963 0.238809 1.102 0 0 0
0.659902 0.186853 2.66 255 255 255
0.229703 0.201421 0.687 255 255 255
-0.285484 -0.631457 2.383 255 255 255
-0.0704289 0.197381 1.513 255 255 255
0.170766 0.125197 0.817 255 255 255
-0.0760148 0.553187 1.633 255 255 255
-0.97555 -0.567582 1.887 255 255 255
-0.894636 0.662909 1.911 255 255 255
-0.460772 -0.674993 2.151 255 255 255
-0.00668318 -0.530862 2.572 255 255 255
0.15252 0.248352 0.924 255 255 255
-0.632929 0.49143 2.32 255 255 255
0.236753 0.217917 0.669 255 255 255
-0.381856 0.608899 1.978 255 255 255
-0.46178 0.362656 2.392 255 255 255
-0.977758 -0.311207 2.228 255 255 255
-0.0830661 -0.14694 1.257 255 255 255
0.164655 -0.833471 2.278 255 255 255
-1.15306 0.452994 2.189 255 255 255
-0.230174 -0.808033 2.189 255 255 255
-0.610022 0.688363 1.887 255 255 255
0.577841 -0.431429 2.392 255 255 255
0.180165 -0.518022 2.55 255 255 255
0.000807665 -0.105667 1.229 255 255 255
-0.779775 0.14949 2.54 255 255 255
-0.602033 -0.422082 2.22 255 255 255
0.190841 0.216464 0.841 255 255 255
0.636319 -0.652671 2.294 255 255 255
0.595897 -0.114671 2.626 255 255 255
0.11499 0.42584 1.132 255 255 255
-0.446402 0.682066 1.821 255 255 255
0.110525 0.433698 1.143 255 255 255
0.316033 -0.649697 2.719 255 255 255
0.865433 -0.434329 1.691 255 255 255
-0.0786597 -0.105607 1.252 255 255 255
0.829547 0.438616 2.469 0 0 0
0.624376 -0.496154 2.212 255 255 255
-0.175184 0.18715 1.616 255 255 255
-0.10967 -0.677979 2.356 255 255 255
0.201378 0.164955 0.739 255 255 255
0.0362285 0.116036 1.147 0 0 0
-0.00520673 -0.150032 1.232 255 255 255
0.157252 0.108009 0.883 255 255 255
-0.62061 0.329021 2.374 255 255 255
0.407392 -0.565892 2.831 255 255 255
0.264099 0.205206 0.6 255 255 255
0.102926 -0.732453 2.489 255 255 255
-0.370412 0.0276447 2.755 255 255 255
-0.657959 -0.270075 2.684 255 255 255
-1.15118 0.0686921 2.459 255 255 255
-1.01557 -0.258696 2.53 255 255 255
-0.677597 0.265847 2.469 255 255 255
-0.728511 -0.36219 2.593 255 255 255
0.865484 -0.504526 1.724 255 255 255
-0.116905 0.343415 1.686 255 255 255
0.0979547 0.161825 1.013 255 255 255
0.218811 -0.633357 2.615 255 255 255
0.147972 0.38587 1.077 255 255 255
0.634216 -0.774565 2.136 255 255 255
0.285482 0.181618 0.606 255 255 255
0.725802 0.129102 2.392 255 255 255
-0.987956 0.367291 2.347 255 255 255
0.779544 0.316606 2.489 255 255 255
-0.812737 -0.266655 2.489 255 255 255
-0.812852 -0.35892 2.54 255 255 255
0.855757 0.154598 2.151 0 0 0
-0.518163 0.431686 2.365 255 255 255
-0.813829 0.655826 2.044 255 255 255
0.547457 -0.882452 2.329 255 255 255
0.751443 -0.607291 2.03 255 255 255
-0.923275 0.430563 2.338 255 255 255
0.553684 -0.0811888 2.649 255 255 255
0.0914855 -0.805141 2.303 255 255 255
-0.0193764 0.451778 1.567 255 255 255
-0.870014 0.0919826 2.55 255 255 255
-0.700455 0.661837 1.899 255 255 255
-0.479478 0.220124 2.593 255 255 255
0.126213 -0.634157 2.469 255 255 255
-0.935329 -0.472503 1.991 255 255 255
0.79075 -0.309269 2.004 255 255 255
0.0107929 0.108155 1.227 0 0 0
-0.389291 -0.581811 2.143 255 255 255
0.788225 -0.113256 2.057 255 255 255
-1.0613 -0.131205 2.383 255 255 255
-0.769062 -0.494811 2.085 255 255 255
-0.60291 0.722827 1.865 255 255 255
0.208663 0.153298 0.735 255 255 255
0.559719 -0.549313 2.449 255 255 255
-0.306422 -0.319993 2.593 255 255 255
-0.919469 0.354469 2.338 255 255 255
-0.783053 0.0395134 2.649 255 255 255
-0.850288 -0.126423 2.604 255 255 255
0.943598 0.402278 2.128 255 255 255
0.100812 0.246876 1.098 255 255 255
0.873968 -0.554528 1.758 255 255 255
0.801786 0.0146848 2.166 255 255 255
-0.516497 0.00993357 2.818 255 255 255
0.758129 -0.361448 2.004 255 255 255
-0.127781 -0.741561 2.269 255 255 255
-0.431321 0.0836909 2.831 255 255 255
0.0425462 0.406845 1.281 255 255 255
0.183626 0.12 0.827 255 255 255
0.00295676 0.229878 1.294 0 0 0
0.303705 -0.485732 2.768 255 255 255
0.080699 0.413655 1.227 0 0 0
-0.265489 -0.636997 2.278 255 255 255
0.295844 0.180333 0.605 255 255 255
0.727635 -0.0653855 2.253 255 255 255
0.572592 -0.209216 2.805 255 255 255
0.391861 -0.854146 2.55 255 255 255
0.145629 0.230185 0.9 0 0 0
-0.929084 0.13655 2.53 255 255 255
0.184854 0.155266 0.781 255 255 255
-0.292919 0.409734 2.078 0 0 0
0.551114 -0.790472 2.519 255 255 255
-0.0129813 0.352865 1.425 255 255 255
-0.915118 -0.621004 1.81 255 255 255
-1.06951 0.518498 2.136 255 255 255
-0.415497 0.463016 2.329 255 255 255
-0.978459 0.549174 2.189 255 255 255
-0.529328 0.712629 1.831 255 255 255
-0.973442 -0.38627 2.286 255 255 255
0.452064 -0.704858 2.66 255 255 255
0.33682 -0.372257 2.939 255 255 255
0.601402 -0.878763 2.261 255 255 255
-0.474967 0.111844 2.844 255 255 255
0.535335 -0.682035 2.411 255 255 255
0.771608 -0.655649 1.753 255 255 255
-0.262709 -0.812052 2.107 255 255 255
0.896396 -0.318498 1.815 255 255 255
-1.06051 -0.404694 2.204 255 255 255
0.807014 -0.458367 1.972 255 255 255
-0.397145 -0.191642 2.884 255 255 255
-0.371484 -0.744964 2.121 255 255 255
0.0370555 0.426063 1.308 255 255 255
0.539554 -0.825814 2.43 255 255 255
0.259989 0.236808 0.611 0 0 0
-0.0391732 0.44737 1.543 255 255 255
-0.465722 -0.178352 2.684 255 255 255
0.218251 -0.354809 2.953 255 255 255
0.717541 -0.16053 2.303 255 255 255
-0.6615 -0.55858 2.121 255 255 255
0.743347 -0.58699 2.017 255 255 255
0.868929 0.224291 2.411 255 255 255
0.233988 0.139525 0.751 255 255 255
-0.11112 0.494237 1.724 255 255 255
-0.995014 0.211885 2.449 255 255 255
-0.699519 0.484081 2.303 255 255 255
0.00482055 0.00434285 1.232 255 255 255
0.911877 0.426038 2.143 0 0 0
0.686785 0.311629 2.582 0 0 0
-0.0693996 0.56911 1.603 255 255 255
-0.787466 -0.452029 2.107 255 255 255
0.69463 0.111361 2.519 255 255 255
0.274524 0.176406 0.626 255 255 255
-0.88989 0.00072247 2.672 255 255 255
-0.276435 -0.430878 2.55 255 255 255
-0.502855 -0.0463764 2.898 255 255 255
-0.665087 -0.516174 1.997 255 255 255
-0.682504 0.625291 2.01 255 255 255
0.152348 0.305179 0.981 255 255 255
0.845146 -0.305426 1.899 255 255 255
0.00763493 0.370378 1.378 0 0 0
-0.661385 -0.421392 2.143 255 255 255
0.269581 0.185721 0.597 255 255 255
-0.133694 -0.656115 2.374 255 255 255
0.413233 -0.898945 2.479 255 255 255
-0.722658 0.319838 2.392 255 255 255
0.0530346 -0.445558 2.857 255 255 255
-0.171666 0.411685 1.831 255 255 255
0.365482 -0.901402 2.329 255 255 255
-0.646361 0.720501 1.859 255 255 255
-0.112884 0.185147 1.555 255 255 255
-0.352624 0.316227 2.365 255 255 255
0.239661 0.201286 0.668 255 255 255
-0.0421172 0.581396 1.559 255 255 255
-0.0219161 0.267507 1.403 0 0 0
-0.0573848 0.250821 1.494 255 255 255
-0.69412 -0.617462 2.064 255 255 255
0.702522 -0.407631 2.22 255 255 255
-0.739853 -0.594169 1.997 255 255 255
0.763866 -0.396784 1.985 255 255 255
0.556028 0.901638 2.768 255 255 255
-0.672442 -0.049012 2.78 255 255 255
-0.0174252 -0.711899 2.329 255 255 255
0.541774 -0.710092 2.44 255 255 255
-0.963122 -0.138824 2.449 255 255 255
0.000936471 0.380692 1.425 0 0 0
-0.627697 -0.649804 2.196 255 255 255
0.0235627 0.0212056 1.167 255 255 255
0.602854 -0.509197 2.338 255 255 255
-0.491868 -0.23303 2.66 255 255 255
0.110072 -0.5661 2.561 255 255 255
0.83638 -0.577562 1.794 255 255 255
-0.0229925 0.110991 1.333 255 255 255
-0.851086 -0.577911 1.911 255 255 255
0.017921 0.559385 1.487 255 255 255
-0.502764 0.447081 2.365 255 255 255
-1.23141 0.173932 2.42 255 255 255
-0.994752 -0.0362121 2.519 255 255 255
-0.894237 -0.445407 2.092 255 255 255
-0.8984 0.673498 2.078 255 255 255
0.514446 -0.666122 2.561 255 255 255
-0.918079 0.575561 2.181 255 255 255
-1.02705 0.643992 2.092 255 255 255
-0.627305 -0.645012 2.099 255 255 255
-0.197121 -0.591363 2.347 255 255 255
-0.0161277 0.535696 1.502 255 255 255
-0.215959 -0.55296 2.43 255 255 255
-0.0851579 -0.553191 2.54 255 255 255
-0.843968 0.612348 2.173 255 255 255
-0.604438 -0.283213 2.604 255 255 255
-0.562313 -0.639989 2.151 255 255 255
-0.531994 -0.642741 2.114 255 255 255
0.963185 -0.155685 1.882 255 255 255
-0.242161 -0.64024 2.303 255 255 255
-0.277445 -0.521416 2.449 255 255 255
0.0956408 0.403937 1.143 0 0 0
-0.959234 -0.498541 1.941 255 255 255
-0.858935 -0.0516873 2.684 255 255 255
0.807447 -0.615573 1.769 255 255 255
-0.655362 -0.521143 2.181 255 255 255
0.205393 0.248184 0.856 255 255 255
0.692498 -0.0788289 2.572 255 255 255
0.229002 0.257357 0.735 255 255 255
0.290102 0.195123 0.576 255 255 255
-0.647328 -0.588055 2.166 255 255 255
-0.981919 -0.391929 2.173 255 255 255
-0.337029 -0.450595 2.236 255 255 255
-0.964271 -0.472327 2.004 255 255 255
0.742014 0.10106 2.286 255 255 255
0.505819 -0.920869 2.42 255 255 255
0.422917 -0.591334 2.695 255 255 255
-0.954064 0.576515 2.158 255 255 255
0.873015 -0.531556 1.739 255 255 255
0.906064 -0.295198 1.799 255 255 255
0.277052 0.180185 0.618 255 255 255
0.871106 -0.359991 1.758 255 255 255
0.53263 -0.392397 2.911 255 255 255
0.275578 0.221753 0.577 255 255 255
-1.22502 -0.00349006 2.572 255 255 255
0.361055 -0.828164 2.509 255 255 255
-0.693781 -0.419493 2.347 255 255 255
-0.396399 0.0686113 2.78 255 255 255
0.208663 0.205926 0.735 255 255 255
-0.947191 0.700494 1.815 255 255 255
0.722576 -0.52534 1.935 255 255 255
0.0535991 0.0972247 1.083 255 255 255
-0.846972 0.228756 2.459 255 255 255
-0.328527 -0.566563 2.278 255 255 255
-0.520392 0.389077 2.411 255 255 255
0.420142 -0.297143 2.953 255 255 255
0.757341 -0.66706 1.753 255 255 255
-1.09917 0.432625 2.269 255 255 255
-0.631976 -0.370223 2.561 255 255 255
0.127899 0.105049 0.92 255 255 255
-1.00666 -0.504855 1.917 255 255 255
0.958037 0.526918 2.114 0 0 0
0.239367 0.240177 0.709 255 255 255
0.0329193 0.127008 1.162 0 0 0
-0.428917 0.666014 1.929 255 255 255
0.210712 0.124203 0.802 255 255 255
-0.88445 0.261648 2.43 255 255 255
0.87273 -0.0595232 2.051 255 255 255
-0.53576 0.405474 2.392 255 255 255
0.719687 -0.155625 2.286 255 255 255
-0.655271 0.0608138 2.638 255 255 255
0.256536 0.161583 0.684 255 255 255
0.696286 -0.0737147 2.54 255 255 255
0.511112 -0.448159 2.844 255 255 255
-1.08515 0.629068 2.099 255 255 255
-0.680341 0.210446 2.479 255 255 255
0.200318 0.17939 0.744 255 255 255
0.842475 -0.498656 1.859 255 255 255
-0.629152 0.487654 2.32 255 255 255
-0.785562 -0.707395 1.859 255 255 255
-0.390185 -0.361888 2.561 255 255 255
-0.0951155 -0.0874098 1.254 255 255 255
-0.700906 0.468777 2.32 255 255 255
0.144601 0.194667 0.912 255 255 255
-0.710294 -0.686388 1.876 255 255 255
-0.0772391 -0.00614726 1.333 255 255 255
0.841721 -0.346926 1.941 255 255 255
-0.112461 0.000376647 1.393 255 255 255
-0.744594 0.476934 2.269 255 255 255
0.635176 -0.188935 2.479 255 255 255
-0.847537 -0.50798 1.953 255 255 255
0.254507 0.240138 0.617 0 0 0
0.206907 -0.623201 2.626 255 255 255
0.229773 0.265167 0.88 0 0 0
-1.11054 0.551185 2.128 255 255 255
-0.0248209 0.344623 1.439 255 255 255
-1.09942 0.00488092 2.572 255 255 255
-0.516344 0.0457929 2.768 0 0 0
0.884611 -0.0466228 2.071 255 255 255
-0.5239 -0.372202 2.604 255 255 255
0.13988 0.178409 0.92 0 0 0
0.180431 0.210481 0.85 255 255 255
-0.227165 -0.643988 2.303 255 255 255
-0.888699 -0.101396 2.509 255 255 255
-0.0651236 0.308188 1.563 255 255 255
0.247439 0.206309 0.643 255 255 255
0.83282 -0.336407 1.935 255 255 255
-0.934331 -0.57991 1.848 255 255 255
-0.615932 -0.652637 2.017 255 255 255
-0.847908 0.664548 2.03 255 255 255
0.280868 -0.82688 2.173 255 255 255
-0.614209 0.227497 2.489 255 255 255
-0.147552 -0.820145 2.128 255 255 255
-0.425777 0.68171 1.929 0 0 0
0.824547 -0.581921 1.826 255 255 255
0.917072 0.130367 2.099 255 255 255
0.596679 -0.443635 2.374 255 255 255
0.27229 0.202141 0.58 255 255 255
0.854837 -0.291997 1.853 255 255 255
0.810868 0.379268 2.449 0 0 0
-1.09453 0.501136 2.151 255 255 255
-0.609001 -0.207226 2.719 255 255 255
-0.44382 -0.343846 2.582 255 255 255
0.749616 -0.214128 2.128 255 255 255
-0.536876 0.201558 2.626 255 255 255
0.478576 0.000776277 2.871 255 255 255
0.24941 0.226176 0.64 255 255 255
0.175008 0.127073 0.812 255 255 255
-0.0176272 -0.689481 2.356 255 255 255
0.246429 -0.602024 2.684 255 255 255
-0.669416 -0.669997 2.01 255 255 255
0.087089 -0.817798 2.286 255 255 255
-0.885655 -0.66224 1.81 255 255 255
-0.854886 0.674267 1.865 255 255 255
-0.0646211 -0.591024 2.392 255 255 255
0.828405 -0.217026 2.057 255 255 255
0.858243 0.0624947 2.114 0 0 0
-0.0631027 -0.028523 1.267 255 255 255
-1.06459 0.459409 2.22 255 255 255
0.358415 1.0443 2.672 0 0 0
-0.966096 -0.492377 1.917 255 255 255
-0.0608235 0.0510444 1.354 255 255 255
0.874354 0.210052 2.383 255 255 255
-1.11738 -0.249587 2.261 255 255 255
0.883365 0.0686531 2.092 255 255 255
-0.23091 -0.771307 2.196 255 255 255
-0.432326 0.461 2.338 255 255 255
0.992283 0.507953 2.121 255 255 255
0.69826 -0.342422 2.173 255 255 255
-0.236395 -0.629865 2.32 255 255 255
0.1057 0.229459 1.075 255 255 255
-1.19097 -0.210428 2.402 255 255 255
0.873015 -0.525896 1.739 255 255 255
0.0335645 -0.0773911 1.257 255 255 255
0.892255 0.264196 2.189 0 0 0
-1.08921 -0.336547 2.204 255 255 255
0.194525 0.199238 0.779 0 0 0
0.81263 -0.46523 1.947 255 255 255
0.767195 -0.652046 1.831 255 255 255
0.775689 -0.648204 1.837 255 255 255
0.742813 -0.490458 1.972 255 255 255
0.568602 -0.756502 2.338 255 255 255
-0.341421 -0.803573 2.085 255 255 255
-0.975971 -0.536798 1.876 255 255 255
-0.836576 -0.66704 1.935 255 255 255
0.644027 -0.499848 2.181 255 255 255
0.238876 0.237447 0.675 255 255 255
-0.486394 -0.631617 2.22 255 255 255
0.180942 -0.536927 2.561 255 255 255
0.699721 -0.722272 1.882 255 255 255
-0.139703 -0.47409 2.411 255 255 255
0.0619488 -0.807309 2.32 255 255 255
-1.07429 0.493929 2.181 255 255 255
-0.0515976 0.30596 1.539 255 255 255
-0.614267 -0.53935 2.212 255 255 255
0.810959 -0.463371 1.966 255 255 255
-0.908474 -0.312324 2.236 255 255 255
0.704883 -0.219565 2.374 255 255 255
0.272517 0.173558 0.638 255 255 255
-0.435414 -0.360653 2.582 255 255 255
0.549969 -0.674145 2.356 255 255 255
-0.202024 0.315168 1.758 255 255 255
0.648124 -0.805848 2.136 255 255 255
-0.921988 -0.173767 2.615 255 255 255
-0.630109 0.618989 1.959 255 255 255
-0.690634 0.495388 2.286 255 255 255
-0.107372 0.123517 1.513 255 255 255
-0.0520405 -0.156167 1.249 255 255 255
0.775867 -0.167373 2.244 255 255 255
-1.02057 -0.458485 2.121 255 255 255
-0.331 -0.714129 2.196 255 255 255
-0.478536 0.698925 1.842 255 255 255
-0.0926069 -0.658494 2.411 255 255 255
-0.5043 -0.767518 2.017 255 255 255
0.235523 0.220849 0.678 255 255 255
-0.837582 0.659822 2.121 0 0 0
-0.196404 -0.678802 2.294 255 255 255
0.989163 0.33659 2.107 255 255 255
-0.151942 -0.0301787 1.445 0 0 0
-0.967243 -0.468827 2.017 255 255 255
0.244159 0.191926 0.651 255 255 255
-0.879328 -0.635107 1.953 255 255 255
-0.610983 0.550565 2.253 255 255 255
0.934713 0.187178 2.085 255 255 255
-0.614165 -0.719944 1.959 255 255 255
-0.896265 0.401665 2.347 255 255 255
0.154076 0.102537 0.898 255 255 255
0.0530211 -0.328339 2.626 0 0 0
0.801873 -0.593645 1.714 255 255 255
0.634369 -0.0078367 2.626 255 255 255
-0.915414 -0.596737 1.799 255 255 255
0.687026 0.079417 2.42 255 255 255
0.748138 -0.369441 2.03 255 255 255
0.264505 0.177873 0.624 255 255 255
0.857883 -0.322944 1.893 255 255 255
0.241296 0.240975 0.649 0 0 0
0.177962 0.264739 0.908 255 255 255
-0.667552 -0.525994 1.985 255 255 255
-0.777835 -0.438783 2.269 255 255 255
-0.819572 -0.261866 2.561 255 255 255
0.0940241 0.103271 0.989 255 255 255
-0.317855 -0.713144 2.204 255 255 255
-0.412627 0.547745 2.212 255 255 255
-0.587483 0.0854554 2.604 255 255 255
-0.49415 -0.671246 2.085 255 255 255
0.957757 0.445825 2.121 255 255 255
0.0422805 0.387731 1.273 255 255 255
-0.999301 0.207135 2.44 255 255 255
0.217805 0.252846 0.75 0 0 0
0.720876 -0.0586969 2.278 255 255 255
-0.0868956 0.186229 1.543 255 255 255
-0.0721978 0.275534 1.551 255 255 255
-0.474548 0.178196 2.66 255 255 255
-1.1323 0.0894215 2.479 255 255 255
-1.13623 -0.147887 2.402 255 255 255
-0.629065 -0.652637 2.017 255 255 255
0.265772 0.208337 0.595 255 255 255
-0.978654 0.576515 2.158 255 255 255
-0.029504 0.544735 1.563 255 255 255
0.663423 -0.23331 2.479 255 255 255
0.834517 -0.397633 1.882 255 255 255
0.5779 -0.165085 2.831 255 255 255
-1.2915 -0.139299 2.53 255 255 255
-0.717026 -0.323933 2.66 255 255 255
-0.808022 0.596856 2.181 255 255 255
0.202928 0.130387 0.792 255 255 255
0.634526 -0.709511 2.261 255 255 255
0.261266 0.227979 0.614 255 255 255
0.876372 -0.258253 1.893 255 255 255
0.660136 -0.757835 2.044 255 255 255
-0.090509 0.555253 1.655 255 255 255
-0.96729 -0.396077 2.196 255 255 255
0.0865134 0.241516 1.098 255 255 255
0.740045 -0.651539 1.899 255 255 255
0.663423 -0.237344 2.479 255 255 255
-1.19254 -0.207975 2.374 255 255 255
0.572912 -0.469176 2.489 255 255 255
-0.452539 -0.606921 2.196 255 255 255
0.0295424 0.454267 1.354 255 255 255
-0.0126898 0.281468 1.393 0 0 0
-0.940579 0.0629348 2.55 255 255 255
0.138815 0.202309 0.913 255 255 255
-0.345772 0.414993 2.294 255 255 255
-0.267023 -0.804429 2.114 255 255 255
0.224115 0.190696 0.701 255 255 255
-1.24749 0.241076 2.383 255 255 255
-0.753946 -0.0525924 2.731 255 255 255
-1.01916 0.17537 2.44 255 255 255
-0.328332 0.637377 1.947 255 255 255
0.0587922 0.57361 1.48 255 255 255
0.956133 -0.102428 1.917 255 255 255
0.18138 0.155376 0.788 255 255 255
0.310232 -0.505864 2.707 255 255 255
-0.877523 -0.503298 1.935 255 255 255
-0.464712 -0.479885 2.22 255 255 255
0.0258987 0.0119108 1.187 255 255 255
-0.952733 0.511749 2.212 255 255 255
0.625215 -0.411164 2.365 255 255 255
-0.124421 0.0231611 1.4 255 255 255
-1.10924 0.102753 2.509 255 255 255
-1.11783 0.123244 2.43 255 255 255
-0.936096 -0.59579 1.805 255 255 255
-0.0122798 0.147338 1.348 255 255 255
-0.828352 -0.0822615 2.684 255 255 255
0.698152 0.405789 2.593 255 255 255
0.942964 0.274979 2.593 0 0 0
0.368376 -0.560221 2.78 255 255 255
0.292184 -0.459931 2.831 255 255 255
0.874415 -0.543439 1.714 255 255 255
-0.867104 0.501008 2.261 255 255 255
-0.0661526 0.266475 1.528 255 255 255
-0.558249 0.180191 2.626 255 255 255
0.0846078 -0.807309 2.32 255 255 255
0.0784244 0.221 1.085 0 0 0
0.882775 0.433659 2.294 255 255 255
-0.751319 0.676079 1.887 255 255 255
0.629023 0.0416735 2.519 255 255 255
0.0190424 -0.0968347 1.244 255 255 255
0.192028 0.17916 0.769 255 255 255
-0.226063 0.565532 1.887 255 255 255
-0.0236812 0.424739 1.516 255 255 255
-0.0531613 -0.573951 2.402 255 255 255
-0.175266 0.67748 1.748 255 255 255
-1.13888 0.291489 2.383 255 255 255
0.735686 -0.0249553 2.244 255 255 255
0.712199 -0.569981 2.151 255 255 255
0.255968 0.211044 0.623 255 255 255
0.238619 -0.811977 2.143 255 255 255
0.0992715 -0.723196 2.499 255 255 255
-0.546898 -0.138706 2.857 255 255 255
0.769082 -0.184737 2.278 255 255 255
0.0150286 -0.066629 1.247 255 255 255
0.191008 0.120905 0.824 255 255 255
-0.910861 -0.600192 1.893 255 255 255
-0.695069 -0.0218682 2.78 255 255 255
-0.824579 0.657749 2.071 255 255 255
-0.814726 -0.302699 2.626 255 255 255
0.236064 0.21953 0.664 255 255 255
0.495464 0.90485 2.684 255 255 255
0.804927 -0.645823 1.789 255 255 255
0.915018 -0.126964 1.865 255 255 255
0.709172 -0.455033 2.121 255 255 255
0.705651 -0.403225 2.196 255 255 255
-0.491868 0.152224 2.66 255 255 255
0.448339 -0.227042 2.857 255 255 255
0.104417 0.115017 0.966 255 255 255
0.915227 -0.297297 1.794 255 255 255
-0.608234 0.410874 2.356 255 255 255
-0.797175 0.520825 2.22 255 255 255
0.2734 -0.542444 2.649 255 255 255
0.798505 -0.586051 1.959 255 255 255
-0.819614 -0.14341 2.684 255 255 255
-0.0113324 0.0489219 1.244 255 255 255
0.222081 0.237136 0.728 0 0 0
-0.99124 -0.573432 1.876 255 255 255
0.781984 -0.182657 2.085 255 255 255
-1.1639 0.0810251 2.469 255 255 255
-0.350938 0.210539 2.743 0 0 0
0.536053 -0.465087 2.626 255 255 255
-0.0173094 -0.15668 1.237 255 255 255
-1.14664 0.241076 2.383 255 255 255
0.666681 -0.513975 2.151 255 255 255
-0.0171975 -0.149667 1.229 255 255 255
-0.893541 0.0469175 2.582 255 255 255
-0.800406 -0.518894 2.114 255 255 255
-0.500416 0.032711 2.805 255 255 255
-0.899679 0.0750882 2.54 255 255 255
0.054743 -0.562771 2.509 255 255 255
-0.798551 -0.0210186 2.672 255 255 255
0.0523106 -0.462405 2.818 255 255 255
-1.12841 0.27036 2.402 255 255 255
0.622442 -0.317793 2.509 255 255 255
0.242822 0.142921 0.737 255 255 255
0.747655 -0.641281 1.887 255 255 255
-0.531103 -0.531791 2.181 255 255 255
0.40563 -0.327745 2.884 255 255 255
-0.746222 -0.716471 1.859 255 255 255
0.235929 0.190496 0.676 255 255 255
0.689625 -0.467292 2.114 255 255 255
0.746228 -0.503205 1.899 255 255 255
0.727872 0.16617 2.312 255 255 255
0.419266 -0.871464 2.54 255 255 255
0.902458 -0.13446 1.929 255 255 255
0.260711 0.166749 0.669 255 255 255
-0.577956 0.618002 1.966 255 255 255
0.63479 -0.537924 2.236 255 255 255
0.140079 0.102993 0.902 255 255 255
-0.507082 0.125729 2.649 255 255 255
-0.726552 0.382119 2.392 255 255 255
0.231023 0.202987 0.681 255 255 255
0.0708728 0.315622 1.196 255 255 255
-1.16657 -0.232929 2.278 255 255 255
0.597534 -0.55317 2.347 255 255 255
0.844416 -0.401184 1.87 255 255 255
0.579599 0.257999 2.982 0 0 0
-0.551379 0.653458 1.929 255 255 255
0.513055 0.883953 2.755 0 0 0
-0.886617 -0.0906037 2.55 255 255 255
-1.14966 -0.00767555 2.572 255 255 255
0.725216 -0.517333 1.917 255 255 255
0.0509725 0.517025 1.463 255 255 255
-0.859186 -0.545072 2.057 255 255 255
0.862407 -0.46585 1.837 255 255 255
