ply
format ascii 1.0
comment Created by Open3D
element vertex 1304
property double x
property double y
property double z
property uchar red
property uchar green
property uchar blue
end_header
0.69018 0.419396 2.181 255 255 255
0.149516 0.266365 0.699 255 255 255
-0.62538 -0.326192 1.509 255 255 255
0.117213 -0.627142 1.978 255 255 255
0.40191 0.200741 2.672 255 255 255
0.696322 -0.234768 1.624 255 255 255
0.078528 -0.673171 1.899 255 255 255
-0.640318 -0.282588 1.539 255 255 255
-0.325273 0.755615 2.158 255 255 255
0.0598247 0.114921 0.792 255 255 255
0.580445 -0.0158112 2.01 255 255 255
-0.0652731 0.246554 0.964 255 255 255
0.33039 -0.420218 2.173 255 255 255
0.706684 -0.0172878 1.821 255 255 255
0.427054 0.0452276 2.489 255 255 255
0.608934 -0.404646 1.682 255 255 255
-0.00603786 0.139423 0.807 255 255 255
0.819294 0.728573 2.294 255 255 255
-0.457509 -0.387069 1.677 255 255 255
0.745512 -0.0770012 1.7 255 255 255
0.00904635 -0.153633 2.312 255 255 255
0.591163 -0.0318618 1.991 255 255 255
0.120127 0.248985 0.735 0 0 0
0.55369 0.631998 2.44 255 255 255
0.512277 -0.411766 1.784 255 255 255
-0.684591 0.627747 1.997 255 255 255
-0.519264 -0.450494 1.466 255 255 255
0.646875 -0.381791 1.587 255 255 255
-0.26504 -0.572902 1.587 255 255 255
0.839146 0.221388 1.763 255 255 255
-0.635456 -0.453719 1.348 255 255 255
0.722946 0.162228 1.911 255 255 255
0.155442 0.230932 0.685 255 255 255
-0.419508 -0.395144 1.7 255 255 255
-0.161159 -0.125843 2.22 255 255 255
0.368372 -0.486317 2.107 255 255 255
-0.435539 -0.446356 1.587 255 255 255
-0.390744 0.693658 2.151 255 255 255
-0.508002 0.129715 2.204 255 255 255
-0.801212 0.600633 1.972 255 255 255
0.694827 -0.206943 1.821 255 255 255
-0.0408865 -0.330745 2.166 255 255 255
-0.984384 0.301525 1.947 255 255 255
0.109997 -0.0295816 2.66 255 255 255
0.862875 0.126665 1.686 255 255 255
0.171386 -0.0253669 2.672 255 255 255
-0.950161 0.424436 2.051 255 255 255
-0.299179 -0.515333 1.677 255 255 255
0.0852457 -0.615229 1.911 255 255 255
0.909861 0.602602 2.114 255 255 255
0.655307 0.0763323 1.941 255 255 255
0.12707 -0.353858 2.269 255 255 255
-0.343784 0.275296 2.411 255 255 255
0.787741 -0.109975 1.655 255 255 255
0.0548989 0.00515988 2.719 255 255 255
-0.778515 0.598478 2.03 255 255 255
0.413233 0.553349 2.479 255 255 255
-0.342673 -0.487058 1.637 255 255 255
0.636043 0.187178 2.085 255 255 255
0.692626 0.623569 2.32 255 255 255
0.161831 0.244355 0.661 255 255 255
0.744478 -0.275789 1.543 255 255 255
0.0861298 0.106856 0.809 255 255 255
0.609135 0.250747 2.196 255 255 255
-0.716211 -0.128739 1.62 255 255 255
0.169732 -0.295454 2.459 255 255 255
-0.122848 -0.465379 1.859 255 255 255
-0.27344 -0.457978 1.739 255 255 255
-0.696961 0.38175 2.189 255 255 255
-1.0881 0.529869 2.085 255 255 255
-0.0544903 -0.468827 2.017 255 255 255
-0.52745 0.201499 2.166 255 255 255
-0.591712 0.0697152 2.024 255 255 255
-0.455433 0.249804 2.32 255 255 255
-0.0367458 0.103271 2.626 255 255 255
0.116176 0.12792 0.826 255 255 255
-0.419861 -0.500476 1.539 255 255 255
0.340597 -0.0800127 2.479 255 255 255
0.607223 0.42524 2.269 255 255 255
0.582018 0.516871 2.459 255 255 255
-0.5282 -0.435385 1.432 255 255 255
0.646556 -0.0786151 1.87 255 255 255
0.679583 -0.351685 1.591 255 255 255
0.0348834 0.117288 0.782 255 255 255
-0.897747 0.700227 1.911 255 255 255
-0.465065 -0.23112 1.779 255 255 255
0.700784 -0.223093 1.616 255 255 255
-0.902697 0.499241 2.128 255 255 255
-0.73627 0.436044 2.158 255 255 255
0.691633 0.230579 1.991 255 255 255
0.78873 0.157373 1.753 255 255 255
0.459413 -0.40694 1.941 255 255 255
0.394656 -0.374636 2.196 255 255 255
-0.47266 -0.132138 1.941 255 255 255
-0.905486 0.0815888 1.719 255 255 255
-0.518971 -0.386776 1.664 255 255 255
0.558001 0.568892 2.459 255 255 255
-0.169993 -0.305768 2.024 255 255 255
0.666078 -0.0480552 1.865 255 255 255
0.749137 -0.12104 1.659 255 255 255
-0.0855778 -0.187933 2.228 255 255 255
0.693163 -0.256699 1.629 255 255 255
-0.735515 -0.187418 1.539 255 255 255
0.437457 -0.414417 2.143 255 255 255
-0.839095 0.265002 2.057 255 255 255
0.746268 0.166376 1.923 255 255 255
0.865639 0.387347 1.917 0 0 0
-0.792011 -0.0852696 1.646 255 255 255
0.427067 -0.657957 1.882 255 255 255
0.73119 -0.460037 1.466 255 255 255
0.650004 -0.349903 1.682 255 255 255
0.632578 -0.144713 1.821 255 255 255
-0.73813 0.460912 2.143 255 255 255
-0.481529 -0.407382 1.528 255 255 255
0.739291 0.0182726 1.821 255 255 255
-0.351428 0.516408 2.383 255 255 255
0.00863107 0.200991 0.828 0 0 0
-0.811094 0.276916 2.071 255 255 255
-0.108413 -0.634568 1.682 255 255 255
0.65233 0.689282 2.338 0 0 0
0.603935 -0.404059 1.691 255 255 255
0.474566 -0.433 1.876 255 255 255
-0.61161 -0.339291 1.47 255 255 255
-0.395266 -0.434329 1.691 255 255 255
-0.703559 -0.0958562 1.691 255 255 255
0.684547 0.581231 2.244 255 255 255
0.465845 0.312617 2.338 255 255 255
0.897791 0.480432 1.953 255 255 255
0.607629 -0.53404 1.579 255 255 255
-1.03732 0.519764 2.099 255 255 255
0.554372 -0.515918 1.734 255 255 255
0.672136 0.291255 2.03 255 255 255
-0.0591087 -0.530216 1.853 255 255 255
-0.0922883 -0.472923 1.853 255 255 255
0.641296 0.202758 2.037 255 255 255
0.148772 0.243632 0.68 255 255 255
0.653181 0.472152 2.212 255 255 255
0.782675 -0.115013 1.65 255 255 255
0.700529 0.441651 2.085 255 255 255
0.823541 0.0739604 1.673 255 255 255
0.706845 -0.211448 1.784 255 255 255
0.725007 0.439911 2.03 255 255 255
0.432101 -0.179679 2.261 255 255 255
-0.644707 0.602485 2.078 255 255 255
-0.868744 0.24672 2.017 255 255 255
0.489586 -0.515823 1.923 255 255 255
0.261053 -0.597191 2.099 255 255 255
-0.857178 0.183092 1.87 255 255 255
-0.270609 -0.457978 1.739 255 255 255
-0.502584 0.122097 2.196 255 255 255
-0.755182 -0.236428 1.47 255 255 255
-0.277726 0.182907 2.383 255 255 255
-0.356777 0.687402 2.269 255 255 255
0.153746 0.22486 0.708 255 255 255
0.646259 0.0782986 1.991 255 255 255
0.865152 0.309835 1.882 255 255 255
-0.943591 0.386399 2.044 255 255 255
-0.331239 0.000563754 2.085 255 255 255
-0.462941 -0.478194 1.516 255 255 255
0.129697 -0.641285 1.972 255 255 255
0.392577 -0.190884 2.402 255 255 255
0.328241 -0.586862 2.136 255 255 255
0.424591 -0.561526 1.985 255 255 255
0.111427 0.169651 2.805 0 0 0
0.03447 0.09027 0.802 255 255 255
0.428007 0.213785 2.672 255 255 255
0.588537 -0.554961 1.633 255 255 255
0.091128 -0.339091 2.294 255 255 255
0.824704 0.723492 2.278 255 255 255
0.0807359 -0.0825987 2.695 255 255 255
-0.580404 -0.43892 1.406 255 255 255
-0.6195 0.435162 2.244 255 255 255
-0.926955 0.386399 2.044 255 255 255
-0.800789 0.369093 2.22 255 255 255
0.352421 -0.0750591 2.449 255 255 255
-0.63392 0.0750586 1.991 255 255 255
0.522283 -0.111031 2.078 255 255 255
-0.552505 0.679713 1.978 255 255 255
0.617661 0.252609 2.151 255 255 255
0.652427 0.213154 2.01 255 255 255
-0.969407 0.715999 1.887 255 255 255
0.345227 -0.633599 2.051 255 255 255
-0.751929 -0.216085 1.547 255 255 255
0.474213 0.48583 2.615 0 0 0
-0.622449 -0.337587 1.473 255 255 255
0.547109 0.659798 2.411 0 0 0
0.800942 -0.0186498 1.677 255 255 255
-0.348959 -0.28929 1.763 255 255 255
-0.376268 0.0789608 2.189 255 255 255
0.643399 0.446562 2.228 255 255 255
0.662016 0.33079 2.092 255 255 255
0.701673 -0.275006 1.612 255 255 255
0.297355 0.255282 2.793 0 0 0
0.111736 0.314716 0.833 255 255 255
0.695229 -0.109838 1.784 255 255 255
0.246621 -0.694715 2.064 255 255 255
-0.770809 0.540258 2.099 255 255 255
-0.605527 -0.402262 1.422 255 255 255
0.380214 -0.506676 2.078 255 255 255
0.711885 -0.217349 1.673 255 255 255
0.60609 -0.56088 1.575 255 255 255
-0.0153843 0.110301 0.815 255 255 255
0.16628 -0.101479 2.731 255 255 255
0.588242 -0.0823209 2.037 255 255 255
0.443577 0.209072 2.561 255 255 255
0.177562 0.220096 0.693 255 255 255
-0.307673 0.699695 2.261 255 255 255
0.74706 0.268803 1.917 255 255 255
0.862055 0.622168 2.158 0 0 0
0.829161 0.205282 1.748 255 255 255
0.748029 -0.153689 1.633 255 255 255
0.495949 -0.398175 1.842 255 255 255
0.24423 -0.395087 2.294 255 255 255
0.561639 0.0670889 2.151 255 255 255
0.629065 0.593329 2.365 255 255 255
-0.1237 -0.493054 1.784 255 255 255
0.608052 0.499108 2.286 255 255 255
-0.389609 0.689229 2.204 255 255 255
-0.11418 -0.190871 2.22 255 255 255
-0.436882 -0.452538 1.555 255 255 255
-0.901188 0.155215 1.794 255 255 255
-0.545763 -0.400921 1.513 255 255 255
0.600076 -0.163003 2.01 255 255 255
-0.693515 0.620164 2.004 255 255 255
-0.656765 -0.128878 1.691 255 255 255
-0.383759 0.707754 1.923 255 255 255
0.717994 -0.400468 1.449 255 255 255
-0.335555 -0.508245 1.603 255 255 255
-0.628064 -0.425656 1.4 255 255 255
0.394613 -0.574286 1.859 255 255 255
0.783053 0.124967 1.779 255 255 255
-0.51047 0.462117 2.383 255 255 255
-0.187893 -0.466178 1.815 255 255 255
-0.548527 0.391224 2.449 255 255 255
0.616151 -0.333256 1.799 255 255 255
0.679918 -0.442873 1.539 255 255 255
-0.252358 0.715317 2.196 255 255 255
-0.53921 -0.436198 1.412 255 255 255
0.0223523 0.197944 0.789 255 255 255
0.486168 0.655822 2.44 0 0 0
-0.533791 0.731326 1.911 255 255 255
-0.0403307 0.377906 1.05 255 255 255
-0.901411 0.300275 2.024 255 255 255
-0.772542 -0.213431 1.528 255 255 255
0.479426 -0.189887 2.128 255 255 255
-0.63204 0.322928 2.303 255 255 255
-0.257968 -0.229502 1.991 255 255 255
0.245328 -0.0297151 2.672 255 255 255
-0.557857 -0.295992 1.612 255 255 255
0.674811 -0.123561 1.815 255 255 255
0.0119398 0.174107 0.78 255 255 255
0.721714 -0.39349 1.532 255 255 255
-0.691092 0.127281 1.997 255 255 255
-0.490271 -0.405956 1.532 255 255 255
0.725409 -0.0403869 1.794 255 255 255
-0.306707 -0.279368 1.911 255 255 255
0.00173362 0.013592 2.638 255 255 255
0.22828 -0.093304 2.626 255 255 255
0.0268031 0.0829532 0.807 255 255 255
-0.925736 0.200131 1.831 255 255 255
0.0649887 -0.279362 2.294 255 255 255
-0.515993 -0.112423 1.826 255 255 255
0.391055 0.16393 2.572 255 255 255
0.670969 -0.156726 1.789 255 255 255
-0.50755 -0.0721276 2.03 255 255 255
0.902473 0.305625 1.769 255 255 255
0.408421 -0.563386 1.853 255 255 255
0.792852 -0.0837155 1.616 255 255 255
-0.0948207 -0.380659 2.037 255 255 255
0.01093 0.0743295 0.799 255 255 255
0.69897 0.109017 1.905 255 255 255
0.18453 0.235182 0.639 255 255 255
-0.298466 -0.177995 1.959 255 255 255
0.615574 -0.174524 1.887 255 255 255
0.528479 -0.305768 2.024 255 255 255
-0.250713 -0.301769 1.935 255 255 255
0.620274 -0.362244 1.769 255 255 255
-0.056274 -0.513782 1.859 255 255 255
-0.364231 -0.557139 1.516 255 255 255
0.611649 -0.548977 1.563 255 255 255
0.673881 -0.273178 1.789 255 255 255
-0.312931 0.583403 2.356 255 255 255
0.0822807 0.280982 0.81 0 0 0
0.171686 -0.307787 2.43 255 255 255
0.135163 0.146916 0.827 255 255 255
-0.573585 -0.226682 1.642 255 255 255
0.614071 -0.158084 1.911 255 255 255
-0.447961 -0.424416 1.642 255 255 255
-0.692377 0.340191 2.22 255 255 255
0.538505 -0.195026 2.037 255 255 255
-0.454116 -0.264072 1.748 255 255 255
0.0377317 -0.293078 2.228 255 255 255
0.612208 -0.28853 1.831 255 255 255
0.758483 -0.173908 1.599 255 255 255
-0.409301 0.658802 2.085 255 255 255
0.74387 0.329721 2.064 255 255 255
-0.188261 -0.551023 1.686 255 255 255
0.665057 -0.442981 1.575 255 255 255
0.387049 -0.25237 2.392 255 255 255
0.275301 -0.165951 2.626 255 255 255
0.772875 0.0852084 1.859 255 255 255
0.653156 0.265904 2.064 255 255 255
-0.0865096 -0.645517 1.682 255 255 255
-0.187438 0.168769 2.582 255 255 255
0.727872 0.756864 2.312 0 0 0
-0.500813 0.553091 2.374 255 255 255
0.726667 -0.139141 1.682 255 255 255
0.782169 0.343093 2.024 255 255 255
-0.796301 0.725658 1.929 255 255 255
-0.105026 -0.0526336 2.338 255 255 255
-0.0279845 0.321424 0.977 255 255 255
0.820277 0.0272971 1.65 255 255 255
0.834435 0.101186 1.673 255 255 255
0.120714 -0.679396 1.882 255 255 255
0.5178 0.0111188 2.158 255 255 255
-0.530576 0.553257 2.136 255 255 255
-0.555218 -0.157602 1.799 255 255 255
0.00696084 -0.662478 1.779 255 255 255
0.52784 -0.370753 1.87 255 255 255
0.86268 0.374808 1.87 0 0 0
-0.682989 0.17918 2.071 255 255 255
0.33303 -0.735439 1.941 255 255 255
-0.976282 0.361171 2.071 255 255 255
0.459557 -0.0944397 2.085 255 255 255
0.720066 -0.552258 1.439 255 255 255
0.629523 0.0299818 2.01 255 255 255
-0.590687 -0.500898 1.351 255 255 255
0.817321 0.0386599 1.677 255 255 255
0.53118 -0.62881 1.696 255 255 255
-0.515339 -0.29906 1.753 255 255 255
-0.396748 -0.102158 1.972 255 255 255
0.181195 0.0545444 2.755 255 255 255
0.1128 0.297784 0.802 255 255 255
0.421303 0.0611825 2.479 255 255 255
0.373368 -0.622597 1.905 255 255 255
-0.505562 -0.276862 1.739 255 255 255
0.774404 0.0765832 1.87 255 255 255
-0.886112 0.075773 1.714 255 255 255
-0.99406 0.662827 1.893 255 255 255
0.616151 -0.356676 1.799 255 255 255
0.186022 0.0182713 2.695 255 255 255
0.645257 0.236474 2.071 255 255 255
-0.501343 -0.314176 1.696 255 255 255
-0.227658 -0.479286 1.714 255 255 255
0.924864 0.812943 2.269 255 255 255
0.00302067 0.0680488 0.772 0 0 0
0.535936 -0.542918 1.805 255 255 255
-0.702211 0.599103 2.078 255 255 255
0.508086 0.423958 2.55 255 255 255
-0.0073606 0.136966 0.808 255 255 255
0.585237 -0.015764 2.004 255 255 255
-0.710634 0.0547789 1.853 255 255 255
-0.856746 0.01951 1.673 255 255 255
-0.268298 -0.610593 1.591 255 255 255
0.710265 -0.0408597 1.815 255 255 255
-0.862691 0.698366 1.923 255 255 255
0.39756 0.339884 2.672 0 0 0
-0.579573 0.0806582 2.051 255 255 255
0.0225789 0.0948951 0.797 255 255 255
-0.197684 0.11861 2.499 255 255 255
0.424843 0.653134 2.43 0 0 0
-0.613094 0.725212 1.887 255 255 255
-0.787429 -0.0104939 1.682 255 255 255
0.803745 0.0986592 1.724 255 255 255
-0.540494 0.699575 1.935 255 255 255
0.0939149 0.143541 0.808 255 255 255
0.672856 -0.0864306 1.842 255 255 255
-0.631276 -0.136845 1.758 255 255 255
-0.347631 -0.46534 1.714 255 255 255
0.774522 -0.0322179 1.673 255 255 255
0.467638 0.336737 2.347 255 255 255
0.454608 0.256633 2.42 255 255 255
0.0145349 0.126357 0.783 0 0 0
-0.442583 0.63374 2.236 255 255 255
0.420195 -0.730017 1.935 255 255 255
0.100367 0.155182 0.807 255 255 255
-0.362244 -0.165243 1.959 255 255 255
-0.178466 -0.394185 1.972 255 255 255
-0.623909 -0.259679 1.567 255 255 255
0.138678 0.241436 0.696 255 255 255
0.611334 -0.175561 2.004 255 255 255
-0.383113 0.642712 2.294 255 255 255
-0.672097 -0.440737 1.369 255 255 255
0.401805 -0.374636 2.196 255 255 255
0.877714 0.520954 2.024 255 255 255
-0.0471723 -0.0359246 2.499 255 255 255
-0.981189 0.611603 1.966 255 255 255
-0.668553 0.666999 1.941 255 255 255
0.432966 -0.33768 2.121 255 255 255
-0.692638 -0.426786 1.319 255 255 255
0.054493 0.395807 1.066 255 255 255
0.345889 -0.694912 1.997 255 255 255
-0.499579 0.735918 1.923 255 255 255
0.194001 -0.090997 2.684 255 255 255
-0.0946493 -0.373167 2.107 255 255 255
-0.0384514 -0.433697 2.037 255 255 255
-0.485355 0.471962 2.374 255 255 255
-0.230933 -0.556269 1.677 255 255 255
0.382901 0.0761027 2.44 255 255 255
0.779968 -0.0349404 1.673 255 255 255
-0.847653 -0.0478855 1.65 255 255 255
0.0429304 -0.690781 1.831 255 255 255
-0.375416 -0.102469 1.978 255 255 255
0.182496 -0.521143 2.181 255 255 255
0.535786 -0.2956 1.978 255 255 255
-0.989587 0.341003 2.092 255 255 255
0.795697 0.317572 1.929 255 255 255
0.087018 0.11731 2.755 255 255 255
0.0548875 -0.409064 2.189 255 255 255
-0.0965467 -0.390798 2.004 255 255 255
0.160962 0.146199 2.793 0 0 0
0.5235 0.466282 2.649 255 255 255
-0.673055 0.611345 2.051 255 255 255
0.626197 -0.226126 1.882 255 255 255
0.114448 0.318783 0.833 255 255 255
0.876425 0.821319 2.212 255 255 255
-0.122215 -0.451179 1.997 255 255 255
-0.237662 -0.542792 1.686 255 255 255
0.494557 -0.519764 1.848 255 255 255
0.874895 0.570082 2.121 0 0 0
0.688573 -0.271279 1.637 255 255 255
0.369897 -0.137025 2.286 255 255 255
0.813863 0.559861 2.189 255 255 255
0.495039 -0.0381871 2.166 255 255 255
0.627644 0.0722875 2.004 255 255 255
0.331872 -0.616911 2.051 255 255 255
0.20168 -0.324057 2.32 255 255 255
-0.506591 0.465995 2.383 255 255 255
-0.0770193 -0.578523 1.779 255 255 255
-0.556496 0.733679 1.893 255 255 255
0.34141 -0.123961 2.32 255 255 255
-0.32712 -0.144314 1.978 255 255 255
-0.373107 0.218893 2.53 255 255 255
0.558035 0.394696 2.374 255 255 255
0.752718 -0.0588035 1.655 255 255 255
0.808763 0.288826 1.865 255 255 255
0.6102 -0.567444 1.579 255 255 255
0.456573 -0.413842 1.929 255 255 255
0.472134 -0.171494 2.158 255 255 255
-0.213983 -0.240785 2.004 255 255 255
0.603517 -0.111787 1.917 255 255 255
0.0509284 0.108751 0.794 255 255 255
-0.865031 0.141872 1.81 255 255 255
-0.257734 0.745923 2.181 255 255 255
-0.175216 0.0930787 2.469 255 255 255
0.0186373 0.366251 1.004 255 255 255
-0.723543 -0.156473 1.607 255 255 255
-0.488242 0.198579 2.212 255 255 255
-0.865191 0.467364 2.173 255 255 255
0.676874 -0.0417151 1.853 255 255 255
0.591583 -0.497799 1.664 255 255 255
-0.800415 -0.154732 1.563 255 255 255
-0.619491 -0.343139 1.466 255 255 255
0.508443 0.451467 2.638 255 255 255
0.719893 -0.336136 1.555 255 255 255
0.35148 0.0738762 2.499 255 255 255
-0.468631 0.671221 1.991 255 255 255
0.433295 -0.0268125 2.411 255 255 255
-0.520875 0.292745 2.244 255 255 255
-0.508002 0.266007 2.204 255 255 255
0.768408 0.353434 2.085 255 255 255
0.304583 0.526725 2.449 0 0 0
-0.947751 0.646386 1.899 255 255 255
-0.476967 0.59491 2.099 255 255 255
-0.586304 0.567584 2.099 255 255 255
-0.913965 0.520038 2.114 255 255 255
-0.201651 0.0338452 2.269 255 255 255
0.672843 -0.283877 1.664 255 255 255
0.722711 -0.388678 1.449 255 255 255
0.745456 0.195147 1.929 255 255 255
-0.116326 0.10641 2.499 255 255 255
0.219848 0.227704 0.627 255 255 255
-0.549757 0.527172 2.143 255 255 255
-0.431784 -0.486952 1.528 255 255 255
0.757953 0.293451 1.978 255 255 255
0.647863 -0.0328804 1.865 255 255 255
-0.108624 -0.233658 2.181 255 255 255
0.662366 0.633882 2.402 255 255 255
-0.304094 0.60409 2.347 255 255 255
-0.00736971 0.0923744 0.809 255 255 255
-0.325523 -0.0200694 2.114 255 255 255
-0.99398 0.292233 1.887 255 255 255
-0.736019 0.53546 2.107 255 255 255
0.615952 0.269795 2.121 255 255 255
-0.924288 0.509717 2.114 255 255 255
0.308569 0.526725 2.449 0 0 0
-0.874706 0.0564124 1.719 255 255 255
0.167675 -0.535527 2.085 255 255 255
-0.749531 -0.244156 1.459 255 255 255
-0.368573 0.616018 2.32 255 255 255
-0.508002 0.27318 2.204 255 255 255
-0.514742 0.356807 2.459 255 255 255
0.290045 -0.28788 2.244 255 255 255
-0.447294 -0.25571 1.789 255 255 255
0.116994 0.161628 0.813 0 0 0
0.451227 -0.00325938 2.402 255 255 255
-0.613638 0.611989 2.099 255 255 255
-0.176247 -0.155302 2.228 255 255 255
0.34105 -0.443967 2.151 255 255 255
-1.06951 0.504594 2.136 255 255 255
0.113074 0.116741 0.823 255 255 255
-0.379215 0.413816 2.489 255 255 255
-1.04698 0.374371 2.051 255 255 255
-0.984845 0.643295 1.899 255 255 255
-0.586441 0.454467 2.286 255 255 255
-0.679519 -0.427005 1.375 255 255 255
0.0655709 -0.639581 1.882 255 255 255
-0.882624 0.569617 2.057 255 255 255
-0.325162 -0.252946 1.947 255 255 255
-0.771372 -0.118369 1.587 255 255 255
-0.776299 0.39656 2.212 255 255 255
0.714652 0.0460288 1.865 255 255 255
0.0166512 -0.53242 1.893 255 255 255
0.186935 0.229004 0.651 255 255 255
-0.457983 -0.253566 1.774 255 255 255
-0.362605 -0.473561 1.655 255 255 255
0.00133866 -0.466846 2.037 255 255 255
0.536738 -0.308067 1.935 255 255 255
-0.86911 0.0368307 1.719 255 255 255
0.770576 0.210842 1.929 255 255 255
-0.32214 0.117259 2.312 255 255 255
-0.361737 0.730218 2.166 255 255 255
-0.438763 -0.336133 1.668 255 255 255
0.0788483 -0.231155 2.374 255 255 255
0.780936 0.380736 1.947 255 255 255
-0.0605878 0.0131385 2.55 255 255 255
0.636475 -0.592171 1.543 255 255 255
-0.763508 -0.277085 1.445 255 255 255
0.171921 -0.481614 2.228 255 255 255
-0.383712 -0.554824 1.477 255 255 255
0.717864 0.288385 2.01 255 255 255
0.519812 -0.377919 1.831 255 255 255
-0.286028 0.430018 2.489 255 255 255
-0.58238 -0.427717 1.422 255 255 255
-0.470365 -0.325433 1.655 255 255 255
0.0211252 0.281758 0.901 255 255 255
0.565052 -0.533971 1.642 255 255 255
0.747705 -0.0328341 1.705 255 255 255
0.595243 0.441125 2.294 255 255 255
0.657606 -0.58066 1.494 255 255 255
0.374125 0.234469 2.66 255 255 255
-0.889321 0.562922 2.057 255 255 255
0.29552 0.576409 2.44 0 0 0
0.0636119 0.182999 0.791 255 255 255
0.0787587 0.10971 0.801 255 255 255
0.63798 0.209388 2.037 255 255 255
-0.591159 0.586118 2.092 255 255 255
-0.199762 -0.474057 1.789 255 255 255
0.369343 0.304119 2.626 0 0 0
-0.821994 -0.0878188 1.595 255 255 255
0.620775 0.335366 2.212 255 255 255
0.717897 -0.426278 1.473 255 255 255
-0.578116 -0.43892 1.406 255 255 255
0.62414 -0.305335 1.724 255 255 255
0.623133 -0.204688 1.882 255 255 255
0.145024 -0.429877 2.261 255 255 255
0.729405 -0.152827 1.682 255 255 255
0.396961 -0.377004 2.189 255 255 255
0.620481 -0.446675 1.579 255 255 255
0.552232 0.547099 2.469 255 255 255
-0.104622 -0.0638011 2.329 255 255 255
0.595433 -0.264858 1.853 255 255 255
0.13119 0.230052 0.717 255 255 255
-0.699566 0.0901128 1.966 255 255 255
-0.0872003 -0.53264 1.81 255 255 255
-0.548766 -0.232427 1.664 255 255 255
0.683149 -0.439224 1.535 255 255 255
-0.732185 -0.35928 1.39 255 255 255
0.772969 -0.298887 1.52 255 255 255
0.649394 -0.515651 1.532 255 255 255
0.644594 -0.308989 1.668 255 255 255
-0.261064 0.632211 2.338 255 255 255
0.161102 0.231198 0.676 255 255 255
-0.0205193 -0.574801 1.911 255 255 255
-0.606297 0.17266 2.158 255 255 255
-0.178042 -0.45067 1.899 255 255 255
-0.097173 -0.429439 2.017 255 255 255
0.154637 -0.612558 2.004 255 255 255
0.00493098 -0.392735 2.158 255 255 255
0.681874 0.23278 2.01 255 255 255
0.708331 -0.345495 1.563 255 255 255
-0.34893 -0.208302 1.887 255 255 255
0.889939 0.33033 1.826 0 0 0
-0.519101 0.394208 2.519 255 255 255
0.732449 -0.445969 1.459 255 255 255
0.0353626 -0.548196 1.905 255 255 255
0.689518 -0.434825 1.555 255 255 255
-0.47949 -0.355133 1.668 255 255 255
0.295532 -0.583983 2.151 255 255 255
-0.857002 0.13203 1.837 255 255 255
0.23501 0.175593 2.755 0 0 0
0.0171931 0.192563 0.788 0 0 0
-0.334633 -0.00622221 2.085 255 255 255
-0.671455 0.00358099 1.887 255 255 255
0.0511028 0.178495 0.777 255 255 255
0.503574 -0.525638 1.837 255 255 255
0.106548 -0.225242 2.479 255 255 255
0.167523 0.236821 0.658 255 255 255
-0.404793 0.676324 2.269 255 255 255
0.508922 -0.00978121 2.121 255 255 255
0.525361 -0.372162 1.789 255 255 255
0.227042 0.230698 0.608 255 255 255
-0.999732 0.352391 2.099 255 255 255
0.484779 -0.627738 1.779 255 255 255
0.643831 0.0225654 1.935 255 255 255
0.0323755 0.0758179 0.815 255 255 255
0.314058 -0.54023 2.158 255 255 255
-0.356023 0.0649188 2.196 255 255 255
-0.0729837 -0.0699709 2.411 255 255 255
0.260777 0.201611 2.743 0 0 0
0.0170965 0.313492 0.921 255 255 255
-0.312832 0.425307 2.509 255 255 255
-0.490374 0.070819 2.158 255 255 255
0.590273 0.149482 2.128 255 255 255
0.463525 0.212314 2.365 255 255 255
0.482211 -0.403759 1.882 255 255 255
0.238948 -0.596601 2.085 255 255 255
0.756004 -0.124458 1.633 255 255 255
0.278503 -0.35755 2.269 255 255 255
-0.357757 0.339565 2.509 255 255 255
-0.137332 -0.141811 2.244 255 255 255
-0.903063 0.656597 1.929 255 255 255
0.283604 0.544643 2.44 0 0 0
0.343568 -0.725039 1.947 255 255 255
-0.61467 0.0938115 1.911 255 255 255
-0.495807 -0.345118 1.659 255 255 255
0.0423035 0.124284 0.778 255 255 255
0.683084 0.0826695 1.87 255 255 255
0.488132 0.664998 2.43 0 0 0
-0.751667 0.00657421 1.865 255 255 255
-0.372462 0.0348575 2.107 255 255 255
0.262282 -0.226197 2.582 255 255 255
-0.388745 0.545364 2.374 255 255 255
-0.0329961 -0.668001 1.748 255 255 255
-0.729808 0.540258 2.099 255 255 255
0.701779 -0.373717 1.543 255 255 255
-0.107169 -0.555751 1.799 255 255 255
0.579183 -0.0552541 2.017 255 255 255
0.654841 0.749225 2.347 255 255 255
-0.422893 -0.43151 1.659 255 255 255
0.0169531 0.170909 0.777 255 255 255
0.616116 -0.112089 1.87 255 255 255
0.310645 -0.279022 2.261 255 255 255
-0.427261 -0.422389 1.655 255 255 255
-0.0425065 -0.631266 1.789 255 255 255
0.651545 -0.474156 1.543 255 255 255
0.0192659 0.251702 0.883 255 255 255
-0.194325 -0.555409 1.691 255 255 255
-0.63133 -0.248773 1.612 255 255 255
0.581616 -0.358857 1.81 255 255 255
0.704597 0.259739 1.991 255 255 255
-0.494332 -0.492398 1.442 255 255 255
-0.302137 0.522251 2.392 255 255 255
0.0657451 -0.662776 1.887 255 255 255
-0.1041 -0.453985 2.024 255 255 255
-0.499144 -0.475645 1.47 255 255 255
0.878788 0.396804 1.859 255 255 255
0.584486 -0.374815 1.774 255 255 255
0.383067 -0.464969 2.151 255 255 255
0.616904 0.304699 2.173 255 255 255
-0.499256 -0.0400172 2.078 255 255 255
0.141056 0.243075 0.691 255 255 255
-1.07003 0.546059 2.044 255 255 255
0.586021 0.452846 2.459 255 255 255
0.613787 -0.588767 1.595 255 255 255
0.108843 -0.245523 2.44 255 255 255
0.8902 0.301563 1.779 255 255 255
0.378072 -0.589632 1.929 255 255 255
0.348339 0.206854 2.695 255 255 255
0.543481 -0.351694 1.882 255 255 255
-0.0939755 -0.37732 2.092 255 255 255
-0.732002 -0.10541 1.668 255 255 255
-0.65417 -0.116819 1.758 255 255 255
-0.618048 -0.148656 1.729 255 255 255
0.406718 -0.616639 1.859 255 255 255
-0.28536 -0.323812 1.935 255 255 255
0.667864 -0.242943 1.87 255 255 255
-0.195085 0.147188 2.572 255 255 255
0.0348242 -0.616172 1.876 255 255 255
-0.629044 0.499241 2.128 255 255 255
-0.00690575 0.308165 0.923 255 255 255
0.443928 -0.169805 2.228 255 255 255
-0.945317 0.524839 2.092 255 255 255
0.385676 -0.51845 2.071 255 255 255
0.597875 -0.238051 1.929 255 255 255
-0.908548 0.345484 2.078 255 255 255
-0.107724 -0.283215 2.236 255 255 255
-0.460575 0.74922 1.917 255 255 255
0.100491 0.125132 0.808 255 255 255
-0.59635 -0.293117 1.555 255 255 255
-0.56518 -0.307382 1.603 255 255 255
0.257121 -0.126957 2.615 255 255 255
-0.777891 0.612117 1.978 255 255 255
0.359582 -0.157154 2.365 255 255 255
0.542829 -0.266874 2.004 255 255 255
0.1277 0.135456 0.831 255 255 255
0.573625 -0.44 1.724 255 255 255
0.689915 -0.257732 1.763 255 255 255
0.761848 -0.24625 1.579 255 255 255
0.00961734 0.0976114 0.798 255 255 255
0.673589 0.573928 2.244 255 255 255
0.899594 0.288353 1.769 255 255 255
0.8276 0.807874 2.286 0 0 0
-0.587123 -0.235842 1.65 255 255 255
-0.309925 0.526144 2.392 255 255 255
0.580562 -0.531044 1.633 255 255 255
0.710641 0.687402 2.269 255 255 255
-0.204728 -0.534561 1.686 255 255 255
-0.248783 -0.0530104 2.196 255 255 255
0.556671 0.370617 2.32 255 255 255
0.256434 -0.434115 2.303 255 255 255
0.0855975 0.14283 0.804 255 255 255
0.0165088 -0.179269 2.303 255 255 255
0.634422 -0.329759 1.677 255 255 255
0.0480883 -0.39752 2.204 255 255 255
0.350985 -0.717739 1.953 255 255 255
0.0275504 -0.233747 2.286 255 255 255
0.558022 -0.311093 1.859 255 255 255
-0.00472422 0.13811 0.807 255 255 255
-0.72573 0.244013 2.107 255 255 255
-1.03914 0.576227 2.01 255 255 255
-0.698954 -0.339066 1.419 255 255 255
-1.00692 0.39106 2.051 255 255 255
0.00823496 0.122345 0.79 0 0 0
-0.297664 -0.568941 1.555 255 255 255
0.0073169 -0.54421 1.87 255 255 255
0.66733 0.650447 2.42 255 255 255
-0.757758 -0.102141 1.659 255 255 255
0.730074 -0.44122 1.459 255 255 255
0.593313 -0.420042 1.7 255 255 255
0.700679 -0.231718 1.719 255 255 255
-0.619087 -0.444906 1.375 255 255 255
-0.147224 -0.448003 1.941 255 255 255
0.700932 -0.0682596 1.837 255 255 255
0.19203 -0.708205 1.953 255 255 255
-0.635972 0.526945 2.128 255 255 255
0.149823 -0.447938 2.278 255 255 255
-0.778358 -0.1226 1.575 255 255 255
-0.227064 0.188495 2.509 255 255 255
-0.738511 0.397265 2.196 255 255 255
-0.630886 0.232361 2.158 255 255 255
-0.610221 0.577832 2.099 255 255 255
-0.744962 -0.177862 1.543 255 255 255
0.325799 -0.559857 2.166 255 255 255
0.657319 -0.299222 1.659 255 255 255
0.647774 0.513303 2.158 255 255 255
-0.417693 -0.531415 1.513 255 255 255
-0.461204 0.443551 2.43 255 255 255
0.61218 0.658323 2.42 0 0 0
-0.455307 -0.487293 1.491 255 255 255
-0.257968 -0.252183 1.991 255 255 255
-0.728052 -0.110241 1.659 255 255 255
0.257793 0.580897 2.459 0 0 0
0.116676 -0.398963 2.212 255 255 255
-0.525152 -0.532338 1.393 255 255 255
-0.0248237 -0.649069 1.774 255 255 255
0.717322 -0.169846 1.774 255 255 255
-0.977989 0.301268 1.966 255 255 255
0.66459 -0.311238 1.637 255 255 255
0.520357 -0.372797 1.865 255 255 255
-0.962199 0.624703 1.947 255 255 255
0.823647 0.0674096 1.646 255 255 255
-0.521302 0.0446725 2.085 255 255 255
-0.564716 0.644917 2.01 255 255 255
0.793589 0.482498 2.071 255 255 255
-0.748631 0.0612036 1.865 255 255 255
0.165996 0.247394 0.652 255 255 255
-0.0858013 -0.369081 2.143 255 255 255
0.457136 0.070713 2.392 255 255 255
-0.40343 -0.556979 1.47 255 255 255
-0.459769 -0.395985 1.646 255 255 255
0.0490108 0.160966 0.784 255 255 255
0.710504 0.140459 1.911 255 255 255
0.407547 0.575224 2.469 255 255 255
-0.677586 -0.0264079 1.837 255 255 255
-0.444224 0.695427 1.941 255 255 255
0.0294061 0.313866 0.931 255 255 255
-0.607033 -0.377115 1.459 255 255 255
-0.532038 -0.404772 1.509 255 255 255
-1.02326 0.341993 2.057 255 255 255
-0.254935 0.810907 2.128 255 255 255
-0.644268 -0.426621 1.381 255 255 255
-0.155569 -0.559011 1.719 255 255 255
0.0582745 -0.484819 2.057 255 255 255
-0.598014 -0.350296 1.466 255 255 255
-0.883201 0.135154 1.799 255 255 255
0.44148 0.190275 2.479 255 255 255
-0.489075 0.00399848 2.107 255 255 255
-0.849395 0.407043 2.099 255 255 255
0.805117 0.355242 1.929 255 255 255
0.477616 0.334171 2.303 255 255 255
-0.153972 -0.223778 2.121 255 255 255
0.0691792 0.285996 0.878 255 255 255
0.694628 0.627559 2.253 255 255 255
0.850446 0.389119 1.837 0 0 0
0.673175 0.0907016 1.911 255 255 255
0.516832 -0.541799 1.831 255 255 255
-0.474035 -0.481583 1.459 255 255 255
-0.68134 0.0492866 1.997 255 255 255
-0.339791 0.179029 2.383 255 255 255
0.583717 -0.100855 2.01 255 255 255
0.428798 0.143016 2.43 255 255 255
0.0918227 0.253475 0.79 0 0 0
0.537436 -0.436908 1.734 255 255 255
0.868997 0.199593 1.748 0 0 0
0.630746 -0.056679 1.953 255 255 255
-0.769062 0.29236 2.085 255 255 255
-0.169459 -0.269278 2.099 255 255 255
0.432202 0.0252765 2.519 255 255 255
0.662221 -0.112116 1.821 255 255 255
-0.296503 -0.0825355 2.128 255 255 255
-0.468343 -0.289674 1.748 255 255 255
0.101973 0.217355 0.799 255 255 255
-0.860304 0.0734708 1.794 255 255 255
-0.548255 -0.140504 1.805 255 255 255
-0.407478 -0.327975 1.696 255 255 255
-0.419829 0.666534 2.212 255 255 255
-0.0421501 -0.660616 1.774 255 255 255
0.539199 -0.525462 1.826 255 255 255
-0.103712 -0.180682 2.228 255 255 255
0.230132 -0.682312 2.037 255 255 255
0.534012 0.238478 2.32 255 255 255
0.750614 -0.00804263 1.744 255 255 255
0.846198 0.100641 1.664 255 255 255
0.687331 -0.5278 1.449 255 255 255
0.449472 -0.694803 1.899 255 255 255
0.074035 0.0709693 0.836 255 255 255
-0.0730405 0.0546354 2.55 255 255 255
0.509153 0.0509932 2.212 255 255 255
0.113076 -0.467357 2.212 255 255 255
-0.387113 -0.552111 1.509 255 255 255
0.491613 -0.603363 1.837 255 255 255
0.386538 0.126236 2.489 255 255 255
0.154957 0.250639 0.678 255 255 255
-0.999732 0.348975 2.099 255 255 255
-0.570912 -0.258747 1.642 255 255 255
-0.300737 0.778456 2.017 255 255 255
0.438419 -0.42601 2.114 255 255 255
-0.978423 0.631484 1.929 255 255 255
0.418647 -0.0350764 2.44 255 255 255
0.589978 -0.58296 1.637 255 255 255
0.550627 -0.519419 1.805 255 255 255
0.780142 0.0531826 1.799 255 255 255
0.437075 -0.0375588 2.347 255 255 255
0.724696 -0.395562 1.502 255 255 255
0.391865 -0.227292 2.374 255 255 255
0.465596 0.192336 2.356 255 255 255
-0.605116 -0.454575 1.384 255 255 255
0.0198986 0.291135 0.912 255 255 255
0.663503 0.666276 2.392 255 255 255
-0.864924 0.217796 1.935 255 255 255
-0.684221 -0.292124 1.498 255 255 255
-1.05641 0.398335 2.037 255 255 255
-0.512955 -0.494678 1.435 255 255 255
0.716576 -0.174036 1.758 255 255 255
0.70957 -0.502965 1.432 255 255 255
0.371106 -0.0117596 2.55 255 255 255
-0.245155 0.70036 2.228 255 255 255
-0.556245 0.470413 2.347 255 255 255
0.0440993 -0.143373 2.604 255 255 255
0.36724 -0.634867 1.972 255 255 255
0.630724 -0.371587 1.719 255 255 255
-0.465409 -0.480661 1.516 255 255 255
-0.491843 0.126586 2.212 255 255 255
-0.532315 0.534146 2.143 255 255 255
-0.0409484 -0.111393 2.374 255 255 255
0.635364 -0.17322 1.779 255 255 255
-0.55128 -0.453973 1.396 255 255 255
0.159911 0.257879 0.671 0 0 0
0.382776 -0.581078 1.953 255 255 255
-0.308724 -0.593706 1.547 255 255 255
0.219629 -0.536183 2.128 255 255 255
0.0555331 0.121725 0.786 255 255 255
0.379919 -0.42257 2.114 255 255 255
-0.0113344 0.113579 0.81 255 255 255
-0.51458 -0.118042 1.821 255 255 255
0.654919 0.0842251 1.978 255 255 255
-0.740031 -0.310635 1.459 255 255 255
0.500263 -0.156772 2.057 255 255 255
0.24397 -0.576696 2.099 255 255 255
-0.05395 -0.470677 1.997 255 255 255
-0.661076 0.418158 2.212 255 255 255
-0.525 -0.38805 1.624 255 255 255
-0.623924 -0.198851 1.655 255 255 255
-0.00840821 0.285634 0.923 255 255 255
0.718461 -0.025646 1.784 255 255 255
0.161161 -0.602774 2.004 255 255 255
-0.266177 -0.198389 2.004 255 255 255
-0.707268 0.254371 2.166 255 255 255
0.448576 0.285374 2.43 255 255 255
0.566086 -0.496189 1.744 255 255 255
-0.881878 0.253284 2.017 255 255 255
0.303284 -0.341572 2.261 255 255 255
0.316986 -0.735884 1.959 255 255 255
0.376478 -0.542976 2.114 255 255 255
0.344331 -0.40459 2.128 255 255 255
-0.656469 -0.487262 1.286 255 255 255
-0.457797 0.161143 2.294 255 255 255
0.869823 0.14474 1.705 255 255 255
0.766603 -0.308726 1.532 255 255 255
0.763185 -0.0555001 1.637 255 255 255
0.529843 -0.323968 1.899 255 255 255
-0.728334 0.587549 2.085 255 255 255
-0.596304 -0.409511 1.456 255 255 255
0.0268973 0.143427 0.772 0 0 0
0.695814 -0.262 1.629 255 255 255
-0.291194 -0.196519 1.953 255 255 255
0.636716 -0.506898 1.607 255 255 255
0.691956 0.0547789 1.853 255 255 255
0.722693 -0.48141 1.473 255 255 255
0.750425 -0.0584497 1.724 255 255 255
0.518069 -0.597105 1.774 255 255 255
-0.00327111 0.0757824 0.774 255 255 255
0.3446 -0.726868 1.935 255 255 255
-0.315461 -0.544463 1.543 255 255 255
-0.632588 0.65005 1.947 255 255 255
0.639419 -0.522435 1.575 255 255 255
0.707134 -0.217566 1.763 255 255 255
-0.0868479 0.43632 1.145 255 255 255
-0.676073 -0.12682 1.664 255 255 255
0.495112 -0.0344222 2.151 255 255 255
-0.472826 -0.443517 1.524 255 255 255
0.0450669 0.156738 0.782 255 255 255
-0.722796 -0.260675 1.528 255 255 255
0.903136 0.269822 1.799 0 0 0
0.306006 -0.0118103 2.561 255 255 255
0.623706 -0.533514 1.555 255 255 255
0.894 0.226482 1.758 0 0 0
0.0382491 0.351547 1.004 255 255 255
-0.82905 0.261655 2.057 255 255 255
0.0121612 0.264986 0.889 255 255 255
0.586624 -0.24357 1.923 255 255 255
0.627926 -0.371587 1.719 255 255 255
0.783243 0.383073 2.044 255 255 255
-0.618486 0.0494594 2.004 255 255 255
-0.366622 0.571901 2.356 255 255 255
-0.601596 0.646115 2.024 255 255 255
0.677794 -0.431516 1.599 255 255 255
0.69826 0.54516 2.173 255 255 255
0.517254 -0.128369 2.085 255 255 255
-0.737413 0.158097 2.017 255 255 255
-0.39261 0.545364 2.374 255 255 255
-0.570607 0.698585 1.941 255 255 255
-0.53137 -0.205211 1.859 255 255 255
-0.69907 -0.272168 1.509 255 255 255
0.621175 -0.604368 1.555 255 255 255
-0.568987 0.501008 2.261 255 255 255
0.771808 -0.223093 1.616 255 255 255
-0.70797 0.2245 2.085 255 255 255
-0.405215 0.663226 2.099 255 255 255
-0.373539 -0.492842 1.587 255 255 255
0.769295 -0.0766239 1.633 255 255 255
-0.0301445 0.283215 0.945 255 255 255
0.186022 -0.0957556 2.695 255 255 255
0.596918 0.017184 2.044 255 255 255
-0.887364 0.23873 1.978 255 255 255
0.225031 0.233521 0.6 255 255 255
0.848923 0.752862 2.244 255 255 255
-0.656443 -0.22401 1.642 255 255 255
-0.946918 0.383073 2.044 255 255 255
0.279676 -0.671246 2.085 255 255 255
0.0344373 0.145939 0.772 0 0 0
-0.364105 0.71217 1.935 255 255 255
0.677042 -0.19509 1.821 255 255 255
0.014738 0.0353488 2.66 255 255 255
-0.739891 0.481926 2.128 255 255 255
0.951465 0.655188 1.972 255 255 255
-0.268061 -0.537673 1.637 255 255 255
-0.413796 -0.233614 1.821 255 255 255
0.0133787 0.351992 0.978 255 255 255
-0.420891 -0.023265 2.092 255 255 255
0.160347 -0.547256 2.078 255 255 255
-0.75397 -0.237554 1.477 255 255 255
-0.689075 -0.0933797 1.696 255 255 255
-0.152221 -0.585299 1.682 255 255 255
-0.245553 0.431078 2.449 255 255 255
0.441703 -0.42341 2.004 255 255 255
0.729698 -0.0398241 1.769 255 255 255
-0.787101 0.39656 2.212 255 255 255
0.240495 -0.383888 2.294 255 255 255
0.160043 0.237889 0.667 255 255 255
-0.104689 -0.328278 2.173 255 255 255
-0.548813 -0.436051 1.419 255 255 255
-0.746847 0.41381 2.189 255 255 255
0.763445 0.10682 1.815 255 255 255
-0.508871 0.380394 2.509 255 255 255
0.956394 0.837714 2.189 0 0 0
-0.9727 0.448437 2.085 255 255 255
0.00827162 -0.405369 2.114 255 255 255
-0.861606 0.60568 1.978 255 255 255
0.625861 0.136283 2.085 255 255 255
-0.580492 0.69337 1.953 255 255 255
-0.846542 0.666014 1.929 255 255 255
-0.505743 0.67956 1.959 255 255 255
-0.783216 -0.0213278 1.673 255 255 255
-0.158368 -0.539429 1.719 255 255 255
0.717071 -0.314029 1.571 255 255 255
0.42842 -0.216473 2.261 255 255 255
0.0994731 0.318872 0.844 255 255 255
0.770418 -0.0189056 1.7 255 255 255
-0.248471 0.135956 2.519 255 255 255
-0.324635 0.131794 2.303 255 255 255
0.850504 0.320032 1.87 255 255 255
-0.495136 -0.101749 1.848 255 255 255
-0.990909 0.289163 1.887 255 255 255
-0.306937 0.202332 2.43 255 255 255
0.0728838 0.254688 0.823 255 255 255
-0.776367 0.0179515 1.789 255 255 255
-0.596425 -0.436632 1.406 255 255 255
0.798837 0.320712 1.929 255 255 255
-0.0291237 0.218652 0.913 255 255 255
-0.586069 0.486445 2.228 255 255 255
-0.39994 -0.501906 1.559 255 255 255
-1.07348 0.455805 2.057 255 255 255
0.467491 -0.0822641 2.121 255 255 255
0.0418131 -0.172101 2.469 255 255 255
-0.962859 0.635779 1.923 255 255 255
0.803262 0.101759 1.729 255 255 255
0.710442 -0.307919 1.579 255 255 255
-0.6004 -0.36461 1.466 255 255 255
0.881667 0.781546 2.253 255 255 255
-0.359594 0.0278006 2.092 255 255 255
-0.349444 0.452495 2.479 255 255 255
0.0676877 -0.456265 2.143 255 255 255
0.680034 0.145471 2.024 255 255 255
0.252948 -0.00807842 2.707 255 255 255
0.0878858 0.16576 0.801 255 255 255
-0.582213 0.198614 2.173 255 255 255
-0.432293 -0.289339 1.729 255 255 255
0.484041 -0.632147 1.705 255 255 255
0.157627 -0.0122669 2.66 255 255 255
0.932761 0.626628 1.953 255 255 255
0.712448 -0.222789 1.595 255 255 255
0.0318826 0.188409 0.771 255 255 255
-0.424759 -0.305638 1.71 255 255 255
-0.519411 0.61522 2.064 255 255 255
-0.473294 0.151466 2.261 255 255 255
-0.539712 -0.0798343 1.899 255 255 255
-0.278793 -0.017589 2.236 255 255 255
0.0563789 0.13095 0.78 255 255 255
0.0844428 -0.649481 1.893 255 255 255
0.494589 -0.619766 1.815 255 255 255
0.699242 0.229884 1.985 255 255 255
0.656565 0.0785081 1.917 255 255 255
0.104693 0.245731 0.762 0 0 0
-0.651799 -0.121565 1.744 255 255 255
-0.512748 -0.537907 1.384 255 255 255
-0.694422 -0.0174872 1.842 255 255 255
0.469724 -0.263854 2.196 255 255 255
0.446632 -0.463176 1.887 255 255 255
0.60196 -0.534708 1.612 255 255 255
-0.43867 -0.545433 1.452 255 255 255
0.109957 0.0548018 2.768 255 255 255
-0.568339 -0.493121 1.366 255 255 255
-0.94036 0.39502 2.037 255 255 255
-0.440785 -0.519571 1.459 255 255 255
0.133683 0.146199 2.793 0 0 0
-0.495022 -0.436254 1.516 255 255 255
0.654678 0.536519 2.181 255 255 255
-0.542668 -0.383405 1.583 255 255 255
-0.037956 0.240919 0.948 255 255 255
0.486448 0.221686 2.383 255 255 255
-0.83732 0.112072 1.853 255 255 255
-0.83284 0.0641714 1.779 255 255 255
-0.0472149 0.228577 0.948 255 255 255
0.185037 0.222069 0.675 255 255 255
-0.253526 0.104281 2.449 255 255 255
-0.0348033 -0.318458 2.228 255 255 255
0.54306 -0.355538 1.87 255 255 255
-0.22212 0.54994 2.411 255 255 255
-0.546541 -0.481601 1.384 255 255 255
0.703402 0.552736 2.189 255 255 255
-0.403426 0.596452 2.347 255 255 255
-0.00439952 0.401771 1.041 255 255 255
0.789325 0.0289183 1.748 255 255 255
0.861004 0.609718 2.228 0 0 0
-0.401121 -0.0877716 2.01 255 255 255
0.790092 0.404207 1.923 255 255 255
-0.849758 0.377215 2.143 255 255 255
-0.704088 0.392436 2.189 255 255 255
-0.175 -0.298811 2.044 255 255 255
0.732034 0.661569 2.244 255 255 255
-0.283398 0.66772 2.303 255 255 255
0.00929821 0.268783 0.892 255 255 255
-0.241425 0.681299 2.261 255 255 255
-0.0364015 0.0842011 0.782 0 0 0
-0.239794 0.70613 2.212 255 255 255
0.318042 -0.248471 2.43 255 255 255
0.305012 -0.440145 2.22 255 255 255
-0.561351 0.720553 1.899 255 255 255
-0.47406 -0.417617 1.52 255 255 255
-0.109251 -0.0413781 2.347 255 255 255
0.948596 0.804002 2.204 0 0 0
0.0622455 0.119773 0.79 255 255 255
-0.555241 0.580763 2.085 255 255 255
0.101736 0.315994 0.84 255 255 255
-0.711214 0.278445 2.189 255 255 255
-0.347 0.39076 2.55 255 255 255
-0.595028 0.0134984 1.991 255 255 255
-0.552424 0.462775 2.347 255 255 255
-0.522934 0.602485 2.078 255 255 255
0.714818 -0.241722 1.583 255 255 255
-0.274682 -0.415953 1.729 255 255 255
-0.0423588 -0.229452 2.244 255 255 255
-0.609958 -0.483352 1.345 255 255 255
0.105667 0.000719225 2.66 255 255 255
0.106668 0.110301 0.815 255 255 255
0.263349 -0.501533 2.204 255 255 255
0.635387 0.0035715 1.882 255 255 255
0.639777 0.100979 1.991 255 255 255
0.73358 -0.0165568 1.744 255 255 255
0.239751 -0.61903 2.092 255 255 255
-0.647002 -0.102602 1.81 255 255 255
0.613554 0.0404678 2.044 255 255 255
-0.785149 -0.147101 1.563 255 255 255
-0.641109 -0.476154 1.319 255 255 255
-0.161159 -0.129456 2.22 255 255 255
0.676436 -0.523709 1.498 255 255 255
0.114711 -0.422993 2.244 255 255 255
-0.585187 -0.480837 1.369 255 255 255
-0.69006 -0.137745 1.633 255 255 255
-0.381125 0.690661 1.991 255 255 255
0.169817 -0.247206 2.582 255 255 255
0.115472 0.312855 0.821 255 255 255
0.757224 0.192605 1.935 255 255 255
0.00691381 0.162656 0.786 255 255 255
-0.88487 0.308286 2.078 255 255 255
-0.0460116 -0.30979 2.244 255 255 255
0.667426 -0.340742 1.664 255 255 255
0.78402 0.666488 2.236 255 255 255
-0.414243 -0.258712 1.81 255 255 255
0.420634 0.0535427 2.499 255 255 255
-0.958939 0.46356 2.092 255 255 255
-0.35732 0.0866751 2.204 255 255 255
0.433629 -0.0769271 2.269 255 255 255
0.792556 -0.0133726 1.7 255 255 255
-0.134557 -0.516272 1.774 255 255 255
-0.921903 0.64718 1.929 255 255 255
0.622452 -0.574795 1.571 255 255 255
0.202175 0.230397 0.626 255 255 255
-0.221391 -0.417515 1.848 255 255 255
-0.380014 -0.285322 1.774 255 255 255
0.859881 0.822245 2.244 255 255 255
-0.470346 -0.470797 1.524 255 255 255
-0.942101 0.592804 1.978 255 255 255
0.663195 0.322897 2.085 255 255 255
-0.939547 0.432373 2.057 255 255 255
0.701148 -0.103937 1.734 255 255 255
0.0480637 0.217376 0.834 0 0 0
-0.865821 0.692107 1.923 255 255 255
-0.513352 0.117713 2.181 255 255 255
0.150986 0.23478 0.68 255 255 255
-0.243263 0.694435 2.244 255 255 255
0.548761 0.0797904 2.212 255 255 255
0.736393 0.279724 1.972 255 255 255
0.428634 0.224878 2.649 255 255 255
-0.954001 0.647424 1.893 255 255 255
-0.656756 0.488852 2.128 255 255 255
0.521356 -0.549905 1.691 255 255 255
0.840227 0.16038 1.724 255 255 255
0.558372 0.662384 2.392 0 0 0
-0.507356 -0.46463 1.473 255 255 255
-0.318512 -0.310089 1.853 255 255 255
-0.462746 -0.127442 1.966 255 255 255
0.211055 -0.494335 2.22 255 255 255
-0.68622 -0.38926 1.384 255 255 255
0.176304 -0.53432 2.107 255 255 255
-0.166844 -0.587159 1.664 255 255 255
-0.568987 0.287604 2.261 255 255 255
-0.688148 -0.312531 1.435 255 255 255
0.136445 0.246945 0.702 255 255 255
0.514201 0.000579436 2.143 255 255 255
0.425068 0.303617 2.55 255 255 255
0.524431 -0.589477 1.71 255 255 255
0.700679 -0.114228 1.719 255 255 255
-0.128225 -0.643234 1.655 255 255 255
-0.497544 -0.0299731 2.085 255 255 255
0.659877 -0.558078 1.539 255 255 255
0.880026 0.590941 2.212 0 0 0
-0.621877 -0.343139 1.466 255 255 255
0.772333 0.0581687 1.865 255 255 255
0.710528 0.556299 2.189 255 255 255
0.489032 0.00799832 2.269 255 255 255
0.0719958 0.208995 0.844 0 0 0
-0.282581 0.460849 2.459 255 255 255
-0.678596 -0.298038 1.491 255 255 255
0.453385 -0.327491 2.057 255 255 255
0.668879 0.543618 2.181 255 255 255
-0.516873 0.205024 2.166 255 255 255
0.735833 -0.00239229 1.763 255 255 255
-0.595181 -0.243897 1.65 255 255 255
0.30141 -0.585298 2.143 255 255 255
0.720724 0.0369239 1.865 255 255 255
-0.63554 -0.0118477 1.899 255 255 255
0.124912 0.260946 0.735 255 255 255
-0.653232 -0.248745 1.595 255 255 255
-0.0114626 0.300449 0.927 255 255 255
0.835829 0.782804 2.278 255 255 255
0.401976 -0.140252 2.278 255 255 255
-0.228296 -0.45241 1.831 255 255 255
-0.263967 -0.613406 1.612 255 255 255
0.796036 0.145213 1.744 255 255 255
-0.208537 -0.317289 1.953 255 255 255
0.685434 -0.535749 1.445 255 255 255
0.0328337 0.104875 0.794 255 255 255
-0.90342 0.431112 2.051 255 255 255
-0.107169 -0.500127 1.799 255 255 255
0.654645 0.672852 2.374 255 255 255
-0.0623935 0.150278 2.626 255 255 255
0.944845 0.580552 1.876 255 255 255
-0.646745 -0.123308 1.769 255 255 255
0.778098 -0.120091 1.646 255 255 255
-0.239745 -0.46361 1.805 255 255 255
-0.527697 0.518225 2.356 255 255 255
0.232641 0.228422 0.602 255 255 255
0.862055 0.611632 2.158 0 0 0
-1.02241 0.331156 1.935 255 255 255
-0.629658 -0.255878 1.575 255 255 255
0.5428 -0.293639 1.923 255 255 255
-0.711821 0.101916 1.947 255 255 255
-0.580943 0.606544 2.092 255 255 255
0.0177679 0.245118 0.88 255 255 255
-0.59843 0.4311 2.261 255 255 255
-0.308207 0.0437939 2.212 255 255 255
-0.62616 -0.294343 1.535 255 255 255
0.548513 0.212662 2.286 255 255 255
0.579183 -0.202959 2.017 255 255 255
-0.66837 -0.442751 1.348 255 255 255
-0.373288 0.510595 2.374 255 255 255
0.485632 -0.600373 1.837 255 255 255
-0.0144325 -0.501737 1.929 255 255 255
-0.702474 0.564168 2.099 255 255 255
0.437296 -0.43221 1.941 255 255 255
-0.671453 -0.174949 1.633 255 255 255
-0.589721 0.611989 2.099 255 255 255
0.810381 0.11053 1.691 255 255 255
-0.566817 -0.465836 1.384 255 255 255
0.581321 -0.313391 1.837 255 255 255
-0.451252 -0.464204 1.535 255 255 255
0.621866 -0.202959 2.017 255 255 255
0.62054 -0.136069 1.865 255 255 255
-0.483557 0.589278 2.128 255 255 255
-0.775432 0.0360528 1.821 255 255 255
-0.731879 -0.162682 1.591 255 255 255
0.309738 -0.383721 2.228 255 255 255
-0.68326 0.694266 1.929 255 255 255
-0.459944 -0.452891 1.539 255 255 255
0.349658 -0.739622 1.911 255 255 255
-0.677383 -0.239559 1.603 255 255 255
0.0951935 0.102846 0.819 255 255 255
0.772288 -0.29918 1.509 255 255 255
0.784059 -0.243906 1.532 255 255 255
0.72361 -0.276601 1.591 255 255 255
0.615875 -0.469599 1.587 255 255 255
0.573549 0.631998 2.44 255 255 255
-0.0194831 0.101637 0.82 255 255 255
0.693972 -0.518615 1.463 255 255 255
-0.450328 0.396017 2.479 255 255 255
-0.690313 -0.396684 1.348 255 255 255
0.0450669 0.161828 0.782 255 255 255
0.0954182 -0.233881 2.402 255 255 255
0.574979 -0.00276409 2.037 255 255 255
0.643052 0.680579 2.374 0 0 0
-0.274855 -0.454659 1.748 255 255 255
-0.938186 0.721996 1.911 255 255 255
0.448796 -0.568474 1.821 255 255 255
0.678923 -0.283024 1.659 255 255 255
-0.255849 -0.105723 2.107 255 255 255
-0.190899 0.1723 2.572 255 255 255
0.47741 -0.0628606 2.166 255 255 255
0.820907 0.288826 1.865 255 255 255
-0.855427 -0.0419742 1.629 255 255 255
-0.628197 0.191542 2.173 255 255 255
-0.769903 0.405885 2.204 255 255 255
0.776123 0.202052 1.935 255 255 255
0.682846 -0.184564 1.805 255 255 255
0.6874 -0.254055 1.7 255 255 255
-0.819579 0.618366 1.947 255 255 255
0.0790537 0.15068 0.804 255 255 255
-0.415981 0.651397 2.051 255 255 255
0.730616 0.238351 1.923 255 255 255
-0.786325 -0.10417 1.607 255 255 255
-0.655476 0.204266 2.158 255 255 255
-0.144535 -0.372063 1.991 255 255 255
-0.928314 0.253113 1.848 255 255 255
0.537618 -0.118191 2.085 255 255 255
0.556033 -0.504576 1.794 255 255 255
0.937946 0.648541 1.991 255 255 255
-0.580243 -0.359065 1.513 255 255 255
-0.37111 0.694435 2.244 255 255 255
0.915281 0.634151 2.151 255 255 255
-0.855445 -0.0365598 1.624 255 255 255
-0.899572 0.652342 1.935 255 255 255
0.723161 -0.350748 1.509 255 255 255
-0.709831 0.105732 1.959 255 255 255
-0.707559 0.598426 2.064 255 255 255
0.17295 0.226463 0.675 255 255 255
-0.29183 -0.459761 1.714 255 255 255
0.0689198 0.209371 0.84 0 0 0
-0.602786 -0.371767 1.466 255 255 255
0.649813 -0.50828 1.563 255 255 255
0.665969 -0.521566 1.513 255 255 255
-1.08153 0.528243 2.092 255 255 255
0.642011 0.748264 2.356 255 255 255
