ply
format ascii 1.0
comment Created by Open3D
element vertex 1291
property double x
property double y
property double z
property uchar red
property uchar green
property uchar blue
end_header
0.0683197 0.606438 2.057 255 255 255
0.0777962 -0.263468 1.744 255 255 255
-0.630292 0.398222 1.509 255 255 255
0.391259 0.433304 2.03 255 255 255
-0.492148 -0.319117 1.044 255 255 255
0.315422 0.625291 2.01 255 255 255
-0.654326 0.432293 1.491 255 255 255
0.503251 -0.315657 1.286 255 255 255
-0.190796 0.206142 2.071 255 255 255
0.355128 -0.459607 1.327 255 255 255
0.274658 0.0302087 1.826 255 255 255
-0.0519508 -0.212276 1.923 255 255 255
0.53118 0.196415 1.696 255 255 255
-0.570049 -0.0603518 1.165 255 255 255
-0.261273 -0.333517 1.52 255 255 255
0.938099 0.525612 1.887 255 255 255
0.640626 -0.00891543 1.429 255 255 255
0.495259 0.0954545 1.668 255 255 255
-0.203139 -0.167378 1.719 255 255 255
-0.543322 0.149842 1.435 255 255 255
0.285159 -0.507558 1.375 255 255 255
0.139863 0.032012 1.935 255 255 255
0.306415 -0.0578055 1.705 255 255 255
0.266182 -0.113895 1.714 255 255 255
-0.321411 -0.307861 1.435 255 255 255
0.17711 0.0538866 1.929 255 255 255
0.111863 -0.203869 1.744 255 255 255
0.640572 0.368108 1.686 255 255 255
0.0523536 -0.128814 1.848 255 255 255
-0.499985 -0.276051 1.068 255 255 255
-0.539862 0.298804 1.637 255 255 255
0.432676 -0.28132 1.396 255 255 255
-0.394039 -0.244762 1.333 255 255 255
-0.44925 -0.0441861 1.369 255 255 255
0.13114 0.119825 0.402 255 255 255
0.382915 -0.0684834 1.629 255 255 255
-0.276006 0.57205 2.078 255 255 255
-0.336643 0.203181 1.887 255 255 255
-0.401148 0.350578 1.887 255 255 255
-0.437088 -0.264739 1.234 255 255 255
0.257439 -0.261067 1.591 255 255 255
-0.431929 -0.302674 1.171 255 255 255
-0.0135814 0.389494 2.32 255 255 255
-0.190796 0.138738 2.071 255 255 255
0.165814 0.116646 0.346 255 255 255
0.69324 -0.0554464 1.372 255 255 255
-0.567747 0.18988 1.403 255 255 255
-0.0366393 0.676475 1.941 255 255 255
0.267693 -0.451809 1.425 255 255 255
0.0691406 0.463681 2.189 255 255 255
0.120394 -0.479493 1.528 255 255 255
-0.628897 0.619196 1.705 255 255 255
-0.187664 0.0336995 2.037 255 255 255
-0.362622 -0.402694 1.22 255 255 255
-0.314731 0.119681 1.831 255 255 255
-0.355581 -0.358041 1.273 255 255 255
-0.673635 0.467532 1.535 255 255 255
-0.412199 -0.193344 1.308 255 255 255
0.35845 0.0736755 1.799 255 255 255
0.136058 0.118155 0.403 255 255 255
-0.465523 0.48878 1.899 255 255 255
-0.0395365 -0.514046 1.664 255 255 255
-0.160877 0.518308 2.121 255 255 255
-0.304781 0.711282 1.899 255 255 255
-0.305482 -0.344216 1.384 255 255 255
0.569842 -0.252924 1.319 255 255 255
-0.680103 0.488882 1.516 255 255 255
0.342463 0.235221 1.923 255 255 255
-0.653452 0.207435 1.26 255 255 255
-0.4203 -0.23994 1.262 255 255 255
-0.189683 -0.0119975 1.923 255 255 255
0.393218 -0.47791 1.289 255 255 255
-0.662864 0.466245 1.539 255 255 255
0.367898 -0.338969 1.409 255 255 255
-0.198452 0.693067 1.917 255 255 255
-0.470616 -0.276239 1.118 255 255 255
-0.404009 -0.224508 1.316 255 255 255
-0.048093 0.463828 2.173 255 255 255
0.0244766 -0.5356 1.599 255 255 255
0.42088 -0.3481 1.33 255 255 255
-0.235124 -0.38736 1.48 255 255 255
-0.11328 -0.495046 1.673 255 255 255
0.323799 -0.291022 1.48 255 255 255
-0.397844 -0.223719 1.324 255 255 255
0.448156 0.364893 1.947 255 255 255
-0.526856 -0.068383 1.242 255 255 255
-0.0844542 -0.398905 1.753 255 255 255
-0.69372 0.416581 1.39 255 255 255
0.369664 -0.20984 1.52 255 255 255
0.250862 0.214379 1.991 255 255 255
0.35141 0.215464 1.887 255 255 255
-0.51966 -0.074866 1.249 255 255 255
-0.527937 -0.128881 1.203 255 255 255
-0.455088 -0.399667 1.037 255 255 255
-0.515682 0.0402639 1.362 255 255 255
-0.52485 -0.150617 1.145 255 255 255
0.419632 0.361725 1.947 255 255 255
0.509015 -0.427397 1.234 255 255 255
0.0842557 0.511405 2.121 255 255 255
-0.611109 0.710683 1.826 255 255 255
0.510655 -0.280372 1.327 255 255 255
0.13018 0.139102 0.373 255 255 255
0.248632 -0.478836 1.409 255 255 255
0.158301 -0.118042 1.821 255 255 255
-0.54355 -0.0338044 1.234 255 255 255
0.474679 0.175485 1.763 255 255 255
0.548965 -0.377665 1.229 255 255 255
0.487373 0.424494 2.004 255 255 255
0.389368 -0.316713 1.412 255 255 255
-0.573536 -0.0210858 1.196 255 255 255
-0.498004 0.682529 1.905 255 255 255
0.117963 -0.0547636 1.887 255 255 255
0.49081 0.0257916 1.559 255 255 255
-0.236349 -0.520984 1.375 255 255 255
0.584249 -0.122261 1.422 255 255 255
0.45333 -0.413762 1.305 255 255 255
-0.215816 0.691829 1.905 255 255 255
0.441691 -0.421286 1.302 255 255 255
0.426344 0.488017 2.024 255 255 255
-0.410436 -0.190243 1.316 255 255 255
0.527988 -0.135431 1.439 255 255 255
-0.53782 -0.0209318 1.308 255 255 255
0.0709712 -0.481139 1.591 255 255 255
-0.499476 0.580345 1.947 255 255 255
0.648031 -0.101414 1.39 255 255 255
0.58558 0.0978215 1.575 255 255 255
0.652256 0.000386381 1.429 255 255 255
0.620633 -0.0160364 1.442 255 255 255
0.370778 0.38286 1.991 255 255 255
0.158105 0.0965114 1.966 255 255 255
0.330305 -0.317201 1.435 255 255 255
-0.18476 0.46765 2.158 255 255 255
-0.227022 -0.474006 1.429 255 255 255
0.0803739 -0.448834 1.624 255 255 255
-0.419795 -0.427285 1.104 255 255 255
-0.579341 0.151864 1.33 255 255 255
-0.69536 0.517107 1.47 255 255 255
-0.198291 0.612585 2.044 255 255 255
-0.079928 0.0394856 2.173 255 255 255
-0.669786 0.368136 1.378 255 255 255
-0.335698 0.0694573 1.696 255 255 255
0.755412 0.345181 1.655 255 255 255
0.569346 -0.286929 1.27 255 255 255
0.19221 0.0724951 1.923 255 255 255
0.295057 -0.480837 1.369 255 255 255
-0.406666 0.371764 1.87 255 255 255
-0.449557 0.0263298 1.449 255 255 255
0.403335 -0.366788 1.351 255 255 255
-0.502683 0.678459 1.911 255 255 255
0.331437 -0.435005 1.372 255 255 255
0.382398 0.334305 1.935 255 255 255
0.547689 0.285409 1.805 255 255 255
-0.535208 -0.210556 1.062 255 255 255
-0.412628 0.632254 1.941 255 255 255
-0.498867 -0.247628 1.104 255 255 255
-0.439424 -0.352088 1.122 255 255 255
0.499443 0.0473884 1.603 255 255 255
-0.312065 -0.420188 1.273 255 255 255
0.52638 -0.163914 1.422 255 255 255
-0.514364 -0.275676 1.034 255 255 255
-0.551077 0.264948 1.563 255 255 255
-0.369319 -0.397083 1.203 255 255 255
0.278516 0.544259 2.128 255 255 255
-0.314156 0.432596 2.107 255 255 255
-0.527187 -0.249506 1.081 255 255 255
-0.390577 -0.245313 1.336 255 255 255
-0.396841 0.110203 1.686 255 255 255
0.524673 -0.393967 1.262 255 255 255
-0.440165 -0.12906 1.348 255 255 255
-0.317602 -0.242719 1.494 255 255 255
0.504944 0.308076 1.853 255 255 255
0.570903 0.256376 1.691 255 255 255
0.113953 -0.0871019 1.923 255 255 255
-0.323158 0.680682 1.935 255 255 255
-0.312428 -0.41305 1.283 255 255 255
-0.443495 -0.0667233 1.422 255 255 255
-0.375179 -0.258383 1.359 255 255 255
-0.524027 -0.2099 1.104 255 255 255
-0.487606 0.0095526 1.409 255 255 255
0.338938 -0.351493 1.432 255 255 255
0.276815 -0.135998 1.677 255 255 255
0.432933 0.491311 2.024 255 255 255
-0.603483 0.017467 1.171 255 255 255
0.404007 0.581961 2.114 255 255 255
-0.488135 -0.375487 0.991 255 255 255
-0.672521 0.395601 1.412 255 255 255
-0.439922 -0.236138 1.242 255 255 255
-0.17964 -0.231911 1.763 255 255 255
0.379483 0.224368 1.859 255 255 255
0.450505 -0.156753 1.509 255 255 255
0.119876 -0.407617 1.587 255 255 255
0.659365 -0.0838558 1.362 255 255 255
0.136787 0.132859 0.383 255 255 255
-0.329694 -0.0867176 1.575 255 255 255
-0.25297 -0.0176486 1.859 255 255 255
-0.10562 0.373547 2.269 255 255 255
-0.138469 0.617997 1.997 255 255 255
-0.491457 0.30477 1.7 255 255 255
-0.274475 0.340061 2.173 255 255 255
0.162116 0.123664 0.336 255 255 255
0.389022 -0.490496 1.289 255 255 255
-0.541719 -0.0319252 1.239 255 255 255
0.519937 0.276085 1.821 255 255 255
-0.513374 -0.132576 1.201 255 255 255
0.43887 -0.351661 1.319 255 255 255
0.635904 -0.147478 1.336 255 255 255
-0.440253 0.112625 1.567 255 255 255
0.363174 -0.091378 1.612 255 255 255
0.119021 -0.512599 1.48 255 255 255
-0.561855 -0.0424949 1.196 255 255 255
0.366142 -0.304248 1.429 255 255 255
-0.651098 0.593644 1.642 255 255 255
0.0911405 0.448925 2.204 255 255 255
-0.224954 0.272874 2.173 255 255 255
0.741966 0.236448 1.543 255 255 255
0.451576 0.31596 1.882 255 255 255
-0.0350532 0.405948 2.244 255 255 255
0.219488 -0.190579 1.677 255 255 255
0.0153619 0.485323 2.143 255 255 255
0.227067 -0.351118 1.543 255 255 255
-0.19438 0.395802 2.228 255 255 255
0.0135268 -0.122321 1.887 255 255 255
0.277053 -0.0430649 1.784 255 255 255
0.3674 -0.185254 1.563 255 255 255
-0.114252 0.295535 2.294 255 255 255
-0.468327 -0.386536 1.029 255 255 255
0.16564 0.114489 0.348 255 255 255
0.425447 -0.361612 1.324 255 255 255
-0.0115793 0.621774 1.978 255 255 255
0.466573 -0.358765 1.283 255 255 255
0.589795 0.340084 1.799 255 255 255
-0.570179 -0.026767 1.189 255 255 255
0.301756 -0.12682 1.664 255 255 255
-0.528119 0.1751 1.491 255 255 255
0.397002 0.174355 1.842 255 255 255
-0.318768 -0.382669 1.345 255 255 255
-0.00185488 0.709557 1.911 255 255 255
0.317978 0.423713 2.114 255 255 255
0.593441 -0.131761 1.4 255 255 255
-0.0982877 -0.220281 1.911 255 255 255
0.320704 -0.101587 1.65 255 255 255
-0.00167822 -0.348425 1.729 255 255 255
0.659129 0.173825 1.567 255 255 255
-0.490554 -0.2284 1.152 255 255 255
0.130664 -0.0610988 1.893 255 255 255
0.624487 -0.126568 1.393 255 255 255
-0.404748 -0.32944 1.192 255 255 255
-0.0802853 -0.558317 1.612 255 255 255
-0.295528 0.34573 2.121 255 255 255
0.59661 -0.331896 1.208 255 255 255
0.610636 -0.235752 1.319 255 255 255
0.579887 -0.292174 1.257 255 255 255
-0.0671803 0.678459 1.911 255 255 255
0.054579 0.120298 2.044 255 255 255
-0.0197953 0.180933 2.173 255 255 255
0.583368 0.40457 1.853 255 255 255
-0.613791 0.0912872 1.242 255 255 255
-0.593812 -0.0201866 1.145 255 255 255
0.124326 0.423283 2.22 255 255 255
0.258439 0.0126035 1.859 255 255 255
-0.0877898 0.521744 2.107 255 255 255
-0.232448 -0.354759 1.559 255 255 255
0.668986 -0.109526 1.324 255 255 255
0.176055 0.118211 0.344 255 255 255
-0.229135 0.737495 1.887 255 255 255
-0.311829 -0.121502 1.629 255 255 255
0.656889 -0.0271339 1.409 255 255 255
0.252387 0.00957826 1.859 255 255 255
-0.0889555 0.672239 1.911 255 255 255
0.367537 0.37962 1.991 255 255 255
-0.55829 -0.00372736 1.249 255 255 255
0.11696 0.231607 2.151 255 255 255
0.447035 0.0830116 1.691 255 255 255
-0.483387 -0.192518 1.185 255 255 255
-0.236399 -0.260427 1.603 255 255 255
0.492274 0.190622 1.744 255 255 255
0.64889 -0.107966 1.387 255 255 255
0.548475 -0.164749 1.39 255 255 255
0.242271 -0.355165 1.528 255 255 255
-0.589087 -0.0522702 1.154 255 255 255
-0.598155 0.257414 1.449 255 255 255
0.561863 0.413964 1.882 255 255 255
-0.459693 -0.152423 1.286 255 255 255
0.699685 0.160673 1.47 255 255 255
0.0404624 -0.00924165 2.004 255 255 255
-0.0798163 0.575432 2.078 255 255 255
0.259918 0.00651428 1.848 255 255 255
-0.44697 0.458185 1.953 255 255 255
0.514337 -0.407935 1.242 255 255 255
-0.592331 0.121563 1.33 255 255 255
0.0400934 -0.341814 1.71 255 255 255
0.165537 -0.390145 1.579 255 255 255
0.446491 0.0310724 1.71 255 255 255
-0.118455 0.0605072 2.166 255 255 255
-0.492037 -0.164543 1.178 255 255 255
0.0660768 0.545265 2.092 255 255 255
-0.485297 -0.130194 1.234 255 255 255
-0.370854 -0.39087 1.208 255 255 255
0.286354 -0.400468 1.449 255 255 255
-0.311137 -0.262871 1.498 255 255 255
0.211221 -0.225784 1.655 255 255 255
-0.668831 0.362294 1.39 255 255 255
-0.403894 -0.328018 1.201 255 255 255
-0.371361 0.218009 1.831 255 255 255
-0.402704 -0.299162 1.252 255 255 255
0.56299 -0.111501 1.463 255 255 255
-0.512956 -0.195331 1.156 255 255 255
0.0435718 0.485208 2.158 255 255 255
0.204117 -0.302733 1.62 255 255 255
0.632811 -0.166686 1.316 255 255 255
-0.297239 -0.357312 1.409 255 255 255
-0.351892 -0.0859362 1.516 255 255 255
0.756481 0.244614 1.547 255 255 255
0.330305 -0.35223 1.435 255 255 255
-0.149931 -0.514085 1.52 255 255 255
-0.440542 -0.00661765 1.435 255 255 255
0.35256 -0.00783972 1.7 255 255 255
0.10121 0.460119 2.189 255 255 255
-0.51823 -0.303301 1.025 255 255 255
0.460041 -0.429226 1.294 255 255 255
0.449044 -0.237462 1.419 255 255 255
0.497145 -0.0302536 1.571 255 255 255
-0.262227 -0.250099 1.555 255 255 255
0.55276 -0.0218509 1.52 255 255 255
-0.685487 0.517617 1.528 255 255 255
-0.431648 -0.348911 1.16 255 255 255
0.610796 -0.223719 1.324 255 255 255
0.312646 -0.147234 1.65 255 255 255
0.158312 0.101729 0.361 255 255 255
0.0141361 0.639143 1.972 255 255 255
-0.598357 0.212083 1.384 255 255 255
0.17132 -0.20594 1.714 255 255 255
-0.495807 0.421608 1.659 255 255 255
0.182804 0.51671 2.143 255 255 255
-0.311394 -0.386574 1.351 255 255 255
0.0829086 0.678571 1.929 255 255 255
-0.494867 0.724437 1.893 255 255 255
0.230602 0.590345 2.071 255 255 255
-0.554634 0.630452 1.826 255 255 255
-0.260339 -0.190124 1.673 255 255 255
0.187697 -0.157317 1.763 255 255 255
0.544751 0.285409 1.805 255 255 255
-0.040824 0.60642 1.991 255 255 255
-0.331388 -0.122938 1.547 255 255 255
-0.380717 -0.298622 1.267 255 255 255
-0.339715 0.224676 1.887 255 255 255
-0.0361862 0.689947 1.917 255 255 255
0.696766 0.111218 1.449 255 255 255
-0.392676 -0.177465 1.366 255 255 255
0.494144 -0.430449 1.237 255 255 255
0.414397 -0.228463 1.435 255 255 255
0.480702 -0.187173 1.459 255 255 255
0.176129 -0.392814 1.559 255 255 255
0.0891887 0.687988 1.929 255 255 255
0.409377 -0.229578 1.442 255 255 255
0.546895 0.0539742 1.567 255 255 255
-0.0389611 0.588349 2.064 255 255 255
-0.120556 -0.58984 1.524 255 255 255
0.582556 0.213318 1.677 255 255 255
0.564028 -0.397274 1.169 255 255 255
0.582677 -0.327251 1.22 255 255 255
0.463692 -0.0406859 1.579 255 255 255
0.401395 -0.421688 1.33 255 255 255
0.632266 0.209883 1.65 255 255 255
-0.101208 0.334249 2.253 255 255 255
-0.0960775 -0.0431064 2.064 255 255 255
0.177781 -0.0360116 1.87 255 255 255
-0.624101 0.28571 1.449 255 255 255
-0.388729 0.00574229 1.629 255 255 255
-0.17915 -0.480661 1.516 255 255 255
0.339124 0.169403 1.887 255 255 255
0.185728 -0.26013 1.668 255 255 255
-0.361634 -0.376098 1.237 255 255 255
0.425784 -0.154458 1.535 255 255 255
0.123839 -0.505374 1.48 255 255 255
0.500592 0.352712 1.882 255 255 255
0.473934 0.360396 1.923 255 255 255
-0.216434 -0.439121 1.484 255 255 255
0.627073 -0.0385984 1.409 255 255 255
0.0614948 0.394135 2.303 255 255 255
0.410064 0.0954769 1.769 255 255 255
-0.17067 0.15882 2.114 255 255 255
-0.218776 -0.188763 1.71 255 255 255
-0.472766 -0.327269 1.106 255 255 255
-0.45426 -0.19694 1.237 255 255 255
-0.504206 0.620527 1.905 255 255 255
-0.108827 0.597994 2.051 255 255 255
0.316723 -0.0626487 1.686 255 255 255
0.560222 -0.414396 1.169 255 255 255
-0.652078 0.582115 1.686 255 255 255
0.0916758 -0.323298 1.686 255 255 255
0.136113 0.125768 0.39 255 255 255
0.436723 -0.39459 1.319 255 255 255
-0.137759 -0.500636 1.579 255 255 255
-0.710019 0.545685 1.432 255 255 255
-0.622232 0.235114 1.387 255 255 255
-0.546808 -0.00807317 1.294 255 255 255
0.591076 0.420883 1.794 255 255 255
-0.60086 0.685812 1.831 255 255 255
-0.679992 0.60563 1.603 255 255 255
-0.162083 0.031205 2.092 255 255 255
-0.153046 -0.576436 1.502 255 255 255
-0.253655 0.072439 1.842 255 255 255
-0.267023 0.506277 2.114 255 255 255
0.385315 -0.397406 1.381 255 255 255
-0.51455 0.125045 1.473 255 255 255
0.122902 -0.00266775 1.966 255 255 255
0.173877 0.551761 2.078 255 255 255
-0.090873 0.0183357 2.181 255 255 255
-0.467525 0.306267 1.724 255 255 255
-0.230514 -0.417095 1.466 255 255 255
0.101519 0.245635 2.121 255 255 255
0.186593 0.257728 2.107 255 255 255
0.322258 -0.279734 1.484 255 255 255
0.0767897 0.448925 2.204 255 255 255
-0.373634 -0.391534 1.198 255 255 255
-0.214449 -0.375929 1.595 255 255 255
0.68689 0.23961 1.633 255 255 255
0.535209 -0.194677 1.362 255 255 255
-0.349355 0.0743583 1.682 255 255 255
0.297429 -0.438496 1.412 255 255 255
-0.533876 -0.00396908 1.33 255 255 255
0.126941 0.126774 0.337 255 255 255
-0.699567 0.546181 1.484 255 255 255
-0.345927 -0.373809 1.299 255 255 255
0.0329729 0.678566 1.947 255 255 255
-0.053341 -0.608004 1.591 255 255 255
0.474372 -0.283181 1.372 255 255 255
-0.150514 -0.259861 1.758 255 255 255
0.442704 -0.171867 1.491 255 255 255
0.308575 -0.434769 1.4 255 255 255
-0.523655 -0.0624199 1.244 255 255 255
0.361245 0.304067 1.923 255 255 255
-0.445942 -0.363745 1.102 255 255 255
0.610168 0.0298757 1.509 255 255 255
-0.464384 -0.391324 1.024 255 255 255
-0.335555 -0.0413043 1.603 255 255 255
0.677606 -0.0643772 1.372 255 255 255
0.508064 -0.454346 1.194 255 255 255
-0.598583 -0.0463535 1.147 255 255 255
0.551379 -0.307712 1.262 255 255 255
-0.366605 0.69274 1.899 255 255 255
0.581181 0.275146 1.705 255 255 255
0.579905 0.354208 1.842 255 255 255
0.462192 -0.287018 1.369 255 255 255
0.117124 0.133272 0.386 255 255 255
0.188289 -0.244454 1.691 255 255 255
0.0584508 0.456556 2.189 255 255 255
-0.413356 -0.320631 1.167 255 255 255
-0.576291 0.5454 1.81 255 255 255
0.230132 0.643635 2.037 255 255 255
0.514712 0.469451 1.947 255 255 255
0.191756 -0.123656 1.774 255 255 255
0.287079 -0.379364 1.477 255 255 255
0.210711 0.506247 2.143 255 255 255
0.129225 -0.440417 1.575 255 255 255
-0.211583 -0.366284 1.633 255 255 255
0.590292 0.398087 1.837 255 255 255
-0.187814 -0.259576 1.682 255 255 255
-0.63861 0.473704 1.547 255 255 255
0.446538 -0.398293 1.31 255 255 255
-0.411668 0.702873 1.893 255 255 255
-0.467799 -0.191043 1.225 255 255 255
0.623132 -0.13612 1.375 255 255 255
0.932692 0.502618 1.87 255 255 255
0.192828 -0.277624 1.659 255 255 255
-0.1231 0.268681 2.32 255 255 255
-0.534881 0.567096 1.882 255 255 255
-0.165488 0.569096 2.092 255 255 255
-0.542221 -0.229667 1.039 255 255 255
0.497144 0.000420449 1.555 255 255 255
-0.561359 0.225262 1.47 255 255 255
-0.529392 -0.276343 1.024 255 255 255
-0.252288 0.660813 1.923 255 255 255
0.710661 0.274873 1.591 255 255 255
0.587801 -0.0993293 1.425 255 255 255
0.316622 -0.161266 1.629 255 255 255
-0.408797 0.310808 1.799 255 255 255
-0.300731 0.648875 1.953 255 255 255
0.688489 0.184194 1.547 255 255 255
-0.572254 0.0286779 1.244 255 255 255
0.203715 -0.196621 1.682 255 255 255
0.423248 0.583463 2.107 255 255 255
-0.572977 -0.0192515 1.203 255 255 255
0.423277 0.253071 1.826 255 255 255
-0.1224 -0.200356 1.899 255 255 255
-0.530272 -0.237183 1.073 255 255 255
0.0258083 -0.39189 1.686 255 255 255
0.521216 -0.257491 1.366 255 255 255
0.665065 0.412437 1.758 0 0 0
0.230303 0.301155 2.099 255 255 255
-0.480648 0.564173 1.935 255 255 255
-0.622887 0.136664 1.232 255 255 255
-0.397314 -0.022124 1.539 255 255 255
-0.591179 0.325148 1.535 255 255 255
-0.367595 0.216321 1.842 255 255 255
0.135889 -0.353694 1.624 255 255 255
-0.283818 0.0651093 1.805 255 255 255
-0.373205 -0.357406 1.242 255 255 255
0.483727 0.33327 1.876 255 255 255
0.269008 -0.444707 1.432 255 255 255
0.0298568 -0.277814 1.763 255 255 255
0.586488 0.148069 1.62 255 255 255
-0.124393 -0.271022 1.794 255 255 255
-0.112946 0.447295 2.196 255 255 255
0.524712 -0.451624 1.162 255 255 255
-0.176337 -0.305198 1.677 255 255 255
-0.425924 -0.29271 1.225 255 255 255
-0.541086 0.197893 1.48 255 255 255
0.50484 0.162814 1.691 255 255 255
-0.509173 -0.356665 0.988 255 255 255
-0.588198 0.533514 1.724 255 255 255
-0.309463 0.12715 1.853 255 255 255
0.0603071 -0.496752 1.583 255 255 255
-0.453541 -0.372973 1.057 255 255 255
0.373807 0.598326 2.099 255 255 255
-0.584678 0.021569 1.187 255 255 255
0.437648 0.0368307 1.719 255 255 255
0.394083 -0.088039 1.599 255 255 255
0.0648883 0.487007 2.166 255 255 255
0.371692 -0.351976 1.406 255 255 255
-0.483206 -0.372464 1.018 255 255 255
-0.503973 0.261927 1.591 255 255 255
0.435212 -0.474514 1.247 255 255 255
-0.447926 -0.406806 1.06 255 255 255
-0.483798 0.627151 1.935 255 255 255
-0.165404 -0.351913 1.705 255 255 255
0.291531 -0.47034 1.384 255 255 255
0.0902983 0.655232 1.953 255 255 255
-0.40678 -0.309349 1.252 255 255 255
0.692358 0.313839 1.646 255 255 255
-0.260339 -0.103003 1.673 255 255 255
0.595932 -0.273448 1.265 255 255 255
-0.548814 0.148798 1.425 255 255 255
-0.578126 0.399045 1.655 255 255 255
0.622872 0.239317 1.668 255 255 255
-0.0331692 -0.159077 1.923 255 255 255
-0.19674 -0.528109 1.412 255 255 255
0.258993 -0.48593 1.403 255 255 255
-0.543341 -0.0671717 1.22 255 255 255
0.110161 -0.141682 1.859 255 255 255
0.524988 0.0156034 1.555 255 255 255
0.430127 0.371654 1.966 255 255 255
0.371392 -0.144558 1.591 255 255 255
-0.492214 0.511592 1.826 255 255 255
0.730286 0.307947 1.629 255 255 255
-0.441585 -0.141273 1.339 255 255 255
-0.504682 -0.347857 0.995 255 255 255
0.571015 -0.413093 1.16 255 255 255
-0.716204 0.499283 1.381 255 255 255
0.354465 0.0554864 1.779 255 255 255
0.100142 0.00690556 1.959 255 255 255
0.579356 0.0980699 1.579 255 255 255
0.571303 0.446786 1.853 255 255 255
-0.314253 -0.221184 1.513 255 255 255
0.261739 -0.288056 1.555 255 255 255
0.367898 -0.37107 1.409 255 255 255
0.0976887 0.721996 1.911 255 255 255
0.0638373 -0.480747 1.607 255 255 255
0.286224 -0.0982937 1.734 255 255 255
0.34768 -0.270778 1.449 255 255 255
-0.149632 0.46765 2.158 255 255 255
-0.364861 0.494303 2.064 255 255 255
0.642152 -0.160992 1.322 255 255 255
0.499623 -0.0549662 1.547 255 255 255
-0.163337 -0.42477 1.603 255 255 255
-0.627117 0.281766 1.429 255 255 255
-0.0492379 -0.39956 1.719 255 255 255
-0.381365 0.65669 1.911 255 255 255
0.446441 -0.385126 1.316 255 255 255
-0.618829 0.148117 1.244 255 255 255
0.130779 0.579309 2.092 255 255 255
0.130855 0.126353 0.333 255 255 255
0.271186 -0.459143 1.419 255 255 255
0.372785 -0.148231 1.575 255 255 255
-0.200502 -0.484348 1.439 255 255 255
0.716522 0.048532 1.409 255 255 255
-0.0285885 0.343002 2.312 255 255 255
-0.00684651 -0.568997 1.62 255 255 255
0.151083 0.128826 0.331 255 255 255
-0.640796 0.292803 1.393 255 255 255
-0.412829 -0.200035 1.31 255 255 255
-0.279738 -0.389197 1.425 255 255 255
0.253225 0.731326 1.911 255 255 255
-0.283203 -0.205076 1.559 255 255 255
0.244061 -0.159618 1.696 255 255 255
0.341309 -0.283153 1.452 255 255 255
-0.306129 0.410459 2.099 255 255 255
0.591513 -0.304055 1.247 255 255 255
0.459725 0.122157 1.739 255 255 255
-0.414117 -0.222707 1.281 255 255 255
0.30141 0.534146 2.143 255 255 255
-0.684037 0.440813 1.487 255 255 255
-0.712542 0.429225 1.387 255 255 255
-0.534881 0.655912 1.882 255 255 255
0.450729 0.2296 1.805 255 255 255
0.270383 -0.361123 1.491 255 255 255
0.196746 -0.0536318 1.848 255 255 255
-0.424409 -0.221457 1.262 255 255 255
0.556986 -0.114115 1.466 255 255 255
-0.375089 -0.0416392 1.52 255 255 255
-0.515002 0.00706905 1.372 255 255 255
0.222669 -0.473566 1.449 255 255 255
-0.281839 -0.438809 1.336 255 255 255
-0.481594 -0.124925 1.283 255 255 255
0.696425 0.228659 1.612 255 255 255
-0.301962 -0.137745 1.633 255 255 255
0.305959 0.272699 1.991 255 255 255
0.176855 -0.520279 1.422 255 255 255
-0.42051 0.331301 1.799 255 255 255
-0.154521 -0.476727 1.62 255 255 255
0.587771 -0.041849 1.442 255 255 255
-0.31127 0.0257904 1.729 255 255 255
0.402252 -0.198957 1.494 255 255 255
-0.436366 0.296757 1.734 255 255 255
0.447397 -0.126732 1.532 255 255 255
-0.323147 -0.365159 1.345 255 255 255
0.29414 0.316547 2.044 255 255 255
-0.607553 0.235039 1.4 255 255 255
-0.681341 0.408243 1.416 255 255 255
0.304526 0.0923878 1.882 255 255 255
0.0967686 -0.384885 1.633 255 255 255
-0.438218 -0.415867 1.07 255 255 255
0.690467 0.169059 1.502 255 255 255
-0.149073 -0.21453 1.81 255 255 255
-0.665086 0.373328 1.406 255 255 255
0.0794272 -0.152873 1.848 255 255 255
0.380673 0.0518227 1.753 255 255 255
-0.00539955 0.0411409 2.078 255 255 255
0.690833 0.121394 1.487 255 255 255
-0.210739 -0.483308 1.429 255 255 255
-0.128671 -0.540581 1.532 255 255 255
-0.630885 0.136335 1.194 255 255 255
-0.400786 -0.0461265 1.505 255 255 255
0.569428 -0.327685 1.252 255 255 255
-0.568961 0.199438 1.406 255 255 255
0.57487 -0.208494 1.351 255 255 255
0.503452 0.260408 1.815 255 255 255
-0.473362 -0.339212 1.059 255 255 255
-0.47621 0.118433 1.543 255 255 255
0.573765 -0.0238603 1.491 255 255 255
-0.370954 -0.177423 1.419 255 255 255
0.381383 -0.216554 1.498 255 255 255
0.507479 -0.276677 1.33 255 255 255
-0.455585 -0.336876 1.108 255 255 255
0.64779 0.380581 1.705 255 255 255
-0.380165 0.087573 1.673 255 255 255
-0.667099 0.472479 1.543 255 255 255
-0.51624 0.590417 1.859 255 255 255
0.155827 -0.400425 1.559 255 255 255
0.377797 -0.427401 1.362 255 255 255
-0.561559 0.627873 1.81 255 255 255
-0.442524 -0.342941 1.116 255 255 255
-0.468706 -0.197717 1.217 255 255 255
0.281264 -0.262075 1.551 255 255 255
-0.163337 -0.482159 1.603 255 255 255
-0.533176 0.717931 1.876 255 255 255
0.179493 -0.35895 1.612 255 255 255
-0.0945396 0.336623 2.269 255 255 255
-0.65085 0.671836 1.719 255 255 255
-0.0395365 -0.486968 1.664 255 255 255
0.510976 0.326169 1.853 255 255 255
0.396263 -0.316713 1.412 255 255 255
0.129938 0.125315 0.342 255 255 255
-0.414543 -0.267627 1.257 255 255 255
0.287904 0.195754 1.935 255 255 255
0.343082 -0.463764 1.339 255 255 255
0.0287135 0.536842 2.099 255 255 255
0.394294 -0.125481 1.579 255 255 255
0.537545 -0.440962 1.149 255 255 255
-0.168928 -0.540234 1.47 255 255 255
-0.576929 0.283183 1.498 255 255 255
-0.309981 0.718276 1.893 255 255 255
-0.00976455 -0.460994 1.668 255 255 255
-0.524118 -0.315473 0.995 255 255 255
0.570126 0.451258 1.859 255 255 255
-0.714802 0.404483 1.357 255 255 255
0.57238 -0.00697735 1.513 255 255 255
-0.308631 -0.318629 1.463 255 255 255
0.335195 0.501118 2.136 255 255 255
0.0525752 -0.576667 1.509 255 255 255
0.335134 0.48872 2.158 255 255 255
-0.0556317 -0.396857 1.744 255 255 255
-0.249944 0.0791579 1.859 255 255 255
0.638105 -0.0977958 1.403 255 255 255
-0.0607822 -0.455344 1.729 255 255 255
-0.67364 0.409666 1.429 255 255 255
-0.405951 -0.256936 1.275 255 255 255
0.672843 0.311856 1.664 255 255 255
0.435441 -0.305498 1.362 255 255 255
0.569257 0.150333 1.616 255 255 255
-0.0271541 0.436575 2.196 255 255 255
-0.0217326 -0.0225087 2.024 255 255 255
0.28304 0.518498 2.136 255 255 255
0.345932 -0.309547 1.432 255 255 255
-0.143604 -0.457593 1.646 255 255 255
-0.351989 -0.375202 1.275 255 255 255
-0.248544 -0.434344 1.406 255 255 255
-0.675803 0.30625 1.372 255 255 255
0.526958 -0.397665 1.229 255 255 255
-0.18041 0.614996 2.03 255 255 255
0.0103332 -0.139104 1.865 255 255 255
-0.294856 -0.38559 1.387 255 255 255
-0.649801 0.216468 1.302 255 255 255
-0.00179373 -0.240085 1.848 255 255 255
-0.269609 -0.45253 1.351 255 255 255
0.0464626 -0.135194 1.853 255 255 255
-0.328604 -0.425135 1.257 255 255 255
0.409486 0.119177 1.779 255 255 255
-0.463101 0.334401 1.739 255 255 255
0.419234 -0.0321216 1.668 255 255 255
-0.549734 0.676075 1.87 255 255 255
-0.136524 0.184469 2.173 255 255 255
-0.563045 0.0608949 1.283 255 255 255
0.293471 0.50807 2.136 255 255 255
-0.120998 -0.237876 1.831 255 255 255
-0.0862525 -0.507146 1.677 255 255 255
0.68689 0.266184 1.633 255 255 255
-0.242003 -0.516482 1.369 255 255 255
0.497565 0.295215 1.848 255 255 255
-0.283135 -0.394907 1.396 255 255 255
-0.534943 -0.178205 1.108 255 255 255
-0.675073 0.418086 1.442 255 255 255
0.0730313 -0.0493951 1.917 255 255 255
-0.187717 0.652342 1.935 255 255 255
0.170255 -0.36955 1.624 255 255 255
-0.454274 -0.398747 1.039 255 255 255
-0.113918 0.640397 1.966 255 255 255
-0.35397 0.222057 1.865 255 255 255
-0.420016 0.56754 1.991 255 255 255
0.0622119 -0.440692 1.633 255 255 255
-0.329086 -0.40302 1.291 255 255 255
-0.481758 -0.157154 1.225 255 255 255
-0.365581 -0.0469541 1.532 255 255 255
-0.443732 -0.287453 1.203 255 255 255
-0.139699 0.107217 2.114 255 255 255
0.267253 -0.523221 1.375 255 255 255
-0.52024 -0.315431 1 255 255 255
-0.213455 0.063315 2.03 255 255 255
-0.485623 0.727518 1.893 255 255 255
-0.442893 -0.2396 1.239 255 255 255
-0.417961 -0.358767 1.18 255 255 255
-0.306997 -0.2015 1.551 255 255 255
0.438474 -0.277569 1.4 255 255 255
0.175904 -0.113057 1.789 255 255 255
-0.232479 -0.290745 1.612 255 255 255
0.169776 0.671123 1.953 255 255 255
-0.126831 -0.500378 1.637 255 255 255
0.562098 -0.418665 1.165 255 255 255
-0.410307 -0.0799454 1.452 255 255 255
-0.284829 -0.360237 1.439 255 255 255
0.584092 0.120129 1.599 255 255 255
0.238619 0.387677 2.143 255 255 255
-0.466994 0.493425 1.905 255 255 255
-0.462314 -0.174797 1.237 255 255 255
0.309954 0.286107 2.017 255 255 255
0.402371 0.00875903 1.7 255 255 255
0.624021 -0.285974 1.239 255 255 255
-0.191994 -0.457194 1.52 255 255 255
0.00443514 -0.0784413 1.941 255 255 255
0.209839 -0.0710163 1.831 255 255 255
-0.325274 -0.0953658 1.591 255 255 255
-0.168902 -0.41924 1.535 255 255 255
0.160731 0.083416 1.959 255 255 255
-0.206249 0.609786 2.057 255 255 255
-0.435152 0.117725 1.567 255 255 255
-0.271568 -0.20462 1.595 255 255 255
-0.590995 0.134246 1.327 255 255 255
0.600235 -0.25646 1.283 255 255 255
-0.653986 0.189731 1.265 255 255 255
0.342606 -0.235614 1.543 255 255 255
-0.592504 0.0691659 1.244 255 255 255
0.675509 0.435692 1.748 255 255 255
-0.472659 -0.350367 1.046 255 255 255
-0.00958308 -0.511033 1.637 255 255 255
-0.0266568 -0.148288 1.905 255 255 255
0.62184 -0.179744 1.302 255 255 255
0.186319 -0.338686 1.603 255 255 255
0.487113 0.106312 1.668 255 255 255
0.517827 -0.10725 1.47 255 255 255
-0.283841 -0.239388 1.535 255 255 255
0.445231 -0.255413 1.429 255 255 255
0.0455095 0.685951 1.941 255 255 255
0.363914 0.469986 2.121 255 255 255
-0.215556 0.631741 1.959 255 255 255
-0.559992 0.0249855 1.262 255 255 255
-0.440794 0.677289 1.899 255 255 255
-0.348788 -0.143431 1.524 255 255 255
0.330791 0.323397 2.004 255 255 255
-0.568261 -0.0343905 1.185 255 255 255
0.748926 0.17947 1.487 255 255 255
0.684232 0.23961 1.633 255 255 255
-0.290887 0.24672 2.017 255 255 255
-0.36843 -0.274388 1.319 255 255 255
-0.305814 -0.265244 1.484 255 255 255
-0.120997 -0.451798 1.705 255 255 255
-0.690066 0.482785 1.439 255 255 255
-0.130006 -0.345403 1.714 255 255 255
-0.326577 -0.417548 1.265 255 255 255
-0.0705604 0.414558 2.212 255 255 255
-0.017298 0.327953 2.312 255 255 255
-0.233181 0.294614 2.151 255 255 255
-0.340335 -0.170202 1.456 255 255 255
-0.616804 0.0995318 1.244 255 255 255
0.301775 0.0824484 1.865 255 255 255
0.028522 0.55362 2.085 255 255 255
0.63839 0.00979667 1.445 255 255 255
-0.119886 -0.339984 1.729 255 255 255
0.323465 -0.509522 1.339 255 255 255
-0.390787 -0.176397 1.375 255 255 255
-0.540296 0.0909066 1.357 255 255 255
0.351569 0.0554864 1.779 255 255 255
-0.576571 0.161215 1.354 255 255 255
0.375984 0.292233 1.887 255 255 255
0.127987 0.717462 1.899 255 255 255
0.146898 -0.488273 1.494 255 255 255
0.511691 0.420924 1.972 255 255 255
0.303519 -0.0196729 1.769 255 255 255
-0.487714 -0.138076 1.215 255 255 255
-0.528033 -0.214283 1.072 255 255 255
0.360587 -0.415385 1.381 255 255 255
-0.318374 -0.464 1.257 255 255 255
-0.420913 0.705954 1.893 255 255 255
-0.25278 -0.227685 1.575 255 255 255
0.465005 -0.417048 1.302 255 255 255
-0.434232 0.208479 1.682 255 255 255
0.167622 -0.329759 1.677 255 255 255
-0.398519 0.152405 1.729 255 255 255
-0.353112 -0.129225 1.532 255 255 255
0.4839 -0.258046 1.393 255 255 255
-0.178728 0.481926 2.128 255 255 255
-0.593005 0.0489805 1.196 255 255 255
-0.579365 0.722252 1.848 0 0 0
-0.510288 0.180086 1.555 255 255 255
0.611811 -0.291879 1.247 255 255 255
-0.522585 -0.282166 1.027 255 255 255
-0.556802 0.669929 1.853 255 255 255
0.365094 -0.158483 1.575 255 255 255
0.213158 0.11927 1.972 255 255 255
0.12219 0.716629 1.905 255 255 255
0.317932 0.12715 1.853 255 255 255
0.393518 0.360767 1.959 255 255 255
0.27243 0.000495076 1.831 255 255 255
0.662455 0.442172 1.774 255 255 255
-0.569688 -0.0704904 1.176 255 255 255
0.622118 -0.0749643 1.403 255 255 255
-0.563788 0.203161 1.416 255 255 255
0.0918055 0.22304 2.136 255 255 255
-0.520117 0.0203161 1.362 255 255 255
-0.507187 -0.209875 1.143 255 255 255
0.536794 -0.116263 1.463 255 255 255
-0.381377 0.625365 1.959 255 255 255
-0.0122057 0.57737 2.085 255 255 255
0.590579 -0.237182 1.327 255 255 255
-0.3949 -0.177465 1.366 255 255 255
0.873327 0.426559 1.734 255 255 255
0.0475864 0.472634 2.181 255 255 255
-0.671903 0.345712 1.387 255 255 255
-0.0553368 0.265933 2.329 255 255 255
0.153947 0.108704 0.355 255 255 255
-0.117598 -0.399734 1.696 255 255 255
0.662528 0.379083 1.686 255 255 255
-0.453539 -0.398979 1.053 255 255 255
-0.475582 0.620272 1.953 255 255 255
-0.00222663 0.280602 2.294 255 255 255
0.352592 -0.332797 1.412 255 255 255
0.506089 0.0922397 1.659 255 255 255
-0.600637 0.108916 1.283 255 255 255
0.394414 0.307587 1.887 255 255 255
-0.477919 -0.331649 1.085 255 255 255
-0.502438 -0.14673 1.189 255 255 255
-0.0912195 0.53546 2.107 255 255 255
0.165777 -0.273912 1.686 255 255 255
-0.488409 -0.0304815 1.354 255 255 255
-0.541012 0.326178 1.682 255 255 255
-0.136116 -0.419327 1.686 255 255 255
0.355928 -0.111737 1.603 255 255 255
0.575302 -0.363137 1.234 255 255 255
0.213325 -0.0849291 1.81 255 255 255
-0.389434 -0.389767 1.158 255 255 255
0.724031 0.162622 1.466 255 255 255
-0.571334 0.0266107 1.242 255 255 255
0.221208 -0.402776 1.52 255 255 255
-0.624924 0.418373 1.502 255 255 255
0.717443 0.168649 1.477 255 255 255
-0.574016 0.138564 1.348 255 255 255
0.484921 -0.31302 1.31 255 255 255
-0.31285 -0.143397 1.607 255 255 255
-0.423063 0.0903613 1.579 255 255 255
0.513459 -0.247999 1.375 255 255 255
-0.630885 0.122734 1.194 255 255 255
-0.205975 0.656597 1.929 255 255 255
-0.162416 -0.0219304 1.972 255 255 255
0.0510762 0.0668482 2.037 255 255 255
-0.437971 -0.402466 1.1 255 255 255
-0.24831 -0.292082 1.563 255 255 255
-0.448615 -0.0959211 1.409 255 255 255
-0.217947 -0.153134 1.748 255 255 255
-0.223769 0.101638 2.004 255 255 255
0.539476 -0.246966 1.345 255 255 255
0.362835 -0.417632 1.381 255 255 255
0.458836 0.00304963 1.607 255 255 255
-0.301943 -0.421742 1.31 255 255 255
-0.457765 -0.358332 1.075 255 255 255
0.609247 -0.183819 1.316 255 255 255
-0.116504 -0.332325 1.763 255 255 255
0.132967 0.123195 0.347 255 255 255
-0.505289 0.181209 1.587 255 255 255
0.250166 0.0308539 1.865 255 255 255
0.305471 0.574416 2.099 255 255 255
0.407813 -0.341962 1.366 255 255 255
-0.452197 -0.376149 1.066 255 255 255
-0.302043 0.676475 1.941 255 255 255
0.56468 0.0154429 1.539 255 255 255
-0.371635 -0.387841 1.217 255 255 255
0.598081 0.330409 1.763 255 255 255
0.303963 -0.503864 1.359 255 255 255
0.257605 0.0397017 1.853 255 255 255
0.923559 0.52392 1.87 255 255 255
-0.427484 -0.251293 1.247 255 255 255
0.0992883 -0.159967 1.826 255 255 255
0.514402 -0.40307 1.252 255 255 255
-0.239247 0.0461522 1.87 255 255 255
-0.385777 -0.250783 1.342 255 255 255
-0.257489 0.0125289 1.848 255 255 255
0.350017 -0.0814871 1.624 255 255 255
0.162414 0.0226353 1.941 255 255 255
-0.482157 0.0631901 1.484 255 255 255
-0.477888 0.683469 1.899 255 255 255
0.203932 -0.387775 1.539 255 255 255
0.391182 0.157032 1.815 255 255 255
-0.602721 0.339286 1.52 255 255 255
-0.575738 -0.0394976 1.165 255 255 255
-0.651905 0.197145 1.273 255 255 255
-0.478231 -0.324292 1.102 255 255 255
-0.179067 -0.381611 1.677 255 255 255
0.0801243 0.102297 2.017 255 255 255
-0.410465 -0.175242 1.366 255 255 255
-0.150859 0.403054 2.228 255 255 255
-0.2658 -0.506417 1.354 255 255 255
0.599017 -0.326064 1.201 255 255 255
0.105318 0.256834 2.128 255 255 255
-0.524411 -0.00399594 1.339 255 255 255
0.160881 0.107549 0.355 255 255 255
-0.737618 0.481989 1.396 255 255 255
-0.464603 -0.326058 1.108 255 255 255
0.744324 0.119108 1.459 255 255 255
0.0317017 0.115147 2.071 255 255 255
0.0871192 -0.0217191 1.953 255 255 255
-0.0974145 0.263156 2.338 255 255 255
0.175506 -0.102885 1.815 255 255 255
-0.311417 0.602606 2.044 255 255 255
0.317233 0.231106 1.941 255 255 255
0.592702 0.404618 1.826 255 255 255
0.47413 -0.00213176 1.571 255 255 255
0.00757123 0.693277 1.935 255 255 255
0.630722 0.0121818 1.449 255 255 255
-0.492898 0.332441 1.686 255 255 255
0.384898 0.380764 1.997 255 255 255
0.587302 0.380151 1.837 255 255 255
-0.415191 0.216879 1.705 255 255 255
-0.615321 0.301381 1.445 255 255 255
0.0731314 0.54709 2.099 255 255 255
0.126674 -0.283366 1.677 255 255 255
-0.59502 0.315564 1.513 255 255 255
-0.541315 -0.0204997 1.281 255 255 255
0.700639 0.202749 1.535 255 255 255
-0.390106 -0.409318 1.16 255 255 255
0.0826507 0.688978 1.923 255 255 255
0.398914 0.23367 1.837 255 255 255
-0.350915 -0.338678 1.294 255 255 255
-0.485488 0.383351 1.769 255 255 255
0.501058 -0.0741111 1.477 255 255 255
0.14868 0.734424 1.887 255 255 255
-0.242624 -0.423981 1.425 255 255 255
0.603005 0.159496 1.629 255 255 255
-0.194441 -0.525812 1.412 255 255 255
-0.458666 0.0761778 1.502 255 255 255
0.564926 0.401714 1.882 255 255 255
-0.540602 0.65173 1.87 255 255 255
0.728225 0.36527 1.673 255 255 255
0.401757 -0.455851 1.31 255 255 255
0.046376 -0.441771 1.637 255 255 255
0.0763902 -0.043291 1.923 255 255 255
0.143311 0.116708 0.353 255 255 255
-0.294922 0.631431 1.978 255 255 255
0.0981464 -0.178689 1.805 255 255 255
-0.687731 0.404015 1.378 255 255 255
0.155337 -0.118042 1.821 255 255 255
-0.234622 -0.513151 1.378 255 255 255
0.609854 0.251524 1.677 255 255 255
-0.202478 -0.390858 1.603 255 255 255
-0.537931 0.357889 1.664 255 255 255
0.19203 0.65841 1.953 255 255 255
-0.548028 0.149215 1.429 255 255 255
-0.259507 0.415133 2.196 255 255 255
-0.172 0.296839 2.22 255 255 255
0.224654 -0.287363 1.579 255 255 255
0.137905 -0.490888 1.502 255 255 255
0.567099 0.00789343 1.532 255 255 255
-0.0732972 -0.0333661 2.085 255 255 255
-0.0153589 -0.42207 1.686 255 255 255
0.356004 0.0376663 1.758 255 255 255
-0.444341 -0.341125 1.116 255 255 255
0.0556852 -0.237649 1.763 255 255 255
0.126372 -0.32625 1.673 255 255 255
0.608934 0.298806 1.682 255 255 255
-0.412897 -0.361299 1.182 255 255 255
-0.571695 0.353013 1.629 255 255 255
-0.730616 0.474257 1.4 255 255 255
0.174359 0.615911 2.044 255 255 255
0.542394 -0.372259 1.265 255 255 255
-0.503726 -0.0960297 1.26 255 255 255
0.134259 0.124499 0.392 255 255 255
0.134743 -0.55341 1.442 255 255 255
-0.140403 -0.569999 1.524 255 255 255
-0.3581 -0.0668986 1.532 255 255 255
-0.307084 0.10421 1.821 255 255 255
-0.337402 -0.466292 1.215 255 255 255
-0.389327 -0.45054 1.169 255 255 255
0.575777 0.421522 1.848 255 255 255
0.377813 -0.231033 1.513 255 255 255
0.323784 0.573176 2.107 255 255 255
-0.468445 -0.354448 1.048 255 255 255
-0.0217592 -0.596777 1.555 255 255 255
-0.579237 0.595473 1.81 255 255 255
0.461819 -0.348442 1.299 255 255 255
0.31227 -0.301068 1.494 255 255 255
0.119948 0.134646 0.381 255 255 255
-0.154787 0.261023 2.286 255 255 255
-0.460162 -0.256556 1.205 255 255 255
-0.582183 0.601364 1.81 255 255 255
0.406828 -0.372554 1.348 255 255 255
-0.509754 0.372945 1.734 255 255 255
0.104488 0.120298 2.044 255 255 255
-0.180394 0.220012 2.107 255 255 255
-0.243396 -0.444347 1.416 255 255 255
-0.710858 0.549193 1.429 255 255 255
0.520548 -0.398543 1.257 255 255 255
-0.470237 0.330618 1.734 255 255 255
0.376641 -0.31761 1.416 255 255 255
0.516703 -0.441483 1.196 255 255 255
0.141596 0.118335 0.346 255 255 255
-0.494123 -0.284319 1.041 255 255 255
0.6636 0.326177 1.668 255 255 255
-0.632121 0.658862 1.729 255 255 255
-0.20935 0.464138 2.158 255 255 255
-0.381139 0.0592296 1.642 255 255 255
-0.0817795 -0.539315 1.642 255 255 255
-0.13878 -0.360397 1.719 255 255 255
-0.543608 -0.246593 1.032 255 255 255
0.163081 0.12165 0.338 255 255 255
0.481392 0.118434 1.686 255 255 255
-0.454937 -0.0507581 1.366 255 255 255
-0.492997 0.248795 1.677 255 255 255
-0.108455 0.599279 2.044 255 255 255
-0.204727 0.634208 1.947 255 255 255
0.594103 -0.0647263 1.429 255 255 255
0.46246 -0.358346 1.289 255 255 255
0.462962 -0.304697 1.339 255 255 255
0.0786998 0.267478 2.158 255 255 255
-0.439812 0.476926 1.978 255 255 255
0.0405608 -0.141682 1.859 255 255 255
-0.409175 0.0134092 1.595 255 255 255
-0.0862898 0.576864 2.071 255 255 255
0.485487 -0.169735 1.452 255 255 255
0.724511 0.324554 1.646 255 255 255
0.0635453 -0.393135 1.668 255 255 255
0.217998 0.440691 2.181 255 255 255
0.205091 -0.37188 1.567 255 255 255
-0.162247 -0.494244 1.543 255 255 255
-0.470854 -0.344009 1.085 255 255 255
-0.121811 -0.277632 1.799 255 255 255
0.128287 0.538888 2.107 255 255 255
-0.249049 0.207489 2.051 255 255 255
0.235762 -0.25528 1.62 255 255 255
-0.461607 -0.0796562 1.366 255 255 255
0.569127 -0.426307 1.16 255 255 255
-0.47946 0.715196 1.893 255 255 255
0.206585 -0.483998 1.452 255 255 255
-0.596329 0.446395 1.575 255 255 255
0.278362 -0.311829 1.535 255 255 255
-0.708076 0.534239 1.396 255 255 255
0.55357 0.132578 1.624 255 255 255
0.30733 -0.329629 1.459 255 255 255
0.561253 -0.250778 1.319 255 255 255
0.621277 -0.144121 1.366 255 255 255
0.18438 0.525211 2.121 255 255 255
0.0472542 -0.382277 1.668 255 255 255
-0.109985 -0.196519 1.953 255 255 255
-0.566173 0.476291 1.7 255 255 255
0.406909 -0.335996 1.378 255 255 255
0.189669 -0.311967 1.655 255 255 255
-0.424594 0.720228 1.882 255 255 255
0.643816 0.337916 1.659 255 255 255
-0.0755577 -0.505921 1.682 255 255 255
-0.581751 0.384414 1.65 255 255 255
-0.196631 -0.0907875 1.87 255 255 255
-0.00928083 0.436575 2.196 255 255 255
-0.443579 0.65047 1.911 255 255 255
0.529567 0.365932 1.887 255 255 255
-0.395602 -0.427858 1.154 255 255 255
-0.254849 0.597085 2.071 255 255 255
0.615417 -0.124301 1.393 255 255 255
-0.216734 -0.332717 1.612 255 255 255
-0.449049 0.128251 1.571 255 255 255
0.0669928 0.511405 2.121 255 255 255
-0.0535496 -0.359365 1.769 255 255 255
0.17454 -0.536478 1.422 255 255 255
0.585854 0.0176791 1.516 255 255 255
0.237839 0.375983 2.136 255 255 255
-0.421088 -0.423176 1.098 255 255 255
-0.0976705 0.686559 1.899 255 255 255
0.483009 -0.161829 1.466 255 255 255
-0.228987 -0.159448 1.724 255 255 255
-0.370141 -0.0564804 1.52 255 255 255
-0.564847 -0.0273523 1.215 255 255 255
0.426625 -0.0739024 1.575 255 255 255
-0.691299 0.501309 1.487 255 255 255
-0.514642 -0.354781 0.974 255 255 255
0.672901 -0.121991 1.319 255 255 255
-0.635548 0.167005 1.249 255 255 255
0.210237 0.623746 2.037 255 255 255
-0.00459664 -0.307547 1.769 255 255 255
-0.473081 0.38573 1.821 255 255 255
0.517827 -0.104858 1.47 255 255 255
0.427778 -0.465113 1.249 255 255 255
0.179715 -0.493422 1.445 255 255 255
0.172135 0.118211 0.344 255 255 255
-0.398327 -0.382026 1.135 255 255 255
-0.330531 -0.152752 1.543 255 255 255
-0.498578 0.235795 1.607 255 255 255
0.0479245 0.0970142 2.044 255 255 255
-0.036343 0.0794317 2.107 255 255 255
-0.397161 -0.188708 1.351 255 255 255
0.234911 0.122106 1.966 255 255 255
-0.456069 -0.254731 1.215 255 255 255
-0.243482 -0.230755 1.633 255 255 255
-0.397101 -0.206179 1.336 255 255 255
-0.705769 0.429225 1.387 255 255 255
0.448458 0.0553294 1.686 255 255 255
-0.335846 0.475315 2.114 255 255 255
-0.505657 -0.0843916 1.27 255 255 255
-0.679092 0.558563 1.559 255 255 255
0.0291102 0.495778 2.128 255 255 255
-0.138127 0.0284784 2.143 255 255 255
-0.503912 0.119435 1.463 255 255 255
0.496655 -0.289663 1.33 255 255 255
-0.449317 0.0820378 1.52 255 255 255
-0.446252 0.460831 1.978 255 255 255
-0.493091 -0.314622 1.046 255 255 255
0.153788 0.403054 2.228 255 255 255
0.117095 -0.36864 1.62 255 255 255
0.550584 -0.439427 1.145 255 255 255
0.112206 0.665892 1.947 255 255 255
-0.491821 0.278149 1.673 255 255 255
0.110437 0.651979 1.972 255 255 255
-0.646455 0.270903 1.33 255 255 255
0.199085 0.69583 1.899 255 255 255
-0.0506436 -0.500491 1.673 255 255 255
-0.0171263 -0.573194 1.595 255 255 255
-0.696856 0.568711 1.559 255 255 255
-0.47968 -0.234164 1.162 255 255 255
0.112729 -0.236622 1.714 255 255 255
-0.426883 0.141298 1.603 255 255 255
0.158136 0.117091 0.344 255 255 255
-0.459037 -0.3759 1.046 255 255 255
0.525963 -0.0759449 1.466 255 255 255
-0.117749 -0.333461 1.739 255 255 255
-0.37913 -0.377503 1.222 255 255 255
-0.339754 -0.0866164 1.528 255 255 255
-0.0507512 0.0527172 2.136 255 255 255
0.567865 0.211217 1.682 255 255 255
0.171304 0.379931 2.22 255 255 255
0.0872496 0.624906 2.03 255 255 255
-0.301871 -0.420347 1.319 255 255 255
0.63617 -0.241147 1.247 255 255 255
0.726667 0.383658 1.682 255 255 255
-0.524625 -0.26399 1.041 255 255 255
0.162939 0.12071 0.34 255 255 255
-0.554164 0.212025 1.445 255 255 255
-0.300129 -0.331169 1.445 255 255 255
0.238418 0.0909864 1.917 255 255 255
0.332641 -0.366241 1.435 255 255 255
-0.61541 0.138921 1.31 255 255 255
-0.512528 -0.359638 0.97 255 255 255
0.418061 0.0424255 1.719 255 255 255
0.306857 0.0821832 1.859 255 255 255
-0.199711 -0.138329 1.815 255 255 255
0.0846302 -0.283376 1.71 255 255 255
0.147311 0.128287 0.331 255 255 255
0.576375 -0.362548 1.232 255 255 255
-0.0142529 -0.123487 1.905 255 255 255
-0.490098 0.627151 1.935 255 255 255
0.021734 0.57737 2.085 255 255 255
0.468614 -0.111482 1.528 255 255 255
-0.39131 -0.226867 1.369 255 255 255
0.338723 -0.0023258 1.714 255 255 255
0.504994 0.35979 1.887 255 255 255
0.649615 -0.189169 1.294 255 255 255
0.633557 -0.117501 1.393 255 255 255
0.48216 -0.45692 1.227 255 255 255
-0.289149 -0.449456 1.31 255 255 255
0.279563 0.528926 2.136 255 255 255
0.111165 0.643356 1.985 255 255 255
-0.0273834 -0.350409 1.753 255 255 255
0.276582 -0.206801 1.612 255 255 255
0.600117 0.415018 1.769 255 255 255
0.178817 0.579659 2.057 255 255 255
-0.365453 0.0791681 1.668 255 255 255
0.442474 -0.281154 1.384 255 255 255
-0.421479 -0.378123 1.118 255 255 255
0.399968 -0.376423 1.362 255 255 255
-0.197542 -0.231718 1.719 255 255 255
-0.708571 0.462561 1.406 255 255 255
0.586563 -0.092178 1.422 255 255 255
-0.516104 0.00928141 1.369 255 255 255
-0.287137 0.233819 1.991 255 255 255
0.218184 0.286106 2.114 255 255 255
-0.517405 -0.282991 1.03 255 255 255
0.343672 -0.276064 1.452 255 255 255
0.189161 0.341223 2.136 255 255 255
0.530729 -0.0170706 1.535 255 255 255
0.367115 -0.354264 1.406 255 255 255
-0.196942 -0.402776 1.52 255 255 255
0.651808 -0.0909463 1.403 255 255 255
0.0115133 0.0140882 2.078 255 255 255
-0.0347753 -0.443893 1.696 255 255 255
0.166667 -0.0699317 1.882 255 255 255
0.516285 0.464846 1.941 255 255 255
0.0839401 -0.0217191 1.953 255 255 255
-0.348944 -0.426125 1.242 255 255 255
-0.626019 0.466152 1.547 255 255 255
0.176039 0.452994 2.189 255 255 255
-0.705061 0.527991 1.422 255 255 255
-0.424533 0.540003 1.997 255 255 255
-0.406298 -0.324456 1.232 255 255 255
0.344729 -0.0867727 1.624 255 255 255
0.438357 -0.43285 1.286 255 255 255
-0.507095 -0.169546 1.147 255 255 255
0.472773 -0.0892806 1.575 255 255 255
-0.398667 -0.438364 1.152 255 255 255
-0.520957 -0.342541 0.989 255 255 255
0.252239 -0.199332 1.659 255 255 255
0.52317 -0.453568 1.167 255 255 255
0.563144 -0.291062 1.27 255 255 255
0.461924 -0.306188 1.336 255 255 255
0.231973 -0.264513 1.612 255 255 255
-0.134663 -0.463709 1.668 255 255 255
0.618247 0.348551 1.739 255 255 255
0.333323 -0.0879482 1.646 255 255 255
-0.590834 0.00800005 1.18 255 255 255
-0.251478 0.597085 2.071 255 255 255
-0.585473 -0.0279536 1.158 255 255 255
-0.384943 0.150889 1.744 255 255 255
0.403895 -0.415477 1.324 255 255 255
-0.38231 0.197874 1.758 255 255 255
-0.0966339 -0.557166 1.579 255 255 255
-0.63563 0.21463 1.33 255 255 255
-0.385559 0.135915 1.734 255 255 255
0.0012598 -0.118026 1.917 255 255 255
0.318069 -0.277879 1.487 255 255 255
0.463822 0.0415123 1.682 255 255 255
-0.466055 0.111475 1.551 255 255 255
-0.511835 -0.202018 1.162 255 255 255
-0.507468 -0.210123 1.165 255 255 255
-0.496991 0.346267 1.7 255 255 255
0.115537 0.132987 0.387 255 255 255
0.558585 -0.0290597 1.509 255 255 255
-0.539732 -0.217181 1.044 255 255 255
0.139372 -0.526835 1.466 255 255 255
-0.343714 0.509516 2.099 255 255 255
-0.266602 -0.226739 1.551 255 255 255
-0.243115 -0.19931 1.705 255 255 255
-0.47748 0.12063 1.539 255 255 255
-0.46173 -0.355057 1.06 255 255 255
0.280831 0.3232 2.044 255 255 255
0.527323 0.00293576 1.547 255 255 255
0.140196 0.126078 0.389 255 255 255
-0.0303201 -0.179518 1.941 255 255 255
0.46533 -0.377455 1.297 255 255 255
0.40659 0.119177 1.779 255 255 255
0.609807 -0.169219 1.336 255 255 255
-0.472698 0.429563 1.831 255 255 255
0.542013 0.173599 1.637 255 255 255
0.148009 0.113367 0.407 255 255 255
-0.0346783 0.199297 2.22 255 255 255
0.635903 0.152031 1.579 255 255 255
-0.527586 0.0373211 1.336 255 255 255
0.190292 0.420934 2.189 255 255 255
0.367806 0.149477 1.831 255 255 255
