ply
format ascii 1.0
comment Created by Open3D
element vertex 1298
property double x
property double y
property double z
property uchar red
property uchar green
property uchar blue
end_header
0.84078 0.412047 1.664 0 0 0
0.490116 -0.185834 1.217 255 255 255
-0.0171415 -0.218951 1.225 255 255 255
0.211647 -0.0954309 1.308 255 255 255
-0.467647 -0.155038 1.345 255 255 255
-0.396589 -0.213749 1.265 255 255 255
-0.579618 -0.383958 1.169 255 255 255
0.0733634 -0.150882 1.273 255 255 255
0.0143642 0.221008 1.633 255 255 255
0.404042 0.599586 1.587 255 255 255
0.800089 0.303609 1.62 255 255 255
0.100916 -0.0757327 1.336 255 255 255
-0.453075 -0.228647 1.291 255 255 255
-0.228624 0.4158 1.81 255 255 255
0.663377 0.221141 1.559 255 255 255
-0.623675 0.041415 1.262 255 255 255
0.184732 -0.199369 1.215 255 255 255
-0.207472 0.576628 1.686 255 255 255
-0.128334 -0.0653625 1.393 255 255 255
-0.588483 0.149607 1.528 255 255 255
0.246605 -0.350886 1.079 255 255 255
-0.384467 -0.265706 1.22 255 255 255
-0.22391 0.167802 1.607 255 255 255
0.430644 0.00932209 1.375 255 255 255
0.573602 0.313618 1.659 255 255 255
0.356686 0.204311 1.528 255 255 255
0.459063 0.51931 1.705 255 255 255
-0.0100388 -0.360159 1.102 255 255 255
0.154801 0.492583 1.748 255 255 255
-0.369015 -0.18873 1.291 255 255 255
-0.166801 0.599828 1.637 255 255 255
0.3617 -0.223777 1.167 255 255 255
-0.263781 -0.208394 1.27 255 255 255
0.737948 0.664258 1.789 255 255 255
0.744133 0.345142 1.642 0 0 0
0.211841 -0.294433 1.118 255 255 255
-0.252616 -0.0433988 1.416 255 255 255
-0.21269 -0.0632316 1.396 255 255 255
-0.314935 0.399227 1.815 255 255 255
-0.188107 -0.110777 1.366 255 255 255
-0.609124 0.307474 1.348 255 255 255
0.80154 0.643543 1.821 255 255 255
0.46436 0.268449 1.599 255 255 255
0.557569 0.639035 1.744 0 0 0
0.41906 0.594821 1.595 255 255 255
0.169108 -0.249292 1.162 255 255 255
-0.15434 -0.298457 1.162 255 255 255
-0.0172551 0.620217 1.607 255 255 255
-0.5117 -0.0715019 1.425 255 255 255
0.673528 0.223678 1.559 255 255 255
-0.500136 -0.0800408 1.412 255 255 255
-0.0193543 -0.205324 1.239 255 255 255
-0.187947 0.583592 1.659 255 255 255
-0.625044 0.268817 1.299 255 255 255
-0.0359187 -0.197606 1.254 255 255 255
0.227214 -0.243184 1.169 255 255 255
0.217161 -0.306224 1.108 255 255 255
-0.598583 0.437742 1.422 255 255 255
0.296584 -0.273116 1.143 255 255 255
0.0442796 0.160664 1.563 255 255 255
0.00257745 -0.330108 1.128 255 255 255
0.208287 0.150899 1.516 255 255 255
-0.50001 0.21708 1.664 255 255 255
0.116329 -0.131614 1.267 255 255 255
-0.187546 -0.0386806 1.412 255 255 255
0.496569 -0.107371 1.324 0 0 0
0.396832 0.220809 1.539 255 255 255
0.774611 0.340592 1.633 0 0 0
-0.627186 -0.0363802 1.187 255 255 255
0.0262915 -0.22322 1.205 255 255 255
-0.0264149 0.561827 1.691 255 255 255
-0.549678 -0.203093 1.316 255 255 255
0.893441 0.588257 1.815 255 255 255
0.662455 0.534553 1.774 255 255 255
0.230199 0.110103 1.498 255 255 255
-0.0366062 -0.168112 1.278 255 255 255
0.074629 0.316265 1.673 255 255 255
0.153472 0.0923559 1.487 255 255 255
-0.512109 0.171457 1.642 255 255 255
-0.282804 -0.118355 1.351 255 255 255
0.295093 0.289028 1.642 255 255 255
-0.0278757 -0.364212 1.098 255 255 255
-0.626297 -0.103062 1.324 255 255 255
-0.39346 0.562408 1.744 255 255 255
0.0822778 -0.249909 1.192 255 255 255
-0.631482 0.488146 1.249 255 255 255
-0.375516 0.522519 1.753 255 255 255
0.615756 0.663258 1.748 255 255 255
-0.584003 0.233834 1.449 255 255 255
-0.633224 -0.132421 1.316 255 255 255
0.0438448 0.299716 1.642 255 255 255
0.168137 0.51805 1.71 255 255 255
-0.0863942 0.0731936 1.491 255 255 255
-0.27839 0.344016 1.789 255 255 255
-0.45441 0.596608 1.696 255 255 255
-0.407842 0.0176441 1.513 255 255 255
-0.449119 -0.394355 1.128 255 255 255
-0.493032 -0.339075 1.185 255 255 255
-0.110072 -0.324571 1.154 255 255 255
0.318537 -0.220928 1.162 255 255 255
0.318772 0.337035 1.668 255 255 255
-0.613366 -0.161236 1.324 255 255 255
0.631318 0.327336 1.62 0 0 0
-0.52505 -0.317801 1.192 255 255 255
-0.0441481 -0.0762014 1.384 255 255 255
-0.545043 0.236412 1.686 255 255 255
0.0801727 0.497104 1.734 255 255 255
-0.533356 -0.417401 1.116 255 255 255
-0.604888 -0.216661 1.27 255 255 255
0.535504 0.199834 1.571 255 255 255
0.430825 0.537465 1.65 255 255 255
-0.54738 -0.0285782 1.484 255 255 255
0.108697 0.0378567 1.439 255 255 255
-0.247844 -0.272107 1.222 255 255 255
0.706291 0.271599 1.587 0 0 0
0.148941 -0.310646 1.124 255 255 255
0.0611236 -0.100755 1.322 255 255 255
-0.168635 0.587571 1.655 255 255 255
-0.1238 -0.0111622 1.419 255 255 255
-0.558456 0.376313 1.763 255 255 255
-0.0597454 -0.105693 1.33 255 255 255
0.287586 -0.390417 1.013 255 255 255
-0.0518263 -0.0225481 1.409 255 255 255
-0.292651 -0.256376 1.252 255 255 255
0.717563 0.608944 1.789 255 255 255
-0.539702 -0.285974 1.239 255 255 255
0.951414 0.560165 1.859 255 255 255
-0.475628 -0.425973 1.096 255 255 255
0.245183 0.0678245 1.429 255 255 255
-0.308072 -0.186629 1.291 255 255 255
0.0548995 -0.298337 1.147 255 255 255
-0.472562 -0.195413 1.322 255 255 255
-0.629928 -0.00374228 1.254 255 255 255
-0.359393 0.551055 1.744 255 255 255
0.0850756 0.40049 1.719 255 255 255
-0.60582 -0.276787 1.234 255 255 255
0.85921 0.62113 1.799 255 255 255
-0.556873 -0.112528 1.416 255 255 255
-0.341653 -0.356795 1.137 255 255 255
-0.436535 0.337291 1.769 255 255 255
-0.602004 -0.0840969 1.403 255 255 255
-0.427045 -0.272771 1.234 255 255 255
0.243477 0.163665 1.52 255 255 255
-0.581393 0.0719538 1.516 255 255 255
-0.0378852 -0.325176 1.13 255 255 255
0.0819572 -0.26774 1.16 255 255 255
0.34388 0.293064 1.62 255 255 255
-0.604321 0.425637 1.603 255 255 255
-0.46467 -0.109679 1.409 255 255 255
-0.012794 0.540312 1.71 255 255 255
-0.296037 0.431362 1.826 255 255 255
-0.629928 0.402351 1.254 255 255 255
-0.30857 0.27102 1.714 255 255 255
-0.354678 0.0874427 1.528 255 255 255
-0.58145 -0.235817 1.273 255 255 255
-0.135941 -0.20985 1.254 255 255 255
0.316141 0.0826929 1.445 255 255 255
-0.387593 -0.395203 1.12 255 255 255
-0.596781 0.525945 1.583 255 255 255
0.194447 -0.237389 1.178 255 255 255
0.581989 -0.161615 1.244 255 255 255
0.298943 -0.076274 1.308 255 255 255
-0.615255 0.417486 1.473 255 255 255
0.234472 0.475516 1.748 255 255 255
0.251559 0.293476 1.637 255 255 255
-0.626072 -0.093445 1.31 255 255 255
-0.564255 0.538216 1.686 255 255 255
-0.443128 0.625969 1.664 255 255 255
0.0785734 -0.218951 1.225 255 255 255
-0.573585 0.521498 1.642 255 255 255
-0.622809 -0.0628214 1.252 255 255 255
-0.225965 0.338201 1.744 255 255 255
-0.307846 -0.323252 1.156 255 255 255
-0.504917 0.000402063 1.487 255 255 255
-0.106764 -0.202591 1.247 255 255 255
0.203724 -0.362271 1.066 255 255 255
0.132852 -0.284277 1.143 255 255 255
0.648724 0.0837229 1.463 0 0 0
0.0224619 0.267651 1.642 255 255 255
-0.271924 -0.194731 1.289 255 255 255
0.504738 0.116823 1.555 0 0 0
-0.330748 -0.26723 1.227 255 255 255
0.947911 0.551308 1.87 255 255 255
-0.469296 0.245343 1.71 255 255 255
-0.45766 0.389505 1.784 255 255 255
0.253967 -0.350681 1.073 255 255 255
0.192852 -0.299671 1.124 255 255 255
-0.440731 0.0546846 1.516 255 255 255
-0.266705 -0.356821 1.149 255 255 255
0.190152 0.0296531 1.384 255 255 255
-0.145711 0.0615123 1.502 255 255 255
-0.575505 0.0696701 1.52 255 255 255
-0.0844523 0.601661 1.642 255 255 255
0.319511 -0.347571 1.053 255 255 255
-0.581775 -0.334993 1.205 255 255 255
-0.614878 0.154262 1.351 255 255 255
0.354167 -0.354794 1.044 255 255 255
0.390855 -0.325323 1.07 255 255 255
0.785821 0.298558 1.607 255 255 255
0.113539 0.209644 1.607 255 255 255
-0.0280239 0.473432 1.794 255 255 255
-0.602139 0.297014 1.494 255 255 255
0.212552 0.600351 1.624 255 255 255
-0.57231 0.409152 1.744 255 255 255
-0.234834 0.146519 1.575 255 255 255
0.595628 -0.0939793 1.26 0 0 0
-0.205502 0.524006 1.739 255 255 255
-0.577977 0.442188 1.686 255 255 255
-0.612858 0.573294 1.473 255 255 255
0.492529 0.527609 1.696 255 255 255
-0.350453 -0.178444 1.308 255 255 255
0.134667 -0.222752 1.192 255 255 255
-0.570175 -0.123436 1.409 255 255 255
0.382595 -0.388104 1.007 255 255 255
0.361915 0.556235 1.642 255 255 255
0.550312 0.509651 1.748 255 255 255
0.340171 -0.356154 1.048 255 255 255
-0.168179 0.272371 1.705 255 255 255
-0.625699 -0.154155 1.283 255 255 255
-0.586055 0.334335 1.603 255 255 255
0.723097 0.419077 1.774 255 255 255
0.184983 0.00264921 1.396 255 255 255
-0.599946 0.566703 1.513 255 255 255
0.418934 -0.239648 1.152 255 255 255
-0.349364 -0.225459 1.273 255 255 255
-0.198126 0.274339 1.7 255 255 255
-0.584276 0.286356 1.642 255 255 255
-0.346908 -0.363793 1.13 255 255 255
0.671118 0.531666 1.774 255 255 255
-0.550567 -0.16742 1.339 255 255 255
0.223708 -0.279699 1.132 255 255 255
-0.293283 0.053891 1.494 255 255 255
-0.19461 -0.343798 1.143 255 255 255
0.36234 0.575145 1.62 255 255 255
0.101329 -0.159593 1.26 255 255 255
-0.619793 0.370382 1.439 255 255 255
-0.572846 -0.194432 1.33 255 255 255
-0.608543 0.515808 1.48 255 255 255
0.148999 0.516473 1.714 255 255 255
-0.16551 -0.117829 1.345 255 255 255
-0.568045 0.430007 1.714 255 255 255
0.732124 0.571097 1.789 255 255 255
0.597833 0.166572 1.547 0 0 0
-0.275224 -0.381953 1.108 255 255 255
0.534871 -0.142849 1.257 255 255 255
-0.0684239 -0.246822 1.215 255 255 255
0.728805 0.399853 1.753 255 255 255
0.541758 -0.129101 1.283 255 255 255
-0.628208 0.134361 1.267 255 255 255
0.444637 -0.106382 1.286 255 255 255
0.367463 0.0229957 1.39 255 255 255
-0.492827 -0.166352 1.348 255 255 255
-0.368463 0.303602 1.774 255 255 255
0.313138 0.077828 1.442 255 255 255
-0.345862 -0.295033 1.21 255 255 255
-0.322995 -0.367471 1.13 255 255 255
0.0136429 0.139239 1.551 255 255 255
-0.568961 -0.127749 1.406 255 255 255
-0.152674 -0.140345 1.31 255 255 255
-0.327682 0.63907 1.642 255 255 255
-0.627499 0.21674 1.291 255 255 255
0.334371 -0.267621 1.12 255 255 255
0.376577 -0.134121 1.215 255 255 255
-0.616678 -0.189464 1.178 255 255 255
-0.213724 0.377892 1.784 255 255 255
-0.147883 0.582643 1.664 255 255 255
-0.523314 -0.298229 1.215 255 255 255
0.19894 0.15377 1.52 255 255 255
-0.585372 0.300007 1.587 255 255 255
0.188837 -0.161356 1.242 255 255 255
0.406874 0.348935 1.673 255 255 255
0.164428 -0.3497 1.07 255 255 255
-0.0176739 0.228125 1.646 255 255 255
-0.635527 0.16603 1.257 255 255 255
0.523638 0.18467 1.551 0 0 0
0.523233 -0.12389 1.294 255 255 255
0.409248 -0.322977 1.068 255 255 255
-0.568045 0.480213 1.714 255 255 255
-0.630813 -0.134978 1.205 255 255 255
0.893441 0.626654 1.815 255 255 255
-0.24905 -0.399219 1.096 255 255 255
0.581051 -0.119808 1.273 255 255 255
-0.202762 -0.0320124 1.422 255 255 255
-0.443756 0.0828474 1.535 255 255 255
0.676675 0.0233597 1.412 255 255 255
0.259291 -0.398378 1.025 255 255 255
-0.127958 0.553153 1.724 255 255 255
-0.626527 0.205916 1.289 255 255 255
0.193098 0.145676 1.513 255 255 255
0.00633871 0.604144 1.62 255 255 255
-0.327727 0.17521 1.603 255 255 255
-0.316297 -0.346302 1.139 255 255 255
0.0967701 -0.375126 1.073 255 255 255
0.0489209 0.22898 1.633 255 255 255
-0.122103 0.569785 1.682 255 255 255
-0.385172 0.538314 1.758 255 255 255
0.385929 -0.369791 1.029 255 255 255
0.574594 0.000359613 1.33 0 0 0
-0.291129 -0.269677 1.22 255 255 255
-0.00636335 -0.374714 1.087 255 255 255
0.553157 0.54663 1.748 255 255 255
-0.409363 -0.177216 1.299 255 255 255
-0.340106 -0.412165 1.102 255 255 255
0.129167 0.529181 1.71 255 255 255
0.417189 -0.0148909 1.339 255 255 255
-0.386877 0.356568 1.779 255 255 255
-0.534506 0.0497505 1.516 255 255 255
-0.628048 0.0236788 1.196 255 255 255
-0.164084 -0.138846 1.316 255 255 255
0.466477 0.1506 1.513 0 0 0
0.718431 0.287818 1.591 0 0 0
0.150759 0.262307 1.642 255 255 255
-0.124823 -0.277427 1.169 255 255 255
-0.603019 -0.182516 1.354 255 255 255
-0.382996 0.620703 1.65 255 255 255
0.351094 -0.368474 1.03 255 255 255
0.730689 0.320216 1.624 0 0 0
0.759117 0.41273 1.784 255 255 255
-0.62719 0.26373 1.217 255 255 255
0.0467281 -0.312304 1.13 255 255 255
0.359432 0.591451 1.607 255 255 255
-0.0222598 0.0166179 1.425 255 255 255
0.033961 0.5561 1.682 255 255 255
-0.412612 0.300008 1.753 255 255 255
0.164322 -0.226654 1.182 255 255 255
0.246723 -0.0941906 1.291 255 255 255
-0.61346 0.559879 1.463 255 255 255
0.385904 0.0754814 1.442 255 255 255
0.305554 0.2389 1.559 255 255 255
-0.549219 0.495403 1.789 255 255 255
-0.329095 -0.360753 1.132 255 255 255
0.521993 -0.0344954 1.429 0 0 0
0.438738 -0.103884 1.281 255 255 255
0.248921 0.338045 1.673 255 255 255
-0.210588 0.603126 1.646 255 255 255
-0.475973 0.575047 1.714 255 255 255
-0.202075 0.562574 1.71 255 255 255
-0.626102 0.375571 1.432 255 255 255
-0.611842 0.520188 1.543 255 255 255
0.517376 0.585568 1.696 255 255 255
-0.629276 0.183555 1.265 255 255 255
0.424664 0.361464 1.668 255 255 255
0.145142 0.475471 1.769 255 255 255
0.185455 -0.0552039 1.366 255 255 255
-0.246825 -0.216796 1.247 255 255 255
0.813814 0.322779 1.637 255 255 255
-0.424943 -0.367399 1.147 255 255 255
0.400536 0.0184319 1.387 255 255 255
0.213439 0.0488764 1.419 255 255 255
0.333813 -0.159147 1.225 255 255 255
0.663307 0.206851 1.547 255 255 255
-0.592557 0.258935 1.513 255 255 255
0.585242 0.141397 1.547 0 0 0
-0.30056 -0.285188 1.21 255 255 255
-0.182233 -0.102333 1.372 255 255 255
-0.619265 -0.102655 1.217 255 255 255
-0.636055 0.391368 1.313 255 255 255
-0.256181 -0.165293 1.305 255 255 255
0.114458 0.588327 1.62 255 255 255
-0.623889 0.450241 1.342 255 255 255
-0.00844154 0.0379356 1.442 255 255 255
-0.596174 -0.306137 1.239 255 255 255
-0.541855 -0.0807777 1.425 255 255 255
0.636449 0.512566 1.758 255 255 255
0.179959 -0.289675 1.135 255 255 255
-0.0757068 -0.262439 1.205 255 255 255
0.623016 0.12881 1.547 0 0 0
0.0173787 0.0449754 1.442 255 255 255
-0.632822 -0.135997 1.289 255 255 255
-0.376399 -0.322602 1.147 255 255 255
0.367825 0.105869 1.473 255 255 255
-0.541993 0.342058 1.794 255 255 255
-0.61439 0.497039 1.4 255 255 255
-0.589899 -0.0949572 1.429 255 255 255
-0.288345 0.452392 1.815 255 255 255
0.0835202 -0.23793 1.21 255 255 255
0.327966 -0.0383665 1.322 255 255 255
-0.501273 -0.152229 1.359 255 255 255
-0.601315 0.27978 1.48 255 255 255
-0.150541 -0.140345 1.31 255 255 255
-0.19576 0.00276307 1.456 255 255 255
0.381382 -0.124472 1.237 255 255 255
0.0659948 -0.136208 1.291 255 255 255
0.372715 0.531557 1.691 255 255 255
0.0634974 -0.141628 1.283 255 255 255
-0.595627 0.441744 1.466 255 255 255
-0.603856 -0.0577499 1.429 255 255 255
-0.210731 -0.166306 1.313 255 255 255
0.336182 -0.305233 1.079 255 255 255
0.0123941 -0.239605 1.189 255 255 255
-0.592887 0.148798 1.425 255 255 255
-0.330531 0.093323 1.543 255 255 255
-0.249979 0.555523 1.714 255 255 255
-0.544399 -0.187091 1.324 255 255 255
0.47955 0.569131 1.633 255 255 255
-0.236881 -0.297151 1.187 255 255 255
-0.537952 -0.41633 1.118 255 255 255
-0.619859 -0.0735219 1.297 255 255 255
-0.621236 -0.012598 1.327 255 255 255
0.0325041 -0.365197 1.085 255 255 255
0.552773 0.670117 1.729 0 0 0
0.110837 -0.126221 1.275 255 255 255
-0.574762 -0.125729 1.409 255 255 255
-0.622894 -0.171598 1.273 255 255 255
-0.561254 0.15049 1.563 255 255 255
0.130116 -0.330271 1.104 255 255 255
-0.11682 -0.12602 1.339 255 255 255
-0.486276 -0.0487872 1.439 255 255 255
0.384646 -0.339004 1.053 255 255 255
-0.480097 -0.0115083 1.463 255 255 255
-0.283786 0.00757399 1.47 255 255 255
-0.496784 -0.321426 1.213 255 255 255
-0.0896984 0.516999 1.744 255 255 255
0.199519 -0.380278 1.044 255 255 255
0.463933 -0.0990021 1.299 0 0 0
0.837946 0.495327 1.81 255 255 255
0.25997 -0.00409442 1.372 255 255 255
0.225512 -0.0971119 1.302 255 255 255
-0.257228 -0.275342 1.21 255 255 255
0.0988671 -0.236947 1.205 255 255 255
-0.244928 -0.136393 1.313 255 255 255
0.332884 -0.104811 1.267 255 255 255
-0.625397 0.286069 1.291 255 255 255
-0.205518 -0.325883 1.152 255 255 255
0.539249 -0.0432178 1.339 255 255 255
-0.278481 -0.313035 1.167 255 255 255
0.588269 0.286367 1.555 0 0 0
0.704615 0.111459 1.422 255 255 255
-0.369298 -0.277666 1.229 255 255 255
-0.0569504 0.61469 1.62 255 255 255
0.129147 0.0283512 1.432 255 255 255
-0.456378 0.318933 1.779 255 255 255
-0.0952708 -0.378215 1.092 255 255 255
0.148342 0.498537 1.739 255 255 255
0.648906 0.679418 1.753 255 255 255
-0.484906 -0.139982 1.369 255 255 255
0.330399 0.0951693 1.456 255 255 255
0.170411 -0.269163 1.158 255 255 255
0.351094 0.570388 1.629 255 255 255
-0.101031 0.455916 1.794 255 255 255
0.281277 -0.174666 1.222 255 255 255
-0.119266 -0.124118 1.342 255 255 255
-0.0990035 -0.345952 1.114 255 255 255
-0.548456 -0.297181 1.227 255 255 255
-0.071824 0.578193 1.659 255 255 255
0.569831 0.356492 1.696 255 255 255
0.244537 -0.254645 1.152 255 255 255
0.19593 -0.124146 1.275 255 255 255
0.034691 -0.278585 1.158 255 255 255
0.237543 -0.39606 1.032 255 255 255
-0.366654 -0.138782 1.336 255 255 255
-0.584562 -0.217805 1.289 255 255 255
-0.176473 -0.28125 1.21 255 255 255
-0.242666 -0.206261 1.257 255 255 255
-0.113878 -0.387435 1.083 255 255 255
0.031817 0.544366 1.714 255 255 255
-0.0778429 -0.187177 1.239 255 255 255
0.672596 0.214958 1.551 255 255 255
0.377511 0.169059 1.502 255 255 255
0.368913 -0.125667 1.229 255 255 255
0.30852 -0.189298 1.189 255 255 255
-0.504959 -0.0139841 1.473 255 255 255
0.548759 0.0937223 1.509 255 255 255
-0.0920516 -0.370683 1.096 255 255 255
0.34111 -0.13655 1.237 255 255 255
0.126164 -0.161356 1.242 255 255 255
0.770181 0.63671 1.81 255 255 255
-0.371964 0.458711 1.805 255 255 255
-0.252665 -0.385964 1.104 255 255 255
-0.624409 -0.201291 1.239 255 255 255
0.249939 -0.0129682 1.366 255 255 255
0.393199 0.0230453 1.393 255 255 255
0.328842 -0.223394 1.165 255 255 255
0.842475 0.714451 1.859 255 255 255
0.331946 -0.236718 1.156 255 255 255
-0.616819 0.047362 1.313 255 255 255
-0.345394 0.626073 1.65 255 255 255
0.529464 0.217489 1.607 0 0 0
0.259283 -0.190094 1.194 255 255 255
-0.168594 -0.261559 1.21 255 255 255
-0.114588 0.545074 1.734 255 255 255
-0.378768 -0.106798 1.372 255 255 255
-0.627499 0.212538 1.291 255 255 255
-0.590813 0.423895 1.668 255 255 255
-0.574522 0.589472 1.668 255 255 255
0.550004 0.414751 1.686 255 255 255
0.452964 -0.201015 1.213 255 255 255
0.0653298 0.119141 1.52 255 255 255
0.598925 0.641367 1.774 255 255 255
-0.588301 0.219561 1.403 255 255 255
0.376262 -0.0343472 1.333 255 255 255
0.0935311 -0.115467 1.294 255 255 255
0.338505 0.596681 1.607 255 255 255
-0.61226 0.514998 1.513 255 255 255
-0.166958 -0.200124 1.257 255 255 255
0.286603 0.210791 1.539 255 255 255
0.147536 -0.278104 1.156 255 255 255
-0.561243 0.609027 1.677 255 255 255
0.118685 -0.335623 1.098 255 255 255
0.652361 0.14317 1.539 0 0 0
0.119808 -0.173063 1.239 255 255 255
-0.489581 0.528369 1.763 255 255 255
0.348778 -0.171664 1.201 255 255 255
-0.202168 -0.212737 1.247 255 255 255
0.191023 -0.294184 1.124 255 255 255
-0.426938 -0.410872 1.118 255 255 255
0.0137752 -0.302877 1.143 255 255 255
0.128113 -0.344643 1.087 255 255 255
-0.459379 -0.232849 1.291 255 255 255
-0.535022 0.625277 1.655 255 255 255
-0.572181 -0.213153 1.299 255 255 255
0.352159 0.543096 1.659 255 255 255
-0.501395 -0.114985 1.39 255 255 255
0.199714 -0.116846 1.286 255 255 255
-0.205734 -0.271662 1.22 255 255 255
0.466871 0.46042 1.734 255 255 255
0.396061 -0.297014 1.094 255 255 255
-0.26944 0.248854 1.696 255 255 255
-0.62173 0.546503 1.422 255 255 255
-0.192312 0.378661 1.774 255 255 255
-0.503497 -0.236188 1.275 255 255 255
0.367993 0.383658 1.682 255 255 255
-0.624904 0.095483 1.244 255 255 255
0.0735806 -0.379618 1.066 255 255 255
0.399433 -0.386948 1.004 255 255 255
-0.530265 -0.347834 1.182 255 255 255
-0.569503 0.264822 1.71 255 255 255
-0.0311841 -0.0477701 1.409 255 255 255
0.0384747 -0.392869 1.055 255 255 255
-0.25084 0.623406 1.629 255 255 255
0.853261 0.555643 1.805 255 255 255
0.00327894 0.033081 1.435 255 255 255
-0.618732 -0.314108 1.171 255 255 255
-0.242141 -0.407303 1.089 255 255 255
0.66637 0.495707 1.739 255 255 255
-0.49167 -0.319979 1.215 255 255 255
0.0910248 -0.042418 1.384 255 255 255
-0.477637 -0.238823 1.278 255 255 255
-0.601273 -0.124569 1.396 255 255 255
-0.375701 -0.197228 1.278 255 255 255
0.437716 -0.0469718 1.322 255 255 255
-0.60425 -0.0296357 1.419 255 255 255
-0.0151825 -0.391681 1.085 255 255 255
-0.254958 -0.373998 1.122 255 255 255
-0.630909 0.419351 1.232 255 255 255
0.245499 0.56163 1.65 255 255 255
0.223311 -0.380278 1.044 255 255 255
-0.145843 -0.0718523 1.387 255 255 255
0.16149 0.0976531 1.494 255 255 255
-0.170816 -0.167032 1.302 255 255 255
0.822781 0.385247 1.677 255 255 255
0.353519 -0.0530621 1.313 255 255 255
0.423454 -0.250243 1.149 255 255 255
0.480528 0.3958 1.664 255 255 255
0.294767 -0.138427 1.254 255 255 255
0.574534 0.4457 1.71 255 255 255
-0.339836 -0.328896 1.156 255 255 255
0.567825 0.0615294 1.445 0 0 0
0.322212 0.362621 1.686 255 255 255
0.241391 -0.298605 1.12 255 255 255
0.286534 0.376339 1.686 255 255 255
-0.385308 0.170935 1.637 255 255 255
0.191042 0.539813 1.691 255 255 255
-0.497296 -0.267957 1.249 255 255 255
0.897706 0.488029 1.794 0 0 0
0.0175332 0.339863 1.682 255 255 255
-0.188821 0.0839268 1.555 255 255 255
0.359245 -0.305164 1.085 255 255 255
-0.574356 0.46827 1.571 255 255 255
-0.577938 0.509167 1.595 255 255 255
-0.534213 -0.422092 1.114 255 255 255
0.225562 0.150899 1.516 255 255 255
0.292412 -0.207394 1.171 255 255 255
-0.27838 -0.0207296 1.442 255 255 255
-0.478089 -0.407932 1.11 255 255 255
-0.104819 -0.345375 1.118 255 255 255
0.088385 0.414074 1.729 255 255 255
0.0433534 0.512552 1.729 255 255 255
0.133809 0.0330119 1.432 255 255 255
-0.229298 -0.336253 1.149 255 255 255
-0.473061 -0.39195 1.137 255 255 255
0.574989 -0.165398 1.242 255 255 255
0.160421 0.310918 1.659 255 255 255
-0.59227 0.242975 1.62 255 255 255
0.504927 0.481602 1.729 255 255 255
-0.197098 -0.404041 1.085 255 255 255
0.300085 -0.355463 1.051 255 255 255
0.263479 -0.199049 1.178 255 255 255
-0.53145 -0.0333181 1.48 255 255 255
-0.0542872 -0.370427 1.09 255 255 255
0.258602 -0.197801 1.182 255 255 255
-0.198864 -0.407572 1.085 255 255 255
0.0273059 -0.357682 1.089 255 255 255
0.580193 0.346159 1.686 255 255 255
-0.267045 -0.286975 1.201 255 255 255
0.703598 0.267271 1.547 0 0 0
-0.423314 -0.269666 1.229 255 255 255
-0.636316 0.222464 1.208 255 255 255
-0.438385 -0.286363 1.232 255 255 255
-0.1581 -0.156438 1.302 255 255 255
-0.317848 -0.253714 1.239 255 255 255
0.218366 -0.152102 1.249 255 255 255
0.589429 0.614766 1.789 255 255 255
0.404789 -0.316617 1.07 255 255 255
-0.61597 -0.179115 1.173 255 255 255
0.544984 0.373052 1.696 255 255 255
-0.245027 -0.184528 1.291 255 255 255
0.0297631 -0.233407 1.187 255 255 255
-0.111735 -0.0874625 1.384 255 255 255
-0.440731 0.0596186 1.516 255 255 255
0.0976684 0.423343 1.744 255 255 255
0.110587 0.449562 1.769 255 255 255
-0.061353 0.578615 1.668 255 255 255
0.122715 -0.222191 1.189 255 255 255
-0.20532 0.0319457 1.491 255 255 255
-0.59773 0.498803 1.539 255 255 255
0.174967 -0.157567 1.244 255 255 255
0.488284 0.148564 1.543 0 0 0
0.217149 -0.0673373 1.342 255 255 255
-0.298278 0.182579 1.599 255 255 255
0.0944341 0.164479 1.551 255 255 255
0.825649 0.352193 1.65 255 255 255
0.132041 0.114441 1.491 255 255 255
-0.200988 0.0172243 1.477 255 255 255
-0.240485 -0.113705 1.348 255 255 255
0.390864 -0.224161 1.169 255 255 255
-0.573569 0.605209 1.555 255 255 255
0.08148 -0.0488549 1.375 255 255 255
-0.0198982 -0.0134999 1.422 255 255 255
-0.428884 -0.089232 1.412 255 255 255
0.0158684 -0.279066 1.16 255 255 255
-0.260072 -0.413352 1.068 255 255 255
-0.186948 -0.378506 1.098 255 255 255
-0.611836 -0.114211 1.354 255 255 255
-0.612679 0.218019 1.351 255 255 255
-0.617077 0.477444 1.351 255 255 255
-0.0183006 0.0557944 1.48 255 255 255
-0.362286 -0.00904021 1.449 255 255 255
0.0458509 -0.106722 1.316 255 255 255
0.0100189 -0.316645 1.139 255 255 255
-0.114027 -0.317609 1.156 255 255 255
-0.24746 -0.40553 1.089 255 255 255
0.182197 -0.0695211 1.342 255 255 255
0.654613 0.434085 1.753 255 255 255
-0.470346 -0.351017 1.167 255 255 255
-0.355833 -0.369097 1.135 255 255 255
-0.198017 -0.322134 1.152 255 255 255
-0.356137 0.623388 1.65 255 255 255
0.267263 -0.39194 1.03 255 255 255
0.128926 -0.364933 1.079 255 255 255
-0.607772 0.536521 1.484 255 255 255
0.104995 -0.0154581 1.39 255 255 255
-0.622102 0.390458 1.362 255 255 255
-0.578561 0.452665 1.664 255 255 255
-0.161391 0.106976 1.559 255 255 255
0.503436 0.0725233 1.528 0 0 0
-0.427354 -0.308474 1.201 255 255 255
0.044074 -0.170519 1.265 255 255 255
-0.19862 -0.28893 1.201 255 255 255
0.40744 0.0323433 1.403 255 255 255
0.242796 -0.0414066 1.351 255 255 255
0.293979 -0.194446 1.185 255 255 255
-0.0615369 0.572182 1.673 255 255 255
-0.221985 -0.244267 1.222 255 255 255
-0.139854 -0.403904 1.066 255 255 255
-0.0778851 0.457186 1.799 255 255 255
0.281915 -0.212383 1.167 255 255 255
0.082899 -0.243978 1.201 255 255 255
0.547213 0.0304673 1.422 255 255 255
0.547769 0.192738 1.555 255 255 255
0.646868 0.387789 1.763 255 255 255
-0.00459393 -0.371176 1.087 255 255 255
0.240597 -0.0436051 1.351 255 255 255
-0.123027 -0.237279 1.227 255 255 255
0.396495 -0.380665 1.009 255 255 255
-0.353169 0.203933 1.624 255 255 255
0.790805 0.465873 1.81 255 255 255
-0.292713 -0.138782 1.336 255 255 255
-0.03602 0.111426 1.516 255 255 255
-0.535302 -0.0285782 1.484 255 255 255
-0.00124823 -0.148237 1.286 255 255 255
0.718461 0.621757 1.784 255 255 255
-0.332899 -0.402494 1.12 255 255 255
0.381985 -0.263557 1.126 255 255 255
-0.260624 0.0346256 1.502 255 255 255
0.393483 0.485816 1.734 255 255 255
-0.236203 -0.126762 1.324 255 255 255
-0.0569269 -0.304737 1.143 255 255 255
-0.286562 -0.382643 1.11 255 255 255
-0.170783 -0.417811 1.075 255 255 255
0.185456 0.429411 1.769 255 255 255
0.341323 0.561159 1.633 255 255 255
-0.257343 -0.251698 1.239 255 255 255
0.840075 0.643543 1.821 255 255 255
-0.592808 0.256659 1.559 255 255 255
-0.0871513 -0.323165 1.149 255 255 255
-0.366955 0.516814 1.753 255 255 255
-0.370816 -0.103228 1.384 255 255 255
-0.58127 0.330811 1.664 255 255 255
-0.603856 -0.0251936 1.429 255 255 255
-0.592844 -0.399689 1.154 255 255 255
-0.313895 0.138344 1.599 255 255 255
0.126383 0.523616 1.71 255 255 255
0.591805 0.288154 1.551 0 0 0
-0.583958 -0.415644 1.126 255 255 255
0.853353 0.571361 1.799 255 255 255
-0.62613 0.40721 1.185 255 255 255
-0.495782 0.622045 1.668 255 255 255
-0.596601 -0.399689 1.154 255 255 255
-0.470591 0.358573 1.789 255 255 255
-0.106712 0.135657 1.539 255 255 255
0.431469 -0.11196 1.278 255 255 255
-0.460804 0.0200531 1.509 255 255 255
-0.587043 -0.138595 1.4 255 255 255
0.202379 -0.299355 1.116 255 255 255
0.599534 0.497104 1.734 255 255 255
-0.61663 -0.104163 1.189 255 255 255
-0.618716 -0.135339 1.345 255 255 255
-0.525526 -0.337645 1.18 255 255 255
-0.165069 0.203431 1.62 255 255 255
0.418294 -0.269358 1.135 255 255 255
0.0993269 0.035515 1.439 255 255 255
0.326164 -0.114211 1.257 255 255 255
-0.615151 -0.152508 1.342 255 255 255
0.315739 0.0489798 1.422 255 255 255
0.0320955 0.509738 1.729 255 255 255
-0.295479 0.551548 1.719 255 255 255
0.267876 0.604527 1.607 255 255 255
0.421913 -0.0551987 1.313 255 255 255
0.231428 0.0510774 1.416 255 255 255
-0.625948 -0.178092 1.275 255 255 255
0.119563 0.468154 1.774 255 255 255
0.317267 -0.388768 1.013 255 255 255
-0.0244821 -0.265872 1.194 255 255 255
-0.185416 -0.393125 1.089 255 255 255
-0.140513 0.574904 1.673 255 255 255
0.0255332 -0.362999 1.089 255 255 255
-0.0821789 -0.303083 1.158 255 255 255
0.385066 0.150129 1.484 255 255 255
0.533341 -0.0876477 1.319 255 255 255
-0.554671 -0.402161 1.145 255 255 255
-0.587562 0.357595 1.579 255 255 255
-0.112864 -0.405655 1.057 255 255 255
0.413803 0.53247 1.668 255 255 255
0.05518 -0.192914 1.237 255 255 255
0.420388 -0.236718 1.156 255 255 255
-0.39622 0.348806 1.769 255 255 255
0.558579 -0.180836 1.237 255 255 255
0.323198 0.0803414 1.445 255 255 255
-0.612596 0.488398 1.327 255 255 255
-0.611349 0.0701666 1.262 255 255 255
0.549482 0.470744 1.71 255 255 255
-0.384813 -0.0642733 1.419 255 255 255
-0.617336 0.100821 1.342 255 255 255
0.402328 0.102488 1.459 255 255 255
0.449406 0.610955 1.583 255 255 255
0.000909527 -0.0536791 1.384 255 255 255
-0.204395 -0.305438 1.167 255 255 255
-0.589437 0.546726 1.591 255 255 255
-0.0581542 -0.358198 1.096 255 255 255
-0.578501 -0.155577 1.369 255 255 255
0.225216 0.0392766 1.406 255 255 255
0.0187516 -0.20699 1.225 255 255 255
0.386587 -0.0589739 1.302 255 255 255
0.231294 -0.159334 1.242 255 255 255
0.445823 0.498484 1.729 255 255 255
-0.210183 -0.392801 1.098 255 255 255
-0.343137 0.0851785 1.532 255 255 255
0.697178 0.614766 1.789 255 255 255
-0.0848836 -0.0515384 1.387 255 255 255
-0.35484 -0.315475 1.162 255 255 255
-0.602148 0.155518 1.362 255 255 255
-0.409972 -0.268788 1.225 255 255 255
-0.303004 0.233888 1.668 255 255 255
-0.485284 0.0677271 1.532 255 255 255
0.340979 -0.168733 1.208 255 255 255
-0.167309 -0.362773 1.11 255 255 255
-0.0667952 0.357041 1.739 255 255 255
0.447143 0.582798 1.612 255 255 255
0.588356 -0.104397 1.262 255 255 255
-0.0431209 -0.390546 1.077 255 255 255
0.00782331 0.00957294 1.412 255 255 255
0.374807 -0.24654 1.132 255 255 255
0.357912 -0.34829 1.05 255 255 255
-0.232479 0.630017 1.612 255 255 255
-0.634965 0.00458961 1.302 255 255 255
0.488135 -0.183854 1.217 255 255 255
-0.366157 -0.214368 1.281 255 255 255
0.496583 0.534309 1.691 255 255 255
0.810637 0.300973 1.62 255 255 255
-0.53246 0.559605 1.753 255 255 255
-0.0550033 0.0143692 1.432 255 255 255
-0.621601 0.119357 1.406 255 255 255
-0.502425 0.0201461 1.516 255 255 255
-0.625368 -0.142803 1.313 255 255 255
-0.195254 -0.141845 1.324 255 255 255
0.0804039 0.416469 1.739 255 255 255
0.266562 0.203277 1.539 255 255 255
-0.0755651 -0.339309 1.116 255 255 255
-0.627514 0.394761 1.409 255 255 255
-0.112401 -0.219969 1.242 255 255 255
-0.0861456 -0.38072 1.089 255 255 255
0.259089 0.40652 1.686 255 255 255
-0.264077 0.0887589 1.551 255 255 255
-0.600461 0.284688 1.432 255 255 255
0.037531 -0.315982 1.13 255 255 255
-0.180821 -0.298457 1.162 255 255 255
-0.219404 -0.345827 1.156 255 255 255
0.400223 -0.0569861 1.305 255 255 255
0.193392 -0.0242416 1.375 255 255 255
-0.609948 0.410684 1.449 255 255 255
-0.416037 0.48221 1.805 255 255 255
0.170207 -0.335011 1.096 255 255 255
0.813671 0.499649 1.815 255 255 255
0.418288 0.212741 1.535 255 255 255
-0.44076 0.486491 1.81 255 255 255
0.148342 0.413639 1.739 255 255 255
0.368252 -0.0996538 1.254 255 255 255
0.032597 0.0879282 1.494 255 255 255
-0.429486 -0.322283 1.18 255 255 255
-0.0930149 0.49114 1.753 255 255 255
0.352335 -0.128186 1.234 255 255 255
-0.548124 -0.282184 1.249 255 255 255
0.401611 -0.0814589 1.289 255 255 255
-0.282547 -0.147748 1.319 255 255 255
0.177549 -0.194234 1.22 255 255 255
-0.097639 -0.106885 1.345 255 255 255
-0.138119 0.570821 1.677 255 255 255
-0.240766 -0.0860722 1.362 255 255 255
-0.506433 -0.386543 1.154 255 255 255
0.389521 0.601097 1.591 255 255 255
0.26194 -0.288399 1.13 255 255 255
-0.618948 0.490205 1.4 255 255 255
0.486434 -0.0506094 1.362 0 0 0
-0.231143 0.0195349 1.47 255 255 255
-0.616244 0.145791 1.354 255 255 255
-0.569503 0.348304 1.71 255 255 255
-0.398407 0.470461 1.805 255 255 255
0.652533 -0.0450917 1.33 255 255 255
-0.259873 0.139888 1.587 255 255 255
-0.623371 0.29633 1.229 255 255 255
0.192822 0.00940344 1.387 255 255 255
0.229762 -0.146047 1.267 255 255 255
-0.208596 0.585794 1.673 255 255 255
-0.569969 0.606766 1.559 255 255 255
-0.51013 0.43396 1.837 255 255 255
0.121805 0.505459 1.724 255 255 255
-0.197562 -0.191736 1.283 255 255 255
-0.0393028 -0.343556 1.118 255 255 255
-0.164302 -0.2372 1.237 255 255 255
0.224916 0.0184717 1.39 255 255 255
-0.427099 -0.226994 1.27 255 255 255
-0.626679 0.41935 1.348 255 255 255
-0.517193 -0.117754 1.396 255 255 255
0.0929082 0.278522 1.659 255 255 255
-0.602872 0.422474 1.449 255 255 255
-0.484998 -0.27107 1.254 255 255 255
-0.564925 0.039593 1.505 255 255 255
-0.618806 -0.0909958 1.22 255 255 255
-0.558185 0.0127787 1.52 255 255 255
-0.372397 0.350778 1.779 255 255 255
0.230129 -0.19398 1.194 255 255 255
-0.227841 -0.0113982 1.449 255 255 255
-0.332548 -0.419708 1.089 255 255 255
-0.247263 -0.269666 1.229 255 255 255
0.466941 -0.187666 1.229 255 255 255
0.0488407 0.376405 1.724 255 255 255
-0.35956 0.164797 1.629 255 255 255
-0.553339 -0.417401 1.116 255 255 255
-0.0924204 0.17174 1.595 255 255 255
-0.0365106 -0.382492 1.089 255 255 255
0.100462 0.580426 1.65 255 255 255
0.861517 0.5454 1.81 255 255 255
-0.230882 -0.231289 1.227 255 255 255
-0.625054 -0.0463099 1.194 255 255 255
-0.509555 0.258498 1.705 255 255 255
0.375439 -0.162431 1.205 255 255 255
-0.624809 0.316941 1.201 255 255 255
0.289004 -0.00186173 1.372 255 255 255
-0.633133 0.202336 1.217 255 255 255
-0.251914 -0.136704 1.316 255 255 255
0.162262 -0.393462 1.034 255 255 255
0.320802 -0.27001 1.13 255 255 255
0.284606 -0.32963 1.09 255 255 255
-0.438264 0.0374154 1.516 255 255 255
-0.52064 -0.200493 1.313 255 255 255
-0.622393 -0.0803154 1.239 255 255 255
-0.169392 -0.135381 1.324 255 255 255
-0.480164 -0.120983 1.381 255 255 255
-0.444816 -0.195771 1.31 255 255 255
-0.144052 -0.373146 1.098 255 255 255
-0.291647 0.153342 1.62 255 255 255
0.0692087 -0.34913 1.079 255 255 255
0.736114 0.347814 1.642 0 0 0
0.386711 -0.322743 1.073 255 255 255
0.0544533 0.539125 1.724 255 255 255
0.0631908 -0.23752 1.198 255 255 255
-0.546717 -0.372861 1.176 255 255 255
-0.384998 -0.313846 1.156 255 255 255
-0.53072 0.180347 1.65 255 255 255
-0.348156 -0.268788 1.225 255 255 255
0.681403 0.241061 1.509 0 0 0
-0.185506 -0.162403 1.316 255 255 255
-0.603455 0.230278 1.587 255 255 255
0.378644 -0.301249 1.09 255 255 255
-0.628851 0.0611147 1.205 255 255 255
-0.313871 0.443248 1.826 255 255 255
0.495403 -0.210753 1.201 255 255 255
-0.476966 -0.369676 1.16 255 255 255
-0.589275 -0.270653 1.281 255 255 255
0.0351119 0.501367 1.739 255 255 255
0.33255 0.193347 1.52 255 255 255
-0.117463 -0.171867 1.275 255 255 255
-0.0296286 -0.202591 1.247 255 255 255
0.417756 0.142499 1.48 255 255 255
0.498856 -0.125709 1.313 0 0 0
-0.447543 -0.300443 1.208 255 255 255
-0.0648102 -0.402975 1.059 255 255 255
-0.343236 -0.380153 1.124 255 255 255
0.456374 0.0301245 1.406 0 0 0
0.290141 -0.375591 1.022 255 255 255
0.722489 0.569773 1.794 255 255 255
0.128245 0.0119548 1.422 255 255 255
-0.509449 -0.285974 1.239 255 255 255
0.346284 0.504137 1.71 255 255 255
0.234716 -0.222053 1.178 255 255 255
0.0438558 -0.333864 1.104 255 255 255
0.0865497 -0.20699 1.225 255 255 255
0.230103 0.224213 1.599 255 255 255
0.573748 -0.103983 1.257 0 0 0
0.00647695 -0.273622 1.169 255 255 255
0.274351 0.611926 1.599 255 255 255
-0.601739 0.266584 1.487 255 255 255
-0.246624 0.24812 1.691 255 255 255
-0.533732 -0.0403517 1.473 255 255 255
0.299685 -0.180528 1.208 255 255 255
-0.0573132 -0.403906 1.048 255 255 255
0.325843 0.516536 1.705 255 255 255
-0.588988 0.390045 1.71 255 255 255
-0.0654765 -0.328854 1.13 255 255 255
-0.533077 0.0224491 1.505 255 255 255
0.415862 0.0702972 1.432 255 255 255
0.213171 0.508105 1.714 255 255 255
-0.584213 0.276624 1.543 255 255 255
-0.158072 0.252874 1.686 255 255 255
0.330819 -0.31052 1.073 255 255 255
0.152457 -0.394223 1.036 255 255 255
0.396881 0.193347 1.52 255 255 255
-0.0914771 -0.0985682 1.351 255 255 255
0.668435 0.24773 1.583 255 255 255
0.649843 0.654755 1.779 255 255 255
0.867952 0.590891 1.805 255 255 255
-0.469652 -0.224239 1.302 255 255 255
0.701148 0.480173 1.734 255 255 255
0.298965 -0.0341926 1.327 255 255 255
0.15665 0.580418 1.62 255 255 255
-0.510383 0.112604 1.603 255 255 255
-0.597713 0.154524 1.393 255 255 255
0.160172 0.57569 1.629 255 255 255
-0.223744 -0.283219 1.21 255 255 255
-0.41007 -0.161416 1.308 255 255 255
0.196162 -0.299138 1.122 255 255 255
0.770486 0.519837 1.744 255 255 255
-0.623071 0.0181927 1.369 255 255 255
-0.586368 0.0683409 1.491 255 255 255
-0.442615 0.628381 1.642 255 255 255
0.19669 0.262075 1.624 255 255 255
-0.359443 -0.179744 1.302 255 255 255
-0.08929 0.0336343 1.459 255 255 255
0.305725 -0.390417 1.013 255 255 255
0.643522 0.0946539 1.524 0 0 0
-0.0510864 -0.281957 1.18 255 255 255
-0.342352 -0.415533 1.092 255 255 255
-0.283361 -0.373499 1.126 255 255 255
-0.149784 -0.396818 1.075 255 255 255
0.500689 0.5759 1.668 255 255 255
0.089941 -0.146739 1.273 255 255 255
0.0485314 0.601508 1.62 255 255 255
0.656285 0.0950307 1.491 0 0 0
-0.100734 0.59509 1.646 255 255 255
-0.416484 -0.425737 1.1 255 255 255
-0.159795 0.203431 1.62 255 255 255
0.329999 -0.262655 1.13 255 255 255
-0.213695 -0.173788 1.305 255 255 255
-0.150409 0.550347 1.724 255 255 255
0.293442 -0.226211 1.16 255 255 255
0.540175 0.190208 1.555 255 255 255
-0.613197 -0.162773 1.319 255 255 255
-0.511086 0.532592 1.758 255 255 255
0.0189659 -0.189193 1.239 255 255 255
-0.490267 0.619943 1.677 255 255 255
-0.603856 0.251535 1.429 255 255 255
-0.291857 0.238588 1.682 255 255 255
0.267175 -0.210844 1.169 255 255 255
-0.613708 0.498198 1.378 255 255 255
-0.0540737 -0.19072 1.249 255 255 255
-0.101031 0.43548 1.794 255 255 255
-0.0114622 0.125068 1.532 255 255 255
0.219718 -0.342243 1.085 255 255 255
-0.271161 0.366432 1.799 255 255 255
-0.466455 -0.225836 1.299 255 255 255
0.385247 -0.174197 1.205 255 255 255
0.212421 -0.179597 1.215 255 255 255
-0.0848638 0.591166 1.65 255 255 255
0.107334 0.167433 1.555 255 255 255
0.054502 -0.0465156 1.372 255 255 255
0.451639 0.434058 1.719 255 255 255
0.632603 0.0163963 1.406 0 0 0
-0.0791205 -0.403904 1.066 255 255 255
0.185674 0.48578 1.744 255 255 255
-0.557459 -0.234113 1.275 255 255 255
-0.0454401 0.315229 1.682 255 255 255
-0.0581222 -0.294044 1.167 255 255 255
0.648016 0.531666 1.774 255 255 255
0.641299 0.0117698 1.4 0 0 0
-0.0900493 0.187783 1.599 255 255 255
0.0671561 0.595065 1.624 255 255 255
0.583201 0.12781 1.535 0 0 0
0.299766 0.326177 1.668 255 255 255
-0.0291922 -0.117698 1.319 255 255 255
0.647895 0.378107 1.758 255 255 255
0.435926 0.0561972 1.429 255 255 255
-0.293064 -0.175102 1.299 255 255 255
0.33178 -0.388385 1.012 255 255 255
-0.547954 0.0809776 1.547 255 255 255
0.202742 -0.296252 1.118 255 255 255
-0.0724132 0.627394 1.612 255 255 255
0.533036 0.0118455 1.409 255 255 255
-0.0334939 -0.401259 1.05 255 255 255
-0.491202 -0.347982 1.176 255 255 255
0.482052 -0.0656313 1.308 0 0 0
0.0773432 0.103819 1.513 255 255 255
-0.377645 -0.170875 1.299 255 255 255
-0.149973 0.554346 1.719 255 255 255
0.54822 0.0728556 1.535 0 0 0
0.673029 -0.0280902 1.345 255 255 255
-0.383534 0.118326 1.575 255 255 255
-0.0262265 -0.271582 1.185 255 255 255
-0.259831 -0.0776033 1.369 255 255 255
0.382663 -0.258518 1.128 255 255 255
-0.620129 -0.1522 1.302 255 255 255
-0.371116 -0.182428 1.291 255 255 255
0.528153 -0.0495318 1.333 255 255 255
0.422982 0.408327 1.705 255 255 255
0.695356 0.0883188 1.422 0 0 0
-0.152613 -0.339993 1.149 255 255 255
0.107774 0.51107 1.724 255 255 255
0.887032 0.712592 1.87 255 255 255
-0.476541 -0.341078 1.192 255 255 255
0.251544 0.461293 1.748 255 255 255
-0.511961 0.159887 1.633 255 255 255
-0.48686 0.528779 1.774 255 255 255
0.403791 0.129839 1.473 255 255 255
0.182569 0.586874 1.616 255 255 255
0.263553 -0.275458 1.145 255 255 255
-0.52402 -0.312903 1.203 255 255 255
-0.122837 0.584878 1.655 255 255 255
0.809188 0.620264 1.805 255 255 255
-0.623494 0.34755 1.27 255 255 255
0.488838 -0.0488549 1.375 0 0 0
0.310931 -0.109192 1.27 255 255 255
0.10476 -0.315344 1.141 255 255 255
0.339074 -0.291673 1.094 255 255 255
0.409134 0.285482 1.607 255 255 255
-0.602739 -0.342223 1.196 255 255 255
-0.313871 0.437305 1.826 255 255 255
0.680709 0.63337 1.784 255 255 255
0.369337 0.281822 1.616 255 255 255
-0.417285 0.170935 1.637 255 255 255
0.276716 -0.364857 1.034 255 255 255
0.172324 -0.235978 1.171 255 255 255
-0.630979 0.16503 1.281 255 255 255
0.0150314 0.0449754 1.442 255 255 255
-0.575483 -0.367525 1.196 255 255 255
-0.399424 -0.161416 1.308 255 255 255
-0.193087 -0.340673 1.145 255 255 255
0.373047 -0.335765 1.059 255 255 255
0.669757 0.118827 1.516 255 255 255
0.646632 0.000375025 1.387 255 255 255
-0.594722 -0.395933 1.154 255 255 255
0.383507 -0.372415 1.027 255 255 255
0.3174 0.550529 1.633 255 255 255
-0.155165 0.587571 1.655 255 255 255
0.414539 0.369972 1.682 255 255 255
0.169368 -0.303869 1.126 255 255 255
0.122554 -0.266013 1.169 255 255 255
0.00850888 -0.241134 1.187 255 255 255
0.635057 -0.131407 1.265 255 255 255
0.0419457 0.443 1.789 255 255 255
0.887866 0.693274 1.859 255 255 255
-0.577655 0.536909 1.616 255 255 255
0.390501 0.272968 1.595 255 255 255
-0.60936 -0.257131 1.217 255 255 255
-0.552529 -0.236743 1.278 255 255 255
-0.628048 -0.0288709 1.196 255 255 255
0.0834118 -0.300158 1.154 255 255 255
-0.0211417 -0.34417 1.12 255 255 255
0.41205 0.501297 1.729 255 255 255
0.794784 0.439621 1.799 255 255 255
0.371056 0.527609 1.696 255 255 255
0.592797 0.13888 1.547 0 0 0
-0.313336 0.472113 1.789 255 255 255
0.00460926 -0.268061 1.178 255 255 255
-0.356132 -0.242873 1.225 255 255 255
0.652398 0.20991 1.551 255 255 255
-0.615707 0.151726 1.348 255 255 255
0.574351 0.0871042 1.48 0 0 0
0.707792 0.300973 1.62 0 0 0
-0.481527 0.268539 1.734 255 255 255
-0.60693 -0.179514 1.348 255 255 255
0.401459 0.602168 1.587 255 255 255
0.200439 0.298073 1.633 255 255 255
0.395665 -0.248065 1.139 255 255 255
-0.633918 0.128556 1.313 255 255 255
-0.37602 -0.0708496 1.412 255 255 255
0.33736 0.000365291 1.351 255 255 255
-0.627886 0.237057 1.254 255 255 255
-0.571672 -0.298877 1.234 255 255 255
0.14104 0.364124 1.719 255 255 255
-0.241403 0.355566 1.774 255 255 255
0.297801 -0.361244 1.043 255 255 255
0.124873 -0.125726 1.27 255 255 255
-0.440541 -0.235817 1.273 255 255 255
0.496765 0.592412 1.646 255 255 255
0.0560326 0.456607 1.774 255 255 255
-0.431581 0.427217 1.821 255 255 255
-0.601273 -0.131384 1.396 255 255 255
-0.604654 -0.293201 1.244 255 255 255
0.441113 0.407129 1.7 255 255 255
-0.0907535 -0.405081 1.06 255 255 255
0.153432 0.259635 1.642 255 255 255
-0.594027 0.126842 1.439 255 255 255
0.335052 0.134481 1.498 255 255 255
-0.368463 0.326697 1.774 255 255 255
0.338107 -0.245645 1.145 255 255 255
0.542398 0.351908 1.714 255 255 255
-0.452445 -0.00437494 1.466 255 255 255
-0.332664 -0.293814 1.205 255 255 255
0.205833 0.557946 1.655 255 255 255
0.373047 -0.337489 1.059 255 255 255
-0.615151 0.210015 1.342 255 255 255
-0.592719 0.49129 1.539 255 255 255
0.0130039 -0.382492 1.079 255 255 255
0.383905 0.439397 1.729 255 255 255
-0.24592 -0.0952167 1.366 255 255 255
0.194657 0.0296531 1.384 255 255 255
0.380845 0.134999 1.477 255 255 255
0.320027 -0.246074 1.147 255 255 255
0.136701 -0.198549 1.21 255 255 255
0.345727 0.149505 1.502 255 255 255
-0.155942 -0.114464 1.357 255 255 255
-0.0150309 0.263585 1.65 255 255 255
-0.603545 0.293433 1.396 255 255 255
0.477097 0.0139779 1.393 0 0 0
-0.551834 0.635567 1.633 255 255 255
0.242034 -0.365062 1.059 255 255 255
-0.578645 0.436531 1.696 255 255 255
0.185506 0.572268 1.642 255 255 255
-0.331145 0.618465 1.673 255 255 255
-0.0999037 -0.250364 1.213 255 255 255
0.439165 0.505316 1.714 255 255 255
-0.626079 0.485454 1.319 255 255 255
0.179275 -0.0154247 1.387 255 255 255
0.669797 0.113067 1.505 255 255 255
0.431284 -0.241312 1.16 255 255 255
0.278557 0.492877 1.739 255 255 255
-0.302597 -0.0831785 1.351 255 255 255
0.289347 0.552559 1.655 255 255 255
-0.613168 0.0608949 1.283 255 255 255
-0.227952 -0.248244 1.222 255 255 255
-0.0187087 0.118592 1.513 255 255 255
-0.610782 -0.0586018 1.342 255 255 255
-0.477207 -0.0688917 1.419 255 255 255
0.640431 0.659711 1.769 255 255 255
0.0201627 0.327155 1.673 255 255 255
-0.283399 -0.15776 1.313 255 255 255
-0.594968 0.401255 1.642 255 255 255
-0.204078 -0.228592 1.234 255 255 255
0.330376 -0.304602 1.083 255 255 255
-0.183673 -0.0679693 1.4 255 255 255
-0.605123 -0.0671925 1.432 255 255 255
0.482465 -0.218025 1.198 255 255 255
0.547032 -0.022004 1.375 255 255 255
-0.630674 -0.0211739 1.201 255 255 255
-0.31687 -0.155267 1.31 255 255 255
-0.109214 -0.33322 1.145 255 255 255
-0.257118 -0.175102 1.299 255 255 255
0.0564882 0.0258392 1.422 255 255 255
-0.252727 -0.284309 1.198 255 255 255
-0.281672 -0.165293 1.305 255 255 255
0.914168 0.72329 1.882 255 255 255
-0.420233 -0.30703 1.203 255 255 255
0.000881926 -0.0738889 1.342 255 255 255
-0.235287 -0.36552 1.124 255 255 255
-0.613423 0.132802 1.403 255 255 255
-0.394933 0.61989 1.655 255 255 255
-0.485317 -0.409738 1.11 255 255 255
0.248425 0.156244 1.52 255 255 255
-0.602972 -0.0364859 1.416 255 255 255
0.653973 -0.0959185 1.286 255 255 255
0.255295 -0.0239595 1.359 255 255 255
0.172561 0.313839 1.646 255 255 255
0.12541 -0.301017 1.143 255 255 255
-0.281489 0.0446095 1.509 255 255 255
-0.61461 0.515015 1.375 255 255 255
-0.604146 -0.363292 1.176 255 255 255
0.421496 0.368873 1.677 255 255 255
0.76422 0.197862 1.498 255 255 255
-0.554702 0.230377 1.682 255 255 255
-0.145548 0.310303 1.7 255 255 255
0.450119 0.545547 1.642 255 255 255
-0.356782 -0.137835 1.348 255 255 255
-0.611928 -0.144438 1.369 255 255 255
-0.419347 0.0700368 1.528 255 255 255
0.415753 0.306046 1.633 255 255 255
-0.631082 -0.128138 1.316 255 255 255
0.450217 0.592226 1.595 255 255 255
0.0268796 -0.383499 1.072 255 255 255
-0.558086 -0.27388 1.267 255 255 255
0.306475 -0.100104 1.286 255 255 255
-0.241045 0.287084 1.71 255 255 255
-0.0555677 -0.204992 1.237 255 255 255
-0.59773 0.331005 1.539 255 255 255
-0.558789 -0.417401 1.116 255 255 255
0.278511 -0.12188 1.273 255 255 255
-0.309495 -0.0794229 1.362 255 255 255
-0.598318 0.199299 1.547 255 255 255
0.252287 0.218284 1.575 255 255 255
-0.207457 0.0682133 1.543 255 255 255
-0.156354 -0.203728 1.254 255 255 255
-0.634602 0.117603 1.31 255 255 255
-0.0748859 0.0311958 1.456 255 255 255
-0.123773 0.560929 1.705 255 255 255
0.481344 -0.0835565 1.289 0 0 0
-0.267938 -0.0161142 1.449 255 255 255
0.226149 0.319196 1.646 255 255 255
-0.517406 0.441482 1.831 255 255 255
-0.0210828 0.538733 1.705 255 255 255
-0.505645 0.515774 1.769 255 255 255
0.0440378 0.0697705 1.47 255 255 255
-0.44113 0.611756 1.677 255 255 255
-0.367791 -0.381016 1.132 255 255 255
0.406164 0.576355 1.616 255 255 255
0.182311 0.490047 1.739 255 255 255
-0.623929 0.360484 1.366 255 255 255
-0.407528 -0.218211 1.267 255 255 255
0.172827 -0.27642 1.149 255 255 255
0.728609 0.0449754 1.442 0 0 0
0.388877 0.596313 1.599 255 255 255
0.211071 0.314018 1.633 255 255 255
0.188179 0.294372 1.642 255 255 255
-0.622272 0.291506 1.185 255 255 255
0.371088 -0.135539 1.21 255 255 255
-0.0358537 0.103545 1.509 255 255 255
0.109862 -0.0693657 1.339 255 255 255
-0.605476 0.412057 1.39 255 255 255
-0.498508 0.18943 1.659 255 255 255
-0.5473 -0.410147 1.126 255 255 255
0.213171 0.513684 1.714 255 255 255
-0.634638 0.384488 1.297 255 255 255
0.664762 0.0602946 1.416 255 255 255
-0.31501 -0.291853 1.205 255 255 255
0.0156358 -0.302877 1.143 255 255 255
0.287078 0.588045 1.612 255 255 255
-0.619818 0.0842818 1.357 255 255 255
-0.309449 -0.242501 1.254 255 255 255
0.41266 -0.245645 1.145 255 255 255
-0.506109 -0.394217 1.149 255 255 255
0.179469 0.129951 1.502 255 255 255
-0.0527928 0.502808 1.744 255 255 255
0.653013 -0.0739754 1.305 255 255 255
0.0565618 -0.108864 1.316 255 255 255
0.346035 -0.0171081 1.342 255 255 255
0.54758 0.0399191 1.429 255 255 255
0.0305273 -0.122537 1.302 255 255 255
-0.348038 0.284278 1.744 255 255 255
-0.339468 -0.22852 1.267 255 255 255
0.0779488 0.187528 1.575 255 255 255
0.177445 -0.342588 1.075 255 255 255
0.321167 0.167835 1.513 255 255 255
-0.0672413 -0.277531 1.194 255 255 255
-0.202671 0.529666 1.739 255 255 255
-0.0640129 0.000385299 1.425 255 255 255
-0.411611 0.193172 1.668 255 255 255
-0.329768 -0.364985 1.128 255 255 255
0.511253 0.0258937 1.425 0 0 0
-0.00139674 0.0308315 1.439 255 255 255
-0.0703918 0.150875 1.567 255 255 255
-0.369686 0.274973 1.739 255 255 255
-0.539594 -0.366183 1.173 255 255 255
0.648413 0.443209 1.744 255 255 255
-0.349035 -0.0723186 1.396 255 255 255
0.481016 0.452154 1.724 255 255 255
0.388492 -0.126178 1.234 255 255 255
0.862922 0.456907 1.753 0 0 0
-0.0967585 0.0143391 1.429 255 255 255
-0.60858 -0.33833 1.196 255 255 255
-0.048001 -0.144056 1.305 255 255 255
