ply
format ascii 1.0
comment Created by Open3D
element vertex 1304
property double x
property double y
property double z
property uchar red
property uchar green
property uchar blue
end_header
-0.229687 -0.324143 2.057 255 255 255
-0.168137 0.548125 1.551 255 255 255
-0.522292 0.263695 1.859 255 255 255
-0.0123825 0.614504 1.655 0 0 0
-0.516907 -0.286796 1.089 255 255 255
0.561673 0.459936 2.939 255 255 255
-0.230115 -0.376839 1.87 0 0 0
-0.424226 -0.232385 1.555 255 255 255
0.031648 -0.46936 2.626 255 255 255
-0.213126 -0.37379 1.966 255 255 255
-0.538087 0.450857 1.357 255 255 255
0.544826 0.181624 1.342 255 255 255
-0.00958308 0.615812 1.637 0 0 0
-0.313397 0.338645 2.057 255 255 255
0.498675 0.355802 1.456 255 255 255
0.455263 0.509212 2.604 255 255 255
0.333857 0.574489 2.32 255 255 255
-0.437147 0.486477 1.409 255 255 255
-0.112946 0.336513 2.196 255 255 255
-0.46858 0.495121 1.551 255 255 255
-0.507162 -0.174088 1.357 0 0 0
-0.26336 -0.260696 2.085 255 255 255
0.590032 0.567375 2.638 255 255 255
-0.147468 -0.398466 2.078 0 0 0
-0.0601887 0.579279 1.567 255 255 255
-0.572328 -0.178381 1.132 255 255 255
0.477819 0.48516 1.664 255 255 255
-0.0990044 0.072881 2.953 0 0 0
-0.256413 0.363931 2.03 255 255 255
0.447541 0.469141 1.524 255 255 255
-0.17897 0.336525 2.173 255 255 255
-0.443352 -0.187975 1.429 255 255 255
0.468695 0.172294 1.057 255 255 255
-0.506402 0.480319 1.528 255 255 255
0.357523 0.114756 0.741 255 255 255
0.106013 0.585653 1.789 255 255 255
-0.644925 0.476054 1.305 255 255 255
0.297943 0.664324 1.805 255 255 255
0.0466046 0.45593 2.136 255 255 255
-0.524511 -0.0736655 1.422 255 255 255
-0.329567 -0.332717 1.612 255 255 255
0.0771063 0.575612 1.794 255 255 255
-0.705915 0.280822 1.336 255 255 255
-0.486234 -0.0620337 1.535 255 255 255
0.0196629 -0.400997 2.743 255 255 255
0.346987 0.220853 0.729 255 255 255
-0.530169 -0.296975 1.032 255 255 255
-0.215395 -0.376172 1.929 255 255 255
-0.543305 0.444887 1.359 255 255 255
0.31386 0.221762 0.732 255 255 255
0.348173 0.206617 0.729 255 255 255
-0.340255 -0.271449 1.705 255 255 255
-0.407912 -0.302119 1.419 0 0 0
-0.672001 0.294762 1.52 255 255 255
0.016522 0.126976 2.982 255 255 255
-0.242759 0.377567 1.947 255 255 255
-0.38194 -0.325413 1.4 255 255 255
-0.461617 0.460377 1.579 255 255 255
-0.346707 -0.368748 1.473 255 255 255
-0.642038 0.227721 1.502 255 255 255
0.668773 0.522476 2.411 255 255 255
0.983902 -0.274277 1.941 255 255 255
0.930508 -0.116394 2.114 255 255 255
0.392021 0.526398 1.456 255 255 255
0.252948 0.345958 2.755 255 255 255
0.636771 0.510166 2.269 255 255 255
0.287211 0.27245 0.737 255 255 255
0.367679 0.553834 1.435 255 255 255
-0.163273 -0.402499 2.064 0 0 0
-0.389291 0.000579436 2.143 0 0 0
-0.122825 0.341313 2.181 255 255 255
0.141341 -0.503779 2.953 255 255 255
-0.518211 0.412593 1.603 255 255 255
-0.584222 -0.190389 1.116 255 255 255
-0.551021 0.499416 1.294 255 255 255
-0.386154 -0.0939432 1.935 255 255 255
0.364329 0.560723 1.459 255 255 255
0.501444 0.157785 1.152 255 255 255
-0.705061 0.335923 1.422 255 255 255
0.541093 0.483375 2.672 255 255 255
-0.129675 -0.42601 2.064 255 255 255
0.50956 0.322818 1.524 255 255 255
-0.643083 0.49002 1.297 255 255 255
0.338246 0.277863 0.723 255 255 255
-0.676068 0.454368 1.316 255 255 255
-0.187248 0.539648 1.563 255 255 255
0.407726 0.697985 1.966 255 255 255
-0.169459 0.396796 2.099 255 255 255
-0.48713 0.348817 1.911 255 255 255
0.349321 0.248793 0.724 255 255 255
-0.677118 0.230161 1.412 255 255 255
-0.489526 0.455459 1.351 255 255 255
-0.51158 -0.15863 1.357 255 255 255
-0.593026 0.348715 1.659 255 255 255
-0.492005 -0.135309 1.463 255 255 255
0.626848 0.482094 2.844 255 255 255
0.100848 0.511458 2.107 255 255 255
0.350221 0.248935 0.721 255 255 255
0.664549 -0.0173249 1.359 255 255 255
-0.5513 0.127973 1.865 255 255 255
0.353742 0.253629 0.721 255 255 255
0.650497 -0.00849742 1.362 255 255 255
0.0943869 0.558915 1.972 255 255 255
-0.546885 -0.207005 1.237 255 255 255
0.497771 0.550814 2.561 255 255 255
-0.434048 -0.168283 1.62 255 255 255
-0.0506645 -0.31812 2.684 255 255 255
0.514483 0.266172 1.396 255 255 255
0.477105 0.170891 1.092 255 255 255
-0.572063 0.436041 1.359 255 255 255
0.0589069 0.531624 1.865 255 255 255
0.406445 0.304054 1.098 255 255 255
-0.585547 0.0609215 1.616 255 255 255
-0.496109 0.402791 1.616 255 255 255
0.308743 0.283285 0.734 255 255 255
-0.537462 0.220502 1.779 0 0 0
-0.0538473 0.435471 2.121 255 255 255
-0.573811 0.385334 1.62 255 255 255
0.360109 0.198759 0.722 255 255 255
0.434316 0.515597 1.575 255 255 255
-0.399766 -0.2131 1.62 255 255 255
-0.556757 0.417939 1.387 255 255 255
-0.517906 0.143148 1.865 255 255 255
0.292811 0.258905 0.736 255 255 255
-0.41472 -0.260915 1.316 255 255 255
0.408425 0.381335 1.252 255 255 255
-0.114199 0.44662 1.917 255 255 255
0.492444 0.256757 1.313 255 255 255
-0.138122 0.516118 1.821 255 255 255
-0.258549 0.397948 1.923 255 255 255
0.413331 0.541401 1.583 255 255 255
0.82816 0.452938 2.672 255 255 255
-0.597634 -0.131371 1.156 255 255 255
0.563273 0.467667 2.898 255 255 255
-0.50103 0.158747 1.87 255 255 255
0.566839 0.220927 1.473 255 255 255
-0.0127208 0.414321 2.173 255 255 255
-0.570183 0.468846 1.339 255 255 255
0.311814 0.22472 0.73 255 255 255
-0.469869 0.490525 1.491 255 255 255
0.518921 0.420101 2.996 255 255 255
-0.460418 -0.320736 1.147 255 255 255
0.0555273 0.606974 1.758 255 255 255
-0.479737 0.465714 1.571 255 255 255
-0.580286 0.223967 1.616 255 255 255
-0.396011 -0.115079 1.821 255 255 255
0.0751292 0.643346 1.748 255 255 255
-0.0891811 -0.259002 2.66 255 255 255
-0.196585 0.310168 2.212 255 255 255
-0.0677171 0.594356 1.763 255 255 255
0.529889 0.245157 1.419 255 255 255
-0.507455 -0.226396 1.244 255 255 255
-0.456815 -0.235286 1.406 255 255 255
0.517128 0.595667 2.329 255 255 255
0.287904 0.658639 1.935 255 255 255
-0.592105 0.184585 1.664 255 255 255
-0.3305 0.390498 1.887 255 255 255
0.481817 0.590121 1.917 255 255 255
0.13715 0.399195 2.449 255 255 255
-0.61437 0.150191 1.673 255 255 255
-0.0858154 -0.0284428 2.996 255 255 255
0.30355 0.231608 0.733 255 255 255
-0.123009 0.554599 1.555 255 255 255
-0.0304094 0.602963 1.763 255 255 255
0.907203 -0.0845436 2.092 255 255 255
0.391454 0.514086 1.403 255 255 255
-0.277506 -0.261429 2.064 255 255 255
0.0566351 0.504502 2.121 255 255 255
-0.185638 0.472154 1.882 255 255 255
-0.503741 0.463344 1.342 255 255 255
0.272338 0.566319 2.107 255 255 255
-0.122013 0.456431 1.893 255 255 255
0.450562 0.531795 2.53 255 255 255
0.349504 0.484243 1.26 255 255 255
0.227603 0.665502 1.739 255 255 255
-0.390225 0.214518 2.228 255 255 255
0.427787 0.605579 2.338 255 255 255
0.523111 0.443738 1.724 255 255 255
0.660381 -0.0108397 1.378 255 255 255
1.43238 -0.48226 2.939 255 255 255
-0.532579 -0.281651 1.05 255 255 255
-0.437628 -0.297647 1.327 0 0 0
-0.222537 0.575028 1.509 255 255 255
0.0492656 0.358021 2.44 255 255 255
-0.642142 0.116376 1.696 255 255 255
0.928995 -0.137458 1.972 255 255 255
-0.187415 0.31763 2.189 255 255 255
-0.334704 0.351927 1.911 255 255 255
-0.580366 0.503779 1.289 255 255 255
0.101854 0.499241 2.128 255 255 255
-0.129307 0.210378 2.684 255 255 255
-0.652952 0.422149 1.357 255 255 255
0.00720735 0.525067 1.842 255 255 255
-0.597522 0.16563 1.664 255 255 255
1.08735 -0.331814 2.173 255 255 255
-0.692927 0.135657 1.539 255 255 255
-0.354708 0.43774 1.853 255 255 255
-0.449138 -0.178163 1.463 255 255 255
-0.474586 -0.207013 1.432 255 255 255
-0.540358 0.278403 1.779 255 255 255
0.0760376 0.533262 2.085 255 255 255
0.486331 0.323141 1.387 255 255 255
-0.48245 -0.279563 1.178 0 0 0
-0.453607 -0.227986 1.432 255 255 255
0.208358 0.612392 1.899 255 255 255
-0.193621 0.511213 1.734 255 255 255
-0.194039 0.502794 1.642 255 255 255
-0.683032 0.178465 1.459 255 255 255
0.581578 0.168991 1.48 255 255 255
-0.272065 -0.340242 1.805 255 255 255
-0.677475 0.362527 1.567 255 255 255
0.563379 0.445918 1.837 255 255 255
-0.575011 -0.110022 1.33 0 0 0
-0.567592 -0.163088 1.141 255 255 255
-0.533492 0.353158 1.642 255 255 255
0.278285 0.542607 2.329 255 255 255
-0.605051 -0.0829962 1.249 255 255 255
0.212238 0.60668 1.826 255 255 255
-0.203456 0.0904507 2.626 0 0 0
-0.394482 -0.291813 1.509 255 255 255
-0.534634 -0.28174 1.044 255 255 255
-0.500675 -0.291799 1.108 255 255 255
-0.387943 -0.0293837 2.044 255 255 255
-0.138607 0.530339 1.789 255 255 255
-0.0214624 0.3687 2.356 255 255 255
-0.324456 0.480787 1.587 255 255 255
0.53205 0.461051 2.857 255 255 255
1.02095 0.206452 2.939 255 255 255
-0.460473 0.503684 1.516 255 255 255
-0.45139 0.418569 1.616 255 255 255
-0.690574 0.196556 1.47 255 255 255
0.214063 0.667416 1.744 255 255 255
-0.528146 0.361174 1.642 255 255 255
-0.376835 -0.35075 1.357 255 255 255
-0.122141 0.213121 2.719 255 255 255
-0.542828 -0.253284 1.06 0 0 0
-0.235032 0.369031 2.136 255 255 255
0.275052 0.558111 2.128 255 255 255
0.346749 0.215511 0.731 255 255 255
-0.016807 -0.246843 2.871 255 255 255
-0.421542 0.373596 1.686 255 255 255
-0.24591 -0.16053 2.303 255 255 255
-0.394474 0.512644 1.528 255 255 255
-0.513739 0.0228438 1.719 255 255 255
-0.439383 0.109872 2.099 255 255 255
-0.319842 0.25539 2.269 255 255 255
-0.573898 0.437985 1.591 255 255 255
-0.498739 0.394901 1.616 255 255 255
-0.134937 0.547639 1.779 255 255 255
-0.566376 0.071025 1.668 0 0 0
0.267961 0.444427 2.479 255 255 255
-0.0179714 0.360263 2.402 255 255 255
-0.37356 -0.22983 1.705 255 255 255
-0.66537 0.216783 1.494 255 255 255
-0.186028 0.568834 1.532 255 255 255
0.560307 0.41971 1.789 255 255 255
0.441055 0.47033 2.672 255 255 255
0.81497 -0.0556442 1.724 255 255 255
-0.461749 0.309114 1.935 255 255 255
-0.130457 0.42873 2.024 255 255 255
-0.502618 0.204473 1.899 0 0 0
-0.702745 0.441886 1.33 255 255 255
-0.29099 -0.362508 1.677 255 255 255
-0.687596 0.218979 1.429 255 255 255
-0.336471 0.435585 1.714 255 255 255
-0.334718 -0.330034 1.599 255 255 255
-0.147135 0.340061 2.173 255 255 255
-0.47163 0.368304 1.65 255 255 255
-0.48653 -0.0372577 1.655 255 255 255
-0.623578 0.378128 1.39 255 255 255
0.358584 0.389549 1.139 255 255 255
0.334053 0.66582 2.004 255 255 255
-0.408861 -0.181699 1.646 255 255 255
-0.0808329 -0.38385 2.411 255 255 255
0.837431 0.450903 2.66 255 255 255
-0.0761912 0.251783 2.66 255 255 255
-0.671783 0.456509 1.316 255 255 255
-0.686173 0.121934 1.524 255 255 255
-0.303323 -0.0407611 2.312 255 255 255
-0.161408 0.3815 2.128 255 255 255
-0.443285 -0.0759378 1.739 255 255 255
0.185265 0.548669 2.092 255 255 255
0.425715 0.62187 2.286 255 255 255
-0.445454 0.0871493 2.128 255 255 255
-0.506592 0.440935 1.583 255 255 255
-0.512071 0.476521 1.324 255 255 255
-0.243844 0.533379 1.567 255 255 255
-0.239146 -0.14832 2.347 255 255 255
0.265875 0.603091 2.057 255 255 255
-0.267094 -0.0772046 2.392 255 255 255
-0.256789 0.325917 2.173 255 255 255
-0.204173 -0.144559 2.479 255 255 255
-0.523847 -0.277433 1.06 255 255 255
0.0155267 0.416511 2.166 255 255 255
0.421497 0.523287 1.575 255 255 255
0.244135 0.383982 2.707 255 255 255
-0.278196 0.380355 1.929 255 255 255
-0.327523 0.417411 1.87 255 255 255
-0.45116 0.130277 2.044 255 255 255
-0.130602 0.549538 1.555 255 255 255
-0.139856 0.423965 2.017 255 255 255
-0.0407931 -0.44965 2.365 255 255 255
0.481649 0.148494 1.059 255 255 255
-0.643127 0.379098 1.369 255 255 255
-0.514768 -0.224913 1.247 255 255 255
-0.407105 -0.273955 1.466 255 255 255
-0.716942 0.173526 1.4 255 255 255
-0.487357 0.471025 1.339 255 255 255
-0.0397237 -0.490331 2.303 255 255 255
-0.615475 0.316916 1.691 255 255 255
-0.621033 0.411564 1.599 255 255 255
0.536478 0.236047 1.406 255 255 255
-0.440656 -0.057258 1.774 255 255 255
0.0397317 0.548715 1.821 255 255 255
-0.685381 0.328231 1.439 255 255 255
-0.523342 -0.291147 1.066 255 255 255
-0.419744 -0.247581 1.494 255 255 255
0.0383141 0.521173 2.064 255 255 255
0.457703 0.243222 1.114 255 255 255
-0.482588 -0.163077 1.435 255 255 255
-0.550501 0.228373 1.729 255 255 255
0.415902 0.620226 2.253 255 255 255
0.490559 0.453149 2.78 255 255 255
-0.574356 0.445262 1.571 255 255 255
-0.187849 0.551746 1.547 255 255 255
-0.144127 0.334215 2.181 255 255 255
-0.410016 -0.271894 1.494 255 255 255
-0.391987 0.517617 1.528 255 255 255
0.916332 -0.13915 2.044 255 255 255
0.298817 0.234706 0.739 255 255 255
-0.296415 0.451723 1.603 255 255 255
-0.435054 -0.0941997 1.763 255 255 255
-0.649498 0.368892 1.48 255 255 255
-0.202324 0.348249 2.158 255 255 255
-0.1722 0.574272 1.52 255 255 255
-0.325704 0.552927 1.509 255 255 255
0.289584 0.251883 0.74 255 255 255
-0.160429 0.288253 2.489 255 255 255
-0.468184 0.0563448 2.017 255 255 255
-0.497539 0.431718 1.587 255 255 255
-0.223435 0.563848 1.532 255 255 255
0.481999 0.308451 1.362 255 255 255
0.052799 0.315611 2.615 255 255 255
-0.523269 -0.0121846 1.953 0 0 0
0.513572 0.577934 2.365 255 255 255
-0.637084 0.487672 1.302 255 255 255
-0.458109 0.474728 1.567 255 255 255
-0.230979 0.495707 1.739 255 255 255
0.305281 0.530036 2.392 255 255 255
-0.482444 -0.0932079 1.555 255 255 255
0.178072 0.62807 1.753 255 255 255
-0.100929 0.159626 2.871 255 255 255
-0.67776 0.274185 1.463 255 255 255
-0.0834569 -0.393413 2.374 255 255 255
-0.0673912 0.474696 1.917 255 255 255
0.390224 0.697141 1.991 255 255 255
-0.205082 -0.326245 2.114 255 255 255
-0.327903 0.329721 2.064 255 255 255
0.101507 0.567955 2.051 255 255 255
-0.560481 0.0555242 1.612 255 255 255
-0.584275 0.138336 1.729 255 255 255
-0.484419 0.235096 2.03 255 255 255
-0.190453 -0.351644 2.143 255 255 255
-0.664543 0.318887 1.591 255 255 255
-0.357516 -0.22774 2.004 255 255 255
0.114565 -0.501394 2.884 255 255 255
-0.516597 -0.264379 1.07 255 255 255
0.881795 0.205579 2.469 255 255 255
0.271782 0.541062 2.244 255 255 255
0.390515 0.546563 1.505 255 255 255
-0.699663 0.145814 1.375 255 255 255
-0.416674 -0.323581 1.336 255 255 255
-0.457356 0.445752 1.591 255 255 255
-0.417908 -0.314178 1.333 255 255 255
0.358925 0.154284 0.734 255 255 255
-0.622549 0.41775 1.583 255 255 255
0.32665 0.223489 0.726 255 255 255
-0.459131 0.274138 1.978 255 255 255
-0.0643401 0.4732 2.017 255 255 255
-0.471898 0.462946 1.579 255 255 255
0.0444719 -0.495 2.626 255 255 255
0.301632 0.675635 1.758 255 255 255
-0.481898 0.482985 1.324 255 255 255
0.0159211 0.563073 1.81 255 255 255
0.860986 -0.00912175 1.978 255 255 255
-0.697476 0.219291 1.416 255 255 255
-0.59157 0.450061 1.348 255 255 255
-0.356202 -0.168917 1.893 255 255 255
0.431767 0.259576 1.122 255 255 255
-0.28794 0.504062 1.571 255 255 255
-0.680475 0.0918811 1.308 255 255 255
-0.302725 0.462446 1.595 255 255 255
0.261796 0.456847 2.459 255 255 255
-0.240571 -0.204708 2.253 255 255 255
-0.0456911 -0.175327 2.925 255 255 255
-0.513509 0.24232 1.905 255 255 255
-0.475422 0.480845 1.33 255 255 255
0.345086 0.203337 0.73 255 255 255
0.895991 -0.199275 1.779 255 255 255
-0.152343 0.461126 1.887 255 255 255
-0.539886 -0.261277 1.182 255 255 255
-0.341252 -0.261114 1.71 255 255 255
0.376028 0.673469 2.037 255 255 255
-0.314055 0.38371 1.899 255 255 255
-0.692249 0.214328 1.429 255 255 255
-0.218357 0.281093 2.329 255 255 255
0.0473151 0.531753 1.887 255 255 255
0.109229 0.584371 1.794 255 255 255
0.347135 0.14872 0.742 255 255 255
0.475851 0.47033 2.672 255 255 255
-0.549983 0.424711 1.387 255 255 255
-0.382673 0.539736 1.473 255 255 255
-0.259459 -0.422192 1.779 255 255 255
-0.58244 -0.149663 1.152 255 255 255
-0.425997 -0.00945839 2.051 255 255 255
-0.573601 0.396547 1.612 255 255 255
-0.326647 0.440575 1.865 255 255 255
-0.312928 0.376806 1.911 255 255 255
0.363909 0.366986 1.11 255 255 255
-0.0936402 0.209831 2.793 255 255 255
0.0553549 0.156093 2.982 255 255 255
-0.361384 -0.104042 2.143 255 255 255
-0.563263 0.390606 1.62 255 255 255
-0.368573 0.0610337 2.32 255 255 255
-0.529328 0.259724 1.831 255 255 255
-0.509723 -0.272947 1.112 255 255 255
0.110761 0.570708 2.037 255 255 255
-0.00459664 0.596378 1.769 255 255 255
-0.326673 0.568168 1.491 255 255 255
-0.353375 0.306108 2.158 255 255 255
-0.684736 0.263829 1.372 255 255 255
-0.349772 -0.107178 2.136 255 255 255
-0.448645 0.373256 1.893 255 255 255
-0.245137 0.543341 1.559 255 255 255
-0.36102 0.0648091 2.32 255 255 255
-0.384542 0.125713 2.136 255 255 255
-0.63662 0.121896 1.696 255 255 255
-0.497836 0.0450225 1.953 255 255 255
-0.304932 0.53751 1.528 255 255 255
-0.443819 0.500341 1.477 255 255 255
-0.250665 -0.317677 2.037 255 255 255
-0.389307 0.503914 1.547 255 255 255
-0.206539 0.549538 1.555 255 255 255
-0.0632649 0.47955 1.887 255 255 255
-0.507913 -0.271138 1.112 255 255 255
-0.313136 0.121911 2.329 255 255 255
0.168238 0.514626 2.092 255 255 255
-0.0939816 0.473409 1.887 255 255 255
-0.338223 -0.325794 1.591 255 255 255
0.277613 0.283244 0.737 255 255 255
0.220383 0.620132 1.923 255 255 255
0.449051 0.501459 1.555 255 255 255
-0.365818 0.274172 2.212 255 255 255
-0.395767 -0.342713 1.369 255 255 255
0.284811 0.273649 0.737 255 255 255
-0.17729 -0.328179 2.196 255 255 255
0.438524 0.252232 1.13 255 255 255
-0.353879 -0.359102 1.463 255 255 255
-0.365179 -0.0842608 2.085 0 0 0
-0.518873 0.05336 1.805 255 255 255
-0.343864 0.318117 2.121 255 255 255
-0.463549 0.48192 1.327 255 255 255
-0.328039 -0.338666 1.555 255 255 255
-0.518039 0.0369378 1.724 255 255 255
-0.0360842 0.480582 2.092 255 255 255
0.507507 0.10541 1.059 255 255 255
0.351678 0.204022 0.724 255 255 255
-0.379038 0.530821 1.516 255 255 255
-0.254935 -0.224517 2.128 255 255 255
-0.091498 -0.431814 2.196 255 255 255
0.590236 0.536354 2.166 255 255 255
-0.545663 0.413623 1.607 255 255 255
-0.687507 0.163234 1.516 255 255 255
-0.158681 0.313533 2.236 255 255 255
0.336039 0.257146 0.731 255 255 255
-0.535329 0.276085 1.821 255 255 255
-0.509962 0.0264616 1.774 255 255 255
0.1639 0.670984 1.724 255 255 255
-0.367858 0.00430591 2.269 255 255 255
-0.503559 -0.281428 1.139 255 255 255
-0.672122 0.153586 1.543 255 255 255
0.523855 0.087161 1.112 255 255 255
-0.16787 0.143582 2.743 255 255 255
-0.515993 0.0450663 1.826 0 0 0
0.305272 0.215422 0.743 255 255 255
-0.686773 0.253757 1.354 255 255 255
0.361916 0.187379 0.728 255 255 255
-0.485223 -0.164721 1.429 255 255 255
-0.475503 -0.1741 1.449 255 255 255
-0.233521 -0.158552 2.329 255 255 255
-0.364978 -0.187241 1.923 255 255 255
0.330885 0.404691 1.062 255 255 255
-0.0858013 0.419063 2.143 255 255 255
-0.460015 0.186987 2.01 0 0 0
-0.569764 0.394901 1.616 255 255 255
0.689536 0.542479 2.561 255 255 255
-0.423707 -0.307747 1.324 255 255 255
-0.435606 -0.167868 1.616 255 255 255
-0.250713 0.378389 1.935 255 255 255
-0.0404132 0.532393 1.826 255 255 255
0.0896118 0.622364 1.753 255 255 255
-0.688695 0.186478 1.466 255 255 255
-0.0151585 0.615138 1.664 0 0 0
-0.356777 0.0855389 2.269 255 255 255
-0.361942 -0.181023 1.799 255 255 255
0.531122 0.567484 2.561 255 255 255
0.0260983 0.135994 2.967 255 255 255
-0.127943 0.426929 1.985 255 255 255
0.196306 0.61157 1.763 255 255 255
-0.268974 0.0703682 2.519 255 255 255
-0.218896 -0.109562 2.509 255 255 255
0.13317 0.623046 1.763 255 255 255
-0.68759 0.24926 1.33 255 255 255
-0.16126 -0.113803 2.707 255 255 255
-0.666443 0.283556 1.513 255 255 255
0.062252 0.52809 2.078 255 255 255
0.475425 0.610828 2.329 255 255 255
0.573966 0.572943 2.212 255 255 255
-0.62665 0.0886659 1.466 255 255 255
-0.584439 -0.082649 1.275 255 255 255
-0.422614 -0.170049 1.637 255 255 255
-0.590702 0.27839 1.691 255 255 255
-0.122797 -0.213931 2.638 255 255 255
-0.323977 0.344827 1.959 255 255 255
-0.436452 0.119318 2.085 255 255 255
-0.637907 0.0977397 1.459 255 255 255
-0.668906 0.192457 1.513 255 255 255
0.362911 0.183142 0.73 255 255 255
0.441255 0.440557 1.47 255 255 255
0.0339825 0.416057 2.22 255 255 255
-0.250771 -0.396136 1.779 255 255 255
0.346035 0.19422 0.727 255 255 255
-0.466163 -0.12262 1.543 255 255 255
0.38171 0.341647 1.104 255 255 255
-0.581074 0.369824 1.633 255 255 255
-0.461386 -0.281014 1.262 0 0 0
0.518178 0.566001 1.997 255 255 255
0.363991 0.140522 0.737 255 255 255
0.363601 0.267808 0.715 255 255 255
-0.371679 0.516501 1.547 255 255 255
-0.506425 0.408393 1.607 255 255 255
-0.00502798 0.504344 1.935 255 255 255
0.533354 0.635708 2.269 255 255 255
0.350022 0.140457 0.743 255 255 255
-0.0775615 0.173643 2.871 255 255 255
0.365471 0.186194 0.728 255 255 255
-0.529433 0.348661 1.646 255 255 255
-0.360331 -0.35399 1.387 255 255 255
-0.108728 -0.443211 2.114 255 255 255
-0.354843 0.559385 1.487 255 255 255
-0.248783 -0.199529 2.196 255 255 255
0.535934 0.598844 2.312 255 255 255
0.887933 -0.226173 1.763 255 255 255
0.105318 0.495778 2.128 255 255 255
0.424122 0.49313 1.477 255 255 255
-0.405471 -0.104132 1.837 0 0 0
-0.359111 -0.130766 1.876 255 255 255
0.578367 0.139102 1.375 255 255 255
-0.691073 0.22641 1.403 255 255 255
-0.413534 0.275939 1.991 255 255 255
-0.262368 0.556209 1.498 255 255 255
-0.323376 0.573904 1.487 255 255 255
-0.356352 0.469054 1.591 255 255 255
-0.446714 -0.29656 1.267 255 255 255
-0.225582 -0.153306 2.365 255 255 255
-0.306707 0.386135 1.911 255 255 255
-0.0957654 0.346165 2.212 255 255 255
-0.58476 0.478972 1.313 255 255 255
-0.380487 0.391274 1.876 255 255 255
-0.205978 0.566341 1.532 255 255 255
-0.512121 0.115295 1.959 255 255 255
-0.504206 0.136918 1.905 255 255 255
-0.728347 0.338941 1.387 255 255 255
0.329014 0.22467 0.726 255 255 255
-0.254424 -0.347172 1.826 255 255 255
-0.696738 0.237371 1.387 255 255 255
-0.32247 -0.0721696 2.236 255 255 255
0.302711 0.669154 1.929 255 255 255
-0.146915 0.541029 1.567 255 255 255
-0.385789 -0.143864 1.774 255 255 255
-0.328019 -0.383761 1.543 255 255 255
0.351492 0.132844 0.741 255 255 255
0.396595 0.469993 2.695 255 255 255
-0.188299 -0.451161 1.941 255 255 255
-0.351506 -0.235643 1.935 255 255 255
0.552499 0.226895 1.406 255 255 255
-0.405438 -0.338138 1.342 255 255 255
-0.204795 -0.193982 2.392 255 255 255
-0.132728 -0.133754 2.755 255 255 255
-0.345387 -0.140667 1.972 0 0 0
-0.38594 -0.0762523 1.966 255 255 255
0.20786 0.523478 2.114 255 255 255
0.891701 -0.0733357 2.064 255 255 255
-0.650729 0.362294 1.39 255 255 255
0.103383 0.448166 2.236 255 255 255
-0.538543 0.380454 1.633 255 255 255
-0.0776118 0.589761 1.509 255 255 255
-0.15641 -0.347307 2.204 255 255 255
0.567954 0.170901 1.416 255 255 255
-0.56957 0.444959 1.579 255 255 255
0.541727 0.148006 1.278 255 255 255
0.213763 0.424835 2.459 255 255 255
-0.353368 0.345707 1.911 255 255 255
-0.584786 0.156661 1.714 255 255 255
-0.355841 -0.356295 1.442 255 255 255
-0.250771 -0.393241 1.779 255 255 255
0.789747 -0.12421 1.563 255 255 255
0.0793575 0.585275 1.779 255 255 255
-0.30526 0.0964867 2.356 255 255 255
-0.140624 0.405741 2.128 255 255 255
-0.680817 0.284597 1.48 255 255 255
-0.548903 -0.039886 1.456 255 255 255
0.0990685 0.596378 1.769 255 255 255
0.145511 0.659843 1.739 255 255 255
0.691293 -0.0294268 1.409 255 255 255
0.341531 0.280225 0.72 255 255 255
-0.405575 -0.239889 1.571 255 255 255
-0.618908 0.382652 1.459 255 255 255
0.625262 0.554792 2.66 255 255 255
-0.520943 0.273809 1.887 255 255 255
-0.425144 -0.32594 1.302 255 255 255
-0.0903545 0.237554 2.695 255 255 255
-0.548404 -0.0731474 1.412 255 255 255
-0.170105 -0.373167 2.107 255 255 255
-0.341888 0.121114 2.244 255 255 255
0.297614 0.229621 0.742 255 255 255
-0.491677 -0.30693 1.043 255 255 255
-0.4013 0.497891 1.396 255 255 255
-0.454779 -0.122353 1.677 255 255 255
0.531192 0.252591 1.435 255 255 255
0.930495 -0.140594 2.017 255 255 255
0.661487 0.55543 2.684 255 255 255
0.00662187 -0.272744 2.898 255 255 255
-0.465333 -0.136704 1.532 255 255 255
-0.378206 -0.354382 1.354 255 255 255
0.0713479 0.305098 2.672 255 255 255
0.369595 0.602602 2.114 255 255 255
-0.615503 0.0115344 1.372 255 255 255
-0.469969 -0.299697 1.205 255 255 255
-0.443613 0.381678 1.859 255 255 255
-0.46695 -0.114619 1.571 255 255 255
-0.629443 0.0678245 1.429 255 255 255
-0.68405 0.45111 1.319 255 255 255
-0.514517 0.207328 1.842 0 0 0
0.337493 0.26712 0.729 255 255 255
-0.269127 -0.337305 1.805 255 255 255
0.374968 0.144925 0.735 255 255 255
-0.396634 -0.316672 1.372 255 255 255
-0.270787 -0.271505 2.064 255 255 255
0.123502 0.492298 2.143 255 255 255
0.500109 0.618999 2.303 255 255 255
-0.636428 0.482425 1.305 255 255 255
0.357807 0.411555 1.192 255 255 255
-0.608093 -0.122176 1.158 255 255 255
0.127431 0.614439 1.763 255 255 255
-0.62836 0.0936922 1.47 255 255 255
0.389504 0.487098 1.372 255 255 255
0.653703 0.505147 2.743 255 255 255
-0.502384 -0.247228 1.217 255 255 255
0.525669 0.438705 2.925 255 255 255
-0.00697421 -0.388004 2.684 255 255 255
-0.575884 0.248854 1.696 255 255 255
0.136426 0.368145 2.509 255 255 255
-0.528627 -0.306159 1.029 255 255 255
-0.669401 0.450666 1.324 255 255 255
0.389403 0.532915 1.429 255 255 255
-0.151276 -0.285816 2.347 255 255 255
-0.676647 0.353226 1.571 255 255 255
-0.47159 -0.312067 1.116 255 255 255
-0.66321 0.257947 1.452 255 255 255
-0.420118 0.0673072 2.158 255 255 255
-0.474975 0.496299 1.539 255 255 255
-0.593668 0.498421 1.286 255 255 255
0.627805 0.13363 1.516 255 255 255
-0.184691 0.49809 1.842 255 255 255
-0.110595 0.548101 1.595 255 255 255
-0.452381 0.0386679 2.128 255 255 255
-0.693205 0.120283 1.316 255 255 255
-0.309338 -0.147844 2.121 255 255 255
-0.667093 0.358085 1.616 255 255 255
0.143399 -0.467236 2.996 255 255 255
-0.495555 -0.249744 1.21 255 255 255
0.21793 0.618928 1.929 255 255 255
-0.538469 -0.173384 1.227 255 255 255
0.414179 0.309337 1.165 255 255 255
-0.514555 -0.244442 1.213 255 255 255
-0.708193 0.212828 1.419 255 255 255
0.288539 0.548061 2.32 255 255 255
-0.124859 0.0430187 2.884 255 255 255
0.492471 0.604692 2.32 255 255 255
0.363209 0.132603 0.733 255 255 255
-0.462976 0.40338 1.629 255 255 255
0.390359 0.314775 1.098 255 255 255
-0.552202 0.361174 1.642 255 255 255
-0.665589 0.176959 1.528 255 255 255
-0.421665 -0.203038 1.603 255 255 255
0.0580225 0.541579 1.837 255 255 255
-0.181676 -0.435903 1.972 255 255 255
-0.493032 -0.267725 1.185 255 255 255
-0.368272 0.409592 1.876 255 255 255
0.939721 -0.132044 2.037 255 255 255
-0.529149 0.236127 1.81 255 255 255
-0.578736 -0.166802 1.141 255 255 255
-0.0313306 0.594701 1.528 255 255 255
-0.568887 0.0284013 1.563 255 255 255
-0.621194 -0.0437694 1.291 255 255 255
-0.464081 -0.120623 1.691 255 255 255
-0.507889 -0.284587 1.108 255 255 255
0.361284 0.204633 0.722 255 255 255
-0.102175 0.58485 1.509 255 255 255
0.319393 0.677946 1.81 255 255 255
0.882745 -0.101418 1.842 255 255 255
0.841301 0.450172 2.818 255 255 255
-0.699589 0.213728 1.425 255 255 255
-0.471115 -0.30366 1.213 255 255 255
-0.0377113 0.259482 2.695 255 255 255
-0.365102 -0.282796 1.642 255 255 255
-0.374576 -0.268135 1.528 255 255 255
-0.651098 0.155424 1.642 255 255 255
-0.37023 0.454659 1.595 255 255 255
-0.276613 -0.114303 2.278 255 255 255
-0.0401722 0.360684 2.329 255 255 255
-0.445288 0.363222 1.905 255 255 255
-0.641469 0.0272227 1.375 255 255 255
-0.497998 0.320712 1.929 255 255 255
-0.158245 -0.101479 2.731 255 255 255
-0.372599 0.216925 2.253 255 255 255
0.386262 0.698194 1.848 255 255 255
0.357761 0.139701 0.739 255 255 255
0.0560839 0.386011 2.392 255 255 255
-0.370755 -0.0102378 2.22 0 0 0
0.63177 0.59767 2.53 255 255 255
-0.484787 -0.133564 1.47 255 255 255
0.0667745 0.542789 1.831 255 255 255
-0.318584 -0.190048 1.985 255 255 255
-0.134713 0.520325 1.815 255 255 255
-0.424753 0.439086 1.595 255 255 255
0.977743 0.438099 2.953 255 255 255
-0.481148 -0.0959847 1.559 255 255 255
-0.1462 0.464196 1.887 255 255 255
0.528298 0.492317 1.799 255 255 255
-0.634422 0.086791 1.435 255 255 255
-0.295724 0.357452 1.941 255 255 255
-0.296651 0.514213 1.563 255 255 255
0.570951 0.192711 1.459 255 255 255
-0.297655 0.407142 1.893 255 255 255
0.498725 0.252444 1.324 255 255 255
-0.469803 0.421199 1.616 255 255 255
0.379344 0.666839 2.037 255 255 255
-0.0802223 0.369707 2.181 255 255 255
0.74598 0.526141 2.857 255 255 255
-0.189986 0.508053 1.677 255 255 255
-0.302142 0.23673 2.303 255 255 255
-0.0197784 0.528065 1.842 255 255 255
0.0502468 -0.322693 2.967 255 255 255
-0.540974 -0.285509 1.027 255 255 255
-0.680036 0.0738799 1.291 255 255 255
-0.302053 -0.272065 1.882 255 255 255
0.843707 -0.0362427 1.882 255 255 255
-0.258812 -0.036514 2.54 0 0 0
0.267902 0.283193 0.74 255 255 255
-0.627082 0.0850443 1.445 255 255 255
-0.197922 0.551746 1.547 255 255 255
-0.207467 -0.126395 2.519 255 255 255
0.113462 0.561675 1.815 255 255 255
-0.428487 -0.213015 1.543 255 255 255
-0.375577 -0.118934 1.882 255 255 255
-0.0499856 0.584379 1.567 255 255 255
-0.355704 -0.356154 1.432 255 255 255
0.358214 0.664548 2.03 255 255 255
-0.39628 0.313455 1.923 255 255 255
-0.484336 -0.187773 1.393 255 255 255
0.226582 0.636628 1.753 255 255 255
0.132415 0.645186 1.753 255 255 255
-0.54351 0.456471 1.354 255 255 255
-0.35518 0.54556 1.509 255 255 255
0.206018 0.643346 1.748 255 255 255
0.661487 0.559798 2.684 255 255 255
0.936714 -0.117606 2.136 255 255 255
0.0364445 0.567392 1.805 255 255 255
-0.163584 0.566341 1.532 255 255 255
0.304377 0.673123 1.774 255 255 255
-0.454601 0.496398 1.555 255 255 255
-0.690504 0.413316 1.357 255 255 255
-0.522057 -0.180354 1.322 255 255 255
-0.713148 0.350448 1.406 255 255 255
0.213023 0.598426 2.064 255 255 255
-0.3544 0.516783 1.339 255 255 255
-0.0336005 0.427628 2.151 255 255 255
-0.377063 -0.265649 1.528 255 255 255
0.23619 0.623425 2.004 255 255 255
-0.662465 0.341358 1.624 255 255 255
0.442547 0.504974 2.604 255 255 255
0.456211 0.175167 1.064 255 255 255
-0.436068 -0.0733493 1.815 255 255 255
0.631712 0.57945 2.615 255 255 255
-0.532919 -0.299573 1.018 255 255 255
-0.472878 0.336407 1.929 255 255 255
-0.638968 0.406416 1.579 255 255 255
0.492725 0.635708 2.269 255 255 255
0.772684 0.000461007 1.705 255 255 255
-0.46951 0.106627 2.037 255 255 255
0.370376 0.173868 0.726 255 255 255
-0.0372216 0.260441 2.66 255 255 255
0.502845 0.106722 1.09 255 255 255
0.496533 0.168006 1.145 255 255 255
0.336431 0.506681 2.392 255 255 255
-0.251578 0.24174 2.469 255 255 255
0.603613 0.546135 2.66 255 255 255
0.167784 -0.535492 2.996 255 255 255
-0.518498 0.0419729 1.959 0 0 0
-0.498453 0.341736 1.705 255 255 255
-0.733747 0.201726 1.406 255 255 255
-0.570709 0.130586 1.859 255 255 255
-0.349502 -0.270016 1.696 255 255 255
-0.622249 -0.0356673 1.302 255 255 255
0.552499 0.217742 1.406 255 255 255
-0.617358 0.374921 1.412 255 255 255
0.186383 0.601782 2.03 255 255 255
-0.320272 -0.329551 1.779 0 0 0
-0.513408 -0.263487 1.192 255 255 255
-0.415257 0.181934 2.064 0 0 0
0.0978924 0.651879 1.748 255 255 255
0.508571 0.47681 2.684 255 255 255
-0.46595 0.00513246 1.456 255 255 255
0.0197489 0.269742 2.755 255 255 255
-0.279501 -0.35864 1.724 0 0 0
-0.565063 0.200232 1.705 255 255 255
-0.457984 0.155812 2.03 255 255 255
-0.215959 -0.14961 2.43 255 255 255
-0.187127 -0.303955 2.228 255 255 255
0.569532 0.178625 1.48 255 255 255
-0.627368 0.42056 1.359 255 255 255
-0.577536 0.400023 1.372 255 255 255
-0.280936 0.400423 1.905 255 255 255
-0.445694 0.41007 1.624 255 255 255
0.535363 0.202889 1.324 255 255 255
-0.675086 0.244676 1.403 255 255 255
-0.404175 -0.308503 1.406 0 0 0
0.310005 0.276048 0.737 255 255 255
-0.577871 0.203933 1.624 255 255 255
0.551886 0.402706 1.753 255 255 255
-0.301005 0.341766 1.997 255 255 255
-0.616391 0.0637483 1.442 255 255 255
0.0775791 0.561518 1.805 255 255 255
0.469956 0.644268 2.071 255 255 255
0.644943 0.143189 1.595 255 255 255
-0.549599 0.244545 1.744 255 255 255
-0.529664 -0.271657 1.051 255 255 255
-0.129032 0.363639 2.166 255 255 255
-0.345116 -0.139863 1.917 255 255 255
-0.362173 -0.0817211 2.107 0 0 0
0.374955 0.35294 1.1 255 255 255
-0.600447 -0.0881765 1.265 255 255 255
0.333861 0.457701 1.176 255 255 255
-0.328785 -0.0907227 2.158 255 255 255
-0.580334 0.392261 1.384 255 255 255
0.93594 -0.174271 1.953 255 255 255
-0.59635 0.435666 1.555 255 255 255
-0.548404 -0.0685519 1.412 255 255 255
-0.551845 -0.165621 1.291 255 255 255
0.394736 0.614111 1.691 255 255 255
-0.0931349 0.493489 1.87 255 255 255
0.160648 0.586924 1.848 255 255 255
-0.301006 0.302969 2.212 255 255 255
-0.453422 0.2245 2.085 255 255 255
0.348377 0.589465 2.22 255 255 255
-0.179988 -0.351644 2.143 255 255 255
0.515964 0.444622 2.871 255 255 255
-0.200311 -0.421093 1.905 255 255 255
-0.124207 0.421293 2.085 255 255 255
-0.115547 0.321537 2.32 255 255 255
0.452663 0.32539 1.297 255 255 255
0.612341 -0.00163919 1.208 255 255 255
-0.461555 0.407427 1.624 255 255 255
-0.222487 0.498537 1.739 255 255 255
0.391738 0.487098 1.372 255 255 255
-0.494907 0.480845 1.33 255 255 255
0.262324 0.673092 1.744 255 255 255
-0.594594 0.378184 1.612 255 255 255
-0.353179 -0.351252 1.47 255 255 255
-0.38319 0.50796 1.333 255 255 255
-0.199512 0.374575 2.128 255 255 255
-0.364242 0.107066 2.181 255 255 255
-0.564032 0.428234 1.477 255 255 255
-0.337647 0.443419 1.779 255 255 255
0.194512 0.289668 2.818 255 255 255
-0.541125 -0.257729 1.05 0 0 0
0.372754 0.13976 0.733 255 255 255
-0.514726 -0.224011 1.242 255 255 255
0.32414 0.280938 0.731 255 255 255
-0.361286 0.548288 1.445 255 255 255
-0.676647 0.343 1.571 255 255 255
-0.209213 0.383697 2.121 255 255 255
0.302426 0.226288 0.739 255 255 255
-0.465125 0.440574 1.591 255 255 255
-0.126316 -0.432728 2.064 255 255 255
0.937546 -0.133166 2.004 255 255 255
-0.467799 -0.29869 1.225 255 255 255
-0.370749 0.420505 1.744 255 255 255
-0.285262 0.348171 1.978 255 255 255
0.485097 0.12092 1.059 255 255 255
-0.481233 -0.117598 1.543 255 255 255
0.539598 0.242594 1.445 255 255 255
0.0896118 0.619511 1.753 255 255 255
0.758396 0.0593987 1.81 255 255 255
0.469957 0.502852 2.615 255 255 255
0.577888 0.238789 1.575 255 255 255
-0.36118 0.500228 1.567 255 255 255
-0.482304 -0.0373478 1.659 255 255 255
0.371044 0.69071 2.01 255 255 255
-0.00958934 0.384624 2.269 255 255 255
-0.0115744 0.599578 1.547 255 255 255
-0.61489 0.496157 1.291 255 255 255
0.194095 0.602136 1.769 255 255 255
-0.6798 0.309555 1.532 255 255 255
-0.345161 -0.328696 1.487 255 255 255
-0.535042 0.19489 1.81 255 255 255
0.334391 0.240163 0.73 255 255 255
-0.515296 0.239838 1.935 255 255 255
0.92071 -0.160566 1.941 255 255 255
-0.146325 -0.306364 2.329 255 255 255
0.0681204 0.544592 2.051 255 255 255
-0.603491 0.320613 1.696 255 255 255
0.0526652 0.532939 1.859 255 255 255
-0.258399 0.35726 2.128 255 255 255
-0.313623 -0.305251 1.842 255 255 255
0.071962 0.298953 2.695 255 255 255
0.0164389 0.131166 2.967 255 255 255
-0.257258 -0.102095 2.338 255 255 255
-0.261366 0.243908 2.411 255 255 255
-0.501489 0.469969 1.336 255 255 255
-0.583949 0.12715 1.853 255 255 255
-0.614123 0.265532 1.629 255 255 255
-0.480478 0.427177 1.599 255 255 255
-0.572788 0.184923 1.799 255 255 255
-0.483735 0.44691 1.372 255 255 255
-0.262119 -0.362852 1.758 0 0 0
0.0806351 0.653226 1.744 255 255 255
0.140833 0.296642 2.755 255 255 255
-0.347128 0.169271 2.303 255 255 255
-0.571707 0.290938 1.7 255 255 255
-0.505143 -0.274551 1.126 255 255 255
0.372293 0.369995 1.087 255 255 255
0.731224 0.500803 2.561 255 255 255
-0.443838 -0.329148 1.198 255 255 255
-0.506013 -0.289693 1.1 255 255 255
-0.0692264 0.572894 1.599 255 255 255
-0.41844 0.505122 1.543 255 255 255
-0.573688 0.442552 1.535 255 255 255
0.557996 0.556809 2.649 255 255 255
-0.588351 0.097744 1.758 255 255 255
0.504291 0.294499 1.412 255 255 255
-0.566423 -0.24394 1.072 255 255 255
-0.218894 0.539853 1.571 255 255 255
-0.188277 -0.274667 2.286 255 255 255
-0.652322 0.378184 1.612 255 255 255
-0.452166 0.377213 1.882 255 255 255
0.299764 0.637006 2.037 255 255 255
-0.182138 0.257905 2.509 255 255 255
-0.462025 -0.144858 1.513 255 255 255
-0.39683 -0.0816 1.941 255 255 255
0.318302 0.277313 0.734 255 255 255
0.664848 0.534246 2.411 255 255 255
-0.508312 -0.275745 1.154 0 0 0
0.56835 0.033908 1.147 255 255 255
-0.501096 0.208995 1.941 255 255 255
-0.254561 0.240761 2.459 255 255 255
0.50979 0.093903 1.046 255 255 255
-0.257125 -0.369622 1.763 255 255 255
-0.172832 0.485913 1.876 255 255 255
-0.350081 0.514213 1.563 255 255 255
-0.107957 0.427538 2.099 255 255 255
-0.569044 0.376871 1.629 255 255 255
-0.569969 0.446934 1.559 255 255 255
-0.511675 0.464528 1.567 255 255 255
-0.677306 0.334485 1.532 255 255 255
0.305101 0.258336 0.731 255 255 255
-0.213218 -0.194896 2.356 255 255 255
-0.402705 -0.260313 1.393 0 0 0
-0.339855 0.353922 1.905 255 255 255
-0.490641 -0.257015 1.198 255 255 255
0.668692 0.563317 2.561 255 255 255
0.707532 0.550463 2.66 255 255 255
-0.407093 0.482378 1.567 255 255 255
-0.678025 0.331125 1.528 255 255 255
0.455046 0.224562 1.158 255 255 255
-0.66946 0.224569 1.435 255 255 255
0.0575203 0.42246 2.294 255 255 255
0.263269 0.640968 1.789 255 255 255
-0.499074 -0.155537 1.409 0 0 0
0.493413 0.54735 2.604 255 255 255
-0.556152 0.179273 1.831 255 255 255
0.155545 0.458627 2.365 255 255 255
-0.163071 -0.188704 2.53 255 255 255
-0.276144 0.357579 1.959 255 255 255
-0.258889 0.0259087 2.582 255 255 255
-0.192339 0.509651 1.748 255 255 255
-0.585544 0.141549 1.7 255 255 255
-0.569304 -0.171768 1.137 255 255 255
0.0431026 0.657849 1.719 255 255 255
-0.568339 0.436064 1.366 255 255 255
-0.476906 -0.182811 1.425 255 255 255
0.414505 0.512359 1.477 255 255 255
0.356195 0.230577 0.726 255 255 255
-0.476802 0.497064 1.31 255 255 255
0.425715 0.50751 1.491 255 255 255
-0.470547 0.015822 1.882 255 255 255
-0.613676 0.379627 1.607 255 255 255
0.742218 0.264586 2.107 255 255 255
-0.699589 0.192858 1.425 255 255 255
-0.266719 -0.409555 1.714 255 255 255
-0.517148 0.0473275 1.799 255 255 255
-0.632418 0.187394 1.532 255 255 255
0.319884 0.663494 1.997 255 255 255
-0.471898 -0.107494 1.579 255 255 255
0.325027 0.192244 0.733 255 255 255
-0.117196 0.220991 2.707 255 255 255
-0.392668 -0.0454071 2.017 255 255 255
-0.373025 0.0117371 2.278 255 255 255
-0.532244 -0.143383 1.359 255 255 255
0.741125 0.488714 2.911 255 255 255
0.689615 -0.0277116 1.439 255 255 255
-0.430393 0.490064 1.559 255 255 255
0.33703 0.221735 0.728 255 255 255
-0.418225 -0.194646 1.62 255 255 255
0.354035 0.239367 0.724 255 255 255
-0.116372 0.196196 2.793 255 255 255
-0.513868 0.103538 1.978 255 255 255
-0.473558 0.456951 1.362 255 255 255
-0.392409 0.519854 1.52 255 255 255
0.483305 0.33081 1.372 255 255 255
-0.509493 -0.220053 1.254 255 255 255
-0.287139 -0.195026 2.037 255 255 255
-0.660424 0.146519 1.575 255 255 255
-0.365636 0.525157 1.39 255 255 255
0.395335 0.36367 1.194 255 255 255
-0.485459 -0.27526 1.176 0 0 0
-0.56157 0.0285466 1.571 255 255 255
-0.339633 -0.369087 1.484 255 255 255
0.11189 0.414159 2.42 255 255 255
-0.471558 -0.313846 1.156 255 255 255
-0.574939 -0.145914 1.152 255 255 255
0.481229 0.650585 2.136 255 255 255
0.585808 0.0294683 1.194 255 255 255
-0.418923 0.383111 1.633 255 255 255
-0.0746145 0.11558 2.939 255 255 255
0.147845 0.328163 2.719 255 255 255
-0.420242 -0.230446 1.559 255 255 255
0.0523106 -0.398204 2.818 255 255 255
-0.347882 -0.290267 1.624 255 255 255
-0.479604 0.364913 1.659 255 255 255
-0.411025 -0.0849731 1.876 255 255 255
-0.37927 0.411325 1.87 255 255 255
0.0280279 0.542789 1.831 255 255 255
-0.575228 0.209219 1.624 255 255 255
-0.445837 -0.14036 1.664 255 255 255
-0.401296 0.38405 1.637 255 255 255
0.305206 0.280845 0.737 255 255 255
0.285151 0.252223 0.741 255 255 255
-0.66522 0.486548 1.299 255 255 255
-0.532015 0.000406119 1.502 255 255 255
0.302721 0.258336 0.731 255 255 255
-0.490793 0.351794 1.799 255 255 255
-0.199141 0.486099 1.865 255 255 255
-0.254678 0.0833551 2.54 255 255 255
-0.13713 0.565385 1.543 255 255 255
0.506766 0.158752 1.173 255 255 255
0.340333 0.217592 0.73 255 255 255
0.294583 0.30309 2.996 255 255 255
-0.274679 0.492456 1.583 255 255 255
-0.107588 -0.0230088 2.925 255 255 255
-0.280546 -0.34941 1.748 255 255 255
0.393392 0.361726 1.194 255 255 255
-0.337117 0.0999549 2.261 255 255 255
-0.551661 0.181755 1.826 255 255 255
-0.145408 -0.188381 2.582 255 255 255
0.600452 0.125344 1.422 255 255 255
0.132131 0.41587 2.43 255 255 255
-0.492734 0.222967 2.01 255 255 255
-0.56208 0.215735 1.696 255 255 255
-0.0710401 0.59145 1.705 255 255 255
-0.451852 -0.0430649 1.784 255 255 255
0.363152 0.689495 1.779 255 255 255
-0.206632 0.520724 1.575 255 255 255
0.142011 -0.496511 2.967 255 255 255
0.441709 0.251414 1.143 255 255 255
-0.415981 0.174112 2.051 0 0 0
0.296812 0.236228 0.74 255 255 255
0.800624 0.424256 2.479 255 255 255
-0.419949 -0.172713 1.637 255 255 255
-0.623682 0.482425 1.305 255 255 255
-0.118658 -0.428028 2.107 255 255 255
-0.526483 -0.31757 1.012 255 255 255
-0.53782 -0.161416 1.308 255 255 255
-0.424773 -0.33104 1.257 255 255 255
-0.0163883 0.562579 1.799 255 255 255
0.0293154 0.433013 2.143 255 255 255
-0.341835 -0.302505 1.633 255 255 255
0.371292 0.089554 0.742 255 255 255
-0.645309 0.247226 1.487 255 255 255
-0.54676 0.261573 1.744 255 255 255
-0.31929 0.480787 1.587 255 255 255
-0.351502 -0.325601 1.473 255 255 255
-0.343864 0.314666 2.121 255 255 255
-0.169502 0.517217 1.612 255 255 255
-0.408251 0.0250843 2.151 255 255 255
0.783727 0.181328 2.136 255 255 255
-0.450682 0.211443 2.057 255 255 255
-0.488353 -0.31052 1.073 255 255 255
-0.665037 0.263396 1.456 255 255 255
-0.255653 0.237491 2.509 255 255 255
-0.0778851 0.533303 1.799 255 255 255
-0.479284 -0.306676 1.194 255 255 255
-0.655349 0.383598 1.539 255 255 255
-0.250559 0.252766 2.459 255 255 255
-0.140502 0.45335 1.893 255 255 255
-0.487408 0.465714 1.571 255 255 255
0.204916 0.617308 1.763 255 255 255
-0.347147 -0.148755 1.911 255 255 255
0.390136 0.530942 1.449 255 255 255
0.171686 0.419824 2.43 255 255 255
0.140671 -0.520522 2.939 255 255 255
0.177537 -0.584247 2.996 255 255 255
-0.460491 0.0612235 2.071 255 255 255
-0.0595849 0.352014 2.347 255 255 255
0.450031 0.239491 1.122 255 255 255
-0.505993 0.107135 1.985 255 255 255
-0.250483 -0.0203107 2.582 255 255 255
-0.135616 0.435892 1.911 255 255 255
-0.710503 0.198973 1.419 255 255 255
-0.341826 0.428435 1.865 255 255 255
0.48246 0.125852 1.057 255 255 255
-0.734447 0.163239 1.39 255 255 255
-0.463956 0.447214 1.587 255 255 255
-0.265128 -0.21121 2.099 255 255 255
-0.428848 -0.0508123 1.972 255 255 255
-0.457997 0.505573 1.299 255 255 255
0.597276 0.0887845 1.393 255 255 255
0.366021 0.606841 1.579 255 255 255
-0.465166 0.254913 2.004 255 255 255
-0.238015 -0.423999 1.837 255 255 255
0.348651 0.21878 0.73 255 255 255
0.471634 0.610828 2.329 255 255 255
-0.113097 0.508734 1.848 255 255 255
0.622673 0.0134962 1.345 255 255 255
-0.678713 0.178836 1.502 255 255 255
-0.481571 -0.311694 1.162 255 255 255
-0.0308273 0.154954 2.871 255 255 255
0.398079 0.543297 2.365 255 255 255
-0.314893 -0.237311 1.923 255 255 255
-0.0768887 0.294159 2.54 255 255 255
-0.691504 0.166999 1.442 255 255 255
-0.223671 -0.383187 1.842 255 255 255
-0.201384 0.562454 1.535 255 255 255
0.164376 0.664489 1.729 255 255 255
-0.0567056 0.448032 2.099 255 255 255
-0.66048 0.160664 1.563 255 255 255
0.307097 0.611861 2.064 255 255 255
-0.319427 -0.108683 2.166 255 255 255
-0.25149 0.376404 1.941 255 255 255
-0.391893 0.511803 1.403 255 255 255
0.133114 0.352422 2.604 255 255 255
-0.407269 0.000565646 2.092 255 255 255
-0.514717 -0.253841 1.077 0 0 0
-0.0748089 0.426519 2.128 255 255 255
-0.403778 0.507499 1.535 255 255 255
-0.621272 0.211032 1.505 255 255 255
-0.229864 0.431787 1.893 255 255 255
0.0962057 0.566414 2.01 255 255 255
0.395721 0.309414 1.098 255 255 255
-0.160429 0.284202 2.489 255 255 255
-0.300257 0.211106 2.44 255 255 255
-0.271283 -0.300472 1.947 255 255 255
-0.606584 0.431017 1.575 255 255 255
-0.134496 -0.1993 2.615 255 255 255
-0.421557 -0.215961 1.583 255 255 255
-0.467743 -0.277855 1.257 0 0 0
-0.536892 0.398515 1.62 255 255 255
-0.282771 -0.175281 2.078 255 255 255
0.587244 0.221141 1.559 255 255 255
-0.102827 0.0293505 2.925 255 255 255
-0.53367 -0.147588 1.357 255 255 255
0.521631 0.253808 1.403 255 255 255
-0.270906 0.0698095 2.499 255 255 255
-0.180835 -0.278387 2.286 255 255 255
-0.657705 0.150218 1.587 255 255 255
-0.301735 0.217252 2.42 255 255 255
0.603459 0.0729165 1.351 255 255 255
-0.698999 0.23574 1.327 255 255 255
0.536436 0.552498 2.649 255 255 255
-0.341074 0.0352772 2.365 255 255 255
0.0513825 -0.427174 2.768 255 255 255
0.787587 0.0465718 1.887 255 255 255
0.364486 0.573536 2.347 255 255 255
-0.563877 -0.159375 1.141 255 255 255
-0.369773 0.491279 1.571 255 255 255
-0.134224 -0.152769 2.695 255 255 255
-0.592887 0.433474 1.351 255 255 255
-0.072754 0.294159 2.54 255 255 255
-0.386875 -0.0483757 2.004 255 255 255
-0.330567 0.417411 1.87 255 255 255
-0.275089 -0.364927 1.714 255 255 255
0.500013 0.565634 2.411 255 255 255
-0.348453 -0.122866 2.107 255 255 255
-0.624609 0.330811 1.664 255 255 255
-0.366098 -0.0870652 2.071 0 0 0
-0.596207 0.281142 1.691 255 255 255
-0.207903 -0.185496 2.383 255 255 255
-0.0642756 -0.466814 2.244 255 255 255
-0.0454724 -0.183962 2.911 255 255 255
0.193634 0.665502 1.739 255 255 255
-0.704391 0.311463 1.416 255 255 255
-0.0123026 -0.245545 2.911 255 255 255
-0.478679 0.490073 1.551 255 255 255
-0.0608748 0.584878 1.655 255 255 255
-0.0421501 0.59229 1.774 255 255 255
-0.371674 -0.0517914 2.01 255 255 255
0.57933 0.597141 2.32 255 255 255
0.23197 0.481112 2.44 255 255 255
-0.354592 -0.276416 1.668 255 255 255
-0.571178 -0.214323 1.081 255 255 255
-0.368666 -0.174194 1.789 255 255 255
-0.679496 0.49005 1.286 255 255 255
-0.360945 0.519172 1.555 255 255 255
0.26846 0.491088 2.411 255 255 255
0.0745232 0.540865 1.876 255 255 255
-0.199512 -0.318017 2.128 255 255 255
-0.482479 -0.144832 1.463 255 255 255
-0.368827 -0.247937 1.696 255 255 255
-0.447027 -0.102499 1.71 255 255 255
0.759939 -0.00765065 1.659 255 255 255
0.298416 0.225397 0.744 255 255 255
-0.371738 -0.335154 1.422 255 255 255
0.368013 0.223489 0.726 255 255 255
0.293991 0.242904 0.742 255 255 255
-0.526753 0.317125 1.753 255 255 255
0.508155 0.298937 1.456 255 255 255
-0.416674 0.496059 1.336 255 255 255
0.509773 0.0928179 1.053 255 255 255
-0.61048 0.440069 1.351 255 255 255
-0.137193 -0.329178 2.303 255 255 255
-0.303728 -0.0264011 2.374 255 255 255
0.565363 0.273491 1.583 255 255 255
-0.360901 -0.35686 1.372 255 255 255
-0.127172 0.430024 2.078 255 255 255
-0.519976 0.354878 1.65 255 255 255
-0.596816 -0.0999103 1.232 255 255 255
-0.525869 0.433829 1.432 255 255 255
-0.599352 0.465621 1.336 255 255 255
-0.196512 0.000731933 2.707 255 255 255
-0.48553 -0.191405 1.403 255 255 255
-0.699416 0.352736 1.406 255 255 255
-0.0411256 -0.180949 2.939 255 255 255
-0.321154 0.357266 1.923 255 255 255
-0.49878 -0.112253 1.505 255 255 255
-0.093203 0.568719 1.655 255 255 255
-0.497638 -0.022584 1.571 255 255 255
-0.656237 0.169089 1.547 255 255 255
0.515151 0.100051 1.057 255 255 255
0.357077 0.20374 0.723 255 255 255
-0.419005 -0.329445 1.316 255 255 255
-0.655559 0.319427 1.62 255 255 255
-0.693535 0.162911 1.513 255 255 255
0.749451 0.495824 2.925 255 255 255
0.590436 0.425223 1.905 255 255 255
0.635556 0.150597 1.591 255 255 255
-0.383873 0.470457 1.587 255 255 255
0.0099776 -0.464076 2.55 0 0 0
-0.279042 0.0576094 2.499 255 255 255
-0.378839 -0.132178 1.853 255 255 255
-0.171032 -0.271576 2.356 255 255 255
0.0290145 0.504502 2.121 255 255 255
0.486952 0.624047 2.294 255 255 255
-0.36368 0.42278 1.612 255 255 255
-0.321826 0.169979 2.365 255 255 255
-0.399335 0.408682 1.629 255 255 255
-0.460393 -0.255828 1.369 255 255 255
0.381714 0.539676 2.383 255 255 255
-0.597069 -0.168872 1.13 255 255 255
-0.229468 0.210786 2.582 255 255 255
-0.162357 0.517224 1.794 255 255 255
-0.0570019 0.22695 2.78 255 255 255
-0.0486772 0.359927 2.374 255 255 255
-0.122564 0.125154 2.831 255 255 255
0.611811 0.0104836 1.247 255 255 255
-0.342567 0.317172 2.092 255 255 255
-0.571461 0.46116 1.342 255 255 255
0.313095 0.247114 0.733 255 255 255
-0.46284 -0.134211 1.532 255 255 255
0.539465 0.137995 1.244 255 255 255
-0.56414 -0.231915 1.081 255 255 255
-0.406791 0.346627 1.899 255 255 255
-0.635619 0.366006 1.422 255 255 255
0.3102 0.255256 0.729 255 255 255
-0.0777066 0.495204 1.865 255 255 255
-0.652521 0.114979 1.498 255 255 255
-0.37438 0.39738 1.876 255 255 255
-0.527776 -0.181444 1.299 255 255 255
0.324733 0.222613 0.727 255 255 255
0.869717 -0.0884086 1.821 255 255 255
0.038426 0.410471 2.269 255 255 255
0.359192 0.150117 0.737 255 255 255
-0.525512 -0.0998649 1.4 255 255 255
