ply
format ascii 1.0
comment Created by Open3D
element vertex 1304
property double x
property double y
property double z
property uchar red
property uchar green
property uchar blue
end_header
0.290281 -0.140591 0.569 255 255 255
-0.875039 -0.168044 2.253 255 255 255
0.234049 0.2351 0.902 255 255 255
0.232358 0.25864 0.863 255 255 255
0.294754 -0.427937 1.378 255 255 255
-0.869979 0.348438 2.638 255 255 255
0.300613 -0.228713 0.673 255 255 255
0.290138 -0.266628 0.988 255 255 255
0.295704 -0.376954 1.372 255 255 255
0.260084 0.161525 0.554 255 255 255
0.272647 0.0361384 0.567 255 255 255
0.235668 -0.39579 2.32 255 255 255
0.288237 -0.233312 0.897 255 255 255
-0.211529 0.641422 1.815 255 255 255
0.283531 0.203898 0.554 255 255 255
0.252756 0.0856258 0.833 255 255 255
-0.0205227 0.451582 2.743 255 255 255
-0.859928 0.427909 1.876 255 255 255
0.232222 0.073169 1.316 255 255 255
-0.964821 0.401647 1.826 255 255 255
0.264167 0.130926 0.664 0 0 0
0.293313 -0.349118 1.167 255 255 255
-0.572945 0.355853 2.871 255 255 255
0.234414 0.224676 0.821 255 255 255
-0.832043 -0.14956 1.882 255 255 255
-0.672108 0.407166 2.449 255 255 255
0.23785 0.168966 0.978 255 255 255
0.293891 -0.343919 1.012 255 255 255
-0.855879 0.10173 1.682 255 255 255
0.263365 0.0615127 0.673 255 255 255
-0.820299 -0.512368 2.672 255 255 255
0.265099 -0.550158 2.051 255 255 255
0.21389 0.224848 1.422 255 255 255
0.257557 0.0907609 0.752 255 255 255
-0.912003 -0.481028 2.793 255 255 255
-0.0890937 0.414362 2.793 255 255 255
0.268139 0.00383336 0.744 255 255 255
0.254086 0.182671 0.652 0 0 0
-0.618067 0.648039 1.753 255 255 255
-0.788386 0.475 2.128 255 255 255
-0.826467 0.55006 2.01 255 255 255
0.273693 -0.111982 0.932 255 255 255
0.272234 -0.19371 0.57 255 255 255
-0.850678 -0.344757 2.831 255 255 255
0.223745 0.295503 0.986 255 255 255
-0.45835 0.589522 2.092 255 255 255
0.205398 0.190686 1.719 255 255 255
0.230178 0.185786 1 255 255 255
0.108115 0.626345 1.876 255 255 255
0.238619 -0.260973 2.143 255 255 255
0.288825 -0.0999934 0.684 255 255 255
0.297793 -0.299789 0.895 255 255 255
0.237149 0.181274 0.551 255 255 255
0.253794 0.108542 0.802 255 255 255
0.161094 0.466182 1.724 255 255 255
-0.297208 0.632561 1.815 255 255 255
0.257431 0.116798 0.56 255 255 255
-0.328806 0.405107 2.672 255 255 255
0.184714 0.250106 1.848 255 255 255
0.28358 -0.343875 1.459 255 255 255
0.229524 0.154724 1.201 255 255 255
-0.929084 0.190073 2.53 255 255 255
-0.78373 0.423107 2.449 255 255 255
-0.371905 0.428107 2.55 255 255 255
-0.859437 -0.31496 2.519 255 255 255
-0.283481 0.451786 2.615 255 255 255
-0.647253 0.382943 2.731 255 255 255
0.282603 -0.155473 0.862 255 255 255
0.284889 -0.136043 0.728 255 255 255
-0.527606 0.504473 2.196 255 255 255
0.275146 -0.0591472 0.715 255 255 255
-0.599781 0.491438 2.338 255 255 255
-0.920705 0.232138 2.411 255 255 255
0.299535 -0.198416 0.678 255 255 255
-0.588351 0.678495 1.758 255 255 255
0.212008 0.264188 1.351 255 255 255
-0.877163 -0.155958 2.347 255 255 255
0.271311 -0.416981 1.929 255 255 255
0.175642 0.0204291 2.43 255 255 255
0.283727 -0.178303 0.892 255 255 255
0.277398 -0.0595225 0.573 255 255 255
-0.581188 0.368375 2.755 255 255 255
-0.814155 0.378488 2.638 255 255 255
0.301968 -0.641789 1.794 255 255 255
-0.0571451 0.467094 2.582 255 255 255
0.225725 0.209158 0.556 255 255 255
-0.551137 0.364716 2.831 255 255 255
0.282136 0.0824622 0.562 255 255 255
-0.209904 0.589278 2.128 255 255 255
-0.864716 0.440371 1.744 255 255 255
-0.198874 0.624872 2.085 255 255 255
-0.845012 -0.208062 1.805 255 255 255
0.223623 0.321038 0.884 255 255 255
0.248352 0.139489 0.556 255 255 255
-0.900723 0.144942 1.972 255 255 255
-0.854579 0.364815 2.173 255 255 255
-0.855095 0.296402 2.672 255 255 255
0.204318 0.316051 1.302 255 255 255
-0.875631 0.246192 2.793 255 255 255
-0.867125 0.0701581 1.784 255 255 255
0.282119 0.182832 0.553 255 255 255
0.207788 0.0966876 1.739 255 255 255
0.237397 0.207753 0.898 255 255 255
0.258473 -0.278953 1.7 255 255 255
0.281019 -0.0785519 0.569 255 255 255
-0.695396 0.33094 2.818 255 255 255
-0.891365 -0.0551324 2.449 255 255 255
0.292042 -0.262069 0.989 255 255 255
-0.212367 0.623011 1.848 255 255 255
0.251584 -0.152466 1.62 255 255 255
-0.868074 0.513791 1.935 255 255 255
0.252493 0.1375 0.774 255 255 255
-0.895107 0.101713 2.143 255 255 255
0.263663 -0.0272162 0.888 255 255 255
0.262739 0.195077 0.552 255 255 255
-0.493889 0.629323 1.789 255 255 255
-0.796737 0.417581 2.44 255 255 255
0.294398 -0.26938 0.872 255 255 255
0.250016 0.0753508 0.923 255 255 255
0.239832 0.249286 0.754 255 255 255
-0.0111953 0.466282 2.649 255 255 255
-0.184806 0.608127 1.905 255 255 255
0.205398 0.221458 1.719 255 255 255
0.281761 -0.316597 1.487 255 255 255
0.0307321 0.477904 2.55 255 255 255
0.178314 -0.0897278 2.78 255 255 255
-0.420135 0.613146 1.81 255 255 255
0.282137 -0.329132 1.416 255 255 255
0.248578 0.0890279 1.029 255 255 255
0.204801 0.187343 1.714 255 255 255
0.284296 -0.0861106 0.57 255 255 255
0.26754 -0.00701576 0.739 255 255 255
0.231615 -0.131533 1.887 255 255 255
0.271286 -0.00894927 0.702 255 255 255
-0.475212 0.367627 2.818 255 255 255
0.165031 0.476616 1.599 255 255 255
0.215961 0.064616 1.714 255 255 255
0.269165 0.0357836 0.663 255 255 255
0.279713 -0.324679 1.502 255 255 255
-0.21507 0.488983 2.42 255 255 255
0.227535 0.20192 0.556 255 255 255
0.232956 0.0611842 1.384 255 255 255
0.157993 0.548596 1.484 255 255 255
0.242068 0.240554 0.717 255 255 255
-0.879463 -0.0480979 2.303 255 255 255
0.199158 0.364462 1.416 255 255 255
-0.900346 -0.0968624 2.857 255 255 255
-0.845379 -0.207634 1.705 255 255 255
0.28838 -0.165983 0.74 255 255 255
-0.858333 -0.32172 2.54 255 255 255
-0.781835 0.642929 1.724 255 255 255
0.180331 0.179461 2.114 255 255 255
0.187943 0.252378 1.821 255 255 255
0.184019 0.441969 1.406 255 255 255
0.199012 0.434104 1.149 255 255 255
-0.156558 0.398861 2.78 255 255 255
0.243795 0.0709787 0.558 255 255 255
0.215726 -0.0772046 2.392 255 255 255
-0.583305 0.499072 2.303 255 255 255
0.280587 -0.16583 0.945 255 255 255
0.243979 0.166278 0.779 255 255 255
-0.58614 0.574961 1.972 255 255 255
0.246155 0.20914 0.683 255 255 255
0.238417 0.0647506 1.237 255 255 255
-0.852057 0.479729 1.753 255 255 255
0.148504 0.43884 1.966 255 255 255
-0.854843 0.514564 1.826 255 255 255
-0.379513 0.63284 1.799 255 255 255
-0.624905 0.554439 2.114 255 255 255
-0.920337 0.209437 2.672 255 255 255
-0.602192 0.571022 1.826 255 255 255
0.260032 0.142809 0.659 255 255 255
0.210097 0.288525 1.213 255 255 255
-0.889807 0.0298206 2.244 255 255 255
-0.316149 0.524936 2.269 255 255 255
0.211077 0.305528 1.242 255 255 255
0.249859 -0.0629217 1.254 255 255 255
0.252595 0.201633 0.662 255 255 255
0.257069 -0.0321813 1.05 255 255 255
0.29804 -0.305464 0.85 255 255 255
-0.879796 0.390241 1.947 255 255 255
0.258224 0.0533366 0.816 255 255 255
-0.928555 0.224291 2.411 255 255 255
0.296169 -0.229985 0.718 255 255 255
0.289912 -0.214064 0.823 255 255 255
0.190477 0.359877 1.686 255 255 255
0.268052 -0.131331 0.569 255 255 255
-0.836071 -0.0981536 1.837 255 255 255
0.1805 0.273057 2.615 255 255 255
-0.369697 0.63984 1.794 255 255 255
-0.889899 0.000649466 2.402 255 255 255
-0.886635 -0.141305 2.236 255 255 255
0.192888 0.177848 1.758 255 255 255
-0.302577 0.531751 2.365 255 255 255
-0.632121 0.661676 1.729 255 255 255
-0.312483 0.608007 2.051 255 255 255
0.274598 0.144918 0.556 255 255 255
-0.856878 0.0909864 1.917 255 255 255
0.290595 -0.485337 1.435 255 255 255
-0.585109 0.552604 2.107 255 255 255
0.243901 -0.0668857 1.333 255 255 255
0.236128 0.222875 0.877 255 255 255
-0.469567 0.514466 2.392 255 255 255
0.299309 -0.197538 0.675 255 255 255
-0.871433 -0.242443 2.449 255 255 255
0.289355 -0.0239209 0.569 255 255 255
0.231571 0.164213 0.557 255 255 255
-0.796282 0.541315 1.899 255 255 255
0.164618 0.503976 1.595 255 255 255
-0.846717 -0.365742 2.53 255 255 255
-0.0160336 0.575995 2.143 255 255 255
0.245637 0.145822 0.556 255 255 255
0.213766 0.250945 1.158 255 255 255
-0.823313 -0.0758828 1.563 255 255 255
0.245018 0.100051 1.057 255 255 255
0.252826 0.193695 0.657 255 255 255
0.299051 -0.592723 1.62 255 255 255
-0.577618 0.351181 2.871 255 255 255
0.267053 -0.0944911 1.004 255 255 255
0.248508 0.186739 0.699 255 255 255
0.064619 0.51655 2.42 255 255 255
0.184316 0.278719 2.55 255 255 255
-0.130124 0.470038 2.53 255 255 255
0.191153 0.468025 1.375 255 255 255
0.0429661 0.644685 2.128 255 255 255
0.252418 0.148084 0.71 255 255 255
0.264328 0.0369304 0.565 255 255 255
-0.898595 0.199359 2.143 255 255 255
0.268801 0.0665575 0.559 255 255 255
-0.643569 0.434531 2.402 255 255 255
-0.614209 0.413816 2.489 255 255 255
0.288936 -0.147331 0.57 255 255 255
-0.857464 0.540874 2.037 255 255 255
-0.0790541 0.636395 1.826 255 255 255
-0.90997 -0.0346625 2.719 255 255 255
-0.676021 0.568543 1.972 255 255 255
-0.745304 0.499332 2.085 255 255 255
-0.888197 -0.0262009 2.356 255 255 255
-0.325371 0.496859 2.42 255 255 255
0.273106 -0.0360039 0.695 255 255 255
0.244416 0.11639 1.005 255 255 255
-0.900649 -0.0925905 2.731 255 255 255
0.26287 0.0673465 0.558 255 255 255
0.290065 -0.333015 1.234 255 255 255
0.206652 0.317697 1.182 255 255 255
0.277801 -0.0907485 0.57 255 255 255
0.268436 -0.097241 0.951 255 255 255
0.282381 -0.276648 1.351 255 255 255
-0.242815 0.53192 2.383 255 255 255
-0.120457 0.683705 1.779 255 255 255
0.301762 -0.255118 0.723 255 255 255
0.0185443 0.677915 1.779 255 255 255
0.272436 -0.0207214 0.714 255 255 255
-0.751837 0.640033 1.739 255 255 255
0.259553 -0.0145625 1.013 255 255 255
-0.869294 0.34558 2.649 255 255 255
-0.830587 -0.357222 2.857 255 255 255
0.260028 -0.295074 1.607 255 255 255
0.279963 0.0369304 0.565 255 255 255
-0.970277 0.387181 1.842 255 255 255
-0.899233 0.114853 2.128 255 255 255
-0.842176 0.391704 2.356 255 255 255
0.279256 -0.150777 0.901 255 255 255
-0.895374 0.138738 2.071 255 255 255
0.238344 0.265508 0.769 255 255 255
-0.913818 0.203776 1.837 255 255 255
0.263482 0.0564528 0.665 255 255 255
-0.882374 -0.0213891 2.253 255 255 255
-0.939875 0.226659 1.853 255 255 255
0.267368 0.00638094 0.759 255 255 255
-0.887228 -0.00684592 2.294 255 255 255
-0.839862 -0.203875 1.794 255 255 255
0.276216 -0.24664 1.244 255 255 255
-0.875661 -0.173206 2.374 255 255 255
-0.854185 -0.0294072 1.668 255 255 255
-0.386267 0.674687 1.763 255 255 255
-0.918122 0.189676 2.278 255 255 255
0.302043 -0.409657 1.194 255 255 255
0.277227 -0.146591 0.96 255 255 255
0.0117516 0.604597 2.121 255 255 255
0.264812 -0.151041 0.57 0 0 0
0.210221 0.338619 1.1 255 255 255
-0.845761 -0.225935 2.017 255 255 255
0.252736 0.186425 0.654 255 255 255
0.287462 -0.188917 0.78 255 255 255
-0.132041 0.660545 1.779 255 255 255
0.239514 0.221997 0.753 255 255 255
0.2937 -0.263019 0.914 255 255 255
0.257777 0.0297978 0.908 255 255 255
-0.856551 0.426215 1.882 255 255 255
-0.19452 0.468852 2.459 255 255 255
0.17858 0.298003 1.758 255 255 255
0.267298 -0.132036 1.114 255 255 255
-0.820629 0.360721 2.731 255 255 255
-0.526903 0.506548 2.286 255 255 255
-0.895931 0.247805 1.831 255 255 255
0.227427 -0.0406346 1.805 255 255 255
-0.925529 0.229442 2.383 255 255 255
0.241862 0.235885 0.693 255 255 255
0.264754 0.0934369 0.562 255 255 255
0.297427 -0.346658 1.066 255 255 255
0.261569 0.00842773 0.565 255 255 255
-0.0451647 0.6866 1.779 255 255 255
0.271724 0.0287569 0.567 255 255 255
-0.388132 0.59491 2.099 255 255 255
0.256971 0.0419963 0.559 255 255 255
0.24525 0.220779 0.706 255 255 255
-0.684243 0.354712 2.719 255 255 255
0.299041 -0.277195 0.761 255 255 255
-0.25236 0.616472 2.024 255 255 255
-0.472195 0.595722 2.078 255 255 255
-0.918452 0.241222 2.593 255 255 255
-0.757547 0.567904 1.779 255 255 255
0.221562 0.0723099 1.473 255 255 255
-0.730847 0.377895 2.695 255 255 255
0.224616 -0.0636883 2.078 255 255 255
0.227632 0.127479 1.302 255 255 255
0.283866 0.00851723 0.571 255 255 255
0.253143 0.156943 0.693 255 255 255
-0.862237 -0.0136794 1.739 255 255 255
-0.786796 0.301146 2.884 255 255 255
-0.896867 0.0129273 2.509 255 255 255
0.271802 -0.0613874 0.573 255 255 255
-0.781179 0.628708 1.629 255 255 255
0.306866 -0.26701 0.687 255 255 255
0.28708 -0.17052 0.57 255 255 255
0.233313 0.149338 0.559 255 255 255
0.253509 0.181657 0.656 255 255 255
-0.263773 0.421082 2.719 255 255 255
0.242275 0.00688357 1.336 255 255 255
-0.746849 0.407345 2.499 255 255 255
-0.0436469 0.646208 1.837 255 255 255
0.266658 0.00970098 0.73 255 255 255
0.293497 -0.280065 0.957 255 255 255
-0.911713 0.136265 2.253 255 255 255
0.28468 -0.321013 1.362 255 255 255
-0.0292439 0.554843 2.365 255 255 255
0.270416 0.170233 0.553 255 255 255
0.273201 0.155495 0.555 255 255 255
0.162713 0.0755775 2.303 255 255 255
0.236847 0.225196 0.864 255 255 255
-0.625349 0.410491 2.469 255 255 255
0.228901 0.314627 0.84 255 255 255
-0.864594 -0.0652208 2.128 255 255 255
-0.93043 0.289083 2.136 255 255 255
0.288591 -0.200324 0.573 255 255 255
-0.346779 0.584367 1.859 255 255 255
-0.885072 -0.138777 2.196 255 255 255
-0.504332 0.546834 2.085 255 255 255
0.262015 -0.225655 1.432 255 255 255
-0.849395 0.36947 2.099 255 255 255
-0.364495 0.524244 2.204 255 255 255
-0.697001 0.44793 2.411 255 255 255
0.218394 0.339274 0.898 255 255 255
-0.803002 0.533262 2.085 255 255 255
0.270472 -0.300836 1.505 255 255 255
0.0498512 0.48683 2.469 255 255 255
0.243912 0.138492 0.817 255 255 255
0.286073 -0.0192572 0.568 255 255 255
0.233949 -0.152675 1.81 255 255 255
-0.875379 0.131492 1.789 255 255 255
0.2938 -0.255535 0.883 255 255 255
-0.452207 0.644254 1.774 255 255 255
-0.875874 -0.228337 2.996 255 255 255
-0.586673 0.569615 1.911 255 255 255
0.0429661 0.616981 2.128 255 255 255
-0.0257752 0.647967 1.842 255 255 255
-0.864716 -0.00236651 1.744 255 255 255
-0.856735 0.426038 2.143 255 255 255
-0.807938 0.619169 1.744 255 255 255
0.266182 -0.373295 1.714 255 255 255
0.270472 -0.305734 1.505 255 255 255
-0.893804 0.177572 1.978 255 255 255
-0.186798 0.491088 2.411 255 255 255
0.230003 0.277492 0.892 255 255 255
-0.315109 0.603858 2.004 255 255 255
0.157703 0.579781 1.528 255 255 255
-0.0698897 0.536702 2.44 255 255 255
-0.856845 0.51281 1.799 255 255 255
-0.792546 0.64198 1.729 255 255 255
0.254086 0.185854 0.652 0 0 0
0.18442 0.0400489 2.204 255 255 255
-0.899338 0.0205888 2.449 255 255 255
-0.915393 0.302769 1.997 255 255 255
0.184805 0.478322 1.412 255 255 255
-0.618101 0.583006 2.057 255 255 255
-0.885359 0.225437 1.686 255 255 255
0.244428 0.148071 0.797 255 255 255
0.266004 0.0520062 0.65 255 255 255
0.236697 0.0598033 1.26 255 255 255
0.00412438 0.664324 1.805 255 255 255
0.296348 -0.279365 0.826 255 255 255
0.211449 0.265092 1.281 255 255 255
0.218337 0.239597 1.114 255 255 255
-0.853629 -0.00595959 1.997 255 255 255
-0.0554264 0.644097 1.831 255 255 255
-0.827332 -0.42082 2.911 255 255 255
0.280148 -0.2052 0.571 255 255 255
0.267691 -0.125314 1.072 255 255 255
-0.87744 -0.00291878 2.151 255 255 255
0.279126 -0.111203 0.778 255 255 255
0.293302 -0.192324 0.7 255 255 255
-0.51108 0.421619 2.561 255 255 255
0.280825 0.157018 0.554 255 255 255
0.183627 0.491255 1.403 255 255 255
0.205445 0.387305 1.057 255 255 255
0.297978 -0.383559 1.087 255 255 255
-0.906134 0.0588132 2.383 255 255 255
-0.882502 -0.130855 2.244 255 255 255
-0.892045 0.381909 1.953 255 255 255
-0.267907 0.604597 2.121 255 255 255
0.0708217 0.63277 1.859 255 255 255
0.244335 0.147336 0.913 255 255 255
-0.405868 0.629913 1.799 255 255 255
0.251518 0.0563488 0.557 255 255 255
0.257348 0.201365 0.552 255 255 255
0.263463 0.0150863 0.762 255 255 255
0.268231 -0.0558648 0.884 255 255 255
-0.195374 0.477169 2.42 255 255 255
0.163337 0.424314 1.748 255 255 255
-0.0529421 0.467094 2.582 255 255 255
0.301098 -0.293605 0.817 255 255 255
0.223117 0.326052 0.882 255 255 255
0.297099 -0.310517 0.88 255 255 255
0.289659 -0.152396 0.705 255 255 255
-0.858333 -0.313453 2.54 255 255 255
0.16292 0.141223 2.54 255 255 255
-0.847875 0.472576 1.677 255 255 255
0.184897 0.495995 1.33 255 255 255
0.260775 -0.0776763 1.141 255 255 255
0.257749 0.039679 0.836 255 255 255
0.195358 0.451195 1.313 255 255 255
0.275052 -0.203698 0.572 255 255 255
0.249757 0.105628 0.981 255 255 255
-0.151016 0.582352 2.128 255 255 255
-0.3999 0.580034 2.107 255 255 255
-0.00728862 0.416142 2.805 255 255 255
0.25374 0.0185744 0.566 255 255 255
-0.85333 -0.1238 1.959 255 255 255
0.285652 -0.14652 0.733 255 255 255
0.29384 -0.352081 1.041 255 255 255
0.200984 -0.172445 2.312 255 255 255
0.27319 -0.203698 0.572 255 255 255
0.159999 0.247184 2.857 255 255 255
-0.0902919 0.628562 2.01 255 255 255
0.248711 0.141628 0.79 255 255 255
0.263439 -0.0064818 0.824 255 255 255
-0.802977 0.609835 1.758 255 255 255
-0.145239 0.644551 1.799 255 255 255
0.25139 0.0574263 0.901 255 255 255
0.292773 -0.305915 1.094 255 255 255
0.104773 0.559861 2.189 255 255 255
0.24786 0.193309 0.694 255 255 255
-0.839596 -0.0801066 1.65 255 255 255
-0.38274 0.595607 1.966 255 255 255
-0.724546 0.561518 1.805 255 255 255
0.218779 -0.0258024 2.024 255 255 255
0.271516 -0.0323139 0.74 255 255 255
-0.869522 -0.186513 2.347 255 255 255
-0.521513 0.655802 1.774 255 255 255
0.29138 -0.357632 1.257 255 255 255
0.242306 0.161838 0.928 255 255 255
0.109229 0.698228 1.794 255 255 255
0.149312 0.469706 1.935 255 255 255
0.244842 0.241346 0.65 255 255 255
0.274786 -0.237477 1.169 255 255 255
0.231893 0.258711 0.836 255 255 255
0.163749 0.488361 1.612 255 255 255
-0.869917 -0.175785 2.212 255 255 255
0.225335 0.187389 1.21 255 255 255
0.0744205 0.619301 2.136 255 255 255
-0.876322 0.00671521 1.905 255 255 255
0.290746 -0.339163 1.22 255 255 255
-0.889785 0.225203 1.705 255 255 255
-0.164872 0.589278 2.128 255 255 255
0.0553618 0.64707 1.848 255 255 255
-0.297303 0.668949 1.763 255 255 255
0.289513 -0.328227 1.167 255 255 255
0.261477 -0.0419144 1.128 255 255 255
0.241205 0.0979648 1.154 255 255 255
-0.354404 0.47914 2.43 255 255 255
0.229673 0.152977 0.559 255 255 255
0.260299 0.07047 0.771 255 255 255
-0.544271 0.483095 2.43 255 255 255
0.282441 -0.0749796 0.57 255 255 255
-0.851748 0.325168 2.731 255 255 255
0.227768 0.211571 1.073 255 255 255
-0.875631 0.250737 2.793 255 255 255
-0.798605 0.466858 2.204 255 255 255
-0.557632 0.589301 2.044 255 255 255
0.303399 -0.432679 1.215 255 255 255
-0.873883 0.018995 1.893 255 255 255
-0.316622 0.611996 1.842 255 255 255
0.156834 0.492877 1.739 255 255 255
0.238576 0.105888 0.565 255 255 255
0.243084 0.0382536 1.294 255 255 255
-0.816992 -0.108112 1.551 255 255 255
0.201946 0.40269 1.039 255 255 255
-0.315408 0.526147 2.212 255 255 255
0.241274 -0.0290926 1.393 255 255 255
-0.207432 0.629199 1.831 255 255 255
-0.450841 0.608933 1.815 255 255 255
-0.603388 0.574416 2.099 255 255 255
0.195972 0.170209 1.71 255 255 255
0.213895 -0.0389981 2.212 255 255 255
-0.269472 0.526725 2.449 255 255 255
-0.485071 0.506782 2.411 255 255 255
0.223293 0.254648 0.977 255 255 255
0.240787 0.205274 0.863 255 255 255
-0.857917 0.238242 1.719 255 255 255
-0.807852 -0.116954 1.603 0 0 0
0.257378 0.14079 0.554 255 255 255
0.245735 -0.241039 1.81 255 255 255
0.00552965 0.540179 2.42 255 255 255
0.199011 0.0236033 2.024 255 255 255
-0.367563 0.404245 2.638 255 255 255
0.288936 -0.0990967 0.57 255 255 255
0.281876 -0.178437 0.9 255 255 255
0.268481 0.00660051 0.566 255 255 255
0.0595263 0.553091 2.374 255 255 255
-0.845598 0.581698 1.646 255 255 255
0.287676 -0.205387 0.848 255 255 255
0.230523 0.263176 0.812 255 255 255
0.212353 0.261384 1.171 255 255 255
0.248684 0.118224 0.824 255 255 255
0.208016 0.362155 1.044 255 255 255
-0.42425 0.605979 1.815 255 255 255
0.251102 0.0792512 0.916 255 255 255
0.286152 -0.0805451 0.57 255 255 255
-0.282954 0.677556 1.763 255 255 255
0.238024 -0.00195671 1.442 255 255 255
-0.879136 -0.0445235 2.312 255 255 255
0.274877 0.0882626 0.564 255 255 255
0.260362 -0.186566 1.532 255 255 255
0.277366 -0.188934 0.977 255 255 255
0.24285 0.0413494 1.26 255 255 255
-0.892504 0.365793 2.004 255 255 255
0.267337 -0.409425 1.923 255 255 255
0.254378 -0.11175 1.378 255 255 255
-0.830524 0.548418 2.004 255 255 255
-0.916809 0.113851 2.78 255 255 255
-0.897954 0.301616 2.312 255 255 255
-0.880244 0.398514 1.941 255 255 255
-0.34743 0.56902 2.143 255 255 255
-0.490895 0.356074 2.911 255 255 255
0.236256 0.23719 0.809 255 255 255
0.271975 -0.00886003 0.695 255 255 255
0.161409 0.421019 1.758 255 255 255
0.224893 0.288498 0.984 255 255 255
0.269804 -0.0639208 0.857 255 255 255
0.200282 0.395569 1.135 255 255 255
0.239832 0.218611 0.754 255 255 255
0.199844 0.405649 1.112 255 255 255
0.238861 -0.243092 1.848 255 255 255
-0.842168 0.51737 1.629 255 255 255
0.256536 0.118173 0.684 255 255 255
-0.57972 0.574961 1.972 255 255 255
-0.548527 0.431078 2.449 255 255 255
-0.869401 -0.270526 2.925 255 255 255
0.234854 0.27857 0.774 255 255 255
0.277801 -0.164955 0.57 255 255 255
0.280742 -0.309161 1.409 255 255 255
-0.816992 -0.103451 1.637 255 255 255
0.267522 -0.0289932 0.816 255 255 255
0.0152042 0.625307 2.121 255 255 255
-0.898847 0.0238216 2.374 255 255 255
0.286665 -0.241537 1.004 255 255 255
-0.0248937 0.6866 1.779 255 255 255
0.250221 0.184114 0.685 255 255 255
0.301637 -0.40447 1.141 255 255 255
-0.899965 0.324672 1.763 255 255 255
-0.454038 0.584397 1.929 255 255 255
0.283432 -0.0594186 0.572 255 255 255
-0.483841 0.683294 1.763 255 255 255
0.287813 -0.158151 0.695 255 255 255
-0.266406 0.396181 2.793 255 255 255
-0.918696 0.240655 2.078 255 255 255
-0.60888 0.561169 1.893 255 255 255
0.263369 -0.108118 1.169 255 255 255
0.289619 -0.229819 0.862 255 255 255
-0.875716 -0.0430599 2.236 255 255 255
0.299703 -0.433298 1.275 255 255 255
0.263839 0.0852059 0.562 255 255 255
0.238722 0.163764 0.804 255 255 255
-0.830756 0.543449 1.612 255 255 255
0.24941 -0.316177 1.753 255 255 255
0.228172 -0.279282 2.53 255 255 255
0.228457 0.13129 1.319 255 255 255
0.265556 0.000217931 0.806 255 255 255
-0.592485 0.349768 2.898 255 255 255
-0.354838 0.523656 2.329 255 255 255
-0.485593 0.579309 2.092 255 255 255
-0.812778 -0.12262 1.543 255 255 255
-0.0427441 0.662116 1.799 255 255 255
0.00148061 0.554231 2.253 255 255 255
0.29036 -0.2366 0.813 255 255 255
-0.924478 0.319548 1.941 255 255 255
0.295012 -0.330348 0.891 255 255 255
0.242016 0.0508188 0.556 255 255 255
0.233804 0.151795 0.558 255 255 255
0.222346 -0.049655 2.057 255 255 255
-0.309847 0.538088 2.173 255 255 255
0.263691 0.148904 0.554 255 255 255
0.259233 -0.215957 1.705 255 255 255
0.235229 0.248029 0.81 255 255 255
0.251967 0.155215 0.554 255 255 255
0.0303852 0.640126 1.985 255 255 255
0.274877 0.0956051 0.564 255 255 255
0.0325985 0.55131 2.383 255 255 255
0.25105 0.00106272 0.56 255 255 255
0.284717 -0.28013 1.077 255 255 255
-0.853936 -0.232313 2.136 255 255 255
-0.0123755 0.626683 2.114 255 255 255
-0.947453 -0.519822 2.831 255 255 255
-0.89625 0.190522 2.844 255 255 255
-0.699519 0.487829 2.303 255 255 255
0.294499 -0.327824 1.114 255 255 255
-0.566523 0.579937 1.826 255 255 255
0.239139 0.126361 0.562 255 255 255
-0.523472 0.602056 1.821 255 255 255
0.249646 0.0276378 0.563 255 255 255
0.258644 -0.035762 1.108 255 255 255
0.264283 0.109703 0.561 255 255 255
-0.540316 0.498913 2.43 255 255 255
-0.86517 -0.0752081 2.024 255 255 255
-0.288002 0.608248 1.997 255 255 255
0.297947 -0.347826 1.009 255 255 255
-0.868796 0.0290838 1.758 255 255 255
0.255424 0.133225 0.687 255 255 255
0.242088 0.193669 0.777 255 255 255
0.235697 0.275134 0.741 255 255 255
0.263459 -0.0997643 1.098 255 255 255
0.0672139 0.634296 2.128 255 255 255
0.167787 0.271526 2.684 255 255 255
-0.0297773 0.578889 2.128 255 255 255
0.195785 0.315762 1.425 255 255 255
0.282936 -0.18197 0.571 255 255 255
0.277068 0.0731862 0.561 255 255 255
0.240054 0.132763 0.562 255 255 255
0.0697147 0.652978 2.099 0 0 0
-0.545383 0.617794 1.815 255 255 255
0.169605 0.41273 1.784 255 255 255
0.278289 -0.199625 0.571 255 255 255
0.294392 -0.142291 0.684 255 255 255
0.0117904 0.585815 2.128 255 255 255
0.285024 -0.168643 0.887 255 255 255
0.233719 -0.282941 2.099 255 255 255
0.271434 -0.0459746 0.767 255 255 255
0.290267 -0.461574 1.378 255 255 255
0.263209 -0.282224 1.579 255 255 255
0.281839 0.151251 0.556 255 255 255
-0.543454 0.415478 2.499 255 255 255
0.244245 0.185693 0.745 255 255 255
-0.451347 0.532031 2.107 255 255 255
-0.390139 0.642759 1.794 255 255 255
0.278985 -0.589084 1.917 255 255 255
0.238636 0.260477 0.758 255 255 255
-0.856519 -0.101484 1.959 255 255 255
0.272123 0.086427 0.564 255 255 255
0.266559 -0.0214223 0.782 255 255 255
-0.347268 0.668347 1.769 255 255 255
0.264583 -0.0395627 0.906 255 255 255
0.265761 0.043678 0.652 255 255 255
0.0514047 0.556565 2.356 255 255 255
0.251848 0.0186282 1.126 255 255 255
-0.691753 0.55109 1.859 255 255 255
0.222247 0.0457296 1.637 255 255 255
0.25947 0.0554191 0.754 255 255 255
-0.379513 0.629913 1.799 255 255 255
-0.892361 -0.0665679 2.43 255 255 255
0.292326 -0.532085 1.612 255 255 255
0.229844 0.289435 0.819 255 255 255
0.246816 -0.106286 1.425 255 255 255
-0.892823 0.100669 2.121 255 255 255
-0.677269 0.465995 2.383 255 255 255
0.288355 -0.212787 0.85 255 255 255
0.198784 0.433271 1.137 255 255 255
0.237376 0.16743 0.822 255 255 255
-0.844894 0.368417 2.43 255 255 255
-0.719124 0.531471 2.078 255 255 255
0.228349 0.307938 0.833 255 255 255
0.257348 0.17801 0.552 255 255 255
0.271286 -0.0100917 0.702 255 255 255
0.23956 0.169775 0.947 255 255 255
-0.846438 0.511049 1.696 255 255 255
0.254654 0.0454937 0.897 255 255 255
0.240661 0.199161 0.815 255 255 255
-0.736641 0.489022 2.099 255 255 255
-0.740172 0.475394 2.411 255 255 255
0.276879 -0.0931603 0.786 255 255 255
0.251511 -0.0158333 1.242 255 255 255
-0.333767 0.640826 1.805 255 255 255
0.246932 0.0814026 0.561 255 255 255
-0.921147 0.239671 2.099 255 255 255
0.267644 0.0318002 0.67 255 255 255
0.235304 0.27208 0.736 255 255 255
0.241974 0.199227 0.789 255 255 255
0.224167 0.244161 1.048 255 255 255
0.270013 -0.236147 1.425 255 255 255
0.272273 -0.10661 0.912 255 255 255
-0.854953 -0.0518272 1.691 255 255 255
0.290779 -0.209073 0.789 255 255 255
0.251707 0.166101 0.708 255 255 255
0.25289 0.115476 0.787 255 255 255
0.199869 0.227516 1.744 255 255 255
0.251947 -0.0382595 0.562 255 255 255
-0.84635 -0.0651383 1.753 255 255 255
0.237918 0.0699451 0.557 255 255 255
0.263263 0.138335 0.555 255 255 255
0.201755 -0.0793671 2.459 255 255 255
0.222779 0.304202 0.898 255 255 255
0.232365 0.0107051 1.579 255 255 255
0.206134 0.330689 1.147 255 255 255
0.239628 0.192766 0.816 255 255 255
0.295752 -0.144095 0.682 255 255 255
0.239932 0.176162 0.795 255 255 255
0.274977 -0.154208 0.568 255 255 255
-0.814205 0.0367695 1.595 255 255 255
-0.859503 0.611847 1.7 255 255 255
0.2202 0.0150822 1.794 255 255 255
-0.866994 -0.10497 2.092 255 255 255
0.275909 -0.0528074 0.708 255 255 255
-0.588538 0.556032 2.107 255 255 255
-0.83301 -0.590808 2.818 255 255 255
0.280031 -0.0302956 0.567 255 255 255
-0.744008 0.369123 2.695 255 255 255
0.242333 0.169051 0.786 255 255 255
0.171386 -0.0558044 2.672 255 255 255
0.25984 0.0647161 0.748 255 255 255
-0.096623 0.628726 1.821 255 255 255
0.272928 0.0602975 0.56 255 255 255
-0.62741 0.487553 2.356 255 255 255
-0.467631 0.399823 2.695 255 255 255
-0.137676 0.54283 2.136 255 255 255
-0.848814 0.44968 1.865 255 255 255
0.169511 0.408411 1.753 255 255 255
-0.783831 0.628708 1.629 255 255 255
-0.846778 -0.143438 1.966 255 255 255
-0.829229 -0.16213 1.753 255 255 255
-0.197296 0.524437 2.22 255 255 255
0.272659 -0.0357967 0.691 255 255 255
0.252332 0.122558 0.723 255 255 255
-0.814205 -0.176069 1.595 255 255 255
0.251283 0.135201 0.79 255 255 255
0.241285 0.0676422 1.182 255 255 255
0.192898 0.31087 1.551 255 255 255
0.283956 -0.191593 0.921 255 255 255
-0.91127 0.147787 2.261 255 255 255
-0.00626483 0.54994 2.411 255 255 255
0.239529 0.135316 1.012 255 255 255
-0.496166 0.593416 2.024 255 255 255
-0.380582 0.585401 2.114 255 255 255
-0.854615 0.471724 1.905 255 255 255
0.246075 0.0421943 1.225 255 255 255
0.164267 0.0131952 2.561 255 255 255
-0.0594915 0.619638 1.865 255 255 255
-0.897554 0.0915723 2.236 255 255 255
-0.857464 0.391705 2.037 255 255 255
0.0302124 0.665305 1.784 255 255 255
0.261492 0.0599745 0.557 255 255 255
0.242971 0.190586 0.552 255 255 255
-0.0104144 0.69239 1.779 255 255 255
-0.894182 0.217902 2.78 255 255 255
-0.273828 0.409608 2.731 255 255 255
-0.378366 0.371544 2.884 255 255 255
-0.862073 -0.319472 2.982 255 255 255
-0.909634 0.164876 2.294 255 255 255
0.265451 -0.200127 1.27 255 255 255
-0.625781 0.578234 2.017 255 255 255
0.261414 0.214329 0.553 255 255 255
-0.0487316 0.638046 2.051 255 255 255
0.294862 -0.201725 0.701 255 255 255
-0.857922 0.507344 1.865 255 255 255
-0.701887 0.301673 2.982 255 255 255
0.167257 0.50386 1.439 255 255 255
0.256536 0.13153 0.684 255 255 255
0.0993282 0.516617 2.402 255 255 255
-0.644938 0.48872 2.158 255 255 255
-0.413297 0.518071 2.338 255 255 255
0.285725 0.0113048 0.571 255 255 255
0.261299 -0.300971 1.583 255 255 255
-0.330809 0.649702 1.789 255 255 255
-0.905568 0.25777 1.882 255 255 255
0.223745 0.271435 0.986 255 255 255
0.148351 0.332647 2.649 255 255 255
0.296496 -0.306977 0.874 255 255 255
0.27824 -0.139665 0.569 255 255 255
-0.755321 0.646658 1.734 255 255 255
-0.91239 0.264905 2.32 255 255 255
0.290706 -0.121183 0.678 255 255 255
0.265196 -0.0409302 0.561 255 255 255
-0.853987 -0.313227 2.411 255 255 255
-0.829935 -0.142201 1.719 255 255 255
0.247447 0.0625812 0.556 255 255 255
-0.457983 0.63848 1.774 255 255 255
-0.427356 0.473171 2.44 255 255 255
0.253502 0.0881248 0.831 255 255 255
0.279487 -0.104064 0.772 255 255 255
0.229258 0.202107 1.025 255 255 255
-0.808375 0.547617 1.966 255 255 255
0.066506 0.560564 2.22 255 255 255
0.269494 -0.545375 1.985 255 255 255
0.271394 0.14827 0.555 255 255 255
0.299959 -0.226886 0.684 255 255 255
-0.850169 -0.0808432 1.923 255 255 255
0.287281 -0.115635 0.691 255 255 255
-0.265735 0.674687 1.763 255 255 255
0.265435 0.204958 0.552 255 255 255
0.253332 0.0347189 0.559 255 255 255
-0.853861 -0.28172 2.479 255 255 255
0.190564 0.463082 1.387 255 255 255
0.240373 -0.476916 2.329 255 255 255
-0.916179 0.0488535 2.953 255 255 255
-0.349834 0.679418 1.753 255 255 255
0.23104 0.215146 0.95 255 255 255
-0.700149 0.556446 1.941 255 255 255
-0.0420868 0.540672 2.44 255 255 255
0.208228 0.328882 1.128 255 255 255
0.0558747 0.682741 1.769 255 255 255
0.286157 -0.115635 0.691 255 255 255
0.292231 -0.173607 0.571 255 255 255
-0.107957 0.635899 2.099 255 255 255
0.26201 0.0897787 0.562 255 255 255
-0.259652 0.620989 1.842 255 255 255
0.277756 -0.490522 1.734 255 255 255
0.237213 -0.00437494 1.466 255 255 255
0.241391 0.113305 1.12 255 255 255
0.184828 0.142164 1.978 255 255 255
0.194475 0.00416738 2.196 255 255 255
0.14299 0.5088 1.893 255 255 255
-0.892144 -0.162589 2.953 255 255 255
-0.42852 0.516617 2.402 255 255 255
-0.599798 0.672774 1.758 255 255 255
0.156702 0.518969 1.677 255 255 255
-0.883404 0.389038 1.941 255 255 255
0.259529 0.0833539 0.73 255 255 255
0.268086 0.0951241 0.663 255 255 255
0.302349 -0.423641 1.09 255 255 255
-0.641167 0.389089 2.743 255 255 255
0.261109 -0.0257275 0.568 255 255 255
0.293307 -0.460922 1.575 255 255 255
0.290538 -0.191463 0.755 255 255 255
0.232964 0.115348 1.262 255 255 255
-0.746776 0.308702 2.911 255 255 255
0.274017 0.208029 0.553 255 255 255
0.240743 0.190666 0.848 255 255 255
-0.589467 0.499089 2.269 255 255 255
0.246113 -0.120914 1.491 255 255 255
0.241731 0.0220527 1.333 255 255 255
0.23055 0.160288 1.046 255 255 255
0.225725 0.208253 0.556 255 255 255
0.302341 -0.258819 0.692 255 255 255
0.269168 0.129536 0.556 255 255 255
0.297564 -0.28298 0.77 255 255 255
0.300995 -0.302825 0.824 255 255 255
0.132503 0.57961 1.966 255 255 255
-0.339149 0.378001 2.793 255 255 255
-0.844085 0.0516238 1.848 255 255 255
0.109347 0.535599 2.365 255 255 255
-0.343265 0.601748 1.997 255 255 255
-0.861807 0.383786 2.286 255 255 255
-0.84597 0.502722 1.616 255 255 255
0.179316 0.304106 1.794 255 255 255
0.281077 -0.187545 0.571 255 255 255
-0.772337 0.314039 2.831 255 255 255
0.255828 0.1747 0.662 255 255 255
-0.309259 0.596954 1.87 255 255 255
0.251512 0.132964 0.559 255 255 255
0.278076 -0.257594 1.31 255 255 255
0.231325 0.258722 0.854 255 255 255
0.259753 0.15726 0.675 255 255 255
0.213625 0.00686326 1.947 255 255 255
-0.846876 0.521498 1.659 255 255 255
0.271498 -0.0711356 0.812 255 255 255
-0.598634 0.640259 1.763 255 255 255
0.201311 0.413691 1.081 255 255 255
0.244444 0.109764 1.085 255 255 255
-0.53944 0.623202 1.805 255 255 255
0.180165 0.195725 2.55 255 255 255
-0.878908 -0.278223 2.064 255 255 255
-0.855445 0.0902937 1.624 255 255 255
0.275092 0.117079 0.557 255 255 255
0.256051 -0.049497 0.565 255 255 255
0.2591 0.0377227 0.823 255 255 255
-0.465331 0.648196 1.769 255 255 255
0.228704 -0.0328341 1.705 255 255 255
0.253015 0.0901737 0.825 255 255 255
-0.847653 0.502558 1.65 255 255 255
0.238008 0.175288 0.815 255 255 255
0.248362 0.188789 0.552 255 255 255
-0.883212 -0.0256115 2.303 255 255 255
0.245343 0.0507069 1.147 255 255 255
0.258076 -0.112946 1.339 255 255 255
0.289863 -0.142693 0.57 255 255 255
0.28931 -0.171805 0.755 255 255 255
0.0256462 0.596204 2.128 255 255 255
0.291869 -0.524384 1.734 255 255 255
0.248904 0.149205 0.763 255 255 255
0.246987 0.193416 0.711 255 255 255
0.262197 -0.0766074 1.05 255 255 255
-0.791468 0.628713 1.739 255 255 255
-0.816577 0.495939 2.085 255 255 255
-0.834129 0.463083 2.121 255 255 255
0.27083 -0.183184 0.569 255 255 255
0.260931 0.0579269 0.724 255 255 255
-0.0557512 0.460905 2.719 255 255 255
0.269491 -0.132464 1.007 255 255 255
0.271255 -0.242866 1.384 255 255 255
0.179597 -0.0270238 2.43 255 255 255
0.231686 0.145062 1.126 255 255 255
0.259701 0.125687 0.559 255 255 255
0.268034 -0.031473 0.847 255 255 255
0.308005 -0.47272 1.275 255 255 255
-0.854012 0.43695 1.837 255 255 255
-0.746061 0.556145 1.929 255 255 255
-0.652504 0.625166 1.769 255 255 255
-0.929762 0.216985 2.374 255 255 255
-0.900649 0.144579 2.107 255 255 255
0.234492 0.0722141 1.227 255 255 255
0.302248 -0.26836 0.727 255 255 255
-0.0446429 0.554843 2.365 255 255 255
-0.882502 -0.313442 2.244 255 255 255
0.292203 -0.434382 1.316 255 255 255
-0.851195 0.45532 1.769 255 255 255
0.259085 -0.349185 1.821 255 255 255
0.257881 0.0720156 0.559 255 255 255
0.276282 -0.722141 2.085 255 255 255
-0.302201 0.443766 2.593 255 255 255
-0.268738 0.464597 2.479 255 255 255
-0.046358 0.64531 1.826 255 255 255
0.257348 0.214839 0.552 255 255 255
-0.845507 -0.21191 1.978 255 255 255
-0.426218 0.681784 1.774 255 255 255
0.255053 0.140845 0.686 255 255 255
0.261053 0.120013 0.558 255 255 255
0.177786 0.503627 1.294 255 255 255
0.297974 -0.316456 0.918 255 255 255
0.28853 -0.247334 0.988 255 255 255
0.298105 -0.351004 1.004 255 255 255
0.295831 -0.339314 1.013 255 255 255
0.287546 -0.139236 0.714 255 255 255
0.276161 -0.0485842 0.697 255 255 255
-0.882281 -0.217983 2.743 255 255 255
-0.821343 -0.143841 1.673 255 255 255
0.259038 -0.203128 1.668 255 255 255
-0.688818 0.341475 2.755 255 255 255
0.258124 0.0868933 0.772 255 255 255
0.211697 0.355168 1.005 255 255 255
-0.917214 0.163843 2.638 255 255 255
0.204788 0.32584 1.205 255 255 255
0.283087 -0.347262 1.494 255 255 255
0.267858 0.00932889 0.702 255 255 255
0.244758 -0.121428 1.528 255 255 255
0.229429 0.272366 0.832 255 255 255
0.28486 -0.194729 0.573 255 255 255
0.264812 -0.153824 0.57 0 0 0
0.255701 0.0780907 0.825 255 255 255
0.227694 -0.0772322 2.278 255 255 255
0.277218 0.131775 0.554 255 255 255
0.278729 -0.173303 0.57 255 255 255
0.231422 0.275305 0.939 255 255 255
0.274571 -0.11135 0.571 255 255 255
0.247722 -0.346926 1.941 255 255 255
-0.253526 0.470931 2.449 255 255 255
0.251453 0.0600238 0.896 255 255 255
0.298605 -0.630775 1.724 255 255 255
0.222388 0.16118 1.432 255 255 255
0.263964 -0.197992 1.524 255 255 255
0.280272 -0.322878 1.505 255 255 255
0.299504 -0.411979 1.126 255 255 255
0.183165 0.242823 2.189 255 255 255
0.2199 0.225945 1.359 255 255 255
0.204042 0.330128 1.342 255 255 255
-0.882995 -0.108557 2.236 255 255 255
-0.252241 0.676983 1.769 255 255 255
0.299676 -0.535749 1.445 255 255 255
0.269689 -0.182104 1.18 255 255 255
0.203464 0.382124 1.112 255 255 255
0.116005 0.462054 2.509 255 255 255
0.298394 -0.538898 1.691 255 255 255
0.298301 -0.276291 0.813 255 255 255
0.15496 0.115605 2.615 255 255 255
0.230062 0.20431 0.972 255 255 255
-0.863589 -0.26838 2.092 255 255 255
-0.501152 0.56888 1.848 255 255 255
0.267058 0.0477939 0.563 255 255 255
-0.874165 0.311916 2.55 255 255 255
-0.912477 0.156507 2.228 255 255 255
-0.766488 0.477629 2.383 255 255 255
0.23049 -0.0999302 1.929 255 255 255
0.2576 0.09951 0.718 255 255 255
-0.462943 0.390109 2.719 255 255 255
0.211979 0.272624 1.297 255 255 255
-0.0675313 0.46389 2.66 255 255 255
-0.876692 -0.0663432 2.286 255 255 255
-0.255515 0.498913 2.43 255 255 255
-0.862203 -0.256194 1.972 255 255 255
0.252868 0.0480003 0.917 255 255 255
0.187491 0.454336 1.381 255 255 255
-0.0248937 0.695285 1.779 255 255 255
-0.632271 0.583691 1.81 255 255 255
0.289056 -0.224707 0.848 255 255 255
-0.648994 0.516598 2.114 255 255 255
0.239254 0.117289 0.558 255 255 255
-0.86571 -0.45501 2.719 255 255 255
-0.0126799 0.571602 2.166 255 255 255
-0.86211 0.0106345 2.064 255 255 255
0.202386 0.401825 1.059 255 255 255
0.214309 0.0218074 1.87 255 255 255
-0.857464 0.434799 2.037 255 255 255
0.0652428 0.664258 1.789 255 255 255
0.296246 -0.349047 1.068 255 255 255
0.250509 0.147513 0.742 255 255 255
-0.694779 0.55109 1.859 255 255 255
0.239066 0.150634 0.983 255 255 255
0.279789 -0.118769 0.746 255 255 255
0.191782 0.298491 1.65 255 255 255
0.263535 -0.205537 1.291 255 255 255
-0.80138 -0.141287 1.555 255 255 255
0.287042 -0.414842 1.528 255 255 255
0.287517 -0.152351 0.744 255 255 255
0.122689 0.460563 2.479 255 255 255
-0.301387 0.599493 1.859 255 255 255
0.231422 0.226407 0.939 255 255 255
0.280585 -0.161244 0.57 255 255 255
0.262561 0.038968 0.722 255 255 255
0.268908 -0.712617 2.107 255 255 255
-0.495809 0.528243 2.092 255 255 255
0.272716 -0.0304371 0.724 255 255 255
0.283223 0.0213376 0.566 255 255 255
0.299785 -0.381977 1.044 255 255 255
0.209153 -0.151373 2.278 255 255 255
0.29834 -0.306294 0.91 255 255 255
-0.892061 0.29052 2.44 255 255 255
0.281408 -0.208651 0.98 255 255 255
0.291389 -0.208716 0.573 255 255 255
0.230535 0.199976 0.974 255 255 255
-0.872306 0.170159 1.682 255 255 255
-0.678247 0.487654 2.32 255 255 255
0.228641 0.221913 0.966 255 255 255
-0.856621 0.427755 2.004 255 255 255
-0.810232 0.381911 2.519 255 255 255
0.230315 0.160968 1.085 255 255 255
0.297522 -0.362975 1.048 255 255 255
-0.894214 -0.00336386 2.479 255 255 255
-0.613411 0.414704 2.519 255 255 255
0.245052 0.244724 0.662 255 255 255
0.260449 0.0593673 0.713 255 255 255
0.259814 0.0456636 0.755 255 255 255
-0.872292 -0.167369 2.294 255 255 255
0.0781834 0.559321 2.244 255 255 255
0.290265 -0.219688 0.824 255 255 255
0.223261 0.174452 1.289 255 255 255
0.300537 -0.640135 1.719 255 255 255
0.256238 -0.354587 1.865 255 255 255
0.271098 -0.109779 0.966 255 255 255
0.245677 0.183737 0.742 255 255 255
-0.89736 -0.0155911 2.499 255 255 255
0.248715 0.191359 0.687 255 255 255
-0.846098 -0.169545 2.01 255 255 255
0.150992 0.560929 1.705 255 255 255
-0.629696 0.576605 2.107 255 255 255
0.0222657 0.584541 2.136 255 255 255
0.279043 0.0268165 0.565 255 255 255
0.14673 0.433304 2.03 255 255 255
0.24423 -0.413753 2.294 255 255 255
0.162902 0.552737 1.463 255 255 255
0.287713 -0.204848 0.813 255 255 255
-0.678353 0.551728 1.831 255 255 255
-0.396618 0.678495 1.758 255 255 255
-0.144655 0.527801 2.189 255 255 255
0.295576 -0.371185 1.351 255 255 255
-0.446432 0.641367 1.774 255 255 255
-0.880178 -0.226501 2.793 255 255 255
-0.893164 0.233168 2.695 255 255 255
0.307419 -0.665749 1.959 255 255 255
-0.150567 0.610533 1.865 255 255 255
-0.868892 0.450419 1.686 255 255 255
0.273237 -0.0320947 0.684 255 255 255
-0.819294 0.630521 1.744 255 255 255
0.290062 -0.215827 0.835 255 255 255
-0.525802 0.671226 1.769 255 255 255
0.286757 -0.162619 0.758 255 255 255
0.174761 0.300297 2.593 255 255 255
0.230744 -0.048296 1.763 255 255 255
0.257881 0.122048 0.559 255 255 255
-0.647253 0.374054 2.731 255 255 255
0.254041 -0.362719 1.941 255 255 255
0.208383 0.284598 1.275 255 255 255
0.287587 -0.153823 0.717 255 255 255
0.234928 0.213166 0.55 255 255 255
0.285287 0.0823155 0.561 255 255 255
-0.778964 0.544036 1.887 255 255 255
0.290325 -0.340837 1.327 255 255 255
0.271683 -0.032114 0.709 255 255 255
0.257513 -0.503518 2.347 255 255 255
-0.912851 0.176422 2.768 255 255 255
0.30462 -0.399572 1.073 255 255 255
-0.849701 0.517244 1.784 255 255 255
0.285224 -0.156606 0.57 255 255 255
0.148276 0.225082 2.996 255 255 255
-0.584357 0.573994 1.826 255 255 255
0.245782 0.181455 0.728 255 255 255
0.228915 -0.066265 1.865 255 255 255
0.265471 -0.0512443 0.904 255 255 255
0.260985 0.138987 0.554 255 255 255
0.263778 0.0609902 0.558 255 255 255
-0.734127 0.624845 1.744 255 255 255
0.299854 -0.245423 0.702 255 255 255
-0.0961712 0.551796 2.402 255 255 255
-0.899794 0.396109 1.87 255 255 255
-0.516582 0.443551 2.43 255 255 255
0.25918 0.07356 0.764 255 255 255
-0.922961 0.156163 2.582 255 255 255
-0.508328 0.510315 2.303 255 255 255
-0.682858 0.408828 2.459 255 255 255
0.274053 -0.144965 0.568 255 255 255
0.278431 -0.140089 0.889 255 255 255
0.274917 0.215229 0.553 255 255 255
-0.895005 0.276775 2.459 255 255 255
0.250269 0.0390561 1.036 255 255 255
-0.867957 -0.0467804 2.078 255 255 255
-0.862073 -0.537843 2.982 255 255 255
-0.927349 0.273247 2.121 255 255 255
0.288816 -0.23765 0.908 255 255 255
-0.316922 0.538088 2.173 255 255 255
0.256406 0.0459588 0.878 255 255 255
-0.611325 0.485385 2.383 255 255 255
-0.738092 0.595177 1.774 255 255 255
0.245472 0.222175 0.672 255 255 255
-0.819398 -0.103392 1.595 255 255 255
-0.89417 0.129385 2.03 255 255 255
0.265435 0.195975 0.552 255 255 255
0.215281 0.236585 1.22 255 255 255
-0.259852 0.59931 1.887 255 255 255
-0.419991 0.519834 2.312 255 255 255
0.229124 0.190599 1.017 255 255 255
0.207632 0.000552668 2.044 255 255 255
0.273256 -0.115755 0.891 255 255 255
0.281303 -0.123518 0.731 255 255 255
-0.147927 0.609127 1.87 255 255 255
-0.252436 0.546929 2.166 255 255 255
-0.28712 0.627481 1.826 255 255 255
0.219005 0.156773 1.456 255 255 255
0.28938 -0.455402 1.429 255 255 255
0.28063 0.11568 0.559 255 255 255
0.297792 -0.306013 0.794 255 255 255
0.256519 0.129557 0.56 255 255 255
0.268042 -0.0509659 0.874 255 255 255
0.253928 0.0837756 0.815 255 255 255
0.253277 0.117199 0.719 255 255 255
-0.233181 0.557143 2.151 255 255 255
0.246995 -0.589797 2.356 255 255 255
0.273684 -0.15844 1.096 255 255 255
0.230379 0.178497 1.053 255 255 255
0.253785 0.100395 0.56 255 255 255
-0.135473 0.540899 2.338 255 255 255
-0.865729 -0.0485205 2.01 255 255 255
-0.434886 0.420223 2.604 255 255 255
-0.425317 0.550999 2.114 255 255 255
0.30789 -0.466143 1.225 255 255 255
-0.87845 0.0386679 2.128 255 255 255
-0.846152 -0.23694 1.972 255 255 255
0.277618 0.215229 0.553 255 255 255
-0.559765 0.513093 2.128 255 255 255
0.240234 0.18286 0.796 255 255 255
-0.869178 0.128846 1.753 255 255 255
0.24404 -0.0190045 1.322 255 255 255
-0.246918 0.605543 1.859 255 255 255
0.270885 -0.0793387 0.843 255 255 255
0.244726 0.145556 0.867 255 255 255
0.29701 -0.305869 0.855 255 255 255
-0.852277 0.475603 1.659 255 255 255
0.26943 -0.0312734 0.568 255 255 255
-0.057489 0.561574 2.128 255 255 255
0.27706 -0.122916 0.923 255 255 255
0.273624 -0.00404283 0.648 0 0 0
0.171386 0.287705 2.672 255 255 255
0.27039 -0.0682669 0.877 255 255 255
0.27258 -0.0986613 0.844 255 255 255
0.29923 -0.638092 1.744 255 255 255
0.28153 -0.213644 1.027 255 255 255
-0.0420983 0.465608 2.695 255 255 255
0.202101 0.343836 1.249 255 255 255
-0.765261 0.543918 1.876 255 255 255
-0.71721 0.581451 1.794 255 255 255
-0.917107 0.367142 1.959 255 255 255
-0.919721 0.246983 2.329 255 255 255
-0.864466 0.0566092 1.815 255 255 255
-0.00172676 0.677915 1.779 255 255 255
0.236728 0.00515714 1.463 255 255 255
-0.315087 0.641623 1.799 255 255 255
0.167013 0.213004 2.898 255 255 255
0.294052 -0.467232 1.579 255 255 255
-0.861451 -0.074885 1.853 255 255 255
0.227999 -0.110519 2.44 255 255 255
0.260421 -0.169165 1.286 255 255 255
0.219752 0.30417 0.948 255 255 255
0.237573 0.166099 0.809 255 255 255
0.248035 0.151432 0.768 255 255 255
-0.897999 0.430003 1.748 255 255 255
0.288744 -0.153593 0.7 255 255 255
0.273599 -0.0718455 0.714 255 255 255
-0.820601 0.5078 2.078 255 255 255
-0.86568 0.265822 1.664 0 0 0
0.20952 0.321688 1.135 255 255 255
0.209391 0.275654 1.244 255 255 255
0.249819 0.155209 0.762 255 255 255
-0.338571 0.626654 1.815 255 255 255
0.270152 -0.0547752 0.845 255 255 255
0.25872 -0.0582278 1.124 255 255 255
-0.874625 0.329087 2.32 255 255 255
-0.880033 0.328392 2.166 255 255 255
-0.0498254 0.518685 2.43 255 255 255
0.256519 0.10404 0.56 255 255 255
0.111966 0.340368 2.939 255 255 255
0.25834 0.0999852 0.73 255 255 255
-0.866733 0.0331803 1.826 255 255 255
0.265814 -0.0230721 0.795 255 255 255
0.301122 -0.252749 0.697 255 255 255
-0.375892 0.600607 2.107 255 255 255
0.23237 0.233329 0.828 255 255 255
0.264642 -0.0241459 0.832 255 255 255
0.24609 -0.0806542 1.31 255 255 255
0.30733 -0.474514 1.247 255 255 255
0.166722 0.475468 1.668 255 255 255
-0.690627 0.419824 2.43 255 255 255
-0.902948 0.0173628 2.561 255 255 255
-0.535318 0.415478 2.499 255 255 255
0.246995 -0.585963 2.356 255 255 255
0.257197 0.044175 0.871 255 255 255
0.29785 -0.264297 0.774 255 255 255
0.237995 0.212462 0.858 255 255 255
0.233503 0.156009 1.029 255 255 255
0.231571 0.159681 0.557 255 255 255
0.208038 0.331506 1.137 255 255 255
-0.647253 0.378498 2.731 255 255 255
-0.853359 -0.142949 2.004 255 255 255
0.260642 -0.129479 0.569 0 0 0
0.271316 0.211629 0.553 255 255 255
-0.870727 0.070163 2.037 255 255 255
-0.857482 -0.444191 2.707 255 255 255
0.268866 0.000194678 0.72 255 255 255
0.296249 -0.322853 0.941 255 255 255
0.272452 -0.0193951 0.708 255 255 255
-0.162113 0.537094 2.338 255 255 255
0.244324 0.207277 0.551 255 255 255
-0.511051 0.589301 2.044 255 255 255
0.241636 -0.0877345 1.642 255 255 255
0.225419 -0.0193949 1.744 255 255 255
0.23049 -0.106208 1.929 255 255 255
0.293232 -0.221758 0.762 255 255 255
0.289514 -0.449429 1.396 255 255 255
-0.843806 -0.376491 2.793 255 255 255
-0.638131 0.428312 2.411 255 255 255
-0.240409 0.648492 1.81 255 255 255
-0.0309527 0.551345 2.212 255 255 255
0.237868 0.03985 1.348 255 255 255
0.254308 0.120459 0.739 255 255 255
0.191917 0.0178902 2.128 255 255 255
0.281181 -0.181591 0.947 255 255 255
-0.603319 0.598968 1.794 255 255 255
0.15982 0.0560188 2.43 255 255 255
0.204318 0.313932 1.302 255 255 255
0.264754 0.0733167 0.562 255 255 255
-0.162546 0.565533 2.143 255 255 255
-0.805099 0.624845 1.744 255 255 255
0.242484 0.0570496 0.555 255 255 255
0.269351 -0.0418475 0.834 255 255 255
0.265149 -0.107997 1.128 255 255 255
-0.433211 0.660545 1.779 255 255 255
-0.0319882 0.551189 2.286 255 255 255
0.230183 0.177563 1.068 255 255 255
0.232492 0.240827 0.896 255 255 255
0.222242 0.299552 1.039 255 255 255
-0.894551 0.189291 1.758 255 255 255
0.240882 -0.0745234 1.535 255 255 255
0.158196 0.495991 1.664 255 255 255
0.239173 0.174652 0.916 255 255 255
0.256449 0.170823 0.552 255 255 255
-0.852402 0.519157 1.853 255 255 255
-0.806395 0.51969 2.085 255 255 255
0.219396 0.0740703 1.616 255 255 255
0.228765 -0.0689654 1.941 255 255 255
0.289815 -0.155665 0.689 255 255 255
-0.799608 0.529869 2.085 255 255 255
0.250936 0.0855954 0.889 255 255 255
-0.633462 0.585016 1.805 255 255 255
0.26224 0.0133203 0.893 255 255 255
-0.880178 -0.221956 2.793 255 255 255
-0.727845 0.484228 2.286 255 255 255
-0.893804 0.171134 1.978 255 255 255
0.252468 -0.0735473 1.227 255 255 255
0.219005 0.144927 1.456 255 255 255
-0.617921 0.590209 1.794 255 255 255
0.270802 0.031525 0.567 255 255 255
0.279998 -0.51155 1.748 255 255 255
0.229119 0.289221 0.826 255 255 255
0.274563 -0.0749649 0.745 255 255 255
0.236692 0.21926 0.806 255 255 255
0.240026 -0.297091 1.905 255 255 255
-0.259347 0.416658 2.719 255 255 255
-0.493319 0.57945 1.923 255 255 255
-0.885628 0.166576 2.996 255 255 255
