ply
format ascii 1.0
comment Created by Open3D
element vertex 1324
property double x
property double y
property double z
property uchar red
property uchar green
property uchar blue
end_header
-0.120819 0.0247334 0.793 255 255 255
0.161108 0.0240189 0.913 255 255 255
0.796104 0.373674 1.65 255 255 255
0.0866391 -0.663111 2.181 255 255 255
0.245446 0.268599 1.037 0 0 0
-0.33862 -0.0175244 0.91 0 0 0
0.295343 -0.60998 1.985 255 255 255
-0.332997 0.0598351 0.872 255 255 255
0.502035 -0.018484 1.947 255 255 255
0.0563946 0.329655 1.007 0 0 0
0.829941 0.348903 1.686 0 0 0
-0.237542 0.218158 0.644 255 255 255
0.245703 0.250235 1.024 0 0 0
-0.82566 -0.755468 2.42 255 255 255
0.727486 -0.209147 1.923 255 255 255
-0.276074 -0.477029 2.509 255 255 255
0.107837 -0.454021 2.253 255 255 255
-0.321641 0.0371306 0.872 255 255 255
0.0819914 -0.745097 2.064 255 255 255
0.132204 -0.305493 2.294 255 255 255
0.323081 -0.306477 2.22 255 255 255
0.657816 -0.569053 1.724 255 255 255
-0.180976 0.072537 0.808 0 0 0
-0.552182 -0.422465 2.43 0 0 0
-0.390521 -0.818719 2.189 255 255 255
-0.271779 -0.730601 2.365 255 255 255
0.595601 -0.653242 1.739 255 255 255
-1.04243 -0.545243 2.684 0 0 0
-0.502607 -0.428685 2.294 0 0 0
0.64508 0.483948 1.516 255 255 255
-0.0217319 0.131173 0.856 255 255 255
0.268543 -0.614267 1.978 255 255 255
-0.279264 0.0403909 0.851 255 255 255
-0.549095 -0.183588 1.242 255 255 255
0.719545 -0.588431 1.691 255 255 255
0.625344 -0.233019 1.966 255 255 255
0.600594 -0.17446 1.249 255 255 255
-1.27265 -0.655859 2.672 255 255 255
0.627301 0.217778 1.452 255 255 255
0.463198 0.444277 1.595 255 255 255
-0.376671 -0.519861 2.499 0 0 0
-1.32131 -0.85733 2.572 255 255 255
0.542839 0.0667443 1.316 255 255 255
-0.352985 -0.0917475 0.992 0 0 0
-0.0628235 0.233913 0.748 0 0 0
-0.911298 -0.744594 2.449 255 255 255
0.35762 0.486562 1.532 255 255 255
-0.178004 0.118338 0.789 0 0 0
-0.32154 0.223144 0.62 255 255 255
-0.505956 -0.0206343 0.988 255 255 255
0.618964 -0.157154 1.225 255 255 255
0.959126 0.0693657 1.923 255 255 255
0.138186 0.369074 0.994 255 255 255
0.415819 -0.443642 2.037 255 255 255
0.0222038 0.271486 0.947 255 255 255
-0.284124 0.17898 0.691 255 255 255
-0.298283 0.0650604 0.866 255 255 255
0.721365 -0.429184 1.784 255 255 255
-0.164516 0.232538 0.658 255 255 255
-0.142323 0.171269 0.725 255 255 255
0.762724 -0.578101 1.677 255 255 255
-0.136101 0.192931 0.705 255 255 255
-0.132138 0.0366226 0.799 0 0 0
0.0509658 0.0116267 0.997 255 255 255
0.582393 0.529678 1.452 255 255 255
0.749663 0.448958 1.575 255 255 255
-0.412874 -0.0146747 0.917 255 255 255
0.747114 -0.339031 1.71 255 255 255
-0.0873711 -0.0668308 0.916 255 255 255
0.0434481 0.244356 0.974 255 255 255
0.154645 -0.156288 2.411 255 255 255
0.305866 -0.677973 1.853 255 255 255
-0.386574 0.0383728 0.868 255 255 255
0.113137 -0.308148 2.286 255 255 255
0.532606 0.340836 1.505 255 255 255
-0.240033 0.0532197 0.835 255 255 255
0.547022 0.0873168 1.905 255 255 255
0.471621 0.15435 1.784 255 255 255
-0.278819 0.114449 0.78 255 255 255
-0.319533 0.21615 0.632 255 255 255
0.218501 -0.569981 2.151 255 255 255
0.735833 -0.142972 1.763 255 255 255
-0.306759 0.0958913 0.828 255 255 255
-0.107695 0.0132515 0.801 255 255 255
-0.120892 0.175066 0.731 255 255 255
-0.224657 0.106856 0.809 0 0 0
0.0637305 0.0554529 0.969 255 255 255
-0.858137 -0.573781 2.615 255 255 255
-0.73686 -0.445748 2.638 0 0 0
-0.599696 -0.678802 2.294 255 255 255
0.577314 -0.528204 1.815 255 255 255
0.0459947 -0.518372 2.278 255 255 255
0.44532 -0.440103 1.991 255 255 255
0.218058 -0.0151973 0.862 0 0 0
0.192674 0.160771 0.967 255 255 255
0.752601 -0.432835 1.729 255 255 255
-0.115086 0.0313824 0.798 0 0 0
-0.919022 -0.71162 2.459 255 255 255
0.777796 -0.465969 1.686 255 255 255
-0.0297056 0.140488 0.845 255 255 255
-0.466738 -0.043936 0.97 255 255 255
-0.847734 -0.512268 2.649 0 0 0
0.0160377 0.0680636 0.947 255 255 255
0.202359 -0.512293 2.204 255 255 255
0.522935 -0.539059 1.842 255 255 255
0.772741 0.403163 1.607 255 255 255
0.544646 -0.0557904 1.189 255 255 255
0.506064 0.388792 1.591 255 255 255
-0.347093 0.140646 0.744 255 255 255
0.210711 0.0697701 0.909 255 255 255
0.604674 0.221769 1.432 255 255 255
0.647111 0.438706 1.575 255 255 255
-0.0561859 0.204698 0.757 255 255 255
0.855759 0.192341 1.842 255 255 255
0.667059 0.0770715 1.81 255 255 255
0.00359193 0.288569 0.918 255 255 255
-0.124211 -0.0716808 0.902 255 255 255
0.735714 -0.455344 1.729 255 255 255
0.775772 -0.473428 1.664 255 255 255
-0.600136 -0.136825 1.187 255 255 255
0.261647 -0.360667 2.22 255 255 255
0.551856 -0.453518 1.911 255 255 255
0.106977 -0.226151 2.489 255 255 255
0.626078 0.103171 1.753 255 255 255
0.754718 -0.208236 1.859 255 255 255
0.685908 0.373394 1.637 255 255 255
-0.165822 0.15569 0.735 255 255 255
0.108219 -0.426198 2.261 255 255 255
-0.154494 0.101389 0.787 0 0 0
0.765807 -0.590087 1.62 255 255 255
-0.696382 -0.424839 2.615 0 0 0
0.590141 -0.297006 1.966 255 255 255
-0.491843 -0.618542 2.212 255 255 255
0.649874 0.267962 1.551 255 255 255
0.700193 -0.0363888 2.064 255 255 255
-0.0586964 -0.616406 2.312 255 255 255
0.108895 0.272431 1.072 255 255 255
0.531544 0.511254 1.502 255 255 255
-0.363806 -0.606855 2.44 0 0 0
0.224179 0.0908606 0.928 0 0 0
0.423681 -0.67293 1.815 255 255 255
0.094434 0.31924 0.887 255 255 255
0.177735 0.110157 0.938 255 255 255
0.225732 0.148171 1.815 0 0 0
0.209514 -0.627112 2.03 255 255 255
-0.186965 -0.376449 2.519 255 255 255
0.506934 -0.450574 1.966 255 255 255
-0.374883 0.111896 0.798 255 255 255
0.559785 -0.286854 2.03 255 255 255
-0.24588 0.180104 0.691 255 255 255
-0.363454 0.124421 0.771 255 255 255
-0.0584955 0.2103 0.755 255 255 255
-0.523841 -0.226879 1.305 255 255 255
0.206374 -0.111393 2.374 255 255 255
0.525933 -0.530066 1.842 255 255 255
-0.144743 0.019843 0.804 255 255 255
-0.292135 0.17411 0.694 255 255 255
0.575341 -0.510691 1.837 255 255 255
-0.0232551 -0.0161493 0.916 255 255 255
0.660136 -0.135824 2.044 255 255 255
-0.312321 0.156544 0.717 255 255 255
-0.436042 -0.210854 1.26 255 255 255
0.0328585 0.346272 0.901 0 0 0
-0.227935 -0.00761386 0.802 255 255 255
-0.0681378 0.301425 0.781 255 255 255
0.234648 0.0400489 2.204 0 0 0
-0.189335 -0.0340525 0.81 0 0 0
0.440873 -0.56138 1.929 255 255 255
0.578081 0.161502 1.799 255 255 255
0.00536284 -0.503518 2.347 255 255 255
-0.820568 -0.662444 2.44 255 255 255
0.541817 0.212715 1.739 255 255 255
-1.38325 -0.670208 2.626 0 0 0
0.15321 0.185228 0.997 0 0 0
-0.106391 0.0223759 0.801 0 0 0
0.303519 -0.42083 2.158 255 255 255
0.732578 -0.327699 1.769 255 255 255
0.57551 -0.127585 1.139 0 0 0
-0.146544 -0.0117017 0.814 255 255 255
0.544579 -0.101622 1.16 0 0 0
0.0277916 0.0401755 0.981 255 255 255
-0.31543 0.228978 0.614 255 255 255
0.612767 0.0684236 1.815 255 255 255
0.587752 -0.0249366 1.194 0 0 0
0.225363 0.375782 1.104 0 0 0
-0.0814893 0.0740428 0.84 255 255 255
0.237376 0.0449865 0.887 255 255 255
0.745833 -0.59351 1.682 255 255 255
0.227972 0.086051 0.925 0 0 0
-0.422513 0.0937592 0.833 255 255 255
0.0372205 0.354812 0.977 0 0 0
0.295343 -0.597059 1.985 255 255 255
0.919669 0.184756 1.887 255 255 255
-1.08469 -0.690443 2.638 0 0 0
-0.1711 -0.572178 2.411 255 255 255
0.140569 0.238222 0.988 255 255 255
0.0467198 0.206106 0.944 0 0 0
0.24986 0.113231 0.951 255 255 255
-0.31731 -0.700756 2.449 255 255 255
-1.26678 -0.948261 2.615 255 255 255
0.686566 0.0408159 1.905 0 0 0
0.186166 -0.35755 2.269 255 255 255
0.642753 0.145712 1.859 255 255 255
-0.299284 0.146493 0.725 255 255 255
-1.10108 -0.94657 2.509 255 255 255
0.0438397 -0.0196427 1.02 255 255 255
-0.0745797 -0.611924 2.338 255 255 255
0.0623494 0.0712209 0.948 255 255 255
0.140679 -0.0998033 2.374 0 0 0
0.698147 -0.383025 1.799 255 255 255
0.0793641 0.332473 0.88 255 255 255
0.578201 -0.0922062 1.137 255 255 255
-0.236177 0.216733 0.646 255 255 255
0.180957 -0.0919646 0.821 0 0 0
-0.214332 0.206253 0.663 255 255 255
-0.701254 -0.288534 1.387 255 255 255
0.183084 0.137449 0.958 0 0 0
-0.130547 -0.721666 2.253 255 255 255
-0.0999747 0.190408 0.726 255 255 255
0.530494 0.198565 1.739 255 255 255
0.651831 -0.365547 1.859 255 255 255
0.539464 0.0601821 1.313 255 255 255
0.711976 -0.321068 1.882 255 255 255
0.825343 0.265717 1.734 255 255 255
0.229854 0.401594 1.126 0 0 0
-0.631049 -0.149791 1.198 255 255 255
-0.315909 -0.00850625 0.896 0 0 0
-0.126145 -0.130992 0.927 255 255 255
0.716151 -0.559811 1.696 255 255 255
0.118383 -0.256263 2.392 255 255 255
-0.171131 0.0565476 0.805 255 255 255
-0.440223 0.0151871 0.918 255 255 255
-0.314428 0.194472 0.667 0 0 0
-0.20212 -0.0728234 0.847 0 0 0
0.458284 -0.378543 1.991 255 255 255
0.312703 -0.413146 2.173 255 255 255
0.551048 0.0640628 1.305 255 255 255
-0.923024 -0.803657 2.459 255 255 255
-0.374947 0.0381959 0.864 255 255 255
-0.126743 0.163951 0.774 255 255 255
-0.305351 -0.692785 2.449 255 255 255
-0.141209 -0.0961479 0.871 255 255 255
-0.128134 -0.116614 0.909 255 255 255
0.590776 -0.313146 1.947 255 255 255
0.0162651 -0.549555 2.269 255 255 255
0.189694 -0.0445235 2.312 0 0 0
-0.206103 0.0815212 0.819 255 255 255
-0.236646 -0.0170003 0.814 255 255 255
0.595023 -0.015764 2.004 0 0 0
-0.331924 -0.454794 2.499 0 0 0
-0.436262 -0.752001 2.151 255 255 255
-0.407951 -0.0191306 0.916 255 255 255
0.109126 0.275499 1.025 0 0 0
-0.0257743 0.175098 0.808 255 255 255
-0.335992 -0.532061 2.499 255 255 255
0.409772 -0.589077 1.887 255 255 255
-0.0591441 0.0934554 0.895 255 255 255
0.174529 -0.03918 0.835 255 255 255
-0.117141 0.24202 0.688 255 255 255
-0.870619 -0.90243 2.392 255 255 255
0.434316 0.331058 1.575 255 255 255
-0.300409 -0.139041 1.057 255 255 255
0.195003 -0.345349 2.286 255 255 255
-0.290692 -0.0904526 0.978 255 255 255
-0.641361 -0.402671 2.582 255 255 255
0.901829 -0.0113923 1.826 255 255 255
-0.100797 0.0430698 0.798 0 0 0
0.0701984 0.263419 1.017 255 255 255
-0.207397 0.227463 0.632 255 255 255
-0.425279 0.0017421 0.918 255 255 255
0.505204 -0.382851 1.947 255 255 255
0.62413 0.0600879 1.831 255 255 255
0.740492 -0.320299 1.714 0 0 0
-0.164893 0.199221 0.691 0 0 0
-0.330437 0.0242755 0.869 255 255 255
0.35107 -0.612331 1.837 255 255 255
-1.08403 -0.738582 2.626 255 255 255
0.136412 -0.677958 2.024 255 255 255
-0.389798 -0.471325 2.479 0 0 0
-0.410623 -0.0116264 0.912 255 255 255
0.579507 -0.0682319 2.114 255 255 255
0.567984 -0.343883 1.978 255 255 255
0.504882 -0.153561 1.182 255 255 255
-0.408321 -0.509602 2.469 0 0 0
-1.32033 -0.760987 2.53 255 255 255
0.232697 0.293619 1.048 255 255 255
-0.14186 0.224701 0.683 255 255 255
0.2407 0.235308 1.01 0 0 0
0.0440686 -0.10753 2.374 0 0 0
-0.345788 0.148895 0.731 0 0 0
0.580864 -0.244098 1.978 255 255 255
-0.10793 -0.00384146 0.833 255 255 255
0.599184 0.292243 1.47 255 255 255
-0.292219 0.0915162 0.825 255 255 255
0.206515 0.136445 0.951 255 255 255
0.1092 0.224211 1.075 255 255 255
-0.198221 0.243784 0.629 0 0 0
-0.382093 -0.580641 2.43 0 0 0
0.5889 -0.500091 1.842 255 255 255
0.533928 -0.489434 1.87 255 255 255
-0.219661 0.143729 0.735 255 255 255
0.480919 0.176431 1.744 255 255 255
-0.174395 0.180626 0.693 255 255 255
-0.139066 0.0518986 0.794 255 255 255
0.717576 -0.26609 1.905 255 255 255
-0.0588798 0.107537 0.891 255 255 255
0.512423 0.481147 1.563 255 255 255
-0.0794442 0.232832 0.722 255 255 255
0.164731 0.0619665 0.925 255 255 255
0.104841 0.278121 0.928 255 255 255
0.327529 -0.550595 2.004 255 255 255
-0.0724822 0.090114 0.863 255 255 255
-0.0404775 0.180793 0.787 255 255 255
0.727089 0.384382 1.616 255 255 255
-0.424101 0.0548769 0.861 255 255 255
-0.291395 0.110774 0.79 255 255 255
-1.26993 -0.596792 2.604 0 0 0
-0.23994 0.222704 0.642 255 255 255
0.46354 -0.400603 1.972 255 255 255
-0.303211 0.0708608 0.868 255 255 255
0.427607 -0.438814 2.03 255 255 255
0.661364 -0.203644 1.348 0 0 0
0.432398 -0.393919 2.037 255 255 255
-0.523882 -0.0308634 1.007 255 255 255
-0.175441 0.0188804 0.819 0 0 0
-1.15665 -0.632605 2.78 0 0 0
-0.317313 0.102595 0.817 255 255 255
-1.13912 -0.942141 2.53 0 0 0
0.742764 -0.280101 1.815 255 255 255
-0.396059 0.118638 0.791 255 255 255
0.221772 0.425512 1.141 255 255 255
-0.149978 0.00675925 0.804 0 0 0
0.419542 0.333581 1.587 0 0 0
-0.608991 -0.204264 1.283 255 255 255
-0.0197682 0.237164 0.832 255 255 255
0.710795 0.0588548 1.887 255 255 255
0.320848 -0.620288 1.87 255 255 255
-1.16968 -0.571316 2.768 0 0 0
0.44513 0.482453 1.559 0 0 0
0.195315 -0.0527657 0.814 255 255 255
-0.115029 0.168527 0.755 255 255 255
0.184618 0.292544 1.009 255 255 255
-0.210741 -0.0720355 0.854 0 0 0
-0.2337 0.144728 0.734 255 255 255
0.765891 -0.10371 1.941 255 255 255
-0.333256 -0.660902 2.449 255 255 255
0.177262 0.0610957 0.912 255 255 255
0.67911 -0.532282 1.714 255 255 255
0.643694 0.142227 1.853 255 255 255
-0.440536 -0.789835 2.121 255 255 255
-0.975082 -0.939875 2.449 255 255 255
-0.376232 0.0736275 0.851 255 255 255
0.443595 0.510962 1.494 255 255 255
-0.0373324 0.159441 0.802 255 255 255
-0.708302 -0.778818 2.383 255 255 255
0.468717 -0.678856 1.784 255 255 255
0.58086 -0.0457669 1.18 255 255 255
-0.243844 0.192696 0.676 255 255 255
0.114861 -0.737066 2.051 255 255 255
0.399881 0.401738 1.591 255 255 255
0.578204 0.162782 1.535 255 255 255
-0.06928 0.268205 0.752 255 255 255
-0.211622 0.174987 0.693 255 255 255
0.252433 -0.660532 1.953 255 255 255
0.626917 0.132821 1.848 0 0 0
0.953994 0.0525736 1.882 255 255 255
0.760533 -0.603268 1.62 255 255 255
0.143259 0.142804 1.068 0 0 0
0.414505 0.533991 1.477 255 255 255
0.537028 -0.245591 2.044 255 255 255
0.742652 -0.335221 1.719 255 255 255
-0.00923422 0.131786 0.86 255 255 255
-0.314983 0.225238 0.623 255 255 255
-0.466083 -0.561759 2.244 255 255 255
0.631576 -0.24046 1.254 0 0 0
-0.434444 -0.0118304 0.928 0 0 0
0.757238 0.343315 1.659 255 255 255
0.264673 0.143507 0.989 255 255 255
-0.311658 0.0297599 0.864 255 255 255
-0.014668 0.0247029 0.939 255 255 255
0.189284 -0.699304 1.991 255 255 255
0.559918 0.187427 1.419 255 255 255
-0.302177 0.228067 0.628 255 255 255
-0.377097 -0.0275995 0.951 0 0 0
0.0151909 0.1141 0.897 255 255 255
-0.225607 0.211225 0.655 255 255 255
-0.372244 0.0590803 0.861 255 255 255
0.914428 0.198307 1.87 255 255 255
-1.21536 -0.685094 2.719 255 255 255
0.0649113 -0.00302008 1.012 255 255 255
0.570662 0.13733 1.336 255 255 255
0.511543 -0.386019 1.947 255 255 255
0.578319 0.34574 1.484 255 255 255
0.0773472 -0.566589 2.22 255 255 255
0.137284 0.257968 0.954 255 255 255
-0.322076 -0.0581203 0.944 255 255 255
-0.306714 0.133202 0.743 255 255 255
-0.0345691 0.0969067 0.9 255 255 255
-0.0989463 -0.0916246 0.941 0 0 0
-0.379026 0.00453409 0.88 255 255 255
-1.31384 -0.700996 2.582 255 255 255
-0.133611 -0.119178 0.906 0 0 0
0.194042 -0.214884 2.365 255 255 255
0.225813 0.261764 1.017 255 255 255
0.477429 0.15435 1.784 255 255 255
-0.195095 -0.143832 0.932 255 255 255
-0.458538 -0.0776448 1.041 0 0 0
-1.05352 -0.703983 2.593 255 255 255
0.0348278 0.244252 0.955 255 255 255
-0.132923 -0.708667 2.294 255 255 255
0.168343 0.108931 0.954 255 255 255
-0.039527 0.0492766 0.913 255 255 255
-0.281371 0.033388 0.849 255 255 255
-0.0287728 -0.0217739 0.902 0 0 0
-0.280986 0.188853 0.678 255 255 255
0.0252124 -0.731374 2.092 255 255 255
0.208565 -0.059389 0.814 0 0 0
-0.300209 0.165397 0.705 255 255 255
-0.191498 -0.0352833 0.808 0 0 0
0.616739 -0.235378 1.959 255 255 255
-0.174372 0.109489 0.79 255 255 255
0.0209023 0.0563823 0.958 255 255 255
0.121982 0.273253 0.932 255 255 255
0.225679 0.251495 1.009 255 255 255
-0.262385 0.171604 0.693 255 255 255
0.198285 0.0998139 0.927 255 255 255
-0.471701 -0.636169 2.236 255 255 255
0.163362 0.0268721 0.909 255 255 255
-0.241009 -0.0563497 0.848 255 255 255
-0.288526 0.118301 0.772 255 255 255
0.46563 0.187889 1.719 255 255 255
0.130352 0.259474 1.106 255 255 255
-0.13058 0.221867 0.688 255 255 255
-0.281573 0.000235506 0.871 255 255 255
0.269518 0.423887 1.205 0 0 0
0.413462 0.359857 1.624 255 255 255
-0.430384 0.0641589 0.854 255 255 255
-0.631504 -0.246558 1.308 255 255 255
0.190612 -0.292241 2.278 255 255 255
-0.369328 0.0144592 0.874 255 255 255
0.00676696 0.0663118 0.944 255 255 255
0.162864 -0.771492 1.985 255 255 255
-1.07657 -0.819998 2.509 255 255 255
-0.15727 -0.618767 2.44 255 255 255
-1.09726 -0.884755 2.519 255 255 255
0.568476 0.00377835 1.991 255 255 255
0.806634 0.412287 1.612 255 255 255
0.17632 -0.728464 1.991 255 255 255
-1.2422 -0.877618 2.672 255 255 255
-0.0866592 -0.616635 2.356 255 255 255
0.626783 0.23531 1.473 255 255 255
0.0552185 0.0467984 0.986 255 255 255
0.096405 0.230958 1.05 255 255 255
-0.322247 0.025601 0.866 255 255 255
-0.0970239 0.225288 0.713 255 255 255
-0.406308 0.131118 0.781 255 255 255
-0.0290918 0.0121196 0.912 0 0 0
-0.113216 0.0195962 0.794 255 255 255
0.563401 -0.0881035 1.156 255 255 255
-0.246694 -0.747795 2.383 255 255 255
-0.223417 -0.775159 2.303 255 255 255
0.307654 -0.446651 2.114 255 255 255
0.142907 -0.546877 2.228 255 255 255
0.257104 0.0293953 2.212 0 0 0
0.532588 -0.104491 1.171 0 0 0
-1.33491 -0.787751 2.55 255 255 255
-0.0753643 0.246613 0.728 255 255 255
0.526021 -0.0490208 1.213 255 255 255
-0.211622 0.172731 0.693 255 255 255
-0.180198 0.104743 0.793 255 255 255
-0.17945 0.194369 0.678 255 255 255
0.126811 0.360007 0.957 255 255 255
0.755459 0.327155 1.673 0 0 0
0.0983022 0.168545 1.034 255 255 255
0.758863 -0.124621 1.972 255 255 255
0.260704 -0.341369 2.212 255 255 255
-0.151852 0.0212303 0.807 255 255 255
-0.394092 0.0469019 0.869 255 255 255
0.560755 -0.401225 1.899 255 255 255
-0.198662 0.167402 0.699 255 255 255
-0.312954 0.228089 0.617 255 255 255
0.141691 0.306843 0.942 255 255 255
-0.697425 -0.270375 1.375 255 255 255
0.228459 0.314231 1.06 0 0 0
0.56799 -0.409884 1.882 255 255 255
0.159347 0.212882 1.005 0 0 0
-0.178345 0.0422947 0.808 255 255 255
-0.130249 -0.130568 0.924 255 255 255
0.175223 0.150995 0.975 0 0 0
-0.49733 -0.19603 1.244 255 255 255
-0.494647 -0.168035 1.203 255 255 255
-0.30557 0.188523 0.669 0 0 0
-0.234709 0.116504 0.794 255 255 255
-0.0260654 -0.0767591 0.91 255 255 255
0.218394 0.0616191 0.898 255 255 255
0.0935909 -0.271576 2.356 255 255 255
-0.348859 0.108477 0.792 255 255 255
0.0496985 0.111801 0.914 0 0 0
-0.113049 -0.053647 0.895 255 255 255
0.0790931 0.235467 1.025 255 255 255
0.523448 0.329354 1.543 255 255 255
-0.387755 0.0901232 0.837 255 255 255
-0.28615 -0.145702 1.068 255 255 255
0.223566 0.375782 1.104 0 0 0
0.235933 0.0550906 0.887 255 255 255
0.746644 -0.403456 1.748 255 255 255
0.464293 0.321988 0.937 0 0 0
-0.16851 0.0447576 0.805 255 255 255
0.726159 -0.0752081 2.024 255 255 255
-0.0857165 0.0649004 0.828 255 255 255
0.688022 0.489256 1.502 255 255 255
-0.00409946 -0.0171013 0.97 255 255 255
-0.730523 -0.300444 1.422 255 255 255
-0.101341 -0.0731907 0.921 255 255 255
-0.150972 0.250664 0.655 255 255 255
-0.175024 -0.623183 2.411 255 255 255
-0.542169 -0.140689 1.187 255 255 255
0.220517 -0.0480503 0.824 0 0 0
-0.233357 -0.457025 2.489 255 255 255
0.558721 -0.0863714 1.158 255 255 255
0.187342 0.199565 0.972 255 255 255
-0.48452 -0.543251 2.228 255 255 255
-0.179384 -0.742147 2.365 255 255 255
0.635739 -0.231406 1.283 255 255 255
-0.162498 -0.375486 2.459 0 0 0
0.0865444 0.316294 0.895 255 255 255
-0.379412 -0.039645 0.981 255 255 255
0.534742 -0.126615 1.147 0 0 0
0.0629514 0.247719 1.007 255 255 255
-0.313852 0.23306 0.609 255 255 255
-0.433012 0.0507323 0.862 255 255 255
-0.231352 0.167692 0.705 255 255 255
-0.153061 0.161886 0.72 255 255 255
0.683662 -0.259216 1.923 255 255 255
0.801882 0.398078 1.629 255 255 255
-0.529015 -0.642071 2.158 255 255 255
0.600284 0.0290421 1.947 255 255 255
-0.168616 0.248936 0.645 255 255 255
-0.566159 -0.156029 1.201 255 255 255
0.0116059 0.0190658 0.963 255 255 255
-0.281493 0.156673 0.734 255 255 255
0.757497 -0.595428 1.642 255 255 255
-0.0573005 0.107296 0.889 255 255 255
-0.200623 0.0584326 0.813 255 255 255
0.437909 0.439774 1.607 255 255 255
-0.0281521 0.053221 0.93 255 255 255
0.98401 0.170563 1.935 255 255 255
0.172539 -0.486982 2.236 255 255 255
-0.409632 0.0301388 0.875 255 255 255
0.759755 -0.108246 1.966 255 255 255
-0.0621966 -0.058146 0.897 255 255 255
-0.160129 0.0383975 0.809 255 255 255
0.531937 -0.0955312 1.178 0 0 0
0.618462 -0.21589 1.985 255 255 255
-0.43375 0.0719031 0.847 255 255 255
-0.180067 -0.725654 2.374 255 255 255
0.456414 -0.373184 1.997 255 255 255
-0.0837237 -0.0433547 0.893 255 255 255
-0.0339501 0.0693427 0.923 255 255 255
-0.468272 -0.0184295 0.957 0 0 0
0.195915 -0.0750072 0.811 0 0 0
0.10131 0.322476 0.884 255 255 255
0.243469 0.203354 0.975 0 0 0
0.560297 0.289459 1.456 255 255 255
0.616715 -0.363616 1.929 255 255 255
0.440568 0.335228 0.895 255 255 255
-0.334239 0.048872 0.879 0 0 0
0.0368643 0.0878403 0.928 255 255 255
-0.487258 -0.814749 2.114 255 255 255
0.0541029 0.0180801 0.995 255 255 255
-0.418981 0.0535379 0.862 255 255 255
-0.38462 -0.796322 2.196 0 0 0
-0.0701374 0.162902 0.775 255 255 255
0.681091 -0.561808 1.719 255 255 255
-0.214112 0.207153 0.659 255 255 255
0.0626388 0.0182073 1.002 255 255 255
0.482803 0.520625 1.48 255 255 255
0.166864 -0.0815733 0.824 0 0 0
0.573748 -0.224671 1.257 255 255 255
-0.28283 0.13392 0.747 0 0 0
-0.512077 -0.434115 2.303 255 255 255
0.0121671 -0.599773 2.196 255 255 255
-0.115918 0.191014 0.715 255 255 255
0.257436 -0.059573 2.312 255 255 255
-0.356076 0.113059 0.788 255 255 255
0.106463 0.30908 0.891 255 255 255
0.168889 -0.0472762 0.834 0 0 0
0.548659 -0.602154 1.789 255 255 255
-0.213987 -0.126036 0.935 255 255 255
0.0526942 0.344919 0.999 0 0 0
-0.275814 0.111756 0.797 255 255 255
0.569471 -0.358885 1.972 255 255 255
-0.268333 0.231321 0.623 255 255 255
-0.205444 0.182278 0.695 255 255 255
0.0289484 -0.269061 2.402 0 0 0
0.114172 0.287075 0.918 255 255 255
-0.0491937 0.172229 0.783 255 255 255
0.0211641 0.046039 0.97 255 255 255
0.18756 -0.252347 2.286 255 255 255
0.474771 0.424574 1.599 255 255 255
-0.465642 -0.0231257 0.958 0 0 0
-0.162948 0.236101 0.656 255 255 255
0.0222976 0.288109 0.951 255 255 255
-0.427695 -0.0635383 1.032 255 255 255
0.451983 0.469271 1.583 255 255 255
0.116415 0.17906 1.077 255 255 255
-0.432692 -0.0255862 0.934 0 0 0
-0.00545012 0.336591 0.931 255 255 255
-0.521496 -0.170409 1.22 255 255 255
-0.0220454 -0.420726 2.42 255 255 255
0.433379 0.524447 1.484 255 255 255
0.298574 -0.60675 1.985 255 255 255
-0.1367 0.241483 0.674 255 255 255
-0.0406379 -0.513117 2.356 255 255 255
-0.0960692 0.117527 0.848 255 255 255
0.454372 0.541942 1.466 255 255 255
0.078007 0.308071 0.97 0 0 0
0.536458 -0.179482 1.201 255 255 255
0.247304 -0.437561 2.189 255 255 255
0.205544 -0.0364187 0.834 0 0 0
0.0110395 0.271543 0.916 255 255 255
0.204633 -0.291087 2.269 255 255 255
-0.353408 0.177639 0.699 255 255 255
0.625639 -0.268788 1.947 255 255 255
-0.283817 0.103474 0.824 255 255 255
-0.0543201 0.318586 0.822 255 255 255
0.752681 -0.467037 1.71 255 255 255
0.98716 0.132776 1.935 255 255 255
0.0326761 0.350183 0.896 0 0 0
-0.0558825 0.018576 0.867 0 0 0
0.767736 -0.3718 1.682 255 255 255
0.27893 -0.469994 2.158 255 255 255
-0.970885 -0.878774 2.479 255 255 255
0.755459 -0.514104 1.673 255 255 255
0.864505 0.337968 1.7 255 255 255
-0.83152 -0.619933 2.509 255 255 255
0.562578 0.430907 1.547 0 0 0
0.116962 0.149475 1.066 255 255 255
0.820968 0.378125 1.646 255 255 255
0.62996 -0.23146 1.319 255 255 255
0.228641 0.157461 0.966 0 0 0
0.418676 -0.430002 2.051 255 255 255
0.140109 0.163181 1.032 0 0 0
0.410984 0.542133 1.473 255 255 255
-0.00974962 0.0962904 0.908 255 255 255
0.54306 -0.483348 1.87 255 255 255
0.723888 -0.202252 1.947 255 255 255
-0.181091 -0.0666743 0.839 0 0 0
0.258632 -0.721799 1.905 255 255 255
0.490903 0.500066 1.52 255 255 255
0.560609 0.202762 1.463 255 255 255
-0.171245 0.242338 0.647 255 255 255
-0.0250342 0.154991 0.827 255 255 255
0.098477 -0.245413 2.479 255 255 255
0.765455 0.45844 1.555 255 255 255
-0.518798 -0.615673 2.189 255 255 255
0.0764902 -0.332926 2.303 255 255 255
-0.368573 -0.746902 2.32 0 0 0
0.775051 0.315979 1.686 255 255 255
0.409031 0.549099 1.466 255 255 255
0.369299 -0.296452 2.173 255 255 255
-0.275115 0.233234 0.62 255 255 255
-0.854435 -0.654246 2.469 255 255 255
-0.230384 -0.794137 2.261 255 255 255
0.249757 0.148731 0.981 255 255 255
-0.176256 -0.0778744 0.842 0 0 0
0.110663 -0.541563 2.236 255 255 255
-0.102629 0.134588 0.834 255 255 255
0.111685 0.331967 0.898 255 255 255
-0.43538 -0.0133693 0.93 0 0 0
-0.44066 0.04674 0.866 255 255 255
0.605313 -0.256904 1.953 255 255 255
0.166706 0.352169 1.02 255 255 255
-0.347592 -0.0541352 0.955 255 255 255
0.459176 0.314202 1.555 255 255 255
0.516535 -0.447374 1.966 255 255 255
-0.199143 -0.0444324 0.807 0 0 0
0.658657 -0.328091 1.905 255 255 255
-0.389775 0.0229403 0.872 255 255 255
0.55844 0.236903 1.439 255 255 255
0.778635 -0.516998 1.551 255 255 255
-0.217617 0.195831 0.687 255 255 255
0.280942 0.438661 1.247 0 0 0
0.0759255 -0.449511 2.286 255 255 255
0.511045 -0.604034 1.821 255 255 255
0.309712 -0.549717 2.037 255 255 255
0.631018 0.133456 1.668 255 255 255
0.187148 0.129707 0.947 255 255 255
-0.880932 -0.612759 2.582 255 255 255
0.711672 -0.346416 1.48 255 255 255
-0.166785 0.0642476 0.803 255 255 255
0.300772 -0.450091 2.114 255 255 255
-0.399892 -0.19694 1.237 255 255 255
0.749557 -0.199802 1.81 0 0 0
0.488058 0.451239 1.583 255 255 255
0.0470498 0.051455 0.983 255 255 255
0.0954158 -0.562976 2.22 255 255 255
-0.341056 -0.138778 1.055 0 0 0
0.27189 -0.668096 1.911 255 255 255
-0.29464 0.134525 0.737 255 255 255
0.719545 -0.538898 1.691 255 255 255
0.255531 -0.718699 1.905 255 255 255
0.199287 0.00749066 0.891 255 255 255
0.0920466 0.334575 0.878 255 255 255
-1.27397 -0.962021 2.561 255 255 255
0.374254 0.543421 1.47 255 255 255
-0.0713245 0.115794 0.866 255 255 255
0.215212 -0.653944 1.991 255 255 255
-0.111228 -0.0996247 0.916 0 0 0
-0.321106 0.152724 0.721 255 255 255
0.52416 0.353195 1.516 255 255 255
0.690062 -0.245849 1.941 255 255 255
-0.0445753 0.103651 0.895 255 255 255
0.504882 -0.155484 1.182 255 255 255
-0.351282 -0.777662 2.356 255 255 255
0.489914 0.220624 1.65 255 255 255
-0.483861 -0.0637642 1.009 255 255 255
0.647399 0.0716131 1.821 255 255 255
0.715192 0.400547 1.607 255 255 255
-1.04787 -0.861463 2.499 255 255 255
0.203154 -0.0292445 2.294 0 0 0
0.687929 -0.248238 1.935 255 255 255
-0.253032 0.207594 0.657 255 255 255
-0.267768 0.0248619 0.841 255 255 255
0.661454 0.430217 1.591 255 255 255
0.0356329 0.133076 0.897 255 255 255
-0.0475139 0.289789 0.82 255 255 255
0.613354 -0.100226 2.136 255 255 255
-0.567291 -0.179546 1.242 255 255 255
-0.455836 -0.658138 2.212 255 255 255
0.416856 -0.654183 1.837 255 255 255
-0.0573509 -0.0121761 0.847 0 0 0
-0.572772 -0.191484 1.254 255 255 255
0.684691 -0.515546 1.714 255 255 255
-0.0462276 0.218675 0.776 0 0 0
-0.102998 0.128261 0.837 255 255 255
0.588576 -0.388864 1.899 255 255 255
0.315179 -0.483405 2.051 255 255 255
-0.655588 -0.595886 2.32 255 255 255
-0.00893428 -0.739066 2.114 255 255 255
0.084236 0.0649141 0.969 255 255 255
0.741942 -0.602836 1.655 255 255 255
0.364583 -0.376567 2.166 255 255 255
0.484136 0.252874 1.686 0 0 0
-0.196269 0.12157 0.785 0 0 0
0.068587 0.321915 0.928 255 255 255
0.534161 0.00695138 1.972 255 255 255
-0.106634 0.150223 0.823 255 255 255
-0.241946 0.103542 0.814 0 0 0
-0.120035 0.200962 0.705 255 255 255
-0.23746 0.159152 0.713 255 255 255
-0.279838 0.0671735 0.857 255 255 255
0.3452 -0.611158 1.87 255 255 255
-0.233448 0.112597 0.803 255 255 255
0.0371897 -0.585479 2.196 255 255 255
0.471731 -0.431378 1.966 255 255 255
-0.284455 0.232063 0.625 255 255 255
-0.669511 -0.646969 2.383 255 255 255
-0.356209 -0.760307 2.338 255 255 255
-0.111865 0.240478 0.69 255 255 255
0.644975 -0.27886 1.929 255 255 255
0.00512749 -0.671311 2.244 255 255 255
-0.118017 -0.814148 2.158 255 255 255
-0.195364 0.204678 0.672 255 255 255
-0.222875 0.18245 0.7 255 255 255
0.580662 0.133281 1.339 255 255 255
-0.100739 0.202564 0.723 255 255 255
-0.204173 -0.451154 2.479 255 255 255
-0.0693747 0.00828838 0.826 255 255 255
-0.390582 0.0145088 0.877 255 255 255
-0.00683841 0.093952 0.914 255 255 255
0.0438908 0.167381 0.917 255 255 255
0.234753 0.0392569 0.888 255 255 255
0.754172 -0.141594 1.985 255 255 255
0.205847 -0.0504243 0.819 255 255 255
-0.408096 -0.460108 2.42 0 0 0
0.568759 -0.581418 1.779 255 255 255
0.0830001 0.30035 0.904 255 255 255
0.599752 0.40113 1.539 0 0 0
-0.310338 -0.0320133 0.901 255 255 255
0.562811 0.0351981 1.26 255 255 255
0.652434 -0.343416 1.887 255 255 255
-0.378096 0.0284851 0.868 255 255 255
-0.346704 -0.851434 2.228 255 255 255
0.19287 -0.267984 2.261 255 255 255
0.403482 0.462446 1.595 255 255 255
-0.190653 -0.0340525 0.81 0 0 0
-0.0514124 0.258487 0.778 255 255 255
0.313028 -0.533143 2.037 255 255 255
-0.224654 0.165836 0.702 255 255 255
-0.331294 0.219542 0.627 255 255 255
0.639438 -0.268114 1.299 255 255 255
-0.292574 0.150795 0.723 255 255 255
0.106118 -0.176119 2.469 255 255 255
-0.58892 -0.246558 1.308 255 255 255
0.731451 0.47408 1.516 255 255 255
0.620146 0.509883 1.463 255 255 255
-0.151475 0.0172477 0.805 255 255 255
-0.257197 0.230111 0.628 255 255 255
0.547565 0.00640955 1.244 255 255 255
-0.106888 0.0584326 0.795 255 255 255
0.376478 -0.374407 2.114 255 255 255
-0.316485 -0.0203961 0.906 0 0 0
0.23355 0.209181 0.98 255 255 255
0.0280479 0.169313 0.888 255 255 255
-0.301356 0.165397 0.705 255 255 255
-0.0588798 0.0872379 0.891 255 255 255
0.0211641 0.345956 0.97 255 255 255
-0.627777 -0.156769 1.222 255 255 255
0.749823 -0.494869 1.691 255 255 255
0.61387 0.394639 1.543 255 255 255
0.280206 -0.256037 2.253 255 255 255
-0.216431 -0.128103 0.939 255 255 255
0.12847 -0.283095 2.294 255 255 255
0.161285 0.0180957 0.914 255 255 255
-0.196104 0.194441 0.69 255 255 255
-0.674181 -0.837488 2.173 255 255 255
-0.123936 -0.0905616 0.9 0 0 0
-0.0634115 0.253303 0.755 255 255 255
-0.395422 -0.533983 2.489 0 0 0
0.829774 0.265441 1.714 255 255 255
0.503647 -0.38483 1.941 255 255 255
0.332851 -0.404766 2.166 255 255 255
0.100953 0.0232835 1.01 255 255 255
0.41542 0.274873 1.591 255 255 255
-0.738233 -0.727264 2.392 255 255 255
0.5398 0.179972 1.779 255 255 255
0.0639278 0.332433 0.972 0 0 0
-0.356209 -0.775526 2.338 255 255 255
0.142276 0.166258 1 0 0 0
-0.876174 -0.793477 2.44 0 0 0
-0.589013 -0.126706 1.165 255 255 255
0.0410839 0.0931728 0.921 255 255 255
-0.355241 0.158509 0.726 255 255 255
-0.0766268 -0.0463647 0.895 255 255 255
-0.0396133 0.315977 0.851 255 255 255
0.101617 -0.347847 2.278 255 255 255
-0.150888 0.0765448 0.795 0 0 0
-0.0822187 0.0389196 0.82 0 0 0
0.534862 -0.14704 1.176 255 255 255
-0.352219 0.146716 0.732 0 0 0
0.258202 -0.3037 2.253 255 255 255
-0.484269 -0.459059 2.278 255 255 255
0.476507 -0.615997 1.848 255 255 255
-0.212727 0.0900644 0.824 255 255 255
0.197758 0.281051 1.009 255 255 255
-0.174184 0.0698207 0.807 0 0 0
0.686363 -0.133166 2.004 255 255 255
0.306396 -0.566292 2.037 255 255 255
-0.523333 -0.103031 1.114 255 255 255
-0.0250434 0.0681347 0.927 255 255 255
0.524911 -0.0352612 1.215 255 255 255
-1.13783 -0.950653 2.509 0 0 0
-0.229943 -0.124914 0.938 255 255 255
0.0356329 0.11556 0.897 255 255 255
-0.225582 -0.76139 2.365 255 255 255
-0.257442 -0.689882 2.411 255 255 255
-0.265315 0.166114 0.713 255 255 255
-0.812625 -0.670385 2.44 255 255 255
-0.442598 -0.187361 1.227 255 255 255
-0.250463 0.156544 0.717 255 255 255
-0.600548 -0.593864 2.269 255 255 255
0.660006 -0.345482 1.865 255 255 255
-0.110787 0.147724 0.824 255 255 255
0.692717 -0.586691 1.686 255 255 255
0.59277 -0.605134 1.739 255 255 255
-0.152373 0.068869 0.796 0 0 0
0.324085 -0.478429 2.044 255 255 255
0.324245 -0.329335 2.228 255 255 255
0.561545 0.0391611 1.978 255 255 255
-0.233083 -0.394562 2.53 0 0 0
0.447209 -0.509842 1.985 255 255 255
-0.555187 -0.226195 1.289 255 255 255
-0.0272908 0.159178 0.814 255 255 255
0.584486 0.104407 1.774 255 255 255
0.0327483 0.00508024 0.986 255 255 255
-0.328634 0.207497 0.65 255 255 255
0.123437 0.261347 0.955 255 255 255
-0.214495 0.192457 0.695 255 255 255
-0.644506 -0.801995 2.294 0 0 0
-0.185751 0.204711 0.665 255 255 255
-0.260462 -0.0617584 0.886 255 255 255
0.195003 -0.0254224 2.286 0 0 0
0.549781 0.0446742 1.297 255 255 255
-0.197733 0.0596821 0.812 255 255 255
-0.121812 -0.107383 0.906 255 255 255
0.626563 0.487914 1.513 255 255 255
-0.610976 -0.444365 2.509 0 0 0
0.0541029 0.016461 0.995 255 255 255
0.766849 0.455712 1.563 255 255 255
0.139497 -0.631063 2.121 255 255 255
0.168238 -0.605412 2.092 255 255 255
0.773064 0.338934 1.664 255 255 255
0.214755 0.253516 1.004 255 255 255
-0.306159 0.224378 0.632 255 255 255
-0.085074 -0.393159 2.42 255 255 255
-1.31775 -0.736429 2.649 255 255 255
0.173708 0.101321 0.941 255 255 255
-0.190151 0.181668 0.697 255 255 255
0.133454 -0.100182 2.383 0 0 0
0.46876 0.270387 1.71 0 0 0
0.268129 -0.229452 2.244 255 255 255
-0.179216 0.00284118 0.806 255 255 255
-0.731576 -0.825354 2.383 255 255 255
0.459154 0.445391 1.599 255 255 255
0.747008 -0.203382 1.87 255 255 255
0.535563 -0.291658 2.064 255 255 255
-0.199078 0.0155615 0.786 0 0 0
-0.15469 0.113059 0.788 255 255 255
0.220928 0.235052 0.995 255 255 255
0.652742 -0.223997 1.313 255 255 255
-0.126981 0.178348 0.725 255 255 255
-0.424473 0.0772337 0.845 255 255 255
-0.379403 0.0186617 0.871 255 255 255
-0.077338 0.178066 0.759 255 255 255
-0.0722089 -0.114385 0.952 255 255 255
0.260337 0.083411 2.121 0 0 0
-0.334033 0.0200792 0.871 255 255 255
0.493466 0.145232 1.779 255 255 255
0.194788 0.0177591 0.897 255 255 255
-0.0406089 0.0840974 0.904 255 255 255
0.0122843 -0.0655175 0.898 255 255 255
0.0856362 0.0868109 0.967 255 255 255
0.064619 -0.133242 2.42 0 0 0
0.211134 -0.00687511 0.874 0 0 0
-1.27723 -0.940284 2.593 255 255 255
0.10216 0.277571 1.039 255 255 255
-0.241838 -0.124849 0.961 255 255 255
-0.241346 0.228492 0.632 255 255 255
-0.18008 0.00283413 0.804 255 255 255
-0.134482 0.165526 0.747 255 255 255
-1.30298 -0.845865 2.489 255 255 255
0.885063 0.247209 1.763 255 255 255
0.185186 0.162681 0.969 255 255 255
0.27189 -0.674315 1.911 255 255 255
-0.0584801 0.266199 0.771 255 255 255
0.489491 -0.389938 1.935 255 255 255
0.0392478 0.0275998 0.988 255 255 255
-0.0945581 -0.123582 0.928 255 255 255
-0.116068 0.15123 0.814 255 255 255
-0.117481 0.234864 0.69 255 255 255
0.734153 -0.188229 1.966 255 255 255
0.731457 -0.211614 1.917 255 255 255
-0.0981645 -0.524619 2.356 255 255 255
0.572226 0.344019 1.487 255 255 255
0.185198 0.0351184 0.893 255 255 255
0.0441551 0.219386 0.955 0 0 0
-0.350531 0.167508 0.714 255 255 255
0.693349 0.366518 1.642 255 255 255
-1.30985 -0.818262 2.479 255 255 255
0.311114 -0.341369 2.212 255 255 255
-0.67364 -0.408606 2.593 0 0 0
0.455135 -0.580337 1.859 255 255 255
-0.201637 0.120446 0.786 0 0 0
0.0877647 -0.196082 2.519 0 0 0
-0.342414 -0.0489549 0.945 255 255 255
0.0373441 -0.0180534 1.024 255 255 255
0.811927 0.299237 1.7 255 255 255
-0.655736 -0.49119 2.54 255 255 255
0.730949 0.305375 1.673 255 255 255
-0.263095 0.0623281 0.848 255 255 255
0.532567 0.0552554 1.978 255 255 255
-0.403524 0.0712741 0.856 255 255 255
-0.0850819 0.0749608 0.835 255 255 255
0.00350585 0.252491 0.896 255 255 255
0.454043 -0.329799 2.03 255 255 255
-1.20125 -0.919186 2.593 255 255 255
0.597214 0.050377 1.281 255 255 255
-0.21541 0.0927462 0.824 255 255 255
0.252614 -0.38146 2.236 255 255 255
-0.325554 -0.110609 1.002 0 0 0
-0.245438 -0.41103 2.53 0 0 0
-0.000824067 0.185364 0.849 255 255 255
0.776887 -0.430094 1.696 255 255 255
0.503609 -0.498595 1.905 255 255 255
0.105885 0.0528684 1.01 255 255 255
0.613451 0.00285606 1.505 255 255 255
-0.0426021 0.206844 0.779 255 255 255
-0.262023 0.00299276 0.849 0 0 0
-0.6458 -0.590069 2.312 255 255 255
-0.194139 0.13604 0.752 255 255 255
-0.278205 0.0487573 0.852 0 0 0
-1.26356 -0.606108 2.626 0 0 0
-0.409478 0.0750124 0.851 255 255 255
-0.223694 0.185602 0.699 255 255 255
-0.317771 0.119373 0.779 255 255 255
0.0429992 0.0865162 0.93 255 255 255
0.675174 0.373071 1.624 255 255 255
0.194262 0.222619 0.983 255 255 255
-0.20404 0.230111 0.628 255 255 255
-0.380868 -0.752673 2.303 0 0 0
0.730887 0.395317 1.607 255 255 255
0.0408608 0.182105 0.916 255 255 255
0.163341 0.0777183 0.952 255 255 255
0.792935 -0.487539 1.595 255 255 255
0.492527 -0.427209 1.947 255 255 255
0.178403 -0.311653 2.312 255 255 255
-0.40277 0.137505 0.767 255 255 255
-0.0605099 0.28109 0.781 255 255 255
-1.20006 -0.644849 2.755 0 0 0
0.785608 0.286646 1.691 255 255 255
-0.616211 -0.598314 2.286 255 255 255
0.475474 -0.651448 1.821 255 255 255
0.332822 -0.401939 2.189 255 255 255
-1.34905 -0.631748 2.626 0 0 0
-1.26288 -0.682071 2.707 255 255 255
-0.253675 -0.390444 2.53 0 0 0
-0.432889 -0.491852 2.383 0 0 0
0.595152 0.0165787 1.972 255 255 255
0.651135 -0.295119 1.345 255 255 255
0.483787 0.378682 1.603 255 255 255
0.943946 0.177219 1.905 255 255 255
0.0709521 0.32208 0.96 0 0 0
-0.116945 -0.74901 2.204 255 255 255
0.737698 0.0192359 1.917 0 0 0
-0.998971 -0.840413 2.509 255 255 255
-0.323877 0.17945 0.68 255 255 255
0.169394 0.159417 0.978 255 255 255
0.0682329 0.12776 0.944 255 255 255
0.649458 0.395562 1.587 255 255 255
-0.111783 0.0569952 0.793 255 255 255
-0.216851 0.126855 0.763 255 255 255
-0.23561 0.0996908 0.815 255 255 255
-0.225072 0.0633227 0.825 0 0 0
0.646184 -0.098865 2.107 255 255 255
-0.400512 0.138359 0.758 255 255 255
0.575839 0.191205 1.396 255 255 255
-0.0433027 -0.701201 2.294 255 255 255
0.629762 -0.0684578 2.121 255 255 255
-0.103988 0.211365 0.713 255 255 255
-0.173801 0.209208 0.669 0 0 0
-0.151078 0.0714597 0.796 0 0 0
0.168342 -0.0448509 2.329 0 0 0
0.479618 -0.531856 1.959 255 255 255
-0.611108 -0.127359 1.171 255 255 255
-0.300637 0.129921 0.752 255 255 255
0.0413523 0.351773 1 0 0 0
0.355478 -0.565984 1.978 255 255 255
0.451397 0.334664 0.882 255 255 255
-0.122114 0.00288701 0.819 255 255 255
0.0848655 0.295798 0.941 0 0 0
0.1092 0.262697 1.075 255 255 255
0.0234978 0.149171 0.88 255 255 255
0.254678 0.397884 1.147 0 0 0
-0.0209591 -0.0906677 0.947 255 255 255
0.136708 0.222765 1.085 255 255 255
-0.314229 -0.0477116 0.921 255 255 255
-1.2127 -0.64204 2.743 0 0 0
-0.271467 0.0699628 0.857 255 255 255
-0.278205 0.0445979 0.852 255 255 255
0.735211 -0.246099 1.848 255 255 255
-0.461151 -0.220273 1.267 255 255 255
0.164885 0.259861 0.961 255 255 255
0.522914 0.226248 1.595 255 255 255
-0.238673 -0.0514094 0.835 255 255 255
-0.108713 0.218481 0.706 255 255 255
0.773185 0.279872 1.7 255 255 255
0.557678 0.0463881 1.286 255 255 255
0.574952 -0.08757 1.149 255 255 255
0.500981 0.370177 1.567 0 0 0
-0.411412 0.105511 0.819 255 255 255
-0.00545012 0.332046 0.931 255 255 255
0.16598 -0.555979 2.151 255 255 255
0.0337958 0.282815 0.97 255 255 255
-0.900951 -0.656679 2.509 255 255 255
-0.157797 0.252203 0.648 255 255 255
0.61355 -0.289573 1.959 255 255 255
0.502084 -0.512604 1.911 255 255 255
-0.300573 0.187715 0.67 0 0 0
0.211432 0.218973 0.981 255 255 255
-0.351373 0.169119 0.711 255 255 255
0.164857 0.0515614 0.901 255 255 255
0.15402 0.216225 1.013 0 0 0
0.738835 -0.190162 1.953 255 255 255
-0.259106 0.0592872 0.844 255 255 255
0.580375 0.0415791 1.267 255 255 255
-0.515304 -0.59549 2.22 255 255 255
0.541336 0.545354 1.456 255 255 255
-0.409075 -0.0495766 0.957 255 255 255
0.583223 -0.531157 1.815 255 255 255
-0.012048 0.130538 0.861 255 255 255
0.88562 0.208004 1.848 255 255 255
0.442703 0.548851 1.459 255 255 255
0.127212 0.334186 0.937 255 255 255
0.548757 0.0293926 1.275 255 255 255
-0.484269 -0.514665 2.278 255 255 255
-0.293814 0.225406 0.632 255 255 255
-0.0383581 -0.00985313 0.886 0 0 0
0.38895 -0.33888 2.107 255 255 255
-0.411487 0.0590803 0.861 255 255 255
-0.443651 -0.826704 2.136 255 255 255
0.506469 0.179269 1.744 255 255 255
0.711254 0.0682351 1.81 255 255 255
0.962374 0.131541 1.917 255 255 255
-0.0281824 0.0472181 0.931 255 255 255
0.197462 0.225818 0.983 255 255 255
0.608935 -0.601626 1.705 255 255 255
0.39292 -0.564267 1.972 255 255 255
-0.132103 -0.0862692 0.886 255 255 255
-0.125029 0.0937045 0.787 255 255 255
-0.411753 -0.787005 2.151 255 255 255
0.439221 -0.679742 1.794 255 255 255
0.293111 -0.337769 2.212 255 255 255
0.155986 -0.0630258 0.845 255 255 255
0.537593 0.226422 1.673 255 255 255
0.553261 -0.129439 1.139 0 0 0
-0.846924 -0.497081 2.66 0 0 0
0.149383 0.230643 1.004 255 255 255
0.0088155 -0.582344 2.253 255 255 255
-0.40697 0.0147404 0.891 255 255 255
0.587576 0.294804 1.459 255 255 255
-0.816596 -0.674356 2.44 255 255 255
0.426666 -0.457387 2.01 255 255 255
0.201666 -0.630262 2.051 255 255 255
0.327503 -0.523153 2.024 255 255 255
-1.30255 -0.801035 2.593 255 255 255
-0.212876 -0.590972 2.44 255 255 255
-0.148749 0.208333 0.684 255 255 255
-0.273416 0.146718 0.738 255 255 255
-0.40269 -0.751916 2.278 255 255 255
-0.234655 0.140522 0.737 255 255 255
-0.101628 -0.0165615 0.86 255 255 255
0.629624 -0.354003 1.911 255 255 255
0.561759 0.305761 1.466 255 255 255
-0.119541 -0.0568759 0.9 255 255 255
-0.193616 -0.389727 2.499 0 0 0
-0.00944988 -0.617976 2.236 255 255 255
0.727999 -0.33873 1.567 255 255 255
0.642152 -0.259011 1.275 0 0 0
-0.241319 0.201587 0.669 255 255 255
0.631853 -0.361051 1.899 255 255 255
-0.23316 0.164716 0.707 255 255 255
0.59543 0.363843 1.509 0 0 0
0.57458 0.479083 1.532 255 255 255
0.764392 -0.0638423 1.978 255 255 255
-0.650116 -0.740039 2.383 255 255 255
-1.14152 -0.814444 2.582 0 0 0
0.479894 0.200819 1.71 255 255 255
0.552917 -0.334251 2.017 255 255 255
0.00884018 -0.0258957 1.005 255 255 255
-0.0340698 -0.0546109 0.887 255 255 255
0.20601 0.215121 0.978 255 255 255
0.0968507 0.30644 0.896 255 255 255
-0.496831 0.000259029 0.958 255 255 255
-0.469283 -0.0392813 0.972 0 0 0
0.159097 0.0313443 0.91 255 255 255
0.444987 -0.471567 1.947 255 255 255
0.565037 0.294198 1.456 255 255 255
0.0836596 -0.398821 2.294 255 255 255
0.131327 0.251456 1.029 255 255 255
0.0313955 -0.793806 2.051 255 255 255
0.240986 0.0179373 0.906 255 255 255
-0.391693 -0.692231 2.392 0 0 0
-0.253675 -0.41103 2.53 0 0 0
0.0938158 0.129345 1.004 255 255 255
0.636403 0.130449 1.815 255 255 255
0.524597 0.501308 1.539 255 255 255
-0.163667 -0.104121 0.855 255 255 255
-0.188481 -0.0381008 0.812 255 255 255
0.665144 -0.43621 1.789 255 255 255
0.159224 -0.0470753 0.855 255 255 255
-0.194454 0.00406007 0.788 255 255 255
0.624153 -0.0396128 2.057 255 255 255
-0.846889 -0.886658 2.402 255 255 255
0.227135 -0.345073 2.236 255 255 255
-0.125588 -0.116999 0.912 255 255 255
0.265323 0.122851 1.978 255 255 255
0.0962213 0.227107 1.048 255 255 255
-0.602054 -0.448924 2.489 0 0 0
-0.800709 -0.662444 2.44 255 255 255
-0.181982 0.240166 0.644 255 255 255
0.0424643 0.310573 0.988 255 255 255
-0.372364 0.156763 0.718 255 255 255
0.174463 -0.599994 2.085 255 255 255
-0.131807 0.0196702 0.797 255 255 255
-0.16448 -0.440823 2.489 255 255 255
-0.190188 0.187392 0.693 255 255 255
-0.316766 -0.76616 2.356 255 255 255
-0.137175 0.175773 0.729 255 255 255
-0.225617 0.0903923 0.827 255 255 255
0.744862 0.274823 1.686 255 255 255
0.154016 -0.0555531 0.857 255 255 255
-0.154821 -0.566133 2.402 255 255 255
-0.328265 0.0693682 0.867 255 255 255
0.463735 0.52775 1.473 255 255 255
-0.0836596 0.212257 0.728 255 255 255
0.341597 -0.519534 2.01 255 255 255
-0.312581 0.151972 0.723 255 255 255
0.51728 -0.493884 1.887 255 255 255
-0.18165 0.142491 0.741 255 255 255
-0.20477 0.0868523 0.819 255 255 255
0.235668 -0.154164 2.32 255 255 255
-1.02038 -0.50802 2.672 0 0 0
0.108564 0.268407 0.975 0 0 0
0.67095 -0.203498 1.959 255 255 255
-0.0670892 0.001577 0.831 255 255 255
0.278203 -0.611048 1.978 255 255 255
-1.07333 -0.929332 2.54 255 255 255
-0.486602 -0.0203628 0.975 255 255 255
0.63057 0.461117 1.547 255 255 255
0.730509 -0.320169 1.859 255 255 255
-0.00977107 -0.522346 2.312 255 255 255
-0.167175 -0.564331 2.411 255 255 255
0.433027 0.490056 1.543 255 255 255
-0.286025 -0.768397 2.294 255 255 255
-0.392252 -0.094131 1.036 0 0 0
-0.376031 0.139525 0.751 255 255 255
0.164459 0.389124 1.048 255 255 255
0.313365 -0.245944 2.228 255 255 255
-0.289787 0.220624 0.639 255 255 255
-0.118912 -0.672842 2.312 255 255 255
-0.243822 0.138039 0.743 255 255 255
-0.809157 -0.868011 2.383 255 255 255
0.484046 -0.640127 1.831 255 255 255
0.593624 0.31109 1.48 255 255 255
0.517505 0.552164 1.449 255 255 255
0.490416 0.143137 1.789 255 255 255
-0.720684 -0.4309 2.626 0 0 0
-0.253121 0.233348 0.623 255 255 255
-0.0169763 -0.715714 2.269 255 255 255
-0.684975 -0.440003 2.604 0 0 0
0.147344 -0.13718 2.42 0 0 0
-0.598078 -0.224445 1.291 255 255 255
-0.259749 0.178462 0.689 255 255 255
0.731544 0.0436393 1.893 0 0 0
-0.166859 -0.0587611 0.843 0 0 0
0.126944 0.361943 0.958 255 255 255
0.431385 -0.637049 1.848 255 255 255
0.218909 -0.0707599 0.823 0 0 0
0.203951 -0.332926 2.303 255 255 255
-0.183167 0.164023 0.714 255 255 255
-0.0937486 0.120854 0.852 255 255 255
0.735815 -0.619915 1.595 255 255 255
0.761159 0.451778 1.567 255 255 255
0.665262 -0.583263 1.7 255 255 255
0.499702 0.355783 1.571 0 0 0
-0.182318 -0.0535436 0.826 255 255 255
-0.104949 0.0819435 0.81 255 255 255
0.366154 -0.408809 2.114 255 255 255
0.182597 0.0638532 0.909 255 255 255
0.0850011 0.270026 1.036 255 255 255
0.706717 -0.0759513 2.044 255 255 255
-0.211952 0.0790482 0.821 255 255 255
-0.161574 0.18157 0.701 255 255 255
0.464853 0.496535 1.532 255 255 255
0.518307 -0.586978 1.805 255 255 255
0.565192 0.350501 1.494 255 255 255
-0.659644 -0.833871 2.269 0 0 0
0.565863 0.182867 1.779 255 255 255
-0.111798 0.204987 0.711 255 255 255
-0.119806 -0.0658094 0.902 255 255 255
-0.420455 -0.600408 2.294 255 255 255
-0.113359 0.0856009 0.795 255 255 255
0.263382 -0.738824 1.917 255 255 255
-0.0626489 0.27929 0.776 255 255 255
-0.195444 -0.0431726 0.808 0 0 0
-0.584694 -0.0827913 1.11 255 255 255
-0.18328 0.21069 0.66 255 255 255
0.1934 0.394461 1.096 255 255 255
-0.493412 -0.449511 2.286 255 255 255
0.065787 -0.578332 2.196 255 255 255
0.683105 0.396856 1.624 255 255 255
0.193131 0.0934762 0.924 255 255 255
0.343512 -0.280824 2.189 255 255 255
0.143747 0.219025 1.034 255 255 255
-0.0287659 0.132876 0.858 255 255 255
0.855759 0.198336 1.842 255 255 255
0.784961 -0.614928 1.616 255 255 255
-0.999096 -0.81451 2.53 255 255 255
-0.0951392 -0.0360078 0.891 255 255 255
-0.514733 -0.737034 2.128 255 255 255
0.209375 0.143535 0.957 255 255 255
-0.253201 0.123291 0.764 255 255 255
-0.122968 -0.417191 2.469 255 255 255
0.458511 -0.52092 1.978 255 255 255
0.707868 -0.581891 1.696 255 255 255
-0.426954 -0.586479 2.269 255 255 255
-0.0476743 0.237268 0.779 255 255 255
0.181593 0.0134844 0.904 255 255 255
-1.2172 -0.776734 2.684 255 255 255
-0.727178 -0.58219 2.42 255 255 255
-0.229878 0.169745 0.704 255 255 255
0.235521 0.298447 1.053 255 255 255
-0.476313 -0.0217693 0.967 0 0 0
0.103602 0.297408 0.904 255 255 255
-0.210965 0.106592 0.807 255 255 255
-0.694583 -0.683456 2.43 255 255 255
-0.308116 0.161948 0.71 0 0 0
-0.160429 -0.444873 2.489 255 255 255
0.406164 0.444867 1.616 255 255 255
-0.0123419 -0.0672208 0.882 255 255 255
-0.140336 0.226259 0.681 255 255 255
0.0632436 0.207253 0.986 0 0 0
-0.252628 0.146315 0.73 255 255 255
0.187064 0.0163902 0.902 255 255 255
0.258327 -0.0711054 2.32 255 255 255
-0.0852024 0.225469 0.721 255 255 255
-0.184096 -0.0276653 0.816 255 255 255
-0.284419 0.0391436 0.854 255 255 255
0.465432 0.269344 1.559 0 0 0
0.314103 -0.508365 2.044 255 255 255
-0.323773 0.20633 0.653 255 255 255
-0.383165 -0.0721881 1.012 255 255 255
-0.425854 -0.647736 2.303 255 255 255
-0.243495 0.19593 0.672 255 255 255
-0.116504 0.0850625 0.79 255 255 255
0.77159 0.466152 1.547 255 255 255
-1.02756 -0.934321 2.509 255 255 255
-0.507587 -0.15486 1.192 255 255 255
0.222992 0.00169466 0.893 255 255 255
0.0826678 -0.165394 2.489 0 0 0
0.24828 0.191065 0.969 255 255 255
-0.303505 -0.806396 2.204 255 255 255
-0.418504 -0.00272464 0.913 255 255 255
-0.149925 -0.0944921 0.856 255 255 255
0.232876 0.166548 0.964 255 255 255
0.657872 -0.184238 1.319 255 255 255
-0.258995 0.181298 0.687 255 255 255
-0.150275 -0.0737692 0.858 255 255 255
-0.828733 -0.901402 2.329 0 0 0
0.495114 0.255618 1.686 0 0 0
0.364201 -0.390005 2.143 255 255 255
-0.231579 0.22166 0.642 255 255 255
0.550679 0.138872 1.351 255 255 255
