ply
format ascii 1.0
comment Created by Open3D
element vertex 1308
property double x
property double y
property double z
property uchar red
property uchar green
property uchar blue
end_header
0.342703 0.238045 0.72 255 255 255
0.354956 0.0106503 0.714 255 255 255
0.283178 0.248994 1.149 255 255 255
0.363579 -0.280229 0.746 255 255 255
-0.915866 0.208804 2.064 255 255 255
0.350783 -0.0669745 0.794 255 255 255
-0.690442 0.581955 2.261 255 255 255
0.304711 -0.104135 1.167 255 255 255
0.252135 0.448864 1.378 255 255 255
-0.123964 0.555581 2.489 255 255 255
0.251524 0.159358 1.48 255 255 255
0.279488 0.199616 1.189 255 255 255
-0.513036 0.519401 2.55 255 255 255
0.147311 0.533262 2.085 255 255 255
0.357183 -0.200592 0.791 255 255 255
0.305798 -0.364184 1.31 255 255 255
0.104317 0.0306236 2.626 255 255 255
0.339756 -0.264479 0.992 255 255 255
0.319256 0.169758 0.898 255 255 255
0.340548 -0.144561 0.908 255 255 255
0.247109 0.532915 1.375 255 255 255
0.0836699 0.142972 2.649 255 255 255
0.346538 -0.295741 0.928 255 255 255
0.0739457 0.723855 1.941 255 255 255
0.257928 0.490774 1.316 255 255 255
0.334032 0.136491 0.813 255 255 255
0.300652 -0.407004 1.297 255 255 255
-0.0443636 0.544809 2.572 255 255 255
0.362858 -0.193643 0.709 255 255 255
0.342076 -0.0286734 0.807 255 255 255
0.286693 0.213744 1.171 255 255 255
0.35628 0.00135117 0.712 255 255 255
-0.901783 -0.0264909 2.078 255 255 255
-0.0351668 0.463581 2.844 255 255 255
0.237965 0.502705 1.456 255 255 255
-0.847689 0.580507 2.329 255 255 255
0.278948 0.0978624 1.275 255 255 255
0.295151 -0.0321313 1.247 255 255 255
0.332671 0.033439 0.887 255 255 255
0.323157 0.105365 0.873 255 255 255
-0.97492 0.254822 2.479 255 255 255
0.345084 -0.150542 0.85 255 255 255
0.35622 0.00707422 0.705 255 255 255
0.351492 0.00984716 0.741 255 255 255
0.255498 -0.153746 1.579 255 255 255
0.253717 0.492815 1.339 255 255 255
-0.227246 0.685848 1.923 255 255 255
0.32215 0.173122 0.878 255 255 255
0.297229 0.276411 1.041 255 255 255
-0.929991 0.457424 2.143 255 255 255
0.258825 0.440042 1.299 255 255 255
-0.907837 0.544568 1.837 255 255 255
-0.509733 0.608108 2.196 255 255 255
-0.112469 0.685951 1.941 255 255 255
-0.761808 0.682832 1.831 255 255 255
0.363284 -0.218377 0.738 255 255 255
0.13522 0.698688 1.959 255 255 255
0.359102 -0.0473789 0.713 255 255 255
-0.968535 0.366471 2.996 255 255 255
0.333716 0.133989 0.822 255 255 255
0.0012874 0.6955 1.959 255 255 255
-0.969649 0.225742 2.561 255 255 255
-0.699862 0.584883 2.244 255 255 255
0.357041 -0.0672364 0.74 255 255 255
0.322241 -0.0671135 1.062 255 255 255
0.360178 -0.216286 0.778 255 255 255
-0.980669 0.276281 2.731 255 255 255
0.304084 0.169929 1.053 255 255 255
0.202305 -0.127908 2.024 255 255 255
0.31056 0.248132 0.952 255 255 255
0.321369 -0.290751 1.132 255 255 255
0.325269 -0.167964 1.055 255 255 255
0.359153 -0.0261594 0.704 255 255 255
0.275057 -0.196693 1.477 255 255 255
0.341661 -0.238863 0.948 255 255 255
0.283385 0.105496 1.267 255 255 255
0.340846 -0.137551 0.882 255 255 255
0.279852 -0.480661 1.516 255 255 255
-0.910517 0.484522 2.037 255 255 255
-0.0593011 0.689124 1.959 255 255 255
0.306216 0.204473 1.037 255 255 255
0.212222 0.473161 1.729 255 255 255
0.316414 0.28896 0.874 255 255 255
0.155154 0.311498 2.196 255 255 255
0.317018 0.218767 0.939 255 255 255
-0.880302 0.534764 1.719 255 255 255
-0.976457 0.251827 2.707 255 255 255
-0.03304 0.518161 2.672 255 255 255
-0.21788 0.66539 2.173 255 255 255
0.226671 -0.262994 1.799 255 255 255
0.312012 0.242206 0.947 255 255 255
0.340353 -0.339314 1.013 255 255 255
0.342242 0.0208055 0.843 255 255 255
0.270272 0.159797 1.324 255 255 255
0.250883 0.413836 1.396 255 255 255
0.343813 0.0474175 0.784 255 255 255
0.300033 -0.314962 1.242 255 255 255
0.311084 0.268855 0.917 255 255 255
0.259811 0.384251 1.348 255 255 255
-0.0829938 0.7461 1.917 255 255 255
-0.184224 0.69583 1.899 255 255 255
0.302796 -0.519889 1.384 255 255 255
0.350548 -0.0147898 0.768 255 255 255
0.333365 -0.108584 0.942 255 255 255
-0.96203 -0.0199016 2.53 255 255 255
-0.50821 0.598784 2.269 255 255 255
0.335453 0.248294 0.751 255 255 255
-0.729624 0.496506 2.582 255 255 255
0.363785 -0.303278 0.797 255 255 255
-0.872677 0.562108 1.826 255 255 255
0.339427 0.131203 0.774 255 255 255
0.341177 -0.209497 0.934 255 255 255
0.361634 -0.208884 0.747 255 255 255
-0.889018 0.219925 1.899 255 255 255
0.350287 -0.229689 0.836 255 255 255
-0.918426 0.400051 2.479 255 255 255
0.193001 0.460014 1.87 255 255 255
0.341666 -0.250589 0.923 255 255 255
0.269251 0.182805 1.319 255 255 255
-0.424149 0.598739 2.356 255 255 255
-0.348453 0.696612 2.107 255 255 255
0.334509 -0.33514 1.041 255 255 255
0.332904 0.145672 0.82 255 255 255
0.202186 -0.209874 1.959 255 255 255
0.333474 -0.124508 0.983 255 255 255
-0.62394 0.498517 2.707 255 255 255
-0.905872 0.394133 1.935 255 255 255
0.327662 -0.381302 1.122 255 255 255
0.285183 0.290071 1.106 255 255 255
0.298328 -0.25754 1.278 255 255 255
-0.934237 0.232646 2.228 255 255 255
0.293915 -0.0205797 1.286 255 255 255
0.346687 -0.264611 0.875 255 255 255
-0.242279 0.598784 2.269 255 255 255
-0.867343 0.520286 2.383 255 255 255
0.320928 -0.24114 1.124 255 255 255
0.330561 -0.00702457 0.893 255 255 255
0.303305 -0.524242 1.366 255 255 255
-0.659367 0.505116 2.672 255 255 255
0.259496 0.390338 1.324 255 255 255
-0.271187 0.689833 2.017 255 255 255
0.323028 -0.262842 1.1 255 255 255
0.352164 0.0568271 0.725 255 255 255
-0.944441 0.368375 2.755 255 255 255
-0.226159 0.582213 2.499 255 255 255
-0.896042 0.259534 1.941 255 255 255
0.223153 0.255724 1.705 255 255 255
0.324008 0.0983938 0.887 255 255 255
-0.851871 -0.0559648 1.826 255 255 255
0.178211 0.496432 1.941 255 255 255
-0.220728 0.548264 2.53 255 255 255
-1.05303 -0.261866 2.561 255 255 255
0.329446 -0.228037 0.995 255 255 255
0.300551 0.341548 0.98 255 255 255
0.306081 0.108449 1.072 255 255 255
0.311053 -0.119011 1.128 255 255 255
0.31963 -0.383731 1.18 255 255 255
0.31941 -0.023874 0.989 255 255 255
0.360916 -0.0716443 0.712 255 255 255
0.294582 0.250879 1.062 255 255 255
0.29262 -0.542803 1.445 255 255 255
0.142006 0.514887 2.107 255 255 255
-0.823522 0.613806 1.753 255 255 255
0.289493 -0.300236 1.502 255 255 255
-0.428416 0.551116 2.469 255 255 255
0.357183 -0.19673 0.791 255 255 255
0.177477 0.605578 1.805 255 255 255
-0.480184 0.523561 2.53 255 255 255
0.239156 0.352579 1.524 255 255 255
-0.254189 0.690157 2.151 255 255 255
0.0415069 0.630101 2.236 255 255 255
0.305356 0.298647 0.96 255 255 255
0.321121 0.140254 0.887 255 255 255
-0.974951 0.0563065 2.844 255 255 255
0.35612 -0.147595 0.783 255 255 255
-0.887618 0.207437 1.87 255 255 255
0.346618 -0.0923947 0.837 255 255 255
0.342566 -0.332394 0.942 255 255 255
0.204453 0.453374 1.784 255 255 255
-0.484636 0.455268 2.793 255 255 255
0.308548 -0.171467 1.16 255 255 255
-0.888233 0.507779 2.024 255 255 255
0.339041 0.10376 0.776 255 255 255
0.318774 -0.268698 1.156 255 255 255
0.10874 -0.0857759 2.53 255 255 255
0.250098 -0.538185 1.799 255 255 255
0.36852 -0.265994 0.727 255 255 255
0.27861 0.144409 1.283 255 255 255
-0.866984 -0.0541272 1.677 255 255 255
-0.910565 0.279826 1.734 255 255 255
0.322289 0.0416 0.941 255 255 255
0.338202 -0.126875 0.93 255 255 255
-0.396051 0.607529 2.22 255 255 255
0.307209 -0.0423975 1.141 255 255 255
0.146816 0.5078 2.078 255 255 255
0.194239 0.395588 1.882 255 255 255
0.159885 0.119387 2.212 255 255 255
0.240032 -0.0239785 1.668 255 255 255
0.346857 0.190424 0.7 255 255 255
0.358612 -0.0454375 0.719 255 255 255
-0.287147 0.592765 2.303 255 255 255
-0.0308407 0.64619 2.204 255 255 255
0.357565 -0.242456 0.789 255 255 255
-0.909412 0.482584 2.057 255 255 255
0.278507 -0.19008 1.445 255 255 255
-0.631976 0.513306 2.561 255 255 255
-0.200186 0.648535 2.212 255 255 255
0.215177 0.173307 1.686 255 255 255
0.237643 0.147946 1.563 255 255 255
-0.735757 0.55153 2.489 255 255 255
0.350158 -0.232752 0.873 255 255 255
-0.67361 0.576409 2.44 255 255 255
-0.0458329 0.713101 1.929 255 255 255
0.0791649 0.700551 2.078 255 255 255
0.342848 0.166369 0.762 255 255 255
-0.956669 0.304825 2.831 255 255 255
0.239109 0.431317 1.463 255 255 255
-0.0997051 0.604009 2.303 255 255 255
0.293948 0.0608248 1.162 255 255 255
0.333999 0.285643 0.737 255 255 255
0.258322 -0.00948317 1.52 255 255 255
0.269981 -0.209288 1.516 255 255 255
0.301113 -0.197691 1.281 255 255 255
0.344715 -0.118557 0.839 255 255 255
-0.923476 0.469834 2.136 255 255 255
-0.519563 0.726353 1.882 255 255 255
0.13805 -0.269278 2.099 255 255 255
0.318025 -0.059959 1.089 255 255 255
-0.97931 0.274312 2.898 255 255 255
-0.949752 0.122853 2.347 255 255 255
-0.896681 0.414074 1.729 255 255 255
0.294318 -0.286697 1.297 255 255 255
0.326741 -0.179342 1.022 255 255 255
-0.227836 0.60463 2.236 255 255 255
0.341692 0.217166 0.713 255 255 255
0.345323 -0.351977 0.937 255 255 255
0.330068 -0.111119 0.992 255 255 255
0.249857 0.402212 1.403 255 255 255
0.315286 -0.266468 1.171 255 255 255
0.311607 0.20335 0.96 255 255 255
0.316162 0.176356 0.941 255 255 255
-0.749885 0.691771 1.831 255 255 255
0.296103 0.356716 1.043 255 255 255
-0.886715 -0.0253818 1.991 255 255 255
0.283323 0.350244 1.12 255 255 255
0.32639 0.00179144 0.944 255 255 255
0.0940834 0.695225 2.189 255 255 255
0.357761 -0.102021 0.739 255 255 255
0.348975 -0.123425 0.817 255 255 255
-0.169865 0.684903 1.947 255 255 255
0.326066 0.0601781 0.877 255 255 255
-0.916951 0.439108 2.303 255 255 255
0.250907 -0.296421 1.705 255 255 255
0.193874 0.592187 1.668 255 255 255
0.350547 0.0678175 0.729 255 255 255
0.2516 -0.280228 1.691 255 255 255
0.26675 0.223344 1.384 255 255 255
-0.961278 0.337074 2.831 255 255 255
0.0203581 0.702904 1.953 255 255 255
0.345739 -0.371171 0.955 255 255 255
0.34735 -0.201291 0.866 255 255 255
0.305131 0.0776946 1.081 255 255 255
0.342754 0.170709 0.708 255 255 255
0.348143 -0.15772 0.844 255 255 255
-0.975637 -0.225447 2.78 255 255 255
0.210261 0.0962865 1.784 255 255 255
0.191159 0.611187 1.668 255 255 255
-0.916843 -0.20838 2.519 255 255 255
0.111165 0.69181 1.985 255 255 255
0.335762 0.229008 0.76 255 255 255
0.307061 -0.124075 1.176 255 255 255
0.290107 -0.475854 1.456 255 255 255
0.322758 -0.341741 1.124 255 255 255
0.273665 -0.508304 1.595 255 255 255
-0.866145 0.236959 1.794 255 255 255
0.259477 0.513159 1.313 255 255 255
-0.226456 0.475483 2.805 255 255 255
-0.551438 0.667965 2.136 255 255 255
0.341487 0.178215 0.715 255 255 255
-0.960788 0.345243 2.582 255 255 255
-0.722919 0.454757 2.818 255 255 255
0.330011 -0.215316 1.027 255 255 255
-0.869274 -0.101484 1.959 255 255 255
0.323184 0.242818 0.847 255 255 255
0.353038 -0.00591543 0.752 255 255 255
-0.596554 0.687136 2.099 255 255 255
-0.944924 -0.0265011 2.383 255 255 255
-0.924057 0.449279 1.876 255 255 255
0.326609 -0.304135 1.094 255 255 255
0.0970072 0.0613209 2.66 255 255 255
-0.652393 0.430606 2.871 255 255 255
0.325908 0.291399 0.806 255 255 255
-0.416359 0.567188 2.469 255 255 255
0.347256 -0.087781 0.832 255 255 255
0.300382 -0.205643 1.305 255 255 255
-0.944014 0.484849 1.826 255 255 255
0.297949 -0.335104 1.313 255 255 255
0.268484 0.0275791 1.393 255 255 255
0.330262 -0.325732 1.06 255 255 255
-0.52745 0.620949 2.166 255 255 255
0.266607 0.388845 1.237 255 255 255
0.0851996 0.259944 2.844 255 255 255
-0.763681 0.596276 2.166 255 255 255
0.00440772 0.713101 1.929 255 255 255
-0.978669 0.274712 2.953 255 255 255
0.292529 0.0788423 1.149 255 255 255
0.331974 -0.0894547 0.889 255 255 255
0.281133 0.280588 1.196 255 255 255
-0.696989 0.679634 1.941 255 255 255
-0.0327158 0.605579 2.338 255 255 255
0.351517 0.0145716 0.736 255 255 255
0.278152 -0.0950361 1.396 255 255 255
0.357622 0.0321307 0.701 255 255 255
0.320792 -0.0609959 1.046 255 255 255
-0.603558 0.681988 1.966 255 255 255
0.0545248 0.58628 2.499 255 255 255
0.331992 -0.411861 1.106 255 255 255
0.267129 -0.0759795 1.422 255 255 255
0.215955 0.306547 1.65 255 255 255
-0.641045 0.511363 2.615 255 255 255
-0.950642 0.376864 2.312 255 255 255
0.153867 0.5243 2.037 255 255 255
0.271264 0.170637 1.308 255 255 255
0.220812 -0.26715 1.848 255 255 255
0.309261 0.0353439 1.077 255 255 255
0.311387 -0.463227 1.289 255 255 255
0.28833 -0.559934 1.459 255 255 255
-0.837876 0.588257 1.815 255 255 255
0.230257 0.0666974 1.696 255 255 255
0.361784 -0.190407 0.723 255 255 255
0.203109 0.588045 1.612 255 255 255
0.303467 0.272886 0.974 255 255 255
-0.909119 -0.289212 2.509 255 255 255
-0.934296 0.537058 1.842 255 255 255
0.357458 -0.0652291 0.731 255 255 255
0.264005 0.406376 1.273 255 255 255
0.337291 -0.387719 1.055 255 255 255
0.36182 -0.180405 0.755 255 255 255
0.329474 0.00614241 0.906 255 255 255
0.361312 -0.274728 0.775 255 255 255
0.264469 -0.50171 1.668 255 255 255
0.34173 0.03264 0.797 255 255 255
-0.653483 0.571206 2.469 255 255 255
0.358105 -0.201352 0.779 255 255 255
0.309817 -0.137632 1.194 255 255 255
0.0957673 -0.0762105 2.626 255 255 255
-0.296056 0.498493 2.731 255 255 255
0.318308 0.150531 0.952 255 255 255
0.355973 0.0115806 0.7 255 255 255
-0.937033 0.0374052 2.261 255 255 255
0.330268 0.113278 0.837 255 255 255
0.242355 0.189995 1.513 255 255 255
-0.637406 0.579242 2.469 255 255 255
-0.200229 0.612893 2.253 255 255 255
0.261299 -0.41947 1.583 255 255 255
0.349234 -0.214171 0.85 255 255 255
0.361799 -0.265997 0.768 255 255 255
-0.887412 0.522548 1.876 255 255 255
0.325495 -0.0134699 0.937 255 255 255
-0.206583 0.436605 2.911 255 255 255
0.296355 0.133292 1.135 255 255 255
-0.881459 -0.309304 2.411 255 255 255
0.255736 -0.448441 1.682 255 255 255
-0.926953 0.247372 2.136 255 255 255
0.200306 -0.276657 2.004 255 255 255
0.186145 -0.355475 2.064 255 255 255
0.36162 -0.113143 0.718 255 255 255
-0.878349 -0.0752081 2.024 255 255 255
0.352033 -0.0873169 0.791 255 255 255
0.353439 0.0621205 0.718 255 255 255
-0.744815 0.686165 1.848 255 255 255
0.309445 0.182532 1.009 255 255 255
0.307749 -0.339222 1.257 255 255 255
0.241259 0.376487 1.491 255 255 255
0.330725 -0.397026 1.12 255 255 255
0.360451 -0.114311 0.718 255 255 255
0.354845 -0.148869 0.783 255 255 255
-0.493561 0.431828 2.818 255 255 255
0.291703 0.253946 1.09 255 255 255
0.335074 -0.234885 0.983 255 255 255
0.344088 0.167278 0.718 255 255 255
-0.290896 0.592765 2.303 255 255 255
-0.948493 0.0240022 2.392 255 255 255
0.34953 -0.0157681 0.755 255 255 255
0.27883 -0.369992 1.459 255 255 255
0.200938 -0.0433988 2.078 255 255 255
0.280075 -0.0554245 1.429 255 255 255
-0.684377 0.553349 2.479 255 255 255
0.320999 0.208594 0.871 255 255 255
-0.0587563 0.692268 1.941 255 255 255
-0.863792 0.572258 1.714 255 255 255
0.287919 -0.010352 1.316 255 255 255
0.266086 -0.12548 1.612 255 255 255
0.3437 -0.0869136 0.85 255 255 255
0.270781 0.270193 1.316 255 255 255
0.337573 0.236702 0.753 255 255 255
-0.220186 0.654565 2.196 255 255 255
-0.0738615 0.604203 2.44 255 255 255
0.359122 -0.21238 0.773 255 255 255
-0.846778 0.662793 1.966 255 255 255
0.219303 0.331715 1.655 255 255 255
-0.777995 0.62737 2.128 255 255 255
-0.906683 0.46405 1.978 255 255 255
0.214283 -0.546118 1.953 255 255 255
0.114156 0.181472 2.469 255 255 255
0.0535109 0.69517 2.004 255 255 255
0.321473 0.149849 0.884 255 255 255
-0.901183 0.349258 1.966 255 255 255
-0.886746 0.451582 2.743 255 255 255
0.249266 0.45631 1.387 255 255 255
0.313841 0.233254 0.912 255 255 255
-0.781475 0.692472 2.064 255 255 255
0.353172 -0.0775811 0.771 255 255 255
0.330775 0.0170626 0.939 255 255 255
-0.913892 -0.239787 2.383 255 255 255
-0.780666 0.58163 2.204 255 255 255
-0.254878 0.700799 2.099 255 255 255
0.321451 0.197861 0.88 255 255 255
0.239271 -0.472302 1.899 255 255 255
-0.869229 0.578521 2.114 255 255 255
-0.968975 0.297334 2.604 255 255 255
-0.952103 -0.328921 2.411 255 255 255
-0.15119 0.693358 2.037 255 255 255
0.274279 0.11533 1.333 255 255 255
-0.843339 0.618431 1.616 255 255 255
0.342448 0.0255316 0.778 255 255 255
-0.810816 0.581328 2.411 255 255 255
-0.893653 -0.0834745 1.779 255 255 255
0.363131 -0.202787 0.721 255 255 255
0.29216 0.212023 1.112 255 255 255
-0.550185 0.681734 1.947 255 255 255
0.297875 0.363789 1.02 255 255 255
0.337922 0.110436 0.816 255 255 255
0.349282 -0.17946 0.824 255 255 255
0.346935 -0.126434 0.828 255 255 255
0.0549883 0.736489 1.941 255 255 255
0.268368 -0.411747 1.535 255 255 255
0.257928 0.473642 1.316 255 255 255
-0.958779 0.315334 2.479 255 255 255
0.152683 0.212977 2.212 255 255 255
0.241757 -0.0957472 1.739 255 255 255
-0.8522 0.182077 1.691 0 0 0
-0.583611 0.674845 2.114 255 255 255
0.296636 0.242818 1.057 255 255 255
0.350302 -0.0653515 0.79 255 255 255
0.331682 -0.209592 0.992 255 255 255
-0.969194 -0.00350363 2.582 255 255 255
-1.03056 -0.482752 2.857 255 255 255
0.331391 -0.148616 0.963 255 255 255
0.300929 0.221083 1.06 255 255 255
0.297671 0.0809288 1.126 255 255 255
-0.946175 -0.105058 2.499 255 255 255
0.283903 -0.536542 1.473 255 255 255
0.331004 0.103124 0.832 255 255 255
0.322351 -0.265231 1.11 255 255 255
0.233683 -0.294489 1.831 255 255 255
-0.930383 -0.145054 2.356 255 255 255
0.326717 0.174042 0.828 255 255 255
0.319412 -0.0334381 1.036 255 255 255
0.26661 0.397976 1.192 255 255 255
0.334605 0.275134 0.741 255 255 255
-0.963876 0.243908 2.411 0 0 0
-0.577411 0.493865 2.78 255 255 255
0.314509 0.138455 0.999 255 255 255
0.337315 0.231169 0.747 255 255 255
-0.465456 0.425934 2.871 255 255 255
0.259811 0.340379 1.348 255 255 255
0.341182 0.0267977 0.778 255 255 255
0.266795 0.250946 1.339 255 255 255
0.228833 0.20033 1.555 255 255 255
-0.931759 0.511685 1.837 255 255 255
-0.955259 0.403072 2.114 255 255 255
-0.0273285 0.696548 1.953 255 255 255
-0.893683 -0.00609985 2.044 255 255 255
0.235617 -0.513779 1.87 255 255 255
0.345276 -0.207382 0.886 255 255 255
-0.485623 0.693632 1.893 255 255 255
0.342397 0.135725 0.737 255 255 255
0.298924 0.303516 1.041 255 255 255
-0.434625 0.477994 2.793 255 255 255
0.14579 0.591363 2.017 255 255 255
0.356065 -0.326475 0.84 255 255 255
-0.0662635 0.645354 2.189 255 255 255
0.349147 -0.0351488 0.776 255 255 255
0.360613 -0.181573 0.716 255 255 255
-0.303151 0.511568 2.638 255 255 255
-0.911016 0.456847 2.459 255 255 255
0.32844 0.2869 0.79 255 255 255
-0.78526 0.541246 2.479 255 255 255
0.313179 -0.214993 1.192 255 255 255
0.318618 -0.173541 1.079 255 255 255
0.309445 0.194026 1.009 255 255 255
0.140768 0.320428 2.312 255 255 255
-0.352248 0.591319 2.312 255 255 255
-0.910353 0.50757 1.972 255 255 255
0.344353 0.115179 0.721 255 255 255
0.331066 -0.18108 0.995 255 255 255
0.0407644 0.676007 2.196 255 255 255
0.0446621 0.659334 2.212 255 255 255
0.188039 -0.321769 2.085 255 255 255
0.281603 0.286906 1.198 255 255 255
-0.889723 0.101601 1.941 255 255 255
0.00844378 0.692403 2.158 255 255 255
0.107681 0.110881 2.604 255 255 255
0.266701 0.301703 1.286 255 255 255
0.239573 0.279492 1.559 255 255 255
-0.509587 0.683983 2.121 255 255 255
0.208196 0.350137 1.719 255 255 255
0.32504 -0.204767 1.077 255 255 255
0.347922 0.0864415 0.726 255 255 255
0.310855 0.0656483 1.03 255 255 255
0.23355 0.506177 1.473 255 255 255
0.201606 -0.0355602 2.017 255 255 255
0.283859 0.13171 1.242 255 255 255
0.265764 0.365036 1.252 255 255 255
0.326002 0.278554 0.803 255 255 255
0.308635 -0.367154 1.313 255 255 255
0.320986 0.0100745 1.004 255 255 255
0.323012 0.282469 0.822 255 255 255
0.318441 0.117398 0.986 255 255 255
0.100073 0.441725 2.42 255 255 255
0.331479 0.0460635 0.88 255 255 255
0.328661 -0.281479 1.089 255 255 255
0.275522 0.191923 1.308 255 255 255
0.161041 0.0912446 2.228 255 255 255
0.327203 -0.279459 1.102 255 255 255
0.0466565 0.49839 2.755 255 255 255
-0.120533 0.631843 2.204 255 255 255
0.2982 0.126963 1.128 255 255 255
-0.758022 0.691653 2.092 255 255 255
-0.778426 0.527381 2.509 255 255 255
-0.880673 0.0383098 1.935 255 255 255
-0.921346 0.443307 2.286 255 255 255
0.342665 0.000221986 0.821 255 255 255
-0.358957 0.55153 2.489 255 255 255
-0.144494 0.704229 1.905 255 255 255
0.309039 -0.153774 1.169 255 255 255
0.302289 -0.250782 1.286 255 255 255
0.322912 0.126832 0.884 255 255 255
0.185832 0.234401 2.024 255 255 255
0.316938 0.204082 0.921 255 255 255
-0.812338 0.614307 1.633 255 255 255
-0.0841537 0.516485 2.78 255 255 255
0.281251 -0.401269 1.435 255 255 255
0.325967 0.24721 0.816 255 255 255
0.111447 0.0428977 2.593 255 255 255
-0.244526 0.589656 2.479 255 255 255
-0.365927 0.493907 2.755 255 255 255
-0.69516 0.687471 1.893 255 255 255
0.34987 0.136777 0.688 255 255 255
0.341843 0.138873 0.741 255 255 255
0.164205 0.20489 2.128 255 255 255
0.175253 0.0422892 2.136 255 255 255
0.279852 -0.433787 1.516 255 255 255
0.336068 -0.267307 1.015 255 255 255
0.286947 -0.328048 1.452 255 255 255
0.342146 -0.333363 0.958 255 255 255
0.307358 -0.0792085 1.192 255 255 255
-0.0021548 0.650881 2.22 255 255 255
0.338555 -0.0765617 0.858 255 255 255
-0.886563 0.0131594 1.941 255 255 255
0.297053 0.367826 0.995 255 255 255
0.315345 0.23119 0.887 255 255 255
0.314509 0.0571697 0.999 255 255 255
-0.86376 0.155012 1.826 0 0 0
0.282346 0.0608 1.281 255 255 255
0.144343 0.690192 1.953 255 255 255
0.335092 0.136627 0.806 255 255 255
0.258855 0.260504 1.39 255 255 255
0.356884 -0.0894698 0.725 255 255 255
-0.848969 0.128312 1.637 255 255 255
0.178211 0.445894 1.941 255 255 255
0.365595 -0.261032 0.733 255 255 255
0.320179 -0.0727718 1.044 255 255 255
0.0640322 0.374054 2.731 255 255 255
0.355405 -0.136733 0.765 255 255 255
0.246918 0.0480092 1.624 255 255 255
0.0574361 0.700658 2.151 255 255 255
0.323575 0.0769117 0.906 255 255 255
-0.998386 0.0552967 2.793 255 255 255
0.124326 0.596691 2.22 255 255 255
0.334878 -0.109635 0.925 255 255 255
0.332347 -0.106042 0.975 255 255 255
-0.940456 0.363265 2.143 255 255 255
0.350063 0.174941 0.684 255 255 255
0.332849 0.276877 0.759 255 255 255
0.361423 -0.0636229 0.713 255 255 255
0.317424 0.13998 0.954 255 255 255
-0.917244 0.447295 2.196 255 255 255
0.313661 -0.382597 1.232 255 255 255
0.325628 -0.234155 1.029 255 255 255
0.317133 -0.489466 1.27 255 255 255
0.333286 -0.407829 1.081 255 255 255
0.308578 0.336395 0.914 255 255 255
0.338029 0.0418927 0.826 255 255 255
-0.892734 0.432439 2.707 255 255 255
0.221761 -0.243835 1.831 255 255 255
0.330703 -0.142052 0.961 255 255 255
0.331579 0.048316 0.869 255 255 255
0.355625 -0.271003 0.817 255 255 255
0.314466 -0.228796 1.154 255 255 255
-0.834226 0.0632211 1.677 0 0 0
0.303633 -0.138003 1.232 255 255 255
0.317054 0.149474 0.917 255 255 255
0.221997 0.151268 1.655 255 255 255
0.345697 -0.181101 0.906 255 255 255
0.343049 0.188313 0.741 255 255 255
0.355847 0.0401733 0.702 255 255 255
0.340306 -0.0105173 0.825 255 255 255
0.363571 -0.261331 0.751 255 255 255
0.231641 -0.215122 1.815 255 255 255
0.343923 -0.174347 0.917 255 255 255
-0.218682 0.664291 2.181 255 255 255
0.26775 0.32763 1.281 255 255 255
-0.875477 0.479732 2.181 255 255 255
0.308497 0.100038 1.039 255 255 255
0.208101 -0.277265 1.985 255 255 255
-0.640277 0.60685 2.166 255 255 255
-0.311221 0.681868 2.158 255 255 255
0.295016 -0.255071 1.319 255 255 255
0.21728 0.304106 1.794 255 255 255
0.278152 -0.163189 1.396 255 255 255
0.319078 0.151295 0.91 255 255 255
0.352222 -0.0359266 0.74 255 255 255
0.294508 0.0797287 1.135 255 255 255
0.240847 -0.317077 1.774 255 255 255
0.273811 0.21993 1.31 255 255 255
0.283895 0.348294 1.108 255 255 255
-0.0759753 0.692589 1.978 255 255 255
0.0628923 0.640043 2.22 255 255 255
0.296976 0.0319112 1.213 255 255 255
0.333105 -0.0196532 0.873 255 255 255
0.214252 0.420775 1.769 255 255 255
0.161874 -0.299334 2.143 255 255 255
-0.227836 0.608269 2.236 255 255 255
0.307583 -0.0801952 1.178 255 255 255
-0.129099 0.627847 2.228 255 255 255
0.317784 0.270277 0.851 255 255 255
0.270383 -0.164588 1.491 255 255 255
0.254425 0.3497 1.403 255 255 255
0.330791 -0.419338 1.102 255 255 255
0.299129 0.336565 1.013 255 255 255
0.283065 -0.509138 1.52 255 255 255
0.234935 0.152031 1.579 255 255 255
0.201592 0.118868 1.865 255 255 255
-0.916108 0.238223 2.057 255 255 255
-0.438689 0.556887 2.459 255 255 255
-0.521989 0.622168 2.158 255 255 255
0.283845 -0.0601062 1.327 255 255 255
0.364793 -0.257665 0.751 255 255 255
0.247955 0.306676 1.459 255 255 255
-0.728948 0.690976 2.03 255 255 255
0.337607 -0.163596 0.941 255 255 255
0.27078 0.0401752 1.359 255 255 255
-0.40396 0.617497 2.204 255 255 255
0.322683 0.316831 0.835 255 255 255
-0.281977 0.575833 2.489 255 255 255
0.267161 0.376356 1.249 255 255 255
0.348926 -0.186155 0.836 255 255 255
0.322021 0.0983053 0.927 255 255 255
0.29759 0.105257 1.112 255 255 255
0.302165 -0.0238714 1.143 255 255 255
-0.890466 0.513389 1.876 255 255 255
0.322832 0.0785246 0.925 255 255 255
-0.823103 0.673912 1.815 0 0 0
-0.556245 0.600271 2.347 255 255 255
0.282433 -0.198678 1.406 255 255 255
0.272811 -0.60864 1.686 255 255 255
-0.913045 0.0527172 2.136 255 255 255
0.283954 0.135968 1.208 255 255 255
0.351952 0.0285902 0.727 255 255 255
0.296177 -0.137038 1.26 255 255 255
-0.817625 0.641393 1.705 255 255 255
0.181609 0.29667 1.978 255 255 255
0.278507 -0.110129 1.445 255 255 255
0.353787 -0.271324 0.822 255 255 255
0.349644 -0.278964 0.841 255 255 255
0.335074 -0.231686 0.983 255 255 255
0.134188 0.690661 1.991 255 255 255
-0.637378 0.418877 2.953 255 255 255
0.351013 -0.228326 0.841 255 255 255
-0.129395 0.697118 1.911 255 255 255
0.224568 0.562833 1.477 255 255 255
0.265042 0.376776 1.278 255 255 255
0.230814 0.41104 1.502 255 255 255
0.306419 0.143028 1.032 255 255 255
0.300041 0.238683 1.039 255 255 255
0.31411 -0.250257 1.203 255 255 255
0.312283 -0.264371 1.196 255 255 255
0.306081 0.0822812 1.072 255 255 255
0.224736 0.411691 1.696 255 255 255
-0.897413 0.426741 1.758 0 0 0
0.358945 -0.20213 0.749 255 255 255
-0.912083 -0.218384 2.54 255 255 255
0.255428 0.297977 1.396 255 255 255
0.316332 0.267668 0.898 255 255 255
0.281831 -0.0156026 1.403 255 255 255
0.34778 -0.0451222 0.796 255 255 255
0.343583 -0.0424794 0.82 255 255 255
0.266015 0.408994 1.225 255 255 255
-0.440406 0.620419 2.189 255 255 255
-0.3627 0.690898 1.911 255 255 255
0.146616 0.679634 1.941 255 255 255
0.308587 0.203839 1.017 255 255 255
0.232177 -0.414387 1.917 255 255 255
0.0225271 0.546647 2.561 255 255 255
-0.0861143 0.739861 1.917 255 255 255
0.306583 0.251669 0.984 255 255 255
0.139612 0.100321 2.356 255 255 255
0.270832 0.436135 1.185 255 255 255
-0.909343 0.421163 1.929 255 255 255
-0.187019 0.694279 2.03 255 255 255
0.325978 0.210338 0.833 255 255 255
0.265043 0.0541796 1.502 255 255 255
0.131815 -0.227059 2.499 255 255 255
0.227442 -0.198518 1.853 255 255 255
-0.910523 0.0418537 2.114 255 255 255
0.264337 -0.0142214 1.498 255 255 255
-1.23928 -0.366147 2.967 255 255 255
0.275692 0.111972 1.319 255 255 255
0.342372 0.169357 0.712 255 255 255
0.292814 -0.00746176 1.196 255 255 255
0.283538 -0.192479 1.378 255 255 255
0.328274 -0.0735601 0.945 255 255 255
0.197279 0.473925 1.853 255 255 255
0.268908 -0.570851 1.696 255 255 255
0.170182 0.620806 1.887 255 255 255
0.180624 0.547557 1.837 255 255 255
0.315655 0.282739 0.868 255 255 255
0.345943 -0.0500549 0.813 255 255 255
0.27531 0.242939 1.222 255 255 255
0.344516 0.217841 0.693 255 255 255
0.328673 -0.0989134 0.983 255 255 255
0.308669 -0.0913142 1.126 255 255 255
0.28889 0.044332 1.229 255 255 255
0.147845 -0.05709 2.365 255 255 255
-0.131176 0.468515 2.818 255 255 255
0.199708 -0.217023 1.966 255 255 255
0.308441 0.193199 1.022 255 255 255
-0.339997 0.579242 2.469 255 255 255
0.257673 -0.328221 1.642 255 255 255
0.354916 -0.0748415 0.756 255 255 255
0.265209 -0.240354 1.591 255 255 255
0.347039 0.124095 0.705 255 255 255
0.350561 0.0240876 0.734 255 255 255
0.237643 0.33108 1.563 255 255 255
0.329671 -0.0839259 0.958 255 255 255
0.353278 0.0714223 0.706 255 255 255
-0.947998 -0.0583742 2.593 255 255 255
-0.575186 0.649468 2.121 255 255 255
0.290612 0.0551402 1.203 255 255 255
0.319535 -0.405771 1.194 255 255 255
0.297114 -0.234355 1.348 255 255 255
0.349507 -0.041356 0.774 255 255 255
0.222294 0.179977 1.599 255 255 255
-0.0018607 0.733622 1.917 255 255 255
-0.219337 0.729415 1.882 255 255 255
-0.198209 0.50981 2.793 255 255 255
0.189284 0.100979 1.991 255 255 255
0.247318 -0.653793 1.779 255 255 255
0.303844 0.094219 1.089 255 255 255
0.34773 -0.0100711 0.79 255 255 255
-0.241461 0.583934 2.489 255 255 255
0.224346 0.495138 1.559 255 255 255
0.340061 -0.0380929 0.841 255 255 255
-0.102353 0.694266 1.929 255 255 255
-0.869669 -0.107077 2.004 255 255 255
0.349282 -0.153983 0.824 255 255 255
0.314509 0.055544 0.999 255 255 255
0.310716 0.337433 0.878 255 255 255
0.156284 0.302969 2.212 255 255 255
0.351276 0.104147 0.702 255 255 255
0.230221 0.567484 1.452 255 255 255
-0.910896 0.0722986 2.099 255 255 255
0.334023 0.181022 0.788 255 255 255
-0.830179 0.597601 1.691 255 255 255
0.134467 -0.28645 2.151 255 255 255
0.327662 -0.373998 1.122 255 255 255
-0.720471 0.421674 2.939 255 255 255
-0.743885 0.678244 1.876 255 255 255
-0.530122 0.708773 1.876 255 255 255
0.011128 0.468209 2.844 255 255 255
0.316101 -0.277178 1.16 255 255 255
0.263759 -0.139828 1.567 255 255 255
-0.933463 0.266611 2.151 255 255 255
0.269848 0.133653 1.412 255 255 255
0.349124 -0.105129 0.83 255 255 255
0.266002 0.0833376 1.416 255 255 255
0.332383 -0.103869 0.914 255 255 255
0.124746 -0.107122 2.365 255 255 255
0.25146 0.36573 1.412 255 255 255
0.345153 -0.163386 0.882 255 255 255
0.218509 0.180703 1.629 255 255 255
0.158263 -0.246432 2.051 255 255 255
-0.36155 0.573519 2.479 255 255 255
0.261551 0.0605231 1.539 255 255 255
0.360979 -0.228898 0.761 255 255 255
0.358612 -0.0466076 0.719 255 255 255
0.19085 0.341658 1.941 255 255 255
-0.909949 0.546418 1.794 255 255 255
-0.0269087 0.72653 1.923 255 255 255
0.318031 0.136687 0.942 255 255 255
-0.293755 0.594905 2.356 255 255 255
-0.905035 -0.293295 2.509 255 255 255
0.262413 0.0638467 1.559 255 255 255
0.314646 -0.0786079 1.102 255 255 255
0.359542 -0.31969 0.826 255 255 255
0.324506 0.127508 0.869 255 255 255
0.289665 -0.314056 1.442 255 255 255
-0.697599 0.427862 2.884 255 255 255
-0.718173 0.682529 1.905 255 255 255
-0.826659 0.0342596 1.599 255 255 255
-0.885244 0.194742 1.865 255 255 255
0.137663 0.339115 2.261 255 255 255
0.0163296 0.61228 2.278 255 255 255
-0.947998 -0.0625938 2.593 255 255 255
-0.471706 0.686559 1.899 255 255 255
-0.856025 0.502883 2.509 255 255 255
0.362831 -0.248218 0.752 255 255 255
0.31921 0.147029 0.902 255 255 255
0.341428 -0.0362877 0.831 255 255 255
0.35685 -0.23813 0.796 255 255 255
0.229123 0.483246 1.491 255 255 255
0.338202 -0.125362 0.93 255 255 255
-0.528594 0.574549 2.449 255 255 255
0.313915 -0.274558 1.173 255 255 255
0.215212 -0.407703 1.991 255 255 255
0.138232 0.681435 2.051 255 255 255
0.259423 0.432584 1.302 255 255 255
-0.288341 0.596262 2.44 255 255 255
-0.866351 0.556032 2.107 255 255 255
-0.861511 0.00344435 1.815 255 255 255
0.342661 -0.0649197 0.834 255 255 255
0.308145 0.344483 0.904 255 255 255
0.34008 -0.371562 1.053 255 255 255
0.278257 -0.227068 1.456 255 255 255
-0.809142 0.623691 1.616 255 255 255
0.28492 0.374886 1.112 255 255 255
0.218509 0.183354 1.629 255 255 255
0.288224 0.342055 1.077 255 255 255
0.341511 -0.0646295 0.848 255 255 255
-0.970149 0.267132 2.519 255 255 255
-0.205837 0.688891 2.158 255 255 255
0.151239 0.1978 2.244 255 255 255
0.304939 0.123686 1.068 255 255 255
0.331546 0.0390801 0.884 255 255 255
0.353093 -0.324336 0.856 255 255 255
0.334393 -0.30556 1.005 255 255 255
0.330775 -0.0914298 0.939 255 255 255
-0.964882 -0.425485 2.593 255 255 255
0.260838 -0.45601 1.612 255 255 255
-0.339997 0.587277 2.469 255 255 255
0.325791 0.227421 0.836 255 255 255
0.126213 -0.0354933 2.469 255 255 255
0.336759 -0.383441 1.048 255 255 255
0.10755 0.495012 2.411 255 255 255
0.347215 0.0282742 0.75 255 255 255
0.315687 -0.0486919 1.075 255 255 255
0.274191 0.322215 1.244 255 255 255
-0.831753 0.664286 1.821 0 0 0
0.341553 -0.194944 0.952 255 255 255
0.241636 0.00578812 1.642 255 255 255
0.306432 -0.200602 1.26 255 255 255
0.0382905 0.61139 2.261 255 255 255
0.314107 0.319525 0.9 255 255 255
0.145091 -0.131205 2.383 255 255 255
0.327406 -0.0813998 0.984 255 255 255
0.31304 0.139979 1.01 255 255 255
0.343494 0.0490131 0.769 255 255 255
0.290107 -0.279194 1.456 255 255 255
0.26343 0.182576 1.333 255 255 255
0.30752 0.255168 0.938 255 255 255
0.333484 -0.159088 0.96 255 255 255
0.255104 -0.143059 1.696 255 255 255
-0.944079 0.404685 2.278 255 255 255
-0.524621 0.682719 1.923 255 255 255
-0.592449 0.649468 2.121 255 255 255
0.350475 -0.216522 0.843 255 255 255
-0.450592 0.500768 2.672 255 255 255
0.0155769 0.686608 2.173 255 255 255
0.280707 0.181846 1.162 255 255 255
-0.876729 0.512932 2.099 255 255 255
0.345443 0.0313295 0.765 255 255 255
0.33261 -0.012478 0.868 255 255 255
0.295528 -0.542247 1.425 255 255 255
-0.570156 0.62737 2.128 255 255 255
0.204584 0.584762 1.603 255 255 255
0.239784 0.286367 1.528 255 255 255
-0.916843 -0.216579 2.519 255 255 255
0.341963 0.247648 0.704 255 255 255
-0.125912 0.704288 2.173 255 255 255
-0.969488 0.289753 2.911 255 255 255
0.303633 -0.314431 1.232 255 255 255
0.284889 0.136331 1.229 255 255 255
0.370535 -0.269609 0.724 255 255 255
0.186145 0.0442226 2.064 255 255 255
-0.920847 0.15882 2.114 255 255 255
0.346005 -0.0087744 0.789 255 255 255
-0.614834 0.609648 2.151 255 255 255
0.287242 -0.319939 1.396 255 255 255
-0.535058 0.689492 1.997 255 255 255
0.322517 0.104658 0.879 255 255 255
-0.884567 -0.0945943 1.826 255 255 255
0.330877 0.28827 0.763 255 255 255
-0.887427 0.41199 1.744 0 0 0
-0.200942 0.690898 1.911 255 255 255
0.319877 -0.331922 1.16 255 255 255
0.350257 -0.129216 0.82 255 255 255
-0.635843 0.606148 2.151 255 255 255
-0.354477 0.686828 1.917 255 255 255
-0.434686 0.584899 2.459 255 255 255
0.306081 0.0857702 1.072 255 255 255
0.364099 -0.211258 0.73 255 255 255
0.304381 -0.198551 1.26 255 255 255
-0.47946 0.699793 1.893 255 255 255
0.345376 -0.109707 0.834 255 255 255
-0.873373 0.601332 2.051 255 255 255
-0.666144 0.687439 2.01 255 255 255
0.129697 0.690488 1.972 255 255 255
0.323405 0.254688 0.823 255 255 255
-0.895643 0.253999 1.947 255 255 255
0.240847 -0.187168 1.774 255 255 255
0.341964 0.22041 0.716 255 255 255
0.168801 -0.289772 2.099 255 255 255
0.217632 -0.0396604 1.899 255 255 255
0.172874 -0.428028 2.107 255 255 255
0.356837 -0.20262 0.779 255 255 255
-0.0024062 0.605792 2.479 255 255 255
-0.852325 0.586215 1.935 255 255 255
0.152131 -0.325788 2.204 255 255 255
0.314991 0.236336 0.874 255 255 255
0.295018 0.0101305 1.205 255 255 255
-0.27127 0.435813 2.844 255 255 255
0.282685 0.412817 1.147 255 255 255
0.339945 -0.0337043 0.834 255 255 255
-0.165428 0.664291 2.181 255 255 255
0.160887 -0.274268 2.085 255 255 255
-0.246069 0.509576 2.719 255 255 255
0.239715 0.495863 1.384 255 255 255
0.361778 -0.186233 0.716 255 255 255
0.320928 -0.242969 1.124 255 255 255
-0.534147 0.411206 2.967 255 255 255
0.163356 0.47682 1.991 255 255 255
-0.892372 -0.107307 1.893 255 255 255
0.350589 -0.0144817 0.752 255 255 255
0.246759 0.343932 1.466 255 255 255
0.355405 -0.11059 0.765 255 255 255
0.278515 0.258275 1.21 255 255 255
0.34662 0.187732 0.686 255 255 255
-0.868559 0.217126 1.799 255 255 255
0.2056 -0.183901 2.024 255 255 255
0.118654 0.133797 2.479 255 255 255
0.158222 -0.216704 2.189 255 255 255
0.215897 -0.59346 1.911 255 255 255
-0.157239 0.687921 2.166 255 255 255
0.324744 0.320313 0.823 255 255 255
-0.0688012 0.60652 2.402 255 255 255
-0.489309 0.469211 2.768 255 255 255
0.314326 -0.24154 1.189 255 255 255
0.262837 0.307697 1.33 255 255 255
-0.629368 0.595313 2.469 255 255 255
-0.877111 0.57047 1.769 255 255 255
-0.0315314 0.569197 2.55 255 255 255
-0.289325 0.739094 1.899 255 255 255
-0.860819 0.300347 1.789 0 0 0
-0.357895 0.691078 2.143 255 255 255
-0.211375 0.715196 1.893 255 255 255
0.356447 -0.195874 0.798 255 255 255
-0.872341 0.531751 2.365 255 255 255
-0.942979 0.361316 2.638 255 255 255
0.323075 0.172559 0.854 255 255 255
-0.8829 0.504785 2.312 255 255 255
0.324895 0.260432 0.82 255 255 255
-0.481012 0.700646 1.887 255 255 255
-0.663854 0.613149 2.151 255 255 255
0.307749 -0.404679 1.257 255 255 255
0.350919 0.000204952 0.758 255 255 255
0.23863 -0.691428 1.779 255 255 255
0.342391 0.0193645 0.84 255 255 255
0.340014 0.113345 0.79 255 255 255
0.26357 0.125639 1.48 255 255 255
0.160405 0.655632 1.917 255 255 255
0.312324 -0.212997 1.16 255 255 255
-0.903977 -0.388467 2.44 255 255 255
0.321749 -0.0264902 0.967 255 255 255
0.349793 -0.179167 0.848 255 255 255
0.101272 0.510784 2.449 255 255 255
-0.500919 0.652717 2.143 255 255 255
0.340161 -0.0249788 0.815 255 255 255
-0.179032 0.525918 2.582 255 255 255
-0.813579 0.572372 2.196 255 255 255
0.116787 -0.0986073 2.44 255 255 255
0.251524 0.1714 1.48 255 255 255
0.334001 -0.341631 1.072 255 255 255
0.344161 -0.374952 0.977 255 255 255
0.288738 -0.0870496 1.31 255 255 255
0.19144 0.314199 1.947 255 255 255
-0.848467 0.0738353 1.734 0 0 0
0.203528 -0.570685 1.972 255 255 255
0.240872 0.45658 1.445 255 255 255
0.334014 0.055559 0.85 255 255 255
0.28118 0.227332 1.213 255 255 255
0.343906 0.20873 0.708 255 255 255
0.253775 0.204452 1.425 255 255 255
0.357028 -0.110123 0.745 255 255 255
0.309075 0.203671 0.992 255 255 255
-0.910693 0.215275 2.03 255 255 255
0.319208 -0.186177 1.081 255 255 255
0.360953 -0.172973 0.719 255 255 255
0.324234 -0.244937 1.092 255 255 255
-0.0816932 0.525809 2.561 255 255 255
-0.896377 0.263895 1.882 255 255 255
0.337701 -0.335022 1.01 255 255 255
0.281699 0.346276 1.143 255 255 255
0.237289 -0.212549 1.769 255 255 255
0.349966 -0.0109829 0.764 255 255 255
0.340133 -0.102168 0.862 255 255 255
0.357507 -0.101773 0.746 255 255 255
-0.901411 0.0763027 2.024 255 255 255
0.217631 0.472591 1.603 255 255 255
0.317837 0.303183 0.874 255 255 255
0.359082 -0.209216 0.757 255 255 255
-0.50277 0.6139 2.166 255 255 255
0.35127 0.0506402 0.738 255 255 255
0.358254 -0.140992 0.723 255 255 255
0.308685 0.260252 0.951 255 255 255
0.112258 0.62955 2.196 255 255 255
0.337055 -0.378877 1.013 255 255 255
0.188714 0.17174 1.985 255 255 255
0.311947 -0.199387 1.18 255 255 255
-0.828258 0.657684 1.923 255 255 255
0.334143 0.0357115 0.872 255 255 255
0.332327 0.223897 0.781 255 255 255
0.300272 -0.0460384 1.187 255 255 255
0.215658 0.367301 1.734 255 255 255
-0.226782 0.715196 1.893 255 255 255
0.365287 -0.236205 0.73 255 255 255
0.278076 0.117603 1.31 255 255 255
0.260953 0.15026 1.439 255 255 255
0.356548 -0.0809179 0.744 255 255 255
0.224206 0.532232 1.459 255 255 255
-0.834881 0.0218737 1.646 255 255 255
0.0783367 0.690488 1.972 0 0 0
-0.26404 0.606737 2.204 255 255 255
-0.599354 0.642564 2.121 255 255 255
-0.431321 0.443034 2.831 255 255 255
0.306952 0.0190914 1.154 255 255 255
0.323211 0.194332 0.877 255 255 255
-0.868517 0.150292 1.805 255 255 255
0.13939 -0.181596 2.489 255 255 255
0.330583 -0.0041735 0.905 255 255 255
0.262911 -0.102798 1.547 255 255 255
0.0208672 0.441342 2.911 255 255 255
0.324261 -0.0806095 0.994 255 255 255
0.314725 -0.175915 1.128 255 255 255
0.350767 -0.265503 0.864 255 255 255
0.303438 0.117499 1.075 255 255 255
-0.903384 -0.115266 1.923 255 255 255
-0.516873 0.6139 2.166 255 255 255
0.190147 -0.33983 2.071 255 255 255
0.313432 0.0335389 1.022 255 255 255
0.341843 0.11958 0.741 255 255 255
-0.873312 0.639315 2.099 255 255 255
-0.428416 0.595313 2.469 255 255 255
0.320025 0.235923 0.857 255 255 255
0.122982 0.611682 2.196 255 255 255
-0.86563 0.290315 1.799 0 0 0
-0.845667 0.589715 1.7 255 255 255
0.291383 -0.199716 1.322 255 255 255
-0.960174 0.168027 2.392 255 255 255
0.347676 -0.328694 0.923 255 255 255
-0.232945 0.709035 1.893 255 255 255
0.178454 0.0992924 2.092 255 255 255
0.0138278 0.722519 1.929 255 255 255
0.319098 -0.221019 1.124 255 255 255
0.34507 0.208948 0.701 255 255 255
0.328517 0.291405 0.778 255 255 255
0.31917 0.289665 0.851 255 255 255
-0.0918256 0.704693 2.121 255 255 255
0.194891 0.390754 1.859 255 255 255
0.151096 -0.320008 2.189 255 255 255
0.310601 -0.388808 1.252 255 255 255
0.266091 0.455826 1.244 255 255 255
0.32585 -0.0785946 0.989 255 255 255
0.305233 0.0288513 1.169 255 255 255
0.286204 0.220988 1.169 255 255 255
0.342015 0.121274 0.744 255 255 255
0.264022 0.328652 1.336 255 255 255
-0.224954 0.668927 2.173 255 255 255
-0.694443 0.494112 2.707 255 255 255
0.356334 -0.15082 0.767 255 255 255
0.309226 0.0911043 1.053 255 255 255
0.293877 -0.269607 1.406 255 255 255
0.358361 -0.0697002 0.728 255 255 255
-0.295278 0.67956 1.959 255 255 255
0.222135 0.0320355 1.763 255 255 255
0.174752 -0.338886 2.173 255 255 255
0.289824 0.223456 1.124 255 255 255
-0.582604 0.434401 2.805 255 255 255
0.28962 -0.396246 1.354 255 255 255
-0.504517 0.595091 2.269 255 255 255
-0.910319 0.200128 2.044 255 255 255
0.306068 -0.123304 1.187 255 255 255
0.299885 -0.185222 1.267 255 255 255
0.0983656 0.198181 2.582 255 255 255
0.277491 0.369808 1.141 255 255 255
0.3184 -0.116459 1.055 255 255 255
0.318502 0.190641 0.9 255 255 255
0.301591 0.249296 1.027 255 255 255
0.330068 -0.157721 1.022 255 255 255
-0.327533 0.644173 2.173 255 255 255
0.321098 -0.0452395 1.036 255 255 255
0.311233 -0.0838304 1.149 255 255 255
0.265128 0.374324 1.249 255 255 255
-0.757169 0.491922 2.695 255 255 255
-0.143598 0.686608 2.173 255 255 255
-0.886154 0.464376 2.244 255 255 255
0.354656 -0.157844 0.777 255 255 255
0.336676 -0.124571 0.947 255 255 255
-0.869895 0.615405 2.099 0 0 0
-0.902255 -0.352247 2.383 255 255 255
0.283178 0.187291 1.149 255 255 255
-0.375718 0.59159 2.228 255 255 255
0.228961 -0.142567 1.794 255 255 255
0.242039 0.420985 1.452 255 255 255
0.327181 0.0933211 0.88 255 255 255
0.258864 0.267225 1.378 255 255 255
0.168773 0.407553 2.017 255 255 255
0.34082 -0.0412955 0.823 255 255 255
0.213914 0.269268 1.815 255 255 255
0.334664 0.0691925 0.831 255 255 255
-0.153372 0.432696 2.982 255 255 255
0.337346 0.219771 0.758 255 255 255
0.071962 0.386666 2.695 255 255 255
0.362214 -0.175429 0.71 255 255 255
0.308893 -0.233174 1.237 255 255 255
0.316938 0.202583 0.921 255 255 255
-0.432884 0.682529 1.905 255 255 255
-0.884602 -0.0151268 1.923 255 255 255
0.363522 -0.278858 0.769 255 255 255
0.25721 -0.647914 1.71 255 255 255
0.281432 0.43067 1.165 255 255 255
-0.0537211 0.604031 2.261 255 255 255
-0.935064 -0.406102 2.604 255 255 255
0.305584 -0.168733 1.208 255 255 255
-0.515235 0.613294 2.189 255 255 255
0.199709 0.31856 1.935 255 255 255
-0.875379 0.204274 1.789 255 255 255
0.185189 0.0891681 2.017 255 255 255
-0.873805 0.623566 2.092 255 255 255
-0.940729 0.399352 2.402 255 255 255
0.343893 -0.0828602 0.837 255 255 255
0.302401 -0.15142 1.227 255 255 255
0.292814 0.304624 1.081 255 255 255
-0.509792 0.644652 2.151 255 255 255
0.285027 0.301998 1.196 255 255 255
0.271399 0.337031 1.196 255 255 255
-0.119954 0.439603 2.996 255 255 255
0.0228911 0.672433 2.196 255 255 255
0.349474 0.0609827 0.747 255 255 255
0.344133 -0.0687431 0.831 255 255 255
0.310548 0.122865 1.018 255 255 255
-0.892361 -0.378966 2.43 255 255 255
0.255022 -0.350981 1.714 255 255 255
0.160311 -0.0141561 2.269 255 255 255
-0.129395 0.725106 1.911 255 255 255
-0.945807 -0.249253 2.695 255 255 255
0.325967 0.249866 0.816 255 255 255
0.33661 -0.28563 0.96 255 255 255
0.251646 -0.0532624 1.571 255 255 255
0.32299 -0.275074 1.106 255 255 255
0.349585 0.0877436 0.727 255 255 255
0.242478 -0.0893103 1.724 255 255 255
0.308993 0.0420791 1.07 255 255 255
-0.958779 0.0974898 2.479 255 255 255
-1.01687 -0.0986931 2.911 255 255 255
0.348321 -0.292644 0.909 255 255 255
0.295967 -0.488128 1.416 255 255 255
-0.90616 0.49302 1.991 255 255 255
-0.516492 0.690886 2.121 255 255 255
0.312334 -0.0693257 1.126 255 255 255
0.124827 0.617425 2.166 255 255 255
0.290914 0.104586 1.165 255 255 255
0.306475 -0.349141 1.286 255 255 255
-0.266656 0.62955 2.196 255 255 255
0.0588513 0.65695 2.204 255 255 255
0.0642677 0.746808 1.935 255 255 255
0.325579 -0.317504 1.073 255 255 255
0.201011 0.592489 1.575 255 255 255
-0.253824 0.690898 1.911 255 255 255
-0.0521129 0.706823 1.929 255 255 255
0.261959 -0.438608 1.587 255 255 255
0.308141 0.236853 0.989 255 255 255
-0.257433 0.698462 2.092 255 255 255
0.280213 0.144099 1.262 255 255 255
0.315066 -0.441932 1.27 255 255 255
0.336347 0.262435 0.753 255 255 255
-0.129696 0.604009 2.303 255 255 255
0.164423 0.502762 2.004 255 255 255
0.107837 0.221159 2.509 255 255 255
-0.920762 0.509651 1.748 255 255 255
-0.884642 0.478348 2.143 255 255 255
0.18673 0.62813 1.677 255 255 255
-0.048831 0.47989 2.831 255 255 255
0.354065 0.0516706 0.703 255 255 255
0.334404 0.0455526 0.844 255 255 255
-0.596263 0.594541 2.212 255 255 255
0.24904 0.156003 1.494 255 255 255
0.35333 -0.255394 0.84 255 255 255
0.354317 -0.209907 0.802 255 255 255
0.201473 0.55834 1.758 255 255 255
0.239971 -0.180016 1.789 255 255 255
-0.155521 0.688387 1.966 255 255 255
0.322278 -0.103542 1.029 255 255 255
-0.739808 0.543429 2.489 255 255 255
0.169122 0.665952 1.842 255 255 255
0.307712 0.291828 0.948 255 255 255
-0.307708 0.681868 2.158 255 255 255
0.269819 -0.466507 1.603 255 255 255
-0.361162 0.590491 2.449 255 255 255
0.327706 -0.0579028 0.966 255 255 255
0.254286 0.474264 1.342 255 255 255
0.255428 0.434282 1.396 255 255 255
-0.919387 0.381575 2.572 255 255 255
0.318856 0.149798 0.901 255 255 255
-0.495117 0.596452 2.347 255 255 255
0.322897 0.0807961 0.9 255 255 255
-0.283623 0.627543 2.189 255 255 255
0.248921 -0.179234 1.673 255 255 255
0.292238 0.421454 1.092 255 255 255
0.286117 0.354727 1.089 255 255 255
0.188077 0.566854 1.794 255 255 255
0.255633 -0.285859 1.629 255 255 255
0.258741 -0.633433 1.739 255 255 255
0.322957 0.0436355 0.952 255 255 255
0.0392023 0.538311 2.561 255 255 255
0.224922 0.435364 1.563 255 255 255
0.315231 0.0676575 0.986 255 255 255
0.297671 0.148727 1.126 255 255 255
0.343277 0.219528 0.702 255 255 255
0.0992222 0.739648 1.941 255 255 255
-0.904249 -0.107763 1.848 255 255 255
0.0721724 0.690144 2.173 255 255 255
0.222926 0.430648 1.642 255 255 255
0.344184 -0.315224 0.955 255 255 255
0.35297 -0.296815 0.849 255 255 255
0.336949 0.14562 0.777 255 255 255
-0.831753 0.66725 1.821 0 0 0
-0.393707 0.477994 2.793 255 255 255
-0.281096 0.5155 2.593 255 255 255
0.293661 -0.00542324 1.176 255 255 255
0.320513 -0.0688418 1.062 255 255 255
-0.135581 0.70645 2.158 255 255 255
-0.434611 0.702011 1.899 255 255 255
0.295998 0.370576 1.025 255 255 255
0.29576 -0.280066 1.267 255 255 255
0.321677 0.254782 0.869 255 255 255
0.309771 0.245689 0.931 255 255 255
0.331509 -0.272174 1.053 255 255 255
0.230257 0.0749772 1.696 255 255 255
-0.241211 0.700799 2.099 255 255 255
0.247161 0.128477 1.543 255 255 255
0.340851 0.0641665 0.786 255 255 255
-0.862641 -0.0788198 1.805 255 255 255
0.332764 0.286855 0.756 255 255 255
-0.819294 0.667416 1.744 255 255 255
0.25439 -0.372166 1.748 255 255 255
-0.232093 0.473101 2.818 255 255 255
0.325002 0.227412 0.841 255 255 255
-0.49637 0.703716 1.887 255 255 255
-0.242646 0.599251 2.42 255 255 255
0.311782 0.240134 0.951 255 255 255
-0.925869 0.226172 2.166 0 0 0
0.194095 -0.0544712 2.114 255 255 255
0.324898 -0.139111 1.032 255 255 255
-0.052747 0.629205 2.22 255 255 255
0.331684 -0.0168118 0.873 255 255 255
0.338188 -0.187387 0.969 255 255 255
-0.994083 0.0359734 2.707 255 255 255
0.262542 -0.312265 1.575 255 255 255
0.242355 0.315564 1.513 255 255 255
-0.844871 0.33343 1.624 0 0 0
-0.920819 0.440148 2.196 255 255 255
0.357087 -0.0148074 0.709 255 255 255
-0.314538 0.632348 2.181 255 255 255
0.35608 0.0358573 0.707 255 255 255
0.288261 0.271581 1.104 255 255 255
-0.0780431 0.621979 2.22 255 255 255
-0.731367 0.680379 1.899 255 255 255
0.261107 0.197709 1.378 255 255 255
-0.960839 0.346509 2.871 255 255 255
0.346394 0.0787927 0.743 255 255 255
0.190023 -0.188013 2.107 255 255 255
0.0882182 0.0325711 2.793 255 255 255
0.0963846 0.387695 2.53 255 255 255
0.342754 0.2191 0.708 255 255 255
-0.0470971 0.707018 2.128 255 255 255
-0.911931 0.173023 2.078 0 0 0
0.3182 0.247997 0.875 255 255 255
-0.483316 0.590089 2.383 255 255 255
-0.43824 0.615255 2.196 255 255 255
-0.715137 0.425223 2.898 255 255 255
0.269941 0.289911 1.262 255 255 255
0.155907 -0.237917 2.064 255 255 255
0.200898 0.411685 1.831 255 255 255
0.311931 0.233275 0.961 255 255 255
0.285459 0.0511511 1.249 255 255 255
0.152683 0.266972 2.212 255 255 255
