ply
format ascii 1.0
comment Created by Open3D
element vertex 1310
property double x
property double y
property double z
property uchar red
property uchar green
property uchar blue
end_header
0.251439 -0.105065 1.222 255 255 255
0.184741 0.0791335 1.612 255 255 255
-0.865429 0.450792 2.561 255 255 255
0.318735 -0.0189387 0.735 255 255 255
0.335508 -0.230738 0.743 255 255 255
-0.921011 -0.114384 1.81 255 255 255
0.238456 -0.22991 1.459 255 255 255
0.267373 0.0835961 1.024 255 255 255
0.283673 -0.131854 1.041 255 255 255
-0.921405 0.529207 1.805 255 255 255
0.213164 0.399387 1.208 255 255 255
-0.552896 0.59022 1.991 255 255 255
-1.01343 0.394149 2.085 255 255 255
0.327419 0.0149383 0.648 255 255 255
0.18703 0.258512 1.429 255 255 255
0.303237 0.0386831 0.788 255 255 255
0.100483 0.440724 1.905 255 255 255
-0.784661 0.406926 2.684 255 255 255
0.310164 -0.0601169 0.806 255 255 255
0.336456 -0.242157 0.756 255 255 255
0.316052 -0.225649 0.873 255 255 255
-0.817871 0.553002 1.997 255 255 255
-0.764 0.508321 2.294 255 255 255
-0.941159 0.532114 2.121 255 255 255
0.327841 -0.0312501 0.666 255 255 255
-0.446643 0.593078 2.22 0 0 0
-0.51229 -0.86696 2.898 255 255 255
0.316044 -0.335451 0.964 255 255 255
-0.935241 -0.055286 1.905 255 255 255
-0.719103 -0.976716 2.768 255 255 255
-0.18877 0.498519 2.66 255 255 255
-1.02756 0.299926 2.519 255 255 255
0.281809 -0.129817 1.066 255 255 255
0.311715 -0.229784 0.889 255 255 255
0.239063 0.344124 1.046 255 255 255
-0.435802 0.593078 2.22 255 255 255
-0.783741 0.640902 1.929 255 255 255
0.293667 -0.0797876 0.928 255 255 255
0.278099 0.0842693 0.974 255 255 255
-0.088492 0.649173 2.044 255 255 255
-0.0943944 0.689495 1.779 255 255 255
0.27577 0.279452 0.837 255 255 255
-0.171664 -0.94869 2.805 255 255 255
0.210567 0.280595 1.239 255 255 255
0.19574 0.330866 1.345 255 255 255
0.312826 0.150869 0.671 255 255 255
0.324134 0.0458001 0.652 255 255 255
0.181484 0.460883 1.422 255 255 255
0.307373 -0.132856 0.889 255 255 255
-0.341798 0.48581 2.638 255 255 255
-0.78703 0.478176 2.329 255 255 255
0.204326 -0.0412283 1.505 255 255 255
0.284616 0.00941223 0.938 255 255 255
-0.830599 0.662127 1.865 255 255 255
0.0588968 0.685188 1.966 255 255 255
-0.35814 0.508799 2.402 255 255 255
0.0520511 0.423283 2.22 255 255 255
0.246393 0.273023 1.041 255 255 255
0.307298 -0.237352 0.942 255 255 255
-0.947729 -0.335331 2.128 255 255 255
0.300214 0.0663615 0.797 255 255 255
0.288011 0.162893 0.833 255 255 255
0.0171468 0.471648 2.392 255 255 255
0.320841 -0.138853 0.784 255 255 255
0.199902 -0.334418 1.673 255 255 255
0.213884 0.408799 1.201 255 255 255
-0.761792 0.579929 1.978 255 255 255
0.315715 0.0198897 0.712 255 255 255
-0.112736 0.513449 2.604 255 255 255
0.276416 -0.142759 1.072 255 255 255
-0.914583 -0.148289 1.758 255 255 255
-1.07414 -0.875037 2.925 255 255 255
-0.826637 0.392793 2.707 255 255 255
0.321436 -0.345967 0.921 255 255 255
-0.518498 0.650869 1.959 255 255 255
0.165174 0.0180518 1.799 255 255 255
-0.884123 -0.296567 1.882 255 255 255
0.218284 0.427739 1.152 255 255 255
-0.893484 0.654224 1.826 255 255 255
0.174319 -0.294687 1.744 255 255 255
0.266338 -0.00331254 1.11 255 255 255
0.243724 0.161644 1.114 255 255 255
-0.896377 -0.31188 1.882 255 255 255
0.297783 0.0880188 0.83 255 255 255
0.234577 0.197348 1.187 255 255 255
-0.741781 -1.0258 2.719 255 255 255
-0.918065 -0.161511 1.81 0 0 0
0.161775 0.237312 1.673 255 255 255
0.307704 0.203155 0.667 255 255 255
-0.89025 -0.305754 1.882 255 255 255
0.307487 0.171214 0.696 255 255 255
0.320654 0.0935912 0.645 255 255 255
0.271383 0.209967 0.914 255 255 255
-0.135692 0.69517 2.004 255 255 255
0.254231 -0.267843 1.308 255 255 255
0.263073 0.277803 0.932 255 255 255
-0.253277 0.610323 2.204 255 255 255
0.314787 0.195837 0.623 255 255 255
0.34377 -0.218937 0.687 255 255 255
0.266818 -0.0123665 1.112 255 255 255
0.288325 0.165008 0.83 255 255 255
-0.144737 0.608723 2.365 255 255 255
0.322248 -0.0226256 0.701 255 255 255
0.123729 0.138643 1.929 255 255 255
-0.827841 -1.07076 2.755 255 255 255
-0.489035 0.498896 2.392 255 255 255
0.27645 0.162727 0.916 255 255 255
-0.94073 -0.0682596 1.837 0 0 0
0.267161 -0.337063 1.249 255 255 255
0.306593 0.0710184 0.777 255 255 255
0.305378 0.128973 0.726 255 255 255
0.291634 -0.286907 1.11 255 255 255
0.193091 -0.078456 1.616 255 255 255
0.31488 -0.0997771 0.798 255 255 255
0.307586 0.00916609 0.786 255 255 255
0.288453 0.00324656 0.921 255 255 255
-0.949027 0.15195 2.996 255 255 255
0.192464 0.0270158 1.633 255 255 255
0.340343 -0.288218 0.751 255 255 255
-0.54128 0.502925 2.489 255 255 255
0.29833 0.238876 0.712 255 255 255
0.326419 -0.0391866 0.672 255 255 255
-0.812956 0.552909 1.985 255 255 255
-0.0898452 0.6214 2.244 255 255 255
0.312378 -0.394656 1.024 255 255 255
0.256036 0.354395 0.934 255 255 255
0.32055 -0.206779 0.826 255 255 255
-0.259858 0.692477 1.865 0 0 0
-1.1114 0.142264 2.898 0 0 0
-1.02667 0.177209 2.411 255 255 255
0.112565 0.154277 2.01 255 255 255
0.307397 -0.39782 1.041 255 255 255
0.326408 -0.213047 0.804 255 255 255
0.301001 -0.243493 0.992 255 255 255
-0.818888 0.64376 1.668 255 255 255
-0.266641 -0.920227 2.844 255 255 255
0.295947 0.00862955 0.86 255 255 255
-0.520296 0.581645 2.151 255 255 255
-0.970655 0.0330377 1.997 255 255 255
0.218663 0.419092 1.154 255 255 255
-0.937787 0.454778 2.365 255 255 255
-0.765106 0.49143 2.32 255 255 255
0.337157 -0.139001 0.663 255 255 255
0.21735 -0.0395846 1.445 255 255 255
-0.416835 -1.02127 2.707 255 255 255
0.125268 0.251604 1.953 255 255 255
0.289406 0.236739 0.765 255 255 255
0.313473 -0.17932 0.862 255 255 255
0.168959 0.173461 1.587 255 255 255
0.296253 0.0809738 0.841 255 255 255
0.205412 0.0373413 1.513 255 255 255
-0.926587 0.415985 2.604 255 255 255
0.310872 -0.209015 0.912 255 255 255
-0.18922 0.514466 2.392 255 255 255
0.29785 0.119867 0.774 255 255 255
0.257263 0.142034 1.037 255 255 255
0.323955 -0.273666 0.821 255 255 255
-0.453092 0.512426 2.347 255 255 255
0.30616 -0.369171 1.009 255 255 255
0.196466 0.101826 1.52 255 255 255
-0.900779 -0.177839 2.03 255 255 255
-0.983864 0.0470012 2.374 255 255 255
0.295409 -0.0989912 0.924 255 255 255
0.334475 -0.143404 0.684 255 255 255
-0.675587 0.382546 2.793 0 0 0
0.285683 -0.153138 1.036 255 255 255
0.333203 -0.195814 0.73 255 255 255
-0.841735 0.161701 2.996 255 255 255
-0.31321 -0.944126 2.805 255 255 255
-0.837177 0.557215 1.966 255 255 255
0.308566 -0.00487884 0.782 255 255 255
0.226574 -0.171697 1.429 255 255 255
-1.06607 -0.842647 2.996 255 255 255
0.0592661 0.480582 2.092 255 255 255
0.273703 -0.0147925 1.029 255 255 255
-1.018 0.298642 2.261 255 255 255
-0.31809 -0.954194 2.768 255 255 255
-0.892109 0.624753 1.899 255 255 255
0.271751 0.285175 0.85 255 255 255
-0.475212 -1.01729 2.818 255 255 255
0.309418 0.22097 0.637 255 255 255
0.283382 -0.204881 1.106 255 255 255
0.320569 -0.14875 0.796 255 255 255
-0.300067 -0.954194 2.768 255 255 255
0.271758 0.14133 0.974 255 255 255
0.247123 -0.16592 1.327 255 255 255
0.292801 0.238975 0.73 255 255 255
0.307704 0.227035 0.667 255 255 255
0.266078 -0.312466 1.273 255 255 255
0.23001 -0.523541 1.563 255 255 255
0.314734 -0.192943 0.854 255 255 255
0.222947 -0.198478 1.567 255 255 255
0.317684 0.0127379 0.701 255 255 255
0.293057 0.185055 0.778 255 255 255
-0.352473 -0.967646 2.755 255 255 255
0.239893 -0.484634 1.513 255 255 255
-0.338746 0.496506 2.582 255 255 255
0.267685 -0.24018 1.242 255 255 255
-1.04058 0.336469 2.085 255 255 255
-0.932088 0.45738 1.991 255 255 255
0.320869 -0.01117 0.698 255 255 255
0.259695 -0.026722 1.187 255 255 255
0.331229 -0.104654 0.708 255 255 255
-0.770117 0.427485 2.649 255 255 255
0.299646 0.000226853 0.839 255 255 255
0.324229 -0.291954 0.839 255 255 255
-1.02108 -0.966844 2.818 255 255 255
-0.86953 -0.990326 2.731 255 255 255
0.319285 0.131615 0.636 255 255 255
0.296288 -0.13736 0.961 255 255 255
0.216524 0.396701 1.194 255 255 255
-0.79495 0.193934 2.967 255 255 255
0.213034 0.231195 1.278 255 255 255
-0.993739 -0.971903 2.78 255 255 255
0.233821 0.160984 1.234 255 255 255
0.309387 -0.204563 0.912 255 255 255
-0.466195 0.613801 2.037 255 255 255
-0.893817 0.373456 2.793 0 0 0
0.167611 0.230361 1.624 255 255 255
-0.657687 -1.03907 2.719 255 255 255
-0.438478 0.64877 1.972 255 255 255
-0.160584 0.684369 2.03 255 255 255
-1.02397 0.38891 2.593 255 255 255
-0.669676 0.564088 2.278 255 255 255
-0.151472 0.695992 1.997 255 255 255
0.0954305 0.188651 2.064 255 255 255
0.244555 0.29558 1.055 255 255 255
0.309919 -0.0238755 0.779 255 255 255
0.24347 0.0223867 1.232 255 255 255
0.27736 0.135578 0.924 255 255 255
0.243957 -0.0955768 1.31 255 255 255
0.338881 -0.185489 0.7 255 255 255
-0.947518 0.0253953 1.911 0 0 0
0.249347 -0.236811 1.375 255 255 255
0.249632 0.0118004 1.176 255 255 255
-0.91929 -0.1228 1.848 255 255 255
-0.760136 0.228883 2.982 255 255 255
-0.974386 0.437101 2.53 255 255 255
-0.980317 -0.994546 2.755 255 255 255
0.246138 -0.0947743 1.299 255 255 255
0.256454 0.229241 1.027 255 255 255
-0.697521 0.390109 2.719 255 255 255
-0.20164 0.612922 2.114 255 255 255
0.307847 -0.253404 0.939 255 255 255
0.317194 0.0807263 0.678 255 255 255
-0.0163778 0.613294 2.189 255 255 255
0.14465 0.255816 1.763 255 255 255
0.336831 -0.180155 0.715 255 255 255
0.269576 0.262005 0.879 255 255 255
-0.267382 0.510776 2.43 255 255 255
-0.172098 0.68467 1.774 255 255 255
0.27706 0.159464 0.923 255 255 255
-0.155037 0.67911 2.044 255 255 255
0.224422 0.102524 1.308 255 255 255
0.277489 -0.100164 1.083 255 255 255
-0.413849 0.616481 2.057 255 255 255
0.302784 -0.124147 0.91 255 255 255
0.0215151 0.682396 2.064 255 255 255
-0.914583 0.59267 1.758 255 255 255
0.306261 0.149544 0.717 255 255 255
0.297503 0.0598701 0.833 255 255 255
0.265665 -0.36446 1.281 255 255 255
0.177909 0.416281 1.412 255 255 255
0.330183 -0.0644585 0.662 255 255 255
0.251546 0.0213691 1.176 255 255 255
0.153428 0.579939 1.535 255 255 255
0.155552 -0.19311 1.859 255 255 255
0.177363 0.381332 1.445 255 255 255
-0.956166 0.290444 2.871 255 255 255
0.227668 -0.312126 1.466 255 255 255
-0.888083 0.618197 1.917 255 255 255
0.212913 0.0242034 1.463 255 255 255
0.178222 -0.0631689 1.7 255 255 255
0.321894 -0.178552 0.826 255 255 255
-0.757021 0.651206 1.941 255 255 255
0.322421 0.0522025 0.666 255 255 255
-0.918244 -0.909704 2.884 255 255 255
-1.01103 0.364463 2.43 255 255 255
-0.903686 0.611958 1.917 255 255 255
-0.0679992 0.603313 2.374 255 255 255
-0.94516 0.438829 2.54 255 255 255
0.135865 -0.0464203 1.923 255 255 255
-0.856659 0.198856 2.898 255 255 255
-0.993165 -0.879226 2.939 255 255 255
0.308685 -0.0577076 0.809 255 255 255
-1.04798 0.241573 2.509 255 255 255
0.239081 0.207173 1.135 255 255 255
0.265361 0.156415 1.01 255 255 255
-0.853454 0.371718 2.78 0 0 0
0.266102 0.0892874 1.032 255 255 255
0.305542 0.0714456 0.768 255 255 255
-0.759243 0.553688 2.236 255 255 255
-0.824856 0.437173 2.604 255 255 255
0.315448 0.0201691 0.722 255 255 255
0.304858 0.209753 0.685 255 255 255
0.324628 -0.130892 0.76 255 255 255
0.200487 0.0693493 1.513 255 255 255
-0.0861143 0.705545 1.917 0 0 0
-0.819432 0.615077 1.917 255 255 255
0.311814 0.0833539 0.73 255 255 255
0.29765 -0.262567 0.997 255 255 255
-0.886209 -0.313703 1.893 255 255 255
0.255824 -0.0288709 1.196 255 255 255
0.338881 -0.180932 0.7 255 255 255
-0.9253 0.614994 1.842 255 255 255
0.324219 -0.185254 0.786 255 255 255
-0.432586 0.668007 1.753 255 255 255
-0.831321 0.560013 2.071 255 255 255
-0.98245 0.443399 2.519 255 255 255
0.166373 0.191933 1.612 255 255 255
0.0683197 0.415636 2.057 255 255 255
0.318512 0.0595249 0.688 255 255 255
-0.950145 0.487835 1.815 255 255 255
0.322456 -0.217006 0.824 255 255 255
0.34181 -0.223899 0.699 255 255 255
-0.465116 -0.885824 2.898 255 255 255
-0.370768 -0.876392 2.898 255 255 255
-0.373119 -0.920227 2.844 255 255 255
0.0454541 0.12739 2.684 255 255 255
0.307858 -0.129783 0.878 255 255 255
0.312135 0.168137 0.679 255 255 255
0.271383 0.195094 0.914 255 255 255
0.314374 -0.14312 0.831 255 255 255
0.301356 -0.442061 1.147 255 255 255
-0.996225 0.118316 2.128 255 255 255
-1.06535 0.201611 2.743 0 0 0
0.123233 0.0104284 2.024 255 255 255
0.0845337 0.260297 2.128 255 255 255
-0.818437 0.658995 1.831 255 255 255
0.208357 -0.293369 1.612 255 255 255
0.221032 -0.00407652 1.366 255 255 255
-0.111331 0.509465 2.672 255 255 255
-0.106574 0.69046 1.789 255 255 255
-0.452898 0.450903 2.66 255 255 255
-0.500551 -1.03921 2.731 255 255 255
-0.895178 0.548661 1.71 255 255 255
-1.20643 -0.162111 2.78 0 0 0
0.301607 0.165708 0.737 255 255 255
0.319699 -0.0696449 0.74 255 255 255
0.263369 -0.0586567 1.169 255 255 255
0.296026 -0.0888008 0.912 255 255 255
-0.924711 -0.284783 1.865 255 255 255
0.264364 -0.141873 1.165 255 255 255
0.324049 -0.175732 0.795 255 255 255
-0.497133 0.540029 2.286 255 255 255
-0.537143 0.682719 1.923 255 255 255
0.289406 0.240474 0.765 255 255 255
0.254051 -0.11529 1.225 255 255 255
-0.718709 0.664303 1.714 255 255 255
0.303957 -0.0766547 0.875 255 255 255
0.328344 -0.235539 0.796 255 255 255
-0.717026 0.424931 2.66 255 255 255
0.302974 0.080589 0.784 255 255 255
-0.955627 0.168971 1.953 255 255 255
-0.568629 0.322592 2.996 255 255 255
0.198472 0.34558 1.278 255 255 255
0.303467 -0.240659 0.974 255 255 255
0.318064 0.0942633 0.657 255 255 255
0.343277 -0.264843 0.702 255 255 255
0.223126 -0.213626 1.624 255 255 255
0.203912 0.311083 1.273 255 255 255
-0.1526 -0.848976 2.967 255 255 255
0.329784 -0.259061 0.781 255 255 255
0.304538 0.00152766 0.805 255 255 255
-1.02587 -0.906343 2.844 255 255 255
0.212081 0.19427 1.324 255 255 255
-0.651604 0.612029 1.947 255 255 255
0.308801 0.218411 0.651 255 255 255
-0.651811 0.521633 2.32 255 255 255
-0.890503 -0.231773 1.929 0 0 0
0.318512 0.0617641 0.688 255 255 255
0.302295 0.0233257 0.835 255 255 255
-0.232093 -0.943915 2.818 255 255 255
0.323816 -0.0174699 0.678 255 255 255
0.328498 -0.240919 0.784 255 255 255
-0.593571 0.5855 1.997 255 255 255
0.321404 -0.00093222 0.687 255 255 255
-1.10997 0.137323 2.996 0 0 0
-0.1462 0.700646 1.887 0 0 0
0.284313 0.0170262 0.937 255 255 255
0.283829 -0.258969 1.122 255 255 255
-0.930384 -0.962855 2.78 255 255 255
0.0487217 0.595722 2.078 255 255 255
-0.458848 0.494583 2.572 255 255 255
0.313702 0.115269 0.68 255 255 255
-0.928716 0.0124136 1.831 255 255 255
-0.333155 -0.999369 2.672 255 255 255
0.26428 -0.0370905 1.094 255 255 255
0.337473 -0.252162 0.742 255 255 255
0.328025 -0.202653 0.789 255 255 255
0.312246 0.138098 0.689 255 255 255
0.30803 -0.131262 0.908 255 255 255
0.289438 -0.220131 1.075 255 255 255
-0.973179 0.293947 1.859 0 0 0
0.30501 0.159887 0.706 255 255 255
-0.92781 0.492018 1.853 255 255 255
0.333065 -0.306256 0.798 255 255 255
-0.975971 -0.265092 1.876 255 255 255
0.322413 -0.0323405 0.714 255 255 255
-0.926674 -0.136552 1.959 255 255 255
-1.01987 0.189042 2.572 255 255 255
-0.381847 -0.995361 2.561 255 255 255
-0.630741 0.665535 1.71 255 255 255
0.334358 -0.126513 0.677 255 255 255
-0.677599 0.673009 1.887 255 255 255
0.238289 0.222817 1.149 255 255 255
0.255327 0.259675 0.984 255 255 255
-0.926904 0.633764 1.81 255 255 255
0.336009 -0.0993802 0.665 255 255 255
-0.862921 0.556032 2.107 255 255 255
0.216733 -0.177169 1.559 255 255 255
0.232509 0.307399 1.13 255 255 255
-0.379513 0.673826 1.799 255 255 255
-0.109824 0.456045 2.743 255 255 255
-0.954401 -0.0189587 1.997 255 255 255
-0.1736 0.429852 2.996 0 0 0
0.311676 0.230478 0.629 255 255 255
-0.957577 0.523838 2.158 255 255 255
0.248887 -0.108543 1.239 255 255 255
0.192059 -0.157228 1.7 255 255 255
0.163624 0.157615 1.637 255 255 255
0.314528 -0.304076 0.969 255 255 255
-0.80369 0.536013 2.269 255 255 255
-0.482139 0.679634 1.941 255 255 255
0.285132 -0.114141 1.034 255 255 255
0.24856 0.0579265 1.18 255 255 255
-0.961581 -0.944126 2.805 255 255 255
0.270169 0.00202676 1.068 255 255 255
-0.154459 -0.861375 2.911 255 255 255
0.312673 -0.337139 0.978 255 255 255
0.22716 0.336257 1.104 255 255 255
-0.252477 0.576717 2.329 255 255 255
0.309103 0.189123 0.687 255 255 255
-0.874827 -0.980643 2.805 255 255 255
-0.643416 0.455232 2.66 255 255 255
-0.7901 -0.913091 2.78 255 255 255
-0.774418 0.591668 1.953 255 255 255
0.333362 -0.213358 0.763 255 255 255
0.32695 -0.000898296 0.662 255 255 255
-0.928574 0.552736 2.189 255 255 255
-0.20294 0.652703 2.024 255 255 255
0.182026 -0.0616454 1.659 255 255 255
-0.421444 0.548061 2.32 255 255 255
0.218834 0.301998 1.196 255 255 255
0.261309 -0.278518 1.26 255 255 255
0.303714 -0.111405 0.891 255 255 255
-0.624474 0.491278 2.374 255 255 255
-1.03018 0.227709 2.365 255 255 255
0.242719 -0.25539 1.442 255 255 255
0.274832 -0.269758 1.194 255 255 255
0.28729 0.218764 0.79 255 255 255
0.181787 -0.290175 1.734 255 255 255
-0.829983 0.276428 2.871 255 255 255
0.258328 -0.252874 1.286 255 255 255
0.306199 0.0153635 0.776 255 255 255
0.290109 -0.0817651 0.951 255 255 255
0.291158 -0.15224 0.997 255 255 255
0.100814 0.199443 2.037 255 255 255
-0.593111 0.538646 2.312 255 255 255
0.311617 -0.280629 0.923 255 255 255
-0.814201 0.510307 2.32 255 255 255
-0.239493 0.606042 2.114 255 255 255
-0.946987 0.223356 1.826 255 255 255
-0.499579 0.682719 1.923 255 255 255
0.322754 0.0663009 0.645 255 255 255
-0.915377 0.530107 2.244 255 255 255
0.3091 0.153338 0.692 255 255 255
-0.798197 0.641393 1.705 255 255 255
0.316085 -0.0178633 0.74 255 255 255
-0.953933 -0.225078 1.899 255 255 255
-0.956947 0.0501161 1.905 255 255 255
0.321756 0.039086 0.683 255 255 255
0.253258 0.340117 0.958 255 255 255
0.184037 0.0693643 1.629 255 255 255
-0.193415 0.697406 1.929 255 255 255
-0.957342 0.419223 2.01 255 255 255
0.336078 -0.103397 0.663 255 255 255
0.32017 -0.22859 0.832 255 255 255
0.303906 0.207691 0.693 255 255 255
-0.996495 0.193312 2.078 255 255 255
-0.653863 -0.771008 2.857 255 255 255
-0.908564 -0.981096 2.755 255 255 255
0.213676 -0.0421393 1.452 255 255 255
-0.214534 0.51287 2.459 255 255 255
-0.438868 0.423629 2.707 255 255 255
0.201853 0.169658 1.387 255 255 255
0.309965 0.211403 0.649 255 255 255
0.313133 0.136944 0.667 255 255 255
0.315317 -0.2651 0.891 255 255 255
0.191153 0.46355 1.375 255 255 255
-0.289048 -0.972813 2.707 255 255 255
0.242021 -0.187613 1.359 255 255 255
0.180213 0.27392 1.449 255 255 255
-0.26385 0.557767 2.329 255 255 255
0.053358 0.464611 2.128 255 255 255
0.245176 0.11294 1.173 255 255 255
-0.773377 -0.953087 2.818 255 255 255
0.267892 -0.0376272 1.059 255 255 255
0.333154 -0.281759 0.777 255 255 255
0.335648 -0.289488 0.774 255 255 255
-0.860418 0.616262 1.911 255 255 255
-0.773715 0.475798 2.561 255 255 255
-0.463048 0.667262 1.805 0 0 0
-1.04787 0.297544 2.499 255 255 255
-0.910265 0.653085 1.848 255 255 255
0.252558 0.284387 0.992 255 255 255
0.27765 0.0448272 0.978 255 255 255
-0.214458 -0.967707 2.768 255 255 255
0.0411526 0.178605 2.43 255 255 255
0.330183 -0.0655358 0.662 255 255 255
-0.478662 0.587707 2.269 255 255 255
0.165725 -0.293245 1.805 255 255 255
0.216245 0.108011 1.378 255 255 255
-0.951717 0.45354 2.42 255 255 255
-0.790685 0.665907 1.893 255 255 255
0.303361 0.0525878 0.785 255 255 255
-0.758392 -1.02144 2.731 255 255 255
-0.899794 -0.300762 1.87 255 255 255
-0.30964 0.604009 2.303 255 255 255
0.310598 0.0299666 0.762 255 255 255
-0.195968 0.693632 1.893 255 255 255
0.18527 -0.130631 1.714 255 255 255
0.178964 -0.103937 1.734 255 255 255
0.322981 -0.166708 0.783 255 255 255
0.330782 -0.112197 0.712 255 255 255
0.294952 -0.273367 1.051 255 255 255
0.270827 -0.0633574 1.057 255 255 255
-0.186569 0.688792 1.831 255 255 255
0.180915 -0.273439 1.81 255 255 255
-0.900255 0.45357 2.53 255 255 255
0.279206 0.289571 0.827 255 255 255
0.308973 0.0579499 0.755 255 255 255
0.181731 0.398496 1.406 255 255 255
-0.502679 0.639143 1.972 255 255 255
0.268628 -0.0883692 1.112 255 255 255
0.338044 -0.174844 0.703 255 255 255
0.297807 0.257121 0.708 255 255 255
-0.170461 0.520526 2.402 255 255 255
-0.775119 -1.00807 2.743 255 255 255
-0.504976 0.477224 2.638 255 255 255
0.311177 -0.176973 0.9 255 255 255
-0.802847 0.387387 2.731 255 255 255
0.20633 -0.32622 1.659 255 255 255
0.266303 0.258409 0.917 255 255 255
0.288629 0.159028 0.827 255 255 255
0.200445 -0.123441 1.655 255 255 255
0.333008 -0.132801 0.681 255 255 255
0.231587 -0.161724 1.403 255 255 255
0.112229 0.137511 2.004 255 255 255
0.151624 -0.0626537 1.848 255 255 255
0.274541 -0.19653 1.152 255 255 255
0.198041 0.384381 1.262 255 255 255
0.2697 0.179588 0.95 255 255 255
-0.967136 0.515348 2.212 255 255 255
0.298976 0.129508 0.764 255 255 255
-0.0594214 0.401643 2.898 255 255 255
-0.985012 0.482819 2.228 255 255 255
-0.955534 0.490795 2.092 255 255 255
0.0708778 0.0517309 2.244 255 255 255
-1.02845 0.213748 2.22 255 255 255
0.272675 0.143235 0.955 255 255 255
-0.946363 -0.0806975 1.848 0 0 0
0.130566 0.195974 1.848 255 255 255
0.271358 0.180181 0.945 255 255 255
-0.932392 -1.00365 2.707 255 255 255
0.273557 0.223129 0.878 255 255 255
0.0140177 0.272415 2.53 255 255 255
0.254596 -0.211039 1.299 255 255 255
0.0443391 0.468737 2.196 255 255 255
-0.683071 0.567955 2.051 255 255 255
-0.891596 -0.267257 1.959 0 0 0
-0.726126 0.54709 2.269 255 255 255
0.302396 0.143925 0.736 255 255 255
-0.477087 0.674136 1.848 255 255 255
0.260389 -0.459126 1.351 255 255 255
-1.02835 0.202179 2.212 255 255 255
0.283515 -0.135088 1.053 255 255 255
0.296795 -0.0287904 0.892 255 255 255
-1.01442 0.330424 2.303 255 255 255
-0.723565 0.49143 2.32 255 255 255
-0.692226 0.664324 1.805 255 255 255
0.224255 -0.0839171 1.4 255 255 255
0.252162 -0.469355 1.429 255 255 255
-0.688217 0.54926 2.278 255 255 255
-0.359914 0.600303 2.22 0 0 0
-0.626705 -0.98155 2.719 255 255 255
-1.02801 0.338267 2.561 255 255 255
-0.237529 -0.872158 2.884 255 255 255
-0.127979 0.676784 2.037 255 255 255
-0.0479513 0.448625 2.78 255 255 255
0.298574 -0.201497 0.984 255 255 255
-0.440612 0.687013 1.953 255 255 255
0.293467 0.0576506 0.882 255 255 255
-0.58305 -0.8198 2.898 255 255 255
-0.352127 0.428765 2.684 255 255 255
0.286854 -0.196175 1.059 255 255 255
0.234995 0.0355612 1.273 255 255 255
0.293202 -0.200691 1.004 255 255 255
0.266061 0.0198791 1.094 255 255 255
0.345511 -0.248631 0.695 255 255 255
0.288083 -0.0859409 0.981 255 255 255
-0.290134 0.509138 2.561 255 255 255
-0.967463 0.468298 1.831 255 255 255
0.335671 -0.209535 0.72 255 255 255
0.305607 -0.166475 0.923 255 255 255
0.318679 -0.0162988 0.724 255 255 255
0.0612545 0.0827483 2.294 255 255 255
0.308555 0.187195 0.676 255 255 255
0.267404 0.00382467 1.085 255 255 255
0.332821 -0.193027 0.724 255 255 255
-0.479476 -0.94298 2.871 255 255 255
0.179493 0.107989 1.612 255 255 255
0.260845 0.1856 0.999 255 255 255
-0.0611821 0.612349 2.136 255 255 255
0.19796 0.313932 1.302 255 255 255
0.321121 -0.30577 0.887 255 255 255
0.206437 -0.104771 1.539 255 255 255
0.31164 0.214781 0.631 255 255 255
-0.919485 -1.01236 2.695 255 255 255
0.303552 -0.016003 0.831 255 255 255
0.253956 0.255144 1.017 255 255 255
-0.923332 -0.257434 1.887 255 255 255
-1.01088 0.126673 2.347 255 255 255
-0.911119 -0.186984 1.953 255 255 255
0.25342 -0.00917992 1.167 255 255 255
0.192684 0.289072 1.324 255 255 255
0.289667 0.216703 0.769 255 255 255
0.312257 0.224876 0.622 255 255 255
0.290538 0.218901 0.755 255 255 255
-0.0158469 0.335526 2.707 255 255 255
0.0187183 0.606593 2.128 255 255 255
-0.780493 0.648412 1.673 255 255 255
0.175634 -0.12896 1.729 255 255 255
-1.01383 0.384593 2.107 255 255 255
0.281421 -0.0532712 0.997 255 255 255
0.326845 -0.0819569 0.711 255 255 255
0.288604 0.000246592 0.912 255 255 255
-0.521661 0.656387 1.947 255 255 255
-0.557842 -1.03449 2.707 255 255 255
-0.198743 0.61228 2.278 255 255 255
0.187792 0.291996 1.4 255 255 255
0.0891518 0.681606 1.744 255 255 255
-0.778741 0.427485 2.649 255 255 255
0.188713 0.33515 1.39 255 255 255
0.223772 -0.359452 1.591 255 255 255
-0.934296 0.15637 1.842 0 0 0
-0.819268 0.466137 2.509 255 255 255
0.327148 -0.152761 0.746 255 255 255
0.31479 -0.130004 0.825 255 255 255
-0.927729 0.544119 2.114 255 255 255
0.327062 -0.0985695 0.714 255 255 255
0.308908 0.20898 0.658 255 255 255
-0.67246 -0.962259 2.818 255 255 255
0.280653 -0.270111 1.154 255 255 255
0.301001 -0.266093 0.992 255 255 255
0.256952 -0.33525 1.322 255 255 255
0.271962 0.184598 0.921 255 255 255
-0.712724 0.567584 2.099 255 255 255
-0.874295 0.358455 2.818 0 0 0
0.280805 0.259161 0.816 255 255 255
-0.971344 0.209124 1.972 255 255 255
0.285003 0.235264 0.798 255 255 255
0.161775 0.245479 1.673 255 255 255
0.323813 0.0528063 0.66 255 255 255
0.153317 0.205178 1.7 255 255 255
0.2285 0.186028 1.227 255 255 255
-0.981564 0.383494 1.929 255 255 255
0.326651 -0.00525466 0.668 255 255 255
0.284525 0.0390893 0.918 255 255 255
0.279523 0.227421 0.836 255 255 255
-0.955388 0.183945 1.848 255 255 255
0.297465 0.132291 0.773 255 255 255
0.305594 0.0997994 0.765 255 255 255
0.265781 -0.370435 1.302 255 255 255
-0.898431 0.512054 2.294 255 255 255
0.286388 0.0871359 0.905 255 255 255
-0.494086 0.435545 2.672 255 255 255
0.303793 -0.201269 0.96 255 255 255
0.334676 -0.220072 0.752 255 255 255
0.0341049 0.526327 2.228 255 255 255
0.321976 -0.273164 0.866 255 255 255
0.321434 -0.0278092 0.717 255 255 255
0.259861 -0.194385 1.273 255 255 255
0.236841 0.00243477 1.283 255 255 255
0.309164 0.110239 0.735 255 255 255
0.254962 -0.135842 1.249 255 255 255
0.0522798 0.570584 2.085 255 255 255
0.313593 0.125405 0.675 255 255 255
-0.61148 0.57036 2.024 255 255 255
-0.169416 0.65665 2.057 255 255 255
0.121542 0.325288 1.848 255 255 255
-0.982282 0.0182096 2.166 255 255 255
-0.263389 0.698688 1.959 255 255 255
-0.0415866 0.530323 2.411 255 255 255
0.311509 -0.14622 0.849 255 255 255
0.267533 0.255309 0.906 255 255 255
0.309308 0.133645 0.695 255 255 255
0.218963 0.00711543 1.381 255 255 255
0.236155 0.168391 1.215 255 255 255
0.303816 0.257813 0.668 255 255 255
-0.326393 0.693067 1.917 255 255 255
-0.956599 0.0818831 1.923 255 255 255
-0.677116 -0.961628 2.857 255 255 255
0.216954 0.411712 1.165 255 255 255
0.198904 0.459796 1.217 255 255 255
-0.330829 0.676074 1.805 255 255 255
0.340506 -0.285085 0.746 255 255 255
0.0667457 0.105747 2.228 255 255 255
0.314645 -0.22811 0.877 255 255 255
0.330973 -0.1088 0.705 255 255 255
-1.00037 0.400431 1.935 0 0 0
0.225514 0.340955 1.096 255 255 255
0.24169 0.0536246 1.213 255 255 255
0.229602 0.335541 1.09 255 255 255
0.287217 -0.257471 1.1 255 255 255
0.045861 0.0446894 2.996 0 0 0
0.311756 -0.028649 0.771 255 255 255
0.141239 -0.182963 1.911 255 255 255
0.265833 -0.346732 1.262 255 255 255
-1.0529 0.251815 2.805 255 255 255
0.282867 0.287701 0.803 255 255 255
-0.875212 -0.321803 1.923 255 255 255
0.280533 -0.0107428 0.966 255 255 255
-1.00676 0.359536 2.121 255 255 255
0.311655 -0.153177 0.857 255 255 255
0.237213 -0.283498 1.466 255 255 255
-0.0684199 0.500693 2.695 255 255 255
-0.270787 0.635373 2.064 255 255 255
0.249632 0.0194554 1.176 255 255 255
-0.165584 0.668085 2.051 255 255 255
-0.420985 -1.01735 2.793 255 255 255
-0.398915 -0.863461 2.967 255 255 255
-1.06682 -0.0549298 2.44 255 255 255
-0.509815 -1.00357 2.884 255 255 255
-0.998489 -1.03449 2.707 255 255 255
0.224085 -0.414787 1.575 255 255 255
0.0142723 0.723061 1.991 255 255 255
-0.553436 -1.03449 2.707 255 255 255
-0.197539 0.630787 2.071 255 255 255
-0.427543 0.662793 1.966 255 255 255
-0.470665 0.660433 1.959 255 255 255
0.333895 -0.230168 0.753 255 255 255
0.168997 0.249645 1.612 255 255 255
0.267174 0.248774 0.92 255 255 255
-0.882374 0.539566 2.253 255 255 255
0.295273 0.0818404 0.85 255 255 255
0.334253 -0.181919 0.722 255 255 255
0.277251 -0.0317522 1.036 255 255 255
0.269288 0.249778 0.902 255 255 255
0.324283 -0.152107 0.78 255 255 255
-0.752531 0.658689 1.774 255 255 255
0.277189 -0.157153 1.075 255 255 255
-0.56574 0.678229 1.893 255 255 255
0.303224 -0.0811114 0.877 255 255 255
0.181456 0.318547 1.459 255 255 255
0.331433 -0.200241 0.742 255 255 255
0.269332 -0.484454 1.33 255 255 255
-0.197121 0.592632 2.347 255 255 255
0.10013 0.0992924 2.092 255 255 255
-0.955682 0.176871 1.837 255 255 255
0.133977 -0.0973932 1.941 255 255 255
0.259249 -0.282796 1.27 255 255 255
-0.451384 0.492147 2.626 255 255 255
0.281181 0.0541939 0.947 255 255 255
0.286366 0.226764 0.791 255 255 255
-0.416835 0.423629 2.707 255 255 255
-0.808647 0.630934 1.899 255 255 255
0.314718 0.0886224 0.715 255 255 255
-0.89755 -0.9992 2.695 255 255 255
-0.87012 -0.331191 1.905 255 255 255
-0.204727 0.700745 1.947 255 255 255
0.263945 0.0570486 1.057 255 255 255
-0.585436 0.659498 1.784 255 255 255
-0.903233 -0.980951 2.78 255 255 255
-0.126567 -1.05235 2.719 255 255 255
-0.315534 0.688387 1.966 255 255 255
0.137413 0.349553 1.744 255 255 255
-0.464502 0.676075 1.87 255 255 255
-0.820041 0.183408 2.953 0 0 0
0.231489 -0.385271 1.539 255 255 255
0.0970488 -0.00967975 2.099 255 255 255
0.17148 -0.297525 1.744 255 255 255
-0.523727 0.60318 1.991 255 255 255
-1.13622 -0.213931 2.638 255 255 255
-0.611675 0.666241 1.719 255 255 255
0.338056 -0.258009 0.738 255 255 255
-0.538873 -1.00374 2.768 255 255 255
0.282192 -0.264278 1.145 255 255 255
0.181038 0.00581632 1.65 255 255 255
0.250471 0.181578 1.051 255 255 255
0.267398 0.190079 0.964 255 255 255
0.0812986 0.461235 1.966 255 255 255
-0.904861 0.542129 2.017 255 255 255
-0.458665 0.588958 2.078 255 255 255
-0.0155074 0.427485 2.649 255 255 255
-0.377884 0.648541 1.991 255 255 255
-0.731219 0.657684 1.923 255 255 255
0.230216 0.140015 1.281 255 255 255
-1.01926 0.40358 1.935 255 255 255
-0.986695 0.406877 2.03 255 255 255
0.292563 0.0486496 0.875 255 255 255
0.277374 -0.029718 1.024 255 255 255
0.200051 0.171335 1.439 255 255 255
-0.94241 -0.276417 1.87 255 255 255
0.139138 0.114405 1.842 255 255 255
0.156329 0.182861 1.673 255 255 255
-0.941132 0.587001 1.917 255 255 255
0.274144 0.164628 0.944 255 255 255
0.323253 -0.0970813 0.729 255 255 255
0.271933 -0.0372363 1.048 255 255 255
-0.849967 0.558883 2.092 255 255 255
0.303059 -0.342319 1.032 255 255 255
-0.0919965 -1.03642 2.884 255 255 255
0.176129 0.368287 1.559 255 255 255
0.30901 -0.348556 0.997 255 255 255
-0.578264 0.596023 1.978 255 255 255
0.0818771 0.586427 1.905 255 255 255
-0.555208 -0.907608 2.805 255 255 255
0.279081 0.0894 0.961 255 255 255
0.270601 0.291278 0.864 255 255 255
-0.757664 0.612614 1.959 255 255 255
-0.680544 0.484296 2.54 255 255 255
0.295964 0.0489862 0.856 255 255 255
0.316295 -0.323123 0.96 255 255 255
0.275495 0.112036 0.954 255 255 255
-0.893817 -0.958267 2.793 255 255 255
0.277675 0.0364549 0.967 255 255 255
-0.144737 0.58948 2.365 255 255 255
-0.614097 -0.809266 2.911 255 255 255
0.295108 0.279426 0.724 255 255 255
0.33322 -0.122613 0.686 255 255 255
0.333175 -0.090045 0.668 255 255 255
0.314271 -0.175724 0.872 255 255 255
0.295145 0.106086 0.834 255 255 255
0.242583 0.331121 1.032 255 255 255
0.312228 -0.0371889 0.766 255 255 255
0.289828 -0.330259 1.11 255 255 255
-0.740845 -0.784599 2.925 255 255 255
0.0472062 0.27457 2.338 255 255 255
-0.228078 0.608873 2.136 255 255 255
0.330625 -0.251412 0.777 255 255 255
-0.657959 0.441868 2.684 255 255 255
0.0713891 0.0316677 2.383 255 255 255
0.256761 0.251339 1.015 255 255 255
-0.458438 0.672055 1.81 0 0 0
0.184037 0.286676 1.442 255 255 255
-0.894458 0.50282 2.303 255 255 255
0.318288 0.0788009 0.671 255 255 255
0.300413 0.238012 0.706 255 255 255
0.245183 -0.555397 1.429 255 255 255
-0.470338 -1.01279 2.844 255 255 255
-0.210728 0.506966 2.509 255 255 255
0.28492 -0.240375 1.112 255 255 255
0.269034 -0.0424335 1.05 255 255 255
0.281139 -0.300678 1.156 255 255 255
-0.977727 0.447906 2.253 0 0 0
-0.32164 -0.824834 2.967 255 255 255
-0.517858 0.451467 2.638 255 255 255
0.267755 0.260073 0.892 255 255 255
-0.227826 0.510776 2.43 255 255 255
-0.971426 -0.976716 2.768 255 255 255
0.293908 0.182439 0.767 255 255 255
-0.837005 0.663022 1.859 255 255 255
0.253467 0.281807 0.983 255 255 255
0.284491 -0.101654 1.044 255 255 255
0.302357 0.138567 0.733 255 255 255
-0.262984 -0.861962 2.805 255 255 255
0.266554 0.266133 0.888 255 255 255
0.333203 -0.192251 0.73 255 255 255
-0.979728 0.124411 2.057 0 0 0
0.237117 -0.12216 1.369 255 255 255
0.281697 0.303328 0.796 255 255 255
0.310667 -0.128821 0.862 255 255 255
-0.960255 -0.0127087 2.037 255 255 255
-0.634087 -0.943663 2.831 255 255 255
-0.983062 0.155063 2.064 0 0 0
0.284461 0.0760202 0.913 255 255 255
0.342317 -0.185448 0.671 255 255 255
0.32266 -0.075312 0.725 255 255 255
0.270141 -0.309396 1.244 255 255 255
0.317597 -0.312217 0.91 255 255 255
0.276308 0.0442967 1.002 255 255 255
0.288823 -0.0359542 0.927 255 255 255
0.324841 0.00127337 0.671 255 255 255
0.290271 0.252592 0.764 255 255 255
-0.319907 0.415226 2.996 0 0 0
0.310044 -0.022898 0.789 255 255 255
-0.988663 0.202588 2.884 255 255 255
-0.914298 0.223938 2.857 255 255 255
0.113386 0.561569 1.724 255 255 255
0.325123 -0.080651 0.72 255 255 255
0.0528314 0.521744 2.107 255 255 255
-0.948252 0.511848 2.244 255 255 255
-0.381377 0.689124 1.959 255 255 255
0.164795 0.520625 1.48 255 255 255
-0.966169 0.000559968 2.071 255 255 255
0.113462 0.490789 1.815 255 255 255
0.228487 0.144409 1.283 255 255 255
-0.961474 -0.041423 2.151 255 255 255
-0.105203 0.526593 2.43 255 255 255
0.305699 0.10596 0.747 255 255 255
0.30837 -0.186139 0.909 255 255 255
-0.102214 0.691634 1.815 255 255 255
-0.960839 0.346509 2.871 255 255 255
0.230315 0.356955 1.085 255 255 255
0.294439 -0.295113 1.087 255 255 255
0.331793 -0.0930106 0.69 255 255 255
0.312036 -0.326999 0.981 255 255 255
-0.316927 0.550187 2.329 255 255 255
0.283114 0.266801 0.815 255 255 255
-0.937472 0.267084 2.871 255 255 255
0.329866 -0.190234 0.755 255 255 255
0.324379 -0.20002 0.799 255 255 255
-0.546076 -0.966949 2.805 255 255 255
0.301933 0.0151546 0.834 255 255 255
-0.762692 0.591006 1.972 255 255 255
0.29412 -0.110351 0.944 255 255 255
-0.320788 0.689124 1.959 255 255 255
-0.474803 0.402573 2.871 0 0 0
-0.985164 0.00776919 2.204 255 255 255
0.19765 -0.32703 1.677 255 255 255
0.0495065 0.351392 2.269 255 255 255
0.0994604 -0.0197277 2.078 255 255 255
0.0523536 0.692179 1.848 255 255 255
0.264934 0.111335 1.034 255 255 255
0.102443 0.320136 2.004 255 255 255
0.30003 0.147513 0.742 255 255 255
0.220241 -0.396075 1.603 255 255 255
-0.96109 0.42902 2.158 255 255 255
0.307111 -0.0958851 0.856 255 255 255
0.339189 -0.188572 0.703 255 255 255
-0.946853 0.349468 2.857 255 255 255
-0.217492 -0.823145 2.996 255 255 255
0.279913 -0.450641 1.289 255 255 255
-1.17402 0.000768976 2.844 255 255 255
0.329144 -0.143421 0.706 255 255 255
0.26758 -0.51523 1.354 255 255 255
0.311981 0.200552 0.638 255 255 255
-0.937128 0.519195 2.03 255 255 255
0.163849 0.478768 1.539 255 255 255
-0.649055 0.485567 2.365 255 255 255
0.0156924 0.694336 1.784 255 255 255
0.0778975 0.174376 2.136 255 255 255
0.139989 0.485061 1.673 255 255 255
-0.393436 0.686407 1.865 255 255 255
-0.926841 0.185536 2.911 255 255 255
0.219824 0.140444 1.345 255 255 255
-0.531626 0.385239 2.953 0 0 0
0.29815 0.0541956 0.809 255 255 255
-0.780606 0.566319 2.107 255 255 255
0.261227 -0.112373 1.194 255 255 255
0.108365 0.350049 1.935 255 255 255
0.316273 0.157029 0.63 255 255 255
-0.149877 0.518755 2.449 255 255 255
-1.00999 0.280286 2.071 255 255 255
0.245482 0.255341 1.059 255 255 255
0.273566 -0.113499 1.11 255 255 255
0.185937 0.383294 1.322 255 255 255
0.318047 -0.094406 0.765 255 255 255
-0.668483 0.571602 2.166 255 255 255
0.299491 0.13113 0.759 255 255 255
0.284592 -0.0976569 1.02 255 255 255
0.302198 0.0917221 0.792 255 255 255
-0.81129 0.271756 2.871 255 255 255
0.322569 -0.330348 0.891 255 255 255
-0.898364 -0.980993 2.793 255 255 255
0.296662 0.0572102 0.854 255 255 255
-0.909401 -0.258663 1.991 0 0 0
0.290508 0.0599568 0.895 255 255 255
-0.33077 0.50489 2.402 255 255 255
-0.966762 -0.312934 1.87 255 255 255
0.164795 0.518216 1.48 255 255 255
0.243061 0.0653064 1.21 255 255 255
0.295271 0.107366 0.823 255 255 255
-0.308437 -0.973283 2.684 255 255 255
-0.474349 0.680682 1.935 255 255 255
0.254079 0.357439 0.938 255 255 255
0.285066 0.194704 0.813 255 255 255
0.318679 -0.0516444 0.724 255 255 255
-0.902681 -0.265092 1.876 255 255 255
0.319711 0.0637978 0.674 255 255 255
0.292781 -0.15873 0.997 255 255 255
-0.195512 -0.990062 2.755 255 255 255
-0.768582 -0.784142 2.996 255 255 255
0.165956 0.325012 1.583 255 255 255
0.312951 -0.351383 0.969 255 255 255
0.280485 -0.405301 1.21 255 255 255
0.291072 0.122373 0.834 255 255 255
0.302249 -0.387041 1.077 255 255 255
0.288154 -0.191327 1.015 255 255 255
-0.713335 0.658752 1.917 255 255 255
0.128091 0.0590359 1.997 255 255 255
-0.311919 0.599735 2.092 255 255 255
0.321114 0.000184944 0.684 255 255 255
0.300844 0.196489 0.718 255 255 255
0.323001 -0.123796 0.762 255 255 255
-1.01662 0.352506 2.844 255 255 255
-0.795799 0.666033 1.876 255 255 255
-0.839878 -1.02619 2.78 255 255 255
-0.231389 -0.967646 2.755 255 255 255
-0.797981 0.195948 2.925 255 255 255
0.216954 0.409816 1.165 255 255 255
-1.01661 0.316923 2.857 255 255 255
0.343922 -0.192286 0.672 255 255 255
0.259935 -0.210519 1.234 255 255 255
-1.01388 0.302987 2.136 255 255 255
0.287335 -0.0871673 0.995 255 255 255
0.314632 -0.00953569 0.748 255 255 255
0.31449 -0.107469 0.807 255 255 255
0.310745 0.24036 0.615 255 255 255
-0.898117 0.547304 2.024 255 255 255
-1.01666 0.319645 2.064 255 255 255
0.315366 -0.141742 0.823 255 255 255
0.102749 0.206612 2.01 255 255 255
0.322349 -0.18714 0.794 255 255 255
0.317309 0.0879904 0.683 255 255 255
0.127144 0.417156 1.842 255 255 255
-0.264203 -0.893471 2.818 255 255 255
-0.950018 -1.01686 2.707 255 255 255
-0.217764 0.425934 2.871 255 255 255
0.336577 -0.165496 0.712 255 255 255
0.279258 -0.217906 1.156 255 255 255
-0.946363 -0.0776902 1.848 0 0 0
0.342457 -0.237209 0.698 255 255 255
0.317359 0.0471271 0.721 255 255 255
0.0991806 0.349487 2.004 255 255 255
0.274102 0.0762943 0.994 255 255 255
0.278221 -0.134912 1.079 255 255 255
0.332274 -0.128004 0.691 255 255 255
-0.515887 0.421751 2.695 255 255 255
0.308218 -0.331728 1.005 255 255 255
-0.431321 -1.00355 2.831 255 255 255
-0.770469 0.285016 2.911 255 255 255
-0.992265 0.0441107 2.228 255 255 255
-0.144982 -0.866112 2.911 255 255 255
-0.969488 0.180799 2.911 255 255 255
-0.495634 -0.870849 2.911 255 255 255
-0.869882 0.546502 1.997 255 255 255
-0.481317 0.604493 2.017 255 255 255
0.199802 -0.259691 1.719 255 255 255
0.312967 0.084438 0.719 255 255 255
-0.876507 0.561028 2.166 255 255 255
0.198827 0.375822 1.254 255 255 255
0.301709 0.210089 0.701 255 255 255
-0.939034 0.496897 1.805 255 255 255
0.29201 0.273649 0.737 255 255 255
-0.63934 0.671232 1.865 255 255 255
-0.334547 -0.916021 2.831 255 255 255
0.318614 0.0890246 0.674 255 255 255
0.250884 -0.445638 1.435 255 255 255
-0.681191 0.629095 1.941 255 255 255
0.310198 0.143104 0.697 255 255 255
0.324255 0.0529007 0.648 255 255 255
0.0170178 0.499005 2.374 255 255 255
-0.860263 0.634093 1.664 255 255 255
-0.994162 0.369784 1.923 255 255 255
0.300267 -0.390431 1.122 255 255 255
0.298803 0.153575 0.748 255 255 255
0.324727 -0.148034 0.772 255 255 255
-1.02191 0.306435 2.32 255 255 255
0.244765 -0.307187 1.4 255 255 255
0.125653 -0.00599839 2.01 255 255 255
0.313451 0.156096 0.67 255 255 255
-0.901717 0.493497 2.312 255 255 255
0.314242 -0.166443 0.868 255 255 255
0.256667 0.135244 1.077 255 255 255
0.343766 -0.258357 0.703 255 255 255
0.319901 0.0305479 0.691 255 255 255
-0.100437 -0.998822 2.857 255 255 255
0.311387 -0.190984 0.864 255 255 255
-0.36602 0.653745 1.997 255 255 255
-0.0724085 0.59621 2.392 255 255 255
0.287022 -0.061426 0.972 255 255 255
0.29278 0.11029 0.835 255 255 255
0.207194 -0.25521 1.603 255 255 255
-0.548689 0.66611 1.826 255 255 255
-0.573506 0.25921 2.996 255 255 255
-0.999913 0.264827 2.03 0 0 0
0.278517 0.156251 0.913 255 255 255
0.270884 -0.500637 1.327 255 255 255
0.323139 0.0594105 0.65 255 255 255
-0.613075 0.579 1.997 255 255 255
0.257289 -0.0188194 1.176 255 255 255
0.299402 -0.189951 0.966 255 255 255
-0.347664 0.672428 1.985 255 255 255
0.307609 -0.177911 0.92 255 255 255
0.340657 -0.183207 0.683 255 255 255
-0.0440196 0.372213 2.818 255 255 255
0.181522 -0.0550309 1.705 255 255 255
-0.0835088 0.699325 1.859 255 255 255
0.264052 -0.155639 1.198 255 255 255
-0.905705 0.491576 2.303 255 255 255
0.320784 -0.103677 0.751 255 255 255
-0.687077 0.659498 1.784 0 0 0
-0.964882 0.401569 2.593 255 255 255
0.0890118 0.276916 2.071 255 255 255
0.291926 0.143896 0.81 255 255 255
0.255129 -0.230748 1.291 255 255 255
-0.526347 0.667934 1.831 255 255 255
-0.702252 0.501022 2.312 255 255 255
0.271956 0.0737942 1.004 255 255 255
0.334672 -0.261565 0.766 255 255 255
0.27877 -0.17186 1.102 255 255 255
0.323466 -0.15996 0.775 255 255 255
-1.02785 0.252825 2.54 255 255 255
0.285411 -0.108955 1.017 255 255 255
-0.802464 0.643295 1.899 255 255 255
-1.00676 0.362988 2.121 255 255 255
0.30472 -0.208644 0.958 255 255 255
0.27434 0.12548 0.95 255 255 255
-1.01375 0.340061 2.173 255 255 255
-0.465888 0.468218 2.66 255 255 255
0.188503 0.290621 1.372 255 255 255
0.206724 0.060898 1.487 255 255 255
0.265615 0.0532535 1.05 255 255 255
0.289474 -0.369747 1.137 255 255 255
0.294324 0.159734 0.778 255 255 255
0.172365 -0.16213 1.753 255 255 255
-0.35616 0.479214 2.649 255 255 255
-0.267197 0.600406 2.143 255 255 255
0.243585 -0.0933024 1.308 255 255 255
0.316694 -0.0376326 0.75 255 255 255
0.0839178 0.659144 1.815 255 255 255
0.291435 -0.334644 1.089 255 255 255
-0.719796 0.571293 2.051 255 255 255
0.20295 -0.0586825 1.513 255 255 255
0.192779 0.358497 1.31 255 255 255
0.139909 -0.0549378 1.893 255 255 255
0.30462 0.0768429 0.772 255 255 255
0.225996 0.348993 1.116 255 255 255
-0.933158 -0.0817572 1.805 0 0 0
-0.64266 0.586367 1.978 255 255 255
0.289682 0.0667132 0.888 255 255 255
0.29498 -0.272618 1.089 255 255 255
-0.0636486 0.621743 2.356 255 255 255
-0.0826383 0.638731 2.064 255 255 255
-0.706336 0.561564 2.253 255 255 255
-1.01171 0.363891 2.755 255 255 255
0.33636 -0.193846 0.714 255 255 255
-0.929349 -0.252092 1.893 255 255 255
-0.9236 -0.910486 2.857 255 255 255
-0.506578 0.500798 2.42 255 255 255
-0.900779 -0.171232 2.03 255 255 255
0.31807 -0.0400828 0.728 255 255 255
-0.960702 -0.262039 1.876 255 255 255
-0.793382 -0.859344 2.857 255 255 255
-0.0636297 0.689728 1.81 255 255 255
-0.830587 0.302976 2.857 255 255 255
-0.0372216 0.498519 2.66 255 255 255
0.226972 -0.148622 1.477 255 255 255
-0.937577 -1.03443 2.684 255 255 255
0.139969 0.145242 1.853 255 255 255
-0.96671 0.422695 2.236 255 255 255
-0.0652519 0.693331 1.774 255 255 255
0.252345 0.338476 1.004 255 255 255
-0.699594 0.380765 2.78 0 0 0
0.298711 -0.148728 0.974 255 255 255
0.325985 -0.32649 0.858 255 255 255
-0.873102 0.34325 2.844 255 255 255
0.219702 -0.0254757 1.445 255 255 255
0.332297 -0.272205 0.775 255 255 255
-0.968477 0.389124 2.151 255 255 255
-0.307593 0.522184 2.374 255 255 255
0.304466 -0.172233 0.938 255 255 255
0.0863163 0.485451 1.935 255 255 255
0.12033 0.336323 1.876 255 255 255
-0.500446 -1.01737 2.831 255 255 255
0.278162 0.228781 0.836 255 255 255
0.253643 -0.284472 1.316 255 255 255
0.332248 -0.13116 0.684 255 255 255
0.321507 -0.105556 0.747 255 255 255
0.309904 0.21924 0.638 255 255 255
-0.280045 -0.876455 2.793 255 255 255
-0.705702 -0.928268 2.898 255 255 255
-0.596083 -0.793137 2.939 255 255 255
0.312247 -0.0109686 0.763 255 255 255
0.204866 0.22866 1.362 255 255 255
-0.397746 0.671818 1.763 255 255 255
-0.941946 -1.03443 2.684 255 255 255
0.321881 -0.243091 0.84 255 255 255
-0.343504 -0.963163 2.755 255 255 255
-0.144982 -0.870849 2.911 255 255 255
0.219586 0.407927 1.149 255 255 255
0.312614 0.0282365 0.749 255 255 255
0.282239 0.21716 0.828 255 255 255
0.299823 0.199309 0.724 255 255 255
-0.237529 -0.876852 2.884 255 255 255
0.317411 -0.176824 0.85 255 255 255
0.195785 0.185901 1.425 255 255 255
-0.523645 -0.88259 2.857 255 255 255
-0.95763 0.21048 1.87 255 255 255
-0.922789 0.604356 1.837 255 255 255
-0.690442 0.567237 2.261 255 255 255
0.323505 0.0142695 0.666 255 255 255
-0.674208 0.276014 2.967 255 255 255
0.252038 0.0453039 1.152 255 255 255
-0.935661 0.518771 1.978 255 255 255
0.258164 -0.0227239 1.18 255 255 255
0.14593 0.253059 1.744 255 255 255
0.22321 0.308954 1.178 255 255 255
0.318606 -0.215827 0.835 255 255 255
0.310385 -0.0762329 0.81 255 255 255
0.215174 0.402203 1.176 255 255 255
-0.777259 0.447531 2.615 255 255 255
-0.969806 -0.267288 1.87 255 255 255
0.214906 0.441627 1.154 255 255 255
0.187365 0.0660172 1.612 255 255 255
0.253792 -0.325016 1.351 255 255 255
-0.147508 -1.02167 2.78 255 255 255
-0.179008 -0.865518 2.925 255 255 255
0.195949 0.108959 1.516 255 255 255
0.288568 0.216825 0.783 255 255 255
0.128053 -0.123042 1.947 255 255 255
0.32145 0.0123563 0.68 255 255 255
-0.65085 0.660646 1.719 255 255 255
-0.908284 0.618685 1.719 255 255 255
0.284336 0.163142 0.863 255 255 255
0.28022 -0.201372 1.137 255 255 255
0.118339 0.0915337 1.997 255 255 255
0.312471 0.0134465 0.74 255 255 255
-0.025695 0.622774 2.078 255 255 255
-0.870702 -1.01246 2.707 255 255 255
-0.71641 0.45796 2.626 255 255 255
-0.161592 0.50714 2.572 255 255 255
0.133149 -0.0779564 1.929 255 255 255
0.277053 0.142168 0.918 255 255 255
0.187177 0.147355 1.505 255 255 255
0.321962 -0.0276541 0.713 255 255 255
0.23688 -0.252444 1.494 255 255 255
0.197229 0.355817 1.27 255 255 255
-1.01858 0.140779 2.392 255 255 255
0.103584 0.375623 1.905 255 255 255
0.185314 0.501452 1.333 255 255 255
0.326503 0.0491231 0.64 255 255 255
0.319475 -0.332057 0.924 255 255 255
0.306433 0.230412 0.655 255 255 255
0.183377 0.333482 1.494 255 255 255
0.296848 0.271321 0.703 255 255 255
0.300035 -0.0913104 0.893 255 255 255
-0.99124 -0.289515 1.876 255 255 255
0.220032 0.117499 1.333 255 255 255
-0.137002 0.509111 2.582 0 0 0
-0.927746 -0.11179 1.865 255 255 255
0.048037 0.688464 1.799 255 255 255
0.281426 0.12732 0.908 255 255 255
-0.711682 -0.890931 2.884 255 255 255
0.24752 0.169483 1.083 255 255 255
0.28791 0.257416 0.771 255 255 255
-0.287792 -0.953807 2.78 255 255 255
0.0228085 0.220124 2.593 255 255 255
0.295209 -0.0362099 0.896 255 255 255
-0.498017 -0.855998 2.925 255 255 255
0.330351 -0.0881343 0.687 255 255 255
-0.960643 0.524239 2.189 255 255 255
0.192085 0.401617 1.291 255 255 255
0.225707 -0.0423261 1.381 255 255 255
0.0588968 0.688387 1.966 255 255 255
0.274353 -0.0862862 1.064 255 255 255
-0.881391 0.285772 2.871 255 255 255
-0.90812 -0.137004 1.724 255 255 255
0.257321 -0.0701511 1.203 255 255 255
0.211676 -0.0853126 1.505 255 255 255
0.241456 -0.106074 1.308 255 255 255
0.334672 -0.256579 0.766 255 255 255
-0.312931 0.533561 2.356 255 255 255
0.241074 -0.396352 1.505 255 255 255
0.168137 0.12012 1.71 255 255 255
0.318158 -0.231312 0.852 255 255 255
0.180031 0.00596085 1.691 255 255 255
0.341297 -0.182718 0.669 255 255 255
-1.14958 -0.0553241 2.649 255 255 255
-0.28966 -0.995021 2.672 255 255 255
0.26563 0.230487 0.969 255 255 255
0.317684 0.0443604 0.696 255 255 255
-0.804409 0.565533 2.143 255 255 255
0.300453 -0.0191129 0.849 255 255 255
0.296406 0.202613 0.736 255 255 255
0.312652 0.206859 0.648 255 255 255
-0.855491 -1.00807 2.743 255 255 255
0.340133 -0.165793 0.671 255 255 255
0.0013564 0.689113 2.064 255 255 255
0.280653 -0.268233 1.154 255 255 255
0.311387 -0.018515 0.767 255 255 255
0.321886 -0.0774414 0.734 255 255 255
-0.874802 -0.316529 1.929 255 255 255
-0.45403 0.609786 2.057 255 255 255
-0.141141 0.498519 2.66 255 255 255
0.303517 -0.0944916 0.882 255 255 255
0.337948 -0.149414 0.671 255 255 255
-1.02027 0.29263 2.638 255 255 255
0.265542 0.0902391 1.043 255 255 255
0.295949 -0.11066 0.921 255 255 255
-0.396299 0.681606 1.744 255 255 255
0.278831 -0.390782 1.22 255 255 255
-0.782454 0.530444 2.261 255 255 255
0.339576 -0.211544 0.711 255 255 255
0.227431 0.228829 1.18 255 255 255
0.300567 -0.0401312 0.886 255 255 255
-0.461099 0.669996 1.959 255 255 255
-0.419319 0.624695 2.051 255 255 255
-0.593884 0.554909 2.286 255 255 255
0.114077 0.02044 2.037 255 255 255
0.304134 0.0655289 0.787 255 255 255
-0.182512 0.51287 2.459 255 255 255
0.322426 0.088339 0.63 255 255 255
0.31921 -0.302133 0.902 255 255 255
0.254455 -0.522904 1.442 255 255 255
0.327948 -0.0659662 0.689 255 255 255
0.30343 0.196373 0.705 255 255 255
-1.02431 0.285607 2.136 255 255 255
