ply
format ascii 1.0
comment Created by Open3D
element vertex 1306
property double x
property double y
property double z
property uchar red
property uchar green
property uchar blue
end_header
-0.768337 0.359136 2.719 255 255 255
0.37516 -0.109067 0.819 255 255 255
0.228069 0.582153 1.603 255 255 255
0.255772 0.507909 1.305 255 255 255
0.331764 0.0866918 1.002 255 255 255
0.289895 0.332024 1.192 255 255 255
0.0440993 0.627864 2.604 255 255 255
0.0859207 0.886288 2.356 255 255 255
0.300568 0.270621 1.13 255 255 255
0.345461 0.160578 0.741 255 255 255
0.217766 0.71295 2.459 255 255 255
-0.976457 0.366362 2.707 255 255 255
0.300279 0.0782572 1.26 255 255 255
0.191678 0.403416 2.844 255 255 255
0.358394 0.0399655 0.788 255 255 255
-1.01122 0.467094 2.582 255 255 255
-0.523798 -0.625987 2.151 255 255 255
0.338685 0.224442 0.714 255 255 255
0.293311 0.389807 1.01 255 255 255
-0.419093 -0.201053 2.638 255 255 255
-0.191027 0.435624 2.755 255 255 255
-0.932479 0.546017 2.411 255 255 255
0.383375 -0.191162 0.784 255 255 255
-0.0497962 0.580254 2.638 255 255 255
0.366098 -0.0759538 0.867 255 255 255
0.38653 -0.255537 0.888 255 255 255
0.322648 0.167992 1.041 255 255 255
-0.336115 0.104031 2.884 255 255 255
0.350656 0.104178 0.71 255 255 255
0.329289 0.182803 0.863 255 255 255
-0.731118 0.751932 2.32 255 255 255
0.702324 -0.800847 2.831 255 255 255
0.309075 0.266566 0.957 255 255 255
0.367188 -0.156981 1.062 255 255 255
-0.128406 -0.452231 2.42 255 255 255
-0.135025 0.683706 2.469 255 255 255
-0.634756 0.489862 2.66 255 255 255
0.27173 0.351671 1.375 255 255 255
0.105176 0.343385 2.884 255 255 255
-0.173158 -0.428174 2.44 255 255 255
0.386477 0.444101 2.78 255 255 255
0.311053 0.211402 1.128 255 255 255
0.371696 -0.222307 0.97 255 255 255
-0.42736 0.0509697 2.805 255 255 255
-1.22213 -0.0625711 2.996 255 255 255
0.313098 0.255984 0.941 255 255 255
-0.764118 0.571782 2.489 255 255 255
-0.634756 0.49419 2.66 255 255 255
-0.649464 0.595313 2.469 255 255 255
-0.776463 0.0809556 2.898 255 255 255
0.110596 0.821979 2.392 255 255 255
-0.43524 -0.116367 2.768 255 255 255
0.728846 -0.964002 2.707 255 255 255
0.349861 0.0247555 0.941 255 255 255
-0.701812 -0.0825372 2.844 255 255 255
-1.19169 0.17583 2.831 255 255 255
-0.545084 -0.761583 2.01 255 255 255
0.740929 -0.716067 2.719 255 255 255
0.345 0.172967 0.685 255 255 255
0.332596 0.190689 0.836 255 255 255
0.350548 0.10519 0.768 255 255 255
0.340911 0.206193 0.688 255 255 255
-0.533232 0.457286 2.672 255 255 255
-0.797972 -0.288103 2.572 255 255 255
-0.913368 0.713641 2.294 0 0 0
-0.103515 0.531392 2.695 255 255 255
-0.252595 -0.364643 2.44 255 255 255
-0.0744475 -0.766888 2.024 255 255 255
-0.710039 0.645609 2.402 255 255 255
0.74117 -0.812395 2.672 255 255 255
0.3788 -0.121102 0.867 255 255 255
-0.833347 -0.21234 2.672 255 255 255
0.308105 0.219227 1.18 255 255 255
0.332758 0.17916 0.833 255 255 255
0.19541 0.43382 2.831 255 255 255
-0.241816 0.561643 2.672 255 255 255
0.332729 0.138593 1 255 255 255
0.0388808 -0.251452 2.54 255 255 255
0.800624 -0.761784 2.479 255 255 255
0.139672 0.874164 2.294 0 0 0
0.319855 0.24553 0.908 255 255 255
0.0409841 0.264086 2.996 255 255 255
0.35159 0.114859 0.719 255 255 255
-0.742086 0.843967 2.196 255 255 255
-0.448593 -0.665507 2.143 255 255 255
0.327147 0.18318 0.969 255 255 255
-0.449882 -0.619778 2.166 255 255 255
-0.751001 0.822245 2.244 255 255 255
0.32839 0.0946516 1.094 255 255 255
0.332441 -0.0282674 1.171 255 255 255
0.321232 0.25894 0.864 255 255 255
-0.794508 0.668989 2.374 255 255 255
0.374814 -0.117028 0.974 255 255 255
0.316636 0.237582 0.947 255 255 255
-0.42461 0.719877 2.402 255 255 255
0.742585 -0.327828 2.844 255 255 255
-1.10928 0.426253 2.615 255 255 255
-0.572937 -0.267387 2.615 255 255 255
-0.222922 0.187321 2.939 255 255 255
-0.0318581 0.184277 2.967 255 255 255
0.373421 -0.149738 0.931 255 255 255
-0.356634 0.605904 2.53 255 255 255
0.319475 0.261885 0.924 255 255 255
0.332176 0.267808 0.715 255 255 255
-0.447204 0.374054 2.731 255 255 255
-0.235662 -0.232362 2.604 255 255 255
-0.296056 0.471827 2.731 255 255 255
-0.403181 -0.707182 2.071 255 255 255
-0.112586 -0.722539 2.189 255 255 255
-0.800933 0.323542 2.755 255 255 255
0.374363 -0.0565367 0.758 255 255 255
-0.507215 -0.0840698 2.743 255 255 255
0.316172 0.261119 0.932 255 255 255
-0.777884 -0.286871 2.561 255 255 255
-0.0666465 0.0418403 2.805 255 255 255
-0.848371 -0.416262 2.44 255 255 255
-0.839547 0.784399 2.338 255 255 255
-0.162415 0.0993373 2.884 255 255 255
0.758235 -0.944698 2.582 255 255 255
0.206888 0.728573 2.294 0 0 0
-0.553974 -0.153131 2.626 255 255 255
0.156975 0.630092 2.649 255 255 255
-0.169993 -0.782044 2.064 255 255 255
-0.589694 0.746255 2.374 255 255 255
-0.264712 0.0579101 2.925 255 255 255
-0.265333 -0.236599 2.604 255 255 255
0.325939 -0.00161341 1.189 255 255 255
-0.896377 0.683476 1.882 255 255 255
0.356001 0.0533917 0.797 255 255 255
-0.691319 -0.302663 2.519 255 255 255
0.0556648 -0.552138 2.22 255 255 255
-0.773759 0.375172 2.707 255 255 255
0.333979 0.0516871 1.089 255 255 255
0.0805526 -0.514821 2.312 255 255 255
-0.129407 0.426005 2.78 255 255 255
-1.14683 0.163497 2.857 255 255 255
-0.137026 -0.606324 2.181 255 255 255
-0.652946 -0.742734 2.03 255 255 255
0.383749 -0.321635 0.895 255 255 255
-0.847431 0.206168 2.805 255 255 255
-0.609544 -0.127491 2.626 255 255 255
-0.420531 0.431829 2.731 255 255 255
-0.72473 0.573519 2.479 255 255 255
0.753016 -0.459931 2.831 255 255 255
-0.196266 0.772351 2.383 255 255 255
-0.908626 -0.321254 2.638 255 255 255
0.331481 0.244074 0.81 255 255 255
-0.713328 0.596262 2.44 255 255 255
-0.228791 0.0488535 2.953 255 255 255
-0.606105 -0.197623 2.593 255 255 255
-0.53457 0.851359 2.303 255 255 255
0.742066 -0.796605 2.707 255 255 255
-0.042242 -0.377944 2.449 255 255 255
-1.16936 -0.00396906 2.925 255 255 255
-0.0971605 0.279027 2.898 0 0 0
-0.421716 -0.252441 2.55 255 255 255
0.365011 -0.131854 1.041 255 255 255
0.360299 0.0620549 0.704 255 255 255
-0.94396 0.281238 2.78 255 255 255
0.37888 -0.102604 0.78 255 255 255
-0.479478 0.549257 2.593 255 255 255
0.156005 0.595431 2.707 255 255 255
0.382044 -0.14467 0.84 255 255 255
0.734931 -0.324324 2.982 255 255 255
-0.0152929 -0.694636 2.044 255 255 255
-0.216917 -0.516092 2.236 255 255 255
-0.355403 0.420335 2.743 255 255 255
-0.218536 -0.431508 2.459 255 255 255
-0.593404 0.130952 2.857 255 255 255
-0.20094 -0.503465 2.261 255 255 255
0.684522 -0.623917 2.953 255 255 255
0.139467 0.441 2.818 255 255 255
-0.407195 0.378498 2.731 255 255 255
0.326186 0.202778 0.889 255 255 255
-1.08558 -0.535492 2.996 255 255 255
-0.210805 -0.554594 2.173 255 255 255
0.864448 -0.773828 2.356 255 255 255
0.814854 -0.915963 2.449 255 255 255
-0.10215 -0.743742 2.051 255 255 255
0.365786 -0.159606 1.068 255 255 255
-0.259515 -0.0262782 2.768 255 255 255
0.342935 0.193205 0.706 255 255 255
0.0378652 0.47822 2.768 255 255 255
0.275129 0.257947 1.452 255 255 255
-0.605659 0.0895454 2.871 255 255 255
-0.500558 -0.104992 2.707 255 255 255
0.233343 0.458953 2.844 255 255 255
-0.784721 -0.668918 2.236 255 255 255
0.0288536 0.464706 2.768 255 255 255
-0.323836 0.344698 2.818 255 255 255
-0.85336 0.480104 1.744 255 255 255
-0.811949 0.511438 1.784 255 255 255
-0.547884 0.338582 2.768 255 255 255
0.314824 0.224842 1 255 255 255
0.370064 -0.152937 0.991 255 255 255
0.331009 0.269401 0.71 255 255 255
0.382969 -0.282355 0.914 255 255 255
0.293304 0.251815 1.198 255 255 255
0.177848 0.709743 1.972 255 255 255
0.850447 -0.704388 2.519 255 255 255
-0.270744 0.832612 2.356 255 255 255
-0.620817 -0.381345 2.42 255 255 255
0.344875 0.167816 0.696 255 255 255
-0.158538 -0.621622 2.136 255 255 255
0.321317 0.22702 0.961 255 255 255
0.0468427 -0.49395 2.32 255 255 255
0.130292 0.422657 2.818 255 255 255
0.373922 -0.0731575 0.791 255 255 255
-0.343695 -0.0128802 2.793 255 255 255
0.0054451 -0.414294 2.383 255 255 255
0.838316 -0.781119 2.402 255 255 255
-0.800301 -0.214823 2.649 255 255 255
-0.868964 0.571473 1.837 255 255 255
-0.40467 -0.708104 2.114 255 255 255
-0.151377 0.43768 2.768 255 255 255
0.327121 0.259571 0.809 255 255 255
-0.883469 0.00534776 2.818 255 255 255
-0.260667 -0.439052 2.479 255 255 255
0.388657 -0.192466 0.811 255 255 255
0.309933 0.170305 1.187 255 255 255
-1.21833 0.184194 2.818 255 255 255
-0.154469 -0.163866 2.593 255 255 255
-0.773245 -0.804256 2.078 255 255 255
-0.15001 -0.0974611 2.743 255 255 255
-0.394965 -0.641596 2.099 255 255 255
-0.53167 -0.0614809 2.731 255 255 255
-1.1534 0.30604 2.719 255 255 255
-0.581451 -0.267387 2.615 255 255 255
0.351779 0.120374 0.717 255 255 255
0.34107 0.0197882 1.089 255 255 255
-0.653422 -0.509032 2.286 255 255 255
-0.761556 -0.179083 2.695 255 255 255
-0.110831 0.567778 2.66 255 255 255
0.338176 -0.0599892 1.158 255 255 255
-0.318179 -0.290365 2.519 255 255 255
-0.239311 -0.0706785 2.743 255 255 255
0.0363398 0.850563 2.374 255 255 255
0.184114 0.778424 2.244 0 0 0
-0.639086 0.502848 2.66 255 255 255
0.322631 0.285758 0.773 255 255 255
-0.889153 0.608101 1.753 0 0 0
-0.532954 -0.163094 2.649 255 255 255
-0.898535 0.641263 1.893 255 255 255
-0.794868 0.248428 1.509 255 255 255
-0.443424 -0.562505 2.204 255 255 255
0.145595 -0.548927 2.329 255 255 255
-0.649558 -0.148234 2.615 255 255 255
-0.722703 0.103075 1.372 255 255 255
-0.325253 0.0101204 2.871 255 255 255
-0.514742 -0.359479 2.459 255 255 255
0.326 0.0991099 1.104 255 255 255
-0.710503 0.000383677 1.419 255 255 255
-0.786111 -0.348888 2.469 255 255 255
-0.563003 -0.499772 2.312 255 255 255
-0.840939 0.621499 2.43 255 255 255
-1.07918 0.437173 2.604 255 255 255
0.270146 0.446572 1.182 255 255 255
-0.695396 -0.0909543 2.818 255 255 255
0.246014 0.390317 2.884 255 255 255
-0.216037 -0.105923 2.731 255 255 255
-0.580752 0.807227 2.338 255 255 255
0.065845 -0.230052 2.626 255 255 255
-0.814215 0.355182 1.664 255 255 255
0.202395 -0.778394 2.166 255 255 255
0.372678 -0.0652823 0.805 255 255 255
-0.861776 0.509702 1.71 255 255 255
0.74755 -0.674662 2.695 255 255 255
0.371764 -0.128058 0.95 255 255 255
-1.17975 -0.0135535 2.939 255 255 255
0.366203 -0.107883 1.007 255 255 255
0.258648 -0.90915 2.768 255 255 255
0.205839 0.524427 1.677 255 255 255
0.388161 -0.234514 0.869 255 255 255
-0.210531 -0.43551 2.459 255 255 255
-0.861889 -0.193096 2.707 255 255 255
0.206907 0.637441 2.626 255 255 255
-0.00712751 -0.0394322 2.743 255 255 255
-0.0764809 0.378537 2.831 255 255 255
-0.103174 0.000758431 2.805 255 255 255
-0.27185 -0.204411 2.626 255 255 255
0.369147 -0.234168 0.98 255 255 255
0.372893 -0.120386 0.904 255 255 255
0.389285 -0.191368 0.835 255 255 255
-1.045 -0.107164 2.884 0 0 0
0.819803 -0.805389 2.44 255 255 255
0.299885 0.0683828 1.267 255 255 255
-0.11136 -0.322062 2.479 255 255 255
0.394524 -0.227624 0.791 255 255 255
0.195741 0.691433 1.784 255 255 255
-0.911363 0.393823 2.684 255 255 255
-0.698677 0.550814 2.561 255 255 255
0.35309 -0.138167 1.077 255 255 255
0.314831 0.177621 1.135 255 255 255
-0.372704 -0.583613 2.189 255 255 255
0.323013 0.284538 0.78 255 255 255
0.347349 0.127129 0.804 255 255 255
-0.619132 0.256379 2.805 255 255 255
-0.953572 0.661381 2.347 0 0 0
0.824112 -0.736504 2.489 255 255 255
-0.0652014 -0.737877 2.044 255 255 255
-0.680365 -0.608513 2.228 255 255 255
-0.249427 -0.161001 2.615 255 255 255
-0.767474 0.235998 2.78 255 255 255
-0.762625 -0.218224 2.638 255 255 255
0.38756 -0.158085 0.772 255 255 255
0.376739 -0.140421 0.882 255 255 255
-0.750683 0.159358 1.48 255 255 255
-0.329736 0.183408 2.953 0 0 0
-0.0699431 0.480457 2.755 255 255 255
-0.901629 0.594794 2.402 0 0 0
-0.525502 -0.652607 2.158 255 255 255
0.323835 0.245446 0.871 255 255 255
-0.0384514 -0.718776 2.037 255 255 255
0.326758 0.0750813 1.178 255 255 255
-0.484269 0.86436 2.278 255 255 255
0.232365 0.390999 1.579 255 255 255
-0.402749 -0.145921 2.731 255 255 255
-0.233819 -0.0570366 2.731 255 255 255
-0.0983684 -0.211855 2.561 255 255 255
-0.270384 0.887847 2.32 255 255 255
0.434372 0.39714 2.768 0 0 0
0.71563 -0.803733 2.793 255 255 255
-0.306092 0.0576329 2.911 255 255 255
-0.111784 0.60155 2.582 255 255 255
0.239864 0.660556 2.253 0 0 0
0.815112 -0.612377 2.672 255 255 255
0.36576 -0.137857 1.048 255 255 255
0.719347 -0.546217 2.755 255 255 255
0.354394 0.0889505 0.737 255 255 255
0.0136797 0.723885 2.469 255 255 255
-0.738713 -0.316526 2.499 255 255 255
-0.993561 -0.425719 2.818 255 255 255
-0.900328 0.745923 2.181 255 255 255
-0.844933 0.640545 1.947 255 255 255
0.256017 0.371445 1.551 255 255 255
-0.402664 0.648924 2.459 255 255 255
-0.884963 0.633795 1.917 255 255 255
-0.708868 0.142902 2.911 0 0 0
-0.557019 0.749084 2.383 255 255 255
-0.769383 0.654599 2.392 255 255 255
-0.141697 0.458041 2.755 255 255 255
0.36879 -0.0141928 0.737 255 255 255
-0.848754 -0.316044 2.561 255 255 255
0.329446 0.120089 0.995 255 255 255
-0.352043 -0.728874 2.01 255 255 255
0.320899 0.0623319 1.229 255 255 255
0.390644 -0.215827 0.835 255 255 255
-0.87891 0.599302 1.744 0 0 0
0.221161 0.52002 1.629 255 255 255
-0.0409484 0.854426 2.374 255 255 255
0.373718 -0.12655 0.906 255 255 255
-0.633892 -0.320965 2.44 255 255 255
-0.729588 -0.0640247 2.844 255 255 255
0.349857 0.057716 0.883 255 255 255
0.0738468 0.909954 2.338 255 255 255
0.3586 -0.0353532 0.995 255 255 255
0.363597 -0.0204703 0.848 255 255 255
-1.1186 0.466946 2.449 255 255 255
0.384651 -0.189886 0.784 255 255 255
-0.133439 0.763031 2.44 255 255 255
-0.276235 0.408724 2.755 255 255 255
-0.379831 -0.583613 2.189 255 255 255
0.295093 0.308851 1.096 255 255 255
-0.548286 0.314369 2.793 255 255 255
0.336514 0.258125 0.666 255 255 255
-0.845393 0.685696 2.365 255 255 255
0.326101 0.230285 0.862 255 255 255
-0.575565 0.000755187 2.793 255 255 255
-0.297019 -0.194072 2.66 255 255 255
-0.854235 0.379878 1.642 255 255 255
-0.629984 -0.619891 2.204 255 255 255
0.292244 0.34776 1.012 255 255 255
-0.795792 0.375172 2.707 255 255 255
-0.00719247 0.000748427 2.768 255 255 255
0.357728 0.052836 0.77 255 255 255
0.388231 -0.239341 0.866 255 255 255
-0.647035 0.81763 2.303 255 255 255
0.306583 0.296505 0.984 255 255 255
-0.756177 0.163497 2.857 0 0 0
0.332051 0.248796 0.76 255 255 255
-0.488702 -0.328798 2.469 255 255 255
0.36582 0.0107994 0.724 255 255 255
-0.812637 0.424314 1.748 255 255 255
-0.597221 0.217293 2.831 255 255 255
0.290262 0.168197 1.357 255 255 255
-0.576432 0.654256 2.449 255 255 255
-0.756349 0.159908 1.463 255 255 255
0.383375 -0.18861 0.784 255 255 255
-0.961062 0.000768976 2.844 255 255 255
0.245951 0.339286 1.52 255 255 255
-0.0552197 -0.734551 2.044 255 255 255
-0.567234 -0.0703693 2.731 255 255 255
0.395632 -0.313729 0.873 255 255 255
0.358324 -0.0304115 0.897 255 255 255
0.765329 -0.552765 2.743 255 255 255
0.355775 -0.0918909 1.232 255 255 255
0.362627 0.0540918 0.72 255 255 255
-0.810115 0.306427 1.567 255 255 255
-0.0608491 -0.22019 2.561 255 255 255
-0.0141668 0.780405 2.42 255 255 255
0.316897 0.461789 2.805 255 255 255
0.35198 0.0822825 0.788 255 255 255
0.351776 -0.0551413 1.032 255 255 255
0.372531 -0.0607163 0.78 255 255 255
0.367769 -0.0558124 0.861 255 255 255
-0.026092 0.755949 2.43 255 255 255
0.326582 0.211869 0.867 255 255 255
-0.998052 0.0617916 2.884 255 255 255
-0.866639 0.709557 1.911 255 255 255
0.781724 -0.83633 2.509 255 255 255
-0.2192 0.883321 2.338 255 255 255
0.43883 0.340495 2.982 255 255 255
-0.750488 0.168159 1.494 255 255 255
0.704243 -0.3551 2.996 255 255 255
-0.297491 0.198762 2.967 0 0 0
0.723225 -0.941727 2.719 255 255 255
0.388335 -0.208604 0.879 255 255 255
-0.42736 0.343108 2.805 255 255 255
-0.0595422 -0.480013 2.204 255 255 255
0.674982 -0.618375 2.996 255 255 255
-0.976047 0.299814 2.743 255 255 255
-0.181892 -0.512683 2.253 255 255 255
0.341298 0.105388 0.91 255 255 255
-0.477444 0.551129 2.582 255 255 255
0.366592 -0.246834 0.986 255 255 255
-0.542611 -0.0523613 2.719 255 255 255
0.386663 -0.314353 0.895 255 255 255
0.388219 -0.291858 0.902 255 255 255
-0.750196 0.831514 2.22 255 255 255
0.312532 0.228235 1.03 255 255 255
0.381484 -0.109144 0.755 255 255 255
-0.324161 0.789273 2.411 255 255 255
-0.626422 -0.474955 2.338 255 255 255
0.350337 -0.0855277 1.227 255 255 255
0.29627 0.28639 1.149 255 255 255
0.353891 -0.0290215 1 255 255 255
-0.705436 -0.154472 2.649 255 255 255
-0.67876 0.625454 2.43 255 255 255
0.350391 0.106835 0.799 255 255 255
-0.0548415 -0.73943 2.03 255 255 255
0.340103 0.197417 0.767 255 255 255
-0.664979 -0.712443 2.057 255 255 255
0.348403 -0.0870427 1.167 255 255 255
0.3194 0.282517 0.83 255 255 255
0.70199 -0.935541 2.793 255 255 255
0.354776 0.0436635 0.809 255 255 255
-0.880688 0.136883 2.884 0 0 0
-0.676663 -0.648915 2.181 255 255 255
0.689612 -0.530617 2.996 255 255 255
-0.393027 -0.506983 2.244 255 255 255
-0.596875 0.824587 2.312 255 255 255
0.308058 0.312171 0.935 255 255 255
-1.21642 -0.0380153 2.982 255 255 255
0.301909 0.342445 0.969 255 255 255
-0.716195 0.0620242 1.403 255 255 255
-0.202407 0.906724 2.32 255 255 255
0.347149 0.0967019 0.835 255 255 255
0.0208897 -0.75931 2.004 255 255 255
-0.37163 0.422941 2.731 255 255 255
0.339344 -0.0223773 1.162 255 255 255
0.309191 0.454757 2.818 255 255 255
0.135887 0.32602 2.939 255 255 255
0.349773 0.0724561 0.822 255 255 255
0.155725 -0.692044 2.107 255 255 255
-0.260492 0.476272 2.731 255 255 255
0.361154 -0.20924 1.03 255 255 255
0.361445 0.0356601 0.778 255 255 255
0.17594 0.563176 2.743 255 255 255
-0.666378 -0.733729 2.051 255 255 255
-0.101151 -0.522768 2.173 255 255 255
-0.926841 0.109742 2.911 255 255 255
-0.611248 -0.288665 2.615 255 255 255
-0.216224 0.863806 2.347 255 255 255
0.332124 0.236443 0.802 255 255 255
-0.866439 0.6417 2.402 0 0 0
-0.696754 0.279202 2.805 255 255 255
0.333175 0.21254 0.786 255 255 255
-0.585707 -0.207811 2.615 255 255 255
-0.41164 0.436273 2.731 255 255 255
-0.90632 0.553349 2.479 255 255 255
-0.216569 -0.779035 2.092 255 255 255
-0.419026 0.000751672 2.78 255 255 255
0.364894 -0.0208969 0.811 255 255 255
-0.394803 -0.16226 2.707 255 255 255
-0.902681 0.62024 1.876 255 255 255
-0.675908 -0.49601 2.312 255 255 255
-0.909432 0.0802013 2.871 255 255 255
-0.926984 0.660478 2.228 0 0 0
-0.00694302 0.561643 2.672 255 255 255
-0.675833 0.092103 2.953 255 255 255
-0.257442 0.757885 2.411 255 255 255
-0.0677819 0.674368 2.509 255 255 255
-0.58717 0.265509 2.805 255 255 255
0.307802 0.31389 1.009 255 255 255
-0.177356 0.184708 2.898 255 255 255
-1.05382 0.149549 2.857 255 255 255
-0.218138 0.158624 2.939 255 255 255
0.378864 -0.133098 0.836 255 255 255
0.174128 0.786604 2.356 0 0 0
0.355806 0.0619273 0.774 255 255 255
0.337927 0.120151 0.921 255 255 255
0.386607 -0.178956 0.847 255 255 255
0.401518 -0.316379 0.835 255 255 255
0.35163 -0.023908 1.062 255 255 255
0.340971 0.58884 2.638 0 0 0
-0.856761 -0.465963 2.43 255 255 255
-0.775857 -0.272416 2.582 255 255 255
-0.815963 0.0615131 2.871 255 255 255
-0.106892 -0.385048 2.469 255 255 255
-1.1711 0.283916 2.719 255 255 255
-0.832597 0.490085 2.615 255 255 255
0.0303443 0.02921 2.911 255 255 255
-0.890396 0.734957 2.099 255 255 255
0.338299 0.194092 0.789 255 255 255
-0.660977 -0.252479 2.593 255 255 255
0.249805 0.484441 1.39 255 255 255
-0.371551 -0.4794 2.269 255 255 255
-0.0599751 0.167389 2.925 255 255 255
0.0374879 -0.354032 2.449 255 255 255
-0.805242 0.323901 1.603 255 255 255
-0.500416 0.302026 2.805 255 255 255
-0.736691 0.835717 2.212 255 255 255
-0.737783 0.509241 2.626 255 255 255
0.820962 -0.94056 2.42 255 255 255
0.359698 0.0642835 0.743 255 255 255
0.3032 0.273153 1.068 255 255 255
0.369188 -0.0822771 0.845 255 255 255
0.230103 0.585905 1.599 255 255 255
0.374504 -0.2265 0.961 255 255 255
0.340911 0.207312 0.688 255 255 255
-0.550707 0.813442 2.356 255 255 255
-0.466578 -0.478759 2.338 255 255 255
-0.829935 0.45364 1.719 255 255 255
-1.0156 0.454123 2.604 255 255 255
-0.0326196 0.584547 2.638 255 255 255
0.00635224 0.457673 2.78 255 255 255
-0.741319 0.614338 2.402 255 255 255
0.301305 0.122568 1.273 255 255 255
0.334999 0.0255888 1.11 255 255 255
-0.29937 -0.713002 2.03 255 255 255
-0.155749 -0.305925 2.479 255 255 255
0.769287 -0.6847 2.649 255 255 255
0.361835 -0.0758573 0.917 255 255 255
0.270272 0.351555 1.324 255 255 255
-0.57029 -0.753532 2.078 255 255 255
-1.1542 0.393757 2.44 255 255 255
0.334824 0.252848 0.687 255 255 255
-0.841974 0.795143 2.303 255 255 255
-0.938236 -0.00844847 2.831 255 255 255
-0.250504 0.446689 2.768 255 255 255
-0.729489 0.835717 2.212 255 255 255
-0.841249 0.828912 2.166 255 255 255
-0.229104 0.586161 2.626 255 255 255
-0.641361 -0.238802 2.582 255 255 255
-0.820035 0.197039 2.805 255 255 255
0.709224 -1.03077 2.768 255 255 255
-0.126567 -0.0656354 2.719 255 255 255
-0.263445 0.0671073 2.911 255 255 255
-0.293684 0.346185 2.793 255 255 255
-0.476468 0.844299 2.294 255 255 255
0.0423709 -0.120872 2.768 255 255 255
-0.167835 0.862733 2.365 255 255 255
0.350364 -0.0442683 1.053 255 255 255
-0.278556 0.896562 2.294 255 255 255
0.246113 0.468688 1.491 255 255 255
-0.0295817 -0.0306381 2.755 255 255 255
-1.01987 0.473656 2.572 255 255 255
0.252948 0.55219 2.755 255 255 255
0.13776 -0.734551 2.044 255 255 255
0.349913 0.102092 0.813 255 255 255
0.339048 0.211054 0.682 255 255 255
-0.896778 0.706881 2.181 0 0 0
0.326667 0.181513 0.977 255 255 255
0.708775 -0.529245 2.857 255 255 255
-0.333303 -0.350301 2.479 255 255 255
0.38255 -0.173586 0.913 255 255 255
0.754032 -0.835453 2.582 255 255 255
-0.167874 0.565991 2.672 255 255 255
0.272112 0.330726 1.4 255 255 255
0.336182 0.0828185 1.079 255 255 255
-0.65369 0.844785 2.236 255 255 255
0.0581045 -0.71704 2.051 255 255 255
-0.0265108 -0.276566 2.469 255 255 255
-0.879991 0.599257 1.769 255 255 255
-0.0852339 0.561643 2.672 255 255 255
-0.802294 0.284893 1.547 255 255 255
0.335562 0.0790601 1.1 255 255 255
-0.781652 0.711032 2.347 255 255 255
-0.539996 -0.0997325 2.684 255 255 255
0.174957 -0.757092 2.051 255 255 255
0.278359 0.456855 2.831 255 255 255
-0.38303 0.714727 2.411 255 255 255
0.360845 0.0119629 0.802 255 255 255
-0.777522 -0.511059 2.312 255 255 255
0.0773528 0.753889 2.449 255 255 255
-0.733034 0.535999 2.55 255 255 255
0.250496 0.445682 1.322 255 255 255
-0.437832 -0.596944 2.212 255 255 255
0.351678 0.121549 0.724 255 255 255
0.732402 -0.620035 2.805 255 255 255
0.355554 0.0313037 0.796 255 255 255
0.321199 0.0774395 1.215 255 255 255
0.303429 0.281798 1 255 255 255
-0.139607 -0.370471 2.479 255 255 255
-0.690087 0.83023 2.236 255 255 255
-0.32742 0.569068 2.626 255 255 255
0.389986 -0.214591 0.886 255 255 255
0.320489 0.259743 0.862 255 255 255
0.353617 -0.0570648 1.068 255 255 255
0.348881 0.0997112 0.728 255 255 255
-0.481801 0.814837 2.338 255 255 255
-0.200899 -0.151207 2.593 255 255 255
-1.15087 0.162753 2.844 255 255 255
0.0266959 0.655004 2.561 255 255 255
-1.15521 0.379018 2.672 255 255 255
0.396081 -0.275615 0.835 255 255 255
0.31139 0.136299 1.247 255 255 255
0.663832 -0.886238 2.884 255 255 255
0.387492 -0.189102 0.837 255 255 255
-0.0624711 -0.549537 2.181 255 255 255
-0.0933367 0.767812 2.43 255 255 255
-0.585544 -0.637966 2.121 255 255 255
0.353632 -0.0394836 1.018 255 255 255
-0.0779726 -0.762554 2.03 255 255 255
-0.0145122 0.718749 2.479 255 255 255
-0.169113 0.84991 2.383 255 255 255
0.390012 -0.278252 0.896 255 255 255
0.352801 0.0344829 0.842 255 255 255
-1.15849 0.262948 2.731 255 255 255
0.760406 -0.92868 2.561 255 255 255
-0.746847 -0.651295 2.189 255 255 255
0.152861 0.345051 2.898 255 255 255
-0.191441 -0.780585 2.078 255 255 255
-0.432661 -0.562505 2.204 255 255 255
0.339648 0.0272547 1.036 255 255 255
-0.854487 0.512566 1.758 255 255 255
-1.28697 0.12869 2.911 255 255 255
-0.855975 0.369516 1.62 255 255 255
0.340323 0.200322 0.715 255 255 255
-0.254189 -0.730999 2.151 255 255 255
0.309767 0.298322 0.964 255 255 255
0.355328 0.0238873 0.908 255 255 255
0.301918 0.190453 1.217 255 255 255
-0.436922 0.469993 2.695 255 255 255
-0.134822 0.520543 2.707 255 255 255
-0.267575 0.590434 2.626 255 255 255
0.353925 0.102297 0.705 255 255 255
0.341756 0.067848 0.944 255 255 255
0.363359 -0.181851 1.046 255 255 255
-0.29138 -0.271361 2.572 255 255 255
-0.822157 0.812943 2.269 255 255 255
0.0930075 -0.73232 2.085 255 255 255
-0.811984 0.791395 2.303 255 255 255
0.182839 0.525533 2.78 255 255 255
0.740764 -0.512758 2.768 255 255 255
0.352142 0.0871083 0.809 255 255 255
0.291824 0.22291 1.354 255 255 255
-0.938515 -0.0405104 2.818 255 255 255
-0.370226 0.68477 2.43 255 255 255
0.181585 0.498318 2.831 255 255 255
-0.0294664 0.842154 2.383 255 255 255
-0.611516 -0.343377 2.43 255 255 255
-0.742413 0.324849 2.805 255 255 255
-0.492141 -0.210282 2.593 255 255 255
0.283895 0.368128 1.108 255 255 255
0.346755 0.130014 0.782 255 255 255
0.256304 0.420273 1.466 255 255 255
0.725875 -0.69594 2.78 255 255 255
-0.168474 0.800341 2.374 255 255 255
-0.312375 -0.711423 2.166 255 255 255
0.291531 0.19857 1.384 255 255 255
0.374876 -0.103235 0.871 255 255 255
-1.29901 0.148869 2.844 255 255 255
-0.0438166 0.0235817 2.805 255 255 255
-0.45348 0.226054 2.884 0 0 0
0.257133 0.34511 1.513 255 255 255
-0.29759 0.847948 2.356 255 255 255
0.324499 0.266778 0.819 255 255 255
-0.0834652 -0.650071 2.173 255 255 255
-0.213091 0.103562 2.871 255 255 255
0.0112336 0.0428248 2.871 255 255 255
-0.302773 -0.646534 2.173 255 255 255
0.336172 0.114614 0.937 255 255 255
0.220482 0.502568 1.624 255 255 255
-0.773598 0.225447 1.487 255 255 255
0.338649 0.19012 0.778 255 255 255
0.335135 0.0604367 1.087 255 255 255
0.372462 -0.244911 0.972 255 255 255
-0.0771914 0.635592 2.55 255 255 255
-0.915098 -0.240482 2.695 255 255 255
0.0840296 -0.303984 2.53 255 255 255
0.352879 0.0256164 0.917 255 255 255
-0.221124 -0.670285 2.136 255 255 255
-0.419026 0.0188476 2.78 255 255 255
0.714229 -0.503828 2.898 255 255 255
-1.23584 0.00565898 2.982 255 255 255
0.256453 0.385943 1.509 255 255 255
-1.16684 -0.13439 2.967 255 255 255
-1.02125 -0.295431 2.844 0 0 0
0.329298 0.157836 1.03 255 255 255
-0.963791 0.402559 2.684 255 255 255
0.382892 -0.165424 0.893 255 255 255
-0.221885 -0.787348 2.078 255 255 255
-0.289113 -0.753755 2.051 255 255 255
0.0327689 0.527275 2.719 255 255 255
-0.649779 0.616115 2.44 255 255 255
-0.81533 0.694589 2.356 255 255 255
0.333142 0.0605568 1.122 255 255 255
-0.349202 -0.441709 2.449 255 255 255
-0.0231714 -0.666654 2.158 255 255 255
-0.230618 0.860493 2.338 255 255 255
-0.581821 0.839637 2.312 255 255 255
0.322019 0.179697 1.05 255 255 255
0.333305 0.139879 0.964 255 255 255
0.308185 0.261277 0.984 255 255 255
-0.86011 0.564128 2.509 255 255 255
-0.120747 0.132832 2.898 255 255 255
-1.02591 -0.115459 2.857 0 0 0
0.378917 -0.108785 0.788 255 255 255
0.334406 0.0191576 1.158 255 255 255
-0.536115 -0.0570366 2.731 255 255 255
-0.856519 0.756071 1.959 255 255 255
-0.233021 0.758965 2.402 255 255 255
-0.713148 0.0209724 1.406 255 255 255
-0.3082 -0.451998 2.44 255 255 255
-0.0870025 -0.646534 2.173 255 255 255
-0.475595 -0.225321 2.572 255 255 255
0.371388 -0.102527 0.957 255 255 255
0.354808 0.0298632 0.867 255 255 255
-0.340582 -0.637402 2.166 255 255 255
-0.637158 -0.293425 2.582 255 255 255
-0.631095 0.830194 2.286 255 255 255
0.252716 0.481578 1.369 255 255 255
0.373225 -0.0735274 0.795 255 255 255
0.388433 -0.218577 0.851 255 255 255
-0.545311 0.359408 2.755 255 255 255
0.067765 -0.411966 2.392 255 255 255
-0.211383 -0.700381 2.143 255 255 255
-0.191641 -0.171574 2.582 255 255 255
0.299768 0.295813 1.062 255 255 255
-0.344016 0.659599 2.469 255 255 255
-1.36205 0.0638913 2.982 255 255 255
-0.572406 0.590972 2.519 255 255 255
-0.0635391 -0.716743 2.099 255 255 255
0.31463 0.275891 0.941 255 255 255
0.298444 0.283035 1.143 255 255 255
-0.190583 0.27768 2.884 255 255 255
0.386031 -0.155203 0.764 255 255 255
-1.06069 0.285169 2.731 255 255 255
0.292962 0.352275 1.05 255 255 255
-0.829167 0.197039 2.805 255 255 255
-0.337504 0.533032 2.638 255 255 255
0.368851 -0.0834455 0.857 255 255 255
-1.1114 -0.1124 2.898 255 255 255
-1.32288 0.167413 2.768 255 255 255
0.357736 0.0762332 0.708 255 255 255
-1.00757 0.126922 2.871 255 255 255
0.0468427 -0.512827 2.32 255 255 255
0.336437 0.25129 0.668 255 255 255
0.30702 0.251318 1.094 255 255 255
-0.599271 -0.673677 2.158 255 255 255
0.302939 0.340648 0.938 255 255 255
-0.192286 -0.523052 2.204 255 255 255
0.0523106 0.408899 2.818 255 255 255
-0.782671 0.769637 2.294 255 255 255
-0.693353 0.751932 2.32 255 255 255
-1.01168 0.396411 2.672 255 255 255
-0.139455 0.614843 2.55 255 255 255
0.334452 0.239192 0.738 255 255 255
0.385354 -0.169127 0.882 255 255 255
-0.742282 0.188613 1.502 255 255 255
0.372305 -0.0968149 0.932 255 255 255
-0.0789123 0.480457 2.755 255 255 255
-0.872299 -0.143394 2.768 255 255 255
0.292956 0.103292 1.291 255 255 255
0.322094 0.261745 0.837 255 255 255
-0.301435 -0.774466 2.044 255 255 255
0.324965 0.12758 1.043 255 255 255
-0.889085 0.637888 1.805 255 255 255
0.394184 -0.241839 0.831 255 255 255
0.342935 0.19895 0.706 255 255 255
-0.0255874 0.83052 2.383 255 255 255
-0.400028 0.267084 2.871 255 255 255
0.265764 0.432271 1.252 255 255 255
0.0391123 -0.650899 2.107 255 255 255
-0.147663 0.215691 2.871 0 0 0
-0.26671 0.550463 2.66 255 255 255
0.262297 0.469698 1.217 255 255 255
-0.979575 0.573481 2.411 255 255 255
0.344796 0.164509 0.737 255 255 255
0.693108 -0.810061 2.831 255 255 255
0.369488 -0.032413 0.771 255 255 255
-0.449755 0.28179 2.831 255 255 255
-0.905095 0.347389 2.731 255 255 255
0.292203 0.22522 1.316 255 255 255
0.315263 0.218393 1.039 255 255 255
0.0170178 0.838973 2.374 255 255 255
-0.177735 -0.71933 2.158 255 255 255
-0.302777 0.355275 2.793 255 255 255
-0.822231 -0.193096 2.707 255 255 255
-0.0964289 0.482828 2.743 255 255 255
-0.746847 -0.665544 2.189 255 255 255
-0.128556 -0.533206 2.158 255 255 255
-0.144737 0.874279 2.365 255 255 255
0.400196 -0.263092 0.805 255 255 255
-0.0996645 0.837549 2.392 255 255 255
0.192266 0.624051 2.66 255 255 255
-0.717436 0.0801594 1.362 255 255 255
-1.00268 -0.241168 2.805 0 0 0
0.339578 0.160637 0.795 255 255 255
-0.0224917 -0.276566 2.469 255 255 255
-0.681224 0.397198 2.707 255 255 255
-0.601907 0.397198 2.707 255 255 255
0.351792 0.12103 0.694 255 255 255
0.253419 0.303248 1.477 255 255 255
-0.104381 0.789273 2.411 255 255 255
-0.83495 0.803235 2.294 255 255 255
-0.405601 0.19501 2.911 0 0 0
0.293688 0.382578 1.017 255 255 255
0.349606 0.138378 0.732 255 255 255
-0.57362 -0.636608 2.128 255 255 255
0.111474 -0.430932 2.411 255 255 255
-0.144127 -0.588578 2.181 255 255 255
-0.747335 0.468218 2.66 255 255 255
0.0839776 -0.666822 2.114 255 255 255
-0.736691 -0.614942 2.212 255 255 255
0.732028 -0.473454 2.857 255 255 255
0.683891 -0.939056 2.831 255 255 255
-1.11916 0.468852 2.459 255 255 255
-1.16078 0.1449 2.857 255 255 255
0.288477 0.228156 1.359 255 255 255
0.367885 -0.0840615 0.878 255 255 255
0.166989 0.482272 2.818 255 255 255
0.206659 0.343506 2.925 255 255 255
0.0719583 0.805871 2.402 255 255 255
-0.249327 0.399758 2.755 255 255 255
0.232091 0.495078 1.543 255 255 255
0.377077 -0.112582 0.806 255 255 255
-0.747547 0.808754 2.278 255 255 255
-0.245841 0.860493 2.338 255 255 255
0.292661 0.390592 1.025 255 255 255
0.392819 -0.221846 0.798 255 255 255
0.304884 0.263617 1.044 255 255 255
0.389656 -0.18752 0.83 255 255 255
-0.455506 -0.608513 2.228 255 255 255
-0.472488 0.103057 2.857 255 255 255
-0.240965 -0.656118 2.158 255 255 255
0.295057 0.19419 1.369 255 255 255
0.691244 -0.562106 2.982 255 255 255
0.335793 0.163643 0.851 255 255 255
0.189469 0.767434 2.356 0 0 0
0.322547 0.244517 0.883 255 255 255
-0.170709 -0.715819 2.158 255 255 255
0.288679 0.338358 1.187 255 255 255
-0.841459 0.393823 2.684 255 255 255
0.382471 -0.150011 0.847 255 255 255
0.269843 0.323438 1.449 255 255 255
-0.429341 0.321769 2.818 255 255 255
-1.0684 0.47022 2.509 255 255 255
-0.299967 -0.657386 2.128 255 255 255
0.82784 -0.597403 2.743 255 255 255
-0.666378 -0.740404 2.051 255 255 255
0.166549 -0.737513 2.071 255 255 255
0.247194 0.451062 1.351 255 255 255
-0.659443 -0.50708 2.294 255 255 255
-0.627338 0.629408 2.43 255 255 255
0.372552 -0.254385 0.96 255 255 255
0.319677 0.0885474 1.232 255 255 255
-0.214565 0.887501 2.329 255 255 255
0.394372 -0.230213 0.778 255 255 255
0.299712 0.344886 0.967 255 255 255
0.397447 0.476272 2.731 255 255 255
-0.251573 -0.523682 2.253 255 255 255
-0.905662 0.607888 2.392 0 0 0
0.349164 -0.080944 1.189 255 255 255
-0.789709 0.268176 1.567 255 255 255
-0.421716 -0.244142 2.55 255 255 255
0.0760925 0.686834 2.54 255 255 255
-0.0244503 -0.108468 2.684 255 255 255
0.306797 0.15328 1.27 255 255 255
-0.258331 0.783985 2.383 255 255 255
-0.523052 -0.80627 2.092 255 255 255
0.391534 -0.235926 0.834 255 255 255
-1.03635 0.47163 2.561 255 255 255
-0.778917 0.837714 2.189 255 255 255
-1.06365 0.136266 2.871 255 255 255
-0.867898 0.484387 1.739 255 255 255
0.307861 0.166688 1.217 255 255 255
-0.649767 -0.285022 2.582 255 255 255
-0.428076 0.000751672 2.78 255 255 255
-0.96656 0.237102 2.793 255 255 255
0.344066 0.0106364 1.06 255 255 255
-0.667018 -0.642657 2.196 255 255 255
-0.553974 -0.208685 2.626 255 255 255
0.307264 0.319377 0.966 255 255 255
0.357066 0.0594082 0.774 255 255 255
-0.642587 0.538875 2.604 255 255 255
0.293477 0.238952 1.275 255 255 255
-0.0217903 0.814194 2.392 255 255 255
0.340804 -0.0680518 1.167 255 255 255
-0.112946 -0.681966 2.196 255 255 255
0.340532 0.207884 0.713 255 255 255
0.296636 0.323662 1.057 255 255 255
-0.858903 0.533164 1.779 255 255 255
-0.719257 0.0118455 1.409 255 255 255
-0.0122477 0.316756 2.898 255 255 255
0.712694 -0.482403 2.911 255 255 255
-0.819856 0.737767 2.347 255 255 255
-0.773377 -0.0909543 2.818 255 255 255
-0.998144 -0.165085 2.831 0 0 0
0.358471 0.0259582 0.791 255 255 255
0.318471 0.303858 0.794 255 255 255
0.393308 -0.225662 0.807 255 255 255
0.288892 0.204395 1.393 255 255 255
-0.719438 0.0276385 1.396 255 255 255
-0.440813 0.460905 2.719 255 255 255
0.373735 -0.0844533 0.813 255 255 255
-0.55767 -0.73319 2.107 255 255 255
-0.888525 -0.0859701 2.805 255 255 255
0.786616 -0.617949 2.755 255 255 255
0.39506 -0.249652 0.83 255 255 255
0.322081 0.289008 0.803 255 255 255
-0.281275 -0.290365 2.519 255 255 255
-0.146783 0.542327 2.684 255 255 255
0.0507379 0.268961 2.996 255 255 255
0.843686 -0.886592 2.32 255 255 255
-0.912415 0.444728 2.649 255 255 255
0.0713891 0.853788 2.383 255 255 255
-0.182191 0.74333 2.402 255 255 255
0.346839 0.121788 0.812 255 255 255
-0.748324 -0.563395 2.236 255 255 255
-0.0713637 -0.755947 2.03 255 255 255
0.287245 0.372198 1.222 255 255 255
0.0333783 -0.356702 2.44 255 255 255
-0.595007 -0.592127 2.181 255 255 255
0.0565757 0.64631 2.593 255 255 255
-0.25159 0.34005 2.78 255 255 255
-0.0116982 -0.0172694 2.768 255 255 255
0.273044 0.376106 1.327 255 255 255
0.395375 0.375647 2.844 255 255 255
0.0691406 -0.594299 2.189 255 255 255
-1.16473 0.440556 2.55 255 255 255
-0.925089 0.594794 2.402 255 255 255
0.676492 -1.07532 2.939 255 255 255
-0.551441 -0.588265 2.22 255 255 255
0.369669 -0.147943 1.012 255 255 255
-0.676497 0.534637 2.604 255 255 255
-1.01658 -0.155871 2.831 0 0 0
0.0137351 -0.28172 2.479 255 255 255
0.898548 -0.849908 2.365 255 255 255
0.344077 0.00211785 1.116 255 255 255
-0.89061 0.560728 1.696 255 255 255
0.0152042 -0.679385 2.121 255 255 255
-0.79149 0.0524052 2.884 255 255 255
0.221704 0.52927 1.633 255 255 255
-0.330671 0.720359 2.43 255 255 255
-0.559675 0.545038 2.593 255 255 255
-0.116326 0.667614 2.499 255 255 255
0.347992 0.125857 0.757 255 255 255
0.373802 -0.0738974 0.799 255 255 255
0.800624 -0.822296 2.479 255 255 255
-0.473297 0.710804 2.411 255 255 255
0.363256 -0.0396023 0.844 255 255 255
0.320132 -0.0151577 1.189 255 255 255
-0.381376 -0.450386 2.329 255 255 255
0.32541 0.157525 1.039 255 255 255
-0.82867 0.385579 1.655 255 255 255
-0.0407931 0.881976 2.365 255 255 255
0.336762 0.0763442 0.974 255 255 255
0.338469 0.179585 0.755 255 255 255
-0.196678 -0.146987 2.593 255 255 255
-0.333029 0.2413 2.898 255 255 255
-0.123381 0.613328 2.561 255 255 255
0.352128 0.10474 0.706 255 255 255
0.268372 0.365612 1.336 255 255 255
0.39054 -0.218706 0.868 255 255 255
-0.666894 0.625454 2.43 255 255 255
0.301811 0.184686 1.302 255 255 255
0.341874 0.205634 0.668 255 255 255
-0.0644265 0.275542 2.911 255 255 255
-0.809124 0.310554 1.575 255 255 255
-0.00242561 0.704214 2.499 255 255 255
-0.0102275 0.780405 2.42 255 255 255
0.44831 0.398017 2.743 0 0 0
0.358192 0.055414 0.771 255 255 255
0.356843 -0.0217018 0.964 255 255 255
0.322748 0.216929 0.912 255 255 255
0.350907 0.139624 0.72 255 255 255
0.373737 -0.0487869 0.772 255 255 255
0.128091 -0.743659 1.997 255 255 255
-0.601884 -0.214502 2.593 255 255 255
-0.542093 0.585796 2.55 255 255 255
-0.613096 0.108724 2.884 255 255 255
0.349514 0.111756 0.797 255 255 255
-0.0204421 -0.536197 2.244 255 255 255
0.417831 0.443206 2.719 0 0 0
-0.297497 0.581888 2.626 255 255 255
-0.928656 0.0563065 2.844 255 255 255
-1.1114 -0.00864842 2.898 255 255 255
-0.552629 -0.606921 2.196 255 255 255
0.330632 0.169754 0.93 255 255 255
-0.719035 -0.769161 2.03 255 255 255
-0.0219892 0.144276 2.939 255 255 255
0.38848 -0.165645 0.784 255 255 255
0.334527 0.111526 0.963 255 255 255
-0.244139 -0.206937 2.604 255 255 255
0.0289484 0.790236 2.402 255 255 255
-0.716964 0.096683 1.409 255 255 255
-0.562313 -0.702996 2.151 255 255 255
-0.437269 -0.218721 2.593 255 255 255
0.388972 -0.242974 0.874 255 255 255
0.738539 -0.735779 2.743 255 255 255
-0.827662 0.514961 1.893 255 255 255
0.263792 0.356181 1.429 255 255 255
0.362792 -0.00751892 0.792 255 255 255
0.343482 0.121306 0.836 255 255 255
0.355526 -0.101556 1.043 255 255 255
0.38099 -0.254265 0.92 255 255 255
-0.385642 -0.212066 2.615 255 255 255
0.332426 0.0445173 1.132 255 255 255
0.363686 -0.0162726 0.845 255 255 255
0.368197 -0.13612 0.986 255 255 255
-0.551548 0.126303 2.857 255 255 255
0.304263 0.232669 1.18 255 255 255
-0.786134 -0.558656 2.261 255 255 255
-1.26461 0.150282 2.871 255 255 255
0.794041 -0.618724 2.719 255 255 255
0.323844 0.180324 1.034 255 255 255
-0.742413 0.31572 2.805 255 255 255
0.364467 0.0250066 0.726 255 255 255
0.39954 -0.306259 0.86 255 255 255
-0.750488 0.211921 1.494 255 255 255
-0.147082 -0.300673 2.469 255 255 255
-0.944391 0.289033 2.768 255 255 255
-1.34553 0.110269 2.925 255 255 255
-0.803676 0.231474 2.78 255 255 255
0.33825 0.199494 0.78 255 255 255
-0.13057 0.397884 2.805 255 255 255
-0.8952 0.637115 1.899 255 255 255
-1.0403 0.0899509 2.884 255 255 255
-0.788916 0.812943 2.269 255 255 255
0.708775 -0.533894 2.857 255 255 255
0.325378 0.201927 0.879 255 255 255
-0.690037 0.383982 2.707 255 255 255
-0.26277 0.67168 2.499 255 255 255
-1.23358 0.213378 2.78 255 255 255
-0.891037 0.619836 1.821 255 255 255
-0.256268 0.876131 2.329 255 255 255
-0.582937 -0.583613 2.189 255 255 255
0.228862 0.682554 2.253 0 0 0
-0.870436 0.78138 2.329 255 255 255
0.289834 0.358985 1.07 255 255 255
-0.219812 0.0668076 2.898 255 255 255
-0.834354 0.471707 1.734 255 255 255
-0.0529485 0.0874869 2.805 255 255 255
0.170033 -0.670166 2.158 255 255 255
-1.27207 0.183345 2.805 255 255 255
0.304231 0.331371 0.942 255 255 255
0.355464 0.0786767 0.699 255 255 255
0.279992 0.417255 1.114 255 255 255
0.0202005 0.413485 2.818 255 255 255
-1.2514 -0.0186918 2.996 255 255 255
0.284889 0.36433 1.229 255 255 255
-1.14474 0.442457 2.561 255 255 255
-0.532475 0.868067 2.278 255 255 255
-0.508294 0.873206 2.253 255 255 255
-0.126634 0.253068 2.925 0 0 0
-0.0217326 -0.717482 2.024 255 255 255
0.32458 0.144 1.064 255 255 255
-0.929036 0.418152 2.672 255 255 255
0.0339382 -0.743004 2.004 255 255 255
-0.815469 0.187909 2.805 255 255 255
0.211299 0.565363 1.677 255 255 255
0.351712 0.0879876 0.805 255 255 255
-0.338035 -0.767813 2.044 255 255 255
-0.910711 0.38228 2.695 255 255 255
-0.345342 0.315481 2.844 255 255 255
-0.700949 -0.673761 2.136 255 255 255
0.195039 -0.764236 2.017 255 255 255
0.325003 0.209049 0.91 255 255 255
-0.947024 0.501106 2.166 255 255 255
0.335679 -0.0263168 1.169 255 255 255
-0.984746 -0.353765 2.793 0 0 0
-0.9835 0.569558 2.411 255 255 255
0.373411 0.395142 2.818 255 255 255
-1.04496 -0.242171 2.871 255 255 255
-1.10963 0.172796 2.857 255 255 255
-0.480089 -0.0992377 2.793 255 255 255
0.351588 0.00957278 0.954 255 255 255
0.286921 0.480293 2.78 255 255 255
-0.194665 -0.580482 2.151 255 255 255
-0.41218 -0.531093 2.269 255 255 255
0.379617 -0.301999 0.906 255 255 255
-0.754753 -0.424664 2.42 255 255 255
0.334425 0.0617478 1.079 255 255 255
0.342722 0.175988 0.725 255 255 255
-0.0577811 0.390556 2.818 255 255 255
-0.011749 0.462197 2.78 255 255 255
0.748645 -0.759226 2.731 255 255 255
-0.869178 0.536783 1.753 255 255 255
0.33322 0.230859 0.746 255 255 255
-0.445037 0.841355 2.286 255 255 255
-0.579005 -0.245075 2.604 255 255 255
-0.902504 0.643662 1.882 255 255 255
0.333776 -0.0396332 1.169 255 255 255
0.335453 0.212853 0.751 255 255 255
0.665514 -0.863555 2.871 0 0 0
-0.83926 -0.121963 2.793 255 255 255
0.331735 0.0375211 1.203 255 255 255
-0.600886 -0.727898 2.044 255 255 255
-0.716942 0.0368307 1.4 255 255 255
0.362942 -0.00887449 0.798 255 255 255
0.155864 0.751995 2.43 255 255 255
-0.378342 -0.18272 2.684 255 255 255
0.0479436 0.392358 2.831 255 255 255
0.327125 0.221611 0.861 255 255 255
0.168801 -0.720159 2.099 255 255 255
0.286376 0.279643 1.262 255 255 255
0.0727971 0.755949 2.43 255 255 255
-0.465654 -0.731662 2.064 255 255 255
-0.865046 0.404894 1.668 255 255 255
0.355281 0.0923706 0.717 255 255 255
-0.178224 -0.509016 2.253 255 255 255
0.321878 0.168476 1.044 255 255 255
-0.724695 0.354925 2.755 255 255 255
-0.642198 -0.78393 2.017 255 255 255
0.358133 0.054264 0.755 255 255 255
-0.97465 0.513079 2.499 255 255 255
0.0308647 -0.23686 2.561 255 255 255
-0.726798 -0.267176 2.572 255 255 255
-0.395814 -0.208685 2.626 255 255 255
-0.699834 0.709369 2.329 0 0 0
-1.08725 -0.149403 2.884 0 0 0
0.354319 0.0793588 0.76 255 255 255
0.266091 0.465948 1.244 255 255 255
-0.61881 -0.448322 2.338 255 255 255
-0.712429 -0.0130554 2.831 255 255 255
0.351409 -0.0356326 1.051 255 255 255
-0.771322 -0.470678 2.374 255 255 255
-0.864641 0.685696 2.365 255 255 255
-1.13532 0.4195 2.626 255 255 255
-0.234846 -0.0394322 2.743 255 255 255
0.332426 0.075428 1.004 255 255 255
-0.0458815 -0.107498 2.66 255 255 255
-0.940349 0.65417 2.269 255 255 255
-0.828352 0.428765 2.684 255 255 255
-1.02125 -0.304687 2.844 0 0 0
0.135022 0.777503 2.411 255 255 255
-0.802872 0.763259 2.32 255 255 255
0.280145 0.183422 1.406 255 255 255
-0.675024 -0.735875 2.057 255 255 255
0.156817 0.357464 2.884 255 255 255
-0.663285 0.239224 2.818 255 255 255
-0.69952 -0.298563 2.519 255 255 255
-1.02946 0.510307 2.32 0 0 0
-0.897347 0.490182 2.593 255 255 255
-1.04081 0.0341104 2.925 0 0 0
-0.292763 -0.466243 2.411 255 255 255
-0.135136 0.407013 2.805 255 255 255
-0.830167 0.264373 2.793 255 255 255
0.356445 0.0200792 0.871 255 255 255
-0.333287 0.806409 2.392 255 255 255
-0.325675 0.835793 2.365 255 255 255
-0.836311 -0.511242 2.383 255 255 255
-0.130026 -0.506983 2.244 255 255 255
-1.12837 0.355672 2.66 255 255 255
0.812488 -0.889085 2.43 255 255 255
-0.784629 0.808754 2.278 255 255 255
-0.378984 0.191188 2.925 0 0 0
0.314271 0.303908 0.872 255 255 255
0.181104 0.77978 2.347 0 0 0
0.272982 0.345651 1.286 255 255 255
-1.30413 0.120363 2.939 255 255 255
-0.647912 -0.00384151 2.831 255 255 255
-0.18391 -0.503544 2.278 255 255 255
-0.989929 0.400759 2.672 255 255 255
-0.586099 -0.420066 2.329 255 255 255
0.355875 -0.0573221 0.983 255 255 255
-0.219915 0.728268 2.43 255 255 255
0.375858 -0.0859922 0.779 255 255 255
0.353194 0.0865518 0.737 255 255 255
-0.908474 0.735623 2.236 255 255 255
-0.233521 0.887501 2.329 255 255 255
-0.755209 0.159626 2.871 0 0 0
0.377908 -0.0985425 0.778 255 255 255
0.367693 -0.145127 1.039 255 255 255
0.394879 -0.260279 0.847 255 255 255
0.376498 -0.056246 0.738 255 255 255
0.372215 -0.0599677 0.804 255 255 255
0.81186 -0.75377 2.44 255 255 255
-0.447681 -0.127018 2.707 255 255 255
0.19575 0.586948 1.758 255 255 255
-0.778937 0.762171 2.294 255 255 255
-0.506551 0.850924 2.312 255 255 255
-0.460541 -0.025927 2.731 255 255 255
0.396726 -0.285426 0.848 255 255 255
-0.0351086 0.682534 2.509 255 255 255
-0.212243 0.674373 2.479 255 255 255
-0.773377 -0.0817827 2.818 255 255 255
0.332456 0.153364 0.98 255 255 255
-0.568361 -0.539849 2.244 255 255 255
0.37229 -0.073324 0.807 255 255 255
0.388191 -0.201882 0.786 255 255 255
-0.159062 -0.499614 2.294 255 255 255
0.0432333 0.906451 2.329 255 255 255
0.363294 0.0247654 0.719 255 255 255
-0.315556 0.856167 2.347 255 255 255
0.37464 -0.0963689 0.848 255 255 255
0.254141 0.431453 1.286 255 255 255
0.320931 0.367306 2.925 255 255 255
-0.423109 -0.140855 2.719 255 255 255
0.333177 0.0275432 1.116 255 255 255
0.311225 0.230362 1.122 255 255 255
-0.858935 0.393823 2.684 255 255 255
0.323096 0.111658 1.037 255 255 255
0.275494 0.432987 1.156 255 255 255
0.194404 0.669082 1.826 255 255 255
-0.556199 0.0798102 2.857 255 255 255
0.380149 -0.125451 0.78 255 255 255
0.212576 0.710152 2.236 0 0 0
-1.13346 0.34858 2.672 255 255 255
0.372717 -0.205672 0.981 255 255 255
-0.571073 -0.187318 2.626 255 255 255
-0.741267 0.317183 2.818 255 255 255
-0.70457 0.303426 2.818 255 255 255
-0.583897 0.522061 2.626 255 255 255
-0.880046 0.604296 1.893 255 255 255
0.214025 0.678451 2.509 255 255 255
-0.583609 0.75882 2.365 255 255 255
-0.180067 0.773298 2.374 255 255 255
0.0189102 0.597425 2.638 255 255 255
-0.069059 0.769656 2.411 255 255 255
0.345418 0.0604613 0.925 255 255 255
0.712861 -0.728382 2.818 255 255 255
-0.809481 -0.285022 2.582 255 255 255
0.348152 0.120657 0.771 255 255 255
-1.08255 -0.140017 2.884 0 0 0
0.320802 0.143738 1.13 255 255 255
0.24529 0.500387 1.403 255 255 255
-0.185756 -0.417797 2.449 255 255 255
-0.126375 -0.627619 2.181 255 255 255
-0.0543159 -0.119986 2.649 255 255 255
-0.663467 0.85319 2.22 255 255 255
0.14022 0.536393 2.743 255 255 255
-0.804363 0.33262 1.633 255 255 255
-0.0160577 0.491756 2.743 255 255 255
0.345739 0.0266779 0.955 255 255 255
0.0883473 0.619722 2.66 255 255 255
0.338386 0.0350298 1.017 255 255 255
0.389364 -0.212036 0.847 255 255 255
0.370535 -0.017477 0.724 255 255 255
0.188601 0.700174 1.799 255 255 255
0.312523 0.330043 0.848 255 255 255
0.298825 0.237869 1.237 255 255 255
-1.0923 0.474572 2.489 255 255 255
-0.879221 0.467408 1.739 255 255 255
0.336071 0.0676878 1.062 255 255 255
-0.224127 -0.771395 2.099 255 255 255
-1.37945 0.175593 2.755 255 255 255
-0.734218 0.0331658 2.844 255 255 255
0.285241 0.286717 1.257 255 255 255
0.35696 0.0560806 0.763 255 255 255
-0.553916 -0.667751 2.173 255 255 255
-0.0449282 -0.72952 2.03 255 255 255
0.295363 0.374414 0.958 255 255 255
-0.834034 0.507061 2.593 255 255 255
0.293207 0.321084 2.982 255 255 255
-0.339015 -0.158554 2.719 255 255 255
-0.468606 -0.328798 2.469 255 255 255
-1.09194 -0.0179931 2.884 255 255 255
0.809442 -0.979037 2.519 255 255 255
0.313877 0.162416 1.145 255 255 255
0.325892 0.180723 0.999 255 255 255
-0.431886 -0.307159 2.489 255 255 255
0.245777 0.499166 1.419 255 255 255
0.308837 0.289509 0.966 255 255 255
-0.423683 -0.766888 2.024 255 255 255
-0.0481236 0.890541 2.347 255 255 255
0.346987 0.119867 0.774 255 255 255
-1.01199 0.162753 2.844 255 255 255
-0.461451 0.285082 2.818 255 255 255
0.333626 0.261338 0.68 255 255 255
-0.720581 -0.285639 2.55 255 255 255
0.327555 0.28286 0.736 255 255 255
-0.672271 0.589656 2.479 255 255 255
-0.229431 0.801155 2.365 255 255 255
-0.751545 0.30659 2.805 255 255 255
-0.156854 0.520543 2.707 255 255 255
-0.0683594 -0.588785 2.143 255 255 255
0.310233 0.255609 0.951 255 255 255
-0.932137 0.0951036 2.898 255 255 255
0.298966 0.274213 1.145 255 255 255
-0.0230104 -0.630634 2.143 255 255 255
0.362113 -0.0357762 0.851 255 255 255
0.274559 0.402394 1.16 255 255 255
-0.180472 0.480716 2.731 255 255 255
-1.05117 0.367617 2.684 255 255 255
0.0619083 0.735939 2.469 255 255 255
-0.944871 0.586436 2.236 0 0 0
-0.184629 -0.464707 2.383 255 255 255
-0.830587 0.0751609 2.857 255 255 255
0.299181 0.345244 0.986 255 255 255
0.0392023 0.650836 2.561 255 255 255
0.317494 0.249159 0.927 255 255 255
-0.41288 0.723786 2.402 255 255 255
0.331479 0.243273 0.782 255 255 255
