ply
format ascii 1.0
comment Created by Open3D
element vertex 1304
property double x
property double y
property double z
property uchar red
property uchar green
property uchar blue
end_header
0.147519 -0.237649 1.763 255 255 255
-0.65602 0.135368 2.071 255 255 255
0.742739 0.343906 2.572 255 255 255
0.721459 -0.303402 2.365 255 255 255
-0.444708 0.281525 2.158 255 255 255
0.485438 0.319918 2.884 255 255 255
0.690726 0.0587851 2.55 255 255 255
-0.0206871 -0.30447 1.673 255 255 255
0.0493103 -0.361164 1.646 255 255 255
0.637376 0.699033 2.411 255 255 255
-0.200466 -0.534197 1.528 255 255 255
0.118484 -0.22267 1.758 255 255 255
0.0249342 0.59621 2.392 255 255 255
0.74308 0.632539 2.489 255 255 255
-0.75313 -0.431911 1.62 0 0 0
0.0239867 -0.486631 1.567 255 255 255
-0.705164 0.4311 2.261 255 255 255
-0.688763 0.755648 2.22 255 255 255
0.286902 0.276014 2.967 255 255 255
-1.05807 0.334148 2.411 255 255 255
0.787235 -0.491302 2.099 255 255 255
-0.426301 -0.274033 1.739 255 255 255
0.670109 -1.02956 2.649 255 255 255
0.682792 0.0815609 2.615 255 255 255
0.629655 -0.478967 2.755 255 255 255
-0.159371 0.131105 2.057 255 255 255
0.879186 -0.142052 1.947 0 0 0
0.0960778 0.156115 2.078 255 255 255
-0.764651 0.755648 2.22 255 255 255
-1.11982 0.58064 2.392 255 255 255
0.116577 -0.345931 1.65 255 255 255
0.104023 -0.137566 1.805 255 255 255
-0.296206 0.25611 2.151 255 255 255
0.685047 -0.32466 2.499 255 255 255
0.65499 0.814434 2.294 255 255 255
-0.16019 -0.409192 1.624 255 255 255
0.422781 0.715348 2.374 255 255 255
-0.656787 -0.35705 1.677 255 255 255
0.818196 0.279042 2.312 255 255 255
0.0640031 -0.11609 1.837 255 255 255
0.200984 0.764389 2.312 255 255 255
0.095047 -0.24985 1.748 255 255 255
0.577444 -0.423356 2.996 255 255 255
0.495561 -0.982359 2.638 255 255 255
0.0640031 -0.128048 1.837 255 255 255
0.71038 -0.92868 2.561 255 255 255
0.706723 -0.302582 2.42 255 255 255
0.62417 -0.73256 2.731 255 255 255
0.829824 -0.16576 2.044 255 255 255
-0.421323 -0.0245149 1.923 255 255 255
0.551006 -0.856301 2.743 255 255 255
-0.579691 -0.32976 1.691 255 255 255
0.894739 -0.236308 1.842 0 0 0
-0.00458105 -0.23478 1.763 255 255 255
-0.464542 -0.47555 1.616 255 255 255
0.02963 0.271995 2.166 255 255 255
-0.401252 0.10034 2.044 255 255 255
0.199068 0.27768 2.884 0 0 0
-0.936812 0.588425 2.392 0 0 0
0.803828 0.0705198 2.261 255 255 255
0.587566 0.0579101 2.925 255 255 255
0.0484374 0.791775 2.22 255 255 255
0.685826 -0.429323 2.402 255 255 255
-0.701797 0.718592 2.286 255 255 255
-0.370863 -0.234114 1.758 255 255 255
-1.26917 0.555705 2.402 255 255 255
0.646062 -0.48753 2.459 0 0 0
-0.461531 0.459791 2.294 255 255 255
-0.112061 -0.371218 1.655 255 255 255
0.0556738 0.176999 2.085 255 255 255
-0.538204 0.777865 2.181 255 255 255
-0.0357332 -0.0456962 1.893 255 255 255
0.490342 0.383144 2.831 255 255 255
-0.0208976 0.777103 2.294 255 255 255
-0.0467745 -0.406145 1.633 255 255 255
0.412316 0.316756 2.898 255 255 255
-0.422618 -0.558581 1.487 255 255 255
0.882849 0.0426585 1.991 255 255 255
0.13345 0.531795 2.53 0 0 0
0.057209 -0.4164 1.642 255 255 255
0.792554 0.517041 2.479 255 255 255
-0.332351 0.170784 2.092 255 255 255
-0.492329 0.834811 2.136 255 255 255
-0.817153 0.391226 2.286 255 255 255
-0.0898976 -0.196313 1.805 255 255 255
0.732397 -0.571746 2.212 255 255 255
-0.0464662 -0.521656 1.535 255 255 255
-0.225962 -0.450856 1.603 255 255 255
-0.781914 0.75112 2.228 255 255 255
0.628126 -0.527167 2.871 255 255 255
-0.0943019 -0.463263 1.583 255 255 255
-1.18032 0.597177 2.365 255 255 255
-0.574982 -0.417414 1.646 255 255 255
0.0398994 0.702257 2.356 255 255 255
-0.0155775 -0.272245 1.71 255 255 255
0.553041 -0.928107 2.731 255 255 255
0.539154 -0.951444 2.684 255 255 255
-0.409027 0.760124 2.212 255 255 255
0.0534584 -0.076259 1.887 255 255 255
-0.470749 0.784964 2.181 255 255 255
-0.428793 -0.0609052 1.887 255 255 255
-0.536156 -0.487788 1.579 255 255 255
-0.845265 0.696666 2.312 255 255 255
-0.542166 -0.468818 1.62 255 255 255
-0.530576 0.323843 2.136 255 255 255
-0.668483 0.331916 2.166 255 255 255
-0.0761101 -0.268444 1.758 255 255 255
0.810176 0.680937 2.459 0 0 0
-0.98791 0.594905 2.356 255 255 255
0.0109246 -0.542719 1.524 255 255 255
0.86087 -0.325166 1.853 255 255 255
-0.156658 0.274502 2.158 255 255 255
0.322081 0.0996055 0.65 255 255 255
-0.841435 0.0949255 2.071 255 255 255
0.456481 0.437088 2.793 255 255 255
-0.599688 0.566821 2.383 255 255 255
0.864448 0.571901 2.356 255 255 255
-0.675311 0.828949 2.121 255 255 255
0.883994 -0.290713 1.826 255 255 255
-0.22427 -0.455248 1.591 255 255 255
-0.572874 -0.149083 1.876 255 255 255
0.390264 -0.793808 2.743 255 255 255
-0.361501 0.087887 2.064 255 255 255
-0.177627 -0.139548 1.831 255 255 255
-0.228987 -0.302529 1.724 255 255 255
-0.304401 -0.541264 1.513 255 255 255
-0.0267742 -0.275671 1.714 255 255 255
0.80946 -0.610977 1.947 255 255 255
-0.243846 -0.0852448 1.882 255 255 255
0.313316 0.216339 0.742 255 255 255
0.842962 -0.386587 1.966 255 255 255
0.764198 0.425523 2.44 255 255 255
0.898096 0.216253 2.071 255 255 255
0.538888 0.352506 2.844 255 255 255
0.808742 0.0918999 2.244 255 255 255
-0.690442 0.530444 2.261 255 255 255
0.0718965 -0.487965 1.555 255 255 255
0.0970045 -0.179513 1.784 255 255 255
0.68663 -0.844121 2.181 255 255 255
0.70244 -0.867396 2.392 255 255 255
-0.0364715 -0.489183 1.535 255 255 255
-0.763136 -0.216153 1.799 255 255 255
0.231643 0.629997 2.479 255 255 255
-0.04698 -0.259883 1.739 255 255 255
-0.0778449 -0.475215 1.563 255 255 255
0.581514 0.208418 2.967 255 255 255
0.320505 0.204299 0.678 255 255 255
0.0477825 -0.451201 1.595 255 255 255
0.319704 0.245599 0.708 255 255 255
0.870356 -0.347075 1.81 255 255 255
-0.0734018 -0.00570294 1.911 255 255 255
-0.288345 -0.150143 1.815 255 255 255
-0.723333 -0.482348 1.595 255 255 255
-0.41371 0.290031 2.143 255 255 255
0.801502 -0.0675501 2.204 255 255 255
0.640915 -0.426728 2.55 255 255 255
-0.9652 0.768768 2.136 255 255 255
-0.110323 0.0260332 1.959 255 255 255
0.489199 0.848423 2.236 255 255 255
-0.716701 0.125257 2.071 255 255 255
0.844881 -0.425892 1.941 255 255 255
-0.285329 -0.0148908 1.893 255 255 255
0.0807083 0.653134 2.43 255 255 255
0.306362 0.756864 2.312 255 255 255
0.639015 0.219289 2.857 255 255 255
-0.595532 -0.261202 1.729 255 255 255
0.695706 -0.229276 2.479 255 255 255
0.82785 -0.463485 1.953 255 255 255
0.0608579 -0.510665 1.532 255 255 255
-0.149536 0.744382 2.32 255 255 255
-0.647832 -0.363276 1.668 255 255 255
0.540631 -0.793492 2.805 255 255 255
-1.34991 0.298042 2.768 255 255 255
0.578476 0.494281 2.684 255 255 255
0.317319 0.205563 0.713 255 255 255
-1.07308 0.708219 2.253 255 255 255
0.788469 -0.173431 2.228 255 255 255
-1.21391 0.418162 2.54 255 255 255
0.616009 0.589945 2.55 255 255 255
0.904149 0.0482007 1.953 255 255 255
0.740189 -0.401859 2.269 255 255 255
-0.0553127 -0.298641 1.734 255 255 255
-0.333572 -0.076259 1.887 255 255 255
-0.334727 0.0532467 2.024 255 255 255
0.0483682 -0.00261754 1.929 255 255 255
0.77841 -0.382343 2.22 255 255 255
0.00901114 0.765161 2.303 255 255 255
-0.941806 0.823477 2.107 255 255 255
-0.32972 -0.491758 1.551 255 255 255
-0.251569 0.690755 2.356 255 255 255
-0.61193 -0.372115 1.659 255 255 255
-0.200186 0.785322 2.212 255 255 255
0.797327 0.394468 2.42 255 255 255
0.0133085 0.633882 2.402 255 255 255
-0.192855 0.134453 2.057 255 255 255
0.594442 -0.674937 2.844 255 255 255
0.150327 0.611385 2.469 255 255 255
0.71411 -0.0433527 2.459 255 255 255
0.843746 -0.342715 1.953 255 255 255
-0.748813 -0.301084 1.7 255 255 255
-0.214589 0.374962 2.212 255 255 255
-0.28155 0.35067 2.173 255 255 255
0.0434013 -0.518144 1.532 255 255 255
0.911168 -0.176725 1.815 255 255 255
-0.497451 -0.484944 1.595 255 255 255
-1.40549 0.190522 2.844 255 255 255
-0.39668 0.749211 2.244 255 255 255
-0.069673 -0.484186 1.551 255 255 255
-1.10674 0.737972 2.189 255 255 255
-0.166032 -0.469801 1.579 255 255 255
0.748621 -0.389404 2.261 255 255 255
-0.356493 0.17602 2.114 255 255 255
-1.0145 0.625988 2.329 255 255 255
0.0651528 -0.0877444 1.87 255 255 255
0.794591 0.166745 2.32 255 255 255
0.317764 0.202366 0.714 255 255 255
0.865383 -0.651797 1.758 255 255 255
-0.58208 0.728018 2.269 255 255 255
-0.21836 0.258644 2.143 255 255 255
0.623453 0.206347 2.871 255 255 255
0.124326 0.806226 2.22 255 255 255
-0.786641 0.15882 2.114 255 255 255
-1.25652 0.350146 2.684 255 255 255
0.403388 0.804154 2.286 255 255 255
0.812363 -0.105158 2.166 255 255 255
-0.334569 0.482189 2.294 255 255 255
-0.514098 0.0298924 2.004 255 255 255
0.326162 0.127175 0.667 255 255 255
0.323987 0.168847 0.656 255 255 255
0.486148 -0.895913 2.755 255 255 255
-0.505822 0.0299818 2.01 255 255 255
0.0522462 -0.26063 1.744 255 255 255
-0.462652 -0.275451 1.748 255 255 255
-0.103297 -0.321215 1.734 255 255 255
0.709752 -0.666654 2.278 255 255 255
0.817188 -0.228613 2.071 255 255 255
0.757127 -0.741958 2.01 255 255 255
0.896395 -0.441049 1.821 255 255 255
0.0611583 -0.332488 1.677 255 255 255
-0.126521 -0.408802 1.633 255 255 255
-1.2335 0.352928 2.672 255 255 255
0.851147 0.338966 2.166 255 255 255
-0.795318 0.657547 2.32 255 255 255
-1.12498 0.616993 2.338 255 255 255
0.0376829 0.126081 2.03 255 255 255
-0.152471 -0.368525 1.655 255 255 255
-0.593559 0.533774 2.374 255 255 255
-0.515217 -0.535804 1.547 255 255 255
-0.208679 -0.119404 1.842 255 255 255
-0.289964 -0.571548 1.502 255 255 255
0.631377 -0.280475 2.743 255 255 255
0.855993 -0.152733 2.004 255 255 255
-1.19641 0.61104 2.374 255 255 255
-0.111774 -0.00575666 1.929 255 255 255
-0.29848 0.777324 2.22 255 255 255
0.693931 0.148389 2.593 255 255 255
-0.968945 0.365883 2.338 0 0 0
-0.622479 -0.569104 1.502 255 255 255
0.315984 0.216252 0.71 255 255 255
0.841473 -0.180607 2.024 255 255 255
-0.126424 -0.506669 1.535 255 255 255
-0.759677 -0.225964 1.784 255 255 255
-1.38622 -0.524177 2.805 255 255 255
0.336385 0.819903 2.189 255 255 255
-0.220988 0.800415 2.204 255 255 255
0.535259 0.471827 2.731 255 255 255
-0.548854 0.291624 2.181 255 255 255
-0.840406 -0.435151 1.673 255 255 255
0.791898 0.0301528 2.269 255 255 255
0.279633 0.671705 2.44 255 255 255
0.240088 0.719877 2.402 255 255 255
-0.47109 -0.20967 1.769 255 255 255
-0.565458 -0.285609 1.758 255 255 255
-0.620863 -0.283711 1.729 255 255 255
-0.643512 0.777156 2.189 255 255 255
-1.01103 0.498913 2.43 0 0 0
-0.567458 0.763724 2.212 255 255 255
-0.0452251 -0.573366 1.494 255 255 255
-1.40102 0.290286 2.78 255 255 255
0.687286 -0.326135 2.449 255 255 255
-0.232479 -0.427155 1.612 255 255 255
-0.852383 0.73281 2.261 255 255 255
-0.309935 -0.335264 1.691 255 255 255
0.870356 -0.352966 1.81 255 255 255
0.585594 -0.496608 2.939 255 255 255
0.300243 0.646134 2.479 255 255 255
-0.659869 0.268615 2.196 255 255 255
-0.516437 -0.153515 1.893 255 255 255
-0.211782 0.659891 2.383 0 0 0
0.361006 0.459813 2.793 255 255 255
0.59317 0.628488 2.489 255 255 255
0.70462 -0.277288 2.44 255 255 255
-0.251553 0.331879 2.189 255 255 255
0.721102 0.541151 2.615 0 0 0
0.665927 -0.355953 2.519 255 255 255
-0.651351 0.743869 2.228 255 255 255
0.679112 -0.776784 2.365 255 255 255
-0.41288 0.633882 2.402 0 0 0
-1.06316 0.671468 2.303 255 255 255
-0.306274 -0.337016 1.686 255 255 255
-0.677539 0.810907 2.128 255 255 255
0.0100008 -0.16694 1.805 255 255 255
-0.99125 0.506821 2.43 0 0 0
0.655155 0.374617 2.768 255 255 255
0.725726 0.618813 2.499 255 255 255
-0.695025 -0.0880259 1.876 255 255 255
-0.382562 -0.0400363 1.917 255 255 255
0.554858 0.387751 2.831 255 255 255
-0.435779 0.797189 2.166 255 255 255
-0.808027 -0.428422 1.668 255 255 255
0.896396 -0.445503 1.815 255 255 255
-0.325088 -0.43431 1.629 255 255 255
-0.0525779 0.189291 2.071 255 255 255
0.032838 -0.169368 1.769 255 255 255
-0.674292 0.734604 2.244 255 255 255
0.319031 0.203474 0.694 255 255 255
-1.35167 0.454488 2.582 255 255 255
-0.0767483 -0.137389 1.842 255 255 255
-0.843524 0.249034 2.181 255 255 255
0.86022 -0.439694 1.905 255 255 255
-0.80763 0.440824 2.312 255 255 255
-1.22034 0.609478 2.383 255 255 255
-0.925067 0.346585 2.286 0 0 0
-0.037084 0.684442 2.374 255 255 255
-0.549049 -0.53693 1.543 255 255 255
0.319275 0.240649 0.697 255 255 255
0.66582 -0.638363 2.55 255 255 255
-0.319016 0.000521574 1.929 255 255 255
0.322335 0.175143 0.64 255 255 255
-0.0526415 -0.279692 1.739 255 255 255
0.723408 -0.155625 2.286 255 255 255
-0.14652 -0.205065 1.779 255 255 255
0.326852 0.828055 2.173 255 255 255
-0.0441966 -0.486711 1.543 255 255 255
-0.332871 -0.368705 1.668 255 255 255
0.113694 0.628916 2.459 255 255 255
-0.435084 -0.538402 1.505 255 255 255
0.493939 0.638066 2.479 255 255 255
-0.4814 0.777865 2.181 255 255 255
0.826497 -0.3354 2.044 255 255 255
-0.702479 0.315308 2.173 255 255 255
0.73576 -0.581201 2.128 255 255 255
0.0968696 -0.470782 1.591 255 255 255
0.145482 0.817719 2.212 255 255 255
0.578476 0.498649 2.684 255 255 255
-0.215706 -0.328785 1.686 255 255 255
0.403528 0.651563 2.469 255 255 255
-0.358193 0.44917 2.278 255 255 255
-0.356012 0.723003 2.312 255 255 255
-0.31553 0.115147 2.071 255 255 255
-0.202268 0.176999 2.085 255 255 255
-1.11939 0.682711 2.303 255 255 255
0.866445 -0.442601 1.865 255 255 255
-0.338164 -0.485435 1.555 255 255 255
-0.0531271 0.80112 2.236 255 255 255
-0.134691 0.434779 2.261 255 255 255
0.0116773 -0.37599 1.629 255 255 255
0.769261 0.386384 2.469 255 255 255
0.715965 -0.624354 2.286 255 255 255
-0.559675 -0.348192 1.714 255 255 255
-0.578413 -0.154024 1.826 255 255 255
0.901318 -0.2051 1.831 255 255 255
-0.491054 -0.274166 1.758 255 255 255
0.109347 0.354714 2.365 0 0 0
-0.882502 0.314655 2.244 255 255 255
0.534067 0.854688 2.196 255 255 255
-0.0882472 -0.494281 1.567 255 255 255
-0.0315561 -0.510493 1.539 255 255 255
0.580193 0.822952 2.236 255 255 255
0.892274 -0.0152684 1.941 255 255 255
0.705058 -0.995451 2.572 255 255 255
-0.0441332 0.738743 2.338 255 255 255
-0.550811 0.182295 2.107 255 255 255
0.872607 0.535342 2.347 255 255 255
0.0916762 -0.399148 1.637 255 255 255
-1.01863 0.361291 2.383 0 0 0
-0.588051 0.562943 2.383 255 255 255
0.686133 0.360352 2.695 255 255 255
0.663884 0.287713 2.844 255 255 255
-0.144186 0.533561 2.356 255 255 255
0.741243 -0.807869 2.114 255 255 255
-0.122676 0.48221 2.312 255 255 255
-0.428146 0.792062 2.181 255 255 255
0.576718 0.337165 2.871 255 255 255
-0.576468 -0.264072 1.748 255 255 255
0.783055 0.204617 2.365 255 255 255
-0.6658 -0.358966 1.686 255 255 255
0.841154 -0.251379 1.911 255 255 255
0.39147 0.651563 2.469 255 255 255
-0.198389 0.0417158 1.947 255 255 255
0.613428 0.628488 2.489 255 255 255
0.90097 0.0291316 1.953 255 255 255
0.721075 -0.704176 2.244 255 255 255
0.90367 -0.158887 1.848 255 255 255
0.0790242 -0.0368012 1.911 255 255 255
0.713223 -0.41408 2.338 255 255 255
0.39678 0.834511 2.228 255 255 255
-0.0465242 0.432625 2.269 255 255 255
0.07194 0.300193 2.166 255 255 255
-0.937294 0.719997 2.244 255 255 255
0.0308202 0.418576 2.253 255 255 255
0.900736 -0.116406 1.842 255 255 255
0.854652 -0.0455647 2.024 255 255 255
-0.327903 0.208804 2.064 255 255 255
0.889898 -0.0245914 1.929 255 255 255
-0.0555737 0.310505 2.189 255 255 255
0.218251 0.0872975 2.953 0 0 0
-0.16595 0.450747 2.286 255 255 255
-1.33762 0.235148 2.939 255 255 255
-0.61881 0.445781 2.338 255 255 255
-0.204414 -0.477935 1.539 255 255 255
0.0917544 -0.0306776 1.917 255 255 255
0.888341 0.195369 2.064 255 255 255
-0.240571 0.455239 2.253 255 255 255
-0.706312 -0.354527 1.691 255 255 255
-0.0727726 -0.426638 1.62 255 255 255
0.254145 0.312597 2.818 255 255 255
-0.995274 0.432236 2.411 0 0 0
0.76162 -0.515169 2.085 255 255 255
-1.01437 0.703712 2.286 255 255 255
-0.668832 -0.280497 1.744 255 255 255
0.518222 0.817064 2.22 255 255 255
-0.152081 0.241208 2.143 255 255 255
-0.0679738 -0.128814 1.848 255 255 255
0.694919 -0.718553 2.278 255 255 255
-0.0874619 0.0163685 1.947 255 255 255
0.721854 0.414552 2.649 255 255 255
-1.11448 0.393757 2.44 255 255 255
-0.0588135 -0.334418 1.673 255 255 255
0.746984 -0.663111 2.181 255 255 255
-0.4769 -0.18101 1.859 255 255 255
-0.648595 -0.421056 1.629 255 255 255
-0.732976 -0.189682 1.826 255 255 255
-0.58929 -0.310044 1.719 255 255 255
-0.380209 -0.0280755 1.953 255 255 255
0.310201 0.251842 0.758 255 255 255
-0.284639 0.830572 2.143 255 255 255
-0.75977 -0.0786151 1.87 255 255 255
0.827753 -0.252183 1.991 255 255 255
-0.549055 0.261468 2.196 255 255 255
0.610466 0.780595 2.338 255 255 255
-0.530303 0.828949 2.121 255 255 255
0.688033 0.78277 2.356 255 255 255
0.318614 0.165802 0.674 255 255 255
0.808318 0.0666039 2.253 255 255 255
-1.05414 0.334148 2.411 255 255 255
-0.204903 -0.567519 1.524 255 255 255
0.604759 0.323148 2.871 0 0 0
-0.0501132 -0.457195 1.571 255 255 255
-0.733258 0.562783 2.303 255 255 255
-0.547502 -0.282435 1.774 255 255 255
-0.653471 -0.465839 1.583 255 255 255
-0.153543 -0.00263383 1.941 255 255 255
0.734298 -0.0505414 2.42 255 255 255
-0.442804 -0.496831 1.567 255 255 255
-0.377067 0.757456 2.236 255 255 255
-1.00324 0.627006 2.347 255 255 255
-0.121427 -0.506669 1.535 255 255 255
-0.227685 0.531523 2.347 255 255 255
0.284763 0.763259 2.32 255 255 255
-0.0460614 -0.310294 1.705 255 255 255
-0.675683 -0.422406 1.624 255 255 255
0.0394919 -0.468611 1.575 255 255 255
0.249747 0.587632 2.54 255 255 255
-0.469372 0.604869 2.411 255 255 255
-0.345459 0.372705 2.22 255 255 255
-0.660312 -0.353478 1.686 255 255 255
-0.0532746 0.061506 1.972 255 255 255
-0.21539 -0.549116 1.528 255 255 255
-0.12153 0.246408 2.158 255 255 255
-0.0547492 -0.406145 1.633 255 255 255
0.076705 -0.369416 1.659 255 255 255
0.322203 0.227246 0.646 255 255 255
-0.0391373 0.783404 2.269 255 255 255
-0.016482 -0.519158 1.535 255 255 255
0.860631 -0.271766 1.859 255 255 255
0.852678 -0.641622 1.81 255 255 255
0.587858 -0.664074 2.857 255 255 255
-0.762516 -0.263468 1.744 255 255 255
0.110936 -0.350449 1.646 255 255 255
-0.79317 0.76647 2.189 255 255 255
0.813816 -0.17132 2.071 255 255 255
0.675183 0.809538 2.312 255 255 255
0.688311 0.0551068 2.572 255 255 255
-0.38579 -0.0731882 1.887 255 255 255
0.598887 0.700587 2.43 255 255 255
0.325468 0.115998 0.659 255 255 255
-0.442311 0.666276 2.392 0 0 0
-0.00921743 0.820456 2.181 255 255 255
-0.739334 0.636624 2.383 0 0 0
0.0402075 0.310768 2.166 255 255 255
0.381224 0.732928 2.356 255 255 255
0.772333 -0.712713 1.865 255 255 255
0.847376 -0.490836 1.911 255 255 255
0.789015 0.268221 2.383 255 255 255
-0.365872 0.723936 2.303 255 255 255
0.791208 -0.214427 2.166 255 255 255
-0.261337 0.154815 2.017 255 255 255
0.638057 0.684939 2.459 255 255 255
-0.673431 0.537395 2.356 255 255 255
-0.60788 0.802092 2.189 255 255 255
0.135022 0.679416 2.411 255 255 255
-1.07936 0.800518 2.128 255 255 255
0.830497 0.429926 2.294 255 255 255
-0.145978 0.154537 2.057 255 255 255
0.662633 0.103408 2.743 255 255 255
-0.581608 -0.485389 1.563 255 255 255
-0.523265 -0.557657 1.491 255 255 255
-0.501175 -0.431854 1.65 255 255 255
-0.300737 -0.0426156 1.893 255 255 255
-0.637548 -0.052186 1.905 255 255 255
-0.131474 0.753865 2.269 255 255 255
-0.357674 0.1697 2.121 255 255 255
-0.744517 0.0509402 2.064 255 255 255
0.0985479 -0.313986 1.71 255 255 255
0.508523 -0.950787 2.707 255 255 255
-0.496037 0.0138102 2.037 255 255 255
-0.743296 0.232361 2.158 255 255 255
0.887169 -0.511746 1.739 255 255 255
-0.416507 -0.0946836 1.887 255 255 255
0.811066 -0.237917 2.064 255 255 255
0.137115 -0.313068 1.705 255 255 255
-0.533176 -0.0910788 1.876 255 255 255
-0.534255 -0.463546 1.62 255 255 255
-0.225122 -0.0377256 1.959 255 255 255
0.0303818 -0.165922 1.794 255 255 255
0.178752 0.564732 2.53 255 255 255
-0.0359425 -0.364265 1.624 255 255 255
0.100142 0.0387849 1.959 255 255 255
0.692498 -0.0327885 2.572 255 255 255
-0.532528 0.797756 2.158 255 255 255
-0.130482 -0.268444 1.758 255 255 255
-1.12258 0.58948 2.365 255 255 255
0.101471 0.0716022 1.985 255 255 255
-0.602175 0.0788099 2.004 255 255 255
-0.815157 0.674092 2.312 255 255 255
0.837465 0.134031 2.158 255 255 255
-0.563237 -0.244215 1.769 255 255 255
0.453475 -0.777812 2.831 255 255 255
0.0792141 -0.357752 1.655 255 255 255
0.839913 0.436318 2.269 255 255 255
-0.761912 -0.17741 1.853 255 255 255
-1.40828 0.212686 2.831 255 255 255
0.438667 0.551062 2.684 255 255 255
-0.784982 0.765347 2.196 255 255 255
-0.286085 0.706091 2.356 255 255 255
0.810176 0.656927 2.459 0 0 0
0.704095 -0.356386 2.411 255 255 255
-0.567727 -0.397608 1.664 255 255 255
-0.492635 -0.207376 1.774 255 255 255
-0.949336 0.666453 2.365 255 255 255
-0.714248 -0.339031 1.71 255 255 255
0.671452 -0.35454 2.509 255 255 255
0.645425 -0.450235 2.519 255 255 255
0.523229 -1.01208 2.626 255 255 255
-0.38631 -0.531962 1.487 255 255 255
-0.473103 0.000543475 2.01 255 255 255
-0.280397 0.608174 2.44 255 255 255
0.308051 0.809251 2.269 255 255 255
-0.182626 -0.476431 1.567 255 255 255
-0.392702 -0.0971845 1.876 255 255 255
-0.273279 0.271704 2.136 255 255 255
-0.666378 0.110697 2.051 255 255 255
-0.674085 0.0903617 2.044 255 255 255
-0.525634 -0.505737 1.563 255 255 255
0.6247 -0.717375 2.793 255 255 255
0.657726 -0.663396 2.519 255 255 255
0.628591 -0.142051 2.831 255 255 255
0.675209 -0.684581 2.42 255 255 255
0.681916 -0.54268 2.402 255 255 255
-0.572667 0.405344 2.261 255 255 255
-0.701787 0.201427 2.128 255 255 255
-0.791133 -0.154279 1.865 255 255 255
-0.493792 -0.546974 1.543 255 255 255
0.618252 -0.373543 2.805 255 255 255
0.743125 -0.184737 2.278 255 255 255
-0.464053 -0.0580183 1.893 255 255 255
0.840767 -0.554047 1.842 255 255 255
0.586752 0.674373 2.479 255 255 255
0.821657 -0.617664 1.853 255 255 255
-0.748595 0.813136 2.143 255 255 255
-1.01028 0.728682 2.204 255 255 255
0.342735 0.747269 2.329 255 255 255
0.00103242 -0.47509 1.571 255 255 255
-0.471831 -0.567791 1.505 255 255 255
0.791096 -0.630415 2.03 255 255 255
-1.29307 0.281959 2.743 255 255 255
-0.020143 -0.394546 1.629 255 255 255
0.644054 0.340112 2.818 255 255 255
-0.298684 -0.53001 1.509 255 255 255
-0.257355 0.661263 2.374 0 0 0
0.0855925 0.749225 2.347 255 255 255
-0.436262 0.816171 2.151 255 255 255
-0.626842 0.520286 2.383 255 255 255
-0.528826 0.809648 2.143 255 255 255
0.686133 -1.01674 2.695 255 255 255
0.432236 0.578795 2.593 255 255 255
-0.387607 0.0394185 1.991 255 255 255
0.778405 -0.658084 1.865 255 255 255
-0.411161 0.650706 2.392 0 0 0
-0.584357 0.795611 2.181 255 255 255
-0.573349 -0.0716756 1.848 255 255 255
-0.622571 -0.186878 1.799 255 255 255
-0.426021 0.0266312 2.004 255 255 255
-0.353966 0.649673 2.374 0 0 0
-0.38415 0.441755 2.278 255 255 255
0.0159651 -0.1147 1.815 255 255 255
-0.469889 -0.530769 1.547 255 255 255
-0.398905 0.400862 2.236 255 255 255
0.588605 0.476272 2.731 255 255 255
0.130684 -0.508172 1.532 255 255 255
-0.665858 0.736617 2.228 255 255 255
-0.110992 0.239384 2.158 255 255 255
0.026285 0.31292 2.181 255 255 255
-1.21959 0.524426 2.42 255 255 255
0.315984 0.219719 0.71 255 255 255
0.496419 0.809251 2.269 255 255 255
-0.727725 -0.350055 1.696 255 255 255
-0.210225 0.30546 2.204 255 255 255
-0.439859 -0.541264 1.513 255 255 255
-0.901769 0.635136 2.392 255 255 255
0.765374 -0.143959 2.278 255 255 255
0.125011 -0.556348 1.494 255 255 255
0.839449 -0.547059 1.859 255 255 255
0.0132032 0.671525 2.383 255 255 255
-0.705065 0.30937 2.181 255 255 255
0.805205 0.477169 2.42 0 0 0
-0.689547 -0.220719 1.837 255 255 255
-0.578967 -0.375256 1.673 255 255 255
0.601986 -0.929797 2.672 255 255 255
-0.0531613 0.614338 2.402 255 255 255
-0.667627 -0.179184 1.81 255 255 255
0.314583 0.259646 0.745 255 255 255
-0.186858 -0.178689 1.805 255 255 255
-0.531043 0.117716 2.057 255 255 255
-0.329279 -0.380837 1.65 255 255 255
0.170687 0.821319 2.212 255 255 255
-0.640772 0.702442 2.294 255 255 255
-1.24778 0.332675 2.684 255 255 255
-0.481012 -0.0701175 1.887 255 255 255
0.320827 0.247162 0.693 255 255 255
-0.418292 -0.410648 1.673 255 255 255
-0.207356 -0.00909408 1.972 255 255 255
0.540327 0.569068 2.626 255 255 255
-0.502789 0.816171 2.151 255 255 255
-0.380854 -0.0580183 1.893 255 255 255
-0.871222 0.640502 2.383 255 255 255
-0.151411 -0.499175 1.535 255 255 255
0.308626 0.820676 2.22 255 255 255
-0.747086 -0.483362 1.607 255 255 255
0.692498 -0.0453449 2.572 255 255 255
-0.157768 -0.555119 1.524 255 255 255
0.619375 0.360109 2.831 0 0 0
-0.508055 -0.442263 1.629 255 255 255
-0.770749 -0.190202 1.831 255 255 255
-0.0785103 0.120298 2.044 255 255 255
0.715192 -0.170707 2.449 255 255 255
0.865724 -0.252072 1.87 255 255 255
0.115294 -0.239153 1.753 255 255 255
0.167219 -0.498042 1.547 255 255 255
-0.639659 0.614338 2.402 0 0 0
-0.10305 0.474723 2.294 255 255 255
0.893441 -0.448457 1.815 255 255 255
-0.831029 0.367246 2.253 255 255 255
0.618432 -0.217565 2.982 255 255 255
0.0497471 -0.463485 1.575 255 255 255
0.831679 0.103896 2.189 255 255 255
-1.01858 0.440507 2.392 255 255 255
-0.403486 -0.229042 1.763 255 255 255
0.762934 -0.728464 1.991 255 255 255
-0.538368 -0.231911 1.763 255 255 255
-0.695404 0.760867 2.173 255 255 255
-0.711326 -0.366284 1.633 255 255 255
0.00627219 -0.422161 1.603 255 255 255
0.529859 0.70347 2.44 255 255 255
-0.650673 -0.151963 1.837 255 255 255
0.51513 0.782136 2.32 255 255 255
0.635613 -0.486403 2.649 255 255 255
0.144208 -0.449731 1.599 255 255 255
0.823064 -0.464785 1.972 255 255 255
0.352726 0.51385 2.695 255 255 255
0.872654 0.226008 2.099 255 255 255
0.31416 0.265352 0.744 255 255 255
0.734795 -0.573956 2.166 255 255 255
0.725195 -0.593344 2.212 255 255 255
-0.0469505 -0.471566 1.551 255 255 255
0.893927 -0.447221 1.81 255 255 255
-0.155327 -0.337016 1.686 255 255 255
-0.0472231 -0.235627 1.748 255 255 255
0.355063 -0.74214 2.818 0 0 0
-0.136657 0.456058 2.294 255 255 255
-0.441796 -0.409912 1.659 255 255 255
0.606461 -0.612932 2.857 255 255 255
0.587566 -0.565642 2.925 255 255 255
0.797316 0.103268 2.253 255 255 255
-0.354484 0.445462 2.278 255 255 255
-0.629329 0.0395373 1.997 255 255 255
0.628173 0.823582 2.278 255 255 255
0.00832196 -0.559327 1.502 255 255 255
-0.0620861 0.170775 2.051 255 255 255
0.743097 0.09631 2.449 255 255 255
0.536425 -0.713314 2.831 255 255 255
0.280267 0.858261 2.196 255 255 255
-0.450605 0.20566 2.136 255 255 255
0.625853 -0.90633 2.719 255 255 255
0.840786 -0.107286 2.071 255 255 255
-0.630292 -0.534921 1.509 255 255 255
-0.197957 0.753865 2.269 255 255 255
-0.046358 -0.154024 1.826 255 255 255
-0.705627 0.583997 2.374 255 255 255
-0.470013 0.736617 2.228 255 255 255
-0.113126 -0.0829246 1.899 255 255 255
0.27787 0.421481 2.78 255 255 255
0.609432 0.126922 2.871 255 255 255
-0.704291 -0.183236 1.821 255 255 255
-1.1832 0.126873 2.768 0 0 0
-0.143201 -0.318617 1.705 255 255 255
0.0967686 -0.398173 1.633 255 255 255
0.917864 0.0225654 1.935 255 255 255
-0.716682 0.685112 2.286 255 255 255
0.645123 -0.0433199 2.707 255 255 255
0.725415 -0.353858 2.269 255 255 255
0.735049 -0.57991 2.136 255 255 255
0.799163 -0.649354 2.017 255 255 255
-0.595158 0.524053 2.365 255 255 255
-0.90731 -0.39218 1.842 255 255 255
0.394976 -0.899031 2.684 255 255 255
0.831685 0.508652 2.383 255 255 255
0.0300404 0.808231 2.196 255 255 255
-0.354082 -0.578229 1.494 255 255 255
0.0463178 0.765904 2.294 255 255 255
-0.835138 0.531523 2.347 255 255 255
0.711862 0.446575 2.66 255 255 255
-0.906461 0.361465 2.286 255 255 255
-0.822748 -0.0153156 1.947 255 255 255
0.690759 -0.427536 2.392 255 255 255
-1.37812 0.405931 2.649 255 255 255
-1.213 0.517041 2.479 255 255 255
-0.665783 -0.231561 1.805 255 255 255
-0.692556 0.508197 2.244 255 255 255
0.00757123 0.0194165 1.935 255 255 255
0.314515 0.257276 0.728 255 255 255
0.0155605 -0.175125 1.769 255 255 255
-0.817978 0.446125 2.32 255 255 255
-1.28998 0.472094 2.519 255 255 255
-0.387858 0.441755 2.278 255 255 255
0.805039 -0.279924 2.128 255 255 255
-0.4505 -0.542719 1.524 255 255 255
0.858957 -0.400037 1.923 255 255 255
0.108316 -0.187695 1.779 255 255 255
-0.489547 -0.0157089 1.997 255 255 255
0.46617 0.451582 2.743 255 255 255
-1.20387 0.447498 2.519 255 255 255
-0.0555737 0.303381 2.189 255 255 255
-0.368023 0.666453 2.365 255 255 255
-0.698977 -0.365386 1.629 255 255 255
-0.616731 -0.544191 1.494 255 255 255
0.0786437 -0.229042 1.763 255 255 255
-0.0941152 -0.557837 1.498 255 255 255
0.746833 -0.0920604 2.278 255 255 255
-0.937384 0.803528 2.136 255 255 255
0.797635 -0.194077 2.136 255 255 255
0.86022 -0.442794 1.905 255 255 255
-1.07926 0.780627 2.121 255 255 255
-0.00179373 -0.113778 1.848 255 255 255
-0.0484927 0.581783 2.365 255 255 255
0.80757 0.724665 2.392 255 255 255
0.823145 0.572855 2.392 255 255 255
0.670225 -0.88156 2.684 255 255 255
0.802171 0.348804 2.459 255 255 255
0.797627 -0.395781 2.064 255 255 255
-0.751965 0.330566 2.204 255 255 255
-0.219818 -0.283552 1.763 255 255 255
0.8256 0.173861 2.173 255 255 255
-0.64769 0.808239 2.121 255 255 255
0.085489 0.782076 2.244 255 255 255
-0.939507 0.306734 2.294 0 0 0
-0.0357093 0.781833 2.286 255 255 255
0.262726 0.492072 2.672 255 255 255
0.0248285 -0.123561 1.815 255 255 255
-0.62692 0.00371762 1.959 255 255 255
-0.499283 0.202184 2.136 255 255 255
-0.441195 0.288549 2.158 255 255 255
-0.0455112 0.651951 2.411 0 0 0
0.634879 0.0512059 2.818 255 255 255
-0.517048 0.371362 2.212 255 255 255
-0.504008 -0.339001 1.724 255 255 255
-0.52185 0.31793 2.143 255 255 255
-0.169113 0.628868 2.383 0 0 0
0.0282856 0.535342 2.347 255 255 255
0.940973 -0.00257684 1.899 255 255 255
0.854434 -0.511904 1.789 255 255 255
0.14524 -0.537328 1.502 255 255 255
-0.778244 0.394135 2.303 255 255 255
-1.4769 0.155656 2.884 255 255 255
0.0708499 0.493264 2.365 255 255 255
0.536977 0.500693 2.695 255 255 255
0.314621 0.216701 0.731 255 255 255
-0.342051 -0.334246 1.714 255 255 255
0.781794 -0.198893 2.189 255 255 255
-0.77323 -0.527561 1.575 255 255 255
-1.37244 0.320564 2.768 255 255 255
0.68549 0.0850944 2.593 255 255 255
0.827038 0.561177 2.392 255 255 255
0.815115 -0.407873 2.024 255 255 255
-0.868058 0.14602 2.128 255 255 255
0.712148 -0.159778 2.347 255 255 255
0.400388 0.805559 2.269 255 255 255
0.661826 -0.675694 2.519 255 255 255
-0.310963 -0.0334798 1.899 255 255 255
-0.141493 0.474685 2.312 255 255 255
-0.419861 -0.518007 1.539 255 255 255
-0.161354 0.586211 2.383 255 255 255
0.813856 0.181887 2.228 255 255 255
0.582269 0.81129 2.244 255 255 255
-0.4678 0.694793 2.383 255 255 255
-0.23077 0.109941 2.037 255 255 255
-0.642358 0.500897 2.383 255 255 255
-1.07784 0.731726 2.181 255 255 255
-0.859062 0.432695 2.329 255 255 255
-0.427856 -0.567993 1.48 255 255 255
-0.55419 -0.1617 1.917 255 255 255
0.316048 0.259511 0.664 255 255 255
0.0604246 0.10558 2.017 255 255 255
0.0990164 -0.115079 1.821 255 255 255
0.74831 0.0880147 2.44 255 255 255
0.841614 -0.507895 1.905 255 255 255
-0.549527 -0.18101 1.859 255 255 255
-0.149152 0.568544 2.374 255 255 255
-0.275293 0.593818 2.43 255 255 255
0.642011 0.729094 2.356 255 255 255
-0.329269 0.0394185 1.991 255 255 255
-0.157215 -0.221185 1.769 255 255 255
-0.33815 -0.530609 1.532 255 255 255
0.716476 -0.231155 2.374 255 255 255
-0.195135 -0.446751 1.607 255 255 255
0.795615 -0.0144244 2.312 255 255 255
-0.104509 -0.0461307 1.911 255 255 255
0.636764 0.716485 2.365 255 255 255
-0.656097 -0.076259 1.887 255 255 255
0.326478 0.103603 0.642 255 255 255
-0.644444 -0.51327 1.555 255 255 255
-0.400616 -0.229042 1.763 255 255 255
-0.235271 0.220012 2.107 255 255 255
0.844993 0.400244 2.253 255 255 255
-0.283917 -0.290275 1.769 255 255 255
0.757219 0.225242 2.509 255 255 255
0.778936 -0.354331 2.181 255 255 255
-0.224323 -0.410452 1.629 255 255 255
0.678006 -0.706851 2.402 255 255 255
0.366955 0.594095 2.55 255 255 255
-0.478721 -0.549485 1.543 255 255 255
0.378929 0.683617 2.44 255 255 255
-0.469788 -0.520862 1.555 255 255 255
0.858374 -0.156712 1.972 255 255 255
-0.357165 -0.536683 1.528 255 255 255
-0.496949 0.696032 2.374 255 255 255
-0.180821 -0.349705 1.668 255 255 255
-0.0434233 -0.53987 1.516 255 255 255
0.635273 -0.916502 2.684 255 255 255
0.318049 0.221545 0.687 255 255 255
-0.788557 0.765347 2.196 255 255 255
0.842836 -0.0376582 2.136 255 255 255
0.837465 0.0848661 2.158 255 255 255
-0.725298 0.723492 2.278 255 255 255
-0.382751 0.144579 2.107 255 255 255
-0.18392 -0.184564 1.805 255 255 255
0.704095 -0.38385 2.411 255 255 255
-0.85424 0.657561 2.347 255 255 255
-0.703103 0.104022 2.051 255 255 255
-0.842444 0.0574622 2.057 255 255 255
-0.667639 -0.326828 1.719 255 255 255
-0.169671 0.755793 2.286 255 255 255
-0.743372 -0.187836 1.837 255 255 255
0.839291 0.213542 2.181 0 0 0
-0.127474 -0.0214522 1.929 255 255 255
0.299195 0.789274 2.286 255 255 255
-0.190494 -0.440271 1.612 255 255 255
-0.449749 0.648028 2.411 0 0 0
-0.203591 0.155063 2.064 255 255 255
-0.136894 0.000521574 1.929 255 255 255
-0.908385 0.603189 2.42 0 0 0
-0.467199 0.323567 2.181 255 255 255
-0.140624 0.222205 2.128 255 255 255
-1.26525 0.358881 2.684 255 255 255
0.709643 -0.264288 2.43 255 255 255
0.0943843 0.815378 2.196 255 255 255
0.386852 0.329305 2.884 255 255 255
-0.564561 0.454099 2.303 255 255 255
0.852012 -0.0746879 2.01 255 255 255
-0.700216 0.233222 2.166 255 255 255
-0.20426 -0.318617 1.705 255 255 255
0.162963 -0.306039 1.744 255 255 255
0.506664 -0.588716 2.898 255 255 255
0.903734 -0.167364 1.842 255 255 255
0.90097 0.0672697 1.953 255 255 255
0.432838 0.61068 2.499 255 255 255
0.471755 -0.986456 2.649 255 255 255
0.715285 -0.433544 2.32 255 255 255
0.664708 -0.629662 2.499 255 255 255
-0.819856 0.653742 2.347 255 255 255
-0.0249109 0.514082 2.32 255 255 255
-0.60209 0.466594 2.347 255 255 255
-0.244427 0.812779 2.189 255 255 255
-0.940371 0.256403 2.278 0 0 0
-0.742689 -0.33804 1.705 255 255 255
0.409909 -0.994546 2.755 0 0 0
0.808742 0.037124 2.244 255 255 255
0.794734 -0.235576 2.166 255 255 255
0.370274 0.496307 2.695 255 255 255
-0.00400939 -0.496755 1.543 255 255 255
-0.84043 0.757331 2.173 255 255 255
0.21697 0.540818 2.593 255 255 255
-0.371402 -0.0124217 1.991 255 255 255
-0.396261 -0.0703404 1.893 255 255 255
0.0976825 0.608908 2.459 0 0 0
-0.67947 0.707432 2.286 255 255 255
0.822359 -0.113702 2.128 255 255 255
0.852731 -0.0972932 2.004 255 255 255
-1.08959 0.488983 2.42 255 255 255
0.789892 0.584543 2.509 255 255 255
0.395241 0.582478 2.572 255 255 255
0.13345 0.33829 2.53 0 0 0
-0.410363 -0.0885421 1.887 255 255 255
-0.123027 0.681847 2.392 255 255 255
-0.0959562 0.499072 2.303 255 255 255
0.0284386 -0.525623 1.532 255 255 255
-0.76238 0.378736 2.278 255 255 255
-1.00312 0.538457 2.43 0 0 0
0.407174 -0.915545 2.707 255 255 255
0.0387058 -0.0618735 1.917 255 255 255
-0.28342 -0.18532 1.784 255 255 255
-0.383006 -0.333465 1.71 255 255 255
-0.837738 0.685379 2.312 255 255 255
-0.597607 -0.447129 1.599 255 255 255
-0.600829 0.224606 2.151 255 255 255
-0.65312 -0.553096 1.505 255 255 255
-0.0792785 0.185292 2.064 255 255 255
-1.4816 0.150963 2.884 255 255 255
-0.175133 -0.500558 1.524 255 255 255
-0.176879 0.77201 2.236 255 255 255
0.0415069 0.790204 2.236 255 255 255
0.879035 -0.369041 1.774 255 255 255
-0.410016 -0.56121 1.494 255 255 255
-1.11379 0.777175 2.121 255 255 255
-0.305045 -0.268444 1.758 255 255 255
0.0489209 -0.403487 1.633 255 255 255
-0.0189807 -0.519158 1.535 255 255 255
0.833498 -0.532423 1.997 255 255 255
0.694511 -0.911486 2.365 255 255 255
0.619384 0.49642 2.672 255 255 255
-1.15147 0.362993 2.53 255 255 255
0.680209 -0.772007 2.638 255 255 255
0.090123 -0.217566 1.763 255 255 255
0.848141 0.309046 2.204 255 255 255
-0.782902 0.80217 2.151 255 255 255
-0.0790541 -0.151053 1.826 255 255 255
-0.588376 0.772494 2.196 255 255 255
-0.56269 -0.471331 1.567 255 255 255
0.640307 -0.0662148 2.743 255 255 255
0.0335079 0.360376 2.189 255 255 255
-0.556455 -0.485317 1.571 255 255 255
0.653625 -0.573213 2.519 255 255 255
-0.684314 -0.163385 1.831 255 255 255
0.848569 -0.446618 1.935 255 255 255
0.0711731 -0.56584 1.487 255 255 255
-0.785467 -0.457142 1.616 255 255 255
-0.400288 -0.556348 1.494 255 255 255
0.906732 -0.107413 1.842 255 255 255
-0.567066 -0.295028 1.763 255 255 255
-0.775203 0.512054 2.294 255 255 255
-0.47523 0.0810062 1.978 255 255 255
-0.294254 -0.15605 1.815 255 255 255
-0.776317 0.17258 2.114 255 255 255
0.66582 -0.634213 2.55 255 255 255
0.189373 0.820676 2.22 255 255 255
0.652749 0.485546 2.684 0 0 0
-0.464719 -0.30814 1.724 255 255 255
-0.0380871 -0.429987 1.603 255 255 255
-0.479836 0.822339 2.158 255 255 255
0.309273 0.793926 2.278 255 255 255
-0.212526 -0.250679 1.774 255 255 255
0.32435 0.0829661 0.644 255 255 255
0.500069 0.719212 2.374 255 255 255
-0.35732 -0.44152 1.607 255 255 255
-0.203896 0.436907 2.253 255 255 255
0.889898 -0.1376 1.929 0 0 0
-0.907589 0.707054 2.261 255 255 255
0.785729 -0.412464 2.151 255 255 255
-0.29669 -0.171761 1.794 255 255 255
-0.642104 -0.125059 1.882 255 255 255
-0.705518 0.711152 2.286 255 255 255
-0.429882 -0.518007 1.539 255 255 255
-0.251553 0.374625 2.189 255 255 255
-0.0713188 0.736762 2.356 255 255 255
-0.189761 0.105946 2.024 255 255 255
-0.924142 0.563808 2.42 255 255 255
0.654443 0.268293 2.884 255 255 255
-0.0593203 0.189291 2.071 255 255 255
-0.00491884 -0.0364546 1.893 255 255 255
-0.98791 0.583403 2.356 255 255 255
0.30142 0.761414 2.303 255 255 255
0.844096 0.152152 2.166 255 255 255
-0.473389 0.384038 2.244 255 255 255
-0.663118 0.649673 2.374 255 255 255
0.57877 0.154574 2.953 255 255 255
-1.33639 0.293537 2.768 255 255 255
-0.513739 -0.329626 1.719 255 255 255
0.848062 -0.157551 2.024 255 255 255
0.634879 -0.2377 2.818 255 255 255
0.765822 -0.410569 2.236 255 255 255
-0.523005 -0.189805 1.799 255 255 255
0.716582 -0.413237 2.312 255 255 255
0.893534 0.155812 2.03 255 255 255
0.841721 -0.482748 1.941 255 255 255
-0.560589 -0.573099 1.487 255 255 255
-0.504425 0.327179 2.158 255 255 255
-0.359231 0.819671 2.151 255 255 255
0.420855 -0.99023 2.768 0 0 0
0.824505 -0.338681 2.064 255 255 255
0.86582 0.219176 2.099 255 255 255
0.819312 -0.363249 2.051 255 255 255
-0.131758 -0.161957 1.815 255 255 255
-0.52341 0.717954 2.32 255 255 255
-0.548792 -0.462048 1.624 255 255 255
-0.65151 0.355673 2.204 255 255 255
-0.201558 0.0195369 1.947 255 255 255
0.466941 -0.664074 2.857 255 255 255
0.152585 0.759483 2.32 255 255 255
-0.241276 -0.331695 1.673 255 255 255
0.828476 -0.576124 1.947 255 255 255
0.843562 -0.0988953 2.037 255 255 255
-0.594961 0.61664 2.411 0 0 0
-0.33351 0.0749568 2.078 255 255 255
-0.757283 -0.440271 1.612 0 0 0
0.321937 0.204711 0.665 255 255 255
-0.723287 0.656249 2.356 255 255 255
-0.185794 -0.123132 1.853 255 255 255
0.00103242 -0.472534 1.571 255 255 255
-0.700057 -0.0966147 1.865 255 255 255
-0.477352 -0.189682 1.826 255 255 255
-0.504415 0.362846 2.204 255 255 255
-0.560638 -0.328749 1.7 255 255 255
0.0325316 -0.562509 1.491 255 255 255
0.537611 -0.865228 2.743 255 255 255
-1.11307 0.618408 2.329 255 255 255
-0.162991 0.325793 2.196 255 255 255
-1.31274 0.337013 2.719 255 255 255
0.321695 0.121025 0.669 255 255 255
0.780105 -0.592595 2.071 255 255 255
-1.12773 0.390401 2.469 255 255 255
-0.591309 0.520205 2.365 255 255 255
0.850393 -0.0163461 2.078 255 255 255
-0.0282738 -0.164457 1.81 255 255 255
-0.0699449 -0.159529 1.821 255 255 255
-1.4512 0.301125 2.755 255 255 255
0.320791 0.190468 0.639 255 255 255
-0.684669 0.671468 2.329 255 255 255
0.628126 -0.349628 2.871 255 255 255
0.872593 0.295573 2.158 255 255 255
-0.162416 0.064715 1.972 255 255 255
-0.754673 0.0867374 2.037 255 255 255
0.850727 0.00402505 2.121 255 255 255
0.761303 0.376311 2.509 255 255 255
-0.602111 0.725451 2.261 255 255 255
0.671562 0.119672 2.707 255 255 255
-0.581715 -0.365786 1.705 255 255 255
-0.492404 0.174189 2.092 255 255 255
0.224448 0.719877 2.402 255 255 255
-1.02637 0.448292 2.392 255 255 255
0.0914583 -0.328005 1.682 255 255 255
-0.192387 0.578455 2.383 255 255 255
0.822712 -0.148727 2.085 255 255 255
0.118781 0.135184 2.121 255 255 255
0.0198577 -0.0459858 1.905 255 255 255
-0.992048 0.703712 2.286 255 255 255
-0.652915 -0.43106 1.607 255 255 255
-0.450143 -0.415743 1.65 255 255 255
-0.547949 0.715478 2.312 255 255 255
-0.171032 0.729094 2.356 255 255 255
0.0112474 0.135991 2.03 255 255 255
-0.488242 0.241775 2.212 255 255 255
-0.27011 -0.504358 1.528 255 255 255
0.833755 0.420369 2.303 255 255 255
0.224295 0.814942 2.244 255 255 255
-0.656253 -0.387378 1.655 255 255 255
-0.767405 -0.126556 1.859 255 255 255
0.590378 -0.520522 2.939 255 255 255
-0.402904 -0.348114 1.7 255 255 255
-0.312736 0.00993892 1.929 255 255 255
-0.531181 0.265041 2.196 255 255 255
0.411468 0.805559 2.269 255 255 255
-0.415268 0.443307 2.286 255 255 255
0.100738 -0.24985 1.748 255 255 255
-0.853681 0.652415 2.356 255 255 255
0.0493103 -0.355806 1.646 255 255 255
-0.169782 -0.491733 1.543 255 255 255
0.783877 -0.662423 2.037 255 255 255
0.867918 -0.552241 1.769 255 255 255
-0.239493 0.227623 2.114 255 255 255
0.318033 0.199482 0.712 255 255 255
0.829824 -0.215654 2.044 255 255 255
0.761982 -0.759907 1.997 255 255 255
0.881459 0.0954005 2.01 255 255 255
-0.81477 0.735403 2.269 255 255 255
-0.207652 0.162329 2.071 255 255 255
-0.483968 0.153248 2.085 255 255 255
0.00343889 -0.553096 1.505 255 255 255
-0.737908 -0.427404 1.633 255 255 255
0.766889 0.192903 2.411 255 255 255
-0.127257 -0.290502 1.753 255 255 255
0.360425 -0.602864 2.898 255 255 255
-0.289228 -0.194029 1.784 255 255 255
-0.74125 -0.547286 1.551 255 255 255
-0.519716 -0.302332 1.739 255 255 255
0.844265 -0.493945 1.911 255 255 255
-0.153596 0.690915 2.383 255 255 255
-0.656756 0.807444 2.128 255 255 255
-0.0783243 0.399428 2.228 255 255 255
-0.33093 0.4096 2.244 255 255 255
-0.292634 -0.116406 1.842 255 255 255
0.572741 -0.919604 2.719 255 255 255
0.864794 -0.179176 1.972 255 255 255
0.177268 0.576377 2.509 255 255 255
0.81678 -0.62299 1.842 255 255 255
0.727635 -0.509016 2.253 255 255 255
0.478976 0.578293 2.572 255 255 255
-1.20727 0.631815 2.365 255 255 255
-0.730648 0.0670779 2.044 255 255 255
0.543795 0.808398 2.236 255 255 255
0.856999 0.0940752 2.128 0 0 0
0.490342 0.387751 2.831 255 255 255
0.696866 -0.579905 2.347 255 255 255
0.891457 -0.450254 1.753 255 255 255
0.0155769 0.828055 2.173 255 255 255
0.631301 -0.318283 2.649 255 255 255
0.651467 -0.272785 2.626 255 255 255
-0.827362 0.733883 2.253 255 255 255
0.481125 0.360109 2.831 255 255 255
-0.450539 0.0752848 1.997 255 255 255
0.518098 -0.710567 2.857 255 255 255
-0.424296 0.153762 2.092 255 255 255
-0.656851 0.179101 2.151 255 255 255
-0.553055 0.756525 2.212 255 255 255
0.765812 0.0951696 2.42 255 255 255
0.813816 -0.262315 2.071 255 255 255
-0.147232 -0.242006 1.753 255 255 255
-0.14753 -0.332512 1.691 255 255 255
-0.437152 -0.474373 1.612 255 255 255
-0.631535 0.0527205 2.004 255 255 255
-0.263779 -0.46937 1.595 255 255 255
0.823372 -0.540812 2.004 255 255 255
0.603701 -0.698078 2.844 255 255 255
-0.157329 0.443703 2.269 255 255 255
-0.348249 -0.230471 1.774 255 255 255
-0.714733 -0.0776902 1.848 255 255 255
0.673044 0.292896 2.805 255 255 255
0.846338 -0.32464 1.959 255 255 255
0.802391 -0.237584 2.121 255 255 255
0.335215 -0.575161 2.925 0 0 0
-0.829522 -0.540629 1.646 255 255 255
-0.7083 -0.397639 1.62 255 255 255
-0.727247 0.379589 2.261 255 255 255
-0.664953 0.808239 2.121 255 255 255
0.658221 -0.501553 2.43 255 255 255
0.844096 0.0358336 2.166 255 255 255
-0.247724 -0.53917 1.528 255 255 255
-0.45557 0.830572 2.143 255 255 255
-0.705796 -0.516053 1.579 255 255 255
0.362455 0.796714 2.286 255 255 255
0.193622 -0.574901 1.498 255 255 255
0.90178 0.212163 2.064 255 255 255
-0.371872 0.670301 2.365 255 255 255
0.00832196 -0.569104 1.502 255 255 255
0.797527 -0.617664 1.853 255 255 255
-0.203288 -0.273002 1.769 255 255 255
0.185389 -0.482348 1.595 255 255 255
-0.335698 -0.347295 1.696 255 255 255
0.711032 -0.179686 2.519 255 255 255
0.0100562 -0.123561 1.815 255 255 255
0.752201 -0.354715 2.228 255 255 255
0.0415069 0.411778 2.236 255 255 255
0.282024 0.522322 2.649 255 255 255
0.719177 -0.566015 2.261 255 255 255
0.168366 0.725816 2.383 255 255 255
-1.43269 0.263142 2.78 255 255 255
0.125708 0.35616 2.54 0 0 0
0.652995 -0.203555 2.615 255 255 255
-0.00602837 0.483879 2.32 255 255 255
-0.80766 0.648581 2.356 255 255 255
0.313514 0.16777 0.682 255 255 255
0.693821 -0.343377 2.43 255 255 255
0.00142344 0.26142 2.166 255 255 255
-0.52685 0.822046 2.121 255 255 255
0.877635 -0.0668577 1.972 0 0 0
-1.30519 0.325168 2.731 255 255 255
-1.24595 0.410873 2.572 255 255 255
0.859025 -0.44051 1.882 255 255 255
0.786691 -0.391929 2.173 255 255 255
-0.322273 0.199402 2.071 255 255 255
0.25182 0.629997 2.479 255 255 255
-0.528065 0.0387849 1.959 255 255 255
-0.514284 -0.201034 1.769 255 255 255
0.606611 0.234028 2.925 255 255 255
0.847384 -0.560542 1.805 255 255 255
0.0171262 0.0290421 1.947 255 255 255
0.708523 -0.523912 2.286 255 255 255
-0.13164 0.235107 2.151 255 255 255
0.176014 0.0629348 2.55 0 0 0
0.225968 0.492147 2.649 255 255 255
0.691521 -0.78391 2.329 255 255 255
-0.450687 -0.310946 1.724 255 255 255
-0.255117 0.374625 2.189 255 255 255
-0.054025 0.218742 2.128 255 255 255
0.312614 0.219599 0.749 255 255 255
-0.0788657 -0.417796 1.637 255 255 255
-0.0700565 -0.523707 1.505 255 255 255
0.321303 0.333994 2.844 255 255 255
-0.553319 -0.533514 1.555 255 255 255
-0.204365 -0.519032 1.52 255 255 255
0.746345 -0.0614025 2.383 255 255 255
-0.0764803 -0.56826 1.487 255 255 255
-0.415466 0.185019 2.099 255 255 255
-0.292705 0.249109 2.151 255 255 255
-0.719696 -0.529813 1.559 255 255 255
-0.71138 0.813955 2.136 255 255 255
-0.139237 0.202868 2.107 255 255 255
-0.762581 -0.228867 1.784 255 255 255
0.870652 0.250848 2.136 255 255 255
-0.751981 0.502781 2.269 255 255 255
-0.343049 -0.329626 1.719 255 255 255
0.693705 -0.107665 2.561 255 255 255
0.320001 0.20722 0.684 255 255 255
0.499559 0.360109 2.831 255 255 255
0.618077 0.780595 2.338 255 255 255
0.884529 0.115427 2.017 255 255 255
0.612742 -0.555697 2.78 255 255 255
-0.814359 -0.188347 1.842 255 255 255
-0.699178 -0.275671 1.714 255 255 255
-0.692885 0.728018 2.269 255 255 255
0.665254 0.83841 2.278 255 255 255
0.646671 -0.429188 2.54 255 255 255
0.759877 -0.555523 2.071 255 255 255
-0.905007 0.61664 2.411 0 0 0
0.860964 -0.359911 1.893 255 255 255
-1.31986 0.317669 2.743 255 255 255
-0.947739 0.494958 2.43 255 255 255
-0.589688 -0.361095 1.696 255 255 255
0.82376 -0.591344 1.966 255 255 255
-0.591036 0.640181 2.411 0 0 0
0.732081 -0.747425 2.158 255 255 255
0.85966 -0.640354 1.758 255 255 255
0.322905 0.200985 0.667 255 255 255
0.0203368 0.760627 2.312 255 255 255
0.137663 0.79536 2.261 255 255 255
-0.255144 -0.563423 1.513 255 255 255
0.783476 -0.595965 2.071 255 255 255
0.0454158 -0.537403 1.516 255 255 255
0.307686 0.283084 0.783 255 255 255
0.634369 -0.486454 2.626 255 255 255
-0.725468 0.321192 2.189 255 255 255
0.797485 -0.351256 2.099 255 255 255
-0.361931 -0.331543 1.729 255 255 255
-0.0859578 -0.450365 1.62 255 255 255
0.816629 0.269723 2.329 255 255 255
0.275301 0.547701 2.626 255 255 255
0.634839 -0.573173 2.593 255 255 255
-0.524 0.649673 2.374 0 0 0
-0.828894 0.150861 2.099 255 255 255
-0.242776 -0.246256 1.763 255 255 255
0.808503 -0.155258 2.128 255 255 255
0.795375 -0.622012 1.848 255 255 255
-0.202308 0.127385 2.051 255 255 255
0.629655 -0.425168 2.755 255 255 255
-0.177539 0.650706 2.392 0 0 0
0.865152 -0.367007 1.882 255 255 255
-0.612875 0.36548 2.22 255 255 255
-0.502765 -0.25573 1.769 255 255 255
-0.327845 0.0955672 2.085 255 255 255
0.0638373 -0.454596 1.607 255 255 255
0.792554 0.537212 2.479 255 255 255
-0.271398 -0.354527 1.691 255 255 255
-0.191306 0.0679241 1.972 255 255 255
-0.516744 -0.102428 1.917 255 255 255
0.31588 -0.549622 2.967 0 0 0
-0.574438 -0.457211 1.607 255 255 255
-0.334769 -0.504378 1.551 255 255 255
0.817483 0.214518 2.228 255 255 255
-0.131236 -0.358617 1.659 255 255 255
-0.266189 -0.137566 1.805 255 255 255
-0.554039 0.0839696 1.972 255 255 255
0.123467 -0.489181 1.567 255 255 255
0.416349 -0.801043 2.768 255 255 255
0.701114 0.208345 2.604 255 255 255
0.783797 -0.709919 1.842 255 255 255
-0.690634 0.543749 2.286 255 255 255
-0.874798 0.800052 2.136 255 255 255
-0.42048 -0.0304855 1.905 255 255 255
-1.47492 0.159626 2.871 255 255 255
0.758226 -0.57285 2.085 255 255 255
-0.130266 -0.501854 1.551 255 255 255
-0.704646 0.524578 2.236 255 255 255
-1.10688 0.777175 2.121 255 255 255
-0.136352 0.403054 2.228 255 255 255
