ply
format ascii 1.0
comment Created by Open3D
element vertex 1300
property double x
property double y
property double z
property uchar red
property uchar green
property uchar blue
end_header
0.197622 -0.339841 1 255 255 255
-0.118063 -0.245248 1.217 255 255 255
-0.118222 0.64679 1.789 255 255 255
0.0944938 -0.263273 1.087 255 255 255
-0.453119 0.652613 1.789 255 255 255
-0.671494 0.569566 1.87 255 255 255
-0.898376 0.12086 2.383 255 255 255
0.452346 0.0613664 1.137 255 255 255
0.218965 -0.147553 1.108 255 255 255
0.294421 0.332169 1.387 255 255 255
0.123234 -0.380413 1.004 255 255 255
0.378296 -0.0546425 1.089 255 255 255
-0.090328 -0.239306 1.217 255 255 255
-0.206042 0.0380145 1.445 255 255 255
0.436957 0.000293368 1.085 255 255 255
0.465254 -0.035836 1.057 255 255 255
0.198518 -0.23737 1.066 255 255 255
-0.220586 0.159019 1.547 255 255 255
0.0267055 -0.240651 1.139 255 255 255
0.189249 0.415928 1.502 255 255 255
0.390882 -0.303716 0.898 255 255 255
0.374687 0.444079 1.435 255 255 255
0.903767 0.742776 1.966 255 255 255
-0.737457 0.387149 2.121 255 255 255
0.343313 0.363076 1.393 255 255 255
-0.927961 0.0507035 2.561 255 255 255
0.298789 -0.310236 0.954 255 255 255
-0.849202 0.374307 2.107 255 255 255
-0.012842 -0.209875 1.196 255 255 255
0.439956 -0.0935858 1.03 255 255 255
0.239381 0.0629912 1.242 255 255 255
-0.174492 0.590621 1.769 255 255 255
0.276895 -0.204698 1.041 255 255 255
0.324202 -0.244732 0.984 255 255 255
0.116543 0.0795937 1.316 255 255 255
0.207016 -0.17724 1.102 255 255 255
-0.743005 0.0137053 2.66 255 255 255
-0.0818167 0.119867 1.412 255 255 255
-1.39547 -0.274875 2.871 255 255 255
-0.276148 -0.259658 1.299 255 255 255
-0.739523 0.577148 1.865 255 255 255
0.399433 -0.176183 1.004 255 255 255
0.401169 -0.050629 1.079 255 255 255
0.428232 0.176044 1.227 255 255 255
0.295274 0.113246 1.239 255 255 255
-0.278712 0.5454 1.81 255 255 255
-1.29188 -0.115675 2.649 255 255 255
-0.225908 -0.0996625 1.366 255 255 255
0.167665 0.328943 1.463 255 255 255
-1.2445 -0.0120086 2.604 255 255 255
0.255387 -0.198124 1.079 255 255 255
-1.41189 -0.203696 2.731 255 255 255
0.299585 -0.0842928 1.106 255 255 255
-0.0610006 0.0668752 1.409 255 255 255
-0.165829 -0.103529 1.33 255 255 255
-0.0865096 0.457562 1.682 255 255 255
-0.0814673 0.493032 1.691 255 255 255
0.248912 0.126413 1.27 255 255 255
-0.497949 0.518823 1.966 0 0 0
-1.08989 0.177457 2.312 255 255 255
0.101453 -0.377974 1.015 255 255 255
0.697942 0.691049 1.837 255 255 255
0.366704 0.0227087 1.147 255 255 255
0.347635 0.251905 1.299 255 255 255
0.383694 -0.132394 1.032 255 255 255
0.262266 -0.299784 0.986 255 255 255
0.240235 0.28477 1.387 255 255 255
0.41634 0.417939 1.387 255 255 255
-0.513569 0.21971 2.244 255 255 255
0.489289 -0.121062 0.981 255 255 255
-0.202671 0.439108 1.739 255 255 255
0.443217 -0.238355 0.928 255 255 255
0.286602 0.147267 1.254 255 255 255
-0.629152 0.268681 2.32 255 255 255
0.0669886 -0.0223904 1.27 255 255 255
-1.02038 -0.113298 2.695 255 255 255
-0.0993157 0.535998 1.714 255 255 255
-0.128979 0.0299959 1.4 255 255 255
-0.00134044 0.0880197 1.381 255 255 255
-0.209195 0.454159 1.7 255 255 255
-0.136462 -0.166033 1.278 255 255 255
0.127498 -0.37039 0.999 255 255 255
-0.172098 0.569195 1.774 255 255 255
-0.30562 0.671128 1.848 0 0 0
0.465692 0.348873 1.322 255 255 255
0.395484 -0.245289 0.955 255 255 255
-1.17333 0.0695302 2.489 255 255 255
0.414843 -0.250348 0.939 255 255 255
-0.190248 0.49567 1.729 255 255 255
-0.0877302 -0.286282 1.182 255 255 255
0.137446 0.0591737 1.291 255 255 255
-0.384076 0.277187 1.753 0 0 0
-0.271051 -0.248116 1.305 255 255 255
-0.229852 0.525892 1.774 255 255 255
-0.148661 0.696635 1.805 0 0 0
-0.323907 0.258215 1.65 255 255 255
0.456577 -0.0189172 1.073 255 255 255
0.244909 -0.214416 1.064 255 255 255
-0.687295 0.626219 1.831 255 255 255
-1.16684 -0.284067 2.967 255 255 255
-0.0812133 -0.147291 1.26 255 255 255
0.542119 0.221366 1.171 255 255 255
0.176869 0.611654 1.612 255 255 255
0.393395 -0.234693 0.969 255 255 255
-0.574755 0.63956 1.769 255 255 255
0.259687 -0.257005 1.02 255 255 255
0.372749 -0.168192 1.025 255 255 255
0.117821 -0.248036 1.09 255 255 255
0.480362 0.420605 1.345 255 255 255
-0.642037 0.275279 2.312 255 255 255
0.253781 0.289284 1.387 255 255 255
0.409591 -0.315848 0.891 255 255 255
0.442537 -0.0744707 1.044 255 255 255
0.467973 -0.099122 1.018 255 255 255
0.30978 0.304682 1.375 255 255 255
0.354252 -0.275393 0.957 255 255 255
-0.155869 -0.22056 1.234 255 255 255
-0.103823 -0.144052 1.286 255 255 255
0.371696 -0.0972202 1.07 255 255 255
0.284463 -0.273667 1.002 255 255 255
0.299195 -0.114474 1.085 255 255 255
-0.921786 0.311772 2.173 255 255 255
-0.130729 0.055804 1.419 255 255 255
0.93739 0.616363 2.114 255 255 255
-0.865429 0.0382008 2.561 255 255 255
0.499268 0.232615 1.22 255 255 255
-0.762692 0.513988 1.972 255 255 255
-1.05365 -0.207497 2.844 255 255 255
-0.837572 0.0218919 2.604 255 255 255
-0.175357 -0.242591 1.244 255 255 255
0.451397 -0.292563 0.882 255 255 255
-0.211212 -0.147412 1.316 255 255 255
0.43459 -0.172289 0.991 255 255 255
0.455084 -0.166099 0.983 255 255 255
0.950197 0.705402 2.024 255 255 255
0.412889 0.448833 1.406 255 255 255
0.0928575 0.456878 1.567 255 255 255
0.254043 0.139359 1.275 255 255 255
-0.24279 -0.18981 1.313 255 255 255
-0.707486 0.561169 1.893 255 255 255
-0.413796 0.652433 1.821 255 255 255
-0.00134918 0.111213 1.39 255 255 255
0.429861 -0.325576 0.882 255 255 255
-0.794986 0.659449 1.753 255 255 255
-0.474797 0.603121 1.899 255 255 255
-0.16527 0.120174 1.502 255 255 255
-0.0510864 -0.272356 1.18 255 255 255
-0.186536 0.577856 1.774 255 255 255
0.439583 -0.185754 0.977 255 255 255
0.121838 0.132086 1.327 255 255 255
0.439569 0.0365581 1.114 255 255 255
-0.050855 -0.0125695 1.324 255 255 255
-0.795866 0.67379 1.724 255 255 255
0.0211433 -0.242504 1.139 255 255 255
1.07398 0.566985 2.189 0 0 0
-0.774175 -0.256246 2.925 255 255 255
-0.130883 -0.013253 1.396 255 255 255
0.186932 -0.0889418 1.167 255 255 255
0.450227 -0.244922 0.93 255 255 255
-0.623175 0.528954 1.899 255 255 255
-0.0203189 -0.248891 1.178 255 255 255
-1.49071 -0.357909 2.939 255 255 255
-0.294151 0.2929 1.664 255 255 255
-0.889657 -0.1033 2.78 255 255 255
-0.0744093 -0.344182 1.126 255 255 255
0.247345 -0.155799 1.09 255 255 255
0.0233367 0.12595 1.378 255 255 255
-0.13216 0.365402 1.637 255 255 255
0.464536 0.486689 1.403 255 255 255
-1.07646 0.282131 2.136 255 255 255
0.344616 -0.0918579 1.089 255 255 255
0.0528425 0.574904 1.673 255 255 255
-0.535467 0.577642 1.917 255 255 255
0.776857 0.706823 1.929 255 255 255
-1.26108 -0.281386 2.939 255 255 255
-0.417831 0.601216 1.893 0 0 0
0.410464 -0.033254 1.085 255 255 255
0.202822 -0.0835299 1.171 255 255 255
0.500022 0.32277 1.262 255 255 255
-0.20835 0.121054 1.513 255 255 255
0.392732 -0.166059 1.012 255 255 255
-1.20298 -0.176505 2.793 255 255 255
-0.0471469 0.455804 1.646 255 255 255
-0.290207 0.228659 1.612 255 255 255
0.175916 0.447548 1.535 255 255 255
0.202827 -0.0232054 1.205 255 255 255
0.131647 0.626468 1.637 255 255 255
0.999247 0.72669 2.01 255 255 255
-0.609261 0.300452 2.22 255 255 255
-0.206356 -0.0153913 1.384 255 255 255
0.355361 -0.213464 0.995 255 255 255
-0.58425 0.346484 2.044 255 255 255
-1.08139 0.256132 2.181 255 255 255
1.10501 0.60685 2.166 255 255 255
0.150248 0.199431 1.39 255 255 255
0.0785286 -0.135689 1.194 255 255 255
-0.395866 0.463624 1.848 0 0 0
0.265881 -0.0426204 1.147 255 255 255
0.466274 0.398224 1.336 255 255 255
-0.114499 0.446251 1.691 255 255 255
0.19588 0.30763 1.409 255 255 255
-0.505743 0.532915 1.959 255 255 255
0.404739 -0.169817 1.005 255 255 255
0.630762 0.534894 1.579 255 255 255
0.846925 0.702904 1.953 0 0 0
0.276859 -0.280749 1.004 255 255 255
0.310315 0.409666 1.429 255 255 255
0.493338 0.169588 1.182 255 255 255
-1.19764 0.0573789 2.489 255 255 255
-1.02431 0.379459 2.136 255 255 255
-0.236096 -0.126867 1.348 255 255 255
-0.220125 -0.347562 1.201 255 255 255
0.0851814 -0.379091 1.018 255 255 255
0.235719 0.250914 1.387 255 255 255
-0.133754 0.341358 1.624 255 255 255
-0.963149 0.521325 1.905 255 255 255
-1.26686 0.0833552 2.42 255 255 255
0.458692 0.266318 1.267 255 255 255
0.130751 -0.378518 0.999 255 255 255
0.0876617 -0.00379003 1.27 255 255 255
0.48451 0.0977662 1.13 255 255 255
-0.715225 -0.0966084 2.719 255 255 255
0.433424 -0.00676924 1.085 255 255 255
-1.01476 0.138661 2.356 255 255 255
0.212252 0.257085 1.396 255 255 255
0.163953 -0.221429 1.09 255 255 255
-0.252488 -0.192824 1.319 255 255 255
-0.571526 0.214518 2.347 255 255 255
-0.273291 0.128578 1.575 255 255 255
-0.157579 -0.372807 1.158 255 255 255
-1.0917 -0.218811 2.871 255 255 255
1.17031 0.508321 2.294 0 0 0
-0.193063 0.456279 1.729 255 255 255
-0.144377 0.459235 1.719 255 255 255
-0.147988 -0.394355 1.128 255 255 255
0.091206 -0.255131 1.09 255 255 255
1.06399 0.642731 2.099 255 255 255
-0.13182 -0.297956 1.198 255 255 255
1.03509 0.519076 2.228 255 255 255
0.241715 0.469435 1.509 255 255 255
0.199494 0.364276 1.452 255 255 255
0.444087 -0.0378048 1.064 255 255 255
0.401896 -0.143451 1.027 255 255 255
-0.28829 0.139888 1.587 255 255 255
-0.0012327 -0.0802582 1.27 255 255 255
0.440469 0.415525 1.357 255 255 255
0.40605 0.342937 1.324 255 255 255
-0.254981 0.40282 1.729 255 255 255
0.237611 0.0738032 1.254 255 255 255
0.134062 -0.294064 1.064 255 255 255
0.398057 0.0186943 1.13 255 255 255
-0.596875 0.24518 2.312 255 255 255
0.329812 -0.299621 0.945 255 255 255
0.260661 -0.301388 0.986 255 255 255
-0.236517 -0.196695 1.302 255 255 255
-0.270021 -0.0182937 1.435 255 255 255
0.374959 -0.014227 1.116 255 255 255
-0.659644 0.613324 1.837 255 255 255
0.436004 -0.0616373 1.057 255 255 255
0.47539 0.100398 1.139 255 255 255
0.17971 0.0961382 1.308 255 255 255
0.245716 -0.321594 0.984 255 255 255
0.121928 -0.20345 1.128 255 255 255
0.379999 0.276205 1.294 255 255 255
0.555462 0.221366 1.171 255 255 255
0.41163 0.254669 1.281 255 255 255
-0.85539 0.437203 2.064 255 255 255
0.414401 -0.251608 0.938 255 255 255
-0.172293 0.191251 1.543 255 255 255
0.0895557 -0.046039 1.239 255 255 255
0.276882 0.138328 1.247 255 255 255
-0.148459 0.480173 1.734 255 255 255
-0.903214 -0.0122669 2.66 255 255 255
0.280485 0.0554611 1.21 255 255 255
-0.809433 0.67293 1.729 255 255 255
0.273563 -0.359987 0.942 255 255 255
-0.230315 0.423737 1.734 255 255 255
0.407105 -0.124477 1.036 255 255 255
0.138548 -0.0869676 1.192 255 255 255
0.228946 0.248657 1.387 255 255 255
0.253405 0.0238174 1.203 255 255 255
0.340116 -0.260192 0.97 255 255 255
0.00906994 0.482615 1.637 255 255 255
0.0903413 -0.124239 1.196 255 255 255
0.443203 0.000292827 1.083 255 255 255
-0.575587 0.619638 1.865 255 255 255
0.0995486 -0.142116 1.167 255 255 255
-0.151159 -0.141063 1.297 255 255 255
0.197142 -0.126836 1.149 255 255 255
-0.0833477 0.159358 1.48 255 255 255
0.260632 0.478709 1.477 255 255 255
0.396108 -0.151512 1.025 255 255 255
0.420164 -0.288304 0.914 255 255 255
-0.253625 0.416469 1.739 255 255 255
-1.24042 -0.147204 2.755 255 255 255
0.379503 -0.10253 1.053 255 255 255
-0.163055 -0.429065 1.118 255 255 255
0.488135 0.248937 1.232 255 255 255
0.450831 -0.148112 1.002 255 255 255
-0.270039 0.153817 1.571 255 255 255
0.190917 -0.204065 1.092 255 255 255
0.0118312 -0.260123 1.135 255 255 255
0.289905 0.336684 1.387 255 255 255
-0.737599 0.19692 2.365 255 255 255
-0.219035 -0.022292 1.393 255 255 255
-0.776367 0.626411 1.789 255 255 255
0.151376 0.580418 1.62 255 255 255
0.0376632 -0.351536 1.081 255 255 255
-0.116815 -0.421635 1.094 255 255 255
0.213786 0.448122 1.52 255 255 255
0.372307 0.14809 1.227 255 255 255
0.39956 0.548596 1.484 255 255 255
-0.485119 0.48361 1.953 0 0 0
0.0784036 0.159857 1.4 255 255 255
0.166935 0.0854955 1.308 255 255 255
0.314086 -0.0367626 1.139 255 255 255
-0.6375 0.485106 1.972 255 255 255
0.178314 -0.175447 1.102 255 255 255
-0.687263 -0.159254 2.731 255 255 255
0.556865 0.228441 1.178 255 255 255
-0.904877 0.598532 1.784 255 255 255
0.0788616 -0.373928 1.022 255 255 255
-0.0311759 -0.283257 1.154 255 255 255
-0.0220951 0.373012 1.579 255 255 255
0.465818 -0.201021 0.937 255 255 255
0.904149 0.750577 1.953 255 255 255
0.260683 0.615586 1.595 255 255 255
-0.0775394 -0.254173 1.203 255 255 255
0.218024 -0.311792 1.004 255 255 255
0.287488 -0.179982 1.055 255 255 255
0.359294 -0.237687 0.988 255 255 255
1.05991 0.6746 2.071 255 255 255
-0.163508 0.235757 1.555 255 255 255
0.384291 0.152083 1.227 255 255 255
0.0178367 0.250879 1.48 255 255 255
0.0633929 0.566396 1.664 255 255 255
0.0780655 0.335174 1.48 255 255 255
-0.748463 0.364815 2.173 255 255 255
0.416139 0.00566761 1.1 255 255 255
0.373932 -0.235763 0.98 255 255 255
0.0442531 -0.278877 1.114 255 255 255
-0.345805 0.341736 1.705 255 255 255
-0.175788 -0.335259 1.192 255 255 255
-0.589348 0.241418 2.312 255 255 255
-0.0556576 -0.167015 1.239 255 255 255
0.570963 0.165805 1.13 255 255 255
-0.305677 -0.0420522 1.449 255 255 255
-0.91127 0.261848 2.261 255 255 255
-0.743651 0.271517 2.312 255 255 255
-0.544806 0.273612 2.151 255 255 255
-0.0679681 -0.280285 1.173 255 255 255
0.479019 -0.0203552 1.057 255 255 255
0.509322 0.112676 1.132 255 255 255
-0.199162 0.538314 1.758 255 255 255
-0.387964 0.68853 1.784 255 255 255
0.357475 0.167407 1.252 255 255 255
1.05906 0.633565 2.173 0 0 0
-1.00304 0.0544212 2.54 255 255 255
0.188734 -0.169758 1.1 255 255 255
-0.866478 0.386549 2.099 255 255 255
-0.183889 -0.269677 1.22 255 255 255
-0.0442492 -0.209146 1.203 255 255 255
0.460776 -0.258622 0.909 255 255 255
-0.317529 0.327155 1.673 255 255 255
0.27245 0.421794 1.463 255 255 255
0.0380735 -0.380278 1.044 255 255 255
-0.775657 0.235613 2.329 255 255 255
0.350149 -0.21972 0.994 255 255 255
-0.113312 -0.169792 1.275 255 255 255
-0.259987 -0.331132 1.242 255 255 255
-0.650996 0.538225 1.899 255 255 255
0.0829614 0.189474 1.4 255 255 255
-0.953403 -0.116367 2.768 255 255 255
0.283165 -0.255875 1.009 255 255 255
-0.00535465 -0.0862541 1.267 255 255 255
-0.570955 0.486789 1.953 255 255 255
0.200456 0.370781 1.459 255 255 255
0.0872962 0.587571 1.655 255 255 255
0.877869 0.624047 2.071 255 255 255
-0.100186 0.637385 1.779 255 255 255
0.449884 0.370791 1.339 255 255 255
0.177549 0.0162126 1.22 255 255 255
0.277208 0.212371 1.316 255 255 255
-0.921768 0.0738762 2.499 255 255 255
-0.0982697 -0.0578158 1.324 255 255 255
-0.945064 0.413875 2.099 255 255 255
0.310455 0.0525636 1.189 255 255 255
-0.0744093 -0.351511 1.126 255 255 255
-0.060703 -0.128837 1.26 255 255 255
-0.556524 0.497967 1.947 0 0 0
-0.251859 -0.181036 1.327 255 255 255
0.454158 -0.168954 0.981 255 255 255
0.224271 0.516262 1.524 255 255 255
0.422031 0.10703 1.171 255 255 255
-1.13277 0.245374 2.212 255 255 255
0.107258 0.190383 1.39 255 255 255
0.950526 0.613518 2.128 255 255 255
-0.264748 0.0269658 1.484 255 255 255
0.250896 0.108062 1.249 255 255 255
-0.563143 0.459593 1.959 255 255 255
-0.958558 0.253583 2.286 255 255 255
0.49882 0.431065 1.33 255 255 255
-0.0506102 -0.279329 1.169 255 255 255
0.450749 -0.195461 0.947 255 255 255
-0.701422 0.248892 2.347 255 255 255
-0.154739 -0.363686 1.165 255 255 255
-1.0301 0.134827 2.356 255 255 255
0.372121 0.100342 1.182 255 255 255
0.466367 -0.209049 0.932 255 255 255
0.366032 -0.338788 0.898 255 255 255
0.364959 -0.0683143 1.081 255 255 255
0.422925 -0.295448 0.904 255 255 255
-0.759859 0.467826 2.051 255 255 255
-0.239351 -0.123024 1.354 255 255 255
0.513751 0.396564 1.302 255 255 255
0.336966 0.146093 1.244 255 255 255
0.0511658 0.1465 1.403 255 255 255
0.0087096 -0.159825 1.215 255 255 255
-0.0619016 0.0160698 1.378 255 255 255
-0.654087 0.528954 1.899 255 255 255
-0.994509 -0.00357962 2.638 255 255 255
0.411916 -0.075398 1.057 255 255 255
0.171621 0.616901 1.612 255 255 255
0.431407 -0.0748987 1.05 255 255 255
-0.651561 0.598953 1.848 255 255 255
0.493725 -0.145558 0.974 255 255 255
0.0592982 -0.171467 1.16 255 255 255
-0.1217 0.10886 1.449 255 255 255
0.0533684 -0.368386 1.044 255 255 255
0.389657 -0.137166 1.03 255 255 255
-0.454038 0.54045 1.929 255 255 255
0.35465 0.408413 1.393 255 255 255
0.132685 -0.249506 1.081 255 255 255
0.0876617 -0.00585673 1.27 255 255 255
0.150876 0.527274 1.587 255 255 255
-0.873329 0.579397 1.815 255 255 255
-0.221548 0.323463 1.668 255 255 255
-0.80369 0.273852 2.269 255 255 255
-0.965485 0.0504857 2.55 255 255 255
0.0380462 -0.0451242 1.27 255 255 255
0.570711 0.219461 1.171 255 255 255
0.0776038 -0.338038 1.05 255 255 255
0.0982298 0.0252033 1.273 255 255 255
-1.24078 0.0293758 2.519 255 255 255
0.338985 -0.315373 0.928 255 255 255
0.273263 0.585431 1.563 255 255 255
0.0494909 -0.386732 1.034 255 255 255
0.404504 -0.244776 0.947 255 255 255
-0.145481 -0.0520501 1.342 255 255 255
-1.19631 -0.244448 2.898 255 255 255
0.221891 -0.355844 0.964 255 255 255
-0.067841 0.306427 1.567 255 255 255
-0.347517 0.504054 1.831 255 255 255
0.356438 -0.239537 0.989 255 255 255
-0.218113 -0.0681903 1.359 255 255 255
0.029777 -0.0492576 1.27 255 255 255
-0.573718 0.161664 2.356 255 255 255
-0.297106 0.0955856 1.539 255 255 255
0.165356 0.251525 1.403 255 255 255
0.0676817 0.0563772 1.324 255 255 255
0.19148 0.367036 1.463 255 255 255
-0.848764 0.604113 1.758 255 255 255
0.267353 0.0460681 1.222 255 255 255
0.502269 -0.0319055 1.041 255 255 255
0.129778 -0.333275 1.03 255 255 255
-0.0698262 0.582274 1.744 255 255 255
-0.312217 -0.00200828 1.48 255 255 255
-0.0996633 0.433333 1.673 255 255 255
0.0359792 -0.157983 1.201 255 255 255
-0.547949 0.241418 2.312 255 255 255
0.264201 -0.17416 1.072 255 255 255
0.183077 -0.249127 1.057 255 255 255
0.128273 -0.155287 1.152 255 255 255
-1.24192 -0.0744848 2.719 255 255 255
-0.485438 0.556145 1.929 255 255 255
-0.734185 0.402281 2.092 255 255 255
-0.175058 -0.390478 1.149 255 255 255
-0.100817 -0.384022 1.114 255 255 255
-0.887337 -0.297143 2.953 255 255 255
-0.0824038 -0.221482 1.217 255 255 255
-0.319714 0.385938 1.729 255 255 255
-1.07847 -0.231333 2.911 255 255 255
0.216223 -0.341366 0.981 255 255 255
-0.0878207 -0.0882964 1.297 255 255 255
-0.50106 0.657473 1.763 255 255 255
-1.25437 0.108814 2.374 255 255 255
0.382553 -0.165712 1.02 255 255 255
0.296805 0.233581 1.327 255 255 255
-0.0101846 -0.316265 1.118 255 255 255
-0.169254 -0.3184 1.187 255 255 255
-0.0158028 -0.078684 1.278 255 255 255
-0.26613 0.00275548 1.452 255 255 255
0.22373 -0.169141 1.096 255 255 255
0.54659 0.0784982 1.068 255 255 255
-0.218476 0.0881636 1.498 255 255 255
0.396359 -0.292766 0.914 255 255 255
0.0320955 0.656048 1.729 255 255 255
0.189902 0.213771 1.366 255 255 255
0.176482 0.29134 1.419 255 255 255
0.0173739 -0.258276 1.135 255 255 255
-0.826375 0.653744 1.753 255 255 255
0.310096 0.0270412 1.173 255 255 255
0.336826 -0.338864 0.918 255 255 255
-1.29061 -0.140855 2.719 255 255 255
-0.352603 0.641971 1.842 0 0 0
0.446301 -0.255647 0.925 255 255 255
0.400273 0.21223 1.252 255 255 255
0.405546 0.177479 1.237 255 255 255
0.00811462 -0.290751 1.132 255 255 255
0.161133 0.252063 1.406 255 255 255
0.400746 0.120083 1.187 255 255 255
-0.12423 -0.205324 1.239 255 255 255
0.260369 -0.296466 0.991 255 255 255
-0.0817409 -0.331355 1.126 255 255 255
-0.113592 -0.0886368 1.302 255 255 255
-0.734026 0.344913 2.204 255 255 255
0.128077 -0.0818971 1.203 255 255 255
0.247563 0.33681 1.416 255 255 255
-0.00110749 -0.278209 1.141 255 255 255
0.207294 -0.197317 1.094 255 255 255
0.00912536 -0.0700898 1.273 255 255 255
-0.195742 0.525372 1.753 255 255 255
-0.263822 -0.193262 1.322 255 255 255
0.252145 0.517206 1.498 255 255 255
0.18567 0.0980414 1.305 255 255 255
0.0476974 0.0872549 1.369 255 255 255
-0.981385 0.254401 2.228 255 255 255
-0.731367 0.544406 1.899 255 255 255
-0.138356 0.316009 1.616 255 255 255
0.399513 0.266747 1.289 255 255 255
0.123444 0.427564 1.535 255 255 255
0.450689 0.499177 1.439 255 255 255
-1.16215 0.0999268 2.44 255 255 255
0.498651 -0.0368455 1.037 255 255 255
0.0559525 -0.163286 1.169 255 255 255
0.510515 -0.0218038 1.044 255 255 255
-0.094998 0.0369096 1.403 255 255 255
-0.788588 0.581342 1.859 255 255 255
-0.16268 -0.0792417 1.322 255 255 255
0.462396 0.288472 1.283 255 255 255
0.256893 0.000324733 1.201 255 255 255
-0.557063 0.247973 2.303 255 255 255
0.493797 -0.0369876 1.041 255 255 255
-0.883782 0.0542069 2.53 255 255 255
0.527873 0.213379 1.169 255 255 255
-0.186766 -0.397121 1.152 255 255 255
0.112594 0.260837 1.429 255 255 255
-1.03793 -0.0738274 2.695 255 255 255
0.107529 -0.374468 1.01 255 255 255
-0.203075 -0.114886 1.362 255 255 255
-0.116982 0.127724 1.449 255 255 255
0.168694 -0.358741 1.012 255 255 255
0.354826 -0.163253 1.036 255 255 255
0.933809 0.716877 2.01 255 255 255
0.508062 0.172554 1.176 255 255 255
0.279815 0.115541 1.242 255 255 255
0.986159 0.72669 2.01 255 255 255
0.447663 -0.00850342 1.081 255 255 255
-0.215009 -0.200915 1.275 255 255 255
0.247802 -0.354076 0.955 255 255 255
-0.822294 0.158433 2.365 255 255 255
-0.00134918 0.117999 1.39 255 255 255
-0.370593 0.53406 1.842 255 255 255
-0.573102 0.0649536 2.469 255 255 255
-0.340907 0.152963 1.616 255 255 255
0.280669 -0.292473 0.983 255 255 255
0.241744 0.472062 1.494 255 255 255
0.0856467 -0.293345 1.087 255 255 255
0.165325 -0.0999065 1.162 255 255 255
0.530779 0.392931 1.297 255 255 255
0.448203 0.0344334 1.104 255 255 255
0.480953 0.102252 1.139 255 255 255
0.341235 0.0362424 1.162 255 255 255
-0.172396 -0.370642 1.169 255 255 255
0.326667 -0.191918 1.027 255 255 255
0.297792 -0.171398 1.055 255 255 255
0.0462341 0.0457076 1.327 255 255 255
-0.99106 0.509011 1.917 255 255 255
-0.0474573 -0.299963 1.139 255 255 255
0.365473 0.0133993 1.149 255 255 255
-0.279946 0.530376 1.799 255 255 255
-0.591197 0.608028 1.876 255 255 255
0.427649 -0.259217 0.927 255 255 255
-0.258487 0.125055 1.563 255 255 255
0.2192 -0.0250201 1.198 255 255 255
-0.304069 0.270422 1.659 255 255 255
-0.104314 -0.2038 1.242 255 255 255
0.444528 -0.188574 0.967 255 255 255
0.457796 -0.225247 0.93 255 255 255
0.47662 0.321664 1.299 255 255 255
-1.01022 0.352803 2.143 255 255 255
0.32981 0.0719126 1.189 255 255 255
0.15397 -0.0473959 1.222 255 255 255
0.903247 0.693358 2.037 0 0 0
-1.1555 -0.184356 2.844 255 255 255
-0.126639 -0.422925 1.102 255 255 255
0.411368 -0.122554 1.034 255 255 255
0.46531 0.0160052 1.073 255 255 255
-0.636424 0.459732 2.03 255 255 255
-1.54889 -0.413605 2.996 255 255 255
-0.155051 -0.182148 1.26 255 255 255
-0.0245404 0.360896 1.571 255 255 255
-0.579996 0.626219 1.831 255 255 255
-0.0447695 0.343797 1.563 255 255 255
0.256926 0.398451 1.456 255 255 255
0.306072 0.171474 1.267 255 255 255
0.556235 0.272059 1.21 255 255 255
-0.816061 0.606725 1.774 255 255 255
0.125928 -0.141873 1.165 255 255 255
-1.10897 0.234317 2.244 255 255 255
-0.3654 0.483197 1.831 255 255 255
0.311454 -0.305844 0.95 255 255 255
-1.32821 -0.268886 2.857 255 255 255
0.1022 -0.293605 1.075 255 255 255
-0.142058 -0.0502007 1.351 255 255 255
-0.795566 0.445762 2.057 255 255 255
-0.18581 0.18467 1.551 255 255 255
-0.31285 0.193953 1.607 255 255 255
0.44777 -0.17534 0.981 255 255 255
-1.02916 -0.0650561 2.695 255 255 255
0.554512 0.206961 1.165 255 255 255
-0.181681 -0.423385 1.132 255 255 255
0.352359 0.351721 1.384 255 255 255
0.181074 -0.0234364 1.217 255 255 255
0.53051 0.327761 1.242 255 255 255
0.313625 0.204638 1.281 255 255 255
0.449543 -0.28028 0.884 255 255 255
0.078331 -0.350728 1.037 255 255 255
0.232923 -0.0567543 1.169 255 255 255
0.412508 -0.158211 1.004 255 255 255
-0.416378 0.691377 1.769 255 255 255
-0.0314054 0.141244 1.419 255 255 255
-0.271689 -0.118994 1.384 255 255 255
0.300127 -0.0880513 1.108 255 255 255
0.409239 -0.156577 1.004 255 255 255
-0.0165679 0.31931 1.543 255 255 255
0.500236 0.331798 1.273 255 255 255
-0.712724 0.448032 2.099 255 255 255
0.456517 -0.0725626 1.041 255 255 255
-0.299604 0.665114 1.848 0 0 0
-0.198039 0.090178 1.491 255 255 255
-0.0223907 -0.374661 1.092 255 255 255
-0.0416866 0.441336 1.642 255 255 255
-1.04232 -0.12207 2.695 255 255 255
0.249235 -0.264784 1.018 255 255 255
-0.82323 0.244226 2.303 255 255 255
0.524117 0.0547243 1.079 255 255 255
0.99185 0.584058 2.173 255 255 255
-0.286004 0.339932 1.696 255 255 255
0.375879 -0.153778 1.029 255 255 255
0.210572 0.525409 1.551 255 255 255
0.283678 -0.306279 0.966 255 255 255
0.218227 -0.264408 1.036 255 255 255
-0.161128 0.137924 1.509 255 255 255
0.318099 -0.251711 0.98 255 255 255
0.0953381 0.0711894 1.319 255 255 255
0.0751682 -0.300973 1.089 255 255 255
0.367744 -0.176532 1.025 255 255 255
0.372725 -0.0356329 1.104 255 255 255
0.282105 -0.320427 0.966 255 255 255
-1.02916 -0.12207 2.695 255 255 255
-0.545895 0.593851 1.899 255 255 255
-0.0314554 -0.144836 1.239 255 255 255
0.0703117 0.0632681 1.333 255 255 255
-0.121044 -0.0461766 1.362 255 255 255
-0.215133 -0.316544 1.217 255 255 255
-1.2049 0.141406 2.338 255 255 255
0.382454 0.000303373 1.122 255 255 255
0.544129 0.26113 1.205 255 255 255
0.000917413 0.129867 1.396 255 255 255
-0.545522 0.464541 1.953 255 255 255
0.549754 0.148991 1.128 255 255 255
0.304807 0.403881 1.425 255 255 255
-0.2336 -0.0688426 1.372 255 255 255
0.327244 0.24825 1.302 255 255 255
-1.04526 0.134312 2.347 255 255 255
0.0160651 0.0394065 1.333 255 255 255
0.380269 0.197182 1.26 255 255 255
0.259372 -0.0796725 1.143 255 255 255
0.127824 -0.141873 1.165 255 255 255
0.250118 -0.203391 1.079 255 255 255
0.0347509 -0.180906 1.16 255 255 255
0.374857 -0.254827 0.95 255 255 255
0.554909 0.504911 1.442 255 255 255
-0.155113 0.209369 1.547 255 255 255
-0.955801 -0.26204 2.884 255 255 255
0.254101 -0.198491 1.081 255 255 255
0.511024 0.301552 1.234 255 255 255
0.360204 0.233547 1.291 255 255 255
-0.327864 0.127295 1.591 255 255 255
-0.653063 0.263156 2.338 255 255 255
-1.02069 0.290031 2.143 255 255 255
-0.0862525 0.450743 1.677 255 255 255
0.388989 0.178196 1.242 255 255 255
0.460258 -0.2082 0.935 255 255 255
0.367006 -0.330754 0.904 255 255 255
0.552616 0.206961 1.165 255 255 255
0.231528 -0.077215 1.162 255 255 255
0.155572 0.0766282 1.302 255 255 255
-0.0584571 0.0780062 1.403 255 255 255
0.33314 0.0819301 1.194 255 255 255
-0.82154 0.671836 1.719 255 255 255
0.216254 -0.239161 1.051 255 255 255
0.313268 0.0504584 1.185 255 255 255
-0.872493 -0.0166704 2.672 255 255 255
0.390722 -0.301798 0.901 255 255 255
0.39923 0.34882 1.33 255 255 255
0.00689249 -0.102908 1.244 255 255 255
-0.0936443 -0.341993 1.137 255 255 255
0.225152 -0.121061 1.13 255 255 255
0.374915 0.233547 1.291 255 255 255
0.489751 0.157512 1.178 255 255 255
0.325983 0.573303 1.524 255 255 255
0.54077 0.0641104 1.06 255 255 255
0.127728 -0.338989 1.027 255 255 255
-0.883667 0.590209 1.794 255 255 255
0.465366 -0.210113 0.93 255 255 255
-0.898207 0.240478 2.303 255 255 255
-0.0473021 -0.0708056 1.286 255 255 255
0.271149 -0.0169344 1.178 255 255 255
0.15244 0.322477 1.477 255 255 255
-1.05138 -0.300061 2.982 255 255 255
-1.20043 0.179182 2.286 255 255 255
0.24782 -0.320643 0.986 255 255 255
-0.178677 0.0736419 1.452 255 255 255
-0.114624 0.127724 1.449 255 255 255
0.39401 0.337235 1.327 255 255 255
0.944662 0.657609 2.092 255 255 255
-0.213725 -0.344745 1.198 255 255 255
0.284364 -0.316297 0.963 255 255 255
-0.29794 0.459181 1.784 255 255 255
0.38276 -0.158184 1.025 255 255 255
0.096405 -0.324368 1.05 255 255 255
0.159484 0.392881 1.498 255 255 255
-0.0102757 -0.304409 1.128 255 255 255
-0.342654 0.486484 1.821 255 255 255
-1.18095 0.131993 2.374 255 255 255
-0.0153224 0.539677 1.682 255 255 255
-0.442405 0.684217 1.758 255 255 255
0.35372 -0.304272 0.931 255 255 255
-0.124639 0.150129 1.484 255 255 255
-0.643033 0.466339 2.03 255 255 255
-0.248086 -0.405395 1.176 255 255 255
-0.824724 0.600951 1.774 255 255 255
-0.176685 -0.306293 1.185 255 255 255
0.28645 -0.249307 1.009 255 255 255
-0.174492 0.5935 1.769 255 255 255
-0.328733 0.541307 1.826 255 255 255
-0.114078 -0.262425 1.196 255 255 255
-0.257343 -0.344445 1.239 255 255 255
-0.339177 0.189119 1.633 255 255 255
0.340759 0.0732885 1.18 255 255 255
-0.832909 0.521325 1.905 255 255 255
0.00902562 0.472304 1.629 255 255 255
-0.642331 0.478257 1.997 255 255 255
0.321061 0.105726 1.222 255 255 255
0.0731855 -0.203938 1.141 255 255 255
0.13591 -0.0701511 1.203 255 255 255
-0.0191145 0.0314904 1.366 255 255 255
0.19145 0.0102566 1.22 255 255 255
-0.13546 -0.0502007 1.351 255 255 255
0.369179 -0.163825 1.029 255 255 255
-0.261755 0.585304 1.815 255 255 255
0.421326 0.515331 1.419 255 255 255
-0.0594759 -0.0341153 1.324 255 255 255
0.496801 0.456471 1.354 255 255 255
0.20453 -0.310368 1.01 255 255 255
0.470996 0.279029 1.278 255 255 255
0.0280859 0.308178 1.513 255 255 255
-0.978938 0.551308 1.87 255 255 255
-1.02937 0.215625 2.278 255 255 255
-0.713651 0.582481 1.853 255 255 255
-0.832311 0.376301 2.099 255 255 255
-0.0191668 -0.167394 1.227 255 255 255
0.423772 0.141278 1.203 255 255 255
-0.141364 -0.326123 1.18 255 255 255
0.48196 0.364783 1.302 255 255 255
-0.28784 0.0367984 1.491 255 255 255
0.343999 0.505127 1.484 255 255 255
0.448483 0.172314 1.201 255 255 255
-0.689758 0.569566 1.87 255 255 255
0.0211433 -0.246211 1.139 255 255 255
0.476851 -0.0471519 1.041 255 255 255
-0.268187 -0.179686 1.333 255 255 255
0.0846729 -0.355754 1.032 255 255 255
0.496141 0.2639 1.227 255 255 255
-0.749847 0.615651 1.853 255 255 255
0.164044 0.111972 1.319 255 255 255
0.0458414 -0.0569356 1.257 255 255 255
-0.225317 0.501367 1.739 255 255 255
0.0866875 -0.348704 1.036 255 255 255
-0.119686 0.175222 1.513 255 255 255
-0.103307 -0.0417437 1.362 255 255 255
0.294821 -0.0279536 1.158 255 255 255
-0.12861 -0.00870955 1.396 255 255 255
0.248139 -0.0284364 1.178 255 255 255
0.417223 -0.107618 1.036 255 255 255
-0.0933442 -0.293479 1.18 255 255 255
-0.0430455 0.143856 1.422 255 255 255
0.125397 0.0883609 1.319 255 255 255
-0.210814 -0.384615 1.171 255 255 255
0.213605 0.582798 1.612 255 255 255
-0.588143 0.583605 1.876 255 255 255
-0.00483059 -0.284277 1.143 255 255 255
0.166047 -0.164963 1.116 255 255 255
-0.749851 0.517197 1.972 255 255 255
0.536458 0.252445 1.201 255 255 255
0.0501323 -0.0427862 1.262 255 255 255
0.386966 -0.250475 0.957 255 255 255
-0.207384 0.151695 1.524 255 255 255
-1.2157 -0.0163148 2.615 255 255 255
0.0964505 0.0576918 1.305 255 255 255
0.454738 -0.178476 0.972 255 255 255
-0.892045 0.474076 1.953 255 255 255
0.0760141 0.33676 1.487 255 255 255
0.183994 0.549129 1.583 255 255 255
-0.191098 -0.379503 1.167 255 255 255
-0.266855 0.303125 1.646 255 255 255
0.135175 -0.0297399 1.232 255 255 255
0.256261 -0.206532 1.068 255 255 255
0.189249 0.418373 1.502 255 255 255
-0.884358 0.540865 1.876 255 255 255
-0.170547 0.445024 1.729 255 255 255
0.328932 0.416036 1.419 255 255 255
-0.421913 0.661387 1.805 255 255 255
0.274823 0.521031 1.502 255 255 255
-0.076637 -0.272499 1.189 255 255 255
0.417859 -0.336082 0.887 255 255 255
0.0528572 -0.385049 1.034 255 255 255
0.161542 -0.113143 1.162 255 255 255
-0.957895 -0.102371 2.755 255 255 255
0.23387 0.586221 1.607 255 255 255
-0.104344 -0.277995 1.196 255 255 255
-0.482541 0.287001 1.893 255 255 255
0.415332 -0.172054 0.999 255 255 255
-0.121866 -0.297458 1.196 255 255 255
0.10267 -0.0595702 1.227 255 255 255
-0.157169 -0.401697 1.128 255 255 255
-1.24585 -0.228529 2.818 255 255 255
-0.295227 0.679103 1.821 255 255 255
0.389152 -0.179987 1.007 255 255 255
0.434186 -0.142014 1.005 255 255 255
-0.434247 0.442112 1.911 0 0 0
-0.305321 0.184718 1.595 255 255 255
-0.0413566 0.411333 1.629 255 255 255
0.462987 0.444379 1.378 255 255 255
0.304954 -0.151796 1.062 255 255 255
0.339969 0.209622 1.286 255 255 255
0.131004 0.607501 1.629 255 255 255
-0.0248717 -0.187197 1.213 255 255 255
-0.233137 0.437846 1.734 255 255 255
0.0624081 -0.393374 1.025 255 255 255
0.381016 0.185298 1.249 255 255 255
0.0659029 0.543096 1.659 255 255 255
-0.47946 0.314726 1.893 255 255 255
-0.0165679 0.316799 1.543 255 255 255
0.319527 -0.0402209 1.132 255 255 255
0.278025 0.477273 1.48 255 255 255
0.240048 -0.337346 0.974 255 255 255
-1.19523 -0.238574 2.884 255 255 255
0.2909 -0.114685 1.087 255 255 255
0.243704 -0.223977 1.044 255 255 255
0.41175 -0.262132 0.932 255 255 255
-0.243594 -0.0669012 1.378 255 255 255
0.484216 0.465817 1.362 255 255 255
-0.783584 0.562235 1.876 255 255 255
0.158307 0.182115 1.362 255 255 255
-0.0115146 0.310969 1.539 255 255 255
0.0596662 0.327935 1.502 255 255 255
0.354452 -0.312848 0.925 255 255 255
-0.37659 0.49809 1.842 255 255 255
0.336698 -0.186904 1.027 255 255 255
0.369161 -0.0737278 1.083 255 255 255
-0.230001 -0.425151 1.162 255 255 255
0.23927 0.0879474 1.252 255 255 255
-1.10779 0.0341793 2.572 255 255 255
0.493934 0.331774 1.289 255 255 255
0.387727 0.0510163 1.154 255 255 255
0.0996322 0.0819216 1.319 255 255 255
0.212248 -0.196957 1.092 255 255 255
0.313196 -0.23081 1 255 255 255
-1.23502 0.00070111 2.593 255 255 255
0.357324 -0.023224 1.112 255 255 255
-0.381833 0.66911 1.81 255 255 255
0.564267 0.544021 1.498 255 255 255
-0.405986 0.383462 1.853 0 0 0
0.258248 0.449277 1.491 255 255 255
0.469994 0.0482754 1.092 255 255 255
0.432875 0.533804 1.419 255 255 255
-0.0729497 -0.269307 1.192 255 255 255
0.256691 -0.322486 0.977 255 255 255
-0.249408 0.266836 1.637 255 255 255
-0.683104 0.43973 2.092 255 255 255
0.284128 -0.0850549 1.116 255 255 255
-0.0644474 -0.0649288 1.294 255 255 255
0.15333 -0.188573 1.116 255 255 255
0.473034 0.188006 1.189 255 255 255
-0.297948 0.267077 1.655 255 255 255
0.214755 -0.313425 1.004 255 255 255
0.510712 0.145164 1.156 255 255 255
0.374172 0.0320414 1.147 255 255 255
0.459641 -0.00668813 1.072 255 255 255
-1.11335 -0.197334 2.831 255 255 255
-0.59003 0.48361 1.953 255 255 255
-0.102175 0.216504 1.509 255 255 255
0.374761 -0.236873 0.978 255 255 255
0.30281 0.187227 1.262 255 255 255
0.380447 -0.180523 1.01 255 255 255
-0.460792 0.589527 1.905 255 255 255
0.357367 -0.272278 0.957 255 255 255
0.396959 -0.21915 0.97 255 255 255
0.403431 0.538452 1.463 255 255 255
0.132252 -0.149923 1.154 255 255 255
-0.161229 -0.00875322 1.403 255 255 255
0.331777 -0.248014 0.978 255 255 255
0.138847 -0.0356675 1.229 255 255 255
0.298862 -0.0611153 1.11 255 255 255
-0.323947 0.265822 1.664 255 255 255
0.210693 -0.0482529 1.194 255 255 255
-1.23657 -0.242171 2.871 255 255 255
0.453379 0.0975403 1.149 255 255 255
-0.0955386 -0.318708 1.16 255 255 255
0.242824 -0.287926 1.012 255 255 255
0.28308 0.0334102 1.196 255 255 255
-0.0512378 0.0343797 1.393 255 255 255
-0.220326 -0.0770364 1.359 255 255 255
-0.171387 0.389132 1.682 255 255 255
-1.26661 -0.24915 2.844 255 255 255
-1.28438 -0.309766 2.982 255 255 255
0.156822 0.34078 1.473 255 255 255
-0.163239 -0.253666 1.229 255 255 255
0.233288 0.616065 1.603 255 255 255
-0.0284644 -0.210226 1.198 255 255 255
-0.245133 0.444768 1.739 255 255 255
0.262604 -0.0501739 1.149 255 255 255
-1.13535 0.0502878 2.54 255 255 255
-1.19694 -0.255019 2.911 255 255 255
0.354846 -0.139296 1.046 255 255 255
0.229677 0.11473 1.278 255 255 255
-0.979828 0.164821 2.402 255 255 255
-0.0322424 -0.107125 1.27 255 255 255
-0.821967 0.553249 1.887 255 255 255
0.093016 -0.309652 1.07 255 255 255
-0.278489 0.053386 1.48 255 255 255
0.259203 -0.0226469 1.176 255 255 255
0.284541 -0.135412 1.083 255 255 255
0.0465176 0.508138 1.642 255 255 255
-0.54669 0.621299 1.87 255 255 255
-0.90291 -0.203776 2.793 255 255 255
-0.4523 0.491749 1.935 0 0 0
0.510247 0.0369243 1.072 255 255 255
0.337294 -0.058454 1.094 255 255 255
-0.292213 0.357333 1.7 255 255 255
-1.34991 -0.183934 2.768 255 255 255
-0.265319 0.35006 1.705 255 255 255
-0.897513 0.469061 1.972 255 255 255
-0.115507 -0.218198 1.232 255 255 255
0.435953 -0.21504 0.945 255 255 255
-0.292831 0.228659 1.612 255 255 255
-0.854276 -0.0983494 2.768 255 255 255
0.320357 -0.0471691 1.122 255 255 255
0.00667129 0.608097 1.705 255 255 255
0.492237 0.063064 1.102 255 255 255
-0.0213381 0.0648343 1.366 255 255 255
0.338082 0.410811 1.409 255 255 255
0.09652 -0.0734274 1.225 255 255 255
1.14562 0.459636 2.312 255 255 255
0.342099 0.0827492 1.178 255 255 255
0.10021 0.501286 1.603 255 255 255
-0.203706 -0.260811 1.244 255 255 255
0.299387 -0.254793 0.992 255 255 255
0.341171 0.163332 1.252 255 255 255
0.195997 0.202063 1.362 255 255 255
-0.846772 -0.214771 2.818 255 255 255
-0.972965 0.551783 1.882 255 255 255
-0.183235 0.118279 1.509 255 255 255
0.367398 -0.0719654 1.083 255 255 255
0.409028 -0.207057 0.98 255 255 255
0.19378 0.204279 1.362 255 255 255
0.413619 -0.196479 0.991 255 255 255
0.4554 0.46614 1.403 255 255 255
-0.955293 0.469061 1.972 255 255 255
0.503761 -0.100322 0.997 255 255 255
0.342425 -0.324984 0.921 255 255 255
0.396335 -0.038551 1.085 255 255 255
0.349767 -0.161567 1.036 255 255 255
0.184029 -0.311337 1.024 255 255 255
0.51104 0.0665297 1.1 255 255 255
1.21822 0.404771 2.411 255 255 255
0.378319 0.00213683 1.126 255 255 255
-0.357273 0.676074 1.805 255 255 255
0.205095 0.622832 1.607 255 255 255
0.170575 -0.192978 1.11 255 255 255
0.432658 -0.0397592 1.07 255 255 255
-0.20185 -0.00413023 1.384 255 255 255
0.100076 -0.120346 1.196 255 255 255
0.442394 -0.114704 1.024 255 255 255
0.0364322 -0.018487 1.286 255 255 255
0.153459 0.506613 1.587 255 255 255
0.273284 -0.264004 1.015 255 255 255
-0.335586 0.263746 1.668 255 255 255
-0.111499 0.148712 1.47 255 255 255
0.411127 0.428691 1.4 255 255 255
-0.808172 -0.14528 2.719 255 255 255
0.453063 0.192976 1.208 255 255 255
-1.27396 -0.256187 2.871 255 255 255
0.165503 -0.245077 1.077 255 255 255
-0.523213 0.376404 1.941 255 255 255
-0.0820313 -0.341726 1.13 255 255 255
-0.0637382 -0.384566 1.1 255 255 255
0.527423 0.038777 1.075 255 255 255
0.246071 0.206437 1.333 255 255 255
0.266406 0.407929 1.456 255 255 255
0.00266657 -0.221878 1.167 255 255 255
0.131004 0.612803 1.629 255 255 255
-0.769845 -0.426231 2.982 255 255 255
-0.151014 -0.060378 1.333 255 255 255
-0.184872 0.0638809 1.445 255 255 255
0.392113 -0.183985 1.002 255 255 255
0.504189 0.218532 1.208 255 255 255
0.367693 -0.126529 1.039 255 255 255
-0.0669873 0.590788 1.744 255 255 255
-0.560898 0.190663 2.383 255 255 255
-0.705586 -0.197447 2.768 255 255 255
0.202753 -0.128706 1.149 255 255 255
0.0185959 0.359486 1.543 255 255 255
0.454641 -0.160675 0.989 255 255 255
0.354419 -0.120461 1.06 255 255 255
0.42699 -0.337058 0.882 255 255 255
-1.213 0.0652167 2.479 255 255 255
-0.641996 0.329366 2.196 255 255 255
-0.137432 -0.196818 1.249 255 255 255
-0.512146 0.305965 1.935 255 255 255
0.302369 -0.158261 1.059 255 255 255
0.276622 -0.297959 0.98 255 255 255
0.247866 0.0833366 1.244 255 255 255
-0.12754 -0.230227 1.232 255 255 255
0.290128 0.0706839 1.201 255 255 255
0.501175 0.024782 1.075 255 255 255
0.407185 0.20245 1.242 255 255 255
-0.346392 0.192833 1.642 255 255 255
0.884611 0.667859 2.071 255 255 255
0.362278 0.354996 1.362 255 255 255
-0.305396 0.649987 1.865 0 0 0
0.398762 0.0205696 1.132 255 255 255
-0.215993 0.401176 1.71 255 255 255
0.0613407 0.61358 1.682 255 255 255
0.011039 -0.389189 1.059 255 255 255
0.238949 -0.219053 1.053 255 255 255
-0.898707 -0.162111 2.78 255 255 255
-0.713788 0.629608 1.815 255 255 255
-0.112975 -0.246752 1.205 255 255 255
-0.722012 0.322928 2.303 255 255 255
-1.40482 -0.284219 2.871 255 255 255
0.429053 0.0773075 1.154 255 255 255
-0.0551127 -0.117736 1.273 255 255 255
0.365499 0.0667838 1.167 255 255 255
-0.0917251 0.312131 1.583 255 255 255
0.184741 0.611654 1.612 255 255 255
0.107832 -0.151801 1.154 255 255 255
-1.20409 0.0810251 2.469 255 255 255
-0.701182 0.4179 2.085 255 255 255
-0.809472 0.0813532 2.479 255 255 255
-0.0732094 0.52055 1.691 255 255 255
-0.930234 0.554351 1.87 255 255 255
0.446108 0.388165 1.354 255 255 255
-0.937384 0.337747 2.136 255 255 255
0.350157 0.0153355 1.154 255 255 255
0.44834 -0.0885574 1.03 255 255 255
0.423575 -0.140658 1.007 255 255 255
0.474548 -0.126281 0.997 255 255 255
0.456165 0.287723 1.289 255 255 255
-0.892222 0.290056 2.196 255 255 255
0.488111 -0.0745645 1.022 255 255 255
-0.0842462 -0.244845 1.215 255 255 255
-0.127579 0.41103 1.682 255 255 255
1.04234 0.511824 2.228 255 255 255
-0.297298 0.0272928 1.502 255 255 255
-1.26128 0.0293758 2.519 255 255 255
-0.857464 0.458003 2.037 255 255 255
-0.274022 -0.150348 1.362 255 255 255
0.427519 -0.240382 0.93 255 255 255
-0.930649 0.233614 2.347 255 255 255
0.253656 -0.123441 1.102 255 255 255
0.318738 0.178728 1.26 255 255 255
0.374376 0.181959 1.254 255 255 255
0.0429773 0.650357 1.714 255 255 255
0.361848 -0.252039 0.969 255 255 255
-1.17304 0.222158 2.269 255 255 255
-1.36383 -0.290803 2.844 255 255 255
-0.340494 0.444238 1.794 255 255 255
-0.697281 -0.056055 2.684 255 255 255
1.02035 0.611053 2.181 255 255 255
0.113449 0.400087 1.535 255 255 255
0.374339 -0.136016 1.034 255 255 255
0.0254187 -0.185477 1.165 255 255 255
-0.126208 -0.3562 1.147 255 255 255
0.0923854 -0.212251 1.126 255 255 255
0.300382 0.21909 1.305 255 255 255
0.550902 0.286219 1.22 255 255 255
0.213141 0.248657 1.387 255 255 255
0.48879 -0.14486 0.98 255 255 255
-0.0302988 0.0560655 1.369 255 255 255
-0.283837 0.202378 1.591 255 255 255
0.246423 -0.257097 1.027 255 255 255
0.451436 -0.199028 0.942 255 255 255
-1.00329 0.277428 2.181 255 255 255
0.368359 0.276429 1.305 255 255 255
0.910795 0.69968 2.017 0 0 0
0.452017 0.0196792 1.083 255 255 255
0.153262 -0.110208 1.171 255 255 255
0.263036 0.495534 1.477 255 255 255
0.440152 -0.168723 0.989 255 255 255
0.41599 -0.0384088 1.081 255 255 255
-0.477087 0.626019 1.848 255 255 255
-0.463458 0.405468 1.929 255 255 255
-0.161942 -0.132421 1.316 255 255 255
0.0526846 0.551471 1.668 255 255 255
-0.29794 0.464987 1.784 255 255 255
0.319201 0.196681 1.27 255 255 255
0.129875 0.360226 1.494 255 255 255
-0.953286 0.584275 1.821 255 255 255
0.000726833 -0.32367 1.106 255 255 255
0.448876 0.365612 1.336 255 255 255
0.409634 -0.0704371 1.06 255 255 255
-0.285803 0.682609 1.799 255 255 255
0.076959 0.428074 1.555 255 255 255
1.06967 0.637101 2.173 255 255 255
-0.663141 0.276232 2.32 255 255 255
0.209868 -0.122882 1.147 255 255 255
-0.0115693 -0.088525 1.27 255 255 255
0.424803 0.267593 1.283 255 255 255
0.0902785 -0.0301503 1.249 255 255 255
-0.731411 0.622293 1.837 255 255 255
0.398708 0.477104 1.429 255 255 255
-0.262663 0.393238 1.724 255 255 255
-0.648232 0.640968 1.789 255 255 255
-0.596388 0.48361 1.953 255 255 255
0.408264 -0.241183 0.945 255 255 255
0.0362347 0.0666155 1.357 255 255 255
0.419784 -0.117506 1.034 255 255 255
0.380334 -0.132394 1.032 255 255 255
0.348481 -0.0546927 1.09 255 255 255
0.428915 -0.0156262 1.087 255 255 255
-0.741382 0.561169 1.893 255 255 255
0.137083 0.408545 1.52 255 255 255
-0.241311 -0.203519 1.305 255 255 255
0.216954 -0.0887894 1.165 255 255 255
0.348105 0.0992509 1.192 255 255 255
-1.45577 -0.282176 2.898 255 255 255
-0.248143 -0.117446 1.366 255 255 255
-0.504194 0.537639 1.953 255 255 255
-0.184619 0.425329 1.729 255 255 255
0.330653 -0.175546 1.029 255 255 255
-0.0942155 -0.314934 1.167 255 255 255
0.292412 -0.222649 1.03 255 255 255
0.0568445 -0.272947 1.112 255 255 255
-0.20725 -0.0403399 1.39 255 255 255
0.17224 0.148124 1.316 255 255 255
-0.755301 0.584367 1.859 255 255 255
-0.155622 0.103963 1.48 255 255 255
0.48491 0.247333 1.234 255 255 255
0.139354 -0.21568 1.106 255 255 255
1.14845 0.53741 2.244 0 0 0
-0.0261601 -0.253583 1.182 255 255 255
-0.219178 0.687823 1.805 255 255 255
0.386318 0.265676 1.294 255 255 255
0.0650897 -0.0980644 1.234 255 255 255
0.358904 0.301883 1.333 255 255 255
0.480953 0.0948379 1.139 255 255 255
-1.01376 0.265041 2.196 255 255 255
-0.231459 0.299716 1.642 255 255 255
0.451509 0.266949 1.27 255 255 255
0.455696 -0.0659128 1.043 255 255 255
0.32899 -0.0763964 1.096 255 255 255
-0.147433 -0.427801 1.11 255 255 255
0.0705733 0.526842 1.642 255 255 255
0.178499 0.238592 1.381 255 255 255
-0.0350604 0.083525 1.381 255 255 255
0.572703 0.18778 1.152 255 255 255
0.182107 -0.300334 1.032 255 255 255
0.193436 0.0102566 1.22 255 255 255
0.356992 0.438292 1.439 255 255 255
-0.783921 0.60196 1.848 255 255 255
-0.286305 0.285066 1.65 255 255 255
0.210581 0.301109 1.4 255 255 255
0.02116 -0.390263 1.048 255 255 255
0.371084 0.0339671 1.149 255 255 255
-0.30163 0.582021 1.842 255 255 255
0.395001 -0.0175392 1.096 255 255 255
-0.194744 0.481614 1.719 255 255 255
-0.262118 -0.0902981 1.393 255 255 255
-0.237582 0.278787 1.629 255 255 255
-0.488298 0.477254 1.953 255 255 255
-0.279 0.00757399 1.47 255 255 255
0.0735986 -0.0663619 1.242 255 255 255
-0.463468 0.650789 1.784 255 255 255
0.133395 -0.0893549 1.198 255 255 255
-0.102106 0.519262 1.714 255 255 255
0.094786 -0.324677 1.051 255 255 255
0.21975 -0.320975 0.997 255 255 255
-0.878146 0.24713 2.261 255 255 255
-0.240909 0.414074 1.729 255 255 255
0.196927 0.487545 1.543 255 255 255
0.088204 0.461774 1.575 255 255 255
0.499225 0.0885718 1.13 255 255 255
0.0123003 -0.203227 1.18 255 255 255
-1.14096 0.239898 2.228 255 255 255
0.368017 0.296566 1.319 255 255 255
0.374418 -0.168192 1.025 255 255 255
0.542193 0.373726 1.289 255 255 255
0.831646 0.707082 1.947 0 0 0
0.429703 -0.288206 0.909 255 255 255
0.0540592 0.171263 1.419 255 255 255
0.190356 0.104652 1.308 255 255 255
0.189129 -0.243392 1.062 255 255 255
0.232835 -0.336795 0.977 255 255 255
0.170288 -0.158264 1.12 255 255 255
-0.295133 0.106701 1.555 255 255 255
-0.231333 0.365632 1.7 255 255 255
0.507609 -0.0952633 0.995 255 255 255
-0.059096 -0.302597 1.149 255 255 255
0.342202 -0.293758 0.941 255 255 255
-0.0132822 -0.128498 1.237 255 255 255
0.0890596 -0.11733 1.205 255 255 255
0.492557 0.38597 1.302 255 255 255
-0.846562 0.38526 2.092 255 255 255
-0.849627 0.657568 1.748 255 255 255
0.379353 0.249791 1.299 255 255 255
0.113323 -0.118004 1.192 255 255 255
0.235295 0.430263 1.484 255 255 255
-0.259359 -0.314202 1.239 255 255 255
-0.0893773 -0.117119 1.289 255 255 255
0.153868 -0.358741 1.012 255 255 255
0.384495 0.35118 1.339 255 255 255
0.412492 -0.327448 0.891 255 255 255
0.477647 0.483688 1.375 255 255 255
0.434978 -0.274328 0.917 255 255 255
-0.161633 0.107162 1.491 255 255 255
-0.11429 -0.158701 1.286 255 255 255
0.452769 -0.192582 0.948 255 255 255
-0.648237 0.432373 2.057 255 255 255
-0.174242 -0.377807 1.156 255 255 255
-0.178308 0.0711318 1.449 255 255 255
-0.163584 0.172436 1.532 255 255 255
0.897818 0.697252 2.01 0 0 0
0.439685 -0.337881 0.873 255 255 255
0.470912 -0.0152669 1.062 255 255 255
0.315841 -0.0439052 1.132 255 255 255
-1.01579 -0.0165956 2.66 255 255 255
-0.237238 0.626219 1.831 255 255 255
1.00632 0.62715 2.151 255 255 255
0.231692 0.145649 1.313 255 255 255
0.231245 -0.336795 0.977 255 255 255
0.428851 -0.148408 1.004 255 255 255
0.181914 0.418373 1.502 255 255 255
0.100098 -0.0810691 1.22 255 255 255
-0.893292 0.0779429 2.499 255 255 255
0.0710006 -0.0979055 1.232 255 255 255
-0.287402 -0.00669604 1.452 255 255 255
0.345639 -0.349105 0.902 255 255 255
-0.19698 -0.284389 1.215 255 255 255
-0.00577305 0.0692802 1.366 255 255 255
-0.951803 -0.212125 2.844 255 255 255
0.376251 0.0647735 1.165 255 255 255
0.201883 0.404515 1.487 255 255 255
0.114033 -0.0239179 1.242 255 255 255
0.0894588 0.649047 1.696 255 255 255
-0.314413 0.0126274 1.502 255 255 255
-0.0993713 -0.346302 1.139 255 255 255
0.132081 -0.290054 1.062 255 255 255
-0.489406 0.255796 2.037 255 255 255
-0.695751 -0.0869843 2.695 255 255 255
-0.507373 0.480432 1.953 255 255 255
0.0263409 0.162026 1.419 255 255 255
0.0891327 -0.139859 1.18 255 255 255
0.377123 -0.230978 0.98 255 255 255
0.0810036 -0.265453 1.096 255 255 255
0.291418 -0.0334328 1.152 255 255 255
0.420236 -0.247495 0.934 255 255 255
0.376486 0.00213683 1.126 255 255 255
0.424599 -0.318401 0.886 255 255 255
0.315804 0.310716 1.372 255 255 255
-1.15826 0.222158 2.269 255 255 255
0.0430493 -0.257138 1.13 255 255 255
0.0851366 -0.123213 1.205 255 255 255
0.28827 0.305744 1.39 255 255 255
-0.736515 -0.242171 2.871 255 255 255
0.762662 0.705545 1.917 255 255 255
0.289205 -0.179982 1.055 255 255 255
-0.00118902 -0.129245 1.225 255 255 255
0.335906 0.573303 1.524 255 255 255
0.157318 -0.355799 1.013 255 255 255
0.209099 -0.05028 1.196 255 255 255
-0.0707198 0.0115597 1.375 255 255 255
-0.205342 0.125646 1.509 255 255 255
0.275217 -0.165067 1.081 255 255 255
0.511141 0.332968 1.254 255 255 255
-0.0980626 -0.367349 1.124 255 255 255
-0.120524 0.0844558 1.435 255 255 255
