ply
format ascii 1.0
comment Created by Open3D
element vertex 1320
property double x
property double y
property double z
property uchar red
property uchar green
property uchar blue
end_header
0.20128 -0.0113077 0.887 255 255 255
-0.608036 -0.694735 2.638 255 255 255
0.60072 -0.493068 2.092 255 255 255
-0.317874 0.0867994 0.858 255 255 255
-0.233648 0.205551 0.705 0 0 0
-0.151858 0.226366 0.678 255 255 255
-0.0332315 0.0380435 0.83 255 255 255
-0.166249 -0.206296 1.351 255 255 255
-0.139924 0.22449 0.679 255 255 255
-0.247239 0.0775686 0.88 255 255 255
0.618994 -0.49008 2.051 255 255 255
0.898593 -0.10371 1.941 255 255 255
-0.0777631 0.0415301 0.875 0 0 0
-0.232997 0.230291 0.667 255 255 255
0.104858 0.198091 0.737 255 255 255
-0.663569 -0.568738 2.173 255 255 255
-0.566655 -0.875899 2.707 255 255 255
-0.0379635 0.151529 0.788 255 255 255
0.839682 -0.0125028 2.004 255 255 255
-0.600117 -0.700529 2.66 255 255 255
0.337464 -0.773837 2.173 255 255 255
-0.186918 0.0847902 0.866 0 0 0
0.881009 0.0960649 2.024 255 255 255
0.484772 -0.470943 2.356 255 255 255
-0.635063 -0.797062 2.54 255 255 255
0.702567 -0.306128 2.071 255 255 255
0.567588 -0.179269 2.303 255 255 255
0.321713 -0.307159 2.489 0 0 0
-0.000673619 0.207991 0.694 255 255 255
-0.124797 0.113278 0.837 255 255 255
-0.0601986 0.207915 0.69 255 255 255
-0.554869 -0.102761 1.173 255 255 255
0.0270715 0.00906113 0.777 255 255 255
0.00300502 0.0339519 0.768 0 0 0
-0.0922146 0.0193902 0.905 0 0 0
-0.131006 -0.7788 2.469 255 255 255
0.757928 -0.412947 1.882 255 255 255
-0.242139 -0.181303 1.345 255 255 255
0.203951 -0.606511 2.303 255 255 255
-0.454673 0.00189582 0.999 255 255 255
-0.226195 0.0346648 0.961 255 255 255
-0.138269 -0.0132709 1.041 255 255 255
0.121653 0.110539 0.737 255 255 255
-0.119043 0.1608 0.765 255 255 255
-0.299349 -0.246699 1.419 255 255 255
-0.145134 -0.179945 1.319 255 255 255
-0.328439 0.189612 0.669 255 255 255
-0.282503 -0.917439 2.53 255 255 255
-0.168087 0.24974 0.639 255 255 255
-0.279884 0.011685 1.002 255 255 255
-0.170375 0.178173 0.734 255 255 255
-0.0401427 0.0880969 0.806 255 255 255
-0.660991 -0.204697 1.299 255 255 255
0.831393 0.028 2.107 255 255 255
-0.0679477 0.0273533 0.877 0 0 0
0.111608 0.128193 0.742 255 255 255
-0.0819744 0.0717333 0.845 255 255 255
-0.155156 -0.0992187 1.154 255 255 255
0.121167 0.0139298 0.842 255 255 255
0.680034 -0.338681 2.064 255 255 255
-0.226749 0.226213 0.671 255 255 255
0.072143 0.225415 0.699 255 255 255
-0.0724364 -0.0230533 0.955 0 0 0
-0.482013 -0.906807 2.831 255 255 255
-0.304456 -0.222891 1.4 255 255 255
-0.78693 -0.847675 2.459 255 255 255
-0.0162189 0.114776 0.791 255 255 255
0.108593 0.259193 0.692 255 255 255
0.698194 0.109094 2.151 0 0 0
0.277132 0.237227 0.837 255 255 255
0.691956 -0.608618 1.853 255 255 255
-0.13316 0.0443272 0.874 255 255 255
-0.816361 -0.515546 1.714 255 255 255
0.487987 -0.704373 2.166 255 255 255
0.880454 -0.267672 1.831 255 255 255
-0.250621 0.238494 0.648 255 255 255
0.498467 -0.53534 2.181 255 255 255
-0.00960781 0.0381431 0.777 0 0 0
0.854189 -0.590171 1.696 255 255 255
-0.135407 -0.174187 1.308 255 255 255
0.838183 -0.190048 1.985 255 255 255
0.399218 0.215341 0.811 255 255 255
-0.414847 -0.291514 1.435 255 255 255
-0.071397 0.223385 0.679 255 255 255
-0.676985 -0.221895 1.339 255 255 255
-0.239857 0.0464885 0.947 255 255 255
0.383326 0.147094 0.828 255 255 255
0.462079 -0.770443 2.051 255 255 255
0.802447 -0.239064 2.017 255 255 255
0.640895 -0.401134 2.057 255 255 255
-0.06946 0.193611 0.716 255 255 255
0.831808 -0.41475 1.724 255 255 255
-0.617491 -0.218581 1.319 0 0 0
-0.155161 -0.162033 1.313 255 255 255
-0.415275 -0.0650778 1.116 255 255 255
0.541182 -0.751771 2.01 255 255 255
-0.272666 0.215877 0.705 255 255 255
0.0381083 0.102958 0.77 255 255 255
0.507138 -0.65046 2.128 255 255 255
0.741347 -0.287322 2.057 255 255 255
0.850775 -0.535884 1.673 255 255 255
0.13567 0.145433 0.776 255 255 255
0.275933 -0.605893 2.374 255 255 255
-0.283396 0.211587 0.706 255 255 255
0.0386305 -0.032179 0.866 0 0 0
0.00395191 -0.0687582 1.01 255 255 255
-0.236707 -0.916568 2.44 255 255 255
-0.462795 0.0240633 0.975 255 255 255
0.00496526 -0.812735 2.173 255 255 255
0.714951 -0.447374 1.966 255 255 255
-0.112458 0.219287 0.68 255 255 255
-0.636051 -0.162915 1.254 0 0 0
0.354694 0.358879 0.954 255 255 255
-0.105125 0.2464 0.655 255 255 255
-0.103482 0.235011 0.665 255 255 255
-0.368969 0.0514895 0.954 255 255 255
0.916038 -0.151388 1.905 255 255 255
0.838606 -0.52782 1.774 255 255 255
-0.275974 0.0993656 0.858 255 255 255
-0.628337 -0.367444 1.559 255 255 255
0.843795 -0.155461 1.917 255 255 255
0.177546 0.27177 0.745 255 255 255
-0.506957 -0.0319668 1.043 255 255 255
0.743233 -0.512124 1.853 255 255 255
-0.137456 0.000260652 0.964 255 255 255
0.843628 0.0276146 2.078 255 255 255
0.361524 -0.730131 2.212 255 255 255
-0.258844 0.20873 0.708 255 255 255
0.268478 0.211831 0.823 255 255 255
0.517862 -0.717258 2.173 255 255 255
-0.831532 -0.558245 1.734 255 255 255
-0.604307 -0.414478 1.624 255 255 255
-0.00580592 0.0242032 0.776 255 255 255
-0.660163 -0.184929 1.265 0 0 0
0.135777 -0.290746 2.356 255 255 255
-0.0869426 0.202933 0.716 255 255 255
0.553837 -0.642148 2.057 255 255 255
-0.038927 0.0962048 0.808 255 255 255
-0.255788 0.0705439 0.9 255 255 255
0.845598 0.0703267 2.143 255 255 255
-0.0189332 0.229295 0.661 255 255 255
-0.106565 0.200382 0.707 0 0 0
-0.192703 0.123547 0.842 255 255 255
0.32757 -0.564088 2.329 255 255 255
-0.0695404 0.204404 0.705 255 255 255
0.162478 0.0304084 0.843 255 255 255
0.112436 0.213447 0.724 255 255 255
0.00431058 0.144541 0.778 255 255 255
0.226096 0.184009 0.801 255 255 255
-0.624201 -0.103812 1.185 255 255 255
0.491172 -0.542596 2.196 255 255 255
-0.491936 -1.00822 2.684 255 255 255
-0.0132642 0.0853042 0.769 255 255 255
0.685118 -0.698319 1.859 255 255 255
-0.316532 0.208819 0.693 255 255 255
0.82114 -0.426938 1.799 255 255 255
-0.573649 -0.300046 1.477 0 0 0
0.859819 -0.151865 1.911 255 255 255
0.803706 0.058403 2.22 255 255 255
0.0386604 0.20383 0.711 255 255 255
0.361956 0.279138 0.888 255 255 255
0.243019 0.0753579 0.871 255 255 255
0.437859 -0.702405 2.128 255 255 255
-0.126356 -0.155999 1.281 255 255 255
-0.400275 0.10812 0.861 255 255 255
-0.0301741 -0.00561504 0.9 255 255 255
-0.402156 0.0864204 0.913 255 255 255
0.829925 -0.438648 1.799 255 255 255
-0.256632 -0.927184 2.479 255 255 255
0.391032 0.150759 0.784 255 255 255
0.405896 -0.447514 2.459 255 255 255
0.0995563 0.00289759 0.822 0 0 0
0.0143759 0.20064 0.712 255 255 255
-0.833786 -0.687564 2.004 0 0 0
-0.0644605 -0.0322761 0.952 0 0 0
0.28523 0.352617 0.906 255 255 255
0.314726 0.107873 0.906 255 255 255
0.0616176 0.0747526 0.751 0 0 0
-0.394883 -0.321149 1.52 255 255 255
-0.274659 0.247886 0.645 0 0 0
-0.510514 -0.00632004 1.013 255 255 255
-0.196061 -0.225624 1.375 255 255 255
0.469956 -0.757735 2.071 255 255 255
0.037794 -0.316745 2.469 255 255 255
0.738556 -0.410365 2.004 255 255 255
0.201254 0.233309 0.766 255 255 255
0.0532708 0.156114 0.737 0 0 0
0.131463 0.196604 0.745 255 255 255
-0.325975 -0.865753 2.649 255 255 255
-0.136601 0.00337699 0.958 255 255 255
0.119692 -0.0357762 0.851 255 255 255
0.372045 0.328787 0.939 255 255 255
0.176593 0.254635 0.741 255 255 255
0.17187 0.219255 0.752 255 255 255
-0.0700016 0.212601 0.687 255 255 255
0.107941 -0.503397 2.181 255 255 255
0.820102 -0.542408 1.784 255 255 255
-0.247878 0.223167 0.675 0 0 0
-0.40067 0.0864204 0.913 255 255 255
0.0663208 -0.0612008 0.878 0 0 0
0.253689 0.22562 0.81 255 255 255
-0.0996918 0.226798 0.676 255 255 255
-0.328286 0.163946 0.694 255 255 255
-0.202556 -0.0211982 1.015 255 255 255
-0.145604 -0.0397592 1.07 0 0 0
0.663015 -0.652085 1.848 255 255 255
-0.897962 -0.469819 1.71 0 0 0
-0.20366 -0.226608 1.381 255 255 255
0.127265 0.152024 0.771 255 255 255
-0.0160236 0.188706 0.724 255 255 255
0.566267 -0.197375 2.253 255 255 255
-0.409905 0.135666 0.816 255 255 255
-0.243377 -0.00645105 1.034 255 255 255
-0.527812 -0.848268 2.805 255 255 255
0.198645 -0.405002 2.374 255 255 255
-0.264493 -0.291041 1.456 255 255 255
0.881984 -0.240734 1.853 255 255 255
-0.299217 0.075877 0.877 255 255 255
-0.302777 -0.476483 2.793 0 0 0
-0.175496 -0.0290796 1.002 255 255 255
-0.310338 -0.235286 1.406 255 255 255
-0.0664132 -0.0618759 1.005 0 0 0
-0.154185 0.196334 0.709 0 0 0
0.782394 -0.574554 1.758 255 255 255
-0.320463 -0.0917069 1.154 255 255 255
0.910661 0.158645 2.024 255 255 255
-0.294743 0.152404 0.714 255 255 255
-0.411892 -0.699195 2.793 255 255 255
-0.511601 -0.245649 1.387 255 255 255
0.859025 -0.278191 1.882 255 255 255
0.100877 0.231763 0.701 255 255 255
0.848983 -0.511455 1.719 255 255 255
0.827445 -0.0523068 2.03 255 255 255
-0.322543 0.140187 0.827 255 255 255
0.19664 0.141957 0.814 255 255 255
0.773579 -0.0311375 2.166 255 255 255
-0.274973 0.196215 0.717 255 255 255
0.777245 0.182869 2.037 0 0 0
-0.469729 0.105849 0.889 255 255 255
0.313567 0.122239 0.882 255 255 255
-0.594551 -0.280993 1.429 255 255 255
0.021559 0.0930855 0.761 0 0 0
0.625639 -0.674345 1.947 255 255 255
-0.866984 -0.558998 1.677 255 255 255
-0.593094 -0.677666 2.707 0 0 0
-0.426823 0.0412609 0.969 255 255 255
0.147829 0.229472 0.73 255 255 255
-0.0618116 0.0214966 0.871 255 255 255
0.0615888 0.199934 0.722 255 255 255
0.448042 -0.151905 2.286 0 0 0
-0.826835 -0.915686 2.356 255 255 255
0.233773 0.134426 0.833 255 255 255
0.397091 -0.39871 2.479 255 255 255
0.913349 -0.128871 1.893 255 255 255
0.0684934 0.108247 0.746 0 0 0
-0.587631 -0.329519 1.513 255 255 255
0.654146 -0.479368 1.966 255 255 255
-0.199282 0.0219464 0.952 0 0 0
-0.134243 0.10061 0.845 255 255 255
0.551721 -0.471454 2.181 255 255 255
-0.175925 -0.830364 2.479 0 0 0
0.787275 -0.370177 1.947 255 255 255
0.897942 -0.131951 1.893 255 255 255
0.180527 0.187676 0.768 255 255 255
-0.125237 0.128638 0.822 0 0 0
0.436967 -0.781192 2.107 255 255 255
0.375648 0.295154 0.863 0 0 0
0.737496 -0.306924 2.01 255 255 255
0.0588029 0.259511 0.664 255 255 255
0.888003 0.0659621 2.01 255 255 255
0.699949 -0.267762 2.114 255 255 255
-0.264715 0.130088 0.84 255 255 255
-0.0162518 0.216125 0.684 255 255 255
0.564765 -0.710832 1.978 255 255 255
-0.365149 0.132196 0.811 255 255 255
-0.183254 -0.682371 2.469 255 255 255
0.826196 -0.406333 1.724 255 255 255
0.534554 0.273576 1.322 0 0 0
-0.336925 -0.0216576 1.037 255 255 255
0.145982 0.0670276 0.805 255 255 255
-0.315542 -0.226867 1.369 255 255 255
0.618085 -0.642534 2.037 255 255 255
0.600715 -0.518293 2.057 255 255 255
-0.249778 -0.176136 1.339 255 255 255
0.0809611 0.0818668 0.749 0 0 0
-0.0208019 0.164357 0.77 0 0 0
0.185335 0.221944 0.757 255 255 255
0.0137511 -0.0999577 1.141 255 255 255
0.0338395 0.204984 0.707 255 255 255
-0.25116 0.119862 0.845 255 255 255
-0.493729 -0.817368 2.793 255 255 255
-0.331005 0.20742 0.681 0 0 0
-0.0832549 0.0291415 0.888 0 0 0
0.462259 -0.15794 2.32 0 0 0
0.117675 0.219298 0.72 255 255 255
0.368313 0.250689 0.9 0 0 0
-0.329925 0.153531 0.766 255 255 255
0.417596 -0.485861 2.411 255 255 255
0.846185 -0.491874 1.719 255 255 255
0.245279 0.0016586 0.874 255 255 255
0.215967 0.157809 0.807 255 255 255
-0.823064 -0.561067 1.734 255 255 255
0.677242 -0.196586 2.244 255 255 255
0.364466 0.218209 0.905 0 0 0
0.153291 0.0673607 0.809 255 255 255
0.318712 0.341081 0.935 255 255 255
0.06427 0.218902 0.7 255 255 255
-0.473094 -0.383405 1.583 255 255 255
0.793589 -0.0466228 2.071 255 255 255
0.8396 -0.5307 1.7 255 255 255
0.0104786 0.0313705 0.766 0 0 0
0.77393 -0.548792 1.805 255 255 255
-0.491936 -0.999489 2.684 255 255 255
0.73719 -0.484899 1.876 255 255 255
-0.365621 0.111925 0.827 255 255 255
-0.0952471 0.148432 0.806 255 255 255
-0.255388 0.154484 0.79 255 255 255
-0.377068 0.152724 0.781 255 255 255
-0.318284 -0.64812 2.731 255 255 255
0.312989 0.11021 0.901 255 255 255
0.117776 -0.714948 2.166 255 255 255
0.310304 -0.794432 2.181 255 255 255
0.356 0.241173 0.937 255 255 255
-0.375521 -0.585566 2.793 0 0 0
0.786407 0.0725911 2.212 255 255 255
0.336422 0.211901 0.897 255 255 255
-0.457384 0.10085 0.896 255 255 255
0.0438728 0.226143 0.684 255 255 255
-0.191488 0.237873 0.655 255 255 255
-0.32941 0.0638149 0.93 255 255 255
-0.603459 -0.174913 1.267 255 255 255
0.63115 -0.181331 2.236 255 255 255
-0.48133 -0.147667 1.229 255 255 255
0.387287 0.172919 0.792 255 255 255
0.256253 -0.668918 2.236 0 0 0
0.866683 -0.271766 1.859 255 255 255
0.758388 -0.104042 2.143 255 255 255
0.155666 0.22268 0.739 255 255 255
0.0471429 -0.0350379 0.867 0 0 0
0.397067 0.127073 0.812 255 255 255
-0.426229 -0.656901 2.768 255 255 255
0.424795 -0.688037 2.204 255 255 255
-0.215058 0.168813 0.779 255 255 255
0.806534 -0.046015 2.044 255 255 255
-0.880633 -0.520791 1.677 255 255 255
-0.0566084 0.226127 0.674 255 255 255
0.709903 -0.558522 1.837 255 255 255
-0.162974 -0.125462 1.227 255 255 255
0.58161 -0.642534 2.037 255 255 255
-0.881642 -0.591563 1.7 255 255 255
0.4149 -0.347663 2.489 255 255 255
0.195657 -0.0188173 0.901 255 255 255
-0.433532 -0.0130287 1.022 255 255 255
0.370516 0.35018 0.939 255 255 255
0.218466 0.256326 0.783 255 255 255
-0.077569 0.227561 0.675 255 255 255
0.325828 -0.822439 2.143 255 255 255
0.507783 -0.306082 2.356 255 255 255
-0.287605 0.137467 0.835 255 255 255
-0.0579742 -0.634649 2.44 255 255 255
0.418951 -0.327411 2.489 255 255 255
-0.183333 -0.087951 1.154 255 255 255
0.798158 0.230883 1.966 255 255 255
-0.595215 -0.0700029 1.137 255 255 255
-0.645865 -0.991086 2.55 255 255 255
-0.446462 0.0563235 0.957 0 0 0
-0.260631 -0.261104 1.422 255 255 255
0.604186 -0.3317 2.244 255 255 255
-0.139425 0.21333 0.693 255 255 255
0.0857492 0.2191 0.708 255 255 255
-0.084232 -0.131249 1.244 255 255 255
0.893184 0.0745685 1.978 255 255 255
-0.0320725 0.0613726 0.835 0 0 0
0.806534 -0.0992351 2.044 255 255 255
-0.453672 0.0883876 0.918 255 255 255
-0.436656 0.0229377 0.995 255 255 255
0.116215 -0.0457373 0.856 255 255 255
-0.253298 0.227716 0.669 0 0 0
-0.320331 -0.287248 1.473 255 255 255
0.369633 -0.76416 2.196 255 255 255
0.274152 0.21177 0.828 255 255 255
0.254315 0.1905 0.812 255 255 255
-0.362997 0.184652 0.687 255 255 255
0.733633 -0.0842809 2.173 255 255 255
0.119107 0.178066 0.759 255 255 255
0.00559599 -0.0671146 1.01 255 255 255
0.584604 -0.329364 2.253 255 255 255
0.643399 -0.169805 2.228 255 255 255
-0.0472506 0.0128877 0.864 255 255 255
0.614071 -0.727182 1.911 255 255 255
-0.425904 0.125537 0.837 255 255 255
0.595896 -0.457145 2.099 255 255 255
-0.0636177 0.147682 0.788 0 0 0
0.344998 0.143463 0.889 255 255 255
-0.450669 -0.298249 1.445 255 255 255
-0.140971 0.244691 0.634 255 255 255
0.763796 -0.447228 1.859 255 255 255
0.408431 -0.369393 2.499 255 255 255
0.121936 0.251085 0.704 255 255 255
0.785682 -0.569354 1.805 255 255 255
0.0313478 0.225262 0.678 255 255 255
-0.265447 0.249349 0.638 255 255 255
0.253062 0.20271 0.808 255 255 255
0.0500182 0.216401 0.692 255 255 255
0.367895 0.331938 0.948 255 255 255
-0.743571 -0.283153 1.452 0 0 0
-0.684733 -0.214629 1.308 255 255 255
0.380748 0.323145 0.878 0 0 0
-0.103275 -0.0365968 1.03 255 255 255
-0.410181 -0.135314 1.208 255 255 255
0.132594 0.248145 0.712 255 255 255
-0.0755898 0.00610173 0.9 255 255 255
-0.300449 0.187631 0.711 255 255 255
0.373332 0.32503 0.891 255 255 255
-0.416498 0.0411758 0.967 255 255 255
0.41054 0.31238 0.834 255 255 255
0.17025 0.0946231 0.784 255 255 255
-0.819608 -0.904007 2.449 255 255 255
-0.761827 -0.940492 2.43 255 255 255
-0.170168 0.24974 0.639 255 255 255
-0.416311 0.0944996 0.905 255 255 255
-0.515428 -0.140235 1.234 0 0 0
-0.167308 0.247006 0.64 255 255 255
-0.46265 0.0871777 0.921 0 0 0
-0.0213152 0.150437 0.789 255 255 255
-0.147773 0.237873 0.655 0 0 0
0.272066 0.173946 0.834 255 255 255
0.827667 -0.412657 1.763 255 255 255
-0.312808 0.22814 0.68 255 255 255
0.431106 -0.392218 2.489 255 255 255
0.062851 0.20021 0.723 255 255 255
-0.169429 0.117666 0.849 255 255 255
-0.452827 0.0576994 0.954 0 0 0
0.396726 0.307964 0.848 255 255 255
-0.288909 0.0382251 0.972 0 0 0
-0.559631 -0.15858 1.252 255 255 255
-0.301186 -0.0132072 1.036 255 255 255
0.169092 0.205658 0.756 255 255 255
0.509546 -0.378375 2.329 255 255 255
-0.586697 -0.373474 1.563 255 255 255
0.107539 0.00970252 0.832 0 0 0
0.0164731 0.164841 0.755 255 255 255
0.223709 0.214363 0.788 255 255 255
0.233009 0.112271 0.85 0 0 0
0.889883 -0.034996 1.985 255 255 255
-0.263438 0.241717 0.651 255 255 255
0.104006 0.0778136 0.757 255 255 255
-0.498621 -0.0807479 1.132 255 255 255
-0.0520649 0.225456 0.672 255 255 255
-0.23569 0.0687723 0.896 255 255 255
0.00157206 0.21403 0.688 255 255 255
0.21028 0.203562 0.781 255 255 255
0.354833 0.360496 0.942 255 255 255
0.458387 -0.696894 2.143 255 255 255
0.00170231 0.0777925 0.745 255 255 255
0.00155421 -0.499683 2.365 255 255 255
-0.190212 0.215462 0.689 255 255 255
-0.516055 -1.02137 2.719 255 255 255
0.494001 -0.223819 2.42 255 255 255
-0.497817 0.049623 0.948 255 255 255
0.209366 0.119515 0.833 255 255 255
0.381365 -0.653052 2.244 255 255 255
-0.454717 0.014797 0.992 255 255 255
-0.0405049 -0.467682 2.593 255 255 255
-0.321151 0.170987 0.686 255 255 255
0.317689 0.330886 0.932 255 255 255
0.465596 -0.424935 2.356 255 255 255
0.0508024 0.177461 0.736 0 0 0
0.403459 -0.184795 2.374 0 0 0
0.471622 -0.347663 2.489 255 255 255
-0.842213 -0.807587 2.411 255 255 255
0.292841 0.179939 0.843 255 255 255
0.201639 0.169053 0.792 255 255 255
0.374068 0.345823 0.948 255 255 255
-0.742366 -0.437874 1.673 255 255 255
-0.626643 -0.674482 2.626 0 0 0
0.826634 -0.191867 2.004 255 255 255
0.1635 0.27618 0.731 255 255 255
-0.333045 -0.614509 2.78 255 255 255
-0.130425 0.09947 0.847 255 255 255
-0.359269 0.155266 0.781 255 255 255
0.403152 0.317249 0.847 255 255 255
0.876016 -0.195915 1.947 255 255 255
-0.466412 -0.00775613 0.986 255 255 255
0.0722332 0.0780013 0.747 0 0 0
0.574462 -0.535301 2.071 255 255 255
0.848023 0.168498 2.064 255 255 255
-0.527633 -0.908567 2.78 255 255 255
0.588607 -0.360103 2.173 255 255 255
0.1002 0.184975 0.747 255 255 255
0.591761 -0.667997 2.004 255 255 255
-0.136038 -0.0592983 1.077 0 0 0
-0.672238 -0.72609 2.509 255 255 255
-0.807549 -0.52824 1.719 255 255 255
0.304361 0.0792675 0.952 255 255 255
-0.0551131 0.0667279 0.834 0 0 0
0.604127 -0.517863 1.991 255 255 255
-0.690275 -0.544779 1.831 0 0 0
-0.237913 0.0288824 0.977 255 255 255
0.0148522 -0.0311606 0.877 0 0 0
0.889423 0.167437 2.051 255 255 255
0.708222 0.0508088 2.204 0 0 0
-0.356286 -0.187561 1.283 255 255 255
-0.429396 -0.0775402 1.139 0 0 0
-0.268387 0.201486 0.715 255 255 255
-0.530934 -0.0567773 1.096 255 255 255
-0.16271 0.112271 0.85 255 255 255
-0.273674 -0.00981637 1.034 0 0 0
0.871764 -0.114644 1.966 255 255 255
-0.430842 -0.265417 1.396 255 255 255
-0.445384 -0.184316 1.275 255 255 255
-0.228868 0.170622 0.77 255 255 255
0.84701 0.0309962 2.078 255 255 255
0.624716 -0.470161 2.037 255 255 255
0.166793 0.0331914 0.844 255 255 255
0.900143 0.135991 2.03 255 255 255
0.387369 0.139009 0.828 0 0 0
-0.336711 0.0499894 0.955 255 255 255
-0.28549 -0.246699 1.419 255 255 255
-0.0820749 -0.126996 1.242 255 255 255
-0.361787 0.0148268 0.994 255 255 255
0.101145 0.185693 0.745 255 255 255
-0.135325 0.19396 0.713 0 0 0
-0.0144965 0.237873 0.655 255 255 255
-0.0282291 0.109984 0.803 255 255 255
-0.300125 0.225553 0.689 255 255 255
-0.258912 0.100644 0.857 255 255 255
0.0274579 0.249786 0.664 255 255 255
-0.13517 0.156136 0.779 255 255 255
0.228862 -0.648339 2.253 255 255 255
-0.579451 -0.891493 2.55 255 255 255
-0.150271 0.213839 0.691 255 255 255
0.614385 -0.177056 2.228 255 255 255
0.218579 0.275915 0.788 255 255 255
0.191716 0.154944 0.799 255 255 255
-0.286607 0.162861 0.714 255 255 255
0.188782 0.225342 0.756 255 255 255
-0.0861365 0.196763 0.719 255 255 255
-0.590859 -0.720493 2.638 255 255 255
-0.524661 -0.933415 2.695 255 255 255
0.366133 0.348251 0.972 255 255 255
-0.221021 -0.00972143 1.024 255 255 255
0.100502 -0.483352 2.253 255 255 255
0.107281 0.00562715 0.83 0 0 0
0.367507 0.356246 0.947 255 255 255
0.167756 0.271341 0.734 255 255 255
0.363687 -0.232907 2.392 0 0 0
0.883525 -0.0541857 1.978 255 255 255
-0.0996458 0.117106 0.855 255 255 255
0.717542 0.285758 1.826 255 255 255
0.892762 0.0406064 2.051 255 255 255
-0.0274217 -0.140803 1.239 255 255 255
-0.543634 -0.0711581 1.126 255 255 255
-0.45216 -0.0835385 1.145 255 255 255
-0.52742 -0.251246 1.393 255 255 255
0.226623 0.10699 0.852 255 255 255
0.443827 -0.774335 2.107 255 255 255
-0.334257 0.230746 0.659 255 255 255
0.13025 0.122578 0.752 0 0 0
-0.353035 -0.273055 1.412 255 255 255
-0.628304 -0.200161 1.297 0 0 0
-0.028001 0.184077 0.729 255 255 255
-0.151177 0.215775 0.69 255 255 255
0.282582 0.224969 0.837 255 255 255
-0.216178 -0.0812472 1.139 255 255 255
-0.52568 -0.153518 1.244 255 255 255
-0.298652 0.035278 0.978 255 255 255
-0.869916 -0.826057 2.278 255 255 255
-0.408604 0.0970143 0.901 255 255 255
-0.257245 0.163616 0.733 255 255 255
-0.145373 -0.0124295 0.975 255 255 255
0.797527 -0.494031 1.853 255 255 255
0.237718 0.104828 0.857 255 255 255
-0.356388 0.0116267 0.997 255 255 255
0.10813 0.102975 0.743 0 0 0
-0.397672 -0.160232 1.249 255 255 255
0.0858615 0.0608072 0.76 255 255 255
0.309175 -0.548206 2.392 255 255 255
-0.114482 -0.149934 1.265 255 255 255
-0.524281 -0.326276 1.487 255 255 255
-0.0189905 0.227831 0.663 255 255 255
0.701166 -0.397786 2.057 255 255 255
-0.150936 0.1943 0.71 0 0 0
0.397131 0.280083 0.843 255 255 255
-0.0988426 0.141957 0.814 255 255 255
0.00233068 -0.0727587 1.02 255 255 255
0.0654448 0.120459 0.739 255 255 255
0.887601 0.156115 2.078 255 255 255
0.837554 -0.289603 1.917 255 255 255
-0.52533 -0.10068 1.171 255 255 255
-0.473511 0.0251238 0.955 255 255 255
-0.830788 -0.371461 1.587 255 255 255
-0.345244 -0.300046 1.477 255 255 255
0.137538 0.0209783 0.85 255 255 255
-0.244206 0.229601 0.665 255 255 255
0.777879 -0.164625 2.03 255 255 255
-0.23617 -0.835564 2.519 255 255 255
-0.222484 0.244143 0.649 255 255 255
-0.434625 -0.690104 2.793 255 255 255
0.906148 -0.293245 1.805 255 255 255
0.503644 -0.539123 2.099 255 255 255
0.0353907 -0.695416 2.312 255 255 255
0.243741 0.0332543 0.812 0 0 0
-0.3809 0.145477 0.797 255 255 255
0.0524262 -0.483343 2.236 255 255 255
-0.215907 0.0345205 0.957 255 255 255
0.363724 0.357287 0.918 255 255 255
0.031381 -0.611607 2.294 255 255 255
-0.324821 0.000274441 1.015 0 0 0
-0.445146 -0.736349 2.831 255 255 255
-0.0109706 0.154587 0.784 255 255 255
-0.157247 0.211896 0.692 255 255 255
0.242231 -0.606641 2.347 255 255 255
0.398182 0.242195 0.817 255 255 255
-0.125557 0.001911 1.007 255 255 255
0.221352 0.19241 0.798 255 255 255
-0.114111 0.207915 0.69 255 255 255
-0.628622 -0.327776 1.505 255 255 255
-0.140712 0.149181 0.796 255 255 255
0.676078 -0.584789 1.893 255 255 255
-0.601162 -0.645701 2.684 0 0 0
-0.300129 -0.267679 1.445 255 255 255
0.890892 -0.202186 1.859 255 255 255
-0.33002 0.219333 0.67 0 0 0
0.807074 -0.0297718 2.071 255 255 255
-0.256493 -0.20101 1.375 255 255 255
0.212111 -0.012708 0.884 255 255 255
-0.440239 -0.820591 2.743 255 255 255
0.402143 0.307155 0.842 255 255 255
-0.967213 -0.721818 1.865 255 255 255
0.83543 -0.619615 1.686 255 255 255
0.0613339 0.175544 0.733 255 255 255
0.246742 0.155391 0.822 255 255 255
-0.383668 0.14972 0.792 255 255 255
0.116316 0.0365602 0.827 255 255 255
0.472134 -0.635048 2.158 255 255 255
0.656179 -0.511158 1.953 255 255 255
0.182778 0.173503 0.783 255 255 255
0.825823 0.0386679 2.128 255 255 255
0.0702129 -0.687463 2.114 255 255 255
0.148543 -0.641411 2.204 255 255 255
-0.252915 -0.141712 1.247 255 255 255
0.374676 0.298308 0.864 0 0 0
-0.16963 0.100644 0.857 255 255 255
-0.0744463 0.204122 0.708 255 255 255
0.0231413 -0.765286 2.22 255 255 255
-0.278742 -0.564745 2.78 255 255 255
-0.523108 -0.790944 2.78 255 255 255
-0.0143366 -0.700756 2.449 255 255 255
0.806398 -0.613955 1.748 255 255 255
0.145093 0.0058441 0.862 255 255 255
0.852153 0.051804 2.099 255 255 255
-0.144691 0.240912 0.646 0 0 0
0.101099 0.259556 0.687 255 255 255
-0.251672 0.16541 0.752 255 255 255
-0.47372 0.0591472 0.928 255 255 255
-0.0494491 0.144855 0.808 255 255 255
-0.148754 0.229893 0.669 255 255 255
0.199224 0.233637 0.763 255 255 255
0.0469917 0.00666677 0.793 0 0 0
0.0143058 -0.369057 2.582 0 0 0
0.643462 -0.514336 1.953 255 255 255
0.387886 0.234456 0.832 255 255 255
-0.0607 0.177702 0.737 0 0 0
0.388966 0.137666 0.82 0 0 0
-0.338983 0.121933 0.831 0 0 0
-0.473137 0.0940819 0.901 255 255 255
-0.250741 0.17287 0.742 255 255 255
0.226275 0.220775 0.788 255 255 255
0.37417 0.256005 0.893 0 0 0
0.691956 -0.605602 1.853 255 255 255
0.371047 0.327193 0.889 255 255 255
0.740243 -0.487952 1.876 255 255 255
0.290441 0.22273 0.844 255 255 255
0.285248 -0.307159 2.489 255 255 255
0.547967 0.274915 1.339 0 0 0
0.758396 -0.562094 1.81 255 255 255
0.0532584 -0.0755748 0.951 255 255 255
-0.324028 0.216441 0.685 0 0 0
0.950594 -0.0516368 2.004 255 255 255
0.899439 0.164099 2.051 255 255 255
-0.279417 0.0939992 0.86 255 255 255
0.785682 -0.519419 1.805 255 255 255
-0.383603 0.171662 0.742 255 255 255
-0.335347 -0.0978468 1.16 255 255 255
-0.251529 -0.825099 2.55 255 255 255
-0.144032 0.0121727 0.916 255 255 255
-0.534532 -0.425787 1.637 255 255 255
-0.510949 0.0381465 0.97 0 0 0
-0.213006 -0.0789058 1.132 255 255 255
0.106802 -0.71933 2.158 255 255 255
0.12611 0.143184 0.764 255 255 255
0.0628683 0.182499 0.737 255 255 255
-0.296331 -0.0644947 1.106 0 0 0
0.26478 0.182588 0.824 255 255 255
-0.0569269 0.0790482 0.821 255 255 255
-0.270582 0.13371 0.837 255 255 255
-0.131537 -0.620588 2.479 255 255 255
0.050196 -0.0408692 0.871 0 0 0
-0.31318 -0.128346 1.198 255 255 255
-0.756015 -0.691949 2.489 0 0 0
0.77601 -0.576188 1.763 255 255 255
-0.036718 0.242088 0.652 255 255 255
0.150529 0.162892 0.781 255 255 255
-0.111842 0.214698 0.683 255 255 255
-0.761182 -0.300046 1.477 0 0 0
-0.0488487 0.121653 0.82 0 0 0
-0.0691831 0.119152 0.84 255 255 255
-0.798368 -0.626493 1.826 255 255 255
-0.103939 0.230856 0.675 255 255 255
0.257004 0.129794 0.847 255 255 255
-0.239944 0.196953 0.724 255 255 255
0.221015 0.243584 0.783 255 255 255
-0.0292787 0.147886 0.796 255 255 255
0.0789074 0.199773 0.73 255 255 255
-0.180352 -0.022152 0.984 0 0 0
-0.279742 0.230856 0.675 255 255 255
-0.0115863 -0.028718 0.937 255 255 255
0.0217857 0.114087 0.769 255 255 255
-0.0625715 0.243574 0.656 255 255 255
0.488607 -0.478611 2.356 255 255 255
-0.311853 0.247152 0.657 0 0 0
0.542829 -0.749527 2.004 255 255 255
0.0944961 -0.0262405 0.813 255 255 255
-0.298505 -0.177536 1.286 255 255 255
-0.871285 -0.581891 1.696 255 255 255
-0.659871 -0.941732 2.54 255 255 255
-0.810232 -0.823266 2.519 255 255 255
-0.209613 0.234675 0.655 255 255 255
-0.246615 0.232184 0.657 255 255 255
-0.12296 0.221366 0.683 255 255 255
0.052459 0.0793588 0.76 255 255 255
0.378971 -0.823608 2.128 255 255 255
-0.463888 -0.884785 2.805 255 255 255
-0.0136437 0.10834 0.791 0 0 0
0.264893 0.0996821 0.873 255 255 255
-0.260964 0.0335487 0.974 255 255 255
-0.218073 0.148984 0.809 255 255 255
0.622333 -0.426665 2.051 255 255 255
0.393048 0.3028 0.849 255 255 255
0.0272806 0.0065827 0.783 255 255 255
-0.0043437 0.178907 0.742 0 0 0
0.855993 -0.00924165 2.004 255 255 255
-0.547037 -0.804561 2.719 255 255 255
-0.141236 0.0417674 0.88 255 255 255
0.71756 -0.344196 2.037 255 255 255
0.405162 -0.273652 2.479 0 0 0
-0.663723 -0.501603 1.753 255 255 255
0.134446 0.1704 0.769 255 255 255
-0.401443 0.131521 0.815 0 0 0
0.199419 -0.522013 2.294 255 255 255
0.850899 0.1657 2.071 255 255 255
0.0340295 0.182252 0.736 255 255 255
0.0302701 0.0882478 0.762 0 0 0
-0.362895 0.11098 0.83 255 255 255
-0.328556 0.128849 0.832 255 255 255
-0.230381 -0.454562 2.743 0 0 0
-0.0853206 0.192884 0.722 255 255 255
-0.892395 -0.472602 1.71 0 0 0
0.677054 -0.156645 2.196 255 255 255
0.395279 0.332821 0.866 255 255 255
-0.0162394 0.126521 0.792 255 255 255
-0.525671 -0.691696 2.818 255 255 255
-0.638052 -0.149229 1.242 255 255 255
0.421303 -0.422915 2.479 255 255 255
-0.445233 0.0750489 0.938 255 255 255
-0.311308 -0.106215 1.169 255 255 255
-0.104914 0.10006 0.864 0 0 0
0.0408898 0.120131 0.752 255 255 255
-0.819776 -0.483447 1.739 255 255 255
-0.310394 0.0941785 0.849 255 255 255
-0.0582291 0.199231 0.707 255 255 255
0.87255 0.14115 2.107 255 255 255
-0.217649 0.0404945 0.951 255 255 255
-0.777189 -0.919115 2.479 255 255 255
-0.170449 0.168628 0.761 255 255 255
0.143249 0.185974 0.756 255 255 255
-0.173491 -0.191389 1.339 255 255 255
0.0400518 -0.453499 2.365 255 255 255
-0.159679 0.096348 0.856 255 255 255
-0.684405 -0.460122 1.705 255 255 255
-0.127904 0.234323 0.657 0 0 0
-0.21756 0.145573 0.812 255 255 255
0.878716 -0.110708 1.953 255 255 255
-0.0806283 0.235739 0.664 255 255 255
0.171267 0.0384561 0.839 255 255 255
0.555513 -0.744664 1.991 255 255 255
0.788272 -0.388211 1.911 255 255 255
-0.194486 -0.104938 1.176 255 255 255
0.226091 0.0887565 0.85 0 0 0
-0.404113 -0.188438 1.289 255 255 255
0.0988838 -0.048925 0.839 255 255 255
-0.0611149 0.165278 0.757 255 255 255
-0.492092 0.0002666 0.986 255 255 255
0.240492 0.0238006 0.852 255 255 255
-0.312964 0.0292076 0.988 255 255 255
-0.170399 0.159759 0.772 0 0 0
-0.255545 0.150123 0.749 0 0 0
-0.351789 -0.320429 1.505 255 255 255
-0.164702 0.127202 0.839 255 255 255
-0.145082 0.184755 0.727 0 0 0
-0.335382 0.0322591 0.983 255 255 255
-0.129006 0.246613 0.631 255 255 255
-0.0877706 0.252085 0.645 255 255 255
-0.477855 -0.804516 2.78 255 255 255
0.772571 -0.236419 2.051 255 255 255
0.104642 0.109167 0.744 0 0 0
0.732795 -0.633975 1.805 255 255 255
-0.185339 -0.212408 1.362 255 255 255
-0.0757541 0.247692 0.65 255 255 255
0.710928 -0.344196 2.037 255 255 255
0.229397 0.0848059 0.852 255 255 255
0.132827 0.273971 0.701 255 255 255
-0.522167 -0.344974 1.516 255 255 255
-0.0720035 0.1234 0.841 255 255 255
0.122277 -0.256263 2.392 0 0 0
-0.201665 0.23923 0.65 255 255 255
-0.226401 0.114361 0.845 0 0 0
0.607839 -0.328049 2.244 255 255 255
-0.871371 -0.853655 2.253 255 255 255
0.816136 -0.379258 1.882 255 255 255
-0.0217205 0.0643276 0.804 0 0 0
0.712066 0.137198 2.099 0 0 0
-0.378715 -0.896697 2.626 255 255 255
0.821492 -0.250548 1.953 255 255 255
0.146281 0.169809 0.772 255 255 255
0.014073 0.20889 0.697 255 255 255
-0.303995 -0.119239 1.185 255 255 255
0.0274099 0.215775 0.69 255 255 255
0.031221 0.0812939 0.755 255 255 255
-0.623261 -0.18683 1.278 0 0 0
-0.233708 0.0749592 0.883 255 255 255
0.141697 0.0642476 0.803 255 255 255
-0.4037 -0.765007 2.768 0 0 0
-0.0392114 0.190381 0.717 255 255 255
-0.280045 -0.558296 2.793 255 255 255
0.668855 -0.393753 2.071 255 255 255
0.401187 0.28182 0.84 255 255 255
0.0474902 -0.0287502 0.848 255 255 255
0.159885 -0.643739 2.212 255 255 255
-0.0762436 0.230172 0.673 255 255 255
-0.14885 0.0194759 0.909 255 255 255
0.399441 0.186152 0.788 255 255 255
-0.331006 0.213427 0.672 0 0 0
0.364014 0.313173 0.938 0 0 0
0.385059 -0.524619 2.356 255 255 255
0.592815 -0.122983 2.374 0 0 0
-0.393328 -0.883623 2.638 255 255 255
0.138018 0.161641 0.775 255 255 255
0.797705 -0.200963 2.03 255 255 255
-0.228657 0.187297 0.737 255 255 255
0.154639 0.133745 0.789 255 255 255
0.411934 -0.679736 2.212 255 255 255
0.115216 0.255761 0.698 255 255 255
-0.756096 -0.602095 1.899 255 255 255
0.165925 0.0539903 0.826 255 255 255
0.13784 0.14002 0.774 255 255 255
0.182611 0.0548259 0.799 255 255 255
-0.339004 -0.181956 1.273 255 255 255
0.707037 -0.58751 1.853 255 255 255
0.583192 -0.675413 1.997 255 255 255
-0.0268327 0.24855 0.644 255 255 255
-0.672832 -0.227086 1.357 255 255 255
-0.308375 0.24042 0.668 255 255 255
0.390124 -0.493708 2.411 255 255 255
0.804967 -0.116603 2.057 255 255 255
0.758315 -0.424676 1.853 255 255 255
-0.802931 -0.83633 2.509 255 255 255
-0.545178 -0.423706 1.629 255 255 255
-0.0500038 -0.36139 2.649 0 0 0
0.609184 -0.723719 1.935 255 255 255
0.0872897 0.0808632 0.751 255 255 255
0.249948 0.0307246 0.815 255 255 255
-0.576076 -0.874072 2.572 255 255 255
-0.849887 -0.86919 2.294 255 255 255
0.691186 -0.165613 2.173 255 255 255
-0.375158 0.0302539 0.97 255 255 255
0.854641 -0.567485 1.686 255 255 255
-0.0682364 0.142883 0.797 0 0 0
0.401665 0.272575 0.841 255 255 255
0.0628759 -0.0166661 0.798 255 255 255
-0.0388286 0.196611 0.71 0 0 0
0.389285 0.137467 0.835 0 0 0
-0.0509906 0.00739819 0.88 255 255 255
0.461396 -0.723098 2.078 255 255 255
0.475416 -0.692505 2.173 255 255 255
0.864137 -0.361396 1.779 255 255 255
0.338323 0.225822 0.906 255 255 255
0.59283 -0.627112 2.03 255 255 255
0.358623 0.234326 0.928 255 255 255
0.81995 0.162878 2.078 255 255 255
0.226096 0.0432318 0.801 0 0 0
-0.153864 -0.668873 2.449 255 255 255
0.238422 -0.787982 2.173 255 255 255
0.0672789 -0.0291353 0.82 0 0 0
0.49059 -0.230563 2.329 255 255 255
0.529047 0.281541 1.319 0 0 0
0.00872583 -0.0610756 0.992 0 0 0
0.187794 0.166917 0.788 255 255 255
0.0355132 -0.637416 2.32 255 255 255
0.0100264 0.244268 0.655 255 255 255
0.594874 -0.642534 2.037 255 255 255
0.670908 -0.532038 1.87 255 255 255
-0.276435 -0.891493 2.55 255 255 255
-0.0601858 0.0214225 0.868 255 255 255
-0.218899 0.14248 0.817 255 255 255
-0.244329 -0.181303 1.345 255 255 255
-0.248687 0.243979 0.643 255 255 255
-0.147197 0.232874 0.662 255 255 255
0.734224 -0.385426 2.01 255 255 255
-0.436098 -0.0401818 1.036 255 255 255
-0.00849333 0.0208093 0.791 0 0 0
0.557639 -0.125885 2.356 0 0 0
-0.0518971 0.0568083 0.848 255 255 255
0.0355207 -0.0710625 0.974 255 255 255
0.0375726 0.17722 0.735 255 255 255
0.0777163 0.066374 0.753 0 0 0
-0.25609 0.196681 0.723 255 255 255
0.103854 0.235315 0.698 255 255 255
0.150543 -0.691505 2.181 255 255 255
-0.0188654 0.119088 0.794 0 0 0
-0.417827 0.0787793 0.928 255 255 255
0.810403 -0.204971 2.037 255 255 255
0.171133 -0.809756 2.128 255 255 255
0.311443 -0.74035 2.189 255 255 255
0.515518 -0.736625 2.078 255 255 255
-0.159536 -0.00127146 0.937 255 255 255
-0.251095 0.188822 0.729 255 255 255
0.600284 -0.718702 1.947 255 255 255
0.104073 -0.0748869 0.871 255 255 255
-0.252709 0.130243 0.841 255 255 255
0.517304 -0.20179 2.347 255 255 255
-0.0585472 0.111654 0.825 0 0 0
0.236025 0.0857017 0.861 255 255 255
-0.054737 0.220849 0.678 255 255 255
-0.481407 -0.0628036 1.077 0 0 0
-0.180241 -0.207212 1.357 255 255 255
-0.402764 0.155863 0.784 255 255 255
-0.114115 0.165969 0.749 255 255 255
0.716582 -0.47302 1.953 255 255 255
0.851428 -0.485293 1.696 255 255 255
-0.351256 -0.00798425 1.015 255 255 255
-0.122778 0.0781927 0.871 0 0 0
-0.468282 0.105849 0.889 255 255 255
-0.142891 -0.00128638 0.948 255 255 255
0.38268 -0.518926 2.365 255 255 255
0.916332 0.0138577 2.044 255 255 255
0.275417 -0.831707 2.158 255 255 255
0.289706 -0.52485 2.392 255 255 255
-0.855119 -0.514253 1.719 255 255 255
-0.328589 0.105357 0.839 255 255 255
0.246137 0.010169 0.872 255 255 255
-0.662616 -0.728984 2.519 255 255 255
-0.431942 0.0935408 0.91 255 255 255
-0.206001 0.188822 0.729 0 0 0
0.0177959 0.0928409 0.759 0 0 0
-0.373263 -0.655431 2.743 255 255 255
-0.0833657 0.238615 0.66 255 255 255
-0.24898 0.220849 0.678 0 0 0
0.799879 -0.0925826 2.044 255 255 255
-0.326286 -0.126185 1.196 255 255 255
0.0617351 -0.428287 2.312 255 255 255
0.333922 -0.595183 2.347 255 255 255
-0.741772 -0.403907 1.624 255 255 255
0.0624819 0.0273143 0.793 0 0 0
-0.711161 -0.446653 1.696 255 255 255
0.0204271 0.0163906 0.765 255 255 255
0.840786 0.0140408 2.071 255 255 255
-0.677694 -0.78013 2.499 255 255 255
0.020815 -0.055631 0.954 255 255 255
0.0813664 -0.00890785 0.801 255 255 255
-0.620222 -0.664556 2.672 0 0 0
-0.071661 0.0805887 0.837 255 255 255
0.0604856 0.236927 0.683 255 255 255
-0.0282642 0.108812 0.804 255 255 255
-0.44979 -0.0775402 1.139 255 255 255
-0.651817 -0.803666 2.509 255 255 255
-0.316276 0.0636091 0.927 255 255 255
-0.0550547 0.148806 0.794 0 0 0
0.753778 -0.671823 1.758 255 255 255
-0.230196 0.0241373 0.978 255 255 255
-0.424262 0.014976 1.004 255 255 255
-0.372527 0.0828091 0.906 0 0 0
-0.586429 -0.149469 1.244 255 255 255
-0.245158 0.197584 0.722 255 255 255
-0.550642 -0.725022 2.805 255 255 255
-0.24933 0.175994 0.745 255 255 255
0.395824 0.313576 0.852 255 255 255
-0.438089 -0.90455 2.649 255 255 255
-0.472611 0.0822607 0.9 255 255 255
-0.659871 -0.718527 2.54 255 255 255
-0.508889 -0.352678 1.528 0 0 0
0.0952371 -0.077454 0.868 255 255 255
-0.0314523 -0.0430561 0.986 0 0 0
-0.0413719 0.193071 0.714 255 255 255
-0.615301 -0.970356 2.561 255 255 255
-0.419359 -0.246376 1.366 255 255 255
-0.295458 -0.0490543 1.083 255 255 255
-0.70724 -0.567326 1.876 0 0 0
0.810403 -0.228175 2.037 255 255 255
0.640477 -0.258502 2.181 255 255 255
-0.334497 0.160045 0.717 255 255 255
-0.193494 -0.198379 1.357 255 255 255
0.740946 0.112175 2.143 0 0 0
0.608891 -0.477846 2.085 255 255 255
0.450883 -0.741587 2.092 255 255 255
0.397154 -0.477826 2.43 255 255 255
-0.353372 -0.104938 1.176 255 255 255
0.0257153 0.227561 0.675 255 255 255
0.41053 0.327283 0.848 255 255 255
-0.334615 0.152153 0.798 255 255 255
0.159798 0.259755 0.725 255 255 255
-0.1136 -0.106397 1.171 255 255 255
-0.591513 -0.0700029 1.137 255 255 255
-0.0666855 0.133297 0.826 255 255 255
-0.664022 -0.506181 1.769 255 255 255
-0.362349 0.16343 0.743 0 0 0
0.197203 0.262401 0.76 255 255 255
0.205409 0.201255 0.777 255 255 255
-0.293217 0.213816 0.702 255 255 255
-0.311408 -0.690645 2.672 255 255 255
0.196157 0.144251 0.812 255 255 255
-0.211782 -0.914546 2.383 255 255 255
-0.38733 -0.0649612 1.114 0 0 0
0.170213 0.171129 0.778 255 255 255
-0.455847 0.0722263 0.941 0 0 0
0.707612 -0.417123 2.037 255 255 255
-0.165882 0.17839 0.73 255 255 255
0.1504 0.269757 0.714 255 255 255
-0.307425 0.141496 0.819 255 255 255
-0.08681 0.232417 0.67 255 255 255
0.000495508 0.0860943 0.754 255 255 255
-0.0778479 0.121237 0.845 255 255 255
-0.102039 -0.772491 2.449 255 255 255
-0.337351 0.130766 0.827 255 255 255
0.188372 0.0212498 0.861 255 255 255
-0.742145 -0.343629 1.532 255 255 255
0.391141 0.235349 0.86 255 255 255
-0.0261994 -0.654503 2.44 255 255 255
-0.0349379 0.117098 0.807 255 255 255
-0.443578 -0.212142 1.319 255 255 255
-0.381584 -0.78339 2.707 255 255 255
0.33921 -0.448027 2.44 255 255 255
-0.345488 0.168615 0.69 255 255 255
0.0291947 0.204694 0.706 255 255 255
0.210915 0.25212 0.774 255 255 255
0.675048 -0.655092 1.848 255 255 255
0.0456465 -0.323465 2.459 255 255 255
0.739338 -0.302474 2.024 255 255 255
-0.117552 -0.789506 2.44 255 255 255
0.534224 -0.60678 2.085 255 255 255
-0.579548 -0.0595227 1.114 255 255 255
-0.272666 0.213582 0.705 255 255 255
-0.514271 -0.869951 2.831 255 255 255
0.143607 0.0277303 0.845 255 255 255
0.400867 0.209544 0.809 255 255 255
-0.178282 0.246733 0.642 255 255 255
0.385209 0.290708 0.85 255 255 255
-0.325663 0.118443 0.835 255 255 255
0.00679946 0.126002 0.773 0 0 0
0.778124 -0.371722 1.972 255 255 255
0.721141 -0.207981 2.136 255 255 255
-0.285565 0.127506 0.841 255 255 255
-0.519764 -0.105295 1.18 255 255 255
-0.376393 0.141522 0.804 255 255 255
0.478471 -0.548526 2.22 255 255 255
0.113112 0.143382 0.752 255 255 255
-0.00251685 -0.345311 2.593 255 255 255
-0.252706 -0.592939 2.743 255 255 255
-0.205995 0.00972329 0.969 0 0 0
0.0836223 0.0710862 0.751 0 0 0
0.792103 -0.359103 1.991 255 255 255
0.74387 -0.278223 2.064 255 255 255
-0.311605 -0.0182825 1.037 255 255 255
0.910126 -0.284027 1.784 255 255 255
-0.448479 0.00354972 1.007 255 255 255
0.800991 -0.165199 1.997 255 255 255
-0.190033 -0.0491449 1.085 255 255 255
0.893441 -0.312591 1.815 255 255 255
-0.11707 -0.699273 2.43 255 255 255
-0.432725 -0.03681 1.036 255 255 255
-0.318037 -0.0397592 1.07 255 255 255
-0.710238 -0.808596 2.499 255 255 255
0.295272 0.160051 0.854 255 255 255
0.4049 -0.611675 2.253 255 255 255
-0.323385 0.184383 0.686 0 0 0
-0.120333 0.0337406 0.895 0 0 0
0.427054 -0.367915 2.489 255 255 255
0.661384 -0.471285 1.959 255 255 255
0.766342 -0.159317 2.136 255 255 255
-0.464659 0.0845457 0.925 0 0 0
0.165312 -0.0298351 0.88 255 255 255
-0.761074 -0.33599 1.52 255 255 255
-0.260755 0.139248 0.743 255 255 255
-0.304799 0.158513 0.705 255 255 255
-0.507086 -0.245649 1.387 255 255 255
0.837358 0.188847 2.03 255 255 255
-0.273811 -0.719682 2.604 255 255 255
-0.735428 -0.323814 1.498 255 255 255
-0.220474 0.231797 0.662 255 255 255
-0.330726 0.0398888 0.974 255 255 255
0.82128 -0.542254 1.774 255 255 255
-0.0658156 0.0936466 0.832 255 255 255
-0.809294 -0.726954 2.43 0 0 0
-0.0671699 0.105832 0.832 255 255 255
0.65451 -0.736512 1.911 255 255 255
-0.740764 -0.384678 1.599 255 255 255
0.0434004 -0.459736 2.338 255 255 255
0.0711126 0.0106711 0.803 0 0 0
0.620332 -0.585904 1.991 255 255 255
-0.261819 0.244443 0.647 255 255 255
0.522273 -0.44986 2.269 255 255 255
0.729298 0.242069 1.953 255 255 255
-0.0837957 0.196763 0.719 255 255 255
-0.110012 -0.617064 2.449 255 255 255
-0.750662 -0.285516 1.452 255 255 255
0.108658 0.0375852 0.82 255 255 255
-0.0699626 0.0991815 0.833 255 255 255
-0.25134 0.130243 0.841 255 255 255
-0.775611 -0.633166 1.997 255 255 255
0.880316 0.0666184 2.03 255 255 255
0.391649 0.185846 0.809 255 255 255
0.229 -0.620938 2.329 255 255 255
0.620802 -0.384728 2.114 255 255 255
-0.727247 -0.624885 2.261 0 0 0
0.749243 0.250831 1.947 0 0 0
-0.641083 -0.906197 2.499 255 255 255
0.224027 -0.396408 2.44 255 255 255
0.911216 -0.254357 1.821 255 255 255
-0.232956 0.199716 0.717 255 255 255
0.177069 -0.0260033 0.896 255 255 255
0.278025 -0.571561 2.392 0 0 0
-0.453539 -0.0562633 1.053 255 255 255
-0.366536 -0.297812 1.466 255 255 255
0.582251 -0.241639 2.189 255 255 255
-0.439326 0.0679198 0.945 255 255 255
-0.260608 0.228396 0.671 0 0 0
0.147213 0.0183832 0.858 255 255 255
-0.200942 0.0716771 0.878 255 255 255
0.592815 -0.11912 2.374 0 0 0
-0.249604 -0.245482 1.412 255 255 255
-0.0896757 0.240398 0.659 255 255 255
0.927823 -0.171594 1.923 255 255 255
0.00677307 0.155586 0.77 255 255 255
0.431106 -0.351714 2.489 255 255 255
-0.33436 0.234675 0.655 0 0 0
-0.267724 0.247219 0.646 255 255 255
0.665705 -0.456303 1.991 255 255 255
-0.805769 -0.435789 1.686 255 255 255
-0.103238 0.126882 0.828 255 255 255
0.238722 0.273667 0.804 255 255 255
-0.724732 -0.67156 2.55 0 0 0
-0.376531 0.0179166 0.986 255 255 255
-0.0345826 0.0691092 0.83 0 0 0
0.0820775 -0.0326536 0.808 255 255 255
0.0272016 -0.0485158 0.908 255 255 255
-0.213099 -0.825613 2.489 255 255 255
0.0102407 0.23207 0.669 255 255 255
-0.329645 0.252699 0.652 0 0 0
-0.919048 -0.820658 2.253 255 255 255
0.0368701 0.210627 0.699 255 255 255
0.349454 -0.702384 2.204 255 255 255
0.662888 -0.282307 2.173 255 255 255
-0.139044 -0.762729 2.469 255 255 255
-0.553354 -0.10932 1.182 255 255 255
-0.212387 0.00346864 0.984 0 0 0
-0.341335 0.19315 0.648 255 255 255
0.411905 -0.520785 2.356 255 255 255
-0.417579 -0.128667 1.201 255 255 255
-0.233349 -0.142259 1.308 255 255 255
0.206222 0.146532 0.81 255 255 255
0.646313 -0.0630888 2.303 0 0 0
0.828218 -0.364002 1.821 255 255 255
-0.0418858 0.034442 0.841 255 255 255
-0.823038 -0.374044 1.587 255 255 255
-0.344279 -0.966844 2.53 255 255 255
0.414973 0.298091 0.832 255 255 255
-0.0294829 0.218502 0.681 255 255 255
-0.0798379 0.201486 0.715 255 255 255
0.76096 -0.20652 2.121 255 255 255
0.811429 -0.420712 1.81 255 255 255
0.172863 0.22263 0.751 255 255 255
0.148473 -0.773003 2.151 255 255 255
-0.809157 -0.90679 2.383 255 255 255
0.132792 -0.734096 2.181 255 255 255
-0.555702 -0.210694 1.31 255 255 255
-0.16921 0.169866 0.761 255 255 255
0.233212 0.135456 0.831 255 255 255
0.752509 -0.689492 1.789 255 255 255
0.0924502 -0.629488 2.151 255 255 255
0.0714633 -0.0635476 0.871 0 0 0
-0.448078 0.0290006 0.981 255 255 255
-0.11707 -0.809997 2.43 255 255 255
0.835652 -0.228422 2.01 255 255 255
-0.0579742 -0.670385 2.44 255 255 255
-0.0400051 -0.511921 2.561 255 255 255
0.461267 -0.692505 2.173 255 255 255
0.0939204 -0.0680252 0.856 255 255 255
-0.569807 -0.990552 2.66 255 255 255
-0.241079 0.181322 0.742 255 255 255
-0.136994 0.101985 0.845 255 255 255
-0.556305 -0.294821 1.463 255 255 255
0.763002 -0.0346623 2.166 255 255 255
0.590496 -0.277575 2.22 255 255 255
-0.305374 0.187103 0.709 255 255 255
0.146534 -0.535999 2.228 255 255 255
-0.154655 -0.185355 1.327 255 255 255
0.151096 -0.729664 2.189 255 255 255
-0.757647 -0.595144 1.821 255 255 255
0.716275 -0.332118 2.024 255 255 255
-0.120029 0.2267 0.679 255 255 255
-0.043476 0.167296 0.772 255 255 255
-0.0235211 -0.310232 2.582 0 0 0
-0.569167 -0.662971 2.719 0 0 0
-0.405444 -0.0710317 1.124 0 0 0
-0.100537 0.137162 0.817 255 255 255
0.640053 -0.0479099 2.294 0 0 0
0.0189206 -0.804507 2.151 255 255 255
0.290086 0.192738 0.839 255 255 255
-0.118421 0.163674 0.761 255 255 255
0.762808 -0.45213 1.842 255 255 255
-0.135548 0.231068 0.663 0 0 0
0.668879 -0.141378 2.181 255 255 255
-0.104143 0.139308 0.814 255 255 255
0.750589 -0.254711 2.064 255 255 255
0.731302 -0.294016 2.057 255 255 255
0.0722279 -0.262222 2.411 0 0 0
-0.328818 0.192649 0.672 255 255 255
-0.263879 0.188966 0.725 0 0 0
-0.268433 -0.822133 2.593 255 255 255
-0.275398 0.039684 0.969 255 255 255
-0.590857 -0.192633 1.289 0 0 0
0.385966 0.228456 0.825 255 255 255
0.189032 0.196169 0.767 255 255 255
0.393362 0.254325 0.835 0 0 0
-0.0222276 -0.515529 2.44 255 255 255
-0.875652 -0.713568 1.959 0 0 0
0.117013 0.113091 0.738 0 0 0
-0.819776 -0.571175 1.739 255 255 255
0.124129 0.127473 0.752 255 255 255
-0.0393973 -0.0445701 0.984 0 0 0
-0.272954 -0.0256845 1.064 255 255 255
-0.398398 -0.860226 2.672 255 255 255
-0.374295 -0.554121 2.818 0 0 0
-0.533632 -0.0789058 1.132 255 255 255
-0.306659 0.166308 0.704 255 255 255
-0.251039 0.0693864 0.904 255 255 255
-0.279616 0.206144 0.711 255 255 255
-0.25503 -0.163794 1.31 255 255 255
0.717561 -0.433623 1.991 255 255 255
0.71048 -0.723753 1.87 255 255 255
-0.563678 -0.594984 2.672 0 0 0
-0.853621 -0.876656 2.294 255 255 255
0.347261 -0.409156 2.469 255 255 255
-0.0925381 0.166633 0.752 255 255 255
0.0138574 -0.0739079 1.013 255 255 255
0.103226 -0.047673 0.841 255 255 255
0.410048 0.271338 0.833 255 255 255
0.259851 0.113724 0.861 0 0 0
0.814227 -0.0622172 2.03 255 255 255
0.0403514 0.106024 0.765 255 255 255
-0.510943 0.0411758 0.967 255 255 255
-0.0955681 0.20912 0.694 255 255 255
-0.529272 -0.00306485 1.027 0 0 0
-0.327245 -0.254787 1.4 255 255 255
-0.246499 -0.873664 2.499 255 255 255
-0.610144 -0.32857 1.52 0 0 0
0.50959 -0.488485 2.312 255 255 255
0.0391886 0.232566 0.68 0 0 0
-0.557305 -0.0692025 1.124 255 255 255
0.136453 0.245357 0.714 255 255 255
-0.197102 0.0704084 0.88 255 255 255
-0.225547 0.0612296 0.914 255 255 255
0.648395 -0.37732 2.092 255 255 255
-0.281592 0.149412 0.722 255 255 255
-0.345172 -0.510483 2.805 0 0 0
-0.0309586 0.0802272 0.806 255 255 255
-0.154285 0.0811197 0.857 255 255 255
0.718867 -0.503216 1.876 255 255 255
0.391158 0.218798 0.819 255 255 255
0.0219817 -0.283993 2.499 0 0 0
-0.114224 -0.0995626 1.158 255 255 255
-0.261776 0.0274601 0.983 255 255 255
-0.0483065 0.182203 0.731 255 255 255
0.122907 0.257593 0.703 255 255 255
0.0966207 -0.623303 2.166 255 255 255
-0.109414 -0.512094 2.626 255 255 255
-0.610753 -0.125485 1.208 255 255 255
-0.392034 0.13368 0.812 0 0 0
0.0633907 -0.36637 2.374 255 255 255
-0.58502 -0.158833 1.254 255 255 255
0.187052 -0.300694 2.374 0 0 0
-0.390471 0.14566 0.798 0 0 0
0.826497 -0.0959089 2.044 255 255 255
0.48868 -0.246673 2.338 255 255 255
-0.167126 0.142754 0.811 255 255 255
-0.207079 -0.00784266 0.997 255 255 255
-0.56098 -0.142589 1.237 255 255 255
-0.764788 -0.607351 1.831 255 255 255
0.0914432 0.183268 0.745 255 255 255
-0.651813 -0.1582 1.249 255 255 255
-0.0377979 0.127073 0.812 0 0 0
0.0866391 -0.585029 2.181 255 255 255
0.121416 0.259141 0.701 255 255 255
0.847137 -0.648254 1.682 255 255 255
-0.143862 -0.0415005 1.07 0 0 0
-0.0844811 0.00323246 0.917 255 255 255
0.620802 -0.377847 2.114 255 255 255
0.0304484 -0.0640579 0.964 255 255 255
-0.362291 0.0424841 0.961 255 255 255
-0.24528 0.0835735 0.868 255 255 255
0.103848 0.18376 0.747 255 255 255
0.386017 0.181027 0.811 255 255 255
0.15434 -0.563395 2.236 255 255 255
0.158132 -0.0153736 0.872 0 0 0
0.853157 -0.292723 1.917 255 255 255
0.0195459 0.187217 0.732 0 0 0
-0.454227 0.0693842 0.944 0 0 0
0.181937 0.181585 0.774 255 255 255
-0.604438 -0.706969 2.604 255 255 255
