ply
format ascii 1.0
comment Created by Open3D
element vertex 1321
property double x
property double y
property double z
property uchar red
property uchar green
property uchar blue
end_header
0.429436 0.770673 2.286 255 255 255
0.75321 0.661819 2.638 255 255 255
-0.0302582 -0.246872 2.818 255 255 255
-0.191929 -0.301049 2.768 255 255 255
0.520532 0.533742 1.425 255 255 255
-0.468606 0.651563 2.469 0 0 0
0.0635141 0.351337 2.911 255 255 255
0.945599 -0.404481 2.057 255 255 255
-0.192123 0.49359 2.244 255 255 255
0.64665 0.154226 2.695 255 255 255
-0.722974 0.717878 2.099 255 255 255
0.914696 -0.439476 2.818 255 255 255
-0.797445 -0.708997 2.743 255 255 255
0.353532 0.75499 2.604 255 255 255
-0.938835 0.551116 2.469 255 255 255
-0.0466922 -0.430976 2.707 255 255 255
1.01952 0.582195 2.078 255 255 255
-0.0159172 -0.89748 2.719 255 255 255
1.0596 0.447631 2.719 255 255 255
0.163023 0.322914 2.911 255 255 255
0.954888 -0.549006 2.43 255 255 255
0.0968582 -0.600937 2.78 255 255 255
-0.626705 -0.791287 2.719 255 255 255
0.853885 -0.0575379 2.755 255 255 255
-0.283962 -0.686678 2.743 255 255 255
0.880354 0.165955 2.672 255 255 255
0.440621 0.189424 2.898 255 255 255
0.422917 -0.692204 2.695 255 255 255
-0.422105 -0.224976 2.831 255 255 255
0.116449 0.649351 2.278 255 255 255
-1.08352 0.434598 2.469 255 255 255
0.132446 0.558691 2.365 255 255 255
0.960114 -0.640595 1.876 255 255 255
-0.129837 -0.367666 2.695 255 255 255
0.973353 -0.728999 2.253 255 255 255
0.488899 -0.168858 2.672 255 255 255
-1.15118 0.628916 2.459 0 0 0
0.980568 -0.297769 2.236 255 255 255
0.923874 -0.666341 2.411 255 255 255
-0.489499 -0.0833343 2.719 0 0 0
0.562964 0.0188476 2.78 255 255 255
0.872211 0.144241 2.844 255 255 255
-0.141697 -0.263769 2.755 255 255 255
0.5614 -0.695286 2.707 255 255 255
0.538057 0.232056 1.104 255 255 255
0.762918 0.626867 2.672 255 255 255
-0.694338 0.379461 2.53 255 255 255
-0.45188 0.693109 2.228 255 255 255
1.02459 -0.815409 2.269 255 255 255
-1.42401 0.125728 2.844 255 255 255
0.508586 -0.999214 2.731 255 255 255
0.50571 0.751207 2.261 255 255 255
-1.2179 0.320656 2.489 255 255 255
0.934525 -0.260998 1.826 255 255 255
-0.737797 0.736137 2.064 255 255 255
-0.292317 -0.36569 2.78 255 255 255
-0.304947 -0.319247 2.731 255 255 255
-1.05117 -0.746159 2.684 255 255 255
-1.15088 0.66894 2.269 255 255 255
1.00257 0.596673 2.261 255 255 255
0.504485 0.253287 1.48 255 255 255
-0.378882 -0.196428 2.818 255 255 255
0.398164 0.0526596 2.898 255 255 255
0.0523106 -0.512849 2.818 255 255 255
1.00245 -0.820122 2.212 255 255 255
0.35161 -0.0934042 2.755 255 255 255
0.510429 0.488498 1.449 255 255 255
0.0112845 0.202588 2.884 255 255 255
0.887912 0.176246 2.509 0 0 0
0.40647 0.278008 2.793 255 255 255
0.733512 0.0526636 2.66 0 0 0
-0.591314 0.760419 2.057 255 255 255
0.779533 0.0176404 1.758 255 255 255
-0.164259 -0.97765 2.684 255 255 255
0.0105019 -0.899031 2.684 255 255 255
0.654068 -0.51154 2.459 0 0 0
-0.227357 -0.7922 2.707 255 255 255
0.0245678 -0.203776 2.793 255 255 255
-0.420166 -0.210185 2.818 255 255 255
-0.0795474 0.775705 2.071 255 255 255
-0.382262 0.478386 2.509 0 0 0
0.458084 0.148188 2.831 255 255 255
-0.438689 0.592902 2.459 0 0 0
0.911953 -0.00341814 2.519 255 255 255
-0.0121647 0.798617 2.078 255 255 255
0.347125 -0.0978875 2.755 255 255 255
0.950781 -0.473887 2.278 255 255 255
-0.124296 0.519375 2.871 0 0 0
0.514337 0.388395 1.242 255 255 255
0.698562 0.536641 1.547 255 255 255
-0.580111 0.16438 2.793 255 255 255
0.568866 -1.0036 2.743 255 255 255
0.504167 0.217293 2.831 255 255 255
-1.32206 -0.960591 2.649 255 255 255
0.786791 0.237002 2.593 255 255 255
-0.243655 0.578119 1.929 255 255 255
0.81749 -0.650228 2.469 255 255 255
-0.00266244 -0.432243 2.743 255 255 255
-0.525891 0.153497 2.844 255 255 255
-0.511184 0.343947 2.604 255 255 255
-0.269691 -0.144015 2.78 255 255 255
-0.519575 0.682711 2.303 255 255 255
0.691273 -0.525401 2.449 0 0 0
0.634892 0.0392766 1.406 255 255 255
0.959694 -0.910668 2.383 255 255 255
0.232963 -1.0081 2.731 255 255 255
-0.240577 -0.994838 2.707 255 255 255
0.895121 0.103271 2.626 255 255 255
-0.881752 0.709676 2.136 255 255 255
-0.833525 0.31896 2.54 255 255 255
-0.808595 0.686608 2.173 255 255 255
-1.2805 -0.937571 2.707 255 255 255
0.649217 -0.447477 2.55 255 255 255
-0.306867 0.629515 1.972 255 255 255
-0.0641388 0.415791 2.898 255 255 255
-0.537228 0.474572 2.489 255 255 255
0.210898 0.749472 2.181 255 255 255
-0.961424 0.675258 2.329 0 0 0
0.91104 -0.194072 2.66 255 255 255
-0.499044 0.70613 2.212 255 255 255
0.225505 -0.244868 2.695 255 255 255
0.49339 0.345681 1.369 255 255 255
0.163901 0.352506 2.844 255 255 255
0.672843 -0.369393 2.499 255 255 255
0.503035 0.414038 1.324 255 255 255
0.941375 -0.350745 2.347 255 255 255
-0.826125 0.334173 2.53 255 255 255
-0.237772 0.06987 2.831 255 255 255
0.237408 -1.01255 2.731 255 255 255
-0.567703 0.343906 2.572 255 255 255
0.353269 -0.0893405 2.768 255 255 255
0.0682526 0.218696 2.911 255 255 255
0.778062 0.361366 2.805 255 255 255
-0.725685 -1.03384 2.66 255 255 255
-0.259992 0.426887 2.593 255 255 255
-0.532378 0.187909 2.805 255 255 255
0.581963 0.745255 2.66 255 255 255
0.502211 0.373432 1.381 255 255 255
0.494769 0.227867 1.487 255 255 255
0.431949 0.550695 1.439 255 255 255
-0.659367 0.239875 2.672 255 255 255
0.738776 0.189312 2.695 0 0 0
-0.893804 0.769841 1.978 255 255 255
0.662048 -0.400319 2.489 0 0 0
-0.668418 0.769841 1.978 255 255 255
0.109376 -0.139386 2.871 255 255 255
-0.323367 0.500855 2.294 255 255 255
0.633061 0.200729 2.731 255 255 255
0.0149984 -0.109398 2.707 255 255 255
0.232963 -0.64812 2.731 255 255 255
0.137416 0.383885 2.871 255 255 255
-0.0534919 0.713756 2.107 255 255 255
0.952932 -0.338726 2.044 255 255 255
0.934248 -0.456953 2.604 255 255 255
-0.0382151 -0.492572 2.731 255 255 255
0.117894 -0.432243 2.743 255 255 255
0.94622 -0.482836 2.303 255 255 255
0.652903 -0.0605244 2.898 255 255 255
0.986204 -0.465124 2.044 255 255 255
0.651493 -0.022584 2.871 255 255 255
-1.15543 0.639821 2.338 255 255 255
-0.565803 0.74862 2.099 255 255 255
0.435535 -1.01252 2.719 255 255 255
0.531348 0.215305 1.083 255 255 255
0.755449 0.675001 1.81 255 255 255
-0.715225 -0.601025 2.719 255 255 255
-0.374959 -1.0122 2.66 255 255 255
0.118722 0.41659 2.871 255 255 255
0.0745306 0.657917 2.244 255 255 255
-0.237375 0.672293 1.929 0 0 0
0.781426 0.0223521 1.682 255 255 255
0.753277 0.578098 1.599 255 255 255
0.92836 -0.146456 2.66 255 255 255
0.345366 -0.829788 2.672 255 255 255
-1.33063 0.192203 2.615 255 255 255
0.621773 0.0986096 1.372 0 0 0
-1.38237 -0.512591 2.743 255 255 255
-0.247191 0.507953 2.121 255 255 255
0.640006 -0.637473 2.53 0 0 0
-1.03141 0.605792 2.479 255 255 255
0.186851 -0.334062 2.707 255 255 255
0.554875 -0.670329 2.499 255 255 255
-0.196297 0.32786 2.831 0 0 0
0.748916 -0.784886 2.638 255 255 255
0.148808 0.218696 2.911 255 255 255
-1.17698 -0.900938 2.743 255 255 255
-0.454091 -0.75589 2.719 255 255 255
-0.666628 -0.973523 2.649 255 255 255
0.275371 -0.626916 2.755 255 255 255
-0.18573 -0.508127 2.743 255 255 255
0.389548 -0.66445 2.707 255 255 255
-0.515834 -1.0385 2.672 0 0 0
0.637268 -0.458626 2.638 255 255 255
0.50519 0.321391 1.324 255 255 255
-0.118437 0.67911 2.044 255 255 255
-0.64283 0.552886 2.459 255 255 255
0.64464 0.0755598 1.359 255 255 255
0.659255 -0.230637 2.844 255 255 255
0.624716 0.610334 2.695 255 255 255
-0.0966911 0.474795 2.884 0 0 0
0.731739 -0.883623 2.638 255 255 255
-0.261859 0.0552967 2.793 255 255 255
-1.28603 0.478902 2.449 255 255 255
-0.211848 0.00530032 2.793 255 255 255
-1.11251 -0.79746 2.695 255 255 255
1.00631 0.552604 2.107 255 255 255
-0.372149 0.48683 2.469 0 0 0
0.714228 0.550678 1.409 255 255 255
-0.062656 0.314039 2.831 255 255 255
0.356459 -0.17196 2.793 255 255 255
0.16776 0.0836909 2.831 255 255 255
0.189679 0.484181 2.884 255 255 255
0.441055 0.748617 2.672 255 255 255
0.0532945 0.178315 2.871 255 255 255
0.966284 -0.575566 2.459 255 255 255
0.184062 -0.265916 2.731 255 255 255
-0.499044 0.70253 2.212 255 255 255
-0.427535 -0.963851 2.719 255 255 255
-0.622664 -0.424502 2.78 0 0 0
0.115993 -0.0220649 2.805 255 255 255
0.365063 -0.452067 2.755 255 255 255
0.196531 -0.645272 2.719 255 255 255
-0.24238 -0.266439 2.831 255 255 255
0.0110262 -0.485334 2.818 255 255 255
-0.932509 0.677671 2.286 255 255 255
0.949712 -0.550184 2.489 255 255 255
0.950594 -0.214695 2.004 255 255 255
-0.525355 -0.620865 2.768 0 0 0
-1.29939 -0.952309 2.638 255 255 255
0.246759 0.527628 1.466 255 255 255
0.652912 0.114378 1.322 0 0 0
0.958993 -0.206984 2.057 255 255 255
-0.241214 0.467257 2.294 255 255 255
-0.633387 0.470759 2.469 255 255 255
-0.530129 0.338274 2.593 255 255 255
0.371692 0.53349 1.406 255 255 255
-0.471286 -0.129881 2.768 255 255 255
0.162295 -0.126548 2.898 255 255 255
-1.303 -0.621927 2.793 0 0 0
-1.04243 -0.794205 2.684 255 255 255
-0.564527 0.760419 2.057 255 255 255
-0.977161 0.214378 2.626 255 255 255
0.0371949 -0.105458 2.719 255 255 255
0.507393 0.366901 1.302 255 255 255
1.0262 0.556643 2.071 255 255 255
0.0576548 0.560889 2.459 255 255 255
-0.887545 0.143581 2.831 0 0 0
-0.653483 0.583259 2.469 255 255 255
0.923176 -0.812649 2.55 255 255 255
0.0752464 -0.338588 2.818 255 255 255
0.788755 -0.683456 2.43 255 255 255
0.530813 -0.96366 2.731 255 255 255
0.41853 -0.700975 2.695 255 255 255
-0.49585 -0.638294 2.805 0 0 0
-1.14397 0.26212 2.55 255 255 255
-0.291726 0.0145194 2.818 255 255 255
-0.0308273 0.220363 2.871 255 255 255
-0.417496 0.125154 2.831 255 255 255
0.60912 0.000758431 2.805 255 255 255
0.0105919 -0.558726 2.707 255 255 255
0.960015 -0.0418467 2.173 255 255 255
-0.337598 -0.0221671 2.818 255 255 255
-1.36053 0.097064 2.818 0 0 0
0.435042 -0.952877 2.831 255 255 255
0.999437 -0.482294 1.978 255 255 255
0.302279 -0.15617 2.755 255 255 255
-0.822955 0.636919 2.459 0 0 0
0.512602 0.416291 1.278 255 255 255
-0.577803 0.765941 2.01 255 255 255
0.287576 0.17583 2.831 255 255 255
-0.729845 0.591295 2.469 255 255 255
-1.11212 0.464597 2.479 255 255 255
0.426481 -0.0585821 2.805 255 255 255
-1.10976 0.682554 2.253 255 255 255
0.538307 0.345231 1.171 255 255 255
0.480893 0.205341 2.857 255 255 255
-1.25414 0.486872 2.449 255 255 255
-0.581796 0.474572 2.489 255 255 255
0.937457 -0.52089 2.649 255 255 255
0.473326 0.537339 1.473 0 0 0
0.60616 0.809205 2.561 255 255 255
0.494211 0.427195 1.359 255 255 255
-1.11846 0.0748189 2.844 255 255 255
-1.30369 -0.969481 2.638 255 255 255
-1.1036 -0.671908 2.684 255 255 255
-0.401818 0.152094 2.818 255 255 255
0.644773 -0.396533 2.743 255 255 255
-0.40601 0.711596 2.121 255 255 255
0.624628 0.0400867 1.435 255 255 255
0.98794 -0.760792 2.228 255 255 255
0.111427 -0.309638 2.805 255 255 255
0.499879 0.466393 1.439 255 255 255
-0.00881172 0.8047 2.085 255 255 255
-0.0768787 -1.01259 2.684 255 255 255
0.393011 0.560576 1.616 255 255 255
0.0300628 0.221361 2.884 255 255 255
0.958625 -0.0658067 1.941 255 255 255
0.773872 -0.0211996 2.695 255 255 255
-0.678056 -1.02951 2.66 255 255 255
0.212344 -0.341352 2.695 255 255 255
-0.396553 -0.614299 2.719 255 255 255
-0.286462 -0.0875638 2.857 255 255 255
0.0553835 -0.807199 2.743 255 255 255
-1.35805 -0.226596 2.911 255 255 255
0.414394 -0.958679 2.755 255 255 255
0.634364 0.140251 2.857 255 255 255
-0.267354 0.474723 2.294 255 255 255
0.957445 -0.405712 2.312 255 255 255
-1.0493 0.228563 2.593 255 255 255
-0.657687 -0.552353 2.719 255 255 255
0.482666 0.208508 1.487 255 255 255
-1.24218 0.502814 2.449 255 255 255
0.575246 -0.311073 2.818 255 255 255
0.329311 -0.136431 2.719 255 255 255
-0.637999 -0.485732 2.768 255 255 255
1.00579 -0.777938 2.01 255 255 255
0.0229053 0.555825 2.604 255 255 255
-1.29081 -0.965188 2.638 255 255 255
-0.132817 0.523478 2.114 255 255 255
0.437632 0.271325 2.818 255 255 255
0.518974 0.237546 1.487 0 0 0
0.106144 -0.881967 2.672 255 255 255
-0.828944 0.515076 2.489 255 255 255
-0.631917 0.452495 2.479 255 255 255
-0.793353 0.244292 2.626 255 255 255
0.432179 0.550346 1.432 255 255 255
-1.35101 -0.871493 2.707 255 255 255
0.515005 0.183425 1.442 0 0 0
0.0810954 -0.959597 2.707 255 255 255
-1.11746 0.154913 2.707 255 255 255
0.965259 -0.0567083 2.519 255 255 255
0.0767891 0.572508 2.312 255 255 255
0.508888 0.416281 1.412 255 255 255
0.841236 -0.0662148 2.743 255 255 255
-1.1597 -0.5507 2.755 255 255 255
-0.148198 0.464358 2.793 255 255 255
0.0283429 -0.835534 2.719 255 255 255
-0.626806 0.690783 2.244 255 255 255
0.947185 -0.636468 2.593 255 255 255
-0.545006 -1.04366 2.731 0 0 0
0.968754 -0.510995 1.905 255 255 255
-0.467897 0.78017 2.03 255 255 255
-1.21978 0.242413 2.561 255 255 255
-0.0285616 -1.00354 2.66 255 255 255
-0.660149 0.662227 2.449 255 255 255
0.0468767 -0.237987 2.768 255 255 255
-0.00281289 -0.00393242 2.898 255 255 255
0.0716371 0.442454 2.857 255 255 255
-1.0152 0.438616 2.469 255 255 255
0.102295 -0.665681 2.805 255 255 255
-0.78903 -0.855353 2.684 255 255 255
0.927337 0.0194371 2.312 255 255 255
-1.09809 0.688891 2.158 255 255 255
-0.204415 -0.990428 2.695 255 255 255
-0.0655673 0.663247 2.166 255 255 255
-0.892676 0.259195 2.604 255 255 255
0.343047 -0.204794 2.871 255 255 255
-1.0996 0.571206 2.469 255 255 255
-0.5565 0.590491 2.449 255 255 255
-0.721645 0.17583 2.831 0 0 0
0.90548 -0.332581 2.695 255 255 255
0.336671 -0.29001 2.707 255 255 255
0.70869 -0.267985 2.54 0 0 0
0.94622 -0.325431 2.303 255 255 255
1.07411 0.504785 2.312 255 255 255
-0.213189 -0.986043 2.695 255 255 255
0.335161 0.128569 2.805 255 255 255
-0.308644 0.251815 2.805 255 255 255
0.0477235 -0.0175813 2.818 255 255 255
-0.384614 -0.444667 2.793 255 255 255
0.448339 0.442454 2.857 255 255 255
0.983902 -0.394306 1.941 255 255 255
-0.73266 0.763655 2.004 255 255 255
-1.27117 -0.417397 2.793 0 0 0
0.304845 -0.882334 2.66 255 255 255
0.279856 -0.308602 2.755 255 255 255
0.760711 0.206854 2.695 255 255 255
-1.25926 0.396823 2.459 255 255 255
0.553913 -0.139492 2.78 255 255 255
0.586293 0.745255 2.66 255 255 255
0.760711 0.71559 2.695 255 255 255
0.656949 0.0744478 1.339 0 0 0
-0.437832 0.684532 2.212 255 255 255
-0.689814 -0.816743 2.672 255 255 255
-0.523488 -0.23419 2.831 0 0 0
-1.25621 -0.560221 2.78 255 255 255
0.438878 -0.404652 2.768 255 255 255
0.748916 -0.0508014 2.638 255 255 255
-1.22375 -1.05329 2.768 255 255 255
-0.811386 0.698053 2.143 255 255 255
-0.0857065 0.706861 2.057 255 255 255
0.629155 -0.658473 2.44 255 255 255
0.543518 -0.350968 2.844 255 255 255
-0.495838 -0.658031 2.831 0 0 0
-0.509371 -0.0785613 2.707 255 255 255
0.965616 -0.110283 2.064 255 255 255
-0.655271 -0.917966 2.638 255 255 255
0.233322 -0.929605 2.684 255 255 255
-0.103174 0.265509 2.805 255 255 255
-0.691797 0.307427 2.582 255 255 255
-0.0754543 0.273463 2.793 255 255 255
0.236885 0.360109 2.831 255 255 255
-0.133354 -0.319067 2.768 255 255 255
-0.527224 -0.0125943 2.731 255 255 255
-0.151377 -0.278527 2.768 255 255 255
-1.35224 -1.02094 2.649 255 255 255
-1.12773 0.43058 2.469 255 255 255
0.0238113 -0.598372 2.707 255 255 255
-1.19572 0.639512 2.365 255 255 255
0.0558607 0.797189 2.092 255 255 255
-0.489737 -0.821092 2.672 0 0 0
0.628651 -0.0613807 2.939 255 255 255
-0.223417 0.465342 2.303 255 255 255
0.809628 -0.41808 2.626 255 255 255
0.520005 0.497966 1.456 255 255 255
-0.19466 0.389089 2.743 255 255 255
0.137416 0.379213 2.871 255 255 255
0.0375962 0.654494 2.22 255 255 255
-0.0342271 0.563804 2.768 255 255 255
-1.30388 -1.03465 2.719 255 255 255
-1.29503 -1.05235 2.719 255 255 255
-0.91036 -0.884709 2.707 255 255 255
0.885277 -1.07076 2.755 255 255 255
-1.08791 0.363744 2.479 255 255 255
-1.25827 0.16521 2.66 255 255 255
-1.21378 0.536702 2.44 255 255 255
-0.432602 -0.383786 2.78 255 255 255
-0.0651734 -0.74917 2.743 255 255 255
0.662879 -0.268867 2.672 255 255 255
-0.127684 -0.74917 2.743 255 255 255
0.33381 0.743243 2.684 255 255 255
0.578396 0.120461 1.419 255 255 255
-0.473557 0.0276447 2.755 255 255 255
0.127879 0.734545 2.158 255 255 255
0.424812 0.536766 1.505 255 255 255
-0.308306 0.162753 2.844 255 255 255
0.818008 -0.214453 2.755 255 255 255
-0.213126 0.53162 1.966 255 255 255
-0.0113432 -0.947076 2.684 255 255 255
-1.04927 0.667751 2.356 255 255 255
-0.587586 0.0900169 2.743 0 0 0
-0.628988 -0.445192 2.768 0 0 0
0.56687 -0.644849 2.755 255 255 255
-1.08341 0.683479 2.244 255 255 255
-0.564143 -0.854473 2.695 255 255 255
-0.00742374 0.488947 2.857 255 255 255
0.864816 0.114875 2.805 255 255 255
-0.23951 -0.521164 2.695 255 255 255
-0.589775 -0.908056 2.672 255 255 255
-0.968134 0.761088 1.972 0 0 0
0.128713 0.736769 2.114 255 255 255
-1.39855 -0.670341 2.731 255 255 255
0.754032 -0.322838 2.582 255 255 255
0.121677 -0.068339 2.831 255 255 255
0.934864 -0.010662 2.312 255 255 255
-1.08906 0.279429 2.519 255 255 255
-0.873976 -0.901441 2.731 255 255 255
0.327404 0.547839 2.898 255 255 255
1.0199 0.539017 2.121 255 255 255
-0.941439 0.330055 2.53 255 255 255
0.190676 0.575622 2.42 255 255 255
-1.23056 -0.67775 2.743 255 255 255
0.948044 -0.390323 1.985 255 255 255
-0.834693 0.738633 2.071 255 255 255
0.169205 0.575961 2.638 255 255 255
0.649749 -0.0273795 2.884 255 255 255
0.621427 -0.654121 2.719 255 255 255
-1.04125 0.677868 2.338 255 255 255
0.243711 0.27508 2.857 255 255 255
0.450928 0.333994 2.844 255 255 255
-0.599515 0.762044 2.017 255 255 255
-0.641167 0.201611 2.743 255 255 255
-0.0869348 0.599893 2.593 0 0 0
-0.534647 -0.649198 2.793 0 0 0
-0.701947 -0.53023 2.719 255 255 255
0.151436 0.500687 2.871 255 255 255
-0.376076 -0.999214 2.731 255 255 255
0.370526 0.622706 2.831 255 255 255
-0.240577 -0.937571 2.707 255 255 255
-0.168511 0.469604 2.55 255 255 255
-1.33605 -0.119562 2.844 255 255 255
0.164738 -0.78642 2.78 255 255 255
-0.487339 0.256232 2.707 255 255 255
0.776811 0.176422 2.768 255 255 255
-1.34893 -0.267341 2.996 255 255 255
-0.165738 -0.995238 2.638 255 255 255
0.53033 0.370118 1.196 255 255 255
-1.2474 -0.950328 2.731 255 255 255
0.947185 -0.632248 2.593 255 255 255
-0.676765 -0.842833 2.672 255 255 255
-0.26786 0.172796 2.857 255 255 255
0.134879 0.10165 2.818 255 255 255
-0.12545 -0.990428 2.695 255 255 255
-0.384967 -0.608122 2.731 255 255 255
0.69052 -0.841316 2.695 255 255 255
-0.660149 0.502814 2.449 255 255 255
-1.27587 -0.540721 2.844 255 255 255
-0.917288 0.355897 2.509 255 255 255
-0.197106 0.0955302 2.911 255 255 255
-0.928127 0.299467 2.55 255 255 255
-1.2268 0.652518 2.329 255 255 255
0.926954 -0.815475 2.572 255 255 255
0.947185 -0.784156 2.593 255 255 255
0.917969 -0.247048 2.719 255 255 255
-0.170196 -0.0457203 2.857 255 255 255
0.83311 -0.328135 2.731 255 255 255
0.953738 -0.369081 2.143 255 255 255
0.995844 -0.709572 2.078 255 255 255
-0.419026 -0.162111 2.78 255 255 255
0.0666817 0.533003 2.844 255 255 255
0.431842 0.654865 2.871 255 255 255
-0.00251685 0.561916 2.593 255 255 255
-0.71602 0.772566 1.985 0 0 0
-0.773328 0.361414 2.519 255 255 255
0.454372 0.55387 1.466 255 255 255
0.963874 -0.0707419 1.991 255 255 255
-0.297861 -1.01246 2.707 255 255 255
0.920054 -0.649824 2.53 255 255 255
-0.571224 0.760419 2.057 255 255 255
-0.886143 0.517041 2.479 255 255 255
0.393002 -0.719228 2.731 255 255 255
0.195317 0.283744 2.898 255 255 255
0.146763 0.178315 2.871 255 255 255
0.078417 -0.652396 2.768 255 255 255
-0.365609 0.564088 2.278 0 0 0
-0.0294834 0.724043 2.107 255 255 255
-0.525554 -0.453758 2.793 0 0 0
-0.0986085 0.260944 2.805 255 255 255
0.958926 -0.347464 2.228 255 255 255
-0.396553 -0.335543 2.719 255 255 255
0.419675 -0.870332 2.731 255 255 255
0.766641 0.374655 2.582 255 255 255
-0.0584679 0.574027 2.303 0 0 0
0.195664 -0.831847 2.707 255 255 255
0.0422392 0.783571 2.092 255 255 255
0.746282 0.585422 1.612 255 255 255
0.843387 -0.445748 2.638 255 255 255
0.421191 0.778185 2.684 255 255 255
0.336448 0.761571 2.338 255 255 255
0.0767216 0.567484 2.561 255 255 255
0.651835 0.0871296 1.333 255 255 255
-0.110276 -0.0459443 2.871 255 255 255
0.548147 0.366391 2.844 255 255 255
0.283571 0.441942 2.884 255 255 255
0.529629 -0.392621 2.844 255 255 255
0.460875 0.478205 1.587 255 255 255
-0.157973 0.738239 1.997 255 255 255
0.200957 -0.649697 2.719 255 255 255
0.663191 0.0299939 2.572 0 0 0
-0.288427 -0.490272 2.743 255 255 255
-1.17593 0.211684 2.593 255 255 255
0.55025 0.254149 2.831 255 255 255
0.508085 0.723364 2.509 255 255 255
-1.07876 0.695331 2.212 255 255 255
0.934248 -0.469665 2.604 255 255 255
-0.0205227 0.0632343 2.743 255 255 255
0.16853 0.167381 2.844 255 255 255
-0.748332 0.775796 1.985 0 0 0
-0.255029 0.326355 2.818 255 255 255
0.695706 -0.374505 2.479 0 0 0
0.700421 -0.234918 2.54 0 0 0
0.0296459 -0.0177435 2.844 255 255 255
0.648641 -0.210185 2.818 255 255 255
-0.322596 -0.692936 2.768 255 255 255
-1.46667 -1.04462 2.793 255 255 255
0.984076 -0.857549 2.244 255 255 255
-0.990922 0.338211 2.499 255 255 255
0.595657 -0.588475 2.743 255 255 255
-0.994278 -0.729779 2.672 255 255 255
0.207196 -0.414388 2.743 255 255 255
0.615072 0.170056 1.372 255 255 255
0.615608 0.218921 2.793 255 255 255
0.396241 0.00547301 2.884 255 255 255
0.71759 -0.353127 2.499 0 0 0
-1.17809 0.242413 2.561 255 255 255
-0.606121 0.360294 2.54 255 255 255
0.948882 -0.966844 2.53 255 255 255
-0.895005 0.476855 2.459 255 255 255
0.52037 -0.258406 2.844 255 255 255
0.954489 -0.473887 2.278 255 255 255
-0.893817 -0.731011 2.793 255 255 255
-1.09558 0.398437 2.469 255 255 255
-0.818919 0.0951036 2.898 0 0 0
0.784512 0.583302 1.599 255 255 255
-1.31514 0.340908 2.489 255 255 255
0.232899 0.545337 1.425 255 255 255
0.504451 0.421454 1.487 255 255 255
0.00615801 -0.929029 2.695 255 255 255
0.389315 -0.0803316 2.768 255 255 255
-0.417742 0.727796 2.128 255 255 255
0.638646 0.103696 1.351 0 0 0
0.614278 0.679129 2.707 255 255 255
0.107182 0.340368 2.939 255 255 255
0.34445 0.676475 2.844 255 255 255
0.217071 -0.514834 2.755 255 255 255
-1.25739 0.274992 2.479 255 255 255
0.522619 0.363844 1.262 255 255 255
0.748803 -0.138548 2.593 255 255 255
0.327648 -0.587365 2.78 255 255 255
0.0201073 0.0235817 2.805 255 255 255
0.752503 0.675001 1.81 255 255 255
-0.50275 0.228394 2.743 255 255 255
0.890351 -0.338504 2.743 255 255 255
-0.42467 0.727796 2.128 255 255 255
0.492164 0.852049 2.411 255 255 255
0.102295 -0.0311942 2.805 255 255 255
-0.23397 0.753755 1.953 255 255 255
-0.161084 -0.220923 2.78 255 255 255
-0.175704 0.243723 2.871 255 255 255
-0.68468 0.187105 2.793 255 255 255
0.525534 0.651591 2.898 255 255 255
1.0026 0.53297 2.181 255 255 255
0.622166 -0.654437 2.684 255 255 255
-0.955791 0.691959 2.236 255 255 255
-0.837719 0.613861 2.479 255 255 255
-0.954769 0.7062 2.136 0 0 0
-1.05517 -0.612377 2.672 255 255 255
-0.235873 -0.124787 2.755 255 255 255
-1.28001 0.522639 2.43 255 255 255
-1.30549 -0.453233 2.818 0 0 0
0.0959872 -0.389301 2.755 255 255 255
-0.39744 -0.863245 2.695 255 255 255
0.370274 -0.793074 2.695 255 255 255
-0.581076 -0.890663 2.672 255 255 255
-0.0288193 0.0968162 2.684 255 255 255
-1.27338 -0.54495 2.818 255 255 255
0.146003 -0.251501 2.768 255 255 255
-0.945807 -0.9685 2.695 255 255 255
-0.539386 0.639147 2.499 255 255 255
-1.29391 -0.403761 2.793 255 255 255
-0.519047 0.65948 2.499 0 0 0
-1.12876 0.336858 2.489 255 255 255
0.951637 -0.470354 2.392 255 255 255
-0.442165 0.233876 2.755 255 255 255
0.0491574 0.61656 2.253 255 255 255
-0.194494 -0.241168 2.805 255 255 255
0.643044 0.196034 1.351 255 255 255
0.303817 0.387495 2.898 255 255 255
-0.890607 0.63951 2.469 0 0 0
0.536425 0.304825 2.831 255 255 255
0.744621 -0.0593872 2.638 255 255 255
0.955662 -0.0624544 1.935 255 255 255
0.366786 -0.472218 2.768 255 255 255
-1.22163 -1.06163 2.743 255 255 255
-0.400938 0.338357 2.66 255 255 255
0.577797 -0.695605 2.743 255 255 255
-0.911921 0.647881 2.44 0 0 0
0.440465 0.746289 2.695 255 255 255
-0.800301 0.220567 2.649 255 255 255
0.773162 0.18456 2.755 255 255 255
-0.0115419 -0.430352 2.731 255 255 255
-0.904079 -1.03938 2.755 255 255 255
-1.28968 0.375846 2.479 255 255 255
0.693092 0.202479 2.638 0 0 0
-0.0597583 0.612539 2.212 0 0 0
-0.548895 0.399866 2.582 255 255 255
-0.625561 -0.977271 2.695 255 255 255
-0.0121647 0.764801 2.078 255 255 255
0.876004 -0.468886 2.672 255 255 255
0.278148 -0.994814 2.695 255 255 255
-0.512248 0.685477 2.338 255 255 255
0.277418 -0.852555 2.731 255 255 255
0.919223 -0.241645 1.837 255 255 255
-1.02907 -0.916752 2.672 255 255 255
0.607042 0.134039 1.369 255 255 255
-0.3425 0.617306 2.071 255 255 255
0.674643 0.533873 1.366 255 255 255
0.423363 0.695655 2.755 255 255 255
-1.17896 0.239268 2.572 255 255 255
0.54415 -1.03032 2.731 255 255 255
0.455645 -0.836252 2.707 255 255 255
0.218798 0.745096 2.189 255 255 255
-0.797366 0.609827 2.479 0 0 0
0.5226 -0.404648 2.831 255 255 255
-0.976899 -0.807308 2.684 255 255 255
0.952074 -0.0579014 2.572 255 255 255
0.208102 0.0366112 2.755 255 255 255
0.987848 -0.687111 2.236 255 255 255
0.958993 -0.113256 2.057 255 255 255
-0.334618 0.538888 2.22 255 255 255
-0.353805 0.632919 2.078 255 255 255
-0.516344 -0.305554 2.768 0 0 0
0.147192 -0.827442 2.707 255 255 255
-0.636443 -0.895929 2.649 255 255 255
1.00272 -0.659108 2.037 255 255 255
-0.15894 0.0275242 2.743 255 255 255
-1.29241 -0.496885 2.78 0 0 0
-0.643108 -0.705361 2.695 255 255 255
-1.18398 0.65528 2.312 255 255 255
0.503933 0.742391 2.374 255 255 255
0.470635 -0.46349 2.743 255 255 255
-0.152447 -0.712907 2.707 255 255 255
-0.662316 -0.95628 2.649 255 255 255
-0.555889 0.226395 2.719 255 255 255
0.812568 0.589979 1.603 255 255 255
1.02016 0.539354 2.136 255 255 255
-0.657273 0.375344 2.53 255 255 255
-1.07742 0.701561 2.071 255 255 255
-1.41289 0.0284073 2.831 255 255 255
0.641638 0.171917 2.768 255 255 255
-1.02338 0.715984 2.064 255 255 255
1.04161 0.526399 2.411 255 255 255
-0.0121335 0.421262 2.871 255 255 255
0.600942 0.530567 2.831 255 255 255
0.96271 -0.458209 2.22 255 255 255
0.360579 -0.532767 2.755 255 255 255
-0.413449 0.0855532 2.743 255 255 255
-0.871085 -0.767372 2.793 255 255 255
0.124605 -0.933415 2.695 255 255 255
0.904249 -0.815915 2.509 255 255 255
0.987729 -0.678614 2.244 255 255 255
-0.0244599 0.582624 2.278 255 255 255
-0.793331 0.557383 2.479 255 255 255
0.48809 -0.948501 2.818 255 255 255
0.953259 -0.975151 2.509 255 255 255
-0.0890549 0.740335 2.057 255 255 255
-0.439171 -0.558296 2.793 255 255 255
0.96552 -0.491489 2.071 255 255 255
-1.32321 0.0153644 2.982 255 255 255
1.00258 -0.630415 2.03 255 255 255
0.872832 -0.289474 2.831 255 255 255
0.0878076 -0.270687 2.78 255 255 255
0.933564 -0.265446 2.638 255 255 255
0.388207 0.78202 2.638 255 255 255
-0.217935 -0.133754 2.755 255 255 255
-0.70165 -0.88156 2.684 255 255 255
0.130893 -0.0637321 2.831 255 255 255
0.109441 -0.245836 2.755 255 255 255
-0.730577 0.370745 2.499 255 255 255
0.637848 0.16601 1.322 0 0 0
0.413148 0.678225 2.871 255 255 255
0.0640322 -0.581456 2.731 255 255 255
0.489146 0.142836 1.435 255 255 255
-1.02342 0.620387 2.489 0 0 0
-0.674035 0.144241 2.844 0 0 0
0.497901 0.152739 1.357 0 0 0
0.477322 0.481576 1.532 255 255 255
0.0666817 0.394159 2.844 255 255 255
0.48325 0.239051 2.871 255 255 255
-1.23524 0.456847 2.459 255 255 255
0.960758 -0.437319 2.32 255 255 255
-0.590157 0.0366112 2.755 255 255 255
0.664524 -0.0618214 2.561 255 255 255
0.707773 0.548153 2.78 0 0 0
-0.225856 -1.0167 2.638 255 255 255
0.501853 0.000768976 2.844 255 255 255
-1.05117 -0.811676 2.684 255 255 255
-0.914721 0.56317 2.469 255 255 255
-1.33311 0.0243636 2.898 255 255 255
-0.740871 0.432324 2.479 255 255 255
-0.0021946 0.596673 2.261 255 255 255
-1.0029 0.176939 2.707 255 255 255
-0.141645 0.570028 2.844 255 255 255
-1.29307 -1.02146 2.743 0 0 0
-1.02309 0.548884 2.459 255 255 255
-0.180478 0.721003 1.959 255 255 255
0.531387 0.381157 1.194 255 255 255
-1.23529 0.241371 2.55 255 255 255
-1.25503 -0.563293 2.818 255 255 255
-0.168604 -0.317569 2.755 255 255 255
-0.358451 0.584796 2.189 0 0 0
0.655832 -0.0750074 2.911 255 255 255
-1.29676 -0.946572 2.695 255 255 255
0.0700324 0.0598419 2.793 255 255 255
-0.111826 -0.144689 2.793 255 255 255
0.249154 0.750529 2.114 255 255 255
-1.04972 0.698788 2.189 255 255 255
-0.505006 -0.596413 2.78 0 0 0
0.459502 0.73804 2.604 255 255 255
-0.658841 0.536879 2.459 255 255 255
0.246299 -0.643676 2.731 255 255 255
0.0423709 -0.183934 2.768 255 255 255
0.0807359 -0.929029 2.695 255 255 255
0.445306 0.127423 2.78 255 255 255
0.946419 -0.0277305 1.929 255 255 255
-0.961127 0.70202 2.166 0 0 0
0.798461 -0.336919 2.66 255 255 255
-0.224438 0.0505154 2.78 255 255 255
0.974089 -0.682779 1.953 255 255 255
-0.459322 -0.295944 2.805 255 255 255
0.190612 0.693835 2.278 255 255 255
0.19432 0.693835 2.278 255 255 255
-0.626363 0.409766 2.489 255 255 255
-0.587052 0.729888 2.114 255 255 255
0.682306 -0.376016 2.489 0 0 0
-0.736489 0.741513 2.051 255 255 255
1.014 0.465995 2.383 255 255 255
-0.12834 0.479648 2.857 0 0 0
-0.0549495 -0.0134244 2.911 255 255 255
0.970711 -0.288015 2.43 255 255 255
-0.180923 -0.70369 2.672 255 255 255
0.807319 -0.884206 2.719 255 255 255
0.194512 -0.0634394 2.818 255 255 255
-0.209925 0.53162 1.966 255 255 255
0.264081 -0.0925905 2.731 255 255 255
0.40678 0.551831 1.629 255 255 255
-0.1349 0.104536 2.898 255 255 255
0.369145 -0.623149 2.719 255 255 255
0.397447 -0.599233 2.731 255 255 255
0.562036 0.102588 2.844 255 255 255
-0.28966 -0.816743 2.672 255 255 255
0.913543 -0.547928 2.719 255 255 255
-0.0935111 -0.583654 2.66 255 255 255
0.99586 -0.639778 2.071 255 255 255
0.268527 -0.817001 2.731 255 255 255
0.972588 -0.251408 2.582 255 255 255
1.01288 0.585815 2.128 255 255 255
0.373411 0.739078 2.818 255 255 255
0.368073 0.376237 2.884 255 255 255
-0.484803 -0.467714 2.768 0 0 0
-1.28513 -0.489812 2.844 0 0 0
-1.20642 0.0655627 2.844 0 0 0
0.170687 0.720528 2.212 255 255 255
0.513031 -0.972549 2.731 255 255 255
0.596805 0.793902 2.649 255 255 255
0.963874 -0.310503 1.991 255 255 255
-1.25074 0.175918 2.626 255 255 255
-1.26418 0.522639 2.43 255 255 255
0.983338 -0.559546 1.978 255 255 255
0.023609 -0.693747 2.684 255 255 255
0.934449 0.0445008 2.449 255 255 255
-0.491284 -0.273121 2.805 255 255 255
0.45764 0.423857 2.857 255 255 255
0.77928 0.146199 2.793 255 255 255
-0.532158 -0.284259 2.78 255 255 255
0.62812 0.271015 2.768 255 255 255
-0.801038 -0.885173 2.695 255 255 255
-0.0777579 0.698927 2.114 255 255 255
-0.488702 0.510938 2.469 255 255 255
-0.214725 0.651425 1.923 0 0 0
-1.05909 -0.63127 2.66 255 255 255
0.962018 -0.499913 2.078 255 255 255
0.633922 -0.475437 2.66 255 255 255
0.59658 0.036784 2.768 255 255 255
-0.895122 0.680932 2.212 255 255 255
0.656854 0.044828 1.366 0 0 0
0.71373 0.514255 2.768 0 0 0
0.0146161 -1.01241 2.638 255 255 255
-1.04604 0.198186 2.638 255 255 255
0.344257 -0.526272 2.768 255 255 255
-0.805574 0.0946441 2.884 0 0 0
-0.681353 -0.472417 2.743 255 255 255
-1.16867 -0.53725 2.755 255 255 255
0.00143329 0.66784 2.181 255 255 255
-0.990207 -1.0078 2.593 255 255 255
0.97303 -0.69631 2.278 255 255 255
-0.112289 -0.608877 2.695 255 255 255
0.283716 -0.72192 2.793 255 255 255
0.228713 0.408044 2.844 255 255 255
-1.25414 0.506799 2.449 255 255 255
1.01952 0.551761 2.078 255 255 255
-0.546076 -0.186393 2.805 255 255 255
-0.303142 -0.676232 2.755 255 255 255
-0.241816 -0.564546 2.672 255 255 255
0.822493 0.206976 2.755 255 255 255
0.731004 0.565728 1.579 255 255 255
-0.417663 0.310836 2.684 255 255 255
-1.01909 0.496863 2.459 255 255 255
-1.23406 -1.06143 2.731 255 255 255
-1.1444 0.371812 2.479 255 255 255
-0.514057 -0.596413 2.78 0 0 0
0.916494 -0.909517 2.626 255 255 255
0.950781 -0.184737 2.278 255 255 255
-0.0826704 -0.439241 2.731 255 255 255
0.954411 -0.0363106 2.269 255 255 255
-1.00002 0.756071 1.959 255 255 255
-0.546764 0.596903 2.459 255 255 255
1.02783 0.526327 2.228 255 255 255
0.21518 -0.297025 2.731 255 255 255
-0.953394 0.663917 2.356 0 0 0
-0.519047 0.651347 2.499 0 0 0
-1.21283 0.153597 2.684 255 255 255
0.611717 0.534256 2.755 255 255 255
-0.81417 0.723008 2.114 255 255 255
-0.201809 -0.335543 2.719 255 255 255
-1.27925 -0.178906 2.831 255 255 255
0.453239 0.690989 2.719 255 255 255
-0.231785 0.0895454 2.871 255 255 255
0.924521 -0.107054 2.649 255 255 255
-0.878594 0.745633 2.017 255 255 255
0.181635 -0.815002 2.695 255 255 255
-0.803746 -0.516955 2.719 255 255 255
0.021807 0.769954 2.092 255 255 255
0.991382 0.562972 2.244 255 255 255
-0.823637 0.0951036 2.898 0 0 0
0.77644 -0.352496 2.615 255 255 255
0.383853 0.53913 1.452 255 255 255
0.99185 -0.738475 2.173 255 255 255
0.504216 0.502954 2.884 255 255 255
0.956069 -0.412729 2.374 255 255 255
-0.216395 -0.194685 2.793 255 255 255
-0.540826 -0.492417 2.755 0 0 0
-0.56206 0.764689 2.024 255 255 255
0.997641 0.45006 2.707 255 255 255
0.489657 0.536918 1.403 255 255 255
-1.12826 0.504939 2.479 255 255 255
0.199438 0.620797 2.338 255 255 255
0.18487 -0.668823 2.743 255 255 255
0.0675751 -0.736061 2.695 255 255 255
0.949605 -0.378641 2.044 255 255 255
-0.336003 0.473171 2.44 255 255 255
0.00478017 0.800593 2.092 255 255 255
0.548147 0.380275 2.844 255 255 255
-0.938507 0.715484 2.092 255 255 255
0.848058 -0.175683 2.78 255 255 255
-0.707482 0.666199 2.42 255 255 255
-0.386266 -0.145311 2.805 255 255 255
0.309191 -0.737554 2.818 255 255 255
0.259636 -0.874776 2.731 255 255 255
0.917142 -0.159954 2.743 255 255 255
-0.5988 0.540881 2.459 255 255 255
-0.958187 -0.780417 2.743 255 255 255
0.222346 0.753725 2.057 255 255 255
-0.269116 0.38072 2.684 255 255 255
0.584421 0.29884 2.818 255 255 255
-0.27003 0.263363 2.831 255 255 255
-0.327249 -0.762375 2.695 255 255 255
0.12459 -0.353765 2.793 255 255 255
-0.841755 0.625963 2.479 255 255 255
-0.308437 -1.0388 2.684 255 255 255
-1.03141 0.613861 2.479 255 255 255
-1.28297 -0.741449 2.731 0 0 0
0.0327689 -0.658546 2.719 255 255 255
0.0840173 -0.986223 2.66 255 255 255
-0.385238 0.125154 2.831 255 255 255
0.910522 -0.208926 2.684 255 255 255
-1.15247 0.613861 2.479 255 255 255
-0.576076 0.356462 2.572 255 255 255
-0.761556 -0.516778 2.695 255 255 255
0.93348 -0.704817 2.356 255 255 255
-0.254878 0.512932 2.099 255 255 255
0.930364 -0.00695037 2.329 255 255 255
-0.952128 0.722292 2.092 255 255 255
0.148497 -0.550347 2.731 255 255 255
-0.16074 0.748981 1.991 255 255 255
-1.26948 0.250735 2.519 255 255 255
-0.540826 -0.344468 2.755 255 255 255
-0.229605 -0.0501404 2.844 255 255 255
0.556889 -0.0852943 2.939 255 255 255
0.952989 -0.421689 2.338 255 255 255
0.961798 -0.0843119 2.269 255 255 255
0.520604 0.353225 1.079 255 255 255
0.944763 -0.840657 2.707 255 255 255
-0.325253 -0.256187 2.871 255 255 255
-1.03239 0.755573 1.966 0 0 0
1.03375 0.607464 2.107 255 255 255
-1.05888 0.631998 2.44 0 0 0
-0.843763 0.765635 1.959 255 255 255
0.722741 0.80254 2.768 255 255 255
-0.937551 0.149549 2.857 0 0 0
0.00188674 0.327821 2.871 255 255 255
0.646947 -0.509693 2.509 255 255 255
-0.0115419 -0.79478 2.731 255 255 255
-0.407097 -0.912404 2.672 255 255 255
-0.578038 0.142263 2.805 255 255 255
0.408124 -0.771489 2.743 255 255 255
-0.360533 -0.407375 2.818 255 255 255
-0.0730511 0.785091 2.078 255 255 255
-1.01635 0.742501 1.991 255 255 255
0.708068 -0.823774 2.695 255 255 255
0.0690796 -0.443101 2.755 255 255 255
0.40094 -0.954196 2.755 255 255 255
-0.763755 -0.768913 2.672 255 255 255
-0.940952 -0.813411 2.719 255 255 255
0.620329 0.807688 2.695 255 255 255
0.925771 -0.0670969 2.604 255 255 255
-0.430647 0.394798 2.604 255 255 255
0.996186 -0.598174 2.044 255 255 255
0.46666 0.64375 2.884 255 255 255
-1.17183 -0.692562 2.731 255 255 255
0.634247 0.119085 1.351 0 0 0
-1.2763 -0.721065 2.755 0 0 0
0.189336 0.0185967 2.743 255 255 255
-0.0775615 0.215691 2.871 255 255 255
-0.344957 0.280725 2.731 255 255 255
-0.0626786 0.593132 2.638 0 0 0
-0.584012 0.724333 2.128 255 255 255
0.257539 -0.528742 2.805 255 255 255
0.634879 0.0695491 2.818 255 255 255
-0.451841 0.403273 2.604 255 255 255
-0.903011 0.444843 2.459 255 255 255
0.356701 0.590457 2.831 255 255 255
0.285567 0.27508 2.857 255 255 255
0.786535 -0.111364 2.649 255 255 255
0.977977 -0.623399 1.917 255 255 255
0.481125 -0.957484 2.831 255 255 255
0.72034 0.371517 2.374 255 255 255
-0.65252 0.143581 2.831 0 0 0
0.256312 -0.856301 2.743 255 255 255
0.342393 -0.982145 2.649 255 255 255
0.520816 0.651591 2.898 255 255 255
0.127445 0.163497 2.857 255 255 255
0.600086 0.57544 2.871 255 255 255
0.90534 0.038514 2.582 255 255 255
-0.584405 0.58252 2.449 255 255 255
-0.968161 -0.553979 2.684 255 255 255
-0.870511 0.583259 2.469 255 255 255
0.0974449 -0.995021 2.672 255 255 255
0.221011 0.114875 2.805 255 255 255
-0.975653 -0.753736 2.793 255 255 255
-0.138401 0.75894 2.044 255 255 255
0.0522387 0.653226 2.228 255 255 255
-0.442759 0.0762904 2.731 255 255 255
0.198266 0.00520543 2.743 255 255 255
-0.833684 0.561417 2.479 255 255 255
-0.999132 0.613861 2.479 0 0 0
0.948882 0.153018 2.53 255 255 255
-0.56922 0.738372 2.099 255 255 255
0.429736 0.354118 2.857 255 255 255
0.934248 -0.334063 2.604 255 255 255
-0.148697 -0.508106 2.719 255 255 255
0.281176 -0.643387 2.768 255 255 255
0.109441 -0.698648 2.755 255 255 255
-0.219513 -0.844384 2.719 255 255 255
-1.26848 -0.910754 2.719 0 0 0
0.389826 -1.02956 2.649 255 255 255
-0.331608 0.262006 2.768 255 255 255
0.583063 -0.661405 2.768 255 255 255
-0.732801 0.420222 2.479 255 255 255
0.292032 -0.775953 2.743 255 255 255
-0.806177 0.240018 2.626 255 255 255
-0.421242 -0.00807842 2.707 255 255 255
0.956761 -0.36051 2.017 255 255 255
0.476455 0.140893 1.439 255 255 255
0.244045 0.539214 1.409 255 255 255
-0.395818 0.310836 2.684 255 255 255
-0.0599116 0.137292 2.707 255 255 255
-0.330282 0.367617 2.684 255 255 255
0.926476 -0.00332315 2.449 255 255 255
-1.08171 0.26212 2.55 255 255 255
0.00856508 0.659603 2.189 255 255 255
0.948289 -0.359092 2.085 255 255 255
0.934608 -0.87798 2.755 255 255 255
0.127445 -0.152654 2.857 255 255 255
0.972987 -0.119651 2.55 255 255 255
0.950526 -0.0305912 2.128 255 255 255
0.436516 0.547407 2.871 255 255 255
0.255244 -0.0263922 2.78 255 255 255
-0.527183 0.468346 2.499 255 255 255
0.961663 -0.377527 2.499 255 255 255
0.504481 0.386017 1.419 255 255 255
0.968115 -0.20652 2.121 255 255 255
-0.0438166 -0.263992 2.805 255 255 255
-0.525671 -0.123055 2.818 0 0 0
0.0887459 -0.868922 2.672 255 255 255
0.460052 -1.01686 2.707 255 255 255
0.921153 -0.241514 1.859 255 255 255
0.641132 0.344232 2.672 255 255 255
-0.195512 0.0231614 2.755 255 255 255
-0.401916 0.352731 2.638 255 255 255
0.204476 -0.219527 2.707 255 255 255
0.516213 0.520226 1.452 255 255 255
-0.240577 -0.682071 2.707 255 255 255
0.58014 0.140547 1.412 255 255 255
-0.784661 -1.01696 2.684 255 255 255
-0.176573 -0.338439 2.672 255 255 255
0.965813 -0.390128 2.244 255 255 255
0.928246 -0.765484 2.402 255 255 255
0.417034 0.0432276 2.898 255 255 255
-0.39704 0.52274 2.449 0 0 0
-0.029324 -0.541458 2.731 255 255 255
-0.322095 0.432257 2.55 0 0 0
-0.296632 0.501008 2.261 255 255 255
1.05279 0.497019 2.383 255 255 255
-0.448264 -0.71283 2.793 255 255 255
0.631366 0.0998867 1.359 0 0 0
0.513451 0.404895 1.381 255 255 255
-0.00587507 0.585634 2.261 255 255 255
-1.24628 -0.611856 2.768 255 255 255
0.0707337 -1.02094 2.649 255 255 255
-0.303142 -0.685199 2.755 255 255 255
0.217696 -0.325251 2.707 255 255 255
-0.951503 0.0844595 2.857 0 0 0
0.539705 -1.00366 2.731 255 255 255
-0.557379 -0.449213 2.793 255 255 255
-0.0903545 -0.547478 2.695 255 255 255
-1.27921 -0.937801 2.695 255 255 255
-1.06712 0.544883 2.459 255 255 255
0.76303 -0.445695 2.449 255 255 255
0.615279 -0.972549 2.731 255 255 255
-0.550642 0.0235817 2.805 255 255 255
0.148641 0.119993 2.818 255 255 255
-0.899233 0.700092 2.128 255 255 255
0.641952 -0.888109 2.731 255 255 255
-0.236421 0.726092 1.947 255 255 255
0.921684 -0.652862 2.479 255 255 255
0.6332 -0.275653 2.831 255 255 255
0.154287 -0.353435 2.755 255 255 255
0.951046 0.00797012 2.261 255 255 255
0.969649 -0.865408 2.236 255 255 255
-0.861129 0.0829223 2.805 0 0 0
-0.207401 0.307625 2.857 255 255 255
0.182839 0.0459914 2.78 255 255 255
-0.130012 0.596167 2.793 255 255 255
-0.556331 -0.0349684 2.743 255 255 255
-1.20969 0.211684 2.593 255 255 255
-0.609912 -0.767025 2.743 255 255 255
0.845701 -0.0572872 2.743 255 255 255
0.513384 0.424606 2.831 255 255 255
0.842001 -0.114812 2.731 255 255 255
0.754219 0.661652 2.672 255 255 255
-0.858782 0.198944 2.768 255 255 255
0.99031 -0.484404 1.935 255 255 255
-0.366428 -0.294678 2.793 255 255 255
0.960715 -0.498114 2.143 255 255 255
-0.0475201 0.565639 2.755 255 255 255
0.902034 -0.285588 2.793 255 255 255
0.707329 -0.244142 2.55 0 0 0
-0.500416 -0.204651 2.805 0 0 0
0.421751 0.406359 2.898 255 255 255
-0.12545 -0.372052 2.695 255 255 255
0.710268 -0.875037 2.638 255 255 255
0.960693 -0.651259 2.329 255 255 255
0.48325 0.57544 2.871 255 255 255
-0.466469 0.521075 2.479 255 255 255
-0.928395 0.764237 1.997 255 255 255
-0.53515 -0.443531 2.844 0 0 0
0.954596 -0.501694 2.114 255 255 255
0.150012 -0.0501404 2.844 255 255 255
-1.28327 0.396823 2.459 255 255 255
0.0200213 -0.208321 2.793 255 255 255
-0.133676 -0.593288 2.684 255 255 255
0.00509093 0.620595 2.228 255 255 255
-0.985838 -0.680167 2.615 255 255 255
0.911585 -0.322593 2.649 255 255 255
-0.479799 -0.719211 2.818 255 255 255
0.730786 0.415985 2.604 255 255 255
-0.201751 0.42446 2.604 255 255 255
0.263925 0.674373 2.479 255 255 255
-0.00715869 -0.752448 2.755 255 255 255
0.957815 -0.910672 2.489 255 255 255
-0.0492795 0.0147203 2.857 255 255 255
-1.42587 0.0891088 2.857 0 0 0
0.540337 -0.668796 2.78 255 255 255
-1.0761 -0.960895 2.638 255 255 255
0.953725 -0.137504 2.294 255 255 255
0.412783 0.260944 2.805 255 255 255
-0.981691 -0.995123 2.604 255 255 255
0.477151 0.728168 2.54 255 255 255
0.217496 0.738527 2.212 255 255 255
0.658518 0.0903015 1.316 255 255 255
-0.440239 -0.789344 2.743 255 255 255
0.0520693 -0.00837088 2.805 255 255 255
-0.285903 -0.910754 2.719 255 255 255
-0.385677 0.00525287 2.768 255 255 255
0.311607 -0.778013 2.719 255 255 255
0.965813 -0.645749 2.244 255 255 255
0.905543 -0.858603 2.479 255 255 255
0.0466565 -0.19652 2.755 255 255 255
0.982303 -0.554893 2.107 255 255 255
0.584421 -0.324831 2.818 255 255 255
0.897836 -0.293307 2.78 255 255 255
-0.28536 0.724766 1.935 255 255 255
0.281382 -0.955812 2.684 255 255 255
-1.29528 0.408828 2.459 255 255 255
0.94737 -0.327039 2.582 255 255 255
0.151869 -0.671924 2.793 255 255 255
0.941875 -0.580785 2.32 255 255 255
0.988049 0.55093 2.196 255 255 255
0.482666 0.213348 1.487 255 255 255
-0.763755 -0.625422 2.672 255 255 255
0.469614 0.362645 1.484 255 255 255
-0.965513 0.154954 2.871 0 0 0
0.723933 -0.298088 2.55 0 0 0
-1.17316 -0.761414 2.755 255 255 255
-1.02933 -0.519037 2.684 255 255 255
-0.66554 0.446652 2.469 255 255 255
0.0858809 -0.410763 2.719 255 255 255
0.626393 0.215636 1.26 255 255 255
-1.10809 0.456529 2.479 255 255 255
0.289665 0.316756 2.898 255 255 255
-0.921591 0.210105 2.626 255 255 255
-1.02038 -0.472922 2.695 255 255 255
-0.423535 0.442457 2.561 255 255 255
-0.737658 -0.916752 2.672 255 255 255
-0.259616 0.0695491 2.818 255 255 255
0.753814 0.628446 1.7 255 255 255
-0.94142 -0.893944 2.695 255 255 255
0.651242 0.290742 2.66 255 255 255
-0.050438 -0.577591 2.672 255 255 255
-0.106517 0.785816 2.071 255 255 255
0.484108 0.200843 1.484 255 255 255
-1.04333 0.490848 2.469 255 255 255
-0.938602 0.634031 2.479 255 255 255
-0.963355 -0.819388 2.695 255 255 255
-1.29901 -0.188984 2.844 255 255 255
0.550611 -0.884206 2.719 255 255 255
0.889639 -0.645284 2.561 255 255 255
0.391275 -0.698368 2.719 255 255 255
0.961663 -0.918397 2.499 255 255 255
-0.127539 0.621603 2.03 255 255 255
-0.639164 0.745374 2.071 255 255 255
0.75321 -0.201053 2.638 255 255 255
0.620329 -0.472922 2.695 255 255 255
-0.183105 0.715617 1.953 255 255 255
-1.24467 0.0737929 2.805 0 0 0
-1.01622 -0.776734 2.684 255 255 255
0.617239 -0.678327 2.44 255 255 255
0.451239 -1.02567 2.707 255 255 255
0.545443 -0.70369 2.672 255 255 255
-0.316596 -0.703132 2.755 255 255 255
0.0256462 0.72087 2.128 255 255 255
0.644125 -0.509842 2.53 255 255 255
-0.361881 -0.590112 2.793 255 255 255
0.921532 0.144781 2.604 255 255 255
-0.307627 -0.174103 2.755 255 255 255
-1.34372 -0.89748 2.719 255 255 255
0.862854 -0.353435 2.755 255 255 255
0.497836 0.155071 1.339 255 255 255
0.629103 0.48315 2.695 255 255 255
-0.793785 0.297865 2.572 255 255 255
-0.918601 0.757133 2.004 255 255 255
-1.03664 0.253881 2.593 255 255 255
-0.678855 0.476855 2.459 255 255 255
-0.335989 -0.938607 2.66 255 255 255
0.749677 0.579781 1.528 255 255 255
0.526712 0.345055 1.07 255 255 255
0.350675 0.0193696 2.857 255 255 255
-0.406405 0.161265 2.818 255 255 255
0.942964 -1.00358 2.593 255 255 255
-0.313838 -0.719228 2.731 255 255 255
0.428566 -0.3548 2.731 255 255 255
0.941921 -0.147729 2.071 255 255 255
-0.917317 0.235745 2.626 255 255 255
0.900934 -0.43489 2.818 255 255 255
-0.205325 -0.809821 2.707 255 255 255
0.362804 0.780831 2.55 255 255 255
0.635273 -0.305017 2.684 255 255 255
-0.794894 -0.485983 2.719 255 255 255
-1.00358 0.728163 2.051 255 255 255
-0.160388 -0.269518 2.768 255 255 255
-0.58492 0.669062 2.402 255 255 255
-0.727273 0.209617 2.731 255 255 255
0.637506 -0.510349 2.731 255 255 255
0.44157 0.755105 2.649 255 255 255
-0.208056 -0.137635 2.743 255 255 255
-0.476221 0.248519 2.719 255 255 255
0.533743 0.188823 1.182 255 255 255
0.247381 -0.124244 2.743 255 255 255
-0.80829 0.148869 2.844 0 0 0
-0.8028 0.247524 2.615 255 255 255
0.0648998 -0.251501 2.768 255 255 255
-0.663598 -0.576346 2.707 255 255 255
0.685664 0.175918 2.626 0 0 0
-0.0472742 0.713152 2.136 255 255 255
0.957885 -0.140667 1.972 255 255 255
0.494907 0.336654 1.445 255 255 255
-0.4633 0.762283 2.099 255 255 255
-0.572219 -0.774864 2.755 255 255 255
-0.482013 -0.409255 2.831 255 255 255
-0.135136 -0.0950994 2.805 255 255 255
0.822141 0.180437 2.831 255 255 255
-0.672108 0.498828 2.449 255 255 255
0.817077 -0.528724 2.582 255 255 255
0.946256 -0.51828 2.294 255 255 255
0.0527932 0.421928 2.844 255 255 255
1.02934 0.50981 2.793 255 255 255
-0.867487 0.726662 2.085 255 255 255
-1.17869 -1.02627 2.768 255 255 255
0.670088 -0.501553 2.43 0 0 0
-0.257171 -0.673286 2.743 255 255 255
-1.38817 -1.02518 2.66 255 255 255
0.538888 0.384903 2.844 255 255 255
-0.111313 0.528975 2.898 0 0 0
0.764098 0.0183526 2.707 255 255 255
0.740361 -0.273577 2.593 0 0 0
0.239728 -0.893519 2.707 255 255 255
-0.172335 0.40248 2.743 255 255 255
-0.282042 0.573491 1.978 255 255 255
0.751202 -0.575716 2.53 255 255 255
0.486358 -0.572568 2.731 255 255 255
0.989755 -0.288103 2.572 255 255 255
-0.70403 0.742309 2.044 255 255 255
-0.755871 0.667645 2.411 255 255 255
-0.712812 0.328436 2.582 255 255 255
0.607209 -0.660392 2.638 255 255 255
0.307181 -0.406338 2.719 255 255 255
0.00179474 -0.363689 2.731 255 255 255
0.108964 -0.811663 2.743 255 255 255
-0.463888 -0.455707 2.805 255 255 255
0.468143 0.302882 1.487 255 255 255
-0.231389 -0.129271 2.755 255 255 255
0.433012 -0.737005 2.731 255 255 255
1.06699 0.513484 2.204 255 255 255
-0.590987 -0.465218 2.78 255 255 255
0.9108 -0.934145 2.672 255 255 255
0.317428 -0.337023 2.731 255 255 255
0.297037 0.721333 2.42 255 255 255
-0.529541 -0.780417 2.743 0 0 0
0.522236 -0.849755 2.78 255 255 255
0.665532 -0.268253 2.755 255 255 255
-0.295561 -0.170421 2.768 255 255 255
-0.528096 -0.418469 2.831 0 0 0
-0.134224 0.597177 2.695 255 255 255
0.457665 0.690989 2.719 255 255 255
-0.620208 0.383578 2.53 255 255 255
-0.426153 0.684539 2.189 255 255 255
0.141686 0.56885 2.53 255 255 255
0.958471 -0.046938 2.085 255 255 255
0.488307 0.132564 2.793 255 255 255
0.502032 0.172883 1.452 255 255 255
0.57584 -0.5776 2.755 255 255 255
-0.10774 0.124004 2.805 255 255 255
-1.40644 0.167383 2.695 255 255 255
-0.585672 -0.317569 2.755 255 255 255
0.642918 -0.473633 2.626 255 255 255
-0.280235 -0.915545 2.707 255 255 255
-0.584658 0.150744 2.793 0 0 0
-0.853861 0.597724 2.479 255 255 255
0.477796 0.539891 1.429 0 0 0
1.0381 0.529421 2.181 255 255 255
0.623091 -0.435381 2.707 255 255 255
-0.201809 -0.835534 2.719 255 255 255
0.973289 -0.319602 2.236 255 255 255
0.171032 0.75894 2.044 255 255 255
0.0309296 0.607711 2.261 255 255 255
0.16853 -0.0501404 2.844 255 255 255
0.953527 -0.637795 2.499 0 0 0
-0.556082 0.733328 2.114 255 255 255
-0.159206 0.523615 1.972 255 255 255
-0.872583 0.653134 2.43 255 255 255
