ply
format ascii 1.0
comment Created by Open3D
element vertex 1326
property double x
property double y
property double z
property uchar red
property uchar green
property uchar blue
end_header
0.431417 -0.528726 1.739 255 255 255
0.367962 0.564241 1.513 255 255 255
0.17083 -0.617885 1.929 255 255 255
0.730689 0.431213 1.624 255 255 255
0.643614 0.527185 1.579 255 255 255
0.767083 -0.0498022 1.543 255 255 255
-1.17441 -0.951831 2.449 255 255 255
0.727913 -0.47175 1.612 255 255 255
-1.23502 0.26232 2.593 255 255 255
-1.1999 -0.321587 2.572 255 255 255
-0.29717 0.24992 2.158 0 0 0
-0.505484 0.644097 1.831 255 255 255
0.315186 0.329331 1.837 0 0 0
-1.06093 -0.247318 2.54 255 255 255
0.123383 -0.588696 1.876 255 255 255
0.0107875 0.288852 1.947 0 0 0
-1.14647 0.000681101 2.519 255 255 255
-0.277497 0.563198 1.729 255 255 255
0.408673 -0.527416 1.763 255 255 255
0.639464 0.208556 1.705 255 255 255
0.291264 0.326342 1.837 0 0 0
0.476331 -0.252694 1.748 255 255 255
0.0561638 0.559189 1.612 255 255 255
-0.437595 -0.561113 2.286 0 0 0
-0.631358 0.366018 1.953 255 255 255
0.53153 0.432515 1.724 255 255 255
0.24641 -0.26855 1.837 255 255 255
0.627422 0.300997 1.71 255 255 255
-0.752133 0.406111 1.978 255 255 255
0.717395 0.0390689 1.583 255 255 255
-1.27057 -0.623092 2.489 255 255 255
0.769409 -0.228571 1.513 255 255 255
-0.529317 -0.428915 2.967 255 255 255
-0.923836 0.0880147 2.44 255 255 255
0.738335 -0.420711 1.659 255 255 255
-0.648723 -0.306138 2.244 255 255 255
0.00791947 0.158645 2.024 255 255 255
-0.536704 -0.795636 2.204 255 255 255
0.713067 -0.455637 1.62 0 0 0
-1.31232 -0.363726 2.604 255 255 255
-1.19694 -0.240562 2.43 255 255 255
0.779145 -0.120421 1.547 255 255 255
-0.505229 -0.277092 2.996 255 255 255
-1.04385 0.565287 2.078 255 255 255
0.592506 -0.473075 1.682 255 255 255
-0.706801 0.046823 2.365 255 255 255
-0.460109 0.523332 1.805 255 255 255
0.76259 0.000416123 1.539 255 255 255
0.540012 0.302026 1.799 255 255 255
-0.447533 -0.441124 2.189 255 255 255
0.448851 0.38492 1.763 0 0 0
-0.0943905 0.596897 1.629 255 255 255
0.717404 0.534859 1.642 255 255 255
-0.247084 0.181599 2.181 255 255 255
-0.840626 0.471757 1.997 255 255 255
0.635714 0.319018 1.659 255 255 255
-0.991028 -0.242443 2.449 255 255 255
0.683888 0.0886813 1.595 255 255 255
-1.16795 -0.341039 2.53 255 255 255
-0.562551 0.120081 2.53 255 255 255
0.413237 -0.371434 1.758 255 255 255
-0.00180441 0.348401 1.859 255 255 255
-1.30732 0.0465359 2.561 255 255 255
-1.06773 0.242719 2.479 255 255 255
0.6636 -0.232986 1.668 255 255 255
0.489108 0.451202 1.753 255 255 255
-1.26438 -0.682371 2.469 255 255 255
0.337071 -0.314675 1.81 255 255 255
0.200944 -0.541009 1.859 255 255 255
0.611672 -0.51687 1.682 255 255 255
0.00949657 0.443953 1.714 255 255 255
0.746583 0.421468 1.607 255 255 255
0.118771 0.56007 1.607 255 255 255
-1.24221 -0.562336 2.489 255 255 255
-0.28767 -0.63242 2.114 255 255 255
-1.0758 0.238685 2.479 255 255 255
-0.651999 0.47632 1.911 255 255 255
0.722043 -0.439322 1.599 255 255 255
-0.149325 0.585796 1.65 255 255 255
-0.261863 -0.730108 2.128 0 0 0
-0.639556 0.4701 1.911 255 255 255
-0.547135 0.499718 1.882 255 255 255
0.686801 -0.204017 1.532 255 255 255
-1.07253 -0.530472 2.365 255 255 255
-0.680211 -0.673691 2.204 0 0 0
0.153432 0.460041 1.642 255 255 255
-0.495179 0.502716 1.837 255 255 255
0.398929 -0.285609 1.758 255 255 255
-1.06677 -0.098971 2.449 255 255 255
-0.612939 -0.267139 2.42 255 255 255
-0.450295 0.384356 1.887 255 255 255
-0.603605 -0.28406 2.43 255 255 255
0.207536 -0.385136 1.837 255 255 255
-0.683406 0.265465 2.114 255 255 255
0.68533 -0.344254 1.642 0 0 0
0.275864 0.569948 1.535 255 255 255
-0.826302 0.169418 2.469 255 255 255
-0.00193835 -0.386183 1.997 255 255 255
0.739455 -0.318476 1.543 255 255 255
-1.15307 -0.0965371 2.489 255 255 255
0.485389 -0.57773 1.7 255 255 255
0.63745 0.567846 1.459 255 255 255
-0.827482 0.228339 2.294 255 255 255
0.33204 0.364011 1.831 0 0 0
0.67857 -0.0806341 1.607 255 255 255
-0.24822 0.218921 2.793 255 255 255
-0.651389 0.000649466 2.402 255 255 255
-0.98024 -0.574461 2.356 255 255 255
-0.506295 0.257896 2.166 0 0 0
-1.12066 -0.376016 2.489 255 255 255
-0.254097 0.245635 2.121 0 0 0
0.650346 -0.473561 1.655 255 255 255
-1.02402 0.473438 2.121 255 255 255
-0.310726 -0.757191 2.107 255 255 255
0.761286 0.529019 1.616 255 255 255
-1.29482 -0.0993297 2.561 255 255 255
0.301756 0.441834 1.664 255 255 255
0.331133 -0.466032 1.826 255 255 255
0.0589337 0.531649 1.616 255 255 255
-0.942468 -0.556507 2.329 255 255 255
-0.0483989 -0.788388 2.037 255 255 255
0.25752 0.412854 1.81 255 255 255
-1.36469 -0.382285 2.615 255 255 255
0.37469 0.356096 1.821 0 0 0
0.12219 -0.297091 1.905 255 255 255
0.67998 -0.578597 1.655 255 255 255
0.45253 -0.33442 1.744 255 255 255
-1.31728 -0.0530476 2.54 255 255 255
-0.441433 0.227376 2.212 0 0 0
-1.19567 -0.429739 2.519 255 255 255
0.780597 -0.0895111 1.535 255 255 255
0.278391 -0.282571 1.831 255 255 255
-0.792001 -0.650724 2.236 255 255 255
-0.445288 0.350822 1.905 255 255 255
-0.489241 0.698797 1.826 255 255 255
0.617729 0.259863 1.714 255 255 255
-0.935329 0.661501 1.991 0 0 0
0.711206 0.0029889 1.575 255 255 255
-0.220264 0.584182 1.7 255 255 255
0.571636 -0.518062 1.677 255 255 255
0.238236 0.466632 1.637 255 255 255
0.165008 0.205915 1.972 255 255 255
0.770818 0.490852 1.603 255 255 255
-0.625576 -0.0674217 2.793 255 255 255
0.574351 0.544709 1.48 255 255 255
-1.29128 -0.767643 2.459 255 255 255
-0.00936062 0.619732 1.599 255 255 255
-0.842176 -0.214066 2.356 255 255 255
-1.10715 -0.615582 2.459 255 255 255
-0.965261 -0.762004 2.32 255 255 255
-0.431993 0.63848 1.774 255 255 255
0.688573 -0.247304 1.637 255 255 255
0.73055 -0.601382 1.567 255 255 255
-0.554251 -0.17209 2.871 255 255 255
-0.810842 0.494733 1.972 255 255 255
-1.07701 0.390391 2.158 255 255 255
-0.674679 -0.0490168 2.347 255 255 255
-0.504686 -0.543789 2.356 255 255 255
-0.433114 0.484881 1.815 255 255 255
-0.479836 0.267478 2.158 0 0 0
0.387648 0.27555 1.899 255 255 255
0.0702745 0.227026 2.017 255 255 255
-0.159009 0.535889 1.696 255 255 255
-0.553055 -0.582545 2.212 255 255 255
0.747759 0.0796773 1.571 255 255 255
0.696567 0.250853 1.637 255 255 255
-0.508304 -0.520378 2.32 255 255 255
0.0894661 -0.452916 1.935 255 255 255
-0.47615 0.591854 1.799 255 255 255
0.636089 -0.347295 1.696 255 255 255
-0.381292 0.398085 1.865 255 255 255
-0.444262 -0.791518 2.173 255 255 255
-1.18889 -0.901402 2.329 255 255 255
-0.379855 0.321709 1.935 255 255 255
-0.991684 -0.530472 2.365 255 255 255
0.062097 -0.13704 1.966 255 255 255
-0.6087 0.316875 2.004 255 255 255
0.348079 0.395098 1.837 255 255 255
0.544338 -0.578101 1.677 255 255 255
0.710634 -0.169446 1.535 255 255 255
-0.589062 -0.488954 2.212 0 0 0
-0.0650216 0.565994 1.624 255 255 255
-0.864446 0.673316 1.941 0 0 0
0.184941 0.474623 1.637 0 0 0
0.691035 -0.208341 1.624 255 255 255
-0.56648 0.686407 1.865 255 255 255
0.742644 0.0311032 1.571 255 255 255
0.0013564 0.205445 2.064 0 0 0
0.415579 0.518486 1.516 255 255 255
-0.711352 -0.228316 2.269 0 0 0
-1.23529 0.0836832 2.55 255 255 255
0.346482 0.567827 1.516 255 255 255
-0.185374 0.523616 1.71 255 255 255
-0.821754 -0.448646 2.32 255 255 255
-0.52114 -0.591771 2.261 255 255 255
-0.722014 0.726552 1.859 255 255 255
-0.416792 0.215011 2.196 0 0 0
0.0414114 0.124048 2.051 255 255 255
0.560617 -0.227722 1.71 255 255 255
-0.462565 0.148046 2.743 255 255 255
-1.41981 0.260776 2.755 255 255 255
0.171266 0.431213 1.686 255 255 255
0.182054 0.417872 1.71 255 255 255
0.622016 -0.154731 1.673 0 0 0
-0.664252 0.097961 2.392 255 255 255
0.726459 -0.578678 1.603 0 0 0
0.503469 -0.285322 1.705 255 255 255
0.210527 -0.385136 1.837 255 255 255
-0.523798 0.26311 2.151 0 0 0
-0.718126 -0.273273 2.244 255 255 255
0.80332 0.394961 1.595 255 255 255
0.293887 0.555696 1.551 255 255 255
0.407847 0.456201 1.677 255 255 255
-0.217947 0.481205 1.748 255 255 255
-0.677087 0.186342 2.329 255 255 255
-0.577956 0.33966 1.966 255 255 255
-0.142216 0.261435 2.004 0 0 0
-1.15971 0.00480122 2.53 255 255 255
-0.714174 0.241574 2.278 255 255 255
0.325866 0.554263 1.547 255 255 255
-0.633225 -0.746671 2.166 255 255 255
0.302235 0.378909 1.831 255 255 255
-1.18775 -0.276618 2.582 255 255 255
-0.864466 0.682773 1.815 255 255 255
0.722186 -0.485317 1.571 0 0 0
0.243876 0.501448 1.587 255 255 255
-0.211677 0.354208 1.842 255 255 255
0.636592 0.517147 1.62 0 0 0
-0.727122 0.012139 2.356 255 255 255
-1.04469 0.163228 2.561 255 255 255
-1.26145 0.267671 2.604 255 255 255
0.0367177 -0.35032 1.978 255 255 255
0.670874 0.158614 1.62 255 255 255
0.678923 -0.617792 1.659 255 255 255
-1.0996 -0.115851 2.469 255 255 255
-0.731745 0.480639 1.941 255 255 255
-0.49383 0.530935 1.821 255 255 255
0.175004 0.527336 1.595 255 255 255
-1.07777 -0.881488 2.42 255 255 255
0.747624 0.0701585 1.587 255 255 255
-0.879525 -0.211838 2.374 255 255 255
-0.44664 0.442182 1.859 255 255 255
-0.951694 -0.00329737 2.43 255 255 255
-1.28491 0.198965 2.707 255 255 255
0.329139 -0.286009 1.815 255 255 255
-0.607233 0.364893 1.947 255 255 255
0.662885 0.14241 1.646 255 255 255
0.571175 -0.337048 1.7 255 255 255
-0.339684 0.407055 1.837 255 255 255
0.551437 -0.42928 1.682 255 255 255
0.625362 -0.262313 1.682 255 255 255
-1.11461 -0.712712 2.449 255 255 255
0.613001 0.557499 1.463 255 255 255
-0.0685818 0.530804 1.646 255 255 255
0.683149 -0.206915 1.535 255 255 255
-0.936199 0.452457 2.057 255 255 255
0.0734885 -0.511155 1.929 0 0 0
0.0671645 0.382051 1.763 255 255 255
-0.215921 -0.576488 2.189 0 0 0
-0.108084 -0.781758 2.037 255 255 255
0.0037108 0.542209 1.624 255 255 255
0.2643 0.451542 1.65 255 255 255
-0.86925 -0.668995 2.286 255 255 255
0.60925 0.548412 1.477 255 255 255
0.660142 -0.538607 1.673 255 255 255
0.547123 0.500219 1.575 255 255 255
-0.123971 0.342429 1.876 255 255 255
-0.0569077 0.360474 1.784 255 255 255
0.199089 0.332204 1.87 0 0 0
-0.899728 0.304311 2.121 255 255 255
0.682606 0.464611 1.668 255 255 255
-0.786662 0.384577 2.017 255 255 255
0.507631 0.449915 1.748 255 255 255
-0.97687 0.604669 2.051 255 255 255
-0.467797 0.283285 2.044 255 255 255
-1.07995 -0.781496 2.356 255 255 255
-0.733452 0.722827 1.865 255 255 255
0.424532 -0.459483 1.734 255 255 255
0.704906 -0.196025 1.528 255 255 255
-0.227223 -0.754349 2.128 255 255 255
0.0399375 -0.092812 1.978 0 0 0
0.759182 0.202887 1.595 255 255 255
0.6636 0.432038 1.668 255 255 255
0.189449 -0.284783 1.865 255 255 255
-0.0680593 -0.422296 2.03 255 255 255
0.67446 -0.583142 1.668 255 255 255
-0.00470317 0.362782 1.81 255 255 255
0.624739 -0.236407 1.673 255 255 255
-0.884748 -0.529493 2.278 255 255 255
-0.622709 -0.324318 2.269 0 0 0
-0.612007 0.0565638 2.857 255 255 255
0.0626734 -0.579865 1.887 0 0 0
-0.55725 0.334279 1.972 255 255 255
0.771497 0.211202 1.599 255 255 255
0.0988342 0.215025 1.997 255 255 255
-1.25014 -0.183466 2.572 255 255 255
-0.538308 0.319018 1.997 255 255 255
-0.682023 0.208274 2.32 255 255 255
-0.589062 -0.481755 2.212 0 0 0
0.742674 -0.0957384 1.555 255 255 255
-0.493497 -0.363644 2.871 255 255 255
0.682099 0.143907 1.603 255 255 255
0.752099 0.562261 1.591 255 255 255
0.526795 -0.470338 1.682 255 255 255
-0.216376 -0.63856 2.158 255 255 255
-0.80369 0.233235 2.269 255 255 255
0.389154 0.493781 1.579 255 255 255
0.176325 0.289163 1.887 255 255 255
0.263279 0.493593 1.595 255 255 255
0.480067 -0.371038 1.691 255 255 255
0.686709 0.550319 1.543 255 255 255
0.738619 0.536924 1.624 255 255 255
0.115088 0.215025 1.997 255 255 255
-0.881615 0.199144 2.489 255 255 255
-0.788617 0.537494 1.941 255 255 255
0.14299 -0.609434 1.893 255 255 255
-0.193308 0.18828 2.136 255 255 255
-0.467423 0.281739 2.057 255 255 255
-0.203635 0.614485 1.677 255 255 255
0.670134 -0.235135 1.664 0 0 0
0.646809 -0.050448 1.646 255 255 255
-0.0155775 0.454048 1.71 255 255 255
-0.596933 -0.4434 2.967 255 255 255
0.139465 -0.300425 1.887 255 255 255
0.0285528 0.45865 1.686 255 255 255
-0.899581 -0.69631 2.278 255 255 255
-0.969434 0.457076 2.078 255 255 255
0.325127 0.569325 1.52 255 255 255
0.358865 -0.660985 1.831 255 255 255
0.728593 -0.474724 1.505 255 255 255
-0.664252 -0.00713838 2.392 255 255 255
0.644594 -0.110839 1.668 255 255 255
0.187606 0.474623 1.637 0 0 0
0.18672 -0.577372 1.899 255 255 255
-0.394453 0.523005 1.774 255 255 255
0.393553 -0.703752 1.826 255 255 255
-0.217438 0.372645 1.815 255 255 255
0.352904 0.36997 1.831 0 0 0
0.742215 -0.225864 1.528 255 255 255
0.201592 -0.518475 1.865 255 255 255
-0.896042 0.666999 1.941 255 255 255
0.790683 0.105511 1.575 255 255 255
-0.346824 0.282315 2.037 255 255 255
-0.0970169 0.378661 1.774 255 255 255
0.231923 0.422515 1.729 255 255 255
-1.23524 -0.663601 2.459 255 255 255
-0.127601 -0.443917 2.085 255 255 255
-0.656274 0.61217 1.87 255 255 255
0.213517 -0.435956 1.837 255 255 255
-0.817695 -0.080487 2.374 255 255 255
0.7989 0.552224 1.607 255 255 255
-1.21144 0.230502 2.615 255 255 255
0.596205 -0.610849 1.677 255 255 255
0.748317 0.0519492 1.583 255 255 255
0.502088 -0.486614 1.691 255 255 255
-0.777461 0.568702 1.929 255 255 255
-0.457142 -0.49426 2.236 255 255 255
-0.292303 -0.608513 2.228 0 0 0
0.0237888 0.407979 1.739 255 255 255
-1.12019 -0.390642 2.479 255 255 255
0.667255 0.112328 1.637 255 255 255
-0.99925 -0.780881 2.32 255 255 255
-1.11556 -0.166011 2.561 255 255 255
-0.447533 -0.444686 2.189 255 255 255
-0.947739 -0.0151606 2.43 255 255 255
0.597805 -0.407512 1.729 255 255 255
0.733219 0.239225 1.595 255 255 255
0.579476 0.434794 1.7 255 255 255
0.0430264 -0.114994 1.972 255 255 255
-0.127172 -0.405229 2.078 255 255 255
-0.147552 0.211816 2.128 255 255 255
0.711709 -0.421452 1.516 255 255 255
-0.369533 0.301525 1.947 255 255 255
0.506273 0.401655 1.724 0 0 0
-1.38966 0.231839 2.731 255 255 255
0.746257 -0.374579 1.516 255 255 255
0.715245 -0.119427 1.567 255 255 255
-0.369141 -0.811595 2.189 255 255 255
0.0661632 -0.565011 1.899 0 0 0
-0.465523 0.371349 1.899 255 255 255
-0.930887 -0.581486 2.338 255 255 255
0.24717 0.410345 1.799 255 255 255
-0.508002 -0.838676 2.204 255 255 255
-0.390895 0.612696 1.758 255 255 255
0.641115 -0.442309 1.659 255 255 255
0.556787 -0.409139 1.724 255 255 255
-0.30578 0.636411 1.714 255 255 255
0.645756 -0.0997415 1.664 255 255 255
0.194731 0.209531 1.917 255 255 255
-0.730163 -0.412486 2.329 0 0 0
-0.601109 -0.327258 2.519 0 0 0
0.500742 0.341132 1.774 255 255 255
-0.774321 0.618928 1.929 255 255 255
0.00633871 0.546146 1.62 255 255 255
0.176559 -0.522082 1.923 255 255 255
0.619886 -0.210307 1.682 255 255 255
0.123238 0.411101 1.705 255 255 255
-0.544496 -0.676195 2.236 255 255 255
-0.516883 -0.456829 2.196 255 255 255
-1.09573 0.203245 2.593 255 255 255
-0.571 0.170464 2.269 0 0 0
0.171266 0.428469 1.686 255 255 255
0.739728 -0.53171 1.528 255 255 255
-0.51661 0.406623 1.905 255 255 255
-1.03457 -0.652127 2.402 255 255 255
0.515829 -0.278953 1.7 255 255 255
-0.576168 -0.562505 2.204 255 255 255
0.0741742 -0.455724 1.947 0 0 0
-0.964542 -0.370233 2.374 255 255 255
-1.15364 -0.706929 2.499 255 255 255
-0.80043 0.473707 1.978 255 255 255
-0.631922 0.636514 1.87 255 255 255
0.226092 -0.479108 1.842 255 255 255
-0.292705 0.242108 2.151 0 0 0
-1.0867 -0.907993 2.449 255 255 255
0.394903 0.370591 1.805 0 0 0
0.196674 -0.549009 1.876 255 255 255
-0.240515 0.311294 1.929 255 255 255
-0.976588 -0.655049 2.329 255 255 255
0.734708 -0.539328 1.587 255 255 255
0.0778203 -0.40115 1.959 0 0 0
0.258707 0.421019 1.758 255 255 255
0.677109 -0.422955 1.616 255 255 255
0.400314 0.534317 1.505 255 255 255
-0.780212 -0.180592 2.32 255 255 255
0.0484116 0.5185 1.616 255 255 255
-0.507583 0.302519 2.017 255 255 255
-0.212228 0.370913 1.821 255 255 255
-0.843202 -0.598314 2.286 255 255 255
-0.104997 0.612803 1.629 255 255 255
-0.700616 0.364266 1.978 255 255 255
-1.13458 0.294251 2.374 255 255 255
0.681686 -0.205482 1.543 255 255 255
0.643009 0.389785 1.65 255 255 255
0.247081 -0.527069 1.842 255 255 255
-1.10462 -0.206937 2.604 255 255 255
0.314066 -0.664114 1.848 255 255 255
0.147923 0.343673 1.917 0 0 0
-1.07681 -0.550021 2.383 255 255 255
-0.317146 0.324995 1.899 255 255 255
0.517824 0.448885 1.744 255 255 255
-0.769265 -0.83929 2.244 255 255 255
-0.73266 0.369054 2.004 255 255 255
-0.893196 0.635581 1.991 255 255 255
-0.630721 -0.166106 2.383 255 255 255
0.471553 -0.525168 1.7 255 255 255
0.0516685 0.321709 1.935 0 0 0
0.168211 -0.600913 1.935 255 255 255
-1.24218 -0.644961 2.449 255 255 255
-1.2543 -0.262222 2.411 255 255 255
-0.32663 0.273829 2.099 0 0 0
-0.185445 -0.662076 2.166 255 255 255
-0.0782394 0.608279 1.624 255 255 255
0.323142 0.513064 1.583 255 255 255
-0.62792 0.413595 1.923 255 255 255
0.73123 -0.607477 1.563 255 255 255
-0.714501 0.0699148 2.365 255 255 255
0.764484 -0.31967 1.513 255 255 255
-0.718126 -0.258666 2.244 0 0 0
-1.25627 -0.174889 2.509 255 255 255
-0.604118 0.452859 1.917 255 255 255
0.68237 -0.430844 1.616 0 0 0
-0.831362 -0.696873 2.244 255 255 255
-0.525941 -0.795636 2.204 255 255 255
-0.757424 -0.63523 2.22 255 255 255
-0.319714 0.591334 1.729 255 255 255
0.449626 0.473022 1.65 255 255 255
0.0227629 0.474328 1.664 255 255 255
-0.88399 0.448058 2.037 255 255 255
0.367935 0.265438 1.893 255 255 255
-0.246376 -0.639301 2.114 255 255 255
-0.727845 -0.616914 2.286 0 0 0
0.742753 -0.510478 1.524 255 255 255
-0.502654 -0.615765 2.228 0 0 0
0.191246 0.386477 1.853 0 0 0
-1.25038 -0.246528 2.411 255 255 255
0.0376829 0.102957 2.03 255 255 255
0.185658 0.488148 1.62 0 0 0
0.428936 -0.548195 1.729 255 255 255
-0.724345 -0.197971 2.347 255 255 255
0.342833 0.520629 1.567 255 255 255
0.112206 -0.436714 1.947 255 255 255
0.677109 0.168742 1.616 255 255 255
0.317622 0.261526 1.887 255 255 255
-0.617522 0.286611 2.044 255 255 255
-0.190978 -0.590737 2.189 0 0 0
-0.230687 -0.667775 2.128 255 255 255
0.777037 0.000413149 1.528 255 255 255
0.543032 0.547118 1.48 255 255 255
0.333128 -0.432967 1.837 255 255 255
0.0839204 0.611453 1.591 255 255 255
-1.20827 -0.313216 2.572 255 255 255
-0.596517 -0.325113 2.743 255 255 255
-0.518766 -0.691624 2.204 255 255 255
-0.522292 0.499661 1.859 255 255 255
-0.413815 -0.447938 2.278 255 255 255
-1.12773 -0.0997793 2.469 255 255 255
-0.466387 -0.583133 2.228 255 255 255
-0.315408 -0.622142 2.212 255 255 255
-0.0975187 0.557205 1.637 255 255 255
0.747244 -0.457551 1.513 255 255 255
-0.828317 -0.38627 2.286 255 255 255
0.265071 -0.500091 1.842 255 255 255
0.680461 0.322858 1.624 255 255 255
0.217289 0.590518 1.563 255 255 255
0.769595 -0.0673789 1.543 255 255 255
-1.38171 -0.0290812 2.615 255 255 255
-0.0835226 0.502595 1.677 255 255 255
0.253078 -0.365202 1.842 255 255 255
-0.775043 0.58258 1.923 255 255 255
-0.663334 -0.236755 2.244 255 255 255
0.555609 0.320923 1.774 0 0 0
0.754466 0.0637862 1.498 255 255 255
0.415291 0.516262 1.524 255 255 255
-0.132584 -0.745917 2.057 255 255 255
0.590545 0.456925 1.7 255 255 255
0.741033 0.168324 1.612 255 255 255
0.377654 0.400547 1.821 255 255 255
0.113892 0.540826 1.612 255 255 255
-1.03665 0.613133 2.057 255 255 255
0.381664 -0.424431 1.826 255 255 255
-0.0656814 0.467961 1.71 255 255 255
-0.588978 0.224258 2.253 255 255 255
0.714855 -0.424788 1.528 255 255 255
0.44429 -0.403047 1.734 0 0 0
0.767561 -0.160791 1.524 255 255 255
0.242111 0.578859 1.559 255 255 255
-1.23005 -0.578537 2.489 255 255 255
0.0865839 -0.460637 1.941 0 0 0
0.298003 0.241557 1.899 255 255 255
0.668283 0.314018 1.633 255 255 255
-0.798096 0.556446 1.941 255 255 255
-1.06931 0.558837 2.03 255 255 255
-0.507722 -0.0913949 2.982 255 255 255
-1.15763 -0.883535 2.312 255 255 255
-0.1114 0.232592 2.037 0 0 0
-0.115108 0.495656 1.7 255 255 255
-1.07113 -0.11138 2.459 255 255 255
-0.477738 0.632014 1.805 255 255 255
0.631679 0.134347 1.714 255 255 255
-0.755481 0.546728 1.929 255 255 255
0.798716 0.520835 1.591 255 255 255
-1.23258 -0.0936014 2.519 255 255 255
0.625362 -0.53603 1.682 255 255 255
-0.707416 -0.0410608 2.329 255 255 255
0.701673 -0.264513 1.612 255 255 255
-0.578676 -0.777373 2.173 0 0 0
-0.219002 0.280917 2.051 0 0 0
-0.455836 0.259773 2.212 0 0 0
-0.57568 -0.435936 2.982 255 255 255
-0.777835 -0.46463 2.269 255 255 255
0.673603 0.345982 1.646 255 255 255
0.801305 0.575206 1.591 255 255 255
0.645756 -0.0076737 1.664 255 255 255
-0.585449 0.553249 1.887 255 255 255
-0.731745 0.468004 1.941 255 255 255
-1.06712 -0.107378 2.459 255 255 255
-0.910182 -0.695036 2.286 255 255 255
0.0241518 -0.736482 2.004 255 255 255
-0.605658 -0.783784 2.181 0 0 0
0.714793 -0.356327 1.612 255 255 255
0.46436 0.487025 1.599 255 255 255
-0.212357 -0.583613 2.189 0 0 0
0.703708 0.199287 1.587 255 255 255
0.78241 0.43982 1.579 255 255 255
-1.1767 -0.00758005 2.54 255 255 255
-0.950161 0.487852 2.051 255 255 255
0.676881 -0.0386957 1.603 255 255 255
0.476861 0.555841 1.484 255 255 255
-1.1792 -0.527546 2.459 255 255 255
-0.878688 0.264196 2.189 255 255 255
-0.435197 0.336407 1.929 255 255 255
0.643048 -0.00496583 1.664 255 255 255
0.106013 -0.729575 1.893 0 0 0
-0.299324 0.3647 1.865 255 255 255
-1.02603 -0.672799 2.338 255 255 255
-0.812606 0.692107 1.923 0 0 0
-0.378254 0.339488 1.911 255 255 255
-0.672634 0.581489 1.899 255 255 255
-0.796421 -0.626642 2.228 255 255 255
0.77777 0.543449 1.612 255 255 255
0.11502 -0.343767 1.941 255 255 255
-0.343219 0.621262 1.734 255 255 255
-1.3434 -0.43335 2.615 255 255 255
-0.299776 0.522675 1.744 255 255 255
0.328915 0.27246 1.899 0 0 0
0.271068 -0.341221 1.842 255 255 255
0.190405 0.417872 1.71 255 255 255
-0.332658 0.448404 1.799 255 255 255
0.618043 -0.621765 1.677 255 255 255
0.560105 -0.337048 1.7 255 255 255
-0.565405 -0.853023 2.204 255 255 255
-0.502868 -0.1011 2.982 255 255 255
-0.65323 0.636514 1.87 255 255 255
-0.183851 -0.597862 2.189 0 0 0
-0.876216 0.682066 1.821 255 255 255
0.448536 0.474554 1.646 255 255 255
-0.163258 0.365204 1.837 255 255 255
0.591568 0.559879 1.463 255 255 255
0.271951 -0.459618 1.848 0 0 0
0.354749 0.421691 1.81 255 255 255
0.714235 0.172171 1.599 255 255 255
-0.529132 -0.514821 2.312 255 255 255
-0.954406 -0.766901 2.312 255 255 255
0.657527 0.332589 1.646 255 255 255
0.0441609 0.0532467 2.024 255 255 255
0.757988 -0.0404798 1.571 255 255 255
-0.983076 0.599743 2.057 255 255 255
-0.827339 -0.0188948 2.402 255 255 255
0.220959 0.555193 1.571 255 255 255
-0.679995 0.725106 1.911 255 255 255
-1.15467 -0.134594 2.519 255 255 255
-0.639932 -0.165479 2.374 255 255 255
0.734738 -0.416775 1.633 255 255 255
-0.682023 0.215825 2.32 255 255 255
-0.486394 0.228198 2.22 0 0 0
-0.885955 -0.610988 2.32 255 255 255
-0.110136 0.416969 1.753 255 255 255
0.63957 0.404432 1.655 255 255 255
0.106901 -0.344996 1.966 255 255 255
-0.378943 0.52441 1.769 255 255 255
0.0829086 0.308155 1.929 0 0 0
-0.755674 -0.257855 2.269 255 255 255
0.544984 0.47793 1.696 0 0 0
0.0587878 0.551319 1.612 255 255 255
-0.373503 0.35979 1.887 0 0 0
-1.34362 0.203324 2.649 255 255 255
-1.22284 -0.0532565 2.55 255 255 255
-1.06731 0.290329 2.312 255 255 255
-0.956055 0.428575 2.071 255 255 255
-0.199711 0.366737 1.815 255 255 255
0.654618 0.29472 1.659 255 255 255
-0.152939 0.436938 1.753 255 255 255
-0.986422 0.554761 2.064 255 255 255
-0.878817 0.484641 2.01 255 255 255
-0.935217 -0.302223 2.449 255 255 255
0.665565 0.0245523 1.646 255 255 255
0.135717 0.575206 1.591 0 0 0
-1.04973 -0.731156 2.392 255 255 255
-0.535216 0.412823 1.905 255 255 255
-0.858791 -0.800108 2.278 255 255 255
-0.167769 0.242536 2.037 0 0 0
0.285252 0.533193 1.559 255 255 255
0.733122 -0.351796 1.535 255 255 255
0.441854 -0.311357 1.758 255 255 255
0.0138708 -0.430874 1.935 255 255 255
-0.046118 0.316389 1.941 0 0 0
0.271686 0.410561 1.826 0 0 0
-0.237321 0.49997 1.744 255 255 255
0.108748 -0.635139 1.887 255 255 255
-0.791192 -0.0660474 2.411 255 255 255
0.439677 0.351764 1.784 0 0 0
0.176709 0.547934 1.587 255 255 255
-0.741595 -0.219632 2.294 255 255 255
0.785705 0.223104 1.555 255 255 255
-0.683106 0.519858 1.911 255 255 255
-0.241045 0.584836 1.71 255 255 255
0.217097 -0.329231 1.842 255 255 255
0.322041 -0.524071 1.842 255 255 255
-1.01502 -0.5075 2.402 255 255 255
0.625956 -0.321505 1.691 255 255 255
0.67524 0.362934 1.65 255 255 255
-1.11468 0.0585546 2.54 255 255 255
-0.683509 -0.0450242 2.338 255 255 255
-1.08906 0.238437 2.519 255 255 255
-0.538976 -0.037824 2.967 255 255 255
-0.610808 -0.183409 2.459 255 255 255
0.181985 -0.44051 1.882 255 255 255
0.702062 0.140593 1.595 255 255 255
-0.648678 -0.0849898 2.392 255 255 255
-0.712181 0.10147 2.383 255 255 255
0.527959 -0.629953 1.677 255 255 255
0.439428 0.485635 1.603 255 255 255
0.364353 0.459049 1.629 255 255 255
-0.60824 -0.132227 2.818 255 255 255
-0.827482 -0.432418 2.294 255 255 255
0.55714 -0.26922 1.691 255 255 255
0.401925 -0.394347 1.784 255 255 255
-0.526373 0.363769 1.941 255 255 255
0.336945 0.444396 1.705 255 255 255
0.610544 -0.16473 1.664 0 0 0
-0.420802 0.334305 1.935 255 255 255
-1.16523 -0.959277 2.489 255 255 255
0.198229 0.462104 1.659 0 0 0
0.721461 -0.430165 1.575 0 0 0
-0.244979 0.437629 1.779 255 255 255
-0.636613 0.68439 1.893 255 255 255
-1.17459 0.270154 2.509 255 255 255
0.704561 -0.383164 1.637 0 0 0
0.689679 0.380804 1.646 255 255 255
-0.872341 -0.237976 2.365 255 255 255
0.737899 -0.399861 1.509 255 255 255
0.707255 0.0601298 1.595 255 255 255
-0.998971 0.119084 2.509 255 255 255
0.718708 -0.442658 1.547 0 0 0
-1.09997 0.330566 2.204 255 255 255
0.715964 -0.31243 1.563 255 255 255
0.392111 0.440524 1.779 0 0 0
-0.93285 0.418983 2.057 255 255 255
-0.835576 -0.0227087 2.392 255 255 255
0.693349 -0.186601 1.642 255 255 255
0.0233202 -0.487553 1.935 255 255 255
0.637152 -0.460753 1.677 255 255 255
-0.488242 0.198579 2.212 0 0 0
-0.454873 -0.444972 2.173 255 255 255
0.0142147 0.555317 1.616 255 255 255
-0.764651 -0.646068 2.22 255 255 255
0.741351 0.434544 1.607 255 255 255
-0.562368 -0.393618 2.818 0 0 0
0.570782 0.548412 1.477 255 255 255
0.259495 0.467058 1.62 255 255 255
0.439635 -0.43515 1.705 255 255 255
0.121805 0.294092 1.899 0 0 0
-0.613551 -0.312551 2.347 255 255 255
-0.487601 0.712629 1.831 255 255 255
-0.528096 -0.29408 2.831 255 255 255
0.692207 -0.286561 1.633 0 0 0
-0.657475 -0.805724 2.212 255 255 255
0.643316 0.049842 1.686 255 255 255
0.350485 0.515529 1.567 255 255 255
0.566839 0.558912 1.473 255 255 255
0.719361 -0.333542 1.543 255 255 255
-0.940433 0.585264 2.03 255 255 255
-0.775494 0.188979 2.411 255 255 255
0.714818 0.106047 1.583 255 255 255
-1.22083 0.117889 2.572 255 255 255
-0.578982 0.724037 1.876 255 255 255
0.712576 -0.577506 1.607 0 0 0
0.478726 -0.377655 1.696 255 255 255
-0.582443 -0.633893 2.228 255 255 255
-0.75381 -0.620779 2.22 255 255 255
-1.24659 -0.348048 2.582 255 255 255
-0.400578 0.405239 1.87 255 255 255
-0.769097 -0.679736 2.212 255 255 255
-1.24313 -0.527995 2.499 255 255 255
-0.599899 -0.749084 2.173 0 0 0
-0.080959 0.33829 1.87 255 255 255
-0.028224 -0.698589 2.017 255 255 255
-0.0998951 0.463376 1.724 255 255 255
0.543502 -0.301084 1.7 255 255 255
0.652334 -0.467266 1.633 255 255 255
0.669868 0.376359 1.65 255 255 255
0.678785 0.21134 1.62 255 255 255
-1.22915 -0.701271 2.479 255 255 255
0.636073 0.239152 1.612 0 0 0
0.109094 -0.708011 1.893 0 0 0
0.220095 -0.527069 1.842 255 255 255
0.124884 -0.46523 1.947 255 255 255
-0.775979 0.666999 1.941 255 255 255
-0.205231 -0.583613 2.189 0 0 0
-0.275801 -0.604143 2.212 0 0 0
0.622624 0.432927 1.682 255 255 255
0.720549 -0.367181 1.637 255 255 255
-0.281422 0.178261 2.228 255 255 255
-0.54923 0.145701 2.286 255 255 255
0.675433 -0.0677687 1.612 255 255 255
0.756047 0.343044 1.583 255 255 255
-0.748985 0.489967 1.953 255 255 255
0.740043 -0.332677 1.539 255 255 255
-1.10715 -0.631588 2.459 255 255 255
-0.760492 -0.162342 2.329 255 255 255
-0.605438 0.313614 2.004 255 255 255
0.472362 0.567342 1.47 255 255 255
0.399498 -0.706724 1.826 255 255 255
-0.333437 0.169863 2.261 255 255 255
-0.255141 0.404018 1.81 255 255 255
0.725125 -0.422046 1.583 0 0 0
-0.864641 -0.241824 2.365 255 255 255
0.029528 -0.429537 1.929 255 255 255
-0.864641 -0.130214 2.365 255 255 255
-0.443613 0.442182 1.859 255 255 255
0.428587 -0.36176 1.739 255 255 255
0.222488 -0.277518 1.837 255 255 255
0.752099 0.202378 1.591 255 255 255
-0.979534 0.401737 2.107 255 255 255
-0.123055 0.44349 1.734 255 255 255
-0.619122 -0.750195 2.166 255 255 255
-0.565306 -0.639603 2.261 0 0 0
0.485202 -0.670222 1.739 255 255 255
-0.114321 -0.732823 2.03 255 255 255
-0.168673 0.512485 1.71 255 255 255
-0.697601 0.134312 2.347 255 255 255
-0.90274 -0.680155 2.286 255 255 255
0.628302 0.250174 1.668 255 255 255
-0.0553191 0.521354 1.65 255 255 255
-0.268545 -0.651843 2.099 255 255 255
-0.4814 -0.80508 2.181 255 255 255
0.143419 0.410482 1.714 255 255 255
0.470443 -0.372135 1.696 255 255 255
0.657039 0.143127 1.686 255 255 255
0.418484 0.492456 1.583 255 255 255
0.123729 0.352103 1.929 0 0 0
-0.792319 0.223008 2.356 0 0 0
-0.878402 -0.875266 2.32 255 255 255
-0.964188 -0.484047 2.402 255 255 255
0.480984 -0.62879 1.734 255 255 255
0.0389481 -0.583354 1.929 255 255 255
-0.748332 0.397857 1.985 255 255 255
-0.393494 0.274149 2.128 0 0 0
-0.595334 -0.156587 2.844 255 255 255
0.558977 0.380581 1.705 0 0 0
-0.627802 0.125701 2.329 255 255 255
-0.124841 0.525991 1.682 255 255 255
0.237439 -0.66913 1.837 255 255 255
0.304051 -0.449133 1.842 0 0 0
-1.25313 -0.370223 2.561 255 255 255
0.630313 0.238026 1.659 255 255 255
-0.710685 0.313221 2.044 255 255 255
0.494707 0.318703 1.794 0 0 0
0.293293 0.366991 1.831 255 255 255
-0.262227 0.349649 1.882 255 255 255
0.767424 0.233826 1.559 255 255 255
0.318632 0.299324 1.893 255 255 255
0.750894 -0.0562453 1.583 255 255 255
-0.874625 -0.871491 2.32 255 255 255
-0.132197 -0.787131 2.051 255 255 255
0.681574 -0.127115 1.633 255 255 255
-0.661898 0.309084 2.017 255 255 255
-1.18083 -0.00758005 2.54 255 255 255
-0.148461 -0.418172 2.092 255 255 255
-0.0734567 0.373444 1.763 255 255 255
0.538702 0.483611 1.668 0 0 0
-1.35899 -0.656426 2.572 255 255 255
0.164376 0.40282 1.729 255 255 255
0.442155 0.5685 1.473 255 255 255
-0.346491 -0.663111 2.181 255 255 255
-1.22028 -0.470732 2.519 255 255 255
-0.869781 0.319446 2.107 255 255 255
-0.416923 0.448588 1.848 255 255 255
-1.04364 0.597994 2.051 255 255 255
0.808513 0.467637 1.595 255 255 255
0.178964 0.401163 1.734 255 255 255
-1.25125 -0.667603 2.459 255 255 255
0.576409 -0.216936 1.691 255 255 255
-0.718173 0.623627 1.905 255 255 255
0.267342 0.326342 1.837 0 0 0
-0.831871 0.363309 2.064 255 255 255
-0.799468 0.697541 1.815 255 255 255
-0.502712 -0.577166 2.383 255 255 255
-0.95444 -0.718943 2.303 255 255 255
0.524057 -0.57435 1.682 255 255 255
-0.224576 0.183514 2.204 255 255 255
0.738009 0.276067 1.583 255 255 255
0.707088 -0.33446 1.583 255 255 255
0.689738 -0.155128 1.567 255 255 255
-0.628257 -0.0391911 2.449 255 255 255
-0.700519 -0.443618 2.294 255 255 255
-0.703974 0.515251 1.917 255 255 255
0.136827 0.296243 1.893 0 0 0
-1.16458 -0.765818 2.479 255 255 255
0.387158 -0.659295 1.81 255 255 255
-0.65202 0.588894 1.893 255 255 255
0.63763 -0.0943257 1.664 255 255 255
-0.340397 0.677698 1.734 255 255 255
-0.659681 -0.664007 2.244 255 255 255
-0.667541 0.611081 1.876 255 255 255
0.691649 0.306403 1.607 255 255 255
-0.915892 0.223018 2.44 255 255 255
0.379149 0.517971 1.559 255 255 255
-0.61506 -0.174889 2.509 255 255 255
-0.0929334 0.323851 1.929 255 255 255
0.771808 0.542168 1.616 255 255 255
-0.901629 0.0514644 2.402 255 255 255
-0.744684 -0.788995 2.236 255 255 255
0.549636 0.519643 1.498 255 255 255
-0.919469 -0.497783 2.338 255 255 255
0.643802 -0.456931 1.673 255 255 255
-0.877021 0.147077 2.499 255 255 255
-0.134825 0.599828 1.637 255 255 255
-0.703268 -0.599015 2.303 0 0 0
0.513729 0.325776 1.769 0 0 0
-0.16177 0.527609 1.696 255 255 255
-0.571903 0.533444 1.893 0 0 0
0.290694 0.4752 1.603 255 255 255
-0.444794 0.65186 1.779 255 255 255
-1.22363 0.208497 2.66 255 255 255
0.671949 0.20191 1.629 255 255 255
-0.660865 0.227543 2.286 0 0 0
0.24342 -0.313391 1.837 255 255 255
0.194147 0.509112 1.603 255 255 255
-0.738628 0.21534 2.356 255 255 255
0.519171 0.441938 1.739 255 255 255
-0.0120418 0.191359 2.057 255 255 255
-0.838064 0.351061 2.071 255 255 255
-0.672092 -0.0906805 2.338 255 255 255
-0.840106 -0.169922 2.329 255 255 255
0.276927 0.554599 1.555 255 255 255
-0.773759 -0.217593 2.312 255 255 255
0.476892 0.478779 1.633 255 255 255
-0.0835265 0.61885 1.624 255 255 255
-0.133571 0.477404 1.724 255 255 255
-0.368463 0.511458 1.774 255 255 255
-0.285711 0.303384 1.959 255 255 255
-0.0797156 0.272699 1.991 0 0 0
-0.320261 0.499679 1.763 255 255 255
-0.700272 -0.228316 2.269 255 255 255
-0.788916 -0.46463 2.269 255 255 255
-0.29741 0.664303 1.714 255 255 255
-0.873518 0.252574 2.212 255 255 255
0.480394 0.55916 1.48 255 255 255
-0.613427 -0.180678 2.719 255 255 255
-0.193931 0.636801 1.664 255 255 255
0.32504 -0.661958 1.842 255 255 255
-0.7835 -0.712133 2.212 255 255 255
-1.30822 -0.576795 2.499 255 255 255
-0.613551 -0.316371 2.347 255 255 255
-1.0133 0.61522 2.064 255 255 255
0.0436041 0.407979 1.739 255 255 255
-0.114988 0.377892 1.784 255 255 255
-0.179601 0.572523 1.682 255 255 255
-0.829126 -0.82235 2.278 255 255 255
-1.12471 -0.188381 2.582 255 255 255
-1.27867 -0.623092 2.489 255 255 255
-1.2031 -0.274368 2.561 255 255 255
0.12219 -0.337392 1.905 255 255 255
-0.551866 -0.365287 2.743 255 255 255
-0.16956 0.501195 1.719 255 255 255
0.158009 0.520843 1.607 0 0 0
-0.0622244 0.617326 1.62 255 255 255
-0.313713 -0.702996 2.151 255 255 255
-0.648448 0.619638 1.865 255 255 255
-1.35333 -0.435173 2.626 255 255 255
0.784059 0.237256 1.532 255 255 255
0.657419 -0.533162 1.673 255 255 255
0.0407249 0.0432156 2.017 255 255 255
0.255498 0.519476 1.579 255 255 255
-0.745299 0.208466 2.365 255 255 255
-0.80766 0.0543128 2.356 255 255 255
-0.829544 -0.401859 2.269 255 255 255
0.333128 -0.61532 1.837 255 255 255
-0.59195 -0.660525 2.196 0 0 0
0.796708 0.423971 1.587 255 255 255
0.754128 0.0411188 1.563 255 255 255
-1.08929 0.442883 2.107 255 255 255
-0.647479 -0.00325938 2.402 255 255 255
-0.936968 0.310955 2.143 255 255 255
0.652334 -0.464608 1.633 255 255 255
-0.61072 -0.206311 2.707 255 255 255
-0.761595 0.101854 2.392 255 255 255
-0.1794 -0.433919 2.136 255 255 255
-0.691181 0.739094 1.899 255 255 255
-0.558779 -0.563397 2.374 255 255 255
-1.2422 0.183348 2.672 255 255 255
-1.2685 -0.0366577 2.55 255 255 255
-0.392324 -0.580732 2.261 255 255 255
-0.269067 0.338295 1.887 255 255 255
0.0687066 -0.371722 1.972 0 0 0
0.598429 0.404974 1.691 255 255 255
0.391182 0.384459 1.815 0 0 0
0.521319 -0.571613 1.682 255 255 255
-0.397647 -0.669106 2.189 255 255 255
0.675552 -0.199933 1.664 0 0 0
-0.84885 0.202332 2.43 255 255 255
-0.664252 0.0356799 2.392 255 255 255
0.617698 0.457258 1.691 255 255 255
-0.278265 -0.693191 2.121 255 255 255
-0.27973 0.452104 1.779 255 255 255
0.690676 0.363846 1.642 255 255 255
0.250079 -0.494096 1.842 255 255 255
0.73252 -0.582214 1.498 255 255 255
-0.32247 -0.603421 2.236 0 0 0
0.716473 0.471876 1.646 255 255 255
0.291264 -0.403073 1.837 255 255 255
-1.16928 -0.396268 2.489 255 255 255
-0.268791 -0.74396 2.128 255 255 255
-0.379933 0.461253 1.815 255 255 255
0.114892 -0.539945 1.887 255 255 255
0.779965 0.280658 1.524 255 255 255
-0.966514 0.11861 2.499 255 255 255
0.44388 -0.436641 1.7 255 255 255
-1.11982 -0.801223 2.392 255 255 255
0.113787 0.381548 1.774 255 255 255
0.0455095 -0.416416 1.941 0 0 0
0.770602 -0.199421 1.535 255 255 255
-0.211581 -0.592127 2.181 0 0 0
-0.686761 -0.23119 2.261 255 255 255
0.0665813 -0.689865 1.911 255 255 255
-1.20318 -0.391287 2.509 255 255 255
-0.0183611 0.45683 1.71 255 255 255
0.329139 -0.30373 1.815 255 255 255
0.708874 0.204452 1.587 255 255 255
0.0486691 -0.552238 1.941 255 255 255
-0.722816 -0.677308 2.181 255 255 255
-0.629984 -0.505119 2.204 255 255 255
0.477087 -0.505802 1.7 255 255 255
-0.314307 0.349649 1.882 255 255 255
-0.575139 -0.809199 2.173 0 0 0
0.415579 0.520953 1.516 255 255 255
0.608063 0.530821 1.516 255 255 255
-0.447886 0.496696 1.815 255 255 255
0.510401 0.406085 1.719 255 255 255
-1.00687 -0.487674 2.42 255 255 255
-0.445135 0.277852 2.078 255 255 255
0.111524 -0.547702 1.882 255 255 255
-0.472403 0.324702 1.953 255 255 255
-0.649012 -0.671356 2.22 255 255 255
-0.0640681 0.505327 1.668 255 255 255
0.490924 -0.328749 1.7 255 255 255
0.391403 -0.386718 1.789 255 255 255
0.569215 -0.260193 1.686 255 255 255
0.0713281 0.570292 1.599 255 255 255
-0.951639 0.0522786 2.44 255 255 255
-1.32212 0.0390062 2.615 255 255 255
-0.335757 0.312262 1.935 255 255 255
-0.713006 -0.666524 2.228 0 0 0
0.759558 -0.430467 1.513 255 255 255
0.524392 -0.405155 1.719 0 0 0
-0.155788 0.545316 1.691 255 255 255
-0.947667 0.06022 2.44 255 255 255
-0.738299 0.562044 1.917 255 255 255
0.750956 -0.0250765 1.567 255 255 255
0.237439 -0.678098 1.837 255 255 255
-0.449633 0.273829 2.099 255 255 255
-0.886739 -0.0109894 2.383 255 255 255
-0.734026 -0.483599 2.204 255 255 255
0.316787 0.464766 1.603 255 255 255
-0.559055 0.240759 2.236 0 0 0
-0.81533 -0.306082 2.356 255 255 255
-0.829808 0.688729 1.905 0 0 0
0.239507 0.374416 1.853 0 0 0
-1.35167 -0.339645 2.582 255 255 255
0.329034 0.251645 1.882 255 255 255
0.748725 -0.384447 1.516 255 255 255
-0.222992 0.329083 1.887 255 255 255
-0.796339 -0.240167 2.312 255 255 255
0.492508 0.558912 1.473 255 255 255
-0.923009 -0.396577 2.347 255 255 255
0.00107908 0.508138 1.642 255 255 255
0.303628 0.436938 1.753 255 255 255
0.220396 0.584379 1.567 255 255 255
-0.70177 0.703337 1.911 255 255 255
0.68432 0.372768 1.646 255 255 255
0.570079 0.45272 1.705 255 255 255
0.60583 0.306982 1.744 255 255 255
-1.34737 -0.194346 2.55 255 255 255
0.187985 0.52474 1.595 255 255 255
0.238861 0.349347 1.848 0 0 0
-0.236052 0.206982 2.114 255 255 255
0.45964 0.307036 1.865 0 0 0
-1.12471 -0.663596 2.489 255 255 255
0.531791 0.454777 1.734 255 255 255
0.188609 0.417274 1.719 255 255 255
-0.609544 -0.328339 2.626 255 255 255
-1.27008 -0.198604 2.449 255 255 255
-0.746583 -0.588265 2.22 255 255 255
-0.635972 0.26376 2.128 255 255 255
0.759455 0.395427 1.629 255 255 255
-0.624122 -0.356768 2.196 255 255 255
0.706045 0.258154 1.616 255 255 255
0.143896 -0.27229 1.905 255 255 255
0.681574 -0.499155 1.633 255 255 255
-0.265327 0.256834 2.128 0 0 0
0.770173 0.2311 1.575 255 255 255
-0.699341 -0.358968 2.278 255 255 255
0.00132092 -0.764854 2.01 255 255 255
-0.363607 0.424992 1.837 255 255 255
0.488016 -0.612161 1.719 255 255 255
-1.29083 -0.659546 2.489 255 255 255
0.10846 -0.54464 1.882 255 255 255
-0.00417569 0.594066 1.607 255 255 255
-1.07873 -0.648946 2.449 255 255 255
-0.670847 -0.0379909 2.374 255 255 255
-0.81533 0.0274749 2.356 255 255 255
-0.557692 0.333252 1.985 255 255 255
-0.716205 -0.308457 2.261 0 0 0
-0.0354519 0.411261 1.729 255 255 255
0.727702 0.549129 1.583 255 255 255
0.707344 -0.55397 1.607 0 0 0
-0.198207 -0.807638 2.078 255 255 255
-0.0549938 0.440932 1.724 255 255 255
-0.908614 -0.569458 2.32 255 255 255
0.66478 0.0290554 1.599 255 255 255
-1.16991 -0.641862 2.499 255 255 255
0.499094 -0.269762 1.748 255 255 255
-0.592449 0.262892 2.121 255 255 255
-0.381045 -0.782028 2.196 255 255 255
0.447536 -0.35377 1.714 255 255 255
-0.0646059 0.493145 1.682 255 255 255
0.0777304 0.497282 1.624 255 255 255
-0.591197 0.717931 1.876 255 255 255
0.351613 -0.265183 1.794 255 255 255
0.165082 0.334266 1.899 0 0 0
-0.587932 0.518225 1.905 255 255 255
-0.464421 -0.650724 2.236 255 255 255
0.237071 0.469653 1.629 255 255 255
-0.13716 -0.466924 2.128 255 255 255
-0.894497 -0.363881 2.383 255 255 255
0.757046 0.502537 1.607 255 255 255
-0.358262 0.454091 1.81 255 255 255
-1.31416 0.0546354 2.55 255 255 255
0.693374 0.0959842 1.587 255 255 255
-0.977758 0.272529 2.228 255 255 255
0.805007 0.50276 1.583 255 255 255
-0.344797 0.189312 2.695 255 255 255
0.0324648 0.337434 1.917 0 0 0
-0.696466 0.722829 1.905 255 255 255
0.670821 -0.180434 1.659 255 255 255
0.258371 -0.304422 1.837 255 255 255
0.63447 0.184553 1.714 255 255 255
0.0999595 0.572894 1.599 255 255 255
-0.85311 0.68015 1.848 255 255 255
-0.631839 -0.140069 2.402 255 255 255
0.416445 0.36628 1.784 0 0 0
0.171088 0.518228 1.607 0 0 0
-0.512018 -0.594594 2.286 255 255 255
-0.0347906 -0.698589 2.017 255 255 255
0.280063 -0.613998 1.842 255 255 255
-0.762883 -0.559756 2.236 255 255 255
0.294254 -0.429977 1.837 255 255 255
0.512147 0.443209 1.744 255 255 255
-0.604526 0.624342 1.87 255 255 255
-0.163041 0.456088 1.739 255 255 255
-0.811635 0.112251 2.449 255 255 255
-0.648994 0.265465 2.114 255 255 255
-0.920705 0.0163459 2.411 255 255 255
0.757638 0.0524931 1.524 255 255 255
-1.02069 0.405114 2.143 255 255 255
0.630313 0.381112 1.659 255 255 255
0.505964 0.497645 1.551 255 255 255
0.0152526 0.409628 1.734 255 255 255
-0.0218722 -0.519884 2.037 255 255 255
-1.07768 0.480747 2.078 255 255 255
-1.22848 -0.462533 2.519 255 255 255
-0.580174 0.669989 1.87 255 255 255
-0.708715 0.26376 2.128 255 255 255
-1.32366 -0.142767 2.593 255 255 255
-0.880233 0.5805 1.991 255 255 255
-0.8102 -0.719859 2.236 255 255 255
-0.93177 0.661871 1.917 255 255 255
-1.04798 -0.256549 2.509 255 255 255
-0.200194 -0.494478 2.173 255 255 255
-0.454892 -0.606488 2.261 255 255 255
0.584938 0.269395 1.758 255 255 255
0.153605 0.433333 1.673 255 255 255
-0.652571 -0.0577418 2.392 255 255 255
-0.394316 -0.630272 2.294 0 0 0
-1.16304 -0.904885 2.338 255 255 255
0.657419 0.471448 1.673 255 255 255
0.363991 -0.264366 1.769 255 255 255
-0.20562 0.369691 1.815 255 255 255
-1.09995 0.182147 2.593 255 255 255
0.729852 0.237223 1.599 255 255 255
-0.732153 0.424525 1.959 255 255 255
0.728026 -0.0566717 1.595 255 255 255
0.108256 0.469197 1.646 255 255 255
-1.17392 0.129888 2.561 255 255 255
-0.474563 -0.767819 2.166 255 255 255
0.491615 0.483026 1.603 255 255 255
0.277065 -0.500091 1.842 255 255 255
-0.876992 0.5643 1.991 255 255 255
0.657319 0.359514 1.659 255 255 255
0.156054 -0.348517 1.865 255 255 255
0.738853 -0.306714 1.547 255 255 255
0.290376 0.501448 1.587 255 255 255
-0.947739 -0.00329737 2.43 255 255 255
0.0445973 0.0704041 2.044 255 255 255
-0.693353 -0.123961 2.32 255 255 255
0.0926159 0.337453 1.935 0 0 0
-0.776372 0.480431 1.966 255 255 255
-1.24725 -0.51154 2.459 255 255 255
-0.65202 0.668988 1.893 255 255 255
-0.67572 -0.573374 2.261 255 255 255
0.372427 -0.482567 1.81 255 255 255
0.637152 -0.490772 1.677 255 255 255
0.118771 0.505152 1.607 255 255 255
-1.06592 -0.595718 2.411 255 255 255
-0.521725 -0.258596 2.898 255 255 255
-0.838359 0.181472 2.469 255 255 255
-0.739254 0.40933 1.978 255 255 255
0.486963 0.288826 1.865 255 255 255
0.634422 -0.564456 1.677 255 255 255
-0.35451 0.646658 1.734 255 255 255
0.766988 0.164878 1.579 255 255 255
0.140133 0.504101 1.612 255 255 255
-1.16888 0.217736 2.615 255 255 255
0.808113 0.493781 1.579 255 255 255
-0.193376 0.208929 2.099 255 255 255
0.207186 0.531097 1.583 255 255 255
-1.02365 0.499269 2.099 255 255 255
-0.644334 0.248074 2.204 255 255 255
0.758609 -0.0505768 1.567 255 255 255
-0.822283 0.1654 2.469 255 255 255
-0.0862525 0.502595 1.677 255 255 255
-0.34223 0.650421 1.729 255 255 255
0.627463 0.498674 1.673 255 255 255
-1.31294 -0.0244175 2.572 255 255 255
-0.519538 0.120363 2.939 255 255 255
-0.844279 0.345484 2.078 255 255 255
-0.852328 0.420683 2.017 255 255 255
0.635772 0.111772 1.71 255 255 255
-0.438777 0.316135 1.959 255 255 255
-0.72982 -0.232008 2.269 255 255 255
-0.586262 0.688247 1.87 255 255 255
0.201521 0.570867 1.579 255 255 255
0.234449 -0.382147 1.837 255 255 255
0.216507 -0.391115 1.837 255 255 255
-1.02022 0.526476 2.085 255 255 255
-0.26593 0.361665 1.865 255 255 255
-0.877665 0.283056 2.143 255 255 255
-0.295188 0.321836 1.917 255 255 255
0.211104 0.251604 1.953 0 0 0
0.630733 0.509376 1.646 255 255 255
-1.25436 -0.550184 2.489 255 255 255
-1.18043 0.307083 2.269 255 255 255
0.609755 0.297612 1.739 255 255 255
0.758999 -0.0172041 1.547 255 255 255
0.773101 0.23772 1.535 255 255 255
-0.558256 0.276916 2.071 255 255 255
-0.800532 -0.0538492 2.392 255 255 255
0.305512 0.442137 1.655 255 255 255
-0.599271 -0.684213 2.158 0 0 0
0.224691 0.463683 1.655 255 255 255
-1.21327 -0.217337 2.392 255 255 255
-0.43824 -0.456829 2.196 255 255 255
0.613504 0.353869 1.71 255 255 255
-0.628452 0.688363 1.887 255 255 255
-0.799095 -0.139063 2.32 255 255 255
-0.404405 0.346793 1.917 255 255 255
-0.299828 0.405726 1.831 255 255 255
0.704729 -0.519974 1.607 0 0 0
0.745616 -0.204417 1.535 255 255 255
-0.154287 0.365204 1.837 255 255 255
-1.07378 0.484226 2.064 255 255 255
-0.824057 -0.777211 2.244 255 255 255
0.679904 -0.132105 1.629 255 255 255
0.688392 -0.229483 1.624 255 255 255
-0.273898 0.389119 1.837 0 0 0
-0.00825385 0.289742 1.953 0 0 0
0.0491905 0.484089 1.642 255 255 255
0.348856 -0.297003 1.81 255 255 255
-0.51169 -0.855602 2.22 255 255 255
-0.755481 0.666014 1.929 255 255 255
-1.02635 0.64803 2.03 0 0 0
-0.0625701 0.559784 1.629 255 255 255
0.41856 0.281731 1.899 255 255 255
-1.21618 -0.273968 2.519 255 255 255
-0.26433 0.298069 1.966 255 255 255
0.694435 0.560426 1.516 255 255 255
-0.6124 -0.218554 2.695 255 255 255
-0.336601 0.633539 1.729 255 255 255
0.393206 -0.551668 1.758 255 255 255
-0.361665 0.518652 1.769 255 255 255
0.421884 0.508821 1.539 255 255 255
-0.332298 0.263967 2.158 0 0 0
-0.931273 -0.860165 2.32 255 255 255
0.348079 -0.41802 1.837 255 255 255
-1.00011 0.456598 2.107 255 255 255
-0.735219 0.712115 1.893 0 0 0
-0.149576 0.302188 1.972 0 0 0
-0.718789 -0.431436 2.329 0 0 0
0.722317 -0.442194 1.528 255 255 255
0.639825 0.563097 1.459 255 255 255
-1.19025 -0.629662 2.499 255 255 255
0.636966 -0.349023 1.691 255 255 255
0.35406 -0.672119 1.837 255 255 255
-1.22083 0.0216229 2.572 255 255 255
-1.21805 -0.0654479 2.54 255 255 255
0.71342 -0.256472 1.563 255 255 255
-0.812215 -0.32019 2.347 255 255 255
-0.172914 0.448349 1.753 255 255 255
0.500812 -0.374895 1.696 255 255 255
0.62045 -0.316001 1.691 255 255 255
0.329098 0.310071 1.865 255 255 255
-0.312171 0.542252 1.734 255 255 255
0.750208 0.346494 1.587 255 255 255
-0.691245 -0.477988 2.228 0 0 0
0.134392 -0.452556 1.947 255 255 255
-0.412987 -0.626539 2.294 0 0 0
0.179689 -0.606575 1.923 255 255 255
-0.693103 0.280286 2.071 255 255 255
0.584666 0.484776 1.691 255 255 255
-1.06499 0.140667 2.53 255 255 255
-0.69599 -0.768898 2.22 0 0 0
-1.09598 -0.374505 2.479 255 255 255
-0.318752 0.404066 1.837 255 255 255
0.735815 0.0757034 1.595 255 255 255
0.143436 0.448857 1.65 255 255 255
-0.112729 0.354208 1.842 255 255 255
-0.433655 0.599257 1.769 255 255 255
-0.529937 0.18254 2.236 0 0 0
0.0778203 -0.391587 1.959 0 0 0
-1.28396 -0.477826 2.43 255 255 255
-1.25401 -0.173767 2.615 255 255 255
-0.568843 0.378389 1.935 255 255 255
0.0428034 0.576936 1.603 255 255 255
0.717343 -0.210944 1.528 255 255 255
0.0650648 -0.1238 1.959 255 255 255
0.7756 -0.0270624 1.535 255 255 255
0.109373 -0.36814 1.953 255 255 255
-1.10654 -0.467881 2.44 255 255 255
0.0427427 -0.761387 1.959 255 255 255
-0.0116554 -0.414183 1.991 255 255 255
-0.715568 0.516863 1.923 255 255 255
0.703823 0.172171 1.599 255 255 255
-0.994748 0.201599 2.572 255 255 255
-1.05803 -0.675581 2.402 255 255 255
-0.925835 0.134877 2.499 255 255 255
0.547068 -0.651785 1.677 255 255 255
0.0408906 0.403476 1.744 255 255 255
0.0616229 0.107673 2.057 255 255 255
0.486254 0.359915 1.753 0 0 0
0.710876 -0.106405 1.563 255 255 255
-0.825477 0.311402 2.099 255 255 255
-0.37927 0.383937 1.87 0 0 0
-0.615301 -0.245195 2.561 255 255 255
0.139465 -0.632068 1.887 255 255 255
0.450891 0.542568 1.494 255 255 255
0.454842 -0.531039 1.71 255 255 255
0.0783367 -0.188803 1.972 255 255 255
-0.991062 -0.0558078 2.479 255 255 255
0.763486 0.280582 1.551 255 255 255
-0.586262 0.645644 1.87 255 255 255
0.684709 0.130864 1.603 255 255 255
0.499379 -0.38912 1.71 0 0 0
0.510346 -0.318753 1.691 255 255 255
-0.918601 0.639731 2.004 255 255 255
-0.0184577 0.434058 1.719 255 255 255
-0.9203 0.469555 2.044 255 255 255
-1.27927 -0.703617 2.459 255 255 255
0.750764 0.373863 1.616 255 255 255
-0.0876262 -0.687839 2.024 255 255 255
0.0592563 -0.363196 1.978 0 0 0
0.654294 0.112947 1.686 255 255 255
-0.999335 -0.677789 2.329 255 255 255
-1.02835 0.346127 2.189 255 255 255
-1.28001 -0.469918 2.43 255 255 255
