ply
format ascii 1.0
comment Created by Open3D
element vertex 1313
property double x
property double y
property double z
property uchar red
property uchar green
property uchar blue
end_header
1.23567 0.234379 2.871 255 255 255
-0.236657 -0.0716358 2.615 255 255 255
0.876783 -0.21805 2.489 255 255 255
-0.856858 0.0803799 2.719 255 255 255
0.620756 -0.162494 2.278 255 255 255
-1.06087 0.0336212 2.53 255 255 255
-0.509434 -0.371368 2.755 255 255 255
-0.115861 0.16269 2.489 255 255 255
-0.300067 0.23498 2.768 255 255 255
-0.804713 0.280024 2.768 255 255 255
0.306306 -0.332186 1.893 0 0 0
0.177078 -0.0856358 2.037 255 255 255
-1.03108 -0.261405 2.44 255 255 255
-0.0157051 0.42971 1.724 255 255 255
0.543847 0.29754 1.509 0 0 0
-0.147015 0.634653 1.821 255 255 255
-0.108832 -0.581486 2.338 255 255 255
-1.34663 0.541618 2.638 255 255 255
-0.0688012 -0.534862 2.402 255 255 255
0.109548 -0.117991 2.143 255 255 255
0.476294 -0.676027 1.769 255 255 255
-0.215136 0.408433 1.899 255 255 255
-0.29654 0.355966 2.695 255 255 255
-0.161558 0.488763 1.887 255 255 255
-1.11214 -0.536718 2.158 255 255 255
-0.277942 0.479273 1.805 255 255 255
-0.412313 0.224508 2.925 255 255 255
0.380464 -0.644753 1.739 0 0 0
0.289977 0.209323 1.887 0 0 0
0.425648 -0.174179 1.917 255 255 255
0.454254 0.246066 1.677 255 255 255
0.214665 0.351062 1.62 255 255 255
-0.998989 -0.495551 2.42 255 255 255
-0.758331 -0.737664 2.638 255 255 255
-0.632369 0.0516783 2.844 255 255 255
0.35588 -0.0647896 1.911 255 255 255
-0.394355 0.227152 2.898 255 255 255
0.0908096 -0.117335 2.196 255 255 255
-1.08668 0.127722 2.44 255 255 255
0.359052 0.358339 1.571 255 255 255
-0.851626 0.652748 1.758 255 255 255
-1.12205 0.187947 2.615 255 255 255
-0.959596 -0.779096 2.42 255 255 255
0.42351 0.339932 1.696 0 0 0
-1.10688 0.628758 2.121 255 255 255
0.199709 -0.478107 1.935 255 255 255
0.0043803 0.309358 1.917 255 255 255
-0.247875 0.64028 1.779 255 255 255
0.447862 0.483978 1.254 255 255 255
-0.588688 -0.0609406 2.707 255 255 255
0.0116128 0.527693 1.62 255 255 255
-1.10439 -0.531556 2.303 255 255 255
-0.0513465 0.000627294 2.32 255 255 255
-0.0604989 -0.530631 2.383 255 255 255
-0.774941 -0.750399 2.593 255 255 255
-0.35602 0.398214 1.784 255 255 255
0.257208 0.392128 1.543 255 255 255
0.698546 0.0356799 2.392 255 255 255
0.0684731 0.597425 1.535 255 255 255
0.1085 -0.588589 2.057 255 255 255
-0.127983 0.674687 1.763 255 255 255
-0.493256 -0.494243 2.925 255 255 255
-0.269572 -0.495091 2.604 255 255 255
-0.648314 -0.602711 2.593 255 255 255
0.633124 0.445463 1.249 255 255 255
-0.86665 0.107094 2.615 255 255 255
0.46418 0.41375 1.33 255 255 255
0.522875 0.354241 1.587 0 0 0
-0.92005 -0.545051 2.43 255 255 255
0.0798304 -0.0172192 2.189 255 255 255
0.667481 0.400197 1.412 255 255 255
0.318816 -0.588444 1.774 0 0 0
-0.0827775 0.121204 2.469 255 255 255
-1.03218 -0.065989 2.561 255 255 255
-0.0171634 -0.645205 2.294 255 255 255
0.811151 0.0698095 2.499 255 255 255
-1.09915 -0.319463 2.459 255 255 255
0.0421195 0.144617 2.269 255 255 255
-1.07299 0.622777 2.136 255 255 255
-0.909632 0.110881 2.604 255 255 255
-0.165253 0.579937 1.826 255 255 255
-0.61506 -0.934321 2.509 255 255 255
0.0271554 0.352679 1.774 255 255 255
-0.313336 0.434266 1.789 255 255 255
-0.533706 0.581508 1.587 255 255 255
-0.0615886 0.404066 1.837 255 255 255
-0.517205 -0.474946 2.953 255 255 255
-0.377748 -0.235265 2.844 255 255 255
-0.719103 0.23498 2.768 255 255 255
-0.353488 0.551943 1.729 255 255 255
0.124333 0.378125 1.646 255 255 255
0.0798304 -0.0207815 2.189 255 255 255
-1.07972 0.299334 2.78 255 255 255
0.31837 -0.526987 1.821 0 0 0
-1.17256 0.013087 2.54 255 255 255
0.764739 -0.174519 2.392 255 255 255
0.234911 -0.0666543 1.966 255 255 255
0.292866 0.370824 1.559 255 255 255
-0.632131 -0.727808 2.649 255 255 255
1.45819 0.0396278 2.982 255 255 255
0.305855 0.420985 1.452 255 255 255
0.761223 0.177454 2.469 255 255 255
-0.755059 -0.375365 2.719 255 255 255
1.05244 -0.205188 2.582 255 255 255
-0.759616 0.317183 2.818 255 255 255
0.496951 0.356027 1.595 0 0 0
0.128591 -0.468082 2.057 255 255 255
-0.216019 -0.116498 2.572 255 255 255
0.250882 -0.0342203 1.941 255 255 255
0.057623 -0.241729 2.158 255 255 255
0.305724 0.490606 1.357 255 255 255
0.191945 -0.587368 1.985 255 255 255
-0.140734 -0.157925 2.499 255 255 255
0.370795 -0.464308 1.774 0 0 0
0.571582 0.30756 1.498 0 0 0
-0.975082 -0.505475 2.449 255 255 255
0.0233081 -0.017589 2.236 255 255 255
-0.944253 -0.713423 2.411 255 255 255
0.931141 0.0132519 2.572 255 255 255
0.193893 0.408879 1.559 255 255 255
-0.870737 -0.354787 2.54 255 255 255
0.436339 0.474743 1.262 255 255 255
-0.481265 -0.133121 2.939 255 255 255
0.0330524 0.466632 1.637 255 255 255
-0.975653 0.405272 2.793 255 255 255
-0.592269 0.439879 2.499 0 0 0
-1.08892 0.588359 2.189 255 255 255
-0.371118 -0.850088 2.695 255 255 255
-0.29654 -0.244868 2.695 255 255 255
-0.224027 0.463058 1.87 255 255 255
-0.97547 -0.793477 2.44 255 255 255
0.06972 0.384571 1.686 255 255 255
0.397751 0.412623 1.362 255 255 255
0.14579 -0.606684 2.017 255 255 255
-0.200926 -0.176026 2.649 255 255 255
0.0631189 0.0839932 2.228 255 255 255
0.121538 -0.339886 2.051 255 255 255
-0.456109 -0.0693046 2.871 255 255 255
0.54025 0.432982 1.26 255 255 255
0.235677 0.486138 1.442 255 255 255
-0.658867 -0.166635 2.78 255 255 255
-0.169687 0.666335 1.779 255 255 255
0.642236 -0.0221106 2.329 255 255 255
0.384501 -0.347896 1.784 0 0 0
-1.08997 0.248571 2.672 255 255 255
-0.0646059 0.602632 1.682 255 255 255
-0.746005 -0.865358 2.43 255 255 255
0.170298 0.284256 1.959 0 0 0
0.209857 0.52603 1.442 255 255 255
0.478447 -0.0666181 2.064 255 255 255
-1.10979 -0.80508 2.181 255 255 255
0.406925 -0.102428 1.917 255 255 255
-0.301323 0.590984 1.753 255 255 255
0.281276 -0.40727 1.87 255 255 255
-0.330305 -0.497182 2.615 255 255 255
-0.65282 -0.836993 2.561 255 255 255
-0.563752 0.195829 2.996 255 255 255
0.285984 0.371776 1.563 255 255 255
-0.559601 0.412047 1.664 255 255 255
-0.01545 0.45585 1.696 255 255 255
0.731298 0.319382 1.452 0 0 0
0.385015 -0.62879 1.734 0 0 0
0.343845 -0.519182 1.784 255 255 255
0.139108 0.124834 2.064 255 255 255
-0.607135 0.386161 1.646 255 255 255
-0.360197 0.177187 2.78 255 255 255
0.053411 0.402222 1.691 255 255 255
0.509122 0.385542 1.452 255 255 255
-0.888328 -0.0653457 2.707 255 255 255
-0.428774 0.609417 1.62 255 255 255
0.439677 -0.449507 1.784 255 255 255
-0.314211 0.429641 1.794 255 255 255
-0.899008 -0.831668 2.459 255 255 255
0.352307 0.405508 1.439 255 255 255
-0.592909 -0.872457 2.519 255 255 255
-1.01146 0.39463 2.66 255 255 255
0.0157991 -0.849436 2.204 255 255 255
-0.758447 -0.466624 2.684 255 255 255
0.00145367 -0.668937 2.212 255 255 255
0.461294 -0.511904 1.789 255 255 255
0.448458 0.266592 1.686 0 0 0
0.692626 -0.278753 2.32 0 0 0
-0.543019 0.275542 2.911 255 255 255
0.168279 0.0472817 2.051 255 255 255
0.821214 0.227127 2.53 0 0 0
-1.1079 0.624818 2.143 255 255 255
0.309941 0.420116 1.449 255 255 255
-0.638968 0.452668 1.579 255 255 255
-0.16228 0.579937 1.826 255 255 255
0.366649 0.0729475 1.935 255 255 255
0.136221 0.449228 1.567 255 255 255
0.415823 -0.500423 1.769 255 255 255
0.356149 0.421105 1.39 255 255 255
-0.400979 -0.570052 2.719 255 255 255
-0.171353 0.283419 2.593 255 255 255
-0.975082 -0.56924 2.449 255 255 255
-1.0439 0.110919 2.509 255 255 255
-0.680434 0.0942175 2.871 255 255 255
-0.841755 -0.624623 2.479 255 255 255
-1.20322 0.572894 2.459 255 255 255
-0.070229 -0.554357 2.32 255 255 255
-0.794626 0.177187 2.78 255 255 255
-0.0245458 -0.0142622 2.286 255 255 255
-1.0684 -0.362706 2.509 255 255 255
-0.277854 -0.619495 2.684 255 255 255
-0.568909 -0.86733 2.54 255 255 255
-0.448164 0.563816 1.633 255 255 255
0.397611 -0.255754 1.831 255 255 255
-0.345342 -0.216753 2.844 255 255 255
0.0869569 -0.166833 2.189 255 255 255
0.374975 -0.335249 1.794 0 0 0
-0.91387 -0.168798 2.604 255 255 255
-0.679018 -0.880656 2.519 255 255 255
0.463913 0.446752 1.27 255 255 255
-0.825592 -0.442364 2.593 255 255 255
-0.203459 -0.355071 2.572 255 255 255
-1.09103 0.616649 2.151 255 255 255
-0.146598 0.132433 2.53 255 255 255
0.3383 0.101287 1.935 255 255 255
-0.0353494 0.457765 1.724 255 255 255
0.464748 0.223621 1.758 255 255 255
0.495458 0.303788 1.607 0 0 0
-0.319649 0.58795 1.744 255 255 255
-0.528539 0.599586 1.587 255 255 255
-0.696268 0.142264 2.898 255 255 255
-0.998534 0.517787 2.626 255 255 255
-1.23785 0.392062 2.672 255 255 255
-0.83681 0.0590277 2.755 255 255 255
0.303653 0.0729475 1.935 255 255 255
-0.653152 0.542483 1.528 255 255 255
0.0308202 0.0739366 2.253 255 255 255
-1.23075 0.314531 2.411 255 255 255
-0.879939 -0.429739 2.519 255 255 255
-0.0257816 0.302539 2.085 255 255 255
-0.0256495 0.561579 1.642 255 255 255
-0.564154 0.388166 1.985 255 255 255
-0.420166 -0.512849 2.818 255 255 255
0.0592298 0.376698 1.7 255 255 255
-0.229104 -0.623201 2.626 255 255 255
-0.56295 0.41395 1.65 255 255 255
-0.625695 0.419861 1.591 255 255 255
-0.804595 0.512139 2.831 0 0 0
0.549537 0.410657 1.327 255 255 255
0.171949 -0.662549 1.978 255 255 255
-0.638348 -0.520516 2.604 255 255 255
-1.12106 -0.404122 2.261 255 255 255
-0.812606 0.426112 1.923 255 255 255
-1.15817 -0.241552 2.44 255 255 255
-0.318284 0.120733 2.731 255 255 255
-0.212876 -0.932451 2.44 255 255 255
-0.724959 0.278456 2.844 255 255 255
0.430805 -0.653779 1.748 255 255 255
-0.745854 0.152094 2.818 255 255 255
-0.412029 -0.37117 2.857 255 255 255
0.452072 -0.0992497 1.978 255 255 255
-1.11917 -0.533206 2.158 255 255 255
1.24611 0.0376212 2.831 255 255 255
1.17747 -0.19224 2.695 255 255 255
-1.03616 0.0212698 2.53 255 255 255
0.610068 0.346325 1.456 0 0 0
-0.725732 0.439555 2.158 255 255 255
1.1603 0.100279 2.78 255 255 255
-1.11501 -0.66387 2.294 255 255 255
-1.10077 0.170926 2.615 255 255 255
-0.24271 0.298502 2.731 255 255 255
0.18673 0.341582 1.677 255 255 255
-0.278819 0.408282 1.87 255 255 255
-0.859072 -0.369859 2.53 255 255 255
-0.0624599 -0.635218 2.312 255 255 255
0.301435 0.114236 1.941 255 255 255
-0.290736 0.546897 1.758 255 255 255
-0.383833 0.358369 1.848 255 255 255
-1.04791 -0.625876 2.278 255 255 255
-0.49342 -0.310472 2.898 255 255 255
-0.306707 0.355037 1.911 255 255 255
-0.0621989 0.55082 1.691 255 255 255
-0.486049 -0.214428 2.939 255 255 255
0.308618 0.38234 1.524 255 255 255
-0.601536 0.38062 1.899 255 255 255
-0.389899 -0.93124 2.615 255 255 255
-0.156377 -0.396268 2.489 255 255 255
-0.282855 -0.79247 2.649 255 255 255
0.218131 -0.120612 1.959 255 255 255
0.655664 0.333559 1.452 255 255 255
-0.681131 0.532478 1.535 255 255 255
0.0784969 0.271921 2.253 255 255 255
-0.10161 -0.728859 2.347 255 255 255
-0.561106 -0.957853 2.561 255 255 255
-0.0337373 0.228214 2.411 255 255 255
-0.636578 0.391301 1.612 255 255 255
-1.00279 0.349098 2.78 255 255 255
0.604814 0.414743 1.369 255 255 255
-1.04834 -0.652517 2.32 255 255 255
0.284752 -0.379444 1.853 255 255 255
-0.624221 -0.0088991 2.982 255 255 255
-0.467837 -0.36652 2.857 255 255 255
0.516385 0.337785 1.607 255 255 255
-1.06202 -0.542808 2.42 255 255 255
-0.908855 0.399703 2.884 255 255 255
-0.49089 0.596313 1.599 255 255 255
-0.674902 0.401738 1.591 255 255 255
0.45179 0.459403 1.265 255 255 255
-0.231423 -0.0840472 2.604 255 255 255
-0.148103 -0.842107 2.42 255 255 255
0.436773 -0.449507 1.784 255 255 255
-1.07823 -0.587175 2.189 255 255 255
0.680582 0.412516 1.369 255 255 255
-0.427377 -0.154844 2.898 255 255 255
-1.25038 0.236061 2.411 255 255 255
1.12051 0.297461 2.805 0 0 0
-0.365571 0.0228587 2.719 255 255 255
0.775493 0.0938327 2.489 255 255 255
-0.070229 -0.641191 2.32 255 255 255
-0.822231 -0.219527 2.707 255 255 255
0.951573 0.000698135 2.582 255 255 255
0.648331 0.418379 1.381 0 0 0
-0.622989 -0.779937 2.593 255 255 255
0.334039 0.256196 1.893 255 255 255
-0.792765 -0.884802 2.44 255 255 255
-0.142332 0.674687 1.763 255 255 255
-0.7127 -0.905674 2.411 255 255 255
1.2458 0.45037 2.939 255 255 255
0.327883 -0.0430208 1.911 255 255 255
-0.00607515 0.0995542 2.338 255 255 255
0.49584 -0.296155 1.899 255 255 255
0.805342 0.107261 2.519 255 255 255
-0.382378 0.352506 2.844 255 255 255
-0.615006 0.0474969 2.871 255 255 255
-0.0881129 -0.831859 2.294 255 255 255
-0.635792 0.373394 1.637 255 255 255
0.204889 -0.744542 2.017 255 255 255
-1.30964 0.408269 2.582 255 255 255
-1.17393 0.421751 2.695 255 255 255
1.08815 -0.175295 2.638 255 255 255
-0.483208 -0.609627 2.66 255 255 255
0.507977 0.470168 1.203 255 255 255
-0.34704 0.509857 1.739 255 255 255
0.10116 -0.508365 2.044 255 255 255
-0.0490463 -0.450891 2.392 255 255 255
-0.193417 0.241371 2.55 255 255 255
0.560352 -0.0249553 2.244 255 255 255
0.252446 -0.296567 1.882 255 255 255
0.41799 -0.269281 1.842 255 255 255
-0.138501 0.565079 1.826 255 255 255
0.205489 -0.278103 1.991 255 255 255
0.0887109 -0.62418 2.064 255 255 255
0.329614 0.422178 1.432 255 255 255
0.599976 0.426689 1.278 255 255 255
-1.11073 -0.379587 2.204 255 255 255
-0.746849 -0.503594 2.499 255 255 255
-0.527633 -0.189255 2.78 255 255 255
-0.0915513 0.105984 2.489 255 255 255
0.431632 -0.590533 1.763 255 255 255
-0.0844412 -0.124434 2.402 255 255 255
0.019618 0.306772 1.882 255 255 255
0.193312 0.495534 1.477 255 255 255
-0.811313 -0.450372 2.615 255 255 255
-0.729234 -0.691575 2.626 255 255 255
0.809144 -0.129304 2.42 255 255 255
-0.158495 -0.839671 2.459 255 255 255
-0.386008 0.225035 2.871 255 255 255
-1.15317 0.604534 2.196 255 255 255
0.38927 -0.222041 1.848 255 255 255
-0.517858 -0.578827 2.638 255 255 255
-1.16444 0.315705 2.42 255 255 255
0.24683 0.284256 1.959 0 0 0
0.554279 0.229187 1.779 255 255 255
-0.247329 -0.269357 2.593 255 255 255
-0.670782 -0.562338 2.582 255 255 255
-0.597448 -0.530776 2.768 255 255 255
0.00897592 -0.234565 2.294 255 255 255
0.204178 0.12811 2.01 255 255 255
0.280748 0.360312 1.591 255 255 255
-1.21391 0.277626 2.54 255 255 255
0.194323 0.193476 2.044 255 255 255
0.194527 0.446149 1.505 255 255 255
-0.753959 -0.947551 2.469 255 255 255
0.296431 0.0570257 1.929 255 255 255
0.643052 0.182216 2.374 255 255 255
-0.559539 0.506613 1.587 255 255 255
-1.19488 -0.0892539 2.402 255 255 255
-0.617511 -0.888854 2.519 255 255 255
-0.282706 0.356151 1.917 255 255 255
-0.338434 0.609263 1.724 255 255 255
0.286992 -0.276172 1.848 0 0 0
0.320613 -0.536601 1.784 255 255 255
-0.999077 -0.863681 2.459 255 255 255
-0.0744367 0.11271 2.459 255 255 255
0.410305 0.328825 1.71 255 255 255
0.601354 0.119034 2.347 255 255 255
0.154003 0.311762 1.739 255 255 255
-0.449718 0.543879 1.629 255 255 255
-0.147177 0.314826 2.54 255 255 255
0.0468888 0.295687 1.87 255 255 255
0.18371 -0.0690615 2.037 255 255 255
0.418269 0.357134 1.686 0 0 0
0.190996 -0.298811 2.044 255 255 255
0.46609 -0.588444 1.774 255 255 255
-0.970149 -0.843763 2.519 255 255 255
-0.48653 0.471763 1.655 255 255 255
-0.463961 -0.766605 2.649 255 255 255
0.403285 0.445682 1.322 255 255 255
-0.667099 0.522699 1.543 255 255 255
-1.24192 -0.0493928 2.365 255 255 255
-0.0664311 -0.107378 2.459 255 255 255
0.105691 0.413623 1.607 255 255 255
-0.672442 -0.0942518 2.78 255 255 255
0.0684832 0.253583 2.286 255 255 255
-0.280235 0.348741 2.707 255 255 255
0.737181 0.334302 1.445 255 255 255
0.357361 -0.500357 1.779 255 255 255
-0.798551 -0.121028 2.672 255 255 255
0.668774 -0.147182 2.329 255 255 255
-0.641969 -0.647163 2.672 255 255 255
-0.0275498 -0.568631 2.228 255 255 255
0.540403 0.424018 1.27 255 255 255
0.160499 -0.695572 2.037 255 255 255
-0.116892 -0.591363 2.347 255 255 255
0.58917 0.314981 1.487 0 0 0
-0.875839 -0.433838 2.519 255 255 255
-0.522662 0.430061 1.65 255 255 255
-0.417663 -0.776734 2.684 255 255 255
-0.380529 0.530708 1.724 255 255 255
-0.384614 0.168925 2.793 255 255 255
0.476439 0.453368 1.254 255 255 255
-1.02694 0.605866 2.078 255 255 255
-0.0436424 0.000625131 2.312 255 255 255
-0.0616921 -0.114021 2.43 255 255 255
-1.05045 0.765595 2.071 255 255 255
-0.047939 -0.0298054 2.338 255 255 255
0.610708 0.274182 1.587 255 255 255
-0.285013 0.584088 1.758 255 255 255
-0.782915 -0.799057 2.374 255 255 255
-1.15786 -0.661679 2.261 255 255 255
-0.486157 0.147639 2.911 255 255 255
0.385601 -0.605525 1.724 0 0 0
1.00207 -0.0882848 2.604 255 255 255
-0.401334 0.442211 1.729 255 255 255
-0.200942 0.401684 1.911 255 255 255
0.33712 0.256196 1.893 255 255 255
-0.243033 -0.651806 2.638 255 255 255
0.449436 0.378693 1.435 255 255 255
0.321055 -0.611136 1.724 255 255 255
-0.155124 -0.198461 2.604 255 255 255
-0.455658 -0.990711 2.626 255 255 255
-0.154258 0.34074 1.991 255 255 255
-0.836066 0.384903 2.844 255 255 255
-0.541589 0.439086 1.595 255 255 255
0.364754 0.371301 1.48 255 255 255
0.993603 -0.112749 2.582 255 255 255
0.409741 0.447834 1.322 255 255 255
-0.661911 -0.362402 2.755 255 255 255
-0.730015 -0.103169 2.66 255 255 255
-0.116504 0.677556 1.763 255 255 255
0.884886 -0.116789 2.489 255 255 255
0.325189 -0.269913 1.826 255 255 255
-1.03941 -0.710033 2.228 255 255 255
0.166095 -0.3451 1.985 255 255 255
0.276727 -0.331191 1.923 255 255 255
-0.598723 -0.889409 2.509 255 255 255
1.22876 -0.30147 2.731 255 255 255
0.1119 0.175141 2.189 255 255 255
-1.0419 -0.255299 2.383 255 255 255
0.813543 0.107261 2.519 255 255 255
-0.999198 -0.505478 2.411 255 255 255
-0.642205 0.416223 1.587 255 255 255
0.234871 0.513992 1.409 255 255 255
0.594812 0.435388 1.267 255 255 255
-1.13365 -0.0942488 2.43 255 255 255
-0.294039 0.396109 1.87 255 255 255
0.81749 -0.220316 2.469 255 255 255
-1.12336 -0.321223 2.383 255 255 255
-1.29251 0.101114 2.469 255 255 255
0.041971 0.0190083 2.261 255 255 255
0.185189 0.0661918 2.017 255 255 255
1.18058 -0.0751423 2.743 255 255 255
-0.612489 0.532981 1.551 255 255 255
0.611773 -0.0589031 2.286 255 255 255
0.0719057 0.400663 1.673 255 255 255
-0.389501 0.433449 1.739 255 255 255
-0.0171035 -0.304428 2.286 255 255 255
0.692287 0.433191 1.357 0 0 0
-0.661365 0.580743 1.524 255 255 255
-0.961424 -0.397325 2.329 255 255 255
0.281045 0.0513788 1.953 255 255 255
-0.98024 -0.417268 2.356 255 255 255
0.128216 -0.543483 2.051 255 255 255
-0.208248 0.480029 1.865 255 255 255
0.487711 0.30023 1.616 0 0 0
-0.942183 0.173867 2.66 255 255 255
-0.192094 0.656261 1.799 255 255 255
0.407993 -0.199723 1.893 255 255 255
1.23623 0.45037 2.939 255 255 255
0.175916 0.440054 1.535 255 255 255
-1.04711 -0.11138 2.459 255 255 255
-1.01563 0.436593 2.626 255 255 255
-1.0887 -0.692603 2.278 255 255 255
-0.643461 0.39955 1.603 255 255 255
0.522228 0.447419 1.232 255 255 255
-1.00312 -0.823281 2.411 255 255 255
-1.04079 -0.807309 2.32 255 255 255
-0.557063 0.416622 2.303 255 255 255
-0.116892 -0.625737 2.347 255 255 255
0.335098 -0.0272992 1.899 255 255 255
0.423307 0.248069 1.729 0 0 0
0.151211 0.05844 2.092 255 255 255
0.168803 0.461745 1.516 255 255 255
-1.08536 -0.594299 2.189 255 255 255
-0.942599 0.164526 2.649 255 255 255
0.321987 -0.196136 1.859 255 255 255
0.199011 -0.292593 2.024 255 255 255
1.38777 -0.138706 2.857 255 255 255
0.0983093 0.386511 1.659 255 255 255
0.450973 -0.332229 1.842 0 0 0
-0.353776 0.655421 1.677 255 255 255
0.291027 -0.6523 1.729 255 255 255
0.150229 0.28952 1.831 255 255 255
0.212509 -0.543354 1.966 255 255 255
-0.300502 -0.181475 2.731 255 255 255
-1.20482 0.217808 2.383 255 255 255
0.151704 -0.527358 1.966 255 255 255
-0.353976 0.633374 1.691 255 255 255
0.0373252 -0.519466 2.204 255 255 255
-0.652847 0.478603 1.563 255 255 255
-0.536684 -0.175683 2.78 255 255 255
0.0268514 -0.267699 2.228 255 255 255
0.572651 0.284893 1.547 255 255 255
0.348012 -0.23954 1.821 255 255 255
-1.14771 -0.32454 2.22 255 255 255
0.202833 0.455044 1.494 255 255 255
-1.13048 -0.586419 2.173 255 255 255
0.158263 0.100684 2.051 255 255 255
-0.0300817 0.434695 1.744 255 255 255
0.486281 0.306246 1.62 0 0 0
-0.0824422 0.28878 2.459 255 255 255
-0.768985 -0.0771973 2.66 255 255 255
-0.0306554 0.626778 1.624 255 255 255
-1.09261 -0.682536 2.294 255 255 255
0.92299 0.00486005 2.561 255 255 255
-1.0924 -0.706982 2.196 255 255 255
0.0446621 -0.233379 2.212 255 255 255
-0.758447 0.013829 2.684 255 255 255
0.28356 -0.233188 1.865 0 0 0
0.155907 -0.0733357 2.064 255 255 255
-0.713299 -0.354509 2.695 255 255 255
0.413681 -0.157588 1.905 255 255 255
-1.01693 0.71815 2.051 255 255 255
-1.0704 0.5155 2.593 255 255 255
0.407881 0.447943 1.316 255 255 255
-0.539367 0.0154365 2.996 255 255 255
-0.622989 -0.518317 2.593 255 255 255
-0.554545 -0.870745 2.55 255 255 255
-0.210728 -0.68526 2.509 255 255 255
-0.935588 -0.883535 2.312 255 255 255
-1.0485 0.0712342 2.55 255 255 255
0.172706 -0.298376 2.064 255 255 255
-1.20727 0.24658 2.561 255 255 255
-1.32308 0.535778 2.695 255 255 255
-1.20785 0.572927 2.329 255 255 255
-0.558359 0.47941 1.591 255 255 255
-0.876411 -0.339959 2.684 255 255 255
0.0582372 -0.386274 2.181 255 255 255
0.469717 0.388318 1.378 255 255 255
-0.437846 0.47241 1.696 255 255 255
-0.0795303 0.424992 1.837 255 255 255
-0.686061 0.451521 1.575 255 255 255
0.622936 -0.103544 2.286 255 255 255
0.82446 0.261092 2.54 0 0 0
-0.635652 -0.581612 2.593 255 255 255
0.350756 0.025475 1.917 255 255 255
0.343283 0.265438 1.893 255 255 255
-0.638348 -0.592555 2.604 255 255 255
-1.17188 0.318455 2.411 255 255 255
0.84437 -0.0357808 2.489 255 255 255
-1.13389 -0.33427 2.166 255 255 255
0.718015 -0.135593 2.392 255 255 255
-0.695751 -0.372052 2.695 255 255 255
-0.177576 0.150726 2.561 255 255 255
-0.00938226 -0.559364 2.22 255 255 255
-0.374295 0.349284 2.818 255 255 255
-0.523372 0.545352 1.587 255 255 255
-0.0615413 -0.59622 2.278 255 255 255
0.209159 -0.597764 1.935 255 255 255
-0.212656 -0.335443 2.582 255 255 255
0.505921 0.275022 1.607 0 0 0
0.348079 0.299437 1.837 255 255 255
-0.905035 -0.68526 2.509 255 255 255
-0.0285885 -0.511059 2.312 255 255 255
0.391727 0.487754 1.291 255 255 255
0.424451 0.394513 1.384 255 255 255
-0.60933 0.555341 1.543 255 255 255
-0.620262 -0.0222694 2.831 255 255 255
-0.55059 0.500123 1.591 255 255 255
-0.0365216 -0.509197 2.338 255 255 255
0.626306 0.239625 1.959 255 255 255
-1.22631 0.207358 2.54 255 255 255
0.35588 -0.0150324 1.911 255 255 255
0.63747 0.328125 1.47 255 255 255
0.242271 0.400749 1.528 255 255 255
0.641971 0.401205 1.432 0 0 0
-0.0693168 0.197561 2.42 255 255 255
0.128226 0.306489 1.774 255 255 255
-1.25847 0.406008 2.707 255 255 255
-0.513215 0.447984 1.637 255 255 255
-1.0699 -0.184438 2.42 255 255 255
0.105152 -0.531683 2.057 255 255 255
0.360648 0.328741 1.739 0 0 0
-0.975103 0.392358 2.831 255 255 255
-0.53515 -0.411134 2.844 255 255 255
-0.410154 -0.0779091 2.844 255 255 255
-0.16448 -0.590688 2.489 255 255 255
-0.609359 0.147639 2.911 255 255 255
0.0981681 -0.500093 2.051 255 255 255
0.456653 0.417136 1.327 255 255 255
0.223667 0.457751 1.487 255 255 255
-1.18083 0.0172204 2.54 255 255 255
0.292889 0.327923 1.691 255 255 255
-0.8287 -0.378678 2.743 255 255 255
-1.05755 0.753805 2.085 255 255 255
-0.164194 0.524219 1.882 255 255 255
-1.22812 0.167396 2.561 255 255 255
0.565131 0.368968 1.52 0 0 0
-0.0325431 0.452154 1.724 255 255 255
0.115577 0.416768 1.599 255 255 255
0.248555 -0.565893 1.923 255 255 255
0.350038 0.394178 1.449 255 255 255
-0.757259 -0.320649 2.743 255 255 255
0.366702 0.471498 1.322 255 255 255
0.0962639 0.105937 2.158 255 255 255
-1.18083 -0.0199803 2.54 255 255 255
-0.188524 -0.598658 2.54 255 255 255
0.176129 0.431712 1.559 255 255 255
-0.83681 -0.384818 2.755 255 255 255
-0.354681 -0.518727 2.638 255 255 255
-0.582789 0.478205 1.587 255 255 255
0.0013656 0.29476 2.078 255 255 255
-0.074134 -0.473592 2.449 255 255 255
-0.633412 0.500212 1.559 255 255 255
-1.03539 -0.716731 2.204 255 255 255
-1.01975 -0.2356 2.593 255 255 255
0.0411016 0.35421 1.753 255 255 255
-0.845252 0.577775 1.739 255 255 255
-0.232766 -0.765249 2.572 255 255 255
-0.628346 -0.228337 2.707 255 255 255
0.326981 -0.328182 1.853 255 255 255
-0.707395 -0.845865 2.489 255 255 255
0.332928 0.485183 1.342 255 255 255
0.0038639 0.443499 1.691 255 255 255
-0.508055 0.472304 1.629 255 255 255
-0.984688 0.389813 2.78 255 255 255
-0.451731 0.517412 1.646 255 255 255
-0.138908 0.310693 2.54 255 255 255
0.187165 0.312307 1.758 255 255 255
-0.983232 -0.456169 2.42 255 255 255
0.456377 0.318249 1.655 255 255 255
-0.2364 -0.189743 2.66 255 255 255
0.246838 0.332516 1.659 255 255 255
-0.946259 -0.867291 2.329 255 255 255
-0.502855 0.113968 2.898 255 255 255
-0.118449 -0.853862 2.303 255 255 255
-0.116419 0.492018 1.853 0 0 0
-1.32601 0.558248 2.719 255 255 255
0.0869452 0.466208 1.599 255 255 255
-0.495139 0.403794 2.294 255 255 255
0.304526 0.217956 1.882 0 0 0
0.384397 -0.584169 1.744 0 0 0
0.633088 0.302516 1.547 255 255 255
-0.304068 -0.890295 2.684 255 255 255
-1.21144 0.213239 2.561 255 255 255
-1.17804 -0.0521913 2.499 255 255 255
-1.25443 0.177721 2.53 255 255 255
-0.599842 0.409663 1.612 255 255 255
0.302033 -0.282187 1.848 255 255 255
-0.0134292 -0.316693 2.294 255 255 255
0.408329 0.382205 1.422 255 255 255
-0.395062 0.502527 1.714 255 255 255
-0.565859 0.525945 1.583 255 255 255
-0.577281 0.529755 1.579 255 255 255
-0.711447 -0.829663 2.489 255 255 255
-0.206736 0.615275 1.799 255 255 255
-0.515503 -0.994984 2.626 255 255 255
-0.161558 0.485692 1.887 255 255 255
-0.141423 -0.598166 2.374 255 255 255
0.452935 0.424583 1.31 255 255 255
0.0820381 0.346329 1.714 255 255 255
1.10663 0.373456 2.793 0 0 0
0.481692 -0.0400172 2.078 255 255 255
-0.0437935 -0.0144743 2.32 255 255 255
0.210129 0.459906 1.494 255 255 255
0.0237459 0.0302724 2.278 255 255 255
0.422962 0.486165 1.265 255 255 255
0.268779 -0.186073 1.911 255 255 255
0.124025 -0.632589 2.037 255 255 255
-0.527281 0.510479 1.591 255 255 255
-1.13277 -0.517752 2.212 255 255 255
0.346365 0.271599 1.893 255 255 255
0.170446 -0.241435 2.037 255 255 255
0.740806 -0.329104 2.329 255 255 255
0.036553 0.599155 1.559 255 255 255
-0.613678 0.382551 1.642 255 255 255
-0.34025 0.621483 1.719 255 255 255
-1.08065 0.135416 2.509 255 255 255
0.378684 0.204394 1.87 255 255 255
-0.181413 -0.454794 2.499 255 255 255
-0.77051 -0.861797 2.42 255 255 255
-0.44248 0.364717 1.805 255 255 255
-0.526211 -0.0412723 2.871 255 255 255
0.304571 0.365077 1.567 255 255 255
-0.0566937 0.644381 1.691 255 255 255
0.525458 0.281929 1.587 0 0 0
-0.0470368 -0.656404 2.294 255 255 255
-0.108413 -0.590618 2.329 255 255 255
0.295844 -0.176188 1.905 255 255 255
0.0898585 -0.0595276 2.173 255 255 255
-0.955053 -0.195823 2.684 255 255 255
-0.0324639 -0.274977 2.32 255 255 255
-0.777835 0.458472 2.269 255 255 255
0.343254 -0.12466 1.876 255 255 255
-0.860639 -0.30147 2.731 255 255 255
-1.19201 -0.275015 2.42 255 255 255
-0.321663 -0.801091 2.649 255 255 255
0.26124 0.321369 1.7 255 255 255
-1.13781 0.37467 2.672 255 255 255
1.09984 0.142954 2.731 255 255 255
-0.937346 -0.388747 2.519 255 255 255
-0.215136 0.411523 1.899 255 255 255
0.226972 0.469094 1.477 255 255 255
0.198088 0.304458 1.779 255 255 255
-0.928259 0.18054 2.695 255 255 255
-0.484386 -0.751311 2.818 255 255 255
0.375719 -0.26397 1.826 0 0 0
-1.07763 -0.680155 2.286 255 255 255
-1.26388 -0.166734 2.392 255 255 255
-0.368798 -0.11978 2.743 255 255 255
0.301632 0.318029 1.758 255 255 255
-0.853076 -0.0697509 2.707 255 255 255
1.4412 0.0587416 2.967 255 255 255
-1.02275 -0.466243 2.411 255 255 255
-0.199161 0.630819 1.81 255 255 255
-0.971778 0.414052 2.731 255 255 255
-1.04956 -0.227292 2.374 255 255 255
-0.00570617 -0.696261 2.196 255 255 255
0.756206 -0.10098 2.402 255 255 255
-1.09611 -0.807522 2.278 255 255 255
-0.509663 -0.317115 2.831 255 255 255
0.650716 0.294963 1.547 255 255 255
-0.322729 0.174064 2.731 255 255 255
0.686789 0.333482 1.494 255 255 255
-0.765243 0.507435 2.805 0 0 0
0.0667457 -0.122671 2.228 255 255 255
0.120013 0.213309 2.143 255 255 255
-0.110631 0.319504 2.085 255 255 255
-0.484636 -0.726465 2.793 255 255 255
-0.636569 0.418476 2.884 255 255 255
-1.33806 0.452728 2.572 255 255 255
-0.861889 -0.135829 2.707 255 255 255
0.50069 0.275022 1.607 0 0 0
1.19813 0.105746 2.805 255 255 255
0.569472 -0.258502 2.181 255 255 255
0.171069 -0.172478 2.085 255 255 255
0.265668 -0.195402 1.911 255 255 255
0.115589 -0.479751 2.064 255 255 255
0.681151 0.300462 1.487 0 0 0
-0.0648742 0.350049 1.935 255 255 255
-0.16386 -0.857859 2.42 255 255 255
0.588651 0.36119 1.498 0 0 0
-0.627772 -0.414388 2.743 255 255 255
-1.14527 0.45335 2.649 255 255 255
0.0161504 -0.256037 2.253 255 255 255
-0.0327158 -0.513002 2.338 255 255 255
-0.647005 0.522699 1.543 255 255 255
0.0305876 -0.450595 2.236 255 255 255
-1.1487 0.593714 2.236 255 255 255
0.340954 -0.471636 1.769 255 255 255
-0.203459 -0.00767555 2.572 255 255 255
-0.609544 -0.86251 2.626 255 255 255
-1.19254 0.572407 2.374 255 255 255
-0.388776 0.419208 2.857 255 255 255
0.254103 -0.556744 1.991 255 255 255
-0.442734 0.378801 1.748 255 255 255
0.267518 -0.465379 1.859 255 255 255
-0.424977 -0.674785 2.731 255 255 255
0.0573197 0.257303 2.286 255 255 255
1.20915 -0.245958 2.707 255 255 255
-1.16751 0.309448 2.402 255 255 255
-0.164918 0.67293 1.729 255 255 255
1.08187 -0.205188 2.582 255 255 255
0.403791 0.362354 1.473 255 255 255
-0.424026 0.388442 1.753 255 255 255
0.360118 -0.0369167 1.917 255 255 255
-1.24716 -0.294706 2.42 255 255 255
-0.596933 0.324297 2.967 255 255 255
-0.681766 -0.120109 2.857 255 255 255
-0.624871 0.396965 2.831 255 255 255
-0.635652 -0.691324 2.593 255 255 255
-1.12399 0.611053 2.181 255 255 255
-0.937854 0.178196 2.66 255 255 255
-0.242683 0.529207 1.805 255 255 255
-0.292154 -0.165926 2.695 255 255 255
-0.689387 0.162009 2.831 255 255 255
0.17647 -0.019272 2.03 255 255 255
-0.358975 -0.737664 2.638 255 255 255
-0.0617575 -0.739676 2.286 255 255 255
-0.00962738 -0.518372 2.278 255 255 255
-0.104123 0.000675693 2.499 255 255 255
-0.554915 0.372945 1.734 255 255 255
-0.433302 0.0192815 2.844 255 255 255
-0.592103 0.20359 2.967 255 255 255
-0.761595 -0.8129 2.392 255 255 255
-0.386534 0.581737 1.677 255 255 255
0.177687 -0.0692988 2.044 255 255 255
-0.608669 0.584935 1.535 255 255 255
1.32598 -0.172699 2.805 255 255 255
-0.163819 -0.414847 2.479 255 255 255
-0.326048 -0.986561 2.615 255 255 255
-0.200945 -0.886369 2.489 255 255 255
0.738587 -0.142839 2.383 255 255 255
0.298769 -0.594495 1.81 255 255 255
-1.09151 -0.345311 2.593 255 255 255
-1.24831 -0.166734 2.392 255 255 255
-0.552371 -0.921065 2.54 255 255 255
-0.0622167 -0.797646 2.303 255 255 255
0.233259 0.420817 1.502 255 255 255
0.272999 0.231106 1.941 255 255 255
0.0294595 0.571177 1.587 255 255 255
0.266057 -0.614202 1.87 255 255 255
-0.866645 -0.874871 2.329 255 255 255
-0.449169 -0.601866 2.743 255 255 255
-0.591721 -0.520516 2.604 255 255 255
0.470299 -0.621948 1.779 255 255 255
-0.235364 0.546418 1.794 255 255 255
0.284333 -0.322905 1.911 255 255 255
-0.876446 -0.399452 2.509 255 255 255
-0.854566 -0.422946 2.684 255 255 255
-0.0582394 -0.809461 2.294 255 255 255
0.281913 0.361077 1.583 255 255 255
-0.376021 0.208079 2.831 255 255 255
1.3046 -0.0955401 2.818 255 255 255
0.127373 -0.0164562 2.092 255 255 255
0.68773 -0.340475 2.329 255 255 255
0.311349 -0.166888 1.905 255 255 255
1.26198 -0.277219 2.755 255 255 255
0.877133 -0.261866 2.561 255 255 255
-0.477855 -0.7638 2.78 255 255 255
-0.78748 -0.331019 2.755 255 255 255
-0.893887 -0.187088 2.684 255 255 255
-1.09514 0.0686921 2.459 255 255 255
-0.17612 -0.234918 2.54 255 255 255
-0.124368 0.484405 1.882 0 0 0
-0.63557 0.488459 2.967 255 255 255
-1.10107 -0.535999 2.228 255 255 255
-1.01079 -0.443106 2.392 255 255 255
-0.275765 0.465873 1.81 255 255 255
0.115832 0.0220354 2.196 255 255 255
-0.605873 0.554263 1.547 255 255 255
-0.0131892 -0.608009 2.253 255 255 255
0.997789 -0.00354841 2.615 255 255 255
-0.623228 -0.922072 2.509 255 255 255
-0.40249 0.493006 1.71 255 255 255
-0.117552 -0.106549 2.44 255 255 255
-0.187781 -0.608653 2.53 255 255 255
0.382666 0.236298 1.789 0 0 0
-0.0425287 -0.66667 2.253 255 255 255
-0.458174 -0.40753 2.884 255 255 255
-0.961213 -0.37748 2.347 255 255 255
0.259396 0.447734 1.47 255 255 255
-0.110689 0.336506 2.024 255 255 255
0.310845 0.377605 1.535 255 255 255
-0.53236 0.562009 1.583 255 255 255
-1.07747 0.0585546 2.54 255 255 255
0.17212 -0.786086 2.057 255 255 255
-0.592052 -0.271548 2.743 255 255 255
-0.486157 -0.543986 2.911 255 255 255
0.431094 0.443177 1.302 255 255 255
-1.12229 -0.497872 2.286 255 255 255
0.380828 0.437607 1.357 255 255 255
0.0960778 -0.374795 2.078 255 255 255
-0.46652 -0.812087 2.615 255 255 255
-0.126504 -0.00344664 2.54 255 255 255
-0.138481 -0.0873703 2.459 255 255 255
0.186383 0.0831358 2.03 255 255 255
-0.244979 0.614225 1.779 255 255 255
-0.340244 -1.00353 2.626 255 255 255
-1.01893 -0.229972 2.402 255 255 255
0.457337 0.481169 1.252 255 255 255
-0.29654 -0.157155 2.695 255 255 255
0.00113625 0.400006 1.729 255 255 255
0.184566 0.493052 1.484 255 255 255
-0.141297 0.049674 2.509 255 255 255
-1.13172 -0.739144 2.196 255 255 255
0.517709 0.34477 1.603 255 255 255
-0.0920743 0.354609 1.978 255 255 255
-0.653287 -0.906197 2.499 255 255 255
0.515064 0.197582 1.985 255 255 255
-0.655271 -0.441455 2.638 255 255 255
-0.545635 0.38613 1.705 255 255 255
-1.21466 -0.003391 2.499 255 255 255
0.175858 0.460831 1.513 255 255 255
0.246974 -0.472388 1.887 255 255 255
-1.04852 -0.18047 2.53 255 255 255
0.251618 0.072035 1.997 255 255 255
1.19902 0.385624 2.884 255 255 255
-0.505482 0.387262 1.71 255 255 255
0.500658 0.25553 1.65 255 255 255
0.0924502 -0.19194 2.151 255 255 255
-0.0293551 -0.242745 2.374 255 255 255
0.381759 -0.565972 1.758 0 0 0
-1.08179 -0.594299 2.189 255 255 255
-1.27927 0.124715 2.459 255 255 255
-0.744056 0.392776 1.629 255 255 255
-0.656565 -0.477907 2.626 255 255 255
-0.176319 0.318521 2.604 255 255 255
0.368652 0.0193563 1.929 255 255 255
0.139602 0.559587 1.494 255 255 255
-0.151782 0.324754 2.189 255 255 255
-0.811738 0.262948 2.731 255 255 255
-0.101576 0.67086 1.753 255 255 255
-0.16719 -0.373976 2.53 255 255 255
-0.249513 -0.894999 2.572 255 255 255
-0.40828 0.06987 2.831 255 255 255
0.158726 -0.719138 2.057 255 255 255
0.174868 0.345178 1.668 255 255 255
-0.274606 -0.0694417 2.695 255 255 255
-0.31887 -0.486454 2.626 255 255 255
0.4213 -0.2399 1.87 255 255 255
-0.541701 0.0541859 2.982 255 255 255
1.19844 -0.124244 2.743 255 255 255
0.68999 0.337583 1.48 255 255 255
0.158999 0.30172 1.763 255 255 255
0.557603 0.391891 1.513 0 0 0
0.591639 0.451106 1.194 255 255 255
0.234449 0.302426 1.837 255 255 255
-0.940706 -0.411966 2.392 255 255 255
-1.14844 -0.0719444 2.479 255 255 255
-0.0825782 0.482589 1.774 255 255 255
0.116406 0.4669 1.575 255 255 255
0.198327 0.184125 2.051 255 255 255
0.430977 -0.0942345 1.941 255 255 255
0.47806 0.288148 1.637 0 0 0
-0.641538 0.450099 1.579 255 255 255
0.665036 0.363121 1.351 0 0 0
-0.449493 -0.816342 2.615 255 255 255
0.364375 0.0474602 1.923 255 255 255
-0.590555 -0.893492 2.509 255 255 255
0.0115841 0.550057 1.616 255 255 255
-0.0963711 0.261988 2.509 255 255 255
0.664271 0.357131 1.345 0 0 0
-0.70412 -0.12592 2.78 255 255 255
-0.771063 0.259828 2.793 255 255 255
0.29612 0.212393 1.887 0 0 0
-1.1891 0.0502878 2.54 255 255 255
0.496091 0.439521 1.273 255 255 255
0.491205 -0.300191 1.905 255 255 255
0.787486 -0.292514 2.402 255 255 255
0.209359 -0.0807044 1.997 255 255 255
-1.02104 -0.81357 2.204 255 255 255
0.0395307 0.417495 1.686 255 255 255
-1.11822 0.188738 2.626 255 255 255
0.793376 -0.0515648 2.469 255 255 255
0.16455 -0.498598 1.929 255 255 255
0.675825 0.336597 1.396 255 255 255
0.287332 -0.488166 1.831 255 255 255
0.661675 0.286367 1.555 0 0 0
-1.08921 -0.354481 2.204 255 255 255
-0.717859 -0.882749 2.402 255 255 255
-0.778166 -0.157854 2.707 255 255 255
-1.12399 -0.44661 2.181 255 255 255
-1.03243 -0.175095 2.572 255 255 255
-0.511713 0.507842 1.599 255 255 255
0.236404 0.441998 1.491 255 255 255
0.318824 -0.179612 1.876 255 255 255
-0.00679157 0.607142 1.607 255 255 255
0.00514805 -0.0250554 2.253 255 255 255
1.42479 0.0776865 2.953 255 255 255
-0.654563 -0.378678 2.743 255 255 255
0.46609 -0.631747 1.774 0 0 0
0.114861 -0.536807 2.051 255 255 255
-0.580946 0.533539 1.575 255 255 255
-1.1395 0.335526 2.707 255 255 255
-0.308293 0.656064 1.744 255 255 255
0.367907 -0.452761 1.774 0 0 0
-1.14885 -0.602775 2.181 255 255 255
-0.528804 0.0813187 2.911 255 255 255
-0.834798 0.117108 2.649 255 255 255
-0.834363 -0.831128 2.411 255 255 255
-0.0347753 0.48345 1.696 255 255 255
0.178969 0.55772 1.439 255 255 255
0.565131 0.376389 1.52 0 0 0
-1.04569 -0.405002 2.374 255 255 255
0.0115841 0.542168 1.616 255 255 255
0.71376 0.243103 2.365 255 255 255
0.0123001 0.289614 2.22 255 255 255
-0.674085 0.420326 1.583 255 255 255
0.0721724 -0.21512 2.173 255 255 255
-0.967801 -0.674188 2.411 255 255 255
0.372746 -0.26397 1.826 0 0 0
0.481027 0.28674 1.629 0 0 0
0.0530124 -0.341572 2.261 255 255 255
0.0464643 0.59608 1.551 255 255 255
-0.274089 0.506955 1.799 255 255 255
-1.24479 0.0423683 2.561 255 255 255
0.288286 -0.066417 1.959 255 255 255
-0.357335 0.33255 2.793 255 255 255
-0.0619775 0.4423 1.763 255 255 255
1.41011 -0.338588 2.818 0 0 0
0.615483 0.392631 1.452 0 0 0
0.25661 0.524981 1.366 255 255 255
0.40966 0.46012 1.308 255 255 255
0.297448 0.186732 1.876 255 255 255
1.36523 -0.0322284 2.898 255 255 255
-0.306953 0.469714 1.769 255 255 255
0.39579 0.3664 1.47 255 255 255
0.645668 0.315157 1.535 255 255 255
0.364019 0.267279 1.842 255 255 255
0.450172 0.419295 1.327 255 255 255
0.0961035 0.26623 2.236 255 255 255
-0.173407 -0.511921 2.561 255 255 255
-0.41422 0.59509 1.646 255 255 255
-0.457781 0.540874 1.62 255 255 255
0.346672 0.091556 1.929 255 255 255
-0.560436 0.543791 1.575 255 255 255
-1.02824 -0.162539 2.572 255 255 255
0.360791 0.474366 1.324 255 255 255
-1.1205 0.311629 2.582 255 255 255
-0.0718636 -0.54408 2.374 255 255 255
-0.376665 0.158404 2.768 255 255 255
-0.51986 0.30309 2.996 255 255 255
-1.05241 -0.420066 2.329 255 255 255
-0.981765 -0.332652 2.593 255 255 255
0.33269 0.443369 1.396 255 255 255
0.0887109 -0.520057 2.064 255 255 255
-0.564181 0.0668076 2.898 255 255 255
-0.113484 0.428324 1.905 255 255 255
0.92912 -0.161992 2.499 255 255 255
-0.909119 -0.305544 2.509 255 255 255
-0.193628 0.327593 2.03 255 255 255
-0.646683 -0.630342 2.638 255 255 255
-1.04663 -0.280106 2.43 255 255 255
0.610708 0.276764 1.587 255 255 255
-1.01134 0.000692457 2.561 255 255 255
0.19341 -0.528489 1.935 255 255 255
-0.770117 -0.0165269 2.649 255 255 255
-0.686221 -0.15057 2.818 255 255 255
0.100507 0.321172 1.744 255 255 255
-0.946513 0.204168 2.66 255 255 255
0.076511 -0.317458 2.196 255 255 255
0.643052 0.085634 2.374 255 255 255
0.145304 -0.508162 1.966 255 255 255
0.398591 -0.674987 1.744 0 0 0
-0.462869 0.0148594 2.884 255 255 255
0.494375 0.341459 1.612 0 0 0
-0.133129 -0.538273 2.509 255 255 255
0.274066 -0.655963 1.842 255 255 255
-0.409831 -0.689519 2.719 255 255 255
-0.517063 -0.546602 2.925 255 255 255
-0.891669 -0.144584 2.626 255 255 255
-0.0728198 0.597157 1.682 255 255 255
-1.03218 -0.245195 2.561 255 255 255
0.364412 0.413425 1.387 255 255 255
-0.0867966 -0.180137 2.469 255 255 255
0.998185 -0.289212 2.509 255 255 255
0.470004 -0.325107 1.87 0 0 0
0.136058 0.415726 1.595 255 255 255
0.323552 0.123712 1.941 255 255 255
0.646313 -0.145539 2.303 255 255 255
0.286403 0.483552 1.381 255 255 255
0.0161504 -0.0323882 2.253 255 255 255
0.448679 0.374178 1.463 255 255 255
0.211658 0.398731 1.559 0 0 0
-0.0980529 -0.106942 2.449 255 255 255
-0.987171 -0.460108 2.42 255 255 255
0.00400557 0.388442 1.753 255 255 255
-1.11261 0.464864 2.593 255 255 255
0.00105608 0.588836 1.607 255 255 255
0.390633 0.389968 1.425 255 255 255
-0.269654 0.524516 1.789 255 255 255
-0.1359 0.545769 1.831 0 0 0
-0.31108 -0.884709 2.707 255 255 255
-0.626705 -0.300145 2.719 255 255 255
-1.19879 -0.0540743 2.402 255 255 255
-0.926238 -0.869151 2.365 255 255 255
-0.882231 0.513701 2.649 255 255 255
-1.09791 -0.336685 2.329 255 255 255
0.638815 -0.265467 2.303 255 255 255
-1.02195 -0.733381 2.278 255 255 255
-0.0852251 0.495622 1.769 255 255 255
-0.483208 -0.752474 2.66 255 255 255
0.196935 0.404841 1.563 255 255 255
0.170415 0.501309 1.487 255 255 255
-0.705663 0.390606 1.62 255 255 255
0.229208 -0.188803 1.972 255 255 255
-0.980379 -0.76117 2.329 255 255 255
-0.29184 0.427981 1.837 255 255 255
1.10021 0.15251 2.743 255 255 255
0.0167597 -0.170579 2.338 255 255 255
-0.648317 0.425478 1.583 255 255 255
0.823355 0.0657428 2.499 255 255 255
-0.454591 0.527902 1.637 255 255 255
-0.309079 0.23498 2.768 255 255 255
-0.53167 -0.345912 2.731 255 255 255
-1.24616 0.33543 2.449 255 255 255
-1.208 -0.316147 2.374 255 255 255
0.114044 0.324974 1.734 255 255 255
-0.943976 -0.243004 2.582 255 255 255
0.247759 -0.150434 1.893 255 255 255
0.00530115 0.0383813 2.32 255 255 255
-0.563752 0.35672 2.996 255 255 255
-0.0760151 -0.138961 2.383 255 255 255
1.08479 -0.233993 2.53 255 255 255
-0.656989 -0.816155 2.561 255 255 255
0.971953 0.177459 2.649 255 255 255
-0.173407 0.167396 2.561 255 255 255
-0.155981 -0.672767 2.42 255 255 255
1.29786 -0.322052 2.755 0 0 0
0.426482 -0.224367 1.893 255 255 255
0.0504447 0.248942 2.312 255 255 255
-0.689704 0.57794 1.543 255 255 255
0.379364 -0.274194 1.815 255 255 255
0.120013 0.234233 2.143 255 255 255
-0.0100331 -0.153889 2.374 255 255 255
0.241538 -0.16482 1.917 255 255 255
-0.744828 0.463875 1.591 255 255 255
0.245534 -0.658912 1.876 255 255 255
0.0990831 -0.0412689 2.143 255 255 255
0.183255 0.313375 1.748 255 255 255
-1.00329 -0.691216 2.402 255 255 255
-0.690037 -0.276794 2.707 255 255 255
0.605857 0.343228 1.463 0 0 0
-0.675364 0.233876 2.755 255 255 255
0.944364 -0.0654479 2.54 255 255 255
-0.970625 0.358455 2.818 255 255 255
0.555337 0.272164 1.637 255 255 255
-0.280641 0.426149 1.842 255 255 255
-1.12534 -0.822439 2.143 255 255 255
0.484779 -0.445352 1.779 0 0 0
0.654595 0.374125 1.409 0 0 0
0.192421 0.00054726 2.024 255 255 255
0.657838 -0.318191 2.278 255 255 255
-0.301323 0.599542 1.753 255 255 255
0.201601 -0.456366 1.923 255 255 255
-0.0697818 0.336482 1.985 255 255 255
-0.230445 0.00492077 2.593 255 255 255
0.0828256 -0.80018 2.085 255 255 255
0.515958 0.392239 1.4 255 255 255
-0.514619 0.446889 1.633 255 255 255
-0.161964 -0.859611 2.392 255 255 255
-1.10424 0.379577 2.707 255 255 255
-0.283126 0.667303 1.729 255 255 255
0.71376 -0.218733 2.365 255 255 255
-1.05266 -0.713722 2.173 255 255 255
0.102236 0.309376 1.774 255 255 255
0.206108 -0.028708 1.997 255 255 255
-0.142749 0.499718 1.882 255 255 255
0.132657 -0.465544 2.017 255 255 255
-1.13454 -0.448555 2.244 255 255 255
-0.73035 0.560306 1.571 255 255 255
0.447497 0.200812 1.865 255 255 255
-0.730891 -0.775646 2.459 255 255 255
0.328384 0.375522 1.547 255 255 255
0.502115 0.0215839 2.151 255 255 255
0.00911287 -0.382165 2.329 255 255 255
0.379458 -0.501838 1.774 0 0 0
0.651148 0.417939 1.387 0 0 0
-0.826302 -0.53371 2.469 255 255 255
0.168773 0.27626 2.017 0 0 0
0.453683 0.318249 1.655 255 255 255
-0.659191 -0.267984 2.707 255 255 255
-0.0340721 0.397027 1.805 255 255 255
0.536283 0.455262 1.205 255 255 255
0.793376 -0.0475469 2.469 255 255 255
-1.09866 -0.314179 2.449 255 255 255
-0.486899 0.597805 1.603 255 255 255
-0.560315 -0.0656354 2.719 255 255 255
-0.916809 0.326478 2.78 255 255 255
-0.706373 -0.198377 2.719 255 255 255
0.354325 0.48083 1.324 255 255 255
0.7257 0.297014 1.494 255 255 255
0.522552 0.459184 1.205 255 255 255
0.458646 0.424108 1.302 255 255 255
-0.679018 -0.888854 2.519 255 255 255
-1.00297 0.405931 2.649 255 255 255
-0.032226 -0.306692 2.303 255 255 255
-1.14776 0.178424 2.54 255 255 255
0.33683 0.346754 1.637 255 255 255
-0.778741 -0.0596349 2.649 255 255 255
-0.0261337 0.517731 1.673 255 255 255
-0.418228 -0.0494528 2.805 255 255 255
0.139707 -0.388111 2.024 255 255 255
0.310327 -0.534377 1.826 0 0 0
0.684456 0.286367 1.555 0 0 0
0.524988 0.369873 1.555 0 0 0
0.275567 0.476289 1.406 255 255 255
-1.13778 -0.326879 2.236 255 255 255
-0.963122 -0.792418 2.449 255 255 255
0.301411 -0.636386 1.724 0 0 0
0.264491 -0.468404 1.859 255 255 255
0.690388 -0.246673 2.338 0 0 0
-0.381074 0.595382 1.677 255 255 255
0.712405 0.274692 1.959 255 255 255
-0.508001 0.504101 1.612 255 255 255
-1.30631 0.141731 2.626 255 255 255
0.423987 -0.284268 1.842 255 255 255
-0.937551 0.377364 2.857 255 255 255
0.668774 -0.150972 2.329 255 255 255
-0.800933 -0.452067 2.755 255 255 255
0.402933 -0.558975 1.763 0 0 0
0.131767 0.285791 1.865 255 255 255
-0.46525 0.503927 1.637 255 255 255
-0.968612 -0.225778 2.626 255 255 255
0.168419 0.549806 1.449 255 255 255
-0.689624 -0.711907 2.638 255 255 255
0.290408 -0.434658 1.87 255 255 255
-0.676742 -0.510141 2.638 255 255 255
-0.0542015 -0.178678 2.449 255 255 255
0.507943 0.210326 1.842 255 255 255
0.612684 0.252207 1.7 255 255 255
-0.492258 0.519549 1.595 255 255 255
1.42479 0.0104095 2.953 255 255 255
-0.0355844 -0.618462 2.278 255 255 255
0.3407 -0.588692 1.724 255 255 255
-0.67096 0.142902 2.911 255 255 255
0.39199 0.459742 1.313 255 255 255
1.34164 0.0903876 2.898 255 255 255
-0.170252 0.544822 1.848 255 255 255
0.631452 0.306755 1.543 255 255 255
0.382433 0.273551 1.748 255 255 255
1.25988 -0.337023 2.731 255 255 255
-0.744907 -0.475359 2.479 255 255 255
-0.558359 0.427628 1.591 255 255 255
0.131105 -0.544954 2.044 255 255 255
0.40255 0.15457 1.972 255 255 255
-1.00739 -0.067973 2.638 255 255 255
-0.546057 0.417463 1.664 255 255 255
0.359299 0.333353 1.719 0 0 0
-0.0469836 -0.21805 2.489 255 255 255
-1.18437 0.359372 2.593 255 255 255
0.288346 0.271923 1.917 255 255 255
-0.922467 0.219466 2.743 255 255 255
-0.715006 0.521958 1.571 255 255 255
0.313299 -0.534377 1.826 0 0 0
-1.12248 -0.462283 2.294 255 255 255
-0.575347 -0.738582 2.626 255 255 255
-0.517881 0.38613 1.705 255 255 255
0.701381 0.292151 1.494 0 0 0
-1.22034 -0.247543 2.383 255 255 255
-0.0885849 0.356742 1.972 255 255 255
0.14392 -0.420438 2.037 255 255 255
-0.739621 0.0226569 2.695 255 255 255
-0.975082 -0.497504 2.449 255 255 255
-0.0763739 -0.852007 2.278 255 255 255
-0.257941 -0.382285 2.615 255 255 255
-0.425981 0.0891088 2.857 255 255 255
-0.319893 -0.334062 2.707 255 255 255
-0.0510352 -0.201848 2.489 255 255 255
0.0395945 0.236523 2.338 255 255 255
0.639188 0.0624544 2.374 255 255 255
0.262332 -0.156099 1.887 255 255 255
-0.617395 0.461543 1.583 255 255 255
-1.19266 0.128315 2.53 255 255 255
0.854904 0.278014 2.582 255 255 255
-0.0698268 0.306943 2.189 255 255 255
0.434248 -0.673052 1.739 255 255 255
0.39066 0.268539 1.734 0 0 0
-0.0250075 -0.348055 2.329 255 255 255
0.332366 -0.617304 1.71 255 255 255
-0.515503 -0.730035 2.626 255 255 255
1.24038 -0.0588536 2.818 255 255 255
-0.951044 -0.395494 2.459 255 255 255
-0.704525 -0.341352 2.695 255 255 255
0.224508 -0.369271 1.959 255 255 255
0.451134 -0.267495 1.893 255 255 255
-1.21391 0.456425 2.593 255 255 255
0.275958 -0.67293 1.815 255 255 255
-0.319893 -0.122613 2.707 255 255 255
-0.567234 -0.856999 2.731 255 255 255
-0.0049812 0.315597 1.917 255 255 255
1.37741 -0.0649252 2.884 255 255 255
0.459436 0.27208 1.686 0 0 0
0.239426 -0.649754 1.876 255 255 255
0.184828 -0.691519 1.978 255 255 255
-0.826303 0.177187 2.78 255 255 255
0.272175 0.516089 1.366 255 255 255
0.241705 -0.614202 1.87 255 255 255
-0.256856 -0.384914 2.604 255 255 255
-1.07432 -0.564823 2.43 255 255 255
-0.98123 0.213785 2.672 255 255 255
0.632585 -0.092707 2.294 255 255 255
-0.138602 -0.641627 2.392 255 255 255
-0.179622 0.590202 1.821 255 255 255
-0.70782 0.452248 2.831 255 255 255
-1.08293 -0.800675 2.228 255 255 255
1.07465 -0.178771 2.626 255 255 255
-0.213724 0.656595 1.784 255 255 255
-0.0994602 0.348266 1.997 255 255 255
-0.41422 0.592412 1.646 255 255 255
-0.0332412 0.305315 2.128 255 255 255
0.439677 -0.446603 1.784 255 255 255
0.277865 0.245247 1.953 255 255 255
0.247779 -0.364474 1.917 255 255 255
-0.254751 -0.811229 2.626 255 255 255
0.578812 0.212345 2.099 255 255 255
-1.10764 -0.0676363 2.469 255 255 255
-0.09008 0.164061 2.449 255 255 255
0.427006 0.312128 1.71 255 255 255
-0.627189 -0.36569 2.78 255 255 255
0.309474 0.360164 1.579 255 255 255
-0.632752 -0.237148 2.707 255 255 255
-1.02251 -0.212642 2.383 255 255 255
0.0554982 0.284256 1.959 255 255 255
0.057662 0.431364 1.655 255 255 255
0.147311 -0.148727 2.085 255 255 255
0.0201704 0.296518 1.935 255 255 255
-0.380529 0.508264 1.724 255 255 255
