ply
format ascii 1.0
comment Created by Open3D
element vertex 1306
property double x
property double y
property double z
property uchar red
property uchar green
property uchar blue
end_header
0.187407 -0.794112 2.078 255 255 255
-0.569847 -0.205839 2.114 255 255 255
-0.626172 0.399615 1.505 255 255 255
-0.138861 -0.213546 2.269 255 255 255
-0.319197 -0.660147 2.03 255 255 255
0.165015 0.327316 2.509 255 255 255
-0.532112 0.389462 1.449 255 255 255
-0.416311 0.30187 1.393 255 255 255
-0.825634 -0.17402 2.024 255 255 255
-0.696413 0.395319 1.498 255 255 255
0.815213 -0.53935 2.212 255 255 255
-0.716339 0.148008 1.591 255 255 255
0.589832 0.409661 1.345 255 255 255
-0.546205 0.32862 1.494 255 255 255
-0.331 0.633123 2.196 255 255 255
-0.923481 -0.290313 2.128 255 255 255
0.0805364 -0.739066 2.114 255 255 255
-0.455575 -0.513339 2.064 255 255 255
1.02837 -0.483352 2.253 255 255 255
0.778976 0.0524714 2.449 255 255 255
-0.436893 0.634157 2.071 255 255 255
-0.290749 0.613294 2.189 255 255 255
1.0024 -0.276044 2.329 255 255 255
0.369725 0.258242 1.39 255 255 255
-0.354785 0.344451 1.419 255 255 255
-0.86113 -0.511942 2.128 255 255 255
-0.372475 0.364462 1.416 255 255 255
0.521399 -0.512159 2.173 255 255 255
0.516769 0.331586 1.366 255 255 255
-0.23091 -0.431814 2.196 0 0 0
0.220804 0.360294 2.54 255 255 255
0.953396 -0.616253 2.166 255 255 255
-0.185559 -0.234039 2.253 255 255 255
0.111491 -0.556635 2.181 255 255 255
0.520338 0.233408 2.509 255 255 255
1.03324 0.0210621 2.099 255 255 255
-0.0548415 -0.742734 2.03 255 255 255
-0.733467 -0.616972 2.181 255 255 255
0.118389 -0.498253 2.114 255 255 255
0.271904 -0.69826 2.158 255 255 255
1.03452 -0.617641 2.196 255 255 255
0.205169 0.48257 1.294 255 255 255
-0.405462 0.606176 1.551 255 255 255
0.390943 -0.112238 2.392 255 255 255
1.00251 -0.229402 2.356 255 255 255
-0.711214 -0.334257 2.189 255 255 255
0.174119 0.225926 1.4 255 255 255
1.0238 -0.142351 2.196 255 255 255
-0.52745 -0.355419 2.166 0 0 0
0.0259234 -0.580482 2.151 0 0 0
-0.570607 0.0194767 1.941 255 255 255
-0.642535 -0.619556 2.071 255 255 255
-0.473551 -0.0950738 2.099 255 255 255
-0.035722 -0.562263 2.071 255 255 255
-0.785565 0.089324 1.655 255 255 255
-0.226045 0.0869687 2.411 255 255 255
0.762849 -0.146163 2.374 255 255 255
-0.225201 0.528343 2.402 255 255 255
-0.294858 0.144313 1.668 255 255 255
0.203847 0.41679 1.299 255 255 255
0.874075 0.294159 2.54 255 255 255
0.937557 0.158639 2.489 255 255 255
-1.08386 -0.442804 2.064 0 0 0
-0.222708 -0.78665 2.024 255 255 255
-0.875652 -0.0759808 1.959 255 255 255
0.783376 -0.740047 2.107 255 255 255
-0.64868 0.339676 1.616 255 255 255
-0.697964 -0.304642 2.181 255 255 255
-0.659055 0.290943 1.513 255 255 255
0.179184 0.117661 2.479 255 255 255
0.544826 0.235447 1.459 255 255 255
0.112228 0.414223 1.291 255 255 255
-0.441192 0.301109 1.4 255 255 255
0.865125 -0.745946 2.114 255 255 255
-0.0823581 -0.612021 2.057 255 255 255
-0.545522 0.035488 1.953 255 255 255
-0.369469 0.731893 2.071 255 255 255
-1.08946 -0.329685 2.114 255 255 255
0.209971 0.245334 1.381 255 255 255
-0.342956 0.74143 1.905 255 255 255
-0.412091 0.116537 1.659 255 255 255
-0.595584 0.45748 1.502 0 0 0
0.477166 -0.435962 2.181 255 255 255
1.03666 -0.170221 2.099 255 255 255
-0.507688 -0.0601036 2.071 255 255 255
-0.67753 0.401557 1.494 255 255 255
0.298818 0.35909 1.336 255 255 255
-0.346882 0.390109 2.519 255 255 255
-0.698272 0.271718 1.502 255 255 255
-0.236931 -0.0462567 2.402 255 255 255
-0.951292 -0.374828 2.136 255 255 255
0.517121 0.252617 1.422 255 255 255
0.990593 0.0869687 2.411 255 255 255
-0.419027 -0.334257 2.189 255 255 255
-1.08617 -0.344583 2.121 255 255 255
0.982473 0.106984 2.42 255 255 255
-0.392211 0.270716 1.396 255 255 255
0.392827 -0.615831 2.128 255 255 255
0.411893 0.428472 1.322 255 255 255
0.0543108 -0.633877 2.166 0 0 0
0.169452 -0.460402 2.196 255 255 255
-0.368922 0.00673636 1.911 255 255 255
1.0535 0.0718163 2.085 255 255 255
1.05713 -0.262318 2.244 255 255 255
1.00249 0.168021 2.286 255 255 255
0.0730833 0.357128 1.305 255 255 255
0.750715 -0.618986 2.151 255 255 255
-0.358124 0.238911 1.396 255 255 255
0.322504 0.27276 1.372 255 255 255
-0.515178 -0.318614 2.204 255 255 255
-0.730971 0.505127 1.484 255 255 255
-0.10967 -0.0568728 2.356 255 255 255
0.990574 -0.201767 2.392 255 255 255
1.06011 -0.679138 2.078 255 255 255
0.656498 0.297668 1.384 255 255 255
0.762143 0.204747 2.459 255 255 255
-0.184982 -0.611479 2.044 255 255 255
0.134251 0.37433 2.469 255 255 255
-0.401871 0.510776 2.43 255 255 255
0.089677 0.268772 2.459 255 255 255
-0.400495 0.581299 1.532 255 255 255
-0.0154425 0.490944 2.064 255 255 255
-0.365264 0.183928 2.253 0 0 0
0.0813929 0.470722 1.302 255 255 255
-0.720072 -0.215133 2.071 255 255 255
-0.529753 0.389462 1.449 255 255 255
-0.823293 -0.64695 2.051 255 255 255
0.490327 -0.0931628 2.402 255 255 255
-0.193682 -0.284801 2.22 255 255 255
0.438943 0.318248 1.366 255 255 255
0.271782 -0.265969 2.244 255 255 255
0.124219 0.0204291 2.43 255 255 255
1.02405 0.0797904 2.212 255 255 255
-0.757266 -0.182392 2.044 255 255 255
-0.138875 -0.49008 2.051 255 255 255
0.0924637 -0.450595 2.236 255 255 255
-0.0586632 0.161383 2.469 255 255 255
-0.513731 0.0291316 1.953 255 255 255
-1.08929 -0.390311 2.107 255 255 255
-0.182841 0.611141 2.22 255 255 255
-0.747815 -0.748416 2.121 255 255 255
-0.0583464 -0.73535 2.037 255 255 255
1.01011 0.160019 2.278 255 255 255
-0.504396 -0.00942611 2.044 255 255 255
-0.99364 -0.181183 1.959 255 255 255
0.317568 0.332342 1.351 255 255 255
-0.0614504 -0.73943 2.03 255 255 255
-0.295455 0.149961 1.612 255 255 255
0.970649 -0.599226 2.181 255 255 255
-0.318984 0.0950752 1.71 255 255 255
0.601411 -0.581811 2.143 255 255 255
0.241959 -0.547521 2.173 255 255 255
0.99559 0.267759 2.189 255 255 255
-0.635043 0.226794 1.48 255 255 255
0.871716 0.366251 2.582 0 0 0
-0.350035 0.241874 1.4 255 255 255
0.152156 0.397416 1.291 255 255 255
-0.191438 -0.26866 2.236 255 255 255
-0.0540499 0.734424 1.887 255 255 255
-0.653669 0.212917 1.484 255 255 255
0.22781 -0.565202 2.173 255 255 255
-0.817156 -0.691309 2.044 255 255 255
-0.80277 0.367459 1.524 255 255 255
1.04905 -0.0209239 2.204 255 255 255
-0.117025 0.348866 2.078 255 255 255
-0.180864 -0.356768 2.196 0 0 0
0.490037 -0.656501 2.114 255 255 255
-0.912454 -0.363458 2.151 255 255 255
-0.692537 0.359751 1.555 255 255 255
-0.338955 -0.0321658 2.01 255 255 255
0.514608 -0.404019 2.22 255 255 255
0.468877 0.312264 1.369 255 255 255
-0.354322 0.246932 1.39 255 255 255
0.672407 0.439816 1.357 255 255 255
-0.46894 0.272464 1.429 255 255 255
-0.430119 -0.177056 2.228 255 255 255
0.212319 0.122186 2.489 255 255 255
-0.228411 0.682897 2.107 255 255 255
-0.141177 -0.467668 2.085 255 255 255
0.97706 -0.405475 2.228 255 255 255
-0.363373 0.258242 1.39 255 255 255
-0.581184 0.145296 1.535 255 255 255
-0.777674 0.540649 1.509 255 255 255
0.816169 -0.201008 2.383 255 255 255
-0.132892 0.18256 2.43 255 255 255
-0.0582394 -0.215899 2.294 255 255 255
0.706948 -0.37232 2.269 255 255 255
-0.43365 -0.356567 2.173 0 0 0
0.703591 -0.438559 2.212 255 255 255
-0.17324 0.426333 2.236 255 255 255
-0.758062 0.245853 1.539 255 255 255
0.0485036 0.400764 1.33 255 255 255
0.406435 0.337487 1.354 255 255 255
-0.467134 0.421307 1.445 255 255 255
-0.397788 0.650764 2.114 255 255 255
0.876106 -0.5016 2.158 255 255 255
0.902398 -0.164852 2.365 255 255 255
-0.376252 -0.646072 2.017 255 255 255
-0.78323 -0.189692 2.051 255 255 255
-0.0388146 0.712115 1.893 255 255 255
-0.151867 -0.465833 2.092 255 255 255
0.986412 0.0557882 2.42 255 255 255
-0.388731 0.48437 1.487 255 255 255
-0.759071 0.553025 1.516 255 255 255
0.108164 0.291468 1.345 255 255 255
-0.693383 0.225277 1.502 255 255 255
0.420043 -0.279576 2.236 255 255 255
-0.377089 -0.726698 2.004 255 255 255
-0.335757 0.731893 2.071 255 255 255
0.558865 0.451414 1.339 255 255 255
0.678006 -0.0970716 2.402 255 255 255
-0.670853 -0.705759 2.107 0 0 0
0.438002 0.40692 1.336 255 255 255
0.907887 -0.34671 2.32 255 255 255
-0.967739 -0.751144 1.991 0 0 0
1.01334 -0.0769598 2.166 255 255 255
0.0556648 -0.335378 2.22 255 255 255
0.986533 0.0836996 2.43 255 255 255
-0.0555737 -0.448248 2.189 255 255 255
-0.276798 -0.313702 2.22 255 255 255
-0.781407 -0.321031 2.196 255 255 255
0.202592 0.485653 1.291 255 255 255
0.768772 -0.708104 2.114 255 255 255
0.43107 0.359105 2.561 0 0 0
0.552712 0.327772 1.378 255 255 255
0.687267 0.376871 1.369 255 255 255
-0.417356 0.183242 1.539 255 255 255
1.00929 0.144987 2.064 255 255 255
0.0470846 -0.592906 2.158 0 0 0
0.601424 -0.475004 2.181 255 255 255
0.353112 0.339627 2.54 0 0 0
0.506093 0.34376 2.54 0 0 0
0.496423 0.385175 1.359 255 255 255
-0.509404 -0.0975042 2.078 255 255 255
-0.441014 0.120981 1.646 255 255 255
-0.185656 -0.456535 2.128 255 255 255
-0.775905 0.403104 1.473 255 255 255
1.05839 -0.546937 2.143 255 255 255
0.663571 0.455274 1.357 255 255 255
-0.00206551 0.315704 2.128 255 255 255
0.364558 -0.26337 2.253 255 255 255
-0.624194 -0.488748 2.261 0 0 0
1.03256 0.192813 2.037 255 255 255
-0.056406 -0.0611706 2.374 255 255 255
-0.295787 0.31808 2.469 255 255 255
-0.318247 -0.469994 2.158 255 255 255
0.337268 0.462248 1.308 255 255 255
-0.0486021 0.286483 2.196 255 255 255
1.03718 -0.0888729 2.114 255 255 255
-0.215663 0.708137 2.051 255 255 255
-0.364527 0.333561 1.412 255 255 255
0.675529 0.21448 2.479 255 255 255
-0.160455 0.353833 2.261 255 255 255
0.271904 -0.368153 2.158 255 255 255
-0.74597 0.112323 1.599 255 255 255
-0.652958 -0.299988 2.173 255 255 255
-0.757374 0.212488 1.498 255 255 255
-0.64071 -0.0700668 1.972 255 255 255
0.692432 0.40272 1.366 255 255 255
0.439939 0.380961 2.54 255 255 255
0.22781 -0.360103 2.173 255 255 255
-0.70237 -0.356458 2.151 255 255 255
0.0830889 -0.475004 2.181 255 255 255
0.33039 -0.416682 2.173 255 255 255
-0.553813 -0.759251 2.03 255 255 255
-0.337986 0.17967 1.509 255 255 255
-0.890622 -0.645849 2.037 255 255 255
-0.553511 0.144266 1.607 255 255 255
-0.315591 0.0717917 1.753 255 255 255
0.355604 -0.335378 2.22 255 255 255
0.308795 0.243361 1.422 255 255 255
-0.632413 0.579219 1.52 255 255 255
0.272285 0.304025 2.519 255 255 255
0.5816 0.233408 2.509 255 255 255
-0.334618 0.080079 2.22 0 0 0
0.110638 0.39082 1.297 255 255 255
0.49898 0.32714 1.366 255 255 255
-0.194964 -0.538301 2.044 255 255 255
0.22025 0.257693 1.375 255 255 255
-0.388154 0.345872 1.406 255 255 255
-0.648089 -0.621651 2.078 255 255 255
0.253082 0.27681 1.359 255 255 255
0.535131 -0.703868 2.143 255 255 255
-0.576527 -0.664486 2.064 255 255 255
-0.229969 0.0163459 2.411 255 255 255
-0.122968 0.101114 2.469 255 255 255
-0.458167 0.403166 1.439 255 255 255
-0.309322 -0.263125 2.22 255 255 255
1.0509 -0.798336 2.107 255 255 255
0.233027 -0.15617 2.294 255 255 255
0.0773472 -0.306477 2.22 255 255 255
0.452343 0.376828 2.54 255 255 255
-0.0200777 -0.444146 2.204 255 255 255
-0.596267 -0.560171 2.051 255 255 255
-0.989149 -0.330695 2.189 255 255 255
0.551667 0.297022 1.381 255 255 255
0.231442 0.257693 1.375 255 255 255
-0.346625 0.248764 2.459 255 255 255
0.0893492 0.224797 1.393 255 255 255
-0.421423 0.224649 1.466 255 255 255
0.611876 -0.546937 2.143 255 255 255
-0.633756 0.495534 1.477 255 255 255
0.181741 0.300785 2.459 255 255 255
0.532663 0.277531 1.396 255 255 255
-0.887364 -0.134657 1.978 255 255 255
0.324455 0.246753 2.479 255 255 255
0.154616 -0.762014 2.092 255 255 255
-0.303993 -0.128167 2.261 255 255 255
0.688041 0.362859 1.375 255 255 255
-0.728015 0.556855 1.513 255 255 255
-0.401851 0.194403 1.509 255 255 255
0.0711222 0.509076 1.308 255 255 255
1.00985 -0.0220251 2.32 255 255 255
-0.0505611 0.641222 2.128 255 255 255
-0.563228 0.165728 1.494 255 255 255
0.00853378 -0.475004 2.181 0 0 0
0.485822 0.421543 1.348 255 255 255
-0.385722 0.606793 2.244 255 255 255
0.467835 -0.753762 2.107 255 255 255
-0.457439 0.082538 1.739 255 255 255
-0.579651 0.101175 1.629 255 255 255
0.511648 -0.0227087 2.392 255 255 255
0.780085 0.211106 2.44 255 255 255
0.256061 -0.707356 2.143 255 255 255
0.120277 -0.352168 2.212 255 255 255
0.518992 0.333809 1.366 255 255 255
0.809363 -0.65963 2.158 255 255 255
1.03226 0.127101 2.286 255 255 255
0.0419824 0.242719 2.479 255 255 255
0.592463 0.512621 1.351 255 255 255
-0.636663 0.365077 1.567 255 255 255
0.513038 0.337264 1.362 255 255 255
0.327533 -0.0760427 2.356 255 255 255
0.980025 0.0420114 2.312 255 255 255
0.916046 -0.326702 2.312 255 255 255
0.128287 -0.493175 2.107 255 255 255
-0.288748 -0.185386 2.286 255 255 255
0.534269 0.394775 1.354 255 255 255
-0.993776 -0.0948171 1.953 255 255 255
-0.357095 0.342142 1.419 255 255 255
0.0547504 0.470057 1.324 255 255 255
-0.66959 0.53427 1.498 255 255 255
-0.381283 -0.150244 2.261 255 255 255
0.101685 0.292782 2.459 255 255 255
1.06228 -0.347082 2.158 255 255 255
0.257924 0.352352 1.327 255 255 255
-0.710584 0.000523196 1.935 255 255 255
0.82831 0.202332 2.43 255 255 255
0.757245 0.334054 2.593 255 255 255
0.519771 0.435926 1.345 255 255 255
-0.707318 0.501357 1.48 255 255 255
0.25443 -0.462497 2.189 255 255 255
-0.559542 -0.386613 2.051 255 255 255
0.517304 0.518806 1.333 255 255 255
0.999022 0.173723 2.128 255 255 255
0.327012 -0.664312 2.128 255 255 255
0.384697 0.488537 1.31 255 255 255
-0.26657 0.532878 2.459 255 255 255
-0.729499 -0.34572 2.128 255 255 255
0.258262 -0.244907 2.286 255 255 255
0.618853 -0.787565 2.143 255 255 255
-0.731515 0.380022 1.505 255 255 255
-0.298567 0.198428 1.484 255 255 255
0.582802 0.307766 2.55 255 255 255
-0.535475 0.297809 1.498 255 255 255
0.48824 -0.0621239 2.411 255 255 255
0.381459 0.363438 1.336 255 255 255
1.09327 -0.644583 2.143 255 255 255
-0.681782 0.283183 1.498 255 255 255
0.554958 -0.0582004 2.411 255 255 255
0.511038 -0.388737 2.236 255 255 255
-0.324843 -0.569265 2.024 255 255 255
0.717166 -0.531658 2.166 255 255 255
0.162056 0.255456 1.375 255 255 255
0.646756 0.477513 1.345 255 255 255
-0.295787 0.24174 2.469 255 255 255
0.286975 0.169418 2.469 255 255 255
-0.963554 -0.571564 2.044 0 0 0
-0.735896 0.394263 1.494 255 255 255
0.180928 -0.696642 2.121 255 255 255
0.938788 -0.365223 2.294 255 255 255
-0.251553 -0.444686 2.189 0 0 0
-0.333431 0.0645857 2.312 255 255 255
-0.0202963 -0.260447 2.228 255 255 255
-0.883404 -0.00579247 1.941 255 255 255
0.641873 0.335275 1.372 255 255 255
0.130608 0.0670998 2.402 255 255 255
0.71071 -0.701569 2.136 255 255 255
0.581578 -0.272254 2.329 255 255 255
0.482248 0.31672 1.369 255 255 255
-0.468573 0.512286 2.329 255 255 255
-0.478627 0.0884515 1.744 255 255 255
-0.343118 -0.00263383 1.941 255 255 255
0.474811 -0.0148674 2.383 255 255 255
0.385287 -0.201018 2.43 255 255 255
0.202592 0.496157 1.291 255 255 255
0.0642804 -0.209854 2.269 255 255 255
1.0179 -0.142299 2.374 255 255 255
0.32475 -0.197874 2.392 255 255 255
0.460976 -0.606325 2.107 255 255 255
0.43457 0.225242 2.509 255 255 255
0.65422 0.237223 1.47 255 255 255
-0.0105191 0.186992 2.489 255 255 255
0.880026 -0.416961 2.212 255 255 255
1.03783 -0.209441 2.151 255 255 255
0.0410614 -0.380965 2.212 255 255 255
-0.425486 -0.318614 2.204 255 255 255
0.342049 0.494932 1.31 255 255 255
0.422733 0.346602 2.561 0 0 0
-0.275692 0.322098 2.469 255 255 255
-0.364379 0.254163 2.024 255 255 255
-0.387525 0.393388 1.429 255 255 255
0.599825 -0.133553 2.356 255 255 255
0.84057 -0.662076 2.166 255 255 255
0.621532 0.191043 2.489 255 255 255
0.271904 -0.378688 2.158 255 255 255
0.40955 -0.60971 2.143 255 255 255
0.457084 0.480104 1.322 255 255 255
-0.0252746 -0.724572 2.044 255 255 255
-0.172786 0.523311 2.278 255 255 255
-0.513351 0.4411 1.456 255 255 255
0.403499 0.205643 2.519 255 255 255
-0.639694 0.012834 1.893 255 255 255
0.448476 0.503768 1.322 255 255 255
1.02368 0.0536303 2.173 255 255 255
-0.279388 -0.486387 2.078 255 255 255
0.622621 -0.0270238 2.43 255 255 255
0.654279 -0.419977 2.228 255 255 255
1.02931 0.107673 2.057 255 255 255
0.290771 0.355538 1.339 255 255 255
0.480755 0.47365 1.322 255 255 255
-0.790896 -0.770906 2.107 0 0 0
-0.826062 -0.764236 2.017 255 255 255
-0.487517 0.226991 1.547 255 255 255
0.368726 -0.542949 2.212 255 255 255
-0.541111 0.263748 1.571 255 255 255
-1.0486 -0.512063 2.143 255 255 255
-0.408117 0.300249 1.396 255 255 255
-0.47158 0.224203 1.528 255 255 255
-0.708312 0.305716 1.513 255 255 255
-0.808862 -0.0183131 1.929 255 255 255
-0.876783 -0.34357 2.158 255 255 255
1.05534 -0.338956 2.151 255 255 255
-1.00663 0.0226353 1.941 255 255 255
-0.648346 0.27027 1.494 255 255 255
-0.720277 0.538141 1.502 255 255 255
-0.798143 -0.713327 2.099 0 0 0
0.816466 -0.55689 2.196 255 255 255
-0.364379 -0.651608 2.024 255 255 255
0.418829 -0.745892 2.085 255 255 255
-0.133938 -0.466097 2.078 255 255 255
0.819404 0.274569 2.55 255 255 255
0.914612 -0.506985 2.166 255 255 255
-0.608669 0.2627 1.535 255 255 255
-0.614533 0.00969676 1.882 255 255 255
0.064886 0.293283 2.43 255 255 255
-0.72471 0.182379 1.491 255 255 255
0.681908 -0.521084 2.166 255 255 255
-0.222949 0.209376 2.42 255 255 255
-0.102 -0.0185329 2.356 255 255 255
0.846201 0.0927017 2.459 255 255 255
-0.0606633 0.372315 2.004 255 255 255
0.624006 0.324112 1.372 255 255 255
0.727988 0.186241 2.479 255 255 255
0.590586 0.264181 2.53 255 255 255
-0.457984 -0.785679 2.03 255 255 255
1.04306 -0.066844 2.071 255 255 255
0.391208 0.269468 1.378 255 255 255
0.279781 0.496305 1.308 255 255 255
-0.379105 0.216444 2.411 255 255 255
-0.288081 -0.486259 2.092 255 255 255
-0.150849 0.741934 1.947 255 255 255
0.902398 -0.176398 2.365 255 255 255
0.727099 -0.460402 2.196 255 255 255
0.650248 -0.777103 2.143 255 255 255
-0.219915 0.135107 2.43 255 255 255
-0.831642 -0.755877 1.953 255 255 255
-0.264835 -0.531649 2.044 255 255 255
-0.673942 -0.142949 2.004 255 255 255
0.0377317 -0.289453 2.228 255 255 255
-0.345108 0.0662747 1.758 255 255 255
0.124779 0.222793 1.409 255 255 255
0.102351 0.484434 1.299 255 255 255
-0.32631 0.277531 1.396 255 255 255
-0.412845 0.109353 1.673 255 255 255
-0.199313 0.193623 2.42 255 255 255
-0.88203 -0.0759808 1.959 255 255 255
1.01897 0.246779 1.991 255 255 255
-0.552864 -0.570184 2.051 255 255 255
-0.340014 0.744739 1.997 255 255 255
-0.463263 -0.203102 2.196 255 255 255
-0.252595 0.481112 2.44 255 255 255
0.539492 -0.583613 2.189 255 255 255
-1.01021 -0.455033 2.121 255 255 255
0.339223 0.0408463 2.469 255 255 255
-0.615843 0.383343 1.528 255 255 255
-0.534302 -0.46847 2.151 255 255 255
0.641584 -0.809675 2.092 255 255 255
-0.450041 0.679052 2.024 255 255 255
-0.600474 0.440371 1.502 255 255 255
-0.833312 -0.0989487 1.972 255 255 255
0.705438 0.265939 1.419 255 255 255
1.02745 -0.127182 2.181 255 255 255
0.560151 -0.100182 2.383 255 255 255
0.0331559 -0.676175 2.166 0 0 0
0.646339 0.317414 1.372 255 255 255
0.497694 0.512152 1.327 255 255 255
-0.710836 -0.018541 1.953 255 255 255
0.196177 0.283344 1.348 255 255 255
0.875449 -0.718425 2.114 255 255 255
0.41683 -0.738183 2.092 255 255 255
1.01926 0.124411 2.057 255 255 255
0.130605 -0.379587 2.204 255 255 255
0.546449 0.465694 1.33 255 255 255
-0.172529 -0.361429 2.181 0 0 0
0.216709 -0.311441 2.204 255 255 255
0.545788 0.510246 1.339 255 255 255
-0.458759 -0.175005 2.158 255 255 255
0.470281 0.0562493 2.44 255 255 255
0.0448236 -0.43292 2.22 255 255 255
-0.705151 -0.661185 2.107 255 255 255
-0.177783 0.247753 2.449 255 255 255
0.547494 0.401385 1.354 255 255 255
0.964685 0.353413 2.55 255 255 255
0.911663 -0.327833 2.32 255 255 255
-0.00866802 -0.690339 2.051 255 255 255
0.0252272 0.407291 1.359 255 255 255
-0.637332 -0.244488 2.121 255 255 255
-0.419626 0.579219 1.52 255 255 255
0.317234 -0.172549 2.365 255 255 255
0.994518 0.0869687 2.411 255 255 255
-0.574572 -0.16012 2.057 255 255 255
0.302092 -0.370712 2.173 255 255 255
-0.905165 -0.520203 2.078 255 255 255
1.0145 -0.120354 2.479 255 255 255
-0.499009 -0.346047 2.196 0 0 0
0.626526 0.225242 2.509 255 255 255
0.513724 0.237891 1.445 255 255 255
0.929454 0.215345 2.489 255 255 255
-0.32261 0.00419774 2.212 255 255 255
-1.02995 -0.273932 2.057 255 255 255
-0.145552 -0.653625 2.051 255 255 255
0.229751 0.413515 1.302 255 255 255
-0.591609 0.0540828 1.734 255 255 255
-0.86041 -0.578217 2.044 255 255 255
-0.637452 0.224386 1.48 255 255 255
0.378155 -0.426213 2.204 255 255 255
-0.56288 -0.560171 2.051 255 255 255
-0.391606 0.51233 1.498 255 255 255
-0.140757 0.707493 2.03 255 255 255
-0.797984 -0.275235 2.173 255 255 255
0.823028 -0.540986 2.204 255 255 255
0.80198 0.379443 2.615 0 0 0
-0.291896 -0.589027 2.024 255 255 255
-0.380592 0.633565 2.173 255 255 255
-0.791512 0.219801 1.498 255 255 255
0.726993 -0.651558 2.143 255 255 255
-0.509758 0.513408 1.487 255 255 255
-0.962393 -0.0310616 1.941 255 255 255
0.986621 0.11978 2.44 255 255 255
0.455625 -0.735625 2.114 255 255 255
0.845272 -0.23707 2.356 255 255 255
0.638778 -0.460157 2.212 255 255 255
-0.333569 -0.744542 2.017 255 255 255
0.982121 -0.72797 2.092 255 255 255
0.0669661 0.430978 1.31 255 255 255
-0.95836 -0.74565 1.985 0 0 0
-0.958121 -0.387276 2.128 255 255 255
-0.444766 0.614996 2.03 255 255 255
-0.0622677 0.34534 2.057 255 255 255
0.0171468 0.257556 2.392 255 255 255
0.0392935 0.266713 1.387 255 255 255
-1.0637 -0.28494 2.064 255 255 255
-0.74539 0.0882535 1.686 255 255 255
-0.447012 -0.332961 2.204 255 255 255
-0.736228 0.164175 1.48 255 255 255
-0.767687 0.037902 1.769 255 255 255
0.681199 0.279921 2.561 255 255 255
1.00246 -0.185798 2.338 255 255 255
0.240207 0.228205 1.4 255 255 255
-0.497986 0.0431091 1.87 255 255 255
-0.216759 -0.746037 2.03 255 255 255
-0.00568798 0.282007 2.189 255 255 255
-0.95498 -0.720489 1.978 0 0 0
-1.0805 -0.436087 2.064 0 0 0
0.749078 -0.705759 2.107 255 255 255
-0.576033 0.0161163 1.917 255 255 255
0.758449 -0.47284 2.204 255 255 255
0.795306 0.188274 2.402 255 255 255
-0.923481 -0.38035 2.128 255 255 255
0.555439 0.483014 1.336 255 255 255
0.251757 -0.362468 2.166 255 255 255
-0.386615 -0.506624 2.037 255 255 255
0.896571 -0.761148 2.099 255 255 255
-0.719558 -0.808968 2.099 255 255 255
-0.856954 0.0522957 1.769 255 255 255
-0.430365 0.678768 1.744 255 255 255
0.270272 0.366637 1.324 255 255 255
-0.0292439 -0.0801818 2.365 255 255 255
-0.844775 -0.337795 2.166 255 255 255
0.595597 0.144134 2.449 255 255 255
-0.621033 0.341307 1.599 255 255 255
-0.816651 -0.771396 2.01 255 255 255
1.05098 -0.0477484 2.121 255 255 255
-0.0436331 -0.453072 2.128 255 255 255
-0.68868 -0.212478 2.078 255 255 255
0.942268 -0.00733833 2.459 255 255 255
-1.05906 -0.508576 2.143 255 255 255
-0.728422 -0.75372 2.166 255 255 255
1.00245 0.176981 2.212 255 255 255
0.0382532 0.232477 2.499 255 255 255
-0.533859 0.315907 1.48 255 255 255
-0.303449 0.504946 2.499 255 255 255
-0.404742 0.229118 1.449 255 255 255
0.0380026 -0.422993 2.244 255 255 255
0.306296 0.250987 1.4 255 255 255
0.450061 0.322694 1.366 255 255 255
0.460767 -0.0778179 2.411 255 255 255
-0.446234 0.373679 1.416 255 255 255
-0.756604 0.138564 1.516 255 255 255
0.21442 0.44427 1.299 255 255 255
0.0462341 0.376106 1.327 255 255 255
0.642236 -0.279834 2.329 255 255 255
0.612646 -0.498089 2.158 255 255 255
0.619549 0.242072 1.456 255 255 255
0.216535 0.448498 1.299 255 255 255
-0.382273 -0.714411 1.997 255 255 255
0.888692 -0.480308 2.189 255 255 255
0.263925 0.218514 2.479 255 255 255
-0.786076 0.33514 1.535 255 255 255
0.706615 0.138387 2.489 255 255 255
0.147344 0.0360976 2.42 255 255 255
0.704584 -0.716256 2.128 255 255 255
0.330023 0.322777 1.357 255 255 255
-0.888988 -0.536851 2.064 255 255 255
-0.698323 -0.40459 2.128 255 255 255
0.629327 0.33677 1.369 255 255 255
-0.288812 -0.0528362 2.347 255 255 255
-0.0865381 -0.395359 2.253 255 255 255
0.965918 0.138387 2.489 255 255 255
0.0782505 -0.0837107 2.356 255 255 255
-0.30837 -0.569265 2.024 255 255 255
1.01008 0.145211 2.338 255 255 255
1.05317 -0.50834 2.071 255 255 255
-0.586382 -0.0651011 2.017 255 255 255
0.386059 0.253265 1.4 255 255 255
0.173171 0.470946 1.291 255 255 255
0.765242 0.0127212 2.469 255 255 255
0.38336 -0.814749 2.114 255 255 255
-0.88203 -0.0887326 1.959 255 255 255
-0.25236 -0.780063 2.024 255 255 255
-0.598011 -0.170162 2.057 255 255 255
0.915128 -0.00728162 2.44 255 255 255
-0.608823 -0.663369 2.071 255 255 255
-0.576488 0.122117 1.591 255 255 255
-0.349015 0.166572 1.547 255 255 255
0.412746 -0.158351 2.383 255 255 255
-0.462588 0.497804 1.491 255 255 255
0.220764 0.473865 1.299 255 255 255
-0.84627 -0.431854 2.143 255 255 255
-0.664953 -0.396356 2.121 255 255 255
0.0813929 0.468603 1.302 255 255 255
-0.241634 -0.335326 2.196 0 0 0
-0.343509 -0.0425425 2.037 255 255 255
-0.0255874 -0.00711152 2.383 255 255 255
-0.250524 0.540179 2.42 255 255 255
-0.31054 0.00443686 2.338 255 255 255
-0.04757 -0.154164 2.32 255 255 255
0.466456 0.291257 1.375 255 255 255
-0.0997745 0.34095 2.071 255 255 255
-0.640639 0.313249 1.629 255 255 255
0.210778 0.38601 2.519 255 255 255
-0.721968 -0.0602557 1.966 255 255 255
0.473018 -0.150026 2.374 255 255 255
0.489954 0.164731 2.459 255 255 255
-0.325273 -0.403271 2.158 0 0 0
0.0309296 -0.220152 2.261 255 255 255
-0.344702 -0.0531828 2.064 255 255 255
-0.239794 0.612539 2.212 255 255 255
0.411291 0.384744 1.327 255 255 255
-0.0897934 0.744492 1.929 255 255 255
0.524458 -0.730108 2.128 255 255 255
0.386989 0.262199 1.387 255 255 255
-0.514177 0.322545 1.445 255 255 255
0.573504 -0.602735 2.143 255 255 255
-0.629259 -0.302197 2.189 255 255 255
-0.4463 0.686729 2.037 255 255 255
-0.47781 -0.772465 2.03 255 255 255
-0.814904 -0.242874 2.107 255 255 255
0.737579 -0.35629 2.261 255 255 255
0.280831 -0.741203 2.044 255 255 255
-0.363806 0.274637 2.44 255 255 255
0.589473 0.277531 1.396 255 255 255
0.837602 -0.210232 2.356 255 255 255
-0.141493 -0.112246 2.312 255 255 255
0.308673 -0.620708 2.121 255 255 255
-0.777058 0.329499 1.532 255 255 255
0.0266586 -0.352168 2.212 0 0 0
0.523125 0.406188 1.348 255 255 255
-0.31769 -0.104543 2.228 255 255 255
-0.597695 -0.289921 2.204 255 255 255
-0.197259 -0.23119 2.261 255 255 255
-0.282012 -0.747126 2.024 255 255 255
-0.378647 0.348804 2.459 255 255 255
-0.347537 0.736377 1.966 255 255 255
-0.283823 -0.533143 2.037 255 255 255
-0.177735 -0.399759 2.158 0 0 0
0.0837047 0.45057 1.305 255 255 255
-0.281172 -0.0719329 2.347 255 255 255
-0.689292 -0.60971 2.143 255 255 255
1.00929 0.269696 2.017 255 255 255
-0.517161 -0.264073 2.228 255 255 255
-0.562354 -0.523198 2.037 255 255 255
0.419453 0.286782 1.375 255 255 255
-0.440406 -0.159708 2.189 255 255 255
-0.00204512 -0.493175 2.107 255 255 255
0.104304 0.435144 1.297 255 255 255
-0.872932 -0.690826 2.004 255 255 255
0.451537 -0.0303791 2.383 255 255 255
-0.0453555 -0.395364 2.212 255 255 255
-0.540012 0.0440543 1.911 255 255 255
-0.550286 0.415502 1.466 255 255 255
0.0427667 0.3463 1.354 255 255 255
-0.342969 -0.447733 2.204 0 0 0
0.0966207 -0.58453 2.166 255 255 255
0.906243 0.284779 2.459 255 255 255
-0.378999 0.329856 1.406 255 255 255
-0.0678581 -0.757007 2.024 255 255 255
0.414551 -0.371389 2.286 255 255 255
0.318316 -0.301773 2.212 255 255 255
-1.07581 -0.344583 2.121 255 255 255
0.641307 -0.474697 2.196 255 255 255
0.721218 -0.505244 2.189 255 255 255
-0.462295 -0.513339 2.064 255 255 255
-0.953623 -0.659108 2.037 0 0 0
-0.321956 0.657537 2.136 255 255 255
-0.426151 0.26979 1.403 255 255 255
0.42606 -0.613805 2.121 255 255 255
0.601477 0.296056 1.387 255 255 255
-0.717817 -0.666822 2.114 255 255 255
1.05297 -0.439446 2.064 255 255 255
-0.335978 0.302008 2.469 255 255 255
-0.329988 -0.39698 2.143 255 255 255
-0.0179096 0.384451 1.966 255 255 255
-0.395274 -0.266292 2.278 255 255 255
0.585465 0.139634 2.44 255 255 255
0.746234 -0.744069 2.099 255 255 255
0.342923 -0.228153 2.383 255 255 255
-0.379983 -0.516569 2.037 255 255 255
0.131446 0.438349 1.294 255 255 255
-0.307031 0.0860552 1.753 255 255 255
-0.321197 0.279026 2.479 255 255 255
1.04747 -0.428028 2.107 255 255 255
-0.565859 0.23485 1.583 255 255 255
-0.377658 0.0693322 1.763 255 255 255
-0.264301 0.0827352 2.402 255 255 255
0.228507 -0.711544 2.114 255 255 255
0.0690985 0.511986 1.31 255 255 255
-0.195219 0.760945 1.947 255 255 255
-0.0351356 -0.503309 2.037 255 255 255
-0.786636 0.526957 1.498 255 255 255
0.898964 -0.19873 2.356 255 255 255
-0.668385 -0.787348 2.078 255 255 255
0.657838 -0.333019 2.278 255 255 255
-0.175177 -0.220152 2.261 255 255 255
0.645856 0.282883 1.4 255 255 255
-0.800663 0.260133 1.52 255 255 255
0.149963 -0.0564383 2.338 255 255 255
0.599512 0.525939 1.357 255 255 255
-0.71816 -0.0121472 1.947 255 255 255
0.362832 -0.385955 2.22 255 255 255
0.0278835 0.29927 1.381 255 255 255
-0.0381149 0.0840441 2.44 255 255 255
0.949931 0.0934557 2.479 255 255 255
-0.609595 0.270035 1.563 255 255 255
0.174597 -0.664312 2.128 255 255 255
-0.165214 0.223018 2.44 255 255 255
-0.374031 0.245727 1.396 255 255 255
-0.46495 -0.225362 2.204 255 255 255
0.810067 -0.752826 2.114 255 255 255
0.437221 0.259357 1.396 255 255 255
-0.462988 0.380692 1.425 255 255 255
-0.120712 0.275627 2.347 255 255 255
1.04335 -0.242031 2.294 255 255 255
-0.330614 0.216751 2.459 255 255 255
-0.630785 0.513408 1.487 255 255 255
0.719297 0.268248 1.419 255 255 255
0.867866 -0.0902944 2.43 255 255 255
0.855595 -0.254334 2.374 255 255 255
0.728836 -0.190884 2.402 255 255 255
-0.579078 0.122117 1.591 255 255 255
0.678155 -0.620172 2.143 255 255 255
0.64676 -0.651558 2.143 255 255 255
1.00985 -0.0824316 2.32 255 255 255
0.629293 -0.465666 2.204 255 255 255
0.565155 0.306012 1.381 255 255 255
-0.181979 0.7586 1.941 255 255 255
-0.725187 0.520667 1.487 255 255 255
0.0547504 0.465748 1.324 255 255 255
-0.591457 -0.336585 2.181 255 255 255
0.606155 0.350563 1.362 255 255 255
0.505651 0.329363 1.366 255 255 255
0.308314 0.254822 2.479 255 255 255
-0.353452 0.405895 1.65 255 255 255
-0.299688 0.164878 1.579 255 255 255
0.162848 -0.237705 2.253 255 255 255
1.05297 -0.00615954 2.064 255 255 255
-0.494333 -0.765858 2.03 255 255 255
-0.913123 -0.193278 1.985 255 255 255
-0.182891 -0.112246 2.312 255 255 255
-0.943675 -0.234805 2.037 255 255 255
0.602923 -0.718949 2.136 255 255 255
0.477951 -0.35755 2.269 255 255 255
0.826615 -0.573265 2.204 255 255 255
0.0544863 0.347134 2.173 255 255 255
-0.724081 0.000521574 1.929 255 255 255
-0.0448128 -0.188659 2.374 255 255 255
0.351223 -0.602896 2.107 255 255 255
-0.996493 -0.451299 2.136 255 255 255
1.04609 0.10034 2.044 255 255 255
0.526738 -0.296134 2.338 255 255 255
-0.901616 0.012834 1.893 255 255 255
0.28962 0.300029 1.354 255 255 255
-0.611842 0.136009 1.543 255 255 255
0.257016 -0.699495 2.151 255 255 255
0.447458 0.481161 1.319 255 255 255
0.584113 -0.442534 2.196 255 255 255
-0.157698 0.318994 2.329 255 255 255
-0.828894 -0.573281 2.099 255 255 255
0.475952 0.235447 1.459 255 255 255
-0.755481 -0.015174 1.929 255 255 255
0.262509 0.270772 1.362 255 255 255
0.125127 0.434137 1.294 255 255 255
-0.5962 0.148432 1.516 255 255 255
0.907627 -0.0820465 2.42 255 255 255
-0.854615 0.00361515 1.905 255 255 255
1.04926 -0.240579 2.212 255 255 255
1.03653 0.0921742 2.085 255 255 255
0.822414 -0.53215 2.212 255 255 255
-0.581806 0.463575 1.498 255 255 255
0.334093 -0.720776 2.024 255 255 255
0.205645 0.468914 1.297 255 255 255
0.739028 0.235597 2.489 255 255 255
0.593737 -0.768201 2.128 255 255 255
0.288297 0.443091 1.308 255 255 255
0.845598 -0.512063 2.143 255 255 255
0.189596 -0.563734 2.181 255 255 255
-0.648838 0.415774 1.484 255 255 255
-0.432674 -0.600223 2.051 255 255 255
-0.798569 0.352626 1.535 255 255 255
-0.220557 -0.286853 2.236 255 255 255
0.757065 -0.248572 2.356 255 255 255
-1.03164 -0.365993 2.166 255 255 255
-0.652319 -0.0960309 1.978 255 255 255
-0.548719 0.18452 1.616 255 255 255
-0.125923 -0.450595 2.236 0 0 0
-0.687842 -0.135951 1.997 255 255 255
0.601411 -0.72828 2.143 255 255 255
1.00227 0.247004 2.294 255 255 255
0.585069 -0.487406 2.173 255 255 255
-0.244628 0.687136 2.099 255 255 255
0.892255 -0.469622 2.189 255 255 255
0.988401 -0.514045 2.181 255 255 255
-0.534391 -0.0596973 2.057 255 255 255
-0.850378 -0.14245 1.997 255 255 255
-0.671369 0.300791 1.513 255 255 255
-0.572052 0.49039 1.498 255 255 255
0.0012598 0.331195 1.917 0 0 0
0.57911 0.0836996 2.43 255 255 255
-0.406015 0.0480378 1.826 255 255 255
0.502256 0.435926 1.345 255 255 255
-0.41019 -0.0748635 2.107 255 255 255
0.177888 -0.370166 2.212 255 255 255
0.98794 0.287032 2.228 255 255 255
-0.405113 0.423958 2.55 255 255 255
-0.0964581 -0.267699 2.228 255 255 255
-0.333463 0.666641 2.099 255 255 255
-0.839293 -0.480677 2.143 255 255 255
0.258819 -0.417519 2.196 255 255 255
0.0249342 0.0823907 2.392 255 255 255
0.43607 0.28068 1.378 255 255 255
-0.151584 0.400315 2.136 255 255 255
0.951435 -0.671472 2.107 255 255 255
-1.01915 -0.133364 1.959 255 255 255
-0.492769 -0.530132 2.051 255 255 255
-0.818362 -0.355132 2.143 255 255 255
1.01276 0.244036 2.078 255 255 255
0.513378 0.281468 1.393 255 255 255
-0.48878 0.108989 1.71 255 255 255
0.681093 -0.361243 2.269 255 255 255
0.0712309 0.45656 1.31 255 255 255
1.03966 0.237528 2.051 255 255 255
-0.839751 -0.23774 2.092 255 255 255
0.833991 -0.380693 2.253 255 255 255
-0.285375 0.431101 2.519 255 255 255
-0.862203 -0.114994 1.972 255 255 255
-0.417152 0.195821 1.52 255 255 255
-0.157953 0.575209 2.278 255 255 255
0.127233 0.503627 1.294 255 255 255
-0.318822 0.167778 1.535 255 255 255
-0.306206 0.166572 1.547 255 255 255
0.323081 -0.288413 2.22 255 255 255
-0.902919 -0.187382 1.991 255 255 255
-0.727762 0.112344 1.677 255 255 255
-0.444218 0.188643 1.563 255 255 255
0.570204 -0.253303 2.329 255 255 255
0.0403375 -0.674824 2.173 0 0 0
1.03887 -0.229452 2.244 255 255 255
-0.0616921 0.0362467 2.43 255 255 255
0.666016 0.432571 1.362 255 255 255
0.684112 -0.512159 2.173 255 255 255
0.839844 -0.505174 2.22 255 255 255
-0.507688 -0.110657 2.071 255 255 255
-0.173859 0.446117 2.244 255 255 255
0.312703 -0.554594 2.173 255 255 255
-1.10224 -0.41274 2.099 255 255 255
0.786407 -0.488954 2.212 255 255 255
0.211466 0.0894215 2.479 255 255 255
0.552216 0.247921 1.435 255 255 255
-0.529494 -0.70369 2.051 255 255 255
0.861725 -0.6656 2.166 255 255 255
0.374569 0.386903 1.327 255 255 255
0.908899 -0.57991 2.136 255 255 255
0.566073 0.40929 1.351 255 255 255
0.203162 0.227553 1.396 255 255 255
0.0380187 0.469896 1.342 255 255 255
-0.875054 -0.58244 2.024 255 255 255
-0.73627 -0.754448 2.158 255 255 255
-0.558369 0.0950752 1.71 255 255 255
-0.0924033 -0.595284 2.057 255 255 255
-0.365144 0.20134 1.47 255 255 255
0.96997 0.36116 2.489 0 0 0
-0.445496 -0.560363 2.064 255 255 255
1.02204 0.172778 1.997 255 255 255
0.4049 -0.531015 2.253 255 255 255
-0.186218 -0.179679 2.261 255 255 255
-1.09385 -0.496487 2.136 0 0 0
0.57911 0.123244 2.43 255 255 255
-0.871265 -0.121782 1.978 255 255 255
1.04404 -0.181156 2.107 255 255 255
0.637106 -0.261892 2.338 255 255 255
0.106802 -0.596418 2.158 255 255 255
-0.35779 -0.638433 2.024 0 0 0
0.959934 -0.211838 2.374 255 255 255
-0.262244 -0.747126 2.024 255 255 255
0.946409 0.299562 2.449 255 255 255
-0.0318197 0.66021 2.037 255 255 255
0.277676 -0.106715 2.356 255 255 255
0.593418 0.306677 1.384 255 255 255
-0.174557 0.466238 2.253 255 255 255
0.671193 -0.748416 2.121 255 255 255
-0.431036 0.218774 1.491 255 255 255
0.269132 -0.645954 2.136 255 255 255
0.826762 -0.342824 2.294 255 255 255
-0.55871 0.198817 1.563 255 255 255
-0.324819 -0.184737 2.278 255 255 255
0.065787 -0.381783 2.196 255 255 255
-0.305056 0.299197 2.479 255 255 255
-0.604258 -0.22648 2.114 255 255 255
-0.398459 -0.580516 2.064 255 255 255
0.776888 0.0916084 2.43 255 255 255
0.189482 0.36902 1.302 255 255 255
0.468192 -0.232643 2.312 255 255 255
-0.52538 0.0199182 1.985 255 255 255
-0.333906 0.166572 1.547 255 255 255
0.643276 0.311395 1.375 255 255 255
-0.211782 -0.0730362 2.383 255 255 255
0.329654 -0.711718 2.017 255 255 255
-0.681848 -0.484682 2.294 0 0 0
-0.0394896 0.501008 2.092 255 255 255
0.466649 0.312264 1.369 255 255 255
-0.713651 0.0517635 1.853 0 0 0
0.292556 0.419677 1.308 255 255 255
-0.786217 0.367997 1.516 255 255 255
-0.305708 -0.252287 2.22 255 255 255
0.651128 -0.499848 2.181 255 255 255
-0.64588 -0.0863743 1.978 255 255 255
-0.681536 0.434587 1.466 255 255 255
0.789448 -0.0466033 2.42 255 255 255
0.987232 0.182552 2.329 255 255 255
0.155134 -0.624517 2.099 255 255 255
0.21812 0.285538 1.348 255 255 255
0.937555 -0.266719 2.347 255 255 255
0.774771 -0.665578 2.121 255 255 255
-0.400823 0.581698 1.646 255 255 255
0.53926 -0.0660474 2.411 255 255 255
-0.744127 0.410456 1.491 255 255 255
-0.462377 0.328267 1.409 255 255 255
0.719687 -0.304428 2.286 255 255 255
0.812117 0.346714 2.593 255 255 255
0.391738 0.281691 1.372 255 255 255
-0.763549 0.317024 1.52 255 255 255
-0.31068 -0.315028 2.204 255 255 255
-0.392114 0.559036 2.303 255 255 255
-0.56288 -0.540145 2.051 255 255 255
1.03887 -0.339004 2.244 255 255 255
-0.496108 -0.593547 2.051 255 255 255
0.00149112 0.262775 2.269 255 255 255
-1.01915 -0.184371 1.959 255 255 255
-0.574077 -0.263854 2.196 255 255 255
0.0921064 -0.599247 2.143 255 255 255
0.437212 0.436571 1.327 255 255 255
0.434978 -0.608339 2.114 255 255 255
0.657996 0.150539 2.489 255 255 255
0.485507 0.267132 2.519 255 255 255
0.894273 -0.513975 2.151 255 255 255
0.692174 -0.364935 2.269 255 255 255
0.55369 0.0959561 2.44 255 255 255
-0.743455 0.424287 1.48 255 255 255
-0.462588 0.230906 1.491 255 255 255
0.652602 -0.304128 2.312 255 255 255
0.310773 0.404188 1.313 255 255 255
0.10084 -0.567283 2.181 255 255 255
0.98794 -0.401849 2.228 255 255 255
-0.808932 -0.135542 1.991 255 255 255
-0.678713 0.391486 1.502 255 255 255
-0.750673 0.265777 1.524 255 255 255
-0.581199 0.162203 1.484 255 255 255
0.292556 0.436706 1.308 255 255 255
-0.832316 -0.369081 2.143 255 255 255
0.743434 -0.531791 2.181 255 255 255
0.208268 0.203194 2.489 255 255 255
-0.134201 0.0316677 2.383 255 255 255
-0.266326 -0.779072 2.03 255 255 255
-0.862731 -0.462971 2.158 255 255 255
-0.681841 0.483516 1.477 255 255 255
1.00251 -0.158168 2.44 255 255 255
-0.649732 0.581693 1.52 255 255 255
0.101519 -0.496452 2.121 255 255 255
-0.432976 0.120981 1.646 255 255 255
-1.08444 -0.4289 2.078 255 255 255
0.56403 -0.0963038 2.383 255 255 255
-0.264244 0.684844 2.092 255 255 255
-0.0150385 0.684168 2.01 255 255 255
-0.47781 -0.676664 2.03 255 255 255
0.339223 0.189508 2.469 255 255 255
0.420043 -0.265021 2.236 255 255 255
-0.744333 0.0470644 1.789 255 255 255
0.479989 0.100295 2.449 255 255 255
-0.458347 0.552927 1.509 255 255 255
0.220731 0.249286 1.378 255 255 255
-0.216376 -0.448924 2.158 255 255 255
-0.88813 -0.320258 2.143 255 255 255
0.471265 -0.692044 2.107 255 255 255
0.727988 0.226583 2.479 255 255 255
-0.228991 -0.305372 2.212 255 255 255
0.340695 0.427692 1.313 255 255 255
-0.852193 -0.297917 2.158 255 255 255
-0.417207 0.354771 1.396 255 255 255
-0.564925 0.561258 1.505 255 255 255
0.384757 -0.108798 2.402 255 255 255
-0.616372 0.536766 1.505 255 255 255
0.154258 0.410021 1.291 255 255 255
0.370819 -0.596547 2.121 255 255 255
0.970711 0.0322923 2.43 255 255 255
0.68428 -0.169984 2.383 255 255 255
0.292556 0.413292 1.308 255 255 255
-0.443029 -0.230611 2.22 255 255 255
-0.450028 -0.44731 2.085 255 255 255
-0.80578 -0.569679 2.204 0 0 0
0.296814 0.455862 1.308 255 255 255
0.192833 0.187744 2.499 255 255 255
-0.400456 -0.588589 2.057 255 255 255
0.069415 0.323732 1.316 255 255 255
0.0260496 0.195877 2.499 255 255 255
0.413671 -0.0425065 2.411 255 255 255
-0.937044 -0.546403 2.037 0 0 0
0.260084 0.35883 1.327 255 255 255
0.257919 0.090143 2.499 255 255 255
0.557639 0.288884 2.53 255 255 255
0.0543108 -0.563381 2.166 0 0 0
-0.675199 0.482206 1.473 255 255 255
0.614455 0.501628 1.351 255 255 255
0.300988 0.308124 2.519 255 255 255
-0.558909 0.183725 1.502 255 255 255
-0.0170897 0.708773 1.876 255 255 255
0.257507 0.272387 1.359 255 255 255
-0.358743 -0.0748635 2.107 255 255 255
-0.601827 0.144255 1.524 255 255 255
-0.239181 -0.589027 2.024 255 255 255
0.674082 0.100705 2.459 255 255 255
-0.121972 0.164061 2.449 255 255 255
-0.133035 -0.630898 2.064 255 255 255
-0.860699 -0.559278 2.085 0 0 0
1.03601 -0.411176 2.057 255 255 255
0.503938 -0.0699709 2.411 255 255 255
-0.662252 0.409355 1.487 255 255 255
0.558757 0.246132 1.452 255 255 255
-0.456651 0.158223 1.616 255 255 255
-0.789192 0.0484392 1.734 255 255 255
0.065098 -0.508623 2.173 255 255 255
-0.679231 -0.0508123 1.972 255 255 255
0.542828 -0.755205 2.092 255 255 255
-0.486092 -0.503431 2.051 255 255 255
-0.469399 -0.606898 2.051 255 255 255
-0.558513 0.109615 1.677 255 255 255
-0.971588 -0.18183 1.966 255 255 255
0.312195 0.484273 1.31 255 255 255
0.872254 -0.378829 2.286 255 255 255
0.804357 -0.327892 2.294 255 255 255
0.584604 -0.366028 2.253 255 255 255
-0.89566 -0.402635 2.136 255 255 255
0.0989139 0.225926 1.4 255 255 255
-0.19172 -0.689623 2.01 255 255 255
0.622518 0.358637 1.359 255 255 255
-0.316528 0.281206 1.403 255 255 255
-0.278144 -0.511691 2.044 255 255 255
-0.533732 0.465427 1.473 255 255 255
-0.485553 0.254485 1.487 255 255 255
-0.135704 -0.195858 2.278 255 255 255
-0.158681 -0.235911 2.236 255 255 255
-0.191786 0.629191 2.158 255 255 255
0.253515 -0.636488 2.151 255 255 255
0.532524 0.314317 1.378 255 255 255
-0.814466 -0.215133 2.071 255 255 255
-0.420688 0.419558 1.439 255 255 255
-0.984617 -0.0561567 1.935 255 255 255
-0.288601 -0.714189 2.024 255 255 255
0.339223 0.225669 2.469 255 255 255
0.0400518 0.000639462 2.365 255 255 255
-0.19057 -0.202469 2.269 255 255 255
-0.38265 0.504867 2.459 255 255 255
0.295016 0.384571 1.319 255 255 255
-0.403525 0.474572 2.489 255 255 255
0.410958 0.45111 1.319 255 255 255
-0.910517 -0.23149 2.037 255 255 255
0.737109 0.020757 2.469 255 255 255
-0.552406 -0.00939383 2.037 255 255 255
-0.303888 0.632348 2.181 255 255 255
0.944476 0.263345 2.374 255 255 255
-0.676663 -0.333035 2.181 255 255 255
-0.194964 -0.598174 2.044 255 255 255
0.840177 -0.0784311 2.43 255 255 255
0.176065 -0.795479 2.064 255 255 255
0.624465 -0.366382 2.278 255 255 255
0.960918 0.29839 2.128 0 0 0
-0.488242 -0.319771 2.212 255 255 255
1.0392 -0.294473 2.037 255 255 255
0.302302 0.383578 2.53 0 0 0
-0.706713 0.396694 1.494 255 255 255
-0.326246 0.423958 2.55 255 255 255
-0.0486772 0.251755 2.374 255 255 255
0.49762 0.28477 1.387 255 255 255
0.662073 -0.0193431 2.459 255 255 255
0.485498 0.242594 1.445 255 255 255
0.531274 0.341226 1.369 255 255 255
1.05493 -0.472155 2.136 255 255 255
-0.792761 0.539216 1.505 255 255 255
-0.625355 -0.158563 2.037 255 255 255
-0.343509 -0.506624 2.037 255 255 255
-0.563955 0.0602848 1.837 255 255 255
0.704125 0.266071 2.509 255 255 255
0.221548 -0.53534 2.181 255 255 255
-0.458029 0.415478 2.499 255 255 255
-0.771983 -0.66903 2.121 255 255 255
0.371992 0.324985 1.357 255 255 255
0.850046 -0.120525 2.402 255 255 255
0.661006 -0.216519 2.383 255 255 255
0.378227 -0.257855 2.269 255 255 255
0.707592 0.298313 1.387 255 255 255
-0.549796 0.480977 1.484 255 255 255
0.0217671 0.275758 1.422 255 255 255
-0.250568 -0.258666 2.244 255 255 255
-0.0308407 -0.340134 2.204 0 0 0
0.518304 0.470023 1.33 255 255 255
0.0550631 -0.496139 2.196 255 255 255
-0.651254 0.420604 1.484 255 255 255
-0.508001 0.194557 1.612 255 255 255
-0.0172307 -0.141791 2.303 255 255 255
-0.776018 0.198829 1.487 255 255 255
0.804531 -0.193252 2.383 255 255 255
-0.728346 0.203776 1.524 255 255 255
-0.297405 -0.33057 2.212 255 255 255
0.338137 0.292854 1.372 255 255 255
0.557722 -0.736329 2.136 255 255 255
1.04332 -0.355699 2.085 255 255 255
-0.0828891 0.302596 2.158 255 255 255
-0.0911904 -0.699788 2.03 255 255 255
-0.216119 -0.717482 2.024 255 255 255
-0.129562 0.306256 2.236 255 255 255
-0.357998 -0.531649 2.044 255 255 255
0.822414 -0.445759 2.212 255 255 255
0.262997 0.244152 1.4 255 255 255
-0.173034 0.751439 1.947 255 255 255
-0.74063 -0.179065 2.044 255 255 255
0.543739 0.323287 1.378 255 255 255
0.842841 -0.620521 2.181 255 255 255
-0.731032 0.403988 1.494 255 255 255
-0.576235 -0.633599 2.051 255 255 255
0.266912 -0.132022 2.329 255 255 255
-0.515932 -0.702201 2.037 255 255 255
-0.580862 0.171052 1.477 255 255 255
0.68308 -0.506946 2.181 255 255 255
-1.05165 -0.536183 2.128 255 255 255
1.04191 -0.426875 2.189 255 255 255
-0.876384 -0.746908 1.997 255 255 255
0.709911 0.282075 1.396 255 255 255
0.380014 0.312884 1.362 255 255 255
-0.209561 0.368081 2.402 255 255 255
-0.685487 0.375883 1.528 255 255 255
1.04369 -0.250476 2.303 255 255 255
-0.537977 0.304099 1.505 255 255 255
-0.629815 -0.144804 2.03 255 255 255
-0.432355 -0.277413 2.278 255 255 255
-0.695854 0.448901 1.466 255 255 255
-0.425501 -0.652637 2.017 255 255 255
-0.525036 0.408326 1.449 255 255 255
-1.0351 -0.162055 1.959 255 255 255
-0.68665 0.490727 1.477 255 255 255
-0.0731761 -0.14497 2.294 255 255 255
0.403398 -0.0899228 2.42 255 255 255
0.415283 -0.597028 2.173 255 255 255
0.00943372 0.0634277 2.411 255 255 255
0.373363 0.310667 1.362 255 255 255
-0.822339 -0.730657 2.024 255 255 255
-0.753046 0.0127187 1.876 255 255 255
0.400566 -0.62898 2.114 255 255 255
0.846391 -0.634718 2.181 255 255 255
0.511303 0.265791 1.406 255 255 255
-0.714009 0.527981 1.494 255 255 255
0.55394 0.36306 1.359 255 255 255
-0.0419108 -0.767813 2.044 255 255 255
-0.344611 -0.658195 2.024 0 0 0
0.450172 0.447368 1.327 255 255 255
-0.127861 -0.105899 2.338 255 255 255
-0.328589 -0.138713 2.253 255 255 255
-0.642535 -0.774586 2.071 255 255 255
-0.457099 0.566703 1.513 255 255 255
0.679938 0.360647 2.572 0 0 0
-0.0785103 -0.498386 2.044 255 255 255
1.0452 -0.666661 2.181 255 255 255
1.03314 -0.691604 2.085 255 255 255
-0.784741 0.0912945 1.642 255 255 255
-1.00649 -0.101173 1.953 255 255 255
-0.853373 -0.550943 2.092 0 0 0
-0.559542 -0.566846 2.051 255 255 255
-0.446129 0.145074 1.616 255 255 255
-0.635538 0.459695 1.47 255 255 255
-0.0757281 0.255618 2.374 255 255 255
-0.263928 -0.549717 2.037 255 255 255
0.97174 -0.675754 2.099 255 255 255
0.156849 -0.396793 2.22 255 255 255
-0.568649 -0.0554459 2.024 255 255 255
0.321084 -0.230278 2.365 255 255 255
-1.03126 -0.486059 2.136 0 0 0
-0.379673 0.467639 1.48 255 255 255
0.281902 -0.471454 2.181 255 255 255
-0.519032 0.423348 1.452 255 255 255
-0.00226934 -0.0906805 2.338 255 255 255
-0.286153 -0.58747 2.03 255 255 255
1.00269 0.241574 2.278 255 255 255
0.371638 0.286156 1.372 255 255 255
0.484984 -0.76062 2.107 255 255 255
-0.247604 0.206286 2.43 255 255 255
-0.388132 -0.077995 2.099 255 255 255
0.332941 0.296669 1.369 255 255 255
-0.377588 -0.100226 2.136 255 255 255
0.949175 0.323233 2.509 255 255 255
0.923231 -0.731158 2.121 255 255 255
-0.232883 0.611053 2.181 255 255 255
0.57588 -0.798838 2.064 255 255 255
0.832266 0.0322923 2.43 255 255 255
0.578584 -0.743281 2.136 255 255 255
-0.708715 -0.408053 2.128 255 255 255
-0.135704 -0.158787 2.278 255 255 255
-0.422398 0.176375 1.567 255 255 255
0.901957 -0.4298 2.204 255 255 255
-0.364443 0.582983 2.294 255 255 255
-0.559289 0.2137 1.579 255 255 255
-0.508675 0.455125 1.463 255 255 255
-0.950921 -0.295847 2.143 255 255 255
-0.823984 -0.226005 2.078 255 255 255
0.421137 0.431275 1.324 255 255 255
0.501952 -0.424161 2.212 255 255 255
-0.891245 -0.260696 2.085 255 255 255
-0.331 -0.085173 2.196 255 255 255
0.314747 0.353359 1.339 255 255 255
0.577357 -0.080487 2.374 255 255 255
0.443407 -0.0540743 2.402 255 255 255
0.467453 0.514311 1.327 255 255 255
-1.00013 -0.0979953 1.953 255 255 255
0.411287 -0.416352 2.228 255 255 255
0.191282 -0.177945 2.286 255 255 255
0.762846 -0.564037 2.196 255 255 255
-0.26963 -0.567649 2.03 255 255 255
-0.760371 -0.082651 1.966 255 255 255
0.806603 -0.394598 2.228 255 255 255
0.893852 0.0890608 2.469 255 255 255
-0.5226 0.0436393 1.893 255 255 255
0.345493 -0.0495807 2.374 255 255 255
0.48912 0.42936 1.345 255 255 255
0.589436 0.111839 2.44 255 255 255
-0.968537 -0.0945258 1.947 255 255 255
-0.78314 0.124735 1.559 255 255 255
-0.349104 0.417486 1.473 255 255 255
0.926476 0.0484861 2.449 255 255 255
-0.552864 -0.563509 2.051 255 255 255
0.937042 -0.807093 2.121 255 255 255
-0.490756 -0.118191 2.085 255 255 255
0.0486119 -0.4091 2.228 255 255 255
0.113076 -0.348568 2.212 255 255 255
0.343521 -0.380965 2.212 255 255 255
0.169503 -0.419342 2.244 255 255 255
0.0302593 -0.380965 2.212 255 255 255
0.195389 0.380853 1.299 255 255 255
1.00637 -0.153633 2.312 255 255 255
