ply
format ascii 1.0
comment Created by Open3D
element vertex 1314
property double x
property double y
property double z
property uchar red
property uchar green
property uchar blue
end_header
0.428313 0.631484 1.929 255 255 255
-1.09914 -0.485651 2.181 255 255 255
-0.0181983 0.451524 1.165 255 255 255
-0.551789 0.204452 1.587 255 255 255
-0.669426 0.114661 1.799 255 255 255
0.458014 0.114683 2.004 255 255 255
-0.228492 0.321392 1.342 255 255 255
-0.523527 -0.569203 1.978 0 0 0
-0.275642 -0.0622856 1.753 255 255 255
0.461731 0.0649119 1.978 255 255 255
0.842476 0.0867668 1.893 255 255 255
-0.120457 -0.22533 1.779 255 255 255
-0.199199 0.156897 1.336 0 0 0
0.0352512 -0.534108 1.899 255 255 255
-0.678804 0.437074 1.435 255 255 255
-0.164477 0.0675158 1.473 255 255 255
-0.546794 -0.38364 1.935 255 255 255
0.513729 -0.319062 1.769 0 0 0
-1.11554 -0.752001 2.151 0 0 0
0.326456 -0.475928 1.753 255 255 255
-0.129809 0.280901 1.316 255 255 255
0.494557 -0.228055 1.848 255 255 255
0.0179189 -0.12262 1.719 255 255 255
0.608957 -0.33044 1.753 255 255 255
-0.102466 0.37953 1.22 255 255 255
-0.104589 -0.645724 1.805 255 255 255
-0.111765 -0.115224 1.734 255 255 255
-0.915905 -0.0589378 1.923 255 255 255
-0.252961 0.472443 1.278 255 255 255
-0.695025 -0.170453 1.876 255 255 255
-0.782638 -0.481239 2.085 255 255 255
0.878483 0.177777 1.911 255 255 255
-0.447288 -0.561671 1.997 0 0 0
0.493478 0.409952 2.114 255 255 255
0.336155 -0.118042 1.821 255 255 255
-0.3544 0.152892 1.339 255 255 255
-0.160858 -0.264602 1.81 255 255 255
-0.807175 -0.591522 2.044 255 255 255
0.570666 0.401151 1.62 255 255 255
0.402895 -0.57691 1.714 255 255 255
-0.676884 -0.298027 1.911 255 255 255
0.484591 0.512871 1.789 255 255 255
-0.0553127 -0.0700759 1.734 255 255 255
0.192828 0.00854778 1.659 255 255 255
-1.04757 -0.433234 2.099 255 255 255
-0.275642 -0.0223477 1.753 0 0 0
-0.362669 0.291162 1.396 255 255 255
-0.123301 -0.266211 1.821 255 255 255
-0.610314 0.205063 1.633 255 255 255
-0.870774 -0.760586 2.196 255 255 255
0.344352 -0.201625 1.882 255 255 255
0.134574 -0.17265 1.744 255 255 255
-0.572896 -0.486742 2.051 255 255 255
-0.231039 -0.331197 1.853 255 255 255
0.65853 -0.393241 1.779 0 0 0
-0.131258 -0.557065 1.893 255 255 255
-0.0447917 0.282996 1.336 0 0 0
-0.10923 0.167407 1.252 255 255 255
-0.446866 -0.0141514 1.799 255 255 255
-0.484936 0.00926912 1.799 255 255 255
-0.303733 0.298242 1.366 255 255 255
-0.0148606 0.11749 1.384 255 255 255
-0.168225 -0.293685 1.826 255 255 255
0.096021 0.219885 1.194 255 255 255
0.583956 -0.43515 1.705 255 255 255
0.760323 -0.449413 1.696 255 255 255
-0.135231 0.200331 1.229 255 255 255
0.808806 -0.366326 1.682 255 255 255
0.636023 -0.398363 1.789 0 0 0
-0.877665 -0.679457 2.143 0 0 0
-0.34035 -0.00813025 1.763 0 0 0
-0.625792 0.251556 1.528 255 255 255
0.801193 -0.600137 1.633 0 0 0
0.110901 -0.0192281 1.729 255 255 255
0.69229 -0.110761 1.799 255 255 255
0.509117 -0.372491 1.763 255 255 255
0.0786195 0.426619 1.139 255 255 255
-0.245487 0.246636 1.316 255 255 255
0.0378723 0.293932 1.087 255 255 255
-0.490793 -0.0902681 1.799 255 255 255
-0.303748 -0.208545 1.784 255 255 255
0.0542234 -0.249875 1.81 255 255 255
-0.925296 -0.0714552 1.923 255 255 255
0.626135 0.0946951 1.929 255 255 255
-0.446866 -0.0844129 1.799 255 255 255
0.743799 -0.363632 1.748 0 0 0
-0.0264049 -0.312708 1.887 255 255 255
-0.202177 -0.721818 1.865 0 0 0
0.374736 -0.300601 1.779 255 255 255
0.029027 -0.0748461 1.714 255 255 255
-0.633268 -0.163384 1.865 255 255 255
0.828181 -0.133984 1.758 255 255 255
-0.495962 0.175647 1.607 255 255 255
-0.743424 0.316648 1.429 255 255 255
-0.645777 0.514762 1.477 255 255 255
-0.0248237 -0.683711 1.774 255 255 255
-0.821422 -0.281999 1.929 255 255 255
-0.105051 0.180038 1.227 255 255 255
-0.90558 0.104407 1.774 255 255 255
-0.0460787 -0.649302 1.815 255 255 255
0.67746 -0.288502 1.724 0 0 0
0.0241314 0.282872 1.106 255 255 255
-0.887518 -0.779736 2.22 255 255 255
-0.762095 0.237256 1.532 255 255 255
0.119344 -0.123333 1.729 255 255 255
-0.163514 0.254999 1.262 255 255 255
0.437875 -0.616307 1.677 255 255 255
-0.0917414 -0.117706 1.729 255 255 255
-0.310768 -0.0452982 1.758 255 255 255
-0.311584 -0.210855 1.779 255 255 255
0.566261 0.151361 1.972 255 255 255
0.183629 -0.466121 1.899 0 0 0
0.685603 -0.475752 1.599 255 255 255
-0.195332 -0.54541 1.917 0 0 0
-0.0237784 -0.346838 1.923 255 255 255
0.4531 0.17581 2.071 255 255 255
0.194191 -0.0960225 1.744 255 255 255
0.0197326 -0.557065 1.893 255 255 255
0.414808 0.301155 2.099 0 0 0
-0.232533 -0.498541 1.941 255 255 255
0.337118 -0.4079 1.859 255 255 255
0.761245 -0.104323 1.789 255 255 255
-0.550769 -0.24978 1.853 255 255 255
-0.178043 -0.260934 1.805 255 255 255
-0.752856 -0.399182 1.997 255 255 255
0.0430711 -0.262571 1.837 255 255 255
-0.570941 -0.471776 2.044 255 255 255
-0.654519 -0.169454 1.865 255 255 255
-0.138881 -0.622249 1.831 255 255 255
-0.462692 0.267507 1.403 255 255 255
-0.228804 -0.0761561 1.744 255 255 255
0.430118 0.369633 0.97 255 255 255
0.121001 -0.672765 1.753 255 255 255
0.925426 0.588442 1.985 255 255 255
0.853901 -0.0228703 1.794 255 255 255
0.912307 0.0559542 1.794 255 255 255
-0.775794 0.218284 1.575 255 255 255
0.500227 0.236255 2.099 255 255 255
-0.493512 0.354996 1.362 255 255 255
0.834235 0.56754 1.991 255 255 255
0.815282 -0.451477 1.624 255 255 255
0.0850756 -0.0638749 1.719 255 255 255
-0.392876 0.201618 1.359 255 255 255
0.285674 -0.365547 1.859 0 0 0
-0.0945793 -0.577372 1.899 255 255 255
0.201023 0.173369 1.281 255 255 255
-0.171316 -0.538581 1.893 255 255 255
-0.736445 0.346879 1.429 255 255 255
-0.570172 0.230826 1.539 255 255 255
-1.04552 -0.0351018 1.991 255 255 255
-0.911911 -0.796589 2.158 255 255 255
0.0962684 -0.0582801 1.719 255 255 255
-0.00181023 -0.621664 1.865 0 0 0
0.669994 0.388904 1.705 255 255 255
-0.427784 -0.558421 1.997 0 0 0
0.342358 0.580227 1.905 255 255 255
0.488207 0.483792 2.121 255 255 255
-0.344862 -0.327272 1.865 255 255 255
-0.428017 0.401111 1.324 255 255 255
-0.366738 -0.431378 1.966 255 255 255
0.367935 -0.18432 1.893 255 255 255
0.0244805 0.389212 1.122 255 255 255
-1.07748 -0.524609 2.166 255 255 255
0.678293 0.46483 1.719 255 255 255
0.549015 -0.595428 1.642 255 255 255
0.582995 -0.457401 1.655 255 255 255
0.0676428 0.100388 1.463 255 255 255
1.01897 0.60318 1.991 255 255 255
0.500903 -0.58474 1.642 255 255 255
0.04326 0.317511 1.089 255 255 255
-0.733329 0.310322 1.432 255 255 255
-0.288327 0.437088 1.278 255 255 255
0.0237204 -0.168838 1.734 255 255 255
-0.108703 -0.597855 1.876 255 255 255
0.0133775 0.347116 1.11 255 255 255
0.382127 -0.15917 1.887 255 255 255
0.0791696 0.0927999 1.456 255 255 255
0.517311 0.427538 2.099 255 255 255
-0.214725 -0.622221 1.923 0 0 0
-0.0878058 -0.211828 1.763 255 255 255
0.871378 0.0274013 1.837 255 255 255
-0.455819 0.409094 1.336 255 255 255
0.202678 -0.200955 1.794 255 255 255
0.160996 0.131522 1.366 0 0 0
-0.0367951 0.115622 1.362 255 255 255
0.0125698 0.135263 1.429 0 0 0
0.708042 0.165284 1.947 255 255 255
-0.819294 0.13386 1.744 255 255 255
-0.1289 -0.311093 1.859 255 255 255
0.0359195 -0.361598 1.935 255 255 255
0.484046 -0.190202 1.831 255 255 255
0.492988 0.518952 1.831 255 255 255
-0.154063 0.498421 1.286 255 255 255
-0.0895811 0.353763 1.234 255 255 255
-0.873373 -0.596885 2.051 0 0 0
-0.1934 0.337508 1.372 255 255 255
-0.0293985 -0.566078 1.882 255 255 255
-0.762838 0.226215 1.559 255 255 255
-0.502506 -0.0668476 1.799 255 255 255
0.599294 0.324491 1.81 255 255 255
-0.0906691 -0.596705 1.882 255 255 255
0.183255 -0.127533 1.748 255 255 255
0.717468 -0.273678 1.719 0 0 0
-0.33765 -0.28477 1.826 255 255 255
0.534701 -0.562788 1.664 255 255 255
0.423625 0.368454 0.988 0 0 0
0.68708 -0.0235588 1.848 255 255 255
-1.0669 -0.514034 2.166 255 255 255
-0.184743 0.40476 1.281 255 255 255
-0.260862 -0.729466 1.917 255 255 255
0.908777 0.5157 1.991 255 255 255
-0.139641 0.0255269 1.543 255 255 255
0.800002 -0.319552 1.71 255 255 255
0.936283 0.163864 1.859 255 255 255
0.304325 -0.00747079 1.62 255 255 255
0.0245678 0.397929 1.126 255 255 255
-0.421085 0.0354192 1.789 255 255 255
-0.224832 0.221722 1.308 255 255 255
-0.270208 0.101723 1.354 255 255 255
0.303225 -0.346274 1.837 0 0 0
-0.460546 -0.287266 1.842 255 255 255
0.226189 -0.378394 1.893 0 0 0
0.120034 -0.163665 1.739 255 255 255
-0.0114964 0.254999 1.262 255 255 255
-0.900565 -0.0244384 1.917 255 255 255
0.359779 -0.451178 1.682 255 255 255
0.499088 0.606974 1.758 255 255 255
0.39544 -0.372892 1.821 255 255 255
-0.557804 -0.340345 1.887 255 255 255
0.720266 -0.315639 1.719 255 255 255
0.535565 0.373348 1.71 255 255 255
0.880454 0.0213525 1.831 255 255 255
-0.93107 -0.153772 1.935 255 255 255
-0.694381 0.494192 1.473 255 255 255
-0.524551 0.350563 1.362 255 255 255
-0.711387 -0.205231 1.887 255 255 255
0.623711 0.0794909 1.941 255 255 255
-0.63554 0.0530485 1.899 255 255 255
-0.590408 0.525109 1.459 255 255 255
0.195575 -0.61831 1.837 255 255 255
-1.10216 -0.640927 2.166 255 255 255
0.0623618 -0.0468441 1.71 255 255 255
-0.696267 0.505148 1.477 255 255 255
-0.91459 -0.384817 2.024 255 255 255
-0.268791 0.222121 1.336 255 255 255
-0.380441 0.230876 1.362 255 255 255
0.0349335 0.369263 1.106 0 0 0
-0.0724799 -0.460105 1.887 255 255 255
0.0468888 -0.449874 1.87 255 255 255
-0.0289674 0.377235 1.141 255 255 255
0.476369 0.328531 0.984 255 255 255
-0.257012 -0.415129 1.935 255 255 255
-0.28885 -0.310401 1.837 255 255 255
-0.193439 -0.102515 1.758 255 255 255
0.888276 -0.0910717 1.758 255 255 255
0.761245 -0.0955889 1.789 255 255 255
-0.434259 0.327772 1.378 255 255 255
0.247194 0.154262 1.351 255 255 255
-0.649866 0.326806 1.393 255 255 255
0.294504 0.0451712 1.528 255 255 255
-0.0403514 0.193422 1.333 0 0 0
-0.815142 -0.294555 1.929 255 255 255
0.961371 0.43564 1.966 255 255 255
0.500742 -0.434087 1.734 255 255 255
0.378872 -0.479021 1.646 255 255 255
0.46518 0.349342 0.945 255 255 255
-0.371254 0.321175 1.369 255 255 255
0.401831 -0.156595 1.893 255 255 255
-0.515932 -0.60607 2.037 0 0 0
0.503588 0.0649119 1.978 255 255 255
-0.71673 -0.205884 1.893 255 255 255
0.465522 0.451723 1.603 255 255 255
-0.734458 -0.215807 1.899 255 255 255
-0.446652 -0.223366 1.81 255 255 255
0.828476 0.23182 1.947 255 255 255
-0.0716234 -0.0359011 1.719 255 255 255
0.604739 -0.0368012 1.911 255 255 255
0.184726 0.0139473 1.659 255 255 255
-0.110985 0.31317 1.403 0 0 0
-0.863119 -0.0213188 1.917 255 255 255
0.136806 0.0846912 1.439 255 255 255
0.870645 0.502676 1.978 255 255 255
-0.438081 0.0385448 1.799 255 255 255
-0.687914 -0.114825 1.865 255 255 255
-0.288693 -0.0970687 1.763 255 255 255
-0.0103773 0.122259 1.387 255 255 255
0.555722 0.443921 2.064 255 255 255
0.740819 0.109704 1.917 255 255 255
0.477584 0.335444 0.967 255 255 255
0.834656 -0.257416 1.668 255 255 255
0.392111 0.68081 1.779 255 255 255
0.558131 0.264044 2.024 255 255 255
0.307354 -0.486833 1.826 255 255 255
-0.434451 0.535358 1.393 255 255 255
0.456597 0.427628 2.151 255 255 255
-0.459047 0.159739 1.579 255 255 255
-0.303626 0.0244926 1.642 255 255 255
-0.19375 -0.0297246 1.686 255 255 255
-0.462582 -0.361841 1.887 255 255 255
-0.0740932 -0.416981 1.929 255 255 255
-0.616395 0.529068 1.47 255 255 255
0.121805 -0.286884 1.899 255 255 255
-0.116913 0.24588 1.247 255 255 255
-0.338263 0.181754 1.327 255 255 255
-0.576829 0.110137 1.821 255 255 255
0.979744 0.588081 2.017 255 255 255
0.818973 -0.432432 1.642 255 255 255
-1.04397 -0.701783 2.085 255 255 255
0.542208 -0.0489313 1.899 255 255 255
0.877085 0.496239 1.978 255 255 255
0.513083 -0.440596 1.673 255 255 255
-0.6166 0.238287 1.555 255 255 255
-0.624436 0.362068 1.372 255 255 255
0.488719 0.626468 1.637 255 255 255
-1.08806 -0.517559 2.166 255 255 255
0.0455095 -0.327974 1.941 255 255 255
-0.381365 -0.378882 1.911 255 255 255
0.209461 -0.0651383 1.753 255 255 255
0.607638 0.639732 1.686 255 255 255
0.409594 -0.272683 1.805 255 255 255
0.160734 0.201671 1.213 255 255 255
-0.0425204 0.408531 1.156 255 255 255
-1.02279 -0.121043 1.966 255 255 255
-0.105114 0.135954 1.302 255 255 255
0.964572 0.605205 1.966 255 255 255
-0.00136471 0.119357 1.406 255 255 255
0.485983 0.0328392 1.985 255 255 255
-0.663211 0.501383 1.473 255 255 255
-0.376063 -0.0628541 1.769 255 255 255
0.0962684 -0.0191169 1.719 255 255 255
0.325238 0.543518 2.01 0 0 0
-0.163123 0.46926 1.275 255 255 255
-0.652272 -0.234564 1.876 255 255 255
-0.375711 0.321175 1.369 255 255 255
-0.507574 -0.459283 2.004 255 255 255
-0.275225 0.252111 1.357 255 255 255
-0.135121 -0.0818322 1.744 255 255 255
0.0993547 -0.027589 1.724 255 255 255
-0.728156 0.434886 1.459 255 255 255
-0.213777 -0.696554 1.887 0 0 0
0.156139 0.202805 1.208 255 255 255
0.597361 -0.102354 1.859 255 255 255
0.723084 -0.637848 1.655 255 255 255
0.419598 -0.249828 1.876 255 255 255
0.12504 0.0574532 1.524 255 255 255
-0.751217 0.378693 1.435 255 255 255
0.631341 -0.194029 1.784 255 255 255
0.383067 0.34712 2.151 255 255 255
-0.333147 0.24806 1.359 255 255 255
0.508157 -0.109396 1.876 255 255 255
-0.227501 -0.707165 1.899 255 255 255
-0.146416 0.234221 1.239 255 255 255
0.150532 -0.213226 1.799 255 255 255
-0.210584 0.387505 1.286 255 255 255
0.597542 -0.25627 1.753 255 255 255
-0.750445 0.196079 1.603 255 255 255
-0.286269 0.329401 1.357 255 255 255
0.814537 0.110391 1.929 255 255 255
0.276146 0.0745548 1.47 255 255 255
-0.917244 -0.778454 2.196 255 255 255
-1.07389 -0.561666 2.173 255 255 255
0.782343 -0.211519 1.714 255 255 255
0.0805129 -0.395525 1.947 0 0 0
-0.736641 -0.335364 1.929 255 255 255
-0.25481 0.085586 1.378 255 255 255
0.56295 0.36863 1.917 255 255 255
-0.194255 0.230652 1.275 255 255 255
0.768259 0.282515 1.947 255 255 255
0.223094 0.0522175 1.516 255 255 255
-0.853758 -0.167939 1.917 255 255 255
0.280976 -0.339326 1.848 255 255 255
-0.902361 -0.274277 1.941 255 255 255
-0.691363 0.101525 1.826 255 255 255
0.230744 -0.151579 1.763 255 255 255
0.221421 0.620527 1.905 255 255 255
-0.856878 -0.0993085 1.917 255 255 255
-0.286246 0.445407 1.278 255 255 255
-0.664527 0.396796 1.4 255 255 255
0.816302 -0.59915 1.595 255 255 255
0.0308676 0.259917 1.156 255 255 255
-0.41153 -0.490176 1.997 0 0 0
-0.582497 0.19491 1.637 255 255 255
0.591131 0.471847 1.583 255 255 255
0.262705 0.614555 1.935 255 255 255
-0.0850162 0.25793 1.319 255 255 255
0.498974 0.538516 1.911 255 255 255
0.809837 -0.593365 1.629 0 0 0
0.921808 0.343673 1.917 255 255 255
-0.673669 0.447659 1.439 255 255 255
0.772718 0.11558 1.911 255 255 255
-0.286799 0.0382792 1.551 255 255 255
0.638455 0.241023 1.997 255 255 255
-0.426405 -0.582866 2.037 0 0 0
-0.580248 -0.514794 2.03 0 0 0
0.347463 0.581489 1.899 255 255 255
0.389505 0.62586 1.893 255 255 255
-0.450601 -0.246141 1.826 255 255 255
-0.188165 0.470636 1.262 255 255 255
0.194548 0.101772 1.416 255 255 255
-0.549344 -0.372662 1.911 255 255 255
-0.25564 0.415183 1.281 255 255 255
0.849975 -0.195355 1.744 255 255 255
-0.00699443 0.00314072 1.655 0 0 0
-0.0287737 -0.59901 1.842 255 255 255
0.616625 -0.617591 1.637 255 255 255
0.229375 -0.0245822 1.71 255 255 255
-0.322917 -0.467994 1.972 0 0 0
-0.290687 0.269778 1.357 255 255 255
0.0187304 0.288271 1.106 255 255 255
0.54701 0.29659 2.044 255 255 255
0.832006 -0.158823 1.748 255 255 255
-0.49674 0.0152167 1.81 255 255 255
0.311099 -0.62783 1.763 255 255 255
-0.780192 -0.182389 1.905 255 255 255
-0.178599 0.212711 1.267 255 255 255
0.857571 0.578751 1.985 255 255 255
-0.137856 -0.500115 1.899 255 255 255
0.747705 -0.232605 1.705 255 255 255
-0.226325 -0.175125 1.769 255 255 255
0.762073 0.257261 1.972 255 255 255
0.0346304 0.113367 1.477 0 0 0
-0.639669 -0.463379 2.051 255 255 255
0.425393 0.558201 2.004 255 255 255
-0.0696397 0.311046 1.354 0 0 0
0.354991 -0.610005 1.753 255 255 255
0.372225 -0.442769 1.853 0 0 0
0.830785 0.632649 1.923 255 255 255
-0.272713 0.374274 1.313 255 255 255
-0.241203 0.295892 1.316 255 255 255
0.547434 0.215025 1.997 255 255 255
0.696768 0.0499582 1.899 255 255 255
0.190979 0.216199 1.217 255 255 255
-0.852211 0.183804 1.633 255 255 255
-0.0429306 0.00596085 1.691 0 0 0
-0.431075 -0.495267 1.953 0 0 0
0.883104 -0.0433063 1.794 255 255 255
-0.799923 -0.620249 2.051 255 255 255
0.857 0.624703 1.947 255 255 255
0.465184 0.474967 1.62 255 255 255
-0.122169 -0.0263408 1.646 255 255 255
-0.53006 0.15921 1.682 255 255 255
-0.0837784 -0.597384 1.865 0 0 0
-0.206168 -0.16361 1.769 255 255 255
-0.982882 -0.630531 2.085 255 255 255
-0.872081 -0.237311 1.923 255 255 255
-0.516082 0.476419 1.393 255 255 255
-0.369502 -0.112425 1.779 255 255 255
-0.185652 0.383852 1.302 255 255 255
0.012258 -0.0190168 1.71 255 255 255
0.793418 -0.574164 1.65 255 255 255
0.327148 -0.477808 1.837 255 255 255
-0.258726 -0.262263 1.794 255 255 255
0.163578 0.263697 1.124 255 255 255
0.0699267 -0.0133018 1.691 255 255 255
0.783285 -0.238244 1.686 255 255 255
-0.388824 -0.693032 2.22 255 255 255
-0.212526 -0.190054 1.774 255 255 255
-0.592918 0.286676 1.442 255 255 255
0.47533 0.600448 1.646 255 255 255
0.348046 -0.0383833 1.705 255 255 255
0.558045 -0.135002 1.81 255 255 255
-0.165444 0.135214 1.381 0 0 0
0.554043 -0.339214 1.769 255 255 255
-0.560578 0.110439 1.826 255 255 255
0.863339 0.285683 1.947 255 255 255
0.384231 -0.473664 1.646 255 255 255
0.0844773 0.426257 1.143 255 255 255
-0.593953 0.298898 1.422 255 255 255
-0.696856 0.2389 1.559 255 255 255
-0.332517 0.272893 1.384 0 0 0
-0.00339096 0.238203 1.305 0 0 0
0.00112377 -0.016234 1.71 255 255 255
0.801319 0.0646175 1.876 255 255 255
0.463198 0.457255 1.595 255 255 255
-0.100957 0.0833224 1.456 255 255 255
-0.586017 0.30632 1.403 255 255 255
-0.131298 -0.206791 1.769 255 255 255
-0.503852 0.174863 1.624 255 255 255
0.0508593 0.36547 1.1 255 255 255
0.486141 0.540469 1.784 255 255 255
0.233994 0.037983 1.539 255 255 255
-0.67737 0.381664 1.403 0 0 0
-0.177651 0.490008 1.275 255 255 255
0.500416 0.120419 1.991 255 255 255
-1.06328 -0.522768 2.173 255 255 255
0.72224 -0.0487343 1.779 255 255 255
0.429536 0.645805 1.853 255 255 255
-1.15077 -0.560947 2.212 255 255 255
-0.717012 0.394214 1.432 255 255 255
-0.0233134 0.296351 1.137 255 255 255
0.820817 0.483946 1.929 255 255 255
0.462916 0.0915337 1.997 255 255 255
-0.658356 0.151964 1.724 255 255 255
-0.242139 -0.651476 1.917 255 255 255
0.35194 -0.115395 1.826 255 255 255
0.785608 -0.233447 1.691 255 255 255
0.1022 0.299434 1.075 255 255 255
0.802936 -0.50725 1.642 0 0 0
0.930189 0.622778 1.941 0 0 0
-0.274008 0.327945 1.351 0 0 0
-0.405161 0.149974 1.459 255 255 255
-1.08342 -0.784993 2.136 255 255 255
-0.718146 0.378373 1.425 255 255 255
0.214858 -0.617313 1.774 255 255 255
0.735833 -0.197483 1.763 255 255 255
-0.148589 -0.420278 1.959 255 255 255
-0.542284 0.214626 1.567 255 255 255
0.256573 -0.581926 1.763 255 255 255
0.244398 0.667052 1.758 255 255 255
0.480813 -0.234703 1.853 255 255 255
0.747705 -0.23538 1.705 255 255 255
-0.713119 -0.436678 2.051 255 255 255
0.0525541 0.273678 1.098 255 255 255
-0.647721 -0.552797 2.024 0 0 0
0.610222 0.453877 1.62 255 255 255
-0.37379 0.335048 1.362 255 255 255
-0.836576 -0.0656033 1.935 255 255 255
0.798778 0.0870418 1.899 255 255 255
-0.232533 -0.43221 1.941 255 255 255
0.543314 -0.15562 1.81 255 255 255
0.802961 0.00347471 1.831 255 255 255
-0.900328 -0.80153 2.181 255 255 255
0.791651 -0.339031 1.71 0 0 0
0.909387 0.0588736 1.794 255 255 255
-1.02418 -0.571348 2.143 255 255 255
0.1022 0.294186 1.075 255 255 255
-0.339545 -0.235331 1.789 255 255 255
0.0628724 -0.11456 1.724 255 255 255
-0.139163 -0.598443 1.917 255 255 255
-0.0502405 0.191923 1.308 255 255 255
-0.137421 -0.520098 1.893 255 255 255
-1.01949 -0.150294 1.972 255 255 255
-0.51075 -0.559351 1.966 255 255 255
0.921014 0.394133 1.935 255 255 255
-0.707559 -0.546927 2.064 0 0 0
0.0723517 0.24995 1.128 255 255 255
-0.856878 -0.208494 1.917 255 255 255
-0.472698 -0.249795 1.831 255 255 255
-0.631653 0.352439 1.378 255 255 255
-0.0298341 0.195598 1.348 0 0 0
-0.987418 -0.120243 1.953 255 255 255
0.536904 0.376833 1.779 255 255 255
0.815711 0.181454 1.917 255 255 255
0.468892 0.57224 1.941 255 255 255
0.0106546 -0.324933 1.923 255 255 255
0.574466 -0.5942 1.646 255 255 255
-1.04472 -0.702405 2.128 255 255 255
-0.532096 -0.12322 1.81 255 255 255
-0.246795 -0.501737 1.929 255 255 255
-0.127776 0.447246 1.254 0 0 0
0.621057 -0.0307736 1.923 255 255 255
-0.0712477 0.329246 1.196 255 255 255
0.691332 0.650028 1.774 255 255 255
-0.783875 -0.390323 1.985 255 255 255
-0.111043 0.231953 1.227 255 255 255
0.603939 -0.562057 1.646 255 255 255
-0.683742 -0.226727 1.887 255 255 255
0.317709 0.671111 1.784 255 255 255
-0.321743 -0.310401 1.837 255 255 255
0.416463 0.574009 1.947 255 255 255
-0.532628 0.13245 1.763 255 255 255
-0.856878 -0.142983 1.917 255 255 255
-0.531034 0.27581 1.459 255 255 255
-1.02432 -0.571836 2.158 255 255 255
-0.0165571 0.19865 1.339 0 0 0
-0.815142 -0.275721 1.929 255 255 255
-0.728226 0.40955 1.445 255 255 255
-0.704095 -0.568171 1.997 255 255 255
-0.547186 -0.126932 1.821 255 255 255
0.374736 -0.291916 1.779 255 255 255
0.000747205 0.279699 1.137 255 255 255
-1.03813 -0.571348 2.143 255 255 255
-0.742826 0.08643 1.821 255 255 255
-0.86005 -0.760586 2.196 255 255 255
0.453441 -0.592575 1.664 255 255 255
-0.705769 -0.312591 1.905 255 255 255
-0.797205 0.207035 1.587 255 255 255
0.604753 0.0668564 1.941 255 255 255
0.816479 -0.577632 1.637 0 0 0
0.457694 0.194615 2.092 255 255 255
0.340144 -0.404875 1.859 255 255 255
0.82849 0.31064 1.985 255 255 255
0.108449 0.272204 1.085 255 255 255
-0.508187 0.403994 1.348 255 255 255
0.799371 -0.22244 1.691 255 255 255
-0.339586 -0.12943 1.774 255 255 255
0.857853 0.0668407 1.853 255 255 255
-0.980407 -0.356935 1.997 255 255 255
-0.573349 -0.194975 1.848 255 255 255
0.0592141 0.280296 1.089 255 255 255
0.0529768 -0.443788 1.87 255 255 255
0.145792 0.19157 1.237 255 255 255
-0.452723 -0.0492822 1.799 255 255 255
-0.773955 0.2122 1.587 255 255 255
-0.0179544 0.0641904 1.452 255 255 255
-0.199162 -0.0996542 1.758 255 255 255
-0.06533 0.0544321 1.509 255 255 255
0.883994 0.0777528 1.826 255 255 255
0.450147 0.654151 1.724 255 255 255
0.521925 0.527615 2.037 255 255 255
-0.546014 0.108115 1.837 255 255 255
0.0103609 -0.653762 1.87 0 0 0
0.671113 -0.0972987 1.821 255 255 255
-0.643373 0.276809 1.477 255 255 255
-0.853758 -0.136744 1.917 255 255 255
0.773393 0.202019 1.905 255 255 255
-0.100892 0.466805 1.225 255 255 255
-0.43804 0.522895 1.39 255 255 255
0.823957 0.14806 1.929 255 255 255
-0.22804 0.250368 1.302 255 255 255
0.738108 -0.210026 1.748 255 255 255
-0.630755 0.428241 1.406 255 255 255
-0.881082 -0.165852 1.929 255 255 255
0.0654882 -0.0918487 1.719 255 255 255
0.821707 -0.2355 1.686 255 255 255
0.279852 0.0423494 1.516 255 255 255
-0.574486 0.00949067 1.842 255 255 255
-0.978981 -0.688994 2.151 255 255 255
0.0773501 -0.140621 1.734 255 255 255
-0.329458 -0.490702 1.935 0 0 0
-0.461508 -0.0902681 1.799 255 255 255
0.694972 -0.299195 1.705 0 0 0
0.0241134 0.218083 1.299 0 0 0
-0.598943 0.340483 1.375 255 255 255
-0.55388 0.178201 1.655 255 255 255
-0.591033 -0.362192 1.905 255 255 255
-0.548938 0.374944 1.362 255 255 255
-0.406152 0.407253 1.316 255 255 255
-0.803002 -0.579636 2.085 0 0 0
-0.176552 0.110989 1.416 255 255 255
-0.241059 0.222784 1.327 0 0 0
0.399161 0.526311 2.071 255 255 255
0.718984 0.271219 2.004 255 255 255
-0.750296 0.466488 1.484 255 255 255
0.230073 0.64531 1.826 0 0 0
-0.53349 0.475273 1.403 255 255 255
0.857519 0.26901 1.941 255 255 255
-0.585565 -0.60607 2.037 0 0 0
-0.209535 0.480748 1.267 255 255 255
-0.890066 -0.606898 2.051 255 255 255
-0.139242 0.185002 1.247 255 255 255
-0.982482 -0.776504 2.151 255 255 255
-0.104598 0.368217 1.27 0 0 0
-0.788724 0.587496 1.555 255 255 255
0.204368 -0.634433 1.734 255 255 255
0.742745 -0.447707 1.7 255 255 255
0.633072 -0.0888941 1.831 255 255 255
-0.615554 0.25825 1.509 255 255 255
-0.0399276 0.281541 1.319 255 255 255
0.106717 0.147202 1.327 255 255 255
-0.0217835 0.424726 1.154 255 255 255
-0.809476 -0.256087 1.923 255 255 255
0.155686 0.658469 1.758 255 255 255
-0.874802 0.00366069 1.929 255 255 255
-0.29256 0.0193001 1.655 255 255 255
-0.467257 0.180086 1.555 255 255 255
-0.315381 0.0373458 1.62 255 255 255
0.477188 -0.454512 1.616 255 255 255
-0.149746 -0.517018 1.893 255 255 255
0.739248 -0.643234 1.655 255 255 255
-0.336283 0.514722 1.345 255 255 255
0.937061 0.545411 2.017 255 255 255
-0.102067 0.304687 1.406 0 0 0
0.522656 0.0482007 1.953 255 255 255
0.41439 0.548926 2.03 255 255 255
-0.909645 -0.0495497 1.923 255 255 255
0.326799 -0.634001 1.71 255 255 255
-0.790158 -0.469479 2.078 0 0 0
0.874368 0.0274013 1.837 255 255 255
0.547997 -0.0547636 1.887 255 255 255
-1.07091 -0.696045 2.078 0 0 0
0.813143 -0.592846 1.599 0 0 0
-0.0843849 0.206297 1.217 255 255 255
0.486954 0.600006 1.842 255 255 255
0.406614 0.296746 2.092 0 0 0
-0.369257 -0.398146 1.929 255 255 255
-0.417379 -0.377692 1.905 255 255 255
-0.750181 0.249086 1.513 255 255 255
0.86866 0.303384 1.959 255 255 255
-0.264505 -0.172733 1.774 255 255 255
-1.0845 -0.505087 2.173 255 255 255
0.267091 -0.463031 1.899 0 0 0
0.145093 0.672054 1.734 255 255 255
-0.555289 0.137404 1.753 255 255 255
-0.132486 -0.0468441 1.71 255 255 255
-0.182946 0.167016 1.313 255 255 255
0.409597 -0.451486 1.673 255 255 255
0.800108 0.128421 1.917 255 255 255
-0.249557 0.0227325 1.524 255 255 255
0.687959 -0.380017 1.758 0 0 0
-0.00503768 0.268011 1.192 255 255 255
0.807888 0.0157211 1.87 255 255 255
0.95208 0.447272 1.947 255 255 255
-0.16113 -0.541577 1.882 255 255 255
0.73358 -0.340096 1.744 255 255 255
0.570126 -0.102354 1.859 255 255 255
0.302264 0.611593 1.887 255 255 255
0.537811 0.461696 2.099 255 255 255
0.694677 -0.339121 1.739 255 255 255
0.666973 0.64619 1.748 255 255 255
-0.257125 -0.108545 1.763 255 255 255
-0.403612 -0.150903 1.789 255 255 255
0.226759 0.0850443 1.445 255 255 255
0.863693 0.111764 1.899 255 255 255
-0.711387 -0.202161 1.887 255 255 255
0.224248 0.0980554 1.429 255 255 255
-0.865191 -0.717258 2.173 255 255 255
-0.0702261 0.193119 1.247 255 255 255
0.227938 -0.327193 1.882 255 255 255
-0.189076 0.148322 1.357 0 0 0
0.0882453 0.203591 1.249 255 255 255
0.858555 0.337449 2.01 255 255 255
-0.354527 0.0033172 1.748 255 255 255
-0.930505 -0.26562 1.947 255 255 255
-0.0866105 -0.067448 1.739 255 255 255
0.404557 0.516348 2.099 255 255 255
0.561365 0.539538 1.616 255 255 255
0.761582 -0.418503 1.705 255 255 255
0.804372 0.0676704 1.876 255 255 255
0.391724 0.560414 1.966 255 255 255
0.385976 0.540874 2.037 255 255 255
-0.0157562 0.339293 1.126 255 255 255
0.67533 0.321095 2.01 255 255 255
0.0961889 -0.218306 1.769 255 255 255
0.563219 -0.273178 1.789 255 255 255
0.7796 -0.194795 1.739 255 255 255
0.387307 -0.108055 1.853 255 255 255
-0.112412 -0.515379 1.887 255 255 255
0.777303 -0.504351 1.65 0 0 0
-1.01022 -0.798027 2.143 0 0 0
0.865363 0.301268 1.966 255 255 255
0.790222 -0.614928 1.616 0 0 0
-0.0492516 0.248767 1.339 0 0 0
-0.502745 0.442024 1.357 255 255 255
-0.563713 0.076829 1.876 255 255 255
-0.718359 0.472618 1.473 255 255 255
0.0634324 0.125344 1.422 255 255 255
-0.163895 -0.216645 1.779 255 255 255
-0.011961 0.2418 1.313 0 0 0
0.442608 0.639558 1.87 255 255 255
-0.662793 0.116935 1.789 255 255 255
0.36905 -0.488241 1.65 255 255 255
0.24941 -0.133603 1.753 255 255 255
-0.785363 -0.399182 1.997 255 255 255
-0.990723 -0.104031 1.947 255 255 255
0.821185 -0.513635 1.62 255 255 255
0.20276 0.140757 1.348 255 255 255
-0.226441 0.134144 1.305 255 255 255
0.194205 -0.659716 1.719 255 255 255
0.344805 -0.597105 1.774 255 255 255
0.789417 0.279903 1.929 255 255 255
-0.664721 0.242676 1.567 255 255 255
-0.537944 -0.327193 1.882 255 255 255
-0.406963 0.0736224 1.729 0 0 0
-0.309014 0.0846742 1.4 255 255 255
0.871423 -0.0374675 1.794 255 255 255
-0.00136762 0.0989759 1.409 255 255 255
0.401802 -0.633333 1.686 255 255 255
0.844688 -0.0054642 1.831 255 255 255
-0.192312 -0.210263 1.774 255 255 255
0.653935 -0.0441995 1.831 255 255 255
-0.253862 -0.446618 1.935 255 255 255
0.830237 0.192008 1.929 255 255 255
0.217885 0.662116 1.799 0 0 0
0.08326 0.330399 1.079 255 255 255
-0.70724 -0.0941317 1.876 255 255 255
-0.29646 -0.0452982 1.758 255 255 255
-0.255214 0.204734 1.322 255 255 255
0.526204 -0.424579 1.753 255 255 255
-0.212915 -0.374194 1.935 0 0 0
0.897696 0.151938 1.899 255 255 255
-0.351829 -0.0827237 1.763 255 255 255
-0.102923 -0.492575 1.882 255 255 255
-0.174057 0.338984 1.378 255 255 255
0.557626 0.073626 1.953 255 255 255
0.963874 0.5319 1.991 255 255 255
0.288502 -0.646641 1.714 255 255 255
0.475436 0.505316 1.714 255 255 255
0.24083 -0.285071 1.887 255 255 255
-0.360397 0.297977 1.396 255 255 255
0.572253 -0.223304 1.763 255 255 255
0.655454 -0.455566 1.668 255 255 255
0.44329 -0.126189 1.899 255 255 255
-0.391156 0.450084 1.316 255 255 255
-0.787466 -0.781192 2.107 255 255 255
-0.224708 -0.193485 1.779 255 255 255
0.238676 0.12595 1.378 255 255 255
0.184789 -0.319795 1.911 255 255 255
-0.777022 0.184254 1.637 255 255 255
-0.685165 0.169214 1.7 255 255 255
0.536868 0.438706 1.575 255 255 255
-0.0598622 0.201251 1.286 255 255 255
-0.529541 0.558883 1.442 255 255 255
-0.494386 0.250378 1.463 255 255 255
0.0115498 0.335672 1.108 255 255 255
0.85044 0.52866 1.991 255 255 255
-0.540935 -0.0436926 1.81 255 255 255
-0.778173 -0.0182562 1.923 255 255 255
-0.672634 -0.262162 1.899 255 255 255
0.195339 0.202825 1.232 255 255 255
0.802613 0.272774 1.923 255 255 255
0.261076 -0.500177 1.923 255 255 255
-0.0176516 0.357049 1.13 255 255 255
-0.897747 0.0440543 1.911 255 255 255
-0.311065 0.420989 1.286 255 255 255
0.700528 0.132776 1.935 255 255 255
-0.776428 -0.220281 1.911 255 255 255
0.0434863 0.050374 1.535 255 255 255
0.19235 0.107457 1.4 255 255 255
0.701532 -0.616302 1.655 255 255 255
-0.894324 -0.124265 1.917 255 255 255
0.738335 -0.606993 1.659 255 255 255
0.519277 -0.614928 1.616 255 255 255
-1.05858 -0.584664 2.128 255 255 255
-0.141474 -0.272884 1.826 255 255 255
0.0678506 0.443773 1.145 255 255 255
-0.0402519 0.345019 1.145 255 255 255
0.578711 -0.412344 1.774 0 0 0
-0.303042 -0.0769858 1.763 255 255 255
-0.964233 -0.553086 2.181 255 255 255
-0.974701 -0.152024 1.953 255 255 255
-0.464767 -0.153815 1.789 255 255 255
0.410026 -0.467169 1.642 255 255 255
-0.00726491 -0.0442933 1.719 255 255 255
-0.871048 0.118984 1.734 255 255 255
0.446734 -0.421653 1.789 0 0 0
-0.0658851 0.21923 1.281 255 255 255
0.598434 0.0668564 1.941 255 255 255
0.661217 0.61157 1.763 255 255 255
-0.0441492 -0.163665 1.739 255 255 255
0.622426 -0.127281 1.826 255 255 255
0.181108 -0.321891 1.905 255 255 255
-0.642537 -0.0837048 1.848 255 255 255
0.622016 0.558569 1.673 255 255 255
0.630746 0.162615 1.953 255 255 255
-1.07301 -0.763154 2.143 255 255 255
0.628054 -0.57545 1.646 255 255 255
-0.182755 0.136389 1.393 0 0 0
0.293617 0.0182272 1.563 255 255 255
-0.869456 -0.827741 2.166 255 255 255
-0.518717 0.222733 1.535 255 255 255
0.0285095 0.154334 1.412 0 0 0
0.574466 0.619198 1.646 255 255 255
-0.0798281 0.472122 1.208 255 255 255
-0.0606834 -0.653404 1.81 255 255 255
-0.957972 -0.804507 2.151 255 255 255
0.711872 -0.427534 1.719 255 255 255
-0.763339 0.0989116 1.779 255 255 255
0.791113 -0.227943 1.691 255 255 255
-0.416037 -0.219812 1.805 255 255 255
-0.444028 0.2205 1.409 255 255 255
0.392278 -0.435559 1.848 0 0 0
-0.190973 0.43745 1.267 255 255 255
0.170269 0.0908241 1.425 255 255 255
0.853353 -0.017079 1.799 255 255 255
-0.41016 -0.225686 1.805 255 255 255
-0.167212 -0.277148 1.815 255 255 255
-0.0992486 0.148354 1.281 255 255 255
-0.0679681 0.41263 1.173 255 255 255
0.361378 -0.0873405 1.799 255 255 255
-0.627037 0.256473 1.513 255 255 255
-0.401808 -0.58747 2.03 0 0 0
-0.334044 0.308259 1.381 255 255 255
0.666973 0.663258 1.748 255 255 255
0.441889 0.641263 1.893 255 255 255
0.730524 0.256499 1.991 255 255 255
0.215219 -0.312591 1.905 255 255 255
-0.31986 0.269468 1.378 0 0 0
0.433659 0.127281 1.997 255 255 255
0.0519596 0.183409 1.308 255 255 255
0.0769409 0.352955 1.089 255 255 255
0.730359 -0.104906 1.799 255 255 255
0.68139 -0.267601 1.734 255 255 255
-0.406524 -0.133436 1.789 255 255 255
0.722331 -0.537696 1.629 255 255 255
0.18167 0.0487494 1.563 255 255 255
0.170723 -0.270575 1.893 255 255 255
0.778273 -0.588901 1.624 255 255 255
-0.841753 -0.223391 1.911 255 255 255
-0.354201 0.317414 1.372 255 255 255
-0.489799 -0.54142 1.959 255 255 255
0.548797 -0.274705 1.799 255 255 255
-0.0254814 -0.642558 1.821 255 255 255
-0.714821 0.233937 1.543 255 255 255
-0.189946 0.0504953 1.466 255 255 255
0.50474 -0.590087 1.62 255 255 255
-0.627756 0.48242 1.452 255 255 255
0.536654 0.271434 2.03 255 255 255
-0.114918 -0.0702779 1.739 255 255 255
0.212314 -0.130751 1.753 255 255 255
-0.777239 0.459906 1.494 255 255 255
-0.106944 -0.599004 1.899 255 255 255
-0.532365 -0.0113611 1.821 255 255 255
0.596285 0.474423 1.583 255 255 255
-0.940519 -0.112837 1.935 255 255 255
-0.727612 0.535696 1.502 255 255 255
-0.0195773 0.367864 1.135 255 255 255
-0.313726 0.384488 1.297 255 255 255
-0.449128 0.371622 1.342 255 255 255
-0.96912 0.0255548 1.923 255 255 255
0.0191368 0.401182 1.13 255 255 255
-0.946089 -0.295042 1.953 255 255 255
-0.266639 -0.143459 1.769 255 255 255
0.830994 0.318059 1.991 255 255 255
-0.180506 0.321041 1.359 255 255 255
0.682669 -0.123656 1.774 255 255 255
-0.159495 -0.518656 1.899 255 255 255
-0.153082 0.2048 1.244 255 255 255
-0.261679 -0.509565 1.923 255 255 255
-0.034375 0.141384 1.354 255 255 255
0.899819 0.0122713 1.81 255 255 255
0.964305 0.430552 1.972 255 255 255
0.562541 -0.129468 1.815 255 255 255
-0.614112 -0.141225 1.853 255 255 255
-0.0394298 -0.38439 1.923 255 255 255
-0.412288 -0.551836 1.985 0 0 0
0.334106 -0.36203 1.826 0 0 0
0.321362 -0.499092 1.696 255 255 255
0.0289592 -0.0329304 1.71 255 255 255
-0.635336 0.207212 1.629 255 255 255
-0.407801 0.234804 1.372 255 255 255
0.655047 -0.310822 1.739 0 0 0
-0.93774 0.0842 1.837 255 255 255
-0.892348 -0.597309 2.064 0 0 0
0.381351 -0.643245 1.705 255 255 255
-0.301515 0.442283 1.281 255 255 255
-0.586128 0.356038 1.366 255 255 255
0.504994 -0.106967 1.887 255 255 255
0.440524 -0.512128 1.607 255 255 255
-0.1952 -0.198715 1.774 255 255 255
1.00279 0.597335 2.004 255 255 255
-1.1669 -0.581589 2.236 255 255 255
-0.636889 0.261397 1.513 255 255 255
-0.63221 -0.141225 1.853 255 255 255
-0.163258 -0.307412 1.837 255 255 255
-0.593235 -0.564757 1.985 255 255 255
0.276276 0.66923 1.779 255 255 255
-1.00325 -0.829414 2.143 255 255 255
0.328673 -0.651722 1.691 255 255 255
0.0309606 0.148171 1.419 0 0 0
-0.20484 0.327675 1.359 0 0 0
-0.193802 -0.291916 1.815 255 255 255
-0.602278 0.049511 1.882 255 255 255
0.617777 -0.49384 1.633 255 255 255
-0.296836 0.479467 1.297 255 255 255
-0.571089 0.330014 1.378 255 255 255
0.459297 -0.219299 1.876 255 255 255
0.535528 0.297606 2.051 255 255 255
-0.344036 -0.385102 1.911 255 255 255
-0.627197 -0.214978 1.865 255 255 255
-0.441595 0.347147 1.366 255 255 255
-0.200409 -0.166489 1.769 255 255 255
-0.521183 0.376329 1.359 255 255 255
0.181263 -0.0192281 1.729 0 0 0
-0.423707 0.424811 1.324 255 255 255
0.889115 0.310072 1.941 255 255 255
-0.061533 -0.366755 1.929 255 255 255
-0.790753 0.223678 1.559 255 255 255
-0.234163 0.0526285 1.459 255 255 255
-0.620956 -0.563224 1.991 255 255 255
0.0346304 0.110963 1.477 0 0 0
-0.120682 0.419387 1.244 0 0 0
0.185995 -0.607351 1.831 255 255 255
-0.257193 -0.0449374 1.744 0 0 0
0.0787072 0.391876 1.114 255 255 255
0.538123 -0.114086 1.853 255 255 255
-0.00109681 0.386471 1.13 255 255 255
-0.297105 -0.17901 1.779 255 255 255
0.305215 -0.151467 1.831 255 255 255
0.615093 0.327618 1.779 0 0 0
-0.0231972 -0.301727 1.876 0 0 0
0.069337 0.306383 1.081 255 255 255
0.139112 0.273458 1.09 255 255 255
-0.411828 0.28068 1.378 255 255 255
-0.619969 0.359835 1.372 255 255 255
0.252207 0.0471899 1.513 255 255 255
0.0312762 0.28236 1.104 255 255 255
0.132793 0.0494979 1.587 255 255 255
-0.739972 -0.572559 2.024 0 0 0
0.612961 0.00686326 1.947 255 255 255
0.748862 -0.297985 1.714 0 0 0
0.05518 0.223778 1.237 255 255 255
0.0254875 0.0665334 1.505 255 255 255
-0.114976 0.320694 1.396 255 255 255
0.0953777 0.299991 1.077 255 255 255
-0.154959 -0.0406027 1.682 255 255 255
-0.437437 0.449391 1.333 255 255 255
0.23338 -0.027509 1.719 255 255 255
-0.366178 -0.048296 1.763 255 255 255
0.776769 -0.3844 1.739 0 0 0
-0.0207758 0.227616 1.33 255 255 255
0.135837 -0.0724772 1.724 255 255 255
-0.567936 -0.035068 1.821 255 255 255
-0.189424 -0.140978 1.774 255 255 255
0.486158 0.559928 1.763 255 255 255
-0.229657 -0.370713 1.917 0 0 0
0.117342 0.0364236 1.7 0 0 0
0.885088 0.0446714 1.81 255 255 255
0.280976 -0.336318 1.848 255 255 255
0.780102 -0.42057 1.691 0 0 0
0.215219 -0.368392 1.905 0 0 0
-0.476405 0.37683 1.345 255 255 255
-0.0296349 0.213903 1.339 255 255 255
-0.436604 -0.219812 1.805 255 255 255
0.0524952 -0.270889 1.853 255 255 255
-0.035944 -0.199216 1.753 255 255 255
-0.108296 -0.359356 1.923 255 255 255
-0.72591 0.190719 1.624 255 255 255
0.109024 -0.17265 1.744 255 255 255
-0.167271 0.17052 1.291 255 255 255
0.249383 -0.269003 1.882 255 255 255
0.00444101 0.404804 1.135 255 255 255
-0.940519 -0.210452 1.935 255 255 255
0.790733 -0.552683 1.65 0 0 0
-0.249269 -0.246976 1.789 255 255 255
-0.866639 -0.102108 1.911 255 255 255
0.925341 0.319821 1.905 255 255 255
-1.05511 -0.646997 2.128 255 255 255
-0.275197 0.446436 1.275 255 255 255
-0.115955 -0.245429 1.799 255 255 255
0.609352 0.268131 2.03 255 255 255
0.83642 0.365793 2.004 255 255 255
-0.111948 0.469365 1.237 255 255 255
0.63665 -0.38888 1.799 0 0 0
0.314615 0.0209834 1.579 255 255 255
0.314157 0.626219 1.831 255 255 255
0.478125 0.257728 2.107 255 255 255
0.36688 0.563065 1.953 255 255 255
0.379055 -0.153028 1.887 255 255 255
-0.930797 -0.00263383 1.941 255 255 255
-0.909645 -0.0401616 1.923 255 255 255
-0.591918 -0.0829348 1.831 255 255 255
-0.496649 -0.0463546 1.799 255 255 255
-0.0500474 0.353977 1.156 255 255 255
-0.584454 0.526398 1.456 255 255 255
0.853901 -0.0345481 1.794 255 255 255
0.542829 0.192951 2.004 255 255 255
-0.502618 0.151807 1.691 255 255 255
0.514527 -0.0523503 1.911 255 255 255
-0.94301 -0.784446 2.173 255 255 255
0.878788 0.10941 1.859 255 255 255
0.44614 -0.493966 1.599 255 255 255
-0.583796 0.127862 1.779 255 255 255
-0.0858692 0.470934 1.21 255 255 255
0.601614 0.3518 1.7 255 255 255
-0.475578 -0.631795 2.078 0 0 0
-0.209047 -0.16361 1.769 255 255 255
-0.100749 -0.651645 1.789 255 255 255
0.0728564 0.329252 1.081 255 255 255
0.676802 -0.283335 1.744 0 0 0
0.237129 -0.38232 1.882 0 0 0
-0.0147318 0.170056 1.372 0 0 0
0.153919 0.181959 1.254 255 255 255
-0.85956 -0.206017 1.923 255 255 255
0.931822 0.596023 1.978 255 255 255
-0.711971 0.00361515 1.905 255 255 255
0.467292 0.627233 1.646 255 255 255
0.627567 -0.018541 1.953 255 255 255
0.54516 0.533918 1.607 255 255 255
0.459896 0.64198 1.729 255 255 255
-0.762952 -0.122709 1.893 255 255 255
-0.582814 -0.220337 1.859 255 255 255
-0.131298 -0.18664 1.769 255 255 255
0.655478 -0.363884 1.763 0 0 0
0.597 0.601598 1.664 255 255 255
0.0125962 0.130886 1.432 0 0 0
-0.0819547 -0.58787 1.893 0 0 0
-0.242897 -0.381261 1.923 0 0 0
-1.04222 -0.510509 2.166 255 255 255
-0.232772 0.457086 1.27 255 255 255
0.352138 -0.615711 1.753 255 255 255
-0.21185 0.398506 1.281 255 255 255
0.436658 0.359048 0.967 255 255 255
-0.171859 -0.524837 1.899 255 255 255
0.499443 0.412593 1.603 255 255 255
-0.192242 0.163053 1.333 0 0 0
-0.199679 0.13918 1.354 255 255 255
-0.11045 -0.194062 1.758 255 255 255
0.977819 0.383494 1.929 255 255 255
-0.60643 0.127143 1.769 255 255 255
-0.00558709 0.213339 1.322 255 255 255
-0.117248 0.320694 1.396 255 255 255
-0.339902 0.216566 1.342 255 255 255
0.386569 0.343619 2.151 255 255 255
0.521527 0.136207 1.985 255 255 255
-0.16673 -0.0706416 1.748 0 0 0
-0.737778 -0.136872 1.876 255 255 255
0.652402 -0.171761 1.794 255 255 255
-0.0912187 0.178331 1.229 255 255 255
-0.321299 0.0779899 1.445 255 255 255
0.29877 -0.631771 1.758 255 255 255
0.104663 -0.103038 1.719 255 255 255
-0.506068 0.333043 1.372 255 255 255
0.0455686 0.152194 1.372 255 255 255
-0.679648 -0.138657 1.859 255 255 255
-0.242236 0.121867 1.31 255 255 255
-0.846542 0.0193563 1.929 255 255 255
-0.0142942 0.28061 1.156 255 255 255
0.21571 -0.511361 1.966 255 255 255
-0.270245 0.405819 1.291 255 255 255
0.700679 -0.259691 1.719 255 255 255
-0.0449929 0.262428 1.342 0 0 0
0.868564 0.426042 1.966 255 255 255
-0.568339 0.393828 1.366 255 255 255
0.322212 -0.0379556 1.686 255 255 255
-0.0488206 -0.371873 1.923 255 255 255
0.0784158 -0.00782127 1.696 255 255 255
-0.306953 -0.111793 1.769 255 255 255
0.520392 0.210107 2.044 255 255 255
-0.278196 -0.432677 1.929 255 255 255
0.577725 0.441288 1.603 255 255 255
-0.255592 0.381733 1.302 255 255 255
0.672664 -0.266917 1.748 255 255 255
-0.684221 0.370248 1.403 0 0 0
0.663696 0.48345 1.696 255 255 255
-0.376578 0.394737 1.31 255 255 255
-0.351264 0.312074 1.378 255 255 255
0.0925495 0.24995 1.128 255 255 255
-0.0490332 -0.643394 1.815 255 255 255
-0.179212 0.324917 1.366 255 255 255
0.212314 -0.0822545 1.753 255 255 255
0.0296874 -0.196363 1.753 255 255 255
0.570902 -0.547598 1.659 255 255 255
0.544925 -0.0609052 1.887 255 255 255
-0.143877 0.483953 1.27 255 255 255
0.553474 0.397531 1.616 255 255 255
-1.02279 -0.0666543 1.966 255 255 255
0.0597176 -0.0748461 1.714 255 255 255
0.498851 0.0229968 1.972 255 255 255
-0.0865788 0.218717 1.22 255 255 255
0.03216 -0.565011 1.899 255 255 255
-0.118681 0.044668 1.599 0 0 0
0.340688 -0.63433 1.696 255 255 255
-0.539186 0.465144 1.4 255 255 255
-1.00958 -0.165243 1.959 255 255 255
-0.424851 -0.216874 1.805 255 255 255
0.409338 -0.536572 1.65 255 255 255
0.573261 -0.403056 1.784 0 0 0
-0.371573 0.335048 1.362 255 255 255
-0.499061 0.367483 1.359 255 255 255
0.403051 -0.279 1.789 255 255 255
-0.533564 -0.0700078 1.805 255 255 255
-0.109846 0.148585 1.283 255 255 255
-0.257193 -0.025071 1.744 0 0 0
0.351554 0.455631 2.151 255 255 255
0.166775 0.0573024 1.52 255 255 255
-0.198646 -0.228225 1.779 255 255 255
0.562441 0.312927 2.064 255 255 255
-0.278736 0.268979 1.342 255 255 255
0.776494 0.605027 1.905 255 255 255
0.694065 -0.438373 1.696 255 255 255
0.431361 0.362281 0.98 255 255 255
0.884538 -0.00543436 1.821 255 255 255
-0.0639305 0.418832 1.169 255 255 255
-0.635242 0.438199 1.416 255 255 255
0.368644 0.549752 1.997 255 255 255
-0.553433 0.483002 1.419 255 255 255
-0.536352 -0.405783 1.966 255 255 255
-0.432328 0.390338 1.324 255 255 255
0.861827 0.337449 2.01 255 255 255
0.760323 -0.253457 1.696 255 255 255
-0.781407 -0.703408 2.196 0 0 0
-0.067531 0.128556 1.313 255 255 255
0.856822 -0.0345481 1.794 255 255 255
0.0475919 0.199977 1.305 255 255 255
0.839682 0.32992 2.004 255 255 255
-0.702263 0.24147 1.543 255 255 255
0.513794 0.507908 1.575 255 255 255
-0.216065 -0.465511 1.935 255 255 255
-0.240201 0.129299 1.299 255 255 255
-0.467365 -0.0961232 1.799 255 255 255
-0.693556 0.23697 1.563 255 255 255
0.373514 -0.46295 1.646 255 255 255
-0.377111 0.240446 1.366 255 255 255
0.585184 -0.578129 1.646 255 255 255
-0.703417 0.0904242 1.842 255 255 255
0.212673 -0.0190168 1.71 255 255 255
0.0974916 0.341566 1.081 255 255 255
0.194458 -0.62894 1.799 255 255 255
-0.181133 -0.537198 1.899 255 255 255
0.439564 -0.19121 1.87 255 255 255
0.2816 -0.614606 1.758 255 255 255
-0.311584 -0.17322 1.779 255 255 255
-0.530566 -0.462262 2.017 255 255 255
0.240531 0.0957299 1.429 255 255 255
0.631018 -0.441994 1.668 255 255 255
0.952699 0.477667 1.929 255 255 255
0.469957 0.591597 1.882 255 255 255
-0.00128026 0.221441 1.319 255 255 255
-0.367858 -0.545012 1.972 0 0 0
0.549052 0.352391 1.744 255 255 255
0.540355 0.286611 2.044 255 255 255
0.709614 -0.618995 1.655 255 255 255
-0.275642 -0.0594329 1.753 255 255 255
0.536385 0.609417 1.62 255 255 255
0.776142 -0.485504 1.659 0 0 0
-0.652649 -0.484749 2.071 255 255 255
0.133655 0.0428552 1.629 255 255 255
0.925341 0.285721 1.905 255 255 255
-0.938053 -0.477612 2.114 255 255 255
0.566513 -0.315111 1.763 0 0 0
0.568476 0.237059 1.991 255 255 255
0.0618484 0.119817 1.439 255 255 255
-0.894915 0.097096 1.799 255 255 255
0.0414873 0.285612 1.089 255 255 255
0.488183 0.355127 2.136 255 255 255
-0.438364 -0.271539 1.837 255 255 255
-0.469543 0.539201 1.403 255 255 255
0.771704 0.29577 1.972 255 255 255
0.234472 -0.121844 1.748 255 255 255
0.117631 0.235869 1.158 255 255 255
0.479171 -0.45602 1.65 255 255 255
-0.724166 0.546563 1.505 255 255 255
-0.0440223 -0.151908 1.734 255 255 255
0.445823 -0.444089 1.729 255 255 255
0.729857 0.649638 1.805 255 255 255
0.0855223 0.0222325 1.673 0 0 0
0.258611 0.0940581 1.439 255 255 255
0.609296 0.383179 1.668 255 255 255
-0.520508 0.107174 1.821 255 255 255
0.180564 -0.00230138 1.696 255 255 255
-0.859628 0.186918 1.637 255 255 255
0.47234 0.380702 2.143 255 255 255
-0.876992 -0.375303 1.991 255 255 255
0.589747 0.411333 1.629 255 255 255
0.313923 -0.485882 1.779 255 255 255
-0.0229925 0.210776 1.333 255 255 255
0.743939 0.106584 1.917 255 255 255
0.447828 -0.528117 1.624 255 255 255
0.0934507 0.295936 1.075 255 255 255
-0.705817 -0.561042 2.03 0 0 0
0.0748194 0.146027 1.336 255 255 255
-0.0367847 -0.668064 1.794 255 255 255
0.208693 -0.215833 1.821 255 255 255
0.56716 -0.233358 1.774 255 255 255
0.677286 -0.570517 1.655 255 255 255
0.0738674 0.154901 1.319 255 255 255
-0.696901 0.318973 1.429 255 255 255
-0.627197 -0.187664 1.865 255 255 255
0.472036 -0.445703 1.682 255 255 255
0.52731 -0.201568 1.826 255 255 255
-0.436863 -0.095856 1.794 255 255 255
-0.68665 0.281616 1.477 255 255 255
-0.181095 -0.0409407 1.696 0 0 0
-0.491731 0.424983 1.345 255 255 255
-0.386566 -0.640071 2.128 255 255 255
-0.537422 -0.302018 1.859 255 255 255
0.498233 -0.599149 1.616 255 255 255
-0.0948781 -0.455194 1.905 255 255 255
0.896404 0.370703 1.978 255 255 255
-0.0325483 -0.312708 1.887 255 255 255
0.190025 -0.00228238 1.682 255 255 255
-0.847826 0.110181 1.774 255 255 255
0.215219 -0.300191 1.905 255 255 255
0.81713 -0.537331 1.612 255 255 255
-0.908264 -0.378884 2.01 255 255 255
0.903085 0.299999 1.917 255 255 255
-0.231017 0.300859 1.319 255 255 255
-0.639175 0.546181 1.484 255 255 255
0.502139 0.0909837 1.985 255 255 255
-0.739805 0.13386 1.744 255 255 255
-0.431023 -0.0228703 1.794 255 255 255
0.606623 0.00686326 1.947 255 255 255
-0.619237 0.0742087 1.887 255 255 255
-0.152405 0.032567 1.52 255 255 255
0.517638 -0.0554601 1.911 255 255 255
0.204166 0.0914614 1.435 255 255 255
0.687818 -0.0381358 1.826 255 255 255
-0.440988 0.502683 1.378 255 255 255
-0.536912 0.30369 1.412 255 255 255
-0.219894 -0.624887 1.941 0 0 0
-0.79185 -0.761275 2.128 255 255 255
-0.296395 0.11533 1.333 255 255 255
-0.504074 -0.322063 1.87 255 255 255
-0.492193 0.293873 1.409 255 255 255
-0.781407 -0.706982 2.196 255 255 255
0.692537 -0.450856 1.603 255 255 255
-0.225514 -0.509596 1.935 255 255 255
-0.194208 -0.671124 1.876 0 0 0
0.791872 0.227243 1.935 255 255 255
0.379466 -0.489722 1.637 255 255 255
0.64026 -0.0856798 1.826 255 255 255
0.566939 0.234524 1.997 255 255 255
0.827452 -0.283024 1.659 255 255 255
-0.0502205 0.313672 1.16 255 255 255
-0.0355544 -0.157551 1.734 255 255 255
-0.723737 0.527981 1.494 255 255 255
-0.0464849 -0.610331 1.831 255 255 255
0.133947 0.292981 1.077 255 255 255
-0.187924 0.137461 1.381 255 255 255
0.778098 -0.554022 1.646 255 255 255
-0.625459 -0.0534577 1.842 255 255 255
0.703002 -0.0519195 1.789 255 255 255
0.0383424 -0.571192 1.899 255 255 255
0.144849 0.198331 1.229 255 255 255
0.538505 0.491151 2.037 255 255 255
0.397601 -0.491118 1.624 255 255 255
0.433381 -0.282699 1.794 255 255 255
0.746934 0.164774 1.941 255 255 255
0.535528 0.50454 2.051 255 255 255
0.055362 0.305188 1.083 255 255 255
0.0317705 -0.463529 1.876 255 255 255
-0.546719 -0.521245 2.004 0 0 0
-0.452626 0.419022 1.333 255 255 255
-0.512146 -0.396236 1.935 255 255 255
0.0377569 -0.662891 1.87 255 255 255
-0.148989 -0.472012 1.923 255 255 255
0.153319 0.242114 1.143 255 255 255
0.403805 0.618197 1.917 255 255 255
0.0574385 0.069628 1.575 0 0 0
-0.247539 0.233581 1.327 255 255 255
-0.134859 0.35932 1.345 255 255 255
0.498803 0.537916 2.051 255 255 255
0.600076 0.330907 2.01 255 255 255
