ply
format ascii 1.0
comment Created by Open3D
element vertex 1308
property double x
property double y
property double z
property uchar red
property uchar green
property uchar blue
end_header
0.0126809 0.118507 1.769 255 255 255
-0.687516 -0.138841 1.646 255 255 255
0.124451 -0.684657 2.044 255 255 255
-0.535649 0.647133 1.691 0 0 0
0.301411 -0.246419 1.724 255 255 255
-0.346237 -0.795193 2.374 255 255 255
-0.801415 -0.485139 2.53 255 255 255
0.113352 0.329943 1.018 255 255 255
-0.00302718 0.406024 1.165 255 255 255
-0.302982 -0.446191 2.43 255 255 255
0.476032 -0.0539537 1.452 255 255 255
0.536413 0.163115 1.316 255 255 255
-0.104875 -0.435689 2.253 255 255 255
-0.00536317 -0.698074 2.064 0 0 0
-0.844026 -0.47645 2.572 0 0 0
0.585683 0.0667443 1.316 255 255 255
-0.57189 -0.823846 2.572 255 255 255
-0.732976 0.550222 1.826 255 255 255
0.702036 -0.156149 1.48 255 255 255
-0.127232 0.419739 1.21 255 255 255
-0.403426 -0.870175 2.347 255 255 255
0.727429 -0.20947 1.449 255 255 255
-0.0582995 -0.652607 2.158 255 255 255
-0.452931 -0.337566 2.037 255 255 255
-0.332937 -0.126499 1.696 255 255 255
0.328546 0.292981 1.077 255 255 255
0.615981 0.0962383 1.281 255 255 255
-0.00201697 -0.587835 2.078 255 255 255
-0.821507 0.505709 1.805 255 255 255
0.123351 0.207721 1.633 255 255 255
0.50899 0.0983939 1.369 255 255 255
0.114965 -0.192958 1.748 255 255 255
0.174126 0.0598282 1.587 255 255 255
-0.468967 -0.0414959 1.719 255 255 255
-0.31545 0.365272 1.359 255 255 255
0.23619 -0.775616 2.004 255 255 255
-0.210126 -0.362468 2.166 255 255 255
-0.576258 -0.0423092 1.642 255 255 255
-0.191077 -0.501501 2.32 255 255 255
-0.80695 0.412304 1.917 255 255 255
0.639398 -0.382543 1.48 255 255 255
0.468779 0.294069 1.081 255 255 255
-0.516381 0.633374 1.691 255 255 255
-0.244995 0.379614 1.302 255 255 255
-0.668787 0.58363 1.774 255 255 255
0.396821 0.261196 1.137 255 255 255
-0.720805 0.613091 1.719 255 255 255
0.356469 0.0596284 1.456 255 255 255
0.615324 0.24843 1.21 255 255 255
0.225998 -0.708676 1.972 255 255 255
-0.637667 -0.248222 1.887 255 255 255
-0.622078 0.117081 1.629 255 255 255
-0.0498543 0.283523 1.487 255 255 255
0.362249 0.172832 1.432 255 255 255
0.0614248 -0.163055 1.763 255 255 255
0.703842 -0.22126 1.449 255 255 255
-0.790927 0.565274 1.789 255 255 255
-0.329207 -0.0295659 1.677 0 0 0
-1.41884 -0.0786488 2.871 255 255 255
0.656909 -0.325177 1.429 0 0 0
0.306881 -0.701411 1.997 255 255 255
0.0848066 -0.00495091 1.659 255 255 255
-0.0711102 -0.596547 2.121 255 255 255
-0.536477 0.357813 1.603 255 255 255
0.399222 0.215999 1.194 255 255 255
-1.1614 0.248942 2.312 255 255 255
-0.528325 0.222843 1.571 255 255 255
0.695523 -0.0980769 1.513 255 255 255
-0.37235 -0.875266 2.32 255 255 255
-0.098164 0.390028 1.267 255 255 255
-0.0921647 -0.492554 2.212 255 255 255
0.514332 0.293458 1.066 255 255 255
0.183629 -0.327058 1.899 255 255 255
-0.803676 -0.931187 2.78 255 255 255
-0.226801 0.451325 1.283 255 255 255
0.399705 0.32983 0.969 255 255 255
0.216388 -0.145717 1.633 255 255 255
-0.302612 0.063653 1.848 255 255 255
0.0914521 -0.249887 1.789 255 255 255
-0.677826 0.104655 1.642 255 255 255
0.642101 -0.367938 1.509 255 255 255
0.180759 0.294284 1.015 255 255 255
0.053411 -0.0270609 1.691 255 255 255
0.259875 -0.0350965 1.559 255 255 255
0.103652 0.352976 1.037 255 255 255
-0.844423 0.536059 1.779 255 255 255
-0.319714 -0.114892 1.729 255 255 255
-0.679805 -0.872824 2.684 255 255 255
-0.0783243 -0.45986 2.228 255 255 255
-0.947273 -0.475798 2.638 0 0 0
0.187693 0.332903 0.942 255 255 255
-0.537471 0.0272309 1.646 255 255 255
0.161602 -0.600223 2.051 0 0 0
-0.33765 0.0866673 1.826 255 255 255
0.638771 -0.411895 1.473 255 255 255
0.119906 0.289138 1.491 255 255 255
0.113552 -0.306028 1.865 255 255 255
-1.13748 0.203838 2.356 255 255 255
-1.10405 -0.993824 2.967 255 255 255
0.551631 -0.244776 1.603 0 0 0
0.160192 0.356821 0.961 0 0 0
0.0501155 -0.175125 1.769 255 255 255
0.28356 -0.427426 1.865 255 255 255
-0.428507 0.119945 1.748 255 255 255
-0.555104 -0.151696 1.7 0 0 0
-0.214166 0.467419 1.27 0 0 0
-0.672416 -0.816743 2.672 255 255 255
-0.375825 0.579014 1.513 255 255 255
0.422574 -0.0742617 1.48 255 255 255
-0.899701 0.59243 1.724 255 255 255
0.251015 0.28402 1.477 0 0 0
-0.104514 0.448133 1.176 255 255 255
-0.533317 -0.202677 1.71 255 255 255
0.673982 -0.428216 1.416 0 0 0
0.621418 -0.41948 1.466 255 255 255
-0.00351049 0.352129 1.351 255 255 255
-0.580515 0.0638659 1.624 255 255 255
-0.461017 0.141549 1.7 255 255 255
0.480228 0.292163 1.087 255 255 255
0.472207 -0.0909361 1.477 255 255 255
-0.859834 0.481229 1.769 255 255 255
0.219532 0.103367 1.543 255 255 255
-0.307844 -0.537728 2.469 255 255 255
0.382866 0.12303 1.422 255 255 255
-0.66084 -0.986437 2.626 255 255 255
0.246641 0.273861 1.064 255 255 255
0.277664 0.250317 1.491 255 255 255
0.0647099 0.371697 1.092 255 255 255
0.653233 0.0594488 1.297 255 255 255
0.605017 0.241945 1.217 255 255 255
-0.59946 0.37706 1.677 255 255 255
-0.823741 -0.528591 2.561 255 255 255
-0.397817 -0.64159 2.53 255 255 255
0.681272 -0.344286 1.412 255 255 255
0.304861 0.158281 1.47 255 255 255
-0.164007 0.341226 1.369 255 255 255
0.240128 -0.184825 1.65 255 255 255
0.0584728 -0.664486 2.064 255 255 255
0.174262 0.347436 0.944 255 255 255
-0.228745 0.402551 1.294 255 255 255
-0.422893 0.157033 1.659 255 255 255
-1.17373 0.239403 2.329 255 255 255
0.45501 0.00729576 1.416 255 255 255
-1.40949 -0.0693046 2.871 255 255 255
0.317989 -0.148984 1.583 255 255 255
-0.835736 0.538954 1.779 255 255 255
-0.378127 -0.424935 2.356 255 255 255
0.0884101 -0.575199 2.057 255 255 255
0.651084 -0.466755 1.354 0 0 0
0.535329 -0.0294268 1.409 255 255 255
0.683753 0.00701753 1.362 255 255 255
0.280591 -0.181465 1.62 255 255 255
-0.104344 0.432399 1.196 255 255 255
-0.569432 0.655421 1.677 255 255 255
-0.439859 0.244162 1.513 255 255 255
0.306313 0.0604885 1.477 255 255 255
0.556289 0.19792 1.278 255 255 255
0.497859 -0.25745 1.686 255 255 255
0.552288 0.115736 1.313 255 255 255
0.0528154 -0.168793 1.763 255 255 255
-0.110965 -0.48524 2.228 255 255 255
-0.604316 -0.164102 1.714 0 0 0
0.317137 -0.303428 1.831 255 255 255
0.10453 0.309901 1.081 255 255 255
-1.208 0.224712 2.374 255 255 255
-0.676769 -0.119143 1.633 255 255 255
-0.149485 0.0979596 1.815 255 255 255
0.255589 -0.14122 1.612 255 255 255
0.353686 0.350221 0.923 255 255 255
-0.302809 -0.142528 1.831 255 255 255
0.559203 -0.101503 1.491 255 255 255
-1.01388 0.365555 2.136 255 255 255
0.216943 -0.0149904 1.579 255 255 255
0.128667 -0.0234753 1.633 255 255 255
-0.473183 0.000463441 1.714 255 255 255
-0.952921 -0.699195 2.793 255 255 255
-0.818568 0.505709 1.805 255 255 255
0.082799 0.109353 1.673 255 255 255
0.278144 -0.288166 1.81 255 255 255
-0.124537 0.427099 1.203 255 255 255
0.058803 0.317411 1.422 255 255 255
-0.138015 0.434206 1.201 255 255 255
-0.00943672 0.220789 1.612 255 255 255
0.605017 0.291457 1.217 255 255 255
-0.276243 0.467859 1.33 255 255 255
0.61478 -0.160637 1.571 255 255 255
-1.07936 0.367649 2.128 255 255 255
0.377968 0.348712 0.931 255 255 255
-0.329524 0.314778 1.4 255 255 255
-0.371256 -0.803663 2.411 255 255 255
0.691095 0.00921361 1.359 255 255 255
0.57932 0.259382 1.234 255 255 255
-0.340584 0.0976897 1.81 255 255 255
-0.128635 -0.68942 2.22 255 255 255
-0.584699 -0.723497 2.649 255 255 255
0.360833 0.0944503 1.445 255 255 255
0.309517 0.226395 1.208 255 255 255
0.402637 0.270014 1.143 255 255 255
-0.644203 -0.206794 1.794 255 255 255
-0.150187 -0.810117 2.166 255 255 255
0.1257 0.207212 1.629 255 255 255
0.388159 0.357418 0.93 255 255 255
-0.0486539 0.353973 1.384 255 255 255
0.519517 0.302503 1.198 0 0 0
-0.677911 0.208479 1.682 255 255 255
0.143041 0.317311 0.994 255 255 255
-0.326419 -0.296155 1.899 255 255 255
-1.33063 0.07305 2.615 255 255 255
-0.323255 -0.739352 2.32 255 255 255
-0.537461 -0.934321 2.509 255 255 255
-0.537942 -0.8085 2.55 255 255 255
-0.848754 -0.428569 2.561 255 255 255
-0.0306308 -0.466059 2.189 255 255 255
-0.12733 -0.558656 2.261 255 255 255
-0.52619 -0.137539 1.696 255 255 255
-0.553511 0.196568 1.607 255 255 255
-0.637797 0.614097 1.714 255 255 255
-0.908574 0.488203 1.763 255 255 255
0.585021 0.0504789 1.339 255 255 255
-0.252417 -0.697468 2.294 255 255 255
0.231254 -0.1094 1.607 255 255 255
-0.810875 -0.715585 2.684 255 255 255
-0.125874 0.0216791 1.859 255 255 255
-0.175513 0.469698 1.217 255 255 255
-0.343145 0.00900634 1.748 255 255 255
0.201666 -0.653625 2.051 255 255 255
-0.859834 0.530167 1.769 255 255 255
-0.797297 -0.493373 2.53 255 255 255
-0.705436 -0.891618 2.649 255 255 255
-0.865695 -1.03998 2.805 255 255 255
0.107315 0.305204 1.452 255 255 255
0.0800757 0.144746 1.673 255 255 255
0.559263 -0.202025 1.595 255 255 255
-0.667639 0.327758 1.719 255 255 255
-0.488855 0.077508 1.691 255 255 255
0.466904 0.314281 1.005 255 255 255
0.637188 -0.2206 1.509 255 255 255
0.693308 -0.320306 1.359 255 255 255
-0.409226 0.0521183 1.763 255 255 255
-0.717741 0.484676 1.848 255 255 255
0.706245 -0.0822578 1.494 255 255 255
0.582995 -0.32274 1.655 255 255 255
-0.951193 0.333019 2.128 255 255 255
0.547068 -0.318843 1.677 255 255 255
0.218776 0.262958 1.098 255 255 255
0.392111 -0.175627 1.591 255 255 255
0.614826 0.124346 1.27 255 255 255
-0.101529 0.216078 1.616 255 255 255
0.096864 0.326483 1.055 255 255 255
0.410018 -0.425751 1.794 0 0 0
0.00933325 0.373258 1.302 255 255 255
0.594035 0.00037178 1.375 255 255 255
0.3489 0.257725 1.114 255 255 255
0.638894 -0.138757 1.555 255 255 255
-0.403426 -0.877814 2.347 255 255 255
-0.774342 -0.468863 2.509 255 255 255
-0.455367 -0.87755 2.42 255 255 255
0.380937 0.216925 1.21 255 255 255
0.143434 -0.625032 2.078 255 255 255
-0.113918 -0.22982 1.966 0 0 0
0.5396 0.260502 1.249 255 255 255
-0.113889 0.175633 1.682 255 255 255
-0.433515 -0.861404 2.43 255 255 255
0.629365 -0.298061 1.595 0 0 0
0.690078 -0.328668 1.357 255 255 255
-0.434882 -0.859799 2.53 255 255 255
-0.0625274 -0.196769 1.865 255 255 255
-0.295425 0.291975 1.445 255 255 255
-0.239241 -0.29519 1.997 0 0 0
0.158133 0.316732 0.958 255 255 255
-0.431136 -0.294917 1.911 255 255 255
0.2573 0.285703 1.044 255 255 255
0.0319561 0.394965 1.128 255 255 255
-0.169671 -0.572273 2.286 255 255 255
-0.45348 0.15723 1.633 255 255 255
-0.319816 0.0926103 1.826 255 255 255
-0.981189 0.416444 1.966 255 255 255
-1.16319 0.132718 2.459 255 255 255
0.0876381 -0.279591 1.831 255 255 255
-0.370684 0.496589 1.473 255 255 255
0.116136 0.395754 1.043 255 255 255
0.489034 0.311414 1.017 255 255 255
0.131325 -0.0208179 1.633 255 255 255
0.139002 0.25804 1.599 255 255 255
0.0852667 0.11717 1.668 255 255 255
-0.303733 0.333809 1.366 255 255 255
-0.547117 0.143535 1.659 255 255 255
-0.30964 -0.816384 2.303 255 255 255
-0.227514 0.378739 1.299 255 255 255
0.106391 -0.390051 2.017 255 255 255
-0.55715 0.0243584 1.633 255 255 255
-0.479829 -0.646662 2.55 255 255 255
0.15048 0.291379 1.034 255 255 255
0.265745 0.0276199 1.52 255 255 255
-0.189105 -0.278452 2.017 255 255 255
-0.197715 0.307505 1.419 255 255 255
-0.281282 0.157885 1.668 255 255 255
-0.505419 0.0962556 1.682 255 255 255
-0.640861 0.21708 1.664 255 255 255
-0.187861 0.443061 1.22 255 255 255
-0.356451 -0.115989 1.664 255 255 255
-0.738855 0.0193467 1.659 255 255 255
0.701958 -0.268459 1.412 255 255 255
0.389511 -0.446976 1.821 0 0 0
-0.0718281 -0.0462258 1.794 255 255 255
0.297682 0.100869 1.47 255 255 255
0.199479 0.061467 1.563 255 255 255
-0.0672551 0.336597 1.396 255 255 255
-0.561359 0.303788 1.607 255 255 255
0.661863 -0.131718 1.532 255 255 255
0.439982 0.304841 1.034 255 255 255
-0.0993661 -0.668937 2.212 255 255 255
0.543798 0.162123 1.308 255 255 255
-0.00508417 0.401649 1.203 255 255 255
-0.123304 -0.788978 2.128 255 255 255
0.651392 -0.270757 1.412 255 255 255
0.439438 -0.081487 1.48 255 255 255
0.586302 0.18312 1.262 255 255 255
-1.41798 -0.158531 2.967 255 255 255
0.395918 0.115843 1.419 255 255 255
0.646182 0.0796857 1.283 255 255 255
-0.827436 -0.403535 2.509 255 255 255
-0.0497626 -0.164367 1.842 255 255 255
0.405125 0.00748124 1.452 255 255 255
-0.865863 -0.41013 2.55 255 255 255
-0.162629 0.150289 1.705 255 255 255
-0.698869 -0.479527 2.459 255 255 255
-0.563936 0.634925 1.71 0 0 0
0.392828 0.0146401 1.459 255 255 255
0.327834 0.23289 1.348 255 255 255
0.232965 0.138564 1.516 255 255 255
-0.2756 -0.223391 1.911 255 255 255
-0.440607 -0.170658 1.696 255 255 255
0.44121 0.301874 1.053 255 255 255
-0.274481 -0.00867903 1.882 255 255 255
-0.676765 -0.877618 2.672 255 255 255
-0.594968 0.289028 1.642 255 255 255
-0.0456903 -0.299898 1.923 255 255 255
0.0681551 0.35087 1.217 255 255 255
-0.459807 -0.235627 1.748 255 255 255
-0.455587 0.589979 1.603 255 255 255
0.707239 -0.230316 1.432 255 255 255
-0.354593 0.328448 1.4 255 255 255
-0.307392 0.518653 1.403 255 255 255
0.238831 -0.63242 2.114 255 255 255
0.134828 0.292907 1.16 255 255 255
-0.803215 0.341619 1.923 255 255 255
0.152041 0.283514 1.081 255 255 255
-0.323582 0.277133 1.466 255 255 255
0.516773 -0.246582 1.65 255 255 255
0.171975 0.204967 1.591 255 255 255
-0.573868 -0.109032 1.682 255 255 255
-0.11022 -0.832901 2.143 255 255 255
-0.269749 0.353148 1.33 255 255 255
0.382346 -0.392136 1.774 255 255 255
-0.299776 -0.0477755 1.744 0 0 0
0.634937 -0.316428 1.583 255 255 255
0.154219 -0.180415 1.71 255 255 255
-0.335749 0.0119933 1.769 255 255 255
0.198678 0.355707 0.958 255 255 255
-0.987939 0.431022 1.917 255 255 255
-0.841302 0.644924 1.664 255 255 255
-0.355655 -0.135674 1.673 255 255 255
0.699102 -0.168646 1.484 255 255 255
0.677531 -0.437564 1.409 0 0 0
-0.0422689 0.127862 1.779 255 255 255
-1.30639 0.16875 2.519 255 255 255
0.0266923 0.366083 1.322 255 255 255
-0.2305 0.231882 1.563 255 255 255
-0.543349 0.130428 1.664 255 255 255
-0.418045 -0.806159 2.479 255 255 255
-0.0845164 0.348711 1.381 255 255 255
-0.640861 0.252282 1.664 255 255 255
0.142988 0.382971 1.005 255 255 255
-0.514979 -0.552395 2.499 0 0 0
0.62619 -0.400395 1.466 255 255 255
0.0709446 0.361509 1.345 255 255 255
-0.595561 -0.0366724 1.629 255 255 255
-0.169671 -0.575993 2.286 255 255 255
0.388541 0.142541 1.409 255 255 255
0.0186567 -0.527516 2.121 255 255 255
0.652398 -0.274695 1.551 255 255 255
0.290071 0.0846958 1.48 255 255 255
-0.535649 0.608608 1.691 255 255 255
-0.274822 -0.641472 2.294 255 255 255
0.15585 -0.421135 1.978 255 255 255
-0.0276803 0.436358 1.165 255 255 255
-0.867735 0.370538 2.03 255 255 255
-0.821704 0.498172 1.799 255 255 255
-0.542947 0.343909 1.599 255 255 255
0.074186 -0.244747 1.794 255 255 255
0.257133 0.0595007 1.513 255 255 255
0.502257 0.385371 1.007 255 255 255
0.318177 -0.340295 1.837 255 255 255
0.441404 0.333117 0.974 255 255 255
-0.943828 -0.685559 2.793 255 255 255
-1.33789 0.03116 2.672 255 255 255
-0.494239 -0.237243 1.739 255 255 255
-0.26529 0.0433857 1.882 255 255 255
-0.473736 0.0666974 1.696 255 255 255
-0.135761 0.361724 1.354 255 255 255
0.141176 -0.0233459 1.624 255 255 255
0.24438 -0.534064 1.991 0 0 0
-0.174725 0.414595 1.254 255 255 255
0.643961 -0.251967 1.463 255 255 255
-0.774716 -0.718518 2.695 255 255 255
-0.134215 -0.479685 2.253 255 255 255
-0.0522185 0.202902 1.637 255 255 255
-0.622337 -0.365592 2.228 255 255 255
0.664243 -0.365256 1.498 0 0 0
0.446332 0.321516 0.992 255 255 255
-0.168322 -0.223421 1.966 255 255 255
-0.44438 -0.595273 2.561 255 255 255
-0.432324 -0.118219 1.696 255 255 255
-0.335586 0.1606 1.668 255 255 255
-0.730577 -0.532061 2.499 0 0 0
0.622958 0.156843 1.249 255 255 255
-0.675436 -0.837882 2.684 255 255 255
-0.254365 -0.78528 2.278 255 255 255
0.560511 0.300864 1.215 0 0 0
-0.122181 -0.299834 2.051 0 0 0
-0.764946 -0.695286 2.707 255 255 255
0.110666 0.118015 1.642 255 255 255
-0.514711 0.570093 1.659 255 255 255
0.575542 0.234641 1.252 255 255 255
-0.712793 0.564455 1.805 255 255 255
0.585196 0.157785 1.273 255 255 255
0.408525 0.0448819 1.439 255 255 255
0.659027 -0.381604 1.449 0 0 0
0.647351 -0.162374 1.539 255 255 255
0.628199 0.0617967 1.302 255 255 255
-0.0156421 0.389412 1.265 255 255 255
-0.0802223 -0.556635 2.181 255 255 255
0.175542 -0.0629877 1.624 255 255 255
0.327326 0.335546 1.073 255 255 255
0.418111 0.213867 1.215 255 255 255
-0.623915 -0.0417423 1.62 255 255 255
-0.00200339 -0.691356 2.064 0 0 0
0.406645 -0.0234603 1.466 255 255 255
-0.699292 -0.444873 2.489 255 255 255
-0.49674 -0.891301 2.469 255 255 255
0.0721184 -0.127241 1.744 255 255 255
0.313299 -0.296656 1.826 255 255 255
0.389827 -0.1384 1.551 255 255 255
-0.549333 -0.605268 2.604 255 255 255
-0.135873 0.23286 1.587 255 255 255
-0.648052 0.604698 1.719 255 255 255
-0.241293 0.229926 1.567 255 255 255
0.414991 0.0468954 1.429 255 255 255
-1.36469 0.0858163 2.615 255 255 255
-0.651246 0.106477 1.629 255 255 255
0.161524 0.000436943 1.616 255 255 255
0.41661 0.357374 0.95 255 255 255
0.171088 0.248871 1.607 0 0 0
0.528502 0.291399 1.118 0 0 0
-0.884966 0.547639 1.779 255 255 255
0.10532 0.15008 1.642 255 255 255
0.570657 0.00261505 1.378 255 255 255
0.561669 0.112907 1.305 255 255 255
0.185658 -0.0654688 1.62 255 255 255
-0.540016 -0.493708 2.411 0 0 0
0.572332 0.136376 1.286 255 255 255
0.301634 -0.0697087 1.539 255 255 255
-0.180519 -0.650724 2.236 255 255 255
0.25278 0.254098 1.122 255 255 255
-0.709748 -0.895929 2.649 255 255 255
0.639859 -0.370131 1.498 255 255 255
0.190582 -0.00475991 1.595 255 255 255
-0.623211 0.640626 1.646 255 255 255
0.613782 -0.148231 1.575 255 255 255
0.453725 0.00957294 1.412 255 255 255
-0.197562 0.40748 1.283 255 255 255
0.408329 0.104517 1.422 255 255 255
-0.345505 -0.599518 2.509 255 255 255
-0.393757 0.109187 1.758 255 255 255
-0.318192 -0.0903526 1.691 0 0 0
-0.31517 0.258114 1.494 255 255 255
0.168191 0.28051 1.05 255 255 255
-0.281109 0.0308539 1.865 255 255 255
0.134762 0.306449 1.017 255 255 255
-1.56592 -0.115658 2.982 255 255 255
-0.294543 0.318108 1.375 255 255 255
-0.109433 -0.0533126 1.837 255 255 255
-0.449811 -0.102499 1.71 255 255 255
0.49625 -0.0957432 1.477 255 255 255
-0.00552793 0.370721 1.308 255 255 255
-0.104066 0.353137 1.372 255 255 255
0.617452 -0.368402 1.491 255 255 255
0.0444914 0.37576 1.12 255 255 255
0.677546 -0.108995 1.528 255 255 255
0.365626 -0.323718 1.763 255 255 255
-0.484926 0.399754 1.563 255 255 255
-0.474863 0.00324509 1.71 255 255 255
-0.609144 0.162943 1.637 255 255 255
-0.704223 0.181539 1.686 255 255 255
0.169813 0.125695 1.571 255 255 255
-0.0653251 -0.691236 2.158 255 255 255
-0.243655 -0.175269 1.929 255 255 255
-0.0472742 -0.684189 2.136 255 255 255
0.336191 -0.578547 2.057 255 255 255
0.317472 0.0555305 1.473 255 255 255
0.376515 0.0942542 1.442 255 255 255
-0.578341 -0.235331 1.789 255 255 255
-0.495727 -0.00500462 1.677 255 255 255
-0.274165 0.189909 1.595 255 255 255
-0.794593 0.498095 1.831 255 255 255
-0.0636087 0.318376 1.416 255 255 255
0.476783 -0.334357 1.729 255 255 255
0.711982 -0.134662 1.456 255 255 255
0.689542 -0.349451 1.378 255 255 255
0.29954 -0.468133 1.87 255 255 255
-0.239443 0.340407 1.393 255 255 255
-0.338403 -0.0214425 1.682 0 0 0
-0.638362 -0.652564 2.731 255 255 255
-0.115415 -0.558107 2.244 255 255 255
0.362738 0.328876 1.025 0 0 0
0.526795 -0.338954 1.682 255 255 255
0.567466 0.133013 1.294 255 255 255
0.11006 0.151915 1.633 255 255 255
0.313325 0.272204 1.085 255 255 255
0.474738 0.343192 0.994 255 255 255
0.401402 0.170025 1.39 255 255 255
-1.0129 0.434141 1.917 255 255 255
0.414077 0.225336 1.192 255 255 255
0.635821 -0.285013 1.403 0 0 0
-1.01255 -1.06679 2.982 255 255 255
-0.506223 0.260202 1.535 255 255 255
-0.141003 0.415652 1.227 255 255 255
0.20389 0.299239 1.015 255 255 255
-0.265903 0.269599 1.477 255 255 255
-0.197586 0.295753 1.452 255 255 255
-0.666494 -0.740101 2.793 255 255 255
0.335095 0.346795 0.934 255 255 255
-0.599681 -0.0659942 1.633 255 255 255
-0.470237 0.107697 1.734 255 255 255
-0.709901 0.0351809 1.642 255 255 255
-0.185177 -0.264402 2.01 255 255 255
0.244818 0.222002 1.513 255 255 255
0.730945 -0.0863039 1.48 255 255 255
0.562437 0.290071 1.106 255 255 255
0.729694 -0.0519816 1.463 255 255 255
0.439494 0.095791 1.396 255 255 255
0.408233 -0.459141 1.799 255 255 255
-0.366046 0.323681 1.409 255 255 255
0.0283643 0.276421 1.528 255 255 255
-0.0629034 -0.794112 2.078 255 255 255
0.329237 -0.119123 1.563 255 255 255
0.430805 -0.431902 1.748 0 0 0
-1.04385 0.402971 2.078 255 255 255
-0.0465747 0.16038 1.724 255 255 255
-0.434047 0.616631 1.591 255 255 255
-0.380038 0.594061 1.52 255 255 255
-0.230082 -0.227599 1.947 255 255 255
0.183271 0.268653 1.555 255 255 255
0.176771 0.343269 0.941 255 255 255
0.338245 0.146588 1.449 255 255 255
0.394673 0.215637 1.192 255 255 255
0.477438 0.245442 1.205 255 255 255
-0.669426 0.48939 1.799 255 255 255
-0.203609 0.191776 1.633 255 255 255
0.128448 0.297685 1.075 255 255 255
0.05995 -0.24331 1.805 255 255 255
-0.328722 0.320884 1.387 255 255 255
0.178841 0.0519492 1.583 255 255 255
-0.0639932 -0.577377 2.114 255 255 255
-0.0683784 -0.174959 1.859 255 255 255
0.626659 -0.0635799 1.456 255 255 255
-0.601248 0.63274 1.682 255 255 255
0.031381 -0.276919 1.853 255 255 255
0.283473 0.0249644 1.509 255 255 255
0.108163 0.39424 1.048 255 255 255
-0.595821 0.122984 1.637 255 255 255
0.617184 0.0136166 1.357 255 255 255
0.553933 -0.331695 1.673 255 255 255
0.512058 0.146682 1.342 255 255 255
-0.199429 -0.682266 2.244 255 255 255
0.433792 -0.136348 1.528 255 255 255
-0.498583 0.130176 1.696 255 255 255
-0.676742 -1.01241 2.638 255 255 255
0.262934 0.362429 1.007 255 255 255
0.168997 0.0266684 1.612 255 255 255
0.517913 -0.00189022 1.393 255 255 255
0.6355 0.071779 1.291 255 255 255
-0.499865 0.107778 1.691 255 255 255
0.257208 0.000417205 1.543 255 255 255
-0.199695 -0.118765 1.929 255 255 255
-0.239532 -0.59622 2.278 255 255 255
-0.922702 -0.909404 2.898 255 255 255
-0.421975 -0.0718887 1.71 255 255 255
-0.314602 0.18452 1.616 255 255 255
-0.663478 0.0961089 1.633 255 255 255
0.214957 -0.277632 1.799 255 255 255
-0.232018 0.267301 1.491 255 255 255
0.0312963 -0.264143 1.848 255 255 255
-0.580263 -0.828031 2.572 255 255 255
-0.613678 0.192833 1.642 255 255 255
0.217632 -0.438309 1.899 0 0 0
-0.912506 0.413691 2.064 255 255 255
0.614194 -0.134384 1.563 255 255 255
0.318548 0.109386 1.456 255 255 255
0.0385893 0.270898 1.539 255 255 255
-0.964628 -0.889317 2.925 255 255 255
-0.0017617 -0.203308 1.815 255 255 255
0.471604 0.188597 1.345 255 255 255
-0.993776 0.416869 1.953 255 255 255
0.107877 0.358626 1.029 255 255 255
0.14596 0.32274 0.981 0 0 0
-0.158999 0.289624 1.445 255 255 255
-1.11028 0.318645 2.196 255 255 255
-1.08989 0.193173 2.32 255 255 255
0.133761 0.306292 1.022 255 255 255
-0.291366 0.0155782 1.853 255 255 255
0.61263 -0.344286 1.655 0 0 0
0.656569 -0.130153 1.543 255 255 255
-0.0518322 0.399143 1.244 255 255 255
0.432434 -0.139198 1.532 255 255 255
0.476972 0.0163963 1.406 255 255 255
0.452285 0.131522 1.366 255 255 255
-0.948486 -0.736656 2.78 255 255 255
0.353519 0.202133 1.425 255 255 255
0.659129 -0.315779 1.567 255 255 255
-1.12474 0.291283 2.261 255 255 255
0.243393 0.00294335 1.551 255 255 255
0.132589 0.121406 1.616 255 255 255
0.652503 -0.321763 1.445 0 0 0
-0.913042 -0.576194 2.626 255 255 255
0.499779 -0.0345678 1.432 255 255 255
0.207172 -0.623469 2.107 255 255 255
0.277664 0.0780463 1.491 255 255 255
-1.42255 -0.0037221 2.743 255 255 255
0.257504 0.360074 1.005 255 255 255
0.138355 0.30999 1.007 255 255 255
-0.165644 0.256529 1.528 255 255 255
-0.387319 -0.716252 2.489 255 255 255
0.406189 -0.0427487 1.473 255 255 255
-0.401386 0.187314 1.595 255 255 255
0.0722925 -0.0406027 1.682 255 255 255
-0.092498 -0.555751 2.22 255 255 255
-0.565063 -0.177113 1.705 255 255 255
0.576701 0.25196 1.237 255 255 255
0.141176 -0.0207031 1.624 255 255 255
-0.0848624 0.443563 1.169 255 255 255
-0.714569 0.633374 1.691 255 255 255
0.271056 -0.67685 2.071 255 255 255
-0.775659 0.599775 1.729 255 255 255
-0.473094 0.198785 1.583 255 255 255
-0.483213 -0.11363 1.71 255 255 255
0.108012 -0.239131 1.774 255 255 255
0.234631 0.256437 1.249 255 255 255
0.0714981 -0.0895693 1.729 255 255 255
0.238793 0.323126 1.002 255 255 255
0.206738 -0.699049 1.972 255 255 255
-0.172936 0.325398 1.387 255 255 255
0.249084 0.088811 1.509 255 255 255
0.621175 -0.179245 1.555 255 255 255
-0.582302 0.0349024 1.629 255 255 255
-0.639092 0.618229 1.71 255 255 255
0.583577 0.177379 1.265 255 255 255
-1.45343 -0.0696184 2.884 255 255 255
-0.567789 0.258686 1.603 255 255 255
0.248912 0.250415 1.27 255 255 255
0.52529 0.233142 1.244 255 255 255
-0.380612 0.216621 1.563 255 255 255
-0.591379 -0.559247 2.53 0 0 0
-0.27107 -0.265475 1.923 0 0 0
0.533941 -0.388694 1.696 255 255 255
-0.188299 -0.119504 1.941 255 255 255
0.608952 0.268785 1.213 255 255 255
-0.509376 0.142363 1.677 255 255 255
-0.0251735 -0.119544 1.799 255 255 255
0.288498 0.353222 0.977 255 255 255
0.194609 -0.500082 1.947 255 255 255
0.714456 -0.29495 1.396 255 255 255
0.286023 0.0849247 1.484 255 255 255
-0.300445 -0.110761 1.799 255 255 255
-1.05033 -0.879797 2.925 255 255 255
-0.97788 0.416869 1.953 255 255 255
0.36145 0.270762 1.108 255 255 255
-0.150374 0.421913 1.222 255 255 255
-0.108419 0.431172 1.198 255 255 255
0.524583 0.37558 1.025 255 255 255
0.458245 0.0656887 1.384 255 255 255
-0.178807 0.418676 1.254 0 0 0
-0.241104 -0.420066 2.329 255 255 255
0.527352 -0.0201258 1.4 255 255 255
-0.641045 -0.89294 2.615 255 255 255
0.430398 0.312717 1 255 255 255
-0.357468 0.246617 1.498 255 255 255
-0.710766 0.142787 1.682 255 255 255
0.379975 -0.306504 1.763 255 255 255
-0.263118 0.204967 1.591 255 255 255
-0.0641808 0.222165 1.603 255 255 255
-0.250286 0.275497 1.47 255 255 255
-0.539925 0.295176 1.575 255 255 255
-0.350831 0.120631 1.758 255 255 255
0.0862195 -0.623745 2.085 0 0 0
0.478968 0.133745 1.366 255 255 255
-0.570441 -0.00753074 1.633 255 255 255
-0.55318 0.215324 1.591 255 255 255
-0.553185 0.0483935 1.637 255 255 255
-0.718114 0.437305 1.826 255 255 255
-0.0330657 -0.298962 1.917 255 255 255
0.672197 -0.186801 1.494 255 255 255
-0.404288 -0.69619 2.519 255 255 255
0.264929 -0.246419 1.724 255 255 255
0.512272 0.00489981 1.39 255 255 255
0.259312 -0.630531 2.085 255 255 255
0.381251 0.168597 1.416 255 255 255
0.0650465 0.354214 1.359 255 255 255
0.492557 0.203755 1.302 255 255 255
-1.01649 0.414118 2.017 255 255 255
-0.512627 -0.505507 2.43 0 0 0
0.579361 0.0568881 1.336 255 255 255
0.261824 -0.594598 2.078 255 255 255
0.54639 0.191233 1.289 255 255 255
0.572967 0.271169 1.242 255 255 255
0.23918 0.288068 1.449 0 0 0
-0.304143 -0.234564 1.876 0 0 0
0.503391 -0.269721 1.677 0 0 0
-0.280055 0.340945 1.359 255 255 255
0.618327 -0.38235 1.47 255 255 255
0.371194 -0.125456 1.547 255 255 255
-0.665899 0.421964 1.774 255 255 255
0.465003 0.0656887 1.384 255 255 255
-0.643741 -1.01208 2.626 255 255 255
0.482808 0.299213 1.032 255 255 255
0.519743 0.292659 1.265 255 255 255
-0.399672 -0.00517473 1.734 255 255 255
0.396959 0.328592 0.97 255 255 255
-0.796368 0.471112 1.842 255 255 255
-0.390232 0.212617 1.571 255 255 255
0.334519 0.282798 1.085 255 255 255
-0.115888 0.205063 1.633 255 255 255
0.424766 -0.196689 1.637 255 255 255
0.655663 -0.13947 1.535 255 255 255
-0.388139 0.549468 1.513 255 255 255
-0.0386971 0.358724 1.351 255 255 255
0.267956 0.112015 1.491 255 255 255
-0.377473 0.303966 1.435 255 255 255
-0.682143 0.637587 1.659 255 255 255
-0.671041 -0.726465 2.793 255 255 255
0.201521 0.0235529 1.579 255 255 255
-0.573585 0.120687 1.642 255 255 255
0.183574 0.282219 1.05 255 255 255
0.186292 -0.275621 1.805 255 255 255
-0.888828 0.478236 1.758 255 255 255
0.464767 0.181446 1.357 255 255 255
-0.0653937 0.374274 1.313 255 255 255
-0.301076 -0.0582801 1.719 0 0 0
-0.116701 -0.21625 1.959 0 0 0
-0.712413 0.483102 1.842 255 255 255
-0.258979 -0.747117 2.286 255 255 255
-0.304069 0.162433 1.659 255 255 255
0.517128 0.238254 1.239 255 255 255
-0.96519 -1.11621 2.884 0 0 0
-0.538838 0.0779341 1.642 255 255 255
-0.0755201 0.397942 1.234 255 255 255
-0.233251 -0.233936 1.947 255 255 255
-0.108933 0.322992 1.406 255 255 255
-0.505438 0.610297 1.673 255 255 255
0.61192 0.228172 1.239 255 255 255
-0.0401927 0.394024 1.26 255 255 255
0.597644 -0.0913671 1.484 255 255 255
0.398594 -0.203621 1.65 255 255 255
0.626629 -0.0583965 1.445 255 255 255
0.564678 -0.268253 1.603 255 255 255
0.385844 -0.0552542 1.487 255 255 255
0.173973 0.294198 1.456 255 255 255
0.130341 -0.654281 2.085 255 255 255
-0.312931 -0.654975 2.356 255 255 255
-0.646237 -0.406538 2.383 255 255 255
-0.900704 -0.51846 2.615 0 0 0
-0.149413 -0.488748 2.261 255 255 255
0.0011586 0.0119526 1.763 255 255 255
0.2049 0.313788 0.988 255 255 255
-0.392513 -0.0325645 1.691 255 255 255
0.140246 -0.513073 1.985 255 255 255
-0.517187 -0.812649 2.55 255 255 255
-0.474714 -0.923705 2.459 255 255 255
0.0410295 0.372398 1.299 255 255 255
-0.0515487 0.216078 1.616 255 255 255
-0.209838 0.0955818 1.826 255 255 255
0.59232 -0.230446 1.559 255 255 255
-0.211981 -0.658 2.261 255 255 255
-0.658072 -0.973794 2.615 255 255 255
-0.770654 -0.851837 2.743 255 255 255
-0.0595208 -0.79073 2.078 255 255 255
0.272073 -0.700609 2.004 255 255 255
0.580301 0.0360152 1.369 255 255 255
0.419231 0.252829 1.158 255 255 255
-0.116733 0.258375 1.539 255 255 255
0.604137 0.129289 1.278 255 255 255
-0.632752 -0.756959 2.707 255 255 255
-0.863141 -0.933732 2.857 255 255 255
0.561684 0.000372591 1.378 255 255 255
0.450572 0.216075 1.239 255 255 255
0.616302 0.173519 1.252 255 255 255
-0.652322 0.00568237 1.612 255 255 255
0.490622 -0.0180898 1.419 255 255 255
0.731345 -0.141466 1.429 255 255 255
0.110887 -0.0983165 1.686 255 255 255
0.148752 0.285853 1.07 255 255 255
0.376547 -0.25067 1.734 255 255 255
-0.498497 0.64376 1.668 255 255 255
-0.310437 0.236448 1.543 255 255 255
-0.758392 -1.06143 2.731 255 255 255
-0.00126959 0.372849 1.308 255 255 255
0.498938 0.0941442 1.372 255 255 255
-0.569432 0.450743 1.677 255 255 255
-0.653815 -0.973794 2.615 255 255 255
-0.0635882 -0.469047 2.22 255 255 255
-0.272138 -0.140745 1.887 255 255 255
-0.708912 -0.643962 2.695 255 255 255
0.398947 0.228053 1.176 255 255 255
0.210807 0.259922 1.173 255 255 255
0.197251 0.283188 1.041 255 255 255
-0.709855 0.561518 1.805 255 255 255
-1.07374 -0.861375 2.911 255 255 255
0.47983 0.29558 1.055 255 255 255
0.169269 0.288827 1.477 255 255 255
-0.345216 -0.441709 2.449 255 255 255
-0.724695 -0.707615 2.755 255 255 255
-0.513036 -0.837548 2.55 255 255 255
0.35566 0.330636 1.005 255 255 255
-0.88207 0.469474 1.779 255 255 255
-0.340048 0.345711 1.378 255 255 255
-0.31731 -0.461636 2.449 255 255 255
0.707239 -0.0299072 1.432 255 255 255
0.407832 0.358189 0.944 255 255 255
0.611163 0.163593 1.254 255 255 255
0.0425259 0.0666974 1.696 255 255 255
0.568907 -0.346133 1.677 0 0 0
-0.162586 -0.0365701 1.899 255 255 255
-0.205623 0.22253 1.587 255 255 255
0.0183775 -0.0884617 1.763 255 255 255
0.349974 0.335703 1.057 255 255 255
0.485487 -0.0610423 1.452 255 255 255
0.205375 -0.515916 1.959 255 255 255
-0.572287 0.612663 1.71 0 0 0
0.39134 -0.135525 1.547 255 255 255
-0.957895 -0.640366 2.755 255 255 255
0.680033 -0.111482 1.528 255 255 255
0.647349 -0.130828 1.551 255 255 255
-0.0629007 -0.503286 2.196 255 255 255
0.0477641 0.192513 1.686 255 255 255
-0.125129 0.0786896 1.848 0 0 0
0.25551 -0.321068 1.882 255 255 255
-0.34294 -0.379175 2.181 255 255 255
-0.630097 0.196458 1.65 255 255 255
0.19999 0.250326 1.567 255 255 255
0.324965 0.344835 1.043 255 255 255
0.337033 -0.45213 1.842 255 255 255
-0.140165 0.373468 1.333 255 255 255
0.252707 0.0596186 1.516 255 255 255
0.0753441 -0.156425 1.753 255 255 255
0.220161 0.262479 1.096 255 255 255
-1.12899 0.130613 2.42 255 255 255
-0.145111 0.358637 1.359 255 255 255
0.729464 -0.107761 1.477 255 255 255
-0.460573 -0.0834565 1.719 255 255 255
-0.123304 -0.785515 2.128 255 255 255
0.395174 0.148465 1.4 255 255 255
0.574021 -0.10198 1.498 255 255 255
0.540321 -0.267799 1.616 255 255 255
-0.360217 -0.187269 1.748 255 255 255
0.585387 -0.00412128 1.381 255 255 255
-0.896549 0.547639 1.779 255 255 255
-0.153655 0.457659 1.201 255 255 255
-0.328869 0.232026 1.547 255 255 255
-0.0997119 0.257201 1.547 255 255 255
0.31227 0.0125601 1.494 255 255 255
-0.454682 0.260015 1.505 255 255 255
0.0715266 0.274823 1.547 255 255 255
-0.103474 0.401307 1.232 255 255 255
-0.402691 -0.595273 2.561 255 255 255
0.556289 0.199999 1.278 255 255 255
0.655556 -0.222528 1.473 255 255 255
-0.0479066 -0.235939 1.887 255 255 255
0.11378 0.312475 1.037 255 255 255
0.24828 0.372406 0.969 255 255 255
-0.636113 -0.218797 1.821 255 255 255
0.033718 -0.744664 1.991 255 255 255
-0.561179 -0.00222132 1.637 255 255 255
-0.354322 0.371342 1.39 255 255 255
0.524298 0.306904 1.041 255 255 255
-0.447629 0.530976 1.575 255 255 255
-0.33461 0.118105 1.763 255 255 255
-0.539015 0.475603 1.659 255 255 255
0.659709 -0.347456 1.425 0 0 0
-0.686305 -0.393413 2.374 255 255 255
0.410043 0.168924 1.381 255 255 255
-0.216332 0.129213 1.758 255 255 255
-0.668066 -0.0782618 1.612 255 255 255
0.322096 0.227293 1.182 255 255 255
-0.00792843 -0.246775 1.876 255 255 255
0.164281 -0.633924 2.085 255 255 255
0.266063 0.129259 1.494 255 255 255
-0.233506 -0.155948 1.923 255 255 255
0.163142 0.277924 1.073 255 255 255
-0.528364 0.100883 1.668 255 255 255
0.230863 0.255924 1.122 255 255 255
-0.779587 0.542455 1.81 255 255 255
-1.28968 0.194309 2.479 255 255 255
0.0908663 -0.553032 2.037 255 255 255
-0.270143 -0.758277 2.286 255 255 255
0.280074 0.27958 1.066 255 255 255
-0.110035 -0.181814 1.899 255 255 255
0.15732 0.281755 1.081 255 255 255
-0.0637224 0.19483 1.659 255 255 255
0.64234 -0.159869 1.539 255 255 255
-0.330955 -0.124031 1.7 255 255 255
0.342015 0.174401 1.445 255 255 255
0.336199 0.25814 1.108 255 255 255
0.38438 0.028965 1.463 255 255 255
-0.00111526 0.421016 1.149 255 255 255
-0.142373 0.361724 1.354 255 255 255
-0.658196 -0.0944678 1.62 255 255 255
0.711982 -0.144139 1.456 255 255 255
0.136713 -0.159995 1.7 255 255 255
-0.692478 -0.0812864 1.62 255 255 255
0.39936 0.327688 0.972 255 255 255
-0.132558 -0.820691 2.166 255 255 255
0.00404213 -0.111793 1.769 255 255 255
0.353042 0.159959 1.442 255 255 255
-0.496299 -0.316028 1.985 255 255 255
-0.904961 -0.501438 2.615 0 0 0
-0.652078 0.291286 1.686 255 255 255
0.342982 0.340785 1.041 0 0 0
0.561536 -0.0292388 1.4 255 255 255
0.0773395 0.33298 1.381 255 255 255
0.284181 0.160111 1.487 255 255 255
0.707327 -0.1499 1.466 255 255 255
-0.361965 -0.0705013 1.677 255 255 255
-0.791195 -1.0578 2.768 255 255 255
-0.473085 0.265617 1.509 255 255 255
-0.340609 -0.239305 1.842 0 0 0
0.427696 -0.299724 1.724 0 0 0
-0.340845 -0.840118 2.286 255 255 255
-0.776769 0.615888 1.719 255 255 255
0.207861 -0.343709 1.923 255 255 255
0.682073 -0.330068 1.372 255 255 255
0.116093 0.346456 1.013 255 255 255
0.665667 -0.49209 1.339 0 0 0
-0.804424 0.644129 1.655 255 255 255
-0.00313112 0.398395 1.205 255 255 255
0.558226 0.152317 1.297 255 255 255
-0.321975 -0.0625 1.682 0 0 0
0.323432 0.253645 1.12 255 255 255
0.075385 0.25673 1.575 255 255 255
-0.482082 -0.573858 2.54 255 255 255
-0.2805 0.520589 1.372 255 255 255
0.638241 0.00259797 1.369 255 255 255
-0.556227 0.396875 1.646 255 255 255
-0.76381 0.473959 1.865 0 0 0
-0.869705 0.437305 1.826 255 255 255
0.505616 -0.0465423 1.442 255 255 255
0.0869703 0.353905 1.06 255 255 255
0.387713 0.167406 1.406 255 255 255
0.135469 0.335617 0.986 255 255 255
0.424113 0.326528 0.978 255 255 255
0.276373 -0.227943 1.691 255 255 255
0.675797 -0.131583 1.502 255 255 255
-0.379015 0.307991 1.432 255 255 255
-0.0572667 0.207212 1.629 255 255 255
-0.207083 0.0648241 1.882 255 255 255
0.284224 0.0201063 1.513 255 255 255
-0.180025 0.136307 1.739 255 255 255
-0.00127153 0.369156 1.31 255 255 255
-0.521886 -0.156396 1.691 255 255 255
0.1503 -0.0714837 1.637 255 255 255
0.548207 -0.118942 1.528 255 255 255
-0.19968 0.0561388 1.899 255 255 255
0.676436 -0.182425 1.498 255 255 255
-0.164074 -0.469673 2.312 255 255 255
0.115197 -0.595284 2.057 255 255 255
-0.24526 0.0161163 1.917 255 255 255
0.619895 -0.257785 1.571 255 255 255
-0.874043 0.371816 2.037 255 255 255
-0.455056 0.206513 1.583 255 255 255
-0.496991 -0.148929 1.7 0 0 0
-0.233706 0.4928 1.31 255 255 255
0.41813 0.106381 1.416 255 255 255
0.178389 0.0929308 1.579 255 255 255
-0.175177 -0.407801 2.261 255 255 255
-0.215662 -0.635923 2.261 255 255 255
0.203162 0.297977 1.396 255 255 255
-0.054609 -0.681993 2.151 255 255 255
-1.04609 -1.12419 2.967 255 255 255
0.464215 -0.0492279 1.452 255 255 255
0.595111 0.265711 1.217 255 255 255
-0.754037 -0.741957 2.638 255 255 255
0.0788982 -0.481378 2.071 255 255 255
-0.775079 0.587401 1.734 255 255 255
-0.504734 -0.816799 2.55 255 255 255
0.0343725 0.315304 1.466 255 255 255
-0.281342 0.242716 1.535 255 255 255
-0.510845 0.588059 1.664 255 255 255
0.58088 0.0813626 1.31 255 255 255
0.5335 0.262535 1.249 255 255 255
0.0510762 -0.695572 2.037 255 255 255
0.204731 -0.346838 1.923 255 255 255
0.402755 0.240688 1.154 255 255 255
-0.885161 0.184355 2.017 255 255 255
-0.588446 0.0797226 1.624 255 255 255
-0.404774 -0.394815 2.189 255 255 255
0.125314 0.0347953 1.624 255 255 255
0.123048 0.0136951 1.629 255 255 255
0.445718 0.330385 0.98 255 255 255
-0.0471647 0.43931 1.178 255 255 255
0.667481 -0.394838 1.412 0 0 0
-0.419508 -0.0382708 1.7 255 255 255
-0.598347 -0.190861 1.729 255 255 255
-0.823983 -0.680643 2.684 255 255 255
-0.194182 -0.511059 2.312 255 255 255
-0.0623556 0.39356 1.252 255 255 255
-1.30255 0.089314 2.593 255 255 255
0.0287135 -0.450313 2.099 255 255 255
-1.43485 -0.0265156 2.793 255 255 255
0.332614 -0.0957384 1.555 255 255 255
0.251959 0.320458 1.009 255 255 255
0.151211 -0.646265 2.092 255 255 255
-0.303269 0.359521 1.354 255 255 255
-0.0687158 -0.0373631 1.789 255 255 255
-0.391488 0.388034 1.435 255 255 255
-0.0325483 -0.248222 1.887 255 255 255
0.0171996 0.209883 1.65 255 255 255
-1.09395 0.356291 2.143 255 255 255
0.654057 -0.320987 1.543 255 255 255
0.265345 -0.406181 1.865 0 0 0
0.0766583 0.397565 1.085 255 255 255
0.439724 0.317282 0.999 255 255 255
-0.188699 -0.80281 2.204 255 255 255
-1.47741 -0.0499112 2.831 255 255 255
-0.040079 0.366637 1.324 255 255 255
-0.397993 0.127817 1.739 255 255 255
-0.728923 0.101972 1.686 255 255 255
-1.53377 -0.0948597 2.939 255 255 255
-0.772801 0.57792 1.748 255 255 255
-0.485375 -0.3644 2.136 255 255 255
-0.422431 -0.268741 1.859 255 255 255
-0.056608 0.263384 1.539 255 255 255
-0.173715 -0.842779 2.196 255 255 255
0.0583276 -0.747218 1.947 255 255 255
-0.842556 0.561834 1.769 255 255 255
-0.159651 -0.370459 2.151 255 255 255
0.401992 0.217747 1.297 255 255 255
0.330987 0.281032 1.085 255 255 255
0.135443 -0.184162 1.719 255 255 255
-0.86376 0.434333 1.826 255 255 255
0.228847 0.282846 1.046 255 255 255
0.223195 0.0357552 1.551 255 255 255
0.139518 0.277341 1.547 255 255 255
0.544232 -0.193685 1.612 255 255 255
-0.520818 0.379387 1.595 255 255 255
-1.27601 0.118347 2.582 255 255 255
-0.550767 -0.519543 2.459 0 0 0
-0.690283 -0.74917 2.743 255 255 255
-0.728145 -0.0631816 1.629 255 255 255
0.166065 0.274491 1.154 255 255 255
-0.598427 0.329817 1.659 255 255 255
-0.130712 -0.224785 1.978 0 0 0
0.231204 -0.302018 1.859 255 255 255
0.678946 -0.119918 1.509 255 255 255
0.274031 0.307494 1.043 255 255 255
-0.0199395 0.440511 1.156 255 255 255
-0.877344 0.465969 1.799 255 255 255
-0.247598 0.512425 1.339 255 255 255
0.105241 0.303676 1.456 255 255 255
-0.902427 0.363309 2.064 255 255 255
-0.525836 -0.656426 2.572 255 255 255
-0.218106 0.423522 1.281 255 255 255
-0.172356 0.423066 1.237 255 255 255
0.247276 0.314201 1.01 255 255 255
-0.816987 -0.437455 2.54 0 0 0
0.0376153 0.000466145 1.724 255 255 255
0.27124 0.363515 0.934 255 255 255
0.0134406 0.273935 1.528 255 255 255
-0.834609 0.527427 1.789 255 255 255
0.647174 -0.265308 1.498 255 255 255
0.350249 -0.208991 1.65 255 255 255
0.14621 0.282327 1.09 255 255 255
0.35618 -0.465632 1.848 0 0 0
-0.116105 -0.0626537 1.848 255 255 255
0.270927 0.0587535 1.494 255 255 255
-1.03193 -0.920655 2.996 255 255 255
0.0148959 -0.604743 2.078 255 255 255
-0.0422689 -0.0342592 1.779 255 255 255
0.122116 0.37947 1.022 255 255 255
0.504445 0.153577 1.345 255 255 255
0.297769 -0.0594194 1.532 255 255 255
0.183353 -0.675413 1.997 255 255 255
-0.0125042 -0.420015 2.136 255 255 255
0.0296028 -0.0507296 1.748 255 255 255
-0.292615 0.336032 1.366 255 255 255
-0.358401 0.396208 1.406 255 255 255
0.205444 0.267946 1.075 255 255 255
0.660038 -0.194094 1.494 255 255 255
-0.545663 0.35609 1.607 255 255 255
-0.733309 -0.734127 2.672 255 255 255
-0.887545 -1.07726 2.831 255 255 255
0.155134 -0.66209 2.099 255 255 255
-0.558231 -0.0565511 1.668 255 255 255
0.0545394 0.384068 1.102 255 255 255
0.162824 -0.0631816 1.629 255 255 255
-1.06777 -0.62688 2.857 0 0 0
-1.16812 0.27046 2.303 255 255 255
-0.407944 0.383179 1.452 255 255 255
0.400834 0.349766 0.942 255 255 255
-1.07757 0.237867 2.278 255 255 255
-0.0777618 -0.53215 2.212 255 255 255
0.00458969 0.397359 1.173 255 255 255
-0.528951 -0.134779 1.696 255 255 255
-0.110168 -0.683336 2.212 255 255 255
0.35465 0.147918 1.439 255 255 255
-0.839596 0.644868 1.65 255 255 255
-1.10897 0.292745 2.244 255 255 255
-0.617525 0.0295097 1.624 255 255 255
0.486331 0.0387458 1.387 255 255 255
0.219675 0.291078 1.027 255 255 255
-0.306525 0.130271 1.734 255 255 255
-0.0714913 0.344198 1.39 255 255 255
-0.755859 0.0665007 1.691 255 255 255
-0.379501 0.270713 1.47 255 255 255
0.146919 -0.11834 1.659 255 255 255
0.373504 0.345645 0.935 255 255 255
0.478491 -0.401855 1.705 0 0 0
0.106391 -0.721566 2.017 0 0 0
0.446533 -0.0422553 1.456 255 255 255
-0.891282 0.600846 1.724 255 255 255
0.053411 -0.0050464 1.691 255 255 255
-0.494544 0.00861992 1.673 255 255 255
-0.360884 -0.179087 1.724 255 255 255
0.291938 0.0224044 1.502 255 255 255
-0.131006 0.303527 1.422 255 255 255
0.724031 -0.0568595 1.466 255 255 255
-0.41234 -0.782818 2.469 255 255 255
0.406621 0.28452 1.149 255 255 255
-0.126211 0.209863 1.629 255 255 255
-0.24838 -0.152342 1.917 255 255 255
-0.80905 0.513 1.81 255 255 255
0.417668 0.216566 1.208 255 255 255
0.151636 0.174336 1.595 255 255 255
0.371392 -0.173038 1.591 255 255 255
0.286596 -0.433496 1.865 255 255 255
-0.456822 0.14474 1.705 255 255 255
0.23213 0.256742 1.102 255 255 255
-0.0906945 0.0508696 1.821 255 255 255
-0.410201 0.185181 1.599 255 255 255
0.72507 -0.211828 1.449 255 255 255
-0.880925 0.113195 1.978 255 255 255
-1.03641 0.220591 2.253 255 255 255
-0.058263 0.376046 1.297 255 255 255
-0.0987016 0.250965 1.571 255 255 255
0.14493 0.102424 1.607 255 255 255
0.0483889 0.279638 1.532 255 255 255
-0.675173 0.244063 1.682 255 255 255
-0.91036 -0.633614 2.707 255 255 255
-0.712235 -0.0446252 1.629 255 255 255
0.00838291 0.28848 1.513 255 255 255
-0.576075 -0.676078 2.649 255 255 255
0.137801 0.386781 1.015 255 255 255
0.402266 0.235869 1.158 255 255 255
-0.554079 0.180148 1.624 255 255 255
0.00701953 -0.1776 1.794 255 255 255
-0.728145 -0.0790871 1.629 255 255 255
-0.665899 0.577856 1.774 255 255 255
0.255362 0.367907 0.978 255 255 255
0.294659 0.000409904 1.516 255 255 255
0.148447 -0.101341 1.646 255 255 255
0.395895 -0.146348 1.555 255 255 255
-0.0340395 0.394024 1.26 255 255 255
-0.587606 0.103826 1.629 255 255 255
-0.465224 -0.591105 2.561 255 255 255
0.500529 0.29703 1.048 255 255 255
0.00694128 0.0928599 1.774 255 255 255
0.460484 -0.281719 1.7 0 0 0
0.671186 0.00257899 1.359 255 255 255
0.00107579 0.210894 1.637 255 255 255
-0.36399 0.162943 1.637 255 255 255
-0.746149 -0.284452 2.136 255 255 255
-0.338434 0.000466145 1.724 0 0 0
0.165758 0.274675 1.102 255 255 255
0.397977 -0.323102 1.729 0 0 0
0.22107 -0.423259 1.929 0 0 0
0.506895 -0.0906898 1.473 255 255 255
0.382781 -0.00676061 1.466 255 255 255
-0.883469 -1.0448 2.818 255 255 255
-0.45314 -0.871464 2.54 255 255 255
0.074629 0.174694 1.673 255 255 255
-0.640406 -0.109111 1.642 255 255 255
0.117713 0.29979 1.089 255 255 255
0.208358 -0.323968 1.899 0 0 0
0.359437 -0.0483497 1.498 255 255 255
0.0643396 -0.682312 2.037 255 255 255
-0.507757 0.240818 1.555 255 255 255
-0.212228 0.101247 1.821 255 255 255
-0.824971 0.579436 1.744 255 255 255
-0.00749735 0.040896 1.774 255 255 255
-0.209765 -0.021519 1.935 255 255 255
0.217461 -0.616611 2.107 255 255 255
-0.564841 0.646287 1.696 255 255 255
0.649033 -0.270767 1.543 255 255 255
0.00101665 0.267271 1.547 255 255 255
-1.01255 -1.02796 2.982 255 255 255
-0.369272 -0.152009 1.673 255 255 255
0.145281 0.281988 1.124 255 255 255
-0.265287 0.428191 1.308 255 255 255
-0.214235 -0.192747 1.947 255 255 255
0.599998 0.220379 1.252 255 255 255
0.501209 0.13257 1.354 255 255 255
-0.473138 -0.218364 1.724 255 255 255
0.102091 0.307943 1.132 255 255 255
-0.273477 0.194611 1.591 255 255 255
0.348096 0.270597 1.1 255 255 255
-0.272489 -0.245159 1.911 0 0 0
0.448841 -0.231718 1.719 255 255 255
-0.523088 0.609552 1.686 255 255 255
-0.317763 0.166517 1.646 255 255 255
0.400892 -0.0477688 1.48 255 255 255
0.506761 0.0827992 1.369 255 255 255
0.594594 0.0225987 1.366 255 255 255
-0.441192 -0.806869 2.519 255 255 255
0.446298 -0.0543624 1.463 255 255 255
-0.394396 -0.36465 2.078 255 255 255
-0.116175 0.304813 1.439 255 255 255
-0.246029 0.291975 1.445 255 255 255
0.418357 0.0645823 1.409 255 255 255
0.0656346 -0.628414 2.078 0 0 0
0.00813076 -0.584453 2.078 255 255 255
0.564456 -0.183856 1.595 255 255 255
-0.596984 -0.104588 1.655 255 255 255
0.500863 -0.191536 1.616 255 255 255
-0.388026 0.59875 1.532 255 255 255
0.594292 -0.335327 1.664 0 0 0
0.217405 -0.202096 1.682 255 255 255
0.458389 0.294045 1.094 255 255 255
0.197861 -0.0572757 1.612 255 255 255
0.518121 0.172725 1.324 255 255 255
0.462904 0.000383677 1.419 255 255 255
-0.860819 0.472113 1.789 255 255 255
-0.484641 -0.391764 2.212 255 255 255
0.0321303 -0.433234 2.099 255 255 255
-0.176944 -0.252183 1.991 255 255 255
-0.107338 0.383015 1.278 255 255 255
0.126383 -0.160936 1.71 255 255 255
-0.479265 0.263859 1.513 255 255 255
0.440729 0.312646 1.005 255 255 255
-0.788042 0.574273 1.763 255 255 255
-0.353776 -0.0322949 1.677 0 0 0
0.0318088 -0.638558 2.078 255 255 255
0.424952 -0.136704 1.532 255 255 255
0.281809 0.27958 1.066 255 255 255
0.387444 0.0659574 1.439 255 255 255
-0.851064 0.314819 1.991 0 0 0
0.289513 0.237702 1.167 255 255 255
0.138326 -0.429932 2.004 255 255 255
-0.34274 0.252065 1.487 255 255 255
0.338392 -0.0362576 1.502 255 255 255
-0.0397728 -0.589181 2.107 255 255 255
-0.793353 -0.755676 2.626 0 0 0
0.149106 -0.047131 1.624 255 255 255
0.659739 -0.450633 1.372 0 0 0
-0.483957 0.262606 1.52 255 255 255
0.0700343 -0.168793 1.763 255 255 255
-0.652535 -0.914966 2.593 255 255 255
-0.830359 0.441482 1.831 255 255 255
-0.872032 0.493992 1.753 255 255 255
0.0290883 0.255426 1.567 255 255 255
0.366365 -0.184778 1.603 255 255 255
0.300234 -0.122289 1.571 255 255 255
-0.274997 0.454975 1.324 255 255 255
-0.301486 0.278947 1.463 255 255 255
0.19909 -0.486042 1.929 255 255 255
-0.917984 -0.923552 2.898 255 255 255
-0.073445 0.441661 1.169 255 255 255
0.473898 0.232901 1.201 255 255 255
-0.683629 0.618229 1.71 255 255 255
0.183994 0.26061 1.583 0 0 0
-0.096623 -0.0469215 1.821 255 255 255
-0.535733 -0.182127 1.7 255 255 255
0.656569 -0.127642 1.543 255 255 255
-1.09742 0.211319 2.312 255 255 255
0.460409 -0.319552 1.71 255 255 255
0.0825515 0.152457 1.668 255 255 255
0.253904 0.114672 1.494 255 255 255
0.56456 0.124879 1.297 255 255 255
0.0661741 0.352851 1.217 255 255 255
-0.365926 -0.632182 2.509 255 255 255
-0.480062 0.585076 1.633 255 255 255
-0.44713 0.308681 1.48 255 255 255
-0.253473 0.419871 1.302 255 255 255
-0.584786 0.49137 1.714 255 255 255
0.250373 0.166615 1.502 255 255 255
-0.924563 0.314818 2.099 255 255 255
-0.289011 0.457951 1.339 255 255 255
0.464301 0.339857 0.989 255 255 255
0.160698 0.277514 1.092 255 255 255
0.106309 -0.262263 1.794 255 255 255
-0.24013 0.288664 1.452 255 255 255
0.43738 -0.261202 1.729 255 255 255
0.669927 -0.431386 1.442 0 0 0
-0.554314 -0.884501 2.53 255 255 255
-0.155415 -0.0547636 1.887 255 255 255
0.519891 0.114688 1.351 255 255 255
-0.377641 0.252743 1.491 255 255 255
0.205922 0.293163 1.384 255 255 255
-0.11241 0.145213 1.744 255 255 255
-0.685305 0.468818 1.81 255 255 255
