ply
format ascii 1.0
comment Created by Open3D
element vertex 1329
property double x
property double y
property double z
property uchar red
property uchar green
property uchar blue
end_header
0.116286 0.0885028 0.935 255 255 255
-0.430842 -0.106395 1.396 255 255 255
0.192044 0.266905 0.722 255 255 255
-0.450296 0.0888416 0.972 255 255 255
0.0606645 0.264474 0.725 255 255 255
0.540748 -0.365701 2.649 255 255 255
0.357761 0.163753 0.739 255 255 255
-0.245185 -0.130537 1.387 0 0 0
-0.53651 0.0177844 1.075 255 255 255
0.220029 0.0838145 0.917 0 0 0
0.675933 -0.286335 2.204 255 255 255
0.367841 0.168424 0.728 255 255 255
-0.0399081 0.0746759 1.039 255 255 255
0.318153 0.0722066 0.79 0 0 0
0.999054 -0.290894 2.158 255 255 255
0.781204 -0.271784 2.092 255 255 255
0.189302 0.264474 0.725 255 255 255
0.648984 -0.553673 2.286 255 255 255
-0.281005 0.19975 0.812 255 255 255
-0.220664 -0.196563 1.513 255 255 255
0.150633 0.248717 0.756 255 255 255
0.359082 0.116002 0.757 255 255 255
0.989985 -0.62875 1.953 255 255 255
0.0273429 0.0902616 1.024 0 0 0
-0.418609 0.137522 0.888 255 255 255
-0.0271393 0.250212 0.772 0 0 0
0.181611 0.178725 0.778 0 0 0
0.700466 -0.175005 2.158 255 255 255
0.172866 0.0905261 1.027 255 255 255
-0.19732 -0.0134007 1.205 255 255 255
-0.143677 0.179087 0.852 0 0 0
-0.031416 0.25174 0.754 255 255 255
-0.383716 -0.475359 1.805 255 255 255
-0.129096 0.123566 0.984 255 255 255
0.145318 -0.434134 2.755 0 0 0
-0.610522 -0.764854 2.01 0 0 0
0.805872 -0.558296 1.985 255 255 255
0.159271 -0.489812 2.844 0 0 0
0.923483 -0.286335 2.204 255 255 255
0.181301 0.0829698 1.037 255 255 255
1.014 -0.0730362 2.383 255 255 255
-0.685151 -0.341131 1.779 255 255 255
-0.893375 -0.486277 1.739 255 255 255
-0.284018 0.211972 0.77 255 255 255
-0.225085 0.223087 0.83 0 0 0
-0.076253 -0.724885 2.519 255 255 255
0.168024 -0.156753 1.509 255 255 255
-0.288965 0.168719 0.835 255 255 255
0.465692 -0.77792 2.479 255 255 255
0.690237 -0.0520482 2.312 255 255 255
0.8256 -0.225728 2.173 255 255 255
-0.304876 -0.804429 2.114 0 0 0
0.986439 -0.421048 2.024 255 255 255
-0.908926 -0.513779 1.87 255 255 255
0.269804 0.0647802 0.967 0 0 0
-0.553826 -0.110138 1.281 255 255 255
0.310317 0.0890758 0.803 0 0 0
0.0862806 0.19308 0.823 255 255 255
-0.744112 -0.767344 1.991 255 255 255
0.11501 0.0626209 1.064 255 255 255
0.0761174 0.162297 0.844 255 255 255
-0.401021 -0.0363785 1.073 0 0 0
0.262921 -0.769164 2.719 255 255 255
-0.383784 0.209077 0.764 255 255 255
0.636349 -0.100144 2.582 0 0 0
-0.053089 0.206492 0.845 255 255 255
0.683801 -0.0630888 2.303 255 255 255
0.240264 0.0911766 0.887 255 255 255
0.48455 -0.642814 2.672 255 255 255
0.0134246 0.161507 0.877 255 255 255
-0.357426 0.0836689 0.932 255 255 255
-0.2843 0.214615 0.732 255 255 255
0.0386972 0.249046 0.757 0 0 0
0.375098 0.122968 0.762 255 255 255
-0.282301 0.202545 0.797 255 255 255
-0.405959 0.0859132 0.957 255 255 255
-0.287326 0.122059 0.972 255 255 255
0.194905 0.270937 0.711 255 255 255
-0.805691 -0.547024 1.991 255 255 255
-0.360676 0.240889 0.718 255 255 255
0.919216 -0.06733 2.32 255 255 255
0.684471 -0.13667 2.411 255 255 255
-0.0352174 0.265473 0.731 255 255 255
-0.0975205 -0.186714 1.513 255 255 255
-0.0778411 0.239834 0.729 255 255 255
-0.496649 -0.377169 1.799 0 0 0
-0.383052 0.0618241 0.97 255 255 255
-0.168235 -0.452327 1.893 255 255 255
-0.920656 -0.692314 1.953 255 255 255
-0.0537924 0.227172 0.758 0 0 0
-0.4917 -0.143172 1.357 255 255 255
0.0642328 -0.102279 1.342 255 255 255
0.130533 0.0151362 1.139 255 255 255
-0.391414 0.17215 0.819 255 255 255
0.671138 -0.519884 2.037 255 255 255
-0.314129 0.250235 0.671 255 255 255
0.431106 -0.833714 2.489 255 255 255
-0.0642447 0.206981 0.847 255 255 255
0.231862 0.0927244 0.888 255 255 255
-0.0776035 -0.118478 1.378 255 255 255
0.013978 0.252632 0.753 255 255 255
-0.688727 -0.398824 1.859 255 255 255
0.000635486 0.130873 0.967 255 255 255
-0.450712 -0.0586423 1.132 255 255 255
-0.684212 -0.542313 2.085 255 255 255
0.185107 0.0891144 1.03 255 255 255
-0.877504 -0.273678 1.719 255 255 255
-0.243107 -0.830862 2.312 255 255 255
0.258736 0.216285 0.681 0 0 0
-0.346726 -0.0504987 1.302 255 255 255
-0.0488033 0.10248 1.013 255 255 255
0.0907445 0.0488943 1.106 255 255 255
-0.0761634 0.181532 0.857 255 255 255
-0.536477 -0.220838 1.494 0 0 0
0.53259 -0.636265 2.509 255 255 255
0.81725 0.0497075 2.32 0 0 0
0.584768 -0.820122 2.212 255 255 255
0.086867 0.259288 0.727 255 255 255
-0.562794 -0.0161581 1.124 255 255 255
-0.469947 -0.166579 1.425 255 255 255
0.0636582 0.151265 0.901 0 0 0
-0.255472 0.254868 0.756 0 0 0
0.988655 -0.344844 2.166 255 255 255
0.211846 -0.990918 2.582 255 255 255
0.244118 0.22348 0.693 0 0 0
-0.384892 -0.247982 1.624 255 255 255
0.209943 0.0998372 0.887 255 255 255
0.399194 -0.57062 2.743 255 255 255
-0.128714 0.0710103 1.06 255 255 255
-0.519711 -0.114093 1.327 255 255 255
0.255486 0.101637 0.82 255 255 255
-0.718553 -0.682316 2.057 255 255 255
-0.105975 0.217314 0.839 255 255 255
0.0349372 0.126536 0.958 255 255 255
-0.269541 0.257683 0.694 255 255 255
0.400295 -0.79233 2.499 255 255 255
0.142048 0.25446 0.737 0 0 0
0.0881947 -0.120457 1.375 255 255 255
0.00943657 0.244858 0.783 255 255 255
-0.3674 0.160897 0.816 255 255 255
-0.128642 -0.0664647 1.283 255 255 255
-0.726541 -0.331512 1.774 255 255 255
0.42877 -0.755729 2.499 255 255 255
-0.0359982 0.0902616 1.024 255 255 255
-0.407018 -0.0469426 1.075 0 0 0
-0.0349687 -0.824863 2.499 255 255 255
-0.275983 0.231243 0.696 255 255 255
-0.50429 -0.0378363 1.116 255 255 255
-0.211846 0.162228 0.939 255 255 255
-0.238291 -0.0983493 1.348 0 0 0
-0.821499 -0.486212 1.893 255 255 255
0.295431 -0.812087 2.615 255 255 255
-0.38847 0.208256 0.761 255 255 255
-0.158616 0.217174 0.808 255 255 255
0.0502501 -0.620398 2.707 255 255 255
0.107863 0.0893504 0.928 255 255 255
-0.0885979 0.0349324 1.12 255 255 255
-0.178691 0.246593 0.701 0 0 0
0.604447 -0.127491 2.626 0 0 0
0.223591 0.192186 0.682 255 255 255
-0.0303082 0.153239 0.904 255 255 255
0.201362 0.131046 0.796 255 255 255
-0.0766666 0.273605 0.718 255 255 255
-0.0258381 0.229575 0.81 255 255 255
0.0189604 0.164276 0.869 255 255 255
0.953718 -0.145539 2.303 255 255 255
0.35673 0.0410856 1.139 255 255 255
0.695597 -0.236561 2.143 255 255 255
0.682428 -0.797144 2.051 0 0 0
0.381707 0.0837704 0.778 255 255 255
-0.0553929 0.0546228 1.077 255 255 255
-0.509031 -0.108236 1.362 255 255 255
0.242916 -0.414388 2.743 0 0 0
0.00691381 0.243238 0.786 255 255 255
0.200543 -0.11175 1.378 255 255 255
0.200007 0.139819 0.766 255 255 255
-0.546719 -0.769094 2.004 255 255 255
0.25402 0.0686386 0.955 0 0 0
1.05778 -0.039862 2.261 255 255 255
-0.150684 0.199089 0.837 0 0 0
-0.481616 0.139483 0.92 255 255 255
0.174683 0.178143 0.781 0 0 0
-0.495269 -0.38196 1.794 0 0 0
0.0303979 0.0526738 1.073 255 255 255
0.937765 -0.0526336 2.338 255 255 255
-0.056633 0.181532 0.857 255 255 255
-0.75977 -0.45596 1.87 255 255 255
-0.291201 0.0777526 1.013 255 255 255
1.01404 -0.0650338 2.374 255 255 255
-0.323718 0.14733 0.837 255 255 255
-0.269721 0.231759 0.765 255 255 255
-0.122466 0.033716 1.081 255 255 255
0.228585 0.229371 0.687 255 255 255
0.296793 -0.630389 2.831 255 255 255
0.0413253 0.201331 0.835 0 0 0
0.254437 0.0786846 0.945 0 0 0
-0.0759503 -0.7955 2.509 255 255 255
1.0768 0.0781311 2.166 255 255 255
0.291359 0.175352 0.69 255 255 255
-0.189441 -0.146365 1.409 0 0 0
0.178434 0.264109 0.724 255 255 255
0.752201 -0.0682857 2.228 255 255 255
0.296706 0.0323487 1.158 255 255 255
-0.278167 -0.292422 1.682 255 255 255
0.712965 -0.520016 2.253 255 255 255
-0.394244 0.129416 0.882 255 255 255
0.258856 0.247985 0.648 255 255 255
-0.47629 -0.158645 1.396 255 255 255
-0.535506 -0.437143 1.842 255 255 255
0.10902 0.0752642 1.024 0 0 0
-0.255261 0.222984 0.81 255 255 255
0.00519153 0.146635 0.937 255 255 255
-0.3859 0.172212 0.813 255 255 255
-0.13123 -0.0296675 1.229 0 0 0
-0.522057 -0.113663 1.322 255 255 255
-0.475424 -0.0411713 1.108 255 255 255
-0.867125 -0.400153 1.784 255 255 255
0.862714 -0.483405 2.051 255 255 255
-0.195449 0.197574 0.854 255 255 255
-0.278705 0.119727 0.992 0 0 0
0.0911477 0.0998139 0.927 0 0 0
0.479565 -0.409924 2.743 255 255 255
0.0716082 0.124084 0.928 0 0 0
-0.410832 -0.452903 1.821 255 255 255
-0.300415 -0.436738 1.853 255 255 255
0.13932 0.187857 0.812 255 255 255
-0.0371949 0.219855 0.828 255 255 255
-0.256018 0.146207 0.906 255 255 255
0.00597127 0.213049 0.833 255 255 255
1.00955 -0.341182 2.143 255 255 255
-0.109849 0.223123 0.721 255 255 255
0.134852 -0.741957 2.638 255 255 255
0.0352725 0.0728725 1.062 255 255 255
0.933012 -0.0140563 2.253 255 255 255
-0.336847 -0.00361992 1.213 0 0 0
0.590032 -0.149538 2.638 0 0 0
0.468865 -0.580752 2.707 255 255 255
-0.79282 -0.678032 2.085 255 255 255
0.209611 0.0698987 0.951 255 255 255
-0.359552 -0.132507 1.384 0 0 0
0.264667 0.183308 0.682 255 255 255
0.700466 -0.477018 2.158 255 255 255
-0.37703 -0.606503 1.953 0 0 0
-0.508464 -0.458369 1.831 255 255 255
0.331563 0.231478 0.652 255 255 255
0.239494 -0.765898 2.755 255 255 255
0.596679 -0.439772 2.374 255 255 255
-0.48299 -0.0860198 1.327 0 0 0
0.046871 0.165758 0.862 255 255 255
0.161356 0.273628 0.706 0 0 0
-0.316706 -0.226837 1.587 255 255 255
0.385552 0.138934 0.768 0 0 0
0.622176 -0.227161 2.593 255 255 255
-0.0170892 0.0537047 1.094 0 0 0
0.979004 -0.420715 2.071 255 255 255
0.285875 0.0823218 0.855 255 255 255
-0.0195231 0.252994 0.769 255 255 255
-0.681915 -0.750151 2.078 255 255 255
0.83693 -0.47679 2.037 255 255 255
0.337838 0.0559857 0.797 255 255 255
-0.340801 -0.122427 1.372 0 0 0
0.115331 0.261479 0.72 255 255 255
1.05906 -0.275235 2.173 255 255 255
-0.0989272 0.277489 0.71 255 255 255
1.00243 -0.128621 2.269 255 255 255
-0.0570956 0.170361 0.864 255 255 255
0.980266 0.000613505 2.269 0 0 0
0.116247 0.0665406 1.044 255 255 255
1.00591 -0.388829 2.099 255 255 255
0.215675 0.244102 0.707 0 0 0
-0.853488 -0.474199 1.882 255 255 255
-0.28032 -0.0368573 1.27 255 255 255
-0.090837 0.275178 0.71 255 255 255
-0.0359425 -0.27441 1.624 255 255 255
-0.401043 0.000276875 1.024 255 255 255
0.0871083 0.158177 0.844 255 255 255
-0.348583 -0.49439 1.821 255 255 255
-0.229879 0.259855 0.722 255 255 255
0.17444 0.25446 0.737 255 255 255
-0.241319 0.16569 0.869 255 255 255
0.119085 0.160951 0.837 255 255 255
0.715934 -0.503368 2.228 255 255 255
-0.278547 0.172165 0.866 255 255 255
-0.0402538 0.0719119 1.048 255 255 255
-0.344991 0.188385 0.792 255 255 255
-0.359252 -0.477993 1.815 255 255 255
-0.704775 -0.248169 1.543 0 0 0
1.06399 -0.388829 2.099 255 255 255
-0.434619 -0.290872 1.705 255 255 255
0.273606 0.164491 0.711 0 0 0
0.155499 0.123805 0.961 255 255 255
-0.194109 -0.492395 1.905 255 255 255
0.326029 -0.725022 2.805 255 255 255
0.307024 0.0422228 1.12 255 255 255
0.598522 -0.28082 2.582 255 255 255
0.681551 -0.7139 2.121 255 255 255
-0.43794 -0.124312 1.419 255 255 255
-0.345665 -0.519659 1.837 255 255 255
0.95412 -0.0254224 2.286 255 255 255
0.799285 -0.0547726 2.269 255 255 255
0.0506588 -0.828164 2.509 255 255 255
-0.0179173 -0.164668 1.449 255 255 255
-0.141045 0.129178 0.978 255 255 255
0.534535 -0.483261 2.499 255 255 255
-0.0800344 -0.783251 2.509 255 255 255
-0.196955 0.0362299 1.104 0 0 0
0.346342 -0.856461 2.582 255 255 255
-0.0538563 0.097727 1.015 255 255 255
0.33054 0.0989464 0.74 255 255 255
0.0734118 0.209514 0.814 255 255 255
-0.0382149 -0.0172219 1.198 255 255 255
-0.437399 -0.0170911 1.068 255 255 255
0.15661 0.230447 0.786 255 255 255
-0.0911293 0.0190583 1.152 255 255 255
0.333502 0.0688491 0.897 255 255 255
-0.145699 0.114069 0.999 255 255 255
-0.239908 0.269672 0.69 255 255 255
-0.339039 0.032456 0.989 255 255 255
0.0485015 0.10871 0.98 255 255 255
1.06385 0.204828 2.092 0 0 0
-0.337714 -0.421521 1.893 0 0 0
-0.176154 0.217407 0.804 255 255 255
-0.501084 -0.292407 1.714 0 0 0
-0.919586 -0.655204 1.985 255 255 255
-0.433582 -0.0873811 1.348 255 255 255
-0.171556 0.216905 0.807 255 255 255
-0.411177 -0.582296 1.905 255 255 255
0.208719 0.0701192 0.954 0 0 0
-0.137932 0.0198427 1.092 255 255 255
-0.469346 -0.0265052 1.098 255 255 255
0.561 -0.130307 2.684 0 0 0
-0.436068 -0.407106 1.815 255 255 255
0.42011 -0.462848 2.793 255 255 255
0.995079 -0.0257116 2.312 255 255 255
1.05917 -0.263774 2.166 255 255 255
-0.363863 -0.00894394 1.137 255 255 255
0.0932873 0.201566 0.814 255 255 255
-0.906695 -0.518155 1.853 255 255 255
0.147792 0.266466 0.724 255 255 255
0.0189102 -0.651806 2.638 255 255 255
-0.897095 -0.481512 1.763 255 255 255
0.934271 -0.607168 1.997 255 255 255
0.163215 0.17695 0.787 255 255 255
-0.26044 0.245818 0.782 255 255 255
-0.902835 -0.369622 1.763 0 0 0
-0.256115 0.0748817 1.066 255 255 255
-0.455035 -0.16343 1.459 255 255 255
0.25604 -0.800196 2.604 255 255 255
0.436256 -0.43355 2.78 255 255 255
0.0580059 0.211316 0.821 255 255 255
-0.215406 0.166369 0.928 0 0 0
-0.32383 0.252076 0.673 255 255 255
-0.29119 0.217714 0.711 0 0 0
-0.0203879 -0.00160391 1.182 255 255 255
-0.0711827 -0.123498 1.384 255 255 255
-0.0275254 0.224676 0.821 255 255 255
-0.301454 0.198628 0.739 255 255 255
-0.395625 0.0725732 0.966 255 255 255
-0.0231523 0.173165 0.857 255 255 255
-0.79282 -0.603387 2.085 0 0 0
-0.932295 -0.586643 1.899 0 0 0
0.364491 0.0510535 0.822 255 255 255
-0.0873236 0.188506 0.857 255 255 255
-0.645549 -0.282548 1.705 0 0 0
-0.46121 -0.170202 1.456 255 255 255
0.599283 -0.103169 2.66 0 0 0
-0.241058 0.182803 0.863 255 255 255
0.255539 0.24671 0.653 255 255 255
-0.171114 0.114754 1.005 0 0 0
0.418951 -0.768907 2.489 255 255 255
-0.337536 0.19996 0.772 255 255 255
0.362763 0.0621005 0.927 255 255 255
0.0586703 0.0635037 1.079 255 255 255
-0.798108 -0.442769 1.853 255 255 255
-0.369589 0.118827 0.878 255 255 255
0.222973 0.231763 0.701 255 255 255
0.169507 -0.114241 1.381 255 255 255
0.532396 -0.497529 2.489 255 255 255
0.233853 -0.86855 2.593 255 255 255
-0.219335 0.250662 0.726 255 255 255
0.456143 -0.645701 2.684 255 255 255
-0.119033 -0.0336127 1.227 0 0 0
0.60786 -0.181511 2.604 255 255 255
0.135332 -0.0526343 1.252 255 255 255
-0.133372 0.207128 0.831 0 0 0
-0.578689 -0.0334328 1.152 255 255 255
0.598823 -0.316336 2.53 255 255 255
-0.502632 -0.370639 1.81 0 0 0
0.244014 0.237132 0.671 255 255 255
0.145828 0.229781 0.797 255 255 255
-0.107088 -0.188676 1.509 0 0 0
-0.276641 0.229656 0.75 0 0 0
0.940989 -0.508381 2.099 255 255 255
-0.281979 0.000323922 1.198 255 255 255
0.335246 -0.58483 2.768 255 255 255
0.26879 0.250646 0.644 255 255 255
-0.14285 0.196834 0.839 255 255 255
0.264167 0.220611 0.664 255 255 255
0.712624 -0.2721 2.121 255 255 255
-0.0518359 0.205603 0.847 255 255 255
-0.319117 0.0244823 1.062 255 255 255
0.187253 -0.00158627 1.169 255 255 255
0.136379 0.0912606 0.981 255 255 255
-0.106892 -0.943533 2.469 255 255 255
0.305075 0.207186 0.666 255 255 255
-0.288029 0.020933 1.152 255 255 255
-0.537708 -0.174737 1.345 255 255 255
-0.341563 -0.0281853 1.252 255 255 255
-0.308198 0.173749 0.814 0 0 0
-0.454297 0.0216185 1.009 255 255 255
-0.348937 0.0598109 0.963 0 0 0
0.559719 -0.62902 2.449 255 255 255
0.686902 -0.514334 1.941 255 255 255
0.191533 0.184077 0.729 0 0 0
-0.401768 0.0449647 0.981 255 255 255
-0.167034 0.201813 0.837 0 0 0
0.0277995 0.196365 0.837 255 255 255
-0.299563 -0.0135898 1.222 255 255 255
0.10246 0.263208 0.712 255 255 255
-0.491063 0.00891145 1.06 255 255 255
0.0938967 -0.687818 2.695 255 255 255
-0.572816 -0.661475 2.004 255 255 255
-0.771906 -0.554435 2.03 255 255 255
-0.0105928 0.253974 0.757 255 255 255
0.240387 0.19613 0.692 255 255 255
0.667584 -0.665337 2.212 255 255 255
-0.317865 0.215173 0.738 0 0 0
-0.0355424 -0.606925 2.54 255 255 255
-0.24672 -0.0516476 1.278 255 255 255
-0.421067 -0.548309 1.853 255 255 255
1.00297 -0.559351 1.966 255 255 255
-0.000809507 0.216019 0.834 0 0 0
-0.0089857 -0.0114018 1.201 255 255 255
-0.944408 -0.609009 1.911 0 0 0
0.363092 0.176804 0.714 255 255 255
-0.260133 -0.153415 1.432 255 255 255
-0.29217 0.196954 0.775 255 255 255
0.149513 0.102175 0.994 255 255 255
0.649953 -0.829406 2.189 255 255 255
-0.404833 0.115627 0.909 255 255 255
0.261677 0.18941 0.68 255 255 255
0.630618 -0.10901 2.593 0 0 0
0.654678 -0.837022 2.181 255 255 255
-0.227593 0.266737 0.697 0 0 0
0.242414 0.125513 0.77 255 255 255
0.512042 -0.847104 2.469 255 255 255
0.04275 -0.0356094 1.227 255 255 255
0.24299 0.195286 0.693 255 255 255
0.338077 0.13374 0.746 255 255 255
0.875307 0.0566166 2.294 0 0 0
-0.484999 -0.0138828 1.089 255 255 255
0.207052 0.244792 0.709 0 0 0
0.698627 0.0302724 2.278 0 0 0
-0.0555666 0.220648 0.783 255 255 255
-0.00285828 0.046839 1.1 255 255 255
0.255885 0.160793 0.71 255 255 255
-0.300179 0.085048 0.983 255 255 255
0.262784 0.187196 0.68 255 255 255
0.111756 0.0644733 1.066 255 255 255
-0.0386324 0.173771 0.86 0 0 0
-0.814358 -0.678997 2.037 255 255 255
0.955877 -0.321031 2.196 255 255 255
0.284921 0.0355874 1.141 255 255 255
0.707268 0.0566166 2.294 0 0 0
0.344084 0.185163 0.706 255 255 255
-0.374827 0.103679 0.908 255 255 255
-0.283458 0.263101 0.676 255 255 255
-0.00585829 0.246132 0.783 255 255 255
-0.663882 -0.560363 2.064 255 255 255
1.09443 0.0957551 2.166 255 255 255
-0.0819594 0.21759 0.734 255 255 255
-0.667552 -0.445237 1.985 255 255 255
0.617955 -0.189184 2.593 255 255 255
-0.509939 -0.061179 1.145 255 255 255
0.0781033 0.256009 0.745 255 255 255
-0.451568 0.154723 0.879 255 255 255
-0.483607 -0.140902 1.378 255 255 255
-0.60827 -0.125709 1.313 255 255 255
-0.291116 0.0494339 1.007 255 255 255
0.308857 -0.771146 2.695 255 255 255
0.184232 0.25785 0.733 255 255 255
0.177517 0.228436 0.75 0 0 0
0.0102651 -0.155745 1.432 255 255 255
-0.235471 0.222466 0.843 255 255 255
-0.851514 -0.507895 1.905 255 255 255
-0.466164 -0.163873 1.442 255 255 255
-0.0759503 -0.734256 2.509 255 255 255
0.688033 -0.375094 2.356 255 255 255
-0.223019 0.156449 0.941 255 255 255
0.254361 0.10283 0.852 255 255 255
0.161111 0.237213 0.783 255 255 255
0.265064 0.112338 0.749 0 0 0
-0.335594 -0.494125 1.831 255 255 255
0.910089 -0.15816 2.269 255 255 255
1.03407 -0.38178 2.136 255 255 255
-0.291955 0.120969 0.951 255 255 255
-0.0257178 -0.193705 1.491 255 255 255
0.821027 0.0572583 2.32 0 0 0
-0.595512 -0.738665 2.037 0 0 0
-0.269826 -0.0562874 1.289 255 255 255
-0.153407 0.222057 0.788 255 255 255
-0.930076 -0.581391 1.882 0 0 0
-0.162251 0.23679 0.699 0 0 0
0.451393 -0.324831 2.818 0 0 0
-0.348537 0.0306906 0.984 255 255 255
-0.18916 -0.0114208 1.203 255 255 255
-0.514853 -0.524586 1.876 255 255 255
-0.182786 -0.171371 1.466 255 255 255
-0.507428 -0.704395 1.978 255 255 255
-0.450245 0.0263076 1 255 255 255
-0.394789 -0.223124 1.579 255 255 255
0.288273 0.0286785 1.162 255 255 255
-0.594086 -0.136081 1.31 255 255 255
-0.51158 -0.127714 1.357 255 255 255
-0.440265 0.15985 0.868 255 255 255
0.754862 -0.132109 2.204 255 255 255
0.115304 -0.12072 1.378 255 255 255
-0.4379 -0.068383 1.242 255 255 255
0.386556 0.102958 0.77 255 255 255
0.0877068 -0.136609 1.403 255 255 255
-0.218506 0.12213 0.948 255 255 255
-0.173186 0.0660944 1.037 255 255 255
-0.128172 -0.546549 2.212 0 0 0
-0.246573 0.260509 0.744 0 0 0
-0.410326 -0.389749 1.859 255 255 255
1.06444 0.00425847 2.244 255 255 255
0.675327 -0.134839 2.449 255 255 255
0.100589 0.26864 0.699 255 255 255
-0.286836 0.0780575 1.039 0 0 0
0.408124 -0.566156 2.743 255 255 255
-0.312341 0.206679 0.742 0 0 0
-0.900565 -0.532931 1.917 255 255 255
0.699797 -0.107938 2.383 255 255 255
0.126397 0.106305 0.931 255 255 255
0.20735 0.154727 0.714 0 0 0
-0.567565 -0.681913 1.997 255 255 255
-0.481777 0.0252233 1.022 255 255 255
-0.120742 0.249539 0.716 255 255 255
0.239349 0.0430229 1.094 255 255 255
0.644718 -0.482564 2.338 255 255 255
-0.346935 0.0322919 0.984 255 255 255
-0.80245 -0.696064 1.991 255 255 255
-0.310359 -0.70933 2.128 0 0 0
-0.514517 -0.497094 1.842 255 255 255
0.0667249 -0.0593565 1.265 255 255 255
0.962842 -0.298173 2.212 255 255 255
-0.662844 -0.346117 1.805 255 255 255
0.206189 0.249759 0.71 0 0 0
-0.294982 -0.417736 1.876 0 0 0
0.00231468 0.0975344 1.013 0 0 0
0.259383 -0.982359 2.638 255 255 255
0.184483 -0.670246 2.805 255 255 255
0.289191 0.116352 0.721 255 255 255
-0.169725 -0.866838 2.338 255 255 255
0.0775669 0.113391 0.927 0 0 0
0.654289 -0.531683 2.057 255 255 255
0.0748642 -0.971264 2.499 255 255 255
-0.0656871 0.277501 0.713 255 255 255
-0.799209 -0.699304 1.991 255 255 255
-0.309575 0.145309 0.874 255 255 255
0.692887 -0.429932 2.004 255 255 255
0.86912 -0.434886 2.107 255 255 255
0.310618 -0.653424 2.831 255 255 255
-0.0893387 0.245936 0.726 255 255 255
-0.30321 0.184985 0.794 255 255 255
0.445042 -0.82893 2.499 255 255 255
0.364467 0.169142 0.726 255 255 255
0.100174 0.101278 0.913 0 0 0
-0.296175 0.120455 0.935 255 255 255
-0.26424 -0.153094 1.429 255 255 255
0.353846 0.0711098 0.778 255 255 255
1.07523 0.0421308 2.128 255 255 255
0.706652 -0.67723 1.876 255 255 255
0.819129 -0.57564 1.978 255 255 255
-0.278112 0.224794 0.771 0 0 0
0.16852 0.253389 0.748 255 255 255
-0.29185 0.233063 0.688 255 255 255
0.204422 0.056293 1.043 0 0 0
0.0792479 -0.828164 2.509 255 255 255
-0.185517 -0.298605 1.686 255 255 255
-0.950555 -0.608447 1.799 255 255 255
-0.361234 0.0838484 0.934 255 255 255
-0.0179251 -0.0642765 1.281 255 255 255
0.0879997 0.00600251 1.165 255 255 255
0.150786 0.195376 0.789 255 255 255
0.189192 0.0659032 1.034 0 0 0
-0.196759 0.230261 0.748 255 255 255
0.34908 -0.517581 2.844 255 255 255
0.211341 0.106296 0.869 255 255 255
-0.135541 0.219679 0.733 255 255 255
0.497581 -0.678755 2.626 255 255 255
-0.337611 -0.446135 1.842 255 255 255
1.04845 -0.278771 2.173 255 255 255
0.813139 -0.184969 2.236 255 255 255
0.127864 -0.0192195 1.201 255 255 255
0.281911 0.219753 0.655 255 255 255
0.365516 -0.809463 2.54 255 255 255
-0.0962965 0.222001 0.725 255 255 255
-0.352869 0.119434 0.872 0 0 0
-0.244969 0.261921 0.718 0 0 0
0.147168 0.150874 0.834 0 0 0
-0.376011 0.138783 0.86 255 255 255
-0.0298543 -0.170202 1.456 255 255 255
0.636764 -0.186046 2.55 255 255 255
-0.117749 -0.324971 1.739 255 255 255
0.285288 0.108889 0.726 255 255 255
0.211999 0.226766 0.714 255 255 255
-0.308034 0.250608 0.672 255 255 255
0.0285712 0.0664565 1.07 255 255 255
0.211069 0.181931 0.681 255 255 255
-0.34322 -0.329456 1.763 255 255 255
0.460512 -0.641334 2.684 255 255 255
0.627976 -0.63654 2.212 255 255 255
-0.194279 0.0410542 1.089 255 255 255
-0.325286 -0.0136676 1.229 255 255 255
0.2935 -0.991194 2.561 255 255 255
-0.319055 0.0704132 0.958 255 255 255
0.668832 -0.521401 2.03 255 255 255
-0.390879 0.223256 0.749 255 255 255
0.118777 -0.0232631 1.208 255 255 255
-0.70412 -0.193974 1.439 0 0 0
-0.0627569 0.2495 0.733 255 255 255
-0.116405 0.257247 0.718 255 255 255
0.265799 0.224652 0.66 0 0 0
-0.0504201 -0.891692 2.459 255 255 255
-0.0108234 -0.778647 2.561 255 255 255
-0.263829 -0.343049 1.789 255 255 255
-0.535477 0.00208369 1.098 255 255 255
0.273751 -0.575105 2.831 255 255 255
-0.505213 0.0462481 1.009 255 255 255
0.626671 -0.325252 2.356 255 255 255
-0.201584 0.149137 0.963 0 0 0
0.176948 0.15253 0.821 0 0 0
-0.327339 0.250639 0.678 255 255 255
-0.289036 -0.024149 1.254 255 255 255
0.876872 -0.022196 2.338 255 255 255
0.378896 -0.847862 2.519 255 255 255
-0.30557 -0.752692 2.143 0 0 0
-0.0153709 0.121964 0.984 0 0 0
-0.191041 0.232615 0.74 255 255 255
-0.0694531 0.0652764 1.051 255 255 255
0.369138 0.0616341 0.803 255 255 255
0.0598509 0.102644 0.983 0 0 0
1.0569 0.190571 2.085 0 0 0
0.324443 -0.436896 2.831 255 255 255
0.860678 -0.713329 1.941 255 255 255
-0.397649 -0.0536012 1.275 255 255 255
-0.316765 0.0669909 1 255 255 255
-0.281156 0.23104 0.692 255 255 255
-0.0149251 -0.133081 1.39 255 255 255
1.05011 0.149855 2.085 0 0 0
-0.340786 0.0787793 0.928 255 255 255
-0.413088 -0.526901 1.831 255 255 255
0.204682 0.162386 0.697 255 255 255
0.211811 0.165646 0.687 255 255 255
0.115993 -0.665681 2.805 255 255 255
-0.156185 0.254339 0.659 255 255 255
0.366595 -0.91345 2.519 255 255 255
-0.575818 -0.245626 1.575 0 0 0
0.0271416 0.156527 0.906 255 255 255
0.884798 0.0263671 2.261 0 0 0
0.225512 -0.0483799 1.302 255 255 255
-0.628542 -0.199537 1.396 0 0 0
-0.0593008 0.0619735 1.053 255 255 255
0.252015 0.182881 0.693 255 255 255
-0.268611 0.230786 0.738 255 255 255
0.176821 -0.105164 1.351 255 255 255
-0.493346 -0.253232 1.607 255 255 255
0.868777 -0.267299 2.166 255 255 255
0.0901222 0.0942856 0.932 0 0 0
0.360392 0.166908 0.737 255 255 255
-0.451916 -0.148162 1.449 255 255 255
0.870688 -0.459334 2.078 255 255 255
-0.0338564 -0.00929792 1.182 255 255 255
0.569144 -0.651141 2.356 0 0 0
0.81502 -0.239265 2.136 255 255 255
-0.00487642 0.217116 0.833 0 0 0
-0.48669 0.0188252 1.036 255 255 255
-0.799796 -0.560732 2.017 255 255 255
-0.498834 0.123542 0.947 255 255 255
0.203863 0.243033 0.714 0 0 0
-0.0307771 -0.825613 2.489 255 255 255
0.48403 -0.414388 2.743 255 255 255
0.223567 -0.546649 2.78 255 255 255
-0.485245 -0.00145193 1.07 255 255 255
-0.258417 -0.0221083 1.254 255 255 255
-0.489249 -0.371663 1.815 0 0 0
0.71821 -0.304592 2.107 255 255 255
-0.173936 0.227771 0.76 255 255 255
1.01341 -0.16327 2.189 255 255 255
-0.231315 0.163548 0.896 255 255 255
-0.255502 -0.286095 1.677 255 255 255
0.25245 0.227805 0.679 0 0 0
-0.170152 0.110285 1.009 0 0 0
-0.274948 0.167216 0.877 0 0 0
0.321761 0.22183 0.658 0 0 0
0.34379 0.165179 0.74 255 255 255
-0.425081 0.122888 0.908 255 255 255
-0.119156 -0.0193315 1.208 0 0 0
0.0730609 0.200262 0.825 255 255 255
0.306529 0.237022 0.644 255 255 255
-0.707494 -0.594578 2.114 255 255 255
0.136401 -0.0335579 1.225 255 255 255
0.259597 0.0937453 0.884 255 255 255
0.156885 0.192124 0.781 0 0 0
0.220691 0.15191 0.701 0 0 0
-0.127265 -0.151085 1.432 255 255 255
0.149736 0.0205332 1.13 255 255 255
-0.319955 0.0589695 0.975 255 255 255
0.378273 0.0955634 0.771 255 255 255
0.949267 -0.337819 2.189 255 255 255
0.168153 0.102689 0.999 255 255 255
-0.310784 0.246226 0.678 0 0 0
-0.112898 0.263089 0.718 255 255 255
-0.96625 -0.678398 1.905 255 255 255
-0.880244 -0.713329 1.941 255 255 255
0.270349 0.216476 0.658 255 255 255
-0.295892 -0.212687 1.559 255 255 255
-0.161299 -0.233994 1.583 255 255 255
-0.277179 -0.453278 1.859 255 255 255
-0.365433 -0.608366 1.959 0 0 0
0.304604 -0.714625 2.818 255 255 255
-0.739972 -0.49351 2.024 0 0 0
-0.615562 -0.0319142 1.165 255 255 255
-0.0589818 -0.0851123 1.313 255 255 255
-0.271774 0.00226967 1.196 255 255 255
0.258598 0.22655 0.672 0 0 0
-0.483758 -0.26763 1.664 0 0 0
0.146371 -0.0355514 1.225 255 255 255
0.184094 -0.157896 1.52 255 255 255
0.00242665 0.0694161 1.062 0 0 0
-0.779587 -0.40893 1.81 255 255 255
0.514462 -0.56654 2.582 255 255 255
0.0138869 0.221734 0.82 255 255 255
-0.248533 0.263675 0.689 255 255 255
0.0341746 0.256976 0.714 255 255 255
0.543305 -0.606925 2.54 255 255 255
-0.425182 -0.320652 1.794 255 255 255
-0.633465 -0.255889 1.591 255 255 255
0.536448 -0.41652 2.489 255 255 255
-0.177481 0.121175 1.004 0 0 0
0.981915 -0.319212 2.136 255 255 255
0.231538 0.127425 0.759 255 255 255
-0.155099 0.104642 1.018 0 0 0
-0.00546876 -0.0733518 1.294 255 255 255
-0.0838431 0.200798 0.85 255 255 255
0.13072 0.153404 0.833 0 0 0
-0.225621 -0.708726 2.449 0 0 0
0.00908973 0.163424 0.872 255 255 255
-0.350766 -0.254638 1.65 255 255 255
0.709551 -0.651558 2.143 255 255 255
-0.711681 -0.652607 2.158 0 0 0
0.869706 -0.00316032 2.329 255 255 255
-0.221856 0.263687 0.704 255 255 255
0.508443 -0.61317 2.638 255 255 255
0.806736 -0.202455 2.189 255 255 255
-0.31425 0.0797592 0.977 255 255 255
0.759572 -0.605935 1.941 255 255 255
-0.228863 0.107674 1 255 255 255
0.198418 0.120571 0.85 255 255 255
-0.301021 -0.160918 1.416 255 255 255
-0.950629 -0.720963 1.911 255 255 255
0.0163789 0.062974 1.07 255 255 255
-0.633025 -0.315076 1.779 255 255 255
0.305848 0.0892976 0.805 0 0 0
-0.278178 0.252801 0.693 255 255 255
0.777799 -0.271784 2.092 255 255 255
-0.0735378 0.0975344 1.013 255 255 255
-0.332515 -0.713703 2.051 255 255 255
0.970459 -0.60461 1.978 255 255 255
-0.00847186 0.242882 0.789 0 0 0
0.613594 -0.284519 2.54 255 255 255
0.360409 0.180689 0.711 255 255 255
0.938577 0.0718363 2.189 255 255 255
-0.893804 -0.662549 1.978 255 255 255
0.632136 -0.808033 2.189 255 255 255
0.252047 0.195564 0.69 255 255 255
-0.39403 0.202409 0.767 255 255 255
0.825568 -0.578859 1.978 255 255 255
0.11492 -0.148443 1.429 255 255 255
-0.370896 0.130637 0.871 255 255 255
0.171224 0.219114 0.76 0 0 0
-0.237149 0.143135 0.896 255 255 255
0.154041 -0.87215 2.53 255 255 255
-0.236961 -0.506269 1.876 255 255 255
-0.170953 -0.196043 1.509 255 255 255
0.135855 0.193856 0.815 255 255 255
1.00932 -0.392245 2.099 255 255 255
0.132874 0.244054 0.753 0 0 0
-0.0850777 0.223532 0.73 255 255 255
0.989582 -0.416652 2.051 255 255 255
0.021436 -0.231628 1.567 255 255 255
-0.227754 0.259945 0.719 255 255 255
-0.531621 -0.0233911 1.12 255 255 255
0.193804 0.101278 0.913 0 0 0
0.673314 -0.514723 2.004 255 255 255
0.735983 -0.272694 2.099 255 255 255
0.214588 0.122691 0.827 0 0 0
0.611907 -0.598198 2.329 255 255 255
-0.277544 0.20512 0.802 0 0 0
-0.270552 -0.423841 1.876 255 255 255
-0.326149 0.198871 0.763 0 0 0
0.450195 -0.680389 2.649 255 255 255
-0.0355988 -0.00542324 1.176 255 255 255
-0.367473 0.229962 0.751 255 255 255
0.0403354 0.221708 0.815 255 255 255
0.0991589 -0.587751 2.719 255 255 255
0.026402 -0.227909 1.559 255 255 255
0.213263 -0.0429558 1.267 255 255 255
0.130401 0.114736 0.938 255 255 255
-0.235296 0.183971 0.889 0 0 0
-0.5115 -0.239359 1.551 255 255 255
-0.17615 0.216393 0.81 255 255 255
0.346881 0.0671057 0.913 255 255 255
-0.175869 0.212652 0.821 255 255 255
-0.231879 0.192217 0.887 255 255 255
0.601203 -0.400288 2.392 255 255 255
-0.714857 -0.625098 2.136 0 0 0
0.154611 0.143238 0.845 0 0 0
-0.623121 -0.654281 2.085 0 0 0
-0.153409 0.197727 0.837 0 0 0
-0.940013 -0.610977 1.947 0 0 0
-0.567565 -0.655915 1.997 255 255 255
0.651031 -0.178972 2.509 255 255 255
0.132345 0.245523 0.75 0 0 0
-0.551898 -0.102749 1.267 255 255 255
0.166558 0.218636 0.767 0 0 0
-0.524904 0.0403094 1.025 255 255 255
-0.239313 0.183291 0.872 255 255 255
0.303991 0.174725 0.701 0 0 0
0.16346 0.235092 0.776 255 255 255
-0.323824 0.23679 0.699 255 255 255
-0.562287 0.0038705 1.098 255 255 255
0.287607 0.242777 0.651 0 0 0
0.736393 -0.548222 1.972 255 255 255
0.0868048 0.178084 0.828 255 255 255
-0.15121 0.20966 0.825 255 255 255
-0.0167983 0.270564 0.707 255 255 255
0.270143 0.169263 0.702 0 0 0
-0.410889 -0.103676 1.39 255 255 255
-0.276527 -0.356895 1.815 255 255 255
-0.122337 -0.228263 1.579 0 0 0
-0.262481 0.212873 0.792 255 255 255
-0.510274 -0.541662 1.893 255 255 255
-0.959583 -0.712058 1.929 255 255 255
-0.0914496 0.258218 0.724 255 255 255
0.287654 0.0830833 0.909 255 255 255
-0.058188 -0.848213 2.449 255 255 255
-0.119527 0.165164 0.889 255 255 255
-0.320827 -0.293646 1.705 255 255 255
-0.361076 -0.0260852 1.249 255 255 255
-0.0811953 0.00603343 1.171 0 0 0
0.267971 -0.917966 2.638 255 255 255
0.514446 -0.466077 2.561 255 255 255
0.375098 0.121728 0.762 255 255 255
0.269627 0.104478 0.791 0 0 0
-0.0911834 -0.842467 2.479 255 255 255
0.321673 0.145714 0.739 255 255 255
-0.730923 -0.374242 1.799 255 255 255
-0.0693384 0.115811 1 0 0 0
-0.238704 0.0868445 1.043 0 0 0
0.319707 0.0653635 1 255 255 255
-0.88863 -0.379516 1.769 255 255 255
0.145645 0.197109 0.796 255 255 255
0.229633 -0.792596 2.593 255 255 255
0.238904 -0.943348 2.649 255 255 255
0.215065 0.0737576 0.941 255 255 255
0.128535 -0.641653 2.78 255 255 255
0.223098 0.140157 0.705 0 0 0
0.922284 -0.391461 2.151 255 255 255
-0.292464 -0.168566 1.442 255 255 255
0.0981822 -0.471577 2.818 0 0 0
0.373411 -0.278973 2.818 0 0 0
0.732279 -0.655656 1.911 255 255 255
0.733064 -0.366905 2.236 255 255 255
-0.438081 -0.432793 1.799 255 255 255
0.281279 0.0806355 0.932 255 255 255
-0.0420868 -0.853037 2.44 255 255 255
-0.0591384 -0.614991 2.489 255 255 255
-0.0328559 0.0840859 1.03 255 255 255
0.125125 -0.688505 2.805 255 255 255
-0.357993 -0.122963 1.378 0 0 0
-0.326182 0.0696047 0.947 0 0 0
-0.79721 -0.736583 1.978 255 255 255
-0.113134 -0.0618035 1.273 255 255 255
0.913783 -0.0104637 2.269 255 255 255
-0.189712 0.0747497 1.017 255 255 255
0.268843 0.194031 0.673 0 0 0
0.39756 -0.660207 2.672 255 255 255
0.780164 -0.600147 1.953 255 255 255
-0.361248 -0.327587 1.753 255 255 255
0.114144 0.257357 0.735 255 255 255
-0.468139 0.00200209 1.055 255 255 255
0.262105 -0.693069 2.805 255 255 255
-0.543173 -0.744664 1.991 255 255 255
-0.507319 0.063545 0.997 255 255 255
0.0345096 0.255975 0.721 255 255 255
-0.212045 -0.506295 1.899 255 255 255
-0.407432 0.00853314 1.015 255 255 255
0.112923 -0.0757492 1.299 255 255 255
-0.348903 0.179424 0.798 255 255 255
0.923727 -0.115557 2.303 255 255 255
0.0454959 0.107553 0.984 255 255 255
-0.0566991 0.178952 0.858 255 255 255
-0.46816 -0.3228 1.758 255 255 255
0.0700362 0.175934 0.837 255 255 255
-0.153054 -0.102965 1.351 255 255 255
0.649796 -0.553645 2.064 255 255 255
-0.34808 -0.257323 1.65 0 0 0
0.210615 0.0921017 0.896 255 255 255
-0.374373 0.000276875 1.024 255 255 255
0.141331 0.0646553 1.041 0 0 0
0.056167 0.168389 0.854 255 255 255
0.439379 -0.454562 2.743 255 255 255
-0.19148 0.229033 0.756 255 255 255
-0.0860935 -0.589166 2.449 0 0 0
0.438506 -0.908626 2.44 255 255 255
0.0811621 0.206357 0.812 255 255 255
0.205824 0.22672 0.725 0 0 0
0.855763 -0.594544 1.966 255 255 255
-0.294908 0.196264 0.753 255 255 255
0.210271 0.0711458 0.947 255 255 255
0.693638 -0.0179823 2.286 0 0 0
0.080708 0.0571606 1.092 255 255 255
0.287576 -0.436896 2.831 255 255 255
-0.349475 -0.0413458 1.281 255 255 255
0.344843 -0.949999 2.54 255 255 255
-0.844938 -0.386362 1.774 255 255 255
-0.308242 -0.0115537 1.217 255 255 255
-0.380387 0.0117666 1.009 255 255 255
-0.100636 0.0310637 1.112 255 255 255
-0.761625 -0.641417 2.121 255 255 255
0.866 -0.660532 1.953 255 255 255
-0.089254 0.0171836 1.152 255 255 255
-0.0600654 0.226608 0.744 255 255 255
-0.348886 0.185218 0.795 255 255 255
-0.190787 -0.0319252 1.239 255 255 255
-0.666517 -0.353941 1.815 255 255 255
0.0281516 0.230323 0.808 255 255 255
0.0544143 -0.604491 2.695 255 255 255
0.083361 0.171232 0.834 255 255 255
0.236419 0.0190087 1.149 255 255 255
-0.251839 0.217996 0.816 0 0 0
-0.654509 -0.354082 1.831 0 0 0
0.0214304 -0.138595 1.4 255 255 255
-0.152617 -0.12828 1.387 255 255 255
-0.043173 0.033228 1.124 0 0 0
-0.493344 0.0666559 0.995 255 255 255
-0.132285 0.0475239 1.075 255 255 255
-0.368314 0.153645 0.827 255 255 255
-0.514757 0.0524496 1.002 255 255 255
0.330074 0.0319297 1.143 255 255 255
1.04643 0.185921 2.071 0 0 0
-0.0710667 0.21237 0.758 255 255 255
-0.288875 -0.423841 1.876 255 255 255
-0.170859 0.126439 0.994 0 0 0
0.46925 -0.449153 2.684 255 255 255
0.0388298 0.137779 0.939 255 255 255
-0.050634 0.0652764 1.051 255 255 255
0.663713 -0.372678 2.365 255 255 255
0.28056 0.130155 0.726 0 0 0
-0.888382 -0.671327 1.966 255 255 255
-0.412946 0.0513504 0.981 255 255 255
-0.524021 -0.194155 1.39 0 0 0
-0.434068 0.0182437 1.004 255 255 255
-0.239187 0.237265 0.796 255 255 255
-0.0727053 0.0333463 1.128 255 255 255
-0.0934757 0.126253 0.98 255 255 255
-0.79131 -0.651843 2.099 255 255 255
-0.262231 0.231304 0.776 255 255 255
0.539177 -0.877956 2.278 255 255 255
-0.0626713 0.255116 0.732 0 0 0
-0.0431045 -0.540195 2.499 0 0 0
-0.77004 -0.760864 1.991 255 255 255
-0.253861 -0.181573 1.491 255 255 255
1.0357 -0.0104268 2.261 255 255 255
-0.554133 0.00915525 1.089 255 255 255
0.234829 0.232298 0.676 255 255 255
-0.145484 0.22978 0.695 255 255 255
-0.0424145 -0.519543 2.459 0 0 0
0.250378 0.24576 0.659 255 255 255
0.328678 0.184901 0.705 255 255 255
0.333748 0.199886 0.678 255 255 255
0.198263 0.0968207 0.913 0 0 0
-0.320274 0.0193065 1.167 255 255 255
0.1723 0.255464 0.733 255 255 255
0.191796 0.254419 0.73 0 0 0
0.807384 -0.407455 2.107 255 255 255
-0.243596 0.0718142 1.072 255 255 255
0.0670239 0.227024 0.801 255 255 255
0.111463 0.2033 0.821 255 255 255
0.816201 -0.410163 2.121 255 255 255
0.298633 -0.515048 2.805 255 255 255
-0.038997 0.12865 0.974 255 255 255
1.07754 0.0896474 2.189 255 255 255
-0.474111 -0.148025 1.403 255 255 255
-0.443714 0.157748 0.872 255 255 255
-0.113626 0.217637 0.835 0 0 0
-0.188881 -0.512756 1.947 255 255 255
0.264534 -0.667245 2.831 255 255 255
0.11246 -0.501394 2.831 0 0 0
0.238876 0.236349 0.675 255 255 255
0.302104 0.243767 0.648 0 0 0
0.0907544 0.103889 0.923 0 0 0
-0.243579 0.244232 0.781 255 255 255
-0.480648 -0.594615 1.935 255 255 255
0.847462 0.000627294 2.32 255 255 255
-0.105875 0.0292015 1.11 255 255 255
0.278268 0.213588 0.659 255 255 255
-0.550189 -0.128894 1.302 255 255 255
0.606609 -0.783994 2.253 255 255 255
-0.011378 -0.040313 1.249 255 255 255
-0.259072 0.0423736 1.124 255 255 255
0.789417 -0.608467 1.929 255 255 255
-0.593311 -0.189546 1.357 255 255 255
-0.102032 -0.23657 1.583 255 255 255
0.514446 -0.470245 2.561 255 255 255
0.120937 0.184139 0.831 0 0 0
-0.195474 -0.389749 1.859 255 255 255
0.155314 -0.551863 2.695 255 255 255
0.702508 -0.694503 1.865 255 255 255
0.242085 0.124697 0.765 255 255 255
-0.476039 -0.194684 1.48 255 255 255
0.94217 -0.703321 1.966 255 255 255
0.532394 -0.36018 2.672 255 255 255
0.14805 0.220148 0.795 255 255 255
-0.397223 -0.0465964 1.254 255 255 255
0.963643 -0.436455 2.004 255 255 255
0.222155 0.174173 0.681 255 255 255
-0.750612 -0.704614 2.044 255 255 255
0.646184 -0.582323 2.107 255 255 255
-0.0509683 -0.0576603 1.273 255 255 255
0.261238 0.194896 0.676 0 0 0
-0.812108 -0.313324 1.753 255 255 255
-0.0691867 -0.695295 2.561 255 255 255
0.49796 -0.783649 2.459 255 255 255
-0.234886 0.234258 0.799 255 255 255
1.02753 -0.135696 2.204 255 255 255
0.213682 -0.00741809 1.189 255 255 255
0.979501 -0.0530388 2.356 0 0 0
0.173309 0.123192 0.849 255 255 255
-0.366562 0.19389 0.783 255 255 255
0.503908 -0.720682 2.449 255 255 255
0.0198591 0.176657 0.847 255 255 255
-0.426012 -0.0117548 1.057 255 255 255
0.271007 0.238599 0.657 0 0 0
0.191399 0.169266 0.787 0 0 0
-0.03075 0.215177 0.836 255 255 255
-0.0150566 -0.602015 2.572 255 255 255
-0.580404 -0.138002 1.308 255 255 255
0.170264 0.171202 0.796 255 255 255
-0.197161 -0.0450176 1.267 255 255 255
-0.174368 0.0844125 1.034 255 255 255
-0.388785 -0.201919 1.535 255 255 255
0.674128 -0.228876 2.519 255 255 255
0.771836 -0.191067 2.181 255 255 255
-0.117076 -0.173008 1.48 255 255 255
-0.466737 -0.509023 1.831 255 255 255
-0.339702 0.157809 0.807 255 255 255
-0.468435 -0.498719 1.826 255 255 255
0.0289398 -0.225372 1.559 255 255 255
-0.339531 0.0598109 0.963 0 0 0
-0.366085 0.13365 0.863 255 255 255
-0.508734 -0.213518 1.477 255 255 255
-0.300858 0.0975467 0.98 255 255 255
0.306455 0.0756174 0.874 255 255 255
1.08335 0.0845908 2.151 255 255 255
0.317506 0.0648442 0.945 255 255 255
0.376069 0.157261 0.754 255 255 255
-0.366352 0.243518 0.702 255 255 255
-0.0387999 -0.281246 1.633 255 255 255
0.907366 -0.572559 2.024 255 255 255
-0.500555 -0.010367 1.092 255 255 255
-0.299381 -0.073063 1.327 255 255 255
-0.0888854 0.218188 0.732 255 255 255
-0.886715 -0.653944 1.991 255 255 255
0.162197 0.233829 0.776 255 255 255
0.400162 -0.742105 2.55 255 255 255
0.258174 0.242876 0.657 255 255 255
-0.486447 -0.119694 1.419 0 0 0
0.689928 -0.65963 2.158 255 255 255
0.238451 -0.423316 2.743 0 0 0
0.45598 -0.334002 2.818 0 0 0
0.608272 -0.424319 2.374 255 255 255
-0.17441 0.220782 0.802 255 255 255
-0.00668318 -0.589459 2.572 255 255 255
0.362459 0.171735 0.722 255 255 255
0.0740654 0.258252 0.741 255 255 255
0.0568157 -0.702732 2.604 255 255 255
0.0856516 0.19965 0.817 255 255 255
-0.502589 -0.111733 1.406 0 0 0
0.786277 -0.617885 1.929 255 255 255
-0.536487 0.0358565 1.041 255 255 255
-0.199608 0.23055 0.745 255 255 255
-0.828929 -0.645021 2.024 255 255 255
0.0908992 -0.00159848 1.178 255 255 255
0.201378 0.151727 0.739 0 0 0
0.189679 0.200047 0.731 255 255 255
-0.802653 -0.28298 1.691 255 255 255
-0.505309 -0.247559 1.571 255 255 255
-0.235414 -0.0407326 1.262 255 255 255
0.666192 -0.525746 2.294 255 255 255
0.245701 0.208697 0.704 0 0 0
0.323072 0.241027 0.652 255 255 255
-0.367689 0.239721 0.718 255 255 255
0.608565 -0.606328 2.22 255 255 255
0.591611 -0.581196 2.449 255 255 255
0.876848 -0.0916967 2.269 255 255 255
0.0430423 0.186576 0.842 0 0 0
0.272413 0.19673 0.671 0 0 0
-0.482882 -0.250617 1.607 0 0 0
0.00627234 0.161139 0.875 255 255 255
0.318507 0.109339 0.729 255 255 255
-0.102621 0.161547 0.893 255 255 255
-0.13994 0.265962 0.707 0 0 0
0.269707 -0.762562 2.743 255 255 255
0.0772887 0.102962 0.942 0 0 0
-0.387222 0.226912 0.749 255 255 255
-0.431921 -0.338239 1.81 255 255 255
-0.478111 -0.206251 1.494 255 255 255
-0.509099 -0.705467 1.972 255 255 255
0.0898468 0.239215 0.773 255 255 255
-0.276798 -0.718321 2.22 0 0 0
0.993164 -0.755877 1.953 255 255 255
0.116998 0.0384398 1.116 255 255 255
-0.308232 0.0961703 0.921 255 255 255
-0.170939 0.210491 0.823 255 255 255
-0.132796 -0.309142 1.714 255 255 255
0.0488129 0.175279 0.847 0 0 0
-0.813379 -0.683081 2.01 255 255 255
0.0700649 0.143574 0.908 0 0 0
-0.0921062 -0.143792 1.429 255 255 255
0.295088 -0.0162285 1.273 255 255 255
-0.268971 -0.0411521 1.275 255 255 255
-0.154199 0.245135 0.669 255 255 255
0.696461 -0.630682 1.959 255 255 255
-0.449637 0.0874394 0.974 255 255 255
-0.155909 0.245487 0.667 255 255 255
0.419573 -0.712422 2.593 255 255 255
0.843286 0.0925284 2.173 0 0 0
0.679838 -0.726698 2.004 0 0 0
0.520574 -0.658059 2.53 255 255 255
-0.884963 -0.526692 1.917 255 255 255
0.0121127 0.00976897 1.162 255 255 255
0.250371 0.0911766 0.887 255 255 255
-0.367147 -0.0389241 1.27 255 255 255
0.924324 0.0647119 2.189 255 255 255
-0.688164 -0.767518 2.017 255 255 255
-0.433287 0.040585 0.991 255 255 255
-0.075928 0.000318514 1.178 0 0 0
-0.0367562 0.197799 0.849 255 255 255
-0.902835 -0.438477 1.763 255 255 255
0.258736 0.190796 0.681 255 255 255
0.306894 0.122727 0.724 255 255 255
0.256832 -0.0311159 1.289 255 255 255
0.2512 0.1794 0.697 255 255 255
-0.048614 -0.210392 1.524 255 255 255
-0.26967 0.192021 0.83 0 0 0
-0.495779 -0.0700345 1.201 255 255 255
-0.239019 0.0914075 1.037 0 0 0
0.283803 0.24421 0.652 0 0 0
0.239122 -0.00361097 1.21 255 255 255
0.215293 0.162113 0.691 255 255 255
-0.286246 0.170078 0.835 255 255 255
0.199439 0.0464132 1.09 255 255 255
0.076349 -0.679047 2.695 255 255 255
-0.382442 0.191632 0.779 255 255 255
0.682902 -0.684213 2.158 255 255 255
1.02124 -0.0809393 2.278 255 255 255
-0.705709 -0.402479 1.848 255 255 255
0.748916 -0.378176 2.078 255 255 255
0.203482 0.137147 0.765 255 255 255
-0.575587 -0.375832 1.865 0 0 0
-0.895764 -0.479879 1.789 255 255 255
-0.01887 -0.0193315 1.208 255 255 255
0.704872 -0.54444 1.947 255 255 255
-0.248089 0.257329 0.756 255 255 255
-0.549879 -0.183901 1.348 255 255 255
0.354153 0.107379 0.757 255 255 255
-0.264694 0.234655 0.724 255 255 255
-0.174254 -0.117102 1.362 0 0 0
-0.475477 -0.150851 1.387 255 255 255
-0.293493 0.237274 0.684 255 255 255
-0.584356 -0.546554 1.966 255 255 255
1.10003 0.0222763 2.22 255 255 255
-0.112234 0.0948887 1.02 255 255 255
0.0799764 0.117026 0.92 0 0 0
-0.0864369 0.156835 0.891 255 255 255
-0.242533 -0.120195 1.372 0 0 0
0.030921 0.0153887 1.158 255 255 255
-0.391376 -0.0438479 1.085 255 255 255
0.13199 0.167838 0.824 255 255 255
-0.129092 -0.244165 1.599 255 255 255
-0.369255 0.237136 0.728 255 255 255
0.616001 -0.59044 2.374 255 255 255
0.2514 0.10867 0.833 255 255 255
0.410848 -0.878268 2.489 255 255 255
-0.104952 0.0695468 1.064 255 255 255
-0.37365 0.00851632 1.013 255 255 255
-0.313707 0.180098 0.801 0 0 0
0.204843 -0.0842395 1.333 255 255 255
-0.464719 -0.30814 1.724 255 255 255
0.679389 -0.701772 2.158 255 255 255
-0.13706 0.196365 0.837 255 255 255
0.312331 -0.547 2.805 255 255 255
0.0624098 -0.858016 2.489 255 255 255
0.339906 -0.332439 2.884 0 0 0
-0.0217649 0.270476 0.719 0 0 0
0.0689249 0.219804 0.808 255 255 255
0.276374 0.0866537 0.843 255 255 255
-0.202546 0.227009 0.77 255 255 255
0.83044 -0.392735 2.158 255 255 255
-0.0705009 0.186893 0.856 255 255 255
0.109446 0.130554 0.88 255 255 255
-0.520942 -0.512405 1.865 255 255 255
-0.39449 -0.404227 1.87 0 0 0
0.346759 0.0987557 0.757 255 255 255
-0.0539229 -0.171371 1.466 255 255 255
-0.313394 -0.175782 1.463 255 255 255
-0.328899 0.0583042 0.964 0 0 0
-0.332104 0.146383 0.824 255 255 255
-0.856379 -0.56575 1.966 255 255 255
0.0485423 -0.484416 2.615 0 0 0
-0.268599 -0.84892 2.212 255 255 255
-0.842203 -0.415228 1.799 255 255 255
0.108285 0.0206968 1.139 255 255 255
0.189384 0.189054 0.712 255 255 255
-0.118577 0.249888 0.717 255 255 255
0.0993619 0.0207695 1.143 255 255 255
0.698627 -0.492422 2.278 255 255 255
0.147046 0.254805 0.738 0 0 0
-0.119744 0.237053 0.717 255 255 255
-0.117241 0.167681 0.872 255 255 255
-0.114918 -0.324971 1.739 255 255 255
0.313651 0.102982 0.726 255 255 255
0.198266 -0.552765 2.743 255 255 255
0.660753 -0.831266 2.166 255 255 255
0.372227 -0.517581 2.844 255 255 255
0.685033 -0.538594 1.972 255 255 255
0.653737 -0.606222 2.143 255 255 255
-0.14305 0.0283333 1.077 255 255 255
-0.50695 -0.396557 1.794 255 255 255
0.123876 -0.145708 1.425 255 255 255
-0.287639 0.0282096 1.143 255 255 255
0.226536 -0.079248 1.359 255 255 255
0.181914 0.238782 0.748 255 255 255
0.163442 0.135467 0.848 0 0 0
-0.347796 0.0182619 1.005 255 255 255
-0.327903 -0.785403 2.064 0 0 0
0.321689 0.0801713 0.756 0 0 0
0.937637 0.032995 2.212 255 255 255
-0.00676633 -0.690019 2.604 255 255 255
-0.205516 0.245905 0.719 255 255 255
-0.478761 -0.692314 1.953 255 255 255
-0.411296 -0.485512 1.81 255 255 255
0.00082278 -0.046522 1.252 255 255 255
-0.0615993 0.212529 0.763 255 255 255
-0.620205 -0.714868 2.064 255 255 255
0.145394 0.101559 0.988 255 255 255
-0.851993 -0.285696 1.724 255 255 255
-0.227769 0.238273 0.758 255 255 255
-0.329779 0.127802 0.871 255 255 255
0.884731 -0.57514 2.01 255 255 255
0.805859 -0.184969 2.236 255 255 255
0.152598 0.150874 0.834 0 0 0
-0.385208 -0.433346 1.826 255 255 255
-0.191769 0.210085 0.832 255 255 255
-0.351032 0.187569 0.794 255 255 255
0.653701 -0.806592 2.166 255 255 255
0.274046 0.209668 0.667 255 255 255
-0.391997 -0.0312562 1.077 255 255 255
0.147792 0.267644 0.724 255 255 255
-0.302058 0.0374784 1.039 255 255 255
-0.292269 0.191002 0.803 255 255 255
-0.748321 -0.303201 1.744 255 255 255
0.140007 0.163552 0.816 255 255 255
-0.298804 0.181855 0.803 255 255 255
-0.810502 -0.681331 2.044 255 255 255
0.0558567 0.00791191 1.167 255 255 255
0.277453 0.164028 0.709 0 0 0
0.679077 -0.139486 2.392 255 255 255
0.701695 -0.184939 2.151 255 255 255
0.243335 0.123493 0.781 255 255 255
0.801112 -0.367876 2.136 255 255 255
0.234517 0.225226 0.688 255 255 255
0.268026 -0.040242 1.313 255 255 255
0.102875 0.254291 0.74 255 255 255
0.231109 0.154668 0.698 0 0 0
-0.29842 0.0721603 1.004 255 255 255
-0.0623797 0.275952 0.715 255 255 255
-0.198063 0.24121 0.726 255 255 255
0.0956062 -0.0440227 1.239 255 255 255
-0.0861119 -0.0974738 1.336 255 255 255
-0.503638 -0.0569507 1.135 255 255 255
0.0257735 0.243932 0.776 255 255 255
-0.16386 -0.83423 2.42 255 255 255
-0.188421 0.251577 0.699 255 255 255
-0.0183231 -0.892051 2.449 255 255 255
-0.966335 -0.63821 1.887 0 0 0
0.0470799 0.254618 0.734 255 255 255
-0.291272 0.138069 0.901 255 255 255
0.52469 -0.559518 2.55 255 255 255
-0.0098033 0.153279 0.913 255 255 255
0.724218 -0.330745 2.166 255 255 255
-0.420624 0.19574 0.801 255 255 255
0.201293 0.269408 0.701 255 255 255
-0.183092 -0.23222 1.571 255 255 255
-0.808027 -0.268273 1.668 255 255 255
0.55663 -0.112836 2.684 0 0 0
-0.544701 -0.153309 1.33 255 255 255
0.8984 -0.586468 2.004 255 255 255
-0.128937 0.223068 0.82 255 255 255
0.0618447 0.263294 0.725 255 255 255
0.983708 -0.0256115 2.303 255 255 255
-0.0950758 0.087608 1.032 255 255 255
-0.680668 -0.770182 2.024 255 255 255
0.153743 0.179137 0.791 255 255 255
0.195121 0.0536085 1.057 0 0 0
-0.814213 -0.687564 2.004 255 255 255
-0.254708 0.254113 0.743 0 0 0
0.900334 -0.0484529 2.32 255 255 255
0.324695 0.21953 0.664 0 0 0
-0.141886 0.235096 0.694 255 255 255
-0.377695 0.236484 0.726 255 255 255
-0.334348 0.219306 0.748 255 255 255
0.343047 0.075195 0.768 255 255 255
0.5462 -0.370629 2.593 255 255 255
0.26332 -0.503677 2.818 255 255 255
-0.0477575 -0.579833 2.53 255 255 255
