ply
format ascii 1.0
comment Created by Open3D
element vertex 1324
property double x
property double y
property double z
property uchar red
property uchar green
property uchar blue
end_header
-0.309701 -0.854473 2.695 255 255 255
-0.726879 0.679656 2.151 255 255 255
0.778927 0.490586 1.859 255 255 255
-0.073131 -0.620398 2.707 255 255 255
-1.46897 0.356406 2.953 255 255 255
0.0516052 0.489341 2.78 255 255 255
-0.853861 0.557383 2.479 255 255 255
0.803135 0.390754 1.859 255 255 255
0.818641 0.350292 1.853 255 255 255
0.726795 -0.193734 1.865 255 255 255
0.260149 0.563317 2.561 255 255 255
-0.529106 -1.08967 2.939 255 255 255
-0.899581 0.653058 2.278 255 255 255
-0.940327 0.447118 2.743 255 255 255
-0.621612 0.537682 2.519 255 255 255
-0.240981 0.64721 2.365 255 255 255
0.857853 0.71516 1.853 255 255 255
-0.935756 0.364281 2.939 255 255 255
0.824318 0.381678 1.859 255 255 255
-0.508328 0.641486 2.303 255 255 255
0.624153 0.134453 2.057 255 255 255
0.558138 -0.0890496 1.966 255 255 255
-0.971318 0.762447 1.959 255 255 255
0.607849 -0.217171 1.911 255 255 255
-0.808653 0.572438 2.44 255 255 255
0.851924 -0.136067 1.748 0 0 0
-0.669425 0.429185 2.925 255 255 255
0.551941 0.475884 2.196 255 255 255
0.745194 0.159437 1.953 0 0 0
0.030928 -0.037824 2.967 255 255 255
-1.13534 0.370285 2.911 255 255 255
0.684404 -0.198562 1.882 255 255 255
0.719315 0.512333 1.978 255 255 255
-0.591738 0.589864 2.43 255 255 255
0.707838 0.742501 1.991 255 255 255
0.284672 0.784451 2.024 255 255 255
0.0703106 0.669019 2.347 255 255 255
-1.03573 0.555962 2.509 255 255 255
0.867353 0.37685 1.739 255 255 255
-1.18442 0.585318 2.53 255 255 255
0.818973 -0.344254 1.642 255 255 255
0.762732 0.66384 1.941 255 255 255
0.0151313 0.511825 2.731 255 255 255
0.280234 0.612716 2.411 255 255 255
-1.15638 0.469993 2.695 255 255 255
-0.502682 0.715047 2.121 255 255 255
0.879709 0.167358 1.799 255 255 255
0.730952 0.502826 1.966 255 255 255
0.681823 -0.00267589 1.972 0 0 0
-0.322862 -0.902715 2.695 255 255 255
-0.536433 -1.13811 2.953 255 255 255
0.600665 0.658537 2.128 255 255 255
0.367573 0.749572 2.064 255 255 255
0.291639 0.453966 2.871 255 255 255
0.058513 0.444087 2.898 255 255 255
0.622176 0.350305 2.107 255 255 255
-0.376268 0.688101 2.189 255 255 255
-0.258707 0.02921 2.911 0 0 0
0.870579 0.289201 1.848 255 255 255
0.570015 0.614356 2.143 255 255 255
-0.333506 0.725402 2.121 255 255 255
-0.208192 -0.241168 2.805 255 255 255
-0.390681 0.365197 2.871 255 255 255
0.982125 -0.0843859 2.489 255 255 255
0.0846078 0.6802 2.32 255 255 255
-0.452987 -0.918221 2.911 255 255 255
0.820968 -0.315628 1.646 255 255 255
-0.357581 0.642284 2.347 255 255 255
0.719153 0.287593 2.051 255 255 255
-0.180796 -0.432884 2.805 255 255 255
0.477663 -1.12987 2.982 255 255 255
0.564299 -0.301136 1.911 255 255 255
-1.1014 0.444591 2.755 255 255 255
0.81358 0.378736 2.278 255 255 255
-0.561045 0.591295 2.469 255 255 255
-0.290961 -0.912134 2.684 255 255 255
-0.405601 -0.818741 2.911 255 255 255
-0.261285 0.699783 2.181 255 255 255
0.566179 -0.381101 1.876 255 255 255
-0.02891 0.666454 2.338 255 255 255
-1.16668 0.425507 2.719 255 255 255
0.725986 -0.288166 1.81 255 255 255
-0.319523 0.708515 2.143 255 255 255
0.0429373 -0.569824 2.805 255 255 255
-0.17623 -0.446578 2.805 255 255 255
-0.324929 0.082492 2.953 0 0 0
-0.316149 0.676324 2.269 255 255 255
-0.0334728 0.516138 2.707 255 255 255
0.590503 0.337598 2.092 255 255 255
0.518075 0.416645 2.204 255 255 255
0.562561 0.364186 2.128 255 255 255
0.512042 0.583259 2.469 0 0 0
-0.450592 0.492072 2.672 255 255 255
-0.857445 0.437088 2.793 255 255 255
-1.0073 0.494112 2.707 255 255 255
-0.300067 -1.03978 2.768 255 255 255
-0.0985395 0.635664 2.365 255 255 255
-0.98759 0.758772 1.966 255 255 255
1.14762 0.242423 2.286 255 255 255
-0.054609 0.735662 2.151 255 255 255
-0.912415 0.513701 2.649 255 255 255
-0.544244 -1.01329 2.996 255 255 255
0.833406 0.445169 1.763 255 255 255
-0.234926 0.565047 2.55 255 255 255
0.899439 0.22084 2.051 255 255 255
0.330035 0.638083 2.374 0 0 0
-0.853076 0.476491 2.707 255 255 255
0.0347462 -0.974799 2.54 255 255 255
0.761982 0.780486 1.997 255 255 255
-0.328706 0.485302 2.707 255 255 255
0.721657 0.45537 1.941 255 255 255
0.364815 0.638083 2.374 0 0 0
0.367846 0.6802 2.32 255 255 255
0.0839878 0.682711 2.303 255 255 255
0.616831 0.431598 2.136 255 255 255
0.668832 0.436608 2.03 255 255 255
-0.226785 0.73591 2.092 255 255 255
0.0802697 0.765188 2.107 255 255 255
0.683084 -0.236857 1.87 255 255 255
-0.34773 0.766916 2.004 255 255 255
0.584448 0.346877 2.107 255 255 255
-0.445102 0.269907 2.953 0 0 0
-0.92934 0.427242 2.818 255 255 255
-0.400932 -0.552401 2.982 255 255 255
0.634566 0.633563 2.114 255 255 255
-0.755282 0.427843 2.982 255 255 255
0.781183 0.314379 2.03 0 0 0
0.872681 0.578349 1.821 255 255 255
-0.563835 0.439577 2.78 255 255 255
0.645264 -0.267495 1.893 255 255 255
0.728028 -0.362784 1.876 255 255 255
-0.0710708 0.696735 2.228 255 255 255
-0.227165 0.66772 2.303 255 255 255
-0.363384 -0.398058 2.953 255 255 255
-0.384126 0.34017 2.857 255 255 255
0.0747714 -0.217565 2.982 255 255 255
0.0506956 -0.634787 2.731 255 255 255
0.135239 -0.446643 2.925 255 255 255
0.214457 -0.55445 2.967 255 255 255
-0.0571451 -0.885874 2.582 255 255 255
-1.32919 0.479027 2.672 255 255 255
-0.216118 0.711596 2.121 255 255 255
-0.0941996 -0.916177 2.561 255 255 255
0.733396 0.57084 1.947 255 255 255
-0.399606 0.638464 2.347 255 255 255
-0.0810892 -0.298687 2.831 255 255 255
-0.409975 0.439577 2.78 255 255 255
-0.272922 -0.591357 2.911 255 255 255
0.268204 0.672852 2.374 255 255 255
0.557982 0.285574 2.085 255 255 255
0.854423 0.413229 1.691 255 255 255
-0.131874 0.758867 2.099 255 255 255
0.0274985 -0.900794 2.638 255 255 255
0.151695 0.651058 2.365 255 255 255
0.551478 0.693967 2.099 0 0 0
-0.943484 0.724825 2.051 255 255 255
0.317419 0.689282 2.338 255 255 255
0.0964474 0.709042 2.244 255 255 255
0.15732 0.627351 2.392 255 255 255
-0.686913 0.655351 2.286 255 255 255
-0.652048 0.762044 2.017 255 255 255
-0.137676 0.730532 2.136 255 255 255
0.36095 0.641946 2.374 0 0 0
-0.14972 -0.0844817 2.911 255 255 255
-0.322596 -1.0623 2.768 255 255 255
0.470431 -0.916572 2.967 255 255 255
0.683706 0.0674764 1.959 255 255 255
-0.184649 -0.152252 2.939 255 255 255
0.863897 0.0270732 1.815 0 0 0
0.661758 -0.228889 1.905 0 0 0
0.0366153 0.639028 2.392 255 255 255
0.729195 -0.324289 1.848 255 255 255
0.715483 0.338728 2.099 255 255 255
0.267685 0.765595 2.071 255 255 255
0.819698 -0.25067 1.734 255 255 255
0.862037 -0.109581 1.734 0 0 0
0.690081 0.619237 2.044 255 255 255
-0.318377 0.659042 2.312 255 255 255
0.630064 0.755451 2.099 0 0 0
0.296497 -1.01253 2.743 255 255 255
0.261053 0.755451 2.099 255 255 255
0.763427 0.714628 1.959 255 255 255
-0.963886 0.739774 2.01 255 255 255
-0.212945 0.773809 2.057 255 255 255
-0.650273 0.726662 2.085 255 255 255
0.566666 0.320577 2.092 255 255 255
0.564765 -0.189378 1.978 255 255 255
-0.31108 0.489707 2.707 255 255 255
-0.608768 0.651631 2.286 255 255 255
0.816269 0.687788 1.911 255 255 255
-0.144127 0.699783 2.181 255 255 255
-0.704553 0.585622 2.479 255 255 255
0.0799994 -0.199084 2.996 255 255 255
0.751605 0.783222 2.004 255 255 255
-0.421231 0.664179 2.278 255 255 255
0.622341 0.743388 2.143 0 0 0
0.100918 -0.999388 2.649 255 255 255
0.446776 0.711596 2.121 255 255 255
-0.531636 0.728125 2.099 255 255 255
0.700665 0.528999 2.017 255 255 255
-0.473996 0.578674 2.519 255 255 255
-0.747815 0.72195 2.121 255 255 255
-0.147508 -0.496885 2.78 255 255 255
-0.18505 -0.33094 2.871 255 255 255
-0.38859 0.760349 2.03 255 255 255
-0.816036 0.619368 2.347 255 255 255
-0.802269 0.640471 2.286 255 255 255
-1.15598 0.659211 2.236 255 255 255
-0.234892 0.676324 2.269 255 255 255
-0.293684 0.450723 2.793 255 255 255
0.458246 -0.945469 2.982 255 255 255
0.621717 -0.331133 1.887 255 255 255
-0.245667 -0.360964 2.925 255 255 255
0.764268 0.25796 1.953 255 255 255
0.858963 0.176495 1.966 255 255 255
-1.09327 0.51586 2.638 255 255 255
0.115359 -0.982018 2.684 255 255 255
0.184341 0.798855 2.044 255 255 255
-0.163204 0.109252 2.898 255 255 255
0.518921 -1.16443 2.996 255 255 255
-1.06897 0.686241 2.128 255 255 255
0.0189891 0.552498 2.649 255 255 255
-0.272262 -0.890663 2.672 255 255 255
0.659138 0.338691 2.884 0 0 0
-0.558392 0.695772 2.136 255 255 255
-0.248358 0.535255 2.649 255 255 255
-0.424607 0.536598 2.593 255 255 255
0.361518 0.766956 2.03 255 255 255
-0.101386 0.0852577 2.884 255 255 255
0.114619 0.729042 2.173 255 255 255
0.786735 -0.203875 1.794 255 255 255
-0.735057 0.591375 2.42 255 255 255
0.815625 0.374416 1.853 255 255 255
0.654699 0.0629095 2.017 255 255 255
0.188975 0.610417 2.449 255 255 255
0.858491 0.324011 1.744 255 255 255
0.631953 0.0395373 1.997 255 255 255
0.782349 -0.109838 1.784 255 255 255
0.520574 0.572967 2.53 255 255 255
-1.53389 0.353267 2.967 255 255 255
0.56514 0.462632 2.151 255 255 255
0.796698 0.00638033 1.81 255 255 255
0.327214 0.734329 2.107 255 255 255
0.528053 0.627108 2.278 255 255 255
0.891274 0.321095 2.01 0 0 0
0.868768 0.289601 1.87 255 255 255
0.473867 0.656477 2.303 0 0 0
0.178602 -0.840747 2.857 255 255 255
0.794497 -0.213937 1.805 255 255 255
0.756301 -0.249185 1.805 255 255 255
0.0845746 0.712296 2.22 255 255 255
-0.0944783 -0.311073 2.818 255 255 255
-0.454346 0.715047 2.121 255 255 255
-0.638059 0.7767 2.004 255 255 255
-0.705407 0.76267 2.01 255 255 255
0.795818 -0.326828 1.719 255 255 255
0.574952 0.2245 2.085 255 255 255
-0.187629 0.0813187 2.911 255 255 255
0.266671 -1.05368 2.805 255 255 255
-0.0800344 -0.958819 2.509 255 255 255
0.595316 0.285574 2.085 255 255 255
0.427158 0.747988 1.997 255 255 255
0.727507 0.40828 2.037 255 255 255
0.385108 -1.05978 2.871 255 255 255
-0.177047 -0.223943 2.818 255 255 255
0.74661 0.0122713 1.81 0 0 0
-0.252328 0.751275 2.078 255 255 255
0.862875 0.420238 1.686 255 255 255
0.243579 -0.799792 2.911 255 255 255
-0.358922 -0.481862 2.996 255 255 255
-1.16635 0.664103 2.228 255 255 255
-0.0407931 0.631815 2.365 255 255 255
0.889939 0.686911 1.826 255 255 255
-0.72021 0.47149 2.755 255 255 255
0.621638 -0.162554 2.228 255 255 255
0.300794 0.762266 2.044 255 255 255
-0.238264 -0.723672 2.731 255 255 255
0.859279 0.322898 1.769 255 255 255
0.142899 0.676658 2.347 255 255 255
0.276979 0.628868 2.383 255 255 255
-1.21716 0.406944 2.743 255 255 255
-0.527301 0.554079 2.519 255 255 255
0.245715 0.590346 2.499 0 0 0
-0.185272 -0.681948 2.672 255 255 255
-0.222951 -0.646829 2.707 255 255 255
-0.766316 0.674883 2.204 255 255 255
-0.748557 0.492261 2.604 255 255 255
0.584576 0.128627 2.071 255 255 255
0.797218 -0.319552 1.71 255 255 255
-1.06414 0.582213 2.499 255 255 255
0.816807 0.74453 1.905 255 255 255
0.240681 0.596085 2.489 0 0 0
0.650982 -0.282187 1.848 255 255 255
-0.696578 0.657862 2.269 255 255 255
-0.158698 -0.315659 2.818 255 255 255
-0.887321 0.674844 2.158 255 255 255
0.671138 0.792804 2.037 0 0 0
0.366576 0.604869 2.411 0 0 0
-0.625576 0.455268 2.793 255 255 255
0.277807 0.596903 2.459 255 255 255
-0.198347 -0.956772 2.615 255 255 255
0.442478 0.580379 2.44 255 255 255
0.57545 -0.0516368 2.004 255 255 255
-1.19992 0.399703 2.884 255 255 255
0.888017 0.217613 1.853 255 255 255
-0.358577 -0.398058 2.953 255 255 255
0.889115 0.164774 1.941 0 0 0
0.909086 0.69076 1.805 255 255 255
0.0648998 -0.765007 2.768 255 255 255
-1.00331 0.76329 1.953 255 255 255
0.817863 0.074986 1.831 255 255 255
-1.40549 0.507176 2.66 255 255 255
-0.0350061 0.456855 2.831 255 255 255
0.704872 0.0797367 1.947 255 255 255
-0.372568 -0.830009 2.805 255 255 255
0.29552 0.596262 2.44 255 255 255
0.0562612 0.754902 2.107 255 255 255
-0.0252008 0.653742 2.347 255 255 255
-0.558295 -1.14833 2.967 255 255 255
0.887982 0.253325 2.071 255 255 255
-0.0594025 -0.66754 2.684 255 255 255
-0.937033 0.644505 2.261 255 255 255
0.832941 -0.257792 1.744 255 255 255
0.727483 -0.190085 1.859 255 255 255
-0.39506 0.553477 2.593 255 255 255
-0.149611 -0.818646 2.582 255 255 255
0.364558 0.708219 2.253 255 255 255
0.755614 -0.350729 1.769 255 255 255
-0.349738 0.44353 2.805 255 255 255
0.0780488 -0.752448 2.755 255 255 255
-0.100095 0.666567 2.312 255 255 255
-0.533376 0.560045 2.509 255 255 255
0.587929 -0.352628 1.887 255 255 255
0.665537 0.640444 2.114 255 255 255
-0.0547875 -0.681948 2.672 255 255 255
-0.845792 0.723598 2.057 255 255 255
0.4678 0.753871 2.004 255 255 255
0.554836 0.784451 2.024 0 0 0
-1.14156 0.601727 2.43 255 255 255
0.206374 0.653536 2.374 255 255 255
0.147192 0.507327 2.707 255 255 255
0.607593 0.544259 2.128 255 255 255
0.760374 0.211498 1.935 0 0 0
0.675048 -0.288201 1.848 255 255 255
-0.070852 0.160945 2.982 255 255 255
-0.342464 0.227152 2.898 255 255 255
-0.950534 0.398708 2.911 255 255 255
-0.0876523 0.62499 2.383 255 255 255
0.134457 0.702171 2.269 255 255 255
-0.143651 -0.321949 2.793 255 255 255
0.254541 0.696272 2.286 255 255 255
-0.163286 -0.2056 2.818 255 255 255
-0.425312 -1.06458 2.884 255 255 255
-1.16748 0.523939 2.593 255 255 255
0.741248 0.640126 1.985 255 255 255
0.475416 0.683071 2.173 255 255 255
-0.103712 0.682232 2.228 255 255 255
-0.327653 0.563317 2.561 255 255 255
0.85966 -0.128263 1.758 0 0 0
0.475029 0.434727 2.996 255 255 255
0.772308 -0.22989 1.815 255 255 255
-0.262781 -0.770381 2.755 255 255 255
-1.21672 0.605682 2.43 255 255 255
0.704282 -0.338454 1.911 0 0 0
-0.761595 0.600103 2.392 255 255 255
0.549343 0.250799 2.078 255 255 255
-0.271422 0.520543 2.707 255 255 255
0.863188 0.651253 1.826 255 255 255
0.264718 0.602447 2.449 255 255 255
-0.257171 -1.04378 2.743 255 255 255
0.852809 -0.116895 1.677 255 255 255
0.569994 -0.180357 1.985 255 255 255
-0.511059 0.738633 2.071 255 255 255
0.319128 0.575224 2.469 0 0 0
-0.0405049 -0.86855 2.593 255 255 255
-0.180722 -0.124145 2.953 255 255 255
0.128861 0.710152 2.236 255 255 255
-0.150911 0.629973 2.402 255 255 255
-0.293684 -0.749191 2.793 255 255 255
0.576882 0.218445 2.092 255 255 255
-0.210774 0.663888 2.329 255 255 255
0.109599 0.573346 2.55 255 255 255
-1.13576 0.427242 2.818 255 255 255
0.862678 -0.111754 1.724 255 255 255
0.612333 -0.138028 1.935 255 255 255
-1.44904 0.392635 2.768 255 255 255
0.811927 -0.301084 1.7 255 255 255
-0.0311949 0.780486 1.997 255 255 255
0.700528 -0.0656033 1.935 255 255 255
0.491367 0.674938 2.181 255 255 255
0.840075 0.382767 1.821 255 255 255
-0.309036 0.0581873 2.939 0 0 0
0.306828 0.740233 2.085 255 255 255
0.82969 0.649476 1.899 255 255 255
0.742904 0.124094 1.947 0 0 0
-0.0749699 0.120936 2.953 255 255 255
0.593591 0.778897 2.044 0 0 0
-0.832223 0.741633 2.024 255 255 255
-0.72982 0.650477 2.269 255 255 255
0.792112 -0.279773 1.705 255 255 255
0.895816 0.224094 1.935 255 255 255
0.205465 -0.989999 2.78 255 255 255
-0.211591 0.476272 2.731 255 255 255
0.848967 0.323499 1.821 255 255 255
0.0331559 0.719644 2.166 255 255 255
-1.41192 0.409909 2.857 255 255 255
0.892558 0.590788 1.744 255 255 255
-0.926537 0.372066 2.925 255 255 255
-1.09668 0.686241 2.128 255 255 255
0.20188 -0.990083 2.793 255 255 255
-0.102827 -0.0372886 2.925 255 255 255
0.76192 0.165284 1.947 0 0 0
-0.0775375 -0.510269 2.707 255 255 255
0.275803 0.466353 2.805 255 255 255
-0.80369 0.650477 2.269 255 255 255
0.0587755 -0.255019 2.911 255 255 255
0.536431 0.264586 2.107 255 255 255
0.692076 -0.153295 1.929 0 0 0
-0.743892 0.662934 2.212 255 255 255
0.578557 0.484297 2.857 255 255 255
0.900208 0.539158 1.799 255 255 255
-0.838364 0.678888 2.253 255 255 255
-0.442847 0.61104 2.374 255 255 255
0.843562 0.328723 2.037 255 255 255
0.76818 0.110047 1.923 0 0 0
0.832282 0.405784 1.779 255 255 255
0.676357 -0.416276 2.329 255 255 255
0.746228 -0.0180283 1.899 255 255 255
-0.283333 0.775754 2.01 255 255 255
-0.0219892 -0.0470325 2.939 255 255 255
-0.436812 -1.06032 2.898 255 255 255
0.619855 -0.153295 1.929 255 255 255
0.572953 0.468074 2.128 255 255 255
-0.193921 0.633882 2.402 255 255 255
0.278876 -0.914397 2.884 255 255 255
-0.331421 0.40909 2.884 255 255 255
-0.124938 -0.549611 2.684 255 255 255
0.823215 0.465873 1.81 255 255 255
0.831473 0.595946 1.848 255 255 255
0.335238 0.580379 2.44 255 255 255
-0.36487 0.572967 2.53 255 255 255
-0.178152 0.090793 2.911 255 255 255
0.469446 0.505234 2.844 255 255 255
-0.168359 0.697216 2.173 255 255 255
-0.0350061 -0.478359 2.831 255 255 255
-0.118235 -0.863197 2.54 255 255 255
-0.252358 0.690301 2.196 255 255 255
-0.103093 -0.593288 2.684 255 255 255
0.76192 0.23182 1.947 0 0 0
0.265968 0.711743 2.196 255 255 255
0.613919 0.623243 2.114 255 255 255
0.853233 0.314953 1.876 255 255 255
0.758751 0.241326 1.947 0 0 0
-1.20631 0.515834 2.66 255 255 255
-0.879525 0.603313 2.374 255 255 255
0.885028 0.26092 1.905 255 255 255
0.84823 0.722827 1.865 255 255 255
0.108203 -0.13439 2.967 255 255 255
-0.412029 -0.989524 2.857 255 255 255
0.719218 -0.12579 1.893 255 255 255
-0.126028 0.02921 2.911 255 255 255
0.516825 0.586716 2.294 255 255 255
0.573003 0.0666184 2.03 255 255 255
-0.148198 -0.490119 2.793 255 255 255
-1.17928 0.416957 2.78 255 255 255
-0.0520104 0.716599 2.189 255 255 255
-0.292892 -0.668823 2.743 255 255 255
0.834622 0.499825 1.784 255 255 255
0.223621 -0.791504 2.898 255 255 255
0.807759 -0.0410597 1.966 0 0 0
0.729168 -0.00259312 1.911 255 255 255
0.237972 -1.09147 2.844 255 255 255
0.642754 0.621179 2.107 255 255 255
0.754876 -0.13446 1.929 255 255 255
-0.196297 -0.487573 2.831 255 255 255
0.879704 0.555643 1.805 255 255 255
0.167784 -0.389228 2.996 255 255 255
0.829514 0.359225 1.837 255 255 255
-0.040356 -0.346518 2.884 255 255 255
0.772699 0.0513165 1.837 255 255 255
0.615364 0.509735 2.143 255 255 255
0.518595 0.771276 2.024 255 255 255
0.0490783 -0.315188 2.898 255 255 255
0.656078 -0.373179 1.837 255 255 255
0.605594 0.670177 2.121 255 255 255
0.834622 0.496922 1.784 255 255 255
0.720026 0.283285 2.044 255 255 255
-0.302267 -0.849468 2.707 255 255 255
0.020774 -0.225584 2.898 255 255 255
0.143447 0.671585 2.356 255 255 255
-1.10497 0.40526 2.857 255 255 255
0.745081 0.27448 2.004 0 0 0
-0.243399 0.0479436 2.898 0 0 0
-0.0666681 0.543427 2.626 255 255 255
0.651867 -0.371197 1.842 255 255 255
-0.285116 0.211234 2.939 0 0 0
-1.07707 0.409909 2.857 255 255 255
0.303199 -0.989772 2.805 255 255 255
0.542796 0.524446 2.638 255 255 255
0.733765 0.629101 1.991 255 255 255
-1.01712 0.356406 2.953 255 255 255
0.772229 0.556319 1.887 255 255 255
0.879407 0.340995 2.051 255 255 255
0.303737 0.746213 2.064 255 255 255
0.189049 -1.0126 2.805 255 255 255
-0.399935 -0.233559 2.939 255 255 255
-0.630943 0.687007 2.22 255 255 255
-0.454091 0.460905 2.719 255 255 255
-0.447917 0.720614 2.107 255 255 255
0.589063 0.338728 2.099 255 255 255
-0.337504 0.528739 2.638 255 255 255
0.534067 0.665286 2.196 0 0 0
0.359282 0.674063 2.338 255 255 255
1.11004 0.287526 2.204 255 255 255
0.602134 -0.158381 1.953 255 255 255
-0.619761 0.498596 2.615 255 255 255
0.84222 0.525982 1.794 255 255 255
-0.655901 0.568211 2.509 255 255 255
-0.200897 -0.071622 2.967 255 255 255
0.570343 -0.186984 1.953 255 255 255
0.721042 -0.281495 1.805 255 255 255
-0.992986 0.686657 2.151 255 255 255
0.665338 0.421997 2.158 0 0 0
-0.0952782 0.763369 2.121 255 255 255
0.767119 0.0770747 1.882 255 255 255
-0.186104 -0.650069 2.684 255 255 255
0.19432 0.697542 2.278 255 255 255
0.108842 -0.580387 2.857 255 255 255
-1.32805 0.364281 2.939 255 255 255
0.528155 0.283056 2.143 255 255 255
0.888914 -0.0308176 1.748 255 255 255
0.812011 -0.10953 1.779 255 255 255
0.0524084 0.629973 2.402 255 255 255
0.00181905 0.487229 2.768 255 255 255
0.497101 0.752197 2.017 255 255 255
-0.149611 -0.961506 2.582 255 255 255
0.674162 -0.197889 1.905 255 255 255
-0.945582 0.376826 2.925 255 255 255
-1.35101 0.445655 2.707 255 255 255
-1.12913 0.433175 2.768 255 255 255
-0.189622 -0.777609 2.672 255 255 255
-0.862785 0.661555 2.269 255 255 255
0.217217 -0.774006 2.939 255 255 255
0.551478 0.704215 2.099 0 0 0
0.261196 0.731259 2.128 255 255 255
-0.486157 -1.0177 2.911 255 255 255
-0.212004 0.597773 2.43 255 255 255
-0.362197 -0.819275 2.831 255 255 255
-0.614267 0.688131 2.212 255 255 255
0.27347 0.714863 2.228 255 255 255
-0.331608 -0.985725 2.768 255 255 255
-0.223006 0.658844 2.338 255 255 255
-1.04862 0.614618 2.329 255 255 255
0.642831 0.489153 2.085 255 255 255
0.840543 -0.261228 1.748 255 255 255
-0.377805 -0.604695 2.953 255 255 255
-1.03278 0.734304 2.004 255 255 255
0.0151978 -0.726852 2.743 255 255 255
-0.697491 0.494583 2.572 255 255 255
-0.10678 -0.193779 2.78 255 255 255
0.684791 -0.113886 1.953 0 0 0
-0.323595 0.392211 2.898 255 255 255
-0.317565 -0.24915 2.844 255 255 255
0.835178 0.498424 1.779 255 255 255
-0.132068 0.720497 2.158 255 255 255
-0.24923 0.02921 2.911 0 0 0
0.236776 0.720497 2.158 255 255 255
-1.31986 0.451582 2.743 255 255 255
-0.904352 0.762447 1.959 255 255 255
-1.3924 0.447631 2.719 255 255 255
0.283604 0.600233 2.44 255 255 255
0.691566 0.389965 2.099 255 255 255
-0.505185 0.383412 2.939 255 255 255
0.776494 0.391123 1.905 255 255 255
1.01894 -0.117449 2.593 255 255 255
-0.845268 0.740263 1.985 255 255 255
0.107198 0.740792 2.166 255 255 255
0.464747 0.575231 2.54 255 255 255
-1.13673 0.671333 2.158 255 255 255
0.906148 0.576204 1.805 255 255 255
0.155907 0.78316 2.064 255 255 255
0.753813 0.0514562 1.842 255 255 255
0.297355 0.482539 2.793 255 255 255
-0.413449 0.464973 2.743 255 255 255
-0.914688 0.608723 2.365 255 255 255
0.934476 0.267962 1.911 255 255 255
-1.01969 0.552381 2.53 255 255 255
-1.28858 0.498519 2.66 255 255 255
-0.889731 0.63112 2.32 255 255 255
0.363783 -1.05116 2.925 255 255 255
0.0657673 -0.55613 2.805 255 255 255
-0.425317 0.716128 2.114 255 255 255
-0.879006 0.546298 2.54 255 255 255
-0.156059 0.573346 2.55 255 255 255
0.228946 -0.58342 2.967 255 255 255
-0.0260263 -0.278184 2.857 255 255 255
-0.376671 0.590346 2.499 255 255 255
0.454124 0.560897 2.55 255 255 255
-0.109238 0.431184 2.844 255 255 255
-0.150225 0.767982 2.024 255 255 255
0.839873 0.518694 1.789 255 255 255
-1.46255 0.401644 2.768 255 255 255
0.905296 0.280471 1.87 255 255 255
0.767436 0.110391 1.929 0 0 0
-1.32645 0.563734 2.582 255 255 255
0.87276 0.573489 1.815 255 255 255
0.305427 -1.02146 2.743 255 255 255
0.875645 0.65836 1.821 255 255 255
0.711211 0.41242 1.947 255 255 255
0.858861 0.38534 1.739 255 255 255
-0.59274 0.598703 2.402 255 255 255
0.180751 -0.856785 2.818 255 255 255
-0.832038 0.647911 2.286 255 255 255
0.663671 -0.14522 1.947 255 255 255
0.723888 0.459946 1.947 255 255 255
-0.0792907 0.631815 2.365 255 255 255
0.602142 0.604597 2.121 255 255 255
0.797435 0.00930003 1.805 255 255 255
-0.120685 0.725951 2.143 255 255 255
0.831043 -0.113958 1.758 255 255 255
0.122794 -0.529245 2.857 255 255 255
-0.187629 0.123953 2.911 255 255 255
0.780847 0.111411 1.893 255 255 255
0.649614 0.621179 2.107 255 255 255
-0.796059 0.590885 2.402 255 255 255
0.419388 0.731893 2.071 0 0 0
-0.183235 0.555331 2.582 255 255 255
-0.224975 -0.226009 2.844 255 255 255
-0.0262723 -0.355905 2.884 255 255 255
-0.371857 0.524446 2.638 255 255 255
0.867033 0.501319 1.779 255 255 255
0.661792 -0.34929 1.853 255 255 255
0.576992 0.642255 2.143 255 255 255
0.260867 0.788876 2.044 255 255 255
-0.556733 0.694565 2.143 255 255 255
0.456597 0.700658 2.151 0 0 0
0.582229 0.331897 2.099 255 255 255
0.382305 0.742004 2.071 255 255 255
0.589015 0.692296 2.136 0 0 0
0.678432 -0.129777 1.953 0 0 0
0.612838 0.759648 2.064 0 0 0
-0.0652972 -0.869886 2.572 255 255 255
0.726931 0.555258 2.017 255 255 255
-0.157405 0.561551 2.572 255 255 255
0.735294 0.779961 2.004 255 255 255
0.743138 0.0912712 1.923 0 0 0
0.675638 0.62697 2.092 255 255 255
0.561425 0.0795964 2.024 255 255 255
-0.165609 -0.533077 2.78 255 255 255
-0.987295 0.597773 2.43 255 255 255
0.421793 0.6652 2.347 255 255 255
0.694961 0.193528 2.01 255 255 255
0.793765 0.336525 2.173 0 0 0
0.600665 0.166797 2.128 255 255 255
-0.184624 0.783222 2.004 255 255 255
0.081772 0.669019 2.347 255 255 255
-0.269474 0.0245906 2.925 0 0 0
0.753861 0.529727 1.959 255 255 255
0.510368 0.543112 2.604 255 255 255
-0.649701 0.647911 2.286 255 255 255
0.479795 0.522851 2.719 255 255 255
-0.347182 -0.211436 2.898 255 255 255
0.054037 -0.255019 2.911 255 255 255
-0.596875 0.636468 2.312 255 255 255
0.828181 -0.125402 1.758 255 255 255
-0.852364 0.379316 2.982 255 255 255
0.783797 0.0484587 1.842 255 255 255
0.679302 0.661085 2.114 255 255 255
-0.2899 -0.424867 2.939 255 255 255
-0.13024 -0.765276 2.615 255 255 255
-0.167098 -0.446578 2.805 255 255 255
0.690081 0.772245 2.044 0 0 0
0.566256 0.304905 2.078 255 255 255
0.0695656 -0.153703 2.967 255 255 255
0.860464 0.443953 1.714 255 255 255
-0.342682 -0.367998 2.982 255 255 255
0.150927 -1.03428 2.695 255 255 255
-0.283002 0.23256 2.967 0 0 0
0.785999 -0.0200065 1.799 255 255 255
0.823215 0.518891 1.81 255 255 255
0.803672 -0.324301 1.677 255 255 255
-0.860203 0.603313 2.374 255 255 255
0.63867 0.413627 2.151 255 255 255
-0.00205871 0.735757 2.121 255 255 255
0.778956 0.314066 1.966 255 255 255
-0.0451915 0.714336 2.204 255 255 255
0.189596 0.71043 2.181 255 255 255
0.0276468 0.687509 2.294 255 255 255
-0.771412 0.651863 2.261 255 255 255
0.60387 0.408433 2.982 255 255 255
-0.238682 0.0668076 2.898 0 0 0
-0.702513 0.753742 2.03 255 255 255
0.766822 0.0640319 1.859 255 255 255
0.00484644 0.732305 2.121 255 255 255
-0.471941 -0.837689 2.911 255 255 255
-0.397937 0.20558 2.996 255 255 255
0.0280569 0.771552 2.051 255 255 255
-0.212999 0.662805 2.312 255 255 255
0.782934 0.0361518 1.826 255 255 255
-0.468889 -0.693129 2.982 255 255 255
-0.0219634 0.612716 2.411 255 255 255
0.454091 0.660083 2.356 255 255 255
-0.0422857 -0.686476 2.707 255 255 255
0.718151 0.493228 1.966 255 255 255
0.685767 0.230852 2.051 255 255 255
-0.482356 0.650477 2.269 255 255 255
0.103373 -0.071622 2.967 255 255 255
0.70535 0.43884 1.966 255 255 255
-1.09373 0.498519 2.66 255 255 255
0.261463 0.64438 2.383 255 255 255
-0.0205241 0.704553 2.253 255 255 255
-1.08171 0.607127 2.42 255 255 255
-0.435299 0.596262 2.44 255 255 255
0.86741 0.627873 1.81 255 255 255
0.13295 0.649673 2.374 255 255 255
0.615952 0.559727 2.121 255 255 255
-0.834197 0.691445 2.166 255 255 255
-0.0348453 0.463929 2.818 255 255 255
1.11212 0.15618 2.173 255 255 255
-0.378846 0.682056 2.204 255 255 255
-0.984879 0.644505 2.261 255 255 255
-0.537133 0.768609 2.017 255 255 255
0.633481 0.588079 2.099 255 255 255
0.28181 0.592902 2.459 0 0 0
-0.06294 -0.693322 2.649 255 255 255
0.81293 -0.339735 1.646 255 255 255
0.329051 0.470676 2.831 255 255 255
-0.0669554 0.445586 2.818 255 255 255
-0.670784 0.754808 2.024 255 255 255
0.879604 0.214018 1.848 255 255 255
0.816875 -0.242205 1.734 255 255 255
-0.0153453 0.764877 2.051 255 255 255
-0.336129 0.150479 2.967 255 255 255
0.231183 -0.623251 2.996 255 255 255
-0.402728 -1.05461 2.857 255 255 255
-0.392643 -0.97143 2.818 255 255 255
0.65897 0.0594202 2.01 0 0 0
-0.179032 -0.898479 2.582 255 255 255
-1.06535 0.456045 2.743 255 255 255
0.558025 0.481999 2.871 255 255 255
0.760238 0.344827 1.959 0 0 0
-1.43595 0.447118 2.743 255 255 255
-0.0739036 0.0481586 2.911 255 255 255
-0.0270284 0.102196 2.967 255 255 255
0.732867 -0.348517 1.865 255 255 255
0.740217 -0.183441 1.853 255 255 255
-0.179795 -0.923405 2.593 255 255 255
0.035184 -0.961967 2.572 255 255 255
-0.789552 0.749695 1.959 255 255 255
-0.093795 -0.791901 2.55 255 255 255
0.835632 0.0298613 1.805 0 0 0
0.599145 -0.121525 1.923 255 255 255
-1.23502 0.406944 2.743 255 255 255
-0.00260518 0.546694 2.684 255 255 255
0.749557 -0.176239 1.81 255 255 255
-0.283267 0.466721 2.78 255 255 255
0.885565 0.542086 1.799 255 255 255
-0.0420983 -0.560635 2.695 255 255 255
0.558325 -0.0638423 1.978 255 255 255
0.899723 0.589809 1.758 255 255 255
0.312623 -0.761067 2.982 255 255 255
0.846501 0.345016 1.997 255 255 255
0.206385 0.762283 2.099 255 255 255
0.665927 -0.177298 1.917 0 0 0
-0.995828 0.666488 2.236 255 255 255
-0.830677 0.715047 2.121 255 255 255
0.563261 0.729101 2.092 0 0 0
-0.257793 0.56885 2.53 255 255 255
0.861517 0.560128 1.81 255 255 255
-0.049521 -0.349628 2.871 255 255 255
-0.188531 -0.00396906 2.925 255 255 255
-1.30016 0.35672 2.996 255 255 255
-0.870811 0.420507 2.898 255 255 255
-0.0789123 -0.393785 2.755 255 255 255
-0.372998 -0.6095 2.953 255 255 255
0.070041 0.674063 2.338 255 255 255
-0.81084 0.451582 2.743 255 255 255
-0.16386 0.618942 2.42 255 255 255
0.873828 0.552706 1.805 255 255 255
-0.183126 0.752035 2.099 255 255 255
-1.37945 0.440107 2.755 255 255 255
0.774598 0.260336 1.947 255 255 255
0.665705 0.0361785 1.991 0 0 0
-0.469449 -1.05116 2.925 255 255 255
-1.03605 0.381586 2.925 255 255 255
0.725508 0.404927 2.004 255 255 255
-1.30321 0.453557 2.755 255 255 255
-0.444091 -0.951943 2.884 255 255 255
0.621147 -0.356678 1.876 255 255 255
-0.415964 0.686608 2.173 255 255 255
-0.0432769 -0.934321 2.509 255 255 255
-0.267246 0.183408 2.953 0 0 0
0.253791 0.604907 2.459 255 255 255
-0.611457 0.67498 2.228 255 255 255
0.882316 0.492744 1.769 255 255 255
-0.242223 -0.426303 2.884 255 255 255
0.724457 -0.314119 1.859 255 255 255
-0.0899147 0.731033 2.158 255 255 255
0.62517 0.395274 2.755 0 0 0
-0.164259 -0.728689 2.684 255 255 255
0.745927 -0.333293 1.753 255 255 255
-0.126588 -0.155156 2.818 255 255 255
0.417304 -0.945542 2.967 255 255 255
-0.269871 -0.057426 2.982 255 255 255
-0.46762 0.626064 2.402 255 255 255
-0.396439 0.738633 2.071 255 255 255
-0.00600759 0.685379 2.312 255 255 255
-0.787717 0.578535 2.449 255 255 255
0.85661 0.310378 1.831 255 255 255
0.133645 -0.71101 2.996 255 255 255
-0.0691998 0.681392 2.286 255 255 255
0.0408308 0.604869 2.411 255 255 255
0.554588 0.231286 2.085 255 255 255
0.769416 0.321299 1.991 0 0 0
0.883994 0.677996 1.826 255 255 255
-0.936819 0.590885 2.402 255 255 255
0.867918 0.0235083 1.769 255 255 255
-0.242223 -0.515474 2.884 255 255 255
-0.49316 -0.979438 2.982 255 255 255
1.02945 0.289415 2.064 255 255 255
-0.400863 -0.643466 2.911 255 255 255
0.881415 0.316135 1.959 0 0 0
0.351413 0.785567 2.01 255 255 255
0.321522 0.699992 2.286 255 255 255
-0.0302582 -0.407375 2.818 255 255 255
-1.357 0.468075 2.684 255 255 255
0.600715 0.117716 2.057 255 255 255
-0.409975 0.444101 2.78 255 255 255
-1.07689 0.644505 2.261 255 255 255
-0.867673 0.494281 2.684 255 255 255
0.729475 0.630996 1.997 255 255 255
-0.16711 0.418476 2.884 0 0 0
-0.161789 0.779961 2.004 255 255 255
-0.600706 0.765941 2.01 255 255 255
-0.661423 0.57408 2.499 255 255 255
0.661191 0.159664 2.037 0 0 0
-0.739196 0.713152 2.136 255 255 255
-0.516873 0.680871 2.166 255 255 255
-0.487339 0.472086 2.707 255 255 255
-0.357588 -0.653424 2.831 255 255 255
0.691149 0.00370624 1.953 255 255 255
0.774684 0.422545 1.893 255 255 255
-0.357245 0.15124 2.982 255 255 255
-0.562695 0.655572 2.236 255 255 255
-0.231785 -0.508478 2.871 255 255 255
-1.00724 0.604203 2.44 255 255 255
-0.425648 0.476491 2.707 255 255 255
0.114138 -0.15033 2.996 255 255 255
0.391865 0.649673 2.374 0 0 0
0.0456446 0.75974 2.092 255 255 255
-0.114789 -0.357918 2.755 255 255 255
-1.06754 0.4173 2.844 255 255 255
-0.671888 0.684681 2.236 255 255 255
1.11653 -0.109298 2.818 255 255 255
0.0643786 0.597022 2.411 255 255 255
0.573522 -0.0757481 1.953 255 255 255
0.735414 0.657182 1.978 255 255 255
-0.473557 0.435624 2.755 255 255 255
0.587135 -0.122283 1.935 255 255 255
0.732032 0.541896 2.004 255 255 255
-0.419071 0.254279 2.939 0 0 0
-1.05033 0.381586 2.925 255 255 255
0.644056 0.490892 2.078 255 255 255
-0.653346 0.393875 2.982 255 255 255
-0.194842 -0.728689 2.684 255 255 255
-0.765127 0.554079 2.519 255 255 255
-0.874871 0.546298 2.54 255 255 255
-0.337741 0.158624 2.939 255 255 255
-0.673942 0.763655 2.004 255 255 255
-0.0615272 -0.153063 2.78 255 255 255
-0.135888 -0.887004 2.561 255 255 255
-0.287767 -0.858859 2.695 255 255 255
0.201922 -0.750013 2.996 255 255 255
0.666763 0.634894 2.107 255 255 255
-0.0338348 0.723168 2.166 255 255 255
0.86133 -0.110213 1.744 0 0 0
0.712459 0.7767 2.004 0 0 0
-0.980407 0.744739 1.997 255 255 255
0.79729 -0.344704 1.753 255 255 255
-0.131361 0.633882 2.402 255 255 255
0.604125 0.211637 2.092 255 255 255
-0.355145 -0.862683 2.707 255 255 255
-0.22774 0.541806 2.66 255 255 255
0.171854 -0.741656 2.982 255 255 255
0.542828 0.262702 2.092 255 255 255
0.279798 0.676716 2.374 255 255 255
-1.31728 0.371544 2.884 255 255 255
-0.124174 0.732926 2.143 255 255 255
-0.372998 -0.604695 2.953 255 255 255
0.108591 0.543427 2.626 255 255 255
0.0887459 0.526857 2.672 255 255 255
0.881512 0.0815415 1.779 255 255 255
0.637431 0.0559817 2.004 255 255 255
0.689259 0.344407 2.092 255 255 255
0.766616 0.344827 1.959 255 255 255
-0.242553 0.580897 2.459 255 255 255
0.70931 0.731893 2.071 255 255 255
-0.0736706 0.561551 2.572 255 255 255
-0.182507 0.700752 2.173 255 255 255
-0.323389 -0.415302 2.939 255 255 255
0.819604 0.635412 1.941 255 255 255
-0.335811 0.709962 2.158 255 255 255
0.387676 0.769841 1.978 255 255 255
-1.03242 0.738239 1.997 255 255 255
0.090771 0.579883 2.489 255 255 255
0.592316 -0.0388425 2.017 255 255 255
-0.648016 0.492147 2.626 255 255 255
0.672232 0.232063 2.092 0 0 0
0.409899 0.568892 2.459 0 0 0
-0.276015 -0.135703 2.996 255 255 255
-0.0848226 -0.933907 2.53 255 255 255
0.0699173 -0.203007 2.982 255 255 255
-0.172224 -0.690645 2.672 255 255 255
-0.244983 -1.00805 2.707 255 255 255
-1.17057 0.520153 2.638 255 255 255
-0.158486 -0.00864842 2.898 255 255 255
0.0563184 0.626064 2.402 255 255 255
0.791999 0.158618 1.905 255 255 255
0.0136797 0.591295 2.469 255 255 255
-0.335864 0.720104 2.136 255 255 255
-0.454924 0.569197 2.55 255 255 255
0.244905 0.458638 2.871 255 255 255
-0.625781 0.762044 2.017 255 255 255
-0.0797768 0.0104095 2.953 255 255 255
0.635873 -0.0472894 1.959 255 255 255
-1.069 0.379759 2.911 255 255 255
-0.178582 0.688131 2.212 255 255 255
0.389729 0.662649 2.338 255 255 255
-0.265979 -0.209645 2.939 255 255 255
0.571386 -0.109688 1.935 255 255 255
-0.2174 0.689229 2.204 255 255 255
-0.707014 0.500803 2.561 255 255 255
0.615483 -0.134879 1.935 255 255 255
-0.29122 0.698495 2.166 255 255 255
0.785357 0.285272 1.966 255 255 255
0.0333594 -0.760503 2.768 255 255 255
0.0488412 -0.449769 2.884 255 255 255
-0.731403 0.507093 2.53 255 255 255
0.602134 -0.161559 1.953 255 255 255
-0.171673 0.772245 2.044 255 255 255
0.342553 0.708219 2.253 255 255 255
0.632465 0.44974 2.107 255 255 255
0.909387 0.575612 1.794 255 255 255
-0.0447258 -0.872769 2.593 255 255 255
-0.748725 0.541781 2.519 255 255 255
0.139606 -1.01255 2.731 255 255 255
-0.461036 0.702724 2.136 255 255 255
0.752528 -0.0339029 1.923 255 255 255
-0.38993 0.756341 2.037 255 255 255
0.708705 -0.0933606 1.923 255 255 255
-0.420618 -0.853385 2.884 255 255 255
-0.133956 0.214325 2.982 255 255 255
0.872105 0.19067 1.826 255 255 255
-0.792745 0.59621 2.392 255 255 255
0.612 0.0425299 1.985 255 255 255
-0.178681 -0.286175 2.844 255 255 255
-1.28079 0.475974 2.755 255 255 255
0.479947 0.666581 2.261 255 255 255
-0.118235 0.566965 2.54 255 255 255
-0.310508 -0.446113 2.953 255 255 255
-1.11703 0.59848 2.499 255 255 255
0.746074 0.383904 1.947 255 255 255
-0.667081 0.687007 2.22 255 255 255
-0.284433 -0.105953 2.982 255 255 255
0.827069 0.687471 1.893 255 255 255
0.604063 0.763767 2.057 0 0 0
-0.180023 -0.362855 2.793 255 255 255
-1.04473 0.692046 2.114 255 255 255
-0.531994 0.723008 2.114 255 255 255
0.856221 -0.119339 1.673 255 255 255
-0.0586964 0.666567 2.312 255 255 255
-0.211087 -0.485184 2.844 255 255 255
0.850157 0.491249 1.774 255 255 255
0.561338 -0.130641 1.966 255 255 255
0.00674754 -0.0424511 2.953 255 255 255
-0.295522 -0.0771976 2.996 255 255 255
-0.894343 0.660478 2.228 255 255 255
0.825777 -0.266829 1.729 255 255 255
0.286921 -0.985475 2.78 255 255 255
0.769297 0.0703085 1.865 255 255 255
0.0551412 -0.79478 2.731 255 255 255
-0.161683 0.421262 2.871 255 255 255
0.273345 0.475769 2.78 255 255 255
0.548537 0.186341 2.114 255 255 255
0.0200213 -0.508299 2.793 255 255 255
0.598709 0.312718 2.085 255 255 255
-0.481265 -0.994011 2.939 255 255 255
0.0808031 0.756466 2.121 255 255 255
-0.0468001 0.171452 2.996 255 255 255
0.136534 -0.402864 2.953 255 255 255
0.131727 -0.383642 2.953 255 255 255
0.867918 0.0666894 1.769 255 255 255
0.769157 0.464196 1.887 255 255 255
-0.444766 0.770259 2.03 255 255 255
0.256884 0.735757 2.121 255 255 255
-0.758743 0.436022 2.939 255 255 255
0.71438 0.447272 1.947 255 255 255
-0.225426 -1.01259 2.684 255 255 255
-0.230736 -0.687818 2.695 255 255 255
0.66693 0.0199182 1.985 0 0 0
-0.675092 0.746396 2.037 255 255 255
-0.488109 0.77306 1.978 255 255 255
0.295836 0.727796 2.128 255 255 255
0.725409 -0.276861 1.794 255 255 255
0.65231 0.119474 2.03 255 255 255
0.599313 0.348975 2.099 255 255 255
0.714965 -0.0370323 1.923 255 255 255
0.286902 -0.747582 2.967 255 255 255
0.34264 -1.03938 2.755 255 255 255
-0.875043 0.745043 1.972 255 255 255
0.465601 -0.916572 2.967 255 255 255
0.685004 0.407858 2.121 0 0 0
0.0105919 -0.602778 2.707 255 255 255
-0.922817 0.756415 1.985 255 255 255
0.0260983 -0.00402605 2.967 255 255 255
0.813534 0.580552 1.876 255 255 255
-0.103976 -0.505864 2.707 255 255 255
0.153546 -0.596094 2.911 255 255 255
-0.71308 0.543713 2.509 255 255 255
0.056393 0.487084 2.793 255 255 255
0.532876 0.535495 2.236 255 255 255
0.422934 0.45037 2.939 255 255 255
0.68797 0.00370624 1.953 255 255 255
0.257637 0.752035 2.099 255 255 255
0.707393 -0.126986 1.911 255 255 255
0.881922 0.0437829 1.774 255 255 255
-0.69952 0.533582 2.519 255 255 255
0.600076 -0.0452496 2.01 255 255 255
0.635895 0.44974 2.107 255 255 255
-0.747414 0.632706 2.312 255 255 255
0.848061 0.523063 1.794 255 255 255
-0.122851 -0.962038 2.55 255 255 255
0.55015 0.30916 2.107 255 255 255
0.028468 -0.603678 2.731 255 255 255
-0.0981866 -0.185595 2.793 255 255 255
-0.340319 0.520163 2.66 255 255 255
0.605027 0.360592 2.107 255 255 255
-1.07768 0.393229 2.871 255 255 255
0.159394 0.654907 2.365 255 255 255
0.523701 0.726945 2.057 255 255 255
-0.293684 0.459813 2.793 255 255 255
-0.91773 0.704215 2.099 255 255 255
0.610685 0.370321 2.672 0 0 0
0.831473 0.60196 1.848 255 255 255
-0.48495 0.678488 2.181 255 255 255
0.762732 0.240582 1.941 255 255 255
-0.167799 0.626818 2.42 255 255 255
-1.15578 0.636751 2.286 255 255 255
0.871125 0.3398 2.024 0 0 0
0.0254914 -0.13598 2.898 255 255 255
0.679748 0.0581195 1.966 0 0 0
-0.974757 0.419208 2.857 255 255 255
0.862662 0.0442765 1.794 0 0 0
-1.02591 0.419208 2.857 255 255 255
-0.91903 0.650614 2.244 255 255 255
-1.09995 0.4173 2.844 255 255 255
0.704293 0.494733 1.972 255 255 255
0.177789 -0.850806 2.844 255 255 255
0.57545 -0.0451145 2.004 255 255 255
-0.0573885 -0.805255 2.593 255 255 255
-0.0178966 0.623458 2.392 255 255 255
0.328943 0.689141 2.312 255 255 255
0.752528 0.394818 1.923 255 255 255
-0.388183 -0.501364 2.996 255 255 255
0.600814 0.423561 2.166 255 255 255
-0.746298 0.621743 2.356 255 255 255
-1.03941 0.656852 2.228 255 255 255
-0.659555 0.747135 2.03 255 255 255
-0.418234 -0.235784 2.967 255 255 255
-0.152033 -0.496885 2.78 255 255 255
0.0629302 0.533591 2.684 255 255 255
0.152271 0.505152 2.719 255 255 255
0.039452 -0.294893 2.884 255 255 255
-0.881089 0.545613 2.499 255 255 255
-0.232834 -0.449769 2.884 255 255 255
-0.333256 0.594476 2.449 255 255 255
-0.267266 0.48494 2.755 255 255 255
0.683394 0.265904 2.064 255 255 255
-0.117111 -0.0134889 2.925 255 255 255
0.82532 -0.125402 1.758 255 255 255
0.691149 0.0418443 1.953 255 255 255
-0.43612 0.376826 2.925 0 0 0
0.585796 -0.125821 1.941 255 255 255
-0.320122 0.06327 2.953 0 0 0
-1.24069 0.364758 2.982 255 255 255
0.0443609 -0.258596 2.898 255 255 255
0.61385 0.0491385 1.991 255 255 255
0.0523548 0.566136 2.593 255 255 255
-0.632024 0.729101 2.092 255 255 255
0.491172 0.672433 2.196 255 255 255
0.857243 0.639367 1.826 255 255 255
0.689625 0.166861 2.004 255 255 255
0.349353 0.768609 2.017 255 255 255
0.621057 -0.190371 1.923 255 255 255
0.379227 0.700886 2.253 255 255 255
0.672412 0.547929 2.051 255 255 255
-0.246948 0.667886 2.278 255 255 255
-0.00685468 -0.827815 2.638 255 255 255
-0.291616 0.712002 2.143 255 255 255
0.475029 -1.12543 2.996 255 255 255
-0.129407 -0.474266 2.78 255 255 255
0.71509 0.714077 2.078 255 255 255
-0.415494 0.22403 2.982 255 255 255
0.135415 0.539565 2.649 255 255 255
0.701083 0.494733 1.972 255 255 255
0.129136 -0.803733 2.793 255 255 255
0.634773 0.487391 2.092 255 255 255
0.7833 -0.26668 1.71 255 255 255
0.333922 0.669019 2.347 255 255 255
-1.33028 0.418907 2.793 255 255 255
-1.1333 0.59848 2.499 255 255 255
0.225249 -0.557254 2.982 255 255 255
-0.71309 0.675999 2.173 255 255 255
0.803745 -0.254836 1.724 255 255 255
-0.418708 0.623187 2.347 255 255 255
-0.240154 -0.254862 2.805 255 255 255
-0.0802223 0.717529 2.181 255 255 255
0.242602 -1.0961 2.844 255 255 255
-0.853197 0.509241 2.626 255 255 255
0.691121 0.579659 2.057 255 255 255
-0.119212 -0.932847 2.561 255 255 255
-0.834129 0.711596 2.121 255 255 255
0.327252 -0.931836 2.939 255 255 255
-0.264712 -0.479963 2.925 255 255 255
0.555271 0.433593 2.181 255 255 255
0.283716 -1.05826 2.793 255 255 255
-0.37843 0.108071 2.996 0 0 0
-0.119491 -0.704858 2.66 255 255 255
0.863662 0.0411265 1.784 255 255 255
-0.323148 0.72195 2.121 255 255 255
0.0898291 0.468209 2.844 255 255 255
0.755653 0.372788 1.972 255 255 255
0.688659 0.522498 2.03 255 255 255
-0.243212 0.149769 2.953 0 0 0
0.886329 0.296448 1.837 255 255 255
0.372311 0.697542 2.278 255 255 255
0.248706 0.561551 2.572 255 255 255
0.649796 0.517814 2.064 255 255 255
0.649796 0.497661 2.064 255 255 255
0.874493 0.194172 1.831 255 255 255
0.830484 0.406381 1.769 255 255 255
-0.0333244 -0.705361 2.695 255 255 255
-1.31913 0.530607 2.626 255 255 255
0.690062 -0.0942345 1.941 255 255 255
0.553838 0.472383 2.898 255 255 255
-1.4127 0.476491 2.707 255 255 255
-0.949084 0.614903 2.374 255 255 255
0.047933 0.653536 2.374 255 255 255
0.769805 0.147175 1.959 0 0 0
0.23884 0.44608 2.911 255 255 255
-1.22701 0.371346 2.996 255 255 255
-0.204756 0.164186 2.953 255 255 255
-0.75974 0.758101 2.024 255 255 255
-0.916037 0.691078 2.143 255 255 255
-0.858576 0.624602 2.338 255 255 255
-0.20599 -0.889184 2.604 255 255 255
-0.424043 -0.943368 2.844 255 255 255
-0.261384 0.381097 2.996 0 0 0
0.619558 0.158422 2.064 255 255 255
-0.0201636 -0.608877 2.695 255 255 255
0.720343 0.125688 1.972 255 255 255
0.0419882 -0.664359 2.743 255 255 255
0.730835 -0.226698 1.837 255 255 255
0.763524 0.239838 1.935 255 255 255
0.0623675 -0.921293 2.66 255 255 255
0.793279 -0.118879 1.789 255 255 255
0.770576 0.122947 1.929 0 0 0
-0.0790204 0.410145 2.925 0 0 0
0.806713 0.0510093 1.826 255 255 255
-0.0771833 -0.315378 2.857 255 255 255
0.163807 0.443465 2.925 255 255 255
0.753114 -0.153515 1.893 255 255 255
0.109542 0.539565 2.649 255 255 255
0.676771 0.261823 2.085 0 0 0
0.911983 0.288826 1.865 255 255 255
-0.148697 -0.552353 2.719 255 255 255
0.81126 0.673184 1.959 255 255 255
-0.265017 0.369611 2.982 0 0 0
-0.277854 -0.850986 2.684 255 255 255
0.691078 -0.0561567 1.935 255 255 255
0.245261 0.694786 2.269 255 255 255
0.831533 0.439791 1.753 255 255 255
0.214457 -0.762067 2.967 255 255 255
0.102769 -0.705453 2.818 255 255 255
0.28754 0.58046 2.509 0 0 0
-1.30403 0.407013 2.805 255 255 255
0.585538 0.681868 2.136 0 0 0
-0.767237 0.624602 2.338 255 255 255
-0.363913 0.702938 2.158 255 255 255
0.656515 0.564838 2.064 255 255 255
0.877474 0.688792 1.831 255 255 255
0.161214 0.635136 2.392 255 255 255
0.707503 0.183451 1.972 255 255 255
0.700528 -0.122283 1.935 255 255 255
-0.859491 0.706899 2.107 255 255 255
0.713997 0.234833 2.996 0 0 0
0.472134 0.688891 2.158 255 255 255
-0.0647387 -0.903943 2.55 255 255 255
0.694201 0.727471 2.107 255 255 255
-0.238333 0.698495 2.166 255 255 255
0.847496 0.375215 1.799 255 255 255
-1.14349 0.646785 2.269 255 255 255
0.0726652 -0.282176 2.898 255 255 255
0.6157 0.0525364 1.997 255 255 255
0.703216 0.431862 1.978 255 255 255
-0.0420983 -0.76676 2.695 255 255 255
-0.363384 -0.51339 2.953 255 255 255
0.593435 -0.122283 1.935 255 255 255
0.581193 0.787745 2.024 255 255 255
0.470431 0.449833 2.967 255 255 255
-0.582444 0.37258 2.967 255 255 255
0.13199 0.559533 2.582 255 255 255
0.853901 0.53474 1.794 255 255 255
0.795712 0.38698 1.87 255 255 255
-0.837017 0.59945 2.374 255 255 255
-0.172662 0.569197 2.55 255 255 255
-0.783797 0.608723 2.365 255 255 255
0.570629 0.0528784 2.01 255 255 255
0.508212 0.545038 2.593 255 255 255
-0.0728068 -0.639576 2.695 255 255 255
0.897066 0.292999 1.853 255 255 255
0.635846 -0.173634 1.911 255 255 255
0.325696 0.720161 2.189 255 255 255
-0.295561 -1.03077 2.768 255 255 255
-0.568629 -0.847523 2.996 255 255 255
-0.432094 -0.7019 2.898 255 255 255
-0.129407 -0.261639 2.78 255 255 255
0.752443 0.244424 1.972 0 0 0
0.925674 0.28084 1.893 255 255 255
-0.253796 -0.682071 2.707 255 255 255
0.122017 0.709042 2.244 255 255 255
-0.716715 0.769841 1.978 255 255 255
0.722096 -0.0868302 1.917 255 255 255
-0.318605 -0.582697 2.939 255 255 255
0.872374 0.128221 1.784 255 255 255
-0.02478 0.783222 2.004 255 255 255
-0.522817 0.751526 2.051 255 255 255
-0.88693 0.700041 2.107 255 255 255
0.767436 0.207703 1.929 255 255 255
0.140001 0.438705 2.925 255 255 255
-0.822471 0.679782 2.22 255 255 255
-0.159963 -0.0753681 2.925 255 255 255
0.380501 0.774901 1.991 255 255 255
-0.469833 -1.09333 2.898 255 255 255
-0.132249 0.683395 2.22 255 255 255
-0.252825 0.168991 2.953 0 0 0
0.0823991 0.666453 2.365 255 255 255
-0.0484472 0.716599 2.189 255 255 255
-0.598055 0.423857 2.857 255 255 255
-0.654408 0.70154 2.143 255 255 255
-1.18211 0.594413 2.499 255 255 255
-0.262269 0.420507 2.898 255 255 255
0.0786162 0.579883 2.489 255 255 255
0.0926773 -0.878006 2.66 255 255 255
0.776074 0.00932579 1.81 255 255 255
-0.393427 0.307625 2.857 255 255 255
-0.926548 0.617909 2.356 255 255 255
0.51041 0.729004 2.044 255 255 255
0.0996228 0.553917 2.615 255 255 255
-1.10644 0.706899 2.107 255 255 255
0.364369 0.538311 2.561 255 255 255
0.69495 -0.158084 1.911 0 0 0
-1.31431 0.478765 2.695 255 255 255
0.243876 0.738185 2.128 255 255 255
0.798762 -0.369443 1.612 255 255 255
-1.04696 0.485302 2.707 255 255 255
0.0330581 -0.722388 2.743 255 255 255
-0.0509354 0.0200205 2.953 255 255 255
0.392351 -1.06543 2.925 255 255 255
-0.379934 0.675222 2.253 255 255 255
0.755449 -0.202748 1.81 255 255 255
0.614108 0.124411 2.057 255 255 255
-0.148332 0.0617916 2.884 255 255 255
0.710928 0.726507 2.037 255 255 255
0.167013 0.453519 2.898 255 255 255
-0.15869 -0.965602 2.593 255 255 255
-0.152648 0.71466 2.151 255 255 255
-0.245805 -0.228155 2.871 255 255 255
-0.782341 0.708144 2.121 255 255 255
-0.115831 -0.334022 2.78 255 255 255
0.236119 -1.00374 2.768 255 255 255
-0.969055 0.346795 2.953 255 255 255
0.643955 0.042937 2.004 255 255 255
-0.036381 0.660098 2.329 255 255 255
0.653 -0.101173 1.953 255 255 255
0.804495 -0.319696 1.696 255 255 255
-0.272121 0.602611 2.402 255 255 255
0.0943843 0.71889 2.196 255 255 255
0.142468 0.786519 2.064 255 255 255
-1.03903 0.659603 2.189 255 255 255
0.801694 0.261941 1.959 255 255 255
0.178945 0.706881 2.181 255 255 255
-0.0116433 -0.505867 2.755 255 255 255
0.378067 0.438705 2.925 255 255 255
0.904679 0.654755 1.779 255 255 255
0.636415 -0.301727 1.876 255 255 255
-0.0982331 0.680017 2.269 255 255 255
0.125653 0.785567 2.01 255 255 255
0.028522 0.757198 2.085 255 255 255
0.693408 0.642521 2.044 255 255 255
-0.0893906 -0.0136181 2.953 255 255 255
0.200073 0.482724 2.768 255 255 255
-0.242059 -0.0135535 2.939 255 255 255
0.610158 0.470676 2.831 0 0 0
0.542515 0.666581 2.261 255 255 255
-0.213163 0.749527 2.092 255 255 255
0.78658 0.548264 1.87 255 255 255
0.560871 0.499303 2.189 255 255 255
0.205946 0.703576 2.204 255 255 255
0.278405 0.545407 2.615 255 255 255
0.127891 0.522509 2.672 255 255 255
0.164738 -0.872375 2.78 255 255 255
0.72877 0.261435 2.004 255 255 255
-0.239734 -0.865753 2.649 255 255 255
0.759755 -0.0506577 1.966 255 255 255
-0.0691867 -0.799485 2.561 255 255 255
-0.235422 -0.947658 2.649 255 255 255
0.670101 0.370822 2.953 0 0 0
0.25649 -1.08221 2.844 255 255 255
-0.598301 0.761395 2.024 255 255 255
0.425068 0.548448 2.55 0 0 0
-0.494486 0.546298 2.54 255 255 255
0.205096 0.74266 2.121 255 255 255
-0.0516503 0.586873 2.519 255 255 255
