ply
format ascii 1.0
comment Created by Open3D
element vertex 1313
property double x
property double y
property double z
property uchar red
property uchar green
property uchar blue
end_header
-0.526768 0.239742 1.362 255 255 255
-0.53013 -0.10493 1.348 255 255 255
0.833101 0.632709 2.66 255 255 255
-0.471036 -0.0946389 0.897 255 255 255
-0.474733 -0.217423 0.942 255 255 255
1.04524 0.690301 2.196 255 255 255
-0.717037 0.493711 2.831 255 255 255
-0.489459 0.298519 1.007 255 255 255
-0.268599 0.731327 2.212 255 255 255
-0.477736 -0.0163432 0.927 255 255 255
1.06824 0.387149 2.121 255 255 255
-0.0244599 0.727199 2.278 255 255 255
-0.334658 0.699574 2.347 255 255 255
0.328241 0.7931 2.136 255 255 255
-0.677922 0.715909 2.22 255 255 255
0.557901 0.597023 2.755 255 255 255
-0.526638 0.15335 1.403 255 255 255
-0.555308 0.364378 1.575 255 255 255
0.379408 0.65634 2.55 255 255 255
-0.300632 0.731985 2.236 255 255 255
0.412453 0.607843 2.684 255 255 255
-0.478913 0.354952 0.912 255 255 255
-0.54926 0.656013 2.383 255 255 255
1.06296 0.277428 2.181 255 255 255
-0.602081 0.799297 2.071 255 255 255
-0.576559 0.604113 2.593 255 255 255
-0.473662 0.113268 0.902 255 255 255
-0.48078 0.00181042 0.954 255 255 255
-0.891758 0.529602 2.731 255 255 255
-0.4853 -0.0935972 1.012 255 255 255
0.0572957 0.603255 2.626 255 255 255
-0.524012 0.15803 1.384 255 255 255
0.0607966 0.616772 2.593 255 255 255
-0.200028 0.557706 2.695 255 255 255
-0.48866 0.293776 1.002 255 255 255
-0.481682 0.0792894 0.991 255 255 255
-0.0563273 0.814879 2.085 255 255 255
-0.507119 -0.186509 1.351 255 255 255
0.600665 0.793592 2.128 255 255 255
-0.486583 -0.189816 1.043 255 255 255
0.5779 0.567422 2.831 255 255 255
-0.48071 -0.12044 0.989 255 255 255
0.756324 0.610334 2.695 255 255 255
-0.223394 0.729366 2.228 255 255 255
-0.478621 -0.0880826 0.92 255 255 255
-0.0489562 0.749326 2.212 255 255 255
-0.514775 0.169412 1.267 255 255 255
-0.482007 -0.153554 0.995 255 255 255
0.185265 0.817615 2.092 255 255 255
1.03718 0.360592 2.107 255 255 255
-0.368788 0.761941 2.166 255 255 255
-0.521532 0.173022 1.294 255 255 255
1.14628 0.626866 2.768 255 255 255
0.177709 0.735179 2.303 255 255 255
-0.138742 0.716949 2.329 255 255 255
-0.541545 0.625372 2.509 255 255 255
-0.478815 0.283262 0.935 255 255 255
-0.484387 -0.266345 1.024 255 255 255
0.249788 0.656927 2.459 255 255 255
-0.90954 0.51627 2.731 255 255 255
-0.530172 0.19986 1.532 255 255 255
-0.515949 0.290823 1.275 255 255 255
-0.510137 -0.149895 1.319 255 255 255
1.07284 -0.0309219 2.151 255 255 255
-0.493468 -0.254752 1.096 255 255 255
-0.497996 -0.151681 1.139 255 255 255
-0.52816 0.227115 1.498 255 255 255
-0.478118 -0.35363 0.958 255 255 255
-0.481887 0.156947 0.944 255 255 255
-0.508012 -0.148645 1.308 255 255 255
0.86774 0.637037 2.66 255 255 255
-0.478222 0.141236 0.952 255 255 255
0.687554 0.533904 2.925 255 255 255
0.616636 0.737767 2.347 255 255 255
-0.503706 0.297108 1.192 255 255 255
-0.498628 -0.147404 1.149 255 255 255
1.0432 0.771564 2.078 255 255 255
-0.475816 0.693393 2.365 255 255 255
-0.488001 0.302532 1.004 255 255 255
-0.495433 0.0265807 1.077 255 255 255
-0.321317 0.736617 2.228 255 255 255
-0.523073 0.246791 1.47 255 255 255
-0.502688 -0.29057 1.176 255 255 255
0.050052 0.739772 2.294 255 255 255
-0.593242 0.64257 2.42 255 255 255
-0.675436 0.55543 2.684 255 255 255
-0.599144 0.603565 1.799 255 255 255
0.980779 0.78455 2.22 255 255 255
-0.252477 0.713159 2.329 255 255 255
-0.0745797 0.700696 2.338 255 255 255
-0.530016 0.00957294 1.412 255 255 255
0.569104 0.754705 2.294 255 255 255
1.1087 0.534603 2.982 255 255 255
0.956394 0.809216 2.189 255 255 255
-0.511672 0.745096 2.189 255 255 255
0.0899597 0.605752 2.582 255 255 255
-0.491482 0.247137 1.039 255 255 255
-0.041739 0.605125 2.672 255 255 255
-0.506495 -0.23867 1.194 255 255 255
-0.551077 0.562539 1.563 255 255 255
1.11192 0.0261688 2.244 255 255 255
-0.0160336 0.771287 2.143 255 255 255
0.220736 0.764404 2.173 255 255 255
-0.504246 0.137488 1.124 255 255 255
-0.524012 0.311181 1.384 255 255 255
1.06975 0.680871 2.166 255 255 255
-0.567133 0.389642 1.616 255 255 255
-0.52201 -0.0110836 1.409 255 255 255
-0.506535 -0.337147 1.185 255 255 255
-0.493445 0.343265 1.092 255 255 255
-0.543496 0.508582 1.48 255 255 255
-0.472899 -0.254184 0.909 255 255 255
0.918506 0.570028 2.844 255 255 255
-0.128098 0.624333 2.572 255 255 255
-0.503675 -0.234769 1.165 255 255 255
-0.499696 0.122636 1.122 255 255 255
-0.117956 0.502925 2.831 255 255 255
-0.749501 0.525158 2.731 255 255 255
-0.476705 0.140241 0.925 255 255 255
0.228339 0.519543 2.898 255 255 255
-0.498105 0.142512 1.053 255 255 255
0.249558 0.560231 2.818 255 255 255
-0.492568 0.242416 1.094 255 255 255
-0.512935 -0.111495 1.403 0 0 0
-0.0027731 0.521492 2.857 255 255 255
0.216977 0.782672 2.136 255 255 255
-0.1835 0.743869 2.228 255 255 255
-0.723886 0.685858 2.228 0 0 0
-0.511601 -0.130537 1.387 255 255 255
-0.106732 0.771287 2.143 255 255 255
-0.481112 0.315578 0.964 255 255 255
-0.755864 0.645809 2.374 255 255 255
-0.485816 -0.167372 1.02 255 255 255
-0.492026 0.270515 1.051 255 255 255
0.802012 0.577987 2.793 255 255 255
-0.0837902 0.716078 2.278 255 255 255
-0.474075 0.0957526 0.917 255 255 255
0.671578 0.622518 2.672 255 255 255
-0.4752 0.126694 0.925 255 255 255
-0.545816 0.693954 2.303 255 255 255
-0.530713 0.085586 1.378 255 255 255
-0.224723 0.698423 2.356 255 255 255
0.313385 0.712636 2.365 255 255 255
1.03411 0.670197 2.449 255 255 255
-0.507468 -0.0489768 1.165 255 255 255
-0.499638 0.126234 1.09 255 255 255
0.02188 0.816935 2.099 255 255 255
-0.530771 0.112985 1.384 255 255 255
1.08623 0.0979048 2.136 255 255 255
1.00628 0.770032 2.189 0 0 0
0.279087 0.749211 2.244 255 255 255
0.390607 0.590372 2.684 255 255 255
-0.448868 0.681847 2.365 255 255 255
0.633301 0.738743 2.338 255 255 255
-0.0840844 0.714872 2.286 255 255 255
-0.584012 0.758963 2.128 255 255 255
0.385059 0.721426 2.356 255 255 255
-0.540663 0.415422 1.555 255 255 255
-0.388503 0.76615 2.158 255 255 255
-0.109414 0.603255 2.626 255 255 255
-0.663717 0.561643 2.672 255 255 255
1.00605 0.695331 2.212 255 255 255
-0.694748 0.509611 2.743 255 255 255
0.797674 0.747269 2.329 255 255 255
-0.484687 0.165199 0.984 255 255 255
-0.677582 0.63994 2.44 255 255 255
-0.650378 0.551379 2.707 255 255 255
-0.178019 0.699574 2.347 255 255 255
0.972719 0.531914 2.967 255 255 255
0.180894 0.607843 2.684 255 255 255
-0.641167 0.531929 2.743 255 255 255
-0.281248 0.525694 2.805 255 255 255
-0.480387 -0.338142 0.995 255 255 255
0.586711 0.78309 2.166 255 255 255
0.79885 0.54157 2.967 255 255 255
-0.485398 0.148654 1.002 255 255 255
-0.24472 0.534823 2.805 255 255 255
-0.534236 0.211585 1.442 255 255 255
0.680209 0.631769 2.638 255 255 255
1.00969 0.655572 2.236 255 255 255
-0.265696 0.507647 2.884 255 255 255
0.939235 0.781833 2.286 255 255 255
-0.477799 -0.0518654 0.942 255 255 255
-0.543496 0.344808 1.48 255 255 255
-0.506571 0.268986 1.232 255 255 255
-0.490099 -0.219721 1.073 255 255 255
0.488307 0.559806 2.793 255 255 255
-0.0200813 0.59474 2.684 255 255 255
-0.151401 0.739262 2.236 255 255 255
0.0727413 0.738927 2.303 255 255 255
0.89951 0.704542 2.43 255 255 255
-0.768746 0.570939 2.615 255 255 255
-0.492428 0.107007 1.041 255 255 255
0.200206 0.726309 2.347 255 255 255
0.988831 0.58402 2.695 255 255 255
0.480483 0.637441 2.626 255 255 255
0.49014 0.711412 2.44 255 255 255
-0.376076 0.542935 2.731 255 255 255
-0.581966 0.665126 2.374 255 255 255
-0.497964 0.317715 1.102 255 255 255
-0.616833 0.721772 2.261 255 255 255
1.0748 0.568896 2.793 255 255 255
-0.540358 0.527749 1.409 255 255 255
0.272413 0.502944 2.967 255 255 255
-0.498621 -0.0125889 1.132 255 255 255
-0.65383 0.648028 2.411 255 255 255
1.00236 0.733572 2.383 255 255 255
1.03455 0.671389 2.181 255 255 255
0.0816412 0.771287 2.143 255 255 255
-0.243399 0.510111 2.898 255 255 255
-0.66554 0.631474 2.469 255 255 255
0.835882 0.796576 2.136 255 255 255
-0.493115 0.253139 1.057 255 255 255
-0.10871 0.662261 2.42 255 255 255
-0.602033 0.733972 2.22 255 255 255
-0.502479 -0.250197 1.283 255 255 255
-0.536673 0.793784 2.092 255 255 255
0.72151 0.704542 2.43 255 255 255
-0.527157 0.19858 1.324 255 255 255
-0.528809 0.224649 1.466 255 255 255
1.06462 0.655467 2.107 255 255 255
-0.491013 0.399149 1.075 255 255 255
-0.692041 0.626359 2.449 255 255 255
0.159887 0.607528 2.626 255 255 255
-0.48385 0.179354 0.957 255 255 255
-0.304415 0.591295 2.649 255 255 255
1.09838 0.496863 2.459 255 255 255
-0.86067 0.56543 2.649 255 255 255
0.147322 0.550716 2.793 255 255 255
-0.472813 0.0798604 0.906 255 255 255
-0.0962665 0.771287 2.143 255 255 255
-0.49617 -0.0230151 1.102 255 255 255
-0.563263 0.393243 1.62 255 255 255
-0.722816 0.550716 2.181 0 0 0
0.297125 0.500584 2.925 255 255 255
-0.469201 0.0349217 0.888 255 255 255
-0.550131 0.543884 1.539 255 255 255
0.425086 0.516842 2.857 255 255 255
-0.527319 0.170428 1.375 255 255 255
-0.409614 0.659891 2.383 255 255 255
1.01817 0.694109 2.449 255 255 255
-0.263445 0.502925 2.911 255 255 255
-0.48232 -0.200911 0.989 255 255 255
-0.4906 -0.196175 1.059 255 255 255
-0.513106 0.259359 1.294 255 255 255
0.0699804 0.802905 2.107 255 255 255
-0.456549 0.631474 2.469 255 255 255
-0.470203 -0.0202835 0.901 255 255 255
-0.485049 -0.0881619 0.988 255 255 255
-0.478794 0.138953 0.947 255 255 255
-0.49706 0.0271483 1.1 255 255 255
-0.489535 -0.225907 1.053 255 255 255
-0.501404 -0.297823 1.182 255 255 255
1.02351 0.558558 2.143 255 255 255
0.738321 0.800714 2.166 255 255 255
-0.477293 -0.189941 0.935 255 255 255
0.689736 0.715968 2.402 255 255 255
0.256884 0.777175 2.121 255 255 255
0.484176 0.716405 2.43 255 255 255
-0.478875 0.0349534 0.969 255 255 255
0.570932 0.630092 2.649 255 255 255
-0.688771 0.698423 2.356 255 255 255
1.14567 0.535554 2.672 255 255 255
0.485544 0.526141 2.857 255 255 255
-0.331822 0.613328 2.561 255 255 255
-0.494319 -0.349578 1.114 255 255 255
-0.4755 0.311109 0.914 255 255 255
-0.524346 0.800588 2.057 255 255 255
-0.498821 0.324903 1.096 255 255 255
-0.486602 -0.0156028 0.975 255 255 255
-0.531921 0.0229461 1.387 255 255 255
-0.503466 0.398357 1.143 255 255 255
0.939018 0.5593 2.768 255 255 255
-0.498552 -0.478675 1.242 0 0 0
-0.489117 -0.171352 1.034 255 255 255
1.12629 0.48843 2.54 255 255 255
-0.490622 -0.228246 1.048 255 255 255
0.305223 0.607528 2.626 255 255 255
-0.384126 0.484297 2.857 255 255 255
0.235381 0.648361 2.519 255 255 255
-0.575233 0.546447 1.686 255 255 255
-0.522513 -0.0589948 1.351 255 255 255
0.935824 0.815315 2.158 255 255 255
-0.509402 -0.401291 1.234 255 255 255
-0.274812 0.780627 2.121 255 255 255
-0.150214 0.498318 2.831 255 255 255
-0.505415 -0.32025 1.239 255 255 255
-0.277585 0.729752 2.286 255 255 255
0.407814 0.633168 2.626 255 255 255
-0.504675 0.630344 2.449 255 255 255
-0.580717 0.486858 2.818 255 255 255
0.235668 0.736831 2.32 255 255 255
-0.48554 0.265823 0.989 255 255 255
0.445883 0.625781 2.649 255 255 255
0.107852 0.539781 2.831 255 255 255
-0.514032 -0.0499564 1.406 255 255 255
-0.479245 0.157138 0.927 255 255 255
-0.485779 -0.0772048 1.013 255 255 255
-0.490797 0.189502 1.02 255 255 255
-0.502608 -0.209524 1.194 255 255 255
-0.521532 0.164599 1.294 255 255 255
-0.26014 0.784931 2.114 255 255 255
1.23511 0.524384 2.925 255 255 255
1.11505 0.60244 2.78 255 255 255
-0.630096 0.716941 2.269 255 255 255
-0.478794 0.143577 0.947 255 255 255
-0.523909 0.0882426 1.459 255 255 255
0.557901 0.588056 2.755 255 255 255
0.718714 0.748264 2.356 255 255 255
-0.314269 0.797914 2.085 255 255 255
-0.733827 0.57634 2.582 255 255 255
0.619881 0.552555 2.898 255 255 255
-0.507343 -0.246855 1.196 255 255 255
-0.533419 0.445869 1.362 255 255 255
-0.517462 0.620148 2.572 255 255 255
-0.241461 0.624438 2.489 255 255 255
0.621279 0.752215 2.253 255 255 255
-0.477469 0.800588 2.057 255 255 255
0.929346 0.743425 2.365 255 255 255
-0.500498 0.28452 1.149 255 255 255
0.0538702 0.675671 2.469 255 255 255
0.51468 0.637441 2.626 255 255 255
-0.362739 0.538491 2.731 255 255 255
0.704802 0.770673 2.286 255 255 255
-0.474485 0.223828 0.898 255 255 255
-0.497023 0.190992 1.116 255 255 255
0.656241 0.567422 2.831 255 255 255
-0.488377 0.320603 1.036 255 255 255
0.897977 0.659172 2.561 255 255 255
0.690726 0.66464 2.55 255 255 255
-0.0629007 0.747479 2.196 255 255 255
0.523732 0.716405 2.43 255 255 255
-0.632987 0.722884 2.253 255 255 255
-0.0339442 0.757331 2.173 255 255 255
-0.645481 0.722656 2.017 0 0 0
-0.493899 0.00886942 1.055 255 255 255
0.644773 0.612277 2.743 255 255 255
0.329485 0.604983 2.615 255 255 255
-0.231476 0.728346 2.236 255 255 255
0.198724 0.744633 2.286 255 255 255
-0.498695 -0.368656 1.128 255 255 255
-0.00763681 0.498197 2.939 255 255 255
0.114241 0.613328 2.561 255 255 255
0.359641 0.599917 2.649 255 255 255
-0.728959 0.552947 2.672 255 255 255
-0.479141 0.16961 0.921 255 255 255
-0.565423 0.794521 2.085 255 255 255
-0.482398 0.186332 0.945 255 255 255
-0.0642051 0.797885 2.121 255 255 255
-0.524012 0.058932 1.384 255 255 255
0.115989 0.74648 2.269 255 255 255
-0.505428 -0.259827 1.249 255 255 255
-0.0961858 0.604983 2.615 255 255 255
0.580937 0.755882 2.253 255 255 255
0.678108 0.502944 2.967 255 255 255
1.00199 0.538407 2.898 255 255 255
1.06188 0.307468 2.143 255 255 255
0.164358 0.663547 2.499 255 255 255
1.06064 0.630101 2.236 255 255 255
0.55663 0.629682 2.684 255 255 255
-0.612195 0.7273 2.244 255 255 255
-0.257793 0.614138 2.53 255 255 255
0.82858 0.763259 2.32 255 255 255
0.222102 0.613052 2.707 255 255 255
-0.488902 0.312042 1.03 255 255 255
0.892544 0.799161 2.181 255 255 255
-0.486528 -0.141504 1.025 255 255 255
-0.476486 -0.142052 0.961 255 255 255
-0.518377 -0.093461 1.281 255 255 255
-0.499784 -0.283747 1.156 255 255 255
0.409263 0.528375 2.844 255 255 255
-0.499696 -0.388605 1.122 255 255 255
0.617174 0.763724 2.212 255 255 255
-0.881744 0.507544 2.857 255 255 255
-0.481239 0.0368319 0.977 255 255 255
-0.498756 -0.359306 1.145 255 255 255
-0.48565 -0.262296 1.041 255 255 255
-0.477292 0.0569131 0.941 255 255 255
0.878514 0.571341 2.805 255 255 255
0.992094 0.807444 2.128 255 255 255
1.00625 0.762245 2.261 255 255 255
0.0588012 0.557706 2.695 255 255 255
1.06006 0.468553 2.212 255 255 255
-0.476213 0.0341959 0.948 255 255 255
-0.501696 -0.270653 1.281 255 255 255
-0.516556 -0.0277769 1.33 255 255 255
-0.48203 -0.0801589 0.969 255 255 255
0.142906 0.737193 2.286 255 255 255
-0.498055 -0.204029 1.152 255 255 255
1.08205 -0.106425 2.121 255 255 255
-0.47167 -0.301798 0.901 255 255 255
-0.495433 0.268444 1.077 255 255 255
-0.490449 -0.0506857 1.044 255 255 255
-0.14786 0.728573 2.294 255 255 255
0.0122558 0.756525 2.212 255 255 255
0.752001 0.577987 2.793 255 255 255
0.95436 0.54556 2.911 255 255 255
0.69096 0.774214 2.253 255 255 255
0.311962 0.738255 2.244 255 255 255
1.07284 0.294614 2.151 255 255 255
-0.509279 -0.0336264 1.393 255 255 255
-0.482481 -0.324477 1.013 255 255 255
-0.501405 0.183567 1.173 255 255 255
0.405184 0.64777 2.582 255 255 255
-0.548 0.582973 1.591 255 255 255
0.513484 0.768322 2.347 255 255 255
-0.535082 0.681672 2.338 255 255 255
1.02103 0.730217 2.253 0 0 0
0.991649 0.778895 2.204 255 255 255
-0.513982 0.350965 1.26 255 255 255
-0.210988 0.745726 2.212 255 255 255
0.895344 0.667661 2.53 255 255 255
-0.361126 0.777175 2.121 255 255 255
0.735167 0.533904 2.925 255 255 255
-0.668004 0.542569 2.707 255 255 255
0.531116 0.728557 2.392 255 255 255
-0.499825 -0.0151959 1.192 255 255 255
-0.542317 0.76773 2.114 255 255 255
1.07579 0.47331 2.136 255 255 255
1.06029 0.13289 2.085 255 255 255
-0.423273 0.804788 2.121 255 255 255
-0.477619 0.0158323 0.957 255 255 255
-0.457271 0.798669 2.151 255 255 255
0.162198 0.749211 2.244 255 255 255
-0.483784 -0.269726 1.037 255 255 255
-0.497971 0.111888 1.106 255 255 255
0.460443 0.696633 2.43 255 255 255
1.01982 0.574045 2.731 255 255 255
-0.505514 0.053713 1.215 255 255 255
0.782171 0.723075 2.374 255 255 255
-0.48194 0.35616 0.972 255 255 255
-0.469986 -0.282311 0.895 255 255 255
-0.319469 0.525533 2.78 255 255 255
1.11692 0.0190755 2.269 255 255 255
-0.572186 0.482094 2.844 255 255 255
-0.395818 0.586004 2.684 255 255 255
-0.611689 0.551824 2.731 255 255 255
1.09838 0.48886 2.459 255 255 255
0.984851 0.792062 2.181 255 255 255
-0.0382921 0.748423 2.22 255 255 255
-0.78105 0.516485 2.78 255 255 255
0.354503 0.631442 2.55 255 255 255
-0.486181 -0.166877 1.007 255 255 255
-0.503675 0.00600251 1.165 255 255 255
-0.510709 0.205294 1.247 255 255 255
-0.241859 0.744317 2.166 255 255 255
-0.362318 0.776277 2.128 255 255 255
-0.0793763 0.76615 2.158 255 255 255
-0.65369 0.71743 2.236 255 255 255
0.100101 0.720739 2.329 255 255 255
-0.479245 0.270278 0.927 255 255 255
1.07234 0.502788 2.392 255 255 255
-0.473419 -0.321103 0.91 255 255 255
1.00235 0.654565 2.196 255 255 255
1.05776 0.497743 2.107 255 255 255
-0.801038 0.548935 2.695 255 255 255
-0.467755 0.0638231 0.888 255 255 255
-0.0992541 0.646134 2.479 255 255 255
-0.503706 -0.306162 1.192 255 255 255
-0.341374 0.625963 2.479 255 255 255
-0.474718 -0.351238 0.927 255 255 255
-0.575186 0.780627 2.121 255 255 255
-0.809439 0.473974 2.967 255 255 255
-0.496496 0.136458 1.046 255 255 255
-0.195078 0.735623 2.236 255 255 255
0.237874 0.74648 2.269 255 255 255
-0.499517 -0.240263 1.297 255 255 255
1.06479 0.753015 2.121 255 255 255
-0.525607 0.144118 1.359 255 255 255
0.818426 0.72526 2.356 255 255 255
-0.47149 0.0610957 0.912 255 255 255
-0.486708 0.753795 2.173 255 255 255
-0.506639 -0.32911 1.242 255 255 255
0.303434 0.814879 2.085 255 255 255
0.593829 0.75017 2.303 255 255 255
-0.531955 0.199861 1.393 255 255 255
-0.518658 0.304736 1.308 255 255 255
-0.46799 0.600777 2.672 255 255 255
-0.296632 0.73281 2.261 255 255 255
-0.516556 -0.0256126 1.33 255 255 255
-0.159363 0.610913 2.604 255 255 255
0.628377 0.793592 2.128 255 255 255
0.901967 0.719212 2.374 255 255 255
-0.476673 0.0250449 0.952 255 255 255
0.384661 0.479067 2.939 255 255 255
1.04823 0.197243 2.158 255 255 255
0.160477 0.679646 2.44 255 255 255
-0.705352 0.604165 2.54 255 255 255
-0.52279 0.345681 1.369 255 255 255
0.478976 0.649446 2.572 255 255 255
-0.492089 -0.212365 1.089 255 255 255
-0.678372 0.511825 2.731 255 255 255
1.11547 0.550297 2.911 255 255 255
-0.496058 -0.272342 1.299 255 255 255
-0.477756 -0.262004 0.948 255 255 255
-0.477218 0.077555 0.95 255 255 255
-0.406068 0.754626 2.196 255 255 255
0.10606 0.7678 2.143 255 255 255
-0.509402 0.0645936 1.234 255 255 255
-0.743213 0.663769 2.383 255 255 255
0.795233 0.667408 2.593 255 255 255
-0.501704 -0.403761 1.139 255 255 255
0.396241 0.493567 2.884 255 255 255
0.258619 0.802905 2.107 255 255 255
-0.412464 0.71924 2.312 255 255 255
1.04095 0.509735 2.143 255 255 255
-0.527043 0.0356995 1.357 255 255 255
0.405896 0.672934 2.459 255 255 255
0.464817 0.537631 2.844 255 255 255
-0.505415 -0.136771 1.239 255 255 255
-0.49175 -0.00814944 1.036 255 255 255
-0.496353 -0.0453613 1.079 255 255 255
-0.22037 0.681847 2.392 255 255 255
-0.526826 0.389147 1.422 255 255 255
-0.645645 0.776762 2.092 255 255 255
0.514923 0.781546 2.253 255 255 255
-0.47937 -0.255456 0.97 255 255 255
-0.198855 0.780627 2.121 255 255 255
1.01008 0.738743 2.338 255 255 255
0.113926 0.55219 2.755 255 255 255
-0.494936 0.260047 1.132 255 255 255
0.316241 0.782084 2.173 255 255 255
-0.507492 -0.420816 1.215 255 255 255
0.466059 0.810103 2.099 255 255 255
0.163914 0.72928 2.32 255 255 255
1.04983 0.625052 2.244 255 255 255
-0.504419 -0.325696 1.158 255 255 255
1.14677 0.553917 2.615 255 255 255
0.486624 0.751123 2.365 255 255 255
-0.491558 0.0720491 1.05 255 255 255
-0.584641 0.750363 2.143 255 255 255
0.259769 0.588868 2.78 255 255 255
-0.254561 0.628916 2.459 255 255 255
-0.562775 0.632918 2.459 255 255 255
1.06444 0.435162 2.244 255 255 255
-0.47662 -0.291912 0.955 255 255 255
0.805844 0.822046 2.121 255 255 255
0.287977 0.75112 2.228 255 255 255
0.544634 0.73745 2.383 255 255 255
0.591112 0.757456 2.236 255 255 255
-0.4752 -0.0193185 0.925 255 255 255
1.06366 0.468553 2.212 255 255 255
-0.431819 0.683087 2.356 255 255 255
-0.500649 -0.265394 1.158 255 255 255
-0.463917 -0.0254809 0.878 255 255 255
0.53043 0.505344 2.925 255 255 255
0.570365 0.767324 2.212 255 255 255
-0.478776 -0.15475 0.972 255 255 255
-0.490099 -0.1167 1.073 255 255 255
1.0786 -0.0788125 2.121 255 255 255
1.14195 0.513449 2.604 255 255 255
-0.481682 -0.204543 0.991 255 255 255
0.513091 0.77337 2.294 255 255 255
0.273117 0.761773 2.196 255 255 255
-0.490471 -0.354924 1.07 255 255 255
-0.499772 0.300152 1.11 255 255 255
-0.546685 0.452592 1.502 255 255 255
1.05388 0.651646 2.649 255 255 255
-0.510382 -0.146609 1.348 255 255 255
1.0641 0.261652 2.228 255 255 255
-0.479839 -0.0104203 0.937 255 255 255
-0.670646 0.713641 2.294 255 255 255
-0.499517 -0.265591 1.297 255 255 255
0.0137905 0.660892 2.489 255 255 255
-0.643485 0.784342 2.085 255 255 255
1.05239 0.754626 2.196 255 255 255
0.848088 0.700587 2.43 255 255 255
-0.508303 -0.173019 1.366 255 255 255
-0.523052 0.79038 2.092 255 255 255
0.858289 0.565156 2.939 255 255 255
1.02466 0.751207 2.261 0 0 0
-0.48705 -0.213783 1.044 255 255 255
1.02765 0.594541 2.212 255 255 255
0.401142 0.663544 2.53 255 255 255
-0.513282 0.388234 1.21 255 255 255
-0.479677 -0.203967 0.958 255 255 255
0.914652 0.663339 2.561 255 255 255
-0.484687 0.320524 0.984 255 255 255
-0.644097 0.722114 2.228 255 255 255
0.0312716 0.752073 2.286 255 255 255
-0.79298 0.531929 2.743 255 255 255
-0.48078 0.15861 0.954 255 255 255
1.06514 0.420062 2.261 255 255 255
0.585594 0.517328 2.939 255 255 255
0.0531825 0.780627 2.121 255 255 255
0.700213 0.577318 2.768 255 255 255
-0.486057 0.229724 1 255 255 255
0.555091 0.639027 2.615 255 255 255
-0.183663 0.62649 2.53 255 255 255
0.464398 0.708496 2.43 255 255 255
-0.481273 0.186001 0.928 255 255 255
0.219231 0.61817 2.672 255 255 255
-0.475761 -0.277299 0.932 255 255 255
-0.54278 0.746876 2.143 255 255 255
-0.121063 0.553321 2.695 255 255 255
-0.439908 0.606736 2.66 255 255 255
-0.751603 0.516323 2.755 255 255 255
0.44831 0.585495 2.743 255 255 255
-0.659225 0.734008 2.136 255 255 255
-0.483295 -0.123909 0.991 255 255 255
-0.503547 0.303184 1.156 255 255 255
-0.508312 -0.057904 1.154 255 255 255
-0.41164 0.529602 2.731 255 255 255
-0.499627 -0.275939 1.147 255 255 255
-0.494101 -0.250239 1.305 255 255 255
-0.499772 -0.0340202 1.11 255 255 255
1.15625 0.536742 2.967 255 255 255
-0.503398 -0.136771 1.239 255 255 255
-0.462035 0.614597 2.638 255 255 255
0.971688 0.590372 2.684 255 255 255
-0.27416 0.646509 2.42 255 255 255
1.06259 0.287019 2.173 255 255 255
-0.543127 0.453672 1.466 255 255 255
-0.572896 0.801591 2.051 255 255 255
-0.38521 0.752036 2.22 255 255 255
-0.510709 0.365607 1.247 255 255 255
1.05198 0.718433 2.173 255 255 255
-0.478222 -0.363809 0.952 255 255 255
-0.483206 -0.258158 1.018 255 255 255
0.980613 0.650262 2.626 255 255 255
0.111475 0.651347 2.499 255 255 255
1.0768 0.247321 2.166 255 255 255
-0.483523 0.161603 0.972 255 255 255
-0.513465 -0.021796 1.362 255 255 255
-0.506851 -0.16124 1.273 255 255 255
-0.513919 0.516323 2.755 255 255 255
-0.470682 0.0228293 0.925 255 255 255
0.0186567 0.770272 2.121 255 255 255
-0.566448 0.799954 2.064 255 255 255
-0.632508 0.748574 2.128 255 255 255
-0.52782 0.146329 1.359 255 255 255
-0.466031 -0.263857 0.882 255 255 255
-0.505572 -0.14282 1.275 255 255 255
0.550745 0.773712 2.22 255 255 255
0.887479 0.613052 2.707 255 255 255
0.13043 0.720739 2.329 255 255 255
-0.232051 0.681847 2.392 255 255 255
-0.477124 0.123014 0.92 255 255 255
-0.531184 0.0806327 1.409 255 255 255
0.472016 0.690124 2.449 255 255 255
-0.492541 -0.382844 1.09 255 255 255
0.4974 0.555261 2.793 255 255 255
0.318074 0.803997 2.092 255 255 255
0.533771 0.559806 2.793 255 255 255
-0.511333 -0.200105 1.339 255 255 255
-0.519756 0.287718 1.509 255 255 255
-0.494319 0.333865 1.114 255 255 255
-0.488902 0.231587 1.03 255 255 255
0.927998 0.629682 2.684 255 255 255
-0.596639 0.75834 2.136 255 255 255
1.06613 0.103137 2.173 255 255 255
-0.485988 -0.133036 1.064 255 255 255
1.26988 0.317669 2.743 0 0 0
-0.505228 0.013376 1.147 255 255 255
-0.54913 0.455036 1.502 255 255 255
-0.473735 0.0623685 0.931 255 255 255
0.748916 0.627476 2.638 255 255 255
-0.473662 0.293814 0.902 255 255 255
-0.487478 0.0788272 1.027 255 255 255
-0.235737 0.657089 2.43 255 255 255
-0.543951 0.782332 2.107 255 255 255
0.253705 0.681952 2.42 255 255 255
1.06514 0.434779 2.261 255 255 255
-0.516278 -0.0208358 1.302 255 255 255
-0.0636978 0.637621 2.509 255 255 255
-0.19195 0.777175 2.121 255 255 255
-0.0411696 0.753021 2.181 255 255 255
0.24995 0.760119 2.181 255 255 255
-0.500464 0.285837 1.132 255 255 255
0.95145 0.790204 2.236 255 255 255
-0.35418 0.607591 2.572 255 255 255
0.0338053 0.530259 2.805 255 255 255
-0.528315 0.000369347 1.366 255 255 255
1.02169 0.694589 2.356 255 255 255
-0.514269 0.46665 1.194 255 255 255
-0.83207 0.488714 2.911 255 255 255
-0.77564 0.591765 2.54 255 255 255
-0.419375 0.575249 2.695 255 255 255
-0.504794 -0.211 1.339 255 255 255
-0.211591 0.547379 2.731 255 255 255
0.963514 0.645988 2.626 255 255 255
-0.562788 0.542935 2.731 255 255 255
-0.32852 0.521009 2.78 255 255 255
-0.472631 0.0511516 0.92 255 255 255
-0.496623 0.324766 1.072 255 255 255
-0.496024 -0.165234 1.143 255 255 255
-0.469863 0.0385783 0.906 255 255 255
-0.665043 0.548935 2.695 255 255 255
-0.495447 0.218043 1.062 255 255 255
-0.057499 0.670137 2.42 255 255 255
-0.479522 0.177633 0.916 255 255 255
1.18146 0.404949 2.561 0 0 0
-0.526768 0.0313982 1.362 255 255 255
-0.481346 -0.0742325 0.974 255 255 255
0.338706 0.774316 2.181 255 255 255
-0.522071 -0.0566992 1.403 255 255 255
-0.491657 0.350097 1.108 255 255 255
-0.467829 0.62649 2.53 255 255 255
1.03479 0.502865 2.189 255 255 255
-0.654595 0.749563 2.121 255 255 255
-0.487277 -0.00133795 0.986 255 255 255
-0.309096 0.686921 2.356 255 255 255
1.01954 0.623491 2.695 255 255 255
-0.589204 0.496174 2.793 255 255 255
-0.289154 0.735856 2.204 255 255 255
-0.667963 0.486531 2.898 255 255 255
1.05439 0.76085 2.114 255 255 255
1.02467 0.650178 2.294 255 255 255
-0.497869 -0.390431 1.122 255 255 255
-0.677833 0.596658 2.561 255 255 255
-0.508661 -0.418041 1.242 255 255 255
1.17483 0.534209 2.953 255 255 255
-0.502585 -0.324628 1.141 255 255 255
0.523732 0.720359 2.43 255 255 255
-0.93003 0.452107 2.982 255 255 255
-0.374937 0.784079 2.121 255 255 255
0.939467 0.563176 2.743 255 255 255
-0.199272 0.611777 2.572 255 255 255
0.413424 0.762874 2.22 255 255 255
0.433254 0.753045 2.347 255 255 255
-0.755864 0.638083 2.374 255 255 255
1.16509 0.57781 2.707 255 255 255
-0.501607 -0.316678 1.265 255 255 255
0.919346 0.795388 2.22 255 255 255
0.432754 0.68477 2.43 255 255 255
0.723609 0.749225 2.347 255 255 255
0.716841 0.610334 2.695 255 255 255
0.976771 0.778424 2.244 255 255 255
-0.484355 -0.00285893 0.958 255 255 255
-0.503706 -0.308102 1.192 255 255 255
-0.567488 0.648028 2.411 255 255 255
-0.745103 0.604203 2.44 255 255 255
0.876872 0.765376 2.338 255 255 255
0.798908 0.70208 2.449 255 255 255
-0.481832 -0.25055 0.988 255 255 255
1.04972 0.455443 2.236 255 255 255
1.19651 0.521009 2.78 255 255 255
0.822988 0.785213 2.253 255 255 255
-0.157698 0.713159 2.329 255 255 255
-0.483523 0.213801 0.972 255 255 255
-0.545629 0.629455 2.509 255 255 255
-0.493314 -0.459372 1.239 0 0 0
-0.497023 0.0802101 1.116 255 255 255
-0.606439 0.665114 1.848 255 255 255
1.05877 0.741568 2.158 255 255 255
1.13768 0.620536 2.78 255 255 255
0.336699 0.5572 2.78 255 255 255
-0.697601 0.707213 2.347 255 255 255
0.934973 0.776405 2.303 255 255 255
0.263745 0.667734 2.44 255 255 255
-0.495242 0.260882 1.112 255 255 255
-0.488177 0.0963592 1.018 255 255 255
1.0826 0.623922 2.755 255 255 255
-0.483595 -0.138778 1.055 255 255 255
-0.144163 0.662261 2.42 255 255 255
1.09104 0.404746 2.365 0 0 0
1.05791 0.630833 2.128 255 255 255
-0.0267733 0.493415 2.939 255 255 255
-0.177047 0.523545 2.818 255 255 255
0.086371 0.662271 2.479 255 255 255
1.06484 0.7555 2.128 255 255 255
1.06368 0.635051 2.085 255 255 255
0.747623 0.793843 2.236 255 255 255
0.323005 0.631013 2.499 255 255 255
0.0877647 0.636063 2.519 255 255 255
-0.638362 0.551824 2.731 255 255 255
-0.501404 -0.2959 1.182 255 255 255
-0.56796 0.792618 2.107 255 255 255
0.672843 0.67168 2.499 255 255 255
-0.595962 0.702442 2.294 255 255 255
0.45724 0.581031 2.743 255 255 255
0.303585 0.599917 2.649 255 255 255
-0.413662 0.507435 2.805 255 255 255
-0.344957 0.538491 2.731 255 255 255
1.08883 0.488983 2.42 0 0 0
1.057 0.459082 2.236 255 255 255
-0.55947 0.485025 1.551 255 255 255
-0.496024 0.348136 1.143 255 255 255
0.345384 0.714851 2.347 255 255 255
-0.186354 0.779196 2.136 255 255 255
1.05617 0.182265 2.189 255 255 255
-0.240491 0.625963 2.479 255 255 255
-0.474075 -0.157932 0.917 255 255 255
1.33345 0.428488 2.953 0 0 0
-0.0310646 0.74481 2.22 255 255 255
0.934042 0.69576 2.469 255 255 255
-0.479299 0.137557 0.948 255 255 255
-0.618094 0.590434 2.626 255 255 255
0.32434 0.753789 2.204 255 255 255
-0.472611 -0.0905616 0.9 255 255 255
-0.159248 0.738255 2.244 255 255 255
-0.21628 0.590434 2.626 255 255 255
-0.735171 0.582478 2.572 255 255 255
-0.0591384 0.64874 2.489 255 255 255
-0.495901 -0.20381 1.13 255 255 255
-0.506619 -0.277855 1.257 255 255 255
-0.523547 0.303087 1.348 255 255 255
0.868484 0.557703 2.925 255 255 255
-0.526284 0.0637115 1.39 255 255 255
-0.220186 0.743905 2.196 255 255 255
-0.579313 0.631967 1.748 255 255 255
-0.708474 0.491343 2.871 255 255 255
0.362651 0.687263 2.411 255 255 255
0.836034 0.651793 2.615 255 255 255
0.574107 0.629682 2.684 255 255 255
0.68308 0.795611 2.181 255 255 255
-0.473227 -0.291838 0.93 255 255 255
-0.497885 0.351856 1.143 255 255 255
-0.27446 0.800593 2.092 255 255 255
-0.525938 0.12502 1.445 255 255 255
-0.485806 -0.312249 1.027 255 255 255
-0.243776 0.545321 2.743 255 255 255
-0.503675 -0.335248 1.165 255 255 255
0.681551 0.818594 2.121 255 255 255
0.113304 0.616566 2.54 255 255 255
1.05552 0.294091 2.173 255 255 255
0.0543958 0.721729 2.32 255 255 255
1.04188 0.710749 2.204 255 255 255
-0.525111 0.76429 2.114 255 255 255
0.611503 0.636061 2.638 255 255 255
-0.0424145 0.660929 2.459 255 255 255
-0.681148 0.648258 2.383 255 255 255
-0.505428 -0.406169 1.249 255 255 255
0.341374 0.512193 2.857 255 255 255
-0.47523 -0.328964 0.928 255 255 255
-0.373237 0.770666 2.151 255 255 255
0.0447555 0.695109 2.411 255 255 255
1.00278 0.782672 2.136 0 0 0
0.949918 0.771914 2.312 255 255 255
-0.292462 0.786193 2.099 255 255 255
-0.366622 0.694589 2.356 255 255 255
1.08887 0.461353 2.212 255 255 255
-0.473662 -0.059938 0.902 255 255 255
-0.47523 -0.238355 0.928 255 255 255
-0.465307 0.538164 2.707 255 255 255
0.511787 0.726497 2.411 255 255 255
-0.531202 0.00701753 1.362 255 255 255
-0.521357 0.0293465 1.273 255 255 255
-0.121408 0.737585 2.22 255 255 255
-0.481035 -0.342789 0.967 255 255 255
-0.501675 -0.309275 1.26 255 255 255
0.0724571 0.747239 2.294 255 255 255
-0.0205241 0.73755 2.253 255 255 255
-0.498695 -0.287888 1.128 255 255 255
-0.482392 0.212654 0.939 255 255 255
0.991691 0.770547 2.253 255 255 255
-0.506613 -0.436488 1.237 0 0 0
0.432838 0.65948 2.499 255 255 255
-0.450964 0.486531 2.898 255 255 255
-0.496859 0.0755657 1.128 255 255 255
-0.0705014 0.697999 2.329 255 255 255
-0.613658 0.657816 1.87 255 255 255
-0.50546 -0.245057 1.178 255 255 255
1.04752 0.50105 2.121 255 255 255
-0.501779 -0.280269 1.165 255 255 255
-0.222592 0.737585 2.22 255 255 255
-0.698213 0.567375 2.638 255 255 255
-0.113337 0.7931 2.136 255 255 255
-0.576414 0.659891 2.383 255 255 255
0.874652 0.698095 2.449 255 255 255
-0.476278 -0.111295 0.939 255 255 255
-0.361617 0.603255 2.626 255 255 255
0.865718 0.691742 2.469 255 255 255
1.04001 0.351216 2.092 255 255 255
-0.509449 0.230189 1.239 255 255 255
1.07834 0.473742 2.107 255 255 255
-0.470203 0.0383654 0.901 255 255 255
-0.508627 0.17144 1.237 255 255 255
-0.532064 0.48257 1.294 255 255 255
-0.688771 0.702257 2.356 255 255 255
-0.495264 -0.405393 1.108 255 255 255
-0.482902 -0.325833 1.007 255 255 255
-0.497052 -0.0775117 1.112 255 255 255
-0.510137 -0.143455 1.319 255 255 255
0.544278 0.640576 2.604 255 255 255
0.751566 0.815893 2.114 255 255 255
-0.516837 -0.0965632 1.267 255 255 255
-0.481179 -0.279672 0.961 255 255 255
1.00231 0.692942 2.459 255 255 255
0.202739 0.616578 2.684 255 255 255
-0.440538 0.502925 2.831 255 255 255
-0.294589 0.624915 2.459 255 255 255
0.00578099 0.647075 2.53 255 255 255
0.117727 0.731432 2.303 255 255 255
-0.210557 0.498116 2.967 255 255 255
-0.504682 -0.286657 1.278 255 255 255
0.0185336 0.782332 2.107 255 255 255
-0.482796 0.177983 0.958 255 255 255
0.871575 0.678451 2.509 255 255 255
1.07282 0.165637 2.158 255 255 255
-0.498919 0.278247 1.154 255 255 255
-0.572219 0.516323 2.755 255 255 255
-0.673055 0.638046 2.051 0 0 0
0.0367161 0.572901 2.684 255 255 255
-0.492224 0.196035 1.037 255 255 255
-0.508661 0.246915 1.242 255 255 255
0.931247 0.571522 2.719 255 255 255
-0.506571 -0.290373 1.232 255 255 255
0.045813 0.757557 2.269 255 255 255
-0.48554 0.3302 0.989 255 255 255
-0.43627 0.614597 2.638 255 255 255
-0.137586 0.612552 2.593 255 255 255
1.09294 0.253579 2.32 0 0 0
-0.4908 0.395704 1.034 255 255 255
-0.500481 -0.337176 1.257 255 255 255
-0.481832 -0.186238 0.988 255 255 255
0.854399 0.572029 2.831 255 255 255
0.297355 0.564351 2.793 255 255 255
0.584604 0.755882 2.253 255 255 255
-0.474012 -0.144029 0.914 255 255 255
0.168421 0.679646 2.44 255 255 255
-0.509338 0.30033 1.229 255 255 255
-0.497 0.112249 1.092 255 255 255
-0.42926 0.770666 2.151 255 255 255
-0.494376 -0.195174 1.102 255 255 255
-0.504551 -0.434916 1.194 255 255 255
0.754207 0.602495 2.719 255 255 255
0.457134 0.797885 2.121 255 255 255
-0.72461 0.548598 2.672 255 255 255
0.878659 0.792693 2.173 255 255 255
1.03191 0.658808 2.626 255 255 255
-0.531184 0.0829256 1.409 255 255 255
-0.476213 0.245547 0.948 255 255 255
-0.474718 -0.224521 0.927 255 255 255
0.973353 0.77788 2.253 255 255 255
1.04998 0.644259 2.672 255 255 255
1.05565 0.754892 2.166 255 255 255
1.0768 0.592751 2.166 255 255 255
0.295431 0.613494 2.615 255 255 255
1.02974 0.678014 2.42 255 255 255
0.96921 0.549387 2.857 255 255 255
-0.44351 0.474503 2.911 255 255 255
0.0601103 0.543223 2.755 255 255 255
-0.170032 0.597425 2.638 255 255 255
0.80757 0.705202 2.392 255 255 255
-0.527224 0.525158 2.731 255 255 255
-0.723287 0.709925 2.356 255 255 255
-0.656145 0.525158 2.731 255 255 255
-0.622709 0.716941 2.269 255 255 255
-0.517468 -0.0102655 1.305 255 255 255
-0.269452 0.715478 2.312 255 255 255
1.00645 0.591026 2.707 255 255 255
-0.127781 0.735403 2.269 255 255 255
-0.718425 0.586664 2.572 255 255 255
0.826473 0.662003 2.572 255 255 255
-0.0973809 0.81421 2.092 255 255 255
1.08192 -0.157676 2.114 255 255 255
1.03316 0.587377 2.731 255 255 255
0.00196889 0.483482 2.996 255 255 255
-0.518503 0.384958 1.313 255 255 255
-0.261192 0.753164 2.151 255 255 255
-0.484732 -0.143506 1.004 255 255 255
0.569814 0.768921 2.196 255 255 255
-0.598478 0.596472 2.615 255 255 255
-0.420908 0.700696 2.338 255 255 255
1.00615 0.671389 2.181 255 255 255
-0.538724 0.532915 1.429 255 255 255
-0.528024 0.1805 1.419 255 255 255
-0.5189 0.431264 1.267 255 255 255
-0.530016 0.248543 1.412 255 255 255
0.764818 0.540823 2.911 255 255 255
0.932644 0.784321 2.261 255 255 255
-0.817824 0.546974 2.707 255 255 255
-0.545108 0.502657 1.491 255 255 255
-0.511505 0.289825 1.244 255 255 255
-0.769809 0.502871 2.805 255 255 255
-0.473662 0.129415 0.902 255 255 255
-0.00572696 0.750202 2.204 255 255 255
-0.151772 0.562092 2.695 255 255 255
-0.60957 0.607591 2.572 255 255 255
0.931801 0.619105 2.695 255 255 255
0.304316 0.770032 2.189 255 255 255
-0.497438 0.369433 1.07 255 255 255
1.06824 -0.0477484 2.121 255 255 255
-0.456449 0.505234 2.844 255 255 255
0.387474 0.793025 2.099 255 255 255
-0.501637 -0.154527 1.22 255 255 255
-0.506437 -0.435172 1.222 0 0 0
-0.471603 -0.271639 0.918 255 255 255
-0.258203 0.56019 2.707 255 255 255
0.102273 0.756525 2.212 255 255 255
1.05597 0.275762 2.196 255 255 255
0.563287 0.704542 2.43 255 255 255
0.235389 0.791811 2.114 255 255 255
-0.542761 0.632918 2.459 255 255 255
-0.479268 -0.33557 0.951 255 255 255
1.0111 0.542259 2.844 255 255 255
-0.913267 0.500679 2.898 255 255 255
-0.0915513 0.64469 2.489 255 255 255
-0.497041 -0.35274 1.154 255 255 255
-0.521644 -0.086325 1.366 255 255 255
-0.290749 0.741534 2.189 255 255 255
-0.322759 0.641271 2.43 255 255 255
-0.520517 -0.0568551 1.302 255 255 255
-0.4755 0.306647 0.914 255 255 255
-0.490431 0.0626679 1.009 255 255 255
-0.503385 0.133969 1.11 255 255 255
-0.522424 0.0360641 1.291 255 255 255
0.0166952 0.709369 2.329 255 255 255
-0.489467 0.290688 0.997 255 255 255
0.953725 0.77337 2.294 255 255 255
-0.5433 0.571628 1.513 255 255 255
0.6882 0.774773 2.244 255 255 255
1.13315 0.620536 2.78 255 255 255
0.309692 0.793592 2.128 255 255 255
-0.501606 0.433698 1.143 255 255 255
0.919895 0.796828 2.204 255 255 255
-0.491684 -0.340362 1.096 255 255 255
0.22884 0.670197 2.449 255 255 255
-0.508631 0.345769 1.213 255 255 255
-0.488876 -0.216855 1.059 255 255 255
-0.544244 0.434727 2.996 255 255 255
-0.522847 0.136097 1.324 255 255 255
-0.352946 0.662261 2.42 255 255 255
0.401832 0.516842 2.857 255 255 255
-0.656413 0.420101 2.996 255 255 255
0.304133 0.710304 2.383 255 255 255
0.556706 0.664942 2.489 255 255 255
0.845373 0.569246 2.911 255 255 255
-0.551273 0.52166 1.456 255 255 255
0.0344589 0.648361 2.519 255 255 255
-0.486057 0.0832641 1 255 255 255
-0.47467 -0.228064 0.948 255 255 255
-0.464329 0.471738 2.953 255 255 255
-0.477642 0.285015 0.921 255 255 255
0.208674 0.769662 2.158 255 255 255
1.06882 0.287604 2.261 0 0 0
0.112766 0.713759 2.356 255 255 255
-0.503328 -0.10355 1.182 255 255 255
-0.508576 0.317102 1.232 255 255 255
0.078757 0.543629 2.78 255 255 255
1.14195 0.577013 2.604 255 255 255
1.20123 0.469754 2.719 255 255 255
-0.491686 0.734613 2.278 255 255 255
0.989845 0.690967 2.54 255 255 255
1.05791 0.758963 2.128 255 255 255
-0.529687 0.18626 1.393 255 255 255
-0.245667 0.505344 2.925 255 255 255
-0.534034 0.203991 1.375 255 255 255
-0.489791 0.228538 1.039 255 255 255
-0.757181 0.556809 2.649 255 255 255
1.0347 0.362846 2.204 255 255 255
-0.0123755 0.795252 2.114 255 255 255
1.05239 0.279336 2.196 255 255 255
-0.480756 0.634329 2.449 255 255 255
-0.483098 -0.182718 1.004 255 255 255
-0.498621 -0.338647 1.132 255 255 255
0.800017 0.578574 2.818 255 255 255
-0.485548 -0.158956 1.03 255 255 255
0.685004 0.825497 2.121 255 255 255
-0.530016 0.122165 1.412 255 255 255
-0.47599 -0.234076 0.96 255 255 255
1.07742 0.415133 2.196 255 255 255
-0.52962 0.141956 1.381 255 255 255
-0.477124 0.129003 0.92 255 255 255
1.10228 0.541242 2.939 255 255 255
-0.872917 0.471738 2.953 255 255 255
-0.479543 -0.208382 0.964 255 255 255
0.672972 0.605949 2.695 255 255 255
-0.934397 0.449354 2.996 255 255 255
-0.497971 -0.428059 1.106 255 255 255
-0.483653 -0.284633 1.012 255 255 255
0.266993 0.810806 2.092 255 255 255
-0.488171 -0.127356 1.032 255 255 255
-0.499627 -0.0183553 1.147 255 255 255
-0.488171 -0.164302 1.032 255 255 255
-0.0769103 0.709908 2.294 255 255 255
-0.683703 0.689545 2.365 255 255 255
0.0425421 0.799476 2.107 255 255 255
0.286256 0.541888 2.818 255 255 255
-0.477338 0.155566 0.909 255 255 255
1.15079 0.626866 2.768 255 255 255
0.275661 0.651852 2.44 255 255 255
-0.479648 -0.125338 0.977 255 255 255
0.987948 0.542259 2.844 255 255 255
-0.511435 -0.174737 1.345 255 255 255
-0.503675 -0.414874 1.165 255 255 255
-0.726889 0.616911 2.459 255 255 255
-0.547395 0.522589 1.452 255 255 255
-0.510188 -0.204005 1.336 255 255 255
-0.475858 0.131898 0.909 255 255 255
-0.712181 0.679281 2.383 255 255 255
0.0860433 0.758416 2.166 255 255 255
0.261053 0.803272 2.099 255 255 255
1.04566 0.752925 2.212 0 0 0
-0.547954 0.546711 1.547 255 255 255
-0.698076 0.718592 2.286 255 255 255
0.929018 0.726938 2.374 255 255 255
-0.481121 -0.275632 0.98 255 255 255
0.180649 0.493287 2.967 255 255 255
0.45924 0.579089 2.755 255 255 255
0.554479 0.724665 2.392 255 255 255
0.492164 0.71865 2.411 255 255 255
-0.150666 0.520807 2.755 255 255 255
-0.615188 0.783203 2.128 255 255 255
0.240978 0.61817 2.672 255 255 255
-0.470099 -0.0918217 0.898 255 255 255
-0.499757 0.306955 1.102 255 255 255
-0.776945 0.502925 2.831 255 255 255
-0.507509 -0.394468 1.201 255 255 255
-0.208887 0.736617 2.228 255 255 255
-0.445037 0.737193 2.286 255 255 255
-0.47772 0.0683511 0.951 255 255 255
-0.503258 0.162127 1.13 255 255 255
0.61853 0.764549 2.204 255 255 255
-0.485439 0.205184 0.954 255 255 255
0.312192 0.717593 2.356 255 255 255
-0.473182 0.0709215 0.924 255 255 255
1.00246 0.701458 2.22 0 0 0
0.550181 0.780719 2.189 255 255 255
0.348185 0.754626 2.196 255 255 255
-0.485086 -0.25079 1.015 255 255 255
-0.192658 0.620699 2.54 255 255 255
-0.53516 0.207339 1.532 255 255 255
0.874319 0.824759 2.128 255 255 255
-0.485049 0.345944 0.988 255 255 255
0.436674 0.772874 2.228 255 255 255
-0.347989 0.529773 2.755 255 255 255
0.695957 0.682534 2.509 255 255 255
0.61404 0.656927 2.459 255 255 255
0.305022 0.570772 2.78 255 255 255
-0.3265 0.764313 2.143 255 255 255
-0.713148 0.496015 2.871 255 255 255
-0.902223 0.516565 2.805 255 255 255
-0.47662 -0.142719 0.955 255 255 255
-0.502707 -0.155614 1.213 255 255 255
-0.519688 0.343006 1.316 255 255 255
-0.0570019 0.525533 2.78 255 255 255
-0.495447 0.304454 1.062 255 255 255
0.517711 0.561724 2.78 255 255 255
-0.373656 0.634031 2.479 255 255 255
0.557095 0.658036 2.509 255 255 255
-0.491013 -0.176397 1.075 255 255 255
-0.486181 0.0330467 1.007 255 255 255
0.998767 0.77201 2.236 255 255 255
0.708019 0.710804 2.411 255 255 255
-0.653261 0.544974 2.719 255 255 255
-0.144267 0.597425 2.638 255 255 255
0.75128 0.768909 2.303 255 255 255
-0.436922 0.553321 2.695 255 255 255
0.643003 0.526894 2.939 255 255 255
-0.600116 0.751388 2.136 255 255 255
-0.506309 -0.0615951 1.189 255 255 255
0.0805526 0.73429 2.312 255 255 255
-0.511333 -0.195747 1.339 255 255 255
-0.125488 0.681847 2.365 255 255 255
-0.507681 -0.0594731 1.225 255 255 255
1.06967 0.233976 2.173 255 255 255
-0.523395 0.30556 1.359 255 255 255
1.08965 0.642785 2.684 255 255 255
-0.474592 -0.108806 0.918 255 255 255
-0.396124 0.469765 2.911 255 255 255
0.778718 0.743479 2.329 255 255 255
0.994444 0.712451 2.43 255 255 255
-0.472291 -0.307556 0.905 255 255 255
0.0761913 0.747239 2.294 255 255 255
-0.513122 0.133669 1.205 255 255 255
-0.493848 -0.0235028 1.044 255 255 255
-0.885149 0.559798 2.684 255 255 255
-0.545245 0.420326 1.583 255 255 255
-0.477297 -0.0226429 0.938 255 255 255
0.6836 0.69051 2.479 255 255 255
-0.477292 -0.154409 0.941 255 255 255
-0.475334 0.106634 0.908 255 255 255
-0.172103 0.73171 2.269 255 255 255
0.618746 0.806333 2.107 255 255 255
-0.527319 0.338246 1.375 255 255 255
0.232791 0.732109 2.329 255 255 255
-0.496757 0.202249 1.149 255 255 255
-0.49574 0.377186 1.048 255 255 255
-0.485985 0.0660172 1.01 255 255 255
-0.476121 -0.151884 0.954 255 255 255
-0.500486 -0.200127 1.162 255 255 255
-0.49544 -0.362375 1.281 0 0 0
-0.523265 0.325534 1.491 255 255 255
0.470419 0.572813 2.768 255 255 255
-0.505337 -0.297666 1.229 255 255 255
-0.240863 0.737972 2.189 255 255 255
-0.491868 0.589422 2.66 255 255 255
-0.504954 -0.193962 1.357 255 255 255
-0.549607 0.524376 1.477 255 255 255
-0.0690931 0.754892 2.166 255 255 255
0.113979 0.731432 2.303 255 255 255
-0.49574 0.150362 1.048 255 255 255
-0.48211 0.284793 0.966 255 255 255
1.01766 0.711716 2.312 0 0 0
0.526222 0.678407 2.479 255 255 255
-0.31382 0.474284 2.939 255 255 255
0.252882 0.630607 2.53 255 255 255
1.0386 0.759261 2.22 0 0 0
-0.476988 0.172783 0.914 255 255 255
-0.472975 -0.24315 0.912 255 255 255
-0.123964 0.64469 2.489 255 255 255
-0.471419 -0.0130674 0.909 255 255 255
-0.530257 0.280977 1.425 255 255 255
-0.485907 0.00504932 0.98 255 255 255
1.05186 0.674433 2.54 255 255 255
-0.680406 0.617207 2.509 255 255 255
-0.475761 -0.242415 0.932 255 255 255
-0.494319 0.212404 1.114 255 255 255
-0.437628 0.806333 2.107 255 255 255
-0.288519 0.491064 2.925 255 255 255
0.802211 0.70688 2.411 255 255 255
-0.48035 0.344364 0.944 255 255 255
-0.505404 0.399809 1.169 255 255 255
-0.493737 0.162765 1.051 255 255 255
-0.554372 0.395562 1.587 255 255 255
-0.49884 -0.297538 1.116 255 255 255
-0.558343 0.538491 2.731 255 255 255
-0.525938 0.0991533 1.445 255 255 255
-0.485806 -0.315592 1.027 255 255 255
1.0863 0.269107 2.143 255 255 255
1.0897 0.410742 2.136 255 255 255
-0.496494 -0.0651556 1.087 255 255 255
-0.524713 -0.0699874 1.351 255 255 255
-0.338303 0.72484 2.294 255 255 255
0.955616 0.715968 2.402 255 255 255
-0.24954 0.638315 2.449 255 255 255
-0.497 0.265075 1.092 255 255 255
-0.18592 0.807402 2.092 255 255 255
-0.527372 0.000373402 1.381 255 255 255
1.1614 0.527275 2.719 255 255 255
0.0915004 0.637621 2.509 255 255 255
0.925043 0.645988 2.626 255 255 255
-0.47706 0.21961 0.917 255 255 255
-0.499757 0.369721 1.102 255 255 255
-0.479252 -0.245229 0.986 255 255 255
0.737483 0.724665 2.392 255 255 255
0.978156 0.82011 2.143 255 255 255
0.208268 0.668992 2.489 255 255 255
1.05212 0.307243 2.166 255 255 255
-0.496757 0.207859 1.149 255 255 255
-0.716205 0.714413 2.261 255 255 255
-0.0334755 0.771287 2.143 255 255 255
-0.488848 0.0627194 1.037 255 255 255
-0.466958 -0.0157262 0.892 255 255 255
0.41404 0.801998 2.078 255 255 255
-0.498628 0.338745 1.149 255 255 255
-0.501606 0.446718 1.143 255 255 255
1.01317 0.567284 2.204 255 255 255
0.232276 0.544388 2.831 255 255 255
0.234126 0.639741 2.55 255 255 255
-0.518503 0.391368 1.313 255 255 255
-0.0589008 0.654202 2.479 255 255 255
0.438296 0.564351 2.793 255 255 255
1.00998 0.735899 2.329 255 255 255
1.07176 0.717407 2.128 255 255 255
-0.231555 0.761816 2.136 255 255 255
1.14043 -0.0703085 2.294 255 255 255
-0.838299 0.521129 2.805 255 255 255
0.63843 0.761094 2.236 255 255 255
-0.504602 0.331395 1.176 255 255 255
0.738552 0.674559 2.572 255 255 255
-0.692659 0.617207 2.509 255 255 255
-0.52742 0.0683827 1.393 255 255 255
-0.534613 0.214076 1.412 255 255 255
-0.482697 -0.270921 1.01 255 255 255
-0.00558924 0.763665 2.151 255 255 255
1.1516 0.504967 2.626 255 255 255
-0.417075 0.462505 2.925 255 255 255
-0.485049 0.04207 0.988 255 255 255
0.329457 0.595606 2.649 255 255 255
0.0152042 0.770272 2.121 255 255 255
0.733862 0.692014 2.499 255 255 255
-0.48554 0.325372 0.989 255 255 255
-0.493855 0.748659 2.189 255 255 255
0.0550631 0.7582 2.196 255 255 255
-0.513778 0.538164 2.707 255 255 255
-0.27446 0.797189 2.092 255 255 255
-0.488848 -0.0334704 1.037 255 255 255
-0.492108 0.335092 1.066 255 255 255
-0.521134 0.300791 1.513 255 255 255
-0.211567 0.615567 2.519 255 255 255
-0.0760151 0.683159 2.383 255 255 255
-0.47523 -0.19909 0.928 255 255 255
-0.135863 0.737585 2.22 255 255 255
0.534293 0.674373 2.479 255 255 255
1.09271 0.541242 2.939 255 255 255
0.686053 0.769604 2.261 255 255 255
0.88288 0.797189 2.166 255 255 255
-0.52014 0.39147 1.265 255 255 255
-0.188273 0.769662 2.158 255 255 255
-0.489273 0.131761 1.01 255 255 255
0.795585 0.588056 2.755 255 255 255
0.164655 0.73832 2.278 255 255 255
-0.492212 -0.182541 1.07 255 255 255
-0.559904 0.621187 1.673 255 255 255
-0.676306 0.629997 2.479 255 255 255
0.735615 0.552079 2.871 255 255 255
0.587624 0.658241 2.449 255 255 255
-0.482181 -0.0765284 0.963 255 255 255
-0.484863 0.260365 1.018 255 255 255
0.542828 0.797189 2.092 255 255 255
-0.483944 0.117321 0.999 255 255 255
-0.562309 0.571811 1.664 255 255 255
-0.537052 0.422145 1.456 255 255 255
0.41523 0.582933 2.731 255 255 255
1.0199 0.338827 2.121 255 255 255
-0.52183 0.317307 1.316 255 255 255
-0.506269 -0.0625682 1.171 255 255 255
-0.508501 0.0514378 1.208 255 255 255
-0.51944 0.133493 1.487 255 255 255
1.02102 0.527085 2.967 255 255 255
-0.376733 0.734613 2.278 255 255 255
-0.508509 -0.247263 1.227 255 255 255
0.749784 0.641715 2.626 255 255 255
0.0816412 0.764313 2.143 255 255 255
-0.510682 0.285317 1.242 255 255 255
0.610833 0.627376 2.731 255 255 255
0.587214 0.629682 2.684 255 255 255
-0.526597 0.40164 1.409 255 255 255
0.225968 0.621471 2.649 255 255 255
-0.493476 -0.177562 1.104 255 255 255
