ply
format ascii 1.0
comment Created by Open3D
element vertex 1330
property double x
property double y
property double z
property uchar red
property uchar green
property uchar blue
end_header
0.903405 0.79644 2.099 255 255 255
1.14206 0.730217 2.253 255 255 255
-0.560511 0.635664 2.365 255 255 255
0.978835 0.808093 2.085 255 255 255
0.824745 -0.135599 2.793 255 255 255
0.925639 0.520807 2.755 255 255 255
-0.0479463 0.583498 2.54 255 255 255
0.357357 0.782224 2.044 255 255 255
1.33692 -0.2303 2.898 0 0 0
-1.36934 0.235998 2.78 255 255 255
0.742533 -0.150128 2.898 255 255 255
-1.14831 -0.0389147 2.707 255 255 255
0.00183548 0.473449 2.793 255 255 255
-0.12545 0.535778 2.695 255 255 255
-0.892868 0.659222 2.261 255 255 255
-0.984671 0.569244 2.269 255 255 255
-1.11357 0.0626811 2.719 255 255 255
-1.02835 -0.290974 2.212 255 255 255
0.642396 0.79008 2.03 255 255 255
-0.896759 0.729888 2.114 255 255 255
0.454103 0.561643 2.672 255 255 255
-0.849259 0.556748 2.55 255 255 255
-0.935217 0.566579 2.449 255 255 255
0.553059 -0.174707 2.996 0 0 0
-0.799031 0.232175 2.844 255 255 255
0.687503 0.708663 2.278 255 255 255
-0.134822 0.516138 2.707 255 255 255
0.471225 0.666453 2.365 255 255 255
-0.737384 0.704159 2.151 255 255 255
0.548182 -0.452609 2.996 255 255 255
0.58235 0.601787 2.53 255 255 255
0.893437 0.621929 2.479 255 255 255
0.919499 0.561643 2.672 255 255 255
1.09676 0.7678 2.143 255 255 255
-1.18881 0.0803799 2.719 255 255 255
0.32881 0.44771 2.953 255 255 255
0.836005 0.791578 2.051 255 255 255
-1.18588 0.613188 2.338 255 255 255
-0.559757 0.509464 2.695 255 255 255
-1.38938 -0.226501 2.793 0 0 0
0.634879 -0.274387 2.818 255 255 255
-0.965261 0.397045 2.32 255 255 255
-0.826188 0.756966 1.978 255 255 255
-0.952991 0.672433 2.196 255 255 255
-1.40832 0.193934 2.967 255 255 255
-0.174682 0.663972 2.303 255 255 255
0.90203 0.769351 2.128 255 255 255
0.589492 -0.435031 2.911 0 0 0
0.779544 0.608236 2.489 255 255 255
-0.200233 0.764237 1.997 255 255 255
-0.259616 0.477686 2.818 255 255 255
-1.1689 0.523085 2.261 255 255 255
-0.934885 0.421325 2.329 255 255 255
0.60181 0.484297 2.857 255 255 255
0.0201081 0.685112 2.286 255 255 255
0.841301 -0.109298 2.818 255 255 255
-0.655027 0.593818 2.43 255 255 255
-0.928839 0.468075 2.684 255 255 255
1.10014 0.510031 2.871 255 255 255
-0.0612616 0.500742 2.768 255 255 255
-0.487258 0.743649 2.114 255 255 255
0.908899 0.75834 2.136 255 255 255
1.271 0.624832 2.54 255 255 255
-0.797779 0.753026 2.037 255 255 255
1.28345 0.452107 2.982 255 255 255
-0.937044 0.739766 2.037 255 255 255
0.203277 0.667647 2.383 255 255 255
-1.1831 -0.351362 2.253 255 255 255
-0.28033 0.750412 2.085 255 255 255
0.83828 0.569741 2.649 255 255 255
-0.396784 0.678469 2.204 255 255 255
-0.928999 0.328992 2.402 255 255 255
-1.26963 -0.461462 2.731 255 255 255
0.652409 0.522851 2.719 255 255 255
-0.339155 0.470676 2.831 255 255 255
0.80368 -0.332349 2.967 0 0 0
1.29812 -0.216753 2.844 0 0 0
-0.195396 0.473101 2.818 255 255 255
-1.37344 0.121263 2.743 255 255 255
0.433613 0.546974 2.707 255 255 255
-0.155521 0.55543 2.684 255 255 255
-0.0772121 0.663972 2.303 255 255 255
-0.932021 0.319643 2.42 255 255 255
-0.775609 0.464358 2.793 255 255 255
1.28975 0.481815 2.898 255 255 255
-1.15236 0.564317 2.294 255 255 255
-0.706118 0.239931 2.939 255 255 255
-1.33624 0.0752848 2.695 255 255 255
-1.11045 -0.0894375 2.638 255 255 255
0.699086 0.736414 2.143 255 255 255
-0.937592 0.506385 2.236 255 255 255
1.06029 0.797914 2.085 255 255 255
0.0143667 0.561916 2.593 255 255 255
-0.0616623 0.77623 2.037 255 255 255
-0.843035 0.574575 2.519 255 255 255
-1.33939 0.229707 2.871 255 255 255
-1.27567 0.313811 2.499 255 255 255
-1.07689 0.67026 2.261 255 255 255
-0.86089 0.7062 2.136 255 255 255
-0.230914 0.660225 2.303 255 255 255
-0.22212 0.620563 2.411 255 255 255
-1.10603 -0.440382 2.884 0 0 0
-0.566682 0.758762 2.017 255 255 255
-1.42151 0.0844303 2.707 255 255 255
-1.17265 0.299197 2.479 255 255 255
-0.869979 0.533032 2.638 255 255 255
-1.34994 -0.71659 2.844 0 0 0
-1.38355 0.106928 2.719 255 255 255
0.608721 0.573341 2.626 255 255 255
1.27423 0.0953783 2.53 255 255 255
1.17364 0.646285 2.449 255 255 255
-0.875993 0.193202 2.884 255 255 255
-0.590242 0.389022 2.982 255 255 255
0.798061 0.596792 2.509 255 255 255
0.312703 0.757331 2.173 255 255 255
0.443404 0.56345 2.66 255 255 255
-1.12911 -0.168858 2.672 255 255 255
-0.736427 0.713944 2.128 255 255 255
-0.341632 0.560063 2.604 255 255 255
0.0433353 0.443034 2.831 255 255 255
0.706294 0.70145 2.303 255 255 255
-1.36846 -0.804524 2.844 255 255 255
-0.937491 0.479688 2.374 255 255 255
0.465596 0.671585 2.356 255 255 255
0.836867 -0.0283099 2.982 255 255 255
1.04762 0.710403 2.32 255 255 255
1.14732 0.606544 2.55 255 255 255
0.95157 0.142263 2.805 255 255 255
-0.725889 0.747893 2.078 255 255 255
-1.24768 0.249661 2.593 255 255 255
-1.06088 0.112336 2.743 255 255 255
-1.1985 0.125177 2.731 255 255 255
-0.462272 0.702938 2.158 255 255 255
1.23393 -0.00868722 2.911 255 255 255
1.16557 0.182987 2.871 255 255 255
0.869744 0.79038 2.092 255 255 255
0.621969 0.744317 2.166 255 255 255
-0.0164206 0.470918 2.805 255 255 255
0.861634 -0.148539 2.78 255 255 255
-0.350416 0.424425 2.925 255 255 255
-1.36142 -0.640847 2.719 255 255 255
-0.707864 0.752197 2.017 255 255 255
-1.24975 -0.250365 2.615 255 255 255
-0.195797 0.563082 2.638 255 255 255
0.668448 0.0394285 2.967 255 255 255
-0.543457 0.760394 2.004 255 255 255
0.948817 0.806672 2.064 255 255 255
-0.589775 0.526857 2.672 255 255 255
0.0103219 0.545911 2.638 255 255 255
-1.22494 0.181266 2.844 255 255 255
-0.0469422 0.72195 2.121 255 255 255
-1.1353 0.672433 2.196 255 255 255
-0.00896386 0.72195 2.121 255 255 255
-1.01052 0.635708 2.269 255 255 255
0.878135 0.5317 2.719 255 255 255
-0.73686 0.541618 2.638 255 255 255
0.183958 0.616337 2.489 255 255 255
0.780316 0.57034 2.672 255 255 255
-0.685447 0.409266 2.953 255 255 255
-0.943828 0.432542 2.793 255 255 255
-1.06342 0.251783 2.66 255 255 255
-0.75567 0.726448 2.114 255 255 255
0.487119 0.792203 2.044 255 255 255
-1.29061 -0.127581 2.719 255 255 255
0.679043 0.766549 2.092 255 255 255
-0.986551 0.287628 2.519 255 255 255
-0.789167 0.685858 2.228 255 255 255
0.468925 0.462951 2.898 255 255 255
1.34881 -0.145311 2.805 255 255 255
0.854959 0.656013 2.383 255 255 255
-0.545909 0.724333 2.128 255 255 255
-1.12382 0.0186781 2.755 255 255 255
1.27576 -0.0768407 2.805 255 255 255
-0.993839 0.0825675 2.793 255 255 255
-1.22073 -0.0481482 2.731 255 255 255
-0.383469 0.491444 2.818 255 255 255
-0.221562 0.558789 2.638 255 255 255
-1.16236 -0.327745 2.884 255 255 255
-0.802743 0.429185 2.925 255 255 255
0.296508 0.691242 2.294 255 255 255
0.365917 0.502925 2.831 255 255 255
0.312405 0.675258 2.329 255 255 255
-1.41453 -0.167404 2.719 255 255 255
1.02614 0.634329 2.449 255 255 255
-1.0917 -0.190778 2.871 255 255 255
0.269616 0.785567 2.01 255 255 255
-0.466237 0.72087 2.128 255 255 255
-1.41798 -0.858632 2.967 0 0 0
-0.723602 0.587984 2.489 255 255 255
1.06773 0.740243 2.228 255 255 255
-0.00952172 0.69722 2.253 255 255 255
-1.22658 -0.556294 2.593 255 255 255
1.01908 0.594708 2.626 255 255 255
0.660487 0.481349 2.953 255 255 255
-1.17596 0.302008 2.469 255 255 255
0.367919 0.757198 2.085 255 255 255
1.17085 0.188508 2.884 255 255 255
0.886099 0.509862 2.844 255 255 255
0.59319 -0.455724 2.953 0 0 0
-1.17626 0.637146 2.261 255 255 255
0.313495 0.772046 2.107 255 255 255
1.2409 0.0322795 2.768 255 255 255
0.754282 0.51876 2.768 255 255 255
-1.4171 0.0491889 2.707 255 255 255
-0.730088 0.758101 2.024 255 255 255
-0.186045 0.725506 2.173 255 255 255
-1.36863 0.0359734 2.707 255 255 255
-0.306031 0.61178 2.392 255 255 255
-1.11682 -0.204651 2.805 255 255 255
-0.44324 0.760591 2.085 255 255 255
0.96039 0.516746 2.831 255 255 255
0.596423 0.615003 2.42 255 255 255
1.06638 0.521353 2.831 255 255 255
-0.244843 0.493907 2.755 255 255 255
-0.93447 0.420762 2.347 255 255 255
0.522683 0.695301 2.32 255 255 255
1.37726 0.244584 2.996 0 0 0
-1.12481 -0.689123 2.884 255 255 255
0.982002 0.618813 2.499 255 255 255
1.26082 -0.00804261 2.695 255 255 255
0.319649 0.648258 2.383 255 255 255
-1.18438 -0.0479366 2.719 255 255 255
-0.456109 0.46331 2.871 255 255 255
0.6998 0.706175 2.294 255 255 255
1.29994 0.633099 2.54 255 255 255
-1.11164 -0.439768 2.911 0 0 0
0.0280687 0.675258 2.329 255 255 255
-0.866244 0.674844 2.158 255 255 255
-1.23594 0.0366112 2.755 255 255 255
1.04491 0.757331 2.173 255 255 255
0.701838 -0.165807 2.925 255 255 255
0.0303443 0.417657 2.911 255 255 255
0.619406 0.719522 2.22 255 255 255
0.680375 0.516138 2.707 255 255 255
-0.356189 0.739314 2.092 255 255 255
-1.38985 -0.763991 2.831 0 0 0
1.00622 0.729752 2.286 255 255 255
0.263183 0.602394 2.55 255 255 255
0.546577 0.566684 2.615 255 255 255
-1.10976 0.664222 2.253 255 255 255
-0.80043 0.766623 1.978 255 255 255
-1.00747 0.0638107 2.768 255 255 255
-1.4127 0.0668096 2.707 255 255 255
1.24136 0.0306236 2.626 255 255 255
-0.543378 0.47822 2.768 255 255 255
0.233051 0.730848 2.189 255 255 255
-1.13717 0.554909 2.286 255 255 255
0.0215881 0.772335 2.071 255 255 255
-1.43326 -0.640366 2.755 255 255 255
-0.146971 0.762225 2.071 255 255 255
1.05023 0.79038 2.092 255 255 255
-0.956433 0.125728 2.844 255 255 255
-0.96519 0.197895 2.884 255 255 255
-1.05941 0.405378 2.303 255 255 255
1.36942 0.0228587 2.719 255 255 255
0.346651 0.749563 2.121 255 255 255
-0.123039 0.428488 2.953 255 255 255
0.484608 0.735662 2.151 255 255 255
-1.43224 0.120202 2.719 255 255 255
-1.1295 -0.260918 2.593 255 255 255
1.14268 0.193202 2.884 255 255 255
-0.966169 0.735263 2.071 255 255 255
0.118657 0.537477 2.66 255 255 255
1.12733 0.516842 2.857 255 255 255
0.802769 -0.188984 2.844 255 255 255
-1.22847 -0.475905 2.615 255 255 255
-0.984411 0.128569 2.805 255 255 255
-1.2381 0.0233715 2.78 255 255 255
-0.311919 0.732506 2.092 255 255 255
0.239084 0.555825 2.604 255 255 255
-1.11875 0.560584 2.294 255 255 255
-1.09692 0.189043 2.755 255 255 255
-1.41896 0.106928 2.719 255 255 255
-0.222988 0.764237 1.997 255 255 255
-0.8835 0.744615 2.107 255 255 255
0.0422866 0.690128 2.278 255 255 255
1.01619 -0.206814 2.967 255 255 255
-0.286597 0.660098 2.329 255 255 255
1.20454 0.237388 2.967 255 255 255
-0.942112 0.477618 2.204 255 255 255
0.230303 0.755451 2.099 255 255 255
-1.35854 -0.1237 2.731 255 255 255
-0.618069 0.761395 2.024 255 255 255
-0.614267 0.673733 2.212 255 255 255
0.964286 -0.191642 2.884 255 255 255
-0.913892 0.353535 2.383 255 255 255
-0.769796 0.660472 2.278 255 255 255
0.50414 0.529602 2.731 255 255 255
0.968967 -0.263312 2.898 0 0 0
-0.0653775 0.595313 2.42 255 255 255
-0.951568 0.477224 2.638 255 255 255
-0.900244 0.753747 1.978 255 255 255
-1.04103 0.263433 2.604 255 255 255
1.20379 0.544549 2.695 255 255 255
0.868257 0.722114 2.228 255 255 255
-0.616072 0.420507 2.898 255 255 255
0.862568 0.699077 2.32 255 255 255
1.23095 -0.247839 2.996 255 255 255
1.09169 0.727199 2.278 255 255 255
-1.35111 -0.15549 2.743 255 255 255
0.152029 0.554496 2.638 255 255 255
-1.06432 -0.407618 2.509 255 255 255
-1.09261 0.407527 2.294 255 255 255
0.349186 0.734545 2.158 255 255 255
-0.570372 0.63422 2.374 255 255 255
-0.829345 0.755479 2.017 255 255 255
0.176525 0.542327 2.684 255 255 255
1.23499 0.0739997 2.649 255 255 255
-0.872107 0.725402 2.121 255 255 255
1.07357 -0.152252 2.939 255 255 255
-0.578533 0.761395 2.024 255 255 255
1.22509 0.551062 2.684 255 255 255
-0.411468 0.600233 2.44 255 255 255
-0.129236 0.763767 2.057 255 255 255
1.11117 0.712693 2.303 255 255 255
-1.39623 -0.739731 2.844 0 0 0
-0.765994 0.726448 2.114 255 255 255
-1.17103 0.556851 2.294 255 255 255
-1.10846 -0.575862 2.953 255 255 255
0.344293 0.512 2.805 255 255 255
-0.88968 0.373347 2.898 255 255 255
-0.83301 0.752858 2.01 255 255 255
0.469315 0.703986 2.228 255 255 255
-0.050594 0.685112 2.286 255 255 255
-1.09995 -0.531465 2.844 255 255 255
0.899988 -0.19824 2.844 255 255 255
-1.02002 0.742854 2.064 255 255 255
1.35489 -0.0761559 2.78 255 255 255
0.642171 0.742663 2.151 255 255 255
0.874332 0.719218 2.253 255 255 255
0.648738 0.592217 2.615 255 255 255
0.450271 0.516323 2.755 255 255 255
0.439965 0.462505 2.925 255 255 255
0.19049 0.725161 2.151 255 255 255
-1.17626 0.335396 2.42 255 255 255
-0.950194 0.294567 2.695 255 255 255
-0.826807 0.449697 2.844 255 255 255
0.649581 0.724128 2.212 255 255 255
1.01005 0.646509 2.42 255 255 255
-0.903832 0.151696 2.898 255 255 255
0.66214 -0.353127 2.939 0 0 0
-0.942111 0.630826 2.347 255 255 255
0.539196 0.774946 2.078 255 255 255
0.731234 0.493287 2.967 255 255 255
1.17937 -0.0719669 2.793 255 255 255
0.775966 0.57034 2.672 255 255 255
-1.10846 -0.676777 2.953 0 0 0
1.19585 0.509751 2.768 255 255 255
-1.20837 -0.383888 2.294 255 255 255
0.322528 0.683975 2.32 255 255 255
1.23466 -0.099664 2.805 255 255 255
1.14303 0.623438 2.469 255 255 255
1.1149 0.623438 2.469 255 255 255
-1.09884 -0.455724 2.953 0 0 0
-1.09509 0.671555 2.253 255 255 255
-0.686302 0.557697 2.593 255 255 255
0.305223 0.543427 2.626 255 255 255
-1.09805 0.31701 2.43 255 255 255
-1.1539 0.37538 2.374 255 255 255
-1.02913 0.620314 2.294 255 255 255
-1.11475 0.253994 2.638 255 255 255
-0.22387 0.597773 2.43 255 255 255
0.67622 -0.24099 2.857 255 255 255
0.0874188 0.750529 2.114 255 255 255
0.737816 -0.121832 2.898 255 255 255
-0.959935 0.666534 2.212 255 255 255
0.753154 0.64918 2.43 255 255 255
-1.0104 0.468316 2.228 255 255 255
0.69052 0.522621 2.695 255 255 255
-0.597435 0.772483 2.01 255 255 255
0.503767 0.712296 2.22 255 255 255
-0.962619 0.415806 2.278 255 255 255
-0.970106 0.409909 2.857 255 255 255
0.794361 0.655875 2.411 255 255 255
1.44627 0.0285377 2.844 255 255 255
-0.859708 0.756071 1.959 255 255 255
-0.0500407 0.699695 2.261 255 255 255
-0.773377 0.216295 2.818 255 255 255
0.221011 0.489177 2.805 255 255 255
-0.999335 0.398585 2.329 255 255 255
1.26839 0.206347 2.871 255 255 255
0.7059 0.618255 2.53 255 255 255
-0.588436 0.469211 2.768 255 255 255
0.380646 0.675258 2.329 255 255 255
-1.20198 0.251783 2.66 255 255 255
-1.12809 -0.311032 2.253 255 255 255
-0.93117 0.709247 2.114 255 255 255
0.443581 0.721969 2.173 255 255 255
-1.32747 0.0621278 2.695 255 255 255
0.711915 0.488459 2.967 255 255 255
0.764337 0.595071 2.519 255 255 255
0.529984 0.467982 2.871 255 255 255
-0.443274 0.498517 2.707 255 255 255
-1.20823 -0.186736 2.743 255 255 255
-0.373896 0.686728 2.196 255 255 255
0.315006 0.730848 2.189 255 255 255
1.006 0.753795 2.173 255 255 255
0.0907844 0.652136 2.383 255 255 255
-0.838299 0.283767 2.805 255 255 255
0.260611 0.644104 2.411 255 255 255
1.22421 0.0927762 2.572 255 255 255
-1.41219 0.176909 2.925 255 255 255
-1.28932 -0.615993 2.707 255 255 255
-1.42651 0.00525287 2.768 255 255 255
-0.413692 0.551587 2.604 255 255 255
1.27084 0.168129 2.707 255 255 255
1.1556 0.265101 2.953 255 255 255
0.305825 0.529353 2.707 255 255 255
-0.854962 0.749954 1.985 255 255 255
-0.900879 0.296969 2.844 255 255 255
-1.08766 0.267671 2.604 255 255 255
0.623536 0.778897 2.044 255 255 255
0.947714 0.791811 2.114 255 255 255
-0.297665 0.763007 2.064 255 255 255
1.24558 0.229957 2.996 255 255 255
1.09117 0.621929 2.479 255 255 255
-0.672019 0.677414 2.189 255 255 255
-0.169072 0.663888 2.329 255 255 255
-1.01603 0.756933 1.953 255 255 255
1.22483 -0.0992377 2.793 255 255 255
0.307422 0.6802 2.32 255 255 255
0.612137 0.657399 2.374 255 255 255
1.21098 0.125177 2.731 255 255 255
-0.125022 0.69062 2.22 255 255 255
1.28701 0.611777 2.572 255 255 255
0.484022 0.711743 2.196 255 255 255
-0.969245 0.70347 2.107 255 255 255
0.903687 0.646509 2.42 255 255 255
0.213515 0.667645 2.411 255 255 255
-0.710935 0.716128 2.114 255 255 255
-1.17393 -0.648348 2.695 0 0 0
0.270887 0.49839 2.755 255 255 255
0.00652818 0.433155 2.857 255 255 255
1.17753 0.696891 2.338 255 255 255
-1.08562 0.682056 2.204 255 255 255
0.654841 0.684296 2.347 255 255 255
1.44358 0.512193 2.857 255 255 255
-0.146248 0.672632 2.269 255 255 255
-0.737404 0.666488 2.236 255 255 255
-0.567199 0.712002 2.143 255 255 255
-0.866986 0.580897 2.459 255 255 255
-0.881063 0.747019 2.085 255 255 255
-0.679072 0.565047 2.55 255 255 255
-0.570579 0.533591 2.684 255 255 255
0.610466 0.693087 2.338 255 255 255
-1.1333 -0.38566 2.499 255 255 255
0.98809 0.142922 2.818 255 255 255
-0.746451 0.651631 2.286 255 255 255
-1.06422 -0.192572 2.898 255 255 255
0.310999 0.6652 2.347 255 255 255
-1.12229 0.465627 2.286 255 255 255
1.01682 0.770666 2.151 255 255 255
-0.726509 0.578146 2.499 255 255 255
1.18992 0.142922 2.818 255 255 255
-0.381065 0.720104 2.136 255 255 255
0.200935 0.696735 2.228 255 255 255
0.982791 -0.245545 2.911 0 0 0
-0.0688012 0.60652 2.402 255 255 255
-1.17246 0.18878 2.818 255 255 255
0.466867 0.637791 2.402 255 255 255
-1.08439 0.53232 2.269 255 255 255
1.17638 0.598245 2.55 255 255 255
-0.833684 0.581588 2.479 255 255 255
-0.507522 0.758701 1.991 255 255 255
1.26086 0.00933784 2.649 255 255 255
-0.449272 0.623187 2.347 255 255 255
1.17482 -0.0674217 2.793 255 255 255
-0.100831 0.57956 2.42 255 255 255
1.01341 0.752221 2.189 255 255 255
-1.23197 0.372925 2.383 255 255 255
-0.402791 0.424425 2.925 255 255 255
-0.261719 0.579883 2.489 255 255 255
-1.04917 -0.106161 2.857 255 255 255
0.798061 0.600875 2.509 255 255 255
-0.666983 0.618766 2.374 255 255 255
-1.26733 -0.653816 2.755 0 0 0
-1.27431 -0.00829628 2.78 255 255 255
0.829083 -0.218811 2.871 255 255 255
-0.958831 0.414819 2.707 255 255 255
0.379192 0.50981 2.793 255 255 255
-0.0768787 0.551062 2.684 255 255 255
-1.25822 0.353766 2.411 255 255 255
-1.29946 0.00958459 2.719 255 255 255
-0.699868 0.380433 2.953 255 255 255
-1.13176 0.5249 2.253 255 255 255
0.123599 0.783473 2.03 255 255 255
0.0810954 0.516138 2.707 255 255 255
-0.94644 0.498875 2.489 255 255 255
-1.10499 0.63867 2.32 255 255 255
-0.566088 0.657644 2.294 255 255 255
-0.288624 0.704288 2.173 255 255 255
-1.15262 0.331458 2.42 255 255 255
1.22818 -0.139492 2.78 255 255 255
-0.948511 0.52094 2.236 255 255 255
-0.0496204 0.607127 2.42 255 255 255
-0.879006 0.554564 2.54 255 255 255
0.938959 0.631998 2.44 255 255 255
0.170725 0.51627 2.731 255 255 255
-1.40102 -0.0128203 2.78 255 255 255
-1.33937 0.237102 2.793 255 255 255
-1.4138 -0.156513 2.684 255 255 255
1.16284 0.717374 2.294 255 255 255
-0.960441 0.354483 2.898 255 255 255
0.977935 0.62288 2.499 255 255 255
0.0164389 0.40155 2.967 255 255 255
0.0551412 0.502937 2.731 255 255 255
-1.45377 -0.752411 2.857 0 0 0
0.413101 0.693835 2.278 255 255 255
-1.05115 0.580322 2.269 255 255 255
-0.92183 0.660472 2.278 255 255 255
0.93834 0.798617 2.078 255 255 255
0.589015 0.747912 2.136 255 255 255
0.828116 0.73441 2.189 255 255 255
1.19681 0.522851 2.719 255 255 255
0.0204801 0.428506 2.857 255 255 255
-1.05083 0.33543 2.449 255 255 255
-1.15212 -0.361166 2.78 255 255 255
-1.09664 -0.65627 2.884 255 255 255
-0.692553 0.440441 2.844 255 255 255
0.464406 0.754902 2.107 255 255 255
0.14654 0.531392 2.695 255 255 255
0.826515 0.544549 2.695 255 255 255
-0.931349 0.466858 2.204 255 255 255
0.810365 0.713248 2.269 255 255 255
0.339655 0.529602 2.731 255 255 255
-1.0761 -0.0851446 2.638 255 255 255
0.626213 0.0398139 2.996 255 255 255
0.836221 0.645226 2.43 255 255 255
-1.0502 0.34721 2.42 255 255 255
-0.0660627 0.765595 2.071 255 255 255
-0.273377 0.477686 2.818 255 255 255
-0.150666 0.49839 2.755 255 255 255
0.664288 0.753015 2.121 255 255 255
-1.05799 -0.558654 2.604 255 255 255
0.840796 0.010561 2.996 255 255 255
1.27335 0.0388422 2.604 255 255 255
-0.688807 0.738372 2.099 255 255 255
-1.2643 -0.233483 2.768 255 255 255
0.158338 0.54425 2.672 255 255 255
0.465945 0.713329 2.212 255 255 255
-1.13498 -0.44252 2.898 0 0 0
-0.862203 0.757879 1.972 255 255 255
-1.20936 -0.374151 2.303 255 255 255
0.767907 0.509787 2.818 255 255 255
-1.05828 0.190522 2.844 255 255 255
-0.216037 0.511825 2.731 255 255 255
1.41567 -0.1759 2.857 255 255 255
0.0191845 0.717529 2.181 255 255 255
-0.736602 0.51612 2.684 255 255 255
-0.979654 0.735263 2.071 255 255 255
-0.932277 0.39076 2.55 255 255 255
0.433538 0.713329 2.212 255 255 255
0.549969 0.660083 2.356 255 255 255
0.836917 0.763369 2.121 255 255 255
-0.679038 0.227732 2.967 255 255 255
-0.770809 0.734957 2.099 255 255 255
-0.255029 0.477686 2.818 255 255 255
-1.06731 0.399438 2.312 255 255 255
0.524422 0.609041 2.509 255 255 255
1.28394 -0.158324 2.793 0 0 0
0.887621 0.58125 2.604 255 255 255
-1.05481 0.497329 2.261 255 255 255
1.40392 0.519375 2.871 255 255 255
1.23222 0.0582564 2.719 255 255 255
-0.984144 0.623569 2.32 255 255 255
0.109347 0.666453 2.365 255 255 255
1.20275 0.474284 2.939 255 255 255
0.373064 0.679048 2.329 255 255 255
1.05673 0.798617 2.078 255 255 255
-1.11709 0.510235 2.253 255 255 255
-0.929246 0.44917 2.278 255 255 255
-1.12476 -0.329742 2.672 255 255 255
0.306905 0.572775 2.604 255 255 255
-1.06864 -0.56502 2.695 255 255 255
-0.617051 0.419665 2.925 0 0 0
-1.12802 -0.0811888 2.649 255 255 255
0.840158 0.589945 2.55 255 255 255
0.23511 0.686421 2.278 255 255 255
-0.934692 0.441977 2.338 255 255 255
0.234975 0.645226 2.43 255 255 255
-0.1147 0.66772 2.303 255 255 255
-0.665666 0.600233 2.44 255 255 255
1.23321 0.156287 2.731 255 255 255
-0.915674 0.535999 2.55 255 255 255
0.0230021 0.549662 2.615 255 255 255
-0.4037 0.505246 2.768 255 255 255
0.44148 0.597724 2.479 255 255 255
-0.18248 0.540164 2.695 255 255 255
-0.952974 0.484133 2.561 255 255 255
-0.981576 0.481205 2.204 255 255 255
1.17666 -0.241828 2.982 0 0 0
-0.43077 0.524856 2.684 255 255 255
0.106977 0.592034 2.489 255 255 255
-1.07741 0.0928274 2.695 255 255 255
-0.0417672 0.77623 2.037 255 255 255
-1.21814 -0.256698 2.593 255 255 255
-0.225679 0.761539 2.051 255 255 255
0.0890118 0.768965 2.071 255 255 255
0.545067 0.622156 2.402 255 255 255
1.11505 0.548153 2.78 255 255 255
0.493211 0.727521 2.158 255 255 255
0.553746 0.589945 2.55 255 255 255
-0.625013 0.634645 2.347 255 255 255
1.15394 0.530567 2.831 255 255 255
-1.17562 0.566531 2.303 255 255 255
0.700062 0.795529 2.044 255 255 255
0.556671 0.699077 2.32 255 255 255
-0.367335 0.751275 2.078 255 255 255
-0.471037 0.557697 2.593 255 255 255
0.243216 0.539565 2.649 255 255 255
-1.39855 -0.0881463 2.731 255 255 255
0.400935 0.474795 2.884 255 255 255
-0.175253 0.518426 2.719 255 255 255
0.598213 0.699077 2.32 255 255 255
-1.18661 -0.488462 2.684 255 255 255
-0.495892 0.75629 2.064 255 255 255
1.2352 0.0642675 2.604 255 255 255
1.43701 0.176638 2.844 0 0 0
0.874935 0.249459 2.996 255 255 255
0.00192223 0.410145 2.925 255 255 255
-1.37471 -0.733813 2.857 0 0 0
-0.970494 0.415393 2.831 255 255 255
0.600961 0.781157 2.024 255 255 255
1.27796 -0.130444 2.78 255 255 255
1.14128 0.507544 2.857 255 255 255
-1.17406 0.322285 2.44 255 255 255
-1.12831 0.0052282 2.755 255 255 255
0.0641993 0.739901 2.143 255 255 255
-0.0483081 0.652415 2.356 255 255 255
-1.21906 -0.550179 2.604 255 255 255
0.643499 0.78555 2.044 255 255 255
-0.114025 0.753805 2.085 255 255 255
-1.06822 -0.468886 2.672 255 255 255
-0.181523 0.699989 2.204 255 255 255
1.26005 0.0336323 2.884 255 255 255
0.95564 0.734927 2.212 255 255 255
-1.2643 -0.679423 2.768 0 0 0
-0.575468 0.502922 2.707 255 255 255
-0.623007 0.520488 2.684 255 255 255
0.490632 0.49839 2.755 255 255 255
-0.454604 0.641936 2.278 255 255 255
-0.998144 0.065263 2.831 255 255 255
0.754963 0.713248 2.269 255 255 255
-0.466611 0.750529 2.114 255 255 255
0.174189 0.716119 2.166 255 255 255
-0.851997 0.274638 2.805 255 255 255
-0.314088 0.548935 2.695 255 255 255
-1.176 -0.440808 2.66 255 255 255
0.863073 -0.056598 2.939 255 255 255
-0.409375 0.467982 2.871 255 255 255
-0.192984 0.691731 2.212 255 255 255
-0.607853 0.564732 2.53 255 255 255
0.722741 0.51876 2.768 255 255 255
0.416566 0.59848 2.499 255 255 255
0.129964 0.556248 2.626 255 255 255
0.427205 0.691242 2.294 255 255 255
0.860456 0.71743 2.236 255 255 255
1.0835 0.173797 2.953 255 255 255
1.16108 0.290499 2.967 255 255 255
-0.472126 0.682056 2.204 255 255 255
-0.533376 0.560045 2.509 255 255 255
0.867391 0.752037 2.128 255 255 255
1.2345 0.00511434 2.695 255 255 255
0.67327 -0.142007 2.925 255 255 255
-1.00979 -0.211104 1.941 255 255 255
0.416809 0.690128 2.278 255 255 255
0.755982 0.718092 2.261 255 255 255
-1.23276 -0.0352871 2.768 255 255 255
-1.43386 0.218696 2.911 255 255 255
-1.08795 -0.528283 2.755 255 255 255
0.940663 0.137548 2.898 255 255 255
-0.769845 0.15124 2.982 255 255 255
-0.930312 0.477275 2.236 255 255 255
1.21024 0.0718444 2.911 255 255 255
0.78278 -0.0753681 2.925 255 255 255
-1.04597 0.024826 2.953 255 255 255
-0.989293 0.146199 2.793 255 255 255
-0.934285 0.539379 2.489 255 255 255
1.24318 0.208418 2.967 255 255 255
1.24571 0.552947 2.672 255 255 255
-0.103339 0.694233 2.22 255 255 255
0.906887 0.516485 2.78 255 255 255
0.714809 -0.267662 2.844 255 255 255
1.29019 0.221852 2.953 255 255 255
0.00181051 0.48494 2.755 255 255 255
-0.549578 0.444622 2.871 255 255 255
0.367281 0.643361 2.365 255 255 255
-0.0347906 0.778456 2.017 255 255 255
-1.09635 -0.216159 2.114 255 255 255
-1.11002 0.662902 2.261 255 255 255
-0.195525 0.638083 2.374 255 255 255
0.0286177 0.766549 2.092 255 255 255
0.279197 0.768617 2.107 255 255 255
-1.29065 0.284088 2.561 255 255 255
-0.910839 0.627967 2.365 255 255 255
-1.09984 -0.0256991 2.707 255 255 255
0.967319 0.55543 2.684 255 255 255
0.346025 0.479648 2.857 255 255 255
0.81695 0.665126 2.374 255 255 255
0.578043 0.462505 2.925 255 255 255
-0.970186 0.327821 2.871 255 255 255
-0.137428 0.557295 2.672 255 255 255
-1.10502 -0.308686 2.236 255 255 255
-0.00274786 0.456855 2.831 255 255 255
-0.706757 0.475974 2.755 255 255 255
-0.582972 0.672524 2.244 255 255 255
0.697076 0.500584 2.925 255 255 255
0.803707 -0.169692 2.831 255 255 255
-1.48837 -0.851238 2.925 0 0 0
0.77328 0.623438 2.469 255 255 255
0.843104 0.496015 2.871 255 255 255
-0.260839 0.746123 2.092 255 255 255
-1.11403 -0.261471 2.731 255 255 255
-0.468326 0.679782 2.22 255 255 255
-0.872265 0.668927 2.173 255 255 255
-1.02587 0.209034 2.844 255 255 255
-1.3494 0.0358139 2.695 255 255 255
-0.0906923 0.415226 2.996 255 255 255
-1.22375 -0.219969 2.768 255 255 255
1.20847 0.044048 2.953 255 255 255
-1.37632 0.0185154 2.731 255 255 255
1.10179 0.0721899 2.925 255 255 255
-0.738508 0.498517 2.707 255 255 255
0.98794 0.736617 2.228 255 255 255
0.89186 0.58125 2.604 255 255 255
1.12745 0.55219 2.755 255 255 255
-1.10796 -0.237836 2.22 255 255 255
-0.623522 0.72195 2.121 255 255 255
-0.949084 0.607177 2.374 255 255 255
-0.309925 0.603995 2.392 255 255 255
-1.16198 -0.591706 2.638 0 0 0
0.200196 0.64391 2.44 255 255 255
-1.06899 -0.118208 2.707 255 255 255
0.242559 0.783473 2.03 255 255 255
0.0887459 0.531206 2.672 255 255 255
-0.989495 0.687435 2.121 255 255 255
-0.922388 0.373957 2.365 255 255 255
-0.432435 0.583259 2.469 255 255 255
-1.10839 -0.543635 2.593 255 255 255
-1.23668 -0.705453 2.818 255 255 255
0.164358 0.602546 2.499 255 255 255
0.946565 0.171223 2.831 255 255 255
1.2511 0.12518 2.55 255 255 255
-1.35111 -0.151026 2.743 255 255 255
-0.89907 0.544299 2.55 255 255 255
-0.717859 0.60652 2.402 255 255 255
-0.769435 0.726448 2.114 255 255 255
-1.19737 0.273492 2.54 255 255 255
0.791696 -0.167418 2.871 255 255 255
-1.03962 0.231114 2.831 255 255 255
-0.514159 0.750438 2.03 255 255 255
0.645568 0.710734 2.261 255 255 255
0.465364 0.743388 2.143 255 255 255
-0.606259 0.718499 2.121 255 255 255
-0.901082 0.608793 2.411 255 255 255
1.18702 0.111844 2.844 255 255 255
0.738381 0.0446894 2.996 255 255 255
-0.272482 0.658844 2.338 255 255 255
-0.331453 0.463581 2.844 255 255 255
-0.462943 0.487453 2.719 255 255 255
0.774393 0.780167 2.092 255 255 255
-0.9399 0.504736 2.42 255 255 255
-0.641782 0.35672 2.996 255 255 255
-0.925575 0.45478 2.269 255 255 255
-0.851024 0.375022 2.911 255 255 255
1.37841 0.488459 2.967 255 255 255
-0.220823 0.759656 2.037 255 255 255
-1.43326 -0.00373838 2.755 255 255 255
-0.561557 0.691663 2.189 255 255 255
-0.970813 0.491965 2.204 255 255 255
-0.565803 0.734957 2.099 255 255 255
0.462091 0.540549 2.719 255 255 255
-1.3592 -0.702706 2.844 255 255 255
-1.04183 0.37538 2.374 255 255 255
0.94538 0.189424 2.898 255 255 255
-1.2812 0.238121 2.805 255 255 255
0.892759 0.488714 2.911 255 255 255
-1.14057 0.271586 2.561 255 255 255
-0.967644 0.392793 2.707 255 255 255
-0.98421 0.176638 2.844 255 255 255
-0.723084 0.204485 2.911 255 255 255
0.726558 0.732578 2.173 255 255 255
0.060394 0.487229 2.768 255 255 255
0.239088 0.666276 2.392 255 255 255
-0.956179 0.502761 2.22 255 255 255
-1.11993 0.657917 2.244 255 255 255
-1.13703 -0.63127 2.66 255 255 255
1.07976 -0.0235673 2.996 255 255 255
0.657173 0.539565 2.649 255 255 255
-0.770845 0.759399 2.01 255 255 255
0.236365 0.518426 2.719 255 255 255
-0.521385 0.745204 2.099 255 255 255
-1.11395 -0.477907 2.626 255 255 255
0.688881 -0.232827 2.871 255 255 255
-1.09529 0.515726 2.261 255 255 255
-0.602117 0.588321 2.44 255 255 255
-0.576727 0.535554 2.672 255 255 255
0.739785 -0.382557 2.982 0 0 0
-0.506518 0.645643 2.278 255 255 255
1.15079 0.269907 2.953 255 255 255
1.14535 0.533003 2.844 255 255 255
-0.839144 0.741788 2.099 255 255 255
0.714121 0.670169 2.392 255 255 255
1.0897 0.772244 2.136 255 255 255
0.335156 0.721078 2.181 255 255 255
0.0160285 0.695598 2.236 255 255 255
0.638219 0.479067 2.939 255 255 255
-0.263171 0.757072 2.057 255 255 255
1.13799 0.498261 2.884 255 255 255
1.36597 0.466665 2.982 255 255 255
-1.06618 0.279199 2.593 255 255 255
-1.2695 0.323402 2.479 255 255 255
-1.0144 0.642224 2.253 255 255 255
-1.08943 -0.48766 2.805 255 255 255
-0.755537 0.700752 2.173 255 255 255
-1.27663 0.233556 2.805 255 255 255
-0.742127 0.61178 2.392 255 255 255
-1.21385 0.296354 2.489 255 255 255
-0.778576 0.178315 2.871 255 255 255
0.750589 0.789878 2.064 255 255 255
-1.16851 -0.321339 2.911 255 255 255
0.797395 0.627456 2.469 255 255 255
0.667804 0.737268 2.166 255 255 255
0.636107 0.500606 2.844 255 255 255
0.449374 0.685379 2.312 255 255 255
-0.674208 0.377408 2.967 255 255 255
0.954815 -0.282176 2.898 0 0 0
-0.949916 0.571336 2.338 255 255 255
0.551162 -0.304279 2.884 255 255 255
0.873246 0.119789 2.925 255 255 255
-1.38744 0.140995 2.78 255 255 255
0.526625 0.742663 2.151 255 255 255
0.866896 -0.217744 2.857 255 255 255
-1.16796 0.345919 2.411 255 255 255
0.311144 0.589725 2.604 255 255 255
0.814202 0.75385 2.143 255 255 255
-0.88445 0.597773 2.43 255 255 255
0.290286 0.654907 2.365 255 255 255
-1.18337 0.287628 2.519 255 255 255
0.417904 0.608908 2.459 255 255 255
0.486624 0.666453 2.365 255 255 255
0.568562 0.769114 2.099 255 255 255
1.276 0.0712342 2.55 255 255 255
1.09333 0.633362 2.43 255 255 255
0.266912 0.675258 2.329 255 255 255
-1.06194 -0.274642 2.114 255 255 255
-0.447441 0.728854 2.121 255 255 255
1.06815 0.778051 2.114 255 255 255
-0.0604514 0.780486 1.997 255 255 255
0.588719 -0.39345 2.884 0 0 0
0.823722 -0.117923 2.805 255 255 255
-0.962647 0.296354 2.489 255 255 255
-0.701887 0.267704 2.982 255 255 255
1.0637 -0.0991678 2.925 255 255 255
0.869237 0.789609 2.099 255 255 255
-1.16888 -0.318453 2.615 255 255 255
1.15238 0.146387 2.982 255 255 255
0.447941 0.713329 2.212 255 255 255
0.809501 -0.258699 2.953 255 255 255
0.881565 0.730848 2.189 255 255 255
-1.02408 0.692046 2.114 255 255 255
1.01789 0.67415 2.365 255 255 255
-1.1373 -0.0232291 2.953 255 255 255
-0.427296 0.769212 2.01 255 255 255
-0.217576 0.535778 2.695 255 255 255
0.818814 0.727728 2.212 255 255 255
-0.190809 0.468515 2.818 255 255 255
-0.660146 0.440441 2.844 255 255 255
0.652277 0.736114 2.173 255 255 255
-1.10141 0.331458 2.42 255 255 255
-1.30827 0.153497 2.844 255 255 255
1.17002 0.135352 2.953 255 255 255
-0.392835 0.507357 2.755 255 255 255
0.483509 0.581201 2.53 255 255 255
-0.182891 0.662805 2.312 255 255 255
-0.708459 0.642446 2.32 255 255 255
-1.00321 0.718888 2.092 255 255 255
-0.288676 0.671355 2.228 255 255 255
-1.20231 -0.481563 2.449 255 255 255
0.196531 0.522851 2.719 255 255 255
0.740384 0.509787 2.818 255 255 255
-0.871796 0.626493 2.374 255 255 255
0.854294 0.650706 2.392 255 255 255
1.06814 0.56019 2.707 255 255 255
-0.218357 0.656308 2.329 255 255 255
0.767297 0.792804 2.037 255 255 255
0.357387 0.6417 2.402 255 255 255
0.263037 0.757338 2.143 255 255 255
-0.935049 0.427248 2.32 255 255 255
-0.0602621 0.426457 2.939 255 255 255
-0.91355 0.376237 2.884 255 255 255
-0.788361 0.684681 2.236 255 255 255
0.774442 0.676716 2.374 255 255 255
1.2454 0.622373 2.53 255 255 255
-1.06596 -0.341963 2.42 255 255 255
-1.19901 0.0190171 2.805 255 255 255
1.21569 0.177445 2.857 255 255 255
0.801112 0.754864 2.136 255 255 255
-0.424043 0.472838 2.844 255 255 255
-0.674283 0.720614 2.107 255 255 255
-1.05747 -0.0859701 2.805 255 255 255
1.24212 0.466932 2.953 255 255 255
-1.07661 0.379243 2.374 255 255 255
-0.699764 0.754864 2.051 255 255 255
0.0151978 0.496219 2.743 255 255 255
-0.135807 0.741187 2.107 255 255 255
-1.40905 -0.688505 2.805 0 0 0
-1.24361 -0.445317 2.383 0 0 0
-0.516145 0.496219 2.743 255 255 255
1.24309 0.000741667 2.743 255 255 255
-0.61233 0.545911 2.638 255 255 255
-0.0629361 0.589656 2.479 255 255 255
-0.686221 0.450172 2.818 255 255 255
0.391677 0.757198 2.085 255 255 255
-0.985139 0.432556 2.212 255 255 255
-1.35882 -0.0448881 2.805 255 255 255
-1.10553 0.0230605 2.743 255 255 255
-0.420744 0.662849 2.236 255 255 255
-1.07757 0.48624 2.278 255 255 255
-0.156658 0.727521 2.158 255 255 255
-1.38393 -0.0575379 2.755 255 255 255
0.521313 0.734545 2.158 255 255 255
-0.0026508 0.502937 2.731 255 255 255
1.27615 0.200691 2.857 255 255 255
1.05704 0.793784 2.092 255 255 255
-0.853936 0.713152 2.136 255 255 255
1.27011 0.0871441 2.53 255 255 255
-1.14822 0.649601 2.228 255 255 255
0.711915 -0.4434 2.967 0 0 0
0.462951 0.763984 2.085 255 255 255
0.187052 0.672852 2.374 255 255 255
-0.992782 0.677128 2.143 255 255 255
-0.944253 0.561711 2.411 255 255 255
0.562767 0.781738 2.017 255 255 255
-1.18356 0.0976459 2.707 255 255 255
1.10753 -0.0616731 2.953 255 255 255
1.06738 0.57034 2.672 255 255 255
0.448576 0.617545 2.43 255 255 255
-0.942468 0.391005 2.329 255 255 255
0.937872 0.155957 2.805 255 255 255
-0.248044 0.741788 2.099 255 255 255
0.264137 0.670258 2.338 255 255 255
-1.1999 0.264381 2.572 255 255 255
-0.178702 0.652415 2.356 255 255 255
0.0194909 0.509576 2.719 255 255 255
-0.67882 0.432556 2.884 255 255 255
0.818008 0.529773 2.755 255 255 255
-1.09493 0.394027 2.347 255 255 255
-1.10215 -0.292418 2.649 255 255 255
-1.04473 0.695486 2.114 255 255 255
0.709546 0.559798 2.684 255 255 255
-0.599126 0.47149 2.755 255 255 255
0.928964 0.725451 2.261 255 255 255
1.07756 0.498188 2.911 255 255 255
1.05418 0.06743 2.925 255 255 255
0.58232 -0.164956 2.996 0 0 0
-0.358629 0.641148 2.329 255 255 255
-0.565121 0.691663 2.189 255 255 255
-1.19287 -0.281968 2.996 255 255 255
-1.31218 -0.214453 2.755 0 0 0
-0.309987 0.664179 2.278 255 255 255
-1.13005 -0.562892 2.604 255 255 255
1.26608 0.0509213 2.572 255 255 255
0.831043 0.483482 2.996 255 255 255
-0.182917 0.491733 2.768 255 255 255
0.194376 0.607369 2.519 255 255 255
0.670109 0.569741 2.649 255 255 255
-0.293242 0.62499 2.383 255 255 255
-1.18224 -0.108468 2.684 255 255 255
-0.706118 0.359499 2.939 255 255 255
-0.933285 0.107216 2.844 255 255 255
0.403615 0.586664 2.572 255 255 255
-0.477267 0.671355 2.228 255 255 255
-1.03091 0.0430187 2.884 255 255 255
1.07696 -0.121244 2.884 255 255 255
0.55556 0.778227 2.051 255 255 255
0.294309 0.637317 2.43 255 255 255
-0.496317 0.545407 2.615 255 255 255
-1.38355 0.0980787 2.719 255 255 255
0.2734 0.535255 2.649 255 255 255
-0.675921 0.190954 2.996 255 255 255
1.04062 0.780627 2.121 255 255 255
-0.874571 0.534881 2.626 255 255 255
1.21056 0.617207 2.509 255 255 255
1.29857 0.0221777 2.638 255 255 255
-0.623653 0.651631 2.286 255 255 255
0.873497 0.694209 2.329 255 255 255
0.547926 0.737268 2.166 255 255 255
0.0374879 0.590491 2.449 255 255 255
0.326852 0.750259 2.173 255 255 255
0.208644 0.671585 2.356 255 255 255
-1.40549 -0.813781 2.844 0 0 0
0.947614 0.521009 2.78 255 255 255
-0.838288 0.612716 2.411 255 255 255
0.825041 -0.208445 2.857 255 255 255
0.704243 -0.457485 2.996 0 0 0
0.605324 0.616115 2.44 255 255 255
0.85557 0.786193 2.099 255 255 255
-1.23585 0.376803 2.383 255 255 255
1.12326 0.267704 2.982 255 255 255
-0.990097 0.756341 2.037 255 255 255
0.60473 -0.243124 2.939 255 255 255
0.840177 0.645226 2.43 255 255 255
-1.02365 0.704215 2.099 255 255 255
-0.530963 0.642446 2.32 255 255 255
-0.864817 0.570013 2.499 255 255 255
0.475433 0.791578 2.051 255 255 255
0.158772 0.49839 2.755 255 255 255
-1.1352 0.408371 2.32 255 255 255
0.803086 0.686921 2.356 255 255 255
0.521922 0.520714 2.731 255 255 255
0.0492656 0.596262 2.44 255 255 255
0.885712 0.569741 2.649 255 255 255
-0.366402 0.768609 2.017 255 255 255
-1.40086 0.158125 2.844 255 255 255
1.15079 0.0200205 2.953 255 255 255
-0.660528 0.469211 2.768 255 255 255
-0.247625 0.627351 2.392 255 255 255
-1.35576 -0.220923 2.78 255 255 255
-1.20799 -0.554827 2.626 255 255 255
-0.817782 0.599251 2.42 255 255 255
0.145443 0.720497 2.158 255 255 255
0.10349 0.6802 2.32 255 255 255
0.558998 -0.375244 2.925 0 0 0
0.851118 -0.117923 2.805 255 255 255
-0.32852 0.498389 2.78 255 255 255
1.04074 -0.0865422 2.982 255 255 255
0.366329 0.529602 2.731 255 255 255
-0.942111 0.554439 2.347 255 255 255
-1.17975 -0.27182 2.939 255 255 255
-0.645981 0.604869 2.411 255 255 255
-1.13819 0.682037 2.181 255 255 255
0.414808 0.741788 2.099 255 255 255
1.22082 0.00555081 2.925 255 255 255
0.00638194 0.473449 2.793 255 255 255
-1.25962 0.244094 2.719 255 255 255
-0.819614 0.494281 2.684 255 255 255
-0.988051 0.582983 2.294 255 255 255
-0.387666 0.690144 2.173 255 255 255
-0.939556 0.359372 2.593 255 255 255
-0.65369 0.662849 2.236 255 255 255
0.764818 -0.174488 2.911 255 255 255
-0.767936 0.756341 2.037 255 255 255
1.0838 0.184277 2.967 255 255 255
-0.0244599 0.693835 2.278 255 255 255
1.27119 0.507435 2.805 255 255 255
-0.147385 0.540164 2.695 255 255 255
-0.0378792 0.542569 2.707 255 255 255
1.22854 0.0690839 2.626 255 255 255
1.30601 -0.197334 2.831 0 0 0
1.0658 0.769662 2.158 255 255 255
0.873757 0.714413 2.261 255 255 255
0.188975 0.638315 2.449 255 255 255
0.784324 0.700429 2.312 255 255 255
-1.33909 0.121794 2.755 255 255 255
-1.41289 -0.717921 2.831 0 0 0
0.211301 0.747089 2.114 255 255 255
1.06831 0.630607 2.53 255 255 255
1.10272 -0.0232291 2.953 255 255 255
1.48501 0.479067 2.939 255 255 255
0.398268 0.690128 2.278 255 255 255
-1.11682 -0.0175002 2.805 255 255 255
0.690853 0.51627 2.731 255 255 255
-0.0477611 0.720497 2.158 255 255 255
1.38701 0.468856 2.996 255 255 255
0.89367 0.738056 2.158 255 255 255
-1.1395 0.106456 2.707 255 255 255
0.124857 0.751473 2.107 255 255 255
-0.828929 0.74822 2.024 255 255 255
-0.756177 0.191393 2.857 255 255 255
-0.220798 0.44608 2.911 255 255 255
0.915253 0.0969085 2.953 255 255 255
-0.293755 0.648581 2.356 255 255 255
0.256061 0.75385 2.143 255 255 255
-0.470504 0.581588 2.479 255 255 255
-1.08943 -0.460272 2.805 255 255 255
-1.04535 -0.140696 2.898 255 255 255
-0.975631 0.68882 2.136 255 255 255
-1.06833 -0.302908 2.871 255 255 255
-1.2522 0.362656 2.392 255 255 255
-0.356012 0.651518 2.312 255 255 255
-0.877605 0.639821 2.338 255 255 255
1.15664 0.532535 2.793 255 255 255
-0.83763 0.456045 2.743 255 255 255
-0.585426 0.526857 2.672 255 255 255
-0.768238 0.73591 2.092 255 255 255
0.946678 0.726032 2.286 255 255 255
-0.634034 0.636016 2.338 255 255 255
0.980319 0.580764 2.66 255 255 255
1.21543 0.125177 2.731 255 255 255
-1.24616 0.3434 2.449 255 255 255
-0.184796 0.568538 2.604 255 255 255
-0.528882 0.526857 2.672 255 255 255
-1.23026 0.232557 2.793 255 255 255
-1.08989 0.628943 2.312 255 255 255
1.07315 0.734613 2.278 255 255 255
0.764818 -0.245545 2.911 255 255 255
-0.278274 0.520714 2.731 255 255 255
-0.431034 0.770737 1.997 255 255 255
1.01894 0.604113 2.593 255 255 255
1.23956 -0.012705 2.755 255 255 255
0.622447 0.523002 2.743 255 255 255
1.50399 0.469146 2.967 255 255 255
0.406518 0.623458 2.392 255 255 255
-1.30598 -0.0399641 2.78 255 255 255
-0.62213 0.557366 2.572 255 255 255
-0.669419 0.557697 2.593 255 255 255
-0.134224 0.535778 2.695 255 255 255
-0.57581 0.688101 2.189 255 255 255
-1.02475 -0.290974 2.212 255 255 255
0.736259 0.51876 2.768 255 255 255
0.15732 0.666276 2.392 255 255 255
1.11278 0.0201154 2.967 255 255 255
-1.24876 -0.46916 2.649 255 255 255
1.23035 0.00555081 2.925 255 255 255
-1.32115 0.242843 2.755 255 255 255
1.19541 0.106726 2.831 255 255 255
-0.298298 0.73591 2.092 255 255 255
-0.585565 0.749711 2.037 255 255 255
-1.13105 -0.298426 2.626 255 255 255
-0.900649 0.7309 2.107 255 255 255
1.38538 0.486076 2.982 255 255 255
-1.08885 -0.664003 2.939 0 0 0
0.608217 0.511961 2.78 255 255 255
-1.06751 -0.0894375 2.638 255 255 255
-1.08499 0.475119 2.278 255 255 255
0.960693 0.705579 2.329 255 255 255
-0.741174 0.557697 2.593 255 255 255
-0.690254 0.375628 2.953 255 255 255
0.466779 0.787199 2.057 255 255 255
-1.26353 -0.445722 2.54 255 255 255
0.121677 0.475283 2.831 255 255 255
0.962719 0.103195 2.996 255 255 255
-1.37006 -0.766358 2.857 255 255 255
-1.37913 0.0317081 2.719 255 255 255
-1.05898 -0.0879929 2.871 255 255 255
0.229534 0.763145 2.092 255 255 255
0.381224 0.656249 2.356 255 255 255
-0.651756 0.630826 2.347 255 255 255
-0.495377 0.655543 2.261 255 255 255
1.03895 0.626947 2.499 255 255 255
-0.468156 0.735757 2.121 255 255 255
-1.04684 0.33543 2.449 255 255 255
-0.920444 0.711596 2.121 255 255 255
0.498202 0.676658 2.347 255 255 255
0.942438 0.137698 2.805 255 255 255
0.756898 0.707432 2.286 255 255 255
-0.546872 0.633245 2.356 255 255 255
0.864858 0.571668 2.638 255 255 255
-1.20563 -0.57693 2.649 255 255 255
-0.189035 0.568538 2.604 255 255 255
0.0733025 0.785567 2.01 255 255 255
0.121427 0.744615 2.107 255 255 255
-1.40349 0.213247 2.967 255 255 255
0.0504333 0.732162 2.151 255 255 255
0.861649 0.693087 2.338 255 255 255
-0.025684 0.635136 2.392 255 255 255
-0.632531 0.545407 2.615 255 255 255
-0.126009 0.520543 2.707 255 255 255
1.14534 0.488632 2.939 255 255 255
-0.617065 0.475974 2.755 255 255 255
-0.436063 0.638229 2.278 255 255 255
1.15394 -0.072946 2.831 255 255 255
0.289477 0.522851 2.719 255 255 255
-0.903233 0.448625 2.78 255 255 255
-1.15783 -0.0390872 2.719 255 255 255
1.19113 0.677999 2.365 255 255 255
-0.577976 0.671555 2.253 255 255 255
-0.72525 0.750377 2.057 255 255 255
-0.315408 0.688131 2.212 255 255 255
-0.940329 0.475394 2.411 255 255 255
-0.272454 0.58435 2.44 255 255 255
0.540314 -0.330781 2.953 255 255 255
-0.366817 0.726448 2.114 255 255 255
1.20556 0.0957551 2.78 255 255 255
0.111444 0.527007 2.695 255 255 255
-0.937787 0.620269 2.365 255 255 255
0.98753 -0.240808 2.911 0 0 0
-0.979274 0.193202 2.884 255 255 255
0.40267 0.741187 2.107 255 255 255
0.646313 0.697702 2.303 255 255 255
0.358082 0.748044 2.107 255 255 255
-0.31848 0.716628 2.136 255 255 255
-1.05589 0.752197 2.017 255 255 255
-0.446695 0.596903 2.459 255 255 255
-0.114806 0.597845 2.383 255 255 255
-0.880146 0.592291 2.44 255 255 255
-0.799986 0.203472 2.831 255 255 255
1.12142 0.096449 2.939 255 255 255
0.240987 0.655875 2.411 255 255 255
1.43892 0.512193 2.857 255 255 255
-1.10301 0.700041 2.107 255 255 255
-1.15616 0.23498 2.768 255 255 255
-0.443363 0.54735 2.604 255 255 255
-1.41981 0.00971149 2.755 255 255 255
1.22831 0.0876869 2.672 255 255 255
-0.577194 0.549662 2.615 255 255 255
-0.581188 0.475974 2.755 255 255 255
0.319467 0.708683 2.22 255 255 255
-1.1476 -0.34307 2.78 255 255 255
0.720369 0.0347751 2.982 255 255 255
-0.946379 0.40082 2.32 255 255 255
0.264313 0.775705 2.071 255 255 255
0.25519 0.507381 2.731 255 255 255
-0.938039 0.415478 2.499 255 255 255
0.924864 0.724326 2.269 255 255 255
0.131864 0.502873 2.755 255 255 255
0.612192 -0.426303 2.884 0 0 0
-0.340635 0.698788 2.189 255 255 255
0.55207 0.64721 2.365 255 255 255
0.589446 0.699992 2.286 255 255 255
0.51097 0.496237 2.768 255 255 255
-1.16998 -0.213313 2.228 255 255 255
-1.21164 0.622198 2.329 255 255 255
-1.01134 0.284088 2.561 255 255 255
1.2625 -0.279238 2.967 0 0 0
-1.14276 0.63867 2.32 255 255 255
-1.19794 0.270419 2.55 255 255 255
1.17233 0.090793 2.911 255 255 255
0.198171 0.477326 2.871 255 255 255
1.18992 0.486858 2.818 255 255 255
-1.07097 -0.48016 2.615 255 255 255
-1.357 -0.087759 2.719 255 255 255
-1.03901 0.0502973 2.768 255 255 255
0.839376 0.694209 2.329 255 255 255
1.04916 0.500679 2.898 255 255 255
-1.23892 -0.405002 2.374 255 255 255
-0.456502 0.646785 2.269 255 255 255
-1.05058 0.352599 2.43 255 255 255
-1.16272 0.645975 2.228 255 255 255
-0.90044 0.643625 2.338 255 255 255
1.23011 0.145455 2.695 255 255 255
-0.8442 0.749711 2.037 255 255 255
-0.582292 0.43995 2.871 255 255 255
1.324 0.0181154 2.672 255 255 255
-0.272998 0.734329 2.107 255 255 255
0.0846078 0.683975 2.32 255 255 255
-0.812919 0.232175 2.844 255 255 255
-1.38185 0.0447837 2.707 255 255 255
0.505755 0.682838 2.329 255 255 255
0.259312 0.77077 2.085 255 255 255
-0.20091 0.687007 2.22 255 255 255
-0.573616 0.420507 2.898 0 0 0
-0.969389 0.0769499 2.925 255 255 255
0.367147 0.694786 2.269 255 255 255
0.259081 0.783473 2.03 255 255 255
-1.11934 0.0186781 2.755 255 255 255
-0.950642 0.564983 2.312 255 255 255
0.562813 -0.208835 2.996 0 0 0
-1.1014 0.0141948 2.755 255 255 255
0.516825 0.694975 2.294 255 255 255
1.40846 0.512546 2.939 255 255 255
0.0710275 0.533149 2.66 255 255 255
0.447193 0.798855 2.044 255 255 255
-0.79932 0.465329 2.719 255 255 255
1.00932 0.803272 2.099 255 255 255
-0.0355844 0.690128 2.278 255 255 255
0.286971 0.781738 2.017 255 255 255
-0.844745 0.626493 2.374 255 255 255
0.121534 0.436022 2.939 255 255 255
0.367919 0.753805 2.085 255 255 255
0.132657 0.781738 2.017 255 255 255
1.22831 0.0529011 2.672 255 255 255
-1.24103 0.376368 2.356 255 255 255
-1.13129 0.591319 2.312 255 255 255
0.76008 -0.207648 2.911 255 255 255
-0.706758 0.653058 2.278 255 255 255
-1.05053 0.665221 2.244 255 255 255
-1.19099 -0.424087 2.967 0 0 0
1.225 -0.208445 2.857 0 0 0
-1.07781 -0.497053 2.707 255 255 255
-1.13105 -0.490727 2.626 255 255 255
0.279716 0.723134 2.22 255 255 255
1.19902 -0.196335 2.884 0 0 0
-0.426401 0.533591 2.684 255 255 255
0.682792 -0.199126 2.925 255 255 255
0.709172 0.749563 2.121 255 255 255
-0.760869 0.60652 2.402 255 255 255
-0.848677 0.173643 2.871 255 255 255
-0.139278 0.65504 2.338 255 255 255
-0.307948 0.441942 2.884 255 255 255
0.476208 0.569068 2.626 255 255 255
-0.810039 0.68538 2.158 255 255 255
0.620151 -0.187501 2.967 255 255 255
-1.16892 0.628943 2.312 255 255 255
-1.36599 -0.187553 2.755 255 255 255
1.0063 0.596472 2.615 255 255 255
-0.600199 0.560063 2.604 255 255 255
0.866471 0.500687 2.871 255 255 255
-0.354045 0.415226 2.996 255 255 255
0.220055 0.631998 2.44 255 255 255
-1.06498 0.673765 2.236 255 255 255
0.463213 0.768965 2.071 255 255 255
0.249673 0.580541 2.582 255 255 255
-0.117552 0.576409 2.44 255 255 255
-1.05395 -0.556759 2.615 255 255 255
-1.22185 0.38787 2.356 255 255 255
-0.0159214 0.72087 2.128 255 255 255
1.28665 0.222903 2.967 255 255 255
-1.21775 -0.479793 2.44 255 255 255
0.924381 0.654599 2.392 255 255 255
-0.739419 0.751275 2.078 255 255 255
-0.679145 0.680976 2.189 255 255 255
-1.44934 0.206075 2.743 255 255 255
-1.06088 0.107872 2.743 255 255 255
0.0578366 0.730218 2.166 255 255 255
-0.158508 0.673951 2.286 255 255 255
-1.28232 -0.652396 2.768 0 0 0
-1.40299 0.111844 2.731 255 255 255
0.13474 0.674063 2.338 255 255 255
-0.93811 0.491923 2.22 255 255 255
1.06385 0.79038 2.092 255 255 255
-0.95916 0.0780548 2.967 255 255 255
0.923997 0.792618 2.107 255 255 255
-0.882936 0.277184 2.831 255 255 255
-1.05156 -0.270304 2.107 255 255 255
-0.943498 0.684396 2.166 255 255 255
0.562808 0.620563 2.411 255 255 255
0.523732 0.633362 2.43 255 255 255
0.110381 0.783473 2.03 255 255 255
-1.10286 0.536013 2.269 255 255 255
-0.56928 0.614338 2.402 255 255 255
0.159181 0.689887 2.253 255 255 255
0.84276 0.634329 2.449 255 255 255
0.842246 0.60327 2.519 255 255 255
0.881083 0.74096 2.136 255 255 255
-0.0563273 0.753805 2.085 255 255 255
0.372901 0.521009 2.78 255 255 255
0.37098 0.710749 2.204 255 255 255
-1.22589 0.196042 2.857 255 255 255
