ply
format ascii 1.0
comment Created by Open3D
element vertex 1330
property double x
property double y
property double z
property uchar red
property uchar green
property uchar blue
end_header
-0.0120607 -0.138597 1.612 255 255 255
0.176008 0.0285946 1.917 255 255 255
0.000977216 -0.229483 1.487 255 255 255
0.0330745 0.289742 1.953 255 255 255
0.836313 0.431787 1.893 255 255 255
0.802762 -0.12369 1.734 255 255 255
0.0312963 0.0606457 1.848 255 255 255
-0.59797 0.524839 2.092 255 255 255
0.0912127 -0.127805 1.291 255 255 255
-0.13292 0.0451897 1.831 255 255 255
-0.295317 0.350664 2.338 0 0 0
0.596254 0.586253 1.865 255 255 255
-1.29565 0.107706 2.857 255 255 255
0.690083 0.351203 1.959 255 255 255
-1.16878 0.425357 2.212 255 255 255
0.0870324 -0.061311 1.65 255 255 255
0.99338 0.414307 1.941 255 255 255
-0.200311 -0.492395 1.905 255 255 255
0.893441 0.600072 1.815 255 255 255
-0.813432 0.398666 2.286 255 255 255
0.504871 0.38107 1.799 255 255 255
-0.691709 -0.79478 2.731 255 255 255
0.0759642 0.571473 1.837 255 255 255
0.763445 0.670958 1.815 255 255 255
0.241757 -0.568345 1.739 255 255 255
0.64413 -0.189734 1.646 255 255 255
0.0726973 0.478236 1.758 255 255 255
-0.776705 0.264181 2.53 255 255 255
0.590818 0.620004 1.848 255 255 255
0.810771 0.110734 1.935 0 0 0
0.415044 0.468726 1.673 255 255 255
-0.453502 -0.406931 2.236 255 255 255
-0.461036 -0.590338 2.136 255 255 255
0.834517 0.453778 1.882 255 255 255
-0.101054 -0.578493 1.744 255 255 255
-0.0110817 0.320887 1.893 0 0 0
0.441285 -0.649354 2.017 255 255 255
-0.639983 0.106928 2.719 255 255 255
0.208358 -0.0520216 1.899 255 255 255
-0.84867 0.507738 2.064 255 255 255
-0.00672395 -0.582113 1.591 255 255 255
-1.0735 0.453602 2.158 255 255 255
-0.217405 -0.123042 1.947 255 255 255
0.294076 -0.334443 1.513 255 255 255
0.127328 -0.417695 1.616 0 0 0
0.898096 0.273546 2.071 255 255 255
0.698643 0.083925 1.831 255 255 255
-0.124049 -0.392078 1.748 255 255 255
-0.104635 0.29577 1.972 255 255 255
-0.230082 -0.211757 1.947 255 255 255
0.0310084 0.381889 1.831 255 255 255
-1.01767 0.422695 2.236 255 255 255
0.300881 0.364717 1.805 255 255 255
-0.886143 0.283061 2.479 255 255 255
1.02828 -0.852333 2.269 255 255 255
0.540926 -0.371197 1.842 255 255 255
-0.741506 0.627385 1.87 255 255 255
0.430645 0.522671 1.629 255 255 255
0.172346 -0.0119226 1.911 255 255 255
-0.738464 0.471875 2.114 255 255 255
-0.412464 0.0420114 2.312 255 255 255
-0.160322 -0.344596 1.71 255 255 255
0.298214 0.390597 1.789 255 255 255
0.427046 0.109506 2.092 255 255 255
0.83491 0.62024 1.876 255 255 255
-0.592723 0.57224 1.941 255 255 255
0.0903185 0.0742087 1.887 255 255 255
0.161209 -0.459268 1.587 255 255 255
-0.215192 -0.278064 1.821 255 255 255
0.159178 -0.489181 1.567 255 255 255
0.302997 0.333268 1.911 0 0 0
-0.287126 0.667169 1.789 255 255 255
0.225498 0.525729 1.567 255 255 255
0.0464626 0.0487481 1.853 255 255 255
-0.264963 -0.579114 2.071 255 255 255
0.0794272 0.623011 1.848 255 255 255
-0.258949 -0.0817956 2.024 255 255 255
0.611985 0.281371 1.876 255 255 255
0.588576 -0.0272992 1.899 255 255 255
0.0363935 -0.0511223 1.668 255 255 255
0.580342 0.66923 1.779 255 255 255
0.607144 -0.129772 1.633 255 255 255
-0.00155981 -0.130321 1.607 255 255 255
0.386801 0.268905 2.114 255 255 255
0.371936 -0.653625 2.051 0 0 0
-0.0585755 -0.178163 1.463 0 0 0
-0.11825 0.546449 1.985 255 255 255
0.285131 0.110697 2.051 255 255 255
0.878968 0.531218 1.853 255 255 255
-0.93123 0.303547 2.449 255 255 255
-1.01564 0.200714 2.615 255 255 255
0.257673 0.529515 1.642 255 255 255
0.97174 0.0313094 2.099 0 0 0
-0.980209 0.511215 2.051 255 255 255
-0.0751112 0.189785 1.876 255 255 255
-0.0469505 -0.494282 1.551 255 255 255
0.673393 0.494765 1.985 255 255 255
0.0945833 -0.58312 1.513 0 0 0
-1.26962 0.184171 2.684 255 255 255
-0.496845 0.318455 2.411 255 255 255
-0.00155592 -0.589112 1.603 255 255 255
-0.282012 0.553891 2.024 255 255 255
0.635846 0.529187 1.911 255 255 255
0.91485 -0.353749 1.799 255 255 255
-0.37111 -0.0541691 2.244 255 255 255
0.109267 -0.303547 1.583 0 0 0
-0.985164 0.441752 2.204 255 255 255
0.47484 0.645186 1.753 0 0 0
0.0293853 -0.455535 1.583 255 255 255
-0.745661 0.447295 2.196 255 255 255
0.194644 -0.407801 1.629 0 0 0
0.178936 -0.232311 1.607 255 255 255
0.561048 -0.356471 1.859 255 255 255
0.145223 0.392526 1.882 255 255 255
0.539784 0.0629095 2.017 0 0 0
0.0073169 0.460014 1.87 255 255 255
-0.715568 0.585709 1.923 255 255 255
0.0485187 0.296518 1.935 255 255 255
0.294645 -0.137847 1.327 255 255 255
0.133859 -0.0592304 1.22 255 255 255
0.820906 0.527283 1.893 255 255 255
-1.16225 0.173299 2.719 255 255 255
-0.73236 0.391913 2.312 255 255 255
-1.12185 0.485323 2.143 255 255 255
0.450609 -0.230592 1.543 255 255 255
0.643123 -0.317683 1.7 255 255 255
0.790169 -0.097399 1.769 255 255 255
0.60296 -0.024381 1.696 255 255 255
0.402943 -0.436565 1.668 255 255 255
0.647895 -0.342826 1.758 255 255 255
0.332939 0.312764 1.978 0 0 0
-0.979582 0.487511 2.078 255 255 255
0.5584 0.262425 2.037 0 0 0
-0.266841 0.613538 1.893 255 255 255
-0.311758 -0.150796 2.114 255 255 255
0.855763 0.112508 1.966 255 255 255
0.0392517 0.419128 1.799 255 255 255
-0.184676 0.446932 2.078 255 255 255
0.292916 0.161722 2.107 255 255 255
-1.19332 0.208497 2.66 255 255 255
0.733396 0.149442 1.947 0 0 0
0.780491 0.145383 1.978 0 0 0
0.257643 -0.268496 1.516 255 255 255
0.0367406 -0.458581 1.567 255 255 255
-0.418087 -0.0545795 2.261 255 255 255
0.592498 -0.0301175 1.882 255 255 255
0.3344 -0.162971 1.375 255 255 255
0.0687252 -0.353453 1.599 255 255 255
0.152217 0.509417 1.629 255 255 255
-0.381963 0.34953 2.356 255 255 255
0.0855734 0.250019 1.991 255 255 255
-1.4203 -0.940616 2.982 255 255 255
-0.581424 -0.696396 2.42 255 255 255
-0.3922 -0.396356 2.121 255 255 255
-0.0552278 -0.459751 1.571 255 255 255
0.740771 -0.725406 2.037 0 0 0
0.55934 0.140799 1.959 0 0 0
-0.93989 0.613568 1.865 255 255 255
0.564712 0.369784 1.923 255 255 255
0.139429 0.323851 1.929 0 0 0
0.0452994 -0.400291 1.599 255 255 255
0.562578 -0.233707 1.547 255 255 255
0.42325 -0.62541 2.057 255 255 255
0.058022 -0.406055 1.591 0 0 0
0.76409 0.183419 1.905 0 0 0
1.06064 0.200733 2.236 255 255 255
1.1802 0.220849 2.374 255 255 255
0.683426 -0.631437 2.044 0 0 0
0.244241 -0.52062 1.799 255 255 255
-0.300693 -0.128369 2.085 255 255 255
0.434107 -0.418816 1.673 255 255 255
0.85959 0.635158 1.831 255 255 255
0.780894 -0.510415 1.794 255 255 255
0.458566 -0.367056 1.724 255 255 255
0.0428132 0.377875 1.826 255 255 255
0.277992 -0.142487 1.33 255 255 255
-0.105025 0.660342 1.763 255 255 255
0.381683 0.479459 1.682 255 255 255
-0.0580879 0.649469 1.821 255 255 255
-0.4572 0.360684 2.329 255 255 255
0.741572 -0.157317 1.763 255 255 255
0.484779 0.463684 1.779 0 0 0
-0.147822 -0.482206 1.831 255 255 255
-1.33762 0.06297 2.939 255 255 255
-0.163258 -0.0503232 1.837 255 255 255
0.53064 0.156739 1.959 255 255 255
-0.143583 0.1607 1.893 255 255 255
-0.853681 0.149841 2.695 255 255 255
-0.437832 -0.362967 2.212 255 255 255
0.281554 0.229424 2.099 255 255 255
0.423436 -0.398363 1.789 0 0 0
-0.801801 0.0438391 2.939 255 255 255
0.136723 -0.527535 1.516 0 0 0
0.030197 -0.177551 1.384 255 255 255
-1.14174 0.437142 2.181 255 255 255
-0.391739 0.524532 2.064 255 255 255
-0.256789 0.439075 2.173 255 255 255
0.0379991 0.126077 1.882 255 255 255
0.0851662 0.387181 1.842 255 255 255
0.102698 0.279346 1.947 255 255 255
1.23288 -0.332878 2.44 0 0 0
0.431436 -0.652637 2.017 255 255 255
0.406428 -0.0577819 1.991 255 255 255
-0.0736323 0.59636 1.917 255 255 255
0.0507499 -0.53917 1.528 0 0 0
0.765901 -0.16213 1.753 255 255 255
0.208171 0.505529 1.696 0 0 0
0.489185 -0.755011 1.959 255 255 255
0.154432 0.599894 1.682 255 255 255
-0.894497 0.32639 2.383 255 255 255
-0.39845 0.469834 2.136 255 255 255
0.227685 0.433052 1.784 255 255 255
-0.554634 0.639367 1.826 255 255 255
0.737771 0.312709 1.81 255 255 255
0.82969 0.430065 1.899 255 255 255
0.821707 -0.408352 1.686 255 255 255
-0.121194 0.22026 1.929 255 255 255
-1.18092 0.23377 2.604 255 255 255
0.0359195 0.296518 1.935 255 255 255
0.419818 0.295445 2.107 255 255 255
-0.213385 -0.434859 1.911 255 255 255
1.22359 -0.946244 2.519 255 255 255
0.933949 0.138179 2.114 255 255 255
0.12033 0.388222 1.876 255 255 255
-0.135158 0.643543 1.821 255 255 255
0.605859 0.26815 1.848 255 255 255
0.432573 0.654404 1.71 0 0 0
0.419423 0.449915 1.748 255 255 255
-0.764304 0.640229 1.837 255 255 255
0.0190298 -0.0766596 1.579 255 255 255
0.0103 0.469409 1.859 255 255 255
0.462547 0.474967 1.62 255 255 255
-1.29081 0.219651 2.638 255 255 255
-1.15189 0.269359 2.54 255 255 255
-0.656868 0.377297 2.338 255 255 255
0.042672 -0.131546 1.351 255 255 255
-0.155631 0.636759 1.853 255 255 255
1.07384 0.0756397 2.196 255 255 255
-0.548136 0.411778 2.236 255 255 255
0.628433 -0.557449 2.017 255 255 255
0.339504 0.0136747 2.017 255 255 255
-0.134812 0.5481 1.991 255 255 255
0.206108 0.130531 1.997 255 255 255
0.717323 -0.132536 1.739 0 0 0
0.172527 -0.1183 1.302 255 255 255
-0.248199 -0.584869 2.044 255 255 255
0.638756 0.625708 1.865 255 255 255
0.226949 0.451955 1.734 255 255 255
-1.03026 0.357413 2.383 255 255 255
-0.412627 -0.218981 2.212 255 255 255
0.81123 -0.400225 1.734 255 255 255
0.0283643 -0.526737 1.528 0 0 0
-0.428024 -0.159499 2.236 255 255 255
0.711254 0.250854 1.81 255 255 255
-1.25735 0.156973 2.743 255 255 255
0.0729041 0.482465 1.763 255 255 255
0.243861 0.469056 1.714 255 255 255
0.215844 0.560306 1.571 255 255 255
0.399288 -0.27539 1.599 255 255 255
0.00608438 -0.536045 1.555 0 0 0
0.822458 -0.142567 1.758 255 255 255
-0.308514 -0.18327 2.092 255 255 255
-0.521022 -0.262604 2.489 255 255 255
-0.346438 0.573491 1.978 255 255 255
0.881922 -0.383476 1.774 255 255 255
0.756269 0.662106 1.848 255 255 255
0.76804 -0.277624 1.659 255 255 255
-1.21466 0.317878 2.499 255 255 255
0.335195 -0.414061 1.769 255 255 255
0.665927 0.587001 1.917 255 255 255
-0.271935 0.139009 2.181 255 255 255
0.0456502 0.244494 1.947 255 255 255
0.865448 0.485913 1.876 255 255 255
-0.844263 0.154913 2.707 255 255 255
0.312351 -0.156421 1.357 255 255 255
0.280378 0.515042 1.682 255 255 255
-0.0172551 -0.331685 1.607 0 0 0
0.681612 0.404156 1.953 0 0 0
-0.783697 0.0769499 2.925 255 255 255
0.479017 0.105213 2.01 255 255 255
0.828476 0.117758 1.947 255 255 255
0.252433 -0.0503227 1.953 255 255 255
-0.465654 0.53125 2.064 255 255 255
-0.31553 -0.238724 2.071 255 255 255
-0.749007 0.676822 1.739 255 255 255
-0.519859 -0.573877 2.338 255 255 255
-0.56621 0.171068 2.684 255 255 255
0.351988 0.316389 1.941 0 0 0
0.680079 0.111058 1.887 255 255 255
0.554588 -0.769643 2.085 0 0 0
0.166552 -0.116449 1.305 255 255 255
0.806551 -0.367056 1.724 255 255 255
0.576417 -0.757812 2.128 0 0 0
0.817777 -0.3895 1.724 255 255 255
0.271686 0.357074 1.826 255 255 255
-1.18163 0.119993 2.818 255 255 255
0.645202 -0.787982 2.173 255 255 255
-1.51218 0.105509 2.925 255 255 255
0.483475 0.355898 1.899 255 255 255
0.104017 0.180242 1.972 255 255 255
0.455759 0.612068 1.724 0 0 0
-1.17336 0.0544403 2.996 255 255 255
-0.738429 0.265225 2.54 255 255 255
0.829161 -0.454659 1.748 255 255 255
0.586624 0.0756244 1.923 255 255 255
-0.616676 0.293478 2.499 255 255 255
-0.204808 0.556602 2.01 255 255 255
0.594475 -0.300363 1.744 255 255 255
0.148556 0.272031 2.01 255 255 255
0.396397 0.279724 2.092 255 255 255
0.177217 -0.0755254 1.26 255 255 255
-0.0554248 0.557875 1.935 255 255 255
0.0614248 0.41361 1.763 255 255 255
-0.689497 0.338168 2.44 255 255 255
0.151929 -0.496771 1.52 0 0 0
-0.774054 0.293972 2.469 255 255 255
0.702473 0.465692 1.985 255 255 255
0.04897 0.175328 1.953 255 255 255
0.747775 -0.135755 1.744 255 255 255
0.975695 -0.627539 2.064 255 255 255
-0.189805 0.616619 1.893 255 255 255
0.215457 0.495789 1.71 0 0 0
0.240079 0.249166 2.037 255 255 255
0.422633 -0.103142 1.991 0 0 0
0.801688 -0.097399 1.769 255 255 255
-0.46326 0.622673 1.865 255 255 255
0.463763 0.412854 1.81 255 255 255
0.455973 0.40759 1.826 0 0 0
-1.02603 0.384906 2.338 255 255 255
-0.133372 -0.136728 1.686 255 255 255
0.846338 -0.640246 1.959 0 0 0
-0.659267 0.483986 2.092 255 255 255
-0.760387 0.629981 1.842 255 255 255
-0.101576 0.668007 1.753 255 255 255
0.967083 0.225012 2.189 0 0 0
0.0275028 -0.610044 1.624 0 0 0
-1.00321 0.552043 1.959 255 255 255
0.213552 0.166294 2.037 255 255 255
0.944804 0.410902 1.882 255 255 255
0.114733 -0.144094 1.345 255 255 255
0.412168 0.38698 1.87 0 0 0
-0.00174131 0.0501153 1.794 255 255 255
0.701356 -0.547024 1.991 255 255 255
-0.0829073 -0.24876 1.516 255 255 255
-0.470294 0.650406 1.799 255 255 255
0.594821 -0.002414 1.779 255 255 255
-1.36151 0.148694 2.755 255 255 255
-0.205761 0.432019 2.121 0 0 0
0.815232 0.516399 1.887 255 255 255
-0.0886027 0.0120611 1.779 255 255 255
-0.466195 0.544189 2.037 255 255 255
0.385315 -0.150198 1.381 255 255 255
0.777702 0.496239 2.004 255 255 255
-0.00162387 -0.00227017 1.673 255 255 255
-0.686302 0.258101 2.593 255 255 255
-0.84052 0.162998 2.695 255 255 255
-0.0537879 0.5319 1.991 255 255 255
0.859881 -0.864852 2.244 255 255 255
0.434565 -0.472226 1.729 255 255 255
0.495274 0.316018 2.107 255 255 255
0.00126374 0.307197 1.923 255 255 255
0.879709 0.553796 1.799 255 255 255
-0.050496 -0.447807 1.583 255 255 255
-0.208807 -0.163822 1.87 255 255 255
-0.656413 -0.0284428 2.996 255 255 255
0.758494 0.302746 1.769 255 255 255
-1.01648 0.117864 2.768 255 255 255
-0.905953 0.124077 2.707 255 255 255
1.13448 0.208274 2.32 255 255 255
-0.313287 -0.374931 1.972 255 255 255
0.374019 -0.757624 1.991 255 255 255
0.214942 0.325699 1.959 255 255 255
-0.691797 0.265409 2.582 255 255 255
-0.751515 0.0765816 2.911 255 255 255
0.84823 0.358631 1.865 255 255 255
0.240715 0.226363 2.071 255 255 255
-0.175972 -0.400153 1.784 0 0 0
-0.170729 0.652433 1.821 255 255 255
-0.0864295 0.0647125 1.794 255 255 255
-0.342299 0.225976 2.347 255 255 255
0.74949 -0.104776 1.748 255 255 255
0.50491 0.37295 1.831 255 255 255
0.565853 -0.270987 1.668 255 255 255
0.546699 -0.391903 1.71 0 0 0
0.088079 0.105917 1.905 255 255 255
0.566474 -0.0402869 1.929 255 255 255
0.595674 0.247128 1.826 255 255 255
0.0138188 -0.314029 1.571 0 0 0
0.263662 -0.126775 1.302 255 255 255
1.05955 -0.897276 2.338 255 255 255
0.83642 -0.736482 2.004 0 0 0
-0.077406 -0.166134 1.505 0 0 0
-1.02187 0.0438391 2.939 255 255 255
0.905911 0.41326 1.865 255 255 255
0.345048 0.356096 1.821 255 255 255
0.0128243 0.667169 1.789 255 255 255
-0.307626 -0.410165 1.842 255 255 255
-0.155208 -0.124005 1.779 255 255 255
0.621717 0.485692 1.887 255 255 255
0.250019 -0.0249738 1.959 0 0 0
-0.484641 0.428957 2.212 255 255 255
-0.066423 -0.131839 1.659 255 255 255
0.837415 -0.774586 2.071 255 255 255
-0.44228 -0.219373 2.253 255 255 255
1.24451 -0.898945 2.479 255 255 255
0.23348 -0.142222 1.348 255 255 255
-0.750283 0.468074 2.128 255 255 255
-0.421282 -0.506425 1.997 255 255 255
0.492431 -0.0476032 1.972 255 255 255
0.255611 0.333268 1.929 255 255 255
0.210028 -0.168253 1.547 255 255 255
0.461276 -0.70387 2.004 0 0 0
0.81709 -0.424052 1.705 255 255 255
0.512005 0.0763027 2.024 0 0 0
0.438141 0.623794 1.71 255 255 255
0.736393 -0.551431 1.972 0 0 0
-0.246499 -0.0423963 2.03 255 255 255
0.313336 -0.125455 1.333 255 255 255
0.820543 0.314384 1.837 255 255 255
0.1093 -0.258882 1.547 255 255 255
0.222499 -0.516868 1.7 255 255 255
0.429323 -0.266482 1.624 255 255 255
0.081535 -0.342187 1.595 255 255 255
-0.414624 0.458809 2.166 255 255 255
-0.189805 -0.107307 1.893 255 255 255
-0.185293 -0.552844 1.848 0 0 0
-0.0552278 -0.498099 1.571 255 255 255
0.0471897 0.576284 1.882 255 255 255
0.416287 -0.532931 1.917 0 0 0
-0.00919671 -0.551786 1.571 0 0 0
0.755181 -0.377855 1.748 255 255 255
0.590776 0.333209 1.947 255 255 255
0.374194 -0.289122 1.603 255 255 255
0.802417 -0.692314 1.953 0 0 0
-0.809725 0.55937 1.985 255 255 255
-0.697788 0.139727 2.755 255 255 255
0.753309 0.276282 1.784 255 255 255
-0.0922701 0.0617931 1.794 255 255 255
0.0581804 0.0274759 1.842 255 255 255
1.14436 -0.228634 2.236 255 255 255
-0.670817 0.295826 2.519 255 255 255
0.252967 0.462032 1.719 255 255 255
0.673235 0.578119 1.929 255 255 255
0.0115196 -0.355221 1.607 255 255 255
0.320118 0.340174 1.831 255 255 255
-1.22658 0.245442 2.593 255 255 255
0.63774 -0.263036 1.603 255 255 255
-0.953032 0.26212 2.55 255 255 255
-0.264227 0.67086 1.753 255 255 255
-0.452096 -0.0780798 2.303 255 255 255
-0.136717 -0.464121 1.842 255 255 255
1.17995 -0.915081 2.479 255 255 255
0.401976 -0.430102 1.664 255 255 255
0.262104 0.0391611 1.978 255 255 255
-0.152674 0.321908 2.057 255 255 255
-0.875972 0.569615 1.911 255 255 255
-1.38726 -1.042 2.953 255 255 255
-0.0362995 0.316585 1.923 255 255 255
0.0933316 -0.45067 1.575 255 255 255
0.391125 0.496283 1.587 255 255 255
-0.561179 0.542837 2.057 255 255 255
-0.616036 0.488811 2.143 255 255 255
0.607268 -0.204949 1.539 255 255 255
-0.165854 -0.146338 1.769 255 255 255
0.761919 0.576321 1.923 255 255 255
0.370778 -0.524344 1.991 255 255 255
-0.747937 0.034437 2.953 255 255 255
0.305243 0.449531 1.714 255 255 255
0.936234 0.383904 1.947 255 255 255
-0.125906 0.307092 2.004 255 255 255
-0.0176205 -0.206001 1.425 255 255 255
-0.506124 0.537916 2.051 255 255 255
0.636541 -0.201011 1.587 255 255 255
0.833396 -0.562185 1.859 255 255 255
-0.465462 0.64531 1.826 255 255 255
0.582312 0.0871787 1.972 255 255 255
0.652402 0.660276 1.794 255 255 255
0.273517 -0.208113 1.456 255 255 255
0.604591 -0.148081 1.826 255 255 255
-0.333375 0.254649 2.365 255 255 255
-0.599354 0.511405 2.121 255 255 255
0.438648 -0.553945 1.947 0 0 0
0.904167 0.187178 2.085 255 255 255
-0.587611 0.370617 2.32 255 255 255
0.0499328 0.0796263 1.87 255 255 255
0.0755541 -0.109622 1.275 255 255 255
0.422083 0.463376 1.724 255 255 255
-1.07214 0.490885 2.107 255 255 255
-1.27992 0.217154 2.66 255 255 255
0.134734 -0.0635405 1.71 255 255 255
-0.666539 0.173299 2.719 255 255 255
-0.612875 0.434121 2.22 255 255 255
0.507039 -0.727403 2.071 0 0 0
-0.653365 0.55458 1.991 255 255 255
0.0604814 0.519081 1.821 255 255 255
0.863657 0.445208 1.859 255 255 255
0.236866 -0.342414 1.646 255 255 255
1.10476 -0.7498 2.329 0 0 0
-0.59701 0.247639 2.572 255 255 255
0.988401 0.170951 2.181 255 255 255
0.532194 0.159437 1.953 255 255 255
-0.104873 -0.185516 1.587 255 255 255
0.195192 0.452104 1.779 0 0 0
1.05119 -0.861357 2.303 255 255 255
-1.12439 0.495778 2.128 255 255 255
0.546187 0.195754 1.935 255 255 255
-0.239033 -0.520119 2.051 255 255 255
-1.39796 0.0751609 2.857 255 255 255
-1.09037 0.476786 2.136 255 255 255
-0.637378 -0.00400705 2.953 255 255 255
-0.0637224 -0.434209 1.659 255 255 255
0.0704712 0.502797 1.774 255 255 255
0.36556 0.1686 2.151 255 255 255
0.144787 0.131235 1.959 255 255 255
0.301432 -0.557118 2.004 255 255 255
0.184924 -0.222231 1.591 255 255 255
0.27541 0.387848 1.831 255 255 255
-0.584281 -0.29001 2.707 0 0 0
0.747483 0.555231 1.959 255 255 255
0.543038 -0.0876455 1.935 255 255 255
0.215195 -0.533403 1.624 255 255 255
0.284674 -0.220729 1.477 255 255 255
0.120574 -0.0490082 1.789 255 255 255
0.85921 0.665044 1.799 255 255 255
-1.44488 0.174828 2.743 255 255 255
-0.0925373 -0.479161 1.744 255 255 255
-0.481476 0.628743 1.865 255 255 255
-0.878342 0.557545 1.923 255 255 255
0.304387 -0.170425 1.381 255 255 255
0.533736 -0.229263 1.551 255 255 255
0.0164049 0.118868 1.865 255 255 255
0.0303134 -0.624054 1.633 255 255 255
-0.577553 0.357198 2.356 255 255 255
0.170683 -0.0479006 1.859 255 255 255
0.074186 0.669034 1.794 255 255 255
0.165573 0.0826496 1.941 255 255 255
0.714538 -0.0936654 1.753 255 255 255
0.0930337 -0.494412 1.528 255 255 255
0.549798 -0.166017 1.677 0 0 0
0.452109 0.430082 1.859 0 0 0
0.648987 0.550129 1.941 255 255 255
0.671907 -0.42928 1.682 255 255 255
-1.4203 -1.01341 2.982 255 255 255
-0.67447 0.389494 2.32 255 255 255
0.169385 -0.318027 1.591 255 255 255
-0.41544 0.151546 2.44 255 255 255
0.836215 0.671162 1.739 255 255 255
-0.211716 -0.0979953 1.953 255 255 255
-0.311354 0.144108 2.261 255 255 255
0.750154 0.400448 1.966 255 255 255
0.0903185 0.0711379 1.887 255 255 255
0.317004 0.509564 1.673 255 255 255
0.450147 0.642929 1.724 0 0 0
-0.834461 0.015215 2.953 255 255 255
0.825777 0.675744 1.729 255 255 255
-0.263021 -0.108466 2.03 255 255 255
0.768301 0.653085 1.848 255 255 255
0.139925 -0.579919 1.524 255 255 255
0.737455 -0.545921 1.941 0 0 0
0.104563 0.285291 1.923 255 255 255
0.486354 0.0455938 2.128 255 255 255
-0.677354 0.661347 1.789 255 255 255
0.171975 -0.320616 1.591 0 0 0
0.566939 0.254022 1.997 255 255 255
0.519282 0.322875 2.107 255 255 255
0.728022 0.678495 1.758 255 255 255
-0.411291 0.398645 2.244 255 255 255
-0.414936 0.245656 2.509 0 0 0
0.408208 0.233976 2.173 255 255 255
0.379919 0.262025 2.114 255 255 255
-0.175266 0.668947 1.748 255 255 255
-0.0832765 0.0412418 1.789 0 0 0
0.748462 0.671162 1.739 255 255 255
-0.0103773 -0.184708 1.387 255 255 255
-0.646702 0.591968 1.923 255 255 255
-0.227711 -0.0354368 2.01 255 255 255
-1.23924 0.249661 2.593 255 255 255
-0.105814 -0.379375 1.729 0 0 0
0.723888 0.136768 1.947 0 0 0
0.202305 0.155352 2.024 255 255 255
-0.109792 -0.437429 1.794 0 0 0
0.0209572 -0.503185 1.532 0 0 0
0.640498 -0.55609 2.024 255 255 255
0.187365 -0.172699 1.612 255 255 255
0.80101 -0.722913 2.03 0 0 0
-0.309058 0.471374 2.143 255 255 255
0.0156484 0.0352212 1.779 255 255 255
-0.510503 0.59324 1.917 255 255 255
0.00343204 -0.25624 1.502 255 255 255
0.0699821 -0.157805 1.369 255 255 255
-0.464432 0.673092 1.744 255 255 255
0.899249 0.664462 1.774 255 255 255
-0.0436445 0.43697 1.972 255 255 255
0.571303 -0.168364 1.853 255 255 255
0.290871 -0.125422 1.31 255 255 255
-0.989443 0.121263 2.743 255 255 255
0.436528 0.330062 1.966 255 255 255
-0.387755 0.583922 1.959 255 255 255
-0.3473 0.667971 1.799 255 255 255
0.159786 0.657187 1.71 255 255 255
0.204305 0.210107 2.044 255 255 255
0.804257 0.663195 1.794 255 255 255
-0.357175 0.303547 2.449 0 0 0
-0.103452 0.13502 1.837 255 255 255
-0.73547 -0.810061 2.831 255 255 255
-0.0255714 -0.353861 1.637 0 0 0
0.388149 -0.113202 1.997 0 0 0
0.689923 0.122565 1.923 255 255 255
-0.149454 0.185729 1.929 255 255 255
0.57545 0.264696 2.004 255 255 255
0.619139 0.67601 1.774 255 255 255
-0.618023 0.513157 2.114 255 255 255
-1.13232 0.139118 2.743 255 255 255
0.463844 0.302987 2.136 255 255 255
0.591464 -0.172699 1.612 255 255 255
0.507799 -0.576244 1.799 255 255 255
0.462359 -0.221469 1.532 255 255 255
0.216591 -0.651324 1.719 255 255 255
0.419029 -0.694441 1.959 0 0 0
1.10538 0.1106 2.253 255 255 255
-0.451428 0.000654333 2.42 255 255 255
0.299477 0.0329385 1.991 255 255 255
0.601509 -0.101978 1.799 255 255 255
-0.0437657 0.138385 1.842 255 255 255
0.409274 -0.636407 2.071 255 255 255
0.360117 0.608483 1.646 255 255 255
0.295755 -0.264801 1.509 255 255 255
-0.947191 0.644376 1.815 255 255 255
0.995823 0.073573 2.136 255 255 255
-0.583821 0.531471 2.078 255 255 255
-1.03697 0.511215 2.051 255 255 255
0.794068 -0.675754 2.099 255 255 255
0.345308 0.431261 1.719 255 255 255
0.936508 0.398514 1.941 255 255 255
-0.0143427 0.577642 1.917 255 255 255
0.0161586 0.404066 1.837 255 255 255
-1.26775 0.117004 2.857 255 255 255
0.18867 -0.503205 1.579 255 255 255
0.78025 -0.569482 2.136 255 255 255
0.0528191 -0.530002 1.516 0 0 0
0.53064 -0.0632291 1.959 255 255 255
-0.287951 0.621299 1.87 255 255 255
-0.895696 0.0705117 2.857 255 255 255
0.36088 0.506629 1.579 0 0 0
0.305317 -0.0570563 1.966 0 0 0
0.0896152 -0.46266 1.555 255 255 255
-0.170569 0.34769 2.071 255 255 255
0.343328 -0.254376 1.535 255 255 255
-0.627794 0.538235 2.078 255 255 255
-0.283333 -0.264402 2.01 255 255 255
0.0985372 0.262979 1.991 255 255 255
-0.586479 0.632979 1.842 255 255 255
1.02791 -0.71148 2.244 255 255 255
0.340326 -0.478396 1.911 255 255 255
0.784876 -0.759307 2.057 255 255 255
0.11101 -0.522663 1.502 0 0 0
-0.908468 0.667349 1.774 255 255 255
-0.810913 0.462632 2.151 255 255 255
-0.80134 0.639367 1.826 255 255 255
0.42321 0.385945 1.865 0 0 0
-0.469809 0.550597 2.024 255 255 255
-0.4989 -0.17134 2.402 255 255 255
0.428061 -0.400153 1.784 0 0 0
-1.1004 0.312555 2.489 255 255 255
0.185514 0.24157 2.057 255 255 255
-0.0907277 -0.131839 1.659 255 255 255
-0.838359 0.293972 2.469 255 255 255
0.100485 -0.00250763 1.848 255 255 255
0.805851 -0.190657 1.753 255 255 255
0.220143 -0.393697 1.682 255 255 255
0.87329 0.342451 1.893 255 255 255
0.487674 -0.456932 1.779 255 255 255
0.851265 0.455749 1.865 255 255 255
-0.684377 0.3113 2.479 255 255 255
-0.33815 -0.0637313 2.196 255 255 255
-0.763575 0.649469 1.821 255 255 255
0.577686 0.359496 1.935 255 255 255
-0.754881 0.210105 2.626 255 255 255
0.678432 0.410512 1.953 0 0 0
0.273665 0.587034 1.595 255 255 255
-0.601264 0.364474 2.329 255 255 255
0.301688 0.625235 1.62 0 0 0
0.485074 0.0107066 2.078 255 255 255
0.0496208 -0.446969 1.571 0 0 0
0.0958954 -0.45067 1.575 0 0 0
0.0421802 0.436694 1.799 0 0 0
-0.74142 0.580762 1.917 255 255 255
0.070503 -0.0763075 1.473 255 255 255
0.381177 0.107572 2.121 255 255 255
-0.189105 0.542129 2.017 255 255 255
0.724105 -0.220125 1.633 255 255 255
1.07327 0.0217344 2.166 255 255 255
-0.496166 0.547304 2.024 255 255 255
0.551175 -0.386695 1.724 255 255 255
-0.874162 0.0579101 2.925 255 255 255
-0.934677 0.632178 1.831 255 255 255
-0.489413 0.362078 2.338 255 255 255
-0.80968 0.590098 1.887 255 255 255
0.905265 -0.119134 1.935 255 255 255
0.10385 -0.318198 1.579 0 0 0
0.595406 0.314609 1.911 255 255 255
0.209557 0.401714 1.882 255 255 255
-0.0434391 -0.193435 1.435 0 0 0
-0.282433 0.204372 2.236 255 255 255
0.370834 0.592412 1.646 255 255 255
-1.22288 0.216256 2.649 255 255 255
-0.00183741 0.16378 1.893 255 255 255
0.419818 0.0862892 2.107 255 255 255
-0.711364 0.478974 2.085 255 255 255
1.05778 -0.71687 2.261 255 255 255
0.498559 0.327385 2.092 255 255 255
0.316787 0.589979 1.603 255 255 255
-0.3176 0.574358 1.959 255 255 255
0.860802 -0.0446868 1.985 0 0 0
-0.69882 0.67748 1.748 255 255 255
-0.270778 0.603121 1.899 255 255 255
0.0394917 0.392236 1.81 255 255 255
0.305959 0.308339 1.991 0 0 0
-0.39846 0.660545 1.779 255 255 255
0.924179 0.414956 1.859 255 255 255
0.335889 -0.315995 1.607 255 255 255
-0.0197582 -0.199526 1.412 255 255 255
0.0346304 -0.220729 1.477 255 255 255
0.19262 0.0770402 1.959 255 255 255
0.754074 0.570471 1.935 255 255 255
0.00904778 -0.034105 1.633 255 255 255
-0.130386 -0.131012 1.719 255 255 255
-0.0416849 -0.481689 1.543 255 255 255
0.172472 -0.231554 1.62 255 255 255
0.472473 -0.025624 2.01 255 255 255
0.785797 0.601927 1.905 255 255 255
0.197873 -0.263656 1.591 255 255 255
0.762662 0.583881 1.917 255 255 255
0.112531 0.0808612 1.899 255 255 255
-0.346557 -0.07831 2.204 255 255 255
-0.207163 0.600713 1.911 255 255 255
0.779359 -0.648703 2.078 0 0 0
-0.547917 -0.175295 2.638 255 255 255
-0.566692 0.50963 2.128 255 255 255
0.519012 0.558008 1.748 255 255 255
0.756196 0.604296 1.893 255 255 255
0.0930457 -0.15319 1.348 255 255 255
-0.157278 -0.00847151 1.837 255 255 255
-0.207559 0.53093 2.037 255 255 255
0.578032 0.378723 1.905 255 255 255
0.0669933 0.559515 1.837 255 255 255
0.537028 0.24337 2.044 0 0 0
0.611073 0.373245 1.941 255 255 255
-0.117373 0.0716131 1.821 255 255 255
0.261161 -0.21636 1.48 255 255 255
-0.0335655 -0.119435 1.637 255 255 255
0.512448 -0.558149 1.826 255 255 255
0.504944 0.368385 1.853 0 0 0
-0.17373 -0.263126 1.705 255 255 255
-0.395266 0.397224 2.236 255 255 255
0.783929 0.610457 1.893 255 255 255
-0.643286 0.390387 2.303 255 255 255
0.83059 0.415064 1.887 255 255 255
-0.487671 -0.424952 2.294 255 255 255
0.609755 -0.174985 1.739 255 255 255
1.01957 -0.296604 2.099 0 0 0
0.870579 0.589931 1.848 255 255 255
0.0596975 -0.285179 1.567 255 255 255
0.717471 -0.263839 1.624 255 255 255
0.914178 0.0168981 2.01 0 0 0
0.82022 0.246136 1.935 255 255 255
1.02016 -0.134985 2.136 0 0 0
0.375058 -0.162838 1.393 255 255 255
1.06669 0.0899341 2.196 255 255 255
0.36015 -0.72996 2.004 0 0 0
-0.0137442 0.652187 1.837 255 255 255
-0.727363 0.23377 2.604 255 255 255
0.024336 0.666335 1.779 255 255 255
-0.239241 -0.119702 1.997 255 255 255
0.684404 0.612392 1.899 255 255 255
0.182787 -0.0660518 1.859 255 255 255
-0.549526 0.547929 2.051 255 255 255
0.247963 0.427955 1.763 255 255 255
0.350068 -0.158496 1.375 255 255 255
-0.961591 0.530297 1.985 255 255 255
0.353966 0.418093 1.734 255 255 255
-1.00342 0.528851 2.004 255 255 255
-0.121352 -0.124761 1.71 255 255 255
-1.28936 0.141654 2.793 255 255 255
0.0362881 -0.127902 1.359 255 255 255
0.62257 -0.775768 2.03 255 255 255
-0.0699169 -0.190245 1.502 255 255 255
0.390381 -0.288837 1.616 255 255 255
0.713712 -0.38912 1.71 255 255 255
0.679396 0.597603 1.911 255 255 255
0.57312 -0.0705634 1.899 255 255 255
-0.797981 0.0626701 2.925 255 255 255
-0.991473 0.353535 2.383 255 255 255
-0.185822 0.542129 2.017 255 255 255
-0.863304 0.157965 2.684 255 255 255
0.424034 -0.193364 1.452 255 255 255
0.123344 0.28842 1.923 255 255 255
0.470633 -0.291553 1.677 255 255 255
0.304694 -0.553856 2.004 255 255 255
0.282715 0.517971 1.559 255 255 255
0.674811 0.080238 1.815 255 255 255
0.816466 -0.842779 2.196 255 255 255
0.225769 0.52371 1.624 255 255 255
0.126842 0.380275 1.882 255 255 255
-1.39649 0.140995 2.78 255 255 255
-0.0824269 -0.532812 1.655 255 255 255
0.700252 0.571403 1.917 255 255 255
0.566071 0.200172 1.917 255 255 255
-1.56287 -1.00831 2.967 255 255 255
0.652147 0.430101 1.941 255 255 255
-1.53124 0.118684 2.898 255 255 255
-0.960174 0.347086 2.392 255 255 255
0.300198 0.514594 1.612 255 255 255
0.204583 -0.145071 1.375 255 255 255
0.191993 -0.354783 1.629 255 255 255
0.529206 0.405003 1.763 255 255 255
0.468424 0.43256 1.794 0 0 0
0.780964 0.479933 2.004 255 255 255
-0.337839 0.580345 1.947 255 255 255
-0.763386 0.629981 1.842 255 255 255
-0.896027 0.395701 2.269 255 255 255
-0.430151 -0.558893 2.071 255 255 255
-0.115843 0.668007 1.753 255 255 255
0.566666 -0.734779 2.092 0 0 0
0.536839 0.0247043 1.859 255 255 255
0.742218 -0.671472 2.107 0 0 0
-0.776214 0.540716 2.024 255 255 255
-0.187182 0.673713 1.753 255 255 255
-0.76537 0.606212 1.899 255 255 255
0.409338 -0.413058 1.65 255 255 255
0.600199 -0.151339 1.696 255 255 255
0.473671 -0.168573 1.403 255 255 255
1.14156 0.325157 2.374 0 0 0
0.253821 -0.629502 1.784 255 255 255
-0.980086 0.515891 2.03 255 255 255
-0.969055 0.0488535 2.953 255 255 255
0.135654 0.624139 1.758 255 255 255
0.447478 0.313768 2.092 255 255 255
0.0190298 -0.41841 1.579 255 255 255
0.986159 0.347262 2.01 255 255 255
-0.00778474 0.641971 1.842 255 255 255
0.472943 0.434266 1.789 0 0 0
0.154596 -0.125729 1.409 255 255 255
0.0419572 0.304067 1.923 0 0 0
-0.0686568 0.331058 1.953 255 255 255
-0.442101 0.201599 2.572 255 255 255
0.806841 -0.0947874 1.774 255 255 255
0.440524 -0.253232 1.607 255 255 255
0.382479 0.601907 1.65 255 255 255
-0.40828 -0.860738 2.831 255 255 255
-1.4955 0.029491 2.939 255 255 255
0.807759 0.170096 1.966 255 255 255
0.488942 -0.108145 2.024 255 255 255
-0.43328 -0.473184 2.189 255 255 255
0.705798 -0.626924 2.051 255 255 255
0.9675 0.166251 2.166 255 255 255
-0.295965 -0.332179 1.985 255 255 255
-1.04647 0.51767 2.037 255 255 255
-0.911363 0.149229 2.684 255 255 255
0.807621 0.195754 1.935 255 255 255
0.610664 -0.190828 1.567 255 255 255
0.081944 -0.390858 1.603 255 255 255
-0.215816 -0.142088 1.905 255 255 255
0.0074069 0.521122 1.893 255 255 255
0.0147512 0.000453436 1.677 255 255 255
-0.00487467 0.366851 1.876 255 255 255
0.672193 0.36637 1.972 255 255 255
0.731544 0.108331 1.893 0 0 0
-0.0812187 0.205049 1.876 255 255 255
0.250925 0.624936 1.599 255 255 255
0.743487 -0.388938 1.734 255 255 255
0.136503 0.440926 1.769 255 255 255
0.123094 -0.165527 1.416 255 255 255
0.242271 -0.233323 1.528 255 255 255
0.675509 -0.355099 1.748 255 255 255
-1.5239 0.109742 2.911 255 255 255
0.343982 -0.321107 1.633 255 255 255
0.5197 -0.187339 1.442 255 255 255
-0.961254 0.230897 2.572 255 255 255
0.63069 0.0697648 1.774 0 0 0
0.581785 -0.0486221 1.887 255 255 255
0.382795 0.452154 1.724 255 255 255
0.468007 -0.0448218 1.991 255 255 255
0.672193 0.334279 1.972 0 0 0
0.0841314 -0.412267 1.595 255 255 255
0.939791 0.26311 2.151 0 0 0
-0.113126 0.195202 1.899 255 255 255
0.281761 -0.27062 1.487 255 255 255
0.0922016 0.535252 1.748 255 255 255
-0.197326 0.629026 1.848 255 255 255
-1.36512 0.10165 2.818 255 255 255
0.591558 0.332038 2.037 255 255 255
0.395421 -0.17388 1.409 255 255 255
-0.140798 -0.385505 1.744 255 255 255
-0.181693 -0.58702 1.842 0 0 0
0.0391904 0.234265 1.941 255 255 255
0.669114 0.631778 1.865 255 255 255
-0.436089 0.580345 1.947 255 255 255
-0.453961 0.110476 2.499 255 255 255
-0.554265 0.386947 2.261 255 255 255
-0.190035 -0.364673 1.753 255 255 255
0.00121445 0.0877115 1.848 255 255 255
-0.246179 -0.336204 1.831 255 255 255
-0.325541 0.487391 2.092 255 255 255
0.383952 -0.700816 1.959 0 0 0
-0.32068 -0.504826 1.978 255 255 255
0.471344 0.380011 1.794 255 255 255
0.826634 -0.739743 2.004 255 255 255
0.670969 0.670081 1.789 255 255 255
0.237289 -0.491787 1.769 255 255 255
-0.31737 0.609973 1.882 255 255 255
0.203912 -0.0949489 1.273 255 255 255
-0.437689 0.273144 2.499 255 255 255
-0.0678131 0.295599 1.929 255 255 255
0.466166 -0.639666 1.997 255 255 255
-0.415257 -0.563721 2.064 255 255 255
-0.213575 -0.530128 1.941 255 255 255
-0.710215 0.602599 1.917 255 255 255
0.00125586 0.563395 1.911 255 255 255
0.172627 -0.519278 1.528 255 255 255
-0.835425 0.558166 1.947 255 255 255
0.573625 -0.313751 1.724 255 255 255
0.516973 0.382767 1.821 255 255 255
-0.277754 0.555258 2.017 255 255 255
-0.261285 0.238386 2.181 255 255 255
-0.879745 0.596941 1.899 255 255 255
0.489357 -0.62365 1.947 0 0 0
-0.0435117 0.413245 1.966 255 255 255
0.416017 0.307248 2.071 255 255 255
0.35486 -0.331619 1.659 255 255 255
0.686149 0.448438 1.966 255 255 255
-0.931297 0.632979 1.842 255 255 255
0.208233 -0.268834 1.591 255 255 255
-0.0325483 0.623876 1.887 255 255 255
0.766943 0.497725 2.01 0 0 0
-0.960048 0.577126 1.905 255 255 255
0.337229 -0.0913574 1.947 0 0 0
0.452442 0.4125 1.848 0 0 0
0.0704712 0.404643 1.774 255 255 255
0.466166 -0.0612058 1.997 255 255 255
0.505346 -0.158563 2.037 0 0 0
-0.0172446 0.216149 1.893 255 255 255
1.22552 -0.970666 2.54 0 0 0
-0.184854 -0.25414 1.758 255 255 255
0.30915 -0.325164 1.539 255 255 255
-1.43 -1.02796 2.982 255 255 255
-1.12166 0.494166 2.136 255 255 255
0.451135 -0.0322779 2.017 255 255 255
0.838619 -0.342934 1.744 255 255 255
-0.185293 -0.585925 1.848 0 0 0
0.482135 -0.722091 2.037 0 0 0
0.320781 -0.271038 1.559 255 255 255
0.0987856 -0.510442 1.502 0 0 0
0.433659 -0.119702 1.997 0 0 0
-0.290203 0.115787 2.212 255 255 255
-0.873318 0.623695 1.859 255 255 255
0.300805 0.3363 1.859 255 255 255
0.392313 -0.517514 1.953 255 255 255
0.632924 -0.230446 1.559 255 255 255
-0.0835133 0.581258 1.929 255 255 255
-0.710452 0.114875 2.805 255 255 255
-0.203369 -0.179612 1.876 255 255 255
-0.0618017 0.0262229 1.758 255 255 255
0.0933142 -0.127805 1.291 255 255 255
-0.858935 0.179803 2.684 255 255 255
0.586134 0.116282 1.779 255 255 255
-0.0263368 -0.0105188 1.686 255 255 255
0.116132 -0.51391 1.505 0 0 0
0.22285 -0.286513 1.603 255 255 255
0.347317 0.416888 1.729 255 255 255
0.581975 0.267958 2.004 255 255 255
0.489807 -0.210777 1.509 255 255 255
-0.00493443 0.216834 1.899 255 255 255
0.282626 0.519526 1.587 255 255 255
1.04715 0.283344 2.286 255 255 255
0.237998 -0.0849232 1.278 255 255 255
0.809243 -0.204336 1.748 255 255 255
0.588243 0.0597264 1.734 255 255 255
-0.801399 0.34578 2.383 255 255 255
0.726459 0.220385 1.826 255 255 255
-0.106915 -0.135759 1.579 255 255 255
0.521925 0.0668482 2.037 0 0 0
0.267237 -0.289978 1.487 255 255 255
0.0258955 0.613538 1.893 255 255 255
0.523103 0.0815386 1.991 255 255 255
-0.349506 0.0864814 2.294 255 255 255
-0.631131 0.102503 2.719 255 255 255
0.71818 -0.175125 1.769 0 0 0
1.18133 -0.954997 2.499 255 255 255
-0.180562 -0.316001 1.691 255 255 255
0.0787407 -0.413823 1.591 255 255 255
0.364583 0.197974 2.166 255 255 255
0.65822 0.660274 1.81 255 255 255
0.208889 0.403486 1.876 255 255 255
0.0574879 -0.485809 1.509 0 0 0
0.711079 -0.569704 1.991 0 0 0
0.655027 -0.266307 1.607 255 255 255
0.17632 0.143099 1.991 255 255 255
1.08134 -0.171562 2.204 0 0 0
0.536702 -0.380414 1.696 0 0 0
-0.0304138 0.402914 1.947 255 255 255
-0.0245998 0.0376663 1.758 255 255 255
0.807014 0.408088 1.972 255 255 255
-0.0889437 -0.216907 1.535 255 255 255
-1.03109 0.0576329 2.911 255 255 255
-0.229044 0.631261 1.837 255 255 255
0.068155 0.399331 1.789 255 255 255
0.649893 -0.402494 1.696 0 0 0
0.582919 0.265417 1.985 255 255 255
-0.401174 0.0081499 2.312 255 255 255
0.256076 -0.536062 1.842 255 255 255
0.411391 0.0586355 2.099 255 255 255
-0.869522 0.355833 2.347 255 255 255
0.215036 0.456279 1.729 255 255 255
-0.784096 0.211065 2.638 255 255 255
-0.86612 -0.0040654 2.996 255 255 255
0.212423 -0.208458 1.528 255 255 255
-0.904161 0.0617916 2.884 255 255 255
0.289487 0.175438 2.107 255 255 255
0.270256 -0.0956948 1.283 255 255 255
0.351565 -0.360851 1.682 255 255 255
-1.1985 0.174064 2.731 255 255 255
-0.870988 0.28878 2.459 255 255 255
0.428533 0.655266 1.705 0 0 0
0.0187274 -0.139982 1.369 255 255 255
0.20148 -0.489909 1.62 255 255 255
-0.0589542 -0.400714 1.677 255 255 255
-0.193731 0.562751 1.997 255 255 255
0.0850552 -0.10029 1.262 255 255 255
-1.13027 0.0856716 2.898 255 255 255
0.789515 -0.49029 1.774 255 255 255
0.660862 0.644969 1.842 255 255 255
-0.747888 0.459132 2.151 255 255 255
0.6242 0.608028 1.876 255 255 255
-0.375537 0.657356 1.794 255 255 255
-1.15849 0.156287 2.731 255 255 255
0.440456 -0.732281 1.941 255 255 255
0.782744 0.664324 1.805 255 255 255
1.0427 0.338645 2.057 255 255 255
0.116406 -0.330207 1.575 0 0 0
-1.04615 0.434578 2.204 255 255 255
0.9642 0.352634 1.985 255 255 255
0.583307 -0.0515559 1.882 255 255 255
0.354399 -0.0700668 1.972 0 0 0
-0.0896984 -0.0562897 1.744 255 255 255
-0.413928 -0.787103 2.66 255 255 255
-0.281657 -0.457129 1.953 255 255 255
-0.443525 0.151748 2.509 255 255 255
-1.10737 0.196392 2.672 255 255 255
0.542137 0.138103 1.966 0 0 0
0.555913 0.155778 1.947 255 255 255
-0.115177 -0.667145 1.882 255 255 255
0.228765 -0.0310616 1.941 255 255 255
-1.08946 0.349842 2.411 255 255 255
0.779946 -0.678329 2.107 255 255 255
0.944576 0.127435 2.107 255 255 255
0.252093 -0.122067 1.297 255 255 255
0.0726363 -0.60803 1.571 255 255 255
-0.440849 0.375397 2.303 255 255 255
0.348593 -0.740884 2.071 0 0 0
-0.099623 -0.0110367 1.769 255 255 255
0.568915 0.27758 2.051 255 255 255
1.01981 -0.0375171 2.128 255 255 255
0.963926 0.158613 2.158 255 255 255
-0.181475 0.665155 1.753 255 255 255
-0.778773 0.427421 2.261 255 255 255
0.827519 -0.0619078 1.826 255 255 255
0.582632 0.566523 1.87 255 255 255
-0.819978 0.569615 1.911 255 255 255
-0.375872 -0.487409 1.947 255 255 255
0.500444 -0.620288 1.87 0 0 0
-0.0526705 -0.293577 1.571 255 255 255
0.574117 -0.0056164 1.882 0 0 0
-0.816107 0.32373 2.392 255 255 255
-0.463986 0.448234 2.166 255 255 255
-0.856199 0.673092 1.744 255 255 255
0.776516 -0.678329 2.107 0 0 0
0.666235 -0.162254 1.724 0 0 0
0.112045 -0.584276 1.516 0 0 0
0.368466 -0.222464 1.505 255 255 255
0.450147 0.62329 1.724 255 255 255
-0.367335 -0.378176 2.078 255 255 255
0.171975 -0.475961 1.591 255 255 255
-0.609359 -0.131853 2.911 255 255 255
0.592945 0.335267 1.997 255 255 255
0.271154 -0.14563 1.339 255 255 255
0.113815 -0.0961822 1.262 255 255 255
0.843724 -0.440237 1.714 255 255 255
-0.0442762 0.0260141 1.744 255 255 255
-0.346568 0.648281 1.826 255 255 255
-0.122644 0.30383 2.004 255 255 255
-0.0975205 -0.162093 1.513 255 255 255
0.79337 0.534865 1.978 255 255 255
0.0793575 0.405784 1.779 255 255 255
-0.877669 0.502725 2.085 255 255 255
0.198121 -0.158236 1.477 255 255 255
0.46033 -0.615613 1.972 255 255 255
0.67104 -0.216881 1.571 255 255 255
-0.731078 0.511097 2.064 255 255 255
0.855787 -0.839206 2.196 255 255 255
0.681791 0.0417259 1.81 255 255 255
-0.94796 0.52559 2.004 255 255 255
-0.544396 -0.598198 2.329 255 255 255
-0.42513 0.0626911 2.383 255 255 255
0.346495 -0.401379 1.739 255 255 255
-1.48825 -0.906648 2.982 0 0 0
-0.0506811 0.220314 1.876 255 255 255
-0.209529 0.0927712 2.024 255 255 255
-0.190543 -0.498564 1.87 255 255 255
0.159319 0.666364 1.705 255 255 255
-0.903414 0.399394 2.269 255 255 255
0.178007 -0.0242854 1.905 255 255 255
0.573999 -0.270987 1.668 255 255 255
0.747402 -0.72872 2.037 0 0 0
-0.0178458 0.459593 1.959 255 255 255
-0.64845 0.460626 2.158 255 255 255
-0.127492 0.254824 1.978 255 255 255
-0.872341 0.343168 2.365 255 255 255
-0.76654 0.649469 1.821 255 255 255
0.139096 -0.0209296 1.882 255 255 255
0.108621 0.659498 1.784 255 255 255
1.16284 0.10888 2.294 0 0 0
0.675253 0.416869 1.953 255 255 255
0.658695 -0.278318 1.616 255 255 255
-0.413915 0.626019 1.848 255 255 255
0.252707 -0.251227 1.516 255 255 255
0.0425898 -0.373334 1.595 255 255 255
-0.538319 0.375397 2.303 255 255 255
-1.32968 0.251825 2.572 255 255 255
0.724459 -0.228352 1.616 255 255 255
0.537143 0.488626 1.724 255 255 255
-0.948881 0.26212 2.55 255 255 255
-0.0840206 0.67593 1.744 255 255 255
-0.283002 0.407359 2.212 255 255 255
-0.449893 0.10641 2.499 255 255 255
-1.13524 0.431621 2.189 255 255 255
0.845194 0.337386 1.865 255 255 255
-0.131967 0.267022 1.997 255 255 255
1.12429 -0.909055 2.42 255 255 255
0.473799 -0.284174 1.65 255 255 255
-0.965481 0.242413 2.561 255 255 255
0.533477 -0.603363 1.837 255 255 255
-0.414723 -0.239708 2.204 255 255 255
0.0322616 0.322921 1.905 255 255 255
-0.699296 0.354871 2.392 255 255 255
0.90321 0.632014 1.805 255 255 255
-0.0499247 0.153872 1.848 255 255 255
0.798642 -0.730657 2.024 0 0 0
-0.26336 0.0243146 2.085 255 255 255
-0.408891 0.664462 1.774 255 255 255
-0.698942 0.453219 2.173 255 255 255
0.672168 0.303118 1.917 255 255 255
-0.528449 0.309101 2.43 255 255 255
-1.47855 -0.969733 2.982 255 255 255
0.908738 -0.570798 1.929 255 255 255
-0.933385 0.165955 2.672 255 255 255
0.107309 0.487784 1.673 255 255 255
-0.169993 0.480867 2.064 0 0 0
-1.49781 -0.965107 2.953 255 255 255
-1.14828 0.0899509 2.884 255 255 255
-0.0544474 -0.41712 1.624 255 255 255
-0.0669751 -0.273987 1.547 255 255 255
-0.197539 0.499349 2.071 0 0 0
-0.22234 0.524566 2.051 255 255 255
-0.299684 -0.107649 2.078 255 255 255
-0.781986 0.577642 1.917 255 255 255
0.430095 0.53323 1.637 255 255 255
-0.00670705 -0.322392 1.587 0 0 0
0.707838 0.4671 1.991 255 255 255
-1.06541 0.0104588 2.967 255 255 255
0.638507 0.65836 1.821 255 255 255
-0.528642 0.160216 2.649 255 255 255
0.630233 -0.271767 1.624 255 255 255
-0.596793 0.197274 2.684 255 255 255
-1.28798 0.108234 2.871 255 255 255
0.0461868 0.519072 1.842 255 255 255
0.592282 -0.102199 1.705 255 255 255
-0.342328 -0.537918 2.03 255 255 255
0.251678 0.302188 1.972 255 255 255
-0.0648538 -0.167799 1.498 0 0 0
0.774771 -0.727707 2.121 0 0 0
-0.279247 -0.980519 2.831 255 255 255
0.559669 -0.179905 1.539 255 255 255
0.711597 0.0539808 1.826 255 255 255
0.286007 -0.176059 1.39 255 255 255
-1.30495 0.107706 2.857 255 255 255
0.474721 0.0107788 2.092 255 255 255
0.0376153 -0.0107559 1.724 255 255 255
-0.717639 0.514455 2.064 255 255 255
0.860602 0.578399 1.899 255 255 255
-1.05755 0.247639 2.572 255 255 255
-1.1188 0.41967 2.22 255 255 255
-0.681003 0.468074 2.128 255 255 255
-0.793218 0.643543 1.821 255 255 255
0.839046 -0.387229 1.739 255 255 255
-0.147822 -0.607351 1.831 0 0 0
0.940344 -0.084795 2.017 255 255 255
0.430061 0.481616 1.607 255 255 255
0.364307 0.39278 1.799 255 255 255
-0.0487971 -0.411415 1.612 255 255 255
0.585676 -0.00558059 1.87 0 0 0
1.07368 0.326676 2.303 0 0 0
-0.155327 -0.331529 1.686 255 255 255
-0.317855 0.420232 2.204 255 255 255
-0.0616259 0.673713 1.753 255 255 255
0.12871 0.467325 1.668 255 255 255
0.643831 -0.493851 1.935 255 255 255
0.106185 0.681606 1.744 255 255 255
0.813397 0.628726 1.821 255 255 255
-0.323362 -0.239531 2.078 255 255 255
0.591318 0.310618 2.071 255 255 255
0.0254304 0.0882336 1.859 255 255 255
0.662562 0.375997 1.972 255 255 255
0.427158 -0.0514564 1.997 255 255 255
-0.0426928 0.28932 1.929 255 255 255
-0.218254 0.0970142 2.044 255 255 255
-0.592894 0.668949 1.763 255 255 255
0.374136 0.485279 1.637 0 0 0
0.1894 -0.44152 1.607 255 255 255
0.799774 -0.0837091 1.784 255 255 255
0.0170734 0.303755 1.941 255 255 255
-0.0685818 -0.138841 1.646 255 255 255
0.830492 -0.0619078 1.826 255 255 255
0.760399 0.51408 2.01 255 255 255
0.145256 0.335361 1.923 0 0 0
-0.0764337 -0.544659 1.642 0 0 0
-1.03746 0.164526 2.649 255 255 255
0.078528 0.328085 1.899 255 255 255
0.833396 -0.0206738 1.859 255 255 255
0.00602177 -0.450386 1.539 255 255 255
0.797485 -0.733822 2.099 0 0 0
0.903767 -0.0314617 1.966 255 255 255
0.640092 0.363161 1.972 255 255 255
0.917218 0.339546 1.947 255 255 255
-0.585751 0.477973 2.173 255 255 255
0.704293 0.430552 1.972 255 255 255
0.232091 -0.240636 1.543 255 255 255
-0.126719 0.243681 1.966 255 255 255
0.123782 -0.296133 1.571 255 255 255
0.590182 -0.0450203 1.865 255 255 255
-0.326028 0.56754 1.991 255 255 255
0.593533 -0.683081 2.01 255 255 255
0.735019 -0.101116 1.734 255 255 255
0.754747 -0.547828 2.03 255 255 255
0.823009 0.437624 1.905 255 255 255
0.839122 0.513414 1.865 255 255 255
-0.383227 0.658436 1.789 255 255 255
-0.826619 0.405344 2.261 255 255 255
0.74997 -0.589144 1.991 0 0 0
0.49641 0.459235 1.719 255 255 255
-0.279061 0.576768 1.935 255 255 255
-0.448081 0.622673 1.865 255 255 255
-0.43063 0.319838 2.392 255 255 255
-0.801781 0.462882 2.136 255 255 255
0.603517 0.387347 1.917 255 255 255
-0.607446 -0.674115 2.383 0 0 0
0.1292 0.318716 1.917 255 255 255
-0.297375 0.588274 1.911 255 255 255
-0.381045 -0.142351 2.196 255 255 255
0.0399499 0.486176 1.831 255 255 255
0.746331 0.667934 1.831 255 255 255
0.0284942 -0.264368 1.535 255 255 255
0.818858 0.660276 1.794 255 255 255
-0.77399 0.598827 1.905 255 255 255
-0.947373 0.580762 1.917 255 255 255
0.577558 -0.318436 1.719 255 255 255
0.343429 0.201499 2.166 255 255 255
0.728932 0.239072 1.81 255 255 255
1.0909 -0.0593358 2.166 255 255 255
-0.387456 -0.0220251 2.32 255 255 255
-0.801415 0.243595 2.53 255 255 255
0.826979 0.39505 1.865 255 255 255
0.618206 0.661387 1.805 255 255 255
1.17304 -0.313468 2.383 255 255 255
0.599799 -0.0904065 1.642 255 255 255
0.1097 -0.11266 1.286 255 255 255
0.10149 -0.0653768 1.262 255 255 255
0.541317 -0.362412 1.784 255 255 255
0.250106 0.334305 1.935 255 255 255
-0.00807635 0.48254 1.911 0 0 0
0.511507 0.115295 1.959 255 255 255
0.827604 -0.431333 1.769 0 0 0
0.0193673 -0.360452 1.607 255 255 255
0.573522 0.248426 1.953 255 255 255
-1.0447 0.480599 2.107 255 255 255
0.785826 -0.137799 1.734 255 255 255
0.540206 -0.13974 1.959 0 0 0
-0.184455 -0.106003 1.87 255 255 255
-0.842444 0.509363 2.057 255 255 255
-0.219002 0.110697 2.051 255 255 255
-0.800709 0.571403 1.917 255 255 255
-0.222632 0.506118 2.085 255 255 255
0.0561638 -0.36682 1.612 255 255 255
-1.4303 0.146199 2.793 255 255 255
-0.109254 -0.146541 1.505 255 255 255
0.0969589 -0.481662 1.551 255 255 255
1.07411 0.316665 2.312 0 0 0
-0.64905 0.524839 2.092 255 255 255
0.493034 0.3647 1.865 255 255 255
0.450206 -0.23552 1.559 255 255 255
0.826161 -0.0878745 1.81 255 255 255
-0.187664 0.242536 2.037 255 255 255
-0.159555 0.253284 2.017 255 255 255
-0.451212 -0.29006 2.261 255 255 255
0.577472 -0.0857431 1.893 0 0 0
0.890966 0.0133289 1.966 255 255 255
0.610609 -0.521104 1.991 255 255 255
0.495097 0.406806 1.734 255 255 255
-0.727031 0.648281 1.826 255 255 255
0.23207 -0.345931 1.65 255 255 255
0.803229 0.540207 1.917 255 255 255
-0.00182673 0.334336 1.882 255 255 255
0.260029 -0.30767 1.591 255 255 255
0.170585 -0.535595 1.532 255 255 255
0.0965484 0.516681 1.724 255 255 255
-0.139686 0.619161 1.882 255 255 255
-0.339855 0.598827 1.905 255 255 255
0.756452 -0.589144 1.991 0 0 0
0.712438 -0.465126 1.734 0 0 0
0.575777 0.00952158 1.848 0 0 0
-1.4856 -0.911744 2.967 0 0 0
0.213863 0.373256 1.893 255 255 255
0.281437 0.474917 1.705 0 0 0
1.05623 0.111782 2.204 255 255 255
0.589507 -0.0966498 1.705 255 255 255
-0.398278 -0.282307 2.173 255 255 255
0.441703 -0.107077 2.004 255 255 255
-0.770802 0.0249437 2.967 255 255 255
0.478149 -0.749521 1.953 255 255 255
0.141094 0.156529 1.997 255 255 255
