ply
format ascii 1.0
comment Created by Open3D
element vertex 1334
property double x
property double y
property double z
property uchar red
property uchar green
property uchar blue
end_header
0.082488 0.162345 0.967 255 255 255
0.322829 -0.0179982 1.252 255 255 255
0.0465594 0.123176 1.007 255 255 255
-0.191034 0.191741 0.823 255 255 255
-0.0407728 0.265288 0.724 255 255 255
-0.0374705 -0.0944234 1.387 0 0 0
-0.666663 -0.506335 1.865 255 255 255
0.148445 0.244863 0.826 255 255 255
-0.149121 0.0204715 1.034 0 0 0
0.208072 -0.247297 1.673 0 0 0
-0.118707 -0.0565601 1.165 255 255 255
0.289583 -0.748945 2.269 255 255 255
0.270026 0.129989 1.009 0 0 0
0.421076 0.154604 0.847 0 0 0
0.120584 0.182393 0.91 255 255 255
0.103236 0.234312 0.734 255 255 255
0.249028 0.239391 0.812 0 0 0
-0.436804 0.218158 0.837 255 255 255
-0.12528 0.239881 0.722 0 0 0
0.789015 -0.503671 2.672 255 255 255
-0.526226 -0.12969 1.378 255 255 255
-0.14569 -0.131797 1.477 0 0 0
-0.344942 -0.38232 1.882 255 255 255
0.0414717 -0.040242 1.313 255 255 255
-0.68947 -0.666265 1.821 255 255 255
-0.844406 -0.305839 1.81 0 0 0
0.320712 0.128588 1.024 255 255 255
-0.182456 0.176354 0.839 255 255 255
-0.435018 0.135048 1.01 255 255 255
0.0518864 0.229841 0.83 255 255 255
-0.548444 -0.652807 1.876 255 255 255
-0.0409574 0.141036 0.983 0 0 0
-0.0903341 0.209544 0.809 255 255 255
-0.57176 -0.28737 1.805 255 255 255
0.0585806 -0.0140902 1.267 0 0 0
0.527827 -0.939875 2.449 255 255 255
0.456347 0.116031 0.924 0 0 0
-0.241031 0.266304 0.69 255 255 255
0.938265 -0.691612 2.459 255 255 255
0.231376 0.0783414 1.09 0 0 0
0.274137 -0.436594 1.905 255 255 255
0.0300694 0.17222 0.952 255 255 255
0.222928 0.230581 0.823 255 255 255
-0.230357 0.258638 0.709 255 255 255
0.362292 0.0503532 1.139 255 255 255
0.199902 -0.247297 1.673 255 255 255
0.766427 -0.479239 2.731 255 255 255
-0.354082 -0.186801 1.494 255 255 255
1.07683 -0.460594 2.402 255 255 255
0.0212337 -0.635904 2.037 0 0 0
-0.646777 -0.65918 1.826 255 255 255
-0.609435 -0.316588 1.821 255 255 255
-0.235064 -0.098621 1.294 255 255 255
-0.0201935 0.266356 0.705 255 255 255
-0.1742 0.241351 0.73 255 255 255
-0.567838 -0.274033 1.739 255 255 255
0.284853 0.179651 0.882 255 255 255
0.355013 0.225074 0.751 255 255 255
1.07695 -0.816927 2.294 255 255 255
1.06055 -0.305712 2.383 255 255 255
0.49014 -0.674356 2.44 255 255 255
0.332697 0.226636 0.773 0 0 0
0.975823 -0.882057 2.338 255 255 255
-0.0737943 0.243969 0.801 255 255 255
0.200588 0.287531 0.745 0 0 0
0.26709 0.206131 0.827 0 0 0
-0.291486 0.0167361 1.122 255 255 255
-0.165161 0.219771 0.789 0 0 0
1.04901 -0.230052 2.626 255 255 255
-0.301095 0.14628 0.986 255 255 255
-1.00004 -0.427067 2.037 0 0 0
-0.455575 -0.694715 2.064 0 0 0
-0.673596 -0.426051 1.859 0 0 0
-0.128419 -0.304669 1.769 255 255 255
-1.02945 -0.448468 1.985 255 255 255
-0.477107 -0.088841 1.305 255 255 255
0.883849 -0.376491 2.793 255 255 255
0.196523 0.279795 0.767 255 255 255
-0.227203 0.0694695 1.037 255 255 255
0.474135 0.112815 1.017 255 255 255
0.242034 0.0985168 1.059 0 0 0
0.965259 -0.528121 2.519 255 255 255
-0.592998 -0.491016 1.853 255 255 255
0.156353 0.178409 0.92 255 255 255
0.149808 0.119552 1.018 255 255 255
-0.37947 0.209215 0.898 255 255 255
-0.286122 0.186802 0.932 255 255 255
1.12893 -0.117975 2.43 255 255 255
0.362363 0.10824 1.053 255 255 255
1.00205 -0.17988 2.707 0 0 0
-0.526553 0.0118205 1.178 255 255 255
-0.0492068 -0.666739 2.071 0 0 0
-0.0973992 0.0492866 1.004 0 0 0
0.403393 -0.545137 2.329 0 0 0
1.00216 -0.503525 2.519 255 255 255
0.089792 -0.481846 1.876 255 255 255
0.0968959 0.0342331 1.158 0 0 0
0.160158 0.24427 0.824 255 255 255
0.361103 0.0769891 1.096 255 255 255
0.173045 0.252988 0.809 255 255 255
0.121599 0.134246 1.004 255 255 255
0.21073 -0.191315 1.571 255 255 255
0.341947 0.211814 0.774 255 255 255
0.280158 0.226457 0.799 255 255 255
-0.0302621 0.0294189 1.192 0 0 0
-0.166176 0.0139003 1.046 255 255 255
-0.645412 -0.415286 1.865 0 0 0
0.0293171 -0.148469 1.452 255 255 255
-0.226616 -0.41344 1.972 0 0 0
1.05667 -0.566589 2.22 255 255 255
0.262532 0.143942 0.981 255 255 255
0.245173 0.203325 0.849 255 255 255
-0.253289 -0.0528377 1.21 255 255 255
-0.366113 -0.339412 1.865 255 255 255
0.75814 -0.839671 2.459 255 255 255
-0.822853 -0.657957 1.882 255 255 255
-0.308317 -0.739066 2.114 255 255 255
-0.948666 -0.503382 1.985 255 255 255
-0.915883 -0.605344 1.991 0 0 0
-0.52278 0.131527 1.034 255 255 255
0.172666 0.0800417 1.089 0 0 0
0.108586 -0.58442 1.997 0 0 0
0.871201 -0.767998 2.684 255 255 255
-1.00978 -0.738824 1.917 255 255 255
0.0781615 0.148785 0.992 255 255 255
-0.503062 0.150854 0.995 255 255 255
-0.946819 -0.707975 1.935 255 255 255
0.231422 0.174453 0.939 255 255 255
-0.647238 -0.128294 1.412 255 255 255
-0.0506359 0.224313 0.85 0 0 0
0.289102 0.250587 0.781 255 255 255
0.334968 0.0642086 1.122 255 255 255
-0.0970935 0.245251 0.731 255 255 255
1.14043 -0.137504 2.294 255 255 255
1.16475 -0.0264011 2.374 255 255 255
1.06209 -0.412291 2.44 255 255 255
0.188305 0.154484 0.977 255 255 255
0.421128 0.0567022 1.118 255 255 255
-0.00936728 -0.00781114 1.252 255 255 255
-0.333039 0.0973074 1.046 255 255 255
-0.245218 0.103512 1.007 255 255 255
-0.310359 -0.674701 2.128 255 255 255
-0.440398 0.178454 0.944 255 255 255
-0.421661 0.0118907 1.185 255 255 255
0.350907 0.254449 0.72 255 255 255
0.551414 0.00638379 1.239 255 255 255
-1.00321 -0.63387 1.959 255 255 255
-0.0158163 -0.160204 1.473 0 0 0
1.11488 -0.202436 2.228 255 255 255
-0.658415 -0.210543 1.473 0 0 0
0.133149 -0.529989 1.929 255 255 255
0.386219 -0.138349 1.47 255 255 255
0.123438 0.0197862 1.196 0 0 0
0.41579 -0.171943 1.535 255 255 255
0.397076 -0.00976989 1.242 255 255 255
-0.496784 0.00624983 1.213 255 255 255
0.316853 0.210603 0.803 0 0 0
0.316712 0.261948 0.777 255 255 255
-0.209353 0.0869289 1.024 255 255 255
-0.2104 0.261433 0.689 255 255 255
-0.13825 -0.0522702 1.154 0 0 0
0.394191 0.123823 0.999 0 0 0
-0.119499 0.262 0.676 255 255 255
0.433988 -0.00367662 1.232 255 255 255
0.245254 0.222012 0.826 0 0 0
-0.956074 -0.700694 1.941 255 255 255
-0.107943 0.27169 0.701 255 255 255
-0.368611 0.270311 0.741 255 255 255
0.188289 0.198946 0.848 0 0 0
0.213358 0.186169 0.914 255 255 255
-0.458035 0.12683 1.01 255 255 255
-0.754934 -0.242771 1.607 255 255 255
0.0250742 0.127202 1 255 255 255
-0.0341082 0.21122 0.888 0 0 0
0.284923 0.156805 0.934 255 255 255
0.41323 0.166304 0.81 0 0 0
-0.268211 0.124947 0.995 255 255 255
0.0334992 -0.0539915 1.336 255 255 255
0.109201 0.273109 0.726 0 0 0
-0.443194 -0.343365 1.87 255 255 255
-0.283783 -0.0883159 1.267 255 255 255
-0.0614557 0.230634 0.828 255 255 255
-0.0549706 0.0457998 1.036 255 255 255
-0.330417 0.216393 0.81 0 0 0
-0.316858 -0.217132 1.502 0 0 0
-0.0473481 -0.415286 1.865 255 255 255
-0.212144 0.229151 0.773 255 255 255
0.307308 0.272295 0.76 255 255 255
0.114173 0.244993 0.831 255 255 255
0.0508238 -0.314813 1.794 255 255 255
0.15321 0.1398 0.997 255 255 255
0.323976 -0.0374088 1.289 255 255 255
0.171399 0.233382 0.833 255 255 255
1.10565 -0.190332 2.347 255 255 255
0.301193 0.17859 0.863 0 0 0
-0.319082 0.194645 0.905 255 255 255
0.240716 -0.661679 2.261 0 0 0
0.485951 -0.591572 2.459 255 255 255
0.305245 0.189939 0.821 255 255 255
-0.360719 0.20269 0.895 255 255 255
-0.103555 0.208241 0.752 255 255 255
0.356865 -0.0964714 1.384 255 255 255
-0.616702 -0.708538 1.87 255 255 255
-0.0365106 0.0640922 1.089 255 255 255
-0.331684 0.208692 0.854 255 255 255
0.524693 -0.518076 2.53 0 0 0
-0.512541 0.112412 1.044 255 255 255
-0.000848333 0.215001 0.874 255 255 255
0.109201 0.254206 0.726 255 255 255
0.0927135 0.220243 0.845 0 0 0
0.108184 -0.740404 2.051 255 255 255
0.777895 -0.779452 2.55 255 255 255
-0.903933 -0.500085 1.972 255 255 255
0.210098 0.276236 0.771 255 255 255
-0.30147 0.23581 0.832 255 255 255
-0.0907095 0.105493 0.951 255 255 255
0.336805 0.0882494 1.081 255 255 255
0.028497 0.212462 0.858 0 0 0
0.0940493 0.0832419 1.062 255 255 255
0.00171602 0.24585 0.751 255 255 255
-0.846025 -0.544233 1.935 255 255 255
1.02952 -0.786574 2.383 255 255 255
-0.410734 -0.490577 1.947 255 255 255
-0.330002 0.240986 0.787 255 255 255
0.0704712 -0.30553 1.774 255 255 255
-0.16113 -0.345569 1.882 0 0 0
1.0831 -0.176832 2.479 255 255 255
0.324821 0.0216598 1.192 255 255 255
-0.126288 0.173901 0.847 255 255 255
-0.191326 -0.164358 1.406 255 255 255
-0.893993 -0.734878 1.923 255 255 255
0.160491 -0.292518 1.748 255 255 255
-0.434311 0.155908 0.986 255 255 255
0.340848 0.0254323 1.187 255 255 255
0.928754 -0.819998 2.509 255 255 255
0.293442 0.0418431 1.16 255 255 255
0.993942 -0.422039 2.572 255 255 255
0.134734 -0.269463 1.71 255 255 255
0.394378 0.0536331 1.13 255 255 255
0.168649 -0.401184 1.87 255 255 255
0.139528 0.184972 0.88 255 255 255
-0.0281162 0.263454 0.732 255 255 255
0.386931 -0.206696 1.591 255 255 255
-0.363458 0.206134 0.891 255 255 255
-0.350645 0.265916 0.749 0 0 0
0.349735 0.257964 0.72 255 255 255
-0.147645 -0.108076 1.449 255 255 255
1.05006 -0.585181 2.449 255 255 255
-0.055071 0.103512 1.007 255 255 255
0.309727 0.138422 0.913 0 0 0
0.0979201 0.243727 0.73 0 0 0
0.550215 0.0769891 1.096 255 255 255
-0.0406988 0.168322 0.906 0 0 0
0.904691 -0.764739 2.719 255 255 255
-0.81324 -0.500082 1.947 255 255 255
-0.564607 -0.0200676 1.254 255 255 255
0.00946629 0.254688 0.692 0 0 0
-0.0574477 0.260937 0.774 0 0 0
-0.439106 -0.168247 1.502 255 255 255
0.304346 0.112842 1.048 255 255 255
0.33437 -0.0484914 1.305 255 255 255
-0.103175 0.146104 0.924 255 255 255
-0.140863 0.258069 0.689 255 255 255
-0.246971 -0.0527503 1.208 255 255 255
-0.415035 -0.331197 1.853 255 255 255
-0.337973 0.249278 0.773 255 255 255
-0.0253281 0.099168 1.066 0 0 0
1.12847 -0.139788 2.212 255 255 255
-0.0806232 -0.484404 1.935 255 255 255
0.349803 0.250316 0.725 0 0 0
0.268475 -0.401761 1.887 255 255 255
-0.565094 -0.607351 1.831 255 255 255
-0.332113 0.269831 0.743 0 0 0
0.345498 -0.292997 1.734 255 255 255
-0.728732 -0.530216 1.853 255 255 255
-0.00132588 -0.0729874 1.366 0 0 0
-0.0731093 -0.3234 1.826 255 255 255
0.859522 -0.888773 2.44 255 255 255
0.19986 0.029024 1.176 0 0 0
-0.744815 -0.543822 1.848 255 255 255
0.290044 0.262094 0.77 255 255 255
-1.02241 -0.641849 1.935 255 255 255
0.433773 0.0500438 1.132 255 255 255
1.11712 -0.404215 2.347 255 255 255
-0.336645 0.269345 0.745 0 0 0
-0.534122 0.119093 1.043 0 0 0
0.327313 -0.113005 1.422 255 255 255
0.153977 0.0890926 1.07 255 255 255
-0.233271 0.154622 0.921 255 255 255
-0.323424 0.225342 0.809 0 0 0
-0.284229 -0.766587 2.114 255 255 255
-0.473945 -0.0933024 1.308 255 255 255
-0.375293 -0.309286 1.779 255 255 255
-0.366094 0.244545 0.782 255 255 255
-0.0276262 0.269672 0.69 255 255 255
-0.241079 -0.719719 2.128 255 255 255
1.0348 -0.465125 2.489 255 255 255
-0.415264 0.132805 1.018 255 255 255
0.31746 -0.00974629 1.239 255 255 255
-0.438464 0.124522 1.018 255 255 255
0.417826 0.127838 1.005 0 0 0
0.343098 0.04867 1.143 255 255 255
1.08335 -0.7415 2.151 255 255 255
-0.302512 -0.249479 1.567 255 255 255
0.14709 0.261422 0.783 255 255 255
-0.0356335 -0.036133 1.319 255 255 255
-0.101893 -0.00690026 1.106 255 255 255
1.05536 -0.105479 2.509 0 0 0
-0.60343 -0.339326 1.848 255 255 255
0.0733025 -0.67981 2.01 255 255 255
0.891996 -0.828164 2.509 255 255 255
-0.123154 0.0780093 0.975 255 255 255
0.196604 0.171497 0.948 0 0 0
-0.117947 0.138967 0.888 255 255 255
-0.0619964 -0.113799 1.432 0 0 0
0.054637 0.192245 0.874 255 255 255
0.237415 0.280452 0.762 0 0 0
0.146185 0.225477 0.844 255 255 255
0.31705 0.05053 1.143 255 255 255
0.0440805 -0.291331 1.758 255 255 255
-0.428671 0.0434292 1.152 255 255 255
-0.216321 0.261812 0.69 255 255 255
1.00199 -0.375346 2.626 255 255 255
0.0012368 -0.376195 1.882 255 255 255
0.294933 0.142622 0.972 0 0 0
-0.457103 0.186001 0.928 255 255 255
-0.442195 -0.0529706 1.26 255 255 255
-0.125764 0.136592 0.882 255 255 255
-0.1488 0.0675938 1.009 255 255 255
-0.133998 0.13189 0.889 255 255 255
0.382474 -0.0989376 1.387 255 255 255
0.106506 -0.177862 1.543 255 255 255
0.358934 0.10824 1.053 255 255 255
0.50323 0.108179 1.036 255 255 255
0.024599 -0.203545 1.607 255 255 255
-0.510689 -0.0201957 1.262 255 255 255
-0.292734 0.220839 0.858 255 255 255
0.405466 0.172188 0.935 255 255 255
0.27418 0.190701 0.88 0 0 0
-0.57978 -0.082255 1.336 255 255 255
0.0335781 0.236749 0.812 255 255 255
-0.433606 0.192509 0.923 255 255 255
1.14203 -0.131512 2.32 255 255 255
0.240047 -0.0395064 1.289 255 255 255
0.270541 -0.280085 1.724 255 255 255
-0.54125 -0.568616 1.831 255 255 255
-0.347277 0.267637 0.747 0 0 0
-0.372076 0.168629 0.958 255 255 255
0.240848 0.136555 0.997 255 255 255
-0.651564 -0.182925 1.463 0 0 0
0.0574978 0.226605 0.833 255 255 255
0.00636845 0.255862 0.724 0 0 0
-0.421313 -0.0336675 1.229 255 255 255
-0.689547 -0.573469 1.837 255 255 255
0.0258583 -0.122034 1.393 0 0 0
0.452528 0.124456 0.954 0 0 0
-0.402579 0.213771 0.869 255 255 255
0.531643 -0.889085 2.43 255 255 255
0.347658 0.133576 0.931 255 255 255
-0.525318 -0.323194 1.859 255 255 255
-0.0118438 -0.200505 1.583 255 255 255
0.139649 0.282044 0.737 255 255 255
-0.504246 -0.367007 1.882 0 0 0
-0.389626 0.143332 0.999 255 255 255
0.978677 -0.590972 2.44 255 255 255
-0.199404 -0.235003 1.539 255 255 255
0.844986 -0.597656 2.684 255 255 255
-0.679962 -0.215975 1.494 0 0 0
0.391298 -0.190828 1.567 255 255 255
0.176629 0.0655636 1.114 255 255 255
-0.201032 0.23172 0.769 255 255 255
0.255376 0.240544 0.807 0 0 0
-0.346213 0.200199 0.884 255 255 255
1.12005 -0.50535 2.253 255 255 255
0.993979 -0.482923 2.54 255 255 255
-0.169234 0.245905 0.719 255 255 255
-0.594614 -0.615888 1.821 255 255 255
-0.299917 0.266764 0.799 255 255 255
0.487928 -0.577906 2.469 255 255 255
0.251814 0.0750683 1.094 255 255 255
0.095371 0.240453 0.777 255 255 255
-0.266286 0.242574 0.788 255 255 255
1.06606 -0.741858 2.44 255 255 255
0.462337 -0.626708 2.44 255 255 255
-0.337492 0.214544 0.808 0 0 0
-0.420681 -0.0507989 1.257 255 255 255
-0.0470323 -0.215994 1.642 255 255 255
0.457932 -0.667603 2.459 255 255 255
-0.490227 -0.453964 1.887 255 255 255
-0.322916 0.168944 0.951 255 255 255
-0.182259 0.248027 0.715 255 255 255
-0.233405 0.257505 0.722 255 255 255
-0.0152365 -0.13124 1.419 0 0 0
-0.0390524 0.262498 0.736 255 255 255
-0.214767 0.155491 0.9 255 255 255
1.16611 -0.0944852 2.338 255 255 255
0.357087 0.258638 0.709 255 255 255
-0.99418 -0.357113 1.911 255 255 255
-0.312807 0.251794 0.773 0 0 0
0.105739 -0.0629695 1.342 255 255 255
-0.503258 0.0628275 1.13 255 255 255
0.330618 -0.0599703 1.324 255 255 255
0.393167 0.176543 0.942 255 255 255
-0.0180848 0.215534 0.882 0 0 0
0.180007 0.198946 0.848 0 0 0
-0.969389 -0.697894 1.899 255 255 255
-0.147158 0.0675938 1.009 255 255 255
-0.138422 0.18002 0.837 255 255 255
1.09925 -0.244907 2.286 255 255 255
-0.232592 -0.582545 2.212 0 0 0
0.231843 0.287136 0.76 0 0 0
-0.360558 0.0947826 1.037 255 255 255
0.466883 0.113391 0.927 0 0 0
-0.222095 0.227808 0.777 255 255 255
0.191495 0.159527 0.969 255 255 255
-0.380249 0.141848 1 255 255 255
-0.238436 0.260945 0.709 255 255 255
-0.0444378 0.213947 0.864 255 255 255
0.38789 -0.12079 1.432 255 255 255
-0.209461 0.00559032 1.085 255 255 255
-0.0146647 0.117959 1.048 0 0 0
-0.191729 0.254456 0.707 255 255 255
0.146565 -0.23925 1.655 0 0 0
0.278912 -0.00575067 1.247 255 255 255
0.326686 -0.182409 1.539 255 255 255
-0.359224 -0.76043 2.051 255 255 255
0.246221 0.0271564 1.178 255 255 255
-0.259196 0.261016 0.742 255 255 255
-0.778528 -0.248746 1.629 255 255 255
0.392747 -0.018027 1.254 255 255 255
0.438506 -0.622737 2.44 255 255 255
-0.228328 0.240159 0.764 255 255 255
0.289671 0.232499 0.793 255 255 255
0.14546 0.241226 0.832 255 255 255
1.07301 -0.568254 2.411 255 255 255
-0.07643 0.194763 0.86 255 255 255
0.367238 0.223852 0.751 255 255 255
0.130233 0.181391 0.905 255 255 255
0.0180434 -0.0425723 1.319 255 255 255
-0.388022 0.257903 0.765 255 255 255
0.0348062 0.127075 0.999 255 255 255
0.0212773 -0.117247 1.39 0 0 0
0.201259 0.0327677 1.173 0 0 0
-0.185077 0.234538 0.75 255 255 255
0.571678 -0.892051 2.449 255 255 255
-0.281958 0.0853921 1.046 255 255 255
-0.0418176 0.190925 0.868 255 255 255
0.207023 0.205271 0.84 0 0 0
0.183602 0.22796 0.833 255 255 255
0.267389 0.248961 0.792 255 255 255
-0.436048 0.113591 1.024 255 255 255
0.858546 -0.771497 2.593 255 255 255
-0.878253 -0.48404 1.972 255 255 255
0.152302 -0.111971 1.409 0 0 0
0.735634 -0.815068 2.519 255 255 255
0.403926 0.173798 0.802 255 255 255
-0.187019 -0.448724 2.03 255 255 255
0.206328 -0.352305 1.853 255 255 255
-0.0364143 0.272099 0.708 255 255 255
-0.0453224 0.167584 0.91 0 0 0
0.331987 -0.140071 1.463 255 255 255
0.0504583 0.189386 0.901 255 255 255
-0.0578162 0.179787 0.897 0 0 0
-0.489288 0.0232828 1.176 255 255 255
-0.0128635 0.0217689 1.198 255 255 255
0.870684 -0.451646 2.78 255 255 255
-0.882965 -0.629987 1.947 0 0 0
-0.360877 0.208692 0.854 0 0 0
0.357087 0.260945 0.709 255 255 255
0.385291 0.198147 0.765 255 255 255
-0.0555709 -0.72918 2.057 255 255 255
-0.00672293 0.262011 0.738 255 255 255
1.07985 -0.773003 2.151 255 255 255
0.242512 0.144382 0.984 255 255 255
0.998605 -0.871081 2.329 255 255 255
0.0662899 0.273954 0.722 255 255 255
0.887351 -0.790472 2.519 255 255 255
-0.60343 -0.333311 1.848 255 255 255
0.668775 -0.723196 2.499 255 255 255
0.13867 0.174669 0.932 255 255 255
0.366784 -0.0179551 1.249 255 255 255
0.0468238 -0.185254 1.563 255 255 255
0.350126 0.168435 0.891 255 255 255
-0.630753 -0.214898 1.47 255 255 255
0.118315 -0.103452 1.387 0 0 0
0.406511 -0.809066 2.347 255 255 255
-0.305358 0.16035 0.974 255 255 255
-0.546275 -0.474654 1.848 255 255 255
-0.571487 -0.44014 1.842 0 0 0
1.12796 -0.0425065 2.411 255 255 255
0.0504501 -0.0120569 1.27 255 255 255
0.393025 0.17732 0.938 255 255 255
0.00255461 0.0694377 1.118 255 255 255
0.0283015 0.130326 0.999 255 255 255
-0.203571 0.0441564 1.037 255 255 255
0.0417849 0.197708 0.873 0 0 0
0.13283 -0.168673 1.528 255 255 255
0.486436 0.00424063 1.203 255 255 255
0.979256 -0.764287 2.374 255 255 255
1.17634 -0.00322138 2.374 0 0 0
-0.341942 0.241651 0.785 255 255 255
-0.142153 0.18729 0.827 255 255 255
-0.100734 0.082885 0.958 255 255 255
1.16284 -0.462283 2.294 255 255 255
-0.602919 -0.0234942 1.22 255 255 255
-0.25396 -0.448468 1.985 255 255 255
0.0391211 0.198613 0.877 0 0 0
-0.0742808 -0.0490116 1.319 255 255 255
0.133383 -0.111495 1.403 0 0 0
0.154785 -0.0246112 1.278 0 0 0
0.328892 0.207951 0.788 255 255 255
-0.828092 -0.3234 1.826 255 255 255
-0.720131 -0.317733 1.794 255 255 255
0.396889 0.170616 0.831 255 255 255
-0.232592 -0.571746 2.212 0 0 0
-0.951898 -0.558296 1.985 255 255 255
-0.476397 0.0970283 1.043 255 255 255
0.967344 -0.499323 2.672 255 255 255
-0.0752875 -0.282522 1.739 0 0 0
0.328296 0.141058 0.883 255 255 255
0.226623 0.236877 0.817 255 255 255
0.729363 -0.792929 2.54 255 255 255
-0.351646 -0.148027 1.425 255 255 255
0.359563 0.023461 1.185 255 255 255
-0.631455 -0.551049 1.842 0 0 0
0.320838 0.278734 0.754 255 255 255
0.650805 -0.577991 2.54 255 255 255
0.0813791 0.174135 0.954 255 255 255
0.144414 0.279504 0.743 0 0 0
-0.431036 -0.159736 1.491 0 0 0
-0.336402 0.0357705 1.09 255 255 255
0.239056 0.128474 1.01 255 255 255
-0.19195 -0.744964 2.121 255 255 255
-0.121954 0.0271495 1.032 255 255 255
0.812056 -0.772262 2.54 255 255 255
-0.244583 0.0963592 1.018 255 255 255
0.471136 0.011981 1.194 255 255 255
-0.0816481 0.186893 0.856 255 255 255
0.496767 -0.0673373 1.342 255 255 255
0.940646 -0.740401 2.53 255 255 255
0.102904 0.167573 0.952 255 255 255
-0.154143 0.165826 0.841 255 255 255
-0.2161 0.0260871 1.057 255 255 255
0.401134 -0.437899 2.173 0 0 0
0.382038 0.198446 0.771 255 255 255
1.06431 -0.169448 2.55 255 255 255
0.136827 -0.387635 1.893 0 0 0
-0.0324457 -0.154672 1.466 0 0 0
1.13547 -0.108798 2.402 255 255 255
-0.135942 0.0701753 0.999 255 255 255
-0.52491 -0.564092 1.826 255 255 255
0.177717 0.151769 0.98 0 0 0
-0.164694 0.241351 0.73 255 255 255
0.86391 -0.936538 2.43 255 255 255
0.107871 0.260935 0.725 0 0 0
0.133325 0.0892592 1.072 255 255 255
0.891451 -0.798671 2.519 255 255 255
0.121842 -0.202568 1.579 255 255 255
0.228888 0.203742 0.845 255 255 255
-0.264377 -0.0325717 1.189 255 255 255
-0.338147 0.0734768 1.046 255 255 255
0.0552054 0.0236392 1.194 255 255 255
-0.116202 -0.20651 1.532 255 255 255
-0.184467 0.0322501 1.034 255 255 255
-0.880244 -0.438527 1.941 255 255 255
0.322528 -0.765779 2.32 255 255 255
0.621863 -0.619325 2.54 255 255 255
1.07891 -0.293455 2.347 255 255 255
-0.157944 -0.816682 2.128 255 255 255
0.97957 -0.201952 2.768 0 0 0
0.12802 0.237274 0.842 0 0 0
0.303263 0.125623 1.027 255 255 255
-0.0828892 -0.0373217 1.286 255 255 255
0.168649 -0.431615 1.87 255 255 255
-0.749993 -0.258747 1.642 255 255 255
0.486168 -0.670385 2.44 255 255 255
0.320625 0.135886 0.906 0 0 0
-0.320139 0.0339655 1.089 255 255 255
-0.421991 0.175135 0.951 255 255 255
0.187349 0.196648 0.85 0 0 0
0.398788 -0.634649 2.44 255 255 255
-0.361144 0.0290963 1.106 255 255 255
-0.168901 0.254161 0.703 0 0 0
1.09158 -0.728405 2.383 255 255 255
0.218363 0.227389 0.826 255 255 255
0.374164 0.184387 0.797 255 255 255
0.413869 0.0715077 1.094 255 255 255
1.1133 -0.404215 2.347 255 255 255
-0.591811 -0.0328012 1.273 255 255 255
1.15102 -0.129131 2.278 255 255 255
0.961159 -0.536319 2.519 255 255 255
-0.187169 0.263216 0.682 255 255 255
-0.180251 -0.30179 1.769 255 255 255
-0.440164 -0.0419387 1.237 255 255 255
0.209077 -0.0968896 1.39 255 255 255
-0.303822 -0.216554 1.498 0 0 0
-0.222616 0.199406 0.816 255 255 255
-0.258682 0.188754 0.905 255 255 255
-0.234732 0.114737 0.977 255 255 255
-0.691363 -0.605693 1.826 0 0 0
0.35042 0.262285 0.719 0 0 0
0.92249 -0.943861 2.449 255 255 255
0.0208897 -0.677781 2.004 255 255 255
1.06209 -0.491705 2.44 255 255 255
1.0938 -0.383642 2.338 255 255 255
-0.247419 0.26062 0.705 255 255 255
0.0705183 -0.720776 2.024 255 255 255
-0.327679 -0.723182 2.128 255 255 255
0.234199 0.244376 0.811 0 0 0
-0.609447 -0.348348 1.848 255 255 255
-0.252529 0.0682395 1.044 255 255 255
-0.254935 -0.505016 2.128 0 0 0
-0.531621 0.0768524 1.12 255 255 255
-0.0364218 0.251178 0.756 0 0 0
-0.137676 -0.795421 2.136 255 255 255
0.400309 0.142614 0.994 255 255 255
1.12166 0.00463042 2.44 0 0 0
0.0448224 0.263889 0.717 0 0 0
0.930007 -0.368616 2.768 255 255 255
0.180928 -0.672482 2.121 255 255 255
0.127642 -0.0818791 1.366 0 0 0
0.107365 0.0339671 1.149 0 0 0
0.230729 0.183996 0.918 255 255 255
-0.31579 0.262055 0.759 0 0 0
-0.270245 -0.106796 1.291 255 255 255
0.18646 0.0309378 1.176 0 0 0
0.346548 -0.360223 1.911 255 255 255
-0.44629 0.174951 0.95 255 255 255
-0.772196 -0.436924 1.893 255 255 255
0.514807 -0.027025 1.294 255 255 255
0.205837 -0.0118385 1.247 255 255 255
-0.893272 -0.707975 1.935 0 0 0
-0.446904 0.006188 1.201 255 255 255
-0.562492 -0.443138 1.842 0 0 0
0.176581 -0.192885 1.563 255 255 255
-0.36187 0.208082 0.863 0 0 0
-0.116343 -0.441238 1.953 255 255 255
1.04359 -0.383721 2.54 255 255 255
-0.298593 -0.675969 2.143 255 255 255
-0.325977 0.272357 0.724 255 255 255
0.330586 -0.484632 2.085 0 0 0
0.115226 0.0939638 1.066 255 255 255
1.03004 -0.715091 2.43 255 255 255
-0.0116728 0.144658 0.944 255 255 255
-0.304234 0.261556 0.807 255 255 255
-0.273268 -0.340244 1.853 255 255 255
0.453339 0.117535 0.924 0 0 0
0.417596 -0.713423 2.411 255 255 255
-0.0740707 0.238341 0.804 255 255 255
1.05728 -0.288605 2.402 255 255 255
0.322931 0.139593 0.892 0 0 0
-0.0143868 0.162116 0.921 255 255 255
-0.464796 -0.329245 1.859 255 255 255
-0.384116 0.146725 0.989 255 255 255
0.398233 0.0701098 1.1 255 255 255
0.183978 0.0558156 1.137 255 255 255
-0.215198 0.260689 0.69 255 255 255
0.376141 0.176848 0.804 255 255 255
0.0604333 0.239854 0.767 255 255 255
-0.397542 -0.168247 1.502 255 255 255
-0.634912 -0.246399 1.532 255 255 255
0.205714 0.286703 0.746 0 0 0
0.28358 -0.134939 1.459 255 255 255
0.772046 -0.618757 2.572 255 255 255
-0.574793 0.0589404 1.126 255 255 255
1.08067 -0.23811 2.53 255 255 255
-0.0892889 -0.0349129 1.203 255 255 255
0.358793 0.0590451 1.128 255 255 255
-0.198565 0.197939 0.81 255 255 255
-0.49462 0.175981 0.939 255 255 255
1.07234 -0.801223 2.392 255 255 255
-0.501109 -0.459328 1.859 255 255 255
-0.0404512 0.229327 0.869 255 255 255
0.223659 0.0140057 1.201 255 255 255
0.0392541 0.217141 0.849 0 0 0
-0.553354 0.0022431 1.182 255 255 255
-0.687785 -0.169384 1.449 255 255 255
-0.109309 -0.43221 1.941 255 255 255
0.441351 0.130326 0.999 0 0 0
0.94509 -0.734256 2.509 255 255 255
-0.894303 -0.509712 1.972 255 255 255
-1.04237 -0.542145 1.985 255 255 255
0.0109601 0.253035 0.716 0 0 0
1.04509 -0.376933 2.392 255 255 255
0.445509 0.105515 1.043 255 255 255
-0.464502 -0.343365 1.87 255 255 255
0.780843 -0.853495 2.43 255 255 255
0.256315 -0.0439729 1.297 255 255 255
-0.245291 0.225157 0.799 255 255 255
-0.313798 0.0150166 1.13 255 255 255
0.12435 0.233994 0.845 255 255 255
0.424379 -0.0201156 1.257 255 255 255
-0.19597 0.236612 0.745 255 255 255
0.223733 0.153694 0.972 0 0 0
-0.272264 0.192539 0.916 255 255 255
-0.601693 -0.108554 1.366 255 255 255
1.08281 -0.731767 2.143 255 255 255
0.239109 0.219855 0.828 255 255 255
0.0969589 -0.17626 1.551 255 255 255
0.116997 0.159033 0.966 255 255 255
1.06909 -0.450549 2.411 255 255 255
0.340476 0.229654 0.754 255 255 255
0.131285 0.156051 0.967 255 255 255
0.0471897 -0.492575 1.882 255 255 255
-0.264273 0.269364 0.695 255 255 255
-0.103678 0.066053 0.986 0 0 0
-0.259572 -0.0226469 1.176 255 255 255
0.525776 -0.0471494 1.327 255 255 255
1.15022 0.0395725 2.392 0 0 0
0.00831241 0.180181 0.945 255 255 255
-0.386649 -0.0954309 1.308 255 255 255
-0.108163 0.0690513 0.983 255 255 255
0.180499 0.253676 0.807 255 255 255
0.488395 0.0061983 1.203 255 255 255
-0.109254 -0.168583 1.505 255 255 255
-0.29903 -0.0347098 1.196 255 255 255
-0.0389611 -0.761891 2.064 255 255 255
-0.688008 -0.323571 1.794 0 0 0
-0.0488033 0.105777 1.013 255 255 255
0.0754368 -0.370322 1.899 0 0 0
-0.258121 0.0683703 1.046 255 255 255
-0.0417633 -0.374124 1.887 0 0 0
1.08368 -0.719406 2.269 255 255 255
-0.111403 -0.658551 2.166 0 0 0
-0.188834 0.264657 0.68 255 255 255
0.575154 -0.707182 2.43 255 255 255
-0.0101362 0.146194 0.944 255 255 255
-0.199096 -0.00148721 1.096 255 255 255
0.594026 -0.847675 2.459 255 255 255
-0.612895 -0.177311 1.456 255 255 255
-0.708076 -0.0950361 1.396 255 255 255
0.951347 -0.658494 2.411 255 255 255
0.0510276 -0.4162 1.911 255 255 255
-0.330485 0.0203152 1.118 255 255 255
0.917299 -0.845865 2.489 255 255 255
0.776412 -0.830364 2.479 255 255 255
-0.669038 -0.200545 1.47 255 255 255
-0.101054 0.154882 0.905 255 255 255
0.367504 0.117495 1.029 255 255 255
0.241415 0.127207 1.013 0 0 0
-0.208912 -0.0755441 1.227 255 255 255
-0.0494068 0.00635803 1.234 0 0 0
-0.30875 0.0437385 1.068 255 255 255
-0.140062 -0.0102626 1.081 255 255 255
-0.183725 0.227889 0.786 255 255 255
-0.588686 -0.598107 1.821 255 255 255
-0.211266 -0.138056 1.372 255 255 255
0.747469 -0.369751 2.743 0 0 0
0.946902 -0.610825 2.44 255 255 255
0.00319897 -0.118091 1.4 0 0 0
0.393309 0.183121 0.786 255 255 255
0.255286 -0.308417 1.774 255 255 255
-0.0565445 0.177459 0.9 0 0 0
-0.15509 0.242902 0.724 255 255 255
-0.366972 -0.72918 2.057 255 255 255
0.233695 0.173477 0.942 255 255 255
1.0361 -0.297175 2.615 255 255 255
-0.628873 -0.0676383 1.348 255 255 255
-0.126719 -0.431378 1.966 255 255 255
-0.544222 -0.544767 1.821 255 255 255
0.201592 -0.436531 1.865 255 255 255
0.348563 0.263822 0.72 0 0 0
0.290191 0.197714 0.82 255 255 255
-0.433982 0.103896 1.027 255 255 255
-0.402513 -0.725534 2.085 255 255 255
0.399706 0.180563 0.786 255 255 255
-0.345869 0.155276 0.972 255 255 255
0.00251805 0.0792039 1.102 255 255 255
0.967329 -0.410507 2.66 255 255 255
-0.0589065 0.0360287 1.046 255 255 255
0.417318 0.148125 0.977 255 255 255
1.03903 -0.346374 2.509 255 255 255
-0.390067 0.248341 0.774 255 255 255
0.939665 -0.68696 2.561 255 255 255
0.146322 -0.633037 2.071 255 255 255
-0.430699 0.196374 0.92 255 255 255
0.185522 0.137651 1.005 255 255 255
0.342084 0.0882494 1.081 255 255 255
-0.172895 0.25207 0.71 0 0 0
0.225504 -0.815008 2.151 0 0 0
0.165384 -0.686001 2.099 255 255 255
-0.284023 0.220582 0.857 255 255 255
-0.327267 0.21957 0.812 0 0 0
-0.166508 0.209285 0.808 255 255 255
-0.408881 -0.691141 2.136 255 255 255
-0.452191 0.160232 0.983 255 255 255
0.175677 0.229591 0.834 255 255 255
0.231163 -0.0529408 1.31 255 255 255
0.163263 0.237449 0.833 255 255 255
0.45369 -0.1637 1.528 255 255 255
-0.882965 -0.658503 1.947 0 0 0
0.305629 0.253129 0.781 255 255 255
-0.321688 0.215003 0.857 255 255 255
-0.172529 -0.634718 2.181 0 0 0
0.0756779 0.239036 0.745 255 255 255
0.998274 -0.511728 2.499 255 255 255
-0.0877898 -0.712617 2.107 0 0 0
0.00988441 -0.298543 1.784 255 255 255
-0.352241 -0.544525 2.03 255 255 255
0.893437 -0.850535 2.479 255 255 255
1.04484 -0.642082 2.365 255 255 255
-0.0455723 0.256658 0.765 255 255 255
0.301511 0.227187 0.797 255 255 255
-0.587264 -0.192448 1.463 255 255 255
-0.0069733 -0.233157 1.65 255 255 255
-0.110132 0.174517 0.85 0 0 0
0.993087 -0.228978 2.768 0 0 0
-0.335757 -0.744254 2.071 255 255 255
1.01745 -0.887591 2.303 255 255 255
0.260038 0.158045 0.96 255 255 255
-0.0916426 0.248985 0.735 255 255 255
0.406569 0.0585216 1.118 255 255 255
-0.0969607 0.234224 0.73 255 255 255
0.302916 -0.754557 2.286 255 255 255
1.01741 -0.856389 2.32 255 255 255
0.932409 -0.802159 2.53 255 255 255
-0.218735 -0.0708508 1.215 255 255 255
0.580666 -0.735777 2.42 255 255 255
0.263051 0.210169 0.827 0 0 0
-0.531726 -0.0225314 1.278 255 255 255
-0.477527 -0.111015 1.342 255 255 255
0.967662 -0.8261 2.374 255 255 255
-0.0655878 -0.0867495 1.409 0 0 0
-0.275334 0.244484 0.807 255 255 255
-0.562031 0.0194554 1.176 255 255 255
0.141034 0.261295 0.764 255 255 255
-0.475262 0.181124 0.934 255 255 255
-0.234484 -0.5962 2.196 0 0 0
0.025623 -0.169479 1.513 255 255 255
-0.298343 0.10944 1.032 255 255 255
-0.59165 -0.601071 1.821 255 255 255
-0.388099 0.272135 0.746 0 0 0
-0.199038 -0.197228 1.412 255 255 255
-0.343826 -0.225272 1.524 0 0 0
-0.419123 0.215001 0.874 255 255 255
-0.0525779 -0.700441 2.071 255 255 255
-0.116239 0.141537 0.886 255 255 255
-0.695398 -0.375855 1.821 255 255 255
0.567692 -0.943861 2.449 255 255 255
-0.402324 -0.192427 1.539 0 0 0
-0.237317 0.265918 0.689 255 255 255
-0.423943 0.177105 0.945 255 255 255
-0.283896 -0.466023 1.991 255 255 255
-0.401988 0.234191 0.79 255 255 255
0.117734 0.237024 0.735 0 0 0
-0.409825 -0.579551 2.037 255 255 255
-0.405267 0.244875 0.779 255 255 255
-0.208145 -0.174547 1.396 255 255 255
0.214016 0.216334 0.83 0 0 0
0.513847 0.074588 1.087 255 255 255
0.767799 -0.427174 2.768 0 0 0
0.0450094 0.111927 1.009 255 255 255
-0.0591149 0.225249 0.833 255 255 255
-0.231192 -0.120018 1.345 255 255 255
-0.825916 -0.691646 1.882 255 255 255
0.386199 -0.701653 2.411 255 255 255
0.490896 0.0500438 1.132 255 255 255
-0.46512 0.142415 1.004 255 255 255
-0.0169895 -0.436531 1.865 255 255 255
1.05034 -0.579567 2.459 255 255 255
-0.153183 0.256554 0.694 255 255 255
0.168198 -0.415286 1.865 255 255 255
-0.36608 0.236371 0.793 255 255 255
0.561782 0.0297398 1.205 255 255 255
-0.315588 0.103419 1.039 255 255 255
-0.0189886 -0.0548402 1.357 0 0 0
0.113256 -0.216081 1.603 255 255 255
1.04695 -0.307159 2.489 255 255 255
0.062851 0.240213 0.723 255 255 255
0.139108 -0.627539 2.064 255 255 255
-0.191461 0.11547 0.944 255 255 255
0.0874595 0.0160797 1.21 255 255 255
1.03663 -0.188959 2.649 0 0 0
-0.535688 -0.403568 1.853 0 0 0
-0.140046 0.259915 0.685 255 255 255
0.773556 -0.824081 2.509 255 255 255
-0.0853065 -0.0998172 1.432 255 255 255
-0.120422 0.214837 0.758 0 0 0
1.09455 -0.758492 2.356 255 255 255
1.05654 -0.339327 2.374 255 255 255
-0.0276883 0.227651 0.868 0 0 0
0.251553 -0.216081 1.603 255 255 255
-0.828462 -0.485732 1.953 0 0 0
1.04302 -0.446661 2.499 255 255 255
-0.244478 -0.652607 2.158 255 255 255
-0.0533083 0.167929 0.92 0 0 0
0.601273 -0.663596 2.489 255 255 255
0.230265 -0.36889 1.876 0 0 0
-0.246064 0.164148 0.924 255 255 255
-0.333447 -0.0372384 1.215 255 255 255
0.463256 -0.0282979 1.257 255 255 255
1.02257 -0.552008 2.479 255 255 255
0.318187 -0.288182 1.739 255 255 255
-0.271457 0.175981 0.939 255 255 255
0.270981 0.032656 1.169 255 255 255
-0.0455258 0.199895 0.858 255 255 255
-0.656327 -0.0960531 1.378 255 255 255
-0.212534 0.204069 0.803 255 255 255
-0.392276 0.238121 0.786 255 255 255
-0.678282 -0.184799 1.459 255 255 255
-0.367089 0.230069 0.798 255 255 255
-0.306129 -0.757732 2.099 255 255 255
0.0179179 -0.649164 2.037 255 255 255
-0.105802 0.217547 0.742 0 0 0
-0.122545 0.0171558 1.037 255 255 255
-0.348317 0.0669867 1.051 255 255 255
0.557095 -0.566854 2.509 255 255 255
0.08656 0.0792595 1.055 255 255 255
-0.392901 -0.513073 1.985 255 255 255
0.0555545 0.156856 0.992 255 255 255
-0.0054911 0.15595 0.938 255 255 255
0.346048 0.199449 0.795 0 0 0
0.209202 0.190485 0.866 255 255 255
-0.630665 -0.595433 1.831 255 255 255
1.09158 -0.429805 2.383 255 255 255
-0.105636 -0.7139 2.121 0 0 0
-0.123634 0.0237907 1.032 255 255 255
-0.497986 -0.334236 1.87 255 255 255
1.01515 -0.295496 2.638 255 255 255
-0.409468 -0.482748 1.941 255 255 255
-0.0864986 -0.0651534 1.342 255 255 255
-0.140063 0.219239 0.778 255 255 255
-1.00987 -0.430383 1.991 0 0 0
-0.0989463 0.113572 0.941 255 255 255
-0.0939816 -0.395619 1.887 255 255 255
0.285066 0.0815133 1.085 255 255 255
1.05268 -0.327737 2.374 255 255 255
-0.114438 0.131463 0.906 255 255 255
-0.127378 0.10863 0.925 0 0 0
0.211281 0.270575 0.78 255 255 255
-0.396006 0.0762197 1.037 255 255 255
-0.441186 0.210269 0.884 255 255 255
0.221704 -0.230755 1.633 255 255 255
0.501214 -0.0486029 1.308 255 255 255
-0.23995 -0.130962 1.345 255 255 255
0.256342 -0.697252 2.269 0 0 0
-0.28292 0.124815 1.007 255 255 255
0.854257 -0.590636 2.672 255 255 255
-0.264923 0.1524 0.954 255 255 255
-0.503261 0.13902 1.015 255 255 255
-0.20644 -0.730108 2.128 255 255 255
-0.27685 0.0717746 1.046 255 255 255
0.189431 -0.506352 1.959 255 255 255
-0.1473 0.140898 0.882 255 255 255
-0.596436 -0.223867 1.498 255 255 255
1.07985 -0.754448 2.158 255 255 255
-0.230024 -0.131546 1.351 255 255 255
0.83278 -0.873612 2.42 255 255 255
0.0271635 0.212957 0.86 0 0 0
0.00427291 -0.425529 1.87 255 255 255
0.463085 -0.14136 1.502 255 255 255
-0.218295 0.0344906 1.051 255 255 255
-0.895224 -0.641463 1.953 0 0 0
-0.0506954 0.232886 0.851 255 255 255
-0.403791 0.238121 0.786 255 255 255
-0.0739992 0.0895041 0.997 255 255 255
-0.691971 -0.487952 1.876 255 255 255
-0.361306 -0.0812693 1.286 255 255 255
-0.452166 -0.391508 1.882 255 255 255
-0.0374454 0.00637348 1.237 0 0 0
-0.16404 0.142975 0.895 255 255 255
0.751112 -0.652241 2.572 255 255 255
0.979393 -0.78833 2.365 255 255 255
0.00322022 0.230581 0.823 255 255 255
0.182472 0.161673 0.963 0 0 0
0.774738 -0.874286 2.411 255 255 255
-0.165038 0.191327 0.827 255 255 255
0.291051 0.0417709 1.158 255 255 255
1.05435 -0.579567 2.459 255 255 255
-0.785107 -0.527662 1.887 255 255 255
-0.294131 0.220839 0.858 255 255 255
0.347149 0.178383 0.862 0 0 0
-0.25288 0.177633 0.916 255 255 255
0.234549 0.0433161 1.149 255 255 255
0.0817095 0.214743 0.845 255 255 255
1.03382 -0.620857 2.402 255 255 255
-0.357188 0.207055 0.82 0 0 0
0.332052 0.131248 0.947 255 255 255
0.210664 0.26185 0.792 255 255 255
0.227353 0.0380677 1.16 255 255 255
-0.438986 -0.128835 1.393 255 255 255
0.830195 -0.576346 2.707 255 255 255
-0.545396 0.0268567 1.165 255 255 255
1.03722 -0.81451 2.374 255 255 255
-0.155469 -0.193896 1.456 255 255 255
0.242205 -0.313058 1.784 255 255 255
-0.427295 0.100554 1.027 255 255 255
0.0284942 -0.176939 1.535 255 255 255
0.11064 0.0787922 1.072 255 255 255
-0.208272 -0.451819 2.044 255 255 255
-0.376174 -0.65046 2.128 0 0 0
0.191865 -0.404875 1.859 255 255 255
0.0852457 -0.381992 1.911 0 0 0
-0.488109 -0.694738 1.978 0 0 0
-0.297039 0.270051 0.737 255 255 255
0.330018 -0.718578 2.402 255 255 255
0.386972 0.178524 0.794 255 255 255
-0.301429 -0.429985 1.917 255 255 255
1.01101 -0.156513 2.684 0 0 0
-0.439453 0.150702 0.994 255 255 255
0.277334 0.172783 0.914 0 0 0
0.223914 0.242034 0.812 0 0 0
-0.232945 -0.35683 1.893 255 255 255
-0.584514 -0.0536278 1.327 255 255 255
-0.407232 0.167419 0.96 255 255 255
0.450422 -0.722004 2.44 255 255 255
0.462643 0.0810626 1.079 255 255 255
0.157715 0.0934349 1.06 255 255 255
0.105097 -0.0772065 1.362 255 255 255
0.329686 0.0947571 1.075 255 255 255
0.221964 0.0655636 1.114 0 0 0
-0.775379 -0.374194 1.842 255 255 255
-0.289206 0.197852 0.913 255 255 255
0.110818 -0.0938107 1.378 0 0 0
-0.592998 -0.340244 1.853 255 255 255
-0.539152 -0.0860198 1.327 0 0 0
0.400406 -0.168231 1.524 255 255 255
-0.35901 0.243238 0.786 255 255 255
0.944248 -0.297025 2.731 0 0 0
0.175297 -0.448264 1.876 255 255 255
0.242452 0.0701098 1.1 255 255 255
-0.486158 -0.0405712 1.257 255 255 255
0.25513 -0.143425 1.473 0 0 0
0.94135 -0.579326 2.66 255 255 255
-0.466813 0.0273639 1.187 255 255 255
0.087974 0.132022 1.012 255 255 255
-0.610382 -0.63158 1.815 255 255 255
0.297792 0.236669 0.794 255 255 255
0.0667587 -0.669997 2.01 255 255 255
0.361744 -0.041604 1.289 255 255 255
-0.502727 -0.466881 1.865 255 255 255
-0.476844 -0.100298 1.316 255 255 255
-0.419379 0.115257 1.024 255 255 255
0.33426 -0.248675 1.664 255 255 255
-0.295485 0.273728 0.764 0 0 0
0.281228 -0.102143 1.4 255 255 255
0.094012 -0.0794229 1.362 255 255 255
-0.315131 -0.0347678 1.198 255 255 255
-0.153306 0.111882 0.927 255 255 255
-0.402979 -0.274474 1.724 255 255 255
-0.378266 0.0189756 1.147 255 255 255
0.377231 0.180722 0.798 255 255 255
-0.273612 0.204374 0.896 255 255 255
-0.00533352 -0.00992722 1.262 255 255 255
-0.791613 -0.366001 1.831 255 255 255
0.418859 0.141527 0.877 0 0 0
-0.0418658 0.188317 0.869 255 255 255
0.817643 -0.819167 2.519 255 255 255
1.05863 -0.45737 2.469 255 255 255
0.40174 -0.0621249 1.324 255 255 255
-0.364636 0.0797483 1.039 255 255 255
-0.308968 0.261611 0.776 0 0 0
0.0545203 0.210481 0.85 0 0 0
0.252951 0.195984 0.891 0 0 0
-0.388844 0.120609 1.027 255 255 255
0.0751936 -0.188759 1.571 255 255 255
-0.317618 0.242666 0.801 255 255 255
-0.188834 0.181382 0.837 255 255 255
-0.417379 -0.427293 1.905 255 255 255
-0.297207 0.176125 0.948 255 255 255
-0.570262 -0.0535066 1.324 255 255 255
0.968821 -0.463894 2.572 255 255 255
0.0935811 -0.661489 2.024 0 0 0
0.467111 -0.0655903 1.351 255 255 255
0.290265 0.197338 0.824 255 255 255
0.0867382 -0.481846 1.876 255 255 255
-0.560578 -0.546263 1.826 255 255 255
0.00757123 -0.544233 1.935 255 255 255
0.0243524 0.243615 0.771 255 255 255
0.0750915 -0.0850256 1.381 0 0 0
0.102281 0.198037 0.856 0 0 0
-0.214927 -0.451819 2.044 255 255 255
0.0814135 0.242761 0.828 255 255 255
-0.477895 0.065799 1.118 255 255 255
0.0575608 -0.13873 1.449 255 255 255
-0.455825 -0.151823 1.439 0 0 0
0.350733 0.0159601 1.201 255 255 255
-0.0413185 -0.285352 1.739 255 255 255
0.0912227 0.279426 0.724 255 255 255
0.122931 0.125807 1.015 255 255 255
1.08527 -0.773327 2.212 255 255 255
-0.27838 0.098347 1.039 255 255 255
0.0555581 0.24156 0.72 255 255 255
-0.0753081 0.109404 0.972 255 255 255
-0.538269 -0.416654 1.831 255 255 255
-0.825127 -0.534599 1.923 255 255 255
0.906581 -0.353765 2.793 255 255 255
0.112273 0.241313 0.837 255 255 255
0.328057 0.215098 0.786 255 255 255
-0.105287 -0.615219 2.114 255 255 255
-0.450543 -0.5017 1.941 255 255 255
-0.643138 -0.264262 1.677 255 255 255
-0.107186 -0.223689 1.583 255 255 255
0.0261875 -0.0270877 1.297 255 255 255
0.178733 0.21124 0.842 255 255 255
-0.179358 0.222736 0.795 255 255 255
-0.182677 0.0189524 1.043 255 255 255
0.336999 0.270791 0.749 255 255 255
0.967452 -0.868011 2.383 255 255 255
0.263568 0.138178 0.997 255 255 255
0.931247 -0.415187 2.719 0 0 0
-0.948996 -0.665749 1.959 255 255 255
0.375239 0.17543 0.928 255 255 255
-0.594899 -0.520942 1.831 255 255 255
-0.00276474 0.102445 1.064 0 0 0
-0.128669 0.0952573 0.957 0 0 0
0.355734 0.183983 0.849 0 0 0
-0.412909 0.215534 0.882 255 255 255
0.632164 -0.710996 2.499 255 255 255
-1.03226 -0.382509 1.978 255 255 255
0.989591 -0.484824 2.55 255 255 255
-0.250575 0.120241 0.983 255 255 255
0.722822 -0.695999 2.489 255 255 255
-0.310359 -0.723182 2.128 255 255 255
-0.0429588 0.0142506 1.222 255 255 255
-0.468277 -0.478271 1.923 255 255 255
0.633127 -0.817301 2.44 255 255 255
0.44964 0.0636363 1.112 255 255 255
0.324019 0.280917 0.75 255 255 255
0.128552 0.194263 0.864 0 0 0
-0.00670289 0.0506185 1.145 0 0 0
-0.633462 -0.616351 1.805 255 255 255
-0.449617 0.0782042 1.064 255 255 255
-0.531351 0.0612585 1.135 255 255 255
1.10961 -0.191768 2.189 255 255 255
-0.0559491 -0.697071 2.071 255 255 255
0.112489 -0.0312366 1.294 255 255 255
-0.00845784 0.261762 0.684 255 255 255
-0.0940069 0.000296883 1.098 255 255 255
0.209277 0.268724 0.782 255 255 255
0.725726 -0.674396 2.499 255 255 255
0.178491 -0.216081 1.603 255 255 255
1.04433 -0.589095 2.338 255 255 255
0.300516 -0.00978563 1.244 255 255 255
0.838301 -0.490407 2.719 255 255 255
1.01031 -0.575566 2.459 255 255 255
0.424139 -0.143039 1.494 255 255 255
0.000956843 -0.155986 1.456 0 0 0
0.334165 -0.239312 1.637 255 255 255
-0.14577 0.249654 0.713 255 255 255
-0.0802547 0.189679 0.856 255 255 255
0.982473 -0.743653 2.42 255 255 255
-0.0272046 0.136286 1.007 0 0 0
-0.291337 -0.241886 1.535 255 255 255
-0.0642549 0.276333 0.71 0 0 0
-0.643702 -0.0522942 1.294 255 255 255
0.288453 0.15762 0.921 0 0 0
0.00409925 -0.300216 1.794 255 255 255
0.222304 0.186425 0.908 255 255 255
-0.477028 -0.0842048 1.299 255 255 255
0.00530234 0.141978 0.957 255 255 255
0.200988 0.0559138 1.139 0 0 0
-0.27891 -0.0908057 1.273 255 255 255
0.162955 0.194763 0.86 255 255 255
-0.225087 -0.102906 1.322 255 255 255
0.0579825 0.255975 0.721 255 255 255
0.853724 -0.558346 2.684 255 255 255
-0.0485159 -0.490836 1.911 255 255 255
-0.231359 0.223056 0.787 255 255 255
-0.319843 0.226877 0.834 255 255 255
-0.455105 -0.598303 1.947 255 255 255
0.315935 -0.356471 1.859 255 255 255
0.465215 0.115554 1.012 0 0 0
0.962777 -0.621571 2.42 255 255 255
-0.456705 0.068444 1.102 255 255 255
0.798908 -0.848213 2.449 255 255 255
0.27682 0.204717 0.816 255 255 255
-0.494469 -0.0138678 1.247 255 255 255
-0.343578 0.156535 0.97 255 255 255
-0.312495 0.261164 0.76 0 0 0
0.259089 -0.262937 1.686 255 255 255
-0.381289 -0.761161 2.044 255 255 255
0.278251 0.22572 0.801 255 255 255
-0.0673508 0.0194793 1.072 255 255 255
-0.733851 -0.336183 1.799 255 255 255
0.202742 0.065799 1.118 255 255 255
0.231596 0.201979 0.855 255 255 255
1.04901 -0.259965 2.626 255 255 255
-0.126845 0.226913 0.745 255 255 255
0.143434 -0.689282 2.078 255 255 255
0.347697 0.248307 0.733 0 0 0
0.265227 0.227975 0.809 255 255 255
0.428801 -0.181775 1.555 255 255 255
-0.366128 0.248341 0.774 255 255 255
1.06209 -0.444057 2.44 255 255 255
0.554469 -0.61252 2.479 255 255 255
0.289326 -0.0266282 1.275 255 255 255
1.10215 -0.26524 2.269 255 255 255
-0.0859712 0.26749 0.708 0 0 0
-0.30912 0.152698 0.986 255 255 255
0.946081 -0.46485 2.649 255 255 255
0.0103284 0.219187 0.857 255 255 255
0.778975 -0.544484 2.638 255 255 255
-0.420479 -0.630326 2.107 0 0 0
0.712293 -0.664845 2.509 255 255 255
0.332499 0.285215 0.739 255 255 255
-0.243383 0.257207 0.738 255 255 255
0.873948 -0.378108 2.805 255 255 255
0.28182 -0.0181132 1.26 255 255 255
0.377855 -0.0159608 1.252 255 255 255
0.0490122 0.10026 1.024 255 255 255
-0.476561 0.145683 1.004 255 255 255
-0.0661831 0.257962 0.788 0 0 0
-0.0916426 0.235828 0.735 255 255 255
-0.142264 -0.0479678 1.141 0 0 0
-0.905314 -0.27728 1.724 255 255 255
0.0426066 0.275156 0.719 255 255 255
0.118121 0.252043 0.73 0 0 0
0.274619 0.262874 0.776 255 255 255
-0.494388 0.120257 1.024 255 255 255
0.998658 -0.855424 2.338 255 255 255
0.404141 0.174862 0.925 255 255 255
-0.540208 0.0248966 1.162 255 255 255
0.970723 -0.249229 2.743 0 0 0
0.247149 0.149715 0.977 255 255 255
-0.369373 0.123589 1.024 255 255 255
0.221964 0.0673764 1.114 0 0 0
-0.181101 0.0305674 1.034 255 255 255
0.0777658 0.165492 0.967 255 255 255
-0.467822 -0.326219 1.859 255 255 255
-0.116419 -0.337228 1.853 255 255 255
0.504035 -0.493478 2.489 0 0 0
0.211879 0.20326 0.843 255 255 255
-0.479715 0.065799 1.118 255 255 255
0.916669 -0.465517 2.755 255 255 255
0.772913 -0.745306 2.561 255 255 255
0.741288 -0.916766 2.43 255 255 255
-0.314542 0.26471 0.756 0 0 0
0.408437 0.148378 0.867 0 0 0
-0.196339 0.245258 0.724 255 255 255
-0.445259 0.0347653 1.176 0 0 0
0.0126536 0.18841 0.925 255 255 255
-0.0837288 -0.107778 1.445 255 255 255
0.948082 -0.563668 2.55 255 255 255
1.01465 -0.437455 2.54 255 255 255
1.08201 -0.818021 2.329 255 255 255
0.0492656 -0.276862 1.739 255 255 255
0.252488 0.248189 0.802 255 255 255
-0.3695 0.0702064 1.048 255 255 255
0.364815 -0.725654 2.374 255 255 255
0.0470393 -0.478793 1.876 255 255 255
0.108895 0.0787922 1.072 255 255 255
-0.261223 0.233108 0.804 255 255 255
-0.0904614 -0.0648621 1.336 255 255 255
-0.0417882 -0.229913 1.646 255 255 255
-0.204589 0.251149 0.724 255 255 255
-0.325317 0.115595 1.027 255 255 255
-0.309893 0.2137 0.863 255 255 255
-0.204352 0.0852625 1.024 255 255 255
0.0183775 -0.286421 1.763 0 0 0
0.257208 -0.180373 1.543 255 255 255
-0.350647 0.207627 0.833 0 0 0
0.354779 0.270175 0.709 0 0 0
0.451938 0.00620861 1.205 255 255 255
0.349367 0.236701 0.734 255 255 255
0.0133775 0.0743599 1.11 255 255 255
0.501963 -0.747635 2.459 255 255 255
1.0373 -0.76619 2.392 255 255 255
0.39538 0.156535 0.97 255 255 255
-0.095391 0.273971 0.701 0 0 0
-0.164742 0.221775 0.787 0 0 0
0.39571 -0.121043 1.435 255 255 255
-0.0769497 0.0192613 1.06 255 255 255
-0.578413 -0.590835 1.826 255 255 255
0.0302781 -0.582078 1.978 255 255 255
0.812977 -0.789807 2.53 255 255 255
0.21831 -0.246558 1.668 0 0 0
-0.263983 -0.408148 1.917 255 255 255
0.201639 0.268724 0.782 255 255 255
0.447857 0.130466 0.964 255 255 255
-0.494469 -0.0158971 1.247 255 255 255
-0.595693 -0.21936 1.484 255 255 255
0.130633 -0.0226725 1.286 255 255 255
0.179596 0.0197531 1.194 0 0 0
-0.230282 0.180237 0.892 255 255 255
0.0103941 -0.448264 1.876 255 255 255
0.184618 0.133273 1.009 255 255 255
-0.641703 -0.346274 1.837 255 255 255
1.14646 -0.124442 2.329 255 255 255
-0.18435 0.070265 1.024 255 255 255
-0.504135 -0.317144 1.859 0 0 0
0.597222 -0.663596 2.489 255 255 255
1.08118 -0.677718 2.303 255 255 255
-0.343595 -0.3234 1.826 255 255 255
-0.169206 0.234538 0.75 255 255 255
0.148573 0.251284 0.812 255 255 255
-0.122082 0.229786 0.731 0 0 0
-0.155612 0.0783822 1 255 255 255
0.088764 0.0218234 1.201 255 255 255
0.382274 -0.886057 2.411 255 255 255
0.963 -0.536039 2.66 255 255 255
-1.0226 -0.43723 1.978 0 0 0
0.336857 0.218521 0.771 255 255 255
-0.178167 0.244581 0.722 255 255 255
0.206904 0.107552 1.03 255 255 255
-0.420013 -0.00753663 1.208 255 255 255
-0.263863 -0.568738 2.173 0 0 0
-0.0716691 -0.114355 1.439 0 0 0
-0.463232 0.134647 1.007 255 255 255
1.11707 -0.145656 2.43 255 255 255
-0.385531 0.257903 0.765 255 255 255
-0.219888 -0.652607 2.158 255 255 255
0.542283 0.0123623 1.232 255 255 255
-0.399728 0.171568 0.957 255 255 255
-0.436149 -0.325166 1.853 255 255 255
0.0976904 0.0764727 1.064 255 255 255
1.0918 -0.761997 2.286 255 255 255
-0.801899 -0.529595 1.905 255 255 255
0.321375 0.211889 0.798 255 255 255
0.193831 0.259612 0.797 255 255 255
0.146199 0.269107 0.765 255 255 255
0.17325 0.21261 0.842 255 255 255
0.106691 0.266834 0.725 0 0 0
-0.273367 0.271663 0.698 255 255 255
1.05835 -0.0273463 2.459 0 0 0
-0.113057 0.188603 0.821 255 255 255
-0.335479 0.103818 1.043 255 255 255
-0.188269 0.234251 0.753 255 255 255
0.246707 -0.290175 1.734 255 255 255
0.00262544 0.0470557 1.149 255 255 255
-0.569798 -0.0445153 1.313 255 255 255
-0.164872 -0.788978 2.128 255 255 255
-0.582084 -0.172572 1.456 255 255 255
-0.966886 -0.433697 2.037 255 255 255
-0.533955 0.114329 1.046 0 0 0
-0.643377 -0.0256675 1.229 255 255 255
-0.833376 -0.731887 1.899 0 0 0
0.060356 -0.23117 1.655 255 255 255
0.245534 -0.417736 1.876 255 255 255
1.02675 -0.483261 2.499 255 255 255
0.159987 -0.106395 1.396 0 0 0
-0.175471 0.260649 0.684 255 255 255
0.277524 -0.0308503 1.278 255 255 255
0.292853 0.102252 1.062 255 255 255
