ply
format ascii 1.0
comment Created by Open3D
element vertex 1332
property double x
property double y
property double z
property uchar red
property uchar green
property uchar blue
end_header
-0.820299 0.426848 2.672 255 255 255
-0.845723 0.259217 2.303 255 255 255
-0.785472 0.531523 2.347 0 0 0
0.223813 0.440493 1.629 255 255 255
-0.464901 0.716092 2.017 255 255 255
-0.6124 0.391052 2.695 255 255 255
0.224948 0.502595 1.677 255 255 255
0.0870098 -0.00175181 1.291 255 255 255
-0.843543 0.532187 1.642 255 255 255
0.0707452 -0.17902 1.646 255 255 255
0.124142 -0.00774875 1.242 255 255 255
0.175392 0.338045 1.673 255 255 255
-0.792727 0.256499 1.991 255 255 255
0.205514 -0.273163 1.283 255 255 255
0.62077 0.332608 1.62 255 255 255
0.174737 0.228738 1.87 255 255 255
-0.283262 0.673387 2.057 255 255 255
-0.27446 0.650801 2.092 255 255 255
0.728957 0.40858 1.65 255 255 255
-0.929019 0.0882978 2.831 255 255 255
-0.864367 -0.169745 2.136 255 255 255
-0.555657 0.627999 2.166 255 255 255
0.482091 -0.3547 1.291 255 255 255
-0.174682 0.540297 2.303 255 255 255
0.276582 0.435896 1.612 255 255 255
-1.26564 -0.994182 2.884 255 255 255
0.188292 0.423561 2.166 255 255 255
0.768184 0.480763 1.677 255 255 255
0.61096 0.355664 1.629 255 255 255
-0.795675 -0.33255 1.637 255 255 255
0.24159 -0.26731 1.275 255 255 255
0.496583 0.523302 1.691 255 255 255
-0.0970533 0.728283 1.887 255 255 255
0.153605 0.0476055 1.118 255 255 255
0.483281 -0.310745 1.283 255 255 255
-0.0601933 0.722141 1.887 255 255 255
-0.818361 -0.118215 1.779 255 255 255
-0.133202 0.579159 2.236 255 255 255
0.304381 -0.23751 1.26 0 0 0
0.645432 0.355664 1.629 255 255 255
-0.219002 0.681435 2.051 255 255 255
-0.931543 -0.360341 2.196 255 255 255
-0.504996 0.342945 2.731 255 255 255
-0.184676 0.643064 2.078 255 255 255
-0.509693 0.27508 2.857 255 255 255
-0.841435 -0.049993 2.071 255 255 255
-0.915284 0.0604421 2.449 255 255 255
0.688208 -0.286236 1.587 0 0 0
0.161508 0.124837 1.234 255 255 255
-0.480655 0.567237 2.261 255 255 255
0.286142 -0.396684 1.348 0 0 0
-0.776138 0.449712 1.624 255 255 255
0.577297 -0.0162156 1.128 255 255 255
0.433081 -0.144387 1.308 255 255 255
0.157989 -0.330477 1.784 255 255 255
0.268884 -0.299666 1.229 0 0 0
-0.215844 0.638444 2.085 255 255 255
0.44614 0.35692 1.599 255 255 255
0.621868 -0.509737 1.616 0 0 0
0.557947 -0.00711862 1.141 255 255 255
-0.486718 0.297461 2.805 255 255 255
0.651817 -0.282876 1.612 0 0 0
0.392355 -0.271582 1.185 0 0 0
-0.784515 0.341982 2.037 255 255 255
0.0312303 0.108071 2.996 255 255 255
-0.394396 0.690406 2.078 255 255 255
0.278496 0.0784434 1.022 255 255 255
-0.173796 0.46296 2.449 255 255 255
-1.27796 -0.934744 2.818 0 0 0
-0.606151 0.702911 2.085 255 255 255
0.659783 -0.353478 1.686 255 255 255
0.406325 0.523254 1.682 255 255 255
-0.794868 0.0716215 1.509 255 255 255
0.32177 0.032755 1.108 255 255 255
0.109819 -0.201518 1.591 255 255 255
0.159586 0.467161 2.312 0 0 0
0.291822 -0.181721 1.286 255 255 255
-0.487011 0.332508 2.755 255 255 255
-0.306674 0.32231 2.707 255 255 255
0.771713 0.547896 1.734 255 255 255
-0.775532 0.318233 1.972 255 255 255
0.231415 0.0117502 1.171 255 255 255
0.267622 0.101559 0.988 255 255 255
0.433564 -0.0388283 1.203 255 255 255
0.172472 0.300973 1.62 255 255 255
-0.757848 0.233663 1.575 255 255 255
0.30017 -0.412678 1.372 255 255 255
-0.0541391 0.672342 2.004 255 255 255
0.204951 -0.0404743 1.254 255 255 255
0.421148 -0.186629 1.291 255 255 255
0.353218 0.0936142 0.989 255 255 255
-0.570607 0.752282 1.941 255 255 255
0.689081 -0.324017 1.595 255 255 255
-0.0467948 0.436358 2.479 255 255 255
0.184531 0.625937 1.941 0 0 0
0.517376 0.505529 1.696 255 255 255
-1.22292 -0.898057 2.818 255 255 255
0.300698 0.0954162 0.991 255 255 255
0.399513 -0.146485 1.289 255 255 255
-0.790821 0.470596 2.329 255 255 255
-0.107023 0.676704 2.017 255 255 255
-0.433423 0.244713 2.939 255 255 255
0.685782 0.49449 1.696 255 255 255
-0.302433 0.628758 2.121 255 255 255
-0.771692 0.482615 1.637 255 255 255
0.754824 0.361174 1.642 255 255 255
-0.75 0.582039 2.32 255 255 255
-0.457559 0.650585 2.136 255 255 255
0.0974633 -0.0846364 1.412 255 255 255
-0.844871 0.462926 1.624 255 255 255
0.201733 -0.0524963 1.299 255 255 255
-0.303431 0.62737 2.128 255 255 255
0.688553 0.546073 1.612 255 255 255
0.599545 -0.0812693 1.286 255 255 255
-0.80451 0.0582173 1.774 255 255 255
-0.871298 0.188508 2.884 0 0 0
0.123831 -0.300216 1.794 255 255 255
-0.787717 0.466946 2.449 255 255 255
0.550848 0.286757 1.571 255 255 255
0.228156 -0.324568 1.305 0 0 0
0.391964 0.127561 0.954 255 255 255
0.6656 -0.429274 1.62 255 255 255
-0.811984 0.330871 2.857 255 255 255
-0.257011 0.724191 1.959 255 255 255
-0.341374 0.460563 2.479 255 255 255
0.329363 -0.404335 1.302 0 0 0
0.294718 -0.00165547 1.22 255 255 255
0.218568 0.498535 1.691 255 255 255
0.473383 0.378184 1.612 255 255 255
0.706545 -0.484521 1.505 255 255 255
-1.285 -1.12314 2.939 255 255 255
-0.816945 -0.0589582 1.739 255 255 255
0.729421 0.340592 1.633 255 255 255
0.456551 0.362124 1.599 255 255 255
-0.875419 0.255723 2.449 255 255 255
0.588266 -0.181174 1.449 255 255 255
0.134221 0.485756 2.329 255 255 255
0.226362 0.0804985 1.027 255 255 255
0.193569 0.332608 1.62 255 255 255
0.261422 -0.109074 1.345 0 0 0
0.125341 0.0840065 1.254 255 255 255
-0.195719 0.558629 2.286 255 255 255
0.445109 -0.0770833 1.252 0 0 0
-0.0395208 0.416515 2.53 255 255 255
0.104793 0.296923 2.638 255 255 255
0.148865 0.586891 2.107 255 255 255
0.337576 -0.338329 1.217 255 255 255
-0.811094 0.0544831 2.071 255 255 255
0.335135 0.549315 1.591 255 255 255
-0.666894 0.498913 2.43 255 255 255
0.313818 0.574547 1.575 255 255 255
-0.17851 0.641837 2.085 255 255 255
0.799925 -0.335321 1.563 0 0 0
0.788734 -0.44885 1.551 0 0 0
0.819827 0.46854 1.607 255 255 255
-0.534341 0.722351 2.044 255 255 255
0.205574 -0.20643 1.31 255 255 255
-0.766876 0.39794 1.673 255 255 255
0.226806 0.0422228 1.12 255 255 255
-0.762544 0.236448 1.543 255 255 255
-0.197684 0.415478 2.499 255 255 255
-0.922302 -0.676946 1.842 255 255 255
0.619476 0.51564 1.583 255 255 255
0.22285 0.376073 1.603 255 255 255
0.269252 0.566396 1.664 255 255 255
0.0677343 0.519405 2.261 255 255 255
0.110269 0.0530941 1.201 255 255 255
0.296212 -0.287246 1.194 255 255 255
0.176601 0.322219 2.196 255 255 255
-0.900272 0.158833 2.43 255 255 255
-0.803237 0.0149981 1.784 255 255 255
0.348909 -0.363583 1.222 0 0 0
-0.0527613 0.687013 1.953 255 255 255
-0.745744 0.627 1.758 255 255 255
-1.22375 -0.819061 2.768 0 0 0
0.370251 0.54351 1.62 255 255 255
-0.241928 0.713982 1.966 255 255 255
0.39666 -0.251167 1.198 255 255 255
0.600963 0.254167 1.575 0 0 0
-0.781544 0.375031 1.705 255 255 255
0.203441 -0.214958 1.31 255 255 255
-0.591564 0.480734 2.479 255 255 255
-0.28362 0.430562 2.54 255 255 255
0.130559 -0.0264194 1.265 255 255 255
0.214342 -0.150346 1.425 255 255 255
0.363246 -0.203456 1.265 255 255 255
-0.819398 0.387174 1.595 255 255 255
0.245918 0.280582 1.551 255 255 255
-0.181142 0.506657 2.338 255 255 255
0.205103 0.69293 1.842 255 255 255
0.553431 -0.0621691 1.239 255 255 255
0.448754 -0.250682 1.234 255 255 255
0.397269 0.0264879 1.149 255 255 255
0.385591 0.374396 1.607 255 255 255
-1.13303 -0.380632 2.967 0 0 0
0.607149 0.509488 1.7 255 255 255
0.693685 -0.407228 1.509 255 255 255
0.204029 0.0231047 1.167 255 255 255
0.309288 0.0298592 1.135 255 255 255
0.383394 0.125744 0.952 255 255 255
0.0994604 -0.4289 2.078 255 255 255
0.409036 0.0334353 1.072 255 255 255
0.355395 0.600148 1.555 255 255 255
0.00150755 0.51952 2.294 255 255 255
0.172694 0.0845757 1.036 255 255 255
0.285175 -0.200915 1.275 255 255 255
-0.790538 0.3232 2.044 255 255 255
0.118286 0.0179444 1.203 255 255 255
0.283553 -0.27846 1.198 0 0 0
-0.416086 0.382943 2.731 255 255 255
0.300086 -0.121436 1.313 255 255 255
-0.757114 0.282638 1.7 255 255 255
-0.765155 0.420157 1.612 255 255 255
0.128796 0.687788 1.911 255 255 255
0.14648 -0.128674 1.442 255 255 255
0.278339 0.0592691 1.066 255 255 255
-0.81987 -0.474705 1.659 255 255 255
-0.24556 0.624608 2.107 255 255 255
-0.791512 0.219801 1.498 255 255 255
0.799291 0.294842 1.587 255 255 255
0.296651 0.397932 1.607 255 255 255
0.0781528 0.614356 2.143 255 255 255
0.279898 0.568466 1.616 255 255 255
-0.4419 0.522476 2.411 255 255 255
-0.327415 0.748435 1.923 255 255 255
0.806005 -0.307245 1.616 255 255 255
-0.730416 0.592323 1.865 255 255 255
-0.140803 0.475186 2.43 255 255 255
0.491265 -0.242593 1.333 255 255 255
-0.837697 0.409455 2.672 255 255 255
0.409202 0.0984748 0.958 255 255 255
0.216966 -0.203121 1.289 255 255 255
0.675174 0.338715 1.624 255 255 255
0.514668 0.0250125 1.085 255 255 255
0.179146 0.208188 1.52 255 255 255
0.189124 -0.14305 1.445 255 255 255
-0.847826 -0.472969 1.774 0 0 0
-0.19548 0.635051 2.085 255 255 255
0.541565 0.274418 1.559 0 0 0
0.193705 -0.173008 1.48 255 255 255
0.107401 -0.222782 1.633 255 255 255
-0.20996 0.529184 2.32 255 255 255
-0.400338 0.541501 2.374 255 255 255
0.193001 0.703463 1.87 0 0 0
-0.330053 0.649468 2.121 255 255 255
0.23703 0.613647 1.705 255 255 255
0.209808 -0.0743844 1.351 255 255 255
-0.747937 0.212241 2.953 255 255 255
0.643451 -0.480547 1.624 255 255 255
-0.213163 0.633779 2.092 255 255 255
0.226155 0.532729 1.686 255 255 255
-0.554809 0.745965 1.941 255 255 255
0.586549 -0.172899 1.439 255 255 255
0.533537 0.491574 1.686 255 255 255
0.0544863 0.59113 2.173 255 255 255
0.109547 0.0124125 1.237 255 255 255
-1.06462 -0.0230088 2.925 255 255 255
-1.21013 -0.787026 2.831 255 255 255
0.347851 -0.273812 1.178 0 0 0
0.440447 -0.367269 1.262 0 0 0
-0.786325 0.0945787 1.607 255 255 255
-0.706468 0.736489 1.941 0 0 0
0.585293 0.3625 1.624 255 255 255
0.327222 -0.428933 1.319 0 0 0
0.0754633 0.38601 2.519 255 255 255
0.117459 -0.169123 1.555 255 255 255
0.171677 0.15916 0.93 255 255 255
0.81198 0.377011 1.607 0 0 0
-0.117686 0.695236 1.923 255 255 255
-0.184348 0.690043 2.037 255 255 255
-0.60931 0.476193 2.519 255 255 255
0.101085 -0.0316228 1.31 255 255 255
0.651267 0.397369 1.637 255 255 255
-0.957601 -0.528133 2.166 255 255 255
-0.759485 0.367986 2.719 255 255 255
0.667547 0.575888 1.551 255 255 255
0.61834 -0.0505969 1.252 255 255 255
0.805363 -0.30537 1.62 0 0 0
0.560771 -0.00336626 1.128 255 255 255
0.204574 0.0623201 1.089 255 255 255
0.120147 -0.143039 1.494 255 255 255
-0.761194 0.468154 1.774 255 255 255
0.44117 0.0886588 0.97 255 255 255
-0.733452 0.583218 1.865 255 255 255
0.558935 -0.00520189 1.128 255 255 255
-1.04951 -0.418815 2.604 0 0 0
-0.757551 0.0969085 2.953 255 255 255
0.447079 -0.210199 1.281 0 0 0
0.636856 0.238789 1.575 0 0 0
-0.788637 0.657013 1.739 0 0 0
-0.826174 0.431796 2.649 255 255 255
0.747289 0.455113 1.673 255 255 255
-0.72916 0.706899 2.107 0 0 0
0.119407 -0.0578158 1.324 0 0 0
0.180342 0.0867591 1.022 255 255 255
-0.766037 0.537634 2.143 255 255 255
0.173359 0.150504 1.247 255 255 255
-0.93005 -0.285368 2.253 255 255 255
-0.826835 0.284352 2.356 255 255 255
0.414102 0.00965968 1.149 255 255 255
0.495705 0.56485 1.591 255 255 255
-0.921405 -0.701533 1.805 0 0 0
0.0902864 0.636234 2.024 255 255 255
0.457067 0.11706 0.957 255 255 255
0.197178 -0.307193 1.673 255 255 255
-0.282855 0.380066 2.649 255 255 255
0.110267 0.529953 2.228 255 255 255
0.301931 0.0381643 1.108 255 255 255
-0.833373 -0.0940423 1.659 255 255 255
-0.777314 0.654183 1.739 255 255 255
0.0771077 0.649409 2.024 255 255 255
0.0776526 0.483828 2.338 255 255 255
-0.763386 0.49809 1.842 255 255 255
-0.418234 0.237388 2.967 255 255 255
0.445375 0.318085 1.587 255 255 255
0.288599 0.047966 1.085 255 255 255
0.690645 -0.384269 1.535 255 255 255
0.229751 -0.364078 1.302 255 255 255
-0.331608 0.298042 2.768 255 255 255
0.645915 0.274873 1.591 0 0 0
0.120444 0.0140523 1.205 255 255 255
0.0117227 0.186078 2.996 255 255 255
-0.985212 0.0317081 2.719 255 255 255
-0.762311 0.231868 2.898 255 255 255
-0.819294 -0.14427 1.744 255 255 255
-1.20377 -0.789344 2.743 0 0 0
0.181024 0.0233224 1.178 255 255 255
0.127178 0.706787 1.887 255 255 255
0.611977 -0.5192 1.646 255 255 255
-0.828179 0.421468 1.607 255 255 255
0.501206 0.0164378 1.102 255 255 255
0.636646 -0.131963 1.333 255 255 255
-0.236384 0.670039 2.057 255 255 255
0.381219 -0.121502 1.291 255 255 255
-0.732782 0.607975 1.848 255 255 255
-0.426576 0.622956 2.173 255 255 255
0.40597 0.0737942 1.004 255 255 255
0.378476 -0.309136 1.196 0 0 0
0.520292 0.537604 1.587 255 255 255
0.694265 0.269792 1.607 0 0 0
-0.808087 0.512054 1.646 255 255 255
0.308483 -0.356435 1.26 0 0 0
0.443177 0.447768 1.646 255 255 255
0.483525 -0.00153606 1.132 255 255 255
0.629783 -0.244298 1.583 255 255 255
0.253245 0.0366237 1.116 255 255 255
0.769295 -0.321107 1.633 255 255 255
0.651325 -0.24882 1.579 0 0 0
-0.918431 0.174064 2.731 255 255 255
-0.746309 0.600607 2.107 255 255 255
-0.836074 0.572793 1.659 255 255 255
0.559106 -0.094087 1.319 255 255 255
0.128591 0.619828 2.057 255 255 255
0.654698 -0.172788 1.33 255 255 255
-0.818889 -0.528901 1.579 255 255 255
0.280431 -0.257247 1.227 255 255 255
0.0544783 -0.362485 1.923 255 255 255
0.517708 0.550517 1.587 255 255 255
0.0165996 0.108071 2.996 255 255 255
0.643451 -0.462048 1.624 255 255 255
0.550729 -0.112669 1.362 255 255 255
-0.789168 0.343 1.571 255 255 255
-0.770246 0.391142 2.017 255 255 255
0.625578 -0.170135 1.416 0 0 0
0.0859416 0.0719126 1.189 255 255 255
0.272886 -0.0216676 1.229 255 255 255
-0.832817 -0.570222 1.616 255 255 255
0.591131 0.528521 1.583 255 255 255
-0.326915 0.487415 2.374 255 255 255
-1.1646 -0.69892 2.925 255 255 255
0.378176 0.600148 1.555 255 255 255
0.198899 0.131387 0.937 255 255 255
0.627786 -0.42159 1.591 255 255 255
0.0770685 0.421552 2.44 255 255 255
0.232692 0.279858 1.547 255 255 255
0.17212 0.265002 2.057 255 255 255
-0.795396 0.0777528 1.826 255 255 255
-0.0952941 0.686151 1.978 255 255 255
-0.152189 0.536549 2.303 255 255 255
-0.825508 -0.532085 1.612 255 255 255
0.131385 0.0852794 1.273 255 255 255
-0.827521 -0.462551 1.714 255 255 255
0.161604 -0.371597 1.859 255 255 255
0.572567 -0.964534 2.996 255 255 255
-0.888297 -0.0352704 2.204 255 255 255
-0.790455 0.422551 2.143 255 255 255
0.792802 -0.337 1.559 0 0 0
-0.85293 -0.128933 2.151 255 255 255
-0.826843 -0.120091 1.646 255 255 255
0.262436 -0.0976926 1.339 0 0 0
-0.752572 0.298533 1.696 255 255 255
0.551112 -0.0226854 1.178 255 255 255
-0.417198 0.703513 2.057 255 255 255
-0.803669 0.493271 1.637 255 255 255
0.287287 -0.0467078 1.257 255 255 255
0.368803 0.562261 1.591 255 255 255
0.500251 0.0379113 1.051 255 255 255
-0.245512 0.446219 2.489 255 255 255
-0.832851 -0.264801 1.941 255 255 255
-0.720349 0.705741 1.997 0 0 0
0.686097 -0.409204 1.422 255 255 255
-0.882569 0.253794 2.469 255 255 255
-1.01937 -0.400319 2.489 0 0 0
0.420306 -0.135873 1.308 255 255 255
-0.0879834 0.491111 2.392 255 255 255
0.80213 0.308249 1.603 255 255 255
0.671639 -0.238125 1.543 255 255 255
0.743268 0.431002 1.664 255 255 255
0.191184 -0.179988 1.498 255 255 255
0.123778 0.720228 1.882 255 255 255
-0.974439 -0.553316 2.196 255 255 255
0.201967 0.22287 1.47 0 0 0
0.196756 -0.364772 1.603 0 0 0
0.0973111 0.237102 2.793 255 255 255
0.354843 0.0826165 1.012 255 255 255
0.693349 0.366518 1.642 255 255 255
-0.0475201 0.283192 2.755 255 255 255
0.179213 0.122903 0.954 255 255 255
0.786944 0.459404 1.659 255 255 255
-0.101734 0.686151 1.978 255 255 255
-0.786558 -0.260193 1.686 255 255 255
0.432775 -0.0656316 1.066 255 255 255
0.517603 0.266304 1.571 0 0 0
-0.829649 0.323402 2.479 255 255 255
-0.645582 0.738239 1.997 255 255 255
0.208874 0.371234 1.616 255 255 255
0.196908 -0.286682 1.4 255 255 255
0.458192 -0.263237 1.227 255 255 255
0.211141 0.126224 0.944 255 255 255
-0.572709 0.743319 1.959 255 255 255
0.276845 -0.297471 1.22 255 255 255
0.728434 0.244534 1.579 0 0 0
0.200972 0.549566 1.917 0 0 0
-0.743622 0.599542 1.753 255 255 255
0.0650322 0.0684434 1.196 255 255 255
0.424776 -0.010348 1.09 255 255 255
-0.999735 -0.648915 2.181 255 255 255
-1.11072 -0.379371 2.884 0 0 0
0.163916 -0.0175669 1.222 0 0 0
0.0467603 0.390109 2.519 255 255 255
-0.796513 0.0625164 1.815 255 255 255
-0.766707 0.188974 1.655 255 255 255
0.173148 0.724207 1.853 0 0 0
-0.682386 0.433589 2.66 255 255 255
0.195203 -0.0934022 1.372 255 255 255
-0.816924 0.563688 1.664 255 255 255
0.226172 -0.233195 1.27 0 0 0
0.533365 0.360421 1.603 255 255 255
0.14756 -0.0241105 1.252 255 255 255
0.207393 0.447768 1.646 255 255 255
-1.26328 -0.984541 2.911 255 255 255
0.0112845 -0.487315 2.884 255 255 255
0.434693 -0.326991 1.234 0 0 0
0.308997 -0.422639 1.333 255 255 255
0.375209 -0.3233 1.198 255 255 255
0.244812 -0.264399 1.281 255 255 255
-0.814996 -0.480553 1.633 255 255 255
0.661399 -0.545018 1.47 255 255 255
0.444638 0.0465513 1.053 255 255 255
0.010408 0.3297 2.66 255 255 255
-0.357639 0.390302 2.66 255 255 255
0.218868 -0.337241 1.313 0 0 0
-0.787466 0.0451712 1.528 255 255 255
0.249724 0.309936 1.559 255 255 255
0.666432 0.509568 1.682 255 255 255
0.222857 -0.0728978 1.324 255 255 255
0.429704 0.0233325 1.089 255 255 255
-0.315109 0.717999 2.004 255 255 255
0.846514 0.535998 1.714 255 255 255
0.200597 0.167879 0.945 255 255 255
-0.770067 0.38977 1.595 255 255 255
0.667182 -0.426484 1.65 0 0 0
0.268349 0.347316 1.579 255 255 255
0.211326 0.139159 0.938 255 255 255
-0.647845 0.737566 2.004 255 255 255
0.377843 -0.30279 1.194 0 0 0
0.482905 0.312131 1.583 255 255 255
0.195198 0.0231838 1.171 255 255 255
0.265208 -0.117566 1.342 0 0 0
0.175495 0.158378 1.449 255 255 255
0.604914 0.310082 1.599 255 255 255
-0.649464 0.482813 2.469 255 255 255
0.651476 -0.494281 1.567 255 255 255
0.29834 -0.279767 1.187 255 255 255
-0.881391 0.0474969 2.871 255 255 255
0.216388 0.43626 1.633 255 255 255
0.39787 0.306979 1.583 0 0 0
-0.734381 0.648965 1.779 255 255 255
-0.152447 0.344336 2.707 255 255 255
-1.01409 -0.690479 2.189 0 0 0
-0.76381 0.38291 1.865 255 255 255
-0.529532 0.745965 1.941 255 255 255
0.241865 0.120842 0.95 255 255 255
0.406215 -0.160058 1.297 0 0 0
0.388043 0.125744 0.952 255 255 255
-0.809011 0.375172 2.707 255 255 255
-0.726851 0.628257 2.204 0 0 0
-0.229373 0.727013 1.941 255 255 255
0.650004 -0.366326 1.682 255 255 255
-0.831089 -0.197483 1.763 255 255 255
0.0905062 0.0399539 1.281 255 255 255
0.200906 0.546789 2.01 0 0 0
0.365089 -0.110568 1.286 255 255 255
-1.04469 -0.466077 2.561 0 0 0
0.803895 -0.325794 1.591 0 0 0
0.18099 -0.278953 1.7 255 255 255
-0.0339442 0.580522 2.173 255 255 255
-0.627802 0.580507 2.329 255 255 255
-0.389611 0.669182 2.107 255 255 255
0.645744 -0.0974016 1.278 255 255 255
-0.796305 0.000425857 1.575 255 255 255
0.683888 0.254799 1.595 0 0 0
0.368076 0.0444347 1.085 255 255 255
0.341329 0.105305 0.978 255 255 255
-0.727273 0.360721 2.731 255 255 255
0.0708728 0.0762285 1.196 0 0 0
-0.794805 0.39955 1.603 255 255 255
0.651927 -0.539833 1.509 255 255 255
-0.79317 0.314067 2.189 255 255 255
0.699466 -0.298061 1.595 0 0 0
0.490264 0.101911 0.961 255 255 255
0.0232479 0.684849 1.929 255 255 255
0.263612 -0.109074 1.345 0 0 0
0.329971 -0.248891 1.169 0 0 0
-0.79809 -0.0313642 1.779 0 0 0
0.181108 0.682529 1.905 0 0 0
0.111757 0.0587119 1.196 255 255 255
-0.721828 0.707754 1.923 255 255 255
-0.261591 0.671229 2.071 255 255 255
0.758631 0.44561 1.668 255 255 255
0.462885 -0.137369 1.302 0 0 0
0.181142 0.22491 1.516 255 255 255
-0.667963 0.297891 2.898 255 255 255
-0.178431 0.540297 2.303 255 255 255
-0.379345 0.577087 2.228 255 255 255
-0.373288 0.526048 2.374 255 255 255
0.645937 0.392041 1.637 255 255 255
-0.722073 0.399823 2.695 255 255 255
-0.666014 0.64675 2.158 255 255 255
0.345877 0.44668 1.642 255 255 255
0.692717 -0.408352 1.686 0 0 0
0.0963596 0.662724 1.947 255 255 255
0.492069 0.603236 1.563 255 255 255
0.624219 -0.309717 1.629 0 0 0
0.424269 -0.0193635 1.21 255 255 255
-0.261679 0.739047 1.923 255 255 255
-0.799209 0.233819 1.991 255 255 255
-0.626422 0.575141 2.338 255 255 255
-0.747937 0.217046 2.953 255 255 255
0.256223 0.0962828 1 255 255 255
-0.788066 0.667416 1.744 0 0 0
-0.457559 0.654061 2.136 255 255 255
-0.845792 -0.176857 2.057 255 255 255
0.312071 0.0346829 1.112 255 255 255
-0.528552 0.671405 2.114 255 255 255
0.515125 0.540186 1.587 255 255 255
0.665994 -0.521261 1.491 0 0 0
0.0311622 0.519604 2.278 255 255 255
-0.624549 0.45869 2.582 255 255 255
0.161832 0.00226208 1.192 255 255 255
0.335152 0.0664769 1.043 255 255 255
-0.231389 0.328025 2.755 255 255 255
0.167168 0.67959 1.923 255 255 255
0.48025 0.490408 1.682 255 255 255
0.186185 0.0828898 1.036 255 255 255
-0.33162 0.316279 2.731 255 255 255
0.680309 -0.422513 1.71 255 255 255
0.441925 0.598982 1.539 255 255 255
0.411586 -0.227135 1.237 255 255 255
0.368803 0.56485 1.591 255 255 255
0.211311 0.252712 1.52 0 0 0
0.614657 0.40759 1.646 255 255 255
0.656578 -0.453481 1.567 255 255 255
-0.755818 0.205391 1.555 255 255 255
0.799231 0.445795 1.629 255 255 255
0.147896 0.0481164 1.13 255 255 255
-0.79373 0.0801644 1.633 255 255 255
-0.805793 0.307352 2.244 255 255 255
0.20873 0.51894 1.991 255 255 255
0.642055 -0.115026 1.313 255 255 255
0.443779 -0.36086 1.254 0 0 0
0.671887 -0.374728 1.579 255 255 255
0.797276 -0.326732 1.583 0 0 0
-0.848576 -0.56311 1.673 255 255 255
0.371638 0.063808 1.055 255 255 255
-0.748431 0.563395 1.911 255 255 255
-0.720435 0.64736 1.911 255 255 255
0.417058 0.0147774 1.112 255 255 255
0.644943 0.278159 1.595 0 0 0
0.68069 -0.188765 1.435 255 255 255
0.650688 -0.486683 1.559 255 255 255
0.424036 0.396856 1.624 255 255 255
0.629759 -0.459772 1.616 255 255 255
0.434679 0.0422757 1.075 255 255 255
-0.179961 0.432324 2.479 255 255 255
0.456857 0.577795 1.591 255 255 255
0.424489 -0.0132784 1.194 255 255 255
-0.539967 0.467763 2.54 255 255 255
0.605541 0.568595 1.587 255 255 255
-0.427389 0.537638 2.374 255 255 255
0.77476 -0.523878 1.595 255 255 255
-0.73853 0.552043 1.959 255 255 255
0.229041 0.0547243 1.079 255 255 255
-0.805217 -0.353694 1.624 0 0 0
0.800089 0.332608 1.62 255 255 255
0.352317 0.0433376 1.102 255 255 255
0.344366 -0.347105 1.22 0 0 0
0.374075 0.0363612 1.108 255 255 255
0.266814 0.0207695 1.143 255 255 255
0.244917 0.13458 0.938 255 255 255
-0.794224 0.174789 1.947 255 255 255
0.12401 -0.619033 2.78 255 255 255
0.0126658 0.521428 2.286 255 255 255
-0.778287 0.319663 2.228 255 255 255
0.195862 0.110643 0.983 255 255 255
-0.587476 0.686241 2.128 255 255 255
-0.719205 0.615546 2.236 255 255 255
0.295802 0.0727744 1.036 255 255 255
-0.259992 0.397349 2.593 255 255 255
-0.773802 0.331727 2.236 255 255 255
-0.361679 0.732781 1.991 255 255 255
-0.792546 0.639166 1.729 0 0 0
0.257617 -0.107124 1.348 0 0 0
0.0931903 -0.379683 1.947 255 255 255
0.484567 -0.0278088 1.152 0 0 0
0.123878 0.536946 2.212 255 255 255
-0.331636 0.347195 2.695 255 255 255
0.405964 -0.218534 1.257 0 0 0
-0.884614 0.253822 2.509 255 255 255
0.450217 0.345645 1.595 255 255 255
0.678712 -0.352377 1.571 255 255 255
-0.564114 0.569789 2.286 255 255 255
0.369147 0.0943571 0.98 255 255 255
-0.594961 0.510706 2.411 255 255 255
0.197764 -0.259753 1.39 255 255 255
-0.799404 0.0370462 1.607 255 255 255
0.651972 0.468726 1.673 255 255 255
0.483672 -0.169219 1.336 0 0 0
-0.0987909 0.42343 2.572 255 255 255
0.146381 0.302426 2.54 255 255 255
-0.863769 0.569686 1.65 255 255 255
0.685647 -0.231894 1.535 255 255 255
-0.745964 0.58238 1.779 255 255 255
0.267876 0.426699 1.607 255 255 255
-0.244543 0.613518 2.128 255 255 255
-0.745578 0.521613 1.668 255 255 255
-0.722266 0.66384 1.941 255 255 255
-0.740382 0.58642 1.837 255 255 255
-0.755879 0.332199 1.853 255 255 255
-0.810881 -0.0830053 1.769 0 0 0
0.278076 -0.372711 1.31 255 255 255
0.647749 -0.545749 1.505 255 255 255
-0.773693 0.238602 1.763 255 255 255
-0.806141 0.0353202 1.784 255 255 255
-0.768389 -0.0895154 1.784 255 255 255
-0.567199 0.684103 2.143 255 255 255
0.409923 -0.0337497 1.232 255 255 255
-0.281811 0.256483 2.857 255 255 255
0.426875 -0.00876301 1.114 0 0 0
0.473448 0.060784 1.005 255 255 255
0.488065 -0.0164888 1.147 255 255 255
0.183254 0.160016 0.935 255 255 255
-0.739862 0.643543 1.821 255 255 255
-0.880719 -0.0533967 2.212 255 255 255
0.660142 0.452391 1.673 255 255 255
-0.787268 0.475394 2.411 0 0 0
-0.850701 0.477603 1.62 255 255 255
0.516394 0.0610259 1.009 255 255 255
-0.767457 0.549227 2.374 0 0 0
0.552129 -0.0807638 1.278 255 255 255
0.492196 0.0111381 1.11 255 255 255
0.729152 0.228537 1.575 0 0 0
0.745946 0.364732 1.646 255 255 255
0.25686 0.119798 0.954 255 255 255
0.28095 0.00997914 1.187 255 255 255
-0.848889 0.529515 1.642 255 255 255
-0.155345 0.591921 2.189 255 255 255
0.82646 0.601508 1.62 255 255 255
0.412547 0.0877087 0.977 255 255 255
0.350333 0.597618 1.555 255 255 255
0.639331 -0.276768 1.607 0 0 0
0.323095 0.121732 0.957 255 255 255
0.596708 0.559671 1.591 255 255 255
-0.776769 0.596306 1.719 255 255 255
-0.150061 0.435201 2.519 255 255 255
-0.309134 0.736377 1.966 255 255 255
0.131864 0.215943 2.755 255 255 255
-0.514788 0.667965 2.114 255 255 255
0.175253 0.560209 2.136 255 255 255
-0.857215 0.183815 2.884 0 0 0
0.415312 0.289313 1.571 255 255 255
0.609657 0.575206 1.591 255 255 255
0.604478 0.575206 1.591 255 255 255
0.268738 0.0385776 1.12 255 255 255
0.575352 0.500009 1.696 255 255 255
-0.782138 0.440696 1.62 255 255 255
-0.79301 -0.329886 1.637 255 255 255
0.221321 0.509543 1.691 255 255 255
0.422593 -0.192633 1.289 255 255 255
0.3595 0.510755 1.668 255 255 255
-0.964603 -0.54023 2.158 255 255 255
0.657924 0.527336 1.595 255 255 255
0.0943059 0.456509 2.374 255 255 255
0.229677 -0.209707 1.278 0 0 0
-0.745744 0.612696 1.758 255 255 255
0.226949 0.624084 1.734 255 255 255
-0.632237 0.375698 2.743 255 255 255
-0.763973 0.242722 1.551 255 255 255
-0.405907 0.67916 2.085 255 255 255
-0.768544 0.457105 2.004 255 255 255
0.583985 -0.125968 1.362 255 255 255
0.667541 -0.425695 1.587 255 255 255
0.620408 -0.0842048 1.299 255 255 255
0.133707 0.38882 2.459 0 0 0
0.458646 -0.143725 1.302 255 255 255
0.614322 0.536249 1.583 255 255 255
-0.688535 0.753106 1.935 0 0 0
0.322911 -0.260751 1.171 0 0 0
0.811882 -0.290745 1.612 255 255 255
-0.820013 0.284335 2.294 255 255 255
-0.821343 -0.141119 1.673 255 255 255
0.440212 0.46099 1.655 255 255 255
-0.781408 -0.0716924 1.774 255 255 255
-0.396268 0.638767 2.143 255 255 255
-0.196585 0.583742 2.212 255 255 255
0.284763 0.575496 1.599 255 255 255
-0.790954 -0.376605 1.655 255 255 255
-0.686281 0.623338 2.212 255 255 255
0.586756 -0.274695 1.551 0 0 0
-0.207368 0.442634 2.469 255 255 255
0.386088 0.117874 0.951 255 255 255
0.231163 -0.349261 1.31 0 0 0
0.748848 0.326503 1.629 255 255 255
-0.793984 -0.253457 1.696 255 255 255
-0.778654 0.559922 2.338 0 0 0
-0.344157 0.226657 2.953 255 255 255
0.457118 -0.34945 1.257 255 255 255
-0.673082 0.678286 2.114 255 255 255
0.452615 -0.0428968 1.106 255 255 255
-0.812637 0.0033172 1.748 255 255 255
0.391064 -0.0392801 1.217 255 255 255
0.396694 -0.334414 1.21 255 255 255
-0.623888 0.693967 2.099 255 255 255
0.346907 -0.385665 1.229 0 0 0
0.228245 0.293202 1.551 255 255 255
-0.0311949 0.669994 1.997 255 255 255
-0.777865 0.160226 1.753 255 255 255
0.184988 0.357134 1.686 255 255 255
-0.225679 0.681435 2.051 255 255 255
0.201857 -0.200554 1.342 255 255 255
-0.25236 0.68564 2.024 255 255 255
0.254522 0.0611183 1.068 255 255 255
-0.504317 0.68808 2.071 255 255 255
-1.02275 -0.521172 2.411 255 255 255
0.39685 -0.12389 1.294 255 255 255
-0.425997 0.704799 2.051 255 255 255
-0.770519 0.223616 1.524 255 255 255
-0.813616 -0.0761561 1.744 255 255 255
0.101685 0.404827 2.459 255 255 255
-0.688763 0.618367 2.22 255 255 255
-0.84482 -0.588063 1.629 255 255 255
0.100073 0.418097 2.42 255 255 255
0.400628 -0.0473959 1.222 255 255 255
0.607585 -0.495181 1.62 255 255 255
-0.78359 -0.325275 1.668 255 255 255
-0.965646 -0.398821 2.294 0 0 0
-0.819664 -0.388768 1.616 0 0 0
-0.773214 0.50454 2.051 255 255 255
0.0348703 0.523311 2.278 255 255 255
-0.638095 0.430003 2.638 255 255 255
-0.759162 0.218707 1.616 255 255 255
0.109626 0.076101 1.194 255 255 255
-0.0223109 0.219178 2.982 255 255 255
0.670796 -0.373012 1.7 0 0 0
0.245499 0.497188 1.65 255 255 255
-0.924643 -0.00894088 2.996 255 255 255
0.456158 -0.0796262 1.26 255 255 255
0.142906 0.502828 2.286 255 255 255
0.262592 0.0859102 1.012 255 255 255
0.689928 0.558675 1.603 255 255 255
0.482286 0.0674517 0.983 255 255 255
0.153424 0.00611586 1.187 255 255 255
-0.80566 0.288429 1.539 255 255 255
-0.78889 0.578338 1.691 0 0 0
-0.17911 0.633779 2.092 255 255 255
0.105296 0.0738475 1.189 255 255 255
0.318655 -0.0113733 1.198 255 255 255
-0.78432 -0.249253 1.705 255 255 255
-0.805769 0.582115 1.686 255 255 255
0.344924 0.0559044 1.068 255 255 255
-0.770443 0.133642 1.705 255 255 255
0.191712 0.0251323 1.173 255 255 255
0.171428 0.619888 1.972 0 0 0
-0.537822 0.364738 2.695 255 255 255
-0.442561 0.287713 2.844 255 255 255
-0.253615 0.45432 2.489 255 255 255
0.560768 -0.180674 1.445 255 255 255
-0.755339 0.313077 1.642 255 255 255
0.197279 0.434724 1.853 255 255 255
0.157642 0.0525889 1.108 255 255 255
0.729358 -0.390277 1.559 255 255 255
0.18946 -0.266992 1.677 255 255 255
-0.776552 0.40441 2.051 255 255 255
0.192902 0.609302 1.899 255 255 255
-0.589967 0.709266 2.064 255 255 255
0.213323 0.00418423 1.187 255 255 255
-0.792759 -0.397695 1.642 255 255 255
0.321831 0.107823 0.972 255 255 255
0.0933968 0.359105 2.561 255 255 255
-0.612939 0.709697 2.085 255 255 255
0.430934 -0.0286054 1.185 255 255 255
0.127939 0.531663 2.22 255 255 255
-0.787124 0.268783 1.513 255 255 255
-0.775646 -0.201492 1.748 255 255 255
-0.403374 0.467755 2.392 255 255 255
0.497775 -0.11027 1.333 0 0 0
0.0173989 0.670057 1.978 255 255 255
0.572358 -0.119669 1.366 255 255 255
0.574841 0.516954 1.595 255 255 255
0.372813 -0.127805 1.291 255 255 255
0.0776526 0.487633 2.338 255 255 255
0.00981717 0.413058 2.509 255 255 255
-0.903148 0.232908 2.911 0 0 0
0.700302 -0.292136 1.591 255 255 255
0.315252 -0.110078 1.305 255 255 255
-0.767299 0.269175 1.668 255 255 255
-0.828732 -0.214088 1.758 255 255 255
-0.771398 0.372832 2.158 255 255 255
-0.19028 0.593307 2.181 255 255 255
0.626208 -0.244915 1.587 255 255 255
0.16325 -0.131293 1.445 255 255 255
0.775682 0.553153 1.724 255 255 255
-0.775011 0.1859 1.753 255 255 255
-0.771921 -0.0668476 1.799 255 255 255
0.418881 0.0793694 0.992 255 255 255
0.307518 0.557205 1.637 255 255 255
0.469806 0.344778 1.591 255 255 255
-0.763349 0.435585 1.714 255 255 255
0.383278 0.529885 1.677 255 255 255
-0.790086 -0.392351 1.642 255 255 255
-0.633644 0.722701 2.064 255 255 255
0.59232 -0.268501 1.559 0 0 0
0.209867 -0.19805 1.297 255 255 255
0.461007 0.0610864 1.01 255 255 255
0.151467 0.484081 2.303 255 255 255
0.214915 -0.315346 1.302 0 0 0
-0.812387 -0.0186498 1.677 255 255 255
0.135288 0.619828 2.057 255 255 255
-0.78408 0.172796 2.857 255 255 255
-0.429422 0.374054 2.731 255 255 255
0.627206 0.556857 1.583 255 255 255
0.13025 0.706787 1.887 255 255 255
0.296487 -0.0874483 1.316 0 0 0
-0.834598 0.639512 1.7 255 255 255
-0.784775 0.432787 1.62 255 255 255
0.439831 0.563674 1.595 255 255 255
-0.222919 0.285082 2.818 255 255 255
0.41971 -0.0382667 1.077 255 255 255
-0.7006 0.365166 2.731 255 255 255
-0.0207126 0.697406 1.929 255 255 255
-0.422527 0.412398 2.53 255 255 255
-0.352248 0.56122 2.312 255 255 255
0.0885591 0.0400163 1.283 255 255 255
0.662622 0.589727 1.528 255 255 255
0.425692 0.0640964 1.032 255 255 255
-0.764153 0.542234 1.673 255 255 255
0.203599 -0.00162562 1.198 255 255 255
-0.300436 0.655467 2.107 255 255 255
0.14299 0.702873 1.893 255 255 255
0.180955 0.153271 0.931 255 255 255
0.194629 -0.286682 1.4 255 255 255
0.227656 0.279858 1.547 255 255 255
-0.829009 0.468211 1.624 255 255 255
0.836518 0.583126 1.705 255 255 255
0.566736 -0.0928744 1.302 255 255 255
0.334481 0.0244038 1.139 255 255 255
0.371646 0.0351819 1.128 255 255 255
-0.846619 0.121707 2.189 255 255 255
-0.768264 0.233114 1.682 255 255 255
0.747606 0.483343 1.686 255 255 255
0.173191 0.156133 0.93 255 255 255
0.298435 0.346437 1.575 255 255 255
-0.352448 0.586666 2.196 255 255 255
-0.779509 0.230418 1.859 255 255 255
0.335057 -0.0526343 1.252 255 255 255
0.086875 0.0192272 1.289 255 255 255
-0.184918 0.316279 2.731 255 255 255
0.125213 0.375344 2.53 255 255 255
0.482988 0.490408 1.682 255 255 255
-0.829134 -0.24432 1.729 255 255 255
0.674332 -0.231441 1.532 255 255 255
0.0681769 0.275067 2.719 255 255 255
0.667426 0.436418 1.664 255 255 255
0.223153 0.563704 1.705 255 255 255
-0.322239 0.566069 2.286 255 255 255
0.409209 0.571177 1.587 255 255 255
-0.772761 0.233694 1.509 255 255 255
-0.785878 -0.362041 1.65 255 255 255
-0.772323 0.357103 1.673 255 255 255
-0.767802 0.362782 1.81 255 255 255
0.196853 -0.276133 1.416 255 255 255
0.317325 0.326827 1.567 255 255 255
0.414201 -0.408689 1.289 255 255 255
0.754688 0.290407 1.591 255 255 255
-0.784834 0.380103 2.064 255 255 255
0.670125 -0.425695 1.587 255 255 255
-0.961451 0.097064 2.818 255 255 255
0.169743 -0.0624065 1.33 255 255 255
-0.107452 0.491111 2.392 255 255 255
0.429446 0.343049 1.595 255 255 255
0.691007 -0.236225 1.547 255 255 255
-0.509693 0.279729 2.857 255 255 255
0.696367 -0.359833 1.559 255 255 255
-0.303866 0.652038 2.107 255 255 255
0.0669984 0.305098 2.672 255 255 255
0.0896698 -0.254055 1.7 255 255 255
-0.411234 0.709046 2.044 255 255 255
0.208662 0.48459 1.7 255 255 255
-0.864367 -0.0168023 2.136 255 255 255
0.837371 0.589472 1.668 255 255 255
-1.23602 -0.865518 2.925 0 0 0
0.35131 0.487922 1.655 255 255 255
0.0351398 0.712115 1.893 255 255 255
0.426151 0.540826 1.612 255 255 255
0.774699 0.290786 1.579 255 255 255
0.195203 0.19015 1.372 255 255 255
0.683081 -0.432283 1.445 255 255 255
-0.810461 -0.401292 1.603 0 0 0
0.407459 -0.191438 1.281 0 0 0
0.373982 0.577795 1.591 255 255 255
0.330762 -0.427957 1.316 0 0 0
0.370283 -0.331927 1.201 255 255 255
-0.535367 0.537395 2.356 255 255 255
0.20406 0.121351 0.954 255 255 255
0.362996 -0.154515 1.286 255 255 255
0.410666 -0.203468 1.278 0 0 0
0.605997 0.304115 1.595 255 255 255
0.708534 0.487528 1.691 255 255 255
0.250704 0.0819297 1.024 255 255 255
0.377894 -0.253583 1.182 0 0 0
0.302449 -0.246189 1.252 255 255 255
0.19887 0.406599 1.642 255 255 255
-0.600706 0.736503 2.01 255 255 255
-0.821603 -0.135268 1.668 255 255 255
-0.854845 0.588059 1.664 255 255 255
0.511203 -0.249081 1.381 0 0 0
-0.797269 0.299788 2.871 255 255 255
-0.766969 0.398869 1.774 255 255 255
0.343743 -0.384602 1.232 0 0 0
0.462518 0.592489 1.575 255 255 255
0.499378 0.421345 1.637 255 255 255
0.0924921 -0.109901 1.442 255 255 255
0.804663 0.628043 1.714 255 255 255
-0.443265 0.651653 2.151 255 255 255
-0.845974 0.245272 2.244 255 255 255
-0.770448 0.355085 2.269 255 255 255
0.549623 -0.00527106 1.143 255 255 255
0.803672 0.480763 1.677 255 255 255
-0.787372 0.389568 2.173 255 255 255
0.249991 -0.271389 1.265 255 255 255
0.377016 -0.129906 1.291 255 255 255
0.198262 0.147685 0.934 255 255 255
-0.644918 0.474155 2.53 255 255 255
-0.82535 -0.174531 1.763 255 255 255
0.422767 0.462282 1.65 255 255 255
0.457067 0.115503 0.957 255 255 255
0.380629 -0.102435 1.289 0 0 0
0.592466 -0.175606 1.442 255 255 255
-0.764663 0.356814 2.189 255 255 255
-0.764013 0.506775 1.655 255 255 255
-0.186045 0.594667 2.173 255 255 255
0.425918 0.280209 1.563 255 255 255
0.250355 -0.182981 1.31 255 255 255
0.512651 0.530329 1.62 255 255 255
-0.079928 0.59113 2.173 255 255 255
0.174731 0.258947 2.01 255 255 255
0.240929 0.0280122 1.135 255 255 255
0.219226 0.0136092 1.167 255 255 255
0.581872 -0.131932 1.378 0 0 0
-0.682587 0.649148 2.166 255 255 255
-0.767687 0.391988 1.769 255 255 255
0.20541 -0.195303 1.351 255 255 255
0.462079 0.0554295 1.027 255 255 255
-0.825976 -0.306581 1.655 255 255 255
0.182762 -0.176398 1.509 255 255 255
-0.761697 0.242578 1.583 255 255 255
0.428704 -0.29872 1.217 255 255 255
-1.03901 -0.0623138 2.768 255 255 255
0.22431 -0.200088 1.283 0 0 0
0.316787 0.556067 1.603 255 255 255
0.548702 -0.204352 1.463 255 255 255
0.0438448 0.718678 1.87 255 255 255
0.642256 -0.202937 1.47 0 0 0
-0.993839 0.0416614 2.793 255 255 255
0.331689 -0.383197 1.247 255 255 255
0.308218 0.0853159 1.005 255 255 255
-0.774658 -0.270016 1.696 255 255 255
-0.582308 0.553977 2.329 255 255 255
-0.77788 -0.266469 1.691 255 255 255
-0.200229 0.568897 2.253 255 255 255
0.254286 -0.100095 1.342 0 0 0
0.183788 0.15008 0.93 255 255 255
-0.196678 0.39313 2.593 255 255 255
0.278351 0.313275 1.563 255 255 255
0.67338 -0.417483 1.547 0 0 0
-0.690489 0.547888 2.402 255 255 255
-0.12983 0.495142 2.374 255 255 255
0.22431 -0.198 1.283 0 0 0
0.264022 -0.0952997 1.336 0 0 0
-0.530741 0.391367 2.638 255 255 255
0.643506 -0.171257 1.286 255 255 255
-0.267354 0.564317 2.294 255 255 255
0.661506 -0.552258 1.439 0 0 0
0.404375 -0.269307 1.192 0 0 0
-0.369096 0.397309 2.649 255 255 255
-0.857527 -0.140402 1.633 255 255 255
0.300642 0.109179 0.97 255 255 255
0.26059 0.157114 0.945 255 255 255
0.230306 -0.0451242 1.27 255 255 255
0.522875 0.56343 1.587 255 255 255
0.155612 0.244292 2.626 255 255 255
-0.551463 0.363561 2.719 255 255 255
0.137656 -0.108978 1.4 255 255 255
0.415939 -0.0477837 1.232 255 255 255
0.740587 0.391518 1.646 255 255 255
0.757771 -0.286513 1.603 255 255 255
0.644291 0.581508 1.587 255 255 255
0.171009 -0.0980816 1.375 0 0 0
-0.991473 -0.367758 2.383 0 0 0
0.508715 0.532094 1.65 255 255 255
-0.773693 -0.140103 1.763 255 255 255
-0.765355 0.352391 1.744 255 255 255
0.329446 -0.184957 1.294 0 0 0
0.292869 -0.124137 1.319 255 255 255
0.305331 -0.384913 1.308 0 0 0
0.262411 0.0918578 1.005 255 255 255
0.414644 -0.0585826 1.064 255 255 255
0.768883 0.425978 1.655 255 255 255
0.0168623 0.683708 1.917 255 255 255
0.232664 -0.300305 1.283 0 0 0
-0.75789 0.422675 1.753 255 255 255
0.7155 -0.217734 1.473 255 255 255
-0.762864 0.250106 1.848 255 255 255
0.0923746 0.0190631 1.278 255 255 255
-0.298108 0.689088 2.044 255 255 255
0.126102 0.649995 1.966 255 255 255
0.38314 -0.0412606 1.217 255 255 255
0.365274 -0.0479777 1.237 255 255 255
-0.150023 0.619803 2.114 255 255 255
0.456637 0.039697 1.053 255 255 255
-0.841034 -0.0891672 2.121 255 255 255
0.703933 -0.511569 1.484 255 255 255
0.528146 0.368247 1.603 255 255 255
0.81709 0.522085 1.705 255 255 255
0.373763 0.489101 1.659 255 255 255
0.399846 0.137449 0.958 255 255 255
-0.168328 0.648623 2.085 255 255 255
-0.751015 0.286244 1.705 255 255 255
0.189098 -0.154355 1.463 0 0 0
0.0166512 0.702873 1.893 255 255 255
0.865232 0.549689 1.696 0 0 0
0.325719 0.559433 1.583 255 255 255
0.423001 0.0180326 1.09 255 255 255
-0.921228 -0.39374 2.107 0 0 0
-0.855755 -0.389477 1.887 0 0 0
0.309006 0.0347452 1.114 255 255 255
-0.0307771 0.430018 2.489 255 255 255
-0.858297 -0.154747 2.121 255 255 255
0.169597 -0.350988 1.815 255 255 255
0.0521043 0.622774 2.078 255 255 255
0.297053 0.092563 0.995 255 255 255
-0.756134 0.414819 2.707 255 255 255
0.865232 0.577288 1.696 255 255 255
0.42743 0.434664 1.637 255 255 255
0.20805 0.146635 0.937 255 255 255
0.0367675 -0.295844 1.821 255 255 255
-0.742125 0.620176 1.763 255 255 255
-0.258979 0.566069 2.286 255 255 255
0.408775 0.134191 0.957 255 255 255
-0.814809 -0.117243 1.682 255 255 255
-0.844648 0.389586 2.626 0 0 0
0.21134 -0.329874 1.39 255 255 255
-0.411721 0.707493 2.03 255 255 255
0.317051 -0.374005 1.278 0 0 0
0.211488 -0.187063 1.294 255 255 255
0.475089 0.0677948 0.988 255 255 255
0.270496 0.136687 0.942 255 255 255
0.641115 0.427007 1.659 255 255 255
-0.105128 0.672457 2.044 255 255 255
-0.0993154 0.541919 2.294 255 255 255
-0.780632 -0.258213 1.691 255 255 255
0.421227 -0.0174432 1.09 255 255 255
0.10602 -0.214671 1.612 255 255 255
0.286304 0.0514023 1.083 255 255 255
0.306584 -0.295717 1.189 255 255 255
-0.135191 0.722829 1.905 255 255 255
0.55121 0.476894 1.673 255 255 255
-0.414784 0.292341 2.844 255 255 255
-0.10977 0.58163 2.204 255 255 255
-0.0837733 0.493141 2.383 255 255 255
-0.426713 0.309432 2.831 255 255 255
0.396686 0.354318 1.599 255 255 255
-0.037084 0.483552 2.374 255 255 255
-0.969023 -0.608339 2.114 255 255 255
-0.769923 0.396273 1.815 255 255 255
-0.53753 0.643633 2.136 255 255 255
0.654802 0.538665 1.575 255 255 255
0.679393 0.572313 1.555 255 255 255
0.384796 -0.173942 1.275 0 0 0
-0.788724 0.0864573 1.555 255 255 255
-0.838142 0.105937 2.158 255 255 255
-0.420531 0.387387 2.731 255 255 255
-0.783846 0.2155 1.502 255 255 255
-0.793741 0.131141 1.575 255 255 255
-0.781993 0.337919 2.303 255 255 255
-0.780913 0.072675 1.848 255 255 255
-0.80451 -0.0514842 1.774 0 0 0
-0.701787 0.693166 2.128 255 255 255
0.294443 0.147123 0.95 255 255 255
-0.438689 0.41283 2.459 255 255 255
-0.365107 0.227732 2.967 255 255 255
0.12593 -0.117633 1.422 255 255 255
-0.843639 -0.132754 1.637 255 255 255
-0.757872 0.538457 2.43 255 255 255
-0.586404 0.7586 1.941 255 255 255
-1.25753 -1.05371 2.793 255 255 255
0.321299 -0.213242 1.262 0 0 0
0.176675 0.271504 1.959 255 255 255
-0.824506 0.349 1.575 255 255 255
0.125696 -0.177623 1.563 255 255 255
0.237475 0.120969 0.951 255 255 255
0.25647 -0.132854 1.342 255 255 255
-0.571413 0.522476 2.411 255 255 255
0.442106 -0.151616 1.297 255 255 255
-0.0308407 0.570871 2.204 255 255 255
0.268088 0.0688278 1.053 255 255 255
0.649193 -0.487489 1.612 255 255 255
0.478524 -0.106236 1.31 255 255 255
-0.722571 0.713944 2.128 255 255 255
0.277219 0.337887 1.571 255 255 255
0.534019 0.421345 1.637 255 255 255
-0.729812 0.698124 2.051 0 0 0
0.166014 0.573176 2.107 255 255 255
0.301583 -0.195912 1.283 0 0 0
0.524193 0.331832 1.591 255 255 255
0.727999 -0.37443 1.567 255 255 255
-0.515322 0.741934 1.947 255 255 255
-0.766869 0.23161 1.691 255 255 255
0.734912 0.513684 1.714 255 255 255
-0.326715 0.471232 2.43 255 255 255
-0.779003 -0.297416 1.664 255 255 255
0.467528 -0.301199 1.252 255 255 255
0.500315 0.0472107 1.03 255 255 255
0.503519 0.268338 1.583 0 0 0
0.400849 0.531465 1.682 255 255 255
-0.810461 -0.393466 1.603 0 0 0
-0.34743 0.628305 2.143 255 255 255
-0.795856 -0.251288 1.7 255 255 255
-0.74757 0.586009 1.966 255 255 255
0.354497 -0.176431 1.278 255 255 255
0.288753 -0.174024 1.291 255 255 255
0.384193 -0.0721614 1.273 255 255 255
0.588883 -0.14543 1.4 0 0 0
-0.795323 0.440696 1.62 255 255 255
0.663694 -0.344428 1.682 0 0 0
0.592797 -0.437623 1.547 0 0 0
-0.343504 0.310092 2.755 255 255 255
-0.84279 0.482876 1.62 255 255 255
0.820968 0.605805 1.646 255 255 255
-0.923793 0.138223 2.561 255 255 255
-0.90997 0.199847 2.719 255 255 255
0.147494 0.377362 2.489 0 0 0
-1.28021 -1.1088 2.939 255 255 255
0.453981 0.0659518 1.009 255 255 255
0.70494 -0.405166 1.466 255 255 255
-1.25979 -1.01726 2.768 0 0 0
0.649592 -0.560812 1.449 0 0 0
-1.1186 -0.772491 2.449 0 0 0
0.328364 0.312322 1.571 255 255 255
0.220489 -0.27932 1.273 255 255 255
-0.926404 -0.665847 1.887 0 0 0
-0.667038 0.573536 2.347 255 255 255
0.315543 -0.249841 1.201 255 255 255
0.0108928 0.67559 1.966 255 255 255
0.239139 -0.29175 1.273 0 0 0
0.44024 -0.339762 1.244 255 255 255
-0.793113 0.508607 2.347 255 255 255
-0.582604 0.329414 2.805 255 255 255
-0.680798 0.25921 2.996 255 255 255
0.0123444 0.558958 2.228 255 255 255
-0.794805 -0.396075 1.603 255 255 255
0.0923746 0.0169834 1.278 255 255 255
0.686513 0.482024 1.691 255 255 255
0.146708 -0.100538 1.378 255 255 255
-0.0253612 0.648059 2.051 255 255 255
0.566705 -0.289686 1.498 255 255 255
0.262673 -0.263469 1.247 255 255 255
0.615326 0.510444 1.599 0 0 0
0.251428 0.0384398 1.116 255 255 255
-0.689387 0.32786 2.831 255 255 255
0.665147 -0.541336 1.473 255 255 255
0.124887 -0.352305 1.853 255 255 255
-0.325273 0.604609 2.158 255 255 255
-0.818456 -0.284783 1.865 255 255 255
0.117794 0.0490624 1.198 255 255 255
0.641321 -0.424531 1.612 255 255 255
-0.789167 0.500947 2.228 255 255 255
0.531409 0.406031 1.629 255 255 255
0.38314 -0.0194755 1.217 255 255 255
-0.235566 0.587594 2.173 255 255 255
-0.482622 0.568897 2.253 255 255 255
0.244874 0.52307 1.664 255 255 255
0.490385 0.0704354 0.98 255 255 255
-0.825976 -0.260796 1.655 255 255 255
-0.357967 0.267084 2.871 255 255 255
-0.835525 -0.173241 1.642 255 255 255
-0.767687 0.357443 1.769 255 255 255
-0.745232 0.554726 1.935 255 255 255
-0.805312 0.551471 1.668 255 255 255
0.606115 -0.165877 1.419 255 255 255
0.279359 -0.245599 1.249 255 255 255
0.268908 0.657327 1.696 255 255 255
-0.765269 0.366267 1.629 255 255 255
0.712299 0.590026 1.555 255 255 255
0.0543958 0.495205 2.32 255 255 255
0.132845 -0.136234 1.473 255 255 255
-0.784182 -0.164512 1.748 255 255 255
0.311623 0.0362299 1.104 255 255 255
-0.837515 -0.400275 1.62 255 255 255
0.54758 -0.157744 1.429 255 255 255
0.327936 0.0457745 1.075 255 255 255
0.26255 0.142667 0.941 255 255 255
0.227577 0.463968 1.637 255 255 255
0.0801352 0.064173 1.189 0 0 0
0.463782 0.109388 0.958 255 255 255
-0.552406 0.723192 2.037 255 255 255
-0.280059 0.591921 2.189 255 255 255
0.344156 -0.156608 1.286 255 255 255
-0.205325 0.353146 2.707 255 255 255
-0.00205192 0.602602 2.114 255 255 255
-0.531569 0.735415 1.972 255 255 255
0.322326 0.352456 1.579 255 255 255
0.255878 0.139307 0.939 255 255 255
0.422948 -0.02153 1.118 255 255 255
-0.758963 0.427582 1.81 255 255 255
0.173958 0.105517 0.995 255 255 255
-0.341206 0.731043 2.004 255 255 255
-0.899679 0.244558 2.54 255 255 255
0.28165 -0.170612 1.297 255 255 255
-0.775659 0.61103 1.729 255 255 255
0.366426 0.0956582 0.977 255 255 255
0.564145 0.383642 1.624 255 255 255
0.183143 0.175529 1.435 255 255 255
-0.605531 0.402559 2.684 255 255 255
0.29138 -0.0446623 1.257 255 255 255
-0.79324 0.46909 2.303 255 255 255
-0.831116 0.242896 2.158 255 255 255
0.675756 -0.504351 1.47 255 255 255
0.344224 -0.315861 1.192 255 255 255
-0.728732 0.591527 1.853 255 255 255
0.738242 0.326503 1.629 255 255 255
-0.0279604 0.377847 2.604 255 255 255
-0.011433 0.680657 1.953 255 255 255
-0.769265 0.347521 2.244 255 255 255
0.627284 -0.313902 1.637 0 0 0
0.318961 -0.341876 1.237 255 255 255
-0.306583 0.716581 1.991 255 255 255
0.351219 0.0575344 1.066 255 255 255
0.200473 -0.234311 1.551 0 0 0
-0.77852 0.113068 1.774 255 255 255
-1.05548 -0.398366 2.695 0 0 0
0.113966 -0.0749901 1.362 255 255 255
0.362128 -0.220053 1.254 255 255 255
-0.705593 0.724222 2.078 255 255 255
-0.276421 0.21772 2.898 255 255 255
0.429599 -0.0210152 1.192 255 255 255
0.0264658 0.572372 2.196 255 255 255
0.743736 0.421608 1.659 255 255 255
-0.831538 -0.17677 1.65 255 255 255
0.286647 0.58963 1.595 255 255 255
-0.743758 0.465921 2.53 255 255 255
0.513827 0.288947 1.583 0 0 0
-0.785701 0.580048 1.696 0 0 0
-0.326915 0.499005 2.374 255 255 255
0.526711 0.546553 1.583 255 255 255
0.464442 0.0508575 1.036 255 255 255
-0.791613 0.074986 1.831 255 255 255
-0.144099 0.69181 1.985 255 255 255
0.547745 0.505529 1.696 255 255 255
-0.909525 -0.244178 2.212 255 255 255
-0.830467 0.577227 1.664 255 255 255
0.0554869 0.622774 2.078 255 255 255
0.495824 0.0128978 1.106 255 255 255
0.326196 0.0227483 1.149 255 255 255
-0.294858 0.441218 2.53 255 255 255
0.572075 0.373071 1.624 255 255 255
0.161153 0.021569 1.187 255 255 255
-0.0369434 0.493264 2.365 255 255 255
0.400987 0.295176 1.575 255 255 255
-1.10877 -0.901694 2.32 255 255 255
-0.697142 0.718577 2.024 255 255 255
-0.79607 0.0728556 1.535 255 255 255
-0.710902 0.282975 2.939 255 255 255
-0.0206481 0.701495 1.923 255 255 255
0.3287 -0.302436 1.185 255 255 255
-0.778287 0.403054 2.228 255 255 255
0.546125 0.527274 1.587 255 255 255
0.820583 0.561569 1.724 255 255 255
0.126264 0.271166 2.638 0 0 0
-0.274267 0.437101 2.53 255 255 255
-0.75379 0.311216 1.705 255 255 255
0.796579 -0.391895 1.629 0 0 0
0.442504 -0.324283 1.239 255 255 255
0.197437 0.272306 1.547 255 255 255
-0.842276 -0.460139 1.599 0 0 0
0.395792 0.125744 0.952 255 255 255
-0.788564 -0.362041 1.65 255 255 255
0.788119 -0.394283 1.575 0 0 0
-0.500919 0.645742 2.143 255 255 255
-0.805425 0.399823 2.695 255 255 255
-0.461451 0.308011 2.818 255 255 255
0.196609 0.0661668 1.094 255 255 255
0.40247 0.572617 1.591 255 255 255
0.353665 -0.194691 1.275 255 255 255
-0.790311 0.127762 1.505 255 255 255
0.393828 0.114779 0.951 255 255 255
0.507375 0.318085 1.587 255 255 255
0.353196 0.0561137 1.072 255 255 255
0.513794 0.269545 1.575 0 0 0
-0.0270284 0.227732 2.967 255 255 255
-0.814849 -0.426827 1.705 255 255 255
-0.775432 -0.0202512 1.821 255 255 255
