ply
format ascii 1.0
comment Created by Open3D
element vertex 1336
property double x
property double y
property double z
property uchar red
property uchar green
property uchar blue
end_header
0.370178 0.126137 0.841 255 255 255
0.465427 0.329069 1.098 255 255 255
-0.118102 -0.110078 1.305 255 255 255
-0.159992 0.101593 0.958 255 255 255
-0.292286 0.0472605 1.154 0 0 0
-0.345871 0.576864 2.071 255 255 255
-0.171288 -0.10936 1.322 255 255 255
-0.0138467 0.289815 1.52 255 255 255
-0.894919 0.316066 2.55 255 255 255
-1.03846 0.0762904 2.731 255 255 255
0.379271 -0.353204 1.509 0 0 0
0.317477 -0.998849 2.982 255 255 255
0.246167 0.101075 0.898 255 255 255
0.0742521 0.065852 0.983 255 255 255
-0.48629 0.477237 2.253 255 255 255
0.0619154 0.121399 0.897 255 255 255
0.186697 0.0810681 0.937 255 255 255
-1.03226 -0.00268403 1.978 255 255 255
-1.11354 -0.629102 2.615 0 0 0
-0.606493 0.423472 2.32 0 0 0
0.54133 -0.408966 1.239 255 255 255
0.17524 0.0814142 0.941 255 255 255
0.445979 0.0697701 0.909 255 255 255
0.453594 0.314698 1.104 255 255 255
0.0330116 0.325413 1.513 255 255 255
-0.179923 0.137815 0.909 255 255 255
-1.11542 -0.229188 2.884 255 255 255
0.370255 0.290816 1.032 255 255 255
0.303908 0.281616 1.477 0 0 0
0.560469 0.26936 1.198 255 255 255
-0.0863219 0.123954 0.905 255 255 255
0.430528 -0.0430301 0.95 255 255 255
0.139112 0.0162588 1.09 255 255 255
0.168469 0.566703 1.513 255 255 255
0.433311 0.48908 1.509 0 0 0
0.473444 -0.0348172 0.937 255 255 255
-0.105075 0.0646923 1.015 255 255 255
0.522375 -0.260239 1.456 0 0 0
-0.0981924 0.0267781 1.085 255 255 255
0.483673 0.23681 1.201 0 0 0
0.346548 0.111309 0.864 255 255 255
-0.743447 0.485691 2.347 255 255 255
0.13591 -0.236554 1.203 0 0 0
0.522432 -0.409013 1.324 0 0 0
0.442154 -0.410206 1.342 255 255 255
0.413829 -0.291802 1.425 255 255 255
-0.234718 0.00772208 1.139 255 255 255
-0.271883 0.127378 0.93 255 255 255
0.420111 0.565088 1.599 255 255 255
-0.103655 0.133818 0.902 255 255 255
-0.25574 -0.0133785 1.203 0 0 0
-0.218846 0.468435 2.114 0 0 0
-0.505762 0.698547 1.865 255 255 255
-0.233751 0.14052 0.917 255 255 255
-0.101878 -0.222728 1.213 0 0 0
0.111528 0.317185 1.509 255 255 255
-1.04552 -0.595624 1.991 255 255 255
-0.0823047 -0.333853 1.187 0 0 0
0.342232 0.000271467 1.004 255 255 255
-0.0283693 -0.056025 1.194 255 255 255
-0.0999698 0.326014 1.551 255 255 255
-0.825039 0.709858 1.887 255 255 255
-1.01611 -0.191559 1.935 255 255 255
0.0716539 0.124937 0.891 255 255 255
0.326192 0.00191669 1.01 255 255 255
-0.987171 0.359025 2.42 255 255 255
-1.01114 -0.00346021 2.55 255 255 255
-1.10471 -0.477133 2.719 0 0 0
-0.0419042 -0.358536 1.192 255 255 255
-0.726375 0.663619 1.978 255 255 255
-0.0236344 0.579014 1.513 255 255 255
-0.0502408 0.384882 1.575 255 255 255
0.53164 -0.110007 1.059 255 255 255
-0.07515 0.0961065 0.95 255 255 255
0.386107 0.411123 1.122 0 0 0
0.570097 -0.375681 1.249 0 0 0
-0.0680371 0.134536 0.897 255 255 255
0.392945 -0.48273 1.302 255 255 255
-0.795314 0.571963 2.128 255 255 255
0.26544 0.293634 1.477 0 0 0
-1.00672 0.172343 2.294 255 255 255
-0.997264 -0.335364 1.929 255 255 255
0.353985 0.0792512 0.916 255 255 255
-0.00250489 0.0849729 0.964 255 255 255
0.4138 0.387197 1.143 255 255 255
-0.0335823 0.11465 0.913 255 255 255
0.42484 0.303919 1.104 0 0 0
-0.235594 -0.0149282 1.171 255 255 255
-0.0644684 -0.0550332 1.215 255 255 255
-0.419405 0.684199 1.859 255 255 255
0.613468 -0.152284 1.234 0 0 0
0.370524 -0.0740001 1.087 255 255 255
-0.241124 0.0077492 1.143 255 255 255
0.0258209 0.0852373 0.967 255 255 255
-0.257347 0.571555 2.064 255 255 255
-0.155704 -0.119215 1.336 0 0 0
0.167026 -0.00338715 1.135 255 255 255
-0.849141 0.633218 2.057 255 255 255
-0.157395 -0.026677 1.185 255 255 255
0.132582 0.139301 0.872 255 255 255
-1.00681 0.0404678 2.044 255 255 255
-0.792149 0.457984 2.402 255 255 255
0.375622 -0.240556 1.466 0 0 0
0.364533 -0.37776 1.509 255 255 255
0.27134 0.0071797 1.059 255 255 255
-0.877534 0.444006 2.411 255 255 255
-0.965815 0.614322 2.107 255 255 255
-1.00668 0.0303846 2.037 255 255 255
0.290709 0.0252726 1.024 255 255 255
0.329459 -0.0294569 1.015 255 255 255
0.106339 0.13883 0.878 255 255 255
0.0981119 -0.166439 1.22 255 255 255
0.0573405 -0.171236 1.198 0 0 0
0.0407799 0.139463 0.882 255 255 255
0.343121 0.112975 0.866 255 255 255
-0.0227188 -0.284587 1.108 0 0 0
0.125191 -0.0238297 1.141 255 255 255
0.336176 0.137738 0.845 255 255 255
-1.01679 -0.0792776 2.044 255 255 255
0.0558527 -0.103861 1.208 0 0 0
0.483672 -0.404023 1.336 255 255 255
0.245922 -1.00836 2.939 255 255 255
-0.0397161 0.052442 1.034 255 255 255
0.10137 -0.292355 1.124 255 255 255
-0.040925 0.532956 1.612 255 255 255
0.567154 -0.377109 1.247 0 0 0
0.216245 -0.167812 1.378 0 0 0
-0.0416849 0.334376 1.543 255 255 255
-1.01755 0.18418 2.212 255 255 255
0.0973903 -0.376349 1.187 0 0 0
0.197946 -0.119572 1.316 255 255 255
-0.445135 0.575432 2.078 255 255 255
0.198046 0.0952305 0.912 255 255 255
0.420994 -0.45977 1.297 255 255 255
0.0422635 0.142495 0.883 255 255 255
-0.118401 -0.0148135 1.162 255 255 255
-0.716141 0.588079 2.099 255 255 255
-0.100856 -0.296815 1.178 0 0 0
0.40956 -0.0398541 0.948 255 255 255
0.40231 0.0210704 0.914 255 255 255
0.369738 0.130088 0.84 255 255 255
0.268572 0.118065 0.862 255 255 255
0.0207383 0.321124 1.516 255 255 255
-0.0667902 0.532589 1.603 255 255 255
0.52735 -0.383999 1.342 255 255 255
-0.237001 0.541861 2.092 255 255 255
0.00268713 -0.221676 1.176 255 255 255
-1.02069 0.610868 2.143 0 0 0
-1.04097 -0.608881 2.312 255 255 255
-0.232178 -0.0187714 1.173 255 255 255
0.421622 -0.144267 1.139 255 255 255
0.337875 -0.399172 1.682 255 255 255
0.326741 -0.0130287 1.022 255 255 255
-0.131163 -0.0945014 1.267 255 255 255
-0.118663 -0.267876 1.203 0 0 0
0.527475 -0.126371 1.112 255 255 255
-0.0707512 0.536102 1.575 0 0 0
-0.994159 -0.287791 1.905 255 255 255
0.721575 -1.07108 2.967 255 255 255
0.333747 0.248768 1.018 255 255 255
0.373042 -0.368879 1.587 0 0 0
0.174329 0.0893504 0.928 255 255 255
0.241717 0.473771 1.607 255 255 255
0.124971 -0.00710614 1.139 255 255 255
-1.03022 0.502719 2.071 255 255 255
0.320306 0.0400117 0.977 255 255 255
-0.108897 0.0164676 1.104 255 255 255
-0.67515 0.612629 2.078 255 255 255
0.0906103 0.122174 0.892 255 255 255
-0.924298 0.508547 2.312 255 255 255
-1.03587 -0.496638 2.01 0 0 0
0.274158 -0.044983 1.07 255 255 255
0.385902 0.0706912 0.921 255 255 255
0.178859 -0.323666 1.229 255 255 255
-0.0243722 0.0861825 0.96 255 255 255
-1.01046 -0.36149 2.294 255 255 255
-0.912775 0.701495 1.923 255 255 255
0.436101 -0.021967 0.91 255 255 255
0.417867 0.103468 0.869 255 255 255
0.379674 0.119188 0.85 255 255 255
0.482877 0.335767 1.085 255 255 255
0.561064 -0.379138 1.247 0 0 0
-0.081958 -0.253583 1.182 255 255 255
0.134035 0.0127346 1.092 255 255 255
0.394007 -0.071209 1.046 255 255 255
-0.456502 0.473242 2.269 255 255 255
0.225394 0.106087 0.891 255 255 255
0.0324022 0.106191 0.93 255 255 255
0.128089 -0.0498176 1.185 255 255 255
0.49304 0.265452 1.116 255 255 255
-0.704053 0.57508 2.114 255 255 255
0.243725 0.516938 1.603 255 255 255
-0.489075 0.566319 2.107 255 255 255
-0.771239 0.674301 1.953 255 255 255
0.148705 0.142628 0.875 255 255 255
0.400892 -0.307881 1.48 255 255 255
0.377247 -0.15248 1.145 255 255 255
0.166366 0.144546 0.878 255 255 255
0.280861 -0.309331 1.535 255 255 255
0.162244 0.0938809 0.928 255 255 255
-0.289154 0.477618 2.204 255 255 255
0.0157715 0.300791 1.513 255 255 255
0.234128 0.0933352 0.908 255 255 255
-0.755481 0.691127 1.929 255 255 255
-0.903686 0.705545 1.917 255 255 255
0.0674831 -0.0879161 1.205 0 0 0
0.525732 -0.311829 1.535 0 0 0
-1.01991 0.392204 2.057 255 255 255
-0.951115 0.525148 2.286 255 255 255
0.113614 0.157584 0.879 255 255 255
-1.06425 -0.16154 2.695 255 255 255
-0.0947403 0.152731 0.901 255 255 255
-1.01067 0.457847 2.303 255 255 255
0.183972 -0.0567758 1.21 255 255 255
0.125628 0.132357 0.873 255 255 255
-0.422249 0.475331 2.244 255 255 255
0.377228 0.539538 1.616 255 255 255
-0.63392 0.642061 1.991 255 255 255
0.0963924 -0.0199222 1.13 255 255 255
-0.161251 0.0630405 1.015 255 255 255
-0.710275 0.663619 1.978 255 255 255
-0.815578 0.530444 2.261 255 255 255
-0.547016 0.656387 1.947 255 255 255
0.567549 -0.382754 1.239 255 255 255
0.110659 -0.149423 1.227 0 0 0
-0.137438 0.0891158 0.975 255 255 255
-0.932962 0.539705 2.269 255 255 255
0.390008 0.411485 1.128 0 0 0
-1.10687 -0.483314 2.78 0 0 0
0.640565 -0.312025 1.297 255 255 255
0.470932 -0.397917 1.375 255 255 255
-0.515235 0.517114 2.189 255 255 255
0.0374871 0.0739255 0.984 255 255 255
-0.796059 0.454075 2.402 255 255 255
0.505797 0.223447 1.162 255 255 255
-0.34294 0.497478 2.181 255 255 255
0.196351 0.0845457 0.925 255 255 255
0.430057 -0.380017 1.359 255 255 255
0.0852873 0.159557 0.882 255 255 255
0.118215 0.561354 1.532 255 255 255
0.117401 0.11556 0.897 255 255 255
-0.167668 -0.194684 1.48 255 255 255
-0.835238 0.0705117 2.857 255 255 255
-1.10967 -0.828323 2.626 255 255 255
-0.0276726 -0.253357 1.09 0 0 0
-0.235271 0.518316 2.107 255 255 255
0.0950109 -0.34831 1.158 0 0 0
0.197943 0.414583 1.571 255 255 255
-0.235734 0.0437385 1.068 255 255 255
0.27372 -0.133993 1.27 255 255 255
0.171694 0.0488868 1.03 255 255 255
-0.085573 0.049314 1.039 255 255 255
0.308959 0.548241 1.603 255 255 255
0.498435 0.373474 1.092 255 255 255
0.3689 0.319821 1.487 0 0 0
-1.01679 0.342102 2.078 255 255 255
-1.03591 -0.622901 1.985 0 0 0
0.213736 -0.029065 1.128 255 255 255
-0.720638 0.536636 2.196 255 255 255
0.0428034 0.430854 1.603 255 255 255
-1.00341 -0.258878 2.278 255 255 255
0.22779 0.156844 0.867 255 255 255
0.526162 -0.332747 1.551 0 0 0
-1.03914 -0.0285355 1.985 255 255 255
-0.0862458 -0.289002 1.162 0 0 0
0.213095 0.057324 0.974 255 255 255
-0.278547 0.683158 1.848 255 255 255
-1.02304 0.192151 2.03 255 255 255
-1.11799 -0.729341 2.719 0 0 0
0.317503 0.104402 0.889 255 255 255
0.270885 -0.127667 1.229 255 255 255
-1.04978 -0.758554 2.037 255 255 255
0.602627 -0.280152 1.249 0 0 0
0.00854913 0.580451 1.543 255 255 255
-0.152529 -0.210809 1.366 255 255 255
-0.749961 0.45146 2.43 255 255 255
0.0512323 -0.197535 1.192 0 0 0
0.0500733 -0.0420047 1.083 0 0 0
0.00741212 -0.0131817 1.034 255 255 255
0.0625548 0.526842 1.642 255 255 255
0.231092 -0.352752 1.4 0 0 0
-1.00317 0.639912 2.057 255 255 255
0.572761 -0.39172 1.575 0 0 0
0.182117 0.488361 1.612 255 255 255
0.0750805 -0.260748 1.114 0 0 0
0.198046 0.0937464 0.912 255 255 255
-1.02675 -0.10098 2.402 255 255 255
-0.6166 0.677469 1.917 255 255 255
0.0738547 -0.157588 1.213 0 0 0
0.409292 0.132347 0.837 255 255 255
0.461814 -0.397102 1.342 255 255 255
0.220295 -0.0801858 1.237 255 255 255
0.18254 -0.306569 1.283 255 255 255
-0.0519756 0.128697 0.897 255 255 255
0.326213 0.271759 1.005 255 255 255
0.442788 -0.494301 1.299 255 255 255
0.460645 0.288135 1.187 255 255 255
0.14515 -0.299638 1.152 255 255 255
0.336861 0.405999 1.07 255 255 255
-1.08767 -0.71346 2.743 255 255 255
0.0261193 -0.291567 1.114 0 0 0
0.410366 0.150951 0.842 255 255 255
0.494798 -0.161232 1.141 0 0 0
0.12464 -0.0855277 1.227 255 255 255
-0.793472 0.439596 2.43 255 255 255
-0.0497304 0.538267 1.559 255 255 255
-0.497559 0.583006 2.057 255 255 255
0.40374 0.110793 0.86 255 255 255
0.472494 -0.306725 1.463 255 255 255
0.515101 -0.175451 1.149 255 255 255
0.0359036 -0.247747 1.081 0 0 0
-0.64769 0.576985 2.121 255 255 255
-1.11848 -0.634787 2.731 255 255 255
-1.02579 0.120547 2.831 255 255 255
-0.195362 0.141238 0.912 255 255 255
0.226028 0.0723031 0.942 255 255 255
-1.32957 -1.01797 2.953 0 0 0
-1.02298 -0.109292 1.985 255 255 255
0.432232 0.0768268 0.905 255 255 255
-0.36927 0.598499 1.997 255 255 255
0.0135944 -0.368656 1.128 0 0 0
0.199863 0.46854 1.607 255 255 255
-0.931397 0.241785 2.743 255 255 255
0.446528 0.268081 1.201 0 0 0
0.304137 0.104285 0.888 255 255 255
0.478852 0.412297 1.096 255 255 255
-0.561175 0.427248 2.32 0 0 0
0.000729462 -0.234523 1.11 0 0 0
-0.926404 0.722141 1.887 255 255 255
0.368803 0.487177 1.591 255 255 255
-0.655748 0.570637 2.136 255 255 255
0.330047 0.407194 1.543 255 255 255
0.401286 0.5653 1.607 255 255 255
-1.01974 0.192151 2.03 255 255 255
0.542999 -0.374883 1.281 0 0 0
-1.01813 0.389494 2.32 255 255 255
-1.01092 -0.0264011 2.374 255 255 255
-0.0560563 0.305458 1.524 255 255 255
-1.04688 -0.0614726 2.244 255 255 255
0.529534 -0.37308 1.342 255 255 255
-1.11051 -0.781565 2.44 0 0 0
-0.109528 0.130883 0.902 255 255 255
-0.316597 0.57205 2.078 255 255 255
0.356686 0.398263 1.528 255 255 255
-1.04234 -0.734096 2.181 255 255 255
-1.0133 -0.395781 2.064 255 255 255
0.41175 0.580991 1.607 255 255 255
0.234753 0.0802895 0.928 255 255 255
0.194888 0.410978 1.567 255 255 255
-1.30744 -0.998796 2.925 0 0 0
0.0302392 0.474955 1.629 255 255 255
0.341553 0.0606769 0.952 255 255 255
0.27369 0.409305 1.551 255 255 255
-0.0788236 0.0331234 1.062 255 255 255
-1.01285 -0.167915 1.953 255 255 255
0.335678 -0.019816 1.029 255 255 255
-0.474687 0.675349 1.911 255 255 255
0.52142 -0.280238 1.189 255 255 255
0.310377 0.00833137 0.991 255 255 255
-1.02131 -0.00667283 2.236 255 255 255
0.201876 0.282057 1.505 0 0 0
0.281035 0.0641103 0.957 255 255 255
-0.351588 0.469998 2.236 255 255 255
0.232705 0.51825 1.599 255 255 255
0.230497 0.530821 1.516 0 0 0
-0.992048 0.309384 2.286 255 255 255
-1.11807 -0.450919 2.953 0 0 0
-0.244454 -0.0964523 1.322 0 0 0
-1.01145 0.231244 2.53 255 255 255
0.401403 0.313628 1.094 255 255 255
0.43542 -0.256486 1.435 255 255 255
-0.0297711 0.00209128 1.102 255 255 255
-0.46276 0.482819 2.228 255 255 255
-0.63429 0.651979 1.972 255 255 255
0.492502 -0.0646761 1.079 255 255 255
-0.00150157 0.551746 1.547 255 255 255
-1.08619 -0.389594 2.695 0 0 0
-0.111661 0.0718728 1 255 255 255
0.198334 -0.171009 1.333 0 0 0
-1.03291 0.61434 2.017 255 255 255
0.560131 -0.377185 1.254 0 0 0
0.151828 -0.278126 1.205 0 0 0
-0.0475421 0.130012 0.896 255 255 255
-0.967962 0.452185 2.392 255 255 255
0.0197466 0.0782493 0.978 255 255 255
-1.14729 -0.754895 2.684 0 0 0
0.0440164 0.0932104 0.952 255 255 255
0.0413081 0.586991 1.547 255 255 255
-1.01083 0.119242 2.278 255 255 255
0.393011 0.610542 1.616 255 255 255
0.462401 -0.250176 1.439 255 255 255
-0.170394 0.11321 0.938 255 255 255
0.06883 0.585473 1.543 255 255 255
0.522622 0.42377 1.098 255 255 255
0.395659 -0.497762 1.297 255 255 255
0.0211624 0.362935 1.547 255 255 255
-0.0429991 0.0540199 1.032 255 255 255
0.0463445 0.586991 1.547 255 255 255
-0.794827 0.556733 2.136 255 255 255
-1.01028 -0.218189 2.204 255 255 255
-1.09625 -0.688118 2.731 0 0 0
-1.02083 0.106673 2.173 255 255 255
0.1975 0.579939 1.509 255 255 255
0.361385 0.457082 1.559 255 255 255
0.270472 0.544114 1.505 0 0 0
0.157216 -0.320043 1.158 0 0 0
0.51656 0.409599 1.108 0 0 0
0.0823594 -0.109042 1.222 0 0 0
-0.431865 0.67915 1.887 255 255 255
0.592461 -0.221208 1.249 0 0 0
0.0282158 0.329392 1.52 255 255 255
0.518062 -0.0957381 1.135 255 255 255
0.392945 -0.495443 1.302 255 255 255
0.184306 0.0875563 0.925 255 255 255
-1.01545 0.0709548 2.54 255 255 255
-1.0333 0.271697 2.057 255 255 255
-0.360797 0.560753 2.099 255 255 255
-0.845312 0.698029 1.905 255 255 255
-0.0802853 0.538203 1.612 255 255 255
0.426526 0.440252 1.477 0 0 0
-0.0577238 0.508138 1.642 255 255 255
-1.00998 0.120119 2.099 255 255 255
-0.595901 0.570082 2.121 255 255 255
-0.0567117 0.0525941 1.037 255 255 255
-0.0138831 0.312898 1.524 255 255 255
-0.0700571 -0.141371 1.244 255 255 255
0.25914 -0.353082 1.429 0 0 0
-0.158325 -0.0345937 1.192 255 255 255
0.355302 -0.316978 1.612 255 255 255
-0.257692 0.0669323 1.024 255 255 255
0.0861879 0.578946 1.539 255 255 255
0.175444 0.000302291 1.118 255 255 255
0.0418421 0.393127 1.567 255 255 255
0.36726 -0.344254 1.642 0 0 0
0.27164 0.141984 0.854 255 255 255
-1.02536 -0.499786 2.261 255 255 255
-0.0332831 -0.0959006 1.232 0 0 0
0.537122 -0.400996 1.477 255 255 255
0.615913 0.265676 1.294 255 255 255
0.392701 -0.0254766 0.93 0 0 0
0.137066 -0.27021 1.196 0 0 0
0.410779 0.0468123 0.923 255 255 255
0.582296 0.250339 1.249 255 255 255
0.0836615 0.147739 0.88 255 255 255
0.373716 -0.00757521 0.963 0 0 0
0.392246 0.293864 1.055 0 0 0
0.409333 -0.00707963 0.9 255 255 255
-1.00681 0.103667 2.044 255 255 255
0.299535 -0.00138408 1.02 0 0 0
0.343506 -0.383889 1.724 0 0 0
0.422772 0.407796 1.108 255 255 255
-0.735922 0.656036 2.004 255 255 255
-0.919864 0.393757 2.44 255 255 255
0.164663 0.0355408 1.083 255 255 255
0.220734 0.1512 0.867 255 255 255
0.132582 0.142139 0.872 255 255 255
-1.01122 0.0483079 2.44 255 255 255
0.361445 0.52639 1.616 255 255 255
0.0995399 -0.28138 1.124 255 255 255
-1.03649 0.511073 2.024 255 255 255
-0.225995 0.0500734 1.055 255 255 255
0.0388826 -0.293906 1.116 0 0 0
-1.00708 0.220012 2.365 255 255 255
0.423843 0.475346 1.528 255 255 255
-1.03269 -0.0953891 2.269 255 255 255
0.324202 0.224447 0.984 255 255 255
-1.03548 -0.514482 1.978 0 0 0
-1.02495 -0.406931 2.236 255 255 255
-1.06204 0.612207 2.01 0 0 0
-1.01755 -0.197383 2.212 255 255 255
0.339042 0.0648442 0.945 255 255 255
-1.10967 -0.819776 2.626 255 255 255
-1.07449 -0.649332 2.755 255 255 255
0.235897 0.496069 1.603 255 255 255
-0.978938 0.0491953 1.87 255 255 255
0.539394 0.314579 1.085 255 255 255
0.31942 0.0518133 0.96 255 255 255
-1.12586 -0.345025 2.911 0 0 0
0.215264 0.34511 1.513 255 255 255
0.255428 -0.16546 1.396 0 0 0
0.218589 0.57236 1.502 255 255 255
0.168992 0.0432061 1.055 255 255 255
0.239687 0.0238368 1.034 255 255 255
0.0975364 -0.291835 1.122 255 255 255
-0.683081 0.508367 2.261 255 255 255
-1.01002 0.62697 2.092 0 0 0
-1.01767 0.415417 2.236 255 255 255
0.301835 0.146679 0.849 255 255 255
-0.247439 -0.0334209 1.22 255 255 255
0.577901 -0.440744 1.21 255 255 255
0.418218 0.345231 1.171 0 0 0
-1.0134 -0.245367 2.099 255 255 255
0.600542 -0.432152 1.208 255 255 255
-0.718494 0.651459 2.01 255 255 255
-0.232703 -0.0684457 1.281 255 255 255
-0.133611 0.132937 0.906 255 255 255
-0.212367 0.612614 1.959 255 255 255
-0.354511 0.70281 1.821 255 255 255
-1.02587 -0.124442 2.329 255 255 255
-1.01674 -0.326349 2.071 255 255 255
0.230557 0.109446 0.883 255 255 255
-0.0733922 -0.160056 1.232 255 255 255
-0.1662 0.611227 1.905 255 255 255
0.180809 -0.228792 1.316 255 255 255
0.157932 0.119672 0.895 255 255 255
0.380395 -0.355068 1.466 255 255 255
0.395064 -0.495443 1.302 255 255 255
-1.02161 0.181542 2.269 255 255 255
0.0584948 0.0498266 1.015 255 255 255
0.286147 0.124788 0.86 255 255 255
0.523574 0.410222 1.1 255 255 255
-0.208484 -0.0863187 1.299 255 255 255
0.427845 -0.382229 1.359 255 255 255
-1.04217 0.403512 1.997 255 255 255
-1.02027 0.471163 2.051 255 255 255
-0.239458 -0.00157677 1.162 255 255 255
-0.189009 0.133524 0.91 255 255 255
0.346576 0.0489932 0.966 255 255 255
0.0530388 -0.208647 1.189 0 0 0
0.364883 0.14841 0.851 255 255 255
-0.719106 0.666999 1.941 255 255 255
-0.234387 -0.00726835 1.165 255 255 255
0.072452 0.00378942 1.075 255 255 255
0.531294 -0.352429 1.33 255 255 255
-0.106874 -0.0594731 1.225 255 255 255
0.455391 0.420696 1.104 0 0 0
0.0742759 -0.050567 1.158 0 0 0
-0.0761858 -0.324752 1.182 0 0 0
-0.756272 0.671233 1.972 255 255 255
-1.07002 -0.464969 2.151 255 255 255
0.557936 -1.04742 2.996 255 255 255
0.469283 0.359357 1.12 255 255 255
0.0195277 0.124041 0.895 255 255 255
0.310377 0.0147821 0.991 255 255 255
-0.152028 0.0200608 1.104 255 255 255
0.313249 0.00512661 0.995 255 255 255
-0.0695469 0.0784093 0.98 255 255 255
0.238039 -0.0556027 1.185 255 255 255
0.365287 0.349934 1.502 255 255 255
-0.700926 0.436159 2.411 0 0 0
0.282256 -0.107015 1.081 255 255 255
-0.105513 0.477287 1.637 255 255 255
0.0455893 0.0152445 1.022 255 255 255
0.424253 0.555887 1.595 255 255 255
-0.0130675 -0.0927525 1.217 0 0 0
0.231175 0.0750489 0.938 255 255 255
-0.0705685 0.572761 1.516 255 255 255
0.54744 -0.273955 1.466 255 255 255
0.0699006 0.400777 1.567 255 255 255
-0.739254 0.666838 1.978 255 255 255
0.0305116 0.0867212 0.966 255 255 255
-0.999568 0.0608233 2.312 255 255 255
0.182628 0.134269 0.867 255 255 255
0.50571 -0.120072 1.104 255 255 255
0.092612 0.455465 1.607 255 255 255
0.218634 -0.0863642 1.239 255 255 255
0.151615 -0.289829 1.173 0 0 0
0.37965 -0.380551 1.445 255 255 255
-0.93857 0.655021 1.991 255 255 255
0.389096 0.37121 1.509 255 255 255
-0.7529 0.533579 2.228 255 255 255
0.167124 0.127981 0.882 255 255 255
-0.0865714 0.363653 1.583 255 255 255
-0.122522 0.0933943 0.97 255 255 255
0.390471 -0.389043 1.416 255 255 255
0.297664 -0.0316629 0.981 255 255 255
0.361832 -0.218902 1.449 0 0 0
0.44489 0.384979 1.176 0 0 0
0.530425 -0.400919 1.291 255 255 255
0.606469 -0.140452 1.185 255 255 255
-0.0692124 -0.159667 1.229 255 255 255
0.076673 0.138028 0.882 255 255 255
0.190374 0.386589 1.551 255 255 255
-0.0477981 0.390999 1.579 255 255 255
-1.0065 0.103538 1.978 255 255 255
0.506626 0.412459 1.106 0 0 0
-0.869598 0.296591 2.561 255 255 255
0.399968 -0.411886 1.362 0 0 0
-1.0469 -0.751815 2.064 0 0 0
0.534269 -0.352178 1.354 255 255 255
0.111783 -0.342064 1.156 0 0 0
0.374985 0.276356 1.022 255 255 255
0.178328 0.106564 0.895 255 255 255
-0.245949 -0.0251245 1.203 255 255 255
0.223311 0.0223684 1.044 255 255 255
0.459782 0.336225 1.128 255 255 255
0.121318 0.122378 0.883 255 255 255
0.0597799 0.103386 0.932 255 255 255
-0.560682 0.519076 2.228 255 255 255
-1.01395 0.49735 2.212 255 255 255
0.337954 -0.139696 1.132 255 255 255
-0.055762 0.279184 1.516 255 255 255
0.415807 -0.460812 1.294 255 255 255
0.322493 0.209486 0.974 255 255 255
0.206533 -0.0803154 1.239 255 255 255
0.475963 0.0184124 0.93 255 255 255
-1.00696 -0.312137 2.261 255 255 255
-1.02432 -0.196076 2.158 255 255 255
-0.095944 0.0743011 0.989 255 255 255
-1.05479 0.0903876 2.898 255 255 255
0.344015 0.308006 1.039 255 255 255
-0.719558 0.588079 2.099 255 255 255
0.103348 -0.254163 1.167 0 0 0
-0.499364 0.566319 2.107 255 255 255
-0.179373 0.608861 1.947 255 255 255
-1.00967 -0.164737 1.953 255 255 255
-0.108895 -0.288206 1.182 0 0 0
-0.126945 -0.17811 1.354 0 0 0
0.414271 -0.0956574 1.072 0 0 0
0.550143 0.258308 1.201 0 0 0
-0.0293197 -0.126178 1.234 255 255 255
0.5226 -0.368387 1.563 0 0 0
0.424881 0.0512072 0.921 255 255 255
-0.102084 0.00214062 1.128 255 255 255
0.343423 0.027488 0.984 255 255 255
-1.04615 -0.576852 2.204 0 0 0
0.0525541 -0.260577 1.098 0 0 0
0.299193 -0.364449 1.579 255 255 255
-0.0797906 -0.0843916 1.27 255 255 255
0.034287 0.12034 0.9 255 255 255
0.0262748 0.0755268 0.984 255 255 255
0.37599 -0.480611 1.302 255 255 255
0.0443826 -0.12444 1.217 255 255 255
0.347877 0.0943952 0.904 255 255 255
0.667976 -0.309434 1.322 255 255 255
-1.01052 0.0892313 2.269 255 255 255
0.196206 0.511875 1.62 255 255 255
0.380099 -0.455402 1.429 0 0 0
-0.993141 0.41705 2.064 255 255 255
0.123707 -0.385651 1.18 255 255 255
0.144011 -0.126689 1.239 0 0 0
-0.502727 0.707652 1.865 255 255 255
0.513008 -0.10838 1.132 255 255 255
0.00104819 0.537718 1.595 255 255 255
-1.04385 -0.628414 2.078 255 255 255
0.412392 0.134749 0.835 255 255 255
0.36234 -0.334369 1.62 255 255 255
0.165118 0.418202 1.575 255 255 255
0.10823 0.0619516 0.972 255 255 255
-0.0448243 0.124734 0.9 255 255 255
0.253934 -0.271754 1.48 255 255 255
0.463143 -0.128411 1.114 255 255 255
0.187648 0.111008 0.884 255 255 255
0.285482 0.125894 0.858 255 255 255
0.324272 0.372931 1.516 255 255 255
0.458279 -0.0873404 1.077 255 255 255
0.302454 0.0433683 0.981 255 255 255
0.309075 0.00349684 0.992 255 255 255
-0.272346 -0.0563747 1.291 0 0 0
0.463256 0.251943 1.257 255 255 255
0.513031 -0.238326 1.128 255 255 255
-1.04552 0.37638 1.991 255 255 255
0.16862 -0.280603 1.242 0 0 0
-0.178716 0.1586 0.918 255 255 255
0.397516 0.399277 1.513 255 255 255
0.181166 0.0176356 1.066 255 255 255
0.498616 -0.229126 1.137 255 255 255
0.621564 0.274735 1.297 255 255 255
0.329812 0.0648442 0.945 255 255 255
0.253351 -0.0467981 1.158 255 255 255
0.0139319 -0.227312 1.156 255 255 255
0.463533 -0.0633574 1.057 255 255 255
0.275057 0.310459 1.477 255 255 255
0.241254 -0.0700345 1.201 255 255 255
0.343206 0.126287 0.842 255 255 255
-1.05747 -0.656552 2.805 255 255 255
-1.03438 0.542469 2.121 255 255 255
-1.07097 -0.420584 2.615 0 0 0
0.300707 0.0992812 0.895 255 255 255
-0.981395 0.550565 2.253 255 255 255
-1.05685 -0.815157 2.189 255 255 255
0.0192226 0.535123 1.595 255 255 255
0.230621 -0.143172 1.357 255 255 255
-0.763985 0.709557 1.911 255 255 255
0.197857 0.0830405 0.925 255 255 255
-0.980977 0.539705 2.269 255 255 255
0.152084 -0.0110315 1.162 255 255 255
0.418292 0.0468123 0.923 255 255 255
-0.0814499 0.145238 0.9 255 255 255
-1.01745 0.147648 2.204 255 255 255
0.316971 0.06505 0.948 255 255 255
0.581419 0.3041 1.189 255 255 255
0.237164 -0.37107 1.409 0 0 0
0.181474 0.108743 0.889 255 255 255
-0.100209 0.376792 1.595 255 255 255
-0.0428718 0.111158 0.921 255 255 255
0.0910211 -0.195767 1.205 255 255 255
-0.280687 0.0394387 1.145 0 0 0
-0.546444 0.482635 2.244 255 255 255
0.530729 -0.309331 1.535 0 0 0
-1.04568 0.612207 2.01 255 255 255
-0.0849091 -0.154752 1.254 255 255 255
0.126759 0.0039551 1.122 255 255 255
0.19124 0.524616 1.579 255 255 255
-0.0947784 0.391381 1.591 255 255 255
-0.154103 0.0182973 1.106 255 255 255
-0.00909045 -0.0945773 1.215 0 0 0
0.0551774 0.286018 1.513 255 255 255
0.0145224 -0.166353 1.205 0 0 0
-0.429335 0.584644 2.051 255 255 255
0.347652 0.00499265 0.969 255 255 255
-0.992041 0.49726 2.312 0 0 0
-0.20555 0.0656483 1.03 255 255 255
0.450227 0.0380869 0.93 255 255 255
-0.480817 0.583006 2.057 255 255 255
0.112341 0.591587 1.52 255 255 255
-1.01014 0.45625 2.044 255 255 255
-0.11083 -0.046659 1.203 255 255 255
0.222452 -0.305562 1.403 255 255 255
0.382227 0.010892 0.934 255 255 255
0.407881 -0.440806 1.316 255 255 255
-0.499151 0.518773 2.181 255 255 255
0.522497 -0.411606 1.247 255 255 255
-1.02069 -0.297734 2.107 255 255 255
0.306336 0.105492 0.886 255 255 255
0.192209 0.439466 1.587 255 255 255
0.243907 -0.144094 1.345 255 255 255
-0.00804383 0.146806 0.883 255 255 255
-1.11045 -0.797765 2.638 0 0 0
-0.0581188 0.0039833 1.13 255 255 255
0.27671 0.297633 1.473 0 0 0
0.525181 -0.293767 1.359 0 0 0
0.181166 0.0159008 1.066 255 255 255
0.0172739 0.00857517 1.02 255 255 255
-1.04322 -0.0943381 2.244 255 255 255
-0.113457 0.0354095 1.079 255 255 255
0.418066 0.451474 1.16 255 255 255
0.442384 -0.0999788 1.081 255 255 255
0.162515 -0.302157 1.169 0 0 0
-0.965034 0.478052 2.347 255 255 255
-0.994748 0.25601 2.572 255 255 255
0.563454 0.359113 1.108 0 0 0
-0.914529 0.572012 2.181 255 255 255
0.35456 -0.401822 1.498 255 255 255
0.37562 0.143069 0.844 255 255 255
0.0910302 0.129416 0.882 255 255 255
-0.253984 0.16194 0.92 0 0 0
0.483525 -0.115749 1.132 255 255 255
-0.221171 -0.0820909 1.299 255 255 255
-0.987956 0.332917 2.347 255 255 255
-1.00328 -0.192597 1.978 0 0 0
-0.973442 0.268463 2.286 255 255 255
-1.028 0.0600881 2.151 255 255 255
0.440909 0.0879911 0.884 255 255 255
-1.03498 -0.0559914 2.173 255 255 255
0.119681 0.384065 1.551 255 255 255
0.369048 0.0588171 0.947 255 255 255
0.543706 -0.392925 1.456 255 255 255
-0.188032 0.0921944 0.974 255 255 255
-0.453749 0.576864 2.071 255 255 255
-0.0434139 0.434544 1.607 255 255 255
-0.266528 0.0772921 1.007 255 255 255
-0.256507 -0.959659 2.996 255 255 255
0.451898 -0.0160259 0.909 255 255 255
-1.06154 -0.670414 2.768 255 255 255
-0.0282127 0.101869 0.932 255 255 255
-0.993113 0.416497 2.078 255 255 255
0.473872 -0.0413531 0.947 255 255 255
-1.052 0.156059 1.991 255 255 255
0.0255757 0.0334733 1.02 255 255 255
-0.939556 0.312956 2.593 255 255 255
-0.752341 0.68171 1.929 255 255 255
-1.01432 0.000611342 2.261 255 255 255
0.273582 -0.0539658 1.01 255 255 255
0.0630512 0.0674517 0.983 255 255 255
0.155331 -0.301198 1.158 0 0 0
-1.02878 0.0526636 2.66 255 255 255
0.540913 -0.374883 1.281 0 0 0
0.0126652 -0.104463 1.215 255 255 255
0.366016 -0.371861 1.505 0 0 0
0.361304 0.28429 1.466 0 0 0
0.0451382 0.148243 0.883 255 255 255
0.525453 -0.442518 1.354 0 0 0
0.438544 0.0714845 0.912 255 255 255
-0.0145663 -0.225887 1.178 255 255 255
0.24135 0.142982 0.86 255 255 255
-1.02937 0.382443 2.278 255 255 255
0.361722 -0.0290551 0.948 255 255 255
-0.657906 0.561028 2.166 255 255 255
0.09007 -0.309541 1.12 0 0 0
0.178158 0.099355 0.909 255 255 255
0.0085734 -0.190413 1.196 0 0 0
-0.12103 -0.0555767 1.227 255 255 255
-1.00315 -0.264402 2.01 255 255 255
-0.264729 0.00600251 1.165 0 0 0
-1.03433 0.267223 2.128 255 255 255
0.377988 -0.002847 0.954 0 0 0
0.274741 0.137976 0.855 255 255 255
0.175931 0.0554328 0.997 255 255 255
-0.107242 -0.294722 1.185 0 0 0
0.112013 -0.180336 1.22 0 0 0
0.384167 0.582798 1.612 255 255 255
-0.102806 0.561079 1.595 255 255 255
0.360573 0.374656 1.513 255 255 255
-0.192205 -0.935764 2.982 255 255 255
-0.550811 0.566319 2.107 255 255 255
-0.86067 0.272296 2.649 255 255 255
-1.03242 0.179278 1.997 255 255 255
-0.087504 0.136754 0.902 255 255 255
0.383826 -0.442155 1.47 0 0 0
0.0865264 0.130554 0.88 255 255 255
-0.983984 0.100704 2.365 255 255 255
0.460951 -0.37028 1.406 255 255 255
-0.644115 0.439859 2.347 0 0 0
-1.04708 -0.734143 2.071 0 0 0
0.0424667 0.0947596 0.952 255 255 255
0.0621112 0.323047 1.502 255 255 255
0.632995 -1.06193 2.982 255 255 255
-1.00705 0.11546 2.519 255 255 255
0.464246 0.0639234 0.91 255 255 255
0.200903 -0.00685034 1.098 255 255 255
-0.187289 0.0199881 1.1 255 255 255
0.41254 -0.265134 1.47 255 255 255
0.541066 -0.378753 1.412 255 255 255
-0.439937 0.430563 2.338 0 0 0
-0.229519 0.120542 0.924 255 255 255
0.110839 -0.123667 1.229 255 255 255
0.204954 -0.341843 1.348 255 255 255
-0.187476 0.0974217 0.963 255 255 255
0.458967 -0.124297 1.126 255 255 255
0.432797 0.084338 0.891 255 255 255
-0.987441 0.665968 1.985 255 255 255
0.0782833 -0.297209 1.108 0 0 0
-0.921147 0.605158 2.099 255 255 255
-0.47084 0.461594 2.303 0 0 0
0.448624 -0.296439 1.425 255 255 255
0.0989829 0.316345 1.505 255 255 255
0.120219 0.13266 0.875 255 255 255
-0.15954 -0.0645998 1.247 255 255 255
-0.697805 0.723526 1.859 255 255 255
0.280177 0.421564 1.559 255 255 255
-0.0166968 0.544477 1.555 255 255 255
0.0284874 -0.144007 1.215 0 0 0
0.225562 0.530821 1.516 0 0 0
0.603931 -0.436237 1.203 255 255 255
0.426896 0.0982614 0.873 255 255 255
0.0863377 -0.091145 1.222 0 0 0
0.306789 0.323107 1.491 255 255 255
-0.753047 0.445376 2.44 255 255 255
0.206582 -0.0449912 1.16 255 255 255
0.496576 0.2625 1.176 255 255 255
0.230109 0.0206695 1.044 255 255 255
-0.328589 0.462572 2.253 255 255 255
-0.471407 0.657684 1.923 255 255 255
0.603011 0.295366 1.225 255 255 255
0.514695 0.424289 1.104 255 255 255
-1.01291 -0.183241 1.947 255 255 255
0.130542 0.11556 0.897 255 255 255
-1.02539 0.0566166 2.294 255 255 255
-0.00101043 0.0307744 1.041 0 0 0
-0.666133 0.613936 2.071 255 255 255
-1.00359 -0.172232 1.966 255 255 255
0.334292 0.485952 1.587 255 255 255
0.334047 -0.0580466 1.024 255 255 255
-0.0546653 0.342037 1.555 255 255 255
-0.123689 -0.196765 1.275 255 255 255
-0.0582218 -0.0263168 1.169 255 255 255
0.362135 0.0960453 0.892 255 255 255
0.11614 0.10983 0.91 255 255 255
-0.991324 0.382119 2.392 255 255 255
0.166193 0.0586777 0.997 255 255 255
-0.205198 -0.0909647 1.305 255 255 255
0.351094 0.618104 1.629 255 255 255
0.306169 0.0696782 0.948 255 255 255
0.35625 0.105485 0.874 255 255 255
0.32194 0.14287 0.851 255 255 255
-0.820729 0.543783 2.196 255 255 255
-0.189424 0.141238 0.912 255 255 255
0.418553 0.626499 1.603 255 255 255
0.212012 -0.00865288 1.1 255 255 255
0.348388 0.220759 0.989 255 255 255
-1.00717 0.238245 2.561 255 255 255
0.646456 -0.242743 1.322 0 0 0
0.0515791 0.537242 1.633 255 255 255
-0.581854 0.610566 2.071 255 255 255
-1.05642 -0.0885336 2.743 255 255 255
0.0295859 -0.284587 1.108 0 0 0
0.069446 0.325491 1.502 255 255 255
-1.01049 0.214105 2.151 255 255 255
-1.03783 -0.572386 2.121 255 255 255
0.179985 -0.12329 1.31 255 255 255
0.42741 0.40706 1.106 255 255 255
-0.00117932 -0.165757 1.215 255 255 255
-0.136708 0.119425 0.927 255 255 255
0.36369 -0.23817 1.466 0 0 0
-1.12823 -0.961628 2.857 255 255 255
0.588408 -0.390616 1.232 255 255 255
0.167027 0.0573413 1.002 255 255 255
-0.0633541 -0.0463099 1.194 255 255 255
-0.0555677 -0.128498 1.237 255 255 255
0.364671 0.406946 1.096 0 0 0
0.423457 0.0824435 0.902 255 255 255
0.369469 0.297027 1.47 0 0 0
0.436799 0.382448 1.18 255 255 255
0.493113 0.386159 1.108 0 0 0
0.244551 -0.101052 1.198 255 255 255
0.252334 -0.0488507 1.162 255 255 255
0.0199687 -0.0319211 0.989 255 255 255
0.486002 -0.387558 1.419 255 255 255
0.62694 -0.406338 1.225 255 255 255
0.392284 -0.0893229 1.124 255 255 255
0.414579 -0.276064 1.452 255 255 255
0.524635 -0.395556 1.308 0 0 0
0.522443 -0.219866 1.381 0 0 0
0.29829 0.273663 1.473 0 0 0
-1.01131 0.120556 2.54 255 255 255
0.0238252 -0.216669 1.18 255 255 255
0.270249 0.151712 0.854 255 255 255
-0.0152587 -0.122162 1.234 255 255 255
-0.0231237 -0.0973492 1.225 0 0 0
0.388079 -0.4246 1.459 255 255 255
-1.04527 -0.194224 2.604 255 255 255
0.173915 -0.105969 1.281 255 255 255
0.422145 0.458369 1.513 255 255 255
0.385454 0.0268455 0.961 255 255 255
-0.163067 -0.209752 1.419 255 255 255
0.483077 -0.372366 1.459 0 0 0
-0.0987016 0.345557 1.571 255 255 255
0.270069 -0.371006 1.463 0 0 0
0.307262 0.0802895 0.928 255 255 255
-0.0722946 0.0163185 1.094 255 255 255
-0.431663 0.480914 2.236 255 255 255
-0.519294 0.69129 1.87 255 255 255
-1.0393 0.408188 2.004 255 255 255
-0.263253 0.120713 0.937 255 255 255
0.302915 -0.989143 2.982 0 0 0
0.066183 -0.0103195 1.087 255 255 255
0.554254 -0.36237 1.559 0 0 0
0.0207735 0.15163 0.886 255 255 255
-0.994352 0.277312 2.615 255 255 255
0.349861 0.0691637 0.941 255 255 255
0.295251 -0.00502665 1.09 255 255 255
0.573101 -0.410325 1.225 255 255 255
0.125859 -0.106527 1.239 0 0 0
-1.03498 0.354206 2.173 255 255 255
0.388653 -0.416231 1.369 255 255 255
0.663358 -0.209582 1.33 255 255 255
-0.197732 0.100956 0.952 255 255 255
-0.244634 0.121325 0.93 255 255 255
0.569276 0.241308 1.234 255 255 255
0.100736 0.14328 0.879 255 255 255
-1.11403 -0.599233 2.731 0 0 0
-1.04049 -0.607341 2.278 255 255 255
-0.0982932 0.548205 1.65 255 255 255
-1.04234 -0.659562 2.181 0 0 0
0.00639421 0.129432 0.892 255 255 255
0.374522 0.420696 1.104 255 255 255
0.0165473 -0.260061 1.081 255 255 255
-1.062 -0.475742 2.121 255 255 255
-0.114438 0.158001 0.906 255 255 255
-0.155367 -0.206419 1.412 255 255 255
-0.00660337 -0.357642 1.128 0 0 0
0.410339 -0.292621 1.429 255 255 255
-0.223054 0.625937 1.941 255 255 255
0.020605 -0.230911 1.11 255 255 255
-1.08662 -0.360493 2.707 0 0 0
0.521261 -0.0928156 1.122 255 255 255
0.28335 -0.115213 1.092 255 255 255
-1.04191 -0.0348726 1.978 255 255 255
-0.878845 0.278479 2.626 255 255 255
-0.89145 0.279751 2.638 255 255 255
-0.222018 0.645328 1.905 255 255 255
0.571436 -0.437889 1.213 255 255 255
-1.01003 -0.206408 2.085 255 255 255
-0.9357 0.570548 2.189 255 255 255
-0.611962 0.690551 1.893 255 255 255
0.36832 -0.231807 1.456 0 0 0
0.0466454 -0.32093 1.128 255 255 255
-1.04058 -0.623745 2.085 255 255 255
-0.103775 -0.0816767 1.26 0 0 0
0.266814 -0.116873 1.143 255 255 255
-0.206249 0.492626 2.057 255 255 255
0.371228 -0.364942 1.477 0 0 0
-0.135115 0.0253122 1.098 255 255 255
-0.0821779 0.529409 1.65 255 255 255
-0.142015 -0.203089 1.33 255 255 255
0.149553 0.075482 0.963 255 255 255
-0.958187 0.237321 2.743 255 255 255
0.315942 0.540826 1.612 255 255 255
0.352909 0.129933 0.839 255 255 255
-0.0507013 0.0599136 1.018 255 255 255
0.273359 0.583899 1.494 255 255 255
0.511411 -0.392177 1.419 255 255 255
0.17203 -0.0339262 1.169 255 255 255
-0.890396 0.615405 2.099 255 255 255
-0.200315 0.666033 1.876 255 255 255
-0.00105993 -0.271592 1.092 255 255 255
0.423265 0.141543 0.835 255 255 255
0.544484 -0.40428 1.237 255 255 255
0.401371 0.119468 0.852 255 255 255
0.369447 0.0157496 0.952 255 255 255
0.0390366 0.101644 0.944 255 255 255
0.410422 0.459924 1.543 255 255 255
0.295985 -0.0320978 1.106 255 255 255
-0.0703387 -0.109419 1.249 0 0 0
-1.01693 0.314294 2.051 255 255 255
-0.0190301 0.338518 1.539 255 255 255
-1.03567 0.556252 1.997 255 255 255
-0.000974515 0.0639912 1.004 255 255 255
-1.03464 0.51671 2.143 255 255 255
0.146027 -0.179112 1.239 0 0 0
0.667024 -0.259947 1.333 0 0 0
0.209156 0.103766 0.896 255 255 255
0.241986 -0.262027 1.466 0 0 0
0.434076 0.411851 1.47 0 0 0
0.350178 0.127202 0.839 255 255 255
0.513308 -0.100308 1.145 255 255 255
0.23516 0.0907781 0.912 255 255 255
0.337242 0.210776 0.98 255 255 255
-1.0697 -0.511921 2.561 0 0 0
-0.119217 -0.0383764 1.189 0 0 0
0.335052 -0.392071 1.498 255 255 255
0.591589 -0.40932 1.222 255 255 255
0.385891 -0.152214 1.143 255 255 255
-0.812308 0.649955 2.057 255 255 255
-1.04819 -0.675933 2.121 255 255 255
-1.04802 -0.683927 2.768 255 255 255
-0.126553 -0.0663619 1.242 0 0 0
-0.701811 0.62987 2.057 255 255 255
0.0203322 -0.00792132 1.007 255 255 255
-0.534653 0.536519 2.181 255 255 255
-1.00336 0.096682 2.037 255 255 255
-0.97253 0.284629 2.684 0 0 0
-0.121407 0.000307428 1.137 255 255 255
0.402577 -0.0793213 1.112 255 255 255
-0.858297 0.580436 2.121 255 255 255
-0.174887 -0.0761248 1.27 255 255 255
-1.03709 0.57205 2.078 255 255 255
0.17107 -0.174024 1.291 0 0 0
0.105441 0.0721975 0.961 255 255 255
0.286301 0.297633 1.473 0 0 0
0.081535 0.540314 1.595 255 255 255
-0.115083 0.117407 0.923 255 255 255
-0.566908 0.595722 2.078 255 255 255
0.40429 0.412945 1.132 255 255 255
0.513941 -0.227716 1.13 255 255 255
0.315942 0.543449 1.612 255 255 255
-0.0919657 -0.0383118 1.187 255 255 255
-0.43781 0.424581 2.347 0 0 0
0.408024 0.146491 0.84 255 255 255
0.0771388 0.27544 1.509 255 255 255
0.434212 -0.460482 1.305 255 255 255
-0.0584387 -0.370775 1.213 0 0 0
0.068213 0.131148 0.884 255 255 255
0.405739 -0.194527 1.316 0 0 0
0.0732683 0.123764 0.893 255 255 255
-0.0547735 0.137149 0.895 255 255 255
0.520763 -0.266141 1.145 255 255 255
-0.0746171 0.0146445 1.102 255 255 255
0.0815995 0.544193 1.547 255 255 255
0.167604 0.134391 0.877 255 255 255
-0.0997068 0.361989 1.587 255 255 255
0.40839 0.0422146 0.921 255 255 255
-0.356298 0.703448 1.815 255 255 255
-0.508745 0.687403 1.876 255 255 255
-0.00703071 -0.197072 1.201 255 255 255
0.249328 0.0470832 0.992 255 255 255
0.376374 0.356139 1.208 0 0 0
0.399571 0.306932 1.449 255 255 255
0.39439 -0.0316659 0.934 255 255 255
0.390092 0.0426729 0.931 255 255 255
0.503038 0.219287 1.16 255 255 255
0.321987 0.539538 1.616 255 255 255
-1.02824 -0.0537159 2.572 255 255 255
-1.05382 0.0937581 2.857 255 255 255
-0.161628 -0.014788 1.16 255 255 255
-0.383004 0.639746 1.935 255 255 255
0.437756 -0.247145 1.435 255 255 255
0.0863558 -0.00148721 1.096 255 255 255
-0.101169 0.0659518 1.009 255 255 255
0.422769 0.0757704 0.91 255 255 255
0.338964 0.10085 0.896 255 255 255
-1.01401 0.571602 2.166 0 0 0
-0.0391088 0.528126 1.646 255 255 255
-0.753939 0.642521 2.044 255 255 255
0.311416 0.117474 0.868 255 255 255
0.550214 -0.31967 1.513 255 255 255
-0.0659569 0.386837 1.583 255 255 255
-0.21458 0.148143 0.918 255 255 255
0.0768294 -0.139667 1.229 0 0 0
0.466286 0.0374316 0.914 255 255 255
0.457121 0.385906 1.173 0 0 0
-0.195024 -0.0933024 1.308 255 255 255
0.214485 0.450595 1.599 255 255 255
0.232065 0.0998359 0.9 255 255 255
-0.0637416 0.0281492 1.07 255 255 255
-0.303633 0.424706 2.286 0 0 0
-1.01579 -0.0425677 2.66 255 255 255
-0.00902767 0.0663879 0.991 255 255 255
-0.0667902 0.535198 1.603 0 0 0
0.373069 -0.356987 1.494 0 0 0
0.508476 0.25775 1.122 0 0 0
0.43746 -0.0722141 1.036 255 255 255
-0.498902 0.444065 2.329 0 0 0
0.234948 -0.287879 1.452 255 255 255
-0.798778 0.613518 2.128 255 255 255
0.252181 0.512998 1.607 255 255 255
0.408471 -0.409289 1.339 255 255 255
0.180658 0.153118 0.878 255 255 255
-1.12628 -0.739338 2.707 0 0 0
0.510033 -0.118984 1.094 255 255 255
-0.0604139 -0.0853691 1.254 255 255 255
-0.497637 0.624906 2.03 255 255 255
0.347317 -0.39063 1.729 0 0 0
0.194936 0.106087 0.891 255 255 255
-0.113708 0.591271 1.532 255 255 255
-1.07681 -0.716772 2.383 255 255 255
0.645279 -0.26681 1.324 0 0 0
0.206084 0.0763304 0.935 255 255 255
0.435185 -0.288264 1.419 255 255 255
0.186116 0.521067 1.624 255 255 255
-0.122466 0.593852 1.65 255 255 255
-0.791429 0.538591 2.204 255 255 255
-1.0332 -0.0325979 2.037 255 255 255
0.294436 0.542909 1.595 255 255 255
0.161564 0.129563 0.883 255 255 255
0.453398 0.33277 1.135 255 255 255
-1.01376 -0.242412 2.196 255 255 255
0.547221 0.378946 1.108 255 255 255
0.382353 0.0786456 0.909 255 255 255
-0.743695 0.526455 2.244 255 255 255
-0.0791623 -0.137038 1.26 255 255 255
0.377743 -0.342146 1.607 0 0 0
-0.150321 0.0930092 0.966 255 255 255
-1.03619 0.522435 2.017 255 255 255
0.111517 -0.368092 1.173 0 0 0
0.424628 0.0180957 0.914 255 255 255
0.0883269 -0.105065 1.222 0 0 0
0.02433 -0.160471 1.205 255 255 255
0.250016 -0.0821523 1.126 255 255 255
-0.708976 0.612629 2.078 255 255 255
0.21997 0.135211 0.864 255 255 255
0.265674 -0.372943 1.452 0 0 0
0.344277 0.263249 1.01 255 255 255
0.300198 0.538203 1.612 255 255 255
-0.249135 -0.0987528 1.324 0 0 0
0.332027 0.143038 0.852 255 255 255
0.059393 -0.314864 1.126 255 255 255
0.475077 0.409599 1.108 255 255 255
0.501232 -0.266013 1.169 255 255 255
-0.153148 0.0959541 0.964 255 255 255
0.124932 0.00212924 1.122 255 255 255
0.402861 0.3968 1.128 255 255 255
-1.10535 -0.783035 2.42 0 0 0
-1.03949 -0.176832 2.479 255 255 255
-0.139155 0.335262 1.595 255 255 255
0.00431971 -0.332067 1.104 0 0 0
0.348413 0.143747 0.848 255 255 255
-0.774495 0.506567 2.303 255 255 255
0.381506 0.119328 0.851 255 255 255
-0.301439 0.492179 2.189 255 255 255
-0.992531 0.566377 2.173 0 0 0
0.215822 0.0587881 0.972 255 255 255
-0.21507 0.0786957 1.004 255 255 255
0.322716 -0.331737 1.633 255 255 255
-0.762553 0.599162 2.114 255 255 255
0.271191 -0.289357 1.509 255 255 255
0.518736 -0.4603 1.348 255 255 255
0.220501 -0.12329 1.31 255 255 255
-1.06237 -0.0817827 2.818 255 255 255
-1.0028 -0.00793816 2.66 255 255 255
0.457685 -0.19876 1.33 0 0 0
0.129984 0.0930675 0.935 255 255 255
0.618066 -0.253976 1.281 0 0 0
0.0400026 -0.0259472 1.007 0 0 0
-0.997216 -0.304918 1.935 255 255 255
-0.16468 0.660882 1.853 255 255 255
-0.387017 0.672068 1.893 255 255 255
-0.127919 -0.0227239 1.18 255 255 255
-0.778964 0.725212 1.887 255 255 255
0.0684731 0.589931 1.535 255 255 255
-0.0548041 -0.0592304 1.22 255 255 255
0.514402 -0.0944974 1.059 255 255 255
0.522424 -0.416019 1.242 255 255 255
-0.841543 0.466324 2.365 255 255 255
-0.170221 0.0832785 0.981 255 255 255
0.237035 -0.0515276 1.18 255 255 255
0.515913 -0.343585 1.543 0 0 0
0.0099397 -0.371148 1.13 0 0 0
-0.00111137 -0.381665 1.145 0 0 0
-0.206314 0.0182973 1.106 255 255 255
0.208512 0.157205 0.869 255 255 255
0.0552979 -0.169003 1.196 0 0 0
0.425541 0.53474 1.571 255 255 255
-0.767788 0.713529 1.905 255 255 255
0.17981 0.529089 1.547 255 255 255
-0.136996 -0.104046 1.283 255 255 255
-0.0667345 -0.242656 1.185 255 255 255
0.00865994 0.38195 1.563 255 255 255
-0.825283 0.667944 1.953 255 255 255
0.100261 0.00740343 1.092 255 255 255
-0.993138 0.421835 2.071 255 255 255
0.247714 0.0454689 0.992 255 255 255
0.239349 -0.00682539 1.094 255 255 255
0.161205 0.109721 0.897 255 255 255
0.531658 -0.376582 1.294 0 0 0
-0.0334799 0.0038987 1.106 255 255 255
-0.108436 0.283881 1.528 255 255 255
-0.186796 0.163615 0.921 0 0 0
-1.10603 -0.548326 2.884 0 0 0
0.332075 -0.184555 1.403 255 255 255
0.418763 0.0873358 0.892 255 255 255
-0.112061 0.571412 1.655 255 255 255
0.555643 -0.342095 1.291 255 255 255
0.416007 0.408029 1.491 0 0 0
-0.857219 0.0493332 2.982 0 0 0
-0.199587 -0.093445 1.31 255 255 255
0.179138 0.0954394 0.914 255 255 255
0.494857 0.26182 1.116 255 255 255
0.524184 -0.288451 1.286 0 0 0
-0.284604 0.707401 1.81 255 255 255
-0.566908 0.588958 2.078 255 255 255
-0.0562304 0.140062 0.895 255 255 255
-1.00023 0.688071 1.947 255 255 255
-1.13855 -0.922139 2.78 255 255 255
-0.115657 0.131173 0.904 255 255 255
-0.140625 0.120412 0.923 255 255 255
0.212081 -0.128917 1.324 255 255 255
0.514271 -0.196855 1.143 255 255 255
-1.04604 -0.701872 2.017 255 255 255
0.145365 0.0686299 0.977 255 255 255
0.0658455 0.361909 1.532 255 255 255
0.214044 -0.0233911 1.12 255 255 255
-0.107876 -0.269307 1.192 0 0 0
-0.181855 0.107561 0.942 255 255 255
-0.0113884 0.102165 0.921 255 255 255
0.508271 -0.262413 1.242 0 0 0
0.132711 -0.335118 1.158 0 0 0
-0.00111137 -0.0537259 1.145 255 255 255
-1.01984 0.06003 2.604 255 255 255
-1.08767 -0.659895 2.743 0 0 0
-0.924478 0.701744 1.941 255 255 255
0.232692 0.385592 1.547 255 255 255
-0.981737 0.712667 1.911 255 255 255
0.0573355 0.326141 1.505 255 255 255
-0.00497851 -0.222053 1.178 255 255 255
-1.01622 0.118655 2.684 255 255 255
-1.04276 0.131838 2.017 255 255 255
-0.440327 0.453676 2.32 0 0 0
-0.415026 0.595175 2.03 255 255 255
0.199601 -0.332199 1.327 255 255 255
-0.106093 0.485269 1.646 255 255 255
-0.165916 0.0268769 1.089 255 255 255
0.0920598 0.0295831 1.059 255 255 255
-0.135445 -0.0490208 1.213 255 255 255
-0.0837269 -0.135738 1.267 255 255 255
0.506626 0.275672 1.106 0 0 0
-1.06775 -0.293632 2.66 0 0 0
0.277385 -0.27343 1.516 255 255 255
0.0354682 0.0433474 1.018 255 255 255
-0.589348 0.444586 2.312 0 0 0
-1.02942 -0.149287 2.303 255 255 255
-0.810646 0.694008 1.911 255 255 255
0.549439 -0.368724 1.267 0 0 0
0.384731 0.424212 1.118 0 0 0
-0.249866 0.620272 1.953 255 255 255
0.483672 -0.451854 1.336 255 255 255
-0.673789 0.665892 1.947 255 255 255
-1.13883 -0.731675 2.695 0 0 0
0.189421 -0.00509121 1.104 255 255 255
0.352866 0.0474212 0.966 255 255 255
-0.130627 0.447675 1.686 255 255 255
-0.504301 0.567584 2.099 255 255 255
-0.688272 0.491576 2.303 255 255 255
0.390387 -0.0680639 1.05 255 255 255
-1.1032 -0.525304 2.939 255 255 255
0.0281427 0.126387 0.891 255 255 255
-0.665002 0.605866 2.078 255 255 255
0.474421 -0.0638969 1.066 255 255 255
0.0189336 -0.349014 1.118 0 0 0
0.364977 0.117527 0.848 255 255 255
-0.0537706 -0.0724253 1.242 255 255 255
-0.114227 0.303456 1.539 255 255 255
-0.38538 0.624703 1.947 255 255 255
0.493125 0.29815 1.096 255 255 255
-1.02083 -0.107178 2.136 255 255 255
-0.119322 0.0999294 0.957 255 255 255
-1.01342 -0.275188 2.092 255 255 255
0.316405 -0.4263 1.425 255 255 255
0.411216 -0.398878 1.348 255 255 255
0.27438 -0.0446966 1.106 255 255 255
-1.06365 -0.639296 2.871 255 255 255
-1.03296 0.439911 2.03 255 255 255
-1.05877 -0.741958 2.01 255 255 255
0.0288398 0.0334077 1.018 255 255 255
0.44059 0.40203 1.112 255 255 255
-0.013956 0.331992 1.532 255 255 255
0.140902 0.0834744 0.947 255 255 255
0.0223423 0.0286054 1.024 255 255 255
0.382227 0.0595296 0.934 255 255 255
0.209803 0.522155 1.603 255 255 255
-0.237615 0.485389 2.128 255 255 255
0.643869 0.266422 1.308 255 255 255
0.503944 0.432793 1.112 255 255 255
0.171495 0.142628 0.875 255 255 255
0.542958 -0.430489 1.22 255 255 255
0.556241 -0.303035 1.516 255 255 255
-0.188499 0.631811 1.911 255 255 255
0.391933 -0.318676 1.52 0 0 0
0.264182 -0.222075 1.47 255 255 255
0.34143 0.13298 0.841 255 255 255
0.348882 -0.00944612 0.995 255 255 255
0.338526 0.136201 0.844 255 255 255
0.14346 0.579939 1.509 255 255 255
0.0297779 0.0682065 0.994 255 255 255
-0.768934 0.445376 2.44 255 255 255
0.51578 -0.25346 1.13 255 255 255
-0.282489 -0.00561232 1.217 0 0 0
-0.191955 0.149474 0.917 255 255 255
-1.03979 -0.042271 2.024 255 255 255
0.374946 -0.481665 1.445 0 0 0
-0.221566 -0.075166 1.289 255 255 255
0.396919 0.43505 1.132 255 255 255
0.420427 0.511731 1.571 255 255 255
0.368763 -0.409139 1.724 255 255 255
0.466121 0.308712 1.083 0 0 0
0.666182 -0.304126 1.327 255 255 255
-1.0031 0.276767 2.204 255 255 255
-0.463648 0.501027 2.181 255 255 255
0.596492 -0.354454 1.275 0 0 0
-0.106526 0.433273 1.612 255 255 255
-0.0552784 0.0949587 0.954 255 255 255
0.323198 -0.422877 1.445 255 255 255
-1.24069 -1.14928 2.982 255 255 255
0.442428 -0.254151 1.435 255 255 255
-1.01432 0.335436 2.261 255 255 255
0.325804 0.222846 0.984 255 255 255
0.350138 -0.286289 1.532 255 255 255
-0.502727 0.710687 1.865 255 255 255
0.354065 0.0305035 0.978 255 255 255
-0.00674863 0.120608 0.902 255 255 255
0.472789 0.291134 1.124 255 255 255
-0.985483 0.173867 2.66 255 255 255
0.00345107 0.156687 0.882 255 255 255
0.0635195 0.539067 1.599 255 255 255
0.199957 0.327008 1.509 255 255 255
