ply
format ascii 1.0
comment Created by Open3D
element vertex 1328
property double x
property double y
property double z
property uchar red
property uchar green
property uchar blue
end_header
0.109871 -0.0585001 1.032 255 255 255
-1.07236 -0.289358 2.121 255 255 255
0.291394 -0.204917 1.116 0 0 0
-0.753968 0.441545 2.356 255 255 255
0.117456 0.26421 0.983 255 255 255
-0.153655 -0.228343 1.201 0 0 0
-1.02131 -0.679834 2.236 0 0 0
-1.04058 0.115925 2.085 255 255 255
0.255497 0.353648 1.01 255 255 255
0.0845609 0.0407158 0.921 255 255 255
0.403672 -0.413106 1.081 255 255 255
-0.0215758 -0.0071311 1.143 255 255 255
0.291031 -0.19958 1.068 255 255 255
-0.241792 -0.179546 1.242 255 255 255
-0.28172 -0.0718213 1.267 0 0 0
0.0784084 -0.236618 1.442 255 255 255
0.187566 0.274353 0.957 255 255 255
-0.365091 -0.0273523 1.215 255 255 255
-0.397036 0.0996725 1.018 255 255 255
-0.362693 0.0705414 1.053 255 255 255
-0.923257 -0.138824 2.449 255 255 255
0.22908 -0.462155 1.252 255 255 255
-0.212817 -0.116719 1.262 255 255 255
-1.0454 -0.175005 2.158 255 255 255
-0.266238 -0.00710614 1.139 255 255 255
0.398124 -0.0503245 0.863 255 255 255
-0.272903 0.138513 0.944 255 255 255
0.255017 -0.311356 1.419 0 0 0
-0.944637 -0.441072 2.561 255 255 255
-0.145341 0.0266794 1.081 255 255 255
0.169653 0.411222 1.07 255 255 255
0.172128 0.109376 0.871 255 255 255
0.281754 -0.267259 1.348 255 255 255
-0.265786 0.373438 1.673 255 255 255
0.138698 -0.0502002 1.034 255 255 255
-1.00327 -0.670385 2.44 0 0 0
0.176699 0.407091 1.126 255 255 255
-0.259045 0.0166466 1.116 0 0 0
-0.162288 -0.144602 1.237 255 255 255
0.253865 0.104584 0.855 255 255 255
-1.01733 0.600961 2.196 255 255 255
0.518339 -0.396456 1.06 255 255 255
-0.312334 0.550816 1.966 0 0 0
0.024052 0.177075 0.849 0 0 0
-0.437222 0.14673 1 255 255 255
0.215088 0.101819 0.867 255 255 255
-0.958379 -0.271793 2.499 255 255 255
-0.176718 0.423284 1.655 255 255 255
-1.04073 -0.648427 2.099 0 0 0
0.22671 -0.0252017 1.044 255 255 255
-0.902323 0.608939 2.212 255 255 255
-0.375143 0.625592 1.911 255 255 255
-0.422724 -0.0440227 1.239 255 255 255
-0.133015 -0.421665 1.265 0 0 0
-0.795346 0.443232 2.365 255 255 255
0.426978 -0.310428 1.201 255 255 255
-0.256562 -0.285524 1.171 255 255 255
-0.203113 -0.343733 1.149 0 0 0
0.35166 0.0172625 0.95 255 255 255
-0.901973 0.600303 2.22 255 255 255
0.240754 -0.44976 1.39 0 0 0
0.192829 -0.306359 1.571 255 255 255
-0.0137547 -0.197691 1.281 255 255 255
0.374355 -0.357998 1.165 255 255 255
0.276976 -0.0499149 1.102 255 255 255
0.0931915 0.327319 1.015 0 0 0
0.555898 0.467027 1.205 255 255 255
-1.02437 -0.239873 2.173 255 255 255
-0.841276 0.742981 1.917 255 255 255
0.191686 0.0372678 0.91 0 0 0
-0.800856 0.567237 2.261 255 255 255
0.203554 0.0967299 0.872 255 255 255
0.184939 -0.244002 1.487 255 255 255
-0.200104 -0.186598 1.222 255 255 255
-0.0507281 -0.158418 1.267 255 255 255
0.168349 0.0458487 0.904 0 0 0
0.362102 -0.357032 1.187 255 255 255
-0.20703 0.108703 0.952 255 255 255
-1.00341 -0.833471 2.278 0 0 0
-0.198226 0.0159903 1.072 255 255 255
0.354475 -0.0241436 0.937 255 255 255
-0.272805 -0.288704 1.192 255 255 255
0.565112 0.419145 1.313 255 255 255
-0.0357139 0.120722 0.892 255 255 255
-1.01733 -0.628362 2.196 0 0 0
0.358558 0.198678 0.726 0 0 0
-0.828794 0.736741 1.917 255 255 255
0.151869 -0.033309 1.032 255 255 255
0.511155 0.464107 1.357 0 0 0
0.0453268 0.0125847 0.947 255 255 255
-0.667148 0.565037 2.128 255 255 255
0.0524787 -0.254859 1.439 255 255 255
-1.01376 -0.381288 2.114 255 255 255
0.184368 -0.293366 1.543 255 255 255
-0.0676688 0.0502684 1.024 255 255 255
-0.0931104 0.608323 1.563 255 255 255
-0.369614 0.0844125 1.034 255 255 255
-0.891045 -0.859344 2.857 255 255 255
-0.387351 0.625937 1.941 255 255 255
-0.238584 -0.0101866 1.073 255 255 255
0.224846 0.0967299 0.872 255 255 255
0.301688 -0.115168 1.075 255 255 255
-0.0494573 -0.362827 1.187 0 0 0
-0.144719 -0.211981 1.208 0 0 0
0.339806 -0.419818 1.108 255 255 255
0.288683 -0.132983 1.092 255 255 255
0.2889 -0.230198 1.073 255 255 255
0.421622 -0.36113 1.139 255 255 255
0.183077 0.359784 1.057 0 0 0
0.40825 -0.0246393 0.849 0 0 0
-1.01403 -0.554128 2.228 255 255 255
-0.042855 0.079434 0.954 255 255 255
0.0321172 0.0254395 0.967 255 255 255
-0.289083 0.0629613 1.041 255 255 255
0.0940385 0.103882 0.897 255 255 255
0.323072 0.188117 0.745 255 255 255
-0.841657 0.578044 2.204 255 255 255
-0.680365 0.544456 2.228 255 255 255
-1.03848 0.391534 2.402 255 255 255
0.167911 -0.0867728 1.07 255 255 255
0.21472 -0.00911384 0.96 255 255 255
-0.944611 0.635661 2.121 255 255 255
0.0612466 -0.266293 1.425 255 255 255
-0.857219 -0.576664 2.982 255 255 255
0.570949 -0.19651 1.141 255 255 255
0.129778 -0.31106 1.439 255 255 255
0.191023 0.395393 1.124 0 0 0
0.602739 0.376956 1.33 255 255 255
0.21791 0.168553 0.772 255 255 255
-0.99224 -0.301099 2.261 255 255 255
-0.00104149 -0.0503475 1.073 255 255 255
0.254577 0.290071 1.106 0 0 0
-0.882577 0.614602 2.181 255 255 255
0.218618 0.156136 0.779 255 255 255
0.302063 -0.361841 1.294 0 0 0
0.2548 -0.397638 1.322 255 255 255
-0.268549 0.565246 1.744 255 255 255
0.2913 0.316007 1.032 255 255 255
0.217884 0.0346058 0.845 255 255 255
0.266352 0.191661 0.774 255 255 255
-0.180077 0.107716 0.957 255 255 255
-0.126489 0.388145 1.599 255 255 255
0.315097 0.343094 0.92 0 0 0
0.354452 0.0137976 0.925 255 255 255
0.0651731 -0.035932 0.967 255 255 255
-0.769112 0.674443 1.972 255 255 255
-0.939841 -0.733097 2.967 255 255 255
-0.604891 0.649409 2.024 255 255 255
0.0837168 0.374666 1.041 255 255 255
0.480945 -0.177667 1.229 255 255 255
0.311329 0.0668117 0.909 255 255 255
-0.975428 -0.806042 2.43 255 255 255
-0.174756 -0.0286054 1.185 255 255 255
-0.192137 0.0673244 1.03 255 255 255
-1.1137 0.497329 2.261 255 255 255
-0.180859 -0.0549426 1.213 0 0 0
-0.599515 0.65701 2.017 255 255 255
-0.139807 -0.0167763 1.167 255 255 255
-0.14804 0.593993 1.579 255 255 255
-0.11901 0.505324 1.677 255 255 255
0.251045 -0.116025 1.083 255 255 255
-0.462187 0.0995564 1.034 255 255 255
0.291443 0.108758 0.855 255 255 255
0.300433 0.177444 0.746 255 255 255
0.341556 -0.881108 2.898 255 255 255
0.459363 -0.0761882 0.921 255 255 255
-1.08499 0.523311 2.278 0 0 0
-0.990451 0.743319 1.959 255 255 255
-0.954311 -0.434461 2.499 255 255 255
0.137769 0.277649 0.991 0 0 0
-0.207474 0.414755 1.664 255 255 255
0.318248 -0.405539 1.182 255 255 255
-0.224703 0.0467281 1.057 255 255 255
0.513474 0.452661 1.275 255 255 255
0.0822568 -0.0795095 1.066 255 255 255
-0.188819 0.451755 1.691 255 255 255
0.604885 0.409277 1.302 0 0 0
-0.505709 0.708192 1.899 255 255 255
0.186854 0.392681 1.132 0 0 0
-1.01735 -0.357448 2.136 255 255 255
0.0660995 -0.341222 1.381 255 255 255
0.270635 -0.452592 1.237 255 255 255
-0.213782 0.141133 0.921 255 255 255
0.0383174 -0.454979 1.435 255 255 255
0.242849 -0.124337 1.11 255 255 255
0.224719 -0.237307 1.432 0 0 0
-0.792576 0.542408 2.312 255 255 255
-1.03951 -0.148582 2.236 255 255 255
0.32275 -0.119992 1.087 255 255 255
-1.06364 -0.0881404 2.181 255 255 255
0.167067 0.13582 0.825 255 255 255
-0.034134 0.0938809 0.928 255 255 255
0.554278 -0.179268 1.126 255 255 255
-0.992397 -0.296367 2.253 255 255 255
-0.04736 0.148207 0.866 255 255 255
-0.547467 0.542177 2.204 255 255 255
0.294089 0.312042 1.03 255 255 255
-1.03732 -0.648427 2.099 0 0 0
-0.399284 0.632984 1.953 255 255 255
-0.0651088 0.0965218 0.939 255 255 255
0.000826066 -0.108074 1.257 255 255 255
0.252549 0.369702 1.018 255 255 255
0.591372 0.458186 1.234 255 255 255
-0.0013055 -0.317006 1.345 0 0 0
0.127267 0.148033 0.811 255 255 255
0.136832 0.0212991 0.863 255 255 255
0.0891786 0.318184 1.007 0 0 0
-1.04678 -0.144944 2.236 255 255 255
-1.03745 -0.0260007 2.338 255 255 255
0.42396 -0.104639 1.057 0 0 0
-0.149915 0.552077 1.599 255 255 255
-1.09427 -0.265686 2.071 255 255 255
-1.00669 -0.383174 2.204 255 255 255
-0.00414594 0.0401755 0.981 255 255 255
0.140936 0.0597664 0.871 255 255 255
0.256388 0.118585 0.836 255 255 255
0.307463 -0.00562751 0.902 255 255 255
0.336422 0.107186 0.832 255 255 255
0.2642 -0.335262 1.348 255 255 255
-1.00315 -0.238693 2.228 0 0 0
0.0877421 -0.00585835 0.939 255 255 255
-1.07236 0.652919 2.121 255 255 255
-0.148049 0.387472 1.607 255 255 255
0.285358 -0.286202 1.324 255 255 255
0.152781 -0.12999 1.112 255 255 255
-0.0806001 0.517731 1.673 255 255 255
-0.491898 0.724765 1.87 255 255 255
-0.0562416 -0.0872703 1.252 255 255 255
-1.062 -0.0201359 2.121 255 255 255
0.0222659 0.120181 0.888 255 255 255
-0.162152 0.503955 1.7 255 255 255
-0.926238 0.489416 2.365 255 255 255
-0.995828 -0.74533 2.236 255 255 255
-1.08131 -0.0672958 2.085 255 255 255
-0.0256647 0.0868308 0.95 255 255 255
-0.976495 -0.186513 2.347 255 255 255
-0.00699443 0.5364 1.655 255 255 255
0.263568 0.353963 0.997 255 255 255
-0.245891 0.430523 1.705 255 255 255
-0.66128 0.71624 1.929 255 255 255
0.116528 -0.240124 1.449 0 0 0
-1.03813 -0.658533 2.143 255 255 255
-0.304062 0.0168256 1.128 255 255 255
0.151208 0.33844 1.039 255 255 255
0.312475 -0.395922 1.182 255 255 255
-1.09252 0.368905 2.286 255 255 255
0.426875 -0.122972 1.114 255 255 255
-0.18177 0.102441 0.966 255 255 255
0.534096 -0.379322 1.085 255 255 255
-0.232227 -0.269868 1.145 255 255 255
-0.12754 -0.140008 1.232 255 255 255
-1.08353 -0.0429602 2.057 255 255 255
0.298741 0.10283 0.852 255 255 255
-1.06647 -0.0403027 2.286 255 255 255
-0.739448 0.709261 1.953 255 255 255
0.0318869 0.150054 0.837 255 255 255
0.142356 0.121138 0.854 255 255 255
-1.01387 -0.336547 2.204 255 255 255
-1.03517 0.0393584 2.166 255 255 255
0.547837 -0.283618 1.171 255 255 255
0.370254 0.0932878 0.817 255 255 255
0.184365 0.0527304 0.849 255 255 255
-1.062 -0.027039 2.121 255 255 255
0.105073 0.0517331 0.904 255 255 255
0.543045 -0.280285 1.173 255 255 255
-0.0175517 0.154854 0.856 255 255 255
0.291768 -0.0598442 0.972 255 255 255
0.181508 -0.0142606 0.992 255 255 255
-0.937033 -0.240482 2.695 255 255 255
-0.502612 0.621937 2.064 255 255 255
0.362598 -0.408261 1.106 255 255 255
0.268571 -0.4001 1.275 255 255 255
0.603846 0.422948 1.273 255 255 255
-1.00712 -0.488715 2.278 255 255 255
-0.137759 0.331899 1.579 0 0 0
-0.468226 -0.0158333 1.242 255 255 255
-0.217708 0.0999139 0.972 255 255 255
0.270676 -0.0367687 0.948 255 255 255
0.12127 0.260731 0.988 255 255 255
-0.051134 0.409985 1.603 255 255 255
-0.417495 0.515224 2.181 255 255 255
0.50785 0.507168 1.378 255 255 255
0.169515 0.0796291 0.887 255 255 255
0.187179 0.0633325 0.843 255 255 255
-0.587619 0.661271 2.01 255 255 255
-1.03929 0.00782559 2.22 255 255 255
-1.06931 -0.465241 2.03 255 255 255
0.240722 -0.426568 1.403 0 0 0
-0.870997 -0.857274 2.996 255 255 255
0.278178 -0.055897 1.114 255 255 255
-0.428444 0.636895 1.985 255 255 255
0.245076 -0.397664 1.456 0 0 0
0.220781 0.39666 1.073 255 255 255
-0.965481 -0.803652 2.561 255 255 255
-0.170398 0.418304 1.646 255 255 255
0.143707 0.434577 1.126 255 255 255
-0.150283 0.493032 1.691 255 255 255
-0.084658 0.469197 1.646 255 255 255
0.310154 -0.10399 1.068 255 255 255
0.32112 0.388687 1.02 255 255 255
-0.223228 0.112153 0.955 255 255 255
0.242431 0.0585004 0.895 255 255 255
0.292373 0.094655 0.866 255 255 255
0.474665 -0.224372 1.244 255 255 255
0.483894 0.367864 1.313 0 0 0
0.430682 -0.395652 1.096 255 255 255
0.0194524 -0.293501 1.422 255 255 255
0.437889 -0.242868 1.215 255 255 255
0.0581461 -0.0168369 0.955 255 255 255
0.37602 0.00436921 0.848 255 255 255
0.115301 -0.0198824 0.952 255 255 255
-0.168027 -0.0326539 1.192 255 255 255
0.434388 -0.403296 1.083 255 255 255
0.221295 -0.468959 1.354 255 255 255
0.468162 0.366056 1.299 0 0 0
0.143764 0.423655 1.141 255 255 255
-0.137646 -0.197392 1.215 0 0 0
-0.910938 0.641752 2.107 255 255 255
-0.357182 0.0795948 1.037 255 255 255
-0.872932 0.441725 2.42 255 255 255
-0.73639 0.559321 2.244 255 255 255
0.248615 -0.24484 1.449 0 0 0
-0.0424667 -0.0586478 1.208 255 255 255
-0.0471647 -0.0322704 1.178 255 255 255
-0.0618575 -0.205821 1.242 255 255 255
0.493448 -0.261568 1.201 255 255 255
-1.15662 0.609732 2.189 255 255 255
-1.07472 0.031205 2.092 255 255 255
0.518123 -0.189171 1.213 0 0 0
0.244228 0.390854 1.039 255 255 255
-1.0757 -0.0544712 2.114 255 255 255
0.260618 -0.346599 1.308 255 255 255
0.582438 0.43745 1.267 255 255 255
0.142436 -0.287248 1.473 255 255 255
-0.386752 0.0336715 1.139 255 255 255
0.104696 0.151805 0.81 255 255 255
-0.0503277 -0.09171 1.257 255 255 255
-0.07394 0.0180657 1.092 255 255 255
0.364035 -0.355101 1.187 255 255 255
-0.32944 0.123805 0.961 255 255 255
-0.12189 0.523458 1.607 255 255 255
-0.361438 0.610261 1.972 255 255 255
-0.0719834 0.136776 0.874 255 255 255
0.57758 0.452645 1.252 255 255 255
0.211418 0.150628 0.79 255 255 255
0.135126 -0.0150267 0.939 255 255 255
-1.09615 0.665753 2.107 255 255 255
-0.0782394 0.436498 1.624 255 255 255
0.299785 0.399531 1.044 255 255 255
-0.439401 0.690551 1.893 255 255 255
-1.0454 -0.22417 2.158 0 0 0
0.0226493 0.0175532 0.966 0 0 0
-0.0714325 0.0691216 0.984 255 255 255
0.396655 0.114449 0.78 255 255 255
0.246334 -0.325643 1.603 255 255 255
-0.896374 -0.776552 2.967 255 255 255
0.396882 -0.3184 1.187 255 255 255
-0.0741071 -0.16364 1.244 255 255 255
0.268603 0.16942 0.759 255 255 255
-0.0567122 0.0823659 0.952 255 255 255
0.270117 0.311987 1.041 0 0 0
0.51726 -0.362425 1.098 255 255 255
-0.195478 -0.0304564 1.182 0 0 0
0.361324 0.0917381 0.827 255 255 255
0.41995 -0.288368 1.232 255 255 255
0.0792298 -0.0991464 1.072 255 255 255
0.5558 -0.154343 1.118 0 0 0
-0.988381 -0.778789 2.939 0 0 0
-1.00676 -0.533206 2.158 0 0 0
0.259546 -0.329095 1.406 0 0 0
-0.398184 0.055485 1.094 255 255 255
0.15842 0.288355 0.989 255 255 255
-1.07335 -0.445166 2.044 255 255 255
-0.443791 0.661588 1.953 255 255 255
0.435911 -0.242868 1.215 255 255 255
-0.254336 -0.225073 1.215 255 255 255
-0.25599 0.618182 1.595 0 0 0
0.030859 0.0272925 0.977 255 255 255
-1.08656 0.56621 2.228 255 255 255
-0.314348 -0.0233016 1.21 255 255 255
-0.456831 0.702667 1.876 255 255 255
0.0408777 -0.0887622 1.073 255 255 255
-0.345474 0.60966 1.991 255 255 255
0.0205885 -0.369536 1.345 0 0 0
-0.0605876 -0.354325 1.178 0 0 0
0.436098 -0.0658601 0.883 255 255 255
0.0458675 -0.388417 1.381 0 0 0
-0.121204 0.422973 1.633 255 255 255
0.445108 -0.390654 1.092 255 255 255
0.566073 0.40929 1.351 0 0 0
0.123195 -0.170796 1.366 255 255 255
-0.19865 -0.0265141 1.029 255 255 255
-1.00023 0.712952 1.972 255 255 255
-0.265032 0.00946631 1.126 0 0 0
0.367063 -0.375275 1.154 255 255 255
-0.991473 -0.371636 2.383 255 255 255
0.46859 -0.222347 1.244 255 255 255
0.103599 0.074861 0.917 255 255 255
0.508844 -0.286938 1.169 255 255 255
-0.0607933 -0.368993 1.182 0 0 0
-0.228922 0.3625 1.624 255 255 255
-0.25332 -0.186655 1.249 255 255 255
-0.143364 -0.260123 1.135 0 0 0
-0.448343 0.657245 1.959 255 255 255
-0.993253 0.089718 2.107 255 255 255
0.178446 -0.0697726 1.05 0 0 0
-0.174833 0.100736 0.98 255 255 255
-0.301065 -0.125228 1.354 0 0 0
0.115856 0.26741 0.983 255 255 255
-0.100199 0.525991 1.682 255 255 255
-0.00965907 -0.216042 1.291 255 255 255
-0.178397 -0.15668 1.237 255 255 255
0.231373 0.154073 0.775 255 255 255
-0.239635 0.432027 1.7 255 255 255
-0.0499007 0.0299463 1.072 255 255 255
0.307171 -0.0933374 1.046 255 255 255
-1.06328 0.61942 2.173 255 255 255
-0.246673 0.0616792 1.048 255 255 255
0.512602 0.474523 1.278 255 255 255
0.347732 0.124277 0.811 255 255 255
0.262673 -0.425811 1.247 255 255 255
0.244726 0.00305621 0.867 255 255 255
0.101385 -0.102114 1.085 255 255 255
-1.02478 -0.206017 2.189 255 255 255
-0.922939 -0.806453 2.884 0 0 0
0.128775 -0.0424185 1.009 255 255 255
-0.138729 -0.250318 1.158 255 255 255
0.542119 -0.190244 1.171 0 0 0
-1.04978 -0.768499 2.037 0 0 0
0.468583 -0.360455 1.114 255 255 255
-0.0690589 0.139461 0.873 255 255 255
0.306583 0.355753 0.984 255 255 255
-1.00315 -0.789798 2.228 255 255 255
0.313847 -0.340214 1.308 255 255 255
0.333119 -0.380212 1.187 255 255 255
-0.0851758 0.160262 0.878 255 255 255
0.00725817 -0.161663 1.31 0 0 0
-1.01277 0.740131 1.959 255 255 255
-0.563551 0.686828 1.917 255 255 255
0.493064 -0.332742 1.137 0 0 0
-0.221237 -0.0347511 1.025 255 255 255
-0.0293789 0.0976691 0.921 255 255 255
0.340799 0.184582 0.731 255 255 255
0.538602 -0.241632 1.18 255 255 255
-0.896265 0.497149 2.347 255 255 255
-0.160582 0.030086 1.077 255 255 255
-0.299909 -0.154346 1.339 255 255 255
-0.0419042 -0.375994 1.192 255 255 255
0.150473 0.0658868 0.877 255 255 255
0.304777 0.135543 0.792 255 255 255
0.0659559 -0.318057 1.378 0 0 0
-0.925529 0.462117 2.383 255 255 255
0.405115 -0.0579445 0.872 255 255 255
0.282136 0.00745703 0.887 255 255 255
-0.127038 -0.42027 1.267 0 0 0
-0.105666 0.390747 1.599 255 255 255
-0.963561 -0.734863 2.43 0 0 0
0.0333686 0.165629 0.84 255 255 255
0.546864 -0.265014 1.173 255 255 255
-0.317936 0.0308961 1.106 255 255 255
-0.283274 -0.229666 1.229 0 0 0
-1.04237 0.444006 2.411 255 255 255
0.633039 0.404247 1.286 0 0 0
-0.00155204 0.416768 1.599 255 255 255
-0.0148396 0.477606 1.629 255 255 255
-1.00672 -0.439885 2.294 255 255 255
-0.995457 0.491278 2.374 255 255 255
-1.01019 -0.367488 2.196 255 255 255
-0.087848 0.111158 0.921 255 255 255
-1.02122 -0.255888 2.189 255 255 255
-0.198958 -0.0510788 1.215 0 0 0
-0.0442265 0.100339 0.918 255 255 255
0.0951164 -0.335996 1.378 0 0 0
-1.05742 0.384559 2.383 255 255 255
0.229446 -0.458812 1.254 255 255 255
-0.233023 0.129169 0.932 255 255 255
-0.467956 0.0118907 1.185 255 255 255
-1.06076 -0.411992 2.078 255 255 255
0.364408 0.0803267 0.807 255 255 255
0.280446 0.104279 0.864 255 255 255
0.175366 -0.152627 1.205 255 255 255
-0.075686 0.60121 1.571 255 255 255
-0.0578141 -0.211884 1.242 255 255 255
0.128814 0.410026 1.124 0 0 0
-0.196508 0.470744 1.71 255 255 255
-0.214531 -0.0939793 1.26 0 0 0
0.374026 0.0122923 0.925 255 255 255
0.12686 0.27849 0.994 0 0 0
0.109943 0.0405187 0.884 255 255 255
0.0475408 0.089543 0.93 255 255 255
0.341989 0.196478 0.731 255 255 255
0.281127 -0.268853 1.345 255 255 255
0.098559 0.128987 0.86 255 255 255
-1.05416 -0.756071 2.085 255 255 255
0.0856634 0.144747 0.83 255 255 255
-0.41721 -0.105786 1.359 255 255 255
-0.98791 -0.37126 2.356 255 255 255
-0.0886209 -0.0385378 1.194 255 255 255
-0.0893742 0.102415 0.937 255 255 255
-1.03444 0.422035 2.42 255 255 255
-0.188113 0.12502 0.935 255 255 255
-0.084658 0.471876 1.646 255 255 255
-0.129653 -0.0522263 1.196 0 0 0
-0.0829693 0.0915649 0.951 255 255 255
0.162204 0.0129921 0.871 255 255 255
-0.189501 0.0194793 1.072 255 255 255
0.224719 -0.419073 1.432 255 255 255
0.352946 0.0137976 0.925 255 255 255
0.0672614 0.249681 0.952 255 255 255
0.233835 0.152333 0.779 255 255 255
0.524856 -0.305792 1.154 255 255 255
-1.00669 -0.368827 2.204 255 255 255
-0.262376 -0.276197 1.18 0 0 0
0.036266 0.124401 0.877 255 255 255
0.0555841 0.0796282 0.938 255 255 255
-0.0795494 0.161875 0.879 255 255 255
-0.21242 -0.00479145 1.039 255 255 255
0.409383 -0.130622 1.201 0 0 0
-0.91355 -0.81584 2.884 0 0 0
0.233009 0.0292776 0.85 255 255 255
-0.206589 -0.352078 1.158 255 255 255
-0.00754587 -0.173754 1.289 255 255 255
0.0903755 -0.410049 1.409 0 0 0
0.386324 0.0482643 0.798 255 255 255
0.403655 -0.330603 1.162 0 0 0
0.278789 -0.0824747 1.017 255 255 255
-0.980438 -0.58483 2.768 255 255 255
-1.07228 0.410874 2.356 0 0 0
0.320355 0.0558967 0.877 255 255 255
0.0597813 0.115715 0.887 255 255 255
0.396023 -0.412619 1.089 255 255 255
-0.191533 0.110252 0.952 255 255 255
0.520781 -0.121149 1.051 255 255 255
-0.218331 0.056293 1.043 255 255 255
0.0890497 -0.138003 1.232 255 255 255
-0.0543868 0.0251739 1.092 255 255 255
0.606268 0.406006 1.333 0 0 0
0.307341 0.28158 1.108 0 0 0
0.182655 0.397744 1.152 255 255 255
-0.160716 -0.413177 1.21 0 0 0
-0.645481 0.653727 2.017 255 255 255
0.417944 -0.300397 1.232 255 255 255
-0.831008 0.701876 1.959 255 255 255
0.214878 0.0194567 0.844 255 255 255
0.53961 -0.137934 1.089 255 255 255
-0.214324 0.600178 1.575 255 255 255
0.264466 0.0482097 0.921 255 255 255
-0.474476 0.0635218 1.11 255 255 255
-0.345259 0.0208785 1.149 255 255 255
0.0300721 0.474967 1.62 255 255 255
-0.353578 0.5261 2.057 0 0 0
-0.676247 0.617306 2.071 255 255 255
-0.047677 0.548917 1.575 255 255 255
-0.686765 0.672391 1.966 255 255 255
0.312576 0.1823 0.746 255 255 255
0.370688 -0.324706 1.196 0 0 0
-1.06256 -0.284452 2.136 0 0 0
0.0339525 0.0896393 0.931 255 255 255
-1.04196 -0.647703 1.972 255 255 255
-0.475399 0.129473 1.005 255 255 255
-0.94472 0.572563 2.253 255 255 255
0.2506 0.140113 0.796 255 255 255
0.0665874 0.148441 0.828 255 255 255
-0.077089 -0.215315 1.227 0 0 0
-0.917364 -0.809266 2.911 0 0 0
0.272766 -0.341557 1.305 255 255 255
-1.06528 -0.00971664 2.107 255 255 255
-0.0645321 -0.0208037 1.18 255 255 255
0.402267 -0.297181 1.227 255 255 255
0.0198072 0.00505448 0.981 255 255 255
-0.810071 0.742981 1.917 255 255 255
0.392759 -0.315502 1.198 255 255 255
-0.310531 0.00406085 1.152 255 255 255
0.409803 -0.310272 1.208 255 255 255
-0.112291 0.165164 0.889 255 255 255
-0.334044 -0.154693 1.381 255 255 255
-0.897554 0.57552 2.236 255 255 255
0.318835 0.168335 0.738 255 255 255
-0.958816 -0.25047 2.269 255 255 255
0.210127 0.113254 0.847 255 255 255
-0.42455 0.120331 0.997 255 255 255
0.598147 -0.178264 1.18 255 255 255
0.454403 -0.258533 1.196 255 255 255
-0.224656 -0.249041 1.135 0 0 0
0.0873655 0.314281 1.005 0 0 0
-0.413356 0.00601282 1.167 255 255 255
-0.345719 0.608608 1.691 255 255 255
-0.678556 0.59491 2.099 255 255 255
0.127107 -0.0512807 1.022 255 255 255
-0.957912 -0.52631 2.53 255 255 255
-0.17343 0.147681 0.906 255 255 255
-1.16326 0.564604 2.236 255 255 255
-0.643572 0.717142 1.923 255 255 255
-0.185118 0.087384 1.01 255 255 255
0.255734 0.0459501 0.906 255 255 255
-0.905978 -0.883772 2.831 255 255 255
0.197953 0.106595 0.86 255 255 255
-0.0237277 -0.226716 1.257 0 0 0
-0.299546 0.0239539 1.118 255 255 255
0.417944 -0.302402 1.232 255 255 255
-0.507358 0.095602 1.01 255 255 255
0.0934421 0.312717 1 255 255 255
0.000567797 0.135211 0.864 255 255 255
-0.23722 0.59074 1.591 255 255 255
-1.01436 0.544285 2.32 255 255 255
-0.564527 0.562841 2.173 255 255 255
-0.930505 0.729261 1.947 255 255 255
-1.03268 0.717652 1.985 255 255 255
-0.324456 -0.14221 1.369 255 255 255
-0.458274 0.672229 1.947 255 255 255
-0.0662724 -0.172428 1.249 0 0 0
-0.365142 0.156074 0.977 0 0 0
-1.01409 -0.334257 2.189 255 255 255
-0.201972 0.565088 1.599 255 255 255
0.295063 0.194071 0.754 255 255 255
0.55165 -0.260751 1.171 255 255 255
-0.585311 0.5249 2.253 255 255 255
0.466623 -0.324571 1.154 0 0 0
0.097413 0.135786 0.85 255 255 255
0.345748 -0.364553 1.232 255 255 255
-1.08131 -0.0978327 2.085 255 255 255
0.315133 0.144994 0.767 255 255 255
-0.280577 0.0132593 1.137 255 255 255
0.456629 -0.185222 1.267 0 0 0
0.21755 -0.0737278 1.083 255 255 255
-0.573288 0.581961 2.114 255 255 255
-0.778244 0.544045 2.303 255 255 255
0.315938 -0.464373 1.21 0 0 0
0.277839 0.326616 1.319 255 255 255
-0.209706 -0.188278 1.22 0 0 0
0.324079 0.180589 0.739 255 255 255
-0.410363 0.660726 1.887 255 255 255
-1.08042 0.414909 2.253 255 255 255
-0.292189 0.0675859 1.034 255 255 255
-1.03587 -0.522805 2.01 255 255 255
0.500168 -0.242256 1.232 255 255 255
0.431594 -0.0728864 0.999 255 255 255
0.27914 -0.481551 1.239 255 255 255
0.370254 0.0946174 0.817 255 255 255
0.154259 0.297803 0.983 255 255 255
0.424462 -0.390431 1.122 255 255 255
0.349454 -0.147819 1.11 255 255 255
0.171336 0.308058 0.98 0 0 0
0.342842 0.00179714 0.947 0 0 0
-0.0347695 0.376235 1.571 255 255 255
-0.320054 0.120677 0.961 255 255 255
0.222202 -0.466024 1.333 255 255 255
0.134679 0.263401 0.992 255 255 255
0.0853465 0.123124 0.868 255 255 255
-0.570156 0.578889 2.128 255 255 255
-0.816635 -0.654776 2.857 0 0 0
-0.185858 -0.315533 1.135 0 0 0
0.28191 -0.314671 1.308 255 255 255
-0.047524 0.160034 0.869 255 255 255
0.16842 -0.311829 1.535 255 255 255
-0.967517 -0.738817 2.43 0 0 0
-0.922682 0.573928 2.244 255 255 255
0.514021 -0.249332 1.208 255 255 255
0.402265 0.0411431 0.786 255 255 255
0.329085 -0.0145466 0.909 0 0 0
-0.458314 0.133009 1.007 255 255 255
0.250499 -0.448566 1.237 255 255 255
-0.971058 -0.259439 2.459 255 255 255
0.26194 -0.132094 1.13 0 0 0
-1.05062 0.0884832 2.078 255 255 255
0.192614 0.148431 0.792 255 255 255
-0.886991 -0.86469 2.844 255 255 255
-0.995473 -0.501501 2.32 255 255 255
0.0417707 0.176032 0.844 255 255 255
-1.04222 -0.260249 2.166 255 255 255
0.0414149 0.381541 1.551 255 255 255
0.524745 -0.397805 1.059 255 255 255
0.324669 -0.191247 1.07 255 255 255
0.100687 -0.382724 1.393 255 255 255
0.505178 -0.255705 1.201 255 255 255
-1.09178 0.53232 2.269 255 255 255
0.223956 -0.0399367 1.124 255 255 255
0.296335 -0.470304 1.252 255 255 255
0.540389 -0.369408 1.087 255 255 255
0.317598 0.142355 0.773 255 255 255
0.292485 -0.284691 1.327 255 255 255
0.19231 0.0131115 0.879 255 255 255
-0.171269 -0.416862 1.215 255 255 255
-0.11874 -0.315136 1.147 255 255 255
0.100768 0.308601 0.992 0 0 0
-0.40234 -0.0373916 1.22 255 255 255
-0.0586907 0.336099 1.528 255 255 255
0.253419 -0.364942 1.477 0 0 0
-0.332293 0.0151893 1.143 255 255 255
0.235065 0.12284 0.828 255 255 255
-0.026421 0.0147774 1.112 255 255 255
0.439777 -0.219083 1.237 255 255 255
-0.800296 0.581234 2.189 255 255 255
0.48728 -0.399906 1.06 255 255 255
-0.169617 0.0198064 1.09 255 255 255
0.304381 -0.461007 1.26 255 255 255
-0.827105 -0.369726 2.996 255 255 255
0.0943561 -0.400595 1.4 0 0 0
-0.0428406 0.0316317 1.07 255 255 255
-1.03904 -0.566464 1.991 255 255 255
0.418868 -0.0829405 1.112 0 0 0
-0.145979 -0.319058 1.141 255 255 255
-1.0749 -0.0848265 2.099 255 255 255
-0.134176 -0.291314 1.12 0 0 0
0.219461 0.0535379 0.862 255 255 255
0.176983 0.0242196 0.867 255 255 255
0.419506 -0.411411 1.072 255 255 255
0.280552 0.124037 0.827 255 255 255
0.420744 -0.0997643 1.098 255 255 255
-0.56688 0.671233 1.972 255 255 255
0.31047 0.363951 0.947 255 255 255
0.178379 0.00602037 0.888 255 255 255
0.228888 0.0181047 0.845 255 255 255
0.257365 0.159763 0.766 255 255 255
0.276093 0.0976987 0.868 255 255 255
0.409707 -0.412108 1.083 255 255 255
0.496673 -0.135906 1.116 0 0 0
0.0495344 -0.026545 0.969 255 255 255
-0.17866 0.0128512 1.102 255 255 255
-0.0688648 -0.308203 1.156 255 255 255
-0.621029 0.612629 2.078 255 255 255
-0.838069 0.574457 2.204 255 255 255
-1.04033 0.138738 2.071 255 255 255
-0.940329 -0.595718 2.411 255 255 255
-1.00683 -0.453553 2.269 255 255 255
-1.02115 -0.197383 2.212 255 255 255
-0.00229702 0.122516 0.884 255 255 255
-1.01661 -0.69197 2.857 0 0 0
-0.92776 -0.183466 2.572 255 255 255
-0.0791623 -0.137038 1.26 255 255 255
-0.312149 0.00219755 1.158 255 255 255
-0.29137 -0.00922712 1.173 255 255 255
0.230991 -0.0935159 1.048 255 255 255
-1.02069 -0.441743 2.107 255 255 255
-0.929408 0.469873 2.383 255 255 255
0.218098 0.420923 1.077 0 0 0
0.535534 0.453593 1.249 255 255 255
-0.223987 -0.268925 1.141 0 0 0
0.41853 -0.258187 1.222 255 255 255
-0.99224 -0.279022 2.261 255 255 255
0.131072 -0.0498603 1.027 255 255 255
0.296872 0.136056 0.795 255 255 255
0.256858 -0.352822 1.62 0 0 0
-0.404635 0.12246 0.988 255 255 255
0.311424 0.0675443 0.88 255 255 255
-0.0976884 -0.304204 1.141 0 0 0
-0.0217827 0.166386 0.858 255 255 255
-0.196377 0.574547 1.575 255 255 255
-0.468563 -0.00166497 1.227 255 255 255
-1.03242 -0.538923 1.997 255 255 255
0.299885 0.0216237 0.938 255 255 255
-0.068113 0.11715 0.898 255 255 255
0.0506917 -0.341184 1.39 0 0 0
0.29911 0.145058 0.774 255 255 255
-0.605799 0.733679 1.893 255 255 255
-0.48413 0.138747 1.013 255 255 255
0.236869 -0.41061 1.435 255 255 255
-0.0865714 0.549129 1.583 255 255 255
0.252101 -0.410206 1.342 0 0 0
-0.882936 -0.261832 2.831 255 255 255
-0.935472 -0.241353 2.755 255 255 255
0.105304 -0.111352 1.089 255 255 255
-0.349 0.0246181 1.149 255 255 255
0.264788 -0.316222 1.351 255 255 255
-0.0667754 0.0441138 1.036 255 255 255
0.256581 0.0727286 0.909 255 255 255
-1.00317 -0.587772 2.303 255 255 255
-0.83686 0.548061 2.32 255 255 255
-0.0116877 -0.158331 1.283 0 0 0
-0.0904173 -0.278696 1.143 255 255 255
0.394077 0.0941864 0.77 0 0 0
0.305751 -0.287267 1.319 255 255 255
0.30844 0.348722 0.927 255 255 255
0.106312 0.141204 0.833 255 255 255
-0.916781 -0.120976 2.411 255 255 255
-0.0268856 0.0278598 1.059 255 255 255
-0.947883 -0.930432 2.805 255 255 255
-0.150744 -0.167121 1.225 0 0 0
-1.09559 0.611053 2.181 255 255 255
-0.447423 0.0340558 1.152 255 255 255
0.0129195 0.151309 0.844 255 255 255
-0.216216 0.13422 0.925 255 255 255
-0.482731 0.152534 1.017 255 255 255
-0.137354 0.158463 0.892 255 255 255
0.376311 0.10567 0.81 255 255 255
0.0313012 0.0454231 0.991 255 255 255
-0.0158646 -0.387996 1.283 255 255 255
-0.0666373 0.0949937 0.939 255 255 255
-1.01213 -0.624517 2.911 0 0 0
0.302533 0.283595 0.875 0 0 0
0.494044 -0.149302 1.135 0 0 0
0.107974 -0.15812 1.316 255 255 255
-0.954912 -0.409156 2.469 255 255 255
-1.12399 0.628799 2.181 255 255 255
-0.557453 0.562841 2.173 255 255 255
-0.151491 -0.189483 1.215 0 0 0
-1.05747 -0.962384 2.805 0 0 0
0.198157 0.059217 0.843 255 255 255
0.0548246 0.120119 0.877 255 255 255
-0.23463 0.601097 1.591 255 255 255
0.253394 -0.300464 1.491 255 255 255
0.309261 -0.236314 1.077 255 255 255
-0.00118902 -0.0973492 1.225 255 255 255
-0.227246 0.13451 0.927 255 255 255
0.555014 -0.28044 1.135 255 255 255
0.410874 -0.0807215 1.037 0 0 0
-0.20535 0.0672591 1.029 255 255 255
0.57412 0.466264 1.198 255 255 255
0.532128 0.422244 1.316 255 255 255
-1.04073 0.666641 2.099 255 255 255
0.314647 -0.0525811 0.955 255 255 255
0.501992 0.5013 1.412 0 0 0
0.203757 0.0903543 0.879 255 255 255
-0.929145 -0.26167 2.519 255 255 255
-0.870849 0.54051 2.32 255 255 255
-0.0503684 0.570867 1.579 255 255 255
0.56679 0.462914 1.22 255 255 255
-0.552864 0.634708 2.051 255 255 255
0.0590164 0.185283 0.855 255 255 255
-1.05738 -0.797493 2.078 0 0 0
0.122127 0.366194 1.081 255 255 255
-0.179071 0.062417 1.032 255 255 255
0.484605 -0.197606 1.254 255 255 255
0.520588 -0.370427 1.09 255 255 255
0.537566 0.441247 1.278 255 255 255
0.263578 -0.0662945 1.106 255 255 255
0.00241065 0.00886942 1.055 255 255 255
0.28801 -0.0612996 0.97 255 255 255
-0.971726 0.416542 2.411 0 0 0
0.267463 -0.0759293 1.018 255 255 255
0.0235196 0.0887868 0.938 255 255 255
-0.953429 -0.181183 2.54 255 255 255
-0.298954 0.00219755 1.158 255 255 255
0.354275 0.0944345 0.839 255 255 255
0.223226 0.161223 0.773 255 255 255
0.105304 -0.0794528 1.089 0 0 0
-0.16043 0.016408 1.1 255 255 255
-0.23221 0.12276 0.941 255 255 255
-1.13464 0.415847 2.181 255 255 255
0.203694 -0.0242006 1.075 255 255 255
-0.0956866 0.118716 0.91 255 255 255
-0.397083 0.659188 1.799 255 255 255
-0.184351 -0.212332 1.21 255 255 255
0.00353486 0.355383 1.547 255 255 255
-0.0119934 0.428245 1.603 255 255 255
0.213136 0.018169 0.848 255 255 255
-0.380462 0.00603343 1.171 255 255 255
-0.0345039 0.591544 1.559 255 255 255
0.163359 0.306463 0.98 0 0 0
-0.995738 -0.291531 2.244 255 255 255
0.024052 0.181219 0.849 0 0 0
0.0934019 0.150089 0.815 255 255 255
-0.0495538 0.485279 1.637 255 255 255
0.090684 0.338553 1.024 0 0 0
0.0596134 -0.317877 1.387 0 0 0
0.0198113 0.108111 0.908 255 255 255
0.361605 0.196045 0.725 255 255 255
0.310613 0.152757 0.756 255 255 255
0.377725 0.0107637 0.923 255 255 255
0.454567 -0.179036 1.267 255 255 255
0.514935 0.444199 1.305 255 255 255
0.0595544 -0.0536986 1.005 255 255 255
-1.01564 -0.909962 2.615 0 0 0
0.411295 -0.106579 1.173 0 0 0
-0.960278 0.407169 2.402 0 0 0
0.413996 -0.0773953 1.085 0 0 0
0.436603 -0.0935858 1.03 0 0 0
0.181242 -0.0390129 1.098 255 255 255
-0.215704 0.531638 1.624 255 255 255
0.502957 -0.32769 1.126 0 0 0
-0.664281 0.684903 1.947 255 255 255
-1.0416 -0.0607068 2.356 255 255 255
0.226029 0.0405808 0.855 255 255 255
0.270793 -0.417694 1.247 255 255 255
0.223098 -0.0989145 1.051 255 255 255
0.149901 -0.167801 1.308 255 255 255
0.32288 -0.387633 1.192 255 255 255
0.430518 -0.193988 1.257 0 0 0
0.366208 0.143482 0.759 255 255 255
-1.0941 0.557327 2.236 255 255 255
-0.00974137 -0.389504 1.302 255 255 255
0.0243698 -0.453906 1.439 255 255 255
-0.77673 0.709021 1.935 255 255 255
-0.618937 0.617306 2.071 255 255 255
-0.984978 -0.883083 2.743 255 255 255
-0.376687 -0.0455931 1.227 255 255 255
0.54741 -0.231474 1.158 255 255 255
0.147231 -0.323204 1.473 255 255 255
-0.528501 0.504688 2.261 255 255 255
-0.0493739 -0.371858 1.185 0 0 0
0.0949783 -0.00431185 0.935 255 255 255
0.22482 -0.25911 1.463 255 255 255
-0.214989 -0.0561203 1.239 255 255 255
-0.304062 0.01499 1.128 255 255 255
-0.196747 0.00548212 1.064 255 255 255
0.430916 -0.112891 1.07 0 0 0
-0.320683 0.100861 0.997 255 255 255
0.257708 -0.339344 1.502 0 0 0
-0.357089 -0.0114683 1.208 255 255 255
0.378096 0.0609284 0.811 255 255 255
0.297326 -0.245113 1.359 255 255 255
0.35176 -0.362482 1.225 0 0 0
-0.999231 0.477629 2.383 255 255 255
0.157045 -0.279935 1.498 255 255 255
0.273044 -0.28685 1.327 255 255 255
0.370057 0.0552376 0.805 255 255 255
-0.855837 0.673387 2.057 255 255 255
-1.02685 -0.471268 2.071 255 255 255
-0.571119 0.681568 1.911 255 255 255
-1.09509 0.440574 2.253 255 255 255
0.253363 0.119802 0.835 255 255 255
0.0671504 0.174155 0.835 255 255 255
-0.318024 0.469923 1.923 0 0 0
0.536101 -0.303083 1.158 255 255 255
0.219608 -0.279535 1.509 255 255 255
-0.0299375 -0.217005 1.26 0 0 0
0.332073 -0.943031 2.857 255 255 255
-0.378178 0.0352443 1.13 255 255 255
-0.991349 -0.689882 2.411 0 0 0
0.0105282 0.0101347 1.01 255 255 255
-1.14817 0.332989 2.173 255 255 255
0.166572 0.126748 0.836 255 255 255
-0.371307 0.592627 2.044 255 255 255
-0.695037 -0.516367 2.626 255 255 255
-1.04575 -0.232051 2.166 0 0 0
0.234769 -0.154917 1.239 255 255 255
-0.00685509 -0.0320786 1.171 255 255 255
0.538057 -0.33566 1.104 255 255 255
0.28072 0.381298 1.018 255 255 255
-0.438509 0.696561 1.876 255 255 255
-0.200587 0.0263092 1.066 255 255 255
0.363049 0.14764 0.755 255 255 255
-0.0238787 0.0493357 1.005 255 255 255
-0.769309 0.422376 2.356 0 0 0
0.025494 0.138716 0.851 255 255 255
0.136924 -0.183961 1.416 255 255 255
-0.665968 0.527018 2.278 255 255 255
0.317434 0.18837 0.746 255 255 255
0.301152 0.390102 1.037 0 0 0
-0.195606 -0.151493 1.244 255 255 255
0.533498 -0.28792 1.173 255 255 255
0.2548 -0.39979 1.322 255 255 255
-0.047962 0.0739149 0.963 255 255 255
-0.172396 -0.382056 1.169 0 0 0
-0.61991 0.672229 1.947 255 255 255
-0.189069 -0.201346 1.215 255 255 255
0.147073 0.0901378 0.891 255 255 255
-0.781547 0.700745 1.947 255 255 255
0.0299277 -0.0224897 0.999 255 255 255
-0.344995 0.10963 0.974 255 255 255
-0.190187 -0.0286054 1.185 255 255 255
-1.02665 -0.649655 2.939 0 0 0
-0.289011 -0.117304 1.339 255 255 255
0.551483 -0.239636 1.143 255 255 255
0.00105082 0.536465 1.599 255 255 255
-0.102551 0.109452 0.932 255 255 255
-0.994278 -0.864574 2.672 255 255 255
0.517768 -0.185654 1.203 0 0 0
0.262911 0.181725 0.764 255 255 255
-0.410703 0.135733 0.991 255 255 255
-0.040041 0.0114291 1.139 255 255 255
0.187279 0.00170035 0.896 255 255 255
-0.316706 0.586673 1.587 255 255 255
0.386663 -0.0288872 0.895 255 255 255
0.403671 -0.00807904 0.851 255 255 255
0.419917 -0.0759293 1.018 0 0 0
0.28287 -0.14702 1.104 255 255 255
0.0911477 0.0530493 0.927 255 255 255
0.191293 -0.412342 1.409 255 255 255
0.251501 -0.173111 1.316 0 0 0
-0.165532 0.523454 1.599 255 255 255
0.246421 0.0313102 0.868 255 255 255
-1.02694 -0.489769 2.078 255 255 255
-1.07095 0.597387 2.196 255 255 255
0.429467 -0.308306 1.208 255 255 255
-0.0956198 0.0092141 1.096 255 255 255
0.640588 0.394737 1.31 255 255 255
-1.06185 -0.764049 2.107 255 255 255
-1.01557 -0.954493 2.53 255 255 255
-0.194328 -0.106451 1.262 0 0 0
-0.962619 -0.232929 2.278 255 255 255
0.522349 -0.26231 1.178 255 255 255
0.52632 -0.356572 1.102 255 255 255
0.104655 -0.0349268 0.983 255 255 255
-1.01052 -0.87818 2.269 255 255 255
0.321169 -0.0644566 0.97 255 255 255
0.0691071 -0.128186 1.234 255 255 255
-0.0645412 0.428026 1.612 255 255 255
-0.0798371 0.404768 1.603 255 255 255
0.0677712 0.150771 0.826 255 255 255
-0.159238 -0.161667 1.229 255 255 255
-1.02364 -0.578178 2.092 255 255 255
-1.01705 -0.65474 2.898 0 0 0
-1.07832 -0.252199 2.099 255 255 255
0.119177 0.299708 0.984 255 255 255
-0.965833 -0.792929 2.54 255 255 255
-0.446749 0.106299 1.018 255 255 255
0.430205 -0.0683804 0.981 255 255 255
0.612652 0.405973 1.305 0 0 0
0.427048 -0.11493 1.124 255 255 255
-0.15906 0.0546481 1.044 255 255 255
0.412912 -0.0828232 1.064 0 0 0
0.362634 0.0947722 0.83 255 255 255
-0.870997 -0.715885 2.996 255 255 255
-1.07214 -0.304592 2.107 255 255 255
-0.250114 0.414451 1.696 255 255 255
-0.198749 0.416208 1.659 255 255 255
0.299789 -0.0144186 0.901 255 255 255
-0.343509 0.590597 2.037 255 255 255
0.257446 -0.41694 1.769 255 255 255
0.185436 -0.242232 1.491 255 255 255
0.0969845 -0.254859 1.439 255 255 255
0.319929 0.198878 0.749 0 0 0
-0.911857 0.514266 2.338 255 255 255
-0.0535002 0.0852848 0.95 255 255 255
-0.975957 0.481507 2.383 255 255 255
-0.14435 0.0576011 1.036 255 255 255
0.549025 -0.322452 1.108 0 0 0
-0.233282 0.158647 0.927 255 255 255
0.316176 -0.439537 1.196 255 255 255
0.0181361 0.0559107 0.977 255 255 255
-1.01028 -0.784877 2.204 0 0 0
0.385683 0.00712916 0.848 255 255 255
0.356885 -0.2188 1.122 255 255 255
0.400936 -0.0388177 0.857 255 255 255
0.366985 -0.0756589 1.037 255 255 255
0.520757 0.394022 1.359 255 255 255
0.29046 -0.145422 1.092 255 255 255
-0.162522 0.361218 1.595 255 255 255
-1.07113 0.689339 2.085 255 255 255
0.133611 0.0791552 0.898 255 255 255
0.528102 -0.260393 1.178 255 255 255
-0.173341 0.533863 1.599 255 255 255
-0.189247 -0.171667 1.229 255 255 255
0.312614 0.159874 0.749 255 255 255
0.548978 -0.364523 1.083 255 255 255
0.151457 -0.336859 1.491 255 255 255
0.254803 0.193108 0.785 255 255 255
-0.166055 -0.263557 1.126 0 0 0
-0.103816 0.60121 1.571 255 255 255
-0.0980309 -0.288501 1.145 255 255 255
0.540389 -0.25266 1.087 255 255 255
0.175393 -0.269712 1.509 255 255 255
-0.21661 0.0263586 1.068 255 255 255
0.0435248 -0.387573 1.378 0 0 0
0.43689 -0.331356 1.145 0 0 0
0.521216 0.429395 1.366 0 0 0
0.166359 -0.118489 1.106 255 255 255
0.36486 0.0672774 0.808 255 255 255
0.342974 0.140732 0.785 255 255 255
-0.90868 0.723855 1.941 255 255 255
0.24044 -0.328283 1.616 255 255 255
-1.01403 -0.64477 2.228 0 0 0
-0.592949 0.660292 2.017 255 255 255
0.20011 0.190853 0.781 0 0 0
0.340496 0.0334745 0.928 255 255 255
-0.907289 -0.364528 2.672 255 255 255
0.353596 -0.411861 1.106 255 255 255
-0.19513 -0.0132199 1.037 255 255 255
0.35578 -0.33638 1.239 255 255 255
0.22988 0.163104 0.77 255 255 255
0.289983 -0.185045 1.139 255 255 255
-0.101685 0.105578 0.938 255 255 255
0.109855 0.105107 0.895 255 255 255
-0.478961 0.612629 2.078 255 255 255
0.333196 0.0684081 0.855 255 255 255
0.0677001 0.0926669 0.916 255 255 255
-0.215361 0.461044 1.705 255 255 255
0.421223 -0.387012 1.128 255 255 255
0.029014 0.394667 1.563 255 255 255
-0.142145 0.128231 0.904 255 255 255
-0.943317 -0.88022 2.805 0 0 0
-0.254334 -0.181281 1.254 255 255 255
0.226589 -0.0400788 1.128 255 255 255
0.538657 -0.210045 1.124 255 255 255
-0.283778 0.015083 1.135 255 255 255
0.383578 0.0467891 0.795 255 255 255
-0.0545899 0.120722 0.892 255 255 255
0.345097 0.0481972 0.893 255 255 255
-0.227907 -0.0150656 1.048 255 255 255
0.492926 -0.22347 1.239 255 255 255
0.152454 0.0300354 0.872 255 255 255
-0.711821 0.675398 1.947 255 255 255
-0.354254 0.607119 2.004 255 255 255
0.552445 -0.166441 1.126 255 255 255
-0.982088 -0.372782 2.55 255 255 255
-1.03129 -0.760799 2.925 0 0 0
0.139189 0.136108 0.835 255 255 255
0.396613 -0.315861 1.192 255 255 255
0.327764 -0.420813 1.135 255 255 255
0.135564 -0.0795257 1.09 255 255 255
-1.06882 -0.03039 2.114 255 255 255
-0.935335 -0.543635 2.593 255 255 255
0.248862 -0.44682 1.249 255 255 255
0.205991 0.0484712 0.847 255 255 255
-0.659209 0.446258 2.402 0 0 0
0.31105 -0.974511 2.967 255 255 255
-1.14237 0.424496 2.189 255 255 255
-0.441615 0.0080814 1.192 255 255 255
0.399533 -0.0150562 0.854 255 255 255
0.256343 -0.35605 1.48 0 0 0
-0.0418176 0.1655 0.868 255 255 255
-0.355985 0.563383 2.071 255 255 255
0.279489 -0.146276 1.112 255 255 255
0.288067 -0.228819 1.083 255 255 255
0.453813 -0.289126 1.21 255 255 255
0.239922 -0.0129668 0.902 255 255 255
-0.991473 -0.864133 2.383 255 255 255
-1.04234 0.0112373 2.181 255 255 255
0.150272 -0.409511 1.456 255 255 255
0.161265 0.184053 0.79 255 255 255
0.32506 -0.426384 1.145 255 255 255
0.135017 0.36905 1.1 255 255 255
-0.254221 -0.269817 1.169 0 0 0
0.360417 -0.364935 1.169 255 255 255
0.501065 -0.330693 1.13 0 0 0
0.0236199 0.0860995 0.942 255 255 255
-0.531842 0.665968 1.985 255 255 255
-0.325507 0.598028 1.543 255 255 255
0.117111 0.424542 1.1 0 0 0
0.440113 -0.3788 1.12 255 255 255
-1.00293 -0.668829 2.42 0 0 0
-1.00668 -0.540449 2.173 0 0 0
0.340743 -0.36067 1.305 255 255 255
-0.128937 -0.293661 1.122 0 0 0
0.301126 -0.191834 1.327 0 0 0
-0.144346 0.119759 0.918 255 255 255
-0.0361142 0.111801 0.902 255 255 255
-0.205617 -0.0313231 1.022 255 255 255
-0.0685337 0.58777 1.583 255 255 255
0.165777 0.162863 0.787 255 255 255
0.292884 -0.0494729 0.955 255 255 255
-0.830728 -0.108062 2.303 255 255 255
-1.0172 -0.546416 2.114 0 0 0
-0.829983 -0.573887 2.871 255 255 255
-0.1111 -0.0324621 1.185 255 255 255
-0.153216 -0.195093 1.213 0 0 0
-1.11689 0.362608 2.181 255 255 255
0.228017 -0.0812442 1.066 255 255 255
-0.940579 -0.53462 2.55 255 255 255
0.284876 -0.387996 1.283 255 255 255
0.510821 0.403757 1.362 0 0 0
0.342719 0.0528547 0.851 255 255 255
-0.606538 0.725929 1.905 255 255 255
-1.03725 -0.0221106 2.329 255 255 255
-0.268328 -0.317451 1.198 0 0 0
-0.455149 0.0250037 1.167 255 255 255
-0.100892 -0.0614666 1.225 255 255 255
0.048179 0.144433 0.836 255 255 255
-1.08131 -0.270875 2.085 255 255 255
0.536681 -0.243552 1.18 255 255 255
0.429941 -0.38678 1.122 255 255 255
-0.238706 -0.172152 1.247 255 255 255
0.626948 0.448316 1.257 255 255 255
-0.331593 0.606933 1.911 255 255 255
-0.384023 0.516598 2.114 255 255 255
-0.119134 -0.107387 1.249 0 0 0
-1.02125 -0.725846 2.844 0 0 0
-0.883685 -0.932157 2.925 255 255 255
-0.984879 -0.271664 2.261 255 255 255
-0.554241 0.59032 2.107 255 255 255
0.499963 0.465573 1.381 0 0 0
0.0871417 0.242061 0.984 255 255 255
-0.160052 -0.219298 1.205 255 255 255
-0.0202327 -0.0302245 1.173 255 255 255
-0.862382 0.510461 2.338 255 255 255
0.153503 0.101682 0.878 255 255 255
0.153884 -0.295611 1.491 255 255 255
0.306475 -0.399366 1.286 255 255 255
0.269835 -0.395729 1.281 255 255 255
-1.13543 0.506568 2.253 255 255 255
0.294184 0.30447 1.106 0 0 0
0.0952005 -0.076682 1.075 0 0 0
-0.0257839 -0.295436 1.165 0 0 0
0.416248 -0.215315 1.227 0 0 0
-0.438777 0.654057 1.959 255 255 255
-0.971588 0.713982 1.966 255 255 255
-1.00676 -0.392735 2.158 255 255 255
0.305929 -0.250711 1.275 0 0 0
-0.180309 0.0716504 1.02 255 255 255
0.36582 0.182815 0.724 255 255 255
-0.26264 0.322063 1.62 255 255 255
0.265961 -0.465551 1.234 255 255 255
0.515781 -0.322874 1.122 0 0 0
-0.305039 -0.0909647 1.305 0 0 0
0.550729 0.403757 1.362 0 0 0
0.288224 -0.204767 1.077 255 255 255
-1.02661 0.693471 2.057 255 255 255
0.339145 0.17839 0.73 255 255 255
-0.171553 -0.256228 1.126 255 255 255
0.449084 -0.309237 1.167 255 255 255
0.482449 -0.282165 1.165 255 255 255
0.254145 0.139341 0.799 255 255 255
0.0189343 -0.0627995 1.02 255 255 255
0.3464 -0.377153 1.154 255 255 255
0.484155 -0.31682 1.16 255 255 255
-1.11709 0.462572 2.253 255 255 255
0.288337 -0.203644 1.348 0 0 0
-1.00677 -0.234223 2.22 0 0 0
0.300382 -0.33731 1.305 255 255 255
-1.04741 -0.113048 2.253 255 255 255
-0.0229238 0.00576035 1.118 255 255 255
-0.389548 -0.0290882 1.205 255 255 255
-0.0259789 -0.20584 1.267 0 0 0
-0.0677363 -0.00539096 1.169 255 255 255
0.531911 -0.387041 1.077 255 255 255
-0.389525 -0.00933725 1.187 255 255 255
0.400723 0.0604828 0.788 255 255 255
0.168995 -0.0249603 1.034 255 255 255
-0.998373 -0.71346 2.743 0 0 0
-0.0613378 -0.28751 1.156 0 0 0
-0.106379 0.10569 0.939 255 255 255
-0.986854 -0.556461 2.499 255 255 255
0.304487 -0.478454 1.252 255 255 255
0.350089 -0.375339 1.16 255 255 255
-0.331693 0.117794 0.963 255 255 255
0.0461665 -0.352494 1.39 0 0 0
0.607633 0.393875 1.336 0 0 0
-0.756112 -0.661117 2.805 0 0 0
-0.326311 0.120677 0.961 255 255 255
-1.10979 0.628799 2.181 255 255 255
0.372053 -0.213402 1.152 0 0 0
-0.134126 0.101705 0.974 255 255 255
-0.182227 -0.257602 1.124 255 255 255
-0.0763917 -0.31949 1.156 0 0 0
-0.0939802 -0.21878 1.213 255 255 255
-0.186122 0.57711 1.575 255 255 255
0.382354 -0.0136985 0.856 255 255 255
0.268678 0.390442 1.029 255 255 255
0.22217 -0.0338976 1.106 255 255 255
0.144087 -0.16667 1.333 255 255 255
0.333538 0.161229 0.744 255 255 255
0.177767 -0.0592937 1.046 255 255 255
-0.391495 0.0877778 1.034 255 255 255
0.450377 -0.0966558 1.027 255 255 255
-0.495305 0.508197 2.244 255 255 255
0.452346 -0.351244 1.137 255 255 255
0.432227 -0.271224 1.227 255 255 255
0.416905 -0.0491469 0.867 0 0 0
-0.225714 -0.200518 1.21 255 255 255
-0.0443761 0.122037 0.891 255 255 255
-0.13182 -0.0562127 1.198 0 0 0
0.133417 0.396365 1.132 0 0 0
-0.991473 -0.356125 2.383 255 255 255
-0.330355 0.459593 1.959 0 0 0
0.323707 -0.404191 1.167 255 255 255
-1.02661 -0.661489 2.024 255 255 255
0.272148 0.109394 0.86 255 255 255
0.123003 0.150301 0.809 255 255 255
-0.0929158 -0.179082 1.225 255 255 255
0.508442 0.493241 1.278 255 255 255
0.320429 -0.425151 1.162 255 255 255
-0.108532 -0.127201 1.244 255 255 255
-0.142345 0.135844 0.896 255 255 255
-0.418524 0.114412 1.002 255 255 255
0.00303902 -0.216075 1.33 0 0 0
0.186983 -0.181303 1.345 255 255 255
-0.306995 -0.146936 1.351 255 255 255
-0.991593 -0.451362 2.374 255 255 255
-0.047524 0.138822 0.869 255 255 255
0.000747205 -0.00894394 1.137 255 255 255
0.32922 -0.110943 1.085 255 255 255
-0.170857 0.137664 0.908 255 255 255
-0.322118 0.0291489 1.108 255 255 255
-0.91036 -0.386924 2.707 255 255 255
0.0773395 -0.365943 1.381 0 0 0
-0.375618 0.087608 1.032 255 255 255
-0.418755 0.53614 2.151 255 255 255
0.391141 -0.0473506 0.86 255 255 255
0.115402 -0.212117 1.435 255 255 255
-0.440743 0.0970283 1.043 255 255 255
-0.114937 -0.217338 1.205 0 0 0
-0.940468 -0.532759 2.561 255 255 255
0.637567 0.442619 1.27 255 255 255
-0.0228418 0.00936543 1.114 255 255 255
0.44587 -0.077687 0.921 255 255 255
-1.04575 -0.249675 2.166 0 0 0
0.0763986 -0.0244785 0.95 255 255 255
0.30233 -0.465108 1.26 255 255 255
0.0269691 -0.0260245 1.01 255 255 255
0.351952 0.201318 0.727 0 0 0
0.453875 -0.381384 1.096 255 255 255
0.384965 -0.417033 1.073 255 255 255
-0.0997202 -0.293577 1.143 255 255 255
0.119133 -0.245347 1.452 0 0 0
-0.15417 0.0659032 1.034 255 255 255
-1.00326 0.663353 2.078 255 255 255
-0.0673539 -0.0444412 1.196 255 255 255
0.296415 -0.0823125 1.015 0 0 0
-0.900346 -0.836098 2.857 255 255 255
-0.00929037 0.400728 1.587 255 255 255
-0.296339 0.575597 1.724 255 255 255
-0.136112 -0.140576 1.237 255 255 255
0.205938 0.159939 0.779 255 255 255
0.421196 -0.0025038 0.839 0 0 0
0.249241 -0.236125 1.439 0 0 0
-0.0304423 0.108111 0.908 255 255 255
-1.02365 -0.515213 2.099 255 255 255
-0.992397 -0.197375 2.253 255 255 255
0.344371 0.0532238 0.88 255 255 255
-0.488879 0.0510608 1.114 255 255 255
0.368941 -0.320734 1.203 0 0 0
0.010896 0.571799 1.52 255 255 255
-1.0337 -0.567545 2.078 255 255 255
0.304939 -0.180462 1.068 255 255 255
0.195716 -0.232746 1.477 255 255 255
-0.333317 -0.0810236 1.316 255 255 255
-0.354477 0.615077 1.917 255 255 255
0.0964498 0.0825916 0.92 255 255 255
-0.062399 -0.0130782 1.176 255 255 255
-0.979063 -0.279447 2.459 255 255 255
0.29785 -0.349207 1.294 255 255 255
0.0483246 -0.396875 1.387 0 0 0
-0.921039 -0.348458 2.649 255 255 255
-0.160271 -0.297842 1.124 255 255 255
-0.236388 0.0215208 1.087 0 0 0
0.337743 -0.046122 0.95 255 255 255
-0.0528244 0.0918397 0.938 255 255 255
-0.462295 0.61522 2.064 255 255 255
-0.677164 0.672391 1.966 255 255 255
-0.0427411 -0.0167044 1.162 255 255 255
-0.866439 0.454075 2.402 255 255 255
0.272695 -0.234784 1.403 0 0 0
0.247715 -0.437548 1.366 0 0 0
-0.117518 0.101275 0.955 255 255 255
-0.159992 -0.315533 1.135 255 255 255
-0.9446 0.452185 2.392 255 255 255
0.062544 0.149788 0.828 255 255 255
