ply
format ascii 1.0
comment Created by Open3D
element vertex 1335
property double x
property double y
property double z
property uchar red
property uchar green
property uchar blue
end_header
0.382541 0.406432 1.254 255 255 255
-0.396148 0.597393 1.616 255 255 255
-0.176051 0.0187888 1.034 255 255 255
-0.722816 0.586208 2.181 255 255 255
0.0871947 -0.447702 1.513 255 255 255
-0.0326006 -0.380733 1.473 255 255 255
0.12854 -0.489355 1.286 255 255 255
-1.2049 0.563727 2.338 255 255 255
0.0215238 -0.0385929 0.918 255 255 255
0.363951 -0.107611 0.872 255 255 255
0.293057 -0.140745 0.912 255 255 255
0.404046 0.438948 1.147 255 255 255
-0.633126 0.580034 2.107 255 255 255
-0.772247 0.450929 2.365 255 255 255
0.194961 0.0402011 0.847 255 255 255
0.178805 -0.359732 1.333 0 0 0
0.0280832 0.399454 1.12 255 255 255
0.247465 0.0803834 0.782 255 255 255
0.392327 -0.0750094 0.797 255 255 255
0.70377 -0.426357 1.629 0 0 0
0.100445 -0.263188 1.094 255 255 255
0.120206 -0.0693657 0.93 255 255 255
-0.0310999 0.335235 1.225 0 0 0
-0.358823 0.599222 1.65 0 0 0
-0.215901 -0.258383 1.359 0 0 0
-0.155469 -0.487701 1.456 255 255 255
0.225358 0.049261 0.837 255 255 255
-0.148513 -0.143381 1.132 255 255 255
-0.232279 -0.336534 1.302 255 255 255
-0.898645 0.410491 2.469 255 255 255
-0.334375 0.104837 1.004 255 255 255
-0.437734 -0.0307141 1.192 255 255 255
0.47441 0.445061 1.178 0 0 0
-0.198106 -0.0619289 1.062 255 255 255
0.269062 0.397934 1.396 255 255 255
0.210783 -0.427116 1.152 255 255 255
-0.0227909 -0.403232 1.459 0 0 0
0.60287 -0.457763 1.547 255 255 255
-0.220353 0.518798 1.659 0 0 0
0.0383634 0.218222 1.007 0 0 0
0.293932 -0.248853 1.225 0 0 0
-0.302089 -0.500806 1.339 0 0 0
-0.0346103 -0.11624 1.085 255 255 255
0.239139 -0.289678 1.273 255 255 255
0.165925 0.0728087 0.826 255 255 255
0.0740061 0.117499 0.792 255 255 255
0.17432 0.053156 0.834 255 255 255
0.240241 -0.256047 1.313 255 255 255
-0.651882 0.627061 2.037 255 255 255
0.0885071 -0.223675 1.147 0 0 0
0.279326 -0.37029 1.205 255 255 255
-0.861712 0.299467 2.55 0 0 0
-0.265268 -0.373665 1.229 255 255 255
-0.586629 -0.0993707 1.362 255 255 255
0.00986933 -0.118378 1.122 255 255 255
0.322905 0.13803 0.667 255 255 255
0.334416 -0.283825 1.015 255 255 255
-0.234924 0.0792675 0.952 255 255 255
0.338413 0.0749991 0.766 255 255 255
-1.15743 -0.358695 2.253 255 255 255
-0.558365 -0.189232 1.494 0 0 0
-1.20584 0.46523 2.44 255 255 255
0.452688 0.444611 1.152 0 0 0
-0.339902 -0.15906 1.342 0 0 0
-0.802855 0.565225 2.196 255 255 255
0.580879 0.367864 1.135 0 0 0
0.0681923 0.355711 1.12 255 255 255
-0.0765081 0.348016 1.187 0 0 0
0.363248 -0.0756542 0.952 0 0 0
0.0458533 0.00649495 0.958 255 255 255
0.102363 -0.0706336 0.947 255 255 255
0.214895 0.0391894 0.855 255 255 255
0.139441 0.239601 1.167 255 255 255
0.344077 -0.375631 1.116 0 0 0
-1.08168 -0.674819 2.196 255 255 255
-0.844775 0.585701 2.166 255 255 255
1.1437 -1.0081 2.719 255 255 255
-0.371254 -0.184538 1.369 0 0 0
-1.22323 0.444843 2.459 0 0 0
0.506185 0.372059 1.262 255 255 255
-0.0305922 -0.211455 1.205 255 255 255
0.205866 -0.283873 1.354 0 0 0
-0.0370407 -0.505326 1.459 0 0 0
0.554278 0.366779 1.126 255 255 255
-0.604402 0.444586 2.312 255 255 255
-0.00627174 -0.296638 1.484 255 255 255
-0.0835549 0.476259 1.234 0 0 0
0.466233 -0.320046 1.254 255 255 255
-0.0112771 0.0625798 0.912 255 255 255
-0.712181 0.431094 2.383 255 255 255
-0.198479 -0.0343419 1.064 255 255 255
-1.09194 -0.0235346 2.479 255 255 255
-0.251393 -0.267054 1.336 255 255 255
-1.06461 -0.781496 2.356 255 255 255
-0.721329 0.684903 1.947 255 255 255
-0.602102 -0.102333 1.372 0 0 0
0.189072 -0.392406 1.257 255 255 255
-0.509846 0.468553 2.212 255 255 255
-0.386689 0.00948313 1.128 255 255 255
-0.9835 0.475394 2.411 255 255 255
-1.07452 -0.111405 2.085 255 255 255
0.469776 0.438564 1.176 0 0 0
-0.0546022 0.404995 1.173 0 0 0
-0.152598 -0.0400491 0.991 255 255 255
-0.528747 0.325399 2.294 0 0 0
0.202535 -0.391028 1.227 0 0 0
-0.969103 -0.881209 2.593 0 0 0
0.383146 -0.112155 0.897 255 255 255
-0.560421 0.555533 2.03 255 255 255
0.376465 -0.0521905 0.895 255 255 255
0.136607 0.328144 1.192 0 0 0
-0.51169 0.459409 2.22 255 255 255
0.281686 0.439249 1.369 255 255 255
-1.13898 -0.399565 2.32 255 255 255
0.228131 -0.308176 1.281 255 255 255
0.284461 -0.140899 0.913 255 255 255
0.321479 0.00749907 0.892 255 255 255
0.0638925 0.00334174 0.948 255 255 255
-1.2661 0.427092 2.449 255 255 255
-1.08714 0.452846 2.459 255 255 255
-1.10257 0.531523 2.347 255 255 255
-1.10107 -0.535999 2.228 255 255 255
0.432074 -0.175983 0.95 255 255 255
-0.991072 -0.875686 2.459 255 255 255
-1.10441 -0.787565 2.143 255 255 255
0.0112583 0.132812 0.823 255 255 255
0.242487 0.166101 0.708 255 255 255
0.00302074 -0.242743 1.322 255 255 255
-0.222517 -0.0284982 1.106 255 255 255
-1.21073 0.582039 2.32 255 255 255
0.143715 0.138487 0.752 255 255 255
0.336354 0.133199 0.67 255 255 255
-0.18803 0.532537 1.528 255 255 255
-0.258011 -0.129041 1.262 255 255 255
0.277751 -0.124635 0.984 0 0 0
0.26758 0.432233 1.354 255 255 255
-1.28161 0.387948 2.479 255 255 255
0.0133086 -0.391072 1.513 255 255 255
0.11597 0.138222 0.771 255 255 255
0.21499 -0.163006 1.079 0 0 0
0.195876 -0.0423994 0.845 255 255 255
-0.365865 -0.0281708 1.167 255 255 255
0.0392311 0.394264 1.126 255 255 255
-1.02345 -0.409243 2.519 255 255 255
0.0453662 0.235284 1.017 0 0 0
-0.613572 0.615198 1.947 255 255 255
-0.0383325 0.00324304 0.92 255 255 255
0.353404 -0.0922122 0.874 255 255 255
-0.892183 0.608873 2.136 255 255 255
-0.21912 0.0862824 0.944 255 255 255
-0.0701609 -0.0388872 0.925 255 255 255
-1.14447 -0.129832 2.166 255 255 255
-0.300447 0.582618 1.583 255 255 255
-0.128254 -0.36038 1.498 255 255 255
0.33247 0.102501 0.731 255 255 255
0.322017 -0.25464 1.196 0 0 0
0.0585005 0.148441 0.828 255 255 255
-0.528747 0.332865 2.294 0 0 0
0.17188 -0.0326574 0.842 255 255 255
0.0871947 -0.35414 1.513 255 255 255
0.57229 0.355005 1.305 0 0 0
0.485454 -0.344363 0.967 255 255 255
-0.28464 -0.044627 1.201 255 255 255
-0.762728 0.552937 2.204 255 255 255
0.300035 -0.00557136 0.893 0 0 0
-1.08494 0.691653 2.092 255 255 255
0.107076 -0.244264 1.089 255 255 255
-0.0397002 0.00472472 0.917 255 255 255
0.459608 -0.450847 1.16 255 255 255
0.00944415 0.057745 0.906 255 255 255
0.138729 -0.259735 1.087 255 255 255
-0.759368 0.502781 2.269 255 255 255
0.188356 0.0934663 0.785 255 255 255
0.162793 0.331891 1.171 255 255 255
0.359975 -0.385653 1.098 0 0 0
0.23585 -0.278636 1.289 0 0 0
-0.986393 0.655467 2.107 255 255 255
-0.795298 0.349263 2.55 255 255 255
-0.0927227 0.195919 1.083 255 255 255
0.0630589 0.392432 1.126 255 255 255
-0.0343649 -0.0781194 1.025 255 255 255
0.396599 -0.110299 0.918 255 255 255
0.109535 -0.215427 1.114 255 255 255
-0.199225 -0.27972 1.366 0 0 0
0.26478 -0.279901 1.257 255 255 255
0.328183 -0.357114 1.156 255 255 255
-0.244044 -0.080604 1.213 255 255 255
0.0795453 0.0989569 0.809 255 255 255
0.161712 0.00564071 0.832 255 255 255
-0.231573 -0.317284 1.31 255 255 255
-0.761827 0.404007 2.43 255 255 255
-0.222433 -0.236295 1.372 0 0 0
-0.0596966 -0.307743 1.491 0 0 0
0.500993 0.333678 1.313 255 255 255
-0.374085 -0.294457 1.294 0 0 0
0.0686138 -0.335278 1.484 255 255 255
-0.978718 -0.727263 2.499 255 255 255
0.480732 -0.243015 1.024 255 255 255
0.281526 0.0212991 0.863 255 255 255
0.0674397 -0.481129 1.409 255 255 255
0.214254 0.276116 1.237 255 255 255
-0.258188 -0.146739 1.273 0 0 0
0.0321837 0.000262004 0.969 255 255 255
-0.35674 -0.0699507 1.234 255 255 255
0.187882 0.294472 1.291 0 0 0
-0.25519 0.0277546 1.055 255 255 255
0.163772 0.409615 1.192 0 0 0
-1.08962 -0.137489 2.121 255 255 255
-0.000900747 -0.0541149 0.928 255 255 255
0.34064 0.131409 0.672 255 255 255
-0.446737 0.000320407 1.185 255 255 255
-0.00276993 -0.0985915 1.066 255 255 255
0.0875908 -0.0789181 0.954 255 255 255
0.0530953 0.0585657 0.896 255 255 255
0.436087 -0.283219 1.21 0 0 0
-0.584357 0.49038 2.181 255 255 255
0.472479 -0.256249 1.017 255 255 255
-0.136692 -0.137093 1.141 255 255 255
0.409541 -0.124958 0.927 255 255 255
-0.0682679 0.115393 0.863 255 255 255
0.206134 -0.443928 1.147 255 255 255
0.236188 -0.439187 1.13 255 255 255
-1.06888 -0.289104 2.374 255 255 255
0.308679 0.000242536 0.897 255 255 255
0.280703 -0.29759 1.237 255 255 255
0.192957 0.16255 0.739 255 255 255
0.0419064 -0.171548 1.1 255 255 255
-0.042925 0.351648 1.167 255 255 255
0.245492 0.424949 1.366 0 0 0
0.210623 0.0458224 0.849 255 255 255
0.618316 -0.42288 1.567 0 0 0
0.00970475 0.0396428 0.931 255 255 255
-1.2229 0.483241 2.411 255 255 255
-0.272513 0.542168 1.616 255 255 255
0.281521 -0.122101 0.964 0 0 0
0.0777181 0.36547 1.1 255 255 255
0.13541 0.263836 1.165 255 255 255
-0.268766 -0.460812 1.294 0 0 0
-0.0874326 0.112339 0.872 255 255 255
0.127716 0.276559 1.147 255 255 255
-0.397955 0.460831 1.978 255 255 255
0.148796 -0.0644961 0.884 255 255 255
0.465578 -0.373363 1.215 255 255 255
0.221006 -0.290234 1.313 255 255 255
0.36417 0.418676 1.254 255 255 255
0.318101 0.117544 0.707 255 255 255
-0.208365 -0.337382 1.339 0 0 0
0.0936245 -0.155693 1.077 255 255 255
0.478564 0.405828 1.198 255 255 255
-0.819432 0.736741 1.917 255 255 255
-0.090788 0.0930377 0.891 255 255 255
0.0136185 0.403021 1.13 255 255 255
-1.03805 0.495003 2.392 255 255 255
-0.0371623 0.423087 1.165 255 255 255
0.209343 -0.29139 1.348 0 0 0
0.143687 -0.0561175 0.888 255 255 255
-0.246269 -0.431958 1.265 0 0 0
0.414261 0.423254 1.176 255 255 255
-0.823977 0.727915 1.935 255 255 255
-1.09866 0.271664 2.449 255 255 255
-0.10354 0.0896832 0.901 255 255 255
-0.596495 0.0765706 1.143 255 255 255
0.395926 -0.278104 1.156 0 0 0
0.221702 -0.313471 1.33 255 255 255
0.431099 -0.187758 1.041 0 0 0
-0.0752322 -0.0915205 1.085 255 255 255
-1.03081 -0.371057 2.43 0 0 0
-0.245482 -0.00327076 1.096 255 255 255
-0.220464 -0.00678172 1.087 255 255 255
-0.119 0.0449189 0.98 255 255 255
0.209942 0.153995 0.727 255 255 255
-0.474316 0.542835 1.65 255 255 255
0.254341 -0.16876 1.06 255 255 255
0.131766 -0.198007 1.118 255 255 255
0.116962 0.364582 1.066 255 255 255
-0.277153 -0.256037 1.324 0 0 0
-0.481768 0.0380954 1.106 255 255 255
0.298199 -0.0873384 0.928 0 0 0
-0.292613 -0.280365 1.297 0 0 0
-0.20675 0.458016 1.616 0 0 0
0.0421099 -0.0734823 0.944 255 255 255
-0.715617 0.468383 2.356 255 255 255
-0.145287 -0.393394 1.449 255 255 255
0.177099 0.115832 0.764 255 255 255
0.205514 0.474292 1.283 255 255 255
0.431662 -0.24886 1.187 255 255 255
-0.837478 0.422035 2.42 255 255 255
-0.365791 -0.152005 1.357 255 255 255
-0.422107 -0.252924 1.319 255 255 255
-0.361974 -0.149134 1.351 255 255 255
-0.321871 -0.142803 1.313 0 0 0
-0.0748339 0.0915878 0.891 255 255 255
-1.14634 0.572508 2.312 255 255 255
0.498971 -0.302893 1.234 255 255 255
0.46451 -0.350295 0.966 255 255 255
-0.0844844 -0.0848726 1.068 255 255 255
-0.197857 -0.213428 1.327 0 0 0
-0.1754 0.539216 1.505 0 0 0
0.337442 0.124304 0.681 255 255 255
-0.245263 -0.377665 1.229 255 255 255
-0.382615 -0.233195 1.354 255 255 255
0.416302 -0.0755815 0.932 255 255 255
0.322464 0.115569 0.709 255 255 255
-0.263056 -0.474544 1.297 0 0 0
0.288651 0.463326 1.381 255 255 255
-0.0135825 -0.346565 1.491 255 255 255
-0.00578965 0.2449 0.989 0 0 0
0.403649 0.0429228 0.82 255 255 255
-0.569846 -0.109269 1.375 255 255 255
0.230418 0.0324588 0.861 255 255 255
0.179681 -0.16925 1.145 255 255 255
-0.501186 0.557176 1.677 255 255 255
-0.269154 -0.0889511 1.247 255 255 255
0.0842662 -0.51088 1.384 0 0 0
0.401423 0.354189 1.302 0 0 0
-0.308646 0.00576035 1.118 255 255 255
-0.905007 0.4597 2.411 255 255 255
-0.0407793 0.408057 1.16 0 0 0
0.39021 0.368671 1.286 255 255 255
-0.120718 -0.047627 0.981 255 255 255
0.523004 0.355979 1.278 0 0 0
-0.229274 -0.133349 1.208 0 0 0
-1.01869 -0.692457 2.42 0 0 0
-0.620225 0.00428293 1.215 255 255 255
-0.44275 0.0710103 1.06 255 255 255
0.302602 -0.130427 0.923 255 255 255
0.409063 0.0137478 0.831 0 0 0
-1.04696 0.46523 2.44 255 255 255
-1.07429 -0.723448 2.181 255 255 255
0.270178 -0.419309 1.126 255 255 255
-0.132262 -0.317837 1.516 0 0 0
-0.00237237 0.0537339 0.913 255 255 255
-0.313056 -0.396445 1.244 255 255 255
-0.397306 -0.341665 1.229 0 0 0
0.185272 -0.16366 1.145 0 0 0
-0.872971 -0.304428 2.286 255 255 255
0.316687 0.428881 1.26 255 255 255
0.109749 0.254023 1.098 0 0 0
0.345138 0.433131 1.237 255 255 255
0.00343889 -0.337573 1.505 0 0 0
-0.0220365 0.0906361 0.868 255 255 255
-0.290313 -0.0663619 1.242 255 255 255
-1.06953 -0.554977 2.261 255 255 255
-0.413065 0.0785834 1.046 255 255 255
0.176249 0.0938235 0.788 255 255 255
-1.03619 0.709527 2.017 255 255 255
0.244121 0.0740504 0.796 255 255 255
0.153961 -0.0315473 0.849 255 255 255
-0.432734 0.483758 1.789 255 255 255
-1.09316 0.377811 2.519 255 255 255
0.364468 0.07047 0.771 255 255 255
-0.783989 0.476328 2.32 255 255 255
-0.0403394 0.0776939 0.898 255 255 255
0.0255332 0.298018 1.089 255 255 255
-0.3753 -0.385665 1.229 0 0 0
0.11736 -0.0959278 0.969 255 255 255
-0.542809 -0.0713844 1.336 255 255 255
-1.11028 -0.649804 2.196 255 255 255
-0.300906 -0.0664687 1.244 255 255 255
-0.388127 -0.271004 1.313 255 255 255
-0.923193 0.728997 1.972 255 255 255
0.316643 0.0938043 0.747 255 255 255
0.0496109 -0.155115 1.073 255 255 255
0.298116 -0.188416 1.094 255 255 255
-0.827366 0.680261 2.078 255 255 255
-1.16286 -0.492422 2.278 255 255 255
0.328007 -0.3445 1.081 255 255 255
0.495923 -0.346652 0.969 255 255 255
-1.30582 0.254822 2.479 255 255 255
0.561201 0.385081 1.299 0 0 0
-0.0177297 -0.160384 1.135 255 255 255
-0.178029 0.0750489 0.938 255 255 255
-0.165705 -0.509154 1.484 255 255 255
-0.711447 0.377362 2.489 255 255 255
-0.428504 0.602199 1.629 0 0 0
0.657689 -0.492545 1.62 0 0 0
-0.254104 0.119733 0.966 255 255 255
0.151723 0.389738 1.145 0 0 0
0.218891 0.0568159 0.828 255 255 255
-0.454659 0.460119 2.189 255 255 255
0.020095 0.0467109 0.921 255 255 255
0.307541 0.311395 1.375 255 255 255
0.111675 0.0339779 0.864 255 255 255
0.518091 0.335814 1.313 255 255 255
0.194744 0.488059 1.254 255 255 255
0.402393 -0.142134 0.921 255 255 255
0.390617 -0.190412 1.037 255 255 255
-0.36508 -0.456399 1.27 0 0 0
0.369599 -0.0315869 0.889 255 255 255
-0.932756 -0.478789 2.54 255 255 255
0.0152031 0.117506 0.819 255 255 255
0.54878 0.366779 1.126 255 255 255
0.471873 -0.267112 0.978 0 0 0
-0.212724 -0.302518 1.339 255 255 255
0.0595234 0.199592 0.928 255 255 255
-0.064097 -0.178562 1.208 255 255 255
0.447475 -0.29869 1.225 0 0 0
0.286283 0.0854151 0.77 255 255 255
-0.215385 -0.292276 1.342 255 255 255
0.170418 0.152969 0.751 255 255 255
-0.205407 0.0106766 1.064 255 255 255
0.166745 -0.057044 0.88 255 255 255
0.274452 0.0449589 0.833 255 255 255
0.309765 -0.218521 1.13 0 0 0
-0.0569873 -0.140341 1.108 255 255 255
0.383484 -0.088206 0.891 255 255 255
-0.935033 -0.715622 2.459 255 255 255
-0.146669 -0.0775097 1.017 255 255 255
0.0940975 -0.0449045 0.957 255 255 255
0.0880224 -0.0288712 0.942 255 255 255
0.251367 0.0592232 0.824 255 255 255
-0.104172 -0.263491 1.435 0 0 0
0.435334 -0.156934 0.947 255 255 255
-0.0838821 0.386944 1.182 0 0 0
0.388874 -0.212171 1.079 255 255 255
0.325325 0.133597 0.672 255 255 255
0.295343 -0.00846828 0.892 0 0 0
0.223239 0.108467 0.756 255 255 255
0.287956 -0.18876 1.096 0 0 0
0.105953 -0.404253 1.535 0 0 0
0.193695 -0.0899589 0.866 0 0 0
-0.0417906 -0.521945 1.459 255 255 255
-0.34713 0.000310673 1.149 255 255 255
0.0109452 0.207036 1.05 255 255 255
-0.25332 -0.349258 1.249 0 0 0
-1.0699 -0.334087 2.42 255 255 255
0.0592745 0.133339 0.802 255 255 255
0.116369 -0.167689 1.11 255 255 255
0.206793 -0.344889 1.278 0 0 0
0.400372 -0.0221345 0.808 255 255 255
-0.970885 -0.854569 2.479 0 0 0
0.118029 0.381505 1.06 255 255 255
0.0390088 0.1355 0.815 255 255 255
-0.153733 -0.412582 1.357 0 0 0
0.151589 0.0532059 0.814 255 255 255
0.348368 -0.187657 1.022 0 0 0
0.0777658 -0.0217693 0.967 0 0 0
0.202273 -0.0299525 0.843 255 255 255
-0.349911 0.000311484 1.152 255 255 255
0.0742019 0.414893 1.075 0 0 0
-0.0743201 -0.420526 1.445 255 255 255
0.507816 -0.23752 1.198 255 255 255
-0.456003 0.0359674 1.096 255 255 255
0.361154 -0.170689 1.03 0 0 0
0.306447 0.465044 1.322 255 255 255
0.366427 0.446486 1.152 255 255 255
0.588009 0.368415 1.16 255 255 255
0.107974 -0.449373 1.316 255 255 255
0.220861 0.128618 0.724 255 255 255
0.304283 -0.407932 1.11 255 255 255
-0.251001 0.0631626 0.991 255 255 255
-0.0504468 -0.45965 1.435 0 0 0
-0.293891 -0.341728 1.215 0 0 0
-0.402639 -0.30638 1.291 255 255 255
-0.388661 -0.0262718 1.167 255 255 255
-0.202487 0.534281 1.624 0 0 0
0.295695 0.469618 1.393 255 255 255
-0.200459 -0.391941 1.249 255 255 255
-0.0544092 0.0491519 0.939 255 255 255
-0.102153 -0.0888213 1.053 255 255 255
0.00590676 0.111519 0.824 255 255 255
0.199391 -0.113742 0.898 255 255 255
0.192984 0.140375 0.73 255 255 255
0.166639 -0.131687 1.096 0 0 0
-0.226063 -0.104491 1.171 255 255 255
-0.0448246 -0.187695 1.167 255 255 255
-0.0307105 -0.0250931 0.916 0 0 0
0.0790937 -0.0499392 0.964 255 255 255
0.301695 -0.335219 1.185 255 255 255
0.0552021 -0.473566 1.449 255 255 255
0.295975 -0.245248 1.217 0 0 0
-0.071904 -0.0773464 1.037 255 255 255
-1.16011 -0.364566 2.244 255 255 255
-0.504016 0.613531 1.583 255 255 255
-1.07228 -0.497781 2.356 255 255 255
0.333365 -0.0963207 0.942 0 0 0
-0.982372 -0.507723 2.54 255 255 255
-0.374085 -0.296563 1.294 255 255 255
0.0868599 -0.373131 1.551 255 255 255
-0.427292 -0.170856 1.422 255 255 255
0.390531 0.366753 1.294 255 255 255
0.141856 0.0210029 0.851 255 255 255
-0.377301 -0.383665 1.229 0 0 0
-1.19543 0.483241 2.411 255 255 255
0.557351 0.380193 1.096 255 255 255
0.0296281 0.223978 0.989 255 255 255
0.215585 -0.0209773 0.869 255 255 255
-0.450588 -0.137847 1.327 255 255 255
-0.191584 -0.2659 1.375 0 0 0
-1.13368 -0.368956 2.294 255 255 255
-0.341864 0.0883224 1.002 255 255 255
-1.059 -0.783329 2.294 0 0 0
0.235141 -0.376885 1.22 255 255 255
-0.484089 0.0848879 1.083 255 255 255
-0.581082 -0.0737237 1.339 255 255 255
-0.0349684 0.249786 1.043 255 255 255
-0.411206 0.539919 1.7 255 255 255
-0.206921 -0.368641 1.239 0 0 0
0.278444 0.409848 1.375 255 255 255
0.37646 -0.00262019 0.878 255 255 255
0.13217 0.344153 1.187 0 0 0
-0.0157996 0.135072 0.837 255 255 255
-0.129122 -0.38736 1.48 255 255 255
0.118601 -0.197299 1.114 255 255 255
-1.10257 -0.32019 2.347 255 255 255
-0.03185 0.0710142 0.906 255 255 255
0.165925 0.00425586 0.826 255 255 255
-0.858576 0.510461 2.338 255 255 255
0.316651 0.153386 0.663 255 255 255
0.0813482 0.0428116 0.902 255 255 255
0.141601 -0.438797 1.31 0 0 0
0.101624 -0.42253 1.375 255 255 255
-1.19764 0.276102 2.489 255 255 255
0.190456 -0.41955 1.189 255 255 255
0.375987 -0.0430634 0.887 255 255 255
-0.260234 -0.234355 1.348 255 255 255
0.00188511 0.12508 0.825 255 255 255
0.146188 0.106241 0.785 255 255 255
-0.994748 0.377389 2.572 255 255 255
0.50755 0.352645 1.281 0 0 0
0.0559383 -0.213931 1.254 0 0 0
0.256169 -0.279624 1.265 255 255 255
0.41533 0.358207 1.286 0 0 0
0.078269 0.336338 1.059 255 255 255
-1.09863 -0.729047 2.166 255 255 255
0.355027 0.0115747 0.871 255 255 255
-0.691867 0.57345 2.173 255 255 255
0.176535 -0.105013 0.886 255 255 255
0.328593 -0.176395 0.978 0 0 0
0.286175 -0.0604031 0.909 255 255 255
0.0612466 -0.263974 1.425 0 0 0
0.262592 -0.141356 1.012 0 0 0
0.1672 -0.422896 1.327 255 255 255
0.0204659 0.0338352 0.938 255 255 255
0.0264032 0.197346 1.053 255 255 255
-0.473839 0.443355 2.212 255 255 255
0.071218 -0.467956 1.439 255 255 255
0.0875072 -0.436909 1.659 255 255 255
0.173354 0.322373 1.178 255 255 255
0.239088 -0.100453 0.91 255 255 255
-0.0144716 0.13676 0.839 255 255 255
-0.114824 0.252635 1.092 255 255 255
-1.04816 -0.628997 2.303 255 255 255
-0.142066 0.175272 1.044 0 0 0
-0.0541804 -0.284851 1.473 0 0 0
0.0326539 0.310708 1.09 255 255 255
0.0641852 0.060933 0.888 255 255 255
0.0140216 0.215451 1.025 0 0 0
0.262097 0.0565414 0.824 255 255 255
-0.952336 0.668981 2.085 255 255 255
-0.627932 0.560209 2.136 255 255 255
-0.436682 0.495401 1.758 255 255 255
0.251815 -0.0416199 0.887 255 255 255
0.382553 -0.177331 1.02 255 255 255
0.501487 -0.154902 0.983 255 255 255
0.415248 -0.3618 1.147 255 255 255
0.437173 -0.126645 0.951 255 255 255
-0.499771 0.0488943 1.106 255 255 255
-0.107882 -0.174999 1.171 255 255 255
0.680612 -0.450649 1.65 0 0 0
0.0770469 -0.125875 1.02 255 255 255
0.303042 0.0839435 0.768 255 255 255
-1.17927 0.377811 2.519 255 255 255
0.152641 0.313675 1.196 255 255 255
-0.0274087 -0.469821 1.452 255 255 255
0.066148 0.0555874 0.895 255 255 255
0.0856362 0.203259 0.967 0 0 0
1.09605 -0.949713 2.755 255 255 255
0.337628 0.431815 1.239 255 255 255
0.424014 -0.118935 0.939 255 255 255
-1.23499 0.427679 2.499 0 0 0
-0.638915 0.418542 2.356 255 255 255
-0.594001 0.639046 1.677 255 255 255
-1.0502 -0.798787 2.42 0 0 0
-0.035874 0.080437 0.896 255 255 255
0.140059 0.333684 1.205 0 0 0
0.350715 -0.0946025 0.857 255 255 255
0.0718581 0.0328973 0.912 255 255 255
-0.148452 -0.357166 1.505 0 0 0
-0.449898 0.537696 1.659 255 255 255
0.393055 -0.197548 1.048 255 255 255
0.340274 0.00313024 0.888 255 255 255
-0.270516 -0.0419975 1.182 255 255 255
-0.0713668 0.325897 1.198 0 0 0
0.0793487 0.100026 0.807 255 255 255
-0.881089 0.403278 2.499 255 255 255
-0.126799 0.201094 1.073 255 255 255
-0.306458 -0.285684 1.302 0 0 0
-0.0253556 -0.387135 1.47 255 255 255
0.149901 -0.442384 1.308 0 0 0
0.00076232 0.370303 1.16 255 255 255
-0.5537 0.545265 2.092 255 255 255
-0.00892283 0.112466 0.831 255 255 255
-0.221451 0.532184 1.571 0 0 0
-0.72428 0.676704 2.017 255 255 255
0.422593 0.350652 1.289 0 0 0
0.272323 0.338984 1.378 0 0 0
0.326419 0.13469 0.672 255 255 255
0.0353562 0.0851045 0.855 255 255 255
-0.358748 -0.357112 1.234 0 0 0
-0.0961024 -0.30289 1.491 0 0 0
0.305421 0.450184 1.396 255 255 255
-0.706801 0.458627 2.365 255 255 255
-1.16032 -0.185234 2.196 255 255 255
0.338201 0.362622 1.4 0 0 0
-1.05602 -0.586307 2.312 255 255 255
0.193111 -0.0454702 0.851 0 0 0
0.193789 -0.0269829 0.836 0 0 0
-0.0441656 -0.396109 1.459 255 255 255
-1.12879 -0.395056 2.338 255 255 255
-1.06647 -0.531352 2.286 255 255 255
-0.0469645 -0.202022 1.173 255 255 255
0.0739127 0.121212 0.791 255 255 255
-0.456705 0.102517 1.102 255 255 255
0.213034 -0.342809 1.278 255 255 255
0.0849083 -0.264362 1.291 0 0 0
0.059718 0.139596 0.808 255 255 255
-1.23668 0.390109 2.519 0 0 0
0.312899 0.109039 0.727 255 255 255
0.333678 -0.371148 1.13 0 0 0
0.281626 0.12639 0.705 255 255 255
0.092612 -0.465056 1.607 255 255 255
-0.250788 0.506831 1.682 255 255 255
-1.09511 -0.810117 2.166 255 255 255
0.342566 -0.110117 0.942 255 255 255
-0.944637 -0.441072 2.561 255 255 255
-0.0556261 -0.0544187 0.96 255 255 255
-1.04584 -0.735049 2.392 255 255 255
0.210177 0.0713984 0.81 255 255 255
0.238004 0.0710458 0.806 255 255 255
0.133036 -0.471617 1.289 255 255 255
-0.0950719 0.105848 0.877 255 255 255
0.155572 -0.438236 1.302 255 255 255
-0.100428 -0.182933 1.173 255 255 255
0.266708 0.0501997 0.83 255 255 255
-0.995585 0.506657 2.338 255 255 255
0.28125 -0.0392134 0.898 255 255 255
0.230436 -0.129079 0.935 255 255 255
0.330956 0.153667 0.655 255 255 255
0.0325416 0.0336909 0.934 255 255 255
-0.489948 -0.112398 1.283 255 255 255
-1.18879 0.440392 2.479 255 255 255
0.239314 -0.0281771 0.873 0 0 0
0.164699 -0.455122 1.171 255 255 255
0.301194 0.433739 1.387 255 255 255
0.378668 -0.131214 0.918 0 0 0
0.205247 0.0851702 0.791 255 255 255
-0.0786974 0.0612456 0.937 255 255 255
0.0276809 0.0423521 0.924 255 255 255
-0.28839 0.0960498 0.981 255 255 255
-1.08849 -0.7128 2.181 255 255 255
0.614528 -0.416038 1.551 0 0 0
0.061984 -0.139296 1.046 255 255 255
0.363382 -0.137724 0.986 255 255 255
0.239081 -0.0138745 0.867 255 255 255
0.343971 -0.384168 1.104 0 0 0
-0.033432 -0.0554561 0.951 255 255 255
-1.17516 0.55062 2.347 255 255 255
-0.19292 -0.0100822 1.062 255 255 255
0.361341 -0.112243 0.947 255 255 255
0.373047 -0.201345 1.059 255 255 255
0.384779 0.0234654 0.84 255 255 255
-0.44294 0.0875963 1.073 255 255 255
-1.00317 -0.54394 2.479 255 255 255
0.0385893 -0.285092 1.539 255 255 255
-1.07348 0.703513 2.057 255 255 255
0.173474 -0.434187 1.192 255 255 255
-1.03269 0.550782 2.269 255 255 255
-0.012434 0.358358 1.158 0 0 0
-0.0158083 0.222599 1.012 255 255 255
-0.314864 0.0989402 0.994 255 255 255
-0.0574051 0.050626 0.938 255 255 255
-0.00698805 -0.0575046 0.934 255 255 255
-0.0780386 0.243454 1.075 0 0 0
-0.964542 -0.277514 2.374 255 255 255
0.289758 -0.108714 0.93 255 255 255
-0.791105 0.517708 2.286 255 255 255
-1.07076 0.46296 2.449 255 255 255
0.497345 -0.23369 0.978 0 0 0
-1.12689 -0.377899 2.303 255 255 255
-0.515819 -0.185305 1.463 255 255 255
-0.861881 -0.702124 2.347 255 255 255
0.0632269 0.0375135 0.916 255 255 255
-1.04239 -0.437141 2.402 0 0 0
-0.665994 0.495569 2.253 255 255 255
0.396678 0.383772 1.26 255 255 255
-1.14771 -0.190871 2.22 255 255 255
-0.230607 0.0865565 0.947 255 255 255
0.247831 -0.0211945 0.878 255 255 255
0.0462584 -0.114472 1.037 255 255 255
0.206475 -0.245074 1.289 0 0 0
0.284503 0.139408 0.679 255 255 255
0.201774 -0.416877 1.176 255 255 255
0.560926 0.389412 1.265 255 255 255
-0.522984 0.392009 2.269 255 255 255
0.00232382 0.210459 1.017 255 255 255
0.117292 -0.397917 1.375 255 255 255
0.487312 -0.147651 1.01 255 255 255
0.336616 -0.0316659 0.934 255 255 255
0.0809874 0.0148562 0.898 255 255 255
0.654081 -0.401928 1.555 0 0 0
-0.166964 -0.456094 1.375 255 255 255
0.00805727 -0.140538 1.124 255 255 255
-0.0545676 0.0628543 0.916 255 255 255
-0.202897 0.0190977 1.051 255 255 255
0.00802213 -0.0353724 0.912 255 255 255
0.146013 0.477593 1.222 255 255 255
0.0146033 -0.002847 0.954 255 255 255
-0.350721 -0.422976 1.227 255 255 255
0.347979 -0.39315 1.094 255 255 255
0.490265 0.43897 1.198 255 255 255
0.363478 -0.153309 1.004 255 255 255
-0.224941 0.00381762 1.083 255 255 255
0.362699 0.00871986 0.869 255 255 255
0.0803384 0.359382 1.087 255 255 255
0.199743 0.155266 0.733 255 255 255
0.294892 0.454329 1.229 255 255 255
-0.247684 -0.301207 1.305 255 255 255
-0.413625 0.529181 1.71 0 0 0
-0.96203 -0.962727 2.53 255 255 255
-0.165064 -0.00140986 1.039 255 255 255
-0.0765081 0.349948 1.187 0 0 0
-0.000904629 0.0366521 0.932 255 255 255
0.0848974 0.0263991 0.893 255 255 255
-0.106263 0.107054 0.887 255 255 255
0.296237 0.0913644 0.757 255 255 255
0.120676 0.137864 0.769 255 255 255
0.322631 -0.0947878 0.942 0 0 0
-0.0692186 -0.345635 1.487 255 255 255
-0.0101791 -0.00128638 0.948 255 255 255
-0.0394575 0.037242 0.947 255 255 255
-0.137651 -0.145534 1.149 255 255 255
-1.26686 0.485045 2.42 0 0 0
-0.23289 -0.0623545 1.167 255 255 255
-1.01916 -0.857008 2.44 255 255 255
-0.964555 -0.888685 2.615 255 255 255
-1.09158 -0.817167 2.166 0 0 0
-0.067809 -0.109688 1.108 255 255 255
-0.243445 -0.0485143 1.154 255 255 255
-0.346727 -0.422976 1.227 255 255 255
-0.17185 -0.0181415 1.029 255 255 255
0.24966 -0.149738 1.013 255 255 255
0.25791 -0.367431 1.215 255 255 255
-1.14251 0.458975 2.449 255 255 255
-1.05342 -0.501584 2.374 0 0 0
-0.187108 -0.245762 1.375 0 0 0
0.297181 0.321613 1.4 255 255 255
-0.13269 0.00189582 0.999 255 255 255
-0.00628476 0.105483 0.84 255 255 255
0.409063 0.0326801 0.831 255 255 255
0.149344 -0.0105938 0.831 255 255 255
0.273093 0.114638 0.725 255 255 255
-0.30605 0.479057 1.7 0 0 0
-0.133602 0.526785 1.425 255 255 255
0.0374609 -0.446942 1.494 255 255 255
0.0654607 -0.385981 1.583 255 255 255
-0.107064 0.0842835 0.906 255 255 255
-0.049484 0.114189 0.854 255 255 255
-0.784476 0.622236 2.099 255 255 255
0.285776 0.486491 1.316 255 255 255
0.25458 -0.125109 0.963 0 0 0
-1.10269 -0.684407 2.181 255 255 255
0.00454665 0.34825 1.162 255 255 255
0.037066 0.398027 1.116 0 0 0
-1.1016 -0.779031 2.158 255 255 255
0.378977 -0.0632919 0.908 255 255 255
-0.376287 0.00402207 1.141 255 255 255
0.203789 -0.0530101 0.861 0 0 0
-0.337718 -0.22676 1.342 255 255 255
-0.335665 0.572523 1.682 0 0 0
-0.277925 -0.122358 1.278 255 255 255
0.0924079 -0.0978065 0.972 255 255 255
0.402801 -0.259415 1.165 0 0 0
0.17728 0.151342 0.749 255 255 255
0.0172055 0.408197 1.124 255 255 255
0.211602 0.114315 0.754 255 255 255
-0.230695 -0.0580044 1.156 255 255 255
-0.0592179 0.360212 1.189 255 255 255
-0.090328 0.057276 0.947 255 255 255
-0.193711 -0.122089 1.106 255 255 255
-0.369689 -0.0701207 1.237 255 255 255
0.43826 -0.151247 0.95 255 255 255
0.155882 0.0406755 0.802 0 0 0
-0.537143 0.551286 1.923 255 255 255
-1.06098 -0.903789 2.365 0 0 0
0.218111 0.0642734 0.82 255 255 255
0.340232 -0.408425 1.092 255 255 255
0.0884701 0.283142 0.999 255 255 255
0.373165 -0.384566 1.1 0 0 0
-0.280977 0.080249 0.983 255 255 255
0.0785848 0.0809738 0.841 255 255 255
-0.112703 -0.249515 1.396 0 0 0
-0.61465 0.480904 2.253 255 255 255
0.0297461 0.404565 1.114 255 255 255
-0.242003 -0.229095 1.369 255 255 255
-0.312317 -0.0304049 1.18 255 255 255
-0.906134 0.500897 2.383 255 255 255
0.0191707 0.394523 1.132 255 255 255
-0.425679 -0.162415 1.409 255 255 255
-0.450058 0.0187771 1.135 255 255 255
-0.387926 0.0739572 1.029 255 255 255
-1.08989 -0.501501 2.32 255 255 255
0.0145727 -0.016784 0.952 255 255 255
-1.14302 -0.555332 2.204 0 0 0
0.116183 -0.405237 1.362 255 255 255
0.32962 -0.133497 0.967 0 0 0
-0.885893 0.33972 2.572 255 255 255
-0.0720946 0.0888869 0.893 255 255 255
0.0277434 -0.106239 1.039 255 255 255
-1.19808 0.558258 2.347 255 255 255
-0.400542 -0.0728011 1.152 255 255 255
-0.685305 0.704456 1.81 255 255 255
-0.357896 0.589926 1.575 0 0 0
0.502327 0.420779 1.213 255 255 255
-0.183684 0.107472 0.928 255 255 255
-0.417537 0.0114091 1.137 255 255 255
0.18779 -0.17919 1.149 255 255 255
-0.254943 -0.126484 1.257 255 255 255
-0.68952 0.697068 1.853 255 255 255
0.464137 0.395419 1.196 255 255 255
-0.310173 -0.318985 1.291 0 0 0
-0.849967 0.671227 2.092 255 255 255
-0.377972 0.0335912 1.077 255 255 255
0.250783 0.138964 0.699 255 255 255
-0.381744 0.586758 1.668 0 0 0
-0.397583 -0.113147 1.316 0 0 0
-0.0803248 -0.0807107 1.059 255 255 255
0.225637 0.0544478 0.833 255 255 255
-1.13656 0.487165 2.411 255 255 255
-1.1502 -0.436973 2.204 255 255 255
0.279653 0.087807 0.769 255 255 255
-0.408043 -0.0746758 1.152 255 255 255
0.423629 -0.178548 1.027 0 0 0
-1.03415 -0.700016 2.392 255 255 255
-0.755486 0.631658 2.085 255 255 255
0.323964 -0.279942 1.196 255 255 255
-0.0133914 0.0205044 0.957 255 255 255
0.00355672 0.0579362 0.909 255 255 255
-0.0269617 -0.0913087 1.062 255 255 255
0.408716 -0.111982 0.932 255 255 255
0.24812 0.0242755 0.869 0 0 0
0.508844 0.44927 1.169 255 255 255
0.229558 -0.363583 1.222 255 255 255
-0.833418 0.60313 2.128 255 255 255
-0.105697 -0.274456 1.456 0 0 0
0.033928 -0.434825 1.555 255 255 255
-1.09458 0.664309 2.158 255 255 255
-0.330616 -0.301472 1.297 255 255 255
-0.422724 -0.312185 1.239 255 255 255
-0.309503 -0.122067 1.297 0 0 0
0.461794 -0.313539 0.994 255 255 255
0.361073 0.345268 1.333 0 0 0
-0.0382833 -0.0936301 1.089 255 255 255
0.315146 0.101866 0.735 255 255 255
-0.282477 0.569782 1.555 255 255 255
0.184389 -0.263571 1.267 0 0 0
-0.0532775 0.131327 0.848 255 255 255
0.20989 0.0704263 0.814 255 255 255
0.345784 0.451944 1.171 255 255 255
-0.953032 -0.978637 2.55 255 255 255
0.232751 0.45111 1.319 255 255 255
-0.0801252 0.0468321 0.954 255 255 255
0.23839 -0.10227 0.913 255 255 255
0.220152 -0.38441 1.225 0 0 0
0.258194 -0.26731 1.275 0 0 0
-0.967801 -0.348539 2.411 255 255 255
-1.19764 0.35711 2.489 255 255 255
0.196379 -0.0983494 0.878 0 0 0
-0.277595 -0.428517 1.267 0 0 0
-0.234938 -0.326691 1.305 255 255 255
-0.986506 -0.573858 2.54 255 255 255
-0.364978 0.376042 1.923 255 255 255
-1.02289 -0.865358 2.43 0 0 0
-0.408303 -0.350519 1.232 0 0 0
-1.09366 -0.482624 2.32 0 0 0
-0.3437 0.0607376 1.032 255 255 255
-0.126734 0.0584252 0.966 255 255 255
0.509198 -0.251808 1.22 255 255 255
-0.0544671 0.236384 1.059 255 255 255
-0.828462 0.721973 1.953 255 255 255
-0.107592 -0.126353 1.128 255 255 255
-0.876112 0.623243 2.114 255 255 255
-0.361651 -0.110499 1.31 255 255 255
-1.05755 -0.760792 2.228 255 255 255
0.585808 0.367556 1.194 0 0 0
0.0368003 0.400583 1.108 0 0 0
0.203129 0.120785 0.741 255 255 255
0.194466 0.0719272 0.816 255 255 255
-1.07113 0.444843 2.459 255 255 255
0.0926315 -0.477906 1.342 255 255 255
0.344647 0.0749991 0.766 255 255 255
0.294985 -0.113287 0.918 255 255 255
0.186602 0.0957766 0.783 255 255 255
0.368057 0.0416391 0.821 255 255 255
0.505 0.415987 1.087 255 255 255
0.0464306 -0.482821 1.47 255 255 255
0.286165 0.0908469 0.763 255 255 255
0.148996 0.318099 1.198 255 255 255
-0.314314 -0.070801 1.249 255 255 255
0.295258 0.022572 0.858 255 255 255
-0.115083 0.0738488 0.923 255 255 255
0.497406 -0.137775 0.975 255 255 255
-0.675908 0.48221 2.312 255 255 255
0.0599929 0.0934215 0.83 255 255 255
-0.140539 0.0359634 0.997 255 255 255
0.276161 0.172594 0.697 255 255 255
-0.213572 0.00204763 1.079 255 255 255
0.116968 -0.0139545 0.872 255 255 255
0.215204 -0.015497 0.879 0 0 0
-0.0558825 0.100408 0.867 255 255 255
0.0741158 -0.401292 1.603 0 0 0
-0.0587297 0.131172 0.847 255 255 255
0.0248298 0.196747 1.059 255 255 255
0.323425 0.0809137 0.763 255 255 255
0.229603 -0.418199 1.143 255 255 255
0.294528 0.462337 1.203 255 255 255
0.2347 -0.0497137 0.877 255 255 255
-1.06381 -0.721276 2.196 255 255 255
-0.250439 0.121054 0.964 255 255 255
-0.00109293 -0.14995 1.126 255 255 255
-0.505293 0.556518 1.7 255 255 255
-0.140881 -0.37696 1.477 255 255 255
-1.11709 -0.190042 2.253 255 255 255
-0.0518558 -0.101218 1.114 255 255 255
0.135753 0.371063 1.106 255 255 255
0.0375974 0.342943 1.132 255 255 255
-0.247859 0.0161544 1.083 255 255 255
-0.969968 -0.792929 2.54 0 0 0
0.125947 0.096562 0.811 255 255 255
-1.06051 -0.79205 2.204 255 255 255
-1.0175 -0.167437 2.151 255 255 255
0.276206 0.327058 1.375 0 0 0
0.179074 -0.396736 1.319 255 255 255
0.298094 -0.109398 0.923 255 255 255
0.163671 -0.425816 1.316 255 255 255
0.42257 -0.326821 1.162 255 255 255
-0.494332 -0.177952 1.442 255 255 255
0.0898695 -0.0250383 0.914 255 255 255
0.310197 0.43745 1.267 255 255 255
-0.128018 -0.121159 1.114 0 0 0
-1.2472 0.285344 2.499 255 255 255
0.189378 -0.355144 1.316 0 0 0
0.18664 -0.351634 1.327 0 0 0
-0.170318 -0.29528 1.366 255 255 255
-0.361194 0.512687 1.739 255 255 255
-0.351687 0.468886 1.734 255 255 255
0.203645 -0.0368117 0.843 255 255 255
-1.18238 0.458975 2.449 255 255 255
-0.942896 0.693471 2.057 255 255 255
0.108493 -0.406888 1.406 255 255 255
-0.269367 0.0981298 0.97 255 255 255
-0.432599 0.0396788 1.1 255 255 255
-0.211771 -0.333701 1.333 0 0 0
-0.585225 0.566753 2.071 255 255 255
0.235283 -0.151686 1.015 255 255 255
0.386302 -0.0322533 0.868 255 255 255
-0.431494 0.523254 1.682 255 255 255
-0.0428173 -0.0673286 0.989 255 255 255
0.246192 0.0803834 0.782 255 255 255
-0.107363 -0.158833 1.254 0 0 0
-1.0894 0.55154 2.303 255 255 255
-0.998989 -0.720024 2.42 0 0 0
-0.342489 -0.300774 1.294 255 255 255
0.109375 0.0239403 0.857 255 255 255
-0.748287 0.506473 2.269 255 255 255
0.581921 0.369499 1.194 0 0 0
0.357921 -0.339222 1.081 0 0 0
-0.387241 0.000306888 1.135 255 255 255
0.0585491 0.397694 1.11 255 255 255
-0.332787 -0.0866626 1.273 255 255 255
0.466565 -0.125629 0.967 255 255 255
-0.1677 -0.384858 1.345 0 0 0
0.191968 -0.0201324 0.834 0 0 0
-0.576722 -0.0737237 1.339 255 255 255
0.608945 0.367592 1.275 0 0 0
-0.135661 0.0101247 1.009 255 255 255
0.362364 -0.00265302 0.889 255 255 255
-0.76086 0.590562 2.158 255 255 255
-0.378934 -0.299612 1.289 0 0 0
-0.397844 -0.120299 1.324 0 0 0
0.219031 0.1369 0.718 255 255 255
0.322923 0.460397 1.178 255 255 255
-0.268477 0.0261611 1.06 255 255 255
0.235788 0.450666 1.324 255 255 255
0.509766 -0.239469 1.198 255 255 255
0.111337 0.402963 1.062 255 255 255
-1.173 0.647268 2.22 255 255 255
-1.07769 -0.38385 2.411 255 255 255
0.342818 0.388083 1.281 255 255 255
-0.0187607 -0.210753 1.201 255 255 255
0.0776771 0.132629 0.79 255 255 255
-0.28585 -0.404136 1.249 255 255 255
-0.732963 0.60313 2.128 255 255 255
0.57229 0.371994 1.305 0 0 0
0.193855 0.477559 1.275 255 255 255
-0.147526 -0.253049 1.403 0 0 0
-0.308998 -0.0323799 1.182 255 255 255
0.573177 0.367086 1.18 255 255 255
-0.378217 -0.054082 1.194 0 0 0
0.306277 -0.246342 1.203 255 255 255
0.00588874 -0.384106 1.505 255 255 255
-0.171188 0.0853683 0.934 255 255 255
-0.278293 0.578402 1.505 255 255 255
0.42315 -0.181447 1.034 0 0 0
-0.167271 0.0614417 0.964 255 255 255
-1.06518 -0.418172 2.383 255 255 255
0.401082 -0.132708 0.918 255 255 255
0.321695 0.173281 0.669 255 255 255
-0.728598 0.65665 2.057 255 255 255
-0.326065 -0.23279 1.339 255 255 255
0.262215 0.0322326 0.855 255 255 255
-0.0107207 0.0891207 0.867 255 255 255
-0.136926 -0.324594 1.513 0 0 0
0.200272 0.0432114 0.852 255 255 255
-0.664761 -0.00581984 1.262 255 255 255
0.0106594 -0.41581 1.487 255 255 255
0.011389 -0.065871 0.945 255 255 255
-0.419461 -0.188969 1.419 255 255 255
0.511788 -0.338214 1 255 255 255
0.0981526 0.119373 0.779 255 255 255
0.36853 0.0589751 0.785 255 255 255
0.485571 -0.350045 0.961 255 255 255
0.404688 -0.0602038 0.906 255 255 255
-0.135115 0.25045 1.098 255 255 255
0.177033 -0.397501 1.336 255 255 255
-0.229143 0.514946 1.664 0 0 0
0.00265514 0.352032 1.162 255 255 255
-0.267779 0.39383 1.739 0 0 0
0.284442 0.392113 1.416 255 255 255
-0.440542 -0.186429 1.435 0 0 0
0.303289 -0.0355275 0.916 255 255 255
0.193169 0.0900907 0.789 255 255 255
-0.620501 0.02741 1.189 255 255 255
0.239588 -0.0353208 0.874 0 0 0
-0.123459 -0.475972 1.442 0 0 0
-0.163862 -0.374856 1.406 0 0 0
-0.983066 -0.827667 2.459 255 255 255
0.21976 0.267414 1.234 255 255 255
-0.942744 0.689113 2.064 255 255 255
-1.08352 -0.043529 2.469 255 255 255
-0.975061 -0.919703 2.459 255 255 255
-1.02289 -0.853495 2.43 255 255 255
0.373585 -0.0251907 0.868 255 255 255
-0.0553829 0.208403 1.112 255 255 255
-0.489508 0.576936 1.603 255 255 255
-0.605847 0.350978 2.392 0 0 0
0.324524 0.0621571 0.793 255 255 255
-0.0587297 0.129794 0.847 255 255 255
0.268844 0.144405 0.687 255 255 255
0.336316 0.00313376 0.889 255 255 255
-0.061957 -0.340795 1.487 255 255 255
-0.0240317 0.11901 0.839 255 255 255
-0.921334 -1.01262 2.78 255 255 255
-0.461955 0.617602 1.607 0 0 0
0.134626 0.0367813 0.832 255 255 255
-0.695616 0.543783 2.196 255 255 255
0.434324 0.406649 1.189 255 255 255
0.103678 -0.0186293 0.892 255 255 255
-1.07432 0.483095 2.43 255 255 255
0.43362 -0.086317 0.95 255 255 255
0.331363 0.310506 1.381 255 255 255
0.313701 0.115868 0.718 255 255 255
0.185634 -0.418392 1.208 0 0 0
-0.465692 0.575145 1.62 255 255 255
0.392428 -0.358015 1.135 0 0 0
0.0618032 0.0360622 0.917 255 255 255
0.0606039 0.0659619 0.878 255 255 255
-0.0602276 0.425266 1.171 255 255 255
-1.09593 -0.335463 2.374 255 255 255
0.0233285 -0.324474 1.524 255 255 255
0.275227 -0.186174 0.888 255 255 255
-1.10929 0.488983 2.42 255 255 255
0.624506 0.371234 1.232 0 0 0
0.282882 -0.372485 1.187 255 255 255
0.37471 0.400811 1.262 255 255 255
-1.13946 0.604031 2.261 255 255 255
0.158829 -0.44186 1.294 255 255 255
-0.62402 0.387625 2.402 255 255 255
0.262275 0.12171 0.718 255 255 255
0.0132119 -0.300236 1.502 255 255 255
0.116194 0.372528 1.059 255 255 255
0.062579 -0.302888 1.456 0 0 0
0.491213 -0.213228 1.025 255 255 255
-0.0644848 0.0592747 0.93 255 255 255
-0.540634 -0.0735585 1.336 255 255 255
-0.513175 0.0647396 1.1 255 255 255
0.138022 0.0366044 0.828 255 255 255
-0.129442 0.189374 1.066 255 255 255
0.465099 0.37822 1.262 255 255 255
0.0389523 0.396921 1.118 0 0 0
0.0917321 0.0600409 0.875 255 255 255
-0.388789 -0.0108702 1.145 255 255 255
-0.0582311 0.12059 0.86 255 255 255
0.220289 0.125429 0.726 255 255 255
0.461819 0.334347 1.299 0 0 0
-1.07321 0.585634 2.261 255 255 255
-0.0643775 -0.340795 1.487 255 255 255
-1.12069 -0.813996 2.121 255 255 255
-0.0437418 -0.406417 1.445 0 0 0
0.407903 -0.045484 0.878 255 255 255
-0.317498 -0.0421041 1.185 255 255 255
-0.58583 0.356063 2.374 0 0 0
0.339815 -0.0191723 0.918 255 255 255
0.384521 -0.0292926 0.864 255 255 255
-0.279501 0.424099 1.724 0 0 0
-0.244065 -0.454046 1.275 0 0 0
0.539053 0.39465 1.262 255 255 255
0.0133293 -0.161685 1.106 255 255 255
-0.101038 0.432972 1.203 255 255 255
0.624172 -0.479753 1.595 255 255 255
0.30609 -0.293064 1.21 255 255 255
-0.87752 0.352277 2.572 255 255 255
0.322067 0.10578 0.729 255 255 255
0.523861 0.387353 1.265 255 255 255
-0.344612 0.0401871 1.066 255 255 255
-0.378217 -0.056025 1.194 0 0 0
-0.733188 0.393757 2.44 255 255 255
0.482343 0.353068 1.275 0 0 0
0.68533 -0.477857 1.642 0 0 0
0.151403 0.0332953 0.813 255 255 255
0.337106 0.118771 0.694 255 255 255
-0.142121 0.157964 1.02 255 255 255
-0.427949 -0.243671 1.351 255 255 255
-0.213532 0.012478 1.07 255 255 255
0.267358 -0.366827 1.213 255 255 255
0.351994 0.0925486 0.737 255 255 255
-0.226633 0.0395839 1.05 255 255 255
0.090193 0.13981 0.787 255 255 255
0.199303 0.487181 1.257 255 255 255
0.261411 0.136298 0.697 255 255 255
-0.524472 0.558096 1.794 255 255 255
0.517549 0.422128 1.189 255 255 255
-1.15234 -0.414208 2.236 255 255 255
-1.16643 0.470931 2.449 255 255 255
-0.227197 -0.172169 1.262 0 0 0
0.0937802 -0.191275 1.143 255 255 255
-0.470965 0.102889 1.106 255 255 255
0.264143 0.33431 1.359 0 0 0
-0.308045 -0.413431 1.265 255 255 255
-1.07876 -0.614942 2.212 0 0 0
-0.248269 -0.108105 1.234 255 255 255
0.373504 -0.0727817 0.935 0 0 0
-0.58411 0.0484145 1.137 255 255 255
-0.344596 -0.298669 1.294 255 255 255
0.445381 -0.105089 0.952 255 255 255
-0.263012 -0.248068 1.351 255 255 255
-0.0425831 0.104584 0.855 255 255 255
0.374063 -0.39771 1.087 255 255 255
0.463477 0.351929 1.286 0 0 0
-1.07429 -0.776686 2.181 255 255 255
0.117282 0.095712 0.815 255 255 255
0.171436 0.322373 1.178 255 255 255
0.361789 -0.156332 1.013 255 255 255
-0.812455 0.695521 2.024 255 255 255
0.192014 0.125439 0.74 255 255 255
0.322083 0.128359 0.679 255 255 255
0.319425 0.0264488 0.848 255 255 255
-0.652204 0.0124627 1.242 255 255 255
-0.560008 0.587954 1.805 255 255 255
-0.568309 0.427865 2.303 255 255 255
0.129852 -0.0203979 0.845 255 255 255
-0.817978 0.49898 2.32 255 255 255
0.439182 -0.0834003 0.952 255 255 255
0.415201 0.381944 1.254 255 255 255
-0.904378 0.543232 2.253 255 255 255
-0.395099 0.430485 2.064 255 255 255
-1.15856 0.561557 2.329 255 255 255
-0.156779 -0.344138 1.491 0 0 0
0.366375 -0.365236 1.112 0 0 0
0.210696 0.0780344 0.797 255 255 255
0.0926756 -0.0184622 0.884 255 255 255
0.303523 0.133365 0.682 255 255 255
-0.86211 0.69919 2.064 255 255 255
0.565147 0.373831 1.208 0 0 0
-0.428656 0.572371 1.65 255 255 255
0.256995 -0.304542 1.249 255 255 255
-0.506013 0.0593695 1.1 255 255 255
0.0650829 -0.310635 1.459 0 0 0
0.166657 -0.276025 1.213 0 0 0
0.183892 -0.0892654 0.873 0 0 0
0.0684275 0.156303 0.834 255 255 255
-0.0963137 0.0839114 0.902 255 255 255
-0.315902 0.433449 1.739 255 255 255
-0.293549 0.0180161 1.089 255 255 255
0.160488 -0.199778 1.128 255 255 255
0.419336 -0.165065 0.932 255 255 255
-0.11149 -0.48669 1.439 255 255 255
0.344671 -0.0222808 0.923 255 255 255
-0.957564 -0.966532 2.54 255 255 255
-0.341519 0.000310673 1.149 255 255 255
-1.01557 -0.621004 2.53 255 255 255
0.231548 -0.383469 1.222 255 255 255
0.218188 0.032308 0.857 255 255 255
0.291903 0.167638 0.686 255 255 255
-0.0895348 -0.406718 1.463 0 0 0
-0.214121 -0.389242 1.234 0 0 0
0.124108 0.146242 0.767 255 255 255
0.47384 -0.275692 0.969 255 255 255
0.101972 -0.435391 1.513 255 255 255
0.28857 0.389968 1.425 255 255 255
-1.01649 0.712809 2.017 255 255 255
-0.158151 -0.439082 1.357 0 0 0
-0.923793 -0.449407 2.561 255 255 255
-0.148094 -0.506753 1.477 255 255 255
0.0448711 -0.237075 1.351 255 255 255
0.411164 -0.209245 1.073 255 255 255
0.268177 0.0881496 0.772 255 255 255
0.0477096 0.0018294 0.964 255 255 255
-1.05978 -0.526109 2.312 255 255 255
-0.0134185 -0.284851 1.473 255 255 255
-1.10296 -0.35209 2.356 255 255 255
0.272175 0.467185 1.366 255 255 255
-0.478886 0.551831 1.629 255 255 255
-1.05062 0.693788 2.078 255 255 255
0.0200899 -0.0904057 0.995 255 255 255
-0.362802 0.590518 1.563 255 255 255
-0.364118 -0.216363 1.359 255 255 255
0.106782 -0.427553 1.547 255 255 255
0.263604 0.04767 0.833 255 255 255
0.175783 -0.0353558 0.841 255 255 255
-0.77004 0.693901 1.991 255 255 255
-0.076535 -0.0521957 0.948 255 255 255
-0.0613612 0.0281433 0.952 255 255 255
-0.297062 -0.240965 1.336 0 0 0
0.42161 0.354022 1.286 0 0 0
-0.00686834 0.0480526 0.918 255 255 255
0.201682 -0.00395675 0.858 0 0 0
-0.122438 0.135749 0.957 255 255 255
-1.13056 0.27565 2.449 255 255 255
-1.08617 -0.137489 2.121 255 255 255
-0.252138 0.537297 1.571 255 255 255
0.290332 -0.10233 0.927 255 255 255
0.0482237 0.39469 1.122 0 0 0
-0.239914 -0.458196 1.275 0 0 0
-0.0694048 -0.341712 1.491 255 255 255
0.000663744 0.220516 1.01 255 255 255
0.0859824 -0.448441 1.682 255 255 255
-0.0377208 -0.0887622 1.073 255 255 255
-0.15939 -0.38559 1.387 0 0 0
-0.23784 0.429324 1.668 0 0 0
-0.0626113 0.378608 1.18 0 0 0
0.0840533 -0.242982 1.278 0 0 0
-0.267825 -0.180849 1.31 0 0 0
-0.391822 -0.0890566 1.194 0 0 0
0.307894 0.119199 0.71 255 255 255
0.160358 -0.00519079 0.832 255 255 255
0.213116 0.351334 1.254 0 0 0
0.213781 0.145483 0.72 255 255 255
-0.239261 -0.383665 1.229 255 255 255
0.324506 -0.262864 1.198 0 0 0
0.39538 -0.151275 0.97 0 0 0
0.0838455 -0.199783 1.16 0 0 0
-0.0578806 0.0791552 0.898 255 255 255
-0.519575 0.0596933 1.106 255 255 255
0.305622 -0.381129 1.149 0 0 0
0.349721 -0.0547588 0.966 0 0 0
-1.15722 0.531751 2.365 255 255 255
0.146828 0.0879697 0.817 255 255 255
-0.562387 0.54709 2.099 255 255 255
0.289017 -0.378853 1.165 255 255 255
-0.257249 0.116589 0.966 255 255 255
0.45794 -0.406569 1.185 255 255 255
0.280256 -0.146199 0.909 255 255 255
0.509943 0.408266 1.09 255 255 255
0.510672 0.415886 1.135 255 255 255
0.0262481 0.227418 0.983 255 255 255
-0.597967 0.515206 2.166 255 255 255
0.333022 0.0237727 0.851 255 255 255
0.0135462 0.428317 1.124 255 255 255
-0.377645 -0.287139 1.299 0 0 0
0.0154692 -0.446366 1.484 0 0 0
-1.12622 -0.354023 2.294 255 255 255
0.216689 0.117326 0.742 255 255 255
-0.83686 0.517857 2.32 255 255 255
-0.707721 0.357315 2.519 255 255 255
-0.42436 -0.142833 1.375 255 255 255
-0.214121 -0.367153 1.234 0 0 0
-0.104322 0.035242 0.977 255 255 255
0.0817775 -0.43836 1.419 0 0 0
0.432747 0.441447 1.139 255 255 255
-0.84019 0.454361 2.383 255 255 255
-0.237625 -0.413257 1.252 0 0 0
0.482399 -0.243015 1.024 255 255 255
0.126081 -0.161331 1.116 255 255 255
-0.453852 0.503984 1.758 255 255 255
-0.938973 0.720882 1.985 255 255 255
0.298601 -0.179786 1.064 255 255 255
-1.23254 0.467277 2.43 255 255 255
0.343127 0.452253 1.162 255 255 255
0.214964 -0.285725 1.342 0 0 0
0.360453 0.0101107 0.867 255 255 255
-0.278213 -0.036227 1.182 255 255 255
0.20916 0.106988 0.763 255 255 255
-0.253883 -0.386607 1.232 0 0 0
0.586575 0.355486 1.299 0 0 0
-0.297892 0.585749 1.505 255 255 255
-0.513039 0.59442 1.587 255 255 255
-1.1835 0.548897 2.356 255 255 255
0.124981 0.0576393 0.84 0 0 0
-0.297293 -0.126483 1.299 255 255 255
0.182431 0.0937045 0.787 255 255 255
-0.296643 0.0365798 1.062 255 255 255
-0.729398 0.678865 2.004 255 255 255
0.355934 -0.407315 1.075 255 255 255
0.00729026 0.218734 1.017 255 255 255
0.192235 0.367131 1.225 0 0 0
-0.987594 -0.263055 2.383 255 255 255
-0.0921576 0.343462 1.165 0 0 0
0.0382832 0.0999336 0.828 255 255 255
-0.286317 -0.0980802 1.26 255 255 255
-0.297564 -0.287472 1.291 0 0 0
0.0660136 0.393688 1.114 255 255 255
-1.07293 -0.429805 2.383 255 255 255
0.262475 -0.0357249 0.884 255 255 255
0.323465 0.401297 1.339 0 0 0
-0.118813 0.0823223 0.917 255 255 255
-0.323714 0.0021615 1.139 255 255 255
0.439591 -0.182845 0.97 255 255 255
0.125376 0.361696 1.094 255 255 255
-0.122607 0.116075 0.901 255 255 255
0.299685 -0.320101 1.208 255 255 255
0.240099 0.489448 1.324 255 255 255
0.10131 0.0333259 0.884 255 255 255
0.355355 0.0915971 0.739 255 255 255
0.263816 0.0603436 0.821 255 255 255
0.288923 0.0498368 0.824 255 255 255
0.131068 -0.407455 1.333 255 255 255
-0.0196807 0.395803 1.141 255 255 255
-0.437531 0.60102 1.633 0 0 0
-0.55375 0.464376 2.244 255 255 255
0.241403 -0.339216 1.242 255 255 255
0.00215702 -0.0135705 0.944 0 0 0
0.563631 0.365515 1.145 255 255 255
-0.280252 0.530804 1.646 255 255 255
0.286252 -0.144133 1.02 0 0 0
