ply
format ascii 1.0
comment Created by Open3D
element vertex 1329
property double x
property double y
property double z
property uchar red
property uchar green
property uchar blue
end_header
-0.651666 -0.346754 1.513 255 255 255
0.377374 -0.17481 1.015 255 255 255
0.54732 -0.558903 1.629 255 255 255
0.0707964 0.108796 0.785 255 255 255
-0.156468 0.285014 1.422 0 0 0
-0.659318 0.472187 1.87 0 0 0
0.131385 0.375302 1.273 255 255 255
0.230318 0.0972662 0.755 255 255 255
0.421696 0.346001 0.889 255 255 255
0.0848655 -0.0854993 0.941 255 255 255
-0.613789 0.58409 1.587 0 0 0
-0.253445 0.312416 1.27 255 255 255
-0.283317 -0.603406 1.664 0 0 0
-0.220437 -0.222884 1.247 0 0 0
-1.10008 0.504588 2.294 255 255 255
-0.684405 0.55538 1.705 255 255 255
0.71944 -0.428914 1.599 255 255 255
-0.412768 0.463293 1.513 0 0 0
0.0652277 0.101126 0.795 255 255 255
-0.468569 0.171577 1.299 255 255 255
-0.736485 0.600351 1.624 255 255 255
-0.412253 -0.572276 1.607 255 255 255
0.0125698 0.35153 1.429 255 255 255
0.0285282 -0.050528 1.007 255 255 255
-0.25546 -0.577295 1.659 0 0 0
-0.52893 -0.0248948 1.192 255 255 255
0.255714 -0.312266 1.073 255 255 255
0.232744 0.180082 0.67 255 255 255
-0.281199 0.226659 1.22 255 255 255
0.25954 -0.119573 0.909 255 255 255
-0.161351 0.29903 1.445 0 0 0
-0.203152 0.0441397 0.963 255 255 255
0.327925 -0.011244 0.882 255 255 255
0.30554 -0.0792829 0.905 0 0 0
-1.3368 -0.546896 2.53 255 255 255
-0.621426 -0.0347906 1.27 255 255 255
-0.33719 0.125369 1.147 255 255 255
-0.779122 -0.219089 1.587 0 0 0
0.180275 -0.0378193 0.806 255 255 255
-0.0870555 -0.0427164 1.057 255 255 255
0.328617 -0.040292 0.803 255 255 255
0.0699259 -0.424479 1.286 0 0 0
-0.272901 0.0622703 0.977 255 255 255
-0.473413 -0.38718 1.567 255 255 255
-0.367216 -0.551786 1.571 255 255 255
-0.475992 0.247657 1.369 255 255 255
-0.563844 0.541222 1.637 0 0 0
-0.439447 0.0421971 1.073 255 255 255
-0.661492 0.375628 1.859 0 0 0
0.00519707 0.0246766 0.938 255 255 255
-0.389039 -0.572902 1.587 255 255 255
-0.107586 -0.135908 1.073 0 0 0
0.09665 0.0454354 0.868 255 255 255
0.249258 0.163916 0.645 255 255 255
0.158399 -0.196561 0.724 0 0 0
1.12373 -0.915927 2.572 255 255 255
0.166879 0.125256 0.725 255 255 255
0.404572 -0.332445 1.21 255 255 255
0.16143 -0.168001 0.749 0 0 0
0.318825 -0.0510619 0.808 255 255 255
-0.16195 0.0244088 0.989 255 255 255
-0.112511 -0.095479 1.07 255 255 255
-0.350564 0.0695102 1.013 255 255 255
-1.05903 0.491668 2.286 255 255 255
-0.722703 -0.0844714 1.372 255 255 255
0.446592 -0.162285 0.989 0 0 0
0.460118 -0.160746 0.97 255 255 255
0.238803 0.310839 1.239 0 0 0
-0.53039 -0.165744 1.26 255 255 255
-0.395097 0.469702 1.502 255 255 255
0.0741369 -0.2163 1.1 255 255 255
0.0722685 -0.469015 1.254 255 255 255
0.161396 -0.0581486 0.797 255 255 255
-0.103093 0.0609617 0.91 255 255 255
-0.0699337 -0.128599 1.085 255 255 255
-0.151002 -0.0652006 1.059 255 255 255
0.287075 0.122834 0.667 255 255 255
0.322802 -0.115325 0.947 0 0 0
-0.0761807 0.397079 1.393 255 255 255
-0.293998 0.120669 1.104 255 255 255
-0.0680967 -0.439177 1.324 0 0 0
-0.297114 0.478881 1.387 0 0 0
-0.295377 -0.125009 1.116 255 255 255
0.399533 0.297394 0.961 0 0 0
0.168981 -0.0782074 0.79 255 255 255
0.142574 -0.297999 1.319 0 0 0
-0.0920427 -0.0426355 1.055 255 255 255
0.344756 -0.0439369 0.798 255 255 255
-0.854994 0.582742 1.789 255 255 255
-0.110557 0.305375 1.673 0 0 0
-0.634438 -0.531748 1.473 0 0 0
-0.309856 0.296361 1.281 255 255 255
-0.0128628 0.354241 1.412 255 255 255
-0.515992 -0.0406164 1.198 255 255 255
0.717796 -0.38973 1.567 255 255 255
0.0930457 0.37767 1.348 255 255 255
0.273548 -0.0515491 0.86 255 255 255
0.429026 -0.144064 0.964 255 255 255
-0.0483251 0.115587 0.834 255 255 255
-0.34511 0.224726 1.265 0 0 0
0.330589 -0.0921284 0.901 255 255 255
0.292604 -0.0144986 0.906 255 255 255
0.0486357 0.14834 0.778 255 255 255
0.163215 0.0873009 0.787 255 255 255
0.0284079 0.445296 1.302 0 0 0
0.202586 0.0422477 0.833 255 255 255
0.115373 0.0971747 0.784 255 255 255
-0.11389 0.0903543 0.879 255 255 255
0.398902 -0.20131 1.041 255 255 255
0.0246888 0.489502 1.33 0 0 0
-0.437249 -0.0649056 1.145 255 255 255
-0.20096 -0.0456119 1.007 255 255 255
-0.290699 0.439895 1.378 0 0 0
-0.197577 -0.134703 1.05 255 255 255
0.1942 0.15805 0.688 255 255 255
0.467251 -0.166334 0.975 255 255 255
0.15952 0.00907106 0.904 0 0 0
-0.341643 -0.347264 1.571 0 0 0
-0.732064 -0.159622 1.425 255 255 255
0.0459461 -0.142194 1.03 255 255 255
-0.727668 0.364893 1.947 255 255 255
-0.634061 0.515182 1.719 255 255 255
0.130436 0.350904 1.372 255 255 255
0.432341 -0.208686 1.044 255 255 255
0.266566 0.341182 0.961 255 255 255
0.33118 0.110395 0.664 255 255 255
0.0796759 0.137487 0.76 255 255 255
-0.278959 0.17343 1.169 255 255 255
-0.621283 -0.426975 1.459 0 0 0
0.176189 0.162177 0.701 255 255 255
0.107866 0.352365 1.369 255 255 255
0.119866 -0.452859 1.18 255 255 255
-0.465409 -0.322771 1.516 0 0 0
-0.258039 0.496127 1.348 255 255 255
-1.27358 0.406506 2.519 255 255 255
0.147085 -0.346516 1.11 255 255 255
-0.257276 -0.0315377 1.029 255 255 255
-0.713047 0.529563 1.748 255 255 255
-0.0808557 -0.10553 1.066 255 255 255
-1.15618 0.471471 2.411 255 255 255
0.328617 -0.0696737 0.826 255 255 255
0.185459 0.150177 0.693 255 255 255
0.0464229 0.0109387 0.938 255 255 255
0.189069 0.142173 0.698 255 255 255
-0.00790832 -0.0719578 1.057 255 255 255
0.458625 -0.152362 0.957 255 255 255
0.0631629 -0.178059 1.096 255 255 255
-0.378706 -0.534163 1.587 0 0 0
-0.0339529 0.353855 1.429 255 255 255
0.129248 -0.0864987 0.952 255 255 255
-0.538831 -0.140576 1.237 255 255 255
0.153958 -0.0472666 0.942 255 255 255
0.088421 0.448537 1.281 0 0 0
-0.0351647 0.352033 1.48 255 255 255
0.293101 0.348712 0.931 255 255 255
0.267923 0.0143765 0.869 0 0 0
-0.387844 0.0179499 1.085 255 255 255
0.260987 -0.374414 1.066 255 255 255
-0.256116 0.298653 1.273 255 255 255
0.33673 0.306449 1.017 255 255 255
-0.383812 -0.488546 1.642 0 0 0
-0.355269 0.298925 1.359 255 255 255
-1.42781 0.142326 2.719 255 255 255
-0.0744089 -0.019739 1.025 255 255 255
0.212144 0.106602 0.743 255 255 255
0.05963 0.312489 1.442 0 0 0
0.297814 0.194962 0.63 255 255 255
0.382642 -0.152165 0.986 0 0 0
-1.19151 0.487165 2.411 255 255 255
0.209344 0.163717 0.679 255 255 255
-0.778173 0.410465 1.923 255 255 255
-0.733449 -0.277906 1.629 255 255 255
1.12719 -1.02525 2.649 255 255 255
-0.728892 0.517224 1.794 255 255 255
0.161106 0.0523578 0.843 255 255 255
0.414451 -0.150313 0.974 255 255 255
0.224681 0.0555807 0.81 255 255 255
-0.444591 0.0581281 1.077 255 255 255
0.229487 0.334494 0.997 255 255 255
-0.222268 -0.431116 1.524 255 255 255
0.143977 -0.442538 1.173 0 0 0
-0.515252 -0.0449614 1.21 255 255 255
-0.188028 -0.333705 1.275 255 255 255
-0.19529 0.58409 1.587 255 255 255
-0.184475 0.0654688 0.932 255 255 255
-0.203754 0.0647756 0.944 255 255 255
-0.471558 -0.0203805 1.156 255 255 255
0.25905 -0.355256 1.087 255 255 255
0.0633395 0.0602004 0.857 255 255 255
-0.482864 0.232237 1.357 255 255 255
-1.18903 0.447505 2.43 255 255 255
0.108335 0.49222 1.27 255 255 255
-1.28045 -0.883265 2.469 255 255 255
0.296844 0.0919842 0.714 255 255 255
0.300275 0.158992 0.61 0 0 0
0.271759 -0.281488 1.11 255 255 255
0.502028 -0.205599 1.037 255 255 255
0.394973 0.307754 0.969 0 0 0
-0.567501 -0.0737665 1.265 255 255 255
-0.832826 0.499575 1.87 255 255 255
-0.43757 0.336001 1.403 255 255 255
0.0431091 0.323547 1.439 255 255 255
-0.176684 0.216118 1.381 255 255 255
0.0390779 0.00640682 0.945 255 255 255
-0.0108769 -0.227012 1.194 255 255 255
0.200729 -0.147744 0.764 255 255 255
-1.17476 0.553118 2.294 255 255 255
-0.724272 0.553539 1.734 255 255 255
-1.27265 -0.559518 2.55 0 0 0
0.243412 0.105635 0.728 255 255 255
-0.59773 -0.320155 1.539 0 0 0
-0.582501 -0.525757 1.463 255 255 255
-0.132849 0.0944877 0.891 255 255 255
-0.341166 -0.188438 1.289 255 255 255
-1.39847 0.146199 2.793 255 255 255
-0.588311 0.534386 1.7 0 0 0
0.0504136 0.0810696 0.828 255 255 255
0.0568048 0.0983453 0.804 255 255 255
0.0282988 -0.402783 1.297 255 255 255
-0.269647 -0.48616 1.599 255 255 255
0.0245775 0.398956 1.324 255 255 255
0.377123 -0.146455 0.98 0 0 0
-0.657926 -0.509025 1.456 255 255 255
0.280632 0.129545 0.657 255 255 255
0.312949 0.0692129 0.744 255 255 255
0.0775669 -0.0872443 0.927 0 0 0
-0.173175 -0.066432 1.079 255 255 255
0.176709 -0.157477 0.757 255 255 255
0.0547137 0.458165 1.273 0 0 0
-0.593179 -0.0826596 1.308 255 255 255
-0.677597 -0.498189 1.473 0 0 0
0.210657 0.128543 0.698 255 255 255
0.250418 0.166788 0.648 255 255 255
0.745201 -0.48276 1.571 0 0 0
-0.176063 0.0863258 0.912 255 255 255
0.0964505 -0.415885 1.305 255 255 255
0.33731 -0.18313 1.034 0 0 0
-0.22939 0.0769019 0.942 255 255 255
0.286598 0.111494 0.684 255 255 255
0.306207 0.180769 0.62 255 255 255
-0.957973 0.691037 1.853 255 255 255
-0.616319 -0.0459769 1.294 255 255 255
-0.477412 0.0431016 1.096 255 255 255
-0.123325 0.34038 1.559 255 255 255
-0.459942 -0.221718 1.452 255 255 255
0.202056 0.312814 1.085 255 255 255
-1.19099 0.563558 2.261 255 255 255
-0.79766 0.604331 1.734 255 255 255
-0.853827 0.573267 1.805 255 255 255
-0.0688775 0.0653417 0.889 255 255 255
0.270676 0.176785 0.646 255 255 255
-0.50274 -0.465789 1.532 255 255 255
0.176543 0.022572 0.858 255 255 255
0.0856931 -0.358367 1.336 0 0 0
-0.219488 0.0705447 0.939 255 255 255
-0.0271532 0.0557117 0.897 255 255 255
0.252629 0.154141 0.635 255 255 255
0.305219 0.17918 0.618 255 255 255
0.20615 0.32166 1.018 255 255 255
-0.413837 -0.552591 1.603 255 255 255
0.114764 0.00481747 0.935 255 255 255
0.185698 0.0824913 0.79 255 255 255
0.296764 0.0733347 0.749 255 255 255
0.258746 -0.109114 0.896 255 255 255
0.233811 0.345268 0.955 255 255 255
0.00895453 -0.085869 1.018 255 255 255
-0.0888222 0.100762 0.858 255 255 255
0.312576 0.068185 0.746 255 255 255
-0.489662 0.47802 1.595 0 0 0
0.0173426 0.349306 1.439 255 255 255
0.0398729 0.127143 0.78 255 255 255
0.134326 -0.0913739 0.923 255 255 255
0.0906174 0.0416724 0.878 255 255 255
-0.199476 -0.122859 1.051 255 255 255
0.272273 -0.0160788 0.912 0 0 0
0.376265 -0.0081455 0.858 0 0 0
-0.690157 -0.505326 1.459 0 0 0
0.244114 0.336537 0.984 255 255 255
-0.344208 0.50681 1.359 0 0 0
-0.0527749 0.0890793 0.84 255 255 255
-0.785227 0.599302 1.744 255 255 255
-0.311829 -0.505885 1.629 0 0 0
-1.03844 0.420465 2.411 255 255 255
-0.615249 0.559614 1.668 0 0 0
0.267632 0.103733 0.723 255 255 255
-0.0776756 -0.107668 1.07 255 255 255
-0.529837 -0.00912486 1.16 255 255 255
-0.223019 0.0921334 0.941 255 255 255
0.254077 0.103265 0.728 255 255 255
0.0689428 0.0486496 0.875 255 255 255
-0.850403 0.580734 1.682 255 255 255
0.0750223 0.129338 0.763 255 255 255
0.753507 -0.44073 1.567 255 255 255
-0.644324 0.51107 1.724 255 255 255
0.154832 0.134786 0.713 255 255 255
0.128851 0.127329 0.737 255 255 255
-0.496352 -0.257027 1.551 0 0 0
-0.699668 0.532248 1.729 0 0 0
0.21266 0.170347 0.679 255 255 255
0.0378681 -0.0369352 0.994 255 255 255
0.292044 0.0969719 0.708 255 255 255
0.713012 -0.523762 1.579 255 255 255
0.217629 -0.134337 0.78 255 255 255
-0.107892 0.0626484 0.913 255 255 255
-0.209037 -0.0960944 1.039 255 255 255
-0.359563 -0.257334 1.342 255 255 255
-0.343616 -0.212419 1.348 255 255 255
0.12104 -0.154684 1.013 0 0 0
-0.0797083 -0.149795 1.098 255 255 255
0.342398 0.0497417 0.761 255 255 255
0.234642 0.161284 0.66 255 255 255
-0.703921 0.602653 1.616 255 255 255
0.218032 -0.143518 0.768 255 255 255
0.147397 -0.292779 1.217 0 0 0
-0.513745 -0.551112 1.513 255 255 255
-0.208038 0.434886 1.459 255 255 255
0.366067 0.0224038 0.802 255 255 255
-0.135931 -0.346677 1.502 255 255 255
0.142879 0.162723 0.729 255 255 255
0.246272 -0.372267 1.055 255 255 255
0.0941399 0.0546857 0.858 255 255 255
0.150033 -0.287586 1.092 255 255 255
0.283201 -0.0507698 0.847 255 255 255
-0.0681387 0.101865 0.844 255 255 255
-0.125736 -0.0741659 1.064 255 255 255
-1.22353 0.461416 2.42 255 255 255
-0.570362 0.44757 1.696 255 255 255
0.0233894 -0.446654 1.26 255 255 255
-0.216141 -0.0424185 1.009 255 255 255
0.109656 0.140522 0.737 255 255 255
0.197216 0.0411867 0.839 255 255 255
-0.501226 -0.439224 1.535 255 255 255
-0.370399 -0.517359 1.607 0 0 0
-0.253966 -0.0755859 1.036 255 255 255
-0.284248 -0.217948 1.242 255 255 255
-0.315187 -0.134525 1.135 255 255 255
-0.649732 -0.32857 1.52 255 255 255
-0.719002 0.460968 1.899 255 255 255
0.194785 -0.113819 0.77 255 255 255
0.0394229 -0.186177 1.081 255 255 255
-0.216864 -0.294729 1.286 255 255 255
-0.339038 0.0831063 1.018 255 255 255
-1.12899 0.465354 2.42 255 255 255
0.169094 -0.0313775 0.809 255 255 255
0.23628 -0.346865 1.072 255 255 255
-0.715314 -0.33446 1.583 255 255 255
-0.611421 -0.42065 1.487 255 255 255
-0.686552 0.508256 1.753 255 255 255
-0.308244 0.121325 1.11 255 255 255
0.266293 0.0974756 0.729 255 255 255
0.162891 -0.377481 1.06 255 255 255
0.0631512 -0.109533 0.937 255 255 255
0.130227 0.111368 0.759 255 255 255
-0.00718292 -0.24926 1.227 255 255 255
-0.0180377 0.108975 0.815 255 255 255
0.30575 0.135143 0.638 255 255 255
-0.200457 -0.443773 1.587 0 0 0
-0.27505 0.260012 1.237 0 0 0
-0.152999 -0.151623 1.073 0 0 0
-0.140659 -0.0738173 1.059 255 255 255
-0.53461 0.00218996 1.154 255 255 255
-0.595158 -0.521945 1.459 255 255 255
-0.00729481 0.00502356 0.975 255 255 255
-0.641591 -0.555039 1.484 0 0 0
-0.0987563 -0.503918 1.302 255 255 255
-0.138392 -0.00634499 1.017 255 255 255
0.442625 -0.337144 1.165 255 255 255
0.323028 0.0537378 0.765 255 255 255
0.0873683 -0.112342 0.935 255 255 255
-0.0947489 0.521891 1.47 0 0 0
-0.0485484 0.488046 1.381 255 255 255
0.0694021 0.0564087 0.863 255 255 255
-0.281851 0.528147 1.357 255 255 255
0.320885 0.048507 0.781 255 255 255
-0.363711 0.162727 1.217 255 255 255
0.00690911 -0.393343 1.247 0 0 0
0.291041 0.0633502 0.776 255 255 255
-0.216633 -0.0998589 1.043 255 255 255
-0.158598 0.421794 1.463 255 255 255
-0.107833 0.29993 1.673 0 0 0
-0.0797643 -0.00294846 0.988 255 255 255
0.183802 0.345868 1.249 255 255 255
-0.671289 0.590346 1.686 255 255 255
0.264129 0.337108 0.981 255 255 255
-0.142899 0.552881 1.579 255 255 255
-0.720015 -0.125461 1.406 255 255 255
0.0294018 -0.273111 1.254 255 255 255
0.230614 0.2963 1.07 255 255 255
0.195181 0.0615294 0.819 255 255 255
-0.136202 -0.349819 1.505 255 255 255
-0.426461 -0.391591 1.673 0 0 0
0.0287688 -0.476887 1.227 255 255 255
0.0926315 0.382541 1.342 255 255 255
0.141986 -0.110917 0.776 255 255 255
0.379718 0.0245462 0.787 255 255 255
0.121084 -0.0904442 0.961 255 255 255
0.42983 -0.0998919 0.879 0 0 0
-0.416265 -0.594822 1.633 255 255 255
0.347674 0.345705 0.927 255 255 255
0.169049 0.365061 0.958 255 255 255
-0.554267 -0.218999 1.348 0 0 0
0.145866 -0.306625 1.31 255 255 255
-0.467061 0.157671 1.289 255 255 255
-0.631323 -0.38373 1.494 255 255 255
-0.192707 -0.407617 1.587 0 0 0
0.466984 -0.546541 1.664 255 255 255
0.157216 0.117415 0.735 255 255 255
-0.365837 -0.0722194 1.173 255 255 255
-0.139832 0.429816 1.466 255 255 255
0.165338 -0.0386769 0.92 0 0 0
-0.619109 -0.223325 1.432 255 255 255
-0.357953 -0.460271 1.646 255 255 255
0.24941 0.154314 0.64 255 255 255
0.157927 -0.407932 1.11 255 255 255
0.123886 0.109988 0.758 255 255 255
0.198974 0.127107 0.709 255 255 255
-1.31209 0.218921 2.793 255 255 255
-0.0663995 -0.495459 1.291 255 255 255
0.354661 0.0286409 0.794 255 255 255
-0.32774 -0.5483 1.629 0 0 0
-0.166207 0.00357792 1.015 255 255 255
0.527198 -0.500692 1.532 0 0 0
0.122505 0.0399228 0.871 255 255 255
-0.487065 -0.562812 1.595 255 255 255
-1.07107 0.489735 2.312 255 255 255
-0.57778 -0.363989 1.513 0 0 0
-0.040798 0.303788 1.607 0 0 0
-0.0598695 -0.00954105 1.005 255 255 255
-0.943193 0.416622 2.303 255 255 255
-0.200869 -0.393455 1.494 0 0 0
-0.531015 -0.343893 1.579 0 0 0
-0.0412698 -0.195064 1.122 255 255 255
0.108421 0.154171 0.745 255 255 255
0.300189 0.171134 0.618 255 255 255
0.143045 -0.0477181 0.951 255 255 255
0.113428 0.0531652 0.856 255 255 255
-1.07309 0.456078 2.392 255 255 255
0.117695 0.119811 0.75 255 255 255
-0.406909 0.236518 1.369 0 0 0
0.198065 0.346849 0.986 255 255 255
-0.407648 -0.00881021 1.12 255 255 255
0.0161127 0.0609731 0.868 255 255 255
0.275384 0.0225457 0.857 255 255 255
-0.351595 0.146295 1.196 255 255 255
-0.537809 -0.470298 1.439 0 0 0
-0.0143684 -0.202018 1.162 0 0 0
0.103554 0.382541 1.342 255 255 255
0.416631 -0.350681 1.205 255 255 255
0.0157638 -0.321057 1.308 0 0 0
0.167861 -0.157269 0.756 255 255 255
-0.453524 -0.112754 1.158 255 255 255
0.0777754 0.101904 0.791 255 255 255
-0.577281 0.576007 1.579 255 255 255
0.352196 0.342602 0.935 255 255 255
-0.253432 0.000277686 1.027 255 255 255
0.349104 0.0710827 0.726 255 255 255
0.528048 -0.494483 1.513 0 0 0
-0.162247 -0.398827 1.543 255 255 255
0.477487 -0.16706 0.97 255 255 255
-1.06926 0.274569 2.55 255 255 255
0.291881 0.037631 0.821 255 255 255
-0.240756 -0.328059 1.302 0 0 0
0.102503 -0.328668 1.357 0 0 0
0.29731 0.0249506 0.844 255 255 255
0.11642 -0.423725 1.128 0 0 0
0.124006 0.349434 1.375 255 255 255
0.386645 0.339257 0.93 255 255 255
-0.555933 -0.437217 1.494 0 0 0
-0.461139 0.562874 1.543 0 0 0
-0.173241 0.410731 1.466 255 255 255
0.138635 -0.351733 1.387 255 255 255
-0.194412 0.265006 1.333 255 255 255
0.113999 0.401369 1.22 255 255 255
0.783827 -0.994628 2.793 255 255 255
-0.173412 -0.141028 1.059 255 255 255
-0.465692 -0.392367 1.62 255 255 255
0.167427 -0.106439 0.771 255 255 255
0.125603 -0.389223 1.162 255 255 255
0.118445 0.132422 0.732 255 255 255
0.3047 -0.0347955 0.861 255 255 255
-0.285529 0.122687 1.106 255 255 255
0.175243 0.000228476 0.845 255 255 255
0.343054 -0.0877775 0.845 255 255 255
-0.276062 -0.233409 1.26 255 255 255
-0.533762 -0.409869 1.528 255 255 255
0.0422805 -0.438833 1.273 0 0 0
-0.057091 0.307002 1.624 0 0 0
-0.232647 0.437074 1.435 0 0 0
0.187623 0.02223 0.845 255 255 255
0.0697628 0.417919 1.283 0 0 0
-0.53137 0.0169897 1.139 255 255 255
-0.281333 0.227616 1.247 255 255 255
0.277758 -0.355278 1.098 255 255 255
0.225601 -0.0121186 0.843 255 255 255
-0.0778575 0.0455067 0.927 255 255 255
0.0900823 0.425688 1.275 0 0 0
-0.615265 -0.248392 1.456 0 0 0
0.201381 0.188045 0.726 0 0 0
-0.181239 0.274569 1.348 255 255 255
0.462205 -0.117704 0.906 255 255 255
0.187136 0.348745 1.145 255 255 255
-0.464647 -0.0281708 1.167 255 255 255
0.293442 -0.273403 1.16 255 255 255
-0.355682 -0.0797187 1.171 255 255 255
-0.0025023 0.00966309 0.963 255 255 255
0.345511 0.0895364 0.695 255 255 255
-0.143494 0.0389878 0.952 255 255 255
0.279786 0.18394 0.638 255 255 255
0.0325443 0.138529 0.787 255 255 255
0.109219 0.0607326 0.845 255 255 255
0.396396 0.338971 0.921 255 255 255
0.0105877 0.312863 1.477 255 255 255
0.248989 0.122159 0.694 255 255 255
0.283052 0.0850666 0.745 255 255 255
0.446838 0.327691 0.923 255 255 255
0.32517 0.00305621 0.867 255 255 255
-0.301986 0.328141 1.283 255 255 255
-1.32162 -0.64443 2.509 255 255 255
-0.196692 -0.258059 1.291 255 255 255
-0.856765 0.543894 1.805 255 255 255
-0.0429041 0.403095 1.345 255 255 255
-0.488535 -0.166712 1.222 255 255 255
-0.131546 0.103303 0.892 255 255 255
0.0204048 0.490606 1.333 0 0 0
0.439093 -0.177994 1.005 255 255 255
-0.768041 0.405468 1.929 255 255 255
0.307691 0.156235 0.607 0 0 0
0.2908 0.318184 1.007 255 255 255
-0.431294 -0.0654158 1.154 255 255 255
0.377504 -0.211285 1.057 255 255 255
-0.159866 0.0465376 0.948 255 255 255
-0.661312 -0.0464743 1.308 255 255 255
-0.225246 0.248608 1.362 255 255 255
0.511467 -0.188554 1.009 255 255 255
-0.0368794 -0.116057 1.1 0 0 0
-0.238603 -0.124607 1.081 255 255 255
0.403903 -0.339759 1.208 255 255 255
-0.251385 -0.117788 1.083 255 255 255
0.160602 -0.0520306 0.945 0 0 0
-0.615019 -0.550209 1.484 255 255 255
-0.262968 0.314363 1.237 255 255 255
0.0775245 -0.0358205 0.964 255 255 255
-0.162697 -0.522125 1.396 255 255 255
0.472716 -0.150332 0.954 255 255 255
0.196978 0.327913 1.022 255 255 255
0.515457 -0.472275 1.505 0 0 0
0.230616 0.15214 0.667 255 255 255
-0.26174 -0.544241 1.682 0 0 0
0.15518 0.131422 0.72 255 255 255
0.214523 0.0954368 0.76 255 255 255
0.132209 -0.0183139 0.951 255 255 255
-0.492372 -0.286236 1.587 255 255 255
0.0566506 -0.0173305 0.983 255 255 255
-0.0462375 -0.0692307 1.068 255 255 255
0.528193 -0.237535 1.059 255 255 255
0.675954 -0.389218 1.607 0 0 0
0.43234 0.31541 0.954 0 0 0
-0.687286 -0.501949 1.463 0 0 0
-0.156102 0.344458 1.532 255 255 255
0.15858 0.149029 0.709 255 255 255
-0.388229 0.347147 1.366 255 255 255
-0.345993 -0.565634 1.603 0 0 0
0.160041 -0.0238086 0.924 0 0 0
-0.155076 0.470889 1.498 255 255 255
-0.45478 -0.336924 1.547 0 0 0
0.450551 -0.39434 1.297 0 0 0
0.342742 0.332989 0.951 255 255 255
-0.166873 0.576342 1.587 255 255 255
0.137472 -0.34417 1.12 255 255 255
-0.0231995 0.462191 1.345 0 0 0
0.195014 0.33868 0.995 255 255 255
-0.433508 -0.136185 1.165 255 255 255
-0.473583 -0.460819 1.629 255 255 255
-0.00137053 0.368028 1.412 255 255 255
0.0994378 0.0139319 0.934 255 255 255
0.00313499 0.386627 1.372 255 255 255
-0.231622 -0.478549 1.682 255 255 255
-0.446126 0.287027 1.387 255 255 255
-0.582374 -0.396451 1.487 255 255 255
0.0557153 -0.456982 1.249 255 255 255
-0.555872 -0.0313583 1.217 255 255 255
0.301232 0.317174 1.009 255 255 255
0.24621 -0.370493 1.085 0 0 0
-0.722893 0.459511 1.893 255 255 255
0.269958 0.0144095 0.871 0 0 0
0.140888 0.102958 0.77 255 255 255
-0.687782 -0.5077 1.459 0 0 0
0.298581 -0.0331823 0.893 0 0 0
0.016732 -0.00937966 0.988 255 255 255
-0.298337 0.230062 1.217 255 255 255
0.288507 -0.287378 1.126 255 255 255
0.240305 -0.383676 1.044 255 255 255
0.00483139 0.0612541 0.872 255 255 255
-0.427904 0.0419218 1.066 255 255 255
-0.787466 -0.218404 1.528 0 0 0
-0.765539 -0.217433 1.575 0 0 0
-1.30315 -0.574435 2.561 255 255 255
-0.750683 -0.175416 1.48 255 255 255
0.127479 0.0250297 0.896 255 255 255
0.158105 -0.463605 1.208 0 0 0
0.17572 0.0391436 0.854 255 255 255
0.341707 0.0475133 0.765 255 255 255
0.388352 0.00564749 0.833 255 255 255
0.205738 0.0997234 0.755 255 255 255
0.269181 0.321411 1.012 255 255 255
0.379197 0.322416 0.961 255 255 255
0.295245 0.0698302 0.764 255 255 255
0.183113 -0.0783861 0.779 255 255 255
0.129689 -0.388228 1.182 0 0 0
-0.2202 0.4804 1.372 255 255 255
0.141254 0.100713 0.772 255 255 255
-0.378838 0.0723922 1.055 255 255 255
-0.301522 0.363942 1.299 255 255 255
-0.474035 -0.220413 1.459 255 255 255
0.134118 0.163616 0.733 255 255 255
0.257983 0.13484 0.662 255 255 255
0.0692522 -0.0729374 0.937 255 255 255
-0.178487 -0.304006 1.281 255 255 255
-0.450971 -0.383423 1.673 0 0 0
-0.0372274 0.386076 1.378 255 255 255
0.228445 0.159738 0.667 255 255 255
0.320837 0.332984 0.969 0 0 0
-0.36633 0.528925 1.359 255 255 255
-0.608035 0.589007 1.559 255 255 255
0.437653 -0.367399 1.147 255 255 255
-0.795092 0.448332 1.911 255 255 255
0.307775 -0.102109 0.925 255 255 255
0.112077 -0.335293 1.366 255 255 255
0.166855 -0.168543 0.746 0 0 0
-0.57415 -0.448108 1.466 255 255 255
0.0172739 -0.0661192 1.02 255 255 255
-1.1036 0.184857 2.572 255 255 255
0.0219142 0.417291 1.294 255 255 255
-1.18598 0.433464 2.44 255 255 255
0.354293 -0.0413915 0.799 255 255 255
-0.0377789 0.0864481 0.841 255 255 255
0.380172 -0.128785 0.944 255 255 255
-0.151755 0.557082 1.591 255 255 255
-0.538658 -0.135998 1.232 255 255 255
0.339756 -0.149863 0.992 255 255 255
-0.302281 0.477655 1.39 0 0 0
0.280508 -0.0635569 0.891 0 0 0
0.429107 -0.166842 0.997 0 0 0
-1.07016 0.493654 2.278 255 255 255
0.241899 -0.322372 1.066 255 255 255
0.0581638 0.0578131 0.863 255 255 255
-0.0918513 -0.00622021 0.997 255 255 255
0.222828 -0.126411 0.794 255 255 255
-0.521395 -0.505264 1.452 0 0 0
0.428493 -0.173432 1.007 0 0 0
0.1896 -0.303594 1.055 255 255 255
0.0485015 -0.050768 0.98 0 0 0
-0.252938 -0.0347511 1.025 255 255 255
0.328339 -0.171863 1.027 0 0 0
-0.109461 -0.0285174 1.041 255 255 255
-0.231369 -0.564122 1.535 255 255 255
-0.0389805 -0.347674 1.222 255 255 255
-0.257237 0.166061 1.289 0 0 0
0.0153074 -0.0176302 1 255 255 255
-0.360975 -0.110686 1.1 255 255 255
0.110208 -0.429206 1.222 0 0 0
-0.367746 -0.0684017 1.173 255 255 255
0.170754 -0.298086 1.066 255 255 255
-0.234431 0.0590034 0.95 255 255 255
0.243876 0.00164911 0.869 255 255 255
0.396258 0.000229017 0.847 255 255 255
-0.487169 0.0326959 1.106 255 255 255
-0.419677 0.151349 1.254 255 255 255
-0.861899 0.47955 1.887 255 255 255
-0.0123373 -0.192279 1.149 0 0 0
0.00989453 0.0964166 0.821 255 255 255
0.389595 -0.224878 1.081 255 255 255
0.205938 -0.0897953 0.779 255 255 255
-0.347024 0.0451808 1.022 255 255 255
0.743799 -1.01737 2.831 255 255 255
-0.31423 -0.0322719 1.112 255 255 255
-0.142162 -0.215019 1.203 0 0 0
0.164814 -0.0559847 0.934 0 0 0
-0.288835 0.215969 1.299 0 0 0
0.0365738 0.435232 1.291 0 0 0
-0.488085 -0.488514 1.48 0 0 0
0.736677 -0.39349 1.532 255 255 255
-0.0569767 0.0426729 0.931 255 255 255
-0.0541378 -0.169521 1.087 255 255 255
-0.102337 0.0960643 0.866 255 255 255
-0.29137 -0.161936 1.173 255 255 255
0.740087 -0.495543 1.571 255 255 255
0.80998 -0.963431 2.743 255 255 255
0.018515 0.0345699 0.917 255 255 255
1.18324 -1.0037 2.649 255 255 255
0.185606 0.360869 0.947 255 255 255
0.290269 -0.319542 1.098 255 255 255
0.357501 -0.121233 0.945 255 255 255
-0.819896 0.548715 1.821 255 255 255
0.388852 -0.267367 1.192 0 0 0
-0.0274919 0.124322 0.82 255 255 255
-0.0406238 0.408747 1.342 255 255 255
0.409369 -0.127249 0.944 0 0 0
0.314341 -0.0525064 0.81 255 255 255
-0.304101 -0.138219 1.135 255 255 255
0.148987 -0.0966512 0.773 255 255 255
0.191496 -0.13382 0.777 255 255 255
-0.185667 0.00521935 1.013 255 255 255
-0.269826 0.270942 1.289 255 255 255
0.146836 0.042414 0.864 255 255 255
-0.0865614 0.0161135 0.974 255 255 255
0.297814 0.189836 0.63 255 255 255
-0.0399088 -0.0844579 1.085 255 255 255
0.415466 -0.301351 1.196 255 255 255
-0.479456 -0.485094 1.587 255 255 255
-0.579471 0.583314 1.571 255 255 255
0.217277 0.014029 0.848 255 255 255
-0.664034 -0.392665 1.491 255 255 255
0.160104 -0.0990388 0.772 255 255 255
0.246148 -0.348483 1.077 255 255 255
-0.617228 0.590518 1.563 0 0 0
-0.481204 -0.567415 1.646 255 255 255
-0.121219 -0.12508 1.07 0 0 0
0.409475 0.312632 0.955 0 0 0
0.334504 0.0910588 0.698 255 255 255
-0.294329 -0.340795 1.487 0 0 0
-0.623774 0.482581 1.753 255 255 255
-1.08293 0.522702 2.228 255 255 255
0.311568 0.110796 0.673 255 255 255
-0.326845 -0.0415428 1.118 255 255 255
-0.262447 0.394128 1.294 255 255 255
-0.628941 -0.00550625 1.194 255 255 255
0.334609 -0.0760447 0.808 255 255 255
0.241419 0.0355977 0.836 0 0 0
0.284502 0.0944506 0.724 255 255 255
-0.13216 0.314787 1.637 0 0 0
-0.269389 0.39082 1.297 255 255 255
-0.390453 0.347147 1.366 255 255 255
-0.00704242 -0.363803 1.203 255 255 255
0.103732 0.116924 0.755 255 255 255
-0.411818 -0.301432 1.449 255 255 255
-0.40511 -0.0370853 1.149 255 255 255
-0.497505 0.506724 1.612 0 0 0
-0.262968 0.306311 1.237 255 255 255
0.31188 0.294479 1.039 0 0 0
0.298365 0.192605 0.629 255 255 255
-0.00356506 -0.330068 1.372 0 0 0
-0.102832 -0.0652622 1.06 255 255 255
-0.111144 -0.0616373 1.057 255 255 255
-0.283117 0.116611 1.083 255 255 255
0.30839 0.0592547 0.772 255 255 255
-0.451731 -0.516521 1.646 0 0 0
-0.182813 -0.354546 1.547 0 0 0
-0.869713 0.568092 1.677 255 255 255
-0.603483 0.0117502 1.171 255 255 255
0.314954 -0.0581356 0.815 0 0 0
0.233272 0.050743 0.817 255 255 255
0.411971 0.321817 0.95 0 0 0
0.290911 0.102271 0.697 255 255 255
0.483879 -0.526838 1.612 255 255 255
0.397147 0.03178 0.776 255 255 255
0.275096 -0.0639849 0.897 0 0 0
0.0800801 0.436029 1.281 255 255 255
-0.361906 0.531137 1.359 255 255 255
-0.141102 0.455945 1.505 255 255 255
0.113212 0.0606607 0.844 255 255 255
0.123461 0.106988 0.763 255 255 255
-0.0572522 -0.180565 1.079 255 255 255
-0.603291 -0.216982 1.406 0 0 0
0.0457795 0.0183135 0.925 255 255 255
-0.260209 -0.0232776 1.034 255 255 255
-0.579954 -0.57068 1.487 0 0 0
-1.27757 -0.677067 2.479 255 255 255
-0.170125 -0.142886 1.06 255 255 255
0.176619 0.00572885 0.845 255 255 255
-0.642104 0.444591 1.882 0 0 0
0.25069 0.335706 0.991 255 255 255
0.386645 0.34077 0.93 255 255 255
0.127028 -0.0105315 0.947 255 255 255
0.300934 0.288503 1.048 0 0 0
0.440061 0.331596 0.909 255 255 255
0.459289 -0.201249 1.032 255 255 255
-0.151296 0.226367 1.375 255 255 255
-0.167664 0.458629 1.459 255 255 255
0.343735 0.00163963 0.864 255 255 255
0.236368 0.183627 0.671 255 255 255
0.274959 -0.0847184 0.916 255 255 255
-0.149498 -0.472735 1.491 255 255 255
-0.575044 0.594081 1.559 255 255 255
-0.993016 0.49069 2.136 255 255 255
-0.536017 0.0151628 1.141 255 255 255
0.130826 0.409238 1.158 255 255 255
-0.280406 0.0609288 0.981 255 255 255
0.282967 0.12463 0.665 255 255 255
-0.256518 -0.238262 1.275 255 255 255
0.126261 0.00479171 0.93 255 255 255
-0.155801 0.0377925 0.961 255 255 255
0.291805 0.309619 1.022 255 255 255
0.34339 0.0264833 0.807 255 255 255
0.0539967 0.0884004 0.821 255 255 255
0.689928 -0.422161 1.603 0 0 0
0.23004 0.28958 1.118 255 255 255
0.449678 0.324819 0.932 255 255 255
-0.189577 0.440119 1.445 0 0 0
0.172853 -0.0480725 0.802 255 255 255
0.222387 0.0469833 0.821 255 255 255
0.22367 -0.0970581 0.797 255 255 255
0.204466 -0.05043 0.798 255 255 255
0.213075 -0.0548704 0.806 255 255 255
0.318309 0.304448 1.027 255 255 255
-0.458245 0.401795 1.477 255 255 255
-0.404406 -0.582737 1.607 255 255 255
-0.134269 0.358554 1.539 0 0 0
0.449423 -0.145674 0.954 0 0 0
0.419856 -0.322691 1.203 255 255 255
0.372155 0.328346 0.951 255 255 255
-0.440368 -0.17446 1.249 255 255 255
0.552503 -0.257017 1.083 255 255 255
0.146912 -0.270103 1.213 255 255 255
0.215852 0.335105 0.994 255 255 255
-0.353582 0.425711 1.452 255 255 255
0.237437 0.298462 1.182 0 0 0
-0.088944 -0.082434 1.059 255 255 255
0.0388298 0.0109503 0.939 255 255 255
-0.0109062 0.0590859 0.882 255 255 255
0.412071 -0.210485 1.053 255 255 255
0.273267 0.0143599 0.868 255 255 255
0.0357395 -0.00770893 0.98 255 255 255
0.191885 -0.0614169 0.789 255 255 255
-0.594477 -0.427909 1.487 255 255 255
0.169586 -0.401316 1.092 255 255 255
-0.101161 0.0906361 0.868 255 255 255
-0.115273 0.0735548 0.901 255 255 255
0.229875 0.168674 0.668 255 255 255
-0.15045 0.268651 1.409 255 255 255
0.249743 -0.358134 1.085 0 0 0
-0.725693 0.518689 1.779 255 255 255
-0.568127 0.592489 1.575 255 255 255
-0.327854 -0.135948 1.147 255 255 255
-0.0268674 0.0307823 0.938 255 255 255
-0.18 0.292854 1.372 255 255 255
0.184523 0.089634 0.785 255 255 255
-0.4766 0.08584 1.222 255 255 255
-0.511029 -0.452682 1.505 255 255 255
0.0608273 0.148452 0.772 255 255 255
-0.691459 -0.165447 1.477 255 255 255
-0.300993 -0.239395 1.27 255 255 255
0.138509 -0.142694 0.757 255 255 255
0.352138 -0.0218245 0.847 255 255 255
-0.880593 0.539636 1.753 255 255 255
0.0536334 -0.231874 1.16 255 255 255
-0.141089 0.596618 1.559 255 255 255
-0.437531 -0.560276 1.633 255 255 255
0.386045 0.0316981 0.774 255 255 255
0.26368 -0.327451 1.077 255 255 255
-0.804425 0.448332 1.911 255 255 255
-0.365099 0.0277546 1.055 255 255 255
-0.848278 -0.259378 1.646 0 0 0
0.3021 0.0410305 0.809 255 255 255
-0.300282 -0.22852 1.267 255 255 255
-0.206748 0.199113 1.357 0 0 0
-1.1068 0.487553 2.356 255 255 255
0.141629 0.0955319 0.781 255 255 255
0.185924 0.323079 1.044 255 255 255
0.430541 -0.353963 1.158 0 0 0
-0.033644 0.36907 1.416 255 255 255
-0.00667947 -0.192797 1.141 0 0 0
-0.186948 -0.16945 1.098 255 255 255
-0.19339 0.379496 1.456 255 255 255
-0.43306 -0.287248 1.498 255 255 255
-0.119821 0.0284094 0.961 255 255 255
0.147991 0.0651356 0.831 255 255 255
0.313364 0.100289 0.699 255 255 255
0.211869 0.304624 1.081 255 255 255
0.306419 -0.164302 1.032 255 255 255
0.117219 -0.0137287 0.955 255 255 255
0.19763 0.314283 1.043 255 255 255
0.0432304 -0.0940834 0.935 0 0 0
0.764364 -1.04911 2.805 255 255 255
-0.629374 -0.0507314 1.308 255 255 255
-1.06738 0.522341 2.196 255 255 255
-0.107893 -0.496355 1.31 255 255 255
-0.889723 0.474322 1.941 255 255 255
-0.26418 0.0467984 0.986 255 255 255
0.146602 -0.0381497 0.944 255 255 255
-0.271919 0.222311 1.299 0 0 0
-0.0257853 0.491637 1.366 255 255 255
0.341168 -0.0842223 0.837 255 255 255
0.344742 0.00304211 0.863 255 255 255
0.446233 -0.106455 0.886 0 0 0
-0.0259552 -0.359878 1.375 0 0 0
-0.343781 -0.290163 1.384 255 255 255
0.278016 -0.0362503 0.897 0 0 0
-0.193789 0.389775 1.459 255 255 255
0.0877547 0.141497 0.755 255 255 255
0.40354 0.319396 0.952 0 0 0
0.186363 0.118127 0.732 255 255 255
-0.359323 0.300465 1.366 0 0 0
-0.510424 -0.375386 1.571 0 0 0
-0.126403 0.375124 1.505 255 255 255
0.132522 0.117527 0.751 255 255 255
-0.365091 -0.153893 1.215 255 255 255
0.420776 -0.295717 1.189 255 255 255
0.0938925 0.389309 1.299 255 255 255
0.273201 0.187588 0.647 255 255 255
0.688208 -0.451521 1.587 0 0 0
0.3616 -0.00678858 0.863 255 255 255
-0.590041 0.527634 1.705 255 255 255
-0.82535 -0.340932 1.763 255 255 255
0.266285 0.167328 0.638 255 255 255
-0.246169 -0.228216 1.254 255 255 255
-0.396841 -0.413839 1.686 255 255 255
0.335663 -0.0673119 0.798 255 255 255
-0.208749 0.0851855 0.932 255 255 255
-1.40635 0.139727 2.755 255 255 255
-0.210104 -0.218552 1.234 0 0 0
-0.908631 0.496655 1.882 255 255 255
0.202959 -0.392019 1.062 255 255 255
-0.334909 -0.097172 1.152 255 255 255
-0.257122 0.362218 1.278 255 255 255
0.112894 0.0279459 0.896 255 255 255
0.400509 -0.0533594 0.803 0 0 0
-0.632634 -0.41867 1.48 255 255 255
0.0768746 0.0998319 0.795 255 255 255
0.0877068 0.345134 1.403 255 255 255
-0.0414726 -0.347916 1.237 255 255 255
0.120872 0.120548 0.747 255 255 255
-0.336547 -0.00330657 1.108 255 255 255
0.333456 0.025825 0.828 255 255 255
0.279064 0.17247 0.634 255 255 255
0.448683 -0.159701 0.983 0 0 0
-0.117516 -0.0727067 1.068 255 255 255
-0.0499473 -0.0782854 1.073 255 255 255
-0.477341 -0.0385378 1.194 255 255 255
0.31342 0.109252 0.677 255 255 255
0.0475779 0.0529214 0.875 255 255 255
0.0875489 -0.504871 1.299 0 0 0
-0.731745 0.379562 1.941 255 255 255
-0.679753 0.481075 1.893 0 0 0
0.215896 0.015409 0.848 255 255 255
-0.122875 0.247997 1.463 255 255 255
-0.469044 0.0534593 1.089 255 255 255
0.671012 -0.452959 1.583 0 0 0
-1.26073 0.20433 2.78 255 255 255
0.189253 0.00158269 0.834 255 255 255
0.412725 -0.223912 1.068 255 255 255
-0.667753 0.566478 1.705 255 255 255
0.200723 0.134039 0.703 255 255 255
-0.255614 0.408461 1.313 255 255 255
-0.790071 0.563421 1.774 255 255 255
0.307712 -0.116989 0.948 0 0 0
0.113719 -0.257131 1.217 255 255 255
-0.0941156 -0.0893274 1.059 255 255 255
0.139188 0.114315 0.754 255 255 255
-0.631263 0.512385 1.719 255 255 255
-0.16362 -0.483566 1.487 255 255 255
-0.178294 0.259118 1.359 0 0 0
0.165154 -0.259812 1.11 0 0 0
-0.76052 0.60084 1.677 255 255 255
0.382144 0.350755 0.905 255 255 255
0.11858 -0.359172 1.339 255 255 255
-0.4505 -0.326954 1.524 0 0 0
0.0922837 0.104696 0.783 255 255 255
0.246873 0.183872 0.664 255 255 255
-0.0737261 0.0412021 0.932 255 255 255
0.324045 -0.0264806 0.864 0 0 0
-0.05407 0.361616 1.47 255 255 255
-0.447418 0.501308 1.539 0 0 0
-0.288478 0.510481 1.357 255 255 255
0.307063 0.0168682 0.852 255 255 255
0.162585 0.345488 1.015 255 255 255
0.0717393 0.43186 1.281 0 0 0
-0.596898 -0.427909 1.487 255 255 255
0.0299447 -0.166563 1.057 255 255 255
0.803707 -1.05423 2.831 255 255 255
0.453474 -0.273867 1.154 255 255 255
-1.01027 0.499256 2.158 255 255 255
0.0953554 -0.058736 0.954 255 255 255
0.172223 -0.11006 0.77 255 255 255
0.232731 0.35667 0.932 255 255 255
-0.902401 0.508621 1.826 255 255 255
-0.496229 -0.429232 1.535 255 255 255
0.0970696 0.12486 0.751 255 255 255
0.154869 0.435384 1.114 0 0 0
0.304613 0.35058 0.92 255 255 255
-0.0442019 -0.184748 1.104 255 255 255
0.127622 -0.385653 1.098 0 0 0
-0.330391 -0.569507 1.629 0 0 0
-1.39947 0.252997 2.768 255 255 255
0.255014 0.335028 0.989 255 255 255
0.167604 -0.00547154 0.877 0 0 0
-0.194374 0.0367188 0.974 255 255 255
-0.355087 0.476419 1.393 255 255 255
0.269742 0.334936 0.984 255 255 255
-0.194158 -0.122742 1.05 255 255 255
-0.975894 0.69129 1.87 255 255 255
0.417924 -0.00806006 0.849 0 0 0
-0.0227739 -0.0231651 1.029 255 255 255
0.0704603 0.0768412 0.826 255 255 255
-0.315253 -0.515099 1.633 0 0 0
0.238025 0.291621 1.072 255 255 255
-0.504722 -0.220508 1.305 255 255 255
0.286647 0.154792 0.617 0 0 0
0.17596 -0.372679 1.066 255 255 255
-0.438346 -0.0897802 1.178 255 255 255
-0.372994 -0.185473 1.283 255 255 255
-0.80977 0.511762 1.859 255 255 255
-0.247166 -0.0195464 1.015 255 255 255
-0.284478 -0.540892 1.655 0 0 0
-0.239249 0.53165 1.366 255 255 255
-0.151231 -0.263057 1.316 255 255 255
-0.597276 -0.0035483 1.189 255 255 255
-0.371719 -0.105316 1.1 255 255 255
0.713769 -0.53525 1.575 255 255 255
-1.34898 0.401569 2.593 255 255 255
0.107208 0.160233 0.745 255 255 255
-0.208891 -0.142892 1.073 0 0 0
0.115191 0.07619 0.819 255 255 255
0.112791 -0.0417898 0.957 255 255 255
-0.0761068 -0.167975 1.124 0 0 0
-0.226387 0.556932 1.425 255 255 255
0.300557 0.135143 0.638 255 255 255
0.104343 -0.470456 1.247 255 255 255
-0.229174 0.497964 1.359 255 255 255
-0.114761 0.522385 1.513 0 0 0
0.177295 0.134219 0.71 255 255 255
-0.48523 -0.532798 1.524 0 0 0
0.0282645 0.0708578 0.851 255 255 255
0.0976511 -0.329413 1.351 0 0 0
0.114753 0.0439214 0.866 255 255 255
0.156371 -0.172804 0.754 0 0 0
-1.31386 0.167413 2.768 255 255 255
0.0541735 0.340552 1.422 255 255 255
-1.27733 0.481112 2.44 255 255 255
0.320157 0.12803 0.644 255 255 255
-0.046169 0.0439981 0.927 255 255 255
0.0234571 0.0851119 0.828 255 255 255
-0.853877 0.382669 2.236 255 255 255
0.0971159 0.0726324 0.824 255 255 255
-1.08477 0.463863 2.392 255 255 255
0.426824 -0.373558 1.143 0 0 0
-0.246546 0.0624222 0.955 255 255 255
0.273989 0.021151 0.857 255 255 255
-0.350845 0.528925 1.359 255 255 255
0.216249 -0.0421168 0.813 255 255 255
-0.163696 0.310533 1.466 255 255 255
-0.34582 0.172601 1.203 255 255 255
0.10999 -0.474633 1.242 255 255 255
0.177984 -0.244264 1.089 255 255 255
-0.391746 -0.0844322 1.132 255 255 255
-0.248384 0.109828 1.02 255 255 255
0.422282 -0.200343 1.036 255 255 255
0.19053 -0.14755 0.763 255 255 255
-0.678854 0.560929 1.705 255 255 255
-1.13292 0.461416 2.42 255 255 255
0.0347661 -0.393741 1.302 255 255 255
0.147544 -0.216922 1.171 255 255 255
-0.708768 -0.507777 1.473 255 255 255
-0.185649 0.596097 1.571 0 0 0
0.164619 0.116377 0.736 255 255 255
0.109839 -0.00128231 0.945 255 255 255
0.120142 -0.123927 0.966 255 255 255
0.160733 -0.124934 0.769 255 255 255
0.152506 -0.402513 1.11 255 255 255
-0.887362 0.474528 1.929 255 255 255
-0.129297 -0.0216576 1.037 255 255 255
-0.837005 0.505712 1.859 255 255 255
0.150398 -0.376485 1.135 255 255 255
-0.264553 0.284628 1.294 255 255 255
-1.11907 0.361712 2.55 255 255 255
0.321118 -0.0809563 0.891 255 255 255
0.209942 0.11732 0.727 255 255 255
0.209633 0.326883 1.27 255 255 255
-0.663396 -0.126889 1.422 255 255 255
-0.817815 -0.344704 1.753 255 255 255
0.448937 -0.361502 1.152 255 255 255
0.300996 0.0984349 0.702 255 255 255
-1.19501 0.514391 2.356 255 255 255
0.880793 -1.01696 2.755 255 255 255
-0.123254 -0.0268748 1.043 255 255 255
-0.759576 -0.206112 1.442 255 255 255
-0.286643 -0.0772526 1.083 255 255 255
0.110875 0.383373 1.252 0 0 0
-0.925869 0.44471 2.166 255 255 255
-0.493708 -0.105473 1.182 255 255 255
0.133876 -0.236871 1.185 255 255 255
0.105097 0.352779 1.362 255 255 255
0.731004 -0.441536 1.579 255 255 255
0.455204 0.322477 0.934 255 255 255
-0.671278 0.52763 1.714 255 255 255
-0.705178 0.483197 1.831 255 255 255
-0.07394 -0.196957 1.092 255 255 255
-0.184225 -0.532302 1.387 255 255 255
-0.388229 0.349369 1.366 255 255 255
-0.566999 0.532729 1.686 255 255 255
0.244979 -0.038863 0.858 255 255 255
0.100072 0.357317 1.354 255 255 255
0.273201 0.188641 0.647 255 255 255
0.418893 -0.223492 1.066 255 255 255
0.375515 -0.167374 1.01 255 255 255
0.250296 0.361645 0.941 255 255 255
-0.0471656 -0.355226 1.132 0 0 0
0.00935475 0.416591 1.305 0 0 0
0.070089 0.407288 1.289 255 255 255
-0.167303 -0.0793603 1.064 0 0 0
-1.12066 0.397614 2.489 255 255 255
0.310388 0.0571096 0.777 255 255 255
-0.15955 0.220924 1.369 255 255 255
-0.698013 -0.181573 1.491 255 255 255
0.154505 0.0501438 0.852 255 255 255
-0.0163707 -0.0423527 1.048 255 255 255
-0.418557 0.229103 1.378 0 0 0
-0.265359 -0.0539281 1.041 255 255 255
0.0858615 0.122646 0.76 255 255 255
-0.263919 -0.149565 1.137 255 255 255
-0.453158 -0.182406 1.234 255 255 255
-0.200995 -0.109073 1.05 255 255 255
-0.486955 -0.0364415 1.189 255 255 255
-0.679995 -0.407101 1.473 255 255 255
0.0292846 -0.269989 1.249 255 255 255
-0.47699 -0.042566 1.198 255 255 255
0.167695 -0.182595 0.739 255 255 255
0.323453 -0.0335427 0.83 255 255 255
0.19929 -0.0249482 0.814 0 0 0
0.43255 -0.171452 1.005 255 255 255
-0.362589 0.478881 1.387 255 255 255
0.262019 -0.310687 1.092 255 255 255
-0.144998 -0.223302 1.227 255 255 255
-0.484508 0.255428 1.387 255 255 255
-0.109413 -0.187695 1.167 0 0 0
-0.0752683 -0.177631 1.139 0 0 0
0.176189 0.163318 0.701 255 255 255
-0.566392 0.549181 1.629 0 0 0
0.130824 0.404919 1.11 255 255 255
0.192777 0.0963158 0.767 255 255 255
0.839007 -1.04881 2.78 255 255 255
-1.31149 -0.58277 2.561 255 255 255
0.372945 -0.132116 0.957 0 0 0
0.192296 -0.394973 1.07 255 255 255
0.0641034 -0.438405 1.254 0 0 0
0.265905 0.34122 0.97 255 255 255
0.350391 -0.038791 0.799 255 255 255
0.736145 -0.441536 1.579 255 255 255
0.41054 0.00429708 0.834 255 255 255
-0.451731 -0.572772 1.646 255 255 255
-0.303004 -0.593999 1.668 0 0 0
0.345442 -0.299199 1.203 0 0 0
-0.0246029 0.305428 1.575 255 255 255
0.342144 0.00862955 0.86 255 255 255
-0.328623 -0.193522 1.281 255 255 255
-0.0730343 0.000266059 0.984 255 255 255
-0.271689 -0.294667 1.384 255 255 255
0.193714 -0.071416 0.786 255 255 255
-0.257387 0.329608 1.249 255 255 255
-0.147392 0.428596 1.47 255 255 255
-0.0115693 -0.431598 1.27 0 0 0
-0.399236 0.274549 1.381 255 255 255
0.298086 0.292498 1.044 255 255 255
0.2198 0.317447 1.16 255 255 255
-0.766846 0.495204 1.865 0 0 0
-0.288835 0.218083 1.299 0 0 0
0.114586 0.0667279 0.834 255 255 255
0.225389 -0.346218 1.07 255 255 255
-0.330391 -0.479376 1.629 0 0 0
-0.0429998 0.434705 1.348 255 255 255
0.250689 -0.0812039 0.878 255 255 255
-0.0227084 -0.230681 1.203 255 255 255
0.413448 0.300828 0.957 0 0 0
0.458864 -0.124014 0.92 255 255 255
0.137305 -0.297932 1.104 255 255 255
-0.460573 -0.141299 1.176 255 255 255
0.23952 -0.374914 1.048 255 255 255
-0.0180837 0.0174078 0.958 255 255 255
0.451397 -0.108845 0.882 0 0 0
0.0283424 -0.413973 1.299 255 255 255
0.287651 0.157805 0.617 255 255 255
0.297235 0.34797 0.925 255 255 255
-0.580038 -0.512234 1.445 255 255 255
0.213595 -0.402689 1.072 255 255 255
0.103963 0.0608763 0.847 255 255 255
0.0416612 0.393156 1.319 255 255 255
-0.296101 -0.266407 1.322 255 255 255
-0.509101 -0.0304564 1.182 255 255 255
0.238722 0.0604025 0.804 255 255 255
0.260661 0.335617 0.986 255 255 255
-0.020682 -0.37023 1.324 0 0 0
0.451835 0.32955 0.924 255 255 255
-0.227008 0.027907 0.999 255 255 255
-0.0138391 -0.00134202 0.989 255 255 255
1.20888 -0.965602 2.593 255 255 255
-0.664717 -0.509883 1.445 0 0 0
0.0237278 -0.0310166 1.012 255 255 255
0.288231 0.169545 0.627 255 255 255
0.27573 0.0931119 0.732 255 255 255
0.389065 -0.234814 1.12 0 0 0
0.144456 0.129975 0.725 255 255 255
0.394421 -0.0123342 0.858 0 0 0
-0.0729244 -0.103114 1.077 255 255 255
0.397217 -0.0150738 0.855 255 255 255
-0.123463 0.409459 1.47 255 255 255
-0.364195 -0.46676 1.65 255 255 255
-0.237147 0.511556 1.354 255 255 255
-0.157223 0.497589 1.543 0 0 0
-0.100629 -0.114742 1.055 0 0 0
0.216761 0.143616 0.678 255 255 255
-0.2488 0.312304 1.278 255 255 255
-0.321695 -0.469127 1.612 255 255 255
-0.45412 0.0425904 1.083 255 255 255
-0.461516 0.00576035 1.118 255 255 255
-1.09888 0.171564 2.561 0 0 0
-0.0551357 -0.0782125 1.072 255 255 255
0.393435 0.0195962 0.794 255 255 255
0.131658 -0.413647 1.339 255 255 255
-0.675607 -0.274695 1.551 0 0 0
0.457188 -0.262001 1.104 0 0 0
-0.152149 -0.0426355 1.055 255 255 255
0.125892 0.0880774 0.794 255 255 255
0.17842 -0.291233 1.06 255 255 255
-0.101162 -0.140179 1.079 255 255 255
0.71944 -0.42371 1.599 255 255 255
-0.00487057 0.0909388 0.832 255 255 255
-0.428194 -0.224552 1.425 255 255 255
0.0978607 0.0791114 0.808 255 255 255
0.17941 -0.156451 0.758 255 255 255
0.00574905 0.111152 0.802 255 255 255
0.00756844 0.520535 1.366 0 0 0
-0.604308 -0.297194 1.524 0 0 0
0.281827 0.347436 0.944 255 255 255
-0.197105 0.410731 1.466 255 255 255
-0.0162613 -0.0369876 1.041 255 255 255
-0.313477 0.250891 1.262 0 0 0
0.0903164 -0.0600357 0.95 255 255 255
-0.849693 -0.353941 1.815 255 255 255
-0.192631 -0.301215 1.278 255 255 255
-0.862702 0.571361 1.799 255 255 255
-0.434674 -0.0373758 1.158 255 255 255
-0.855962 0.458833 1.929 255 255 255
0.0692632 0.141434 0.768 255 255 255
0.354856 0.0669968 0.733 255 255 255
0.211455 -0.346218 1.07 255 255 255
-0.102101 0.0986544 0.864 255 255 255
-0.247579 -0.579524 1.591 255 255 255
-1.04678 0.499107 2.236 255 255 255
-0.151715 -0.112258 1.064 0 0 0
0.299575 0.0712756 0.753 255 255 255
-0.584359 0.561964 1.62 0 0 0
0.120219 -0.372747 1.333 255 255 255
-0.221818 -0.0810581 1.02 255 255 255
0.366788 0.0622255 0.733 255 255 255
-0.454026 -0.0358285 1.169 255 255 255
0.284462 0.149732 0.621 255 255 255
-0.738891 0.535925 1.769 255 255 255
0.353767 -0.0616504 0.792 255 255 255
-0.621673 -0.331914 1.524 255 255 255
0.230233 0.0850823 0.767 255 255 255
0.156011 -0.0684385 0.796 255 255 255
0.0300818 -0.342063 1.283 255 255 255
0.127132 0.154284 0.734 255 255 255
0.396895 0.298941 0.966 0 0 0
0.188989 -0.0390338 0.804 0 0 0
0.0231651 -0.115495 0.988 255 255 255
0.10249 0.0668079 0.835 255 255 255
0.259898 0.125399 0.687 255 255 255
-0.00223725 0.0716904 0.861 255 255 255
0.258026 0.315652 1.02 255 255 255
0.0425758 -0.260176 1.222 255 255 255
0.0796286 0.0285697 0.916 255 255 255
-0.166875 0.38153 1.473 0 0 0
-0.893371 0.552448 1.696 255 255 255
-0.340788 0.485799 1.381 255 255 255
0.428475 -0.0121905 0.848 0 0 0
-0.209765 -0.299837 1.281 255 255 255
-0.138629 -0.487959 1.429 0 0 0
-0.0643969 -0.184418 1.081 255 255 255
-0.256275 -0.021407 1.025 255 255 255
0.278848 0.0807556 0.75 255 255 255
0.370996 -0.103103 0.882 255 255 255
0.113635 0.488344 1.26 255 255 255
-0.582658 0.591544 1.559 255 255 255
-0.0443148 0.0250449 0.952 255 255 255
-0.0830558 -0.118336 1.072 255 255 255
-0.0154893 0.0513898 0.898 255 255 255
0.0231335 0.380491 1.366 255 255 255
0.277646 0.131283 0.655 255 255 255
-0.666327 -0.329434 1.524 0 0 0
-0.0846054 -0.145422 1.092 255 255 255
-0.613575 -0.476909 1.452 0 0 0
0.444552 -0.434252 1.122 255 255 255
0.184484 0.00295046 0.837 255 255 255
0.275497 0.105589 0.704 255 255 255
0.325691 -0.0632072 0.812 255 255 255
-0.432762 -0.148665 1.189 255 255 255
-0.0212424 -0.0300663 1.036 255 255 255
0.382901 0.00832852 0.83 255 255 255
-0.51055 0.586509 1.637 255 255 255
-0.546846 -0.380703 1.551 0 0 0
0.186529 0.166923 0.697 255 255 255
0.101335 0.0932458 0.794 255 255 255
0.355163 0.31403 0.999 0 0 0
-0.708158 0.483197 1.831 255 255 255
0.162675 -0.0200358 0.83 255 255 255
0.383665 -0.157108 0.997 255 255 255
0.114787 -0.417121 1.13 0 0 0
-0.381618 -0.177393 1.27 255 255 255
-0.198538 0.513237 1.459 255 255 255
0.208116 0.342729 0.988 255 255 255
0.158291 0.0886942 0.788 255 255 255
-0.589636 -0.280299 1.487 0 0 0
-0.107987 -0.145177 1.077 255 255 255
-1.20727 0.379943 2.561 255 255 255
0.282557 0.144267 0.628 255 255 255
-0.774418 0.394621 1.953 255 255 255
0.17951 -0.132442 0.769 255 255 255
-1.43851 0.207123 2.818 255 255 255
-0.0426009 0.00186735 0.984 255 255 255
0.0694617 -0.126413 0.961 255 255 255
-1.14049 0.467547 2.411 255 255 255
-0.0177712 -0.483266 1.27 255 255 255
0.340768 0.0988149 0.681 255 255 255
0.0742855 -0.419177 1.289 0 0 0
0.203982 0.172354 0.687 255 255 255
-0.275271 0.250331 1.229 255 255 255
0.310008 -0.0412955 0.823 255 255 255
-0.265864 0.0250999 1.017 255 255 255
-0.0142808 0.441886 1.33 0 0 0
0.0688347 0.503661 1.305 0 0 0
0.0417976 -0.0958095 0.937 0 0 0
0.457214 0.3213 0.935 255 255 255
0.257152 0.0987972 0.73 255 255 255
-0.156536 -0.493436 1.466 255 255 255
0.305234 0.17459 0.616 255 255 255
-0.75041 0.544561 1.769 255 255 255
-0.774581 -0.215961 1.583 255 255 255
-0.0631628 0.0874761 0.851 255 255 255
