ply
format ascii 1.0
comment Created by Open3D
element vertex 1322
property double x
property double y
property double z
property uchar red
property uchar green
property uchar blue
end_header
-0.00873132 0.421914 1.167 0 0 0
-0.0563501 -0.11896 1.062 255 255 255
0.342501 -0.166443 0.868 255 255 255
0.00996752 -0.672853 1.799 0 0 0
-0.288164 -0.0526856 1.05 255 255 255
0.109498 0.316783 1.013 255 255 255
-0.923836 0.626628 1.953 255 255 255
0.290165 0.40687 1.162 255 255 255
-0.126356 -0.395729 1.281 0 0 0
0.356864 -0.205577 0.897 255 255 255
0.0624257 0.0199664 0.809 255 255 255
-0.692392 -0.531556 1.739 255 255 255
0.182038 -0.110232 0.808 255 255 255
0.0601006 -0.068363 0.937 255 255 255
-0.632271 0.4806 1.81 0 0 0
0.222361 -0.11929 0.816 255 255 255
-0.721718 0.616317 1.682 255 255 255
-0.572287 0.153513 1.71 255 255 255
0.0502341 0.0985399 0.711 255 255 255
0.112726 0.128476 0.657 255 255 255
0.0107576 -0.117279 1.032 255 255 255
0.0946827 -0.285134 1.154 0 0 0
0.377848 -0.319542 1.098 255 255 255
-0.0666011 -0.223478 1.118 0 0 0
-0.502681 0.495882 1.682 255 255 255
-0.133765 -0.236484 0.983 255 255 255
-0.580979 -0.297093 1.354 0 0 0
-0.856874 0.635504 1.876 255 255 255
0.387252 -0.0971233 0.893 255 255 255
0.228769 -0.249399 0.947 255 255 255
-0.0239695 0.409321 1.169 0 0 0
0.23066 0.046643 0.664 255 255 255
-0.474622 0.0643381 1.571 255 255 255
0.179525 0.333284 1.156 0 0 0
0.238772 0.180267 0.559 255 255 255
0.210242 0.184206 0.586 255 255 255
-0.86078 0.494798 1.947 255 255 255
-0.107086 0.450586 1.275 255 255 255
-1.15675 0.525915 2.196 255 255 255
-0.374279 -0.427642 1.302 255 255 255
0.333945 -0.229607 0.948 0 0 0
0.310144 0.119489 0.606 255 255 255
0.319753 -0.232756 0.961 255 255 255
0.117004 0.155205 0.657 255 255 255
-0.514054 0.235354 1.739 0 0 0
-0.526228 -0.077946 1.173 255 255 255
0.161557 -0.475276 1.299 255 255 255
-0.269601 -0.124286 1.178 255 255 255
-0.156909 -0.0759507 1.041 255 255 255
0.191381 0.407367 1.137 255 255 255
-0.0557889 0.222678 1.158 255 255 255
0.173207 0.0737019 0.717 255 255 255
0.0589985 -0.151119 0.969 255 255 255
-0.197173 -0.0736779 1.057 255 255 255
0.23663 0.434795 1.141 255 255 255
0.377233 0.00629686 0.749 255 255 255
-0.437088 -0.148268 1.234 255 255 255
-0.0216136 -0.258688 1.145 0 0 0
-0.293605 -0.267047 1.182 255 255 255
-0.958787 0.410046 1.966 255 255 255
-0.324397 -0.0501129 1.068 255 255 255
-0.710049 0.616207 1.624 255 255 255
-0.410408 -0.196828 1.289 255 255 255
-0.321135 -0.340734 1.31 0 0 0
0.0425933 0.293776 0.991 255 255 255
0.0935583 0.0256957 0.783 255 255 255
-0.184266 -0.128803 1.072 0 0 0
-1.02661 0.338645 2.057 255 255 255
-1.02822 0.21938 2.204 255 255 255
0.160935 -0.494504 1.294 255 255 255
0.0242457 0.0833539 0.73 255 255 255
-0.382631 0.196415 1.696 255 255 255
-0.493951 0.119945 1.748 0 0 0
-0.0407148 -0.139436 1.06 255 255 255
-0.692631 -0.282526 1.425 255 255 255
0.0195094 0.450235 1.152 255 255 255
0.0183408 0.250553 1.083 255 255 255
0.123275 -0.097277 0.908 255 255 255
-0.125933 -0.246342 0.997 255 255 255
0.0460747 0.251497 1.072 255 255 255
-0.413625 0.448482 1.71 255 255 255
-0.157266 0.397573 1.278 255 255 255
0.297605 -0.00707272 0.745 255 255 255
-0.0907918 -0.126366 1.081 0 0 0
0.107423 -0.21811 1.009 255 255 255
-0.105218 0.0720702 0.833 255 255 255
0.0410778 0.0137312 0.83 255 255 255
0.400892 -0.0874422 0.869 255 255 255
-0.160203 -0.290384 0.95 255 255 255
0.123353 -0.0378597 0.867 255 255 255
-0.44185 -0.0980155 1.162 255 255 255
0.32111 -0.169319 0.883 255 255 255
0.0388108 -0.141237 0.977 255 255 255
0.321214 0.0708392 0.668 255 255 255
0.407489 -0.338579 1.096 0 0 0
0.186513 0.185214 0.618 255 255 255
-0.0850176 0.191379 1.198 0 0 0
-0.0602036 -0.0994759 1.039 255 255 255
-0.006801 -0.0382145 0.909 255 255 255
0.0805936 0.0470164 0.757 255 255 255
0.0168552 -0.0499934 0.908 255 255 255
-1.00661 0.531648 2.092 255 255 255
0.36102 0.397416 1.135 255 255 255
-0.0891992 -0.281002 1.176 0 0 0
0.0228368 -0.137633 0.974 255 255 255
-0.396669 -0.023998 1.066 255 255 255
-0.582533 -0.255072 1.308 255 255 255
-0.561089 0.262881 1.629 255 255 255
0.0207375 0.0847735 0.732 0 0 0
-0.612055 0.182107 1.744 0 0 0
0.0643537 -0.553179 1.62 0 0 0
-0.468633 0.49346 1.603 255 255 255
0.185846 0.0745509 0.703 255 255 255
0.0574414 0.235992 1.089 255 255 255
-0.36693 0.337968 1.7 255 255 255
0.187998 0.183715 0.613 255 255 255
-0.621967 0.0593758 1.575 255 255 255
0.143953 -0.113095 0.839 255 255 255
-0.486841 0.535926 1.629 255 255 255
-0.434442 0.538825 1.583 255 255 255
0.112264 -0.0534072 0.891 255 255 255
0.215459 -0.204026 0.923 255 255 255
0.186497 -0.0143863 0.816 255 255 255
-0.0274862 -0.0307844 0.908 255 255 255
0.196614 0.102504 0.655 255 255 255
-0.603319 -0.68558 1.794 0 0 0
-1.26754 0.175544 2.499 255 255 255
-0.122489 -0.12799 1.051 255 255 255
-0.783027 0.230206 1.882 255 255 255
-0.424056 -0.150641 1.237 255 255 255
-0.65522 0.182861 1.673 255 255 255
0.0722085 0.311885 0.977 255 255 255
0.320089 0.0420219 0.714 255 255 255
-0.0861691 0.357674 1.187 255 255 255
-0.52798 -0.251198 1.31 255 255 255
-0.0264685 0.239597 1.114 255 255 255
0.248651 0.116116 0.625 255 255 255
0.151152 -0.173657 0.898 255 255 255
-0.574503 0.341427 1.637 0 0 0
-0.536587 -0.282094 1.305 255 255 255
0.0006368 -0.144811 0.969 0 0 0
-0.537716 0.302089 1.655 255 255 255
-0.169167 0.237015 1.173 255 255 255
0.182939 -0.134562 0.812 255 255 255
0.415355 -0.154423 0.841 0 0 0
0.03898 0.071153 0.739 255 255 255
-0.531755 -0.119103 1.244 255 255 255
0.309878 0.404128 1.165 255 255 255
0.119056 -0.11491 0.983 255 255 255
0.226221 -0.264393 0.924 255 255 255
0.00650039 0.077166 0.739 255 255 255
-1.057 0.417761 2.051 255 255 255
-0.0386934 0.45631 1.213 255 255 255
0.210956 -0.112237 0.813 255 255 255
-0.432842 -0.317317 1.319 255 255 255
-0.0121303 -0.143412 0.981 255 255 255
-0.588806 -0.367806 1.432 255 255 255
-0.209825 0.232319 1.198 255 255 255
-0.221096 -0.022062 0.98 255 255 255
-0.0426795 -0.455405 1.273 255 255 255
0.0301074 -0.192713 1.005 255 255 255
0.0422511 0.133626 0.713 255 255 255
0.198555 -0.130437 0.811 255 255 255
0.0609153 0.254859 1.057 255 255 255
0.278638 0.000194137 0.718 255 255 255
-0.161619 -0.160322 1.007 255 255 255
0.3734 -0.415461 1.106 255 255 255
-0.124482 -0.408343 1.262 0 0 0
0.206265 0.370166 1.098 255 255 255
0.385332 -0.0817857 0.869 255 255 255
-0.0527681 -0.0439661 0.937 255 255 255
-0.536165 0.294372 1.642 255 255 255
0.00929758 0.261739 1.057 255 255 255
-0.023703 -0.264935 1.156 0 0 0
0.275537 -0.189277 0.889 255 255 255
-0.0304364 -0.47286 1.281 255 255 255
0.377914 -0.347765 1.114 255 255 255
-0.966334 0.519406 2.057 255 255 255
-0.883208 -0.534106 1.805 0 0 0
-0.100226 -0.407899 1.267 0 0 0
0.180321 0.158411 0.604 255 255 255
-0.105994 -0.408343 1.262 0 0 0
-0.138378 -0.36371 1.316 255 255 255
0.260235 0.0780963 0.665 255 255 255
-0.317745 -0.0961234 1.118 255 255 255
-0.895766 0.58103 2.004 255 255 255
-0.775616 -0.63887 1.794 255 255 255
-0.169948 -0.303912 0.944 255 255 255
0.148088 0.145751 0.63 255 255 255
0.369799 -0.338068 1.106 255 255 255
-0.246744 -0.0586134 1.034 255 255 255
0.307581 -0.411704 1.096 0 0 0
-0.494347 0.270387 1.71 255 255 255
0.144418 -0.400672 1.297 255 255 255
0.229399 0.102366 0.628 255 255 255
-0.277065 0.610655 1.744 255 255 255
-0.543505 -0.536046 1.624 0 0 0
0.0850756 -0.628945 1.719 255 255 255
0.129566 0.170214 0.645 255 255 255
0.324547 0.0461467 0.706 255 255 255
0.212665 -0.161858 0.83 255 255 255
0.318064 0.0206439 0.739 255 255 255
-0.333028 0.206194 1.642 255 255 255
-0.20693 -0.230823 0.966 255 255 255
0.158779 0.0549781 0.748 255 255 255
0.14754 0.271974 1.037 255 255 255
0.255551 0.207653 0.552 255 255 255
0.281907 -0.0323859 0.835 255 255 255
0.316217 0.100249 0.634 255 255 255
0.272658 0.129351 0.606 255 255 255
0.121135 0.0312886 0.764 255 255 255
-0.292044 -0.077752 1.09 255 255 255
-0.206623 -0.0548741 1.027 255 255 255
0.198451 -0.098044 0.816 255 255 255
0.574556 -0.598312 1.559 0 0 0
0.122383 0.0970153 0.7 255 255 255
0.523125 -0.384304 1.032 255 255 255
-0.013948 0.365595 1.128 255 255 255
0.218399 0.00923606 0.792 255 255 255
-0.0479693 0.250928 1.108 255 255 255
0.264076 -0.200535 0.875 255 255 255
-0.623889 -0.322231 1.406 255 255 255
0.152612 -0.497492 1.313 0 0 0
-0.205357 -0.243399 0.966 255 255 255
-0.411294 -0.0780693 1.12 255 255 255
0.204279 -0.310994 1.051 0 0 0
-0.826738 0.329161 1.87 255 255 255
0.377 -0.329069 1.106 255 255 255
-0.288297 0.205558 1.616 255 255 255
0.0151491 -0.355586 1.257 255 255 255
-0.900148 -0.606937 1.769 0 0 0
-0.776797 0.574358 1.959 255 255 255
-1.09635 0.57508 2.114 255 255 255
0.0392965 0.0656689 0.745 255 255 255
0.119577 0.0579244 0.739 255 255 255
-0.344291 -0.198867 1.262 255 255 255
0.335179 0.0296504 0.724 255 255 255
0.325378 -0.0727139 0.879 255 255 255
-0.889507 -0.577562 1.794 0 0 0
-0.544747 -0.204703 1.26 255 255 255
-0.543921 0.426181 1.744 255 255 255
-0.396214 0.431261 1.719 255 255 255
-0.259646 -0.0172953 0.981 255 255 255
-1.04472 0.305315 2.128 255 255 255
0.20927 0.380998 1.114 255 255 255
-0.404484 -0.0492355 1.087 255 255 255
-0.336224 -0.343075 1.319 0 0 0
-0.870486 -0.514832 1.779 0 0 0
-0.662634 -0.582437 1.837 0 0 0
0.113632 -0.0802175 0.951 255 255 255
0.269313 0.178822 0.533 255 255 255
0.0692397 0.290515 0.98 255 255 255
-0.1275 -0.250894 1.05 255 255 255
0.388733 -0.383873 1.135 0 0 0
0.101661 -0.0621547 0.913 255 255 255
-0.679523 0.335184 1.686 255 255 255
0.316567 0.0287082 0.73 255 255 255
0.228176 -0.25663 0.902 255 255 255
-0.540841 0.261814 1.673 255 255 255
0.518441 -0.382174 1.013 255 255 255
0.113632 -0.156049 0.951 255 255 255
0.270851 0.14057 0.583 255 255 255
0.111014 -0.140883 0.997 0 0 0
0.0348384 -0.0254519 0.877 255 255 255
0.237651 0.377763 1.137 255 255 255
-0.996501 0.490944 2.064 255 255 255
0.327245 0.0136101 0.749 255 255 255
0.162408 0.141876 0.622 255 255 255
0.0906388 -0.0912912 0.97 255 255 255
-0.689425 -0.15906 1.342 255 255 255
0.0698287 -0.419765 1.366 0 0 0
-0.306578 -0.0859369 1.104 255 255 255
-0.119294 -0.131661 1.053 255 255 255
-1.213 0.162036 2.479 255 255 255
-0.00557398 0.0850666 0.745 255 255 255
0.0775245 -0.183282 0.964 255 255 255
-0.09493 -0.0176592 0.917 255 255 255
-0.371876 -0.412966 1.316 255 255 255
0.262206 0.184877 0.538 255 255 255
-0.354712 -0.476441 1.308 255 255 255
-0.140931 -0.0088765 0.935 255 255 255
-0.71721 -0.670983 1.794 255 255 255
-0.268924 -0.15098 1.192 255 255 255
0.155253 -0.234921 1.055 0 0 0
0.0629514 -0.132464 1.007 0 0 0
0.372494 -0.0909014 0.889 255 255 255
0.166634 0.412097 1.145 0 0 0
0.116851 -0.159312 0.952 0 0 0
0.170486 -0.458983 1.319 255 255 255
-0.0176873 -0.0531149 0.937 255 255 255
0.386094 -0.188851 0.887 255 255 255
-0.438435 -0.1316 1.21 255 255 255
-1.03226 0.641087 1.978 255 255 255
0.181874 -0.376624 0.994 0 0 0
0.408024 -0.166542 0.84 0 0 0
-0.150675 -0.391387 1.33 0 0 0
-0.132302 0.42045 1.278 255 255 255
0.0475763 0.318929 0.994 255 255 255
-0.109687 0.257262 1.112 255 255 255
0.00608597 0.000229557 0.849 255 255 255
-0.119858 -0.147383 1.043 255 255 255
0.33169 -0.201297 0.904 255 255 255
-0.961751 0.351203 1.959 255 255 255
0.0456688 0.125328 0.712 255 255 255
0.384158 -0.226458 0.935 255 255 255
-0.512386 0.293013 1.696 0 0 0
-0.0896137 0.247768 1.11 255 255 255
0.0218623 0.297037 1.002 255 255 255
-0.582497 0.349418 1.637 255 255 255
-0.0245206 -0.40129 1.299 255 255 255
-0.0525822 -0.457631 1.262 255 255 255
-0.346084 -0.247665 1.239 255 255 255
0.132738 -0.0775522 0.902 0 0 0
-0.437598 -0.074557 1.122 255 255 255
-0.193011 -0.114474 1.102 0 0 0
-1.54334 0.0821009 2.939 255 255 255
-0.171156 0.364944 1.273 255 255 255
-0.703241 -0.27651 1.442 255 255 255
0.0848151 0.109262 0.691 255 255 255
0.398045 -0.0527657 0.814 255 255 255
0.233931 -0.216673 0.913 255 255 255
0.243821 -0.208604 0.879 0 0 0
0.3289 -0.0371418 0.82 255 255 255
0.280156 0.0267663 0.71 255 255 255
0.211534 0.148305 0.595 255 255 255
-0.21344 -0.264108 0.967 255 255 255
0.378982 -0.072626 0.861 255 255 255
0.305014 -0.116907 0.935 255 255 255
0.218851 0.192089 0.581 255 255 255
-0.604654 -0.100883 1.244 255 255 255
0.159369 0.171382 0.63 255 255 255
0.313727 -0.157759 0.916 0 0 0
-0.185893 0.0555874 0.895 255 255 255
0.393075 -0.185928 0.88 255 255 255
-0.67943 -0.628985 1.842 0 0 0
0.300678 0.12743 0.597 255 255 255
0.252681 -0.204807 0.875 255 255 255
-0.156465 0.2802 1.178 255 255 255
0.322215 0.033185 0.724 255 255 255
0.317605 -0.0598067 0.858 255 255 255
-1.06545 0.559727 2.121 255 255 255
0.204733 0.0131357 0.794 255 255 255
-0.4721 -0.337382 1.339 255 255 255
-0.0629672 -0.156242 1.057 0 0 0
-0.971079 0.344952 1.978 255 255 255
0.229104 0.11807 0.63 255 255 255
-0.487601 0.301439 1.831 255 255 255
-0.207527 0.229985 1.196 255 255 255
0.304825 -0.450688 1.205 255 255 255
-0.319071 0.220789 1.612 0 0 0
0.213242 0.0118137 0.792 255 255 255
-0.081334 0.223653 1.173 255 255 255
0.0945582 -0.495063 1.403 255 255 255
0.348021 -0.107078 0.916 255 255 255
-0.109977 0.0527736 0.828 255 255 255
-0.732374 0.508704 1.87 0 0 0
0.0149247 -0.164748 0.975 255 255 255
0.42403 -0.29316 0.897 255 255 255
0.0375974 0.422155 1.132 255 255 255
0.369437 -0.0257564 0.798 255 255 255
0.120025 -0.133585 0.991 0 0 0
-0.22674 -0.466585 1.442 255 255 255
-0.0648668 -0.0480694 0.958 255 255 255
0.0600132 -0.0809767 0.96 0 0 0
0.207895 0.142406 0.607 255 255 255
0.115985 -0.353061 1.22 255 255 255
-0.0607618 -0.307398 1.22 255 255 255
-0.54927 0.339083 1.734 255 255 255
0.0836067 0.0436069 0.762 255 255 255
-0.252271 -0.0646465 1.05 255 255 255
0.145269 -0.465032 1.324 255 255 255
-0.0427411 0.36716 1.162 255 255 255
-0.0797885 -0.120416 1.075 0 0 0
-0.860715 -0.477887 1.719 255 255 255
0.366098 -0.169073 0.867 255 255 255
0.267772 0.0394866 0.69 255 255 255
-0.79784 0.653744 1.753 255 255 255
-0.719021 -0.693371 1.784 255 255 255
-0.050851 -0.241014 1.132 255 255 255
-0.899678 0.314819 1.991 0 0 0
-0.927895 0.592582 2.01 255 255 255
0.423038 -0.189043 0.868 0 0 0
-0.175956 0.329666 1.234 255 255 255
-1.13778 0.21165 2.236 255 255 255
0.120095 -0.706724 1.826 255 255 255
0.216409 0.407118 1.152 0 0 0
0.376319 -0.421896 1.104 255 255 255
-0.0765496 -0.208104 1.104 0 0 0
0.376229 -0.234817 0.938 255 255 255
0.203315 -0.168469 0.836 255 255 255
0.250612 0.20443 0.553 255 255 255
0.31036 -0.06623 0.869 255 255 255
0.286152 0.151349 0.57 255 255 255
0.32623 -0.220351 0.948 255 255 255
0.222657 -0.138895 0.822 255 255 255
-0.228162 -0.183124 1.116 0 0 0
-0.397255 -0.203909 1.294 255 255 255
-0.0835982 -0.275729 1.178 255 255 255
-0.47267 0.500035 1.599 255 255 255
0.0431358 -0.164969 0.967 0 0 0
-0.00308435 -0.293288 1.187 255 255 255
-0.0886257 0.0339915 0.83 255 255 255
0.334371 -0.340525 1.12 0 0 0
-0.0516925 0.404473 1.194 255 255 255
0.0225581 0.0651487 0.753 255 255 255
-0.250297 -0.472231 1.403 0 0 0
0.00341376 -0.493136 1.494 0 0 0
0.13167 -0.00780373 0.822 255 255 255
-0.400412 -0.554858 1.551 255 255 255
-0.96954 0.533051 2.071 255 255 255
-0.0698827 0.0875504 0.801 255 255 255
0.261411 0.124656 0.612 255 255 255
0.248145 0.00737525 0.735 255 255 255
-0.170048 -0.189514 0.98 255 255 255
0.379353 -0.0283181 0.797 255 255 255
0.127581 -0.00242621 0.813 255 255 255
0.04378 0.0137312 0.83 255 255 255
0.294528 0.428006 1.128 255 255 255
-0.771181 0.587536 1.929 255 255 255
-0.0113884 -0.0432153 0.921 255 255 255
0.225898 0.0390865 0.703 255 255 255
-0.509169 0.0519492 1.583 255 255 255
0.0792317 0.0646111 0.733 255 255 255
-0.585162 0.346754 1.637 255 255 255
0.374399 -0.279949 1.007 255 255 255
-0.681289 0.50851 1.815 255 255 255
-0.518906 -0.159846 1.262 255 255 255
0.003087 -0.404163 1.351 0 0 0
-0.970038 0.724207 1.853 255 255 255
0.216381 -0.289508 1.06 0 0 0
0.105885 -0.132859 1.01 0 0 0
0.142549 0.163154 0.642 255 255 255
0.113352 0.245455 1.018 0 0 0
-0.919586 0.481844 1.985 255 255 255
-0.516537 0.302582 1.719 255 255 255
-0.747838 -0.641351 1.826 0 0 0
0.133979 0.136822 0.641 255 255 255
0.180353 -0.214372 0.977 0 0 0
-0.542445 0.365932 1.887 0 0 0
-0.704469 0.00549554 1.559 0 0 0
0.0393674 -0.0756542 0.952 0 0 0
-0.450634 0.5883 1.642 255 255 255
0.178321 0.138616 0.621 255 255 255
0.179153 -0.15417 0.825 255 255 255
-0.320542 -0.255506 1.182 255 255 255
-0.61821 -0.482243 1.612 255 255 255
0.159188 -0.207226 1.004 0 0 0
0.332627 0.408084 1.139 0 0 0
-0.347257 -0.151041 1.208 255 255 255
-0.360884 0.440932 1.724 0 0 0
0.258993 -0.0343105 0.849 255 255 255
-0.060173 -0.448852 1.249 255 255 255
0.0620279 0.0555661 0.756 255 255 255
0.225882 -0.0936415 0.824 255 255 255
0.352658 -0.351511 1.126 255 255 255
0.127899 -0.140483 0.92 0 0 0
-0.490977 0.399331 1.789 255 255 255
0.230191 0.168084 0.567 255 255 255
0.244141 -0.101807 0.836 255 255 255
0.144799 -0.127656 0.836 255 255 255
0.347773 -0.0429974 0.83 255 255 255
0.129417 0.105774 0.683 255 255 255
-0.0236173 -0.0854622 0.994 255 255 255
-0.219025 -0.131144 1.154 255 255 255
0.423686 -0.2817 0.952 255 255 255
-0.384713 -0.588164 1.559 255 255 255
0.0779266 -0.187387 0.969 255 255 255
-0.278004 -0.208227 1.165 0 0 0
-1.01726 0.552604 2.107 255 255 255
0.123164 0.133454 0.65 255 255 255
0.253259 -0.223828 0.877 255 255 255
-0.334743 -0.210352 1.257 255 255 255
0.241605 -0.0010747 0.792 255 255 255
0.0580964 -0.0180028 0.862 255 255 255
-0.361533 -0.0929811 1.124 255 255 255
0.229616 -0.175695 0.858 255 255 255
-0.078191 0.0592411 0.806 0 0 0
0.409444 -0.224323 0.92 255 255 255
0.360915 -0.259946 0.975 255 255 255
-0.319284 -0.177667 1.229 255 255 255
0.0753195 -0.0535317 0.918 255 255 255
0.226955 -0.250166 0.927 255 255 255
-0.870486 -0.607473 1.779 0 0 0
-0.543428 -0.238225 1.286 255 255 255
0.0197511 0.260009 1.064 255 255 255
-0.251434 0.235759 1.491 255 255 255
0.226176 -0.0835179 0.83 255 255 255
-0.967404 0.624497 1.997 255 255 255
-0.0967648 -0.0508199 0.981 255 255 255
0.157851 0.142332 0.624 255 255 255
0.134346 -0.00914139 0.822 255 255 255
0.366313 -0.114656 0.917 255 255 255
0.0506229 -0.0648951 0.931 255 255 255
-0.822606 -0.497597 1.739 255 255 255
-0.209876 -0.130831 1.135 255 255 255
-0.388606 -0.097929 1.139 255 255 255
-0.149995 0.205881 1.203 255 255 255
-1.4623 0.0623701 2.911 255 255 255
-0.403432 0.432796 1.714 255 255 255
0.148169 -0.102674 0.832 255 255 255
0.171304 0.0567218 0.739 255 255 255
0.180496 -0.073617 0.825 255 255 255
-0.122065 0.260501 1.126 255 255 255
0.189464 -0.414606 1.22 0 0 0
-0.00268678 -0.110776 1.034 255 255 255
-0.108189 0.0369139 0.835 255 255 255
-0.0043319 0.287175 1.025 255 255 255
0.247464 0.171722 0.552 255 255 255
0.0538395 0.0433677 0.78 255 255 255
0.0728615 0.140431 0.695 255 255 255
0.119354 0.019374 0.785 255 255 255
-0.541876 0.488212 1.784 255 255 255
0.426023 -0.108627 0.892 255 255 255
-0.332206 0.238026 1.587 255 255 255
-0.7 -0.267679 1.445 255 255 255
0.0887358 -0.136698 1.002 0 0 0
-0.600435 -0.249574 1.324 255 255 255
-0.224054 -0.0286152 0.986 255 255 255
-0.272597 0.227956 1.571 255 255 255
-0.137769 -0.00426112 0.924 255 255 255
-0.403215 -0.0878051 1.128 255 255 255
-0.0205318 0.107804 0.76 255 255 255
0.425917 -0.287203 0.92 255 255 255
0.401025 -0.39619 1.128 255 255 255
-0.101989 -0.285036 1.169 0 0 0
0.306191 0.0657611 0.683 255 255 255
-0.191205 -0.0186028 0.966 255 255 255
0.160616 -0.0387271 0.855 255 255 255
-1.09385 0.553257 2.136 255 255 255
-0.198154 -0.0251742 0.977 255 255 255
-0.866036 0.644662 1.876 255 255 255
0.223621 0.123001 0.629 255 255 255
-0.828785 -0.602154 1.789 255 255 255
0.0640786 -0.0237508 0.867 255 255 255
-0.712838 0.13325 1.7 255 255 255
-0.230306 -0.558359 1.48 0 0 0
0.256312 -0.16503 0.868 255 255 255
0.0500967 -0.175161 0.98 0 0 0
-0.128963 -0.120803 1.048 255 255 255
0.289531 0.425087 1.13 255 255 255
0.0573557 0.436685 1.122 0 0 0
-0.818654 0.5643 1.991 255 255 255
0.143953 -0.110365 0.839 255 255 255
-0.927127 -0.500127 1.799 0 0 0
0.1848 0.13817 0.619 255 255 255
0.128869 0.101537 0.692 255 255 255
0.257421 0.143445 0.587 255 255 255
0.162178 -0.264 1.09 255 255 255
0.186444 -0.126322 0.81 255 255 255
-0.606252 0.48621 1.696 255 255 255
0.239897 -0.2593 0.891 255 255 255
-0.0970483 -0.218281 1.092 255 255 255
0.083556 0.255591 1.039 255 255 255
0.420482 -0.277983 0.966 0 0 0
-0.0643133 0.363928 1.176 255 255 255
0.211149 0.415336 1.154 0 0 0
0.331763 0.0624267 0.683 255 255 255
-0.36566 -0.465024 1.294 255 255 255
-0.570508 -0.181015 1.281 0 0 0
-0.404044 0.55148 1.575 255 255 255
0.218564 -0.264719 0.999 255 255 255
0.247297 0.356733 1.165 255 255 255
-0.0323186 -0.418117 1.273 255 255 255
-1.19298 0.166742 2.43 255 255 255
0.136404 0.0298486 0.759 255 255 255
0.013345 0.0425301 0.788 255 255 255
0.0667247 -0.261725 1.126 0 0 0
0.161931 -0.0474607 0.862 255 255 255
-0.121363 -0.166849 1.027 255 255 255
0.29369 -0.0298752 0.804 255 255 255
-0.360939 -0.365709 1.339 0 0 0
-0.365793 -0.0463749 1.062 255 255 255
-0.212791 -0.00908536 0.957 255 255 255
0.239838 -0.00238443 0.799 255 255 255
0.0637605 0.051047 0.762 255 255 255
0.124558 0.059207 0.74 255 255 255
0.311418 -0.396499 1.178 0 0 0
0.237279 -0.00504105 0.808 255 255 255
0.429433 -0.310808 0.951 255 255 255
0.281674 0.431677 1.128 255 255 255
-0.0740522 -0.371925 1.278 255 255 255
0.172728 -0.143895 0.82 255 255 255
0.259141 0.0358563 0.685 255 255 255
-0.270321 0.201296 1.603 255 255 255
0.290607 -0.0327344 0.81 255 255 255
0.0199485 -0.0913775 0.988 255 255 255
0.15288 0.0606562 0.743 255 255 255
-0.403116 0.156371 1.774 0 0 0
0.382612 -0.0870181 0.879 255 255 255
-0.251915 -0.127903 1.176 255 255 255
0.0379084 -0.0299029 0.882 255 255 255
-1.05004 0.341993 2.057 255 255 255
0.258292 0.152811 0.572 255 255 255
-0.694422 0.525067 1.842 255 255 255
-0.32333 0.544021 1.498 255 255 255
0.282744 0.159394 0.556 255 255 255
0.22756 0.0303876 0.742 255 255 255
0.150914 0.0129537 0.783 255 255 255
-0.566155 -0.12288 1.262 255 255 255
-0.643449 -0.581025 1.842 0 0 0
0.215813 0.0374803 0.739 255 255 255
-0.110513 -0.117728 1.051 255 255 255
-0.613061 -0.171664 1.305 255 255 255
-0.0335896 0.267603 1.053 255 255 255
-0.637731 -0.134938 1.299 255 255 255
-0.417297 0.530829 1.567 255 255 255
0.0297923 -0.0435489 0.897 255 255 255
-0.315118 -0.122598 1.162 255 255 255
-0.694839 -0.297063 1.406 255 255 255
-0.0719662 -0.438252 1.242 255 255 255
-0.0735432 0.230549 1.141 255 255 255
0.0968619 0.0954138 0.705 255 255 255
-0.500468 -0.30288 1.294 255 255 255
0.320861 -0.062964 0.863 255 255 255
-0.0880598 -0.400598 1.27 0 0 0
-0.249358 -0.0530474 1.024 255 255 255
0.290294 -0.0987547 0.908 0 0 0
0.0569847 0.257805 1.048 255 255 255
0.207027 0.0448773 0.742 255 255 255
-0.448642 -0.0959591 1.16 255 255 255
0.322413 0.0420219 0.714 255 255 255
0.218284 0.158842 0.577 255 255 255
-0.111446 -0.346575 1.254 255 255 255
-0.595053 -0.184243 1.289 0 0 0
0.351415 -0.132739 0.898 0 0 0
-0.903421 -0.627122 1.753 255 255 255
0.0177167 0.0292902 0.812 255 255 255
0.251062 -0.0171883 0.823 255 255 255
-0.230027 0.189909 1.595 255 255 255
-0.630531 0.654724 1.748 255 255 255
0.0719802 0.243607 1.068 255 255 255
-0.10923 -0.417332 1.252 255 255 255
-0.5735 0.419299 1.739 255 255 255
-0.221669 -0.131598 1.158 255 255 255
-0.458102 -0.335114 1.33 255 255 255
0.21164 -0.0710179 0.826 255 255 255
-0.148733 0.482633 1.372 255 255 255
0.202611 0.159412 0.586 255 255 255
0.275494 0.404769 1.156 255 255 255
-0.737424 0.617794 1.815 255 255 255
-0.205663 0.214079 1.459 255 255 255
-0.901383 0.346627 1.899 255 255 255
-0.0266825 -0.117728 1.051 255 255 255
-0.00237237 -0.0428399 0.913 255 255 255
-0.192375 -0.0807107 1.059 255 255 255
-0.0714532 0.0918034 0.804 255 255 255
0.224301 0.426968 1.135 255 255 255
-0.00222946 -0.00395675 0.858 255 255 255
-0.0852169 -0.467665 1.229 0 0 0
-1.00358 0.33432 2.051 255 255 255
-0.760387 0.623986 1.842 255 255 255
0.19184 0.162555 0.594 255 255 255
0.0492788 -0.151908 0.964 255 255 255
-0.00666776 0.385842 1.139 255 255 255
0.340446 -0.221182 0.932 0 0 0
-0.53246 0.168784 1.753 255 255 255
-0.421784 -0.0722126 1.114 255 255 255
-0.194679 -0.0371582 1 255 255 255
0.190382 -0.0607752 0.833 255 255 255
0.00426493 0.191864 1.09 0 0 0
-0.634285 0.477679 1.799 0 0 0
0.0236066 0.0412478 0.788 255 255 255
-0.261032 0.229339 1.563 255 255 255
0.319894 -0.0647413 0.868 255 255 255
0.158966 0.0129868 0.785 255 255 255
0.228896 0.163335 0.573 255 255 255
0.171728 -0.123533 0.809 255 255 255
-0.124199 -0.124569 1.051 255 255 255
-0.780913 0.298223 1.848 0 0 0
-0.176392 -0.134593 1.036 255 255 255
-0.557477 0.354564 1.769 255 255 255
-0.772801 -0.505861 1.748 255 255 255
-0.0750602 -0.411797 1.26 255 255 255
0.232502 0.0626801 0.651 255 255 255
0.275358 0.124656 0.612 255 255 255
-0.516537 0.241039 1.719 0 0 0
-0.364922 -0.376423 1.362 0 0 0
-0.686146 -0.363989 1.513 255 255 255
0.187117 0.189849 0.62 255 255 255
0.271003 -0.0385912 0.852 255 255 255
0.166156 0.0847263 0.702 255 255 255
-0.00861145 0.0367601 0.802 255 255 255
-0.30671 0.334417 1.616 255 255 255
0.385419 -0.404316 1.12 255 255 255
0.219861 0.0117541 0.788 255 255 255
0.168278 0.137475 0.625 255 255 255
-0.452536 -0.107215 1.18 255 255 255
0.3991 -0.281952 0.991 255 255 255
-0.235124 0.226794 1.48 255 255 255
0.11869 -0.0963207 0.942 255 255 255
-0.373051 -0.180383 1.262 255 255 255
0.294542 -0.0991897 0.912 255 255 255
0.163715 -0.128428 0.815 255 255 255
-0.0236371 0.260987 1.068 255 255 255
0.0752076 -0.377659 1.305 255 255 255
-0.342924 0.549537 1.52 255 255 255
0.085282 -0.150183 0.963 255 255 255
0.373595 -0.00600982 0.764 255 255 255
-0.361868 0.200833 1.664 255 255 255
-0.296863 -0.162162 1.203 255 255 255
0.0962142 0.285247 0.995 0 0 0
-0.15845 -0.054981 1.029 255 255 255
0.0630512 -0.182096 0.983 0 0 0
0.0992051 0.426332 1.1 255 255 255
0.414036 -0.291922 0.992 0 0 0
0.320345 0.0992172 0.634 255 255 255
-0.177317 0.57794 1.543 0 0 0
-0.212256 -0.0752553 1.055 255 255 255
0.283323 0.00254156 0.721 255 255 255
0.23295 -0.224371 0.939 255 255 255
0.00191253 0.0111229 0.837 255 255 255
0.254697 0.10764 0.635 255 255 255
-0.0444331 0.446566 1.208 255 255 255
-0.243996 -0.560444 1.505 0 0 0
0.212652 0.436892 1.132 255 255 255
0.398683 -0.017537 0.779 255 255 255
-0.0869337 -0.456175 1.225 255 255 255
0.109332 -0.173619 0.954 255 255 255
-0.443438 0.388693 1.821 255 255 255
-0.611809 0.368066 1.637 255 255 255
0.421628 -0.208032 0.895 255 255 255
-0.333899 -0.567993 1.48 255 255 255
-0.99651 0.586974 2.071 255 255 255
-1.02752 0.55788 2.114 255 255 255
-0.367161 0.496948 1.714 255 255 255
-0.529512 0.234677 1.734 255 255 255
0.0278324 0.385049 1.11 255 255 255
-0.917024 0.647424 1.893 255 255 255
0.175953 0.328249 1.145 255 255 255
0.392861 0.417382 1.1 255 255 255
0.11249 -0.240675 1.073 255 255 255
-0.621236 -0.20695 1.327 255 255 255
0.241436 -0.194405 0.886 0 0 0
0.0230934 -0.0597018 0.921 255 255 255
0.312869 0.0505266 0.703 255 255 255
-0.107213 -0.0560626 0.989 255 255 255
-0.443625 0.516907 1.579 255 255 255
0.144685 -0.508287 1.359 0 0 0
-0.532308 0.402746 1.831 255 255 255
0.143732 -0.314108 1.171 0 0 0
0.102498 0.123919 0.667 255 255 255
-0.535536 0.257748 1.682 0 0 0
-0.542668 0.0957423 1.583 255 255 255
0.397748 -0.161786 0.897 0 0 0
0.365594 -0.397595 1.132 255 255 255
-0.0879272 -0.346462 1.239 255 255 255
-0.65978 -0.284635 1.39 255 255 255
0.118556 0.259216 1.02 255 255 255
0.0383634 0.282132 1.007 255 255 255
-0.501175 0.54015 1.65 255 255 255
-0.124118 0.260964 1.128 255 255 255
0.381064 -0.131985 0.913 0 0 0
-0.307133 -0.0878924 1.106 255 255 255
0.258987 0.0117295 0.709 255 255 255
-0.115854 0.238993 1.137 255 255 255
-0.128451 -0.235001 1.004 255 255 255
0.137392 0.0948724 0.701 255 255 255
-0.0228547 0.0886657 0.755 255 255 255
0.325003 -0.201152 0.91 0 0 0
-0.71241 0.389773 1.673 255 255 255
-0.56986 0.471824 1.799 255 255 255
-0.164473 -0.260691 0.966 255 255 255
0.126442 0.0868472 0.71 255 255 255
-0.329207 0.17784 1.677 0 0 0
0.0832611 -0.00384146 0.833 255 255 255
0.272148 -0.0459511 0.86 255 255 255
0.304495 -0.460946 1.196 255 255 255
0.0617166 -0.555816 1.62 0 0 0
0.13145 -0.290871 1.147 0 0 0
0.264938 0.20929 0.54 255 255 255
0.422734 -0.310467 1.005 255 255 255
0.144188 0.132442 0.64 255 255 255
-1.29128 -0.739631 2.459 255 255 255
-0.00475349 0.0292902 0.812 255 255 255
0.0422873 0.403113 1.11 255 255 255
-0.168308 0.387195 1.299 255 255 255
0.131119 -0.133154 0.891 0 0 0
0.170705 0.383517 1.16 255 255 255
-0.746726 -0.261104 1.422 255 255 255
0.107722 0.0732433 0.724 255 255 255
0.384043 -0.182856 0.879 255 255 255
-0.0199147 -0.123327 1.055 255 255 255
-0.278418 0.341311 1.575 255 255 255
0.0571075 -0.437858 1.381 255 255 255
0.206145 0.0356921 0.752 255 255 255
-0.387048 -0.0451091 1.073 255 255 255
-0.141564 0.0434142 0.856 255 255 255
-0.302183 0.549757 1.758 255 255 255
0.231353 -0.0329289 0.849 255 255 255
-0.192639 -0.518486 1.351 0 0 0
-0.175161 -0.28855 0.939 255 255 255
-0.413791 0.633356 1.655 255 255 255
-0.508142 0.63547 1.719 255 255 255
0.23357 -0.245698 0.889 0 0 0
0.187317 -0.366558 1.232 0 0 0
0.00827232 0.417214 1.154 0 0 0
-0.878817 0.229509 2.01 255 255 255
0.00536883 -0.141657 0.969 255 255 255
-0.726789 0.620703 1.65 255 255 255
-0.728514 0.135131 1.724 255 255 255
-0.0298814 0.0085292 0.85 255 255 255
0.209062 0.0733412 0.671 255 255 255
0.0203322 -0.129187 1.007 0 0 0
0.0667472 -0.163396 0.967 255 255 255
0.110856 0.0601663 0.737 255 255 255
0.231444 0.122805 0.628 255 255 255
-0.0948915 -0.0885574 1.03 255 255 255
-0.608445 0.188723 1.607 255 255 255
0.0962213 -0.231657 1.048 255 255 255
0.20083 0.175495 0.592 255 255 255
-0.0719625 -0.302409 1.208 255 255 255
0.0205341 0.279969 1.017 255 255 255
-0.373189 0.442211 1.729 255 255 255
0.232306 -0.102903 0.823 255 255 255
0.310316 0.0483758 0.705 255 255 255
0.13003 -0.224761 1.032 255 255 255
-0.407787 -0.224967 1.294 0 0 0
-0.113962 -0.426423 1.237 255 255 255
-0.0847493 -0.0851224 1.029 255 255 255
0.258968 -0.00589183 0.749 255 255 255
0.0323375 0.0422063 0.782 255 255 255
-0.0138679 0.0381602 0.804 255 255 255
-0.271651 0.578412 1.551 255 255 255
-0.688707 0.609323 1.599 255 255 255
0.148365 0.0116795 0.783 255 255 255
-0.208038 -0.502951 1.459 0 0 0
-0.223478 -0.05616 1.02 255 255 255
-0.124081 -0.240642 1.05 255 255 255
-0.834022 -0.539609 1.794 0 0 0
0.0295982 -0.13318 0.988 0 0 0
-0.744441 -0.354341 1.463 255 255 255
-0.491729 -0.319416 1.31 255 255 255
-0.548023 0.37968 1.739 255 255 255
-0.0387318 0.27103 1.053 255 255 255
-0.231585 -0.0771181 1.057 255 255 255
0.194224 0.00414251 0.804 255 255 255
-0.585964 -0.532849 1.734 0 0 0
-0.281327 -0.056103 1.05 255 255 255
0.264155 0.204773 0.542 255 255 255
0.0871797 0.264714 1.022 255 255 255
-0.576379 0.239419 1.65 255 255 255
0.361718 -0.406139 1.12 255 255 255
0.238477 0.121202 0.625 255 255 255
-0.382534 -0.0151087 1.051 255 255 255
0.418298 0.407142 1.087 0 0 0
-0.140449 -0.286522 0.963 255 255 255
-0.3753 -0.151667 1.229 255 255 255
0.0419916 -0.141237 0.977 255 255 255
-1.03619 0.634034 2.017 255 255 255
0.0585727 0.124354 0.7 255 255 255
0.133837 -0.4289 1.339 255 255 255
0.278886 0.124452 0.611 255 255 255
0.0533416 0.305179 0.981 255 255 255
-0.00101043 0.322151 1.041 255 255 255
0.0563742 0.119969 0.701 255 255 255
-0.0533257 -0.166546 1.005 255 255 255
0.192428 -0.14002 0.813 255 255 255
0.186932 0.32506 1.167 0 0 0
-0.317335 -0.204992 1.237 255 255 255
-0.961075 0.7084 1.859 255 255 255
-0.397746 0.175485 1.763 255 255 255
0.119354 0.0180966 0.785 255 255 255
0.061451 -0.178897 0.983 0 0 0
-0.440985 0.397692 1.719 255 255 255
0.217108 -0.303645 1.015 255 255 255
0.0583441 0.246494 1.073 255 255 255
-0.23818 -0.166519 1.165 0 0 0
0.0965871 0.0985751 0.703 255 255 255
-0.580937 -0.113938 1.254 255 255 255
0.207261 0.111435 0.645 255 255 255
-0.554095 0.496948 1.714 0 0 0
-0.611842 0.0732353 1.543 255 255 255
0.364402 -0.239652 0.939 255 255 255
-0.260133 -0.523938 1.432 255 255 255
0.0333461 0.323771 1.004 255 255 255
0.206174 -0.32516 1.01 255 255 255
-0.669697 0.646426 1.682 255 255 255
0.292456 -0.158108 0.901 255 255 255
-0.339525 -0.229889 1.252 255 255 255
0.287078 0.0809759 0.662 255 255 255
-0.8834 0.63923 1.887 255 255 255
0.02626 0.220838 1.12 0 0 0
0.293334 0.108325 0.627 255 255 255
-0.155612 -0.168972 1 255 255 255
0.076036 0.150177 0.693 255 255 255
-0.0851395 -0.0402745 0.958 255 255 255
0.104043 0.0719656 0.723 255 255 255
-0.124656 -0.0706109 1.013 255 255 255
-0.86563 -0.576244 1.799 0 0 0
-0.0197826 0.266332 1.048 255 255 255
0.142947 -0.0406346 0.866 255 255 255
0.262457 0.160828 0.561 255 255 255
0.292111 -0.0693567 0.891 255 255 255
-0.162866 0.352175 1.257 255 255 255
-0.334798 -0.130037 1.178 255 255 255
-0.0137151 -0.0140505 0.878 255 255 255
-0.271398 0.457258 1.691 0 0 0
0.289404 0.384383 1.198 255 255 255
-1.47885 -0.00396906 2.925 255 255 255
0.420557 -0.238355 0.928 255 255 255
0.0157863 0.447261 1.154 255 255 255
0.018593 0.0389286 0.793 255 255 255
0.218195 0.144669 0.6 255 255 255
0.113202 -0.138329 1.002 0 0 0
0.299625 0.00743546 0.741 255 255 255
0.119666 0.437463 1.124 255 255 255
-0.502681 0.591683 1.682 255 255 255
0.120416 0.323975 1.036 255 255 255
-0.659088 0.466579 1.779 0 0 0
-0.225448 -0.114611 1.139 255 255 255
0.0703957 0.127622 0.693 255 255 255
-1.43753 0.0241366 2.871 255 255 255
0.32013 -0.10227 0.913 255 255 255
0.32871 -0.0806837 0.888 255 255 255
-1.00315 0.307986 2.099 255 255 255
0.348032 -0.224215 0.932 0 0 0
0.0824027 -0.189951 0.966 255 255 255
-0.653324 -0.590525 1.853 0 0 0
-0.805488 -0.613799 1.789 0 0 0
-0.340796 -0.258259 1.213 255 255 255
-0.458943 0.134403 1.789 255 255 255
-0.528993 -0.600289 1.612 255 255 255
-0.0229362 0.00990077 0.849 255 255 255
0.290346 0.121271 0.61 255 255 255
0.00456622 -0.28075 1.167 255 255 255
-0.885304 0.631811 1.911 255 255 255
-1.39446 -0.00384151 2.831 255 255 255
-0.629306 0.532248 1.729 255 255 255
-0.375711 -0.391725 1.369 255 255 255
-0.692325 0.114181 1.664 255 255 255
-0.272363 -0.237904 1.126 0 0 0
-0.689226 0.598041 1.724 255 255 255
0.188379 0.143344 0.611 255 255 255
0.0714206 0.111672 0.692 255 255 255
-0.803669 -0.0448443 1.637 255 255 255
0.0541352 0.257064 1.059 255 255 255
-0.730247 0.623261 1.664 255 255 255
-0.0828298 0.23612 1.141 255 255 255
-0.062736 -0.220866 1.114 0 0 0
-0.228204 0.595382 1.677 255 255 255
0.421288 -0.138956 0.91 255 255 255
-0.833977 0.269275 1.966 255 255 255
0.139982 -0.248205 1.083 0 0 0
-0.30405 -0.308538 1.257 255 255 255
-0.0515494 -0.205177 1.07 0 0 0
0.35529 -0.27638 1.018 0 0 0
0.386886 -0.383873 1.135 0 0 0
-0.0084919 -0.254582 1.135 0 0 0
0.00633289 0.402077 1.143 255 255 255
-0.394602 0.492889 1.7 255 255 255
0.0479571 -0.146388 0.969 255 255 255
-0.0829595 0.226695 1.169 255 255 255
-0.689796 0.330675 1.691 255 255 255
0.0518502 0.304202 0.983 255 255 255
0.223158 0.12973 0.622 255 255 255
-0.696663 0.0785511 1.655 255 255 255
-0.192519 0.583606 1.607 0 0 0
-0.453346 -0.212826 1.31 255 255 255
0.257778 0.169617 0.551 255 255 255
-0.834037 0.38976 1.826 255 255 255
0.194301 0.138053 0.614 255 255 255
-0.746707 0.0216478 1.629 255 255 255
0.139235 -0.527804 1.393 255 255 255
0.112923 -0.397062 1.299 0 0 0
-0.419192 0.462396 1.71 255 255 255
-0.29099 0.43164 1.677 0 0 0
0.219786 0.0531456 0.651 255 255 255
0.239924 0.385842 1.139 255 255 255
-0.334632 -0.143942 1.198 255 255 255
-0.539157 0.38898 1.865 0 0 0
-0.509815 -0.287472 1.291 255 255 255
0.0291205 -0.347301 1.242 255 255 255
0.339514 0.0542405 0.692 255 255 255
-0.12805 -0.156821 1.027 0 0 0
-0.132611 -0.264582 0.963 255 255 255
-0.0817531 0.230897 1.152 255 255 255
-0.713507 -0.22919 1.425 255 255 255
0.302622 0.126458 0.597 255 255 255
0.0180658 0.0136982 0.828 255 255 255
0.0765182 0.270625 1.013 255 255 255
-0.541503 -0.209135 1.262 255 255 255
-0.674629 -0.0380577 1.477 0 0 0
-0.0221301 -0.465246 1.283 255 255 255
0.34064 0.064702 0.672 255 255 255
-0.33247 -0.037485 1.055 255 255 255
-0.218797 -0.152214 1.143 255 255 255
-0.348125 0.538917 1.532 255 255 255
-0.774581 -0.411742 1.583 255 255 255
-0.443946 -0.342378 1.333 255 255 255
-0.0978468 0.227816 1.165 255 255 255
-0.0350019 0.280606 1.044 255 255 255
0.0203322 0.291964 1.007 255 255 255
0.00169774 0.0763745 0.743 255 255 255
0.0386917 -0.169334 0.974 0 0 0
-0.76381 0.619638 1.865 255 255 255
0.155423 0.00666677 0.793 255 255 255
0.425986 -0.259946 0.975 0 0 0
0.32294 0.0472286 0.705 255 255 255
-0.820147 -0.66038 1.758 255 255 255
0.41299 0.405373 1.087 0 0 0
0.42191 -0.255941 0.984 0 0 0
0.195083 -0.297587 1.137 0 0 0
-0.00446714 0.261739 1.057 255 255 255
0.239442 0.128687 0.617 255 255 255
0.125755 0.145473 0.647 255 255 255
0.0932126 -0.0768791 0.948 255 255 255
-0.16588 0.44348 1.348 0 0 0
-0.862641 -0.557604 1.805 0 0 0
0.0626388 0.282362 1.002 255 255 255
-0.491858 -0.0893991 1.173 255 255 255
-0.411775 -0.491534 1.393 255 255 255
-0.195135 0.609757 1.607 255 255 255
0.0655144 0.373775 1.048 255 255 255
0.119203 -0.090943 0.934 255 255 255
0.175553 0.0968418 0.66 255 255 255
-0.0728796 -0.248863 1.16 0 0 0
-0.677152 -0.534126 1.729 255 255 255
0.0862354 0.326359 0.992 255 255 255
0.377908 -0.0137163 0.778 255 255 255
-0.698347 0.381112 1.659 255 255 255
0.113895 0.103489 0.69 255 255 255
0.339891 -0.0791494 0.887 255 255 255
-0.183399 -0.279562 0.95 255 255 255
0.10342 0.146938 0.673 255 255 255
-0.310478 0.368304 1.65 255 255 255
-0.65769 -0.279847 1.4 255 255 255
-1.09733 0.278655 2.136 255 255 255
0.122188 -0.0598051 0.9 255 255 255
0.198231 0.165301 0.59 255 255 255
-0.584593 0.166967 1.599 255 255 255
0.190216 0.097174 0.655 0 0 0
0.0267993 0.429978 1.143 0 0 0
0.0658524 0.0335112 0.787 255 255 255
-0.268478 -0.048189 1.027 255 255 255
-0.408532 -0.0295583 1.079 255 255 255
0.121245 -0.145064 0.95 0 0 0
-0.996829 0.376706 1.959 255 255 255
-0.306989 -0.0901788 1.112 255 255 255
-0.376161 -0.374418 1.316 255 255 255
-0.128442 -0.399898 1.281 255 255 255
-0.374738 -0.255562 1.289 255 255 255
-0.952941 0.308518 2.057 255 255 255
-0.128243 0.250837 1.132 255 255 255
0.18795 0.158518 0.597 255 255 255
-0.312687 0.421485 1.691 0 0 0
0.124294 -0.147811 0.938 0 0 0
-0.266131 0.00967312 0.964 255 255 255
0.261906 0.173582 0.541 255 255 255
0.150664 0.0595271 0.744 255 255 255
-0.645585 0.544036 1.758 255 255 255
-0.745492 -0.342215 1.442 255 255 255
0.0844968 -0.0930612 0.972 255 255 255
-1.07035 0.344333 2.051 255 255 255
-1.05738 0.595722 2.078 255 255 255
0.159876 0.020441 0.777 255 255 255
-0.567932 -0.670846 1.748 0 0 0
-0.548839 0.219263 1.769 255 255 255
0.251257 -0.204807 0.875 255 255 255
0.211695 -0.0973087 0.821 255 255 255
0.129174 -0.186227 0.963 255 255 255
-0.0449644 0.0696642 0.776 0 0 0
0.0433508 0.13228 0.712 255 255 255
-0.174121 -0.0121108 0.95 255 255 255
0.0769414 0.109262 0.691 255 255 255
-0.42312 -0.0664144 1.108 255 255 255
-0.189229 0.0542519 0.897 255 255 255
-0.314311 0.243915 1.575 0 0 0
-0.603419 -0.0443798 1.375 255 255 255
-0.335633 0.264516 1.591 0 0 0
0.00991323 -0.0740272 0.951 255 255 255
0.179483 0.429524 1.132 255 255 255
0.301263 0.038806 0.719 255 255 255
0.225049 0.176699 0.568 255 255 255
-0.470382 -0.0624917 1.135 255 255 255
0.101153 -0.126534 1.012 255 255 255
-0.410289 -0.0225348 1.079 255 255 255
0.162108 -0.00240831 0.807 255 255 255
-0.725893 -0.198625 1.422 255 255 255
0.233997 -0.210339 0.931 255 255 255
0.340066 -0.153907 0.869 255 255 255
0.0549354 -0.247168 1.11 255 255 255
-0.137706 -0.18199 1 0 0 0
0.204716 0.0606497 0.701 255 255 255
-0.181344 -0.0855563 1.055 255 255 255
-0.824103 0.161209 1.899 255 255 255
-0.0986558 -0.437161 1.222 255 255 255
0.160741 -0.0805244 0.827 255 255 255
0.269808 0.158652 0.563 255 255 255
-0.284364 -0.260189 1.16 255 255 255
0.0676147 -0.082281 0.957 255 255 255
0.0791071 -0.0515844 0.91 255 255 255
-0.218626 0.643305 1.646 255 255 255
-0.0867037 0.055718 0.812 0 0 0
0.147387 0.0503771 0.752 255 255 255
-0.384459 0.296319 1.668 255 255 255
0.133108 -0.269813 1.114 255 255 255
0.305073 0.41158 1.154 255 255 255
-0.459597 -0.560007 1.705 0 0 0
0.0655122 -0.00529685 0.849 255 255 255
-0.734119 -0.248437 1.429 255 255 255
-0.0414574 -0.158412 0.995 255 255 255
0.220869 0.12465 0.627 255 255 255
-0.572318 -0.188598 1.262 0 0 0
0.281529 -0.0353978 0.842 255 255 255
0.267338 0.20774 0.536 255 255 255
-0.300071 0.605369 1.682 0 0 0
-1.53913 0.00568555 2.996 255 255 255
-0.0983507 0.225178 1.171 255 255 255
-0.760052 0.120631 1.758 255 255 255
-0.49819 0.439431 1.763 0 0 0
-0.804134 -0.585026 1.799 255 255 255
0.187196 0.0519817 0.74 255 255 255
0.200682 -0.328719 0.991 255 255 255
0.0499543 -0.0389514 0.892 255 255 255
-0.10249 0.0510535 0.822 255 255 255
-0.760854 0.638007 1.696 255 255 255
0.235271 -0.108392 0.824 255 255 255
-0.993563 0.594656 2.051 255 255 255
0.326165 0.394102 1.169 255 255 255
-0.712184 -0.357309 1.516 255 255 255
-0.558146 0.486462 1.799 255 255 255
-0.541456 -0.456686 1.587 0 0 0
-0.160967 -0.185295 0.983 255 255 255
-0.00252048 -0.163903 0.97 255 255 255
-0.330552 -0.57345 1.52 255 255 255
-0.716296 0.184091 1.763 255 255 255
0.376411 -0.172093 0.868 255 255 255
-0.277065 0.250862 1.539 255 255 255
-0.188981 -0.16271 1.022 255 255 255
0.113252 0.0207041 0.787 255 255 255
0.295177 -0.120562 0.928 0 0 0
0.302311 -0.260987 0.991 255 255 255
0.164804 0.0829113 0.706 255 255 255
0.141704 -0.172648 0.932 255 255 255
0.18779 -0.0455236 0.852 0 0 0
-0.1054 0.017185 0.868 255 255 255
0.261227 -0.177752 0.875 255 255 255
-0.117021 -0.151501 1.048 255 255 255
-0.603976 0.577266 1.729 255 255 255
0.222633 -0.00509721 0.817 255 255 255
0.0167253 -0.0437431 0.901 255 255 255
0.113965 -0.421416 1.336 255 255 255
0.364819 -0.0514094 0.835 255 255 255
0.0818916 -0.402368 1.345 0 0 0
0.316008 -0.264003 0.685 0 0 0
-0.209026 0.00179714 0.947 255 255 255
0.0651291 0.109076 0.697 255 255 255
-0.142664 -0.0755859 1.036 255 255 255
0.348749 -0.127667 0.914 0 0 0
-1.06807 0.588079 2.099 255 255 255
-0.119067 -0.138252 1.051 255 255 255
0.195812 0.384873 1.12 255 255 255
-0.395397 -0.452709 1.345 255 255 255
0.190544 -0.0198427 0.822 255 255 255
-0.473504 0.128581 1.789 0 0 0
-0.809173 0.302404 1.893 0 0 0
0.0218623 0.298668 1.002 255 255 255
-0.294374 0.255342 1.551 0 0 0
0.199602 0.0193494 0.784 255 255 255
0.407625 -0.166938 0.842 0 0 0
0.306208 -0.138061 0.934 0 0 0
0.0529496 -0.312605 1.187 255 255 255
-0.00100169 0.274022 1.032 255 255 255
-0.768039 -0.386476 1.524 255 255 255
-0.116914 -0.0920881 1.032 255 255 255
0.227208 0.12973 0.622 255 255 255
-0.0192163 -0.0974654 1.018 255 255 255
-0.812919 -0.558678 1.799 0 0 0
0.0690278 -0.180984 0.977 0 0 0
0.215527 -0.248711 1 255 255 255
-0.572181 -0.255431 1.299 255 255 255
0.273906 -0.013399 0.76 255 255 255
-0.215851 -0.546317 1.48 0 0 0
0.107178 -0.281538 1.147 255 255 255
-0.536613 -0.154051 1.265 255 255 255
0.346908 -0.110179 0.917 255 255 255
-0.14708 -0.437095 1.262 255 255 255
-0.0561068 -0.322835 1.249 255 255 255
-0.382371 -0.0959068 1.137 255 255 255
0.183474 0.0943167 0.65 0 0 0
0.188435 -0.339897 0.986 0 0 0
-0.665625 -0.693045 1.837 255 255 255
-0.0891577 0.00308441 0.875 255 255 255
0.117661 -0.68367 1.789 255 255 255
0.291174 -0.0174019 0.773 255 255 255
-0.322759 -0.281208 1.227 255 255 255
-0.363946 0.606841 1.579 0 0 0
0.100661 -0.330522 1.203 255 255 255
-0.899274 -0.654186 1.734 255 255 255
0.271877 -0.0200724 0.779 255 255 255
-0.861317 -0.600471 1.784 0 0 0
-0.392819 -0.0564147 1.089 255 255 255
0.00415538 0.261249 1.062 255 255 255
-0.114618 -0.283329 1.162 0 0 0
0.197811 -0.339004 1.053 0 0 0
-0.400951 -0.303054 1.313 255 255 255
-0.515622 0.0572457 1.587 255 255 255
-0.483322 -0.300829 1.322 255 255 255
-0.745693 -0.369032 1.555 255 255 255
0.276049 -0.155476 0.886 0 0 0
-0.38876 -0.447171 1.425 255 255 255
0.0519144 -0.0615992 0.927 255 255 255
0.333419 -0.266839 1.007 0 0 0
0.253182 0.0399032 0.678 255 255 255
-0.440144 -0.167795 1.26 255 255 255
0.0145929 -0.558397 1.659 0 0 0
-0.499335 -0.123667 1.229 255 255 255
-0.592448 0.524849 1.696 255 255 255
0.330444 0.00640616 0.762 255 255 255
0.209821 0.11682 0.64 255 255 255
0.0753275 0.0369736 0.779 255 255 255
-0.52174 -0.146589 1.254 255 255 255
0.203877 0.0516305 0.735 255 255 255
0.387959 -0.197038 0.898 255 255 255
0.0484857 -0.123362 1.013 0 0 0
-0.0416795 -0.145407 1.041 0 0 0
-0.687227 0.280203 1.719 255 255 255
0.329228 0.3873 1.201 0 0 0
0.108308 -0.117131 1.002 255 255 255
0.372351 -0.0072531 0.764 255 255 255
0.0481703 0.0600871 0.751 255 255 255
0.135354 -0.00645033 0.82 255 255 255
0.0716082 -0.0601555 0.928 255 255 255
0.129669 -0.0548572 0.891 255 255 255
0.236887 0.182738 0.561 255 255 255
-0.799664 0.655524 1.789 255 255 255
0.28273 0.131623 0.594 255 255 255
0.33482 -0.00735753 0.775 255 255 255
0.214263 -0.0590399 0.847 255 255 255
-0.778786 -0.572508 1.815 255 255 255
0.217629 0.0373789 0.737 255 255 255
0.227512 -0.0300236 0.845 255 255 255
-0.217818 -0.518771 1.477 0 0 0
-0.377776 -0.0750213 1.102 255 255 255
0.0408261 0.0468127 0.774 255 255 255
0.200712 -0.0535897 0.848 255 255 255
-0.780206 -0.0258607 1.616 255 255 255
0.286087 0.135803 0.587 255 255 255
-0.248649 -0.189031 1.152 255 255 255
-0.34511 -0.203456 1.265 255 255 255
-0.0480387 -0.0988058 1.032 255 255 255
-0.260081 0.242848 1.419 0 0 0
-0.588351 0.604113 1.758 255 255 255
0.0513192 0.0995567 0.71 255 255 255
0.313774 0.108958 0.619 255 255 255
0.144755 -0.264275 1.106 0 0 0
0.0167097 -0.529114 1.603 0 0 0
-0.582421 0.0364007 1.579 255 255 255
0.136674 -0.0895434 0.862 0 0 0
-0.509169 0.0467971 1.583 255 255 255
-0.0026634 0.282171 1.025 255 255 255
-0.128894 0.211225 1.189 255 255 255
-0.0873025 -0.104936 1.06 255 255 255
0.0936841 0.0910823 0.707 255 255 255
0.23265 -0.216964 0.908 255 255 255
-0.330391 0.212514 1.629 255 255 255
0.287337 -0.0411214 0.847 255 255 255
0.237263 -0.255236 0.892 255 255 255
0.10448 -0.442518 1.354 255 255 255
0.152198 0.122193 0.652 255 255 255
0.119446 -0.098477 0.948 255 255 255
-0.308031 -0.196144 1.232 255 255 255
-0.271219 0.177505 1.624 0 0 0
-0.138187 0.0716904 0.861 255 255 255
-0.0385351 -0.471978 1.273 255 255 255
-0.629643 -0.147076 1.313 255 255 255
-0.0125904 0.0356319 0.806 255 255 255
0.346797 -0.229443 0.941 255 255 255
0.191008 -0.155324 0.824 255 255 255
0.279811 0.163637 0.552 255 255 255
-1.11355 0.578521 2.114 255 255 255
0.117681 0.0266599 0.774 255 255 255
-0.551437 -0.27678 1.31 255 255 255
-0.0975948 -0.271983 1.162 255 255 255
0.0746176 -0.150807 0.967 255 255 255
-0.511373 -0.43398 1.543 0 0 0
-0.786042 -0.512124 1.853 255 255 255
0.251703 0.0269778 0.686 255 255 255
-0.0161367 -0.451988 1.305 255 255 255
-0.319714 0.484416 1.729 0 0 0
-0.643138 0.202402 1.677 255 255 255
0.176619 -0.173033 0.845 0 0 0
0.260772 0.204508 0.546 255 255 255
-0.091004 0.0599026 0.815 255 255 255
-0.831089 -0.630699 1.763 0 0 0
0.155634 -0.433258 1.339 0 0 0
-0.243095 -0.0438858 1.005 255 255 255
-1.00002 0.641305 1.959 255 255 255
0.258585 -0.00839629 0.755 255 255 255
0.0734426 0.246158 1.064 255 255 255
-0.223664 -0.197317 1.094 0 0 0
-0.0729554 -0.208104 1.104 0 0 0
-0.788179 0.626947 1.887 255 255 255
-0.573008 0.13869 1.603 255 255 255
0.0333159 -0.292484 1.176 0 0 0
-0.0643443 0.0935981 0.797 255 255 255
-0.350624 0.537764 1.543 255 255 255
0.0622712 0.0726623 0.73 255 255 255
0.395632 -0.180188 0.873 255 255 255
-0.342708 0.201828 1.65 255 255 255
-0.156773 -0.249945 0.967 255 255 255
0.372305 -0.369266 1.147 0 0 0
-0.693256 -0.663964 1.831 0 0 0
-0.74127 -0.273829 1.416 255 255 255
0.16784 0.00021712 0.803 255 255 255
-0.0499113 -0.102561 1.036 255 255 255
-0.456745 -0.103024 1.176 255 255 255
0.291397 0.0911434 0.65 255 255 255
0.310381 0.0665789 0.68 255 255 255
0.182838 0.055369 0.737 255 255 255
-0.816187 0.546449 1.985 255 255 255
-0.536234 -0.274456 1.299 255 255 255
0.32987 0.0593519 0.686 255 255 255
0.254883 0.13663 0.599 255 255 255
0.14757 -0.0760263 0.852 255 255 255
0.187182 -0.0944061 0.819 255 255 255
0.516282 -0.381797 1.012 255 255 255
-0.310668 -0.104696 1.132 255 255 255
-0.00413326 -0.193902 0.978 255 255 255
-0.944649 0.332017 1.997 255 255 255
-0.591271 0.48895 1.677 255 255 255
0.195571 -0.0634101 0.832 255 255 255
