ply
format ascii 1.0
comment Created by Open3D
element vertex 1318
property double x
property double y
property double z
property uchar red
property uchar green
property uchar blue
end_header
-0.903233 -0.225447 2.78 255 255 255
0.113584 0.0885169 0.662 255 255 255
0.202845 -0.143777 0.641 255 255 255
-0.483796 -0.577245 1.784 255 255 255
-0.135441 0.161615 1.524 255 255 255
-1.04125 0.331641 2.338 255 255 255
-0.312483 0.104022 2.051 255 255 255
0.166058 0.0737676 0.665 255 255 255
-0.336779 0.206542 1.978 0 0 0
-0.304253 -0.261086 1.275 255 255 255
-0.0240298 -0.329039 1.273 255 255 255
0.0797929 -0.385332 1.156 255 255 255
0.25863 0.136839 0.549 255 255 255
0.26977 0.0512619 0.654 0 0 0
-1.05577 0.0624044 2.707 255 255 255
0.248164 0.181195 0.488 255 255 255
-1.05624 -0.173891 2.982 255 255 255
-1.19879 0.352445 2.402 255 255 255
-0.335412 -0.385254 1.445 255 255 255
-0.0772656 0.149962 1.372 255 255 255
-0.182338 0.591683 1.682 255 255 255
-0.479602 0.249947 2.189 255 255 255
0.186639 0.0346577 0.706 255 255 255
0.28567 -0.155406 0.765 0 0 0
0.149837 0.45949 1.254 0 0 0
0.136821 0.450837 1.247 0 0 0
-1.13454 0.413252 2.244 255 255 255
0.0496345 -0.259601 1.037 255 255 255
0.155681 -0.533333 1.378 255 255 255
0.0606431 -0.434703 1.267 255 255 255
-0.248399 -0.439558 1.502 255 255 255
-0.101437 0.312659 1.535 255 255 255
-0.996495 0.534853 2.078 255 255 255
-1.00748 -0.113448 2.925 255 255 255
-0.292067 0.240727 1.917 255 255 255
-0.121559 -0.169084 1.073 255 255 255
-0.226813 -0.330139 1.345 255 255 255
0.0301291 0.10628 0.701 255 255 255
-0.710294 0.601922 1.876 255 255 255
-0.0281588 0.0262864 0.801 255 255 255
-0.432224 0.571361 1.799 255 255 255
-0.82791 0.113217 2.561 255 255 255
0.19689 0.026917 0.714 255 255 255
0.293291 -0.124501 0.782 0 0 0
-0.623188 0.621757 1.784 255 255 255
-0.128459 -0.128814 1.017 255 255 255
0.292423 0.00504422 0.6 0 0 0
-0.736196 0.0757091 2.561 255 255 255
-0.756332 0.42326 2.078 255 255 255
-0.87267 0.464995 2.114 255 255 255
0.101263 -0.031998 0.825 255 255 255
0.157814 -0.0708816 0.716 255 255 255
0.262117 -0.267254 0.934 0 0 0
0.201603 0.065404 0.668 255 255 255
0.281181 -0.347038 0.912 255 255 255
0.107726 0.105364 0.64 255 255 255
0.00170916 0.0634988 0.748 255 255 255
0.17392 0.0981217 0.627 255 255 255
0.36965 -0.171931 0.761 255 255 255
0.0516086 0.119558 0.655 255 255 255
0.214006 0.189136 0.488 255 255 255
-0.884443 0.431129 2.151 255 255 255
-0.154567 0.161075 1.567 255 255 255
0.268534 0.00406104 0.599 0 0 0
0.254482 0.100586 0.605 255 255 255
0.204539 -0.113088 0.627 255 255 255
0.0934669 -0.246561 1.018 255 255 255
-0.046094 -0.561615 1.445 255 255 255
0.168286 0.0372172 0.711 255 255 255
-0.596838 0.558938 1.865 255 255 255
0.272065 0.139444 0.535 255 255 255
-0.524388 -0.478844 1.664 255 255 255
-0.628291 -0.0518456 2.303 255 255 255
-0.755674 0.170464 2.269 255 255 255
0.364408 -0.30577 0.807 255 255 255
0.0847407 0.0505065 0.719 255 255 255
-0.999605 0.446147 2.173 255 255 255
-0.0198562 -0.514563 1.419 255 255 255
0.297891 0.0727291 0.628 255 255 255
0.357185 -0.137613 0.777 0 0 0
0.190753 -0.235433 1.081 255 255 255
-1.16524 0.150278 2.626 255 255 255
-0.815072 0.484226 2.064 255 255 255
0.385021 -0.196958 0.762 0 0 0
-0.903679 0.67596 1.853 255 255 255
0.0928891 0.0652127 0.701 255 255 255
0.126358 0.116009 0.619 255 255 255
-0.249944 0.296973 1.859 255 255 255
-0.847857 0.139499 2.509 255 255 255
0.055437 -0.317836 1.051 255 255 255
-0.332191 -0.505852 1.612 255 255 255
-0.416228 -0.0245995 2.212 255 255 255
0.150239 0.154519 0.558 255 255 255
0.248884 0.0866564 0.618 255 255 255
0.1689 0.0701699 0.672 255 255 255
-0.602257 0.333162 2.107 0 0 0
-0.917884 0.41381 2.189 255 255 255
-0.985534 0.426494 2.181 255 255 255
-0.0497271 -0.413998 1.242 255 255 255
0.224434 0.0321766 0.702 255 255 255
-0.0296704 -0.0148799 0.844 255 255 255
0.171397 0.154035 0.553 255 255 255
0.225016 0.093393 0.616 255 255 255
-0.800267 -0.176525 2.593 255 255 255
-0.572468 -0.581921 1.826 255 255 255
0.13795 0.171657 0.535 255 255 255
0.253764 0.000164394 0.608 255 255 255
0.309456 -0.191694 0.719 255 255 255
-0.755384 0.482857 2.03 255 255 255
-0.512576 0.646658 1.734 255 255 255
0.284482 0.0432295 0.63 255 255 255
-0.309935 0.644381 1.691 255 255 255
0.23989 0.14205 0.545 255 255 255
-0.301429 0.44662 1.917 255 255 255
0.197099 0.12496 0.581 255 255 255
0.0282634 0.0266943 0.775 255 255 255
0.169666 -0.11597 0.693 0 0 0
0.201894 -0.223037 0.793 255 255 255
0.051845 0.11261 0.658 255 255 255
-0.315142 0.390498 1.887 255 255 255
0.0822936 0.46594 1.283 255 255 255
0.0312195 -0.315326 1.102 255 255 255
0.235871 -0.0517493 0.679 255 255 255
0.0957914 0.140813 0.592 255 255 255
-0.528226 0.556851 1.848 255 255 255
-0.192339 0.540941 1.748 255 255 255
-0.499244 -0.228526 2.166 255 255 255
0.00756844 -0.475338 1.366 0 0 0
0.203162 -0.145046 0.642 255 255 255
-0.546307 0.408064 1.789 255 255 255
-0.700703 0.406356 2.044 255 255 255
0.206952 -0.0258992 0.697 255 255 255
0.35041 -0.252103 0.749 255 255 255
0.272217 -0.0448139 0.588 255 255 255
0.0228287 0.254827 1.348 0 0 0
-1.06196 0.156829 2.593 255 255 255
0.143778 -0.426423 1.237 0 0 0
-0.903414 0.3477 2.269 255 255 255
-0.771181 0.571841 1.929 255 255 255
0.0702063 -0.0594316 0.873 255 255 255
0.161508 -0.276788 1.051 255 255 255
0.349585 -0.230502 0.727 255 255 255
0.243262 0.186413 0.483 255 255 255
-0.393246 0.15635 2.037 255 255 255
0.169355 0.0963875 0.629 255 255 255
-0.140329 0.331899 1.579 255 255 255
0.204913 -0.286055 0.854 255 255 255
-0.683406 0.210422 2.114 255 255 255
0.350493 -0.244367 0.744 255 255 255
-0.159969 -0.302393 1.283 255 255 255
0.180672 0.0696478 0.667 255 255 255
-0.134173 -0.0927971 0.986 255 255 255
-0.116297 -0.353224 1.333 255 255 255
0.255656 -0.00950572 0.594 255 255 255
-0.839195 0.522435 2.017 255 255 255
0.17636 0.0752469 0.659 255 255 255
0.186912 0.105422 0.616 255 255 255
0.239554 -0.178419 0.757 255 255 255
-0.136857 -0.39979 1.322 255 255 255
-0.191178 -0.217906 1.156 255 255 255
-1.03554 0.607052 1.972 255 255 255
-1.43269 0.122899 2.78 255 255 255
0.252678 -0.0160737 0.714 255 255 255
0.0995926 0.166713 0.575 255 255 255
-0.760527 0.442056 2.071 255 255 255
-0.158241 0.59979 1.659 255 255 255
0.244964 0.0733057 0.642 255 255 255
0.210335 -0.078913 0.648 255 255 255
-1.14625 0.094894 2.755 255 255 255
0.0345381 0.0439641 0.747 255 255 255
0.242173 -0.0646259 0.675 0 0 0
-0.00631652 -0.205147 1.079 255 255 255
-0.311791 -0.268148 1.289 255 255 255
-0.341534 -0.31751 1.366 255 255 255
-0.094048 -0.108843 0.986 0 0 0
-0.0423796 0.2601 1.4 255 255 255
-0.379366 -0.0840094 2.166 255 255 255
0.360235 -0.285486 0.77 255 255 255
0.127088 0.0835072 0.665 255 255 255
-0.403804 0.147842 2.057 255 255 255
0.169163 -0.169817 1.005 255 255 255
-0.310963 0.250828 1.899 255 255 255
-0.731582 0.323948 2.114 255 255 255
-0.0314718 -0.53185 1.422 255 255 255
-0.70458 0.456788 2.017 255 255 255
-0.629984 0.280353 2.204 255 255 255
0.205444 0.142851 0.555 255 255 255
-0.569558 0.33432 2.051 0 0 0
0.292078 -0.17642 0.759 0 0 0
-0.0685232 -0.138062 1.012 255 255 255
0.208089 0.122857 0.58 255 255 255
-0.00341903 0.0107508 0.809 255 255 255
-0.245715 -0.354756 1.39 255 255 255
-1.302 0.130191 2.743 255 255 255
-0.807397 0.68467 1.774 255 255 255
-1.10537 0.538456 2.092 255 255 255
-0.307872 0.408433 1.899 255 255 255
-0.180387 0.276653 1.664 255 255 255
-0.481898 -0.0967497 2.136 255 255 255
0.196523 -0.193174 0.787 255 255 255
0.186584 0.115762 0.602 255 255 255
0.00825083 -0.111176 0.938 255 255 255
0.0724673 0.461512 1.294 255 255 255
-0.300403 0.14309 2.037 255 255 255
0.283485 -0.243791 0.852 255 255 255
-0.199758 0.273809 1.714 0 0 0
-0.135237 0.612349 1.642 255 255 255
-0.158724 -0.110936 1.02 255 255 255
0.0340329 -0.0118311 0.823 255 255 255
-0.757259 -0.325113 2.743 255 255 255
0.150903 0.0770141 0.665 255 255 255
0.256914 0.133337 0.553 255 255 255
-0.547467 -0.010164 2.204 255 255 255
0.191279 -0.0159978 0.766 255 255 255
-0.00203717 0.0282802 0.784 255 255 255
-0.144777 0.58109 1.691 255 255 255
0.146415 -0.260602 1.041 255 255 255
-0.999852 0.529869 2.085 255 255 255
0.171275 0.0382663 0.709 255 255 255
-0.760028 -0.726332 2.107 255 255 255
-0.329859 0.579574 1.753 255 255 255
-1.1637 0.394027 2.347 255 255 255
0.0626359 -0.199244 1.057 255 255 255
-0.961257 0.58698 1.991 255 255 255
-0.545953 0.326863 1.966 0 0 0
-0.00420947 0.548783 1.62 255 255 255
0.178081 -0.129375 0.642 255 255 255
-0.353368 0.246193 1.911 255 255 255
0.140628 0.189643 0.513 255 255 255
0.220932 0.116102 0.584 255 255 255
-0.772322 0.536452 1.972 255 255 255
-0.337611 0.291259 1.842 255 255 255
-1.10439 0.401631 2.303 255 255 255
0.106053 0.131218 0.601 255 255 255
0.186195 -0.290106 1.075 0 0 0
0.0989139 -0.530456 1.4 255 255 255
0.108778 0.0902606 0.659 255 255 255
0.199567 -0.294052 0.849 255 255 255
-1.06953 0.457424 2.143 255 255 255
0.204584 0.177048 0.508 255 255 255
-0.130189 0.0702469 1.342 255 255 255
0.119646 0.15544 0.568 255 255 255
0.269419 0.0671417 0.643 255 255 255
-0.457983 0.364227 1.774 255 255 255
0.065802 -0.00108827 0.802 255 255 255
-0.611647 0.610201 1.81 255 255 255
-0.727285 -0.18047 2.53 0 0 0
-0.0817624 -0.454028 1.336 255 255 255
-0.281821 0.364366 1.911 255 255 255
-0.588198 0.670984 1.724 255 255 255
-0.00866399 0.426695 1.48 0 0 0
-0.430727 0.391153 1.805 255 255 255
-0.970494 -0.0637321 2.831 255 255 255
-0.287497 0.310658 1.887 255 255 255
0.266562 0.106598 0.584 255 255 255
0.178715 0.185042 0.505 255 255 255
-1.06681 0.439075 2.173 255 255 255
-0.32409 -0.525474 1.624 0 0 0
-0.633 -0.726927 1.978 255 255 255
0.17097 -0.0936189 0.703 255 255 255
-0.341877 -0.554022 1.646 255 255 255
0.238007 -0.189256 0.756 255 255 255
-0.0281668 -0.0443061 0.883 255 255 255
0.248252 -0.195461 0.761 255 255 255
0.241232 0.07166 0.646 255 255 255
0.0322548 0.02052 0.78 255 255 255
-0.208333 0.572115 1.739 255 255 255
0.0598779 -0.182325 1.039 0 0 0
0.143467 0.124579 0.602 255 255 255
0.208341 0.160819 0.528 255 255 255
-0.161942 -0.325162 1.316 255 255 255
0.169943 -0.0769217 0.718 0 0 0
0.0239867 0.558879 1.567 255 255 255
0.201444 -0.201918 0.762 255 255 255
0.190607 0.0215805 0.73 255 255 255
0.0915725 0.375359 1.239 0 0 0
-0.287497 0.47955 1.887 255 255 255
0.285904 -0.0692084 0.609 0 0 0
0.23839 -0.283532 0.913 255 255 255
0.316643 -0.224687 0.747 255 255 255
0.241449 0.110574 0.59 255 255 255
-0.14418 -0.343772 1.33 255 255 255
0.0900776 0.499414 1.305 255 255 255
0.176796 0.035908 0.708 255 255 255
-0.107088 0.226327 1.509 255 255 255
-0.0481109 -0.529706 1.435 255 255 255
0.0738864 0.0747258 0.694 255 255 255
-0.97538 0.620132 1.923 255 255 255
-0.195797 -0.306164 1.299 255 255 255
-0.0187457 0.437074 1.516 0 0 0
0.250627 -0.00182041 0.61 255 255 255
0.105209 0.148934 0.575 255 255 255
0.153848 0.1934 0.499 255 255 255
0.322771 -0.245664 0.808 255 255 255
0.206326 -0.074095 0.652 255 255 255
0.108735 0.101095 0.646 255 255 255
0.22818 -0.112641 0.636 255 255 255
-0.923275 0.244133 2.338 255 255 255
0.111716 0.152277 0.57 255 255 255
0.100302 0.472667 1.273 255 255 255
-0.528226 0.562865 1.848 255 255 255
0.170832 0.147783 0.56 255 255 255
0.145958 0.154796 0.559 255 255 255
0.301243 -0.147706 0.745 255 255 255
-0.174887 -0.489466 1.27 255 255 255
0.282888 -0.469665 1.229 255 255 255
0.304035 -0.298532 0.932 0 0 0
0.00450753 -0.254645 1.152 255 255 255
0.319157 -0.113192 0.783 255 255 255
0.326822 -0.129259 0.78 0 0 0
-0.0902401 -0.0231902 0.9 255 255 255
-0.454247 -0.720189 1.853 255 255 255
0.193555 0.101742 0.618 255 255 255
-0.272357 -0.377917 1.435 255 255 255
0.104118 0.0985478 0.65 255 255 255
0.279789 -0.18918 0.746 255 255 255
0.279967 0.082901 0.62 255 255 255
0.304702 -0.286837 0.869 255 255 255
-0.174208 0.152111 1.607 255 255 255
-0.00705413 -0.376173 1.205 255 255 255
-0.311121 0.533619 1.81 255 255 255
0.203112 0.0604175 0.673 255 255 255
0.227381 -0.282992 1.055 0 0 0
0.122016 -0.139539 0.944 255 255 255
0.0625366 -0.0867423 0.906 255 255 255
-0.978626 0.631811 1.911 255 255 255
0.309397 -0.291981 0.847 0 0 0
0.237236 0.129564 0.564 255 255 255
0.325973 -0.335651 0.934 255 255 255
0.187652 -0.129417 0.632 255 255 255
0.244331 -0.0238436 0.59 0 0 0
0.215969 0.0481884 0.686 255 255 255
-0.774531 0.388426 2.128 255 255 255
0.212021 -0.128597 0.628 255 255 255
-0.00930742 -0.353933 1.244 255 255 255
-0.0479775 0.0150456 0.828 255 255 255
0.122533 -0.155557 0.948 255 255 255
0.369533 -0.228763 0.729 255 255 255
-0.60384 0.602382 1.831 255 255 255
0.262356 -0.0310437 0.581 255 255 255
0.0818068 -0.0309156 0.832 255 255 255
0.222859 0.0885131 0.624 255 255 255
0.184241 -0.13376 0.638 255 255 255
-0.0778648 -0.132201 1.005 255 255 255
0.359784 -0.34133 0.897 255 255 255
-1.18746 -0.0134244 2.911 255 255 255
0.157562 -0.0168391 0.748 255 255 255
-0.960496 -0.247961 2.884 255 255 255
0.0972338 -0.0293129 0.825 255 255 255
0.255205 0.00234768 0.666 255 255 255
-0.157828 -0.25613 1.203 255 255 255
0.143795 -0.221261 1.072 255 255 255
0.0725673 -0.107662 0.921 0 0 0
-0.629602 0.616484 1.794 255 255 255
-0.0267356 -0.36728 1.208 255 255 255
0.116041 0.0608227 0.703 255 255 255
-0.0159728 0.0483828 0.779 255 255 255
-0.522081 0.117282 2.173 255 255 255
0.113178 0.484922 1.278 255 255 255
0.0593483 -0.027112 0.84 255 255 255
-1.46884 -0.0234572 2.982 255 255 255
0.253143 0.0249976 0.693 255 255 255
-0.775476 0.465847 2.057 255 255 255
0.131775 0.0898497 0.656 255 255 255
0.0606439 0.144866 0.649 0 0 0
-0.010497 0.351983 1.403 255 255 255
-0.784096 -0.218224 2.638 0 0 0
0.173155 0.107601 0.617 255 255 255
0.176085 0.0734348 0.662 255 255 255
0.182205 0.114748 0.607 255 255 255
0.171006 0.0650872 0.676 255 255 255
-1.08793 0.300833 2.365 255 255 255
-0.336643 0.482621 1.887 0 0 0
-0.426415 -0.385127 1.509 255 255 255
-0.041532 -0.488589 1.372 255 255 255
-0.976282 0.529681 2.071 255 255 255
0.178935 0.166603 0.53 255 255 255
-0.566931 -0.567461 1.799 255 255 255
0.0127173 -0.34909 1.22 0 0 0
-0.140436 -0.258517 1.205 255 255 255
0.174665 -0.180296 1.018 255 255 255
0.109196 0.510032 1.305 255 255 255
-1.12298 0.344474 2.374 255 255 255
-0.36736 0.491833 1.887 0 0 0
0.229579 0.0617707 0.664 255 255 255
-0.0899904 0.557968 1.696 255 255 255
-0.939886 -0.0127649 2.768 255 255 255
-0.0560715 0.446873 1.595 255 255 255
-0.0640754 -0.365415 1.33 255 255 255
0.226745 -0.123246 0.632 255 255 255
-0.370346 0.377875 1.826 255 255 255
-0.358309 -0.380031 1.452 255 255 255
0.2442 0.0199176 0.713 255 255 255
0.0595213 -0.0851738 0.905 255 255 255
-0.393436 0.513414 1.865 0 0 0
0.253975 -0.028013 0.577 255 255 255
0.141743 0.189735 0.511 255 255 255
0.230776 -0.0360377 0.618 255 255 255
-0.437813 0.409909 1.81 255 255 255
-0.031393 -0.073872 0.893 255 255 255
-0.362244 0.239625 1.959 255 255 255
0.0751573 0.11993 0.629 255 255 255
-0.112713 -0.392735 1.342 0 0 0
-0.439414 0.308504 1.769 255 255 255
-0.00953624 0.586293 1.629 255 255 255
0.347249 -0.143705 0.769 255 255 255
-0.398638 -0.546979 1.682 255 255 255
0.102597 -0.285714 1.01 255 255 255
-0.723444 0.408354 2.071 255 255 255
0.238549 0.0221446 0.71 255 255 255
-0.0189142 -0.135067 1.002 0 0 0
0.222303 -0.113318 0.634 255 255 255
-0.0805557 -0.534145 1.473 0 0 0
-0.136605 -0.099819 0.992 255 255 255
-1.06493 -0.0948597 2.939 255 255 255
0.0803613 0.131059 0.614 255 255 255
-0.489748 0.375774 1.774 255 255 255
-0.225754 0.624088 1.659 255 255 255
-0.307564 0.614874 1.724 255 255 255
0.0971352 0.0847629 0.675 255 255 255
-0.175972 0.511438 1.784 255 255 255
-0.969876 -0.121832 2.898 255 255 255
-0.111067 -0.215915 1.126 255 255 255
0.200091 0.126697 0.576 255 255 255
0.183424 -0.368509 1.059 255 255 255
0.113999 0.40931 1.22 255 255 255
0.11069 -0.00234862 0.787 255 255 255
0.179195 -0.284858 1.075 255 255 255
-0.272384 -0.560961 1.513 0 0 0
0.0547996 0.394565 1.275 0 0 0
0.0912774 -0.221846 1.05 255 255 255
-0.911842 0.656874 1.876 255 255 255
0.079511 0.122841 0.623 255 255 255
-0.820131 0.23014 2.204 255 255 255
-0.511451 -0.118817 2.158 255 255 255
0.387445 -0.141517 0.814 255 255 255
-0.865821 0.576321 1.923 255 255 255
0.21506 -0.30388 1.062 0 0 0
-0.914758 0.649787 1.882 255 255 255
-0.648888 -0.621448 1.911 255 255 255
0.27126 -0.0390727 0.588 255 255 255
0.199319 0.184391 0.501 255 255 255
-0.826637 -0.021294 2.707 255 255 255
-0.0661929 0.187823 1.422 255 255 255
-0.531103 0.295174 2.181 0 0 0
0.0707506 -0.303301 1.025 255 255 255
-1.13535 0.236291 2.54 255 255 255
0.24437 -0.0635274 0.675 0 0 0
0.229027 0.128385 0.571 255 255 255
0.160346 0.191776 0.499 255 255 255
0.0493529 0.0676786 0.715 255 255 255
0.0485385 0.0862698 0.687 255 255 255
-0.250763 0.527971 1.821 255 255 255
0.252734 -0.176803 0.745 0 0 0
0.297547 -0.285696 0.955 0 0 0
0.0734787 0.438137 1.275 255 255 255
0.179749 0.484922 1.278 255 255 255
0.314804 -0.186898 0.737 255 255 255
0.269758 -0.00368721 0.591 255 255 255
-0.367095 0.42654 1.87 255 255 255
0.0163181 0.341894 1.354 0 0 0
0.297188 -0.145672 0.747 255 255 255
0.223807 0.166844 0.52 255 255 255
-0.742082 0.567322 1.935 255 255 255
-0.19451 -0.390364 1.396 255 255 255
-0.852325 0.561024 1.935 255 255 255
-0.608809 0.598377 1.837 255 255 255
0.118527 -0.00876328 0.788 255 255 255
0.28014 0.0558911 0.646 0 0 0
0.306094 -0.219236 0.745 255 255 255
0.228309 0.118342 0.581 255 255 255
-1.26707 0.000783577 2.898 255 255 255
0.00654437 0.0558949 0.744 255 255 255
-0.56371 0.133099 2.143 255 255 255
-1.12981 0.3687 2.356 255 255 255
0.090495 -0.333446 1.041 255 255 255
0.173173 -0.128755 0.689 0 0 0
-0.92934 -0.191842 2.818 255 255 255
0.167839 -0.057138 0.719 255 255 255
-0.243846 0.404776 1.882 255 255 255
0.118886 0.0765381 0.68 255 255 255
0.192694 -0.282255 1.092 255 255 255
0.157407 -0.00352787 0.765 255 255 255
0.0187858 -0.0404 0.861 255 255 255
0.337385 -0.259831 0.799 0 0 0
-0.371031 0.629875 1.719 255 255 255
-0.534659 0.437177 1.789 255 255 255
-0.620102 0.275163 2.22 255 255 255
-0.640011 -0.11801 2.278 255 255 255
-0.965513 -0.0926649 2.871 255 255 255
-0.913411 0.387952 2.204 255 255 255
-0.596014 0.582481 1.853 255 255 255
0.0386604 0.0719281 0.711 255 255 255
0.192356 -0.031362 0.746 255 255 255
0.227381 -0.267541 1.055 0 0 0
0.235456 0.153955 0.531 255 255 255
-0.594756 -0.738824 1.917 255 255 255
-0.553605 0.127007 2.158 255 255 255
0.197 -0.109354 0.629 255 255 255
-0.176312 -0.213969 1.145 255 255 255
-0.415798 0.466101 1.87 255 255 255
0.0420921 0.00411159 0.798 255 255 255
0.249726 -0.0134173 0.596 0 0 0
0.181912 0.191391 0.498 255 255 255
0.186688 0.172946 0.518 255 255 255
0.0360841 0.546388 1.539 255 255 255
-0.104478 0.286668 1.543 255 255 255
-0.847667 -0.863128 2.278 255 255 255
-0.792596 0.574026 1.905 255 255 255
0.351442 -0.334638 0.887 0 0 0
0.256077 0.044055 0.674 255 255 255
0.0108369 -0.324456 1.232 0 0 0
-0.595758 0.299084 2.158 255 255 255
-0.399672 0.612797 1.734 255 255 255
-0.886127 0.394551 2.181 255 255 255
-0.386141 0.614874 1.724 255 255 255
0.0283339 -0.328854 1.13 255 255 255
0.29499 -0.316907 0.937 255 255 255
-0.142934 -0.424543 1.299 255 255 255
-0.942854 0.189508 2.469 255 255 255
0.290861 0.0170124 0.609 0 0 0
-0.457559 0.264752 2.136 0 0 0
0.127959 0.116638 0.617 255 255 255
0.356068 -0.340569 0.895 255 255 255
0.139547 0.125558 0.602 255 255 255
-0.32252 0.625253 1.714 255 255 255
0.181777 0.102914 0.619 255 255 255
-0.0467638 0.343932 1.466 255 255 255
-0.0772559 0.213639 1.456 255 255 255
0.231562 0.156253 0.53 255 255 255
0.313906 -0.228898 0.761 255 255 255
0.333468 -0.345621 0.893 255 255 255
-0.3999 -0.14001 2.107 255 255 255
0.127067 0.185033 0.526 255 255 255
0.253973 0.014777 0.641 0 0 0
-0.0935187 -0.0860203 0.964 255 255 255
-0.356137 -0.560738 1.65 0 0 0
0.188837 -0.0836477 0.669 0 0 0
0.130849 0.184329 0.524 255 255 255
0.255955 0.019743 0.633 0 0 0
0.218655 0.1591 0.528 255 255 255
-0.907974 0.63923 1.887 255 255 255
-0.971107 -0.0219705 2.793 255 255 255
-0.694776 0.652915 1.774 255 255 255
-0.193063 0.369056 1.729 0 0 0
0.181096 0.159783 0.539 255 255 255
-0.0253915 0.0300084 0.796 255 255 255
0.317434 -0.173398 0.746 255 255 255
0.147355 0.165692 0.544 255 255 255
-0.406892 -0.0644278 2.22 0 0 0
-0.606439 0.592938 1.848 255 255 255
0.233141 -0.274816 1.05 0 0 0
0.206907 0.189114 0.49 255 255 255
0.0135777 -0.0748191 0.887 255 255 255
0.334116 -0.177292 0.732 255 255 255
0.13188 0.193177 0.518 255 255 255
0.256849 0.00914372 0.613 255 255 255
0.188048 -0.277938 1.096 255 255 255
-0.0835226 0.48895 1.677 255 255 255
-0.823718 0.266007 2.204 255 255 255
-1.2886 0.130191 2.743 255 255 255
-0.80968 0.590098 1.887 255 255 255
0.092834 -0.415665 1.229 255 255 255
-0.411206 -0.627526 1.7 255 255 255
-0.724546 0.640826 1.805 255 255 255
-0.859743 0.335436 2.261 255 255 255
0.151884 0.169916 0.535 255 255 255
0.181174 0.168128 0.524 255 255 255
0.279124 0.125012 0.556 255 255 255
0.179822 -0.00477278 0.765 0 0 0
0.325926 -0.200565 0.709 255 255 255
-0.713119 0.421099 2.051 255 255 255
-0.77466 0.19639 2.228 255 255 255
-0.441058 -0.109151 2.107 255 255 255
0.04497 0.00021712 0.803 255 255 255
0.143828 -0.0580648 0.716 255 255 255
-0.658912 0.305821 2.181 255 255 255
0.104376 -0.084515 0.898 255 255 255
-0.393041 0.233727 2.107 0 0 0
-0.344729 -0.432248 1.528 255 255 255
-0.379321 -0.116009 2.107 255 255 255
-0.539475 0.340155 1.815 255 255 255
0.165827 -0.449135 1.267 0 0 0
-0.674596 0.619303 1.837 255 255 255
0.120785 0.168694 0.548 255 255 255
-0.728503 -0.308994 2.719 0 0 0
-0.0452055 -0.373665 1.229 0 0 0
-1.44223 0.135244 2.755 255 255 255
0.0758946 -0.228681 1.05 255 255 255
-0.239061 -0.303746 1.316 255 255 255
-0.511384 -0.0552184 2.143 255 255 255
0.0862123 0.0902709 0.667 255 255 255
0.23865 -0.0355894 0.687 255 255 255
-0.111723 0.150573 1.442 255 255 255
0.21543 -0.114472 0.629 255 255 255
-0.449633 -0.129231 2.099 255 255 255
0.200991 -0.205203 0.765 255 255 255
-0.0529012 -0.119791 0.997 0 0 0
-0.11875 -0.496188 1.387 0 0 0
0.134463 0.0823011 0.664 255 255 255
-0.0883624 -0.405267 1.305 0 0 0
0.162723 0.00880457 0.755 255 255 255
0.162703 -0.0756478 0.717 0 0 0
-0.0215796 -0.0191354 0.85 255 255 255
-1.02083 0.501118 2.136 255 255 255
-0.0044842 0.0587942 0.766 255 255 255
0.147525 0.149102 0.565 255 255 255
0.0437717 -0.00109234 0.805 255 255 255
0.266359 -0.0460821 0.592 255 255 255
-1.2812 0.0509697 2.805 255 255 255
0.352589 -0.260658 0.767 0 0 0
-0.0281588 0.0288934 0.801 255 255 255
0.120607 -0.150451 0.945 255 255 255
0.238117 0.150452 0.537 255 255 255
0.22844 0.137679 0.556 255 255 255
0.0525732 0.0772064 0.696 255 255 255
-0.742673 0.268228 2.136 255 255 255
0.191654 -0.031446 0.748 255 255 255
-0.998052 -0.0883913 2.884 255 255 255
-0.528072 0.53261 1.837 255 255 255
-0.233663 0.622672 1.677 255 255 255
0.285054 0.10416 0.581 255 255 255
0.3127 0.0185947 0.629 255 255 255
-0.452178 -0.5702 1.719 255 255 255
-1.17723 0.435685 2.228 255 255 255
-1.28799 0.158612 2.695 255 255 255
-0.746849 -0.137592 2.499 255 255 255
0.151499 -0.282625 1.041 255 255 255
-0.384154 0.36795 1.821 255 255 255
0.107408 0.113303 0.632 255 255 255
-0.278547 0.517756 1.848 255 255 255
0.170653 -0.105402 0.721 255 255 255
0.379952 -0.171753 0.777 255 255 255
0.204167 -0.106283 0.629 255 255 255
0.143795 -0.226495 1.072 0 0 0
0.271744 0.0759157 0.629 255 255 255
-0.0129172 -0.361845 1.203 0 0 0
0.270554 0.0751303 0.631 255 255 255
-0.0314718 0.287328 1.422 255 255 255
0.20985 -0.178123 0.761 255 255 255
-0.0174729 -0.14809 1.013 0 0 0
0.00531895 0.0581596 0.742 255 255 255
0.297785 0.0859417 0.599 255 255 255
0.202632 0.107197 0.609 255 255 255
0.204744 -0.0171149 0.709 255 255 255
0.13189 0.15278 0.565 255 255 255
0.232423 -0.0938535 0.642 255 255 255
-1.09448 -1.09066 2.818 255 255 255
-0.230933 0.622672 1.677 255 255 255
-0.372514 0.505843 1.882 255 255 255
0.177345 0.164076 0.533 255 255 255
-0.493528 -0.557044 1.842 255 255 255
0.0957914 0.13985 0.592 255 255 255
0.0660708 -0.539119 1.429 0 0 0
0.139548 0.0442215 0.712 255 255 255
0.157305 -0.0863893 0.719 255 255 255
-0.25517 0.495033 1.853 255 255 255
0.225406 0.127634 0.576 255 255 255
0.102367 -0.0418475 0.834 255 255 255
0.0478935 -0.544023 1.442 255 255 255
0.12066 0.0150665 0.761 255 255 255
0.0564301 -0.0430517 0.858 255 255 255
0.271383 -0.332926 0.914 255 255 255
-0.513447 0.248974 2.212 255 255 255
-0.619739 -0.0146989 2.356 255 255 255
-0.356759 0.5358 1.848 255 255 255
0.176392 0.171011 0.525 255 255 255
0.138386 -0.0827638 0.718 255 255 255
0.0348108 -0.362749 1.162 0 0 0
-1.05738 0.548379 2.078 255 255 255
0.0783709 0.157059 0.622 255 255 255
-0.642776 0.558088 1.893 255 255 255
-0.487901 0.454091 1.81 255 255 255
0.129934 0.0366688 0.723 255 255 255
0.238719 0.160998 0.523 255 255 255
-0.0927512 0.48069 1.696 0 0 0
-0.681297 -0.6883 1.978 255 255 255
0.310437 -0.0987768 0.79 255 255 255
0.226805 0.0481182 0.685 255 255 255
-0.809861 -0.0980233 2.638 255 255 255
-1.16396 0.174444 2.604 255 255 255
0.194835 -0.234988 0.812 255 255 255
-0.00073671 0.0496109 0.759 255 255 255
-0.48016 0.652254 1.719 255 255 255
0.280757 0.0793741 0.624 255 255 255
-0.497292 0.183928 2.253 255 255 255
0.257238 -0.0280616 0.578 255 255 255
0.243198 0.174723 0.499 255 255 255
0.141777 0.127857 0.599 255 255 255
0.175203 0.172391 0.524 255 255 255
-0.708912 -0.315038 2.695 0 0 0
0.301001 -0.312182 0.932 255 255 255
0.0938925 0.495004 1.299 255 255 255
0.209327 0.0311668 0.705 255 255 255
0.275596 0.103214 0.581 255 255 255
-0.965912 0.51969 2.085 255 255 255
-0.0189229 -0.023422 0.855 255 255 255
-0.10116 0.221646 1.494 255 255 255
-0.716742 0.331924 2.121 255 255 255
-0.312404 -0.596879 1.646 255 255 255
-0.143262 -0.481949 1.283 255 255 255
-0.960441 0.229442 2.383 255 255 255
-1.40568 0.182148 2.719 255 255 255
0.15039 0.00887454 0.761 255 255 255
-0.106241 0.575586 1.691 255 255 255
-1.08752 0.483635 2.151 255 255 255
0.0560021 0.560166 1.47 255 255 255
0.139232 0.112804 0.618 255 255 255
0.360901 -0.175081 0.748 255 255 255
-1.13259 0.39632 2.338 255 255 255
-0.538922 0.160133 2.228 255 255 255
0.189833 -0.121637 0.629 255 255 255
-1.10217 -0.0844817 2.911 255 255 255
0.0711241 -0.15666 0.984 255 255 255
0.315419 -0.299492 0.841 255 255 255
0.244834 0.157084 0.527 255 255 255
0.105885 -0.305437 1.01 255 255 255
0.0030011 0.0413967 0.767 255 255 255
-0.397534 0.505661 1.87 0 0 0
0.264447 0.0576476 0.654 0 0 0
-0.638421 0.290056 2.196 255 255 255
-0.0772517 0.349934 1.502 255 255 255
-0.156237 0.52401 1.758 255 255 255
-0.154903 0.280574 1.624 255 255 255
0.243819 0.0760828 0.639 255 255 255
0.0936562 -0.144603 0.937 255 255 255
-0.113708 0.339471 1.532 255 255 255
0.0575888 0.344894 1.291 255 255 255
-0.736488 0.610533 1.865 255 255 255
0.229303 0.0244554 0.71 255 255 255
0.0822656 -0.0741201 0.896 255 255 255
0.092057 -0.106164 0.921 255 255 255
0.428196 -0.115459 0.867 255 255 255
-0.60679 0.670117 1.729 255 255 255
0.131556 -0.0653284 0.719 255 255 255
0.00768249 0.066163 0.737 255 255 255
-1.07484 0.384388 2.312 255 255 255
-0.00207095 0.0183732 0.797 255 255 255
0.154863 -0.036328 0.724 255 255 255
0.243564 -0.0150872 0.625 0 0 0
0.302799 -0.119911 0.777 255 255 255
0.173141 -0.250268 1.092 255 255 255
0.1635 0.119283 0.6 255 255 255
-0.00341058 0.0120375 0.807 255 255 255
-1.07838 -0.0746724 2.898 255 255 255
-0.0211417 -0.232991 1.12 255 255 255
-0.17352 -0.116384 1.039 255 255 255
-0.222018 0.208219 1.905 0 0 0
-0.976104 0.508029 2.107 255 255 255
-0.735718 0.268228 2.136 255 255 255
-0.116733 0.539125 1.724 255 255 255
0.291773 0.0211143 0.613 255 255 255
0.212479 0.130713 0.569 255 255 255
-0.586746 0.378552 1.815 255 255 255
-0.0763112 -0.412406 1.281 255 255 255
-0.393958 0.502781 1.882 255 255 255
0.225798 0.125039 0.577 255 255 255
-1.03476 0.261648 2.43 255 255 255
0.328234 -0.20518 0.709 255 255 255
0.0934669 -0.269754 1.018 255 255 255
0.382038 -0.180464 0.771 0 0 0
-0.470393 0.655935 1.714 255 255 255
0.16641 0.0100332 0.755 255 255 255
-0.22441 0.253918 1.899 0 0 0
0.158688 -0.312178 1.055 255 255 255
-0.0134022 0.0520519 0.777 255 255 255
0.130282 -0.250436 1.034 255 255 255
-0.73413 0.483047 2.017 255 255 255
-1.04352 0.0187662 2.768 255 255 255
0.156056 0.0905825 0.646 255 255 255
-1.05161 0.520038 2.114 255 255 255
-0.744517 0.447279 2.064 255 255 255
0.0592457 0.0948963 0.669 255 255 255
-0.0594898 -0.371925 1.278 255 255 255
-0.180149 -0.480071 1.278 255 255 255
0.144695 -0.183429 1.017 255 255 255
0.229321 -0.226536 1.064 255 255 255
-0.287181 0.510379 1.865 255 255 255
0.00680938 -0.397665 1.229 0 0 0
0.296287 -0.167107 0.724 255 255 255
0.245212 0.101403 0.604 255 255 255
0.32467 -0.112061 0.784 0 0 0
0.043443 0.351564 1.308 255 255 255
0.0355652 -0.241569 1.126 255 255 255
-0.39622 0.584863 1.769 255 255 255
0.117118 0.163918 0.556 255 255 255
0.0630779 -0.309928 1.036 255 255 255
0.244968 0.161767 0.52 255 255 255
0.0649696 0.10701 0.65 255 255 255
0.105621 -0.0247336 0.807 255 255 255
-0.415245 -0.460819 1.629 255 255 255
0.227168 0.101584 0.611 255 255 255
0.031815 -0.201915 1.062 255 255 255
-0.738932 0.567322 1.935 255 255 255
-0.0215314 0.0611736 0.797 0 0 0
-0.76633 0.504485 2.024 255 255 255
0.271287 0.0428742 0.64 255 255 255
-0.162058 -0.431841 1.283 0 0 0
0.0581123 -0.0867423 0.906 255 255 255
-1.07113 -0.994628 2.793 255 255 255
-0.254244 0.595235 1.724 255 255 255
0.107111 -0.0525004 0.736 255 255 255
0.0650215 -0.139243 0.942 255 255 255
0.228512 0.00133599 0.704 255 255 255
0.176785 0.118701 0.602 255 255 255
0.300931 0.0958459 0.588 255 255 255
-0.603799 0.633775 1.753 255 255 255
-1.05144 -0.189334 2.996 255 255 255
0.0945957 0.101721 0.65 255 255 255
-1.44003 0.126873 2.768 255 255 255
-0.894785 0.567982 1.959 255 255 255
0.169536 0.165811 0.533 255 255 255
-0.55531 0.133596 2.151 255 255 255
0.0347489 0.0580869 0.726 255 255 255
-0.0488366 -0.0433547 0.893 255 255 255
0.167605 -0.0605638 0.718 255 255 255
0.0718539 -0.168534 1.017 255 255 255
-1.12419 -0.139922 2.982 255 255 255
0.216376 0.112479 0.595 255 255 255
-0.188485 0.0912769 1.595 255 255 255
0.157635 -0.270882 1.048 255 255 255
0.191651 0.0420347 0.695 255 255 255
0.278393 -0.054845 0.593 0 0 0
-1.01687 -0.093956 2.911 255 255 255
-0.393762 -0.365854 1.452 255 255 255
0.261056 0.159373 0.515 255 255 255
0.226118 0.057132 0.673 255 255 255
0.212973 0.0544065 0.68 255 255 255
0.0533858 0.353297 1.291 255 255 255
-0.395922 -0.408796 1.524 255 255 255
0.17801 0.162951 0.535 255 255 255
0.2332 0.109799 0.591 255 255 255
0.340927 -0.245522 0.755 255 255 255
-0.415797 -0.363864 1.463 255 255 255
-0.37927 0.265256 1.87 255 255 255
0.329948 -0.34276 0.941 255 255 255
-0.429133 -0.1224 2.099 255 255 255
0.25303 -0.180315 0.725 255 255 255
-0.4974 -0.189052 2.158 255 255 255
0.133096 -0.0842829 0.721 255 255 255
-0.131036 0.25416 1.591 255 255 255
0.0596346 0.0839115 0.686 255 255 255
0.189673 0.012325 0.745 255 255 255
0.46931 -0.207176 0.917 0 0 0
0.361567 -0.139593 0.781 255 255 255
0.342144 -0.314656 0.86 255 255 255
-0.590024 0.508906 1.882 0 0 0
0.319251 0.055199 0.638 255 255 255
-0.886321 0.671947 1.842 255 255 255
0.297683 -0.273705 0.886 255 255 255
0.287163 -0.143705 0.769 0 0 0
0.241558 0.10667 0.595 255 255 255
-0.0085685 0.0196949 0.798 255 255 255
0.0727732 0.115907 0.635 255 255 255
0.0967846 0.15642 0.575 255 255 255
-1.09178 0.347016 2.365 255 255 255
0.332389 -0.267033 0.809 0 0 0
0.175311 0.111075 0.614 255 255 255
-0.524528 0.212407 2.244 255 255 255
0.19729 -0.036328 0.724 0 0 0
-0.0115163 -0.00379535 0.823 255 255 255
0.33378 -0.260796 0.806 0 0 0
0.180124 -0.0787468 0.703 255 255 255
0.10047 -0.519881 1.39 255 255 255
0.20881 -0.404991 1.102 255 255 255
-0.79721 0.531646 1.978 255 255 255
-0.898294 0.535564 2.017 255 255 255
0.261904 0.111531 0.58 255 255 255
-0.704525 -0.315038 2.695 0 0 0
0.276752 -0.327101 0.927 0 0 0
-0.175617 0.633143 1.62 255 255 255
0.0266052 0.596097 1.571 255 255 255
-0.649832 0.48557 1.923 255 255 255
-0.0355354 -0.224491 1.114 255 255 255
-0.89736 0.171477 2.499 255 255 255
-0.833547 0.475581 2.085 255 255 255
0.208733 -0.0123941 0.703 255 255 255
-0.560629 0.631595 1.779 255 255 255
0.285508 -0.0347657 0.58 255 255 255
0.0931915 -0.259049 1.015 255 255 255
0.295519 0.0751916 0.623 255 255 255
0.122193 0.0423162 0.719 255 255 255
-0.119082 -0.116196 0.994 255 255 255
0.0763259 0.0933869 0.666 255 255 255
0.172754 -0.350612 1.057 255 255 255
-0.390936 -0.0617191 2.253 0 0 0
0.043152 -0.153309 1.004 255 255 255
0.433996 -0.198487 0.848 0 0 0
-0.0329938 -0.0756626 0.897 255 255 255
0.0627437 -0.112177 0.909 255 255 255
-0.371583 -0.547598 1.659 255 255 255
0.237495 0.168772 0.513 255 255 255
-0.347906 0.145471 2.024 255 255 255
0.114331 -0.307689 1.012 255 255 255
-0.264996 -0.553574 1.513 0 0 0
0.146447 0.190194 0.51 255 255 255
0.226653 0.0962438 0.615 255 255 255
-0.961912 0.351531 2.294 255 255 255
0.143151 -0.530045 1.387 255 255 255
-0.67185 0.342341 2.143 255 255 255
0.278434 -0.0300982 0.581 255 255 255
0.264505 0.027586 0.624 0 0 0
0.0740665 -0.112159 0.921 0 0 0
-0.952931 0.698797 1.826 255 255 255
0.090954 0.0906715 0.662 255 255 255
0.221383 0.0386973 0.696 255 255 255
0.141268 0.0463427 0.709 255 255 255
0.247797 -0.0361075 0.697 255 255 255
0.0792049 0.43745 1.267 255 255 255
-0.0848505 -0.165617 1.051 255 255 255
0.0803257 0.0580438 0.711 255 255 255
-0.480324 0.30953 1.826 255 255 255
-1.02674 -0.133756 2.953 255 255 255
0.196938 0.190272 0.493 255 255 255
-0.822353 0.495974 2.057 255 255 255
-0.82463 0.542479 1.959 255 255 255
0.15179 -0.298443 1.043 255 255 255
-0.71138 0.327319 2.136 255 255 255
0.123456 0.12807 0.6 255 255 255
-0.396562 0.146405 2.037 255 255 255
-0.741154 0.0393493 2.638 255 255 255
-0.591309 0.0660662 2.365 255 255 255
-0.0949657 -0.0604148 0.932 255 255 255
0.238552 0.142311 0.546 255 255 255
0.195702 0.145935 0.553 255 255 255
0.222951 -0.123881 0.63 0 0 0
0.254636 0.123089 0.568 255 255 255
0.0896683 0.105137 0.645 255 255 255
0.219257 -0.177948 0.755 255 255 255
0.0484582 0.52036 1.459 0 0 0
0.220211 0.183854 0.493 255 255 255
0.219211 0.103572 0.611 255 255 255
-0.337056 -0.372466 1.432 255 255 255
-0.0106674 -0.268373 1.171 255 255 255
0.10341 -0.273067 1.018 255 255 255
0.0880819 -0.531573 1.409 255 255 255
-0.584357 0.60668 1.826 255 255 255
-1.2535 0.338168 2.44 255 255 255
0.326461 -0.160903 0.75 0 0 0
-0.664958 0.236747 2.166 255 255 255
0.162943 0.134159 0.584 255 255 255
0.428837 -0.16015 0.857 0 0 0
0.279436 0.129872 0.546 255 255 255
-0.437624 -0.525896 1.739 255 255 255
0.334849 -0.177049 0.731 255 255 255
0.183711 0.0347559 0.708 255 255 255
0.381733 -0.147261 0.802 255 255 255
0.280496 0.0649478 0.642 255 255 255
-0.804979 0.632033 1.848 255 255 255
-0.07489 -0.267367 1.192 255 255 255
0.0954987 -0.0800417 0.897 255 255 255
0.140474 0.120476 0.606 255 255 255
0.0101229 0.0567986 0.74 255 255 255
0.306536 -0.329924 0.935 255 255 255
-0.219785 0.374563 1.81 255 255 255
0.236904 -0.286503 0.913 255 255 255
-0.421542 -0.581204 1.686 0 0 0
-0.0735483 -0.0360887 0.893 255 255 255
0.191368 -0.0989229 0.641 255 255 255
0.213686 -0.142655 0.636 255 255 255
-0.0906646 -0.389678 1.339 0 0 0
-0.19156 0.511385 1.794 255 255 255
0.0579066 -0.248754 1.034 255 255 255
0.266748 0.133751 0.551 255 255 255
-0.490485 -0.047906 2.128 255 255 255
-0.0736281 -0.115962 0.992 0 0 0
-0.0269745 -0.54842 1.429 255 255 255
0.222824 0.171935 0.51 255 255 255
-0.174958 -0.26723 1.227 255 255 255
0.288498 0.00897964 0.602 0 0 0
0.227689 0.0288723 0.705 255 255 255
-1.24395 0.112336 2.743 255 255 255
0.258433 0.0237126 0.629 255 255 255
0.28153 0.0837746 0.619 255 255 255
-0.571602 0.287019 2.173 255 255 255
-0.326647 0.510379 1.865 255 255 255
-0.107332 -0.0468651 0.934 255 255 255
-0.171666 0.474258 1.831 255 255 255
0.0142705 0.298897 1.369 255 255 255
0.358853 -0.200291 0.729 0 0 0
0.0289916 0.0385961 0.761 255 255 255
-1.08946 0.520038 2.114 255 255 255
-1.01067 0.360406 2.303 255 255 255
-0.39138 -0.482027 1.629 255 255 255
0.160042 -0.216147 1.064 255 255 255
0.187048 -0.356782 1.06 255 255 255
0.117901 0.151213 0.573 255 255 255
-0.595453 -0.130389 2.236 255 255 255
0.0334087 0.105825 0.698 255 255 255
-0.355985 0.131998 2.071 0 0 0
-0.745347 0.351469 2.114 255 255 255
0.14375 0.496157 1.291 255 255 255
-0.498499 0.636197 1.744 255 255 255
-0.214262 -0.00206255 1.52 255 255 255
0.101282 -0.13088 0.937 0 0 0
-0.951292 0.469834 2.136 255 255 255
-1.09913 0.357198 2.356 255 255 255
-0.91795 0.66298 1.876 255 255 255
-0.577664 0.129612 2.143 255 255 255
0.205891 0.0808701 0.644 255 255 255
-0.47218 0.386602 1.784 255 255 255
0.354743 -0.309058 0.86 255 255 255
-0.0882584 -0.082367 0.958 255 255 255
0.319373 -0.20459 0.715 255 255 255
0.306752 -0.273868 0.855 255 255 255
0.273199 -0.00747047 0.586 255 255 255
0.0125609 -0.37029 1.205 255 255 255
0.148195 0.479634 1.275 255 255 255
-0.497337 -0.442456 1.62 255 255 255
0.0676671 0.0409769 0.737 255 255 255
-0.583611 0.317067 2.114 0 0 0
0.159536 0.113515 0.611 255 255 255
0.143757 0.080502 0.667 255 255 255
-0.042652 0.222793 1.409 0 0 0
0.290599 0.0273649 0.619 255 255 255
-0.185506 -0.316596 1.316 255 255 255
-0.192976 0.627594 1.633 255 255 255
-0.342743 0.51479 1.87 255 255 255
0.175557 0.0781069 0.656 255 255 255
-0.0305799 0.596236 1.62 255 255 255
-0.596247 0.60668 1.826 255 255 255
0.124404 0.0564067 0.705 255 255 255
0.0900899 0.0682433 0.697 255 255 255
-0.417554 0.58363 1.774 255 255 255
0.223189 0.135266 0.561 255 255 255
0.0274312 -0.288112 1.094 255 255 255
-0.63786 0.609652 1.826 255 255 255
0.251288 0.178314 0.491 255 255 255
0.069 -0.0472404 0.858 255 255 255
-0.289402 -0.320619 1.351 255 255 255
-0.0781748 -0.136011 1.009 255 255 255
0.191837 0.116743 0.597 255 255 255
-1.3343 -0.0430692 2.996 255 255 255
0.13339 -0.305372 1.032 255 255 255
-0.0904234 -0.00591451 0.948 0 0 0
-0.270039 -0.495543 1.571 255 255 255
-0.176545 -0.180499 1.1 255 255 255
-0.314318 -0.627493 1.642 0 0 0
0.0779979 0.108118 0.644 255 255 255
0.0827063 0.0910824 0.665 255 255 255
-0.604203 0.250775 2.228 255 255 255
0.167595 0.0272563 0.723 255 255 255
0.0631387 -0.311915 1.037 255 255 255
0.135311 -0.102385 0.733 0 0 0
0.211196 0.118407 0.586 255 255 255
0.200445 0.0824508 0.64 255 255 255
-0.00918023 -0.35309 1.227 255 255 255
-1.02661 0.580241 2.024 255 255 255
-1.12268 0.46765 2.158 255 255 255
0.0461296 0.336473 1.324 255 255 255
0.193388 -0.0303096 0.75 255 255 255
-0.492189 0.559515 1.837 0 0 0
-0.293256 0.589095 1.739 255 255 255
-0.1216 -0.138707 1.029 255 255 255
-0.200017 -0.323561 1.327 255 255 255
-0.272138 0.273809 1.887 255 255 255
0.190587 -0.277346 0.828 255 255 255
-0.476879 0.620589 1.748 255 255 255
-0.0310513 0.22641 1.403 255 255 255
0.159712 -0.107906 0.73 255 255 255
-1.04552 0.60642 1.991 255 255 255
0.298417 -0.342583 0.924 255 255 255
-0.359439 0.361031 1.831 255 255 255
-0.990215 0.0951569 2.638 255 255 255
-0.803746 -0.273597 2.719 0 0 0
0.0285824 0.364892 1.31 255 255 255
0.207952 0.148259 0.545 255 255 255
-0.0304316 -0.102205 0.954 255 255 255
0.343577 -0.137984 0.772 255 255 255
-1.18072 0.1074 2.731 255 255 255
-0.673113 0.263231 2.181 255 255 255
0.0681179 0.100064 0.66 255 255 255
-1.43722 0.104803 2.78 255 255 255
-1.01475 0.279855 2.383 255 255 255
-0.619221 0.118955 2.204 255 255 255
0.153421 0.129908 0.595 255 255 255
-0.46243 0.0663378 2.244 0 0 0
-0.446242 -0.572972 1.686 255 255 255
-0.065667 -0.188291 1.073 255 255 255
0.215674 -0.235007 0.826 255 255 255
0.259457 0.0267834 0.629 255 255 255
0.181409 -0.13085 0.639 255 255 255
0.404818 -0.17356 0.809 255 255 255
0.0857926 0.152261 0.603 255 255 255
0.229765 0.0841044 0.629 255 255 255
0.191966 -0.25343 1.098 255 255 255
0.0786385 -0.210953 1.064 0 0 0
-1.24556 0.334197 2.44 255 255 255
-0.330955 0.639512 1.7 255 255 255
-0.296596 0.517756 1.848 255 255 255
0.18587 0.0938904 0.626 255 255 255
-0.762816 0.00946121 2.684 255 255 255
0.212704 -0.122271 0.627 255 255 255
0.171773 -0.386249 1.051 255 255 255
-0.959935 0.39296 2.212 255 255 255
-0.11916 0.279087 1.571 255 255 255
-0.137383 -0.0799607 0.986 255 255 255
0.36853 -0.14925 0.785 255 255 255
-0.927349 0.473438 2.121 255 255 255
0.287969 -0.0445852 0.585 255 255 255
0.141724 0.186073 0.517 255 255 255
0.287549 0.0942517 0.59 255 255 255
0.190716 0.160039 0.534 255 255 255
0.184241 -0.110919 0.638 255 255 255
-0.123683 0.207339 1.532 255 255 255
-1.25822 0.353766 2.411 255 255 255
-0.879515 0.0139475 2.707 255 255 255
-0.147558 0.153984 1.547 255 255 255
0.11239 0.168139 0.555 255 255 255
-0.0913144 -0.134369 1.009 255 255 255
-0.143264 0.082749 1.406 255 255 255
0.21218 0.159402 0.529 255 255 255
0.119984 0.0564867 0.706 255 255 255
-0.453862 0.0457737 2.312 0 0 0
0.0602462 0.0587785 0.72 255 255 255
0.132417 0.490995 1.283 255 255 255
0.128166 0.196533 0.527 255 255 255
0.226337 -0.0624921 0.664 255 255 255
0.204707 -0.179679 0.784 255 255 255
0.395892 -0.19043 0.781 255 255 255
0.226465 -0.0941591 0.637 255 255 255
-0.167311 -0.11392 1.032 255 255 255
0.263521 0.0408055 0.657 0 0 0
-0.414965 0.313196 1.763 255 255 255
-0.51574 0.404021 1.784 255 255 255
0.021069 -0.2435 1.135 255 255 255
-0.347485 -0.60667 1.673 255 255 255
0.147666 0.068792 0.68 255 255 255
0.12861 0.173722 0.536 255 255 255
-0.505687 -0.681082 1.821 255 255 255
0.136051 0.00648182 0.771 255 255 255
0.261694 0.0787353 0.627 255 255 255
-0.883128 0.628941 1.893 255 255 255
0.284646 -0.158831 0.746 0 0 0
-0.97285 0.654773 1.87 255 255 255
0.0565307 0.0831573 0.689 255 255 255
-0.412999 -0.543252 1.696 255 255 255
0.179595 0.175978 0.517 255 255 255
-0.393041 -0.143439 2.107 0 0 0
0.050849 0.0841562 0.688 255 255 255
0.201252 -0.0392835 0.693 255 255 255
0.133051 0.189912 0.516 255 255 255
0.211095 0.183287 0.498 255 255 255
-0.838264 -0.189743 2.66 255 255 255
0.0904212 -0.215334 1.06 0 0 0
-0.321195 -0.398009 1.466 255 255 255
0.246568 -0.0690196 0.675 0 0 0
-0.0857456 0.613172 1.616 255 255 255
-0.857305 0.482367 2.085 255 255 255
-1.34478 0.222925 2.626 255 255 255
0.212181 -0.0878578 0.644 255 255 255
0.211308 0.0753928 0.651 255 255 255
0.192665 -0.259733 1.102 255 255 255
-1.43486 -0.0234572 2.982 255 255 255
0.258785 0.143383 0.54 255 255 255
0.221828 -0.0330136 0.68 255 255 255
0.0083809 0.0106844 0.804 255 255 255
-0.544107 0.640259 1.763 255 255 255
-0.0315336 -0.0625252 0.897 0 0 0
0.1211 0.0754315 0.68 255 255 255
-0.103162 0.601661 1.642 255 255 255
-0.941806 0.494314 2.107 255 255 255
-0.968513 0.488852 2.128 255 255 255
0.167605 -0.0769217 0.718 0 0 0
-0.34864 -0.298828 1.342 255 255 255
-0.746184 0.416497 2.078 255 255 255
0.221597 0.172272 0.511 255 255 255
0.00280824 -0.397665 1.229 255 255 255
0.198328 -0.190617 1.029 255 255 255
0.0252702 -0.0795956 0.892 255 255 255
-0.994352 0.136882 2.615 255 255 255
0.166438 0.164434 0.537 255 255 255
0.372866 -0.137264 0.797 255 255 255
0.0109249 -0.331132 1.242 0 0 0
0.106409 -0.316859 1.015 255 255 255
-0.41674 -0.630293 1.7 255 255 255
-0.742673 0.229992 2.136 255 255 255
-0.598092 0.633775 1.753 255 255 255
0.29673 0.0802309 0.615 255 255 255
-0.765078 -0.751868 2.121 255 255 255
-0.560659 -0.634489 1.876 255 255 255
-0.0568139 0.205901 1.419 0 0 0
0.27229 -0.0224956 0.58 255 255 255
-0.117524 -0.101905 0.981 255 255 255
0.129691 -0.465422 1.319 0 0 0
0.0125401 -0.361845 1.203 255 255 255
-1.32689 0.287628 2.519 255 255 255
0.182358 0.00267903 0.76 255 255 255
0.291538 -0.19692 0.721 255 255 255
-0.642537 0.60196 1.848 255 255 255
0.250016 -0.273119 0.923 0 0 0
-0.0295672 -0.560449 1.442 0 0 0
0.0314775 0.606766 1.559 255 255 255
-0.104801 -0.535003 1.412 255 255 255
0.0607482 0.0486354 0.726 255 255 255
0.0485566 -0.107296 0.893 255 255 255
0.261059 0.102047 0.602 255 255 255
-0.185506 -0.410825 1.316 0 0 0
0.110273 0.16814 0.558 255 255 255
-0.12754 -0.280349 1.232 255 255 255
0.109234 0.18032 0.562 255 255 255
-0.605687 0.33659 2.107 0 0 0
0.171985 0.175131 0.522 255 255 255
0.191008 -0.254552 0.824 255 255 255
0.0247762 -0.551946 1.463 255 255 255
-0.166687 -0.227966 1.169 255 255 255
-0.434634 -0.412448 1.547 255 255 255
0.041611 -0.00905243 0.814 255 255 255
-0.561316 0.577902 1.848 255 255 255
0.25456 -0.204706 0.754 255 255 255
0.2849 -0.305448 0.944 255 255 255
-0.0202419 0.543886 1.637 255 255 255
0.207673 -0.258319 1.096 255 255 255
-0.848727 0.538084 1.978 255 255 255
-1.07961 -0.965107 2.953 255 255 255
-0.27871 0.370586 1.911 255 255 255
0.315005 -0.157617 0.746 0 0 0
-0.231852 0.625969 1.664 255 255 255
0.178225 -0.169018 1.01 255 255 255
0.0472667 0.103606 0.669 255 255 255
0.188388 0.146347 0.558 255 255 255
-1.18537 -0.0953116 2.953 255 255 255
-0.668553 0.534336 1.941 255 255 255
0.157924 -0.533333 1.378 255 255 255
0.120682 -0.180523 1.01 255 255 255
-0.06533 0.376121 1.509 255 255 255
-0.34808 -0.568793 1.65 255 255 255
-0.132424 -0.113302 0.997 255 255 255
0.0668404 0.100831 0.658 255 255 255
0.211983 -0.200225 0.751 255 255 255
0.219812 0.154245 0.535 255 255 255
-0.0828691 -0.338782 1.319 255 255 255
0.303129 0.0819057 0.598 255 255 255
0.128497 0.0664351 0.69 255 255 255
-0.540358 0.376833 1.779 255 255 255
-0.985114 0.0229596 2.731 255 255 255
-0.449795 0.398635 1.799 255 255 255
0.0376817 0.112961 0.693 255 255 255
0.050496 -0.19715 1.055 255 255 255
-1.14481 -0.0465844 2.911 255 255 255
-0.918249 0.428466 2.173 255 255 255
-0.135223 -0.476798 1.286 255 255 255
-0.190248 0.38031 1.729 255 255 255
-0.900244 0.560616 1.978 255 255 255
-0.520087 0.397098 1.779 255 255 255
0.216454 -0.116519 0.629 255 255 255
0.142212 0.12323 0.605 255 255 255
0.160617 0.105936 0.619 255 255 255
-0.404252 0.579485 1.779 255 255 255
0.25222 -0.166425 0.716 255 255 255
0.133128 0.12401 0.604 255 255 255
0.0901527 -0.264784 1.018 255 255 255
0.210468 0.0625149 0.672 255 255 255
0.222127 -0.400273 1.124 255 255 255
-0.479079 0.585999 1.799 255 255 255
-0.231299 -0.320686 1.333 255 255 255
0.107908 0.469696 1.265 255 255 255
-0.866479 0.233235 2.269 255 255 255
0.145172 0.0548675 0.7 255 255 255
0.012042 0.287758 1.369 255 255 255
-0.502584 0.000593767 2.196 0 0 0
0.057535 -0.0742029 0.897 255 255 255
0.14092 -0.0852192 0.719 255 255 255
-0.586069 0.236272 2.228 255 255 255
-0.564003 0.398635 1.799 255 255 255
-0.574659 0.198579 2.212 255 255 255
-0.195992 -0.406556 1.359 255 255 255
-0.0177071 0.307991 1.432 255 255 255
0.000498794 0.0743138 0.759 255 255 255
-0.103162 0.604333 1.642 255 255 255
0.215366 -0.146906 0.641 255 255 255
-0.0260937 -0.0278221 0.862 255 255 255
0.289863 0.111463 0.57 255 255 255
-0.897859 0.42902 2.158 255 255 255
0.188256 0.169383 0.52 255 255 255
-0.806312 0.616603 1.865 255 255 255
-0.093571 -0.105098 0.981 0 0 0
-0.930814 0.675123 1.859 255 255 255
0.195191 -0.296465 0.848 255 255 255
0.228799 -0.400054 1.139 0 0 0
0.0936562 -0.146128 0.937 255 255 255
0.161464 0.166433 0.535 255 255 255
0.273061 -0.0530042 0.594 0 0 0
-0.651308 0.647026 1.758 255 255 255
0.12599 -0.125092 0.928 255 255 255
0.0893976 -0.223129 1.048 255 255 255
0.28313 -0.0328213 0.579 255 255 255
0.334364 -0.25561 0.798 0 0 0
-0.502711 0.382623 1.779 255 255 255
-0.797755 0.405166 2.107 255 255 255
-0.346779 0.39983 1.859 255 255 255
0.0803958 0.124669 0.622 255 255 255
-0.703216 0.364541 2.071 255 255 255
-0.82811 0.59931 1.887 255 255 255
0.278839 0.048307 0.643 255 255 255
0.443949 -0.154616 0.873 0 0 0
0.306075 -0.278692 0.857 255 255 255
0.194524 0.00868796 0.745 255 255 255
-0.406905 0.294303 1.753 255 255 255
-0.431843 -0.498966 1.705 255 255 255
0.0361889 -0.394802 1.208 0 0 0
0.304384 0.0722781 0.633 255 255 255
0.188333 -0.082201 0.675 0 0 0
0.0265685 -0.143839 0.995 255 255 255
0.186623 -0.128388 0.632 255 255 255
0.063764 -0.273604 1.02 255 255 255
0.208759 0.0483289 0.688 255 255 255
-0.0423476 -0.0355229 0.879 255 255 255
0.03563 0.112479 0.697 255 255 255
0.23373 0.134113 0.56 255 255 255
0.0521143 0.0612068 0.721 255 255 255
0.158306 -0.105386 0.729 255 255 255
0.379563 -0.123425 0.817 255 255 255
0.0522866 0.00409614 0.795 255 255 255
-0.112051 0.41068 1.616 255 255 255
0.186639 0.133963 0.575 255 255 255
0.0744404 0.125883 0.623 255 255 255
-0.453071 -0.610445 1.691 255 255 255
