ply
format ascii 1.0
comment Created by Open3D
element vertex 1310
property double x
property double y
property double z
property uchar red
property uchar green
property uchar blue
end_header
-0.144482 -0.132747 0.736 255 255 255
0.184706 0.0669711 0.662 255 255 255
0.141899 0.0426105 0.724 255 255 255
0.0304299 0.0727768 0.708 255 255 255
0.0742433 0.112889 0.613 255 255 255
0.0109232 0.205276 0.541 255 255 255
-0.00249771 0.163658 0.591 255 255 255
-0.192234 0.193736 0.61 255 255 255
-0.257622 0.130974 0.724 255 255 255
0.399775 -0.155599 0.895 0 0 0
0.315402 0.00475257 0.701 255 255 255
0.141862 -0.320457 0.904 255 255 255
0.133991 0.142136 0.574 255 255 255
-0.380664 -0.233409 1.26 255 255 255
0.379936 -0.380525 1 255 255 255
-0.450981 -0.536046 1.624 0 0 0
0.115856 -0.151702 0.983 0 0 0
0.218032 -0.0247881 0.768 255 255 255
-0.141261 0.201634 0.584 255 255 255
0.0483557 0.099251 0.669 0 0 0
-0.517433 -0.754389 2.017 255 255 255
-0.216499 0.149994 0.687 255 255 255
0.0364362 0.178655 0.554 0 0 0
-0.0661275 0.163956 0.61 255 255 255
-0.00832153 0.0330002 0.775 255 255 255
-0.0465223 -0.0444896 0.704 255 255 255
0.0840408 0.0848438 0.667 255 255 255
-0.0468252 0.181376 0.58 255 255 255
0.00799574 -0.0766748 0.909 255 255 255
-0.32196 -0.141861 1.12 0 0 0
-0.228415 0.19451 0.622 255 255 255
0.287146 0.305068 0.804 255 255 255
-1.04698 0.581306 2.051 255 255 255
-0.972143 0.628345 1.929 255 255 255
0.24072 -0.108738 0.905 255 255 255
0.342269 0.0146551 0.684 255 255 255
0.381128 0.246951 0.798 255 255 255
0.216217 -0.020984 0.766 255 255 255
-0.0519104 0.172511 0.595 255 255 255
-0.267887 0.0341352 0.868 255 255 255
-0.263102 0.000244699 0.905 255 255 255
0.0821558 0.108125 0.62 255 255 255
-0.0905195 0.202989 0.564 255 255 255
0.20718 -0.282046 0.913 255 255 255
0.215187 0.0466604 0.68 255 255 255
-0.1483 0.0485062 0.802 255 255 255
-0.128577 -0.117973 0.741 255 255 255
-0.0463241 -0.0477223 0.701 255 255 255
-0.272845 0.0524199 0.844 255 255 255
0.185907 0.0314763 0.712 255 255 255
0.342154 0.263226 0.766 0 0 0
0.231873 0.103765 0.595 255 255 255
-0.801124 -0.52117 1.853 255 255 255
-0.815736 -0.647256 1.923 255 255 255
-0.315937 -0.447812 1.442 255 255 255
-0.310338 0.0207707 0.901 255 255 255
0.27212 0.108821 0.607 255 255 255
0.448304 -0.291021 1 255 255 255
-0.424923 -0.151124 1.178 255 255 255
-0.207884 0.0944479 0.762 255 255 255
-0.0464457 0.19993 0.553 255 255 255
0.108778 0.0848985 0.659 255 255 255
-0.123405 0.214201 0.555 255 255 255
0.369918 0.261041 0.749 255 255 255
0.181686 -0.2562 0.927 0 0 0
-0.166836 0.0559857 0.797 255 255 255
0.0183337 0.184298 0.552 0 0 0
0.322359 -0.420103 1.169 0 0 0
0.190478 0.0377266 0.699 255 255 255
-0.161797 -0.0881823 0.744 255 255 255
-0.493652 -0.278297 1.381 255 255 255
-0.0334671 -0.292545 0.952 0 0 0
0.0328822 0.0963316 0.687 0 0 0
-0.0172254 0.203139 0.54 255 255 255
0.380586 -0.374729 0.989 255 255 255
-0.517567 -0.302758 1.422 255 255 255
0.342391 -0.0940928 0.84 255 255 255
0.0264526 -0.0500538 0.883 255 255 255
0.100649 -0.0384762 0.82 255 255 255
0.39321 -0.35932 1.009 255 255 255
-0.350718 -0.0569129 1.004 255 255 255
-0.0274331 -0.13412 0.86 0 0 0
0.212204 0.0134284 0.739 255 255 255
0.230128 0.106311 0.593 255 255 255
-0.0158498 0.110906 0.773 255 255 255
0.00524726 0.0943031 0.732 0 0 0
-1.23929 0.34721 2.42 255 255 255
-0.283522 0.0637833 0.831 255 255 255
-0.194091 0.17591 0.639 255 255 255
-0.245306 0.162133 0.677 255 255 255
-0.898315 0.689932 1.842 255 255 255
-0.0376658 -0.0585998 0.904 255 255 255
0.0315015 0.00795725 0.793 255 255 255
0.139711 -0.247292 0.939 255 255 255
0.359431 -0.0174529 0.723 255 255 255
-0.100601 -0.10244 0.928 0 0 0
0.294737 0.0149551 0.698 255 255 255
-0.341864 -0.0584301 1.002 255 255 255
0.116291 0.0862509 0.653 255 255 255
-0.11855 0.113447 0.703 255 255 255
0.0280058 0.0782048 0.705 255 255 255
-0.101515 0.070613 0.746 255 255 255
-0.512955 -0.310196 1.435 255 255 255
-0.880673 0.390984 1.935 255 255 255
0.180911 -0.0224917 0.775 0 0 0
0.348592 0.276368 0.761 255 255 255
-0.401482 -0.422846 1.429 0 0 0
-0.525125 -0.785515 2.128 255 255 255
0.336584 0.274865 0.785 0 0 0
-0.130133 0.0872565 0.743 255 255 255
-0.0602199 0.0456989 0.717 255 255 255
0.227479 -0.262605 0.923 255 255 255
0.0582717 -0.172778 0.886 255 255 255
-0.0608546 0.141373 0.638 255 255 255
-0.344572 0.0195831 0.914 255 255 255
-0.199532 0.151768 0.675 255 255 255
-0.148736 -0.0364585 0.777 0 0 0
0.189579 0.119564 0.587 255 255 255
-0.0452765 0.13722 0.638 255 255 255
0.0287471 0.20502 0.545 255 255 255
0.458347 -0.180383 0.925 255 255 255
-0.0771109 -0.168671 0.837 255 255 255
-0.171366 0.150194 0.668 255 255 255
0.0426344 0.0889715 0.682 0 0 0
-0.18742 -0.400588 1.257 0 0 0
0.0783412 0.195031 0.557 255 255 255
0.160852 0.0728802 0.657 255 255 255
0.234794 0.00966111 0.727 255 255 255
0.250324 0.19224 0.724 255 255 255
0.240756 0.078233 0.623 255 255 255
-0.414821 -0.159331 1.182 255 255 255
0.402662 -0.337535 0.961 255 255 255
0.402216 -0.180038 0.931 255 255 255
-0.0199728 0.199849 0.543 0 0 0
0.304697 0.0104414 0.7 255 255 255
-0.222629 -0.0229016 0.836 255 255 255
0.163919 -0.0481324 0.803 255 255 255
0.163656 0.0395313 0.711 255 255 255
-0.853821 0.653821 1.876 255 255 255
-0.12219 -0.278822 0.98 255 255 255
-0.0448507 0.146214 0.632 255 255 255
-0.245524 0.150649 0.69 255 255 255
-0.35837 -0.347772 1.354 0 0 0
0.070055 0.176585 0.556 255 255 255
-0.0779197 -0.49134 1.308 255 255 255
-0.140465 -0.0843475 0.753 255 255 255
0.00168631 0.114292 0.738 255 255 255
0.155426 -0.328159 0.889 255 255 255
-0.048253 -0.167184 0.81 255 255 255
0.343914 -0.11418 0.868 255 255 255
0.35494 0.241403 0.764 255 255 255
-0.24515 0.0430085 0.848 255 255 255
0.364398 -0.273274 1.106 255 255 255
0.303232 -0.434101 1.176 255 255 255
0.331906 -0.418564 1.124 255 255 255
-0.0264752 -0.315502 0.98 255 255 255
0.225508 -0.128448 0.909 255 255 255
-0.00501106 -0.127924 0.856 255 255 255
0.205662 0.311129 0.813 255 255 255
-0.279251 0.140014 0.716 255 255 255
0.382534 -0.057581 0.772 255 255 255
-0.0315264 0.142325 0.633 255 255 255
0.140479 -0.337145 0.886 255 255 255
-0.100119 -0.262352 1.015 255 255 255
-0.342418 0.0912943 0.823 255 255 255
0.21076 0.00386943 0.751 255 255 255
-0.226337 0.182149 0.639 255 255 255
-0.196082 0.155397 0.667 255 255 255
0.114675 -0.0325727 0.806 255 255 255
-0.0804786 0.138532 0.654 255 255 255
0.305602 -0.139566 0.914 255 255 255
0.246033 0.270326 0.798 255 255 255
0.0369028 -0.25198 0.771 255 255 255
-0.26522 -0.10267 0.944 255 255 255
-0.351394 0.0518932 0.858 255 255 255
-0.506166 -0.431122 1.449 0 0 0
0.239897 -0.0853061 0.891 255 255 255
-0.12479 -0.137081 0.74 255 255 255
0.14303 -0.265033 0.921 0 0 0
0.495042 -0.290357 1.009 255 255 255
0.146099 -0.25276 0.931 0 0 0
0.0855657 0.0427282 0.726 255 255 255
0.0480728 0.180132 0.553 255 255 255
0.162682 0.0641764 0.678 255 255 255
-0.27097 0.059942 0.834 255 255 255
-0.0526397 -0.0223997 0.694 255 255 255
-0.522771 -0.768609 2.064 255 255 255
-0.723061 -0.649066 1.831 255 255 255
0.0393837 0.120121 0.63 255 255 255
0.15459 -0.23643 1.039 255 255 255
0.212094 -0.245905 0.928 255 255 255
0.132257 -0.228943 1.092 0 0 0
-0.16929 0.0984026 0.745 255 255 255
-0.944252 0.636915 1.917 255 255 255
0.191802 0.103197 0.603 255 255 255
-0.5003 -0.450361 1.406 255 255 255
0.030601 0.100657 0.686 255 255 255
-0.956851 0.65047 1.911 255 255 255
-0.16938 -0.303841 0.916 255 255 255
-0.380097 0.0165356 0.91 255 255 255
-0.358516 0.110149 0.855 255 255 255
0.0302769 -0.0421895 0.869 255 255 255
0.35134 0.207402 0.767 255 255 255
-0.41462 -0.535009 1.637 0 0 0
-0.23722 -0.595058 1.591 255 255 255
0.0538869 -0.190542 0.862 255 255 255
0.00402247 0.0805343 0.726 0 0 0
-0.219522 0.0145253 0.878 255 255 255
-0.115438 0.129273 0.678 255 255 255
-0.16938 -0.302351 0.916 255 255 255
0.311567 -0.169722 0.941 255 255 255
0.22679 0.0496126 0.675 255 255 255
0.1301 -0.35349 0.925 0 0 0
0.134156 0.0808137 0.652 255 255 255
-0.265778 0.10519 0.768 255 255 255
0.109846 0.0103787 0.781 255 255 255
0.313941 0.00134358 0.708 255 255 255
-0.206903 0.00875999 0.873 255 255 255
0.0361463 -0.0120899 0.841 255 255 255
0.222161 0.21931 0.765 255 255 255
-0.259223 -0.341078 1.192 0 0 0
-0.0189672 -0.126679 0.857 255 255 255
-0.0764261 0.10115 0.705 255 255 255
-0.963886 0.406139 2.01 255 255 255
0.361072 -0.276239 1.118 0 0 0
-0.103736 -0.18497 0.843 255 255 255
0.138292 -0.146841 0.972 255 255 255
-0.0246333 -0.120125 0.86 0 0 0
-1.15387 0.215081 2.312 255 255 255
-0.157788 0.17947 0.619 255 255 255
0.32263 -0.212177 0.989 255 255 255
-0.171981 -0.040593 0.809 255 255 255
-1.25718 0.189246 2.519 255 255 255
-0.101389 -0.0252676 0.68 255 255 255
-0.156124 0.0747154 0.776 255 255 255
-0.138907 0.164216 0.634 255 255 255
-0.158604 -0.0468737 0.782 0 0 0
-0.268437 0.152178 0.697 255 255 255
0.221695 0.0424204 0.683 255 255 255
-1.1851 0.383425 2.329 255 255 255
-0.236483 0.0847395 0.787 255 255 255
-0.291498 0.037088 0.871 255 255 255
0.353853 0.243528 0.759 255 255 255
0.122334 0.117108 0.609 255 255 255
-0.00800404 0.172359 0.572 255 255 255
-0.530512 -0.241501 1.327 255 255 255
0.0981264 0.194724 0.551 255 255 255
0.178509 0.0181154 0.734 255 255 255
-0.30166 0.0192188 0.897 255 255 255
0.0688586 0.205561 0.561 255 255 255
0.464498 -0.293365 0.986 255 255 255
0.164091 0.133721 0.578 255 255 255
0.250584 -0.0261735 0.772 255 255 255
-0.0230619 0.177313 0.576 255 255 255
0.270132 -0.160815 0.925 255 255 255
0.265781 0.00954151 0.718 255 255 255
0.257801 0.0581732 0.648 255 255 255
0.110076 0.120674 0.607 255 255 255
0.0551606 0.202822 0.561 255 255 255
0.425443 -0.127202 0.842 0 0 0
0.427981 -0.302946 0.941 0 0 0
0.257528 -0.148451 0.923 255 255 255
0.283328 0.100754 0.612 255 255 255
-0.218153 0.121885 0.726 255 255 255
0.123559 0.0235794 0.756 255 255 255
0.0175018 0.109233 0.698 255 255 255
-0.328244 -0.396215 1.339 255 255 255
-0.27622 0.0148066 0.895 255 255 255
-0.10946 0.204069 0.567 255 255 255
0.104487 0.0870434 0.659 255 255 255
-0.0109903 0.208612 0.536 255 255 255
0.00584224 0.00419918 0.815 255 255 255
-0.127047 -0.141854 0.891 0 0 0
-0.449509 -0.122453 1.143 255 255 255
0.0691499 0.176585 0.556 255 255 255
-0.153319 -0.0881823 0.744 255 255 255
0.318547 -0.145994 0.917 255 255 255
0.129026 0.0246784 0.752 255 255 255
0.137186 0.122367 0.596 255 255 255
0.0431406 0.121202 0.625 255 255 255
-0.210341 -0.417631 1.324 0 0 0
-0.224363 0.100252 0.759 255 255 255
-0.186405 0.189935 0.617 255 255 255
-0.0435445 0.149376 0.628 255 255 255
0.356957 -0.289724 1.128 0 0 0
-0.221005 0.0256305 0.867 255 255 255
-0.0646169 0.0896603 0.714 0 0 0
-0.0632917 -0.00093222 0.687 255 255 255
0.167806 0.0668892 0.672 255 255 255
0.343882 -0.149158 0.909 0 0 0
-0.135698 -0.178124 0.863 255 255 255
0.406163 -0.337383 0.906 255 255 255
-0.0943548 0.0621983 0.747 0 0 0
0.153742 0.161939 0.578 255 255 255
-0.194942 0.2013 0.6 255 255 255
0.0837346 -0.198626 0.912 255 255 255
0.18092 -0.056067 0.786 255 255 255
0.42869 -0.160793 0.868 255 255 255
0.142985 -0.239011 0.961 255 255 255
-0.0291989 0.129223 0.65 255 255 255
0.186816 -0.113255 0.93 255 255 255
0.36115 0.154378 0.746 255 255 255
-0.937128 0.535712 2.03 255 255 255
-0.0264578 0.137608 0.635 255 255 255
0.34093 -0.00673095 0.709 255 255 255
-0.0328172 -0.0124293 0.705 255 255 255
0.264015 0.00374062 0.726 255 255 255
-0.446705 -0.310128 1.403 255 255 255
-0.379148 -0.11489 1.106 0 0 0
-0.375179 -0.309248 1.359 255 255 255
0.299549 -0.11759 0.883 255 255 255
-0.482823 -0.126615 1.147 255 255 255
0.0868048 -0.030767 0.828 255 255 255
-0.107077 0.129607 0.674 255 255 255
-0.0769733 -0.174799 0.821 255 255 255
-0.198001 0.106028 0.739 255 255 255
-0.0174724 0.153036 0.61 255 255 255
-0.358494 -0.103796 1.066 255 255 255
-0.17411 0.204319 0.589 255 255 255
0.268809 0.10042 0.604 255 255 255
0.22545 0.231368 0.772 255 255 255
0.00325935 -0.159731 0.833 255 255 255
-0.382048 -0.56094 1.612 255 255 255
-1.33099 0.345017 2.519 255 255 255
0.274633 0.0472923 0.658 255 255 255
0.0504142 0.20119 0.559 255 255 255
-0.102106 0.103885 0.708 255 255 255
0.176405 -0.0469336 0.783 255 255 255
-0.193394 -0.0528954 0.816 255 255 255
0.109427 -0.035196 0.806 255 255 255
0.180078 0.0442329 0.694 255 255 255
0.137465 -0.267511 1.135 0 0 0
-0.706475 -0.587597 1.789 255 255 255
-0.845741 -0.537198 1.899 255 255 255
0.123465 0.0627923 0.687 255 255 255
0.00465409 -0.15834 0.84 255 255 255
-0.000701767 0.0672593 0.723 255 255 255
0.389048 -0.281919 1.051 255 255 255
0.205145 0.250246 0.776 255 255 255
0.0387695 -0.223864 0.81 255 255 255
-0.265059 0.0878556 0.792 255 255 255
0.411388 -0.332478 0.921 255 255 255
0.404843 -0.345933 0.913 255 255 255
0.322919 0.224112 0.756 255 255 255
0.211257 -0.307556 0.905 255 255 255
-0.0301626 -0.126827 0.858 255 255 255
-0.761808 -0.506043 1.831 255 255 255
0.00786578 0.170455 0.575 255 255 255
-0.97555 0.685292 1.887 255 255 255
0.264356 -0.0143854 0.747 255 255 255
-0.252685 -0.598427 1.607 0 0 0
0.144269 0.172027 0.574 255 255 255
-0.00444322 0.100252 0.759 0 0 0
0.2448 -0.0411325 0.794 255 255 255
-0.185629 -0.0120899 0.841 255 255 255
0.317116 0.203076 0.751 255 255 255
0.052799 -0.162153 0.891 255 255 255
-0.0196673 0.0665398 0.728 255 255 255
-0.220229 0.0560611 0.817 255 255 255
-0.0184061 0.0674454 0.725 255 255 255
0.302132 0.100376 0.622 255 255 255
0.0669127 0.198816 0.56 255 255 255
0.000483679 0.0864344 0.736 0 0 0
-0.128884 -0.123183 0.925 0 0 0
0.253619 0.206486 0.737 255 255 255
0.0720633 0.141527 0.595 0 0 0
0.196765 0.0866208 0.625 255 255 255
-0.887883 -0.596358 1.972 255 255 255
-0.615842 -0.301964 1.463 255 255 255
0.0450821 -0.00240234 0.805 255 255 255
0.0155873 -0.252307 0.772 255 255 255
-0.0723955 -0.01085 0.678 255 255 255
0.18051 -0.274026 0.921 255 255 255
0.0693564 0.0854798 0.672 255 255 255
0.203508 0.0385305 0.693 255 255 255
0.286647 0.0744674 0.617 0 0 0
0.265215 0.289961 0.813 255 255 255
0.00967001 0.172057 0.571 255 255 255
-0.0354451 0.16767 0.595 255 255 255
0.142454 0.0749043 0.656 255 255 255
-0.0126218 -0.263969 0.902 0 0 0
0.0948772 -0.0763374 0.905 255 255 255
0.367084 -0.35835 1.16 0 0 0
-0.184922 0.0528137 0.808 255 255 255
0.270761 -0.0686604 0.83 255 255 255
-0.260265 -0.32493 1.162 255 255 255
0.346728 -0.230357 1.027 255 255 255
0.193161 -0.289251 0.917 255 255 255
-0.156344 0.207804 0.58 255 255 255
-0.468464 -0.452997 1.393 255 255 255
0.043777 0.0598669 0.719 255 255 255
0.0146151 -0.0222368 0.863 255 255 255
0.155843 -0.260898 0.917 0 0 0
0.32569 -0.393782 1.217 0 0 0
-0.0613534 0.155035 0.622 255 255 255
-0.0462487 0.115236 0.667 255 255 255
-0.0953255 -0.0494207 0.709 255 255 255
-0.752866 -0.607351 1.831 255 255 255
0.080411 -0.163825 0.925 255 255 255
0.0351921 0.164761 0.578 255 255 255
-0.226712 0.0451208 0.836 255 255 255
0.25383 0.245818 0.782 0 0 0
-0.141211 -0.0589259 0.757 0 0 0
0.151997 -0.243408 0.93 0 0 0
0.41752 -0.326913 0.918 0 0 0
-0.364118 -0.388864 1.359 255 255 255
-0.173561 0.180192 0.625 255 255 255
0.372793 0.145685 0.745 255 255 255
0.207036 0.0448394 0.686 255 255 255
0.199753 -0.336845 0.874 255 255 255
0.351168 -0.327766 1.139 0 0 0
0.260557 0.0835493 0.61 0 0 0
0.382014 -0.248273 1.032 0 0 0
-0.210544 0.215821 0.589 255 255 255
0.0536194 0.168112 0.564 0 0 0
0.0103691 0.0384439 0.758 255 255 255
0.0406254 0.166713 0.575 255 255 255
0.0354427 0.131272 0.615 0 0 0
0.225022 0.0527512 0.673 255 255 255
0.0723658 -0.0514325 0.882 255 255 255
0.052847 -0.0818264 0.917 255 255 255
0.192684 0.0247999 0.72 255 255 255
-0.28966 -0.145766 1.122 255 255 255
-0.138599 0.149859 0.657 255 255 255
0.167225 -0.216731 0.939 0 0 0
0.358684 -0.127623 0.873 0 0 0
-0.987441 0.598132 1.985 255 255 255
0.156701 0.0650872 0.676 255 255 255
0.088745 0.139378 0.59 255 255 255
0.22608 -0.33068 0.888 255 255 255
-0.128993 0.161629 0.636 255 255 255
0.329685 -0.0459146 0.766 255 255 255
-0.951898 0.394627 1.985 255 255 255
0.0546543 -0.245896 0.831 0 0 0
0.0659897 -0.106142 0.934 255 255 255
-0.365791 -0.357375 1.357 255 255 255
-0.111047 0.0712756 0.753 255 255 255
-0.104292 -0.103102 0.934 0 0 0
0.0921844 0.0775305 0.679 255 255 255
-0.334896 -0.177894 1.165 255 255 255
0.371805 -0.314568 1.112 255 255 255
-0.519032 -0.323322 1.452 255 255 255
-0.12662 -0.151492 0.888 0 0 0
0.0991232 -0.0257241 0.797 0 0 0
0.24625 -0.0956701 0.893 255 255 255
-0.0920167 0.0494393 0.738 255 255 255
0.373077 0.147489 0.748 255 255 255
-0.127273 0.0479619 0.793 255 255 255
0.140459 0.0701699 0.672 255 255 255
0.222844 0.036118 0.69 255 255 255
0.465511 -0.267145 1.002 255 255 255
-0.497566 -0.393455 1.494 255 255 255
-0.136102 -0.0908349 0.756 255 255 255
0.0935855 0.11909 0.609 255 255 255
0.00475874 0.203515 0.541 255 255 255
0.288309 0.0838232 0.612 255 255 255
-0.191674 0.210312 0.587 255 255 255
-0.0503905 0.192997 0.567 255 255 255
0.412606 -0.314116 1.05 255 255 255
-0.543785 -0.283335 1.406 255 255 255
0.264503 -0.255833 0.948 255 255 255
0.376014 0.28298 0.749 255 255 255
-0.190422 0.160062 0.655 255 255 255
-0.774169 0.248795 1.677 255 255 255
0.229814 0.237005 0.774 255 255 255
0.266263 0.0791012 0.614 0 0 0
-0.0313632 0.129422 0.651 255 255 255
-0.547239 -0.283939 1.409 255 255 255
0.04762 0.0901214 0.674 0 0 0
-0.460668 -0.421662 1.425 255 255 255
-0.46088 -0.191981 1.244 255 255 255
0.0700399 -0.335614 0.969 0 0 0
0.352436 -0.019943 0.728 255 255 255
0.41004 -0.312011 1.01 255 255 255
0.310952 -0.154117 0.93 255 255 255
0.247326 0.0668284 0.64 255 255 255
-0.171382 0.0263552 0.845 255 255 255
0.286926 0.277632 0.782 255 255 255
-0.0881057 -0.0219478 0.68 255 255 255
0.16815 0.0855753 0.64 255 255 255
0.348138 0.00246048 0.698 255 255 255
-0.0876385 -0.0332564 0.685 0 0 0
0.349008 -0.00788473 0.709 255 255 255
0.319133 0.0408055 0.657 255 255 255
0.232628 0.0452858 0.676 255 255 255
-0.124816 0.134193 0.675 255 255 255
-0.223445 0.122727 0.724 255 255 255
0.0109571 0.115992 0.647 0 0 0
0.361432 -0.226993 1.012 255 255 255
-0.35393 -0.290234 1.313 255 255 255
-0.0138104 0.143348 0.624 255 255 255
0.250562 0.068373 0.635 255 255 255
-0.328649 0.0306899 0.891 255 255 255
-0.386761 -0.149713 1.167 255 255 255
0.186912 0.0964003 0.616 255 255 255
0.318295 -0.140745 0.912 255 255 255
0.107794 0.189429 0.541 255 255 255
0.403568 -0.330633 1.027 255 255 255
0.332408 0.0334736 0.66 255 255 255
0.0595137 0.195732 0.559 255 255 255
0.0518603 0.176268 0.555 255 255 255
0.064506 -0.140899 0.913 255 255 255
0.0653972 -0.263159 0.83 0 0 0
-0.146467 0.166519 0.631 255 255 255
-0.00586577 -0.209023 0.784 255 255 255
0.0280584 0.11993 0.629 0 0 0
-0.340327 -0.357788 1.31 255 255 255
-0.345655 -0.255324 1.267 255 255 255
-0.0609586 0.203898 0.554 255 255 255
0.161518 -0.0538677 0.831 255 255 255
-0.128209 -0.156003 0.889 0 0 0
0.262486 0.0280532 0.685 255 255 255
-0.189324 0.104684 0.738 255 255 255
-0.359693 -0.395498 1.359 255 255 255
0.186708 0.0922782 0.622 255 255 255
0.0127421 0.162669 0.584 255 255 255
0.176168 0.099569 0.617 255 255 255
0.452823 -0.350572 0.902 255 255 255
0.256036 -0.236856 0.934 255 255 255
0.383277 0.172343 0.761 255 255 255
0.215915 -0.307896 0.906 255 255 255
-0.160874 -0.0829014 0.751 255 255 255
0.108253 0.111031 0.625 255 255 255
0.109565 0.0680836 0.684 255 255 255
-0.259639 0.107946 0.761 255 255 255
0.485162 -0.194739 0.951 255 255 255
-0.223443 -0.0011819 0.871 255 255 255
-0.140689 -0.234165 0.954 255 255 255
0.402616 -0.335685 1.012 255 255 255
-0.283059 -0.0733266 0.942 255 255 255
-0.346354 0.00331002 0.939 255 255 255
0.0342589 -0.257249 0.768 255 255 255
-0.138187 -0.18892 0.861 255 255 255
0.0491548 -0.0644842 0.904 255 255 255
-0.422043 -0.49049 1.547 255 255 255
0.225158 -0.0248849 0.771 255 255 255
0.2663 0.0887716 0.605 255 255 255
0.17986 0.0337461 0.711 255 255 255
-0.516877 -0.429023 1.466 0 0 0
-0.00408509 0.194734 0.546 0 0 0
-0.0314579 -0.179704 0.819 255 255 255
0.260821 0.12442 0.606 255 255 255
0.344224 -0.391512 1.192 0 0 0
-0.134525 0.174023 0.614 255 255 255
0.00940041 -0.247306 0.78 0 0 0
0.318332 0.0669733 0.622 255 255 255
0.239494 0.0888028 0.612 0 0 0
0.030429 -0.276523 0.766 255 255 255
0.293639 0.0470767 0.655 255 255 255
0.112202 -0.122131 0.952 255 255 255
0.357184 0.258758 0.753 255 255 255
-0.1262 0.200747 0.576 255 255 255
-0.0328172 -0.0422582 0.705 255 255 255
-0.171441 0.0428705 0.819 255 255 255
0.0908119 0.10476 0.624 255 255 255
-0.0843491 0.0539491 0.734 0 0 0
-0.00148111 0.173611 0.57 255 255 255
-0.00624735 -0.00385069 0.835 255 255 255
-0.151662 0.169545 0.627 255 255 255
-0.0445996 0.174309 0.588 255 255 255
0.134154 -0.259933 1.025 0 0 0
0.428694 -0.174497 0.91 255 255 255
0.28642 0.00486105 0.717 255 255 255
-1.14441 0.177209 2.411 255 255 255
0.0330947 -0.252907 0.77 255 255 255
-0.484091 -0.256184 1.336 255 255 255
-0.516668 -0.320959 1.452 255 255 255
0.0253417 -0.269232 0.763 255 255 255
0.167241 0.0478269 0.697 255 255 255
-0.02196 0.118492 0.655 255 255 255
-1.14459 0.450188 2.228 255 255 255
-0.178181 0.129864 0.699 255 255 255
0.184106 -0.195225 0.924 255 255 255
-0.141025 0.0838621 0.756 255 255 255
0.130508 0.0822514 0.655 255 255 255
-0.0471216 0.12012 0.664 255 255 255
-0.204459 0.0702525 0.797 255 255 255
0.21702 -0.0382084 0.787 0 0 0
0.0119934 0.155789 0.594 255 255 255
0.0368215 0.0425768 0.744 255 255 255
-0.0841497 0.109578 0.693 255 255 255
0.16112 0.0251788 0.731 255 255 255
-0.379828 -0.326198 1.384 0 0 0
0.112555 -0.12407 0.955 255 255 255
-0.0402171 0.198489 0.554 255 255 255
0.199319 0.0946235 0.611 255 255 255
0.212018 0.289953 0.802 255 255 255
0.162479 -0.32779 0.888 255 255 255
0.169831 -0.260254 0.92 255 255 255
-0.307553 -0.0731696 0.981 255 255 255
-0.756726 -0.547253 1.87 255 255 255
-0.0327926 0.105925 0.73 0 0 0
-0.475064 -0.572851 1.616 0 0 0
0.24835 -0.0753406 0.86 255 255 255
0.351767 -0.380465 1.147 255 255 255
-0.267128 0.0408656 0.861 255 255 255
-0.131238 -0.215961 0.91 255 255 255
0.354636 -0.206301 0.984 255 255 255
0.160149 0.0657956 0.672 255 255 255
-0.110731 0.115882 0.697 255 255 255
0.269207 0.0589535 0.645 255 255 255
0.276953 -0.0321607 0.765 255 255 255
-0.0306899 -0.0239151 0.873 0 0 0
-0.103589 0.193742 0.586 255 255 255
0.303781 -0.0585864 0.803 255 255 255
0.0765904 0.146889 0.578 255 255 255
0.407902 -0.328287 0.966 255 255 255
-0.320222 0.0442257 0.872 255 255 255
0.0368814 0.165777 0.575 255 255 255
-0.994124 0.640902 1.929 255 255 255
0.382306 0.159447 0.747 255 255 255
0.263892 0.291284 0.813 0 0 0
-0.0214073 0.172531 0.582 255 255 255
0.14156 0.122923 0.594 255 255 255
0.0293362 -0.1779 0.842 255 255 255
-0.0436649 -0.0586237 0.695 255 255 255
0.0582238 0.0543923 0.724 0 0 0
-1.50028 0.140251 2.857 255 255 255
0.203285 0.00627164 0.746 255 255 255
0.051416 0.214308 0.56 0 0 0
0.364873 -0.386993 1.017 255 255 255
0.350543 0.146917 0.739 255 255 255
-0.362521 -0.238419 1.254 255 255 255
-0.134935 0.144099 0.66 255 255 255
0.374345 0.261209 0.753 255 255 255
0.0754833 0.0590343 0.709 255 255 255
0.362124 -0.0161863 0.719 255 255 255
-0.268837 0.148488 0.701 255 255 255
0.447457 -0.347704 0.906 255 255 255
-0.549049 -0.401338 1.543 0 0 0
0.375783 -0.296471 1.092 255 255 255
-0.237662 0.149527 0.69 255 255 255
-0.465878 -0.521556 1.359 255 255 255
0.211638 -0.134956 0.913 0 0 0
-0.0899414 0.105439 0.703 255 255 255
0.202084 0.0597891 0.666 255 255 255
0.152062 -0.228386 0.969 0 0 0
-0.73678 -0.485489 1.799 255 255 255
-0.112253 -0.0912351 0.937 0 0 0
-0.130937 0.139115 0.667 255 255 255
-0.0730361 -0.000928149 0.684 0 0 0
0.196124 0.0490892 0.683 255 255 255
-1.01032 0.286106 2.114 255 255 255
-0.761909 -0.497294 1.81 255 255 255
-0.222023 0.0634112 0.809 255 255 255
0.230743 0.32187 0.827 255 255 255
-0.286924 0.125075 0.745 255 255 255
-0.387326 -0.410586 1.403 255 255 255
0.141118 -0.269443 1.12 0 0 0
0.0288469 -0.226336 0.791 255 255 255
-0.131772 0.19155 0.597 255 255 255
-0.155586 -0.0759711 0.755 255 255 255
0.327506 -0.358613 1.167 0 0 0
0.440358 -0.305033 0.938 255 255 255
-0.0199189 -0.0773802 0.9 255 255 255
-0.0317532 0.199014 0.548 255 255 255
0.336162 -0.411979 1.126 255 255 255
-0.556433 -0.228544 1.327 255 255 255
0.309542 -0.0512748 0.791 255 255 255
0.175013 0.00634731 0.755 255 255 255
-0.125907 -0.133396 0.883 0 0 0
0.211669 0.0278823 0.709 255 255 255
0.381192 0.162962 0.752 255 255 255
0.0274296 0.0611219 0.72 255 255 255
0.347933 0.242964 0.765 0 0 0
-0.873318 0.327225 1.859 0 0 0
-0.407107 -0.0356019 1.002 255 255 255
0.47395 -0.318771 0.938 255 255 255
0.149449 0.0230179 0.738 255 255 255
-0.160429 0.0620003 0.791 255 255 255
0.359636 0.253857 0.753 255 255 255
0.222304 0.0727112 0.646 255 255 255
0.28652 0.295185 0.795 255 255 255
-0.138367 0.144318 0.661 255 255 255
-0.241742 -0.291314 1.12 255 255 255
0.0477213 0.0413661 0.744 255 255 255
-0.46218 -0.471568 1.381 255 255 255
0.25456 0.0195545 0.7 255 255 255
-0.664032 0.24257 1.459 0 0 0
-0.148579 0.111659 0.721 255 255 255
-0.0425351 0.202058 0.549 255 255 255
0.0434513 -0.193422 0.85 0 0 0
-0.0433508 0.0956294 0.69 255 255 255
-0.116288 -0.230418 0.945 0 0 0
-0.196583 0.147359 0.68 255 255 255
-0.726041 -0.663964 1.831 0 0 0
0.277231 0.279407 0.787 255 255 255
-0.262177 0.0714865 0.811 255 255 255
0.0562814 0.143703 0.592 255 255 255
0.162093 -0.0613589 0.841 255 255 255
-0.03075 -0.156225 0.836 255 255 255
0.0792478 0.168745 0.557 255 255 255
0.34729 0.301944 0.789 255 255 255
0.408284 -0.282082 1.039 255 255 255
-0.499865 -0.610445 1.691 0 0 0
-0.743333 -0.584322 1.815 255 255 255
0.146276 -0.314572 0.904 255 255 255
-0.0576218 -0.14241 0.851 255 255 255
0.404312 -0.073065 0.79 255 255 255
-0.0846521 -0.466606 1.281 255 255 255
-0.123531 0.173024 0.614 255 255 255
-0.538065 -0.286232 1.409 255 255 255
-0.432421 -0.132791 1.152 255 255 255
0.169614 -0.233572 0.927 255 255 255
0.136287 0.0865112 0.647 255 255 255
-0.133215 0.0683133 0.775 255 255 255
0.108763 0.144005 0.574 0 0 0
0.341554 -0.406785 1.102 255 255 255
0.107899 0.125066 0.595 255 255 255
-0.568235 -0.267114 1.393 255 255 255
0.270311 0.218164 0.74 255 255 255
-0.114942 -0.0592812 0.731 255 255 255
-0.135845 0.12969 0.692 255 255 255
0.235512 -0.233065 0.931 255 255 255
0.259463 0.0333814 0.68 255 255 255
0.232284 0.0463173 0.675 255 255 255
0.363142 -0.120125 0.86 0 0 0
-0.215681 0.170461 0.654 255 255 255
0.343148 -0.299437 1.137 0 0 0
0.376082 0.298594 0.764 255 255 255
0.0917527 -0.0590741 0.889 255 255 255
0.217313 -0.0609374 0.817 255 255 255
-0.46566 -0.427007 1.412 0 0 0
0.340557 0.0210218 0.674 255 255 255
0.251184 -0.00706323 0.744 255 255 255
0.0574167 -0.181608 0.873 0 0 0
-0.939243 0.392042 1.972 255 255 255
-0.562099 -0.221353 1.31 255 255 255
0.0731628 0.20028 0.559 255 255 255
-0.124384 0.0607462 0.775 255 255 255
0.131707 0.11968 0.602 255 255 255
0.274631 0.0908907 0.606 255 255 255
0.0476603 -0.215105 0.827 255 255 255
0.411359 -0.310208 1.06 0 0 0
0.264076 -0.102285 0.875 255 255 255
0.0416843 0.169948 0.564 255 255 255
-0.487065 -0.568003 1.595 0 0 0
-0.178681 -0.00804107 0.847 255 255 255
-0.0329903 -0.311986 0.984 255 255 255
0.143334 0.15428 0.574 255 255 255
0.438355 0.254132 0.862 255 255 255
-0.274697 0.129376 0.735 255 255 255
0.0851912 0.140813 0.592 255 255 255
-0.484508 -0.460074 1.387 255 255 255
-0.332044 -0.059761 0.997 255 255 255
0.0483818 0.118528 0.627 255 255 255
0.214288 0.145645 0.6 255 255 255
-1.04315 0.583968 2.037 255 255 255
0.297098 0.0267419 0.68 255 255 255
-0.518406 -0.355505 1.498 255 255 255
-0.064028 -0.100233 0.882 255 255 255
-0.089907 -0.155976 0.842 255 255 255
0.137754 0.0297733 0.727 255 255 255
-0.969683 0.516058 2.057 255 255 255
-0.0317486 0.12136 0.659 255 255 255
0.162959 0.0459506 0.703 255 255 255
-0.116806 0.210818 0.558 255 255 255
0.164972 0.0262241 0.727 255 255 255
-0.543744 -0.277569 1.4 255 255 255
0.050962 -0.1901 0.86 255 255 255
0.0098563 0.165901 0.582 255 255 255
0.0674609 0.172371 0.557 255 255 255
0.147584 0.161378 0.576 255 255 255
-0.130363 0.120654 0.705 255 255 255
-0.113289 -0.253593 1 0 0 0
-0.112201 -0.0795515 0.778 255 255 255
0.281699 0.245408 0.761 255 255 255
0.183434 -0.0237529 0.775 0 0 0
0.205542 0.00864131 0.741 255 255 255
-0.0917186 0.1765 0.602 255 255 255
-0.0431935 0.168638 0.595 255 255 255
-0.101385 -0.247467 0.995 0 0 0
-0.172 0.100286 0.741 255 255 255
-1.08892 0.474367 2.189 255 255 255
-1.04196 0.610261 1.972 255 255 255
-0.237173 0.18015 0.643 255 255 255
-0.043841 -0.0767591 0.91 0 0 0
0.00765122 0.0599214 0.734 255 255 255
0.307326 0.198613 0.748 255 255 255
-0.0138363 0.197925 0.545 0 0 0
-0.241284 -0.31738 1.135 255 255 255
-0.140505 0.0981441 0.734 255 255 255
-0.0480068 0.0324974 0.709 255 255 255
-0.387995 -0.14756 1.165 255 255 255
0.174189 -0.181001 0.952 0 0 0
-0.769882 -0.639874 1.865 255 255 255
0.0224089 -0.213464 0.791 255 255 255
0.0140522 -0.265883 0.757 255 255 255
0.342667 0.0166839 0.676 255 255 255
-0.467036 -0.140938 1.173 255 255 255
0.338012 -0.192695 0.964 255 255 255
0.366237 -0.0312779 0.744 255 255 255
0.424066 -0.32322 0.916 0 0 0
-0.0402903 -0.593562 1.587 0 0 0
-0.272241 -0.0292422 0.906 255 255 255
-0.189116 0.210547 0.585 255 255 255
0.224126 -0.0510619 0.808 255 255 255
0.384661 -0.0451953 0.754 255 255 255
0.00329065 -0.00524694 0.841 255 255 255
-0.0298063 0.0115751 0.776 0 0 0
0.239405 0.0252141 0.699 255 255 255
0.165776 0.0801939 0.647 255 255 255
-0.380365 -0.557073 1.616 0 0 0
0.193161 -0.29522 0.917 255 255 255
0.082229 -0.224594 0.88 255 255 255
0.0812068 0.194473 0.558 255 255 255
-0.0686527 -0.0575755 0.696 0 0 0
0.450368 -0.321986 0.921 255 255 255
-0.192336 0.0592411 0.806 255 255 255
0.282559 0.0462918 0.659 255 255 255
-0.137151 -0.101772 0.755 255 255 255
-0.0676168 -0.0610609 0.697 255 255 255
-0.0197368 0.121132 0.652 255 255 255
0.0610714 0.114509 0.611 255 255 255
0.131235 -0.116496 0.944 255 255 255
0.187652 0.085534 0.632 255 255 255
0.302248 -0.102168 0.862 255 255 255
0.192798 -0.146128 0.937 0 0 0
-0.465737 -0.238152 1.297 255 255 255
0.0139421 0.118717 0.639 0 0 0
0.0642926 0.199171 0.561 255 255 255
0.0408713 0.191831 0.553 255 255 255
-0.4778 -0.33369 1.456 255 255 255
-0.136102 -0.0945256 0.756 255 255 255
0.0857673 -0.118907 0.951 255 255 255
0.0869946 -0.095196 0.931 255 255 255
0.0392586 0.0589418 0.722 255 255 255
-0.393805 -0.16166 1.171 255 255 255
0.0729608 -0.00373079 0.809 255 255 255
0.0301045 0.0558775 0.728 255 255 255
0.0457004 0.198657 0.557 255 255 255
-0.174744 0.0815499 0.769 255 255 255
-0.131599 0.210875 0.563 255 255 255
-0.0685514 0.140169 0.642 255 255 255
0.150705 -0.295418 0.913 255 255 255
0.024379 -0.0799837 0.913 255 255 255
-0.585203 -0.52552 1.539 0 0 0
0.111448 0.0359831 0.733 255 255 255
0.133889 0.118898 0.603 255 255 255
0.22703 0.135717 0.595 255 255 255
0.434695 -0.165569 0.886 255 255 255
-0.308242 -0.269013 1.217 255 255 255
-0.436307 -0.453281 1.452 255 255 255
-0.0459267 0.0561078 0.731 255 255 255
0.186305 -0.275225 0.92 255 255 255
-0.0376417 0.175024 0.584 255 255 255
0.106467 0.0956905 0.645 255 255 255
-0.0866005 0.141292 0.652 255 255 255
-0.0868709 -0.0163908 0.679 255 255 255
-0.164893 0.0209042 0.847 255 255 255
-0.233489 0.134993 0.708 255 255 255
-0.104749 -0.287088 0.981 255 255 255
0.253265 -0.00826284 0.743 255 255 255
-0.122064 0.165464 0.627 255 255 255
0.367793 -0.363085 1.1 255 255 255
-0.224148 0.138813 0.704 255 255 255
0.0947858 -0.164458 0.964 255 255 255
0.280683 -0.061581 0.808 255 255 255
-0.285912 -0.109174 0.989 255 255 255
-0.0103868 -0.00660766 0.84 255 255 255
-0.92391 0.492767 2.03 255 255 255
-0.226483 0.165165 0.667 255 255 255
-0.106567 0.0346517 0.756 255 255 255
-0.0608774 -0.018765 0.685 255 255 255
-0.274368 0.0190474 0.889 255 255 255
0.00182113 0.0157793 0.797 255 255 255
0.130971 0.185344 0.569 255 255 255
-0.175218 0.190698 0.613 255 255 255
0.297086 -0.182138 0.934 255 255 255
-0.182362 0.117362 0.72 255 255 255
-0.087914 0.0873815 0.724 255 255 255
0.297287 -0.107117 0.868 255 255 255
-0.206688 -0.240719 1.089 255 255 255
-0.133933 0.202973 0.577 255 255 255
0.345983 0.250609 0.758 0 0 0
-0.201491 0.0422477 0.833 255 255 255
0.347495 -0.0102498 0.713 255 255 255
-0.00687779 0.0432063 0.755 255 255 255
0.0797756 -0.0145449 0.825 255 255 255
-0.661328 -0.344611 1.559 255 255 255
0.344985 0.31133 0.817 255 255 255
0.282537 0.00604465 0.719 255 255 255
0.237851 0.113066 0.593 255 255 255
-1.27104 0.16667 2.615 255 255 255
0.242357 0.0140766 0.711 255 255 255
-0.466164 -0.328135 1.442 255 255 255
-0.179393 0.167324 0.646 255 255 255
0.108262 0.180529 0.557 255 255 255
-0.263405 0.00757473 0.901 255 255 255
0.359838 0.284395 0.756 255 255 255
-0.0851884 -0.310616 0.995 255 255 255
0.208904 -0.249015 0.934 255 255 255
0.207131 0.13125 0.588 255 255 255
0.119935 0.0649336 0.686 255 255 255
-0.17909 0.183671 0.623 255 255 255
0.264301 0.0106503 0.714 255 255 255
0.167983 0.125821 0.585 255 255 255
0.314982 0.0492766 0.642 255 255 255
-0.888415 0.364366 1.911 255 255 255
0.261223 -0.00949744 0.745 255 255 255
0.339366 -0.0416795 0.757 255 255 255
0.348745 -0.170707 0.938 255 255 255
0.00354598 0.122027 0.64 255 255 255
0.0504142 0.203919 0.559 255 255 255
0.194256 -0.0159352 0.763 255 255 255
-0.162453 0.1044 0.736 255 255 255
0.258654 0.0386281 0.675 255 255 255
0.255044 0.132856 0.604 255 255 255
-0.191868 0.140431 0.695 255 255 255
0.169012 -0.116532 0.932 255 255 255
-0.0954438 0.120575 0.685 255 255 255
0.0422244 -0.01053 0.826 255 255 255
-0.203789 0.220256 0.578 255 255 255
0.235763 0.00494918 0.73 255 255 255
0.342529 -0.238933 1.05 255 255 255
0.27805 -0.0376258 0.775 255 255 255
0.269081 0.232097 0.75 255 255 255
-0.615255 -0.306425 1.473 255 255 255
0.41674 -0.309134 1.039 255 255 255
-0.224231 0.0950676 0.767 255 255 255
-0.0863247 0.213672 0.549 255 255 255
-0.0232604 -0.135677 0.861 0 0 0
-1.04927 0.296668 2.166 255 255 255
0.20805 -0.337881 0.873 255 255 255
-0.146192 0.0271396 0.827 255 255 255
0.0425884 0.12467 0.617 255 255 255
-0.498481 -0.166712 1.222 255 255 255
-1.03779 0.329556 2.128 255 255 255
0.158823 0.0552066 0.69 255 255 255
0.158689 -0.331692 0.883 255 255 255
0.326504 0.0211778 0.679 255 255 255
-0.149535 0.192175 0.602 255 255 255
0.203265 0.0879458 0.62 255 255 255
0.0766074 0.0740798 0.688 255 255 255
0.2542 0.11968 0.602 255 255 255
-0.200843 0.145522 0.687 255 255 255
-0.36729 0.0267243 0.904 255 255 255
0.15251 -0.0504102 0.841 255 255 255
-0.981737 0.65358 1.911 255 255 255
0.25561 -0.0286861 0.772 255 255 255
0.124108 0.0189298 0.767 255 255 255
-0.0251045 0.0181427 0.787 0 0 0
0.340133 -0.110585 0.862 255 255 255
-0.0494063 -0.327437 0.992 255 255 255
0.00410749 0.17266 0.573 255 255 255
0.0724479 -0.202369 0.883 255 255 255
-0.0998282 0.163132 0.622 255 255 255
-0.302652 0.108811 0.776 255 255 255
0.0414626 0.171783 0.561 255 255 255
0.000490908 0.103529 0.747 0 0 0
-0.146522 0.215839 0.564 255 255 255
0.241829 0.0659925 0.642 255 255 255
0.00650039 0.0555192 0.739 255 255 255
-0.141574 -0.243449 0.96 255 255 255
0.14318 -0.188579 1.018 255 255 255
0.482224 -0.234936 0.97 255 255 255
-0.466676 -0.476063 1.381 255 255 255
-0.80968 -0.549158 1.887 255 255 255
0.284174 -0.0585864 0.803 255 255 255
0.143267 -0.0477864 0.843 255 255 255
0.286866 0.020398 0.69 255 255 255
0.10173 0.0863623 0.662 255 255 255
-0.0425831 -0.122209 0.855 255 255 255
0.0515456 0.106712 0.668 0 0 0
-0.99651 0.522941 2.071 255 255 255
-0.152867 0.160767 0.645 255 255 255
0.229002 0.30431 0.816 255 255 255
-0.940977 0.565105 2.017 255 255 255
0.142185 0.0660893 0.675 255 255 255
0.09305 -0.0481214 0.874 255 255 255
-0.0333283 0.131989 0.648 255 255 255
0.224162 0.119215 0.59 255 255 255
0.320802 0.175303 0.737 255 255 255
-0.163387 0.176124 0.625 255 255 255
0.176189 0.0412568 0.701 255 255 255
0.206145 -0.0792446 0.842 255 255 255
-0.430572 -0.229672 1.262 255 255 255
0.233997 -0.277001 0.931 255 255 255
0.274741 -0.0888162 0.855 255 255 255
-0.865729 -0.689623 2.01 255 255 255
0.0456184 0.174776 0.556 255 255 255
-0.0218594 0.124315 0.652 255 255 255
-1.22463 0.313055 2.43 255 255 255
0.361634 0.274931 0.747 255 255 255
-0.45703 -0.278287 1.359 255 255 255
0.184183 -0.169615 0.932 255 255 255
-0.189177 -0.0528306 0.815 255 255 255
0.178283 -0.261668 0.925 255 255 255
0.125203 -0.0685004 0.88 255 255 255
0.0709744 0.0828107 0.677 255 255 255
-0.300405 0.0134545 0.902 255 255 255
0.435089 -0.185899 0.93 255 255 255
-0.259708 0.147347 0.701 255 255 255
0.234148 0.0700622 0.641 255 255 255
0.329924 -0.0611999 0.803 255 255 255
-1.1215 0.434578 2.204 255 255 255
0.145327 0.107078 0.614 255 255 255
0.0727702 0.184728 0.556 255 255 255
-0.135557 0.199734 0.584 255 255 255
-0.0474181 -0.140904 0.842 255 255 255
-0.173853 -0.333654 0.916 255 255 255
-0.103858 0.160618 0.628 255 255 255
-0.0367492 -0.0299029 0.882 0 0 0
-0.13231 0.142597 0.663 255 255 255
0.11691 0.0292981 0.745 255 255 255
-0.0759854 0.0766439 0.734 255 255 255
0.227428 0.120379 0.591 255 255 255
0.382037 -0.115006 0.843 255 255 255
0.0281649 -0.169508 0.848 255 255 255
0.0180016 0.198599 0.542 255 255 255
-0.403166 -0.141873 1.165 255 255 255
0.367238 0.259293 0.751 255 255 255
-0.152501 0.190493 0.606 255 255 255
-0.256065 -0.23057 1.135 255 255 255
0.150018 -0.141219 0.966 255 255 255
0.258927 -0.0170192 0.756 255 255 255
-0.0472104 -0.5415 1.48 0 0 0
0.0751923 -0.107777 0.935 255 255 255
0.131722 -0.0114717 0.798 255 255 255
0.326816 0.243615 0.771 0 0 0
-1.02364 0.524839 2.092 255 255 255
0.348161 -0.130965 0.886 0 0 0
-0.0908894 0.173849 0.603 255 255 255
-0.544288 -0.269893 1.384 255 255 255
0.277446 0.0717072 0.628 255 255 255
0.102569 0.187626 0.546 255 255 255
0.178881 0.000205763 0.761 255 255 255
-0.0876713 -0.253014 1.024 0 0 0
0.34342 -0.00441092 0.707 255 255 255
-0.130293 -0.102177 0.758 255 255 255
-0.0788295 -0.105131 0.887 255 255 255
0.173424 0.0507151 0.69 255 255 255
0.0257995 0.179037 0.558 0 0 0
-0.117798 -0.0981408 0.765 255 255 255
-0.0959498 -0.462836 1.265 255 255 255
0.123089 -0.213408 1.059 0 0 0
0.313822 0.0147837 0.69 255 255 255
-0.181892 0.158996 0.655 255 255 255
0.0901918 0.00285528 0.81 255 255 255
0.189664 -0.320541 0.88 255 255 255
-0.120657 0.165953 0.625 255 255 255
0.351538 0.318974 0.823 255 255 255
0.33673 -0.224804 1.017 255 255 255
-0.93624 0.376706 1.959 255 255 255
0.127666 0.055181 0.704 255 255 255
0.0691389 -0.182019 0.896 255 255 255
-0.057869 0.20028 0.559 255 255 255
-0.0504794 0.192413 0.568 255 255 255
-0.165481 0.202402 0.589 255 255 255
0.0891075 0.157456 0.562 255 255 255
0.397369 -0.261288 1.037 0 0 0
0.417542 -0.289401 1.041 255 255 255
0.0789216 0.131654 0.603 255 255 255
0.0476022 -0.196189 0.85 0 0 0
-0.121546 0.0605894 0.773 255 255 255
-0.133042 -0.112844 0.739 255 255 255
-0.429499 -0.357036 1.445 255 255 255
0.276456 -0.0917061 0.856 255 255 255
-0.224327 0.153348 0.687 255 255 255
0.341467 -0.023723 0.735 255 255 255
-0.532324 -0.251904 1.348 255 255 255
-0.166357 0.208521 0.582 255 255 255
-0.114821 -0.180435 0.854 255 255 255
-0.357412 -0.151538 1.152 255 255 255
-0.768461 -0.682442 1.899 255 255 255
0.139663 -0.0289221 0.814 255 255 255
-0.187336 0.194758 0.607 255 255 255
-0.484793 -0.489658 1.375 255 255 255
-1.25232 0.310044 2.469 255 255 255
-0.159723 0.0790471 0.769 255 255 255
-0.164043 0.184615 0.616 255 255 255
0.0343201 0.195804 0.549 255 255 255
0.00478153 -0.121948 0.863 0 0 0
0.263501 -0.0182254 0.755 255 255 255
0.307327 0.230568 0.757 255 255 255
-0.0782351 -0.336103 0.989 255 255 255
0.177176 0.00144037 0.759 255 255 255
-0.846952 -0.646622 1.959 255 255 255
0.224511 0.31076 0.819 255 255 255
0.29708 0.256493 0.772 255 255 255
-0.230701 0.152009 0.686 255 255 255
0.133918 0.0584902 0.689 255 255 255
-0.395276 -0.012353 0.969 255 255 255
0.423647 -0.310385 0.945 0 0 0
0.0870942 0.164527 0.555 255 255 255
-0.166265 0.0289332 0.84 255 255 255
-0.767294 -0.5645 1.837 0 0 0
-0.723051 -0.478301 1.794 255 255 255
0.238585 0.0532063 0.665 255 255 255
-0.0886502 0.0962258 0.711 255 255 255
0.320879 0.00247811 0.703 255 255 255
-0.0623544 -0.0637238 0.689 255 255 255
0.23323 -0.215577 0.934 255 255 255
-0.0379685 -0.0996646 0.877 255 255 255
-0.394058 -0.0372325 1.002 255 255 255
0.0848023 -0.0607251 0.892 255 255 255
-0.112719 -0.354523 0.916 255 255 255
0.433767 -0.345324 0.896 255 255 255
0.0150422 0.0474835 0.745 255 255 255
-1.17258 0.434779 2.261 255 255 255
0.250686 0.0754329 0.625 255 255 255
-0.220427 0.179104 0.643 255 255 255
-0.512455 -0.393118 1.502 255 255 255
-0.167175 0.100286 0.741 255 255 255
-0.0225414 0.18797 0.563 255 255 255
0.175382 0.133721 0.578 255 255 255
0.21867 0.067226 0.654 255 255 255
-0.00580897 0.199994 0.541 255 255 255
0.00206562 -0.0821375 0.904 255 255 255
-0.169565 -0.259405 0.917 255 255 255
-0.058194 0.208567 0.545 255 255 255
-0.0483454 0.0385362 0.714 255 255 255
-0.258821 -0.299963 1.139 255 255 255
-0.408577 -0.101551 1.098 0 0 0
0.13925 0.0759718 0.656 255 255 255
-0.288609 0.115073 0.759 255 255 255
0.425449 -0.33222 0.9 255 255 255
0.234645 0.0589812 0.657 255 255 255
-0.315476 -0.234324 1.222 255 255 255
-0.000601792 0.142429 0.62 255 255 255
0.0992412 0.0837583 0.667 255 255 255
-0.238401 0.174985 0.655 255 255 255
-0.117908 0.135859 0.667 255 255 255
0.108525 -0.181085 1.004 0 0 0
-0.211259 0.21463 0.591 255 255 255
-1.05842 0.538888 2.107 255 255 255
-0.187699 0.119373 0.718 255 255 255
-0.320464 -0.380843 1.316 255 255 255
0.0278081 0.110728 0.647 0 0 0
0.224945 -0.0184909 0.766 255 255 255
-0.381715 -0.277414 1.313 255 255 255
0.0293273 -0.139144 0.883 255 255 255
-0.196001 0.044635 0.827 255 255 255
-0.155545 0.197686 0.595 255 255 255
-0.118228 0.0988895 0.722 255 255 255
-0.655592 -0.508916 1.739 255 255 255
-0.0698774 -0.268425 1.032 255 255 255
-0.779629 0.248795 1.677 255 255 255
-0.0352655 0.0359341 0.732 255 255 255
-0.0014889 0.17266 0.573 255 255 255
-0.664084 -0.537215 1.739 255 255 255
-0.112794 0.14899 0.644 255 255 255
-0.0739426 0.122661 0.672 255 255 255
0.166321 -0.30152 0.909 255 255 255
-0.263142 0.0328358 0.871 255 255 255
0.280219 -0.0740631 0.83 255 255 255
0.0334873 0.18542 0.55 255 255 255
0.108283 0.0738878 0.676 255 255 255
-0.253441 0.0805272 0.796 255 255 255
-0.166034 -0.297229 0.914 255 255 255
0.00231637 0.160081 0.592 255 255 255
-0.0838011 -0.0186555 0.681 255 255 255
-0.00955835 0.113422 0.773 255 255 255
0.00526013 0.155865 0.598 255 255 255
-0.0394515 0.164347 0.597 255 255 255
0.374285 -0.109259 0.841 0 0 0
-0.755333 -0.410774 1.696 255 255 255
0.0144977 -0.214578 0.781 255 255 255
0.358945 0.16475 0.749 255 255 255
0.142357 -0.189691 1.024 255 255 255
0.355435 -0.124639 0.872 0 0 0
-1.08689 0.518498 2.136 255 255 255
0.0445113 0.120121 0.63 255 255 255
0.000369988 0.180641 0.563 255 255 255
-0.214105 0.0892901 0.771 255 255 255
0.413307 -0.171912 0.912 255 255 255
-0.23283 0.136909 0.706 255 255 255
-0.0767596 0.07979 0.73 255 255 255
0.13318 -0.386734 1.057 0 0 0
0.108283 0.0877146 0.656 255 255 255
-0.291516 0.103026 0.78 255 255 255
0.293356 0.0526557 0.645 255 255 255
0.287114 -0.118389 0.889 255 255 255
-0.160835 0.0595761 0.793 255 255 255
-0.0398461 -0.120959 0.856 255 255 255
-0.0650986 0.185161 0.583 255 255 255
-0.752863 -0.55434 1.853 255 255 255
0.0647886 -0.0863032 0.917 255 255 255
0.144761 -0.040199 0.828 0 0 0
-0.975971 0.702667 1.876 255 255 255
0.169164 -0.0124663 0.779 255 255 255
0.0418322 0.16963 0.566 255 255 255
-0.0659134 -0.114311 0.869 255 255 255
0.0456417 0.110556 0.646 0 0 0
0.377441 -0.115279 0.845 0 0 0
-0.0407165 0.0154908 0.723 255 255 255
-0.816945 0.294782 1.739 0 0 0
0.428341 -0.300485 0.999 255 255 255
0.0513238 -0.233584 0.821 255 255 255
-1.0669 0.469383 2.166 255 255 255
0.184118 0.084773 0.634 255 255 255
0.103749 0.122983 0.599 255 255 255
0.370423 0.167298 0.755 255 255 255
0.268604 0.266939 0.788 255 255 255
-0.121183 -0.023902 0.705 255 255 255
0.00320246 0.170404 0.578 255 255 255
-0.0828216 0.162561 0.616 255 255 255
0.143795 -0.219517 1.072 255 255 255
-0.360174 -0.271923 1.297 255 255 255
0.151935 -0.213783 1.044 255 255 255
0.0280616 0.170852 0.567 255 255 255
-0.913123 0.578751 1.985 255 255 255
-0.00748814 -0.16431 0.822 255 255 255
-0.227924 0.0844165 0.784 255 255 255
0.370873 -0.0248852 0.734 255 255 255
0.376729 0.282602 0.748 255 255 255
-0.271079 0.0232297 0.883 255 255 255
0.340352 -0.0543 0.779 255 255 255
0.338188 -0.195271 0.969 255 255 255
-0.16523 0.198654 0.595 255 255 255
-0.114196 0.148402 0.646 255 255 255
0.313 -0.191442 0.95 255 255 255
-0.25921 0.140952 0.709 255 255 255
-1.20414 0.3522 2.374 255 255 255
0.337046 -0.388904 1.208 0 0 0
-0.431407 -0.151381 1.18 255 255 255
-0.151515 0.189507 0.606 255 255 255
-0.0482877 0.194729 0.564 255 255 255
0.0110673 0.0660828 0.723 255 255 255
-0.0790758 -0.047518 0.698 0 0 0
0.0626502 0.160907 0.571 255 255 255
-0.161562 0.0208302 0.844 0 0 0
-0.0668772 -0.0119533 0.678 0 0 0
0.0102199 -0.186067 0.848 255 255 255
-0.379605 -0.551902 1.624 0 0 0
-0.0308305 -0.0996646 0.877 255 255 255
-0.247874 0.123744 0.73 255 255 255
-1.26215 0.373383 2.411 255 255 255
0.228485 -0.163117 0.921 255 255 255
0.347024 -0.0457348 0.763 255 255 255
0.295824 0.25775 0.772 255 255 255
0.135222 0.113144 0.609 255 255 255
-0.233613 0.151332 0.688 255 255 255
-0.57414 -0.299976 1.442 255 255 255
-0.00655895 0.0704953 0.72 0 0 0
-0.827662 -0.597112 1.893 255 255 255
-1.30481 -1.07446 2.898 255 255 255
0.393585 0.196689 0.784 255 255 255
-0.0665174 0.0683757 0.735 255 255 255
0.477512 -0.320639 0.939 255 255 255
0.0663152 0.180784 0.555 255 255 255
-0.446234 -0.428216 1.416 255 255 255
0.00892295 -0.147426 0.856 0 0 0
0.110905 -0.106938 0.941 255 255 255
-0.0704282 0.0420219 0.714 255 255 255
0.190793 0.0420952 0.696 255 255 255
0.411657 -0.099859 0.82 255 255 255
-0.476878 -0.506423 1.378 255 255 255
-0.338288 0.0714645 0.826 255 255 255
0.208859 0.299436 0.81 255 255 255
0.16426 -0.276405 0.914 255 255 255
0.0261231 -0.0423351 0.872 255 255 255
0.151616 -0.117157 0.937 255 255 255
0.344901 0.166295 0.745 255 255 255
0.259393 0.0564103 0.652 255 255 255
-0.370292 -0.0236085 0.978 255 255 255
0.223309 0.0245588 0.713 255 255 255
-0.242969 0.13007 0.719 255 255 255
0.195618 -0.0647957 0.799 255 255 255
0.39721 -0.127326 0.852 255 255 255
-0.0641246 0.0659835 0.735 255 255 255
-0.37362 -0.236944 1.257 255 255 255
-0.253399 -0.554064 1.563 0 0 0
-0.035817 0.138859 0.636 255 255 255
0.00479565 0.11667 0.669 0 0 0
-0.130635 -0.268445 0.96 255 255 255
0.308898 -0.000970214 0.715 255 255 255
-0.337471 -0.223109 1.237 255 255 255
-0.257027 0.100191 0.768 255 255 255
0.0166696 -0.103512 0.898 255 255 255
0.346243 -0.412108 1.083 255 255 255
0.354113 -0.0138077 0.717 255 255 255
-0.423946 -0.176597 1.208 255 255 255
0.0518542 0.0920411 0.672 0 0 0
0.0865085 0.046145 0.724 255 255 255
0.070244 0.139825 0.596 0 0 0
0.122204 0.17362 0.567 255 255 255
0.362348 0.280069 0.751 255 255 255
0.213467 0.116698 0.587 255 255 255
-0.0529678 0.170861 0.596 255 255 255
0.0595265 0.147015 0.586 255 255 255
0.0910792 0.0775305 0.679 255 255 255
-0.0801117 -0.248754 1.034 0 0 0
-0.00505204 -0.0180237 0.863 255 255 255
-0.0549706 -0.309928 1.036 255 255 255
0.0379201 -0.10421 0.917 255 255 255
-0.359212 -0.267524 1.286 255 255 255
-0.0034951 -0.17473 0.827 255 255 255
-0.0858458 0.168642 0.609 255 255 255
0.401004 -0.332952 1.029 255 255 255
-0.260122 0.149694 0.696 255 255 255
-0.072603 0.183543 0.59 255 255 255
0.0294855 0.175719 0.559 255 255 255
0.390384 0.219203 0.801 255 255 255
0.265798 0.305581 0.823 0 0 0
-0.245164 0.090564 0.782 255 255 255
-0.322533 -0.00278134 0.932 255 255 255
-0.508611 -0.418988 1.456 0 0 0
0.427981 -0.188097 0.941 255 255 255
0.167566 -0.319106 0.892 255 255 255
0.0185461 -0.209602 0.791 255 255 255
0.370747 -0.0939825 0.827 255 255 255
0.286749 -0.0444986 0.785 255 255 255
0.0380623 0.0787892 0.7 255 255 255
0.0814581 0.0166477 0.777 255 255 255
-0.0126217 -0.177291 0.808 255 255 255
0.0796878 0.147398 0.58 255 255 255
-0.0740942 0.15424 0.627 255 255 255
0.219611 -0.320895 0.897 255 255 255
0.250975 -0.0884485 0.879 255 255 255
