ply
format ascii 1.0
comment Created by Open3D
element vertex 1333
property double x
property double y
property double z
property uchar red
property uchar green
property uchar blue
end_header
-0.112412 -0.355699 1.887 255 255 255
0.444013 -0.413842 1.929 0 0 0
-0.866351 -0.784621 2.107 255 255 255
0.168536 0.207757 0.839 255 255 255
-0.849385 -0.288981 1.853 0 0 0
1.03031 -0.876861 2.44 255 255 255
-0.144039 -0.357961 1.899 255 255 255
-0.443066 0.215759 0.849 255 255 255
-0.399004 0.178418 0.883 255 255 255
0.0691628 -0.213595 1.445 255 255 255
0.0679403 -0.629488 2.151 255 255 255
-0.459817 -0.216085 1.547 255 255 255
-0.154494 0.221775 0.787 255 255 255
0.0676877 -0.808489 2.143 255 255 255
0.0655548 0.164051 0.832 0 0 0
-0.246096 0.242983 0.769 255 255 255
0.0721663 0.239881 0.722 0 0 0
-0.106651 -0.722332 2.01 255 255 255
-0.507443 0.0716374 1.044 255 255 255
-0.321154 -0.437589 1.923 255 255 255
0.413095 -0.238727 1.633 255 255 255
0.0205483 -0.321392 1.705 255 255 255
0.410794 0.191145 0.869 255 255 255
-0.0733641 0.250933 0.72 255 255 255
0.608298 -0.0370895 1.278 255 255 255
-0.159405 0.251886 0.733 255 255 255
0.201126 0.277362 0.747 255 255 255
-1.0279 -0.646534 2.173 0 0 0
-0.376855 0.21952 0.837 255 255 255
0.0940834 -0.733226 2.189 255 255 255
-0.0221889 0.156688 0.874 255 255 255
0.830582 -0.820524 2.347 255 255 255
0.059705 0.0508575 1.036 255 255 255
0.607751 -0.0179263 1.247 255 255 255
-0.242781 0.278279 0.715 255 255 255
-0.338907 -0.745762 1.935 255 255 255
0.52981 -0.117881 1.425 255 255 255
0.446725 -0.228918 1.62 255 255 255
0.0727216 0.0178506 1.079 255 255 255
0.0651229 0.24208 0.685 255 255 255
-0.0108814 0.152035 0.88 255 255 255
0.00607248 0.0359674 1.096 255 255 255
-0.362691 0.208936 0.855 255 255 255
0.476201 0.0908339 1.07 255 255 255
-0.621875 -0.0538703 1.333 255 255 255
0.0906372 0.198917 0.814 255 255 255
-0.523342 0.0592691 1.066 255 255 255
-0.201022 0.196163 0.86 255 255 255
0.115062 0.0835972 1.004 255 255 255
0.515297 0.0941401 1.068 255 255 255
0.092873 0.224622 0.788 255 255 255
-0.25291 0.164822 0.895 0 0 0
0.0482045 0.0874394 0.974 0 0 0
-0.369237 0.172866 0.884 255 255 255
-0.488906 0.149756 0.967 255 255 255
-0.44807 -0.693181 2.03 255 255 255
-0.412307 -0.0899983 1.322 255 255 255
-0.525148 -0.114737 1.387 0 0 0
0.405595 0.223072 0.835 255 255 255
0.231757 0.208806 0.866 255 255 255
0.534224 -0.756071 2.085 255 255 255
0.204732 0.116851 0.995 255 255 255
-0.398372 0.173648 0.888 0 0 0
-0.0360842 -0.649669 2.092 255 255 255
-0.0995367 0.045868 1.12 255 255 255
0.486397 -0.223907 1.603 255 255 255
0.259519 0.241719 0.765 255 255 255
-0.0797885 0.0772633 1.075 255 255 255
-0.536677 0.100064 1.022 255 255 255
0.525606 0.123951 1.027 255 255 255
-1.06123 -0.59036 2.099 255 255 255
0.034536 0.106591 0.947 255 255 255
-0.527764 -0.148341 1.406 255 255 255
0.431573 0.11258 1.03 0 0 0
0.45696 0.145485 0.97 255 255 255
0.689386 -0.643447 2.236 0 0 0
-0.163685 -0.118092 1.348 255 255 255
0.362101 -0.381992 1.911 255 255 255
-0.982482 -0.737999 2.151 0 0 0
-0.779573 -0.402584 1.966 255 255 255
0.312132 0.19831 0.882 255 255 255
1.07655 -0.472787 2.53 0 0 0
0.291568 0.140782 1.004 255 255 255
-0.0978715 0.242999 0.746 255 255 255
-0.0683929 0.252589 0.705 0 0 0
-0.883559 -0.542233 2.166 255 255 255
-0.26868 0.191894 0.866 255 255 255
0.651745 -0.0642795 1.324 255 255 255
0.805859 -0.85813 2.236 255 255 255
0.487954 0.114001 1.043 255 255 255
0.184728 -0.153888 1.505 255 255 255
0.0558933 0.110796 0.918 255 255 255
-0.0170393 -0.172297 1.378 255 255 255
-0.42708 -0.223637 1.547 255 255 255
-0.225752 0.172084 0.88 255 255 255
0.0828767 0.193615 0.803 255 255 255
1.05929 -0.475128 2.499 0 0 0
0.709019 -0.391147 1.941 0 0 0
-0.166394 0.165721 0.892 255 255 255
0.449641 -0.0138122 1.242 255 255 255
0.166605 -0.0282674 1.171 255 255 255
-0.0637863 -0.118144 1.324 255 255 255
0.488032 -0.293842 1.739 0 0 0
0.0504894 0.0162886 1.092 255 255 255
-0.992986 -0.709996 2.151 255 255 255
0.350386 0.238805 0.833 255 255 255
-0.601776 -0.304913 1.646 255 255 255
0.115592 -0.167799 1.498 255 255 255
0.152845 0.232871 0.737 255 255 255
0.0152391 -0.00876301 1.114 255 255 255
0.349486 -0.0512744 1.322 255 255 255
0.561376 -0.803573 2.085 255 255 255
0.100075 0.183781 0.861 0 0 0
-0.49812 0.0996725 1.018 255 255 255
0.895809 -0.747591 2.42 255 255 255
0.0393617 0.210719 0.77 255 255 255
0.10994 0.089953 1.002 255 255 255
0.0928688 0.219956 0.799 255 255 255
-0.460152 0.0846574 1.037 255 255 255
-0.32438 -0.0646779 1.289 255 255 255
-0.703536 -0.7518 2.092 255 255 255
0.265363 -0.266469 1.691 255 255 255
0.176116 0.225085 0.739 255 255 255
-0.188236 0.232695 0.748 255 255 255
-0.659969 -0.108978 1.4 255 255 255
-0.0885347 0.159774 0.961 255 255 255
0.0340398 -0.535889 2.01 255 255 255
-0.472832 0.107107 1.01 255 255 255
-0.539243 0.0791093 1.053 255 255 255
-0.343901 -0.0293778 1.217 255 255 255
-0.329821 0.233826 0.825 0 0 0
-0.553878 0.0715462 1.068 255 255 255
0.0552345 -0.0447585 1.154 255 255 255
0.230452 0.159198 0.967 255 255 255
-0.0485652 -0.644742 2.044 0 0 0
0.0673655 0.101869 0.932 255 255 255
-0.321993 -0.512756 1.947 255 255 255
0.238323 0.157624 0.967 255 255 255
-0.703536 -0.758609 2.092 255 255 255
-0.238229 0.155443 0.917 0 0 0
-0.340442 -0.208321 1.509 255 255 255
1.24047 -0.785989 2.479 255 255 255
-0.310391 0.25347 0.786 255 255 255
0.527436 -0.749285 2.085 255 255 255
-0.160467 0.264021 0.727 255 255 255
0.470928 -0.150616 1.473 255 255 255
0.994444 -0.580641 2.43 255 255 255
-0.503559 -0.120025 1.396 0 0 0
-0.589387 0.0286785 1.162 255 255 255
-0.297937 0.156935 0.917 255 255 255
-0.651143 -0.706997 2.121 255 255 255
0.406925 -0.429985 1.917 0 0 0
0.104889 -0.395007 1.929 255 255 255
-0.0764702 0.24953 0.675 255 255 255
-0.236299 0.101578 1.055 255 255 255
0.152131 -0.74901 2.204 255 255 255
0.147644 0.235341 0.741 255 255 255
-0.214521 0.198499 0.858 255 255 255
-1.1188 -0.776124 2.22 255 255 255
-0.0591195 -0.498445 1.953 255 255 255
0.117627 -0.034388 1.122 255 255 255
0.289406 0.148635 0.991 255 255 255
0.328939 0.267693 0.779 255 255 255
0.338877 -0.0846561 1.375 255 255 255
0.259025 -0.495156 2.004 255 255 255
0.236321 0.123114 1.034 0 0 0
-0.0407074 0.124276 0.977 255 255 255
-0.854845 -0.637966 2.121 255 255 255
-0.0328567 0.258777 0.682 255 255 255
0.433648 -0.388211 1.911 255 255 255
-0.0858692 -0.0449614 1.21 255 255 255
-0.820729 -0.51758 2.196 0 0 0
-0.277063 0.219258 0.836 0 0 0
0.00191938 0.1875 0.84 255 255 255
0.509881 -0.221298 1.603 255 255 255
-0.343801 -0.0226469 1.176 255 255 255
0.0762668 -0.0890105 1.22 0 0 0
-0.190917 0.154882 0.905 0 0 0
0.156516 0.230917 0.792 255 255 255
0.356557 0.211803 0.861 255 255 255
-0.086465 -0.0645998 1.247 255 255 255
0.39593 -0.0353659 1.291 0 0 0
-0.0670776 0.00580157 1.126 255 255 255
-0.798939 -0.623303 2.166 255 255 255
0.401815 0.18875 0.871 255 255 255
-0.255134 0.248388 0.755 255 255 255
-0.277091 0.127799 0.992 255 255 255
-0.00535701 0.250705 0.716 255 255 255
0.395667 0.222244 0.837 255 255 255
-0.922449 -0.487553 2.158 255 255 255
0.255701 0.220401 0.825 255 255 255
-0.0689071 -0.0775758 1.26 255 255 255
0.0322263 0.256529 0.697 255 255 255
-0.0074522 -0.107378 1.273 255 255 255
0.28466 0.225463 0.769 0 0 0
-0.15393 0.0767081 1.092 255 255 255
-0.0184139 0.187068 0.832 255 255 255
-0.566606 -0.755391 2.181 0 0 0
-0.424056 -0.0338866 1.237 255 255 255
-0.115986 -0.46523 1.947 0 0 0
-1.06256 -0.499963 2.136 255 255 255
-0.0474974 0.221651 0.756 255 255 255
0.231574 0.148209 0.999 255 255 255
0.347992 0.289698 0.757 255 255 255
-0.368705 -0.0407181 1.201 255 255 255
0.265163 0.0878437 1.055 255 255 255
0.409292 0.218158 0.837 255 255 255
0.39407 0.251903 0.814 255 255 255
-0.0564143 0.1482 0.947 255 255 255
0.0201079 -0.432677 1.929 255 255 255
-0.488109 -0.434011 1.978 255 255 255
0.304569 -0.0246112 1.278 255 255 255
-0.155273 0.275566 0.714 255 255 255
-0.285903 0.222805 0.834 0 0 0
-0.320845 0.158699 0.91 255 255 255
-0.306437 0.0714123 1.066 255 255 255
-0.088001 -0.490413 1.959 255 255 255
-0.00377403 0.141202 0.893 255 255 255
-0.63406 -0.538889 2.181 0 0 0
-0.727374 -0.796057 2.092 255 255 255
-0.345679 -0.0033782 1.132 255 255 255
-0.0315073 -0.550885 2.017 255 255 255
-0.152744 -0.153244 1.409 255 255 255
-0.536303 -0.0227254 1.289 255 255 255
-0.0365567 0.236701 0.734 255 255 255
0.389306 0.282542 0.778 0 0 0
0.233557 0.216721 0.842 255 255 255
0.194571 0.19271 0.896 255 255 255
0.523849 -0.157626 1.494 255 255 255
-0.0774059 0.213779 0.772 255 255 255
0.27039 0.212885 0.877 0 0 0
0.556214 -0.234768 1.624 255 255 255
-0.609631 -0.065736 1.354 255 255 255
-0.361023 -0.16864 1.463 0 0 0
-0.331004 0.130392 0.952 255 255 255
0.365 0.261219 0.794 255 255 255
0.298555 -0.674824 2.173 0 0 0
-0.0917208 0.190559 0.886 255 255 255
0.115045 0.17904 0.879 255 255 255
1.01454 -0.7041 2.489 255 255 255
-0.0145061 0.184986 0.841 255 255 255
-0.026326 0.0399674 1.108 255 255 255
-1.05769 -0.550943 2.092 255 255 255
0.0902152 -0.576696 2.099 255 255 255
-0.348807 -0.239388 1.535 0 0 0
0.528417 -0.483094 1.905 255 255 255
0.0839157 0.248145 0.712 255 255 255
0.633769 -0.14177 1.456 255 255 255
0.202153 0.204578 0.866 255 255 255
-0.308633 -0.421943 1.923 255 255 255
-0.296133 -0.246295 1.547 255 255 255
0.678801 -0.132292 1.456 255 255 255
0.412218 0.14858 0.98 0 0 0
1.08478 -0.803663 2.411 255 255 255
0.0223679 0.107378 0.954 255 255 255
0.265361 0.141623 1.01 255 255 255
-0.983518 -0.381967 2.044 0 0 0
0.424188 -0.750151 2.078 255 255 255
0.0177024 0.256394 0.706 255 255 255
0.280287 0.0471797 1.108 255 255 255
-0.37579 0.210481 0.85 255 255 255
-0.375481 0.237854 0.825 0 0 0
-0.000856098 0.153816 0.882 255 255 255
0.0538657 0.133378 0.909 255 255 255
-0.64942 -0.614709 2.173 0 0 0
-0.505094 0.141765 0.977 255 255 255
-0.354922 0.137449 0.958 255 255 255
-0.458958 0.192245 0.874 255 255 255
0.407881 -0.0553249 1.316 0 0 0
-0.0734652 0.125435 1.012 255 255 255
0.381003 -0.161727 1.487 255 255 255
0.0659395 0.0161544 1.083 255 255 255
-0.149809 -0.150308 1.403 255 255 255
0.212755 0.202458 0.869 255 255 255
-0.604915 -0.334282 1.7 255 255 255
0.245884 0.158439 0.972 255 255 255
-0.386439 -0.629362 1.985 0 0 0
-0.43588 0.179651 0.882 0 0 0
0.100041 0.211259 0.826 255 255 255
0.355809 0.157551 0.957 255 255 255
-0.607135 -0.307592 1.646 255 255 255
0.283968 -0.641096 2.143 255 255 255
0.051647 -0.327779 1.724 0 0 0
0.659896 -0.342163 1.831 255 255 255
-1.06451 -0.581582 2.092 255 255 255
-0.091878 0.212202 0.835 255 255 255
-0.266974 0.264021 0.727 0 0 0
0.205592 0.226236 0.759 255 255 255
0.327012 -0.660849 2.128 255 255 255
-0.291932 0.0866503 1.083 255 255 255
1.16242 -0.73563 2.459 255 255 255
-0.0809843 -0.0940447 1.289 255 255 255
-0.176933 0.280225 0.717 255 255 255
-0.105931 -0.244776 1.603 255 255 255
0.252402 0.193006 0.884 255 255 255
-0.335952 0.167735 0.895 0 0 0
0.00122891 -0.376839 1.87 255 255 255
-1.13819 -0.709251 2.181 0 0 0
-0.26251 0.253389 0.748 255 255 255
-0.267527 0.0943164 1.07 255 255 255
0.410255 0.117266 1.027 0 0 0
-0.430792 -0.0319252 1.239 255 255 255
-0.054708 0.206931 0.789 255 255 255
0.841437 -0.570627 2.356 0 0 0
-0.293233 0.26436 0.755 255 255 255
-0.123372 0.110713 1.044 255 255 255
-0.152727 0.180453 0.872 255 255 255
-0.32153 0.246576 0.801 255 255 255
-0.0250343 0.156688 0.874 255 255 255
-0.41063 0.218091 0.842 255 255 255
0.315885 -0.0161265 1.265 255 255 255
0.744479 -0.377402 1.985 255 255 255
-0.0763112 -0.0892918 1.281 255 255 255
0.111685 0.169758 0.898 0 0 0
0.102049 -0.28178 1.591 255 255 255
-0.24431 0.256795 0.73 255 255 255
0.371185 -0.101195 1.387 255 255 255
0.460353 0.17335 0.917 0 0 0
0.435726 -0.464649 1.893 255 255 255
-0.430713 -0.428201 1.923 255 255 255
-0.236884 0.242348 0.744 255 255 255
-0.395469 -0.378427 1.805 255 255 255
0.824355 -0.742772 2.43 255 255 255
-0.479137 -0.26189 1.612 0 0 0
0.61623 -0.1067 1.4 255 255 255
-0.462601 0.0711443 1.062 255 255 255
1.17089 -0.438144 2.593 0 0 0
0.317171 0.0137375 1.178 0 0 0
0.0331743 -0.0511346 1.171 255 255 255
0.0811222 0.221493 0.786 255 255 255
0.408829 0.196644 0.856 255 255 255
-0.205672 0.237824 0.745 255 255 255
0.354913 -0.118344 1.403 0 0 0
-0.101676 0.218394 0.775 255 255 255
0.00633686 0.152726 0.884 255 255 255
-0.443656 -0.725603 2.01 255 255 255
1.11178 -0.51373 2.489 255 255 255
0.622527 -0.144832 1.463 255 255 255
-0.393649 0.171029 0.897 0 0 0
0.429123 -0.0138678 1.247 0 0 0
0.625478 -0.161727 1.487 255 255 255
-0.539767 -0.763228 2.173 0 0 0
0.536639 0.0620491 1.116 255 255 255
-0.547998 -0.419395 1.985 255 255 255
-0.0782859 0.197255 0.835 255 255 255
-1.0454 -0.800101 2.158 255 255 255
0.466759 0.136376 0.984 255 255 255
0.325452 0.185 0.887 255 255 255
-0.498112 0.0591579 1.064 255 255 255
-0.0765125 -0.391321 1.911 255 255 255
0.219567 0.255497 0.769 255 255 255
-0.954969 -0.727707 2.121 0 0 0
-0.100273 0.214072 0.837 0 0 0
0.211266 -0.194365 1.575 0 0 0
-0.263448 0.0757545 1.104 255 255 255
-0.487606 -0.137193 1.409 255 255 255
0.298963 -0.277811 1.71 255 255 255
-0.542536 -0.040763 1.33 255 255 255
0.0267439 0.253799 0.702 255 255 255
-0.334045 0.0503107 1.06 255 255 255
0.147367 -0.235193 1.524 255 255 255
0.982214 -0.697237 2.479 255 255 255
-0.0575804 -0.123008 1.33 255 255 255
0.440834 -0.0370025 1.275 255 255 255
0.279373 -0.790222 2.189 255 255 255
-0.490081 0.155994 0.957 255 255 255
-0.699751 -0.207993 1.543 255 255 255
0.214685 -0.100721 1.412 0 0 0
-0.693656 -0.415684 1.923 255 255 255
-0.506814 -0.0683408 1.362 255 255 255
-0.316617 0.149757 0.928 255 255 255
0.330191 0.0506942 1.106 255 255 255
1.17443 -0.731628 2.459 255 255 255
0.300613 0.265372 0.765 255 255 255
-0.171768 0.242249 0.74 255 255 255
-0.00846946 -0.0162731 1.132 255 255 255
-0.0718176 0.249153 0.683 255 255 255
-0.386679 -0.16227 1.47 0 0 0
0.66992 -0.252631 1.637 255 255 255
-0.449356 0.0533483 1.124 255 255 255
0.255 -0.229354 1.642 255 255 255
0.671332 -0.793784 2.189 0 0 0
-0.138016 0.145093 0.957 255 255 255
0.306957 0.0245752 1.147 255 255 255
0.509783 -0.431322 1.882 255 255 255
-0.137012 0.164442 0.909 255 255 255
-0.467134 -0.161862 1.445 255 255 255
0.428132 -0.108667 1.396 0 0 0
0.00962304 0.0376821 1.094 255 255 255
-0.563282 -0.241722 1.583 0 0 0
0.940298 -0.809842 2.383 255 255 255
-0.393699 0.175743 0.884 0 0 0
-0.450192 -0.245626 1.575 255 255 255
-0.280659 0.243056 0.811 255 255 255
0.480039 0.154364 0.947 255 255 255
-0.78889 -0.236199 1.691 255 255 255
-0.305964 0.0379364 1.156 0 0 0
-0.934814 -0.446897 2.099 255 255 255
0.177033 -0.241829 1.567 255 255 255
-0.00110555 -0.0219344 1.139 255 255 255
0.13778 -0.630651 2.204 0 0 0
-0.0359279 0.0917485 1.022 255 255 255
-0.21692 0.137651 1.005 255 255 255
-0.471513 0.0812039 1.036 255 255 255
-0.972154 -0.746757 2.136 255 255 255
-0.596397 -0.0726134 1.359 255 255 255
-0.108503 0.171452 0.931 255 255 255
0.998536 -0.773623 2.44 255 255 255
-0.2684 0.150004 0.939 255 255 255
-0.127474 -0.413842 1.929 255 255 255
0.181955 0.0882494 1.081 0 0 0
0.603287 -0.423256 1.887 255 255 255
-0.565496 -0.162736 1.432 255 255 255
-0.153543 -0.707012 1.941 255 255 255
0.342643 0.0172135 1.154 255 255 255
-0.581253 -0.354694 1.789 255 255 255
0.141498 0.24069 0.728 255 255 255
0.218315 0.255497 0.769 255 255 255
0.110139 -0.0515908 1.139 255 255 255
-0.192675 -0.110518 1.336 255 255 255
0.242266 -0.114508 1.412 0 0 0
0.0386913 -0.211828 1.449 255 255 255
-0.198573 0.131406 1.02 255 255 255
0.429255 0.159774 0.961 255 255 255
-0.964603 -0.663142 2.158 0 0 0
0.0329679 0.137057 0.904 255 255 255
0.26471 0.289906 0.748 255 255 255
0.431433 0.0121215 1.208 0 0 0
1.2352 -0.338301 2.604 0 0 0
0.446655 -0.103676 1.39 0 0 0
0.386987 -0.537483 1.911 255 255 255
-0.125738 0.207817 0.892 255 255 255
0.0538657 0.131898 0.909 255 255 255
0.00761995 0.238113 0.731 255 255 255
0.0136988 -0.400651 1.911 255 255 255
0.103822 0.238265 0.774 0 0 0
1.00236 -0.596459 2.43 255 255 255
-0.0536108 -0.136915 1.339 255 255 255
-0.314065 0.0904019 1.007 255 255 255
-0.0673194 0.0611595 1.1 255 255 255
-0.522344 0.101528 1.02 255 255 255
0.224273 -0.844561 2.173 255 255 255
0.0458196 0.0728387 0.991 255 255 255
-0.318199 -0.23892 1.532 255 255 255
-0.405933 -0.0439517 1.237 255 255 255
-0.25385 0.252061 0.737 255 255 255
0.441925 0.130979 1.004 0 0 0
0.627864 -0.327401 1.799 255 255 255
0.431099 0.103618 1.041 255 255 255
0.310502 0.0259577 1.126 255 255 255
0.154747 0.11826 1.007 0 0 0
-0.0242432 0.214167 0.76 255 255 255
-0.246795 -0.749727 1.929 255 255 255
-0.0261402 -0.666822 2.114 0 0 0
-0.027035 0.234632 0.735 255 255 255
0.131474 0.244417 0.725 255 255 255
-0.677424 -0.796787 2.085 255 255 255
-0.34616 0.28275 0.742 255 255 255
-0.301864 0.172397 0.889 0 0 0
0.215234 -0.77241 2.189 255 255 255
0.304433 0.274407 0.759 255 255 255
-0.15573 -0.040313 1.249 255 255 255
-0.42484 0.158987 0.947 255 255 255
0.0202151 0.0357377 1.089 255 255 255
-0.310266 0.238616 0.823 0 0 0
0.0778158 0.255428 0.679 255 255 255
0.488457 -0.675756 2.078 255 255 255
0.0687395 -0.0487666 1.16 255 255 255
0.280831 0.0463595 1.132 255 255 255
-0.455069 0.196062 0.872 255 255 255
0.22939 0.18792 0.901 0 0 0
0.0703627 0.0427556 1.044 255 255 255
1.23738 -0.373259 2.582 0 0 0
-0.289936 0.227139 0.83 0 0 0
0.391663 0.201271 0.852 0 0 0
-0.237375 -0.693223 1.929 255 255 255
0.516827 -0.166575 1.509 255 255 255
0.0891855 -0.0103195 1.087 0 0 0
-0.565466 -0.189176 1.513 255 255 255
0.075187 -0.631536 2.158 255 255 255
0.405995 0.249253 0.814 255 255 255
-0.683764 -0.62407 2.181 255 255 255
0.142819 0.236547 0.741 255 255 255
0.0658676 0.153491 0.872 255 255 255
-0.449902 0.0957259 1.029 255 255 255
-0.0960294 -0.251397 1.612 0 0 0
-0.356022 -0.0697281 1.305 0 0 0
-0.907638 -0.543985 2.173 0 0 0
0.121709 0.0141129 1.062 0 0 0
-0.397798 0.134121 0.991 255 255 255
0.549959 -0.292152 1.729 255 255 255
0.990309 -0.754693 2.469 255 255 255
0.319778 -0.79859 2.173 0 0 0
0.357479 0.077982 1.085 255 255 255
-0.046749 0.0276913 1.122 255 255 255
-1.13325 -0.772511 2.22 255 255 255
-0.793569 -0.403244 1.985 255 255 255
-0.0905553 0.212635 0.777 255 255 255
0.0369332 -0.0196048 1.112 255 255 255
-0.189358 -0.0893857 1.313 255 255 255
-0.936322 -0.233813 1.87 0 0 0
0.0428833 0.188088 0.813 255 255 255
0.0114251 0.112874 0.948 0 0 0
0.229034 0.133588 1.024 0 0 0
0.317681 -0.0290182 1.289 0 0 0
0.107991 0.235563 0.786 0 0 0
0.0757795 0.238143 0.746 0 0 0
1.32995 -0.35743 2.684 0 0 0
0.162476 0.257696 0.716 255 255 255
-0.823771 -0.655224 2.121 255 255 255
0.0404447 0.17624 0.845 255 255 255
-0.204401 0.155053 0.906 0 0 0
0.274802 -0.698603 2.181 0 0 0
-0.236272 0.0531585 1.12 255 255 255
0.0108225 0.134686 0.898 255 255 255
0.211515 0.0454612 1.156 0 0 0
-0.140469 -0.405682 1.935 255 255 255
0.221506 -0.0395677 1.291 255 255 255
-0.0307453 -0.115467 1.294 255 255 255
0.0169217 -0.0801858 1.237 255 255 255
-0.388536 -0.158682 1.459 0 0 0
-0.23204 -0.263656 1.591 0 0 0
0.19367 0.160021 0.972 255 255 255
-0.438403 0.215505 0.848 255 255 255
-0.196629 0.114922 1.036 255 255 255
-0.462401 0.0888548 1.027 255 255 255
0.1246 0.226332 0.794 255 255 255
-0.41525 0.17634 0.887 0 0 0
-0.739449 -0.493175 2.107 0 0 0
-0.362976 -0.442094 1.929 255 255 255
-0.576812 -0.739621 2.166 0 0 0
0.420249 0.171666 0.924 255 255 255
-0.723969 -0.765418 2.092 255 255 255
0.141145 -0.00858995 1.092 255 255 255
0.591784 -0.637966 2.121 255 255 255
-0.0191664 0.172165 0.866 255 255 255
0.861154 -0.741613 2.479 255 255 255
0.568931 -0.366727 1.865 255 255 255
0.0528524 0.0654943 1.002 255 255 255
-0.220579 0.100524 1.062 255 255 255
-0.310696 -0.0822804 1.302 255 255 255
0.49976 -0.165803 1.502 255 255 255
-0.340068 -0.030271 1.254 255 255 255
-0.207296 0.198268 0.857 255 255 255
0.159633 -0.425856 1.985 0 0 0
-0.334104 0.110758 0.97 255 255 255
0.361011 0.077982 1.085 255 255 255
0.679493 -0.16492 1.494 255 255 255
-0.587664 0.0140057 1.201 255 255 255
-0.805258 -0.635526 2.136 255 255 255
-0.158047 0.0951599 1.06 255 255 255
0.590503 -0.799462 2.092 255 255 255
-0.240917 0.229666 0.815 255 255 255
0.0590693 0.203823 0.782 255 255 255
-0.00767729 0.253845 0.715 255 255 255
1.24082 -0.563177 2.44 255 255 255
-0.489577 -0.496803 2.024 255 255 255
0.101179 -0.0248085 1.102 255 255 255
0.639263 -0.768848 2.189 0 0 0
0.0114088 0.188875 0.834 255 255 255
-0.842342 -0.681758 2.107 0 0 0
-0.157526 0.175378 0.875 255 255 255
0.485704 0.138585 0.977 0 0 0
0.178289 -0.833952 2.173 255 255 255
-0.347393 -0.257027 1.551 0 0 0
0.03271 -0.0754209 1.225 255 255 255
0.322551 -0.405682 1.935 0 0 0
-0.0565976 0.119661 1.005 255 255 255
-0.629838 -0.00581984 1.262 255 255 255
-0.652041 -0.0753755 1.369 255 255 255
0.257994 -0.783097 2.189 255 255 255
0.238682 0.0456185 1.16 255 255 255
-0.632622 -0.118091 1.4 255 255 255
0.342403 0.142758 0.995 255 255 255
-1.03879 -0.741194 2.181 0 0 0
0.443799 0.122141 1.012 255 255 255
0.145096 0.224756 0.793 255 255 255
-0.360367 -0.139433 1.432 0 0 0
-0.259403 -0.635107 1.953 255 255 255
-1.02394 -0.480775 2.128 255 255 255
-0.47492 0.0963592 1.018 255 255 255
0.356409 0.0172433 1.156 0 0 0
0.259044 0.216012 0.771 255 255 255
-0.189613 -0.276118 1.65 255 255 255
0.118624 0.256897 0.698 255 255 255
-0.123342 0.215247 0.875 0 0 0
0.0368755 -0.161435 1.381 255 255 255
0.0289878 0.187068 0.832 255 255 255
0.10538 0.241102 0.767 0 0 0
0.305746 0.0276913 1.122 255 255 255
0.0610637 0.227222 0.775 255 255 255
0.156284 -0.701334 2.212 255 255 255
0.294284 -0.133549 1.419 0 0 0
0.0550409 0.138528 0.904 255 255 255
-0.0431912 0.201566 0.814 255 255 255
-0.193613 0.213472 0.84 0 0 0
-0.290613 -0.0302227 1.252 255 255 255
-0.340881 0.217314 0.839 255 255 255
0.0649754 0.0579708 1.013 255 255 255
-0.261714 -0.053391 1.27 255 255 255
-0.843968 -0.543985 2.173 255 255 255
0.319625 0.209552 0.875 255 255 255
0.502113 -0.286525 1.729 255 255 255
-0.0666719 0.169027 0.879 255 255 255
-0.271648 0.193814 0.862 255 255 255
0.120013 -0.574836 2.143 0 0 0
0.140109 0.0523405 1.032 255 255 255
-0.082178 -0.106074 1.308 255 255 255
0.958818 -0.571118 2.44 255 255 255
-0.635272 -0.635926 2.173 0 0 0
-0.634912 -0.201524 1.532 255 255 255
0.461942 0.161206 0.951 255 255 255
-1.0749 -0.535707 2.099 255 255 255
-0.306329 -0.241886 1.535 255 255 255
0.366154 -0.680583 2.114 0 0 0
0.342954 -0.153933 1.459 255 255 255
-0.0786771 0.189235 0.854 255 255 255
0.529207 -0.775631 2.092 255 255 255
0.17444 0.280845 0.737 0 0 0
0.321121 0.182113 0.887 255 255 255
0.606981 -0.0116676 1.229 255 255 255
0.215234 -0.840093 2.189 255 255 255
0.0709221 0.239357 0.746 0 0 0
1.24364 -0.679501 2.43 255 255 255
0.105061 -0.231902 1.487 0 0 0
-0.144054 0.220885 0.793 255 255 255
0.432429 -0.0597439 1.319 255 255 255
-0.0630886 0.184199 0.85 255 255 255
-0.599418 -0.215776 1.563 0 0 0
-0.547604 -0.125478 1.381 255 255 255
0.494557 -0.351355 1.848 255 255 255
-0.785103 -0.302291 1.789 255 255 255
-0.284266 -0.0468193 1.26 255 255 255
0.354564 -0.060378 1.333 255 255 255
0.345669 -0.410099 1.941 255 255 255
-0.141324 0.140604 0.969 255 255 255
0.0468822 0.213226 0.77 255 255 255
-0.94639 -0.544428 2.189 0 0 0
-0.0946301 0.220457 0.769 255 255 255
-0.375498 0.226592 0.828 255 255 255
0.112322 -0.219803 1.487 255 255 255
-0.0707369 0.163679 0.913 255 255 255
-0.109073 0.17899 0.923 255 255 255
0.444028 -0.365837 1.876 255 255 255
-0.0354214 0.128764 0.963 255 255 255
-0.421258 0.108701 1.041 255 255 255
-0.194618 -0.634363 1.941 255 255 255
-0.12314 -0.0878879 1.291 255 255 255
0.415171 0.23843 0.827 0 0 0
-0.736019 -0.709188 2.107 255 255 255
0.424929 0.000332304 1.229 0 0 0
0.0986368 -0.364667 1.87 0 0 0
0.00764166 -0.492089 1.953 255 255 255
0.124366 -0.800101 2.158 255 255 255
-0.82649 -0.681627 2.128 0 0 0
-0.525152 -0.092565 1.393 255 255 255
-0.2768 0.0194554 1.176 255 255 255
0.852067 -0.526109 2.312 0 0 0
-0.123303 0.261396 0.704 255 255 255
-0.334256 0.261355 0.779 255 255 255
0.856416 -0.621571 2.42 0 0 0
-0.182075 0.260236 0.733 255 255 255
-0.0641674 0.215294 0.764 255 255 255
-0.581915 -0.0120094 1.265 255 255 255
0.0503257 -0.0769088 1.217 255 255 255
0.938061 -0.553799 2.469 0 0 0
-0.332167 -0.00529873 1.149 255 255 255
0.338141 0.196737 0.875 0 0 0
-0.381361 0.195387 0.869 255 255 255
-0.44673 0.0532534 1.122 255 255 255
-0.247995 0.266165 0.72 0 0 0
-0.0159214 -0.671238 2.128 0 0 0
-0.172867 0.219771 0.789 255 255 255
0.506554 -0.0737237 1.339 255 255 255
0.35824 0.140997 0.994 255 255 255
-0.00567257 0.105913 0.969 255 255 255
-0.239071 -0.314176 1.696 0 0 0
0.455401 -0.727053 2.051 255 255 255
-0.476537 0.0594915 1.07 255 255 255
0.260303 0.129216 1.029 0 0 0
-0.106711 0.257312 0.693 0 0 0
-0.672481 -0.290812 1.642 255 255 255
-0.311276 0.0534593 1.089 255 255 255
-0.472195 -0.702809 2.078 255 255 255
-0.0442806 0.25732 0.687 255 255 255
0.588332 -0.738061 2.121 255 255 255
-0.207256 -0.624887 1.941 0 0 0
0.168299 -0.524295 2.136 255 255 255
-0.87721 -0.731374 2.092 0 0 0
1.08992 -0.51743 2.449 255 255 255
-0.604796 -0.712793 2.128 255 255 255
0.286341 -0.217985 1.579 255 255 255
0.478553 -0.539407 1.929 255 255 255
-0.224443 0.238517 0.751 255 255 255
0.608457 -0.81548 2.107 0 0 0
0.65958 -0.289618 1.714 255 255 255
-0.310559 -0.736315 1.935 0 0 0
0.100489 0.201409 0.841 255 255 255
0.103331 -0.426654 1.959 255 255 255
-0.15455 0.259288 0.727 255 255 255
0.0584642 0.162874 0.847 0 0 0
-0.401086 0.186769 0.875 255 255 255
0.41375 0.031043 1.18 255 255 255
-0.188887 0.237753 0.741 255 255 255
-0.31871 0.0318738 1.141 255 255 255
0.0991376 0.239854 0.767 255 255 255
0.235157 0.213349 0.775 255 255 255
-0.583553 -0.442117 2.03 255 255 255
0.547343 -0.24464 1.637 255 255 255
-0.326654 0.157106 0.918 255 255 255
-0.480574 -0.562671 2.085 255 255 255
0.402 0.0253894 1.185 255 255 255
-0.329343 -0.705026 1.953 0 0 0
0.283869 0.155433 0.983 255 255 255
-0.178106 -0.279131 1.668 255 255 255
-0.126177 -0.284486 1.7 0 0 0
-0.930409 -0.65046 2.128 0 0 0
0.156981 0.249854 0.707 255 255 255
-0.441497 0.0931705 1.057 255 255 255
-0.331636 0.145852 0.932 255 255 255
0.345796 -0.171941 1.513 255 255 255
0.0721373 0.228855 0.772 0 0 0
0.0367581 -0.0795375 1.227 255 255 255
-0.623506 -0.127204 1.4 255 255 255
0.379936 0.136966 1 0 0 0
0.363046 0.0934349 1.06 255 255 255
0.637288 -0.347172 1.826 255 255 255
-0.150434 -0.0555887 1.273 0 0 0
-0.443413 0.122956 0.992 255 255 255
-0.240328 -0.616037 1.953 255 255 255
-1.01924 -0.212938 1.929 0 0 0
0.028522 -0.586422 2.085 255 255 255
-0.332338 0.0236968 1.106 255 255 255
-0.0537585 0.133038 0.983 255 255 255
-0.401903 -0.443469 1.935 255 255 255
-0.488076 -0.466023 1.991 255 255 255
-0.385281 0.129413 0.992 255 255 255
-0.390577 -0.0996479 1.336 0 0 0
-0.0688807 0.2488 0.676 255 255 255
0.339951 0.225028 0.858 255 255 255
-0.145332 0.0924021 1.068 255 255 255
-0.435807 -0.697348 2.004 255 255 255
0.410987 0.0819742 1.068 255 255 255
-0.0889502 0.255052 0.678 0 0 0
0.0321837 0.0996055 0.969 255 255 255
0.531937 0.0252394 1.178 255 255 255
-0.186083 0.27105 0.73 255 255 255
0.954846 -0.650532 2.44 255 255 255
-0.392092 0.128443 0.997 255 255 255
1.31723 -0.490908 2.582 255 255 255
-0.655411 -0.0953084 1.4 255 255 255
-0.137084 0.0637508 1.114 255 255 255
0.206838 0.188754 0.905 255 255 255
0.0652633 0.156301 0.864 255 255 255
-0.0781078 0.211915 0.779 255 255 255
-0.131601 0.234544 0.731 255 255 255
-1.01662 -0.427067 2.037 255 255 255
0.00288763 0.230786 0.738 255 255 255
-0.160417 -0.156309 1.416 255 255 255
-0.222696 -0.0137566 1.237 255 255 255
-0.562165 -0.421135 1.978 255 255 255
-0.109544 0.242395 0.719 255 255 255
0.328953 0.0329324 1.114 255 255 255
-0.0750901 -0.83018 2.136 255 255 255
0.465157 0.137977 0.984 255 255 255
0.0408191 -0.0816672 1.229 255 255 255
-0.10507 0.145984 0.984 255 255 255
0.241825 -0.0444136 1.31 255 255 255
-0.388565 0.235243 0.83 0 0 0
0.0145551 0.0487691 1.064 255 255 255
0.420856 -0.101195 1.387 255 255 255
0.133428 -0.121089 1.357 255 255 255
0.465336 0.139153 0.981 255 255 255
1.05404 -0.740609 2.449 255 255 255
-0.213426 0.276304 0.722 255 255 255
-0.0419011 -0.241883 1.551 255 255 255
0.699497 -0.232311 1.607 255 255 255
-0.374349 0.139458 0.972 255 255 255
-0.0777977 0.0386465 1.122 255 255 255
1.01859 -0.7041 2.489 255 255 255
0.130911 0.265489 0.685 255 255 255
-0.089623 -0.818508 2.151 0 0 0
-0.418617 -0.577157 2.064 0 0 0
0.396364 0.110904 1.03 255 255 255
0.0417046 0.13969 0.902 255 255 255
-0.683879 -0.135635 1.393 255 255 255
-0.939473 -0.505087 2.173 0 0 0
0.223534 0.272452 0.757 255 255 255
0.745972 -0.857322 2.253 255 255 255
0.702175 -0.20708 1.555 255 255 255
-0.00751926 0.0902223 1.005 255 255 255
0.135355 0.218249 0.812 0 0 0
-0.269497 0.152613 0.927 255 255 255
0.0295425 -0.108332 1.26 255 255 255
-0.362136 0.19776 0.867 255 255 255
-0.413266 -0.713568 1.959 255 255 255
-0.0436331 -0.775127 2.128 255 255 255
-0.142669 0.173516 0.88 0 0 0
0.638771 -0.153013 1.473 255 255 255
-0.324543 0.0872975 1.009 255 255 255
0.619175 -0.666661 2.181 0 0 0
-0.662529 -0.0723462 1.354 255 255 255
0.543113 0.0958781 1.068 255 255 255
0.266955 -0.158682 1.459 0 0 0
-0.289425 0.270784 0.739 0 0 0
0.1028 0.0496793 1.012 255 255 255
0.389422 0.143797 0.991 255 255 255
0.0288226 0.259931 0.697 0 0 0
-0.000831832 0.180138 0.857 255 255 255
-0.39948 -0.359991 1.758 255 255 255
0.151879 0.233318 0.75 255 255 255
0.415796 0.198037 0.856 255 255 255
-0.207062 0.247264 0.737 255 255 255
0.138449 0.2382 0.75 255 255 255
-0.342123 -0.0277351 1.232 255 255 255
0.14441 0.0993788 1.015 255 255 255
0.14698 -0.227155 1.52 255 255 255
0.24259 0.179123 0.901 0 0 0
-0.479137 -0.264513 1.612 0 0 0
-0.544115 0.0455404 1.112 255 255 255
-0.630722 -0.79189 2.099 255 255 255
-0.339687 0.178216 0.882 255 255 255
0.177192 0.199584 0.875 255 255 255
0.256946 0.163749 0.966 255 255 255
-0.247535 0.258815 0.729 255 255 255
-0.0255714 -0.295254 1.637 0 0 0
0.18323 0.154477 0.967 0 0 0
-0.183994 -0.504876 1.929 0 0 0
-0.348953 0.215351 0.842 255 255 255
-0.552343 0.0520194 1.096 255 255 255
-0.050855 0.206931 0.789 255 255 255
1.19813 -0.486915 2.561 255 255 255
-0.434892 0.182108 0.88 0 0 0
0.717689 -0.164555 1.513 255 255 255
0.110907 0.198216 0.869 255 255 255
-0.550868 -0.754599 2.189 0 0 0
0.465158 0.0818139 1.089 0 0 0
0.366021 -0.199998 1.579 255 255 255
0.0128452 0.116387 0.939 0 0 0
-0.161997 -0.144391 1.39 255 255 255
0.436539 0.116695 1.022 255 255 255
0.0149008 0.227183 0.738 0 0 0
-0.0610505 -0.0325169 1.187 255 255 255
0.109608 0.0141129 1.062 0 0 0
0.0544863 -0.75262 2.173 255 255 255
-1.00684 -0.365055 2.024 0 0 0
0.166755 0.180181 0.945 255 255 255
0.0803637 -0.200441 1.435 255 255 255
0.56701 -0.0742192 1.348 255 255 255
-0.323158 -0.752059 1.935 255 255 255
0.383264 0.0743135 1.083 255 255 255
0.439529 0.110797 1.029 255 255 255
-0.63867 -0.780348 2.114 255 255 255
-0.91459 -0.391405 2.024 255 255 255
-0.283917 0.245089 0.809 255 255 255
-0.519134 -0.29949 1.691 255 255 255
-0.26935 0.252181 0.782 255 255 255
0.472173 0.0214781 1.182 255 255 255
0.350364 -0.596252 2.004 255 255 255
-0.2812 0.280615 0.718 255 255 255
0.17444 0.246275 0.727 255 255 255
-0.334698 0.241306 0.814 0 0 0
-0.556558 -0.308656 1.696 255 255 255
-0.580937 -0.00374228 1.254 255 255 255
1.03031 -0.87289 2.44 255 255 255
-0.225681 0.243231 0.743 255 255 255
0.308589 0.173258 0.901 255 255 255
-0.394474 -0.213431 1.528 255 255 255
0.544722 -0.514334 1.941 255 255 255
0.263588 0.217407 0.804 255 255 255
0.016294 0.19852 0.807 255 255 255
-0.181709 0.226342 0.772 255 255 255
-0.439747 0.044714 1.137 255 255 255
1.07301 -0.752658 2.411 255 255 255
0.0905927 0.251755 0.719 255 255 255
0.627522 -0.0569861 1.305 255 255 255
0.916594 -0.583239 2.392 255 255 255
-0.289851 -0.418813 1.923 255 255 255
-0.175125 0.273535 0.724 255 255 255
-0.77788 -0.23895 1.691 255 255 255
0.0210674 -0.0907615 1.244 255 255 255
0.168729 -0.421135 1.978 0 0 0
-0.0339642 0.0295172 1.122 255 255 255
-0.425082 -0.179328 1.513 255 255 255
-0.269953 -0.311582 1.682 0 0 0
0.236948 -0.553497 2.128 255 255 255
-0.116592 0.253737 0.705 255 255 255
-0.54066 -0.530967 2.121 255 255 255
1.28183 -0.469665 2.604 255 255 255
0.573686 -0.00563538 1.222 255 255 255
0.383293 0.296311 0.771 255 255 255
1.05728 -0.863205 2.402 255 255 255
0.656236 -0.0738889 1.342 255 255 255
0.180941 0.277459 0.744 255 255 255
-0.121038 -0.0878879 1.291 255 255 255
-0.633755 -0.189232 1.494 255 255 255
-1.08755 -0.694748 2.158 0 0 0
-0.671612 -0.0770364 1.359 255 255 255
-0.360505 0.21952 0.837 255 255 255
0.572455 -0.0458703 1.291 255 255 255
0.055393 0.258729 0.662 255 255 255
0.143827 0.249302 0.699 255 255 255
0.21254 0.108643 1.009 255 255 255
-0.111363 0.222626 0.781 255 255 255
-0.128205 0.159331 0.931 255 255 255
0.625002 -0.305635 1.758 255 255 255
0.407351 0.184166 0.883 255 255 255
0.567321 0.0139474 1.196 255 255 255
0.211065 0.140501 1.002 0 0 0
-0.0682095 -0.0145967 1.145 255 255 255
0.439217 0.0703648 1.104 255 255 255
0.083556 0.04086 1.039 0 0 0
0.357367 0.159109 0.957 255 255 255
0.235067 0.14448 1.007 255 255 255
0.0967052 0.117998 0.952 255 255 255
-0.0842462 -0.0471244 1.215 255 255 255
0.347313 -0.354587 1.865 255 255 255
-0.144065 -0.57119 1.941 255 255 255
0.0529047 0.110796 0.918 255 255 255
-0.219185 0.115255 1.039 255 255 255
-0.259987 -0.141477 1.406 0 0 0
-0.0854963 0.0899001 1.059 255 255 255
-0.124486 0.191488 0.904 255 255 255
0.314107 0.173066 0.9 0 0 0
-0.185047 0.169989 0.884 255 255 255
-0.626851 -0.027025 1.294 255 255 255
0.673598 -0.204098 1.571 255 255 255
0.0583219 0.0595605 1.012 255 255 255
0.0379628 -0.0424718 1.143 255 255 255
0.549148 -0.419443 1.87 255 255 255
0.402173 0.112799 1.032 0 0 0
-0.260719 -0.0860722 1.362 255 255 255
0.16769 -0.707483 2.22 255 255 255
-0.417183 -0.153736 1.435 255 255 255
-0.156694 0.205271 0.84 0 0 0
-0.130643 0.217462 0.814 255 255 255
0.370622 0.0809123 1.077 255 255 255
-0.00690778 -0.0380859 1.18 255 255 255
-0.028364 0.137486 0.937 255 255 255
1.18468 -0.426728 2.55 255 255 255
0.0295859 -0.00150349 1.108 255 255 255
0.151589 0.212163 0.814 255 255 255
-0.328792 -0.298395 1.583 255 255 255
0.585201 -0.142062 1.459 255 255 255
-0.123862 0.2327 0.764 255 255 255
0.30438 0.100335 1.06 255 255 255
-0.0826804 -0.131546 1.351 255 255 255
-0.252948 0.100335 1.06 255 255 255
0.41921 0.237085 0.827 255 255 255
-0.332864 0.237915 0.816 0 0 0
-0.0740669 0.209765 0.79 255 255 255
0.0955373 0.0951274 0.988 255 255 255
-0.225298 0.116608 1.036 255 255 255
0.1364 -0.27539 1.599 0 0 0
0.472456 -0.408148 1.917 0 0 0
-0.0287308 0.224175 0.748 255 255 255
0.581467 -0.076583 1.351 255 255 255
0.607546 -0.200002 1.559 255 255 255
-0.0277537 -0.0731251 1.254 255 255 255
0.34822 -0.0651534 1.342 255 255 255
-0.101666 0.246173 0.713 255 255 255
0.317691 -0.108978 1.4 0 0 0
-0.482846 -0.145401 1.422 255 255 255
-0.370115 -0.246931 1.551 255 255 255
-0.367966 0.252191 0.786 255 255 255
0.341111 0.162056 0.938 255 255 255
0.355306 0.137514 1.004 255 255 255
-0.1976 0.13902 1.015 255 255 255
0.258039 0.216466 0.791 255 255 255
-0.477985 0.111705 1.007 255 255 255
-0.270695 0.163548 0.896 0 0 0
-0.311881 0.16519 0.897 0 0 0
-1.00011 -0.448601 2.107 255 255 255
-0.20798 0.254114 0.736 0 0 0
0.224775 0.213074 0.774 255 255 255
-0.277048 0.196873 0.857 255 255 255
-0.534302 -0.769503 2.151 0 0 0
0.200122 0.215606 0.812 255 255 255
-0.459168 -0.113496 1.372 0 0 0
0.337613 0.136966 1 255 255 255
-0.366189 -0.0517935 1.232 255 255 255
0.39089 -0.778226 2.099 255 255 255
-0.0586848 0.0542938 1.106 255 255 255
-0.112817 -0.560282 1.947 255 255 255
-0.272369 0.245492 0.806 255 255 255
-0.303316 -0.727754 1.929 0 0 0
0.201409 -0.113799 1.432 0 0 0
-0.501338 -0.328744 1.744 255 255 255
-0.159456 0.213049 0.833 0 0 0
-0.369929 -0.171839 1.47 0 0 0
0.446381 -0.512476 1.899 255 255 255
-1.04575 -0.796018 2.166 255 255 255
-0.346739 0.249861 0.799 255 255 255
-0.432639 0.1524 0.954 255 255 255
-0.361134 -0.666888 1.953 255 255 255
-0.253045 -0.609681 1.953 255 255 255
-0.525618 -0.618245 2.173 255 255 255
0.371939 0.0943519 1.051 0 0 0
-0.555044 -0.343049 1.789 255 255 255
0.290595 -0.146731 1.435 0 0 0
0.465302 -0.0242068 1.257 255 255 255
-0.58099 -0.0382794 1.319 255 255 255
-0.0695564 0.232416 0.755 255 255 255
0.52505 -0.0372346 1.283 255 255 255
0.48237 -0.359497 1.859 255 255 255
-0.3176 -0.566923 1.959 255 255 255
1.14476 -0.813951 2.43 255 255 255
-0.244253 -0.336145 1.753 255 255 255
0.130731 0.253799 0.702 255 255 255
-0.597339 -0.336248 1.71 255 255 255
-0.0427515 -0.599994 2.085 255 255 255
-0.421457 0.117038 1.025 255 255 255
0.376994 0.215862 0.844 0 0 0
0.0555052 0.231184 0.751 255 255 255
-0.246687 -0.641463 1.953 255 255 255
0.254176 0.216466 0.791 255 255 255
-0.635226 -0.397537 1.853 255 255 255
-0.407477 0.134121 0.991 255 255 255
-0.203988 0.232062 0.766 255 255 255
-0.186978 0.226636 0.773 0 0 0
-0.322343 -0.238296 1.528 255 255 255
0.228394 0.0689408 1.11 0 0 0
-0.514921 -0.0904926 1.396 255 255 255
-0.737017 -0.616972 2.181 255 255 255
-0.316114 -0.195605 1.487 255 255 255
-1.12534 -0.658533 2.143 255 255 255
-0.163526 -0.411367 1.947 255 255 255
-0.188871 0.0513359 1.12 255 255 255
0.220847 0.134329 1.017 0 0 0
-0.506084 -0.145742 1.403 255 255 255
-0.102094 -0.513073 1.985 0 0 0
1.24082 -0.63862 2.44 255 255 255
-0.131767 0.213988 0.821 255 255 255
-0.296133 -0.248812 1.547 255 255 255
-0.303103 0.246191 0.804 255 255 255
-0.518918 -0.422626 1.985 0 0 0
0.798579 -0.869046 2.236 255 255 255
0.869225 -0.733545 2.479 255 255 255
0.584092 -0.223348 1.599 255 255 255
-0.332598 0.139307 0.939 255 255 255
0.317382 0.00818988 1.208 255 255 255
0.132589 -0.280948 1.616 0 0 0
0.354293 0.257663 0.799 0 0 0
-0.0214248 -0.0144693 1.135 255 255 255
0.17212 -0.488166 2.057 255 255 255
0.224483 0.161885 0.955 255 255 255
-0.19565 0.192188 0.861 255 255 255
-0.207343 0.19123 0.863 255 255 255
-0.256676 0.26083 0.728 255 255 255
0.401816 0.236594 0.83 255 255 255
-0.266399 -0.00564921 1.225 255 255 255
-0.669697 -0.317057 1.682 255 255 255
-0.00076777 0.20102 0.791 255 255 255
0.190408 0.194384 0.897 255 255 255
-0.414054 -0.665768 1.978 255 255 255
0.0045791 -0.540812 2.004 255 255 255
0.388407 -0.282891 1.724 255 255 255
0.155216 -0.171159 1.528 255 255 255
0.536018 -0.707544 2.092 255 255 255
0.225924 -0.818719 2.189 255 255 255
0.152506 0.237011 0.724 255 255 255
-0.221428 0.265933 0.729 0 0 0
-0.641544 -0.00794216 1.273 255 255 255
0.5036 0.128856 1.013 255 255 255
0.0293362 0.181095 0.842 255 255 255
0.25986 0.0672639 1.083 255 255 255
0.0812511 0.258018 0.68 255 255 255
-0.497632 -0.214672 1.555 255 255 255
0.403421 0.182113 0.887 255 255 255
0.0287548 0.066344 1.015 255 255 255
1.01818 -0.560869 2.43 255 255 255
0.0570688 -0.257995 1.498 255 255 255
0.213031 0.250165 0.768 255 255 255
0.07535 -0.0360848 1.118 255 255 255
-0.19205 -0.436714 1.947 255 255 255
0.22779 0.267161 0.763 255 255 255
0.0601561 0.240049 0.692 255 255 255
-0.150473 0.160062 0.901 0 0 0
-0.570727 -0.482855 2.092 255 255 255
-0.237971 0.229384 0.814 255 255 255
0.106688 -0.0658693 1.162 255 255 255
0.228778 -0.0245149 1.273 255 255 255
-0.244413 -0.676486 1.935 255 255 255
-0.179755 0.0586263 1.12 255 255 255
0.441499 0.190184 0.891 0 0 0
-0.497501 0.139578 0.984 255 255 255
0.0190526 -0.658551 2.166 255 255 255
-0.644238 -0.693191 2.121 255 255 255
0.0663048 -0.00324987 1.089 255 255 255
-0.504301 -0.774811 2.099 0 0 0
-0.333559 -0.54989 1.978 0 0 0
-0.319076 0.00427588 1.213 255 255 255
-0.581152 -0.71433 2.143 0 0 0
-0.0995812 0.201927 0.879 0 0 0
-0.1271 0.240055 0.719 255 255 255
-0.300176 -0.70578 1.929 0 0 0
-0.354229 -0.0129003 1.16 255 255 255
-0.385544 0.258335 0.77 255 255 255
1.25557 -0.867193 2.469 255 255 255
-0.0717924 -0.0641853 1.239 255 255 255
-0.974057 -0.315791 2.004 0 0 0
-0.164387 0.140997 0.994 255 255 255
0.268964 -0.319062 1.769 255 255 255
0.214299 -0.01389 1.249 255 255 255
0.288529 -0.818508 2.151 255 255 255
0.298258 -0.0378731 1.305 255 255 255
-0.0643205 0.185146 0.848 255 255 255
-0.128962 -0.168898 1.425 255 255 255
0.152331 0.203482 0.905 0 0 0
0.260284 0.216193 0.79 255 255 255
-0.402284 0.162885 0.934 255 255 255
0.352909 0.235063 0.839 255 255 255
0.235388 0.208115 0.869 255 255 255
-0.281528 0.0607727 1.126 255 255 255
0.264157 0.0892209 1.051 255 255 255
-0.219907 0.213816 0.836 0 0 0
0.217296 0.213081 0.788 255 255 255
-0.259779 -0.00563538 1.222 255 255 255
-0.066176 0.253651 0.66 0 0 0
0.671814 -0.214463 1.591 255 255 255
0.0429661 -0.619294 2.128 255 255 255
1.25531 -0.446583 2.593 255 255 255
-0.260789 0.207867 0.845 255 255 255
0.288543 0.284491 0.753 255 255 255
1.34856 -0.32381 2.695 0 0 0
-0.00207355 0.198903 0.798 255 255 255
-0.153947 -0.264091 1.642 0 0 0
0.604752 -0.376195 1.882 255 255 255
-0.871926 -0.521143 2.181 0 0 0
0.273689 0.0597695 1.075 255 255 255
-0.726672 -0.119694 1.419 255 255 255
-0.879796 -0.354335 1.947 0 0 0
0.0367588 -0.226242 1.466 255 255 255
-0.0818937 0.0914504 1.057 255 255 255
-0.0804763 -0.558786 2.01 0 0 0
-0.615188 -0.733571 2.128 255 255 255
0.499331 -0.313305 1.769 255 255 255
-0.147893 0.177206 0.877 0 0 0
1.19713 -0.531412 2.44 255 255 255
-0.306248 0.212996 0.849 255 255 255
0.102907 0.248852 0.749 0 0 0
-0.483968 -0.667853 2.085 255 255 255
0.0711241 0.0691216 0.984 0 0 0
0.379818 0.0137841 1.182 255 255 255
0.226548 0.268403 0.763 255 255 255
-0.347298 0.209985 0.848 255 255 255
0.443632 0.143071 0.986 255 255 255
-0.526261 0.0353067 1.132 255 255 255
0.322364 -0.0443458 1.308 255 255 255
-0.289674 0.214743 0.845 255 255 255
-0.568045 -0.0989376 1.387 255 255 255
1.05254 -0.892243 2.365 255 255 255
0.278853 0.176474 0.895 255 255 255
-0.014996 0.112741 0.96 255 255 255
-0.0513247 0.221004 0.758 255 255 255
-0.0649781 -0.572922 2.037 255 255 255
-0.138007 -0.201927 1.498 255 255 255
-0.854202 -0.619294 2.128 255 255 255
-0.951521 -0.247564 1.882 0 0 0
-0.132922 -0.380072 1.917 255 255 255
0.219719 0.288009 0.74 255 255 255
0.575098 0.0252823 1.18 255 255 255
-0.335871 -0.00337223 1.13 255 255 255
0.0844845 0.230768 0.77 255 255 255
-0.973518 -0.34751 2.037 0 0 0
-0.533586 -0.235972 1.579 255 255 255
-0.238155 0.253079 0.733 255 255 255
-0.152846 0.109432 1.048 255 255 255
0.619494 -0.0137232 1.234 255 255 255
-0.642346 -0.614709 2.173 0 0 0
-0.558057 -0.169384 1.449 255 255 255
-0.253152 -0.156641 1.419 0 0 0
0.444236 -0.320866 1.779 255 255 255
0.986249 -0.697237 2.479 255 255 255
-1.09743 -0.637608 2.143 0 0 0
-0.473884 -0.337104 1.758 255 255 255
-0.156804 0.251542 0.732 255 255 255
0.399633 -0.288502 1.724 255 255 255
0.58872 -0.36771 1.87 255 255 255
0.0651409 -0.0659604 1.198 255 255 255
0.221374 0.16033 0.955 255 255 255
-0.240015 0.0690651 1.112 255 255 255
-0.801633 -0.439446 2.064 255 255 255
0.0405718 0.230464 0.704 0 0 0
0.0567277 0.231184 0.751 255 255 255
-0.269009 -0.0137566 1.237 255 255 255
0.794605 -0.765238 2.365 255 255 255
-0.175105 -0.325555 1.805 255 255 255
0.295611 0.0944927 1.072 255 255 255
-0.55511 -0.199031 1.532 255 255 255
0.429555 0.205759 0.842 0 0 0
-0.323567 0.0187274 1.132 255 255 255
-0.623506 -0.124926 1.4 255 255 255
-0.626975 -0.762222 2.121 255 255 255
-0.595531 -0.0204997 1.281 255 255 255
-0.339824 0.201057 0.857 255 255 255
-0.0611588 0.20002 0.824 255 255 255
-0.156301 0.148143 0.918 0 0 0
-0.585721 -0.372892 1.821 255 255 255
-0.600733 -0.466097 2.078 255 255 255
-0.171102 -0.229855 1.555 0 0 0
-0.351947 0.244376 0.811 255 255 255
-0.130546 0.149899 0.948 255 255 255
-0.240221 0.0315665 1.13 255 255 255
-1.14771 -0.765286 2.22 0 0 0
-0.325352 0.246191 0.804 255 255 255
0.24592 0.098347 1.039 255 255 255
0.243053 0.126479 1.034 0 0 0
-0.521583 -0.0358864 1.31 255 255 255
0.230103 -0.205133 1.599 0 0 0
0.390124 -0.233984 1.637 0 0 0
-0.336606 0.185133 0.874 255 255 255
-0.274045 -0.115482 1.396 255 255 255
0.017672 0.110252 0.952 0 0 0
-0.323977 -0.531856 1.959 0 0 0
-0.0369212 -0.104533 1.289 255 255 255
1.01027 -0.865358 2.43 255 255 255
0.598147 0.0272025 1.18 255 255 255
-0.686509 -0.482855 2.092 255 255 255
-1.10323 -0.522335 2.114 255 255 255
-0.0193854 -0.823608 2.128 255 255 255
0.332558 0.0716384 1.096 255 255 255
-0.800922 -0.592127 2.181 255 255 255
0.0962439 0.145884 0.904 255 255 255
0.164347 0.246519 0.714 255 255 255
0.0794018 0.0488393 1.029 0 0 0
-0.0561165 0.14895 0.942 255 255 255
-0.4222 -0.0155529 1.22 255 255 255
0.0483162 0.115026 0.916 255 255 255
-0.341989 0.067782 1.037 255 255 255
0.518885 -0.0307296 1.273 255 255 255
0.324772 -0.493945 1.911 255 255 255
0.0973762 0.221332 0.804 255 255 255
-0.0715573 0.11112 1.032 255 255 255
-0.691867 -0.607636 2.173 255 255 255
0.663789 -0.0439729 1.297 255 255 255
-0.112931 0.219318 0.792 255 255 255
1.034 -0.647866 2.43 255 255 255
1.02237 -0.590972 2.44 255 255 255
0.652031 -0.728423 2.196 0 0 0
0.0422755 0.181907 0.827 255 255 255
-0.502639 -0.807638 2.078 0 0 0
-0.525618 -0.756156 2.173 0 0 0
0.353217 0.292619 0.755 255 255 255
0.393611 0.286708 0.779 255 255 255
-0.178696 -0.232385 1.555 0 0 0
0.0244289 -0.138846 1.316 255 255 255
0.220297 -0.731077 2.204 255 255 255
-0.268105 0.112799 1.032 255 255 255
0.0690401 0.1237 0.914 255 255 255
-1.07299 -0.618146 2.136 0 0 0
0.50474 -0.231554 1.62 255 255 255
0.0960294 0.185583 0.85 255 255 255
0.112768 0.172104 0.895 0 0 0
-0.461332 0.181497 0.884 0 0 0
0.274706 0.180035 0.891 0 0 0
0.0330737 0.256569 0.691 255 255 255
0.531831 0.0686924 1.106 255 255 255
0.546399 -0.123121 1.432 0 0 0
0.00412774 0.222063 0.745 255 255 255
0.676774 -0.0987236 1.384 255 255 255
0.775504 -0.851279 2.286 255 255 255
0.186428 -0.717284 2.228 255 255 255
-0.568954 0.0541956 1.104 255 255 255
-0.240515 -0.683806 1.929 255 255 255
0.364576 0.268724 0.782 255 255 255
0.0310969 0.219255 0.752 255 255 255
0.0464821 0.178515 0.83 255 255 255
-0.521979 -0.232811 1.575 255 255 255
0.216709 -0.569679 2.204 255 255 255
-0.735342 -0.41709 1.959 255 255 255
0.723967 -0.619008 2.253 0 0 0
-0.249236 0.176781 0.882 255 255 255
0.414459 -0.396908 1.923 0 0 0
-0.23959 -0.455724 1.947 255 255 255
0.826761 -0.824343 2.347 255 255 255
0.205143 0.141422 0.997 0 0 0
-0.310536 0.14511 0.937 255 255 255
0.591228 -0.522292 1.959 255 255 255
0.389109 0.0376411 1.147 255 255 255
-0.99997 -0.791945 2.136 255 255 255
0.20998 0.268756 0.757 255 255 255
0.277322 0.12599 1.03 255 255 255
-0.43135 0.217493 0.845 255 255 255
-0.600116 -0.750233 2.136 255 255 255
-0.125314 0.119517 1.032 255 255 255
0.062212 -0.0828502 1.217 0 0 0
-0.0977372 -0.338224 1.842 255 255 255
0.373449 0.265045 0.79 255 255 255
-0.713753 -0.772227 2.092 255 255 255
-0.145761 0.146578 0.927 0 0 0
1.03336 -0.891775 2.374 255 255 255
-0.202142 0.224756 0.793 255 255 255
0.506719 -0.42826 1.882 255 255 255
-0.0937426 0.216292 0.772 255 255 255
0.252471 -0.432677 1.929 255 255 255
0.364165 0.173948 0.897 255 255 255
-0.0761008 0.250372 0.702 255 255 255
0.0278766 0.0867358 0.984 255 255 255
-0.145463 0.181663 0.871 0 0 0
0.0511367 -0.780235 2.181 255 255 255
-0.410077 -0.691253 1.959 255 255 255
0.0380462 -0.115392 1.27 0 0 0
0.0694675 0.242221 0.695 255 255 255
-0.0152996 0.148914 0.887 255 255 255
0.343218 0.156646 0.961 255 255 255
-1.02806 -0.760586 2.196 0 0 0
-0.421143 -0.712919 1.966 255 255 255
0.272108 0.0797854 1.062 255 255 255
-0.835027 -0.521154 2.196 0 0 0
-0.00460714 0.205126 0.787 0 0 0
0.19967 0.122212 0.986 255 255 255
-0.104317 -0.492165 1.966 0 0 0
-0.349291 0.222538 0.833 255 255 255
0.190484 0.218321 0.753 255 255 255
0.348084 -0.209285 1.591 255 255 255
-0.283961 -0.671176 1.947 255 255 255
0.225402 0.274189 0.755 255 255 255
-0.654408 -0.672482 2.143 255 255 255
-0.168294 -0.649276 1.929 255 255 255
-0.272762 0.238789 0.819 255 255 255
0.444841 -0.0242068 1.257 255 255 255
0.537414 -0.47389 1.893 255 255 255
0.0737258 0.217203 0.789 255 255 255
0.400218 0.294175 0.782 255 255 255
-0.0187869 0.230207 0.74 255 255 255
-0.139885 -0.0015632 1.152 255 255 255
0.044492 -0.0770984 1.22 255 255 255
0.257029 0.237984 0.765 255 255 255
-0.267288 -0.675425 1.941 255 255 255
-1.0387 -0.658551 2.166 0 0 0
0.0163546 0.196621 0.81 255 255 255
-0.18742 -0.032389 1.257 0 0 0
