ply
format ascii 1.0
comment Created by Open3D
element vertex 1309
property double x
property double y
property double z
property uchar red
property uchar green
property uchar blue
end_header
-0.629194 -0.699081 1.853 0 0 0
0.121381 -0.270228 1.299 255 255 255
-0.574475 0.586949 1.7 255 255 255
-0.018177 -0.354784 1.299 255 255 255
0.296886 -0.0757492 1.299 0 0 0
-0.668787 -0.611539 1.774 255 255 255
0.530233 0.549822 1.563 255 255 255
-0.166453 -0.231418 1.583 255 255 255
-0.338346 -0.582762 1.629 255 255 255
-0.255849 0.230298 2.107 255 255 255
-0.0556317 0.0373663 1.744 255 255 255
0.381267 0.171607 1.547 255 255 255
0.143185 -0.216261 1.305 255 255 255
0.239784 0.0874427 1.528 255 255 255
0.296872 0.114908 1.466 255 255 255
-0.558605 -0.713445 1.859 255 255 255
0.575892 -0.0417654 1.294 255 255 255
-0.940743 0.46825 1.929 255 255 255
0.613915 -0.32795 1.345 0 0 0
-0.414209 -0.0125402 2.01 255 255 255
0.635131 0.420419 1.603 255 255 255
-0.405802 0.325495 2.017 255 255 255
-0.0604987 -0.283153 1.452 255 255 255
-0.618771 -0.498858 1.805 255 255 255
0.387079 -0.183901 1.348 255 255 255
-0.961386 0.30398 2.143 255 255 255
0.308729 -0.401042 1.278 255 255 255
0.276955 0.374683 1.729 0 0 0
0.635262 0.564862 1.528 255 255 255
-0.249581 -0.331925 1.571 255 255 255
-0.219178 -0.454115 1.47 255 255 255
0.699377 0.0751149 1.435 255 255 255
-1.34681 -0.166602 2.857 255 255 255
0.286652 -0.0941906 1.291 0 0 0
0.226706 -0.163311 1.273 255 255 255
0.475755 -0.0318773 1.416 255 255 255
0.308771 -0.481111 1.351 255 255 255
-0.270869 -0.643245 1.705 255 255 255
0.340868 0.211216 1.524 255 255 255
0.130301 0.445169 1.763 255 255 255
-0.148167 0.465969 1.799 255 255 255
0.0476626 0.575206 1.591 255 255 255
0.26984 -0.148393 1.252 255 255 255
-0.369533 0.358557 1.947 255 255 255
-1.01115 -0.150991 2.519 255 255 255
-0.858992 0.615446 1.71 255 255 255
0.565711 0.257704 1.535 255 255 255
0.523452 0.0977397 1.459 255 255 255
0.0438448 0.380894 1.87 255 255 255
-0.0330654 -0.191663 1.494 0 0 0
-0.83495 0.172343 2.294 255 255 255
0.0843352 -0.0626803 1.551 255 255 255
0.579889 -0.0577509 1.275 255 255 255
-0.52809 -0.0978327 2.085 255 255 255
0.203153 -0.393336 1.322 255 255 255
0.163656 0.361376 1.848 255 255 255
0.583013 -0.268253 1.31 255 255 255
-1.17822 0.132994 2.392 255 255 255
0.425138 0.180296 1.579 0 0 0
0.311053 -0.289724 1.128 255 255 255
0.243675 -0.131495 1.286 255 255 255
0.1155 -0.20455 1.354 255 255 255
0.0588581 -0.360112 1.273 255 255 255
0.38213 0.506591 1.637 255 255 255
0.103506 -0.544911 1.432 255 255 255
-0.269921 -0.437853 1.513 255 255 255
-1.02599 0.442039 1.966 255 255 255
-0.456022 0.389245 1.911 255 255 255
-1.1987 -0.0427598 2.672 255 255 255
-0.599215 -0.367007 1.882 255 255 255
0.11127 -0.504131 1.442 255 255 255
0.339558 0.312603 1.612 255 255 255
-0.889378 0.228574 2.189 255 255 255
-0.999605 0.279946 2.173 255 255 255
0.501035 -0.457305 1.302 0 0 0
0.0287221 0.0804971 1.696 255 255 255
-0.10165 0.044548 1.805 255 255 255
-0.033131 -0.358546 1.305 255 255 255
-1.05532 -0.418281 2.278 255 255 255
-0.901892 0.554708 1.831 255 255 255
-0.0550033 -0.293235 1.432 255 255 255
-0.353004 0.452332 1.876 255 255 255
0.281845 -0.266422 1.1 255 255 255
-0.782365 0.621483 1.719 255 255 255
-0.665312 -0.435539 1.887 255 255 255
-0.389799 -0.495467 1.539 255 255 255
0.257508 -0.168076 1.232 255 255 255
0.662354 0.572761 1.516 255 255 255
-0.52949 -0.133794 2.064 255 255 255
-0.947023 -0.718336 1.929 255 255 255
-0.521661 -0.211757 1.947 255 255 255
-1.08293 0.236272 2.228 255 255 255
0.152397 0.543024 1.603 255 255 255
-0.112561 -0.299053 1.484 255 255 255
-0.105325 0.284799 1.985 255 255 255
-0.259103 -0.178567 1.719 255 255 255
-0.24833 0.351134 1.941 255 255 255
0.0697314 -0.404092 1.322 255 255 255
0.0496622 0.465465 1.753 255 255 255
-0.626486 0.603104 1.691 255 255 255
-0.996276 -0.469622 2.189 255 255 255
0.395629 -0.25284 1.225 255 255 255
0.341834 -0.0109105 1.387 255 255 255
0.0304805 0.550891 1.642 255 255 255
0.498793 0.000379351 1.403 255 255 255
0.733503 0.442389 1.607 255 255 255
-1.15343 0.0797452 2.43 255 255 255
-0.0764569 -0.596145 1.587 255 255 255
-0.683104 0.30015 2.092 255 255 255
0.0317428 0.50692 1.71 255 255 255
-0.150727 -0.63709 1.696 255 255 255
-0.592998 -0.376429 1.853 255 255 255
-0.317376 -0.210855 1.779 255 255 255
0.0538407 -0.315346 1.302 255 255 255
-0.660485 -0.73146 1.882 0 0 0
0.455708 0.209617 1.587 255 255 255
0.648573 -0.390351 1.372 0 0 0
0.643089 -0.0601073 1.281 255 255 255
-0.257549 0.197313 2.121 0 0 0
0.500742 0.429381 1.734 255 255 255
0.307355 0.403854 1.758 255 255 255
-0.3125 -0.473253 1.47 255 255 255
-0.942267 0.236452 2.196 255 255 255
0.354429 0.319427 1.62 255 255 255
-1.00994 0.421232 2.004 255 255 255
-1.41884 -0.190778 2.871 255 255 255
0.576375 -0.162061 1.232 255 255 255
0.0989532 0.379063 1.876 255 255 255
-0.660591 -0.448671 1.865 0 0 0
0.373279 -0.0524673 1.412 255 255 255
-0.417432 0.469833 1.837 255 255 255
-1.27757 -0.455188 2.479 255 255 255
0.473603 -0.0769231 1.357 255 255 255
0.182534 -0.17699 1.313 255 255 255
0.0702989 0.501189 1.7 255 255 255
0.560855 0.492077 1.607 255 255 255
-0.402913 -0.389798 1.677 255 255 255
-0.357784 -0.336255 1.696 255 255 255
-0.730423 0.51452 1.805 255 255 255
0.473737 -0.0231242 1.445 255 255 255
0.157552 0.0559471 1.551 255 255 255
-0.421172 0.513961 1.753 255 255 255
-1.09863 -0.598629 2.166 255 255 255
-0.723969 0.306959 2.092 255 255 255
0.195358 -0.166306 1.313 255 255 255
0.0206568 0.505316 1.714 255 255 255
0.435419 0.180296 1.579 0 0 0
0.4961 0.041651 1.491 255 255 255
-0.907638 0.255193 2.173 255 255 255
0.0363654 -0.0879202 1.551 255 255 255
0.295248 -0.234523 1.11 255 255 255
0.319218 0.141536 1.47 255 255 255
0.520958 -0.190242 1.273 0 0 0
-0.541993 0.505546 1.794 255 255 255
0.31887 -0.506459 1.366 255 255 255
-0.541452 0.118771 2.269 255 255 255
0.222668 -0.197259 1.239 255 255 255
0.311497 0.18128 1.502 255 255 255
-0.692549 0.616863 1.691 255 255 255
0.200458 -0.45073 1.393 255 255 255
-0.00856447 -0.50433 1.463 255 255 255
-0.1502 -0.340878 1.498 255 255 255
0.000941071 -0.241968 1.432 255 255 255
0.618909 0.379756 1.575 255 255 255
-0.789731 0.596962 1.729 255 255 255
0.225498 0.599679 1.567 255 255 255
-0.368528 -0.135032 1.893 255 255 255
-0.0968883 0.110439 1.826 255 255 255
0.781838 0.410689 1.637 255 255 255
0.34855 0.505466 1.642 255 255 255
-0.833982 0.446276 1.929 255 255 255
-1.1938 0.148564 2.392 255 255 255
-0.721514 -0.344196 2.037 255 255 255
0.393214 -0.193568 1.339 255 255 255
0.603456 0.531825 1.555 255 255 255
0.531565 0.157569 1.509 255 255 255
0.229677 -0.153554 1.278 255 255 255
-0.748276 0.644868 1.65 255 255 255
-0.309725 -0.320985 1.646 255 255 255
0.118771 0.549609 1.607 255 255 255
0.547303 -0.439729 1.359 255 255 255
0.466835 -0.41352 1.278 0 0 0
-0.916264 0.0715408 2.42 255 255 255
0.0503988 0.437629 1.779 255 255 255
0.122383 -0.185129 1.357 255 255 255
0.0556852 0.184091 1.763 255 255 255
-1.02104 0.26242 2.204 255 255 255
-0.120677 -0.191162 1.591 255 255 255
-0.906063 -0.776044 2.057 255 255 255
-0.141728 0.250022 2.044 255 255 255
-0.792727 0.39258 1.991 255 255 255
0.29947 0.579279 1.567 255 255 255
-1.05115 0.222158 2.269 255 255 255
0.662001 0.0199282 1.336 255 255 255
-0.138119 -0.619036 1.677 255 255 255
0.491297 0.466003 1.673 255 255 255
-0.189091 0.377989 1.917 255 255 255
0.608551 0.242871 1.505 255 255 255
0.130566 0.391449 1.848 255 255 255
-0.985805 -0.498114 2.143 255 255 255
0.307252 -0.499806 1.354 255 255 255
-0.875054 -0.490216 2.024 255 255 255
-0.0529328 0.397464 1.848 255 255 255
-0.9357 -0.829406 2.189 255 255 255
0.449699 0.541228 1.575 255 255 255
-0.639436 0.26376 2.128 255 255 255
-0.738639 -0.400014 1.985 255 255 255
-0.0350934 -0.225536 1.477 255 255 255
-0.696466 0.419023 1.905 255 255 255
0.517251 0.571886 1.547 255 255 255
-1.07463 -0.00773822 2.593 255 255 255
-0.0495822 0.321524 1.953 255 255 255
0.45759 -0.223722 1.299 255 255 255
-0.111787 0.291259 1.985 255 255 255
-0.321993 -0.0153156 1.947 255 255 255
-0.566692 -0.424565 1.789 255 255 255
-0.844582 0.37962 1.991 255 255 255
-0.27344 -0.189135 1.739 255 255 255
-0.0157506 0.0623678 1.729 255 255 255
-0.905035 -0.0197364 2.509 255 255 255
-0.772381 -0.658961 1.842 255 255 255
-0.113312 0.48968 1.758 255 255 255
0.160442 0.434734 1.779 255 255 255
-0.129801 0.362391 1.917 255 255 255
-0.122244 0.49681 1.763 255 255 255
0.0687552 -0.249155 1.345 255 255 255
0.583762 0.411943 1.642 255 255 255
-1.06944 -0.717482 2.024 255 255 255
0.384625 0.560306 1.571 255 255 255
0.171601 0.323594 1.805 0 0 0
-0.31929 -0.405035 1.587 255 255 255
0.347978 -0.340876 1.205 255 255 255
-0.835138 -0.117765 2.347 255 255 255
-0.052761 0.408163 1.842 255 255 255
-1.04194 -0.283511 2.392 255 255 255
-0.0528021 -0.212243 1.502 255 255 255
-0.729509 -0.0406024 2.303 0 0 0
-0.0348573 0.537153 1.7 255 255 255
0.451954 -0.465246 1.283 255 255 255
0.11484 -0.333666 1.229 255 255 255
0.499637 0.191376 1.524 255 255 255
0.0732462 0.0485413 1.642 255 255 255
0.283845 0.132043 1.498 255 255 255
-0.99949 0.201502 2.286 255 255 255
-0.711207 0.133281 2.329 255 255 255
0.263683 -0.237946 1.162 255 255 255
0.525921 -0.180812 1.265 0 0 0
-1.08266 -0.501561 2.22 255 255 255
0.737792 0.555943 1.524 255 255 255
0.241897 -0.315935 1.185 255 255 255
0.731778 0.0378567 1.439 255 255 255
-0.0270766 0.324858 1.935 255 255 255
0.00303902 -0.39788 1.33 255 255 255
-0.434198 0.0554302 2.107 255 255 255
0.213098 -0.213905 1.242 255 255 255
-0.640482 0.0534829 2.32 255 255 255
-0.228204 -0.646327 1.677 255 255 255
0.297142 -0.286868 1.124 255 255 255
0.0759594 0.568595 1.587 255 255 255
-0.678763 0.273247 2.121 255 255 255
-1.01093 0.104553 2.365 255 255 255
-0.749329 0.177222 2.261 255 255 255
0.525101 0.11577 1.477 255 255 255
0.601209 0.378682 1.603 255 255 255
0.4773 -0.0628239 1.387 255 255 255
0.454774 -0.214935 1.297 255 255 255
-0.421804 0.383025 1.911 255 255 255
0.702113 0.489461 1.607 255 255 255
-0.449405 0.0452938 2.114 255 255 255
0.294972 -0.559264 1.445 255 255 255
0.312195 -0.0572044 1.31 255 255 255
0.550147 -0.300339 1.339 255 255 255
-0.0274842 -0.49244 1.456 255 255 255
0.558258 -0.0314297 1.302 0 0 0
-0.0520361 0.0172491 1.719 255 255 255
0.405808 -0.463227 1.289 0 0 0
0.156077 -0.0449312 1.466 255 255 255
-0.522985 0.421663 1.917 255 255 255
0.479246 -0.423372 1.289 0 0 0
-1.19437 -0.471592 2.303 255 255 255
-0.292831 -0.361573 1.612 255 255 255
-0.240263 -0.375057 1.528 255 255 255
0.194434 -0.211553 1.252 255 255 255
0.63961 -0.116716 1.308 255 255 255
0.426502 0.307748 1.686 0 0 0
0.537137 -0.178389 1.234 255 255 255
-0.663845 -0.620793 1.784 255 255 255
0.0787761 0.310521 1.905 0 0 0
-0.335692 -0.217254 1.784 255 255 255
0.645613 0.523045 1.559 255 255 255
0.0463155 -0.33033 1.27 255 255 255
-0.735392 -0.618058 1.81 255 255 255
-0.591712 0.346387 2.024 255 255 255
0.465511 0.118482 1.612 255 255 255
-0.117864 0.394327 1.876 255 255 255
0.347995 -0.54879 1.412 255 255 255
-1.10323 0.351469 2.114 255 255 255
-0.342039 0.585794 1.673 255 255 255
0.0570348 0.549214 1.637 255 255 255
0.571319 0.492077 1.607 255 255 255
-0.74061 -0.478271 1.923 255 255 255
-0.511557 -0.322151 1.853 255 255 255
0.519491 -0.490145 1.322 0 0 0
-0.0556496 0.608378 1.583 255 255 255
0.497176 0.0421539 1.509 255 255 255
-0.653771 0.63907 1.642 255 255 255
0.0733761 0.568595 1.587 255 255 255
-0.156764 0.450421 1.831 255 255 255
-0.982156 -0.045151 2.561 255 255 255
0.714235 0.497433 1.599 255 255 255
0.572027 0.108148 1.409 0 0 0
-0.531484 0.255037 2.085 255 255 255
0.135493 -0.461574 1.378 255 255 255
0.359267 -0.470691 1.359 255 255 255
0.638001 -0.269385 1.275 255 255 255
-0.952733 0.223776 2.212 255 255 255
0.573298 -0.00180066 1.327 255 255 255
0.427708 0.170017 1.579 0 0 0
-0.127518 0.622147 1.612 255 255 255
-0.120434 -0.129139 1.659 255 255 255
0.490525 0.50789 1.591 255 255 255
0.225411 0.410976 1.789 255 255 255
-0.136062 -0.19201 1.62 255 255 255
-0.276465 0.374869 1.917 255 255 255
-0.638363 0.254324 2.136 255 255 255
0.641739 -0.127359 1.308 255 255 255
0.69994 -0.383653 1.372 255 255 255
0.517244 0.0510774 1.416 255 255 255
0.466166 -0.0577499 1.429 255 255 255
0.268975 -0.4703 1.339 0 0 0
-0.849701 0.563694 1.784 255 255 255
-0.488928 0.453778 1.882 255 255 255
-0.30573 -0.505678 1.532 255 255 255
0.190976 -0.0901036 1.39 255 255 255
-0.984144 0.159194 2.32 255 255 255
0.240247 0.146432 1.547 255 255 255
-0.908642 -0.0444105 2.519 255 255 255
0.2994 -0.0380182 1.31 0 0 0
0.545499 0.264948 1.563 255 255 255
0.293016 -0.393258 1.273 255 255 255
-0.0926959 -0.382814 1.369 255 255 255
0.089841 -0.210809 1.366 255 255 255
0.637227 -0.355005 1.348 255 255 255
-0.273268 -0.0779004 1.853 255 255 255
-0.747806 0.310363 2.092 255 255 255
-0.22865 0.244036 2.078 255 255 255
-0.719021 0.52305 1.784 255 255 255
0.0951648 -0.151272 1.412 255 255 255
0.644307 0.319498 1.52 255 255 255
-0.233251 0.342715 1.947 255 255 255
-0.74273 0.164301 2.286 255 255 255
0.60449 -0.131926 1.27 0 0 0
0.378752 -0.435372 1.319 255 255 255
-0.616715 -0.52062 1.799 255 255 255
-0.674417 0.181542 2.269 255 255 255
-0.852822 0.43372 1.929 255 255 255
-0.565851 -0.364367 1.853 255 255 255
-0.16613 0.174353 1.978 0 0 0
-0.68839 -0.543291 1.826 255 255 255
-0.766755 -0.117544 2.269 255 255 255
0.56205 0.0614495 1.39 255 255 255
0.365476 0.498661 1.646 255 255 255
0.187998 -0.299905 1.198 255 255 255
0.591215 0.197893 1.48 255 255 255
0.651985 -0.18267 1.278 255 255 255
0.164618 0.548101 1.595 255 255 255
0.184244 -0.229889 1.252 255 255 255
-0.98973 -0.560782 2.078 255 255 255
0.317989 -0.309269 1.16 255 255 255
0.252811 -0.25354 1.147 255 255 255
-0.17505 -0.37112 1.502 255 255 255
-0.0354412 -0.324483 1.396 255 255 255
0.306998 0.195305 1.516 255 255 255
0.00566962 -0.494788 1.449 255 255 255
-0.320261 0.516893 1.763 255 255 255
0.54193 -0.0661832 1.319 255 255 255
0.217399 -0.316436 1.232 255 255 255
-0.0337902 0.29382 1.959 255 255 255
-0.765576 0.596306 1.719 255 255 255
-0.511616 -0.349185 1.821 255 255 255
0.00625654 0.588507 1.599 255 255 255
0.536281 0.447675 1.686 255 255 255
0.795531 0.205483 1.595 255 255 255
0.0184634 -0.563019 1.532 0 0 0
-0.342907 0.59889 1.664 255 255 255
-0.168137 -0.527094 1.551 255 255 255
-0.272065 -0.117005 1.805 255 255 255
0.169064 -0.395556 1.308 255 255 255
0.104023 0.423463 1.805 255 255 255
-0.431509 0.445208 1.859 255 255 255
0.192684 -0.141845 1.324 255 255 255
-0.859743 0.210337 2.261 255 255 255
0.710918 0.0758478 1.449 255 255 255
0.528017 0.210662 1.52 255 255 255
0.519436 0.0628641 1.422 255 255 255
-0.358786 0.512895 1.769 255 255 255
-0.556165 -0.432552 1.774 255 255 255
-0.194208 0.421803 1.876 255 255 255
0.450447 0.31082 1.673 255 255 255
0.176709 0.558264 1.587 255 255 255
-0.0935638 0.245863 2.01 0 0 0
0.130939 -0.263989 1.31 255 255 255
-0.644903 0.602128 1.696 255 255 255
0.372594 0.0192026 1.445 255 255 255
0.267175 -0.235575 1.169 255 255 255
0.355754 -0.297943 1.16 255 255 255
-0.711147 0.384577 2.017 255 255 255
0.631318 0.474967 1.62 255 255 255
0.575839 0.0935192 1.396 255 255 255
-0.961141 0.504309 1.865 255 255 255
0.831711 0.362548 1.673 255 255 255
0.280788 -0.0278396 1.333 255 255 255
-0.058815 0.591109 1.599 255 255 255
0.124437 -0.330586 1.225 255 255 255
0.536261 0.237674 1.551 0 0 0
0.683896 0.399718 1.583 255 255 255
-0.605362 -0.302705 1.941 255 255 255
0.630273 0.264382 1.516 255 255 255
-0.135921 -0.384559 1.425 255 255 255
0.710503 0.555943 1.524 255 255 255
0.603282 0.234428 1.498 255 255 255
-0.0202419 -0.0288607 1.637 255 255 255
-0.832444 0.498125 1.876 255 255 255
0.40765 0.194611 1.591 255 255 255
-0.522817 -0.0661985 2.051 255 255 255
-0.233419 -0.273943 1.637 255 255 255
0.479477 0.00797072 1.547 0 0 0
0.464755 -0.168112 1.278 255 255 255
-0.147312 -0.210338 1.599 255 255 255
-0.164496 -0.38712 1.452 255 255 255
0.592739 -0.325603 1.372 255 255 255
-0.316991 -0.592756 1.642 255 255 255
0.554214 0.570823 1.524 255 255 255
-1.23929 0.0991077 2.42 255 255 255
0.463692 0.028692 1.579 0 0 0
0.549698 -0.347772 1.354 255 255 255
0.298526 -0.256669 1.089 0 0 0
-0.756726 0.490445 1.87 255 255 255
-0.396662 0.32992 2.004 255 255 255
0.349119 0.457765 1.724 255 255 255
-0.0952941 0.29667 1.978 255 255 255
0.116376 0.176051 1.686 255 255 255
-0.434745 -0.135297 1.941 255 255 255
-0.981734 0.471833 1.893 255 255 255
-0.219024 0.516856 1.734 255 255 255
0.571803 0.225727 1.505 255 255 255
0.545068 -0.418621 1.348 255 255 255
-0.58929 0.576725 1.719 255 255 255
-0.257374 -0.114068 1.805 255 255 255
-0.28634 -0.424236 1.535 255 255 255
0.0560721 -0.337176 1.257 255 255 255
0.24623 0.258845 1.637 255 255 255
0.568086 -0.106236 1.31 0 0 0
0.0645126 0.0347953 1.624 255 255 255
0.0498863 -0.116918 1.502 255 255 255
0.391468 -0.166352 1.348 255 255 255
0.232899 -0.444852 1.425 255 255 255
0.133787 0.0079295 1.539 255 255 255
-0.269647 0.611926 1.599 255 255 255
0.460594 -0.147315 1.278 255 255 255
0.62021 0.156343 1.452 255 255 255
0.514016 0.30023 1.616 255 255 255
0.164295 -0.489658 1.375 0 0 0
-1.2072 0.114433 2.411 255 255 255
-0.203483 -0.307507 1.551 255 255 255
-0.155801 -0.320429 1.505 255 255 255
-0.631672 0.569253 1.705 255 255 255
0.543605 -0.370256 1.372 255 255 255
-0.913984 -0.639334 1.966 255 255 255
0.045469 -0.275879 1.369 255 255 255
0.527999 -0.152593 1.27 255 255 255
0.22079 0.220089 1.646 255 255 255
0.500688 0.467503 1.659 255 255 255
-0.107461 -0.399133 1.387 255 255 255
-0.338815 0.447653 1.882 255 255 255
-0.771398 0.242896 2.158 255 255 255
-0.936025 0.33308 2.064 255 255 255
0.500981 0.122825 1.567 255 255 255
0.478822 0.464389 1.677 255 255 255
-0.144283 -0.416695 1.416 255 255 255
0.282463 -0.00849742 1.362 255 255 255
0.308169 -0.067449 1.302 255 255 255
0.551689 0.400525 1.65 255 255 255
-0.257597 0.419464 1.893 255 255 255
0.454063 0.405149 1.739 255 255 255
-0.391751 0.46716 1.815 255 255 255
0.14653 -0.238152 1.297 255 255 255
0.00309386 -0.321331 1.354 255 255 255
-0.477849 0.170951 2.181 255 255 255
-0.516727 -0.463785 1.729 255 255 255
-0.136637 0.564694 1.659 255 255 255
0.22564 0.45496 1.724 255 255 255
0.190859 -0.256349 1.242 255 255 255
0.449207 0.244325 1.629 255 255 255
0.419234 0.299033 1.668 0 0 0
0.47533 0.493304 1.646 255 255 255
0.577067 0.203668 1.487 255 255 255
0.442836 0.46413 1.696 255 255 255
0.0438281 -0.161498 1.463 255 255 255
-0.640309 -0.698319 1.859 0 0 0
0.671668 0.0426986 1.369 255 255 255
-0.555044 -0.407097 1.789 255 255 255
0.625297 -0.0748162 1.283 255 255 255
-0.245779 -0.384447 1.516 255 255 255
0.498915 -0.459424 1.302 255 255 255
-0.093869 -0.131376 1.62 255 255 255
0.587201 0.0844322 1.396 255 255 255
0.285125 -0.0616088 1.313 255 255 255
0.142712 0.180139 1.673 255 255 255
0.0292565 -0.190606 1.449 255 255 255
-0.944924 -0.922302 2.383 255 255 255
-0.706064 0.553153 1.724 255 255 255
0.226552 -0.127359 1.308 255 255 255
-0.911045 0.497975 1.887 255 255 255
0.0137418 0.331195 1.917 255 255 255
0.191725 0.559433 1.583 255 255 255
0.284442 0.0579903 1.416 255 255 255
0.601672 0.0561883 1.372 255 255 255
-0.162031 0.615802 1.616 255 255 255
0.451361 0.170838 1.563 255 255 255
-0.734185 0.30015 2.092 255 255 255
0.133281 -0.0191861 1.505 255 255 255
-0.678499 0.0120926 2.347 0 0 0
0.134467 -0.355958 1.244 255 255 255
0.164653 -0.483999 1.378 255 255 255
0.385577 -0.135229 1.366 255 255 255
-0.694335 -0.567063 1.826 255 255 255
0.290694 0.26912 1.603 255 255 255
0.44706 -0.478944 1.275 255 255 255
0.0490517 0.407055 1.837 255 255 255
-0.739891 -0.283387 2.128 255 255 255
-0.808022 -0.301093 2.181 255 255 255
0.0369281 -0.050835 1.575 255 255 255
-1.42522 -0.323691 2.731 255 255 255
-0.711926 0.186179 2.236 255 255 255
-0.0731769 0.565086 1.629 255 255 255
-0.317146 0.389891 1.899 255 255 255
0.263392 0.480213 1.714 255 255 255
0.170486 -0.182091 1.319 255 255 255
0.268908 0.339932 1.696 255 255 255
-0.310107 -0.473253 1.47 255 255 255
0.222534 0.248824 1.659 255 255 255
0.0720815 -0.0630036 1.559 255 255 255
-0.29575 -0.456508 1.47 255 255 255
0.422593 -0.448544 1.289 0 0 0
-0.274477 0.471668 1.821 255 255 255
-0.196756 -0.0231381 1.815 255 255 255
-0.06205 -0.39227 1.333 255 255 255
0.309278 0.415018 1.769 255 255 255
-0.320252 -0.62845 1.673 255 255 255
0.101191 -0.0950302 1.466 255 255 255
0.438357 -0.455871 1.286 255 255 255
0.537208 0.0367255 1.396 255 255 255
0.307122 0.584379 1.567 255 255 255
-0.50001 0.604306 1.664 255 255 255
-0.157839 -0.383448 1.456 255 255 255
-0.233856 -0.258726 1.659 255 255 255
-0.647035 0.00437044 2.303 0 0 0
-0.532346 0.421663 1.917 255 255 255
0.458403 0.401163 1.734 255 255 255
0.540697 -0.0767405 1.316 255 255 255
-0.406888 -0.101484 1.959 255 255 255
0.100302 -0.374613 1.273 255 255 255
0.13919 -0.0143923 1.516 255 255 255
-0.796933 0.126673 2.347 255 255 255
-0.393782 0.577627 1.673 255 255 255
-0.291896 0.10924 2.024 255 255 255
0.147101 0.452489 1.758 255 255 255
-0.491918 -0.57321 1.655 255 255 255
0.471553 0.376698 1.7 255 255 255
-0.805622 0.583435 1.739 255 255 255
0.258882 -0.351665 1.229 255 255 255
-0.721308 -0.524545 1.865 255 255 255
-1.22393 -0.543439 2.338 255 255 255
-0.0725929 0.578985 1.616 255 255 255
-0.913202 0.176766 2.303 255 255 255
0.256721 -0.130677 1.278 255 255 255
-1.21032 0.188744 2.312 255 255 255
-0.455915 0.539703 1.744 255 255 255
0.565259 -0.148268 1.234 255 255 255
-0.415026 0.0104593 2.03 255 255 255
0.0640012 -0.337872 1.252 255 255 255
-0.0739406 -0.0691981 1.646 255 255 255
-0.177653 -0.237765 1.591 255 255 255
0.575779 0.589761 1.509 255 255 255
0.28449 0.564585 1.583 255 255 255
0.651347 0.582137 1.502 255 255 255
0.271165 0.603652 1.551 255 255 255
-0.0581654 -0.349472 1.396 255 255 255
-0.441354 0.472822 1.837 255 255 255
-0.196685 0.00649313 1.842 255 255 255
-0.699341 -0.0290405 2.278 0 0 0
-0.138531 0.545151 1.682 255 255 255
-1.05311 0.111823 2.356 255 255 255
-0.1974 0.467593 1.794 255 255 255
-0.266801 -0.35658 1.567 255 255 255
-0.198941 -0.286635 1.575 255 255 255
-0.772499 0.168021 2.286 255 255 255
0.172856 0.446767 1.758 255 255 255
0.283328 -0.308707 1.165 255 255 255
-0.80226 0.579436 1.744 255 255 255
-0.170453 0.526087 1.7 255 255 255
-0.757021 -0.466955 1.941 0 0 0
0.125915 -0.315339 1.22 255 255 255
0.0657075 -0.572498 1.473 255 255 255
0.384196 -0.527622 1.369 255 255 255
-0.634559 0.308286 2.078 255 255 255
-0.434048 -0.553179 1.62 255 255 255
-0.609117 0.288587 2.107 255 255 255
0.00401699 0.452489 1.758 255 255 255
-0.128137 0.114777 1.848 255 255 255
-0.841605 0.507283 1.876 255 255 255
0.641498 0.542786 1.543 255 255 255
-0.155761 -0.164319 1.633 255 255 255
-0.0714913 -0.361542 1.39 255 255 255
0.272112 0.0254394 1.4 255 255 255
-0.921786 0.258729 2.173 255 255 255
-0.278712 -0.117329 1.81 255 255 255
0.610608 0.0198835 1.333 255 255 255
-0.16406 -0.358696 1.491 255 255 255
0.423005 -0.155918 1.372 0 0 0
-0.0206678 -0.213518 1.477 255 255 255
-0.269165 -0.158823 1.748 255 255 255
-0.199141 0.428435 1.865 255 255 255
0.438328 0.15126 1.571 0 0 0
-0.0131157 0.456907 1.753 255 255 255
-0.78265 0.460771 1.911 255 255 255
-0.767603 0.260297 2.128 255 255 255
0.209261 -0.0574671 1.422 255 255 255
-0.950307 0.38839 2.037 255 255 255
-0.685498 -0.0326182 2.269 255 255 255
-0.609957 -0.460672 1.805 255 255 255
0.66478 0.497433 1.599 255 255 255
-0.399958 0.356742 1.972 255 255 255
0.116524 -0.186357 1.366 255 255 255
0.201545 0.449133 1.734 255 255 255
0.778273 0.447069 1.624 255 255 255
0.543222 0.562454 1.535 255 255 255
-0.44386 0.576279 1.677 255 255 255
-0.156682 0.493941 1.763 255 255 255
-0.607462 -0.645823 1.789 255 255 255
-0.814466 0.33421 2.071 255 255 255
-1.00324 0.126673 2.347 255 255 255
-0.55767 -0.098865 2.107 255 255 255
-1.07885 -0.0668135 2.593 255 255 255
-0.543267 0.484676 1.848 255 255 255
-0.309832 0.264326 2.078 255 255 255
0.740355 0.196859 1.509 255 255 255
0.126816 -0.498304 1.432 255 255 255
0.183014 0.378909 1.831 255 255 255
0.213263 -0.179036 1.267 255 255 255
-0.650795 0.346484 2.044 255 255 255
0.288528 0.219165 1.563 255 255 255
-0.633304 0.120079 2.294 255 255 255
-0.406864 -0.36856 1.705 255 255 255
-1.45303 -0.149234 2.793 255 255 255
0.222499 0.30477 1.7 255 255 255
-1.17916 -0.0250441 2.638 255 255 255
0.119574 0.0622535 1.583 255 255 255
0.454067 -0.429665 1.289 255 255 255
-0.315821 0.588059 1.664 255 255 255
-0.228804 0.497132 1.744 255 255 255
0.2202 0.409205 1.794 255 255 255
-0.239809 -0.299903 1.591 255 255 255
-0.227955 0.370937 1.929 255 255 255
0.542283 -0.154042 1.232 0 0 0
-0.322156 -0.0434261 1.929 255 255 255
-0.238553 -0.228239 1.673 255 255 255
-0.143266 -0.329567 1.502 255 255 255
-0.0448187 0.556595 1.659 255 255 255
-0.792133 0.562457 1.753 255 255 255
-0.844396 -0.585964 1.917 255 255 255
-0.134812 0.314819 1.991 255 255 255
0.148818 0.0229563 1.539 255 255 255
-0.133372 0.529985 1.686 255 255 255
0.220143 0.282383 1.682 255 255 255
0.867994 0.338106 1.729 255 255 255
0.242877 -0.251183 1.162 255 255 255
0.237653 0.521297 1.633 255 255 255
-0.32711 0.512895 1.769 255 255 255
0.150431 0.518898 1.668 255 255 255
-0.899429 0.538336 1.826 255 255 255
-0.109835 -0.25073 1.513 255 255 255
-0.751236 -0.348758 2.064 255 255 255
-0.00974113 0.558272 1.664 255 255 255
-0.0976387 -0.468932 1.442 255 255 255
-0.893981 0.0940685 2.392 255 255 255
-0.439305 0.173301 2.166 255 255 255
-0.279711 -0.314355 1.612 255 255 255
-0.360016 -0.516998 1.551 255 255 255
-1.02012 -0.654721 2.044 255 255 255
-0.955904 0.331958 2.078 255 255 255
-0.47781 -0.108466 2.03 255 255 255
0.0130536 -0.518814 1.484 255 255 255
0.696902 0.562893 1.516 255 255 255
-1.09073 0.137601 2.338 255 255 255
-0.0740597 -0.248841 1.487 255 255 255
0.761615 0.13504 1.532 255 255 255
0.725616 0.522885 1.551 255 255 255
-0.875311 -0.754389 2.017 255 255 255
-0.76238 -0.0883534 2.278 255 255 255
-0.987937 0.467148 1.899 255 255 255
-0.246361 -0.374277 1.535 255 255 255
-0.0159237 0.0858097 1.748 255 255 255
0.518843 -0.232584 1.278 255 255 255
-1.01987 -0.0411595 2.572 255 255 255
-0.734339 0.016217 2.392 255 255 255
-0.70198 -0.365583 1.991 255 255 255
-0.019871 -0.0727888 1.607 255 255 255
-0.885359 0.642476 1.686 255 255 255
-1.12826 -0.313993 2.479 255 255 255
0.687434 0.546388 1.539 255 255 255
0.243861 0.485791 1.714 255 255 255
-0.83391 -0.254977 2.212 255 255 255
-0.00383789 -0.199097 1.477 255 255 255
0.556017 -0.28685 1.327 255 255 255
-0.121204 0.574446 1.633 255 255 255
-0.723565 -0.0144743 2.32 0 0 0
0.262324 0.380772 1.744 255 255 255
-0.935097 0.568051 1.826 255 255 255
-0.414278 0.218742 2.128 255 255 255
-0.158721 0.346059 1.966 255 255 255
0.245109 0.41273 1.784 255 255 255
-0.261209 0.107459 1.991 255 255 255
0.647042 0.165457 1.47 255 255 255
0.527471 -0.166996 1.254 255 255 255
0.250291 0.290193 1.664 255 255 255
-0.307821 0.505684 1.774 255 255 255
-0.332191 -0.56881 1.612 255 255 255
0.381881 -0.252338 1.213 255 255 255
-0.0679738 0.4125 1.848 255 255 255
0.730665 0.522885 1.551 255 255 255
0.178072 0.451202 1.753 255 255 255
-0.545426 0.52401 1.758 255 255 255
-0.366234 0.189602 2.151 255 255 255
0.455932 -0.0879645 1.357 255 255 255
-0.0193811 0.17379 1.805 255 255 255
-0.497998 0.414885 1.929 255 255 255
-0.872162 0.580626 1.714 255 255 255
-0.449405 0.237944 2.114 255 255 255
-0.223435 -0.346122 1.532 255 255 255
-0.553822 -0.324991 1.905 255 255 255
-0.998989 -0.219881 2.42 255 255 255
-0.865382 -0.611606 1.929 255 255 255
-0.306449 0.267707 2.078 255 255 255
-0.0366822 0.125669 1.789 255 255 255
-0.725425 -0.438527 1.941 255 255 255
-0.284365 -0.462233 1.473 255 255 255
-0.37897 -0.13855 1.899 255 255 255
0.605689 0.330144 1.535 255 255 255
-0.600753 -0.0350304 2.189 255 255 255
0.524704 0.217311 1.532 255 255 255
0.0740354 -0.287921 1.322 255 255 255
0.478107 -0.281045 1.351 0 0 0
0.631118 0.568343 1.524 255 255 255
-0.0568097 -0.102124 1.616 255 255 255
-0.670672 -0.578523 1.779 255 255 255
-0.248282 -0.307919 1.579 255 255 255
-1.29584 -0.084836 2.768 255 255 255
0.466018 0.459692 1.7 255 255 255
-0.644269 0.555135 1.739 255 255 255
-0.28767 0.227623 2.114 255 255 255
0.581089 0.00468831 1.33 0 0 0
0.279139 -0.405267 1.305 255 255 255
0.314775 0.579279 1.567 255 255 255
-1.45927 -0.15444 2.805 255 255 255
-1.06223 -0.427706 2.269 255 255 255
-0.470215 0.428706 1.893 255 255 255
0.0301651 -0.143039 1.494 255 255 255
0.584406 -0.456827 1.384 255 255 255
0.606485 -0.100907 1.324 255 255 255
-0.273542 0.153248 2.085 0 0 0
-0.0998307 0.344817 1.941 255 255 255
-0.704935 0.365186 2.037 255 255 255
0.360117 0.498661 1.646 255 255 255
-0.100183 -0.590951 1.637 255 255 255
0.705481 0.425039 1.591 255 255 255
0.633617 -0.244541 1.254 0 0 0
-0.866733 0.523478 1.826 255 255 255
0.266985 -0.275039 1.128 255 255 255
0.106017 -0.292437 1.267 255 255 255
-0.104146 -0.266017 1.502 255 255 255
-0.205212 0.400981 1.893 255 255 255
-1.09711 0.239036 2.22 255 255 255
0.140935 0.00291299 1.535 255 255 255
0.543176 0.532184 1.571 255 255 255
-0.864559 0.643273 1.71 255 255 255
-0.566973 0.15093 2.253 255 255 255
0.286918 -0.225935 1.149 255 255 255
-0.801974 0.400448 1.966 255 255 255
-0.153035 0.537061 1.691 255 255 255
-0.868522 -0.59905 1.929 255 255 255
-0.505562 -0.412699 1.739 255 255 255
0.153771 -0.532246 1.381 255 255 255
-1.07245 -0.470466 2.244 255 255 255
0.203745 -0.541847 1.4 0 0 0
0.249403 -0.12389 1.294 255 255 255
0.748227 0.136456 1.52 255 255 255
0.576714 0.453753 1.668 255 255 255
0.159283 -0.330408 1.217 255 255 255
-0.21461 0.494294 1.744 255 255 255
-1.05742 -0.328979 2.383 255 255 255
-0.617053 -0.671066 1.826 255 255 255
0.827452 0.243425 1.659 255 255 255
-0.62696 0.206444 2.181 255 255 255
-0.197576 0.497132 1.744 255 255 255
-0.154538 0.467523 1.805 255 255 255
-0.0497626 0.408163 1.842 255 255 255
-0.861276 -0.343683 2.181 255 255 255
-0.0136619 0.416504 1.826 255 255 255
-0.547135 0.469092 1.882 255 255 255
-0.0755959 -0.107915 1.624 255 255 255
0.0885765 0.54653 1.629 255 255 255
-0.948541 -0.678644 1.978 255 255 255
0.172829 -0.281112 1.201 255 255 255
0.770935 0.555492 1.516 255 255 255
0.115519 0.593062 1.563 255 255 255
0.258855 -0.524405 1.39 255 255 255
-0.686272 -0.127648 2.189 255 255 255
0.52663 -0.183029 1.252 0 0 0
0.382231 -0.125968 1.362 255 255 255
0.508888 0.0210619 1.412 255 255 255
-0.367674 0.306863 2.024 255 255 255
0.420309 -0.228944 1.342 255 255 255
-0.00718461 0.044723 1.7 255 255 255
-0.541463 -0.536572 1.65 255 255 255
0.598916 -0.160874 1.254 255 255 255
0.781663 0.496361 1.547 255 255 255
0.276519 0.451723 1.744 255 255 255
0.259089 0.491574 1.686 255 255 255
0.0883539 -0.10393 1.491 255 255 255
0.305446 0.296864 1.612 255 255 255
-0.435606 -0.491329 1.616 255 255 255
0.794134 0.262075 1.624 255 255 255
0.445999 0.054112 1.571 255 255 255
-0.431993 -0.334399 1.774 255 255 255
0.06393 0.188753 1.753 255 255 255
0.255633 0.268183 1.629 255 255 255
0.77558 0.180086 1.555 255 255 255
0.249983 -0.229338 1.196 255 255 255
-0.462048 0.301523 2.078 255 255 255
0.254289 -0.245506 1.171 255 255 255
-0.250633 0.332075 1.959 255 255 255
-1.34901 0.0382008 2.561 255 255 255
0.629057 -0.235436 1.249 0 0 0
-0.225927 0.0869134 1.966 255 255 255
-0.175972 0.479503 1.784 255 255 255
0.0885195 -0.156309 1.416 255 255 255
-0.0387976 0.45976 1.753 255 255 255
-0.0664836 -0.259712 1.48 255 255 255
-0.148239 0.565043 1.668 255 255 255
0.588651 0.224677 1.498 255 255 255
0.183473 0.17222 1.624 255 255 255
0.112396 0.602679 1.555 255 255 255
0.47607 -0.0380779 1.39 255 255 255
-0.974337 0.234575 2.212 255 255 255
0.607081 -0.213931 1.254 0 0 0
0.365305 -0.388728 1.265 255 255 255
0.308771 -0.483309 1.351 255 255 255
0.443977 0.29472 1.659 0 0 0
-0.618723 0.341982 2.037 255 255 255
-0.431034 -0.0709551 1.997 255 255 255
0.254945 -0.420687 1.369 255 255 255
-0.298466 0.348015 1.959 255 255 255
0.595612 0.189766 1.473 255 255 255
-0.0649656 0.168909 1.848 255 255 255
0.0593405 -0.165412 1.435 255 255 255
-0.0454672 -0.204911 1.502 255 255 255
-0.79536 0.616657 1.729 255 255 255
0.571524 -0.0188751 1.313 255 255 255
-0.371583 -0.382914 1.659 255 255 255
0.198447 0.589926 1.575 255 255 255
-0.707651 0.225012 2.189 255 255 255
-0.244492 0.395465 1.911 255 255 255
-0.551305 0.577836 1.714 255 255 255
0.0510778 0.114219 1.705 255 255 255
0.788624 0.443144 1.629 255 255 255
-1.42122 -0.273535 2.857 0 0 0
-1.00994 -0.590592 2.064 255 255 255
0.326225 0.33343 1.624 255 255 255
0.0753234 -0.428633 1.345 255 255 255
-0.907541 -0.598802 1.959 255 255 255
0.562174 0.546388 1.539 255 255 255
-0.0545472 0.00324509 1.71 255 255 255
-0.661467 0.613167 1.696 255 255 255
0.558867 -0.209632 1.265 255 255 255
-0.811003 0.539825 1.821 255 255 255
-0.768902 -0.541167 1.87 255 255 255
-0.452846 0.241384 2.114 255 255 255
0.772288 0.0470652 1.509 0 0 0
-0.369994 -0.370529 1.664 255 255 255
0.405808 -0.461129 1.289 0 0 0
-0.16222 -0.547831 1.567 255 255 255
-1.16642 0.045591 2.509 255 255 255
-0.885217 0.156625 2.338 255 255 255
-1.11683 -0.176525 2.593 0 0 0
-0.0912414 0.0293485 1.774 255 255 255
-0.872076 -0.272298 2.236 255 255 255
0.648135 -0.468943 1.4 0 0 0
0.196001 -0.213078 1.249 255 255 255
0.363234 0.521067 1.624 255 255 255
0.607859 -0.297647 1.327 255 255 255
0.559017 -0.410873 1.366 0 0 0
-0.889378 -0.377004 2.189 255 255 255
-0.0858634 -0.00514488 1.724 255 255 255
0.106476 -0.230182 1.324 255 255 255
-0.396148 -0.47292 1.616 255 255 255
-0.628291 0.0868207 2.303 255 255 255
0.669268 0.519172 1.555 255 255 255
0.41655 -0.211746 1.33 255 255 255
-0.543907 -0.505876 1.691 255 255 255
-0.656968 -0.557604 1.805 255 255 255
-1.1225 -0.0548437 2.626 255 255 255
0.691724 -0.353852 1.369 255 255 255
-1.16812 -0.486583 2.303 255 255 255
-0.235692 0.351134 1.941 255 255 255
-1.05887 -0.743004 2.004 255 255 255
-0.174398 0.39174 1.893 255 255 255
0.397592 -0.0575883 1.425 255 255 255
0.200199 -0.292839 1.201 255 255 255
-0.659827 -0.535877 1.821 255 255 255
-0.0265403 -0.43892 1.406 255 255 255
-0.819749 -0.485512 1.978 255 255 255
0.121652 0.420526 1.805 255 255 255
-0.996385 0.286094 2.166 255 255 255
0.428768 -0.483266 1.27 255 255 255
0.357738 -0.150427 1.305 255 255 255
0.231101 -0.307327 1.189 255 255 255
-0.290495 -0.164073 1.774 255 255 255
-0.385369 0.483535 1.799 255 255 255
0.644824 0.361349 1.551 255 255 255
0.522505 0.0980076 1.463 255 255 255
0.493612 0.40049 1.719 255 255 255
0.166095 -0.0833299 1.429 255 255 255
-0.874485 -0.546671 1.978 255 255 255
-0.743333 -0.619766 1.815 255 255 255
0.286403 0.0138574 1.381 255 255 255
-0.879796 -0.582461 1.947 255 255 255
-0.967517 0.0520643 2.43 255 255 255
-0.870774 0.229305 2.196 255 255 255
0.0982982 -0.23339 1.33 255 255 255
-0.725606 -0.602044 1.815 255 255 255
-0.843055 -0.32357 2.189 255 255 255
0.229583 0.0242034 1.463 255 255 255
-0.195968 0.400981 1.893 255 255 255
0.031817 0.505316 1.714 255 255 255
-0.898207 -0.861357 2.303 255 255 255
0.333495 0.0439462 1.409 255 255 255
-0.344036 0.554226 1.71 255 255 255
-0.326259 0.545954 1.719 255 255 255
0.43441 0.586459 1.539 255 255 255
-0.589396 0.636801 1.664 255 255 255
0.0749601 0.356719 1.887 255 255 255
0.549331 0.145299 1.484 255 255 255
0.31134 -0.327505 1.185 255 255 255
-0.126919 -0.0913678 1.71 255 255 255
-0.00634782 -0.173135 1.502 255 255 255
-0.254424 -0.0916228 1.826 255 255 255
-0.138477 -0.357732 1.477 255 255 255
0.269585 -0.129859 1.27 255 255 255
-0.24725 -0.572354 1.734 255 255 255
-0.660941 0.525953 1.784 255 255 255
0.550054 0.139427 1.473 255 255 255
-0.0941152 -0.25312 1.498 255 255 255
0.335071 0.593006 1.543 255 255 255
-0.875197 -0.668071 1.876 255 255 255
0.02645 -0.374843 1.31 255 255 255
0.582582 0.138166 1.435 255 255 255
-0.924965 -0.0116674 2.53 255 255 255
0.0553693 0.180195 1.753 255 255 255
-0.0644795 0.479729 1.753 255 255 255
0.408177 0.183328 1.583 255 255 255
0.597896 -0.0266909 1.278 0 0 0
0.74379 0.155833 1.516 255 255 255
-0.457356 -0.499262 1.591 255 255 255
-0.68504 -0.314362 2.037 255 255 255
0.361677 0.0401984 1.439 255 255 255
0.690833 -0.524703 1.487 255 255 255
0.496796 -0.48273 1.302 0 0 0
-0.376961 -0.430334 1.624 255 255 255
-0.258817 0.589733 1.646 255 255 255
-0.224815 0.370937 1.929 255 255 255
-0.551734 0.615742 1.673 255 255 255
-0.313709 -0.0372634 1.935 255 255 255
-0.212715 0.384923 1.905 255 255 255
-0.774418 -0.469842 1.953 0 0 0
0.328484 -0.496432 1.369 255 255 255
-1.02475 0.248974 2.212 255 255 255
-0.254354 0.519837 1.744 255 255 255
0.674457 0.390999 1.579 255 255 255
0.613173 0.411008 1.607 255 255 255
0.297976 -0.482274 1.342 255 255 255
0.180416 0.414651 1.805 255 255 255
-0.0527928 0.482942 1.744 255 255 255
0.231253 0.45496 1.724 255 255 255
-0.757757 -0.405052 2.01 255 255 255
0.529126 0.00037178 1.375 255 255 255
0.571738 -0.383026 1.354 255 255 255
-0.351344 0.29659 2.044 255 255 255
-0.15573 0.285114 2.01 255 255 255
-0.47059 0.450885 1.87 255 255 255
-0.970202 -0.576236 2.037 255 255 255
-0.499691 -0.296923 1.865 255 255 255
0.154219 0.253691 1.71 255 255 255
0.328902 -0.278556 1.12 0 0 0
0.454438 0.439653 1.719 255 255 255
-0.138007 -0.501769 1.498 255 255 255
-0.642587 -0.479227 1.831 255 255 255
-1.32897 -0.0521302 2.707 255 255 255
0.326901 -0.187666 1.229 255 255 255
0.176888 0.422056 1.799 255 255 255
-0.00577305 -0.293058 1.366 255 255 255
0.230771 -0.391424 1.345 255 255 255
-0.231643 -0.141432 1.744 255 255 255
-0.893484 0.529421 1.826 255 255 255
-0.351344 0.299916 2.044 255 255 255
-1.29901 -0.1751 2.844 255 255 255
0.0260991 0.0836989 1.705 255 255 255
0.208949 -0.0161476 1.452 255 255 255
0.503282 -0.272242 1.319 255 255 255
-0.413214 0.604333 1.642 255 255 255
0.642909 -0.159071 1.289 0 0 0
0.260838 0.226036 1.612 255 255 255
-0.768869 -0.46523 1.947 0 0 0
0.285584 -0.162061 1.232 255 255 255
0.470853 -0.198926 1.289 0 0 0
-0.522964 0.0886021 2.253 0 0 0
-0.957036 0.0776121 2.365 255 255 255
-0.548136 0.0369917 2.236 0 0 0
0.185836 -0.215111 1.249 255 255 255
-1.0469 -0.640974 2.064 255 255 255
-0.4885 0.17805 2.181 255 255 255
-0.30785 -0.269463 1.71 255 255 255
-1.21898 0.0908922 2.411 255 255 255
0.327764 -0.488675 1.366 255 255 255
-0.61148 -0.2366 2.024 255 255 255
0.0877975 -0.55341 1.442 255 255 255
-0.00181023 0.38291 1.865 255 255 255
-0.434062 -0.221641 1.87 255 255 255
-0.0629047 0.292561 1.972 255 255 255
0.67415 0.527721 1.543 255 255 255
-0.783955 0.420047 1.953 255 255 255
0.108102 -0.191641 1.372 255 255 255
0.321199 -0.215187 1.215 255 255 255
-0.0219271 -0.121977 1.567 255 255 255
-0.239487 -0.365235 1.539 255 255 255
0.215621 0.121571 1.551 255 255 255
-0.341009 0.349051 1.947 255 255 255
-0.0667902 -0.135214 1.603 255 255 255
-0.385789 0.554226 1.71 255 255 255
0.743304 0.510428 1.567 255 255 255
0.119948 -0.220404 1.33 255 255 255
-0.635843 0.231607 2.151 255 255 255
-0.316324 -0.514163 1.535 255 255 255
-0.550333 0.45335 1.893 255 255 255
0.46931 -0.298634 1.351 255 255 255
-0.240909 0.537875 1.729 255 255 255
-0.0789195 -0.420752 1.362 255 255 255
-1.21664 0.00906641 2.572 255 255 255
-0.267779 -0.624943 1.739 255 255 255
0.496793 -0.287002 1.348 0 0 0
0.56124 -0.462 1.366 255 255 255
-0.530312 0.505546 1.794 255 255 255
0.454774 -0.379565 1.297 255 255 255
-0.602111 0.162505 2.261 255 255 255
0.60206 0.060919 1.378 255 255 255
0.0876381 0.414665 1.831 255 255 255
-0.399507 -0.202839 1.865 255 255 255
0.488554 -0.470323 1.297 255 255 255
0.595009 0.0842508 1.393 255 255 255
-0.3002 -0.256147 1.714 255 255 255
-0.549521 0.644868 1.65 255 255 255
-0.768374 0.596306 1.719 255 255 255
0.21383 0.154208 1.575 255 255 255
-1.41453 -0.322268 2.719 255 255 255
0.654932 0.262388 1.477 255 255 255
0.0837059 -0.237148 1.339 255 255 255
0.088421 -0.301922 1.281 255 255 255
-1.28683 -0.0893405 2.768 255 255 255
0.311121 0.144613 1.477 255 255 255
0.198499 0.0174692 1.498 255 255 255
-0.858211 0.60015 1.714 255 255 255
-1.01134 -0.0618214 2.561 255 255 255
-0.959961 0.4701 1.911 255 255 255
-0.0992851 0.476727 1.763 255 255 255
0.280416 0.317287 1.65 255 255 255
-0.144256 -0.350474 1.487 255 255 255
0.542839 -0.0638911 1.316 255 255 255
0.0609119 -0.524557 1.473 255 255 255
-0.0772066 0.16635 1.853 255 255 255
0.204381 -0.274276 1.18 255 255 255
0.211588 0.527902 1.637 255 255 255
0.67932 0.341964 1.532 255 255 255
-0.71411 0.524479 1.779 255 255 255
-0.239241 0.309269 1.997 255 255 255
-0.502655 -0.415953 1.729 255 255 255
0.453441 0.493283 1.664 255 255 255
0.520924 -0.245062 1.278 0 0 0
0.0321236 -0.0332279 1.591 255 255 255
0.535624 -0.469304 1.33 0 0 0
-0.716088 0.212207 2.204 255 255 255
0.198533 -0.0231242 1.445 255 255 255
0.0295392 -0.180544 1.463 255 255 255
-0.838591 0.346515 2.064 255 255 255
-0.939036 0.0486841 2.459 255 255 255
0.186975 0.525627 1.655 255 255 255
-0.970429 0.526778 1.848 255 255 255
0.072117 0.342451 1.893 255 255 255
-0.296206 0.193103 2.151 255 255 255
0.335053 0.292598 1.603 255 255 255
-0.791147 0.378446 2.037 255 255 255
-0.147367 -0.344831 1.494 255 255 255
-0.233869 -0.0905691 1.805 255 255 255
0.574415 -0.258734 1.305 255 255 255
-0.235829 -0.228239 1.673 255 255 255
-0.282248 0.434867 1.893 255 255 255
0.609234 0.01551 1.33 255 255 255
0.404425 -0.471752 1.278 255 255 255
-0.166191 0.0948419 1.87 255 255 255
0.669224 0.406916 1.591 255 255 255
0.221326 0.513299 1.65 255 255 255
-0.983864 0.0624544 2.374 255 255 255
0.64889 0.0726024 1.387 255 255 255
0.454949 0.357333 1.7 255 255 255
-0.914692 0.570536 1.815 255 255 255
-0.257597 0.416384 1.893 255 255 255
0.441532 -0.150804 1.327 0 0 0
-0.978756 -0.482311 2.166 255 255 255
0.324312 -0.549201 1.419 255 255 255
-0.47762 -0.456006 1.7 255 255 255
-1.05412 0.0749175 2.402 255 255 255
-0.696633 -0.367712 1.985 255 255 255
0.603978 -0.0185589 1.291 0 0 0
0.0529528 -0.292486 1.333 255 255 255
-0.0380871 0.584762 1.603 255 255 255
-0.328813 -0.200955 1.794 255 255 255
-0.969683 0.368772 2.057 255 255 255
-0.245825 -0.627969 1.724 255 255 255
0.00314184 -0.286038 1.375 255 255 255
0.716849 0.306755 1.543 255 255 255
-1.07885 -0.0583742 2.593 255 255 255
-0.075504 -0.219156 1.516 0 0 0
-0.356506 0.579008 1.677 255 255 255
-0.645412 -0.712713 1.865 0 0 0
0.105711 0.151807 1.691 255 255 255
0.384488 -0.252754 1.215 255 255 255
-0.817065 0.246408 2.158 255 255 255
0.626109 0.112973 1.412 255 255 255
0.203387 -0.00912755 1.463 255 255 255
0.610084 0.525582 1.559 255 255 255
-0.398588 -0.579995 1.659 255 255 255
-0.54506 -0.0571169 2.085 255 255 255
0.598184 -0.424248 1.359 255 255 255
0.214003 -0.117041 1.336 255 255 255
0.608726 -0.180558 1.249 255 255 255
-0.588351 0.541175 1.758 255 255 255
0.308864 -0.0967919 1.27 255 255 255
-1.44716 -0.179728 2.844 255 255 255
0.538485 -0.431782 1.348 255 255 255
-0.28532 -0.411382 1.543 255 255 255
-0.238284 0.467593 1.794 255 255 255
0.619895 0.378792 1.571 255 255 255
0.215621 0.126619 1.551 255 255 255
0.231529 0.348806 1.769 0 0 0
0.766658 0.563523 1.498 255 255 255
-1.1637 -0.476783 2.347 255 255 255
-0.519018 0.06974 2.236 0 0 0
-0.807062 0.542086 1.799 255 255 255
-0.0425213 -0.357562 1.333 255 255 255
-0.128254 -0.301875 1.498 255 255 255
-0.917771 -0.162228 2.383 255 255 255
-0.501141 0.421663 1.917 255 255 255
0.631938 0.561354 1.532 255 255 255
-0.324747 -0.453524 1.516 255 255 255
-0.683129 0.632903 1.668 255 255 255
0.0805126 0.5848 1.575 255 255 255
-0.664321 -0.338639 1.985 255 255 255
0.620867 0.365077 1.567 255 255 255
0.42994 0.593764 1.532 255 255 255
-0.354411 -0.590084 1.642 255 255 255
-0.0857896 -0.0538367 1.668 255 255 255
-0.142814 -0.0700759 1.734 255 255 255
0.4099 -0.438236 1.302 255 255 255
0.219226 -0.265557 1.167 255 255 255
0.122112 -0.193533 1.354 255 255 255
-0.227032 0.30383 2.004 255 255 255
-1.21898 0.141898 2.411 255 255 255
0.446555 0.254929 1.629 255 255 255
0.536385 0.348426 1.62 255 255 255
-0.259873 -0.33014 1.587 255 255 255
-1.11025 -0.490477 2.269 255 255 255
-0.0718254 -0.180373 1.543 255 255 255
-1.02926 -0.40859 2.286 255 255 255
0.586302 -0.0530547 1.262 255 255 255
0.31417 -0.168349 1.234 255 255 255
-0.576468 0.54663 1.748 255 255 255
-0.688705 0.545379 1.744 255 255 255
-0.274706 0.599548 1.629 255 255 255
0.352934 0.357563 1.65 255 255 255
-0.752391 0.481342 1.882 255 255 255
0.227596 -0.159793 1.278 255 255 255
0.447458 -0.171359 1.319 255 255 255
-0.438509 -0.216246 1.876 255 255 255
-0.14804 -0.559735 1.579 255 255 255
0.757862 0.521703 1.555 255 255 255
-0.0971536 0.0928639 1.831 255 255 255
-1.12093 0.326093 2.128 255 255 255
-0.516838 0.414885 1.929 255 255 255
0.335054 0.136379 1.466 255 255 255
0.574582 -0.406427 1.366 255 255 255
-1.32279 -0.442037 2.519 255 255 255
0.421913 -0.25391 1.313 255 255 255
-0.920114 0.340995 2.051 255 255 255
-0.635871 -0.049797 2.212 255 255 255
-0.948252 -0.368218 2.244 255 255 255
0.0762193 -0.549858 1.445 255 255 255
-0.490431 -0.501666 1.65 255 255 255
0.40407 0.456437 1.719 255 255 255
0.0808193 0.547872 1.633 255 255 255
0.476039 -0.269833 1.339 0 0 0
-1.27572 -0.117418 2.793 255 255 255
-0.521302 0.255037 2.085 255 255 255
-0.18127 -0.0603144 1.779 255 255 255
-0.426218 -0.328625 1.774 255 255 255
-0.754891 0.245608 2.151 255 255 255
0.648628 0.108685 1.416 255 255 255
0.431007 0.57017 1.563 255 255 255
-0.533614 -0.515201 1.659 255 255 255
-0.465485 0.166788 2.173 255 255 255
-0.808474 0.502618 1.87 255 255 255
-1.1506 -0.201843 2.593 255 255 255
0.614826 -0.146393 1.27 255 255 255
0.204621 0.531638 1.624 255 255 255
0.250034 -0.241134 1.187 255 255 255
-0.735741 -0.151132 2.22 255 255 255
0.448012 -0.237182 1.327 0 0 0
0.591751 -0.181128 1.239 255 255 255
0.395028 -0.460081 1.316 255 255 255
-0.245293 -0.391072 1.513 255 255 255
0.568782 -0.124177 1.297 255 255 255
-0.149919 0.157967 1.935 255 255 255
0.0887939 0.0482752 1.633 255 255 255
0.218843 -0.102051 1.339 255 255 255
-0.802195 0.133281 2.329 255 255 255
0.5269 -0.465422 1.319 0 0 0
0.560423 0.453753 1.668 255 255 255
-0.759795 0.0595042 2.411 255 255 255
-0.123189 -0.438496 1.412 255 255 255
-0.466737 -0.282571 1.831 255 255 255
0.113264 0.0208239 1.567 255 255 255
0.633647 0.135263 1.429 255 255 255
0.0875072 0.0895399 1.659 255 255 255
0.297204 -0.212176 1.198 255 255 255
-0.571119 0.432782 1.911 255 255 255
-0.104748 -0.198462 1.547 255 255 255
-0.151096 0.0121967 1.799 255 255 255
0.604264 -0.194006 1.244 255 255 255
-0.597157 0.394049 1.966 255 255 255
0.383968 -0.283066 1.201 255 255 255
-0.758573 -0.424354 1.978 255 255 255
0.0599195 -0.53959 1.449 0 0 0
-1.09744 0.166745 2.32 255 255 255
0.775003 0.538583 1.524 255 255 255
-0.620348 -0.118817 2.158 255 255 255
-0.337373 -0.547076 1.587 255 255 255
-0.468912 0.15733 2.189 255 255 255
-0.81952 0.550318 1.769 255 255 255
-0.379265 -0.306039 1.744 255 255 255
-0.22067 -0.163775 1.682 255 255 255
-0.470975 -0.435613 1.696 255 255 255
-0.0942825 -0.0135614 1.724 255 255 255
0.597644 0.220162 1.484 255 255 255
0.474786 -0.452389 1.294 255 255 255
0.498366 0.116351 1.583 255 255 255
-0.249844 0.0810062 1.978 255 255 255
-0.159795 -0.587451 1.62 255 255 255
-0.78702 0.187594 2.253 255 255 255
0.663887 0.112008 1.429 255 255 255
-0.28901 -0.342277 1.62 255 255 255
0.360688 0.579279 1.567 255 255 255
0.466886 0.586991 1.547 255 255 255
0.141949 -0.158279 1.354 255 255 255
-0.490098 0.368942 1.935 255 255 255
-0.00703247 0.00586567 1.664 255 255 255
-0.0677531 0.162365 1.842 255 255 255
-0.478785 0.244013 2.107 255 255 255
-0.824942 0.144652 2.329 255 255 255
0.102306 0.0315783 1.595 255 255 255
0.237506 0.573437 1.579 255 255 255
0.24528 -0.0177201 1.39 0 0 0
-0.0455836 -0.28797 1.429 255 255 255
0.537505 0.169397 1.505 255 255 255
0.351537 -0.0576791 1.372 255 255 255
0.647719 0.185474 1.477 255 255 255
-0.791182 0.194148 2.244 255 255 255
0.154844 -0.0236363 1.477 255 255 255
0.557487 0.176217 1.48 255 255 255
-0.147083 0.568719 1.655 255 255 255
-0.377658 0.514024 1.763 255 255 255
0.6539 0.00897632 1.324 255 255 255
0.0260633 -0.104771 1.539 255 255 255
0.166665 0.367391 1.848 255 255 255
0.474264 0.10615 1.624 0 0 0
-0.671564 0.40221 1.959 255 255 255
0.597172 -0.121436 1.313 0 0 0
-0.0820662 0.0349045 1.763 255 255 255
0.0457673 0.120401 1.714 255 255 255
0.217149 -0.104463 1.342 255 255 255
0.439892 -0.13102 1.442 0 0 0
