ply
format ascii 1.0
comment Created by Open3D
element vertex 1322
property double x
property double y
property double z
property uchar red
property uchar green
property uchar blue
end_header
-0.139693 -0.0642394 0.991 255 255 255
-0.235206 -0.0479469 1.098 255 255 255
0.506411 0.226462 1.022 255 255 255
-0.605912 0.0732869 1.445 255 255 255
0.11889 0.152473 0.995 255 255 255
-0.196656 -0.299712 1.213 0 0 0
0.414182 -0.170106 1.114 255 255 255
-0.686173 -0.532798 1.524 255 255 255
0.495691 -0.0782087 1.122 255 255 255
0.284473 -0.472906 1.31 255 255 255
-0.608155 0.080953 1.456 255 255 255
-0.00347151 0.502581 1.336 255 255 255
0.503025 0.0361438 1.002 255 255 255
-0.941769 0.527448 1.799 255 255 255
-0.368062 -0.093747 1.156 255 255 255
0.193572 -0.251772 1.139 255 255 255
0.419856 -0.363803 1.203 255 255 255
-0.328488 -0.130304 1.07 255 255 255
0.395681 0.0289686 1.037 255 255 255
-0.868805 0.469092 1.882 255 255 255
0.58184 0.35279 1.21 255 255 255
0.00284937 0.365607 1.247 255 255 255
-0.0128205 -0.337764 1.194 0 0 0
0.353196 0.0974382 1.012 0 0 0
0.450984 -0.302946 1.187 255 255 255
0.284473 -0.470774 1.31 255 255 255
0.133972 0.401711 1.169 255 255 255
0.368173 0.136829 0.999 255 255 255
0.390083 -0.372509 1.252 0 0 0
-0.261844 -0.454898 1.345 255 255 255
-0.076827 -0.194433 1.108 255 255 255
-0.258878 0.342118 1.4 0 0 0
0.45727 0.20444 1.02 255 255 255
0.134942 0.282798 1.085 255 255 255
-0.47182 -0.397124 1.357 0 0 0
0.57643 -0.123547 1.171 255 255 255
0.459178 -0.0172031 1.075 255 255 255
0.25193 -0.320814 1.196 0 0 0
-0.630097 0.609962 1.65 255 255 255
0.0925333 0.479131 1.252 255 255 255
0.145402 0.396557 1.154 255 255 255
-0.692719 0.226323 1.633 255 255 255
-0.599981 -0.400859 1.393 255 255 255
-0.446953 -0.336528 1.362 255 255 255
0.590668 -0.397274 1.169 255 255 255
0.491546 0.0567691 0.992 255 255 255
-0.075269 0.3576 1.299 255 255 255
-0.488649 0.361815 1.575 255 255 255
-0.841475 -0.615092 1.659 255 255 255
0.206283 0.0356402 0.837 0 0 0
-0.0707534 -0.0321794 0.997 255 255 255
-0.134741 0.391605 1.366 255 255 255
0.240047 0.480705 1.289 255 255 255
0.359214 0.297394 1.141 255 255 255
0.114488 -0.00257841 0.864 255 255 255
0.0548508 -0.415287 1.073 255 255 255
-0.780335 0.0826526 1.579 255 255 255
-0.159627 -0.298392 1.232 255 255 255
0.396819 -0.455321 1.267 255 255 255
0.482946 -0.331666 1.229 255 255 255
-0.0134781 -0.216107 1.09 0 0 0
0.309264 0.18296 1.059 0 0 0
0.295839 0.132681 1.162 0 0 0
-0.406887 -0.194433 1.108 255 255 255
-0.210233 -0.0280601 1.089 0 0 0
0.110014 -0.0278221 0.862 255 255 255
0.0751585 0.110374 0.995 255 255 255
0.447554 -0.0103005 1.085 255 255 255
0.00266657 -0.358613 1.167 255 255 255
-0.0658419 0.404807 1.322 255 255 255
0.0953271 0.203256 1.057 0 0 0
-0.175794 -0.194369 1.118 255 255 255
0.443979 -0.0211448 1.098 0 0 0
0.32881 0.115668 1.013 255 255 255
0.0647013 -0.096599 0.96 255 255 255
-0.0578054 -0.398774 1.057 255 255 255
0.284158 -0.0974127 0.984 255 255 255
-0.246872 -0.433094 1.359 255 255 255
-0.387349 0.357076 1.491 255 255 255
0.0547997 -0.156715 1.072 255 255 255
0.00811462 0.204783 1.132 255 255 255
0.0186965 0.190735 1.104 255 255 255
-0.396013 -0.0315644 1.225 255 255 255
-0.0854963 -0.158261 1.059 255 255 255
-0.237174 -0.277909 1.239 255 255 255
-0.250847 0.614277 1.612 255 255 255
0.560202 -0.448999 1.165 255 255 255
0.2826 0.110487 1.11 0 0 0
-0.584547 -0.0108397 1.378 255 255 255
0.328978 -0.21741 1.029 255 255 255
-0.0410957 -0.38586 1.169 255 255 255
0.425528 0.33384 1.12 255 255 255
0.439496 0.0208476 1.053 0 0 0
-0.342657 -0.213053 1.192 255 255 255
-0.609023 0.149804 1.505 255 255 255
-0.713002 -0.143699 1.362 255 255 255
0.587696 0.428525 1.265 255 255 255
-0.68759 -0.172788 1.33 255 255 255
-0.620168 0.629421 1.624 255 255 255
0.318901 0.00918048 1.092 0 0 0
0.314819 0.117837 1.032 255 255 255
-0.215268 -0.217529 1.154 255 255 255
-0.740631 -0.551228 1.555 0 0 0
0.290884 -0.20249 1.013 0 0 0
0.32031 0.0327491 1.05 255 255 255
-0.1185 -0.0150368 1.046 255 255 255
-0.490848 0.421199 1.616 255 255 255
0.340677 0.416734 1.273 255 255 255
-0.23673 0.0995839 1.196 0 0 0
0.567405 -0.41305 1.176 255 255 255
-0.0996567 -0.389548 1.21 255 255 255
0.145532 -0.121779 1 255 255 255
-0.939152 0.531821 1.794 255 255 255
0.428877 -0.0710317 1.124 255 255 255
0.199815 -0.216974 1.122 255 255 255
0.579889 -0.252786 1.275 255 255 255
0.511149 -0.0465805 1.108 255 255 255
-0.414935 -0.42444 1.396 0 0 0
-0.638335 -0.251257 1.227 255 255 255
0.134467 -0.406567 1.244 255 255 255
0.15186 0.0691173 0.92 255 255 255
0.149656 0.0141614 0.856 0 0 0
-0.00430231 0.0466606 1.018 255 255 255
0.279781 0.494176 1.308 255 255 255
0.234006 -0.191976 1.094 255 255 255
-0.259223 -0.23827 1.192 255 255 255
-0.347445 -0.431409 1.466 255 255 255
-0.697476 -0.0618332 1.416 255 255 255
0.490284 -0.0688331 1.118 255 255 255
0.311621 -0.258769 1.027 0 0 0
0.440727 0.0519348 1.024 0 0 0
0.0207764 0.112471 1.029 255 255 255
0.12262 0.157963 0.999 255 255 255
-0.205966 0.123946 1.187 255 255 255
0.148384 0.25781 1.055 255 255 255
0.505021 0.424614 1.196 255 255 255
0.136288 0.134297 0.969 255 255 255
0.33802 -0.0232658 1.114 255 255 255
0.333693 -0.49255 1.278 255 255 255
0.515273 -0.370456 1.225 255 255 255
-0.446236 -0.161516 1.13 255 255 255
0.30754 0.0812834 1.059 255 255 255
-0.693556 0.178469 1.563 255 255 255
0.20276 -0.519528 1.348 255 255 255
0.32948 0.138336 1.01 0 0 0
-0.0481849 0.407528 1.31 255 255 255
0.392078 -0.161848 1.083 255 255 255
0.257043 -0.424255 1.345 255 255 255
-0.172925 0.0594115 1.135 255 255 255
-0.440302 -0.374207 1.362 255 255 255
0.388379 0.150735 1.005 255 255 255
0.51581 0.46821 1.203 255 255 255
-0.318535 0.580426 1.65 0 0 0
0.11727 0.0191974 0.896 255 255 255
-0.279751 0.120257 1.249 255 255 255
0.190095 -0.0428206 0.882 255 255 255
-0.576448 0.622598 1.62 255 255 255
0.153869 0.317189 1.094 0 0 0
0.412135 0.230141 1.062 0 0 0
0.521887 -0.406597 1.208 255 255 255
0.0869163 0.360101 1.176 255 255 255
-0.34638 0.324304 1.432 255 255 255
-0.164607 0.0254505 1.104 255 255 255
-0.429193 -0.344037 1.348 255 255 255
-0.725167 -0.00448238 1.502 255 255 255
-0.211164 0.0205696 1.132 255 255 255
0.139797 0.244075 1.055 255 255 255
-0.386407 -0.192279 1.149 255 255 255
0.296663 -0.136542 1.051 255 255 255
-0.0143712 -0.0611341 0.92 255 255 255
-0.2553 0.591451 1.607 0 0 0
-0.439158 -0.0017301 1.275 255 255 255
-0.798027 -0.499171 1.599 255 255 255
0.221081 0.299512 1.128 255 255 255
-0.446996 -0.553633 1.591 0 0 0
0.137467 -0.0322161 0.867 255 255 255
-0.620315 -0.0867977 1.339 255 255 255
-0.615249 0.603044 1.668 255 255 255
-0.736385 0.367706 1.763 255 255 255
0.4514 -0.163355 1.13 255 255 255
-0.260902 -0.045424 1.124 255 255 255
-0.612111 0.00037854 1.4 255 255 255
-0.639472 -0.281392 1.273 255 255 255
-0.0769865 -0.304915 1.165 255 255 255
-0.283851 0.140562 1.286 255 255 255
-0.124603 -0.296651 1.185 255 255 255
0.442934 -0.439665 1.229 255 255 255
-0.396126 0.179769 1.378 255 255 255
0.143438 0.238133 1.044 255 255 255
-0.232944 -0.449825 1.33 0 0 0
0.499857 0.00870968 1.036 255 255 255
-0.0348381 -0.0110208 0.991 255 255 255
0.56747 -0.0726116 1.149 0 0 0
-0.108381 0.13764 1.156 255 255 255
0.00759133 0.127814 1.059 255 255 255
0.563454 0.124712 1.108 0 0 0
0.248495 -0.193349 1.072 0 0 0
0.0653417 -0.0571287 0.904 255 255 255
-0.00261143 0.0215328 1.005 255 255 255
0.0165779 -0.197096 1.083 0 0 0
-0.0984703 -0.23951 1.108 255 255 255
-0.67451 0.551055 1.744 255 255 255
-0.400906 -0.321402 1.327 255 255 255
0.0878182 0.227757 1.092 255 255 255
-0.277192 0.162494 1.294 255 255 255
-0.100233 -0.379919 1.217 255 255 255
0.138996 0.257792 1.062 255 255 255
-0.431342 0.601907 1.65 255 255 255
0.205698 -0.139699 1.024 255 255 255
0.346626 0.48309 1.257 255 255 255
-0.241943 0.217747 1.297 255 255 255
-0.433308 -0.338958 1.354 255 255 255
0.227569 -0.329776 1.222 255 255 255
-0.494562 0.623804 1.637 255 255 255
0.183968 -0.410456 1.308 255 255 255
-0.0587376 0.0189524 1.043 255 255 255
0.165338 0.0825916 0.92 0 0 0
0.132676 0.235045 1.053 255 255 255
-0.0477961 -0.251221 1.104 255 255 255
-0.525649 0.594901 1.668 255 255 255
0.331367 0.391222 1.327 255 255 255
-0.127859 0.125117 1.162 255 255 255
-0.572318 -0.291283 1.262 255 255 255
-0.637661 0.135468 1.509 255 255 255
0.0626124 -0.0911464 0.952 255 255 255
0.376495 -0.393876 1.275 0 0 0
-0.00553208 -0.0181984 0.945 255 255 255
0.143773 0.296923 1.085 255 255 255
-0.684787 -0.528116 1.532 255 255 255
-0.259572 -0.227417 1.176 255 255 255
0.548706 0.272454 1.079 0 0 0
0.245328 -0.0767673 0.928 255 255 255
0.0811514 -0.405308 1.098 255 255 255
-0.0186458 -0.391996 1.081 255 255 255
0.223789 -0.0383837 0.879 255 255 255
-0.054928 -0.38181 1.18 255 255 255
-0.580252 0.163296 1.494 255 255 255
-0.682136 -0.204697 1.299 255 255 255
0.118861 0.023598 0.897 255 255 255
-0.071904 -0.144848 1.037 255 255 255
0.519909 0.113564 1.039 255 255 255
0.228712 -0.429147 1.333 0 0 0
0.429433 0.0859997 0.994 255 255 255
-0.124672 0.514311 1.429 255 255 255
0.0605815 0.0909438 0.995 255 255 255
0.290302 0.0709433 1.059 255 255 255
0.222531 -0.0552266 0.897 255 255 255
0.0695182 -0.31621 1.057 255 255 255
-0.380855 0.303376 1.466 255 255 255
0.264201 0.0578582 1.072 0 0 0
-0.0344579 0.270485 1.203 255 255 255
0.138624 0.0937643 0.942 255 255 255
-0.247778 -0.160652 1.075 255 255 255
0.215906 0.403571 1.18 255 255 255
0.532437 -0.182017 1.192 255 255 255
0.307389 0.0126996 1.089 0 0 0
0.337061 0.290823 1.275 0 0 0
0.385591 -0.265231 1.11 255 255 255
0.699143 0.438666 1.425 255 255 255
-0.199038 0.420877 1.412 255 255 255
0.227616 -0.345836 1.244 0 0 0
-0.0957192 -0.210743 1.118 255 255 255
0.0220865 -0.0825242 0.942 255 255 255
0.340937 0.144193 1.005 0 0 0
0.590015 -0.315152 1.227 255 255 255
-0.392135 0.0746811 1.305 255 255 255
-0.789302 0.239156 1.686 255 255 255
0.4934 0.0380382 1.009 0 0 0
-0.427709 0.00866446 1.278 255 255 255
0.292244 -0.205583 1.012 0 0 0
0.138051 0.320021 1.11 255 255 255
-0.153216 -0.3234 1.213 255 255 255
0.0509658 0.0813919 0.997 255 255 255
-0.898112 0.574802 1.705 255 255 255
0.521315 -0.449019 1.18 255 255 255
-0.844343 0.49809 1.842 255 255 255
0.471799 0.0072136 1.064 0 0 0
-0.259857 0.438165 1.47 255 255 255
-0.236622 -0.379979 1.351 0 0 0
0.227416 -0.113887 0.988 255 255 255
-0.00110555 -0.377812 1.139 255 255 255
-0.00906411 0.00998419 0.995 255 255 255
-0.534065 0.453162 1.686 255 255 255
-0.258845 0.122132 1.227 0 0 0
-0.00101528 0.112627 1.046 255 255 255
0.523411 -0.00312155 1.046 255 255 255
-0.459141 0.487784 1.673 255 255 255
-0.218006 0.141521 1.222 255 255 255
-0.154063 -0.372161 1.286 0 0 0
-0.127747 0.225244 1.234 255 255 255
-0.255138 -0.312198 1.289 255 255 255
-0.463315 -0.132797 1.203 255 255 255
-0.74933 0.545341 1.753 255 255 255
0.0388826 0.214601 1.116 255 255 255
0.216236 -0.504883 1.31 255 255 255
0.39747 -0.083388 1.118 255 255 255
-0.548898 -0.15668 1.237 255 255 255
-0.317285 0.173662 1.348 255 255 255
-1.02875 0.428262 1.947 255 255 255
-0.395689 -0.324984 1.324 255 255 255
-0.0694167 -0.379836 1.198 255 255 255
-0.709725 0.0851785 1.532 255 255 255
-0.13259 -0.395782 1.205 255 255 255
-0.0810566 0.182941 1.169 255 255 255
-0.067205 -0.0644693 0.947 255 255 255
-0.808087 0.608483 1.646 255 255 255
0.138983 0.107491 0.955 255 255 255
0.573504 -0.280825 1.252 255 255 255
0.468366 0.279409 1.072 255 255 255
0.317564 0.10023 1.041 0 0 0
0.155976 0.20509 1.015 255 255 255
0.136375 0.342958 1.126 255 255 255
0.46526 0.16917 1.081 0 0 0
-0.306245 -0.0722324 1.143 255 255 255
-0.267523 0.158405 1.278 255 255 255
-0.0342001 -0.328049 1.194 0 0 0
0.00232611 0.0648835 1.018 255 255 255
-0.333306 -0.277006 1.244 255 255 255
0.369172 0.0548575 1.048 0 0 0
0.269447 -0.215677 1.013 255 255 255
0.308992 0.107639 1.064 255 255 255
0.100494 0.399027 1.201 255 255 255
-0.782046 0.0128796 1.532 255 255 255
0.51805 -0.01554 1.081 0 0 0
-0.68163 0.165327 1.559 255 255 255
0.550718 -0.40518 1.198 255 255 255
0.543767 -0.0431295 1.112 255 255 255
-0.650065 -0.0963696 1.351 255 255 255
0.41128 0.0953644 0.974 255 255 255
0.104422 -0.160438 1.062 255 255 255
0.0941936 0.47113 1.247 255 255 255
-0.574016 -0.314671 1.308 255 255 255
-0.419795 -0.168579 1.104 255 255 255
-0.465974 -0.0122088 1.286 255 255 255
-0.409557 -0.123125 1.167 255 255 255
0.313535 0.207538 1.137 255 255 255
-0.689775 -0.528116 1.532 255 255 255
0.243968 -0.109439 0.977 255 255 255
0.0559243 -0.183075 1.094 255 255 255
0.469592 0.467027 1.205 255 255 255
-0.487824 0.270528 1.509 255 255 255
-0.26543 -0.171763 1.09 255 255 255
-0.0388789 -0.159682 1.057 255 255 255
0.364035 0.369264 1.187 255 255 255
0.254286 -0.1365 1.025 255 255 255
0.370137 -0.404493 1.289 0 0 0
-0.481748 -0.412884 1.289 0 0 0
0.099651 0.112014 0.981 255 255 255
-0.0813513 0.0190796 1.05 255 255 255
0.140757 0.298018 1.089 255 255 255
-0.661162 0.569986 1.724 255 255 255
0.30812 0.185045 1.124 255 255 255
-0.645011 0.242975 1.62 255 255 255
-0.458634 -0.132576 1.201 255 255 255
-0.0478827 -0.201281 1.106 255 255 255
0.432048 -0.21802 1.118 255 255 255
-0.585247 0.07015 1.429 255 255 255
0.591526 0.412478 1.26 255 255 255
-0.22105 0.0870977 1.185 255 255 255
-0.180298 -0.479764 1.294 255 255 255
0.110687 -0.136367 1.024 255 255 255
0.100469 0.186268 1.039 0 0 0
-0.459769 0.597769 1.646 255 255 255
-0.292154 0.339902 1.429 255 255 255
0.106683 -0.220413 1.085 255 255 255
-0.612106 -0.142842 1.294 255 255 255
-0.591531 -0.251189 1.217 255 255 255
0.000668345 0.0449598 1.017 255 255 255
0.536127 -0.121754 1.154 255 255 255
-0.756578 0.297851 1.724 255 255 255
-0.858304 -0.583983 1.655 255 255 255
-0.0512972 -0.2149 1.102 0 0 0
0.643663 -0.201388 1.278 255 255 255
0.15168 -0.0148799 0.844 255 255 255
-0.66631 0.153984 1.547 255 255 255
-0.975572 0.448607 1.899 255 255 255
-0.709149 0.594391 1.659 255 255 255
0.206438 -0.366197 1.302 255 255 255
-0.634894 -0.118947 1.333 255 255 255
0.438541 0.330832 1.116 0 0 0
0.0748213 0.184684 1.059 255 255 255
-0.623546 0.226548 1.579 255 255 255
-0.370065 -0.114611 1.139 255 255 255
0.1444 -0.321577 1.26 255 255 255
-0.368436 0.37958 1.513 255 255 255
-0.089028 -0.15841 1.06 255 255 255
-0.184743 -0.356122 1.281 0 0 0
-0.519905 -0.0254585 1.322 255 255 255
-0.4379 -0.0501927 1.242 255 255 255
-0.143816 -0.393259 1.234 0 0 0
0.0186002 -0.122023 1.002 255 255 255
-0.206517 0.424374 1.416 0 0 0
-0.455323 -0.0856671 1.229 255 255 255
-0.649472 0.0804726 1.491 255 255 255
-0.267229 0.036679 1.176 255 255 255
0.0567083 0.0467035 0.984 255 255 255
0.179028 0.218573 1.024 255 255 255
0.0742219 0.0217159 0.942 255 255 255
0.320176 0.139294 1.017 255 255 255
-0.089944 0.260433 1.239 255 255 255
0.393624 -0.456399 1.27 255 255 255
-0.331698 -0.413544 1.429 255 255 255
0.115548 0.0059119 0.872 255 255 255
-0.639579 0.602632 1.682 255 255 255
0.0688158 0.0462289 0.974 255 255 255
0.315292 0.198632 1.098 0 0 0
-0.0175893 0.374676 1.257 255 255 255
0.258558 0.218531 1.156 255 255 255
0.346035 0.314841 1.342 0 0 0
-0.217006 0.165668 1.239 255 255 255
0.175093 -0.0430148 0.886 255 255 255
-0.818437 0.492135 1.831 255 255 255
0.144811 0.000228205 0.844 255 255 255
-0.232227 0.0208058 1.145 255 255 255
0.431167 -0.0861219 1.13 255 255 255
0.258286 -0.163439 1.048 255 255 255
0.378803 0.107107 1.01 255 255 255
-0.835885 -0.56008 1.664 255 255 255
0.3946 0.0124314 1.066 0 0 0
-0.0147023 -0.351829 1.189 255 255 255
-0.0455232 -0.3901 1.137 255 255 255
0.137785 -0.218288 1.066 255 255 255
0.20346 -0.413322 1.324 255 255 255
-0.73165 -0.393238 1.466 255 255 255
0.140141 0.199461 1.02 255 255 255
0.296246 0.0489524 1.068 0 0 0
-0.103614 0.493347 1.396 255 255 255
0.314527 -0.46578 1.302 255 255 255
-0.306877 0.396417 1.466 255 255 255
0.169027 0.226905 1.024 255 255 255
0.441762 0.0952237 0.989 255 255 255
0.441266 0.144276 1.041 255 255 255
-0.506851 -0.411902 1.273 255 255 255
0.146718 0.175494 0.997 0 0 0
0.0941714 -0.262656 1.171 255 255 255
-0.0611414 0.138573 1.118 255 255 255
0.0502285 -0.285546 1.126 0 0 0
-0.640444 0.565246 1.744 255 255 255
0.215281 -0.31931 1.22 255 255 255
0.451463 -0.440227 1.225 255 255 255
0.387676 0.290878 1.116 255 255 255
-0.342352 -0.125875 1.092 255 255 255
0.342232 0.129345 1.004 255 255 255
0.0303237 -0.0160964 0.913 255 255 255
0.463522 -0.436445 1.22 255 255 255
0.248222 0.494932 1.31 255 255 255
0.227493 -0.068396 0.917 255 255 255
-0.135724 -0.376583 1.252 0 0 0
0.206913 -0.451988 1.305 255 255 255
0.599948 -0.374775 1.176 255 255 255
-0.613269 -0.0420502 1.372 255 255 255
0.538272 -0.212183 1.232 255 255 255
0.455333 0.269172 1.066 255 255 255
-0.879082 0.423453 1.911 255 255 255
-0.473852 0.420419 1.603 255 255 255
0.113907 0.127848 0.98 255 255 255
-0.771033 0.55957 1.744 255 255 255
0.171732 -0.0922088 0.947 255 255 255
-0.383131 0.0569844 1.289 255 255 255
-0.209265 0.082398 1.173 255 255 255
0.579467 -0.371015 1.201 255 255 255
0.250664 -0.260213 1.089 0 0 0
0.0379628 -0.302877 1.143 0 0 0
0.365288 0.0987913 1.009 0 0 0
0.201654 0.331456 1.112 255 255 255
-0.529344 -0.269666 1.229 255 255 255
-0.767148 0.62228 1.633 255 255 255
-0.377932 -0.0556966 1.187 255 255 255
-0.143636 -0.232149 1.152 0 0 0
-0.2739 0.0329633 1.18 255 255 255
0.144364 -0.111483 0.981 255 255 255
0.190122 0.0440736 0.869 255 255 255
-0.102948 0.188503 1.18 255 255 255
-0.0407548 -0.255738 1.108 0 0 0
0.305798 -0.147083 1.053 255 255 255
-0.689981 0.502728 1.784 255 255 255
0.254116 -0.276373 1.104 0 0 0
-0.487352 0.0397613 1.345 255 255 255
0.296564 -0.0847144 0.967 255 255 255
-0.677208 -0.355477 1.384 255 255 255
-0.632783 0.336083 1.65 255 255 255
-0.0716645 0.194688 1.171 255 255 255
-0.313595 -0.492737 1.39 0 0 0
-0.164693 0.131118 1.182 255 255 255
0.438994 0.00204384 1.077 255 255 255
-0.51353 -0.131249 1.244 255 255 255
-0.594844 0.143846 1.494 255 255 255
0.551193 -0.451624 1.162 255 255 255
-0.628024 -0.288059 1.275 255 255 255
-0.749411 0.173571 1.612 255 255 255
0.555962 -0.0489949 1.122 255 255 255
-0.225692 -0.461168 1.313 255 255 255
0.146134 0.236992 1.039 255 255 255
0.104256 -0.419193 1.156 255 255 255
-0.46869 -0.425201 1.348 255 255 255
-0.582706 0.197381 1.513 255 255 255
0.561964 -0.306575 1.249 255 255 255
0.487379 0.0333748 1.017 255 255 255
-0.0878339 0.160491 1.158 255 255 255
-0.599308 -0.0176053 1.381 255 255 255
0.14704 -0.075987 0.937 255 255 255
-0.232279 -0.342891 1.302 255 255 255
-0.485768 0.520993 1.729 0 0 0
-0.0769593 -0.392169 1.194 255 255 255
-0.526228 -0.211566 1.173 255 255 255
-0.618908 0.275022 1.607 255 255 255
0.432563 0.210136 1.057 255 255 255
0.183289 0.416056 1.156 255 255 255
0.406928 -0.0595227 1.114 255 255 255
-0.304621 0.603678 1.633 255 255 255
0.113233 0.37572 1.171 0 0 0
-0.584524 0.179193 1.505 255 255 255
-0.16371 0.312311 1.313 255 255 255
0.337723 -0.18101 1.051 255 255 255
0.279342 0.119409 1.126 0 0 0
0.442152 0.0842633 1.012 0 0 0
0.00741212 0.0978737 1.034 255 255 255
0.252436 -0.260213 1.089 255 255 255
-0.725397 -0.124033 1.39 255 255 255
0.302944 0.0449229 1.055 255 255 255
-0.569496 -0.189049 1.225 255 255 255
0.114746 -0.453568 1.167 0 0 0
0.446008 -0.0957381 1.135 255 255 255
-0.466771 0.624937 1.633 255 255 255
0.0107993 0.108179 1.036 255 255 255
-0.0300895 -0.00943663 0.994 255 255 255
0.0522133 0.161667 1.055 255 255 255
-0.2703 -0.0719533 1.11 255 255 255
0.245037 0.16616 1.12 255 255 255
0.222308 -0.335837 1.237 255 255 255
0.334416 0.165448 1.015 255 255 255
-0.799502 0.0029073 1.532 255 255 255
0.121712 0.324634 1.126 255 255 255
0.595785 -0.28799 1.239 255 255 255
-0.205636 0.026096 1.132 255 255 255
-0.579954 0.145592 1.487 255 255 255
0.410065 0.470168 1.203 255 255 255
-0.121153 -0.413746 1.189 255 255 255
0.306628 0.149519 1.132 0 0 0
-0.182631 0.37181 1.375 255 255 255
-0.372474 0.505351 1.616 255 255 255
-0.163023 0.487468 1.439 255 255 255
0.139524 0.378997 1.152 255 255 255
-0.0177609 -0.284635 1.137 255 255 255
0.218238 -0.348233 1.26 255 255 255
0.557036 0.137086 1.106 0 0 0
-0.304767 0.292201 1.412 255 255 255
0.154365 0.381464 1.137 0 0 0
-0.609858 0.504214 1.779 255 255 255
0.109339 0.179103 1.027 255 255 255
-0.630033 0.310598 1.629 255 255 255
0.283203 -0.454259 1.324 255 255 255
-0.244518 0.0879062 1.196 0 0 0
0.52866 -0.389548 1.21 255 255 255
0.268994 -0.0772653 0.916 0 0 0
-0.208004 0.227924 1.283 0 0 0
0.00423754 0.169483 1.083 255 255 255
-0.157197 -0.00325286 1.09 255 255 255
0.415714 0.349074 1.128 255 255 255
-0.0652112 0.268331 1.229 255 255 255
-0.298337 0.051821 1.217 255 255 255
0.0112267 0.163286 1.077 255 255 255
0.40597 0.113006 1.004 0 0 0
0.294079 -0.212761 1.007 0 0 0
0.322161 0.0440287 1.034 255 255 255
-0.626484 -0.233605 1.208 255 255 255
-0.314912 0.363658 1.459 255 255 255
-0.0460823 -0.206681 1.106 0 0 0
-0.410931 -0.397917 1.375 0 0 0
0.0272361 -0.135834 1.02 255 255 255
0.230808 0.297609 1.149 255 255 255
-0.210073 -0.440983 1.336 255 255 255
0.416451 0.360726 1.13 255 255 255
0.484733 -0.0636018 1.122 0 0 0
0.313139 0.153105 1.032 255 255 255
0.405215 0.19906 1.053 255 255 255
0.221898 -0.0826995 0.944 255 255 255
-0.196656 0.1464 1.213 255 255 255
0.563087 0.331891 1.171 255 255 255
-0.238808 0.458236 1.473 255 255 255
-0.0140446 0.440963 1.308 255 255 255
0.270164 -0.488945 1.313 255 255 255
-0.0126487 0.262947 1.178 255 255 255
-0.731105 -0.45671 1.535 255 255 255
-0.808701 0.561201 1.758 255 255 255
-0.346195 0.136581 1.308 255 255 255
0.0635629 -0.241653 1.135 0 0 0
-0.0964729 -0.162777 1.066 255 255 255
0.0852448 0.193483 1.06 255 255 255
0.171952 -0.0292587 0.863 255 255 255
-0.783572 0.328535 1.753 255 255 255
0.444304 -0.164609 1.126 255 255 255
0.0545847 0.459152 1.27 255 255 255
0.0337958 0.0144689 0.97 255 255 255
0.590089 -0.281055 1.244 255 255 255
0.519745 0.150036 1.07 0 0 0
-0.178984 -0.0212603 1.104 255 255 255
-0.593309 -0.0957957 1.313 255 255 255
0.257962 -0.290364 1.145 0 0 0
-0.363312 0.605805 1.646 255 255 255
0.228511 -0.125909 1.007 255 255 255
0.421435 -0.159229 1.114 255 255 255
0.221484 -0.179803 1.085 255 255 255
-0.291135 0.172072 1.319 255 255 255
0.173079 0.0616191 0.898 255 255 255
-0.210274 -0.49354 1.297 255 255 255
0.39521 0.411949 1.182 255 255 255
-0.466133 0.0303377 1.316 255 255 255
0.367808 0.433385 1.232 0 0 0
-0.15954 -0.454221 1.247 0 0 0
0.353409 0.341697 1.362 0 0 0
-0.839583 -0.517546 1.624 255 255 255
0.28191 -0.495598 1.308 255 255 255
-0.608225 -0.215019 1.203 255 255 255
0.460886 0.177636 1.079 255 255 255
-0.462984 -0.421416 1.357 255 255 255
-0.601054 -0.491373 1.439 0 0 0
0.0685032 -0.140488 1.068 255 255 255
-0.501439 0.350772 1.583 255 255 255
0.488317 -0.177783 1.152 0 0 0
-0.580453 0.208188 1.52 255 255 255
-0.0775845 -0.0529115 0.961 255 255 255
-0.285013 -0.0877335 1.104 255 255 255
-0.34261 -0.172228 1.116 255 255 255
0.0927136 -0.418959 1.13 255 255 255
0.0804735 0.283898 1.139 255 255 255
0.513955 -0.087338 1.122 255 255 255
0.120202 0.0949587 0.954 0 0 0
0.269194 0.31538 1.249 255 255 255
0.661301 0.447178 1.366 255 255 255
-0.561909 0.126231 1.459 255 255 255
0.115148 0.124276 0.977 255 255 255
0.390157 0.42656 1.196 255 255 255
-0.587591 -0.043702 1.354 255 255 255
-0.644947 -0.220202 1.232 255 255 255
0.395691 -0.439865 1.27 255 255 255
0.138075 0.0787793 0.928 255 255 255
0.456798 0.100556 0.963 255 255 255
0.1417 -0.0322161 0.867 255 255 255
-0.917477 0.407334 1.953 255 255 255
0.277251 -0.139651 1.036 255 255 255
-0.0800854 -0.173541 1.079 255 255 255
-0.131713 0.198049 1.215 255 255 255
0.578568 -0.43197 1.16 255 255 255
0.2295 -0.194465 1.098 255 255 255
0.409361 -0.281922 1.141 0 0 0
0.411057 0.287448 1.096 255 255 255
-0.182578 -0.175765 1.104 255 255 255
-0.109491 -0.18274 1.092 255 255 255
-0.837961 0.564375 1.724 255 255 255
-0.371781 -0.226396 1.244 255 255 255
-0.121376 0.0480544 1.087 255 255 255
-0.0118608 0.434702 1.302 255 255 255
0.0594985 -0.264025 1.128 255 255 255
-0.179755 0.0331098 1.12 255 255 255
0.244812 0.45896 1.281 255 255 255
0.369301 0.475404 1.237 255 255 255
0.0972067 -0.00260527 0.873 255 255 255
-0.0452472 -0.381163 1.178 255 255 255
-0.239187 -0.48809 1.305 0 0 0
-0.0877045 0.131098 1.132 255 255 255
0.0617636 0.0597558 0.988 255 255 255
-0.399274 -0.137334 1.143 255 255 255
-0.687474 -0.493026 1.555 255 255 255
-0.426175 -0.197653 1.116 255 255 255
0.481624 0.195659 1.044 255 255 255
-0.783216 0.226422 1.673 255 255 255
-0.0420975 -0.215513 1.096 0 0 0
-0.0362043 0.257233 1.196 255 255 255
0.297268 -0.457983 1.31 255 255 255
0.0362056 0.443327 1.278 255 255 255
0.448936 -0.431665 1.229 255 255 255
-0.0502266 0.103889 1.079 255 255 255
0.432147 -0.377734 1.21 0 0 0
0.635499 -0.222861 1.27 255 255 255
-0.0978881 -0.2188 1.122 0 0 0
-0.25332 -0.278119 1.249 255 255 255
-0.00449672 -0.164203 1.064 255 255 255
0.112968 0.00592546 0.874 255 255 255
0.0847261 -0.181957 1.098 255 255 255
0.0979837 0.364287 1.171 255 255 255
0.501952 0.0250012 1.013 0 0 0
-0.979356 0.291861 1.865 255 255 255
-1.00352 0.334305 1.935 0 0 0
-0.0685596 0.421191 1.333 255 255 255
0.0702417 -0.302121 1.068 255 255 255
0.30746 0.277065 1.308 0 0 0
-0.368882 0.591691 1.659 255 255 255
-0.637731 -0.162419 1.299 255 255 255
0.431649 -0.112955 1.141 255 255 255
-0.111499 0.560166 1.47 255 255 255
-0.189545 0.0295698 1.124 255 255 255
-0.844192 0.590346 1.686 255 255 255
0.104728 0.0319299 0.927 255 255 255
0.0742529 0.00171743 0.905 255 255 255
0.0746383 -0.00266197 0.892 255 255 255
-0.199971 -0.055534 1.072 255 255 255
-0.0777845 0.0224541 1.048 255 255 255
-0.557871 0.57865 1.7 255 255 255
0.0576574 0.31692 1.165 255 255 255
0.344903 0.348476 1.281 0 0 0
-0.609832 -0.382369 1.4 255 255 255
0.417486 0.0965513 0.97 255 255 255
-0.315107 0.130907 1.294 255 255 255
-0.33866 -0.0821746 1.152 255 255 255
-0.299041 -0.413081 1.396 0 0 0
-0.427099 0.0044768 1.27 255 255 255
0.0941084 -0.30207 1.147 0 0 0
-0.623305 0.169499 1.528 255 255 255
-0.450958 -0.284586 1.297 255 255 255
0.400046 -0.0647279 1.11 255 255 255
0.56165 0.144546 1.108 0 0 0
-0.656406 -0.00893415 1.432 255 255 255
0.444254 0.27896 1.077 0 0 0
0.0135702 -0.114348 0.992 255 255 255
-0.509139 0.626778 1.624 255 255 255
-0.113864 -0.103079 0.977 255 255 255
-0.618895 -0.115814 1.322 255 255 255
0.457902 0.120477 0.972 255 255 255
-0.21426 0.125408 1.201 255 255 255
0.358777 0.393792 1.215 255 255 255
0.355808 -0.187558 1.059 255 255 255
-0.972481 0.448607 1.899 255 255 255
-0.377064 0.0784446 1.297 255 255 255
0.364751 0.486113 1.249 255 255 255
-0.578881 -0.219886 1.187 255 255 255
0.103816 0.263298 1.092 0 0 0
-0.295795 -0.0949198 1.104 255 255 255
0.402157 0.0465231 1.015 0 0 0
0.388554 0.185731 1.036 255 255 255
0.341106 0.369376 1.366 0 0 0
-0.736933 0.325906 1.724 255 255 255
0.586863 -0.404884 1.169 255 255 255
-0.119033 -0.341109 1.227 0 0 0
0.47312 0.0746767 0.994 0 0 0
0.282085 -0.504871 1.299 255 255 255
-0.536865 0.622147 1.612 255 255 255
0.331207 0.26648 1.16 255 255 255
-0.57023 -0.165664 1.244 255 255 255
0.427778 -0.44682 1.249 255 255 255
-0.755635 -0.443517 1.524 255 255 255
0.0861855 0.159513 1.03 255 255 255
-0.0101846 -0.270781 1.118 255 255 255
0.262776 0.19818 1.158 255 255 255
-0.636234 0.610589 1.659 255 255 255
-0.18831 -0.0212989 1.106 255 255 255
-0.652952 -0.0879645 1.357 255 255 255
-0.00108711 -0.380622 1.12 255 255 255
-1.00042 0.4435 1.917 255 255 255
0.208116 0.125676 0.988 255 255 255
0.377976 -0.467835 1.273 255 255 255
-0.461992 -0.480602 1.247 0 0 0
-0.218135 0.462267 1.463 255 255 255
0.225062 -0.0429177 0.884 255 255 255
0.229465 -0.103712 0.983 255 255 255
0.0919343 -0.0788679 0.935 255 255 255
0.358677 0.387592 1.208 255 255 255
-0.737532 0.607277 1.65 255 255 255
-0.528256 -0.312313 1.316 255 255 255
0.482559 -0.457708 1.208 255 255 255
0.299885 0.453944 1.267 255 255 255
-0.268506 -0.270933 1.244 255 255 255
-0.227462 -0.325406 1.275 255 255 255
-0.668975 0.197278 1.571 255 255 255
0.51171 0.174015 1.057 255 255 255
-0.489184 -0.408237 1.281 0 0 0
-0.450588 0.0651428 1.327 255 255 255
-0.1275 -0.423415 1.094 255 255 255
0.0717594 -0.0909549 0.95 255 255 255
0.368847 -0.0142015 1.114 255 255 255
0.273067 0.190101 1.178 255 255 255
0.464849 0.264207 1.06 255 255 255
0.538831 -0.274866 1.291 255 255 255
0.0877508 0.449029 1.242 255 255 255
-0.562916 0.432927 1.682 255 255 255
0.166138 0.0593501 0.908 0 0 0
-0.400059 -0.115529 1.167 255 255 255
-0.51514 -0.0783762 1.273 255 255 255
-0.136733 -0.0881342 0.97 255 255 255
-0.301515 0.125423 1.281 255 255 255
0.301502 0.371089 1.348 0 0 0
-0.880302 0.55994 1.719 255 255 255
-0.0188011 0.149293 1.09 255 255 255
-0.529646 -0.105307 1.273 255 255 255
-0.385264 -0.53719 1.551 255 255 255
0.0952972 -0.34486 1.185 0 0 0
-0.424461 -0.486809 1.313 0 0 0
-0.119846 -0.329865 1.215 255 255 255
0.345363 -0.377277 1.275 255 255 255
0.0610428 0.202507 1.09 255 255 255
-0.232043 -0.0991887 1.036 255 255 255
-0.0362092 0.0237446 1.03 255 255 255
0.170265 0.318111 1.085 255 255 255
0.358577 -0.163122 1.057 0 0 0
-0.102278 0.471289 1.378 255 255 255
0.291383 0.348873 1.322 0 0 0
0.00267114 -0.355423 1.169 255 255 255
-0.548287 0.518288 1.758 0 0 0
-0.206964 0.303368 1.33 0 0 0
-0.792684 0.0255269 1.543 255 255 255
-0.199047 0.0222929 1.126 255 255 255
0.0398491 0.143266 1.046 255 255 255
0.039897 -0.183075 1.094 255 255 255
0.403262 -0.100298 1.124 255 255 255
-0.253474 -0.0761176 1.092 255 255 255
0.421882 -0.171022 1.12 255 255 255
0.534229 -0.285984 1.275 255 255 255
-0.250069 0.599296 1.607 0 0 0
-0.478782 -0.412998 1.27 0 0 0
0.0755133 -0.341521 1.094 0 0 0
-0.678345 -0.304028 1.308 255 255 255
-0.342751 0.213145 1.362 255 255 255
0.407659 -0.0723422 1.116 255 255 255
0.147026 0.140314 0.967 0 0 0
-0.108933 0.501457 1.406 255 255 255
0.356729 0.34655 1.182 255 255 255
-0.403217 0.26031 1.452 255 255 255
-0.252618 -0.0728293 1.096 255 255 255
-0.278626 -0.234391 1.192 255 255 255
0.31571 -0.381137 1.281 255 255 255
-0.612471 -0.420775 1.422 255 255 255
0.343866 0.124443 1.004 255 255 255
0.121392 -0.112393 0.989 255 255 255
0.023215 -0.401415 1.064 0 0 0
-0.658706 0.373052 1.696 255 255 255
-0.471835 -0.443545 1.257 0 0 0
-0.292944 0.424287 1.48 255 255 255
-0.583124 -0.0283826 1.359 255 255 255
-0.150905 -0.0906376 0.98 255 255 255
0.272476 -0.243461 1.012 255 255 255
0.0154605 0.0577992 1.01 255 255 255
0.35405 0.180246 1.024 0 0 0
-0.502689 -0.339552 1.322 255 255 255
0.416079 0.0354432 1.029 255 255 255
-0.0478854 -0.367525 1.196 255 255 255
0.329938 0.0775316 1.032 0 0 0
0.375376 0.249994 1.096 255 255 255
0.251489 0.195271 1.141 255 255 255
0.403301 -0.253497 1.114 255 255 255
-0.356495 -0.197466 1.18 255 255 255
0.200203 0.305716 1.104 255 255 255
0.446671 -0.0807479 1.132 255 255 255
-0.51065 -0.426455 1.267 255 255 255
0.0183408 -0.198858 1.083 0 0 0
-0.358468 0.0368642 1.247 255 255 255
-0.361192 0.40218 1.524 255 255 255
0.167921 -0.337887 1.283 0 0 0
-0.316528 0.285772 1.403 255 255 255
0.258558 0.222293 1.156 255 255 255
-0.076411 -0.223867 1.102 0 0 0
0.181508 -0.119191 0.992 255 255 255
-0.0197071 -0.405762 1.044 255 255 255
-0.152466 -0.412998 1.239 0 0 0
0.0793037 0.20284 1.073 255 255 255
-0.341046 0.612349 1.642 255 255 255
-0.4221 0.344233 1.52 255 255 255
0.194434 -0.33176 1.252 255 255 255
0.578715 -0.313694 1.237 255 255 255
0.260196 -0.22092 1.022 255 255 255
0.555874 -0.123846 1.156 255 255 255
-0.86908 -0.538198 1.655 255 255 255
0.275522 0.411163 1.308 0 0 0
0.0685131 0.00930185 0.927 255 255 255
0.342323 -0.197542 1.039 0 0 0
0.0949359 -0.137698 1.034 255 255 255
0.524297 -0.0173311 1.083 0 0 0
0.375282 0.34825 1.162 255 255 255
0.505178 -0.200981 1.201 255 255 255
-0.380544 0.394319 1.532 255 255 255
-0.232993 -0.0425089 1.096 255 255 255
-0.59429 0.385579 1.655 255 255 255
-0.795675 0.613148 1.637 255 255 255
-0.545541 -0.0836862 1.291 255 255 255
-0.568812 0.0459437 1.4 255 255 255
-0.604245 -0.293821 1.273 255 255 255
0.411677 0.325307 1.122 0 0 0
-0.152967 -0.100513 0.983 255 255 255
0.309264 0.0985168 1.059 255 255 255
-0.0788728 0.390338 1.324 255 255 255
0.604137 -0.226345 1.278 255 255 255
0.2519 -0.351088 1.234 255 255 255
0.231479 -0.318246 1.201 255 255 255
-0.236158 0.10604 1.203 0 0 0
0.268156 -0.195261 1.027 255 255 255
0.344054 0.0622355 1.029 255 255 255
-0.0946203 -0.112733 0.992 255 255 255
-0.0551804 -0.124517 1.009 255 255 255
-0.502378 -0.209582 1.162 255 255 255
-0.346959 -0.325903 1.319 255 255 255
-0.400868 -0.228571 1.192 255 255 255
0.109235 0.346224 1.149 0 0 0
0.545662 -0.418845 1.187 255 255 255
-0.296395 0.206437 1.333 255 255 255
0.0204565 -0.26332 1.102 0 0 0
-0.163069 -0.0445205 1.059 255 255 255
0.0637567 0.0908524 0.994 255 255 255
0.197251 -0.150489 1.041 255 255 255
-0.287849 -0.0862483 1.108 255 255 255
-0.293175 -0.0148517 1.165 255 255 255
0.22346 -0.093864 0.964 255 255 255
0.254583 0.15661 1.13 255 255 255
0.429811 -0.444787 1.249 255 255 255
-0.80977 0.463359 1.859 255 255 255
-0.688609 -0.558499 1.513 255 255 255
0.0435445 -0.302877 1.143 0 0 0
-0.310191 0.0158671 1.194 255 255 255
0.532548 -0.193163 1.201 255 255 255
0.0774552 0.00467835 0.908 255 255 255
-0.404101 -0.40452 1.39 0 0 0
-0.128454 -0.318776 1.203 255 255 255
0.0261193 -0.275251 1.114 0 0 0
-0.238789 -0.102561 1.036 255 255 255
0.136123 0.0694929 0.925 255 255 255
-0.709442 -0.153531 1.351 255 255 255
0.31988 0.421437 1.281 255 255 255
0.429792 -0.114812 1.141 255 255 255
0.3845 -0.284217 1.128 0 0 0
0.426434 -0.11996 1.137 255 255 255
0.511235 0.0086172 1.025 0 0 0
-0.539976 -0.225887 1.178 255 255 255
-0.35718 -0.221118 1.215 255 255 255
0.15359 0.167648 0.989 255 255 255
-0.181239 0.340379 1.348 255 255 255
-0.418225 0.472331 1.62 255 255 255
-0.763789 0.310866 1.734 255 255 255
-0.209619 -0.190047 1.114 255 255 255
0.405473 0.315614 1.12 0 0 0
0.251875 0.107401 1.079 0 0 0
-0.280588 -0.00912486 1.16 255 255 255
-0.0598076 0.0711443 1.062 255 255 255
0.084521 -0.139962 1.051 255 255 255
-0.279484 -0.396543 1.378 0 0 0
-0.330549 -0.0922062 1.137 255 255 255
-0.207681 -0.494504 1.294 255 255 255
0.229629 -0.0338985 0.874 0 0 0
-0.146156 -0.281589 1.22 255 255 255
0.241917 -0.155355 1.051 255 255 255
0.0546025 0.0399298 0.975 255 255 255
-0.448181 0.117579 1.359 255 255 255
0.468132 -0.0968113 1.126 255 255 255
0.0773448 0.346705 1.176 255 255 255
0.258923 -0.238044 1.017 255 255 255
-0.371946 -0.136488 1.106 255 255 255
0.246344 0.0702064 1.048 0 0 0
0.00287907 0.389923 1.26 255 255 255
-0.483981 -0.244909 1.196 255 255 255
0.117349 0.335207 1.137 255 255 255
0.166176 -0.0354421 0.877 255 255 255
-0.636749 -0.16639 1.297 255 255 255
0.476677 -0.0242006 1.075 255 255 255
0.0677992 -0.0821738 0.938 255 255 255
-0.134854 -0.114233 0.991 255 255 255
0.414669 -0.366368 1.205 0 0 0
0.539642 -0.379919 1.217 255 255 255
-0.181764 -0.00150621 1.11 255 255 255
0.542283 0.451429 1.232 255 255 255
0.494144 -0.377051 1.227 255 255 255
-0.244846 0.00216909 1.143 255 255 255
-0.395431 -0.19496 1.132 255 255 255
-0.615735 -0.429292 1.435 255 255 255
-0.135033 0.0249664 1.083 255 255 255
0.066343 0.0170626 0.939 255 255 255
-0.66087 0.539636 1.753 255 255 255
0.180008 -0.0940468 0.95 255 255 255
0.0930724 0.171578 1.032 255 255 255
0.338403 0.328144 1.192 255 255 255
0.13455 -0.0773464 0.935 255 255 255
-0.193397 -0.282048 1.205 0 0 0
-0.223506 -0.179034 1.102 255 255 255
-0.418225 0.625235 1.62 255 255 255
0.30593 0.219885 1.194 0 0 0
-0.174215 -0.316169 1.208 255 255 255
0.251901 -0.175163 1.057 0 0 0
0.501038 0.399268 1.173 255 255 255
0.603062 -0.199655 1.267 255 255 255
-0.696096 -0.542719 1.524 255 255 255
-0.812705 0.0727411 1.587 255 255 255
-0.83732 0.482971 1.853 255 255 255
0.0619526 -0.312848 1.075 0 0 0
0.135629 0.170969 0.999 255 255 255
0.0301996 -0.367475 1.066 0 0 0
-0.70197 0.46716 1.815 255 255 255
0.327303 0.181127 1.029 255 255 255
0.152863 -0.436553 1.297 255 255 255
0.104075 -0.409078 1.154 255 255 255
-0.767953 0.347623 1.763 255 255 255
0.14995 -0.0121042 0.842 255 255 255
-0.352737 -0.371066 1.375 255 255 255
0.402732 0.222808 1.06 255 255 255
-0.205971 0.0998324 1.176 0 0 0
-0.500306 0.134316 1.419 255 255 255
-0.0349612 -0.21373 1.096 0 0 0
0.233091 -0.474544 1.297 255 255 255
-0.0840414 -0.223282 1.108 0 0 0
-0.529475 0.0293317 1.369 255 255 255
0.181786 -0.0320675 0.863 255 255 255
-0.283649 -0.260176 1.222 255 255 255
0.24278 -0.250768 1.118 255 255 255
-0.281101 0.142322 1.283 255 255 255
-0.692863 -0.428303 1.48 255 255 255
-0.498745 0.612349 1.642 255 255 255
0.472925 0.233902 0.997 255 255 255
-0.185224 0.0294646 1.12 255 255 255
0.328154 0.45156 1.249 255 255 255
-0.12576 -0.398665 1.196 255 255 255
0.0222099 -0.261052 1.1 0 0 0
-0.145432 0.381593 1.362 255 255 255
-0.207928 0.547456 1.528 255 255 255
-0.298752 0.412692 1.473 255 255 255
0.223261 -0.370931 1.289 255 255 255
-0.444553 0.0924973 1.348 255 255 255
0.121634 -0.104776 0.978 255 255 255
-0.493399 0.615021 1.642 255 255 255
0.219313 0.164196 1.083 255 255 255
-0.740008 -0.503028 1.603 255 255 255
-0.153267 0.0307285 1.1 255 255 255
0.447363 0.456516 1.198 255 255 255
-0.355963 -0.174356 1.118 255 255 255
0.0653306 -0.394334 1.073 0 0 0
-0.658642 0.000389896 1.442 255 255 255
-0.407944 0.255584 1.452 255 255 255
-0.861317 0.517244 1.784 255 255 255
0.00399104 -0.135834 1.02 255 255 255
0.470438 0.0454019 1.027 0 0 0
-0.589346 -0.396017 1.384 255 255 255
0.0507286 -0.133164 1.025 255 255 255
-0.207738 -0.182952 1.104 255 255 255
-0.581715 0.438847 1.705 255 255 255
0.208555 0.173156 1.073 255 255 255
0.346728 0.187597 1.037 255 255 255
-0.386901 0.3424 1.48 255 255 255
-0.225122 -0.0879778 1.043 255 255 255
0.333354 0.180774 1.027 255 255 255
0.00505302 -0.0502136 0.912 255 255 255
-0.431156 0.620755 1.629 255 255 255
0.356793 -0.0105948 1.116 0 0 0
0.510747 -0.176602 1.169 255 255 255
-0.151491 0.19014 1.215 0 0 0
0.368352 -0.285336 1.118 0 0 0
0.349347 0.33298 1.381 0 0 0
0.115457 -0.409657 1.194 0 0 0
-0.513357 0.613841 1.646 255 255 255
-0.613109 0.598111 1.677 255 255 255
-0.185173 0.494229 1.466 255 255 255
0.113606 0.0582581 0.938 0 0 0
0.339239 0.383874 1.324 0 0 0
0.192952 -0.0351188 0.869 255 255 255
-0.811469 -0.566036 1.642 255 255 255
0.0610359 -0.368474 1.03 255 255 255
-0.804819 0.508465 1.794 255 255 255
0.132081 0.245695 1.062 255 255 255
0.348607 0.31637 1.387 0 0 0
0.17145 0.347037 1.104 255 255 255
0.0569847 0.153773 1.048 255 255 255
-0.119701 0.0177348 1.072 255 255 255
-0.326375 0.295333 1.416 255 255 255
-0.407609 -0.207488 1.13 255 255 255
-0.0424048 -0.2099 1.104 0 0 0
0.495411 0.158889 1.048 255 255 255
0.100742 -0.0755815 0.932 255 255 255
-0.298437 -0.0467172 1.156 255 255 255
-0.00563358 0.497114 1.333 255 255 255
0.0307946 -0.411861 1.087 255 255 255
0.0907682 -0.342755 1.152 0 0 0
-0.685866 0.551055 1.744 255 255 255
0.388874 0.233825 1.079 255 255 255
-0.524209 -0.333098 1.322 255 255 255
-0.742644 0.346715 1.744 255 255 255
0.393119 0.219771 1.062 255 255 255
-0.0587696 -0.318442 1.18 255 255 255
0.355522 0.339626 1.178 255 255 255
0.613402 -0.262413 1.242 255 255 255
0.183182 0.0136485 0.825 0 0 0
0.268117 -0.411167 1.324 255 255 255
-0.38218 -0.324493 1.322 255 255 255
0.506247 0.0200953 1.015 0 0 0
-0.48192 0.579372 1.686 255 255 255
0.559751 -0.226458 1.267 255 255 255
0.591627 -0.41355 1.156 255 255 255
0.399115 0.209739 1.055 255 255 255
-0.399279 0.0230227 1.267 255 255 255
0.421435 0.322987 1.114 255 255 255
-0.498534 -0.30171 1.289 255 255 255
0.335026 0.0637858 1.027 255 255 255
0.229741 -0.4289 1.339 0 0 0
-0.625362 0.0212558 1.425 255 255 255
0.171718 0.00291874 0.828 255 255 255
-0.0117468 -0.384248 1.094 0 0 0
0.46876 -0.46355 1.213 255 255 255
-0.0307191 0.283873 1.21 255 255 255
-0.822399 0.553197 1.769 255 255 255
0.451276 0.4017 1.158 255 255 255
-0.930797 0.414307 1.941 255 255 255
-0.776326 0.518652 1.769 255 255 255
0.0554303 -0.232991 1.12 0 0 0
-0.424949 0.413528 1.567 255 255 255
0.321764 -0.463991 1.297 255 255 255
-0.330401 -0.0475255 1.176 255 255 255
-0.467095 -0.265811 1.239 255 255 255
-0.725552 0.0398035 1.513 255 255 255
0.144297 0.0965218 0.939 255 255 255
-0.421229 -0.21154 1.132 255 255 255
-0.401797 0.599222 1.65 255 255 255
-0.459384 -0.421988 1.366 255 255 255
0.152691 -0.0121042 0.842 255 255 255
-0.312987 0.205187 1.339 255 255 255
0.344385 0.178754 1.025 255 255 255
0.41567 0.424694 1.18 255 255 255
0.0165167 -0.203391 1.079 255 255 255
-0.125227 0.568168 1.491 255 255 255
0.026872 -0.0420892 0.897 255 255 255
-0.446492 -0.569682 1.571 255 255 255
0.0383763 0.36018 1.215 255 255 255
-0.68097 0.616207 1.624 255 255 255
-0.0790863 0.25192 1.227 255 255 255
0.294268 0.202398 1.194 0 0 0
-0.658692 0.605759 1.668 255 255 255
-0.65404 -0.304753 1.302 255 255 255
-0.181783 0.422761 1.403 255 255 255
-0.0988171 -0.0182649 1.036 255 255 255
0.453594 0.320088 1.104 255 255 255
-0.0239285 0.232005 1.167 255 255 255
-0.302942 0.616207 1.624 255 255 255
0.34346 -0.00513732 1.114 0 0 0
-0.547604 0.0318362 1.381 255 255 255
-0.181968 0.393111 1.387 255 255 255
0.450916 0.00377885 1.072 255 255 255
0.544129 -0.401665 1.205 255 255 255
0.0674128 0.167896 1.051 255 255 255
-0.15952 0.154724 1.201 255 255 255
0.438701 0.181717 1.072 255 255 255
-0.360911 -0.139706 1.089 255 255 255
-0.467095 -0.0823317 1.239 255 255 255
0.23004 0.247734 1.118 255 255 255
0.560055 0.457583 1.227 255 255 255
-0.710858 -0.053099 1.429 255 255 255
0.505383 0.000284175 1.051 255 255 255
-0.351786 -0.0859239 1.152 255 255 255
0.39565 -0.0852073 1.118 255 255 255
0.0178638 -0.345319 1.167 255 255 255
-0.843926 0.568332 1.719 255 255 255
-0.384713 0.434249 1.559 255 255 255
-0.0136432 -0.104455 0.975 255 255 255
-0.427855 -0.512054 1.559 255 255 255
0.116845 0.375078 1.169 255 255 255
0.595572 -0.263469 1.247 255 255 255
-0.505883 -0.0251889 1.308 255 255 255
-0.295578 -0.219979 1.167 255 255 255
0.251538 -0.457227 1.339 255 255 255
0.589745 -0.421074 1.156 255 255 255
-0.135267 0.151879 1.194 255 255 255
-0.225125 0.298699 1.348 255 255 255
0.249077 0.246694 1.147 255 255 255
-0.579651 0.355664 1.629 255 255 255
-0.37769 -0.552334 1.551 255 255 255
0.180843 0.0428067 0.872 255 255 255
-0.292367 0.613564 1.624 255 255 255
-0.683032 -0.00672833 1.459 255 255 255
0.433868 0.331425 1.118 255 255 255
-0.410786 0.216653 1.429 255 255 255
0.156971 -0.155946 1.055 255 255 255
-0.159076 0.122066 1.169 255 255 255
-0.612341 -0.127359 1.308 255 255 255
0.119516 0.365896 1.158 255 255 255
0.255704 -0.23635 1.024 255 255 255
0.0790799 0.479989 1.265 255 255 255
-0.622728 0.0142388 1.419 255 255 255
0.333689 0.414711 1.286 255 255 255
0.203428 -0.00111269 0.82 255 255 255
0.0310485 0.0306594 0.983 255 255 255
0.279781 -0.40407 1.308 255 255 255
0.35434 -0.00151163 1.114 0 0 0
-0.254766 0.330626 1.39 0 0 0
0.0412098 0.235682 1.13 255 255 255
0.260839 -0.445148 1.342 255 255 255
0.0508084 -0.322206 1.139 255 255 255
-0.337144 -0.156271 1.081 255 255 255
-0.170716 0.464174 1.425 0 0 0
0.113115 -0.354529 1.232 0 0 0
0.413503 -0.0800346 1.122 0 0 0
-0.729175 -0.533715 1.563 0 0 0
-0.512362 -0.360541 1.336 255 255 255
0.252436 -0.251352 1.089 255 255 255
-0.394097 0.551935 1.686 0 0 0
0.040346 -0.321927 1.158 0 0 0
-0.561628 -0.172365 1.234 255 255 255
0.439496 0.235045 1.053 255 255 255
0.173071 -0.455048 1.339 255 255 255
0.337083 0.31235 1.237 255 255 255
0.148168 -0.0674874 0.925 255 255 255
0.257999 0.0611183 1.068 0 0 0
0.108163 0.208347 1.048 0 0 0
-0.702539 -0.0163477 1.47 255 255 255
0.364873 0.330191 1.165 255 255 255
-0.00100655 0.0998452 1.037 255 255 255
0.333306 0.253348 1.135 255 255 255
-0.448317 -0.148067 1.169 255 255 255
-0.717127 0.515427 1.758 255 255 255
0.401958 -0.364973 1.22 0 0 0
-0.120772 -0.0413019 1.022 255 255 255
-0.602044 -0.0673373 1.342 255 255 255
0.179785 -0.0521905 0.895 255 255 255
0.114974 0.402779 1.189 255 255 255
0.257793 -0.178447 1.046 0 0 0
-0.367285 0.590767 1.664 255 255 255
-0.278701 -0.0654277 1.122 255 255 255
-0.509944 -0.194454 1.162 255 255 255
0.495119 0.166185 1.051 255 255 255
-0.461153 -0.186598 1.126 255 255 255
-0.0145899 -0.0362257 0.934 255 255 255
0.456279 0.147636 1.029 0 0 0
0.376319 -0.247628 1.104 0 0 0
0.116231 -0.121779 1 255 255 255
0.172166 0.280787 1.064 255 255 255
0.446021 -0.41267 1.232 255 255 255
-0.403088 0.0730022 1.313 255 255 255
-0.635188 0.548194 1.753 255 255 255
0.155277 -0.0557191 0.905 255 255 255
-0.0570227 0.265464 1.225 255 255 255
0.12078 -0.452444 1.189 0 0 0
-0.316393 0.389777 1.477 255 255 255
-0.198356 -0.227186 1.165 255 255 255
0.461741 0.294069 1.081 255 255 255
-0.374079 0.290426 1.449 255 255 255
0.270353 -0.138707 1.029 255 255 255
-0.0930504 -0.396423 1.201 255 255 255
0.46364 0.314775 1.098 255 255 255
-0.00646287 -0.263797 1.104 0 0 0
0.234875 0.40633 1.229 255 255 255
-0.740769 0.542488 1.753 255 255 255
-0.773537 0.0560914 1.555 255 255 255
0.465751 -0.00319317 1.07 255 255 255
-0.189358 -0.448348 1.313 255 255 255
0.0173007 -0.0740649 0.932 255 255 255
0.171499 -0.101602 0.963 255 255 255
0.174886 0.2539 1.039 255 255 255
0.30661 0.142747 1.167 0 0 0
-0.560223 0.0410916 1.39 255 255 255
-0.545965 -0.0777432 1.297 255 255 255
-0.624045 -0.0994241 1.333 255 255 255
-0.848969 0.618476 1.637 255 255 255
-0.0675851 0.45969 1.357 255 255 255
-0.590808 0.313379 1.616 255 255 255
-0.393162 0.580734 1.682 255 255 255
0.276522 0.432535 1.283 255 255 255
0.428188 -0.297842 1.167 0 0 0
-0.418848 0.10037 1.336 255 255 255
-0.237458 0.25793 1.319 255 255 255
0.35927 -0.328507 1.21 0 0 0
-0.955904 0.505649 1.826 255 255 255
-0.187382 -0.193238 1.122 255 255 255
0.100851 0.00453409 0.88 255 255 255
0.38779 0.105672 1.012 255 255 255
-0.556953 -0.164732 1.237 255 255 255
0.515781 -0.0818605 1.122 255 255 255
-0.1157 -0.329322 1.213 255 255 255
-0.420426 0.0340421 1.294 255 255 255
0.463455 -0.0914763 1.128 255 255 255
0.384495 0.100732 1.012 255 255 255
0.175369 -0.0307697 0.866 255 255 255
-0.292209 -0.234391 1.192 255 255 255
0.0676135 -0.233646 1.141 255 255 255
-0.414534 0.548068 1.691 0 0 0
-0.213975 -0.0422762 1.09 255 255 255
0.605825 0.431453 1.286 255 255 255
0.226621 0.387634 1.196 255 255 255
-0.673386 -0.050063 1.409 255 255 255
0.19839 0.344742 1.114 255 255 255
0.0240762 0.45625 1.297 255 255 255
-0.0580226 0.184211 1.165 255 255 255
-0.65708 -0.205065 1.275 255 255 255
0.438805 0.35212 1.126 255 255 255
0.323487 0.154189 1.017 255 255 255
-0.197254 0.231738 1.281 0 0 0
0.15168 -0.0162534 0.844 255 255 255
0.428341 0.0815552 0.999 255 255 255
-0.270713 -0.105134 1.062 255 255 255
-0.00112011 0.231298 1.154 255 255 255
0.243298 0.100051 1.057 255 255 255
-0.581021 0.216744 1.528 255 255 255
-0.201186 -0.150224 1.051 255 255 255
-0.778528 -0.5483 1.629 255 255 255
0.152241 -0.318766 1.257 255 255 255
-0.420932 -0.0859552 1.205 255 255 255
0.12925 0.406721 1.178 0 0 0
-0.365192 -0.499244 1.52 255 255 255
-0.0330263 0.540991 1.39 255 255 255
-0.306615 0.466661 1.524 255 255 255
-0.298716 0.309159 1.416 255 255 255
0.368912 0.000296883 1.098 255 255 255
0.4284 -0.342837 1.205 0 0 0
-0.0604852 -0.255276 1.106 255 255 255
-0.845902 0.275116 1.758 255 255 255
0.398134 -0.481551 1.239 255 255 255
-0.300663 -0.202435 1.143 255 255 255
-0.40598 -0.388417 1.381 0 0 0
-0.516837 -0.0903777 1.267 255 255 255
0.11665 -0.0607354 0.914 255 255 255
-0.271617 -0.0754298 1.108 255 255 255
-0.146685 -0.29258 1.208 255 255 255
0.0509266 -0.332952 1.029 255 255 255
-0.688467 0.173382 1.563 255 255 255
-0.397509 -0.173654 1.102 255 255 255
0.0847261 -0.176597 1.098 255 255 255
0.561434 -0.346251 1.217 255 255 255
0.192537 0.227721 1.043 255 255 255
0.391955 0.107107 1.01 0 0 0
0.384582 -0.3629 1.254 255 255 255
-0.0946934 -0.0794144 0.96 255 255 255
0.187777 -0.119071 0.991 255 255 255
-0.196432 -0.113023 1.009 255 255 255
-0.111908 -0.173863 1.081 255 255 255
-0.256594 -0.215651 1.154 255 255 255
-0.00413326 -0.106368 0.978 255 255 255
-0.854464 0.551943 1.729 255 255 255
-0.460408 0.169332 1.403 255 255 255
-0.755418 0.508571 1.774 255 255 255
0.262789 -0.0708357 0.91 0 0 0
-0.108895 0.186899 1.182 255 255 255
-0.319479 0.193405 1.348 255 255 255
0.0677024 -0.41387 1.083 255 255 255
-0.489339 -0.214514 1.158 255 255 255
