ply
format ascii 1.0
comment Created by Open3D
element vertex 1310
property double x
property double y
property double z
property uchar red
property uchar green
property uchar blue
end_header
-0.133743 0.0396548 0.897 255 255 255
-0.164144 -0.141478 1.089 255 255 255
0.381034 0.0434352 0.759 255 255 255
-0.353142 -0.137638 0.997 0 0 0
0.387334 0.0241358 0.864 0 0 0
0.338077 0.150827 0.696 255 255 255
0.234783 0.195761 0.626 255 255 255
-0.123995 -0.145447 1.079 255 255 255
-0.441186 0.0678513 0.884 255 255 255
-0.237052 0.357475 0.967 255 255 255
0.181116 0.153532 0.698 255 255 255
0.285055 0.191581 0.629 255 255 255
0.0586258 0.20271 0.662 255 255 255
-0.0325909 0.308863 0.814 255 255 255
-0.360984 0.261011 0.983 255 255 255
-0.636326 0.446436 1.275 255 255 255
0.0411059 0.132783 0.734 255 255 255
-0.668292 -0.313949 1.305 255 255 255
0.468052 -0.29477 0.98 255 255 255
0.375721 -0.333377 1.015 255 255 255
0.338929 -0.0346314 0.932 255 255 255
-0.459192 -0.134931 1.108 255 255 255
-0.398155 -0.0176302 1 255 255 255
-0.259365 -0.00615158 0.986 255 255 255
0.404662 -0.303047 1.013 255 255 255
0.0208868 0.038181 0.833 255 255 255
0.225721 0.0647277 0.809 255 255 255
0.0808637 0.284443 0.737 255 255 255
0.36555 0.111439 0.768 255 255 255
-0.497965 0.321828 1.11 0 0 0
0.12041 -0.206978 0.67 0 0 0
0.459906 -0.153877 1.041 255 255 255
-0.204847 -0.0276681 1.01 255 255 255
-0.0700572 0.249805 0.803 255 255 255
-0.499745 0.376036 1.143 255 255 255
-0.488197 -0.0314151 1.025 255 255 255
-0.00621742 0.080011 0.831 255 255 255
0.384438 -0.28409 1.034 255 255 255
0.144862 -0.100943 0.758 0 0 0
-0.349225 0.0450372 0.888 255 255 255
0.114185 -0.213841 0.685 255 255 255
-0.069751 0.162831 0.719 255 255 255
-0.347882 -0.165731 1.01 0 0 0
-0.206343 0.028944 0.928 255 255 255
0.18112 0.237413 0.61 255 255 255
0.0895316 -0.301213 0.816 255 255 255
0.28162 0.221534 0.574 255 255 255
0.465186 -0.302475 0.974 255 255 255
0.2751 0.221368 0.576 255 255 255
-0.71211 -0.494782 1.47 255 255 255
-0.198511 0.0170989 0.941 255 255 255
-0.268703 0.0534985 0.909 255 255 255
-0.322992 0.0581481 0.868 255 255 255
-0.025944 -0.205166 0.738 255 255 255
0.141956 0.155333 0.701 255 255 255
0.288825 0.158244 0.684 255 255 255
-0.388893 -0.0996674 1.059 255 255 255
0.276414 0.0517679 0.792 255 255 255
0.0979203 0.221589 0.651 255 255 255
0.0919622 0.0412841 0.814 255 255 255
0.174144 -0.021098 0.874 0 0 0
0.439802 -0.256501 1.018 255 255 255
-0.364386 0.0596292 0.869 255 255 255
-0.308876 -0.189594 1.167 255 255 255
-0.440964 -0.122848 1.081 255 255 255
0.237944 0.105564 0.78 255 255 255
-0.582026 0.419924 1.222 255 255 255
0.497401 -0.173027 1.024 255 255 255
0.373082 0.127157 0.736 255 255 255
0.0383336 -0.049531 0.927 255 255 255
-0.652204 0.360099 1.242 255 255 255
0.0114653 -0.155813 0.749 255 255 255
-0.0073659 0.167638 0.686 255 255 255
0.300574 -0.0883947 1.09 255 255 255
-0.155819 0.18567 0.814 255 255 255
0.108108 0.0176976 0.826 255 255 255
0.132974 -0.281331 0.79 255 255 255
-0.152558 0.0155676 0.941 255 255 255
-0.67163 -0.195033 1.291 255 255 255
0.124604 -0.171175 0.675 0 0 0
-0.0057077 -0.0806553 0.975 255 255 255
-0.0871466 0.0994552 0.792 255 255 255
-0.623563 -0.505321 1.375 255 255 255
-0.200066 0.223413 0.868 255 255 255
-0.476486 0.00495143 0.961 255 255 255
-0.0913861 0.299289 0.843 255 255 255
0.359456 0.0554283 0.848 255 255 255
-0.0597425 -0.243053 0.74 0 0 0
-0.336082 -0.144503 1.072 255 255 255
-0.328168 -0.212145 1.036 0 0 0
0.130757 -0.0109635 0.86 255 255 255
0.291724 0.201329 0.615 255 255 255
-0.362029 0.17999 0.944 255 255 255
0.26152 0.190009 0.634 255 255 255
-0.0973854 0.250799 0.802 0 0 0
-0.515227 0.176103 1.029 255 255 255
-0.0435737 -0.201716 0.752 255 255 255
-0.0205761 0.0509678 0.866 255 255 255
0.057981 0.00569495 0.84 255 255 255
0.36115 0.119172 0.746 255 255 255
-0.000780388 -0.286316 0.804 255 255 255
-0.223239 0.128773 0.79 255 255 255
0.00537437 -0.0849772 0.97 255 255 255
-0.056669 -0.375336 0.978 255 255 255
-0.351105 -0.145127 1.039 0 0 0
0.447536 -0.26678 1.013 255 255 255
0.00997244 -0.214527 0.729 255 255 255
0.28996 0.215592 0.591 255 255 255
-0.207634 -0.226615 1.143 0 0 0
0.0208367 0.0326801 0.831 255 255 255
-0.349416 0.331763 1.034 255 255 255
0.187405 0.0578131 0.863 255 255 255
0.448027 -0.339098 0.961 255 255 255
0.0173765 0.20318 0.693 255 255 255
0.489385 -0.273478 0.978 255 255 255
-0.485852 0.292851 1.083 255 255 255
-0.283216 -0.0931232 1.104 255 255 255
0.21534 -0.413156 1.072 255 255 255
-0.466196 -0.521003 1.393 255 255 255
0.135612 0.228183 0.634 255 255 255
-0.391144 0.0551527 0.888 255 255 255
-0.518349 -0.539138 1.393 255 255 255
0.104957 -0.168758 0.683 0 0 0
0.44121 -0.195063 1.053 255 255 255
0.101502 -0.126939 0.766 255 255 255
0.422521 -0.335548 0.978 255 255 255
0.336204 -0.162347 1.041 255 255 255
-0.232347 0.253618 0.9 255 255 255
-0.361212 -0.0125953 0.988 255 255 255
-0.137551 0.243545 0.84 255 255 255
0.0844691 -0.0476598 0.92 0 0 0
0.0657912 0.0382727 0.835 255 255 255
0.0988758 0.14548 0.703 255 255 255
0.410015 -0.205177 1.07 255 255 255
-0.132039 -0.169084 1.073 255 255 255
0.0217622 0.0851018 0.815 255 255 255
0.23339 0.196466 0.625 255 255 255
0.514729 -0.174352 1.022 255 255 255
-0.0702145 0.309047 0.836 0 0 0
0.481872 -0.182422 1.03 255 255 255
-0.243394 0.0898523 0.81 255 255 255
0.172173 0.121926 0.748 255 255 255
0.181878 -0.0886081 0.758 255 255 255
0.166368 0.0824493 0.815 255 255 255
0.0857798 -0.10283 0.918 255 255 255
-0.0146055 -0.122993 0.935 255 255 255
-0.0248051 0.0551956 0.866 255 255 255
0.109562 0.086893 0.807 255 255 255
0.24645 0.0928935 0.791 255 255 255
-0.26943 0.170715 0.873 255 255 255
-0.477514 0.196141 1.02 255 255 255
-0.334889 0.161236 0.916 255 255 255
-0.446616 0.116693 0.954 255 255 255
0.140541 0.113716 0.775 255 255 255
-0.00310206 -0.198082 0.734 255 255 255
0.182502 -0.0670684 0.88 255 255 255
0.165502 -0.016677 0.866 255 255 255
-0.480504 0.163329 1.002 255 255 255
-0.373451 0.058751 0.877 255 255 255
-0.328589 0.0889732 0.839 255 255 255
-0.20657 0.0711076 0.854 255 255 255
-0.276929 0.333574 0.98 255 255 255
0.138328 -0.202795 0.667 0 0 0
0.386304 0.0617673 0.772 255 255 255
-0.108455 0.0961921 0.797 255 255 255
-0.385796 0.156615 0.942 255 255 255
-0.32947 -0.275579 1.009 0 0 0
0.186894 0.210157 0.603 255 255 255
-0.373746 0.425058 1.106 255 255 255
0.160732 0.211899 0.608 255 255 255
0.463068 -0.322566 0.963 255 255 255
-0.440339 -0.0076932 0.978 255 255 255
-0.32956 -0.126834 1.085 255 255 255
-0.331126 -0.43934 1.299 0 0 0
0.317755 0.136812 0.73 255 255 255
-0.365748 0.000261192 0.966 255 255 255
-0.288826 -0.453524 1.262 255 255 255
-0.0808839 0.0856239 0.82 255 255 255
0.136979 0.073669 0.806 0 0 0
0.0223496 -0.314413 0.837 255 255 255
-0.417271 -0.243585 0.999 255 255 255
-0.548124 -0.221208 1.249 0 0 0
0.336068 -0.36476 1.015 255 255 255
0.138552 0.110358 0.778 255 255 255
-0.243567 0.072752 0.857 255 255 255
0.285708 -0.394656 1.024 255 255 255
0.0688826 -0.0588981 0.932 0 0 0
0.180791 -0.243689 0.724 0 0 0
0.275599 0.0564921 0.786 255 255 255
0.190264 -0.0921869 0.757 255 255 255
-0.225807 -0.438733 1.232 255 255 255
-0.357704 -0.444491 1.327 255 255 255
-0.295273 0.201923 0.918 255 255 255
-0.402864 0.0271382 0.918 255 255 255
0.104149 0.162934 0.685 255 255 255
-0.0104857 0.0664681 0.848 255 255 255
-0.167849 0.069228 0.848 255 255 255
0.0558634 -0.204027 0.709 255 255 255
-0.26097 -0.00133795 0.986 255 255 255
-0.441737 0.0710484 0.888 255 255 255
0.0839325 -0.194911 0.693 255 255 255
-0.285046 0.0971574 0.816 255 255 255
0.0528445 -0.163866 0.715 255 255 255
0.466103 -0.0639152 0.986 255 255 255
-0.76508 -0.52231 1.494 0 0 0
-0.575737 -0.209632 1.265 0 0 0
0.133548 0.227151 0.634 255 255 255
0.147734 -0.034713 0.895 255 255 255
0.172547 0.0733376 0.832 255 255 255
0.187055 -0.0574654 0.754 255 255 255
-0.0111805 0.310972 0.799 255 255 255
0.122027 0.252114 0.679 255 255 255
0.0361324 0.0858979 0.81 255 255 255
0.010409 0.163958 0.68 255 255 255
-0.407802 -0.247934 0.984 255 255 255
0.32004 -0.00124432 0.917 255 255 255
-0.567157 0.244632 1.104 255 255 255
-0.14212 -0.0606541 1.07 255 255 255
-0.359563 -0.405838 1.342 255 255 255
0.24146 0.148188 0.705 255 255 255
-0.407845 0.34441 1.068 255 255 255
0.153094 -0.131745 0.705 255 255 255
0.313628 0.081123 0.815 255 255 255
0.25919 0.197229 0.621 255 255 255
0.480378 -0.315312 0.96 255 255 255
0.218481 0.0577765 0.842 255 255 255
-0.0782081 0.208379 0.78 255 255 255
0.116403 -0.285548 0.791 255 255 255
-0.368461 0.230487 0.969 255 255 255
-0.474256 0.362354 1.118 255 255 255
-0.411828 -0.418967 1.378 255 255 255
0.272352 0.178938 0.65 255 255 255
-0.185421 -0.019142 0.994 255 255 255
-0.180011 0.19159 0.834 255 255 255
-0.18176 0.214502 0.855 255 255 255
0.345538 0.0155907 0.858 255 255 255
0.0603869 -0.244135 0.736 255 255 255
-0.238102 0.194553 0.878 255 255 255
-0.518182 -0.0565839 1.059 255 255 255
0.321266 -0.122545 1.094 0 0 0
0.143249 -0.106828 0.756 0 0 0
-0.1581 0.245112 0.855 255 255 255
-0.587116 0.309337 1.165 255 255 255
-0.356955 -0.348542 1.357 255 255 255
0.127189 -0.147816 0.689 0 0 0
0.354956 0.146717 0.698 255 255 255
-0.166831 0.284892 0.879 255 255 255
0.0546543 0.0326801 0.831 255 255 255
-0.285854 0.0707745 0.85 255 255 255
-0.0506359 0.0693913 0.85 255 255 255
0.18684 -0.151611 0.784 255 255 255
-0.319029 -0.288342 1.002 0 0 0
0.0386531 0.0614461 0.836 255 255 255
-0.521053 -0.0642565 1.072 255 255 255
-0.438408 0.037063 0.905 255 255 255
-0.0102849 -0.198352 0.735 255 255 255
0.176734 -0.0589412 0.887 255 255 255
-0.511025 -0.140096 1.182 255 255 255
0.131102 -0.160569 0.686 0 0 0
0.138198 0.21546 0.627 255 255 255
0.0779227 -0.134946 0.755 0 0 0
0.464654 -0.100193 1.029 0 0 0
-0.0459564 0.148709 0.713 255 255 255
-0.411362 -0.0456762 1.046 255 255 255
0.0723494 -0.18005 0.701 255 255 255
-0.476697 0.45848 1.178 255 255 255
0.381356 -0.369036 0.991 255 255 255
-0.530774 0.266852 1.092 255 255 255
-0.157711 -0.358548 1.173 255 255 255
-0.563904 -0.247665 1.239 0 0 0
0.0184797 0.133326 0.737 255 255 255
-0.11027 0.0570624 0.873 255 255 255
0.431093 -0.267834 1.017 255 255 255
0.168802 0.216761 0.605 255 255 255
0.0752017 0.202328 0.647 255 255 255
-0.284163 -0.0669245 1.087 255 255 255
0.0523395 -0.120618 0.816 0 0 0
-0.261137 0.125043 0.816 255 255 255
-0.123936 -0.368536 0.994 255 255 255
-0.344711 -0.0298922 1.03 255 255 255
-0.181202 -0.222179 1.085 0 0 0
0.360176 -0.266618 1.072 255 255 255
-0.159913 0.106286 0.776 255 255 255
-0.559123 0.34825 1.162 255 255 255
0.110883 0.141946 0.714 255 255 255
-0.043476 0.110763 0.772 255 255 255
-0.111195 0.126585 0.754 255 255 255
0.27592 0.212567 0.596 255 255 255
-0.594394 -0.25525 1.227 255 255 255
0.139516 0.0300838 0.798 255 255 255
0.0689262 -0.192598 0.701 255 255 255
-0.348684 -0.168111 0.958 0 0 0
0.134128 -0.127617 0.714 0 0 0
0.455046 -0.214269 1.03 255 255 255
-0.0980756 0.0948951 0.797 255 255 255
0.0807955 -0.15469 0.705 255 255 255
0.255353 0.174715 0.658 255 255 255
-0.0355685 -0.0626836 0.967 255 255 255
0.183193 0.206612 0.607 255 255 255
0.277817 -0.141693 1.064 255 255 255
-0.25658 0.0924885 0.81 255 255 255
-0.395684 -0.258613 0.97 255 255 255
-0.355911 0.0355903 0.905 255 255 255
0.511276 -0.069635 0.999 255 255 255
-0.0579664 0.175457 0.718 255 255 255
-0.125325 0.0596292 0.869 255 255 255
-0.0338123 0.1057 0.781 255 255 255
-0.164414 -0.364528 1.18 255 255 255
-0.418461 -0.0476049 1.051 255 255 255
-0.453226 0.381228 1.12 255 255 255
-0.327639 0.180884 0.925 255 255 255
-0.0660649 0.138 0.73 255 255 255
-0.178742 0.148912 0.781 255 255 255
-0.423513 0.266786 1.03 255 255 255
-0.359102 -0.1167 1.073 255 255 255
0.342379 -0.187268 1.029 255 255 255
0.0621707 0.128366 0.743 255 255 255
-0.410687 -0.0528362 1.053 255 255 255
-0.248329 -0.226101 1.265 255 255 255
0.384002 0.0241917 0.866 0 0 0
0.0845131 -0.25794 0.759 255 255 255
0.199169 0.0177591 0.897 255 255 255
0.352205 -0.0361093 0.931 255 255 255
-0.199545 0.0889713 0.814 255 255 255
0.0264526 -0.0227521 0.883 255 255 255
-0.146022 -0.223129 1.048 0 0 0
-0.468161 0.0185114 0.935 255 255 255
-0.485709 0.395327 1.145 255 255 255
0.165738 -0.160409 0.71 0 0 0
-0.522873 0.259365 1.083 255 255 255
0.118916 -0.112083 0.75 0 0 0
-0.459238 0.012598 0.948 255 255 255
0.197918 -0.0873746 0.758 0 0 0
0.0262702 0.255421 0.754 255 255 255
0.187332 0.152833 0.7 255 255 255
-0.363894 0.303437 1.018 255 255 255
-0.109857 0.0241241 0.917 255 255 255
-0.293832 0.0898458 0.822 255 255 255
-0.737452 -0.252508 1.4 255 255 255
-0.265221 0.0815591 0.833 255 255 255
-0.420994 0.0243346 0.925 255 255 255
0.174301 0.228343 0.607 255 255 255
0.0916409 -0.135954 0.709 255 255 255
-0.291622 -0.281446 1.302 255 255 255
-0.0745066 0.0697178 0.854 255 255 255
-0.654226 0.358078 1.242 255 255 255
-0.189793 0.264091 0.886 255 255 255
0.330766 -0.121159 1.114 0 0 0
0.315607 0.0311659 0.864 255 255 255
0.0926816 -0.115203 0.898 255 255 255
0.142158 0.214754 0.622 255 255 255
-0.491361 0.138959 0.991 255 255 255
-0.300945 -0.0183531 1.041 255 255 255
-0.232514 0.221624 0.895 255 255 255
-0.010104 -0.0564043 0.941 255 255 255
-0.296075 0.15793 0.889 255 255 255
-0.378768 -0.365791 1.372 255 255 255
-0.0897354 0.133688 0.739 255 255 255
0.0518098 0.153051 0.701 255 255 255
-0.172827 0.151841 0.783 255 255 255
-0.313441 -0.300654 1.005 255 255 255
0.149136 -0.121936 0.708 255 255 255
0.465157 -0.289568 0.984 255 255 255
-0.107488 0.16331 0.737 255 255 255
-0.151457 0.178125 0.798 255 255 255
0.364698 0.0847313 0.799 255 255 255
0.352962 0.09089 0.796 255 255 255
-0.20149 0.213452 0.862 255 255 255
0.120934 0.0891867 0.804 255 255 255
0.469131 -0.281383 0.989 255 255 255
-0.0396446 0.2554 0.796 255 255 255
0.0757707 -0.122998 0.797 255 255 255
-0.650761 -0.346238 1.283 0 0 0
0.0183277 -0.316907 0.84 255 255 255
-0.0496554 -0.364781 0.997 255 255 255
-0.629442 -0.166745 1.237 255 255 255
-0.430086 0.228734 1.01 255 255 255
-0.589975 0.49948 1.278 255 255 255
-0.17558 -0.165372 1.083 255 255 255
-0.315877 0.0620981 0.864 255 255 255
-0.0733337 0.225607 0.796 255 255 255
-0.727141 -0.436799 1.429 255 255 255
0.196179 -0.299011 0.796 255 255 255
0.126127 -0.0550256 0.918 0 0 0
-0.292934 -0.420665 1.262 255 255 255
-0.505949 -0.0367389 1.034 255 255 255
0.0562147 0.193212 0.659 255 255 255
-0.373971 0.276665 1.005 255 255 255
0.163157 0.1406 0.719 255 255 255
0.241782 0.0338537 0.898 255 255 255
-0.665326 -0.346296 1.291 255 255 255
-0.0435737 -0.198044 0.752 255 255 255
-0.368555 -0.0790619 1.06 0 0 0
0.262404 0.0802806 0.781 255 255 255
-0.397419 0.0820663 0.867 255 255 255
0.249074 0.169507 0.667 255 255 255
0.421712 -0.217059 1.06 255 255 255
0.430339 -0.19981 1.06 255 255 255
-0.147917 -0.150063 1.087 255 255 255
-0.213509 -0.344534 1.254 255 255 255
0.32889 0.127675 0.739 255 255 255
-0.320045 0.374914 1.037 255 255 255
0.339065 -0.266109 1.077 255 255 255
0.00670245 -0.11995 0.935 255 255 255
0.179707 0.142145 0.715 255 255 255
0.0769138 0.149629 0.701 255 255 255
0.351049 0.0754057 0.825 255 255 255
-0.232754 -0.0344799 1.017 255 255 255
0.492848 -0.140055 1.039 255 255 255
0.309793 0.0687762 0.826 255 255 255
0.0904868 -0.138261 0.709 255 255 255
0.0833168 0.136249 0.727 255 255 255
-0.0569338 -0.144638 1.073 255 255 255
-0.167086 0.104295 0.78 255 255 255
-0.249821 0.0656614 0.874 255 255 255
-0.172533 -0.178146 1.075 255 255 255
0.12699 -0.212132 0.676 0 0 0
0.382514 -0.027019 0.931 0 0 0
0.0270486 -0.188139 0.71 255 255 255
-0.430448 0.223138 1.007 255 255 255
0.32711 0.131768 0.735 255 255 255
-0.459147 0.025784 0.923 255 255 255
0.143488 0.21674 0.619 255 255 255
0.0320207 0.187434 0.669 255 255 255
-0.165071 -0.198583 1.072 255 255 255
0.164092 -0.282484 0.779 0 0 0
0.0474342 0.00712075 0.847 255 255 255
-0.466739 -0.0542907 1.048 255 255 255
0.20082 0.0925328 0.799 255 255 255
0.169787 0.211838 0.605 255 255 255
-0.335272 -0.141409 1.075 255 255 255
-0.426798 -0.247911 1.01 255 255 255
-0.41171 0.0949118 0.895 255 255 255
0.197686 0.0686566 0.841 255 255 255
-0.298899 0.0200116 0.934 255 255 255
-0.446714 -0.42027 1.267 255 255 255
-0.38444 0.0243083 0.924 255 255 255
-0.549827 0.308759 1.135 255 255 255
-0.300095 -0.135747 1.1 0 0 0
-0.231315 0.243743 0.896 255 255 255
-0.252846 -0.362539 1.267 255 255 255
-0.0163114 -0.191695 0.737 255 255 255
-0.214818 0.317236 0.932 255 255 255
-0.127481 0.289635 0.855 255 255 255
-0.685704 -0.213179 1.339 255 255 255
-0.390987 -0.510426 1.33 255 255 255
-0.389165 -0.0209267 1.002 255 255 255
0.414271 -0.00852524 0.898 255 255 255
0.0575668 0.0436557 0.834 255 255 255
-0.110148 -0.133403 1.081 255 255 255
0.100952 0.0980424 0.791 255 255 255
0.438441 -0.344863 0.964 255 255 255
0.0225919 -0.0320133 0.901 255 255 255
-0.308314 -0.216973 1.043 0 0 0
-0.301706 0.24601 0.938 255 255 255
0.0614237 0.168927 0.669 255 255 255
-0.164754 0.104887 0.775 255 255 255
0.0512185 -0.212955 0.693 0 0 0
-0.546397 0.271089 1.102 255 255 255
0.23182 0.112102 0.764 255 255 255
-0.139426 0.0646097 0.86 255 255 255
0.375292 -0.351353 1.005 255 255 255
0.14892 0.174436 0.661 255 255 255
-0.331971 -0.145975 1.07 255 255 255
-0.272547 -0.321703 1.302 255 255 255
-0.568803 0.421473 1.215 255 255 255
-0.19253 0.280396 0.892 255 255 255
0.152803 -0.0196757 0.874 255 255 255
-0.479394 -0.00613287 0.983 255 255 255
-0.0140441 -0.175355 0.744 255 255 255
-0.437292 -0.142759 1.072 255 255 255
-0.168202 -0.0967163 1.104 0 0 0
0.310755 -0.0440266 0.972 255 255 255
0.454822 -0.203004 1.041 255 255 255
0.409609 -0.0870957 1.013 0 0 0
0.051662 -0.220487 0.699 0 0 0
-0.345048 -0.0532878 1.062 0 0 0
-0.597897 0.364888 1.198 255 255 255
0.19814 0.167248 0.671 255 255 255
0.375143 -0.349468 1.009 255 255 255
-0.461954 0.451524 1.165 255 255 255
-0.76508 -0.532035 1.494 0 0 0
0.266189 0.0318152 0.882 255 255 255
0.0496985 -0.0428868 0.914 255 255 255
0.00444355 0.0967956 0.802 255 255 255
0.395852 -0.331665 0.995 255 255 255
0.147113 -0.021098 0.874 255 255 255
0.450728 -0.0797096 1.024 255 255 255
-0.31369 0.0411604 0.898 255 255 255
-0.000840568 -0.14492 0.866 0 0 0
0.401086 -0.0318354 0.939 0 0 0
0.0658484 -0.0573815 0.932 0 0 0
0.154463 0.127675 0.739 255 255 255
-0.358202 -0.0549124 1.06 0 0 0
0.0254688 0.13462 0.731 255 255 255
-0.15895 0.0557692 0.875 255 255 255
-0.441143 -0.431272 1.257 255 255 255
0.326816 0.174976 0.651 255 255 255
-0.0908994 -0.287935 0.937 255 255 255
-0.121786 -0.153655 1.075 0 0 0
-0.341026 -0.220759 1.029 255 255 255
-0.437527 0.224246 1.012 255 255 255
0.387054 -0.288578 1.032 255 255 255
-0.109777 -0.275692 0.969 0 0 0
-0.352112 0.0215315 0.934 255 255 255
-0.329388 -0.217005 1.26 255 255 255
0.0721663 -0.146671 0.722 255 255 255
-0.541179 0.275672 1.106 255 255 255
-0.297224 -0.267843 1.308 255 255 255
-0.441774 0.407814 1.128 255 255 255
0.350406 -0.090105 1.048 255 255 255
0.0463342 0.293706 0.761 255 255 255
0.205434 0.111955 0.763 255 255 255
0.0591584 -0.172387 0.707 255 255 255
0.0336134 -0.152419 0.727 255 255 255
-0.000823096 0.0250688 0.848 255 255 255
0.316865 -0.0609598 1.017 255 255 255
0.0934218 0.168591 0.672 255 255 255
-0.0408565 0.112982 0.77 255 255 255
0.347369 -0.303826 1.044 255 255 255
-0.35621 -0.154432 0.97 255 255 255
0.446352 -0.189922 1.053 255 255 255
-0.53968 0.209797 1.064 255 255 255
0.0582537 -0.163875 0.71 255 255 255
-0.00218529 0.0713937 0.841 255 255 255
-0.168991 -0.0366678 1.032 255 255 255
0.0134025 -0.183094 0.722 255 255 255
-0.0777059 -0.197914 0.801 255 255 255
0.37169 -0.299812 1.036 255 255 255
-0.513591 0.366792 1.149 255 255 255
-0.354795 0.371121 1.055 255 255 255
0.421268 -0.126366 1.081 255 255 255
-0.644719 0.501617 1.322 255 255 255
0.121128 0.24916 0.674 255 255 255
-0.317788 -0.101738 1.081 0 0 0
0.369155 0.121437 0.745 255 255 255
0.203264 0.179719 0.649 255 255 255
-0.00966921 0.180104 0.691 255 255 255
0.477924 -0.326627 0.952 255 255 255
-0.418261 0.200835 0.986 255 255 255
-0.387336 -0.012608 0.989 255 255 255
0.317567 0.10376 0.776 255 255 255
-0.151306 0.0243083 0.924 255 255 255
-0.220522 0.216969 0.882 255 255 255
0.328758 0.171242 0.657 255 255 255
0.0164076 0.244954 0.752 255 255 255
0.0465647 -0.19337 0.708 255 255 255
0.0894219 0.037356 0.815 255 255 255
0.0259294 0.144821 0.711 255 255 255
0.293324 0.0629409 0.803 255 255 255
-0.624847 0.420046 1.252 255 255 255
-0.291782 0.092296 0.82 255 255 255
-0.0799141 0.123882 0.76 255 255 255
-0.271376 0.00826411 0.983 255 255 255
-0.340912 -0.24317 1.004 255 255 255
0.325965 -0.10808 1.11 0 0 0
0.497605 -0.237687 0.988 255 255 255
-0.358876 0.266621 0.986 255 255 255
-0.385506 -0.0452395 1.036 255 255 255
0.468626 -0.335923 0.952 255 255 255
-0.0356226 0.257018 0.793 255 255 255
0.30036 0.0358106 0.841 255 255 255
-0.0309993 -0.192305 0.744 255 255 255
0.296688 0.17788 0.65 255 255 255
-0.430073 0.177286 0.98 255 255 255
-0.206981 0.270591 0.898 255 255 255
0.396495 -0.0900358 1.009 0 0 0
-0.640477 -0.329555 1.275 255 255 255
0.121837 0.183289 0.643 255 255 255
0.0939494 -0.172108 0.692 255 255 255
0.0669184 0.276713 0.742 255 255 255
0.155071 0.200261 0.621 255 255 255
-0.276364 0.00503902 0.978 255 255 255
-0.407341 -0.427937 1.378 255 255 255
0.325232 0.15805 0.688 255 255 255
-0.195444 0.0948899 0.808 255 255 255
-0.024005 0.272504 0.793 255 255 255
-0.338429 0.0657789 0.857 255 255 255
-0.260886 0.29398 0.945 255 255 255
0.334019 -0.0209589 0.931 0 0 0
0.0332897 -0.174385 0.72 255 255 255
0.290487 0.0193688 0.904 0 0 0
-0.0265022 -0.105098 0.981 0 0 0
-0.349896 -0.283659 0.997 255 255 255
-0.303558 -0.203643 1.062 0 0 0
-0.245533 0.215539 0.9 255 255 255
0.268 0.055494 0.79 0 0 0
0.0405141 -0.222892 0.703 0 0 0
0.122557 -0.136701 0.701 255 255 255
0.313842 -0.31621 1.057 255 255 255
0.214554 0.161269 0.678 255 255 255
-0.327874 -0.0223051 1.068 255 255 255
-0.253001 0.00983367 0.98 255 255 255
-0.129963 0.259813 0.844 255 255 255
-0.177363 -0.145689 1.094 255 255 255
-0.145964 0.0557054 0.874 255 255 255
0.359608 -0.057723 0.963 255 255 255
-0.0751955 -0.277589 0.913 255 255 255
0.384135 -0.0399382 0.95 0 0 0
-0.636428 0.482425 1.305 255 255 255
0.16513 0.177657 0.657 255 255 255
-0.0199357 0.159888 0.696 255 255 255
0.041003 -0.0727082 0.954 0 0 0
-0.534213 0.290356 1.114 255 255 255
-0.135742 0.154807 0.754 255 255 255
-0.441339 0.0342306 0.908 255 255 255
0.240134 0.0651958 0.783 0 0 0
0.376086 -0.309973 1.025 255 255 255
-0.0134212 0.144821 0.711 255 255 255
-0.366787 -0.109073 1.05 255 255 255
0.0606434 0.00568817 0.839 255 255 255
-0.366988 -0.0329863 1.022 255 255 255
0.309508 0.171242 0.657 255 255 255
-0.41722 0.21886 0.995 255 255 255
0.123285 -0.149405 0.686 255 255 255
-0.037752 -0.00118325 0.872 255 255 255
0.337164 -0.292958 1.06 255 255 255
-0.00780698 0.0476488 0.857 255 255 255
0.334912 -0.332165 1.037 255 255 255
0.0107111 0.289455 0.783 255 255 255
-0.180316 0.0912943 0.823 255 255 255
-0.657862 -0.358459 1.297 255 255 255
0.100559 -0.269461 0.778 255 255 255
-0.00196442 0.236414 0.756 255 255 255
-0.301392 -0.0752114 1.079 0 0 0
-0.2706 0.00508024 0.986 255 255 255
0.106224 -0.156761 0.684 255 255 255
0.282559 0.174981 0.659 255 255 255
-0.48486 -0.0314151 1.025 255 255 255
-0.736033 -0.271648 1.393 255 255 255
0.0114498 0.0301919 0.837 255 255 255
0.167087 0.181551 0.648 255 255 255
-0.365102 -0.168727 0.944 255 255 255
0.417941 -0.19958 1.068 255 255 255
0.24427 0.175519 0.657 255 255 255
0.328229 -0.320339 1.048 255 255 255
0.195787 -0.20547 0.71 255 255 255
0.15669 0.1866 0.64 255 255 255
-0.327794 -0.130365 1.085 0 0 0
0.0682635 0.0746915 0.832 255 255 255
0.333941 0.147978 0.704 255 255 255
-0.296714 -0.217181 1.044 255 255 255
-0.128741 0.268372 0.845 255 255 255
0.344365 -0.338339 1.02 255 255 255
-0.531007 -0.206649 1.247 255 255 255
0.385379 -0.32516 1.01 255 255 255
0.28486 0.223013 0.573 255 255 255
-0.0210242 -0.239888 0.734 0 0 0
0.183455 -0.234005 0.716 255 255 255
0.254415 0.220256 0.578 255 255 255
0.15925 -0.192106 0.687 255 255 255
0.0635304 0.203317 0.657 255 255 255
0.298313 0.0431322 0.824 255 255 255
-0.34261 -0.288715 1.009 255 255 255
0.331344 0.118591 0.75 255 255 255
-0.0330574 -0.11847 0.986 0 0 0
-0.415502 -0.422256 1.305 255 255 255
0.23366 0.201329 0.615 255 255 255
-0.53785 0.204976 1.057 255 255 255
0.0411617 0.119698 0.757 255 255 255
0.298726 0.183289 0.643 255 255 255
-0.19149 0.243447 0.874 255 255 255
0.0720712 -0.0727039 0.934 255 255 255
0.263073 0.00783535 0.932 255 255 255
0.184556 0.194431 0.625 255 255 255
0.0490132 0.0892976 0.805 255 255 255
0.0758386 0.0150092 0.826 255 255 255
0.159863 -0.016677 0.866 255 255 255
-0.515487 -0.050977 1.05 255 255 255
-0.258477 0.0316887 0.92 255 255 255
0.367535 0.0728063 0.811 255 255 255
-0.0984378 0.0815591 0.833 255 255 255
-0.631504 -0.206115 1.308 255 255 255
-0.607091 -0.110867 1.178 255 255 255
0.463188 -0.272301 0.997 255 255 255
-0.106605 0.0670167 0.855 255 255 255
0.232423 0.184049 0.642 255 255 255
0.36411 0.100616 0.781 255 255 255
0.0358317 -0.154147 0.724 255 255 255
-0.300405 -0.255651 1.322 255 255 255
-0.425318 -0.0175421 0.995 255 255 255
-0.115496 -0.35291 0.991 255 255 255
0.370736 0.0664448 0.798 255 255 255
-0.141021 -0.0142174 0.989 255 255 255
0.225309 0.205285 0.606 255 255 255
0.423762 -0.105454 1.048 0 0 0
-0.438391 0.332154 1.079 255 255 255
-0.456299 -0.0192383 0.999 255 255 255
0.00220272 -0.093864 0.964 255 255 255
-0.323295 0.109975 0.843 255 255 255
0.0667483 0.0610051 0.83 0 0 0
-0.500635 -0.404631 1.208 255 255 255
0.0845651 -0.0351009 0.905 255 255 255
-0.312329 0.34282 1.012 255 255 255
-0.414575 0.28885 1.037 255 255 255
-0.332897 0.108122 0.85 255 255 255
-0.0505131 0.257967 0.804 255 255 255
-0.0799944 0.169375 0.727 255 255 255
0.299587 0.143309 0.715 255 255 255
0.0593302 0.288168 0.753 255 255 255
0.0644032 0.202698 0.655 255 255 255
-0.106399 0.244376 0.811 255 255 255
0.000492222 0.22935 0.749 255 255 255
-0.0595027 -0.227254 0.768 255 255 255
-0.182535 0.247147 0.872 255 255 255
0.334305 -0.0612603 0.995 255 255 255
-0.273213 -0.435958 1.247 255 255 255
-0.312474 -0.144756 1.087 0 0 0
-0.505068 -0.0194887 1.012 255 255 255
-0.744551 -0.502924 1.487 255 255 255
-0.323624 -0.022493 1.077 255 255 255
-0.179082 0.0832133 0.836 255 255 255
0.0210412 0.104082 0.788 255 255 255
0.472674 -0.115135 1.043 255 255 255
-0.413788 -0.268478 0.983 255 255 255
0.125331 -0.175049 0.673 0 0 0
0.162727 -0.231714 0.702 255 255 255
-0.466521 0.0125448 0.944 255 255 255
0.215476 0.174718 0.654 255 255 255
-0.300977 -0.208238 1.059 255 255 255
0.426486 -0.166878 1.059 255 255 255
-0.748664 -0.582486 1.505 255 255 255
-0.3722 -0.312919 1.046 0 0 0
0.302065 -0.307915 1.064 255 255 255
0.114165 -0.120839 0.759 255 255 255
0.0713181 0.189515 0.65 255 255 255
0.215024 0.160236 0.683 255 255 255
-0.346379 -0.196848 0.969 0 0 0
-0.080588 0.270115 0.817 255 255 255
-0.230031 -0.366079 1.244 255 255 255
0.159296 0.178182 0.655 255 255 255
0.267682 0.171468 0.662 255 255 255
0.300284 -0.300946 1.07 255 255 255
-0.494936 -0.235487 1.132 255 255 255
-0.285848 0.00655597 0.967 255 255 255
0.0899288 -0.0678523 0.93 255 255 255
0.349069 -0.29873 1.044 255 255 255
-0.237787 0.364898 0.97 255 255 255
0.159588 -0.0749034 0.888 255 255 255
0.0114193 -0.156403 0.746 255 255 255
-0.336001 0.338531 1.029 255 255 255
-0.0651752 0.110074 0.776 255 255 255
0.192191 -0.2376 0.727 255 255 255
-0.175032 0.238979 0.863 255 255 255
-0.488135 0.143797 0.991 255 255 255
-0.631482 0.408877 1.249 255 255 255
0.184925 0.187766 0.644 255 255 255
0.195373 0.0191331 0.893 255 255 255
0.182551 0.172546 0.662 255 255 255
-0.303068 -0.0862236 1.085 0 0 0
-0.469774 -0.115929 1.116 255 255 255
0.407508 -0.0101089 0.909 255 255 255
0.313081 0.113838 0.759 255 255 255
-0.282849 0.0829147 0.833 255 255 255
0.128561 0.187641 0.64 255 255 255
0.0765168 -0.116535 0.897 255 255 255
0.339806 0.0669679 0.837 255 255 255
0.347929 0.157781 0.682 255 255 255
-0.572054 0.357273 1.173 255 255 255
0.0687689 0.290293 0.749 255 255 255
0.195025 -0.101464 0.781 0 0 0
0.124897 0.213065 0.632 255 255 255
-0.086726 -0.19849 1.053 255 255 255
0.360392 0.124931 0.737 255 255 255
-0.318929 -0.163846 1.073 0 0 0
0.00625084 -0.00685938 0.872 255 255 255
-0.0696759 -0.121089 1.081 255 255 255
-0.422043 0.108513 0.924 255 255 255
0.0538053 0.245429 0.728 255 255 255
0.475804 -0.233118 1.01 255 255 255
-0.0978801 0.14473 0.728 255 255 255
-0.100034 0.0519683 0.883 255 255 255
0.327772 -0.205622 1.11 255 255 255
0.250964 0.0888067 0.789 255 255 255
0.322523 0.164461 0.673 255 255 255
0.252249 0.0567077 0.789 0 0 0
-0.391406 0.390528 1.09 255 255 255
0.111687 0.103686 0.785 255 255 255
0.478815 -0.315312 0.96 255 255 255
0.319486 -0.09406 1.094 255 255 255
0.288546 0.186308 0.639 255 255 255
-0.327533 -0.417479 1.31 0 0 0
-0.396762 -0.0822783 1.057 255 255 255
0.243249 0.165683 0.678 255 255 255
0.0679577 0.170015 0.669 255 255 255
0.160005 0.219185 0.609 255 255 255
0.152638 0.13075 0.736 255 255 255
0.380493 -0.271657 1.051 255 255 255
-0.196818 -0.0435956 1.037 255 255 255
-0.0669207 0.126418 0.753 255 255 255
-0.0117781 0.124131 0.754 255 255 255
0.114963 0.16357 0.683 255 255 255
-0.298259 -0.138215 1.12 0 0 0
0.129772 0.0667778 0.802 0 0 0
-0.145247 0.317797 0.887 255 255 255
0.0740526 0.269492 0.729 255 255 255
-0.303068 -0.0915205 1.085 0 0 0
0.297614 0.127675 0.739 255 255 255
-0.0522643 0.0669384 0.854 255 255 255
0.208689 0.218909 0.587 255 255 255
0.0279324 0.0659194 0.841 255 255 255
-0.113829 0.305654 0.857 255 255 255
0.213244 0.202008 0.611 255 255 255
0.34718 0.0263552 0.845 0 0 0
0.47155 -0.229317 1.015 255 255 255
-0.133486 0.106106 0.784 255 255 255
0.183516 -0.0726311 0.878 255 255 255
-0.594517 -0.134754 1.203 255 255 255
0.377712 0.0506567 0.775 255 255 255
0.156808 0.225245 0.612 255 255 255
-0.555694 -0.129417 1.208 255 255 255
-0.428558 -0.0159229 0.995 255 255 255
-0.158285 0.246791 0.856 255 255 255
-0.0504038 0.229274 0.782 255 255 255
0.111151 -0.114318 0.809 0 0 0
-0.349305 -0.172345 0.947 0 0 0
-0.0219981 0.116438 0.768 255 255 255
0.178982 -0.0461575 0.891 255 255 255
-0.691172 -0.529536 1.422 255 255 255
-0.453288 -0.370554 1.187 0 0 0
-0.214989 -0.358559 1.239 255 255 255
0.291449 0.186914 0.634 255 255 255
-0.0494778 -0.0715868 1.027 255 255 255
-0.162013 -0.352642 1.205 255 255 255
0.0495173 -0.135471 0.772 0 0 0
0.145494 -0.197165 0.67 255 255 255
-0.312317 0.116834 0.843 255 255 255
-0.193669 0.0597664 0.871 255 255 255
0.321085 0.164818 0.67 255 255 255
0.112415 0.271329 0.709 255 255 255
-0.207252 -0.383665 1.229 255 255 255
0.444328 -0.318597 0.97 255 255 255
0.503025 -0.0698442 1.002 255 255 255
-0.468746 -0.403392 1.187 255 255 255
0.0835746 -0.128811 0.785 0 0 0
-0.0893836 -0.0438899 1.044 255 255 255
-0.0791682 0.0812654 0.83 255 255 255
0.305696 -0.123075 1.083 255 255 255
-0.455961 -0.401884 1.194 255 255 255
-0.0747231 -0.230647 0.797 255 255 255
0.192617 0.0233349 0.887 255 255 255
0.173012 0.1487 0.702 255 255 255
0.200981 0.119971 0.751 255 255 255
-0.611883 -0.417614 1.359 0 0 0
0.214895 -0.137514 0.855 255 255 255
0.0773695 0.128703 0.738 255 255 255
0.0730712 -0.198305 0.697 255 255 255
0.0404443 -0.100812 0.941 255 255 255
0.092359 -0.148398 0.697 255 255 255
-0.0979812 -0.381043 1.01 255 255 255
0.376158 0.0963071 0.777 0 0 0
-0.201602 -0.019142 0.994 255 255 255
-0.415142 -0.077337 1.06 255 255 255
0.315209 -0.388648 1.017 255 255 255
0.062896 -0.00253962 0.851 255 255 255
-0.0351533 0.010239 0.878 255 255 255
-0.117516 -0.0448989 1.068 255 255 255
-0.0654834 -0.161646 1.07 255 255 255
-0.316644 0.333924 1.01 255 255 255
-0.636458 0.431264 1.267 255 255 255
-0.0137798 0.208089 0.73 255 255 255
0.0638146 0.017719 0.827 255 255 255
0.102342 0.172836 0.659 255 255 255
-0.03715 0.0823175 0.827 255 255 255
0.400685 -0.1167 1.073 0 0 0
0.316865 -0.388648 1.017 255 255 255
-0.709981 -0.278106 1.369 0 0 0
0.0553471 -0.0985426 0.934 255 255 255
0.000511937 -0.271075 0.779 255 255 255
-0.511818 0.22305 1.053 255 255 255
-0.113242 0.331629 0.874 255 255 255
-0.256971 -0.364601 1.267 255 255 255
-0.116068 -0.118223 1.087 0 0 0
0.318904 -0.143383 1.051 0 0 0
-0.690725 -0.416287 1.384 255 255 255
-0.43658 -0.07604 1.066 255 255 255
0.343083 0.162612 0.679 255 255 255
0.0563666 0.158938 0.687 255 255 255
0.443385 -0.205682 1.046 255 255 255
-0.068347 0.0620981 0.864 255 255 255
-0.199846 -0.0489867 1.044 255 255 255
-0.0347257 -0.206176 0.746 255 255 255
0.122322 0.094776 0.796 255 255 255
0.146527 -0.00949726 0.854 255 255 255
0.47494 -0.136152 1.048 255 255 255
0.260852 0.162753 0.675 255 255 255
-0.0991189 0.118473 0.765 255 255 255
-0.0246104 0.316421 0.813 255 255 255
0.0822088 0.22069 0.661 255 255 255
-0.0104668 -0.249332 0.748 255 255 255
0.165419 -0.128309 0.745 0 0 0
0.167911 0.106241 0.785 255 255 255
-0.323868 -0.254098 1.348 0 0 0
0.0211624 -0.248999 0.747 255 255 255
0.106396 0.165683 0.678 255 255 255
-0.39474 -0.372685 1.381 255 255 255
-0.0550329 -0.154681 1.07 255 255 255
0.348274 -0.124561 1.112 0 0 0
0.243065 0.199651 0.616 255 255 255
-0.186783 -0.364853 1.213 255 255 255
0.0903321 0.11954 0.756 255 255 255
-0.00861859 0.190742 0.697 255 255 255
-0.118927 0.154549 0.741 255 255 255
0.204635 0.178938 0.65 255 255 255
0.092406 0.176588 0.657 255 255 255
0.307734 0.153781 0.694 255 255 255
-0.253445 -0.359264 1.27 255 255 255
0.447578 -0.217203 1.036 255 255 255
-0.292401 -0.0854698 1.098 255 255 255
-0.543734 0.396561 1.182 255 255 255
0.388179 -0.0466075 0.96 0 0 0
0.0169049 0.139818 0.721 255 255 255
0.279129 0.177094 0.651 255 255 255
-0.608698 -0.18683 1.278 255 255 255
0.102068 -0.172848 0.686 0 0 0
0.386126 0.0158815 0.874 255 255 255
0.290406 0.00173261 0.913 255 255 255
0.317868 0.132603 0.733 255 255 255
-0.440266 -0.136161 1.075 255 255 255
0.304904 0.167587 0.668 255 255 255
-0.0582851 -0.00980865 0.882 255 255 255
0.332108 -0.385471 1.013 255 255 255
0.384316 -0.119329 1.081 0 0 0
-0.485432 0.318348 1.098 255 255 255
0.328935 0.174976 0.651 255 255 255
0.00976196 0.0898523 0.81 255 255 255
-0.426462 -0.201552 1.025 255 255 255
0.117699 -0.193026 0.667 255 255 255
-0.0575536 0.272091 0.811 255 255 255
0.207466 0.0308276 0.895 255 255 255
-0.37872 -0.27355 0.967 255 255 255
-0.309225 0.0141258 0.947 255 255 255
0.0931534 0.124527 0.749 255 255 255
0.169776 -0.0391261 0.896 0 0 0
0.0504136 0.0217827 0.828 255 255 255
0.23363 -0.173084 0.873 255 255 255
0.0900805 -0.293363 0.809 0 0 0
-0.802294 -0.588671 1.547 255 255 255
-0.47476 -0.0833782 1.094 255 255 255
0.499808 -0.24202 0.986 255 255 255
0.172274 0.128703 0.738 255 255 255
0.107723 -0.136701 0.701 255 255 255
0.131003 -0.175309 0.674 0 0 0
-0.0537801 0.0643091 0.856 255 255 255
-0.368213 0.370824 1.064 255 255 255
0.0839182 -0.108331 0.914 255 255 255
-0.350694 -0.049409 1.053 255 255 255
-0.301306 -0.157588 1.213 255 255 255
-0.198426 -0.320803 1.249 255 255 255
-0.0174419 -0.047867 0.924 255 255 255
-0.198331 0.0358656 0.912 255 255 255
0.00268808 0.188006 0.687 255 255 255
-0.181327 -0.310945 1.203 255 255 255
-0.00509888 0.000235506 0.871 255 255 255
-0.252037 0.289348 0.935 255 255 255
0.142699 -0.0729864 0.9 255 255 255
0.12816 0.227546 0.638 255 255 255
-0.33143 -0.242531 1.015 0 0 0
0.198972 0.211334 0.598 255 255 255
-0.292472 -0.0403757 1.041 255 255 255
-0.213254 -0.269666 1.229 255 255 255
0.299218 0.0382269 0.834 255 255 255
-0.15497 0.126023 0.758 255 255 255
-0.089672 -0.365888 1.009 255 255 255
0.30776 0.157158 0.689 255 255 255
0.0999854 -0.0735086 0.925 255 255 255
-0.206755 0.108934 0.786 255 255 255
-0.112619 -0.261279 0.98 0 0 0
-0.366072 0.151104 0.927 255 255 255
0.484652 -0.0399382 0.95 255 255 255
-0.156124 0.106286 0.776 255 255 255
-0.111982 0.148513 0.735 255 255 255
0.139528 -0.0255389 0.88 255 255 255
0.460298 -0.0255314 0.932 255 255 255
0.328546 -0.238067 1.077 0 0 0
-0.203979 0.0275225 0.931 255 255 255
-0.062682 -0.0262355 0.904 255 255 255
-0.0939378 -0.195804 1.057 255 255 255
0.420629 -0.206145 1.066 255 255 255
0.374998 0.017185 0.868 255 255 255
-0.264575 0.0606267 0.905 255 255 255
0.0810143 -0.0138745 0.867 255 255 255
-0.0379586 0.0703582 0.845 255 255 255
0.0743036 -0.0257711 0.888 255 255 255
0.267559 0.210712 0.599 255 255 255
-0.272693 -0.184027 1.273 255 255 255
0.0152949 0.207807 0.701 255 255 255
0.0310212 -0.119822 0.934 255 255 255
0.367208 -0.372637 0.992 255 255 255
0.315482 0.133795 0.733 255 255 255
0.0883114 0.0520725 0.817 255 255 255
-0.0283943 -0.344721 0.938 255 255 255
-0.0159506 0.0689831 0.845 255 255 255
-0.11491 -0.0273129 1.06 255 255 255
0.196112 -0.226016 0.724 255 255 255
0.273246 -0.0184295 0.957 0 0 0
-0.0599679 0.165185 0.714 255 255 255
0.299887 -0.0523222 1.01 255 255 255
0.323805 -0.374121 1.018 255 255 255
-0.24774 -0.484329 1.262 255 255 255
0.309929 -0.00124567 0.918 255 255 255
-0.228995 -0.0545498 1.053 255 255 255
0.447395 -0.243015 1.024 255 255 255
-0.0812161 0.0911704 0.81 255 255 255
-0.413788 0.198624 0.983 255 255 255
-0.497446 0.223696 1.048 255 255 255
0.212314 0.0442764 0.873 255 255 255
-0.105868 -0.205996 1.039 255 255 255
0.0779013 -0.151166 0.71 255 255 255
-0.13276 0.122323 0.758 255 255 255
0.275064 0.214267 0.59 255 255 255
0.158813 0.0610786 0.831 255 255 255
0.322848 -0.0810918 1.064 255 255 255
0.371817 -0.0253944 0.927 0 0 0
0.313645 0.0764691 0.822 255 255 255
0.306258 0.0434986 0.831 255 255 255
0.196425 0.0948951 0.797 255 255 255
-0.118726 -0.0611643 1.079 255 255 255
-0.292613 -0.347906 1.297 255 255 255
-0.166972 -0.188291 1.073 255 255 255
-0.234072 0.2539 0.901 255 255 255
-0.25342 0.232164 0.902 255 255 255
-0.352994 -0.231787 0.957 0 0 0
0.137283 -0.154543 0.689 255 255 255
0.0965289 0.262838 0.711 255 255 255
-0.660933 0.503622 1.333 255 255 255
-0.342683 -0.184813 1.034 255 255 255
-0.352437 -0.239757 0.964 0 0 0
-0.134335 0.0819508 0.837 255 255 255
-0.0140275 -0.033368 0.898 255 255 255
-0.139084 0.0796052 0.841 255 255 255
-0.212628 -0.362007 1.237 255 255 255
0.0797419 0.122089 0.749 255 255 255
0.397445 0.0130816 0.877 0 0 0
0.182895 -0.166876 0.723 0 0 0
0.00295806 0.241335 0.756 255 255 255
0.319978 0.035257 0.828 0 0 0
-0.0724673 0.131488 0.747 255 255 255
-0.20979 0.122535 0.783 255 255 255
-0.62689 0.327801 1.205 255 255 255
-0.565269 -0.246244 1.242 0 0 0
0.21939 0.205285 0.606 255 255 255
0.38389 -0.0607308 0.961 255 255 255
-0.129546 -0.234739 1.039 0 0 0
-0.725118 -0.506753 1.477 255 255 255
0.19475 0.152396 0.698 255 255 255
-0.435954 -0.127177 1.073 255 255 255
0.116245 -0.153422 0.684 255 255 255
-0.636588 -0.475307 1.419 255 255 255
-0.549744 -0.49756 1.291 0 0 0
0.13426 -0.282616 0.79 0 0 0
0.0149816 0.233244 0.742 255 255 255
0.0898743 0.194627 0.639 255 255 255
0.236751 0.190009 0.634 255 255 255
0.0268935 0.192981 0.677 255 255 255
-0.51602 0.116851 0.995 255 255 255
0.180486 -0.409302 1.062 255 255 255
0.0906372 0.0333362 0.814 255 255 255
0.111089 0.242219 0.673 255 255 255
-0.408278 -0.298102 1.013 255 255 255
0.0220788 0.132127 0.737 255 255 255
0.0303056 0.0489079 0.831 0 0 0
-0.0722923 0.165631 0.721 255 255 255
0.322648 -0.155571 1.041 255 255 255
-0.339763 -0.170748 1.051 255 255 255
-0.307262 0.289129 0.97 255 255 255
0.0546815 -0.21778 0.694 0 0 0
0.379561 0.0400962 0.766 255 255 255
0.00844832 0.154192 0.701 255 255 255
0.0582716 0.19399 0.658 255 255 255
0.334801 0.0607326 0.845 255 255 255
-0.547292 -0.10206 1.165 255 255 255
-0.499931 -0.0110319 0.992 255 255 255
-0.000762917 0.111493 0.786 255 255 255
0.291849 0.167746 0.673 255 255 255
-0.0965224 0.309416 0.852 255 255 255
0.513066 -0.137763 1.022 255 255 255
0.27805 0.109932 0.775 255 255 255
-0.00707035 -0.107392 0.945 255 255 255
0.240565 0.140014 0.716 255 255 255
0.320936 -0.176397 1.075 255 255 255
0.0195074 0.0313655 0.832 255 255 255
0.0720421 0.20654 0.647 255 255 255
0.194423 -0.158757 0.74 255 255 255
0.335155 0.0275334 0.839 0 0 0
0.101791 -0.0349457 0.901 255 255 255
0.213444 0.111004 0.765 255 255 255
0.295293 0.191581 0.629 255 255 255
0.226821 0.187055 0.638 255 255 255
0.423298 -0.320656 0.991 255 255 255
-0.708748 -0.24737 1.384 255 255 255
0.327245 0.119652 0.749 255 255 255
0.0223941 -0.215564 0.709 255 255 255
-0.517731 -0.0384216 1.034 255 255 255
-0.405365 0.327102 1.057 255 255 255
-0.222956 0.114486 0.789 255 255 255
0.24253 0.173361 0.661 255 255 255
0.290911 0.152178 0.697 255 255 255
-0.00923422 0.0506146 0.86 255 255 255
0.307091 0.192299 0.628 255 255 255
0.0511747 -0.185305 0.708 255 255 255
0.346443 -0.0698442 1.002 255 255 255
-0.00549916 -0.241411 0.735 255 255 255
-0.0738959 0.321384 0.847 255 255 255
0.187691 0.20433 0.612 255 255 255
-0.245242 -0.435177 1.239 255 255 255
0.321699 -0.197299 1.114 255 255 255
-0.66641 0.414662 1.273 255 255 255
-0.307461 -0.00618278 0.991 255 255 255
0.337055 -0.36569 1.013 255 255 255
0.227078 0.110333 0.769 255 255 255
0.255205 0.169253 0.666 255 255 255
0.00217073 -0.0615816 0.95 255 255 255
0.0534209 0.164579 0.678 255 255 255
-0.0148511 0.0548769 0.861 255 255 255
-0.466738 0.128121 0.97 255 255 255
-0.361914 -0.266883 0.96 0 0 0
0.180651 0.187641 0.64 255 255 255
0.321289 -0.0475785 0.98 255 255 255
0.157715 -0.406806 1.06 255 255 255
-0.451639 0.448811 1.158 255 255 255
0.126396 0.15558 0.697 255 255 255
-0.532955 -0.112114 1.171 255 255 255
-0.0897502 0.104429 0.781 255 255 255
-0.339328 0.246578 0.958 255 255 255
0.278054 0.0492523 0.793 255 255 255
-0.0097562 0.274981 0.789 255 255 255
-0.165474 0.0818529 0.836 255 255 255
0.418893 -0.181859 1.066 255 255 255
0.132444 -0.0378361 0.9 255 255 255
-0.586515 0.498307 1.275 255 255 255
-0.323883 0.396873 1.055 255 255 255
0.363545 0.0791114 0.808 255 255 255
-0.263932 -0.123304 1.187 255 255 255
0.157902 -0.217502 0.686 255 255 255
0.123989 0.109653 0.782 255 255 255
-0.318822 -0.321402 1.327 255 255 255
-0.655902 0.447143 1.289 255 255 255
0.104957 -0.166535 0.683 0 0 0
0.379546 0.0742099 0.784 255 255 255
-0.0348731 0.037088 0.871 0 0 0
0.0632269 -0.0429807 0.916 255 255 255
0.162176 0.114588 0.764 255 255 255
-0.283086 0.0707745 0.85 255 255 255
0.0111744 -0.170867 0.73 0 0 0
0.467771 -0.31473 0.963 255 255 255
-0.0810038 -0.379659 1.024 255 255 255
-0.492445 0.108045 0.974 255 255 255
0.0842855 -0.0460623 0.918 0 0 0
0.131899 0.195783 0.636 255 255 255
-0.177512 0.070608 0.848 255 255 255
-0.0616419 0.0320677 0.889 255 255 255
0.297876 0.137054 0.725 255 255 255
-0.385445 -0.0927741 1.059 0 0 0
0.220816 0.0556244 0.851 255 255 255
-0.234449 -0.0962954 1.12 255 255 255
0.102581 0.279441 0.721 255 255 255
0.0244782 0.132127 0.737 255 255 255
-0.392198 0.351362 1.068 255 255 255
0.253191 0.0494387 0.796 255 255 255
0.164804 0.147249 0.706 255 255 255
0.359771 -0.0492657 0.951 255 255 255
0.218323 0.0854737 0.806 255 255 255
0.402056 -0.163693 1.072 255 255 255
0.331391 -0.211697 1.104 255 255 255
-0.285822 0.269766 0.941 255 255 255
0.0542333 0.19595 0.661 255 255 255
0.0463102 -0.152546 0.722 255 255 255
0.0429346 -0.248332 0.745 255 255 255
-0.371642 0.175568 0.945 255 255 255
-0.20928 -0.0696845 1.075 255 255 255
0.0492838 -0.167122 0.714 0 0 0
-0.304957 -0.284016 1.004 255 255 255
0.12151 -0.0332566 0.895 255 255 255
-0.466046 -0.39186 1.205 0 0 0
-0.156556 -0.235516 1.05 0 0 0
0.0605809 0.249971 0.724 255 255 255
-0.14887 -0.0833782 1.094 255 255 255
0.316273 0.0119867 0.902 255 255 255
0.310786 -0.345305 1.041 255 255 255
-0.139803 -0.0699438 1.079 255 255 255
0.517403 -0.15803 1.024 255 255 255
-0.452899 -0.523273 1.387 255 255 255
-0.79205 -0.511718 1.513 255 255 255
-0.0696757 -0.226885 0.784 255 255 255
-0.0536593 0.281676 0.812 255 255 255
-0.46957 -0.278309 1.07 255 255 255
-0.244846 -0.105713 1.143 255 255 255
0.340304 0.105023 0.776 255 255 255
0.119199 0.0595351 0.81 0 0 0
0.00301284 -0.262931 0.77 255 255 255
-0.0395901 0.167216 0.703 255 255 255
-0.422701 -0.235227 1.012 255 255 255
-0.0425887 -0.228254 0.735 255 255 255
0.297053 0.157361 0.685 255 255 255
-0.148531 0.259328 0.856 255 255 255
-0.108515 -0.211326 1.032 255 255 255
-0.691311 -0.30767 1.333 255 255 255
-0.334125 -0.275059 1.354 0 0 0
0.122693 0.185093 0.642 255 255 255
-0.261255 0.247152 0.914 255 255 255
0.116329 -0.167523 0.678 255 255 255
-0.364446 0.0396548 0.897 255 255 255
0.0328919 0.0406467 0.828 255 255 255
-0.504259 0.307512 1.104 255 255 255
0.0603869 0.131948 0.736 255 255 255
0.0152949 0.15191 0.701 255 255 255
0.118648 -0.110445 0.764 0 0 0
-0.0878775 0.210249 0.787 255 255 255
0.425214 -0.302891 1.007 255 255 255
-0.313889 -0.482106 1.289 255 255 255
-0.309288 -0.345804 1.305 255 255 255
0.056344 0.0682484 0.836 255 255 255
-0.581542 0.276626 1.132 255 255 255
-0.346161 -0.191126 0.964 0 0 0
-0.772005 -0.53346 1.498 0 0 0
-0.160014 -0.0224447 0.997 255 255 255
0.38746 -0.0626188 0.966 255 255 255
-0.537191 0.255016 1.087 255 255 255
-0.309796 -0.00291862 0.978 255 255 255
-0.156758 0.183893 0.812 255 255 255
-0.575765 -0.122057 1.213 255 255 255
-0.0897757 0.23965 0.804 0 0 0
0.444809 -0.3069 0.978 255 255 255
0.028032 0.0139629 0.844 255 255 255
0.119463 0.249168 0.677 255 255 255
0.177599 0.201329 0.615 255 255 255
0.204904 0.193414 0.625 255 255 255
0.0991376 -0.129601 0.767 255 255 255
-0.272522 0.137412 0.843 255 255 255
-0.51337 0.183334 1.032 255 255 255
0.247023 -0.142271 0.952 255 255 255
0.317067 0.121926 0.748 255 255 255
-0.355096 -0.00770893 0.98 255 255 255
-0.2363 0.294415 0.927 255 255 255
0.326552 -0.205993 1.112 255 255 255
-0.191953 -0.408397 1.196 255 255 255
0.169776 -0.0362099 0.896 0 0 0
0.0638481 -0.0509294 0.925 0 0 0
0.11358 0.203808 0.632 255 255 255
-0.372822 -0.204924 0.948 255 255 255
0.265701 0.100108 0.787 255 255 255
0.224487 0.163476 0.678 255 255 255
-0.782491 -0.576468 1.528 255 255 255
0.20721 0.205931 0.605 255 255 255
-0.119199 0.117381 0.766 255 255 255
0.13764 -0.26041 0.759 255 255 255
-0.559954 -0.496585 1.305 255 255 255
0.360512 -0.259882 1.073 255 255 255
0.127051 0.140796 0.72 255 255 255
0.0384429 -0.209204 0.707 255 255 255
0.386449 -0.141219 1.087 255 255 255
0.192482 -0.0277496 0.781 255 255 255
-0.70946 0.524004 1.381 255 255 255
-0.573897 -0.223777 1.252 0 0 0
0.152483 -0.117533 0.778 0 0 0
0.0382943 0.236484 0.726 255 255 255
-0.353811 -0.221978 0.955 0 0 0
-0.509355 0.22519 1.055 255 255 255
0.190721 -0.283752 0.779 255 255 255
-0.125999 0.227664 0.827 0 0 0
-0.255682 0.0239893 0.972 255 255 255
0.318285 -0.179842 1.096 255 255 255
-0.319212 0.0423844 0.893 255 255 255
0.121186 0.136249 0.727 255 255 255
0.433274 -0.308431 0.988 255 255 255
0.102629 0.166048 0.675 255 255 255
0.288092 -0.0763253 1.07 255 255 255
-0.376994 -0.0208849 1 255 255 255
-0.105597 0.230992 0.815 0 0 0
-0.134232 -0.239119 1.036 0 0 0
0.296235 0.146307 0.707 255 255 255
0.430041 -0.333615 0.977 255 255 255
-0.544284 0.310606 1.135 255 255 255
-0.104093 -0.167338 1.073 255 255 255
0.176131 0.0099824 0.856 255 255 255
-0.526183 -0.0990467 1.152 255 255 255
0.158814 -0.0407653 0.9 0 0 0
0.130041 0.214093 0.632 255 255 255
-0.626101 -0.128131 1.196 255 255 255
0.20088 0.213178 0.595 255 255 255
-0.142632 0.0871704 0.822 255 255 255
-0.578416 -0.311158 1.227 255 255 255
-0.490063 0.211019 1.036 255 255 255
0.15808 0.181053 0.65 255 255 255
-0.00302176 -0.219716 0.715 255 255 255
-0.446915 -0.407645 1.217 255 255 255
-0.0264212 -0.135015 0.978 0 0 0
0.0236575 0.246414 0.749 255 255 255
-0.040688 -0.254053 0.744 255 255 255
0.155185 -0.204233 0.679 255 255 255
0.310054 -0.0697726 1.05 255 255 255
0.412639 -0.33977 0.981 255 255 255
0.0561754 -0.240296 0.728 255 255 255
0.357676 -0.016114 0.914 0 0 0
-0.4723 -0.206019 1.122 0 0 0
-0.0288844 0.12625 0.752 255 255 255
-0.35345 0.361162 1.051 255 255 255
-0.368129 0.221454 0.964 255 255 255
0.0596604 0.239212 0.713 255 255 255
0.288656 0.198971 0.617 255 255 255
-0.00690575 -0.128925 0.923 255 255 255
0.306682 0.0247783 0.887 255 255 255
-0.318197 -0.452014 1.281 0 0 0
-0.260944 -0.307804 1.297 255 255 255
0.0643049 0.19281 0.654 255 255 255
0.0335675 -0.2705 0.781 255 255 255
-0.738328 -0.58066 1.494 255 255 255
-0.323413 -0.381029 1.302 0 0 0
-0.121467 -0.0306758 1.057 255 255 255
