ply
format ascii 1.0
comment Created by Open3D
element vertex 1311
property double x
property double y
property double z
property uchar red
property uchar green
property uchar blue
end_header
-0.382056 -0.0985129 1.104 255 255 255
-0.385039 0.0476528 1.004 255 255 255
-0.194688 0.100058 0.902 255 255 255
-0.147298 0.130243 0.841 255 255 255
-0.417583 -0.270317 1.26 255 255 255
0.371075 -0.332806 1.039 255 255 255
-0.0985622 0.0258604 0.983 0 0 0
-0.168431 0.295523 0.844 255 255 255
-0.373291 -0.117112 1.11 255 255 255
-0.237057 0.073836 0.942 255 255 255
-0.226712 0.235583 0.836 255 255 255
-0.0336608 0.0460189 1.004 255 255 255
-0.58073 -0.387269 1.369 255 255 255
0.315363 0.031707 0.879 0 0 0
-0.41894 -0.258548 1.283 0 0 0
0.00457404 -0.0510473 1.169 255 255 255
-0.40692 -0.379943 1.118 0 0 0
-0.303533 -0.285873 1.106 255 255 255
-0.318186 -0.170106 1.126 255 255 255
0.190635 0.0860039 0.811 255 255 255
-0.533876 -0.469304 1.33 255 255 255
-0.645734 -0.270438 1.342 255 255 255
0.394769 -0.37558 1.013 255 255 255
-0.32383 -0.249743 1.173 255 255 255
-0.422191 -0.355972 1.203 255 255 255
-0.110036 0.19956 0.738 255 255 255
-0.0230292 0.149372 0.804 255 255 255
0.314731 0.164696 0.76 255 255 255
0.157212 -0.1487 0.934 0 0 0
-0.0113266 0.0896857 0.916 255 255 255
-0.0998968 0.183985 0.743 255 255 255
-0.525002 -0.335757 1.324 255 255 255
0.300613 0.133412 0.765 255 255 255
-0.0239046 0.217166 0.713 255 255 255
0.415607 0.0260745 0.836 255 255 255
-0.151491 -0.306138 1.215 0 0 0
-0.445433 0.388433 1.015 255 255 255
-0.359006 -0.348643 1.094 0 0 0
0.180017 0.0747289 0.934 255 255 255
-0.361879 0.287447 0.924 255 255 255
0.230415 0.149153 0.789 255 255 255
0.310296 -0.150305 0.675 255 255 255
0.274803 -0.00406743 0.882 255 255 255
-0.089409 -0.42598 1.154 255 255 255
0.000776778 -0.188184 1.182 255 255 255
-0.0239285 -0.314934 1.167 255 255 255
-0.709219 -0.28271 1.359 255 255 255
-0.16892 -0.153546 0.875 255 255 255
-0.38813 0.218932 0.908 255 255 255
0.281983 0.238666 0.629 255 255 255
-0.682484 -0.523257 1.381 255 255 255
-0.324968 0.126481 0.862 255 255 255
0.308545 0.130066 0.76 255 255 255
0.451142 -0.341596 1.01 255 255 255
0.0838452 -0.366386 1.11 255 255 255
0.145607 0.23748 0.651 255 255 255
-0.212124 -0.0602884 0.954 255 255 255
0.123537 0.0268338 1.02 0 0 0
-0.67564 -0.301685 1.345 255 255 255
-0.0520522 0.057736 0.981 255 255 255
-0.131965 -0.133652 0.857 0 0 0
0.32848 -0.0191354 0.85 255 255 255
0.250016 -0.0931465 1.126 255 255 255
-0.000689149 0.235894 0.71 255 255 255
-0.73458 -0.360371 1.412 255 255 255
0.132802 0.217801 0.672 255 255 255
-0.470229 0.0706337 0.961 255 255 255
0.44094 -0.337665 1.013 255 255 255
0.204498 -0.272527 0.921 0 0 0
0.045311 0.0576771 0.98 255 255 255
0.0292616 -0.142116 1.167 255 255 255
0.237819 0.133576 0.788 0 0 0
-0.408363 0.285079 0.941 255 255 255
0.326976 -0.359891 1.044 255 255 255
-0.0131607 0.170313 0.763 255 255 255
-0.0877715 0.321262 0.822 255 255 255
0.277215 -0.109663 0.649 0 0 0
0.326157 -0.384108 1.036 255 255 255
-0.140712 0.237265 0.796 255 255 255
-0.528153 0.373775 1.048 255 255 255
0.315219 -0.0793003 0.66 255 255 255
-0.203293 -0.456289 1.194 255 255 255
-0.663327 -0.482154 1.412 255 255 255
-0.0244984 0.267662 0.768 255 255 255
0.0400026 -0.0538055 1.007 255 255 255
0.122791 -0.233183 0.95 255 255 255
0.0764797 -0.371135 1.108 255 255 255
-0.422678 -0.352136 1.21 255 255 255
0.142561 -0.027449 1.002 0 0 0
0.207738 0.232425 0.64 255 255 255
-0.34763 -0.246554 1.176 255 255 255
0.263675 -0.0838978 0.671 0 0 0
-0.383436 -0.481949 1.283 255 255 255
0.207323 0.148443 0.799 255 255 255
-0.35951 0.109109 0.892 255 255 255
0.224796 -0.387465 1.059 255 255 255
0.230616 -0.1279 0.667 255 255 255
-0.198828 0.196955 0.78 255 255 255
-0.577973 -0.107645 1.252 255 255 255
0.229229 0.0364078 0.889 255 255 255
0.131788 -0.173575 0.937 255 255 255
-0.220022 0.329609 0.88 255 255 255
0.201817 -0.148327 0.676 0 0 0
0.0504812 0.0351332 1.02 255 255 255
0.188435 -0.229183 0.986 255 255 255
-0.143078 0.156831 0.802 255 255 255
-0.191935 0.103766 0.896 255 255 255
-0.367703 -0.0520437 1.149 0 0 0
-0.202579 -0.404332 1.213 255 255 255
-0.229684 0.181024 0.777 255 255 255
-0.0749918 0.0820198 0.948 255 255 255
-0.413477 -0.362749 1.162 255 255 255
-0.348972 0.0490412 0.999 255 255 255
0.0939008 -0.235965 0.955 0 0 0
0.197086 0.129908 0.805 0 0 0
0.153775 0.0752469 0.96 255 255 255
-0.31107 -0.12508 1.07 255 255 255
-0.532726 -0.0213861 1.024 255 255 255
-0.0934373 -0.144501 0.917 0 0 0
0.111001 -0.128732 0.955 255 255 255
0.234358 0.154784 0.785 255 255 255
0.100822 -0.263269 0.947 0 0 0
-0.248819 -0.0525812 1.015 255 255 255
0.266109 0.242473 0.623 255 255 255
0.402076 0.0179761 0.839 255 255 255
0.336499 0.184835 0.732 255 255 255
-0.357087 -0.0905149 1.139 255 255 255
0.222798 -0.0701494 0.848 255 255 255
0.0438988 0.259495 0.721 255 255 255
0.265741 0.0220889 0.895 0 0 0
0.0520575 0.12128 0.855 255 255 255
0.107765 -0.377817 1.096 255 255 255
0.130877 -0.100139 0.964 255 255 255
0.0922496 -0.173619 0.954 0 0 0
0.283417 0.021768 0.882 255 255 255
0.0614176 0.187729 0.734 255 255 255
-0.0662276 -0.365206 1.176 255 255 255
-0.664726 -0.248631 1.319 0 0 0
0.157025 -0.238884 0.942 255 255 255
-0.169 0.28182 0.84 255 255 255
0.168351 -0.321256 1.051 255 255 255
0.215605 -0.0910279 0.692 255 255 255
0.0665586 -0.0343104 1.012 0 0 0
0.0483972 0.216441 0.685 255 255 255
-0.471148 -0.136712 1.203 255 255 255
0.262397 -0.0716386 0.679 0 0 0
-0.227434 0.142829 0.819 255 255 255
-0.307411 0.153488 0.805 255 255 255
0.124172 0.24543 0.661 255 255 255
0.0690152 -0.267391 1.104 255 255 255
-0.587624 -0.0784876 1.126 255 255 255
0.0165626 0.0607425 0.978 255 255 255
-0.0485048 0.186534 0.734 255 255 255
0.329053 -0.0732995 0.645 255 255 255
-0.132082 0.309159 0.84 255 255 255
-0.301337 -0.0604546 1.098 255 255 255
0.265185 -0.126366 0.648 255 255 255
0.211404 0.204308 0.693 255 255 255
-0.739731 -0.336804 1.4 255 255 255
0.0400742 0.270051 0.737 255 255 255
-0.0442021 0.18253 0.742 255 255 255
-0.185595 0.214703 0.794 255 255 255
0.214226 0.210559 0.684 255 255 255
0.242289 -0.0684067 0.691 255 255 255
-0.281482 0.208624 0.837 255 255 255
-0.00712375 0.295448 0.782 255 255 255
-0.19474 -0.0166606 0.945 255 255 255
0.279953 -0.122148 0.648 255 255 255
-0.329387 0.250193 0.893 255 255 255
-0.291932 0.00558002 1.083 255 255 255
0.275114 0.00023875 0.883 255 255 255
0.0554694 0.201823 0.704 255 255 255
-0.410712 0.201458 0.896 255 255 255
-0.274835 -0.396347 1.283 255 255 255
-0.0291917 0.25869 0.76 255 255 255
-0.411006 0.360557 0.984 255 255 255
-0.33369 0.130862 0.845 255 255 255
0.0737325 -0.181295 1.094 255 255 255
-0.348753 0.154824 0.819 255 255 255
-0.371508 -0.265797 1.185 255 255 255
0.198642 0.0235602 1.022 0 0 0
0.178451 -0.118815 0.71 255 255 255
-0.0974593 0.0556245 0.972 255 255 255
0.244593 -0.124533 0.655 255 255 255
-0.201595 -0.0955027 0.934 255 255 255
-0.614127 -0.49061 1.384 255 255 255
-0.254424 0.171414 0.791 255 255 255
-0.0197842 -0.386065 1.147 255 255 255
-0.352526 -0.372466 1.096 0 0 0
-0.451096 0.101075 0.898 255 255 255
-0.159312 -0.0128374 0.893 255 255 255
0.412882 -0.353894 1.017 255 255 255
0.0141729 -0.187228 1.176 255 255 255
0.334003 -0.389885 1.029 255 255 255
-0.426609 0.0293317 1.05 255 255 255
0.156981 0.212163 0.682 255 255 255
0.0616818 0.169957 0.767 255 255 255
-0.00455445 0.28634 0.778 255 255 255
0.101981 0.153005 0.789 255 255 255
0.356146 0.152757 0.756 0 0 0
0.30169 0.196334 0.709 255 255 255
-0.0240515 -0.232563 1.173 255 255 255
0.226524 -0.049487 0.873 255 255 255
0.000776778 -0.201648 1.182 255 255 255
-0.213028 0.309934 0.869 255 255 255
0.0187775 0.0865162 0.93 255 255 255
0.254859 -0.37055 1.055 255 255 255
-0.135226 -0.0221595 0.86 0 0 0
-0.770799 -0.437049 1.477 255 255 255
0.42694 -0.333377 1.015 255 255 255
0.0462744 0.091546 0.935 255 255 255
-0.0491656 -0.264675 1.18 255 255 255
-0.0295374 0.169149 0.769 255 255 255
-0.290789 0.281339 0.895 255 255 255
-0.514838 -0.0824599 1.156 255 255 255
-0.63252 -0.222874 1.319 255 255 255
-0.0903803 0.0488917 0.964 255 255 255
-0.0329159 0.293328 0.79 255 255 255
-0.675234 -0.175507 1.302 255 255 255
0.154417 0.143352 0.822 255 255 255
-0.174802 -0.0492104 0.921 255 255 255
-0.0513062 0.287784 0.796 255 255 255
-0.200559 0.172322 0.772 255 255 255
-0.194234 0.149186 0.803 255 255 255
-0.208086 0.116596 0.872 255 255 255
0.194933 -0.00470383 1.02 0 0 0
-0.0802906 -0.0985317 1.215 255 255 255
-0.243262 -0.451665 1.229 0 0 0
-0.179032 0.0967146 0.912 255 255 255
0.103271 -0.11339 0.97 0 0 0
0.203558 0.176466 0.747 255 255 255
-0.437316 0.115063 0.882 255 255 255
-0.455115 0.094604 0.906 255 255 255
0.21967 0.0457494 0.874 255 255 255
0.215969 -0.115915 0.686 255 255 255
0.239405 0.151721 0.789 255 255 255
-0.756723 -0.438263 1.473 255 255 255
-0.466079 0.0193703 1.066 255 255 255
-0.380083 0.213123 0.896 255 255 255
0.218754 0.141764 0.798 255 255 255
-0.664044 -0.165293 1.305 255 255 255
-0.173257 0.150089 0.815 255 255 255
0.190472 0.242081 0.638 255 255 255
0.245052 -0.105396 0.662 255 255 255
0.166987 0.101444 0.852 255 255 255
0.0249387 -0.315897 1.143 0 0 0
0.154429 0.239549 0.648 255 255 255
-0.272191 0.155267 0.794 255 255 255
-0.63317 -0.195486 1.294 0 0 0
0.433411 -0.363524 1.007 255 255 255
0.189695 -0.367079 1.075 255 255 255
0.238692 -0.0749326 1.075 255 255 255
-0.313766 -0.0769541 1.104 255 255 255
-0.0505406 -0.131927 1.213 255 255 255
-0.146788 0.195298 0.754 255 255 255
-0.421944 -0.145534 1.149 255 255 255
0.282977 -0.13839 0.655 255 255 255
-0.207271 0.0129568 0.975 255 255 255
-0.200547 -0.335837 1.237 255 255 255
-0.0919657 -0.341579 1.187 255 255 255
-0.091829 0.121989 0.86 255 255 255
0.165525 0.168929 0.768 255 255 255
-0.0536268 0.278605 0.792 255 255 255
-0.335645 0.288799 0.914 255 255 255
-0.738221 -0.530728 1.419 255 255 255
-0.388893 0.0209664 1.059 255 255 255
0.0574332 0.204094 0.7 255 255 255
0.314721 0.119698 0.757 255 255 255
-0.447772 -0.332397 1.27 0 0 0
0.285946 -0.0632451 0.672 255 255 255
-0.0943539 0.128112 0.845 255 255 255
-0.135382 0.205794 0.752 255 255 255
0.217806 0.0137408 1.034 255 255 255
0.341182 -0.223883 0.778 255 255 255
-0.48957 0.0770652 0.944 255 255 255
0.0714532 -0.209875 1.143 255 255 255
0.250568 -0.0937252 0.671 255 255 255
-0.0757014 0.175899 0.755 255 255 255
0.0754848 -0.236636 1.12 255 255 255
0.266012 -0.179136 0.725 255 255 255
0.262794 0.219108 0.666 255 255 255
-0.0357498 0.168929 0.768 255 255 255
-0.110257 0.111067 0.908 255 255 255
0.301835 0.07619 0.819 0 0 0
0.117542 0.157056 0.79 255 255 255
0.128848 0.215968 0.68 255 255 255
0.230109 -0.320816 1.044 0 0 0
0.112082 0.0607425 0.978 255 255 255
-0.332338 0.116864 0.874 255 255 255
0.106489 0.183242 0.74 255 255 255
-0.345703 0.0972449 0.917 255 255 255
-0.362622 -0.402694 1.22 255 255 255
0.113866 0.221514 0.67 255 255 255
0.299306 0.230017 0.642 255 255 255
-0.170941 -0.110202 0.893 255 255 255
0.281982 0.0275093 0.882 0 0 0
-0.0108306 0.163951 0.774 255 255 255
0.171573 0.185592 0.735 255 255 255
-0.433508 -0.164623 1.165 255 255 255
0.491762 -0.334624 0.999 255 255 255
-0.519308 -0.066001 1.072 0 0 0
-0.283022 0.144606 0.814 255 255 255
-0.352183 -0.227772 1.198 0 0 0
0.00431612 0.161207 0.779 255 255 255
-0.564297 -0.342604 1.351 255 255 255
-0.1371 0.148398 0.813 255 255 255
0.0481981 0.168334 0.771 255 255 255
0.324771 0.211541 0.68 255 255 255
0.279857 0.243096 0.622 255 255 255
-0.37154 -0.477991 1.278 255 255 255
0.281422 0.164965 0.767 255 255 255
-0.460021 -0.00511888 1.11 255 255 255
-0.239905 0.284479 0.869 0 0 0
-0.295395 -0.133786 1.07 255 255 255
-0.20557 0.0270131 0.967 0 0 0
-0.0094376 0.0306265 1.036 255 255 255
-0.336973 0.359328 0.947 255 255 255
0.0632436 0.0676575 0.986 255 255 255
-0.197086 0.0143794 0.964 255 255 255
-0.0915784 -0.328599 1.182 255 255 255
-0.535515 -0.212527 1.234 255 255 255
0.244118 -0.157696 0.693 255 255 255
0.222685 -0.084393 0.693 255 255 255
0.264417 0.184898 0.737 255 255 255
-0.0253623 0.0490412 0.999 255 255 255
-0.126943 -0.424633 1.171 255 255 255
-0.0798732 -0.097241 0.951 0 0 0
0.318031 -0.209321 0.771 0 0 0
0.35605 -0.0320083 0.733 255 255 255
0.0566958 0.254884 0.705 255 255 255
-0.48957 0.221468 0.944 255 255 255
-0.502369 -0.0370853 1.149 255 255 255
-0.188704 0.088869 0.923 255 255 255
-0.0160139 0.16035 0.781 255 255 255
0.0791535 0.215177 0.681 255 255 255
-0.181977 -0.0766846 0.927 255 255 255
0.161625 -0.255747 0.942 255 255 255
-0.23408 0.3135 0.879 255 255 255
0.283977 -0.0551117 0.708 0 0 0
0.391471 -0.377229 1.013 255 255 255
0.122205 -0.011221 1.009 255 255 255
0.479417 -0.346934 0.997 255 255 255
0.259352 -0.136224 0.66 255 255 255
-0.631702 -0.184528 1.291 0 0 0
-0.0232011 0.146532 0.81 255 255 255
-0.107285 -0.0752569 0.947 255 255 255
0.0759965 0.0940629 0.945 255 255 255
0.383466 0.0927519 0.779 255 255 255
-0.0290948 0.158542 0.791 255 255 255
-0.25651 0.255831 0.863 0 0 0
0.177197 0.0488448 0.995 255 255 255
-0.489512 0.209375 0.938 255 255 255
-0.0287873 0.229524 0.719 0 0 0
0.175426 -0.1791 0.942 255 255 255
0.0704917 0.238038 0.683 255 255 255
-0.162757 -0.103805 0.888 255 255 255
-0.449311 0.112319 0.883 255 255 255
0.00222557 0.0636641 0.974 255 255 255
-0.152234 0.0797131 0.939 255 255 255
-0.121197 0.296381 0.831 255 255 255
-0.158746 -0.371827 1.21 255 255 255
-0.329302 -0.0142015 1.114 255 255 255
-0.0587696 -0.0515276 1.18 255 255 255
0.026401 0.21333 0.693 255 255 255
-0.346303 -0.317902 1.178 0 0 0
0.0855094 0.223695 0.67 255 255 255
-0.604578 -0.44215 1.409 255 255 255
-0.378673 0.141543 0.835 255 255 255
0.254101 -0.268856 1.081 255 255 255
-0.337911 0.0732241 0.954 255 255 255
-0.310683 0.287943 0.902 255 255 255
0.149351 0.0948771 0.923 255 255 255
0.239581 -0.200415 0.761 0 0 0
-0.205901 0.122958 0.857 255 255 255
-0.408493 -0.257995 1.27 0 0 0
0.000774149 -0.139622 1.178 255 255 255
-0.680144 -0.34797 1.39 255 255 255
-0.0739299 -0.427129 1.147 255 255 255
0.218746 0.0241373 0.978 255 255 255
0.0460997 0.219464 0.684 255 255 255
-0.0207091 0.193151 0.723 255 255 255
-0.196347 0.269517 0.84 255 255 255
-0.474244 0.206519 0.932 255 255 255
-0.364958 -0.432998 1.299 255 255 255
-0.0891405 -0.242024 1.201 255 255 255
-0.759968 -0.444547 1.47 255 255 255
0.0607157 0.127354 0.84 255 255 255
0.309716 -0.0575193 0.669 255 255 255
0.29181 -0.150973 0.678 255 255 255
-0.574016 -0.370361 1.348 255 255 255
-0.134912 -0.0262967 0.858 0 0 0
-0.38531 0.197411 0.878 255 255 255
-0.0810829 -0.0314151 1.025 0 0 0
-0.298859 0.0490902 1 255 255 255
0.262272 0.173441 0.755 255 255 255
0.19794 0.245976 0.632 255 255 255
-0.694839 -0.377144 1.406 0 0 0
0.189545 0.0396802 1.009 255 255 255
-0.398657 -0.281208 1.227 255 255 255
-0.307449 0.223413 0.868 255 255 255
-0.117404 0.065651 0.98 255 255 255
0.298702 0.11477 0.757 255 255 255
0.297237 0.0428067 0.872 0 0 0
0.397978 0.00841883 0.839 255 255 255
-0.177906 0.150858 0.812 255 255 255
0.234879 0.234561 0.643 255 255 255
-0.123739 -0.121242 0.858 0 0 0
-0.241179 0.149929 0.807 255 255 255
-0.159755 0.312472 0.849 255 255 255
-0.521769 0.352954 1.032 255 255 255
0.185191 -0.141703 0.692 255 255 255
0.226501 -0.025655 0.884 255 255 255
0.288694 0.0611638 0.851 255 255 255
0.0122795 -0.191381 1.178 255 255 255
-0.618614 -0.362763 1.369 0 0 0
0.05212 0.240478 0.69 255 255 255
-0.358479 0.00383172 1.087 255 255 255
-0.168799 0.278754 0.839 255 255 255
-0.0369159 0.108376 0.886 255 255 255
-0.134618 0.145931 0.814 255 255 255
-0.122813 0.212569 0.75 255 255 255
0.292492 0.0599897 0.854 255 255 255
-0.146399 0.188661 0.752 255 255 255
0.0388826 -0.426481 1.116 255 255 255
-0.160081 0.220648 0.783 255 255 255
0.230178 -0.278003 1 255 255 255
0.0394217 0.262115 0.725 255 255 255
0.243988 -0.363682 1.06 0 0 0
-0.656432 -0.406327 1.412 255 255 255
0.153868 -0.0145481 1.012 255 255 255
-0.250376 -0.257847 1.094 255 255 255
-0.356386 -0.138538 1.108 0 0 0
0.18917 0.214229 0.678 255 255 255
-0.153216 -0.264181 1.213 0 0 0
-0.314281 -0.457864 1.257 255 255 255
-0.212802 -0.408953 1.215 255 255 255
0.11409 -0.174501 0.942 255 255 255
0.352468 -0.339504 1.044 255 255 255
0.218351 -0.0918877 0.69 255 255 255
0.0721371 0.0919501 0.955 255 255 255
0.302589 -0.0166963 0.867 255 255 255
0.0129756 0.228827 0.699 255 255 255
0.170266 0.140506 0.821 255 255 255
0.122849 0.195942 0.716 255 255 255
-0.0423805 0.138337 0.824 255 255 255
0.0540624 0.138002 0.822 255 255 255
-0.304401 0.325983 0.914 255 255 255
-0.228556 -0.279703 1.247 0 0 0
0.0647765 -0.312475 1.124 255 255 255
0.0304234 0.0986295 0.916 255 255 255
-0.0234495 0.117474 0.868 255 255 255
-0.287039 -0.285592 1.098 255 255 255
0.190286 0.212163 0.682 255 255 255
0.100095 0.000275252 1.018 0 0 0
0.0425507 0.108743 0.889 255 255 255
0.346642 0.203767 0.695 255 255 255
0.0567927 0.279266 0.736 255 255 255
0.0285596 -0.264746 1.139 255 255 255
0.12562 -0.0662507 0.997 255 255 255
0.0287893 0.0721975 0.961 255 255 255
0.178578 -0.0112544 1.012 0 0 0
0.175969 -0.127617 0.714 255 255 255
-0.100313 0.0491453 0.969 255 255 255
0.218302 0.0626222 0.852 255 255 255
-0.194201 -0.0621308 0.935 255 255 255
-0.128461 -0.308221 1.185 0 0 0
-0.414971 0.0920721 0.925 255 255 255
0.318711 0.228943 0.639 255 255 255
-0.0471647 -0.26231 1.178 255 255 255
-0.0679992 0.0170234 1.029 255 255 255
0.177804 0.0151699 1.017 0 0 0
0.482286 -0.370856 0.983 255 255 255
0.122205 -0.00465311 1.009 255 255 255
-0.372 -0.0198869 1.128 255 255 255
0.28429 0.10269 0.768 255 255 255
-0.448666 -0.0478892 1.185 255 255 255
0.281219 -0.0283772 0.837 255 255 255
0.339948 -0.0136185 0.851 255 255 255
0.209152 0.0562126 0.86 255 255 255
0.122326 -0.0178065 1.01 255 255 255
0.32421 0.0560166 0.857 255 255 255
-0.670252 -0.147076 1.313 0 0 0
-0.276016 0.147668 0.809 255 255 255
-0.226357 0.26581 0.85 255 255 255
0.281192 -0.108105 0.646 255 255 255
0.120849 0.102651 0.912 255 255 255
-0.504291 -0.145892 1.198 255 255 255
0.0720951 -0.339912 1.124 255 255 255
-0.153896 0.145218 0.825 255 255 255
0.143203 -0.0862037 0.984 0 0 0
0.269711 -0.404837 1.046 255 255 255
0.20238 -0.0832653 0.693 255 255 255
-0.467239 -0.229722 1.198 255 255 255
-0.515252 -0.0685902 1.21 255 255 255
-0.14583 0.167946 0.775 255 255 255
-0.0269885 0.0506669 0.999 255 255 255
-0.111533 0.113756 0.883 255 255 255
0.0969713 -0.00470383 1.02 255 255 255
-0.48613 -0.0397688 1.173 255 255 255
0.208215 -0.0528402 1.02 255 255 255
-0.425688 -0.0200808 1.139 255 255 255
0.0925397 0.0874706 0.957 255 255 255
-0.395835 0.0816738 0.944 255 255 255
-0.0214538 0.176939 0.749 255 255 255
0.00395044 0.198602 0.713 255 255 255
-0.0868165 0.155573 0.789 255 255 255
0.283743 0.0769549 0.813 255 255 255
0.205543 -0.0724021 1.015 0 0 0
0.207312 0.138905 0.804 255 255 255
-0.179207 0.103998 0.898 255 255 255
0.323566 0.0623281 0.848 255 255 255
0.221046 -0.112853 0.681 255 255 255
-0.0240387 0.228886 0.717 255 255 255
-0.0836473 -0.0426631 0.977 0 0 0
-0.0600693 0.0963965 0.909 255 255 255
-0.425824 0.110437 0.891 255 255 255
0.13937 0.143051 0.828 255 255 255
-0.116716 0.307438 0.828 255 255 255
-0.383994 0.116997 0.875 255 255 255
-0.160944 0.217543 0.781 255 255 255
-0.546773 0.378265 1.051 0 0 0
-0.364913 -0.0105569 1.112 255 255 255
0.306162 0.205436 0.693 255 255 255
-0.20524 0.152875 0.795 255 255 255
0.0429814 0.105459 0.898 255 255 255
0.110363 0.0786163 0.963 255 255 255
0.0716665 0.196215 0.717 255 255 255
0.215967 0.0778068 0.822 255 255 255
-0.040955 -0.282165 1.165 255 255 255
0.26794 -0.340204 1.073 255 255 255
0.247557 -0.0368117 0.843 255 255 255
-0.283994 0.363471 0.93 255 255 255
0.213643 -0.32763 1.055 255 255 255
0.0738976 0.198272 0.716 255 255 255
0.146799 0.179376 0.749 255 255 255
-0.00790832 0.0174867 1.057 255 255 255
0.0152664 -0.0432846 1.116 255 255 255
-0.393233 0.252176 0.927 255 255 255
0.319119 -0.0328387 0.725 255 255 255
0.00830793 0.154556 0.797 255 255 255
-0.414345 0.116498 0.882 255 255 255
-0.173494 -0.412744 1.203 255 255 255
0.161728 0.162656 0.786 255 255 255
-0.0841035 -0.0750391 0.964 0 0 0
-0.187246 -0.271666 1.229 255 255 255
0.33266 0.143055 0.77 255 255 255
0.284502 -0.0422189 0.724 255 255 255
-0.357366 -0.362999 1.089 255 255 255
0.304743 -0.182305 0.733 255 255 255
-0.189793 0.109817 0.886 255 255 255
-0.287837 0.0461564 1.007 255 255 255
0.284882 0.154934 0.773 255 255 255
0.261409 0.218679 0.668 255 255 255
-0.179329 -0.105909 0.906 255 255 255
-0.355951 -0.42811 1.297 255 255 255
0.0758808 0.204677 0.702 255 255 255
0.501259 -0.318644 1.005 255 255 255
-0.158979 -0.299178 1.227 255 255 255
-0.518866 0.00356029 1.01 255 255 255
0.408258 -0.330687 1.022 255 255 255
0.19413 -0.180811 0.951 255 255 255
0.242018 -0.198129 0.757 0 0 0
-0.0511773 0.284476 0.794 255 255 255
0.209032 -0.0430491 1.024 255 255 255
0.19367 -0.094643 0.972 0 0 0
0.0627125 0.00698309 1.03 255 255 255
-0.120211 0.184252 0.749 255 255 255
-0.249254 -0.408202 1.249 255 255 255
0.0795087 -0.400676 1.1 255 255 255
-0.0584508 0.213447 0.724 255 255 255
0.32987 0.208942 0.686 255 255 255
0.349224 0.171437 0.757 255 255 255
-0.129046 -0.0438781 0.847 0 0 0
-0.216809 -0.070114 0.961 255 255 255
-0.0401658 0.0677167 0.964 255 255 255
0.255038 -0.17771 0.724 255 255 255
-0.546099 0.382412 1.053 0 0 0
0.0624988 -0.370182 1.116 255 255 255
-0.327191 0.0908606 0.928 255 255 255
-0.635616 -0.149736 1.299 0 0 0
0.000775464 -0.130258 1.18 255 255 255
-0.139726 0.0168445 0.927 0 0 0
-0.323592 0.202419 0.851 255 255 255
0.12954 0.177127 0.755 255 255 255
-0.284833 -0.416575 1.281 255 255 255
-0.127092 0.177297 0.761 255 255 255
0.117536 0.109941 0.887 255 255 255
0.252681 -0.00261124 0.875 255 255 255
0.271243 -0.206544 0.77 0 0 0
0.105256 -0.045476 1.004 0 0 0
0.00629385 0.108826 0.878 255 255 255
0.0311062 -0.114059 1.098 0 0 0
-0.28248 0.0865162 0.93 255 255 255
-0.134552 -0.254595 1.205 0 0 0
-0.341012 -0.299831 1.16 255 255 255
-0.143296 0.178356 0.755 255 255 255
0.33259 -0.317836 1.051 0 0 0
0.0636749 -0.227276 1.137 255 255 255
0.022975 0.00199829 1.053 0 0 0
-0.0910954 -0.263522 1.201 255 255 255
0.313903 -0.199625 0.758 0 0 0
-0.455435 0.2244 0.937 255 255 255
0.315144 0.163076 0.764 255 255 255
-0.209247 -0.0552812 0.948 255 255 255
0.113969 -0.154409 0.941 0 0 0
-0.301096 0.0953349 0.913 255 255 255
-0.531608 -0.373125 1.319 255 255 255
0.0195432 -0.240064 1.154 255 255 255
-0.132089 0.0820198 0.948 255 255 255
0.361572 -0.367249 1.036 255 255 255
0.17204 0.191548 0.717 255 255 255
0.280013 0.186097 0.737 255 255 255
0.190155 -0.300901 0.995 255 255 255
-0.52895 -0.332327 1.345 255 255 255
0.192798 0.0884248 0.809 255 255 255
0.195829 0.175954 0.75 255 255 255
-0.309599 -0.139919 1.077 255 255 255
-0.74206 -0.440049 1.463 255 255 255
0.372881 0.172213 0.755 255 255 255
0.291767 -0.0305117 0.755 0 0 0
-0.333493 -0.0197811 1.122 255 255 255
-0.141234 -0.0359023 0.854 0 0 0
0.449848 -0.310729 1.022 255 255 255
-0.0360756 0.270102 0.775 255 255 255
0.350456 0.152959 0.757 0 0 0
0.290656 0.205967 0.691 255 255 255
-0.0246257 -0.128667 1.201 255 255 255
-0.143759 0.187188 0.751 255 255 255
-0.253929 0.219258 0.836 255 255 255
-0.0139369 0.144855 0.808 255 255 255
-0.0753601 0.163076 0.764 255 255 255
-0.0486461 -0.122258 1.215 255 255 255
0.102472 -0.260461 0.948 0 0 0
-0.312061 0.0825929 0.937 255 255 255
0.256081 0.1369 0.785 0 0 0
-0.497013 -0.0238297 1.141 255 255 255
0.266696 0.162902 0.775 255 255 255
-0.137012 0.171429 0.768 255 255 255
0.218937 0.0243346 0.925 255 255 255
-0.0813983 -0.436462 1.147 255 255 255
-0.186908 0.108376 0.886 255 255 255
0.200865 -0.16551 0.961 255 255 255
0.188742 -0.132945 0.963 0 0 0
0.28598 0.222562 0.657 255 255 255
0.12827 0.147668 0.809 255 255 255
0.225476 -0.0355633 0.88 255 255 255
-0.375006 -0.0711581 1.126 255 255 255
-0.592183 -0.449429 1.396 255 255 255
-0.0565572 -0.0906229 1.215 255 255 255
0.111377 -0.164292 0.945 0 0 0
0.129424 -0.140776 0.942 255 255 255
0.0488684 -0.151415 1.137 255 255 255
-0.136568 -0.0730629 0.834 255 255 255
0.197229 0.227595 0.65 255 255 255
0.253854 0.145485 0.79 0 0 0
0.333046 -0.0247881 0.768 0 0 0
-0.0987692 0.168553 0.772 255 255 255
-0.377328 0.272706 0.925 255 255 255
0.0542116 -0.0727405 0.997 255 255 255
-0.386349 -0.120289 1.106 255 255 255
0.355806 -0.217693 0.774 255 255 255
0.126764 0.221184 0.669 255 255 255
0.117903 -0.249662 0.948 255 255 255
0.0662298 0.0592662 1.007 255 255 255
0.168355 -0.0883159 0.972 0 0 0
-0.0662436 -0.014176 1.112 255 255 255
0.308792 -0.123764 0.64 255 255 255
-0.0738527 0.136808 0.831 255 255 255
-0.081702 0.0212543 0.992 0 0 0
-0.109407 -0.16544 0.901 0 0 0
0.238747 0.0782779 0.813 255 255 255
0.181812 -0.260254 0.92 0 0 0
-0.573575 -0.443314 1.384 255 255 255
0.375082 0.019572 0.849 255 255 255
-0.396573 0.362281 0.98 255 255 255
0.315144 -0.115746 0.636 255 255 255
0.035694 0.168553 0.772 255 255 255
0.369511 -0.176044 0.722 255 255 255
0.186835 0.148432 0.806 255 255 255
-0.172697 0.14119 0.825 255 255 255
0.213172 -0.236874 1.012 255 255 255
-0.61675 -0.236617 1.336 255 255 255
-0.176754 0.126252 0.851 255 255 255
0.353853 0.159539 0.759 0 0 0
-0.0256732 -0.303606 1.16 255 255 255
0.321794 0.138934 0.768 255 255 255
0.299306 -0.12833 0.642 0 0 0
0.265777 0.240969 0.627 255 255 255
-0.0874334 -0.3064 1.178 255 255 255
-0.292545 0.0719722 0.958 255 255 255
-0.583088 -0.0915415 1.176 255 255 255
-0.107851 0.0978581 0.952 255 255 255
-0.271159 -0.139041 1.057 255 255 255
-0.0832478 0.310001 0.817 255 255 255
-0.101798 -0.276368 1.189 255 255 255
0.283409 -0.0937651 0.656 255 255 255
0.133707 0.235741 0.655 255 255 255
0.26692 0.0994563 0.772 255 255 255
-0.480545 0.0073153 1.079 255 255 255
-0.0848562 0.151242 0.807 255 255 255
-0.0526928 -0.35473 1.173 255 255 255
-0.27406 0.303704 0.888 255 255 255
0.13219 -0.0128757 1.01 255 255 255
0.380225 0.0614461 0.836 255 255 255
0.267449 -0.160413 0.695 255 255 255
0.0910769 -0.211762 0.958 255 255 255
-0.247993 -0.258259 1.213 255 255 255
0.247524 -0.0236138 0.862 255 255 255
-0.0953839 0.0474703 0.967 0 0 0
-0.153655 -0.394468 1.201 255 255 255
-0.289765 0.263197 0.883 255 255 255
-0.0706914 -0.112835 1.22 255 255 255
-0.0705865 0.0218113 1.018 0 0 0
-0.0494573 -0.0595599 1.187 255 255 255
0.175706 -0.0275312 1.005 0 0 0
-0.243156 0.321764 0.886 255 255 255
0.23299 -0.0525558 0.772 255 255 255
-0.102599 -0.395826 1.176 255 255 255
0.10257 0.205487 0.697 255 255 255
0.212354 0.176702 0.748 255 255 255
-0.270237 -0.395729 1.281 255 255 255
-0.487897 -0.0119216 1.072 255 255 255
0.227268 0.176939 0.749 255 255 255
-0.474247 -0.0541726 1.196 255 255 255
0.169851 0.142829 0.819 255 255 255
-0.305733 0.0943631 0.918 255 255 255
0.123821 -0.354631 1.096 255 255 255
0.166125 0.125383 0.827 255 255 255
0.341697 -0.379266 1.032 255 255 255
0.289807 -0.0167733 0.871 255 255 255
0.247628 -0.0799577 0.684 255 255 255
0.31109 0.0840576 0.805 255 255 255
-0.426246 0.196063 0.898 255 255 255
-0.177202 -0.351614 1.215 255 255 255
0.444857 -0.302413 1.022 255 255 255
-0.20652 0.102308 0.896 255 255 255
0.0467281 -0.292077 1.13 255 255 255
-0.150748 0.111556 0.877 255 255 255
0.0713173 0.249822 0.691 255 255 255
0.332119 0.14548 0.763 255 255 255
-0.291287 0.137994 0.83 255 255 255
0.296889 0.212811 0.677 255 255 255
0.321218 -0.0469053 0.689 255 255 255
-0.38184 -0.368048 1.083 255 255 255
-0.500264 0.0576771 0.98 255 255 255
0.272819 0.215614 0.672 255 255 255
-0.436905 0.0962904 0.908 255 255 255
-0.43087 0.169933 0.869 255 255 255
0.147138 -0.190029 0.928 255 255 255
0.185227 -0.0961798 0.705 255 255 255
-0.423084 -0.220256 1.189 255 255 255
0.171306 0.233222 0.648 255 255 255
0.330164 0.020033 0.869 255 255 255
-0.224729 0.0399298 0.975 255 255 255
0.276664 0.192884 0.722 255 255 255
0.278221 -0.322792 1.079 255 255 255
-0.318502 0.0321877 1.032 255 255 255
0.264603 -0.403135 1.046 255 255 255
-0.380759 -0.0814227 1.116 255 255 255
0.319709 0.227573 0.641 255 255 255
0.203473 0.219437 0.667 255 255 255
0.298086 -0.383676 1.044 255 255 255
0.259128 -0.0345126 0.854 255 255 255
-0.420804 0.101526 0.902 255 255 255
-0.457138 -0.125763 1.192 255 255 255
0.201864 0.0425268 0.896 255 255 255
0.05257 -0.332742 1.137 255 255 255
0.319517 -0.0640514 0.669 255 255 255
-0.187321 0.0963965 0.909 255 255 255
0.121707 0.156164 0.792 255 255 255
-0.219441 0.116596 0.872 255 255 255
0.223018 0.0169904 1.027 255 255 255
-0.363114 -0.234959 1.215 0 0 0
0.282967 0.217697 0.665 255 255 255
0.27823 -0.208337 0.772 0 0 0
0.360549 0.126436 0.768 255 255 255
-0.192018 -0.285791 1.247 255 255 255
0.390954 -0.304485 1.029 255 255 255
-0.392198 -0.17408 1.128 255 255 255
0.311418 0.176424 0.752 255 255 255
-0.0746633 -0.148571 1.22 255 255 255
0.374363 0.111221 0.758 0 0 0
0.0287605 0.19224 0.724 255 255 255
0.322624 0.157476 0.767 0 0 0
-0.273693 0.0676464 0.963 255 255 255
0.236322 -0.0694306 0.69 255 255 255
0.0304136 -0.120171 1.139 255 255 255
0.401518 -0.0160801 0.835 255 255 255
-0.495184 0.341173 1.012 0 0 0
0.259457 0.23969 0.629 255 255 255
0.017782 0.0139535 1.05 255 255 255
-0.0737716 0.199309 0.724 255 255 255
0.256674 0.175433 0.753 255 255 255
-0.170811 0.306945 0.849 255 255 255
0.347014 -0.0424204 0.689 255 255 255
-0.135382 0.20457 0.752 255 255 255
0.212839 -0.0811267 0.694 255 255 255
0.300819 -0.129576 0.643 0 0 0
-0.0268348 0.0157666 1.057 255 255 255
-0.0516571 0.237824 0.745 255 255 255
-0.352022 -0.355925 1.1 0 0 0
-0.177705 -0.415392 1.205 255 255 255
0.339366 0.111075 0.757 0 0 0
-0.13377 -0.299905 1.198 0 0 0
-0.0212342 0.294401 0.786 255 255 255
0.000489594 0.258434 0.745 255 255 255
-0.0587874 -0.420059 1.143 255 255 255
-0.183684 0.0863301 0.928 255 255 255
-0.465048 -0.501912 1.319 255 255 255
-0.493423 -0.0246706 1.022 255 255 255
-0.66522 -0.111685 1.299 255 255 255
0.381766 0.158095 0.758 0 0 0
-0.102521 0.0637295 0.975 255 255 255
-0.0492489 -0.0458445 1.182 255 255 255
-0.289889 0.119467 0.862 255 255 255
-0.438052 -0.107933 1.167 255 255 255
-0.433491 -0.497726 1.308 255 255 255
-0.42213 -0.371269 1.165 255 255 255
-0.149267 -0.356957 1.213 255 255 255
-0.516556 -0.499605 1.33 255 255 255
-0.0866773 -0.186208 1.194 255 255 255
0.0142425 0.131611 0.841 255 255 255
-0.37266 -0.17071 1.13 255 255 255
0.22611 0.237183 0.636 255 255 255
0.309375 0.121249 0.759 255 255 255
-0.0797631 -0.373495 1.178 255 255 255
0.431548 -0.319045 1.022 255 255 255
-0.423273 0.0504133 0.994 255 255 255
0.106894 0.0830581 0.96 255 255 255
-0.152504 -0.41285 1.192 255 255 255
-0.0462074 -0.166077 1.203 255 255 255
0.110363 -0.115706 0.963 255 255 255
0.324696 -0.100466 0.651 255 255 255
-0.0535882 0.196409 0.722 255 255 255
0.142865 0.241397 0.653 255 255 255
0.017925 -0.14832 1.171 255 255 255
0.0752393 0.188822 0.729 255 255 255
-0.156991 0.322143 0.849 255 255 255
-0.325739 -0.249743 1.173 255 255 255
-0.0052745 0.0984806 0.901 255 255 255
0.217162 -0.0401765 0.887 255 255 255
-0.058535 -0.100509 1.215 255 255 255
-0.0442485 -0.0278088 1.152 255 255 255
0.347443 0.188966 0.725 255 255 255
-0.117149 -0.0136855 0.952 255 255 255
0.236537 0.106647 0.788 255 255 255
0.383274 -0.0208196 0.808 0 0 0
0.199287 0.0437394 0.891 255 255 255
-0.292044 -0.0600141 1.09 255 255 255
-0.0682095 -0.420794 1.145 255 255 255
-0.186796 -0.0926747 0.921 255 255 255
-0.489274 0.280812 0.974 255 255 255
0.13485 0.0697167 0.97 255 255 255
-0.374363 -0.226676 1.213 0 0 0
0.0897355 -0.0612603 0.995 255 255 255
-0.00585405 0.0490902 1 255 255 255
-0.474702 -0.507195 1.316 255 255 255
-0.477022 -0.0603627 1.203 255 255 255
-0.351358 0.323303 0.932 255 255 255
-0.133607 0.0886922 0.937 255 255 255
0.0335275 0.126587 0.844 255 255 255
0.173014 -0.262036 0.921 255 255 255
-0.349938 0.24217 0.901 255 255 255
-0.0681975 0.0137143 1.032 255 255 255
0.258968 0.179376 0.749 255 255 255
0.140009 -0.140627 0.941 255 255 255
0.305144 -0.205739 0.767 0 0 0
0.295931 -0.0954616 0.653 255 255 255
0.176113 0.111079 0.811 255 255 255
-0.00966964 0.29163 0.782 255 255 255
-0.0466448 0.306758 0.805 255 255 255
0.294573 -0.316353 1.081 255 255 255
-0.659183 -0.144387 1.308 0 0 0
0.15458 0.116061 0.868 255 255 255
0.344049 -0.397989 1.024 255 255 255
0.268532 -0.112119 0.651 0 0 0
-0.444371 0.300513 0.966 255 255 255
-0.484161 -0.0273129 1.06 255 255 255
0.181955 -0.349777 1.081 255 255 255
0.298286 0.202104 0.701 255 255 255
-0.0108027 0.279107 0.772 255 255 255
-0.30537 0.0490902 1 255 255 255
0.370931 -0.388135 1.02 255 255 255
-0.294149 -0.209173 1.192 0 0 0
-0.211574 0.235243 0.83 255 255 255
-0.275822 -0.281479 1.089 255 255 255
-0.275275 -0.0973892 1.053 255 255 255
0.186591 -0.135655 0.96 0 0 0
0.149931 -0.393496 1.066 255 255 255
-0.253827 -0.248385 1.194 255 255 255
-0.0728524 0.156108 0.805 255 255 255
0.151874 0.191444 0.721 255 255 255
0.0700876 0.0729122 0.992 255 255 255
-0.416034 0.346862 0.977 255 255 255
-0.432353 -0.126924 1.167 255 255 255
0.0478157 -0.0923949 0.999 0 0 0
0.0180529 -0.00318123 1.066 255 255 255
-0.369822 -0.216933 1.192 255 255 255
-0.181275 0.078185 0.939 255 255 255
-0.359603 0.058148 0.988 255 255 255
-0.169047 0.0598483 0.939 255 255 255
-0.290781 -0.473373 1.244 255 255 255
-0.497292 0.225254 0.947 255 255 255
0.179536 -0.037121 0.999 0 0 0
-0.453231 -0.0164313 1.143 255 255 255
-0.333289 -0.424029 1.291 255 255 255
0.292146 -0.0285129 0.841 255 255 255
-0.00113855 -0.152391 1.173 255 255 255
0.278197 -0.043517 0.726 255 255 255
0.0340788 0.198323 0.712 255 255 255
-0.448666 -0.128881 1.185 255 255 255
0.377442 0.177682 0.747 255 255 255
-0.0601642 -0.164802 1.208 255 255 255
0.245248 0.159939 0.779 255 255 255
-0.306702 0.0880296 0.93 255 255 255
0.0734649 -0.0692865 0.994 255 255 255
-0.251883 -0.248385 1.194 255 255 255
-0.736103 -0.464238 1.442 255 255 255
-0.0712973 -0.047081 1.165 255 255 255
0.0828699 0.122958 0.857 255 255 255
0.24299 -0.0663492 0.693 255 255 255
-0.179364 -0.00279626 0.937 255 255 255
-0.222654 0.0489932 0.966 255 255 255
-0.30487 -0.241016 1.196 255 255 255
-0.0897614 -0.168573 0.91 0 0 0
0.0575727 -0.0647579 0.999 255 255 255
0.344251 0.0934663 0.785 255 255 255
-0.413237 -0.346251 1.217 255 255 255
-0.226963 0.140187 0.827 255 255 255
-0.180536 0.252316 0.824 255 255 255
0.369194 0.169756 0.755 255 255 255
-0.264971 0.0488448 0.995 255 255 255
-0.64865 -0.304697 1.339 255 255 255
-0.281851 -0.300427 1.12 0 0 0
-0.493795 0.0546544 0.983 255 255 255
0.127593 0.225333 0.662 255 255 255
0.0670963 -0.404991 1.102 255 255 255
-0.493423 0.361176 1.022 255 255 255
0.198996 -0.102437 0.693 255 255 255
-0.140203 -0.301157 1.203 0 0 0
-0.238315 0.0711458 0.947 255 255 255
-0.130463 -0.00403515 0.875 0 0 0
-0.122062 -0.147189 0.897 255 255 255
-0.216276 -0.105854 0.945 255 255 255
-0.337197 0.112319 0.883 255 255 255
0.35521 0.0929901 0.781 255 255 255
0.196952 0.0535071 0.935 255 255 255
-0.108419 -0.253116 1.198 255 255 255
0.00817914 -0.369191 1.141 255 255 255
-0.295645 0.157347 0.798 255 255 255
-0.00694875 -0.0730813 1.187 255 255 255
0.0154056 0.170313 0.763 255 255 255
0.180759 0.000274441 1.015 0 0 0
-0.079024 -0.140941 0.923 255 255 255
-0.153025 0.332205 0.85 255 255 255
-0.0932138 0.0925251 0.945 255 255 255
0.342982 -0.352081 1.041 255 255 255
-0.394233 -0.472349 1.291 255 255 255
0.304884 -0.383676 1.044 255 255 255
-0.303557 -0.187482 1.154 0 0 0
0.226911 -0.00705603 0.897 255 255 255
-0.456799 -0.0184353 1.152 255 255 255
-0.0239747 0.301804 0.792 255 255 255
-0.213119 0.00185976 0.98 255 255 255
0.318224 0.0259853 0.879 255 255 255
0.107327 -0.14661 0.95 0 0 0
-0.320184 -0.429665 1.289 255 255 255
0.286886 -0.352098 1.072 255 255 255
-0.322171 -0.404893 1.297 255 255 255
0.180486 -0.41103 1.062 255 255 255
-0.493188 0.075849 0.948 255 255 255
0.306095 0.170205 0.757 255 255 255
-0.0868225 -0.176789 1.196 255 255 255
-0.179475 -0.344271 1.217 255 255 255
-0.200109 -0.253683 1.21 255 255 255
-0.0664529 -0.278117 1.18 255 255 255
0.0507612 0.148215 0.812 255 255 255
0.261129 0.0573442 0.856 255 255 255
-0.0316795 -0.00870008 1.106 255 255 255
-0.0304438 0.120022 0.866 255 255 255
-0.159664 -0.320505 1.217 255 255 255
0.220245 -0.0428206 0.882 255 255 255
-0.164841 0.180298 0.758 255 255 255
-0.234877 0.228781 0.836 255 255 255
0.0344422 0.00196793 1.037 0 0 0
0.164092 0.166278 0.779 255 255 255
0.125284 -0.201897 0.934 255 255 255
0.253145 0.097446 0.776 255 255 255
0.367755 0.128019 0.77 255 255 255
-0.401263 0.199659 0.888 255 255 255
-0.192194 0.137662 0.828 255 255 255
0.182261 0.237331 0.642 255 255 255
0.174684 -0.292363 0.972 255 255 255
-0.521532 -0.277611 1.294 0 0 0
-0.257343 -0.467437 1.239 255 255 255
-0.106288 0.19929 0.737 255 255 255
-0.454082 0.214694 0.928 255 255 255
0.0499051 0.191975 0.723 255 255 255
0.170132 0.220611 0.664 255 255 255
0.171456 0.195226 0.705 255 255 255
0.156989 0.122322 0.843 255 255 255
-0.221454 0.326745 0.88 255 255 255
-0.17508 0.193167 0.765 255 255 255
-0.688414 -0.353255 1.393 255 255 255
-0.460012 0.0490902 1 255 255 255
0.127258 -0.00301411 1.01 255 255 255
0.115407 0.178633 0.751 255 255 255
-0.219693 0.31136 0.873 255 255 255
-0.0762232 0.152367 0.813 255 255 255
-0.570255 -0.285121 1.319 0 0 0
-0.186101 -0.120779 0.896 255 255 255
-0.310286 0.115177 0.872 255 255 255
-0.191975 -0.0394757 0.939 255 255 255
-0.522232 -0.404931 1.339 255 255 255
0.310154 -0.333405 1.068 255 255 255
0.122836 0.0983053 0.927 255 255 255
0.197296 -0.171859 0.691 255 255 255
-0.287801 0.0707807 0.963 255 255 255
0.25727 0.225112 0.652 255 255 255
-0.526483 0.00356734 1.012 255 255 255
-0.58476 -0.26032 1.313 255 255 255
0.197357 0.185087 0.733 255 255 255
-0.38541 0.181321 0.856 255 255 255
-0.41192 0.323642 0.96 255 255 255
-0.0670989 -0.401074 1.158 255 255 255
0.342242 0.131607 0.769 255 255 255
0.26368 -0.28013 1.077 255 255 255
0.148442 0.0251739 1.02 0 0 0
0.29267 0.209328 0.68 255 255 255
0.262974 -0.0840228 0.672 0 0 0
0.265006 -0.0522151 0.732 255 255 255
-0.392457 0.11597 0.878 255 255 255
0.26902 -0.0889579 0.668 255 255 255
0.256667 -0.267862 1.077 255 255 255
-0.0776641 -0.434595 1.147 255 255 255
-0.261313 0.293705 0.884 255 255 255
-0.208542 0.108376 0.886 255 255 255
-0.406128 0.111259 0.886 255 255 255
-0.0770176 0.0972449 0.917 255 255 255
0.273356 0.159323 0.776 255 255 255
0.203232 0.182499 0.737 255 255 255
0.111739 -0.366665 1.1 255 255 255
0.309876 -0.0638599 0.667 255 255 255
0.22642 0.142166 0.793 255 255 255
0.244417 0.176658 0.753 255 255 255
0.263552 0.0416724 0.878 0 0 0
0.408258 -0.32736 1.022 255 255 255
0.137948 0.153297 0.804 255 255 255
0.0907886 0.121431 0.866 255 255 255
-0.713841 -0.272251 1.351 255 255 255
0.303647 -0.400193 1.034 255 255 255
-0.207209 -0.389821 1.217 255 255 255
-0.172017 0.198924 0.768 255 255 255
0.290514 -0.156558 0.688 255 255 255
0.227551 0.215159 0.674 255 255 255
-0.521206 0.314281 1.005 255 255 255
0.127162 -0.137045 0.948 255 255 255
-0.458722 0.0321253 1.03 255 255 255
-0.499704 -0.107317 1.225 0 0 0
-0.45837 0.291985 0.969 255 255 255
0.361958 0.12944 0.771 255 255 255
-0.123239 -0.0534001 0.845 255 255 255
0.291994 -0.0311097 0.74 0 0 0
-0.229473 -0.303236 1.252 0 0 0
-0.0166098 -0.183185 1.187 255 255 255
0.312097 0.192715 0.717 255 255 255
0.18076 0.0774357 0.93 255 255 255
-0.0102575 -0.432135 1.126 255 255 255
0.089887 0.028354 1.015 0 0 0
-0.423839 0.105224 0.896 255 255 255
0.213803 -0.185377 0.992 255 255 255
-0.474913 -0.287139 1.299 0 0 0
-0.585295 -0.135681 1.286 255 255 255
0.271294 -0.116178 0.65 0 0 0
-0.02048 0.228247 0.715 255 255 255
0.246177 -0.357455 1.062 0 0 0
-0.191311 -0.461344 1.192 255 255 255
0.0115877 0.27122 0.757 255 255 255
-0.236217 -0.274779 1.234 0 0 0
0.246349 -0.124343 0.654 255 255 255
0.107046 0.170622 0.77 255 255 255
0.158916 0.19027 0.721 255 255 255
-0.168819 -0.0424645 0.905 255 255 255
0.0803319 0.141151 0.817 255 255 255
0.170509 -0.0162109 1.013 0 0 0
0.0928042 0.195321 0.718 255 255 255
-0.0797866 0.218183 0.736 255 255 255
-0.00756991 0.207846 0.705 255 255 255
-0.423422 0.111636 0.889 255 255 255
0.233825 -0.180067 0.724 255 255 255
0.200411 -0.117028 0.974 0 0 0
-0.349595 -0.00327673 1.098 255 255 255
0.245817 -0.0985936 0.667 255 255 255
0.275526 -0.107716 0.65 255 255 255
-0.229788 0.113241 0.879 255 255 255
0.314377 0.184647 0.736 255 255 255
-0.457961 0.0983713 0.9 255 255 255
-0.0626514 0.27216 0.792 255 255 255
-0.161856 -0.0215083 0.891 255 255 255
-0.359263 0.221624 0.895 255 255 255
-0.41791 0.319952 0.963 255 255 255
-0.0449009 0.0867022 0.932 255 255 255
-0.113933 -0.162688 0.902 0 0 0
-0.143862 0.166064 0.778 255 255 255
-0.0499156 -0.173185 1.198 255 255 255
0.349407 -0.211831 0.771 0 0 0
-0.117721 0.202783 0.741 255 255 255
-0.424095 -0.0657559 1.16 255 255 255
0.279487 0.161015 0.772 255 255 255
-0.0203967 0.175899 0.755 255 255 255
0.174652 -0.15722 0.686 255 255 255
-0.135585 0.175827 0.76 255 255 255
-0.564458 -0.391938 1.362 255 255 255
0.0382254 0.20268 0.703 255 255 255
0.319787 0.229263 0.637 255 255 255
-0.134597 0.0364172 0.966 0 0 0
-0.106141 0.167761 0.78 255 255 255
0.0619458 0.175899 0.755 255 255 255
-0.31851 -0.00691273 1.108 255 255 255
-0.103287 -0.105119 0.925 0 0 0
-0.151071 0.165638 0.776 255 255 255
0.0446425 0.243702 0.696 255 255 255
0.0633726 0.27661 0.729 255 255 255
-0.48866 0.33291 1.002 255 255 255
0.304413 -0.0543566 0.684 255 255 255
-0.441702 0.0211842 1.07 255 255 255
-0.0141369 0.097445 0.905 255 255 255
-0.323015 0.0369734 1.025 255 255 255
0.115626 0.122273 0.862 255 255 255
-0.196169 -0.423022 1.21 255 255 255
0.260488 -0.382464 1.05 255 255 255
-0.420829 -0.0125222 1.126 255 255 255
-0.0326433 0.175666 0.754 255 255 255
-0.0110125 0.305021 0.787 255 255 255
-0.203066 0.0900773 0.92 255 255 255
0.260039 0.0546219 0.857 255 255 255
-0.186151 0.119023 0.869 255 255 255
0.286141 -0.055787 0.702 0 0 0
-0.363273 0.0666969 0.972 255 255 255
-0.283589 -0.449682 1.257 255 255 255
-0.204594 0.171287 0.773 255 255 255
0.0639697 -0.267037 1.11 255 255 255
-0.125245 0.325563 0.84 255 255 255
-0.534792 0.364502 1.041 255 255 255
-0.379494 0.134245 0.849 255 255 255
-0.230532 0.295055 0.871 255 255 255
0.338105 0.218351 0.667 255 255 255
0.0637392 -0.255276 1.106 255 255 255
0.002662 -0.100164 1.165 255 255 255
0.240967 -0.185195 0.735 255 255 255
0.311838 0.165129 0.762 255 255 255
-0.373507 0.26761 0.923 255 255 255
-0.0146368 0.0258156 1.046 255 255 255
-0.0377158 0.0815007 0.942 255 255 255
-0.313844 0.238499 0.882 255 255 255
-0.369321 0.233966 0.909 255 255 255
-0.429514 -0.334494 1.247 255 255 255
-0.0871804 -0.16039 0.914 0 0 0
0.488472 -0.324838 1.009 255 255 255
-0.121428 0.154556 0.797 255 255 255
0.00828666 -0.227312 1.156 255 255 255
-0.143894 0.15123 0.814 255 255 255
-0.500586 -0.0472531 1.124 255 255 255
-0.172714 -0.0352948 0.91 255 255 255
0.0310025 0.236566 0.695 255 255 255
-0.171318 -0.163016 0.88 0 0 0
-0.283216 0.147303 0.807 255 255 255
0.103356 -0.182166 0.942 255 255 255
-0.425545 0.245223 0.935 255 255 255
-0.534792 -0.0302114 1.041 0 0 0
0.20921 -0.147009 0.675 0 0 0
0.35017 0.0326473 0.866 255 255 255
-0.152676 0.27676 0.833 255 255 255
-0.321924 0.0561396 0.981 255 255 255
0.311057 0.0496157 0.867 0 0 0
0.0470217 0.0366848 1.017 255 255 255
-0.411038 0.128032 0.863 255 255 255
-0.0342602 0.24094 0.736 255 255 255
-0.590995 -0.28685 1.327 0 0 0
-0.367709 0.0854597 0.935 255 255 255
0.280496 -0.30228 1.081 255 255 255
-0.402015 -0.494691 1.289 255 255 255
0.214358 0.233776 0.638 255 255 255
0.229712 0.103191 0.791 255 255 255
-0.359977 0.114143 0.886 255 255 255
0.212161 -0.295457 0.977 0 0 0
0.241833 -0.228053 0.797 255 255 255
0.0840936 0.0673258 1.005 255 255 255
0.314965 -0.358533 1.055 255 255 255
0.247195 -0.0290214 0.856 255 255 255
-0.691609 -0.263886 1.342 255 255 255
-0.558354 -0.499745 1.342 255 255 255
-0.138753 0.301965 0.839 0 0 0
0.00542647 0.172669 0.757 255 255 255
-0.153776 0.288311 0.839 255 255 255
-0.314268 -0.114052 1.081 255 255 255
-0.128557 0.104135 0.912 255 255 255
0.346394 -0.370621 1.036 255 255 255
-0.0747016 -0.220256 1.189 255 255 255
-0.23784 -0.276339 1.232 255 255 255
0.114442 0.246573 0.667 255 255 255
0.118198 0.109109 0.892 255 255 255
0.183703 -0.035673 1.004 0 0 0
0.0600285 -0.0310473 1.013 0 0 0
0.297862 0.117389 0.758 255 255 255
0.0495398 0.130829 0.836 255 255 255
0.229967 -0.380572 1.059 255 255 255
-0.687991 -0.479636 1.425 255 255 255
0.1739 0.113999 0.813 255 255 255
0.282264 -0.0601849 0.687 0 0 0
0.0862561 -0.107518 0.974 0 0 0
-0.317721 0.103882 0.897 255 255 255
0.334132 0.00863958 0.861 255 255 255
0.0773574 0.222069 0.675 255 255 255
0.260987 -0.355332 1.066 255 255 255
0.0100892 -0.279672 1.147 255 255 255
0.0485675 -0.244266 1.13 255 255 255
-0.277089 -0.286332 1.094 255 255 255
-0.45155 0.179587 0.896 255 255 255
-0.407274 -0.0838355 1.124 255 255 255
0.25384 -0.17177 0.714 255 255 255
-0.129359 0.152367 0.806 255 255 255
-0.0142619 0.0938492 0.913 255 255 255
-0.169752 0.0994643 0.91 255 255 255
-0.339057 -0.190078 1.147 255 255 255
-0.262496 0.309485 0.888 255 255 255
-0.224397 -0.043483 0.96 0 0 0
-0.486012 -0.161255 1.182 255 255 255
-0.0975793 -0.111501 0.928 0 0 0
0.294903 0.0174621 0.882 255 255 255
-0.311749 0.0892541 0.927 255 255 255
-0.398126 -0.0161581 1.124 255 255 255
0.274462 0.114738 0.765 255 255 255
0.248698 0.200098 0.706 255 255 255
0.294765 -0.169413 0.709 255 255 255
0.222828 0.0997063 0.794 255 255 255
0.310674 0.204308 0.693 255 255 255
-0.35113 -0.167377 1.12 255 255 255
-0.025297 -0.421919 1.143 255 255 255
-0.0301886 0.174439 0.754 255 255 255
0.19003 0.169866 0.761 255 255 255
0.0112857 0.139848 0.825 255 255 255
-0.340368 -0.397979 1.302 255 255 255
-0.571081 -0.30184 1.336 255 255 255
-0.100115 -0.193655 1.192 255 255 255
-0.127332 0.125307 0.854 255 255 255
0.112047 0.0755604 0.964 255 255 255
-0.0257177 0.0431345 1.013 255 255 255
-0.404551 0.0258156 1.046 255 255 255
0.0906967 -0.263662 0.954 0 0 0
-0.42838 -0.236936 1.215 255 255 255
0.123038 0.1669 0.776 255 255 255
0.0847326 0.188822 0.729 255 255 255
0.031404 0.204114 0.704 255 255 255
-0.174545 0.300709 0.847 0 0 0
0.177512 -0.262036 0.921 255 255 255
-0.0811173 -0.260914 1.198 255 255 255
0.167541 0.0333092 1.015 0 0 0
-0.330293 0.129477 0.854 255 255 255
0.100996 -0.377406 1.1 255 255 255
0.205061 -0.343696 1.073 255 255 255
-0.109893 -0.121992 0.905 255 255 255
-0.225926 0.345717 0.892 255 255 255
-0.212972 -0.348478 1.239 255 255 255
0.24555 0.0534136 0.86 255 255 255
-0.342014 -0.102308 1.126 255 255 255
-0.610463 -0.445389 1.412 255 255 255
-0.295943 0.247982 0.88 255 255 255
-0.327129 0.125369 0.864 255 255 255
-0.0405003 -0.127451 1.208 255 255 255
0.256452 -0.201995 0.767 0 0 0
0.173101 0.0619516 0.972 255 255 255
-0.136508 0.315376 0.842 255 255 255
0.0834525 0.228396 0.671 255 255 255
0.21408 0.213754 0.68 255 255 255
0.354162 -0.312516 1.039 255 255 255
-0.177742 0.0968207 0.913 255 255 255
0.328376 0.190534 0.722 255 255 255
-0.462694 0.37448 1.013 255 255 255
-0.611179 -0.433742 1.419 255 255 255
-0.144962 -0.0181281 0.868 255 255 255
-0.445125 0.246796 0.941 255 255 255
0.395722 -0.342998 1.024 255 255 255
-0.301951 0.00732886 1.081 255 255 255
-0.390031 -0.43624 1.225 255 255 255
-0.172699 0.179537 0.76 255 255 255
-0.288464 0.324604 0.906 255 255 255
0.261894 0.164784 0.772 255 255 255
0.278288 -0.0665258 0.672 255 255 255
-0.528878 -0.126996 1.242 255 255 255
0.00452318 -0.332658 1.156 255 255 255
-0.628304 -0.149505 1.297 0 0 0
0.347743 0.0506146 0.86 0 0 0
-0.244849 -0.263072 1.217 255 255 255
-0.130412 -0.265919 1.203 0 0 0
-0.273442 0.277068 0.886 255 255 255
0.190272 -0.132311 0.69 255 255 255
0.259127 0.126328 0.775 255 255 255
-0.171624 0.333314 0.86 255 255 255
0.107005 0.0800168 0.961 255 255 255
-0.236598 0.258116 0.852 255 255 255
-0.254909 -0.387281 1.267 255 255 255
0.259282 -0.233379 0.811 255 255 255
0.231142 0.00536362 1.041 255 255 255
-0.688798 -0.251728 1.324 255 255 255
0.209772 -0.120029 0.684 255 255 255
-0.190729 0.0449948 0.948 255 255 255
0.18225 0.0411584 1.005 255 255 255
0.0843241 0.252848 0.687 255 255 255
-0.23314 -0.277909 1.239 0 0 0
0.0737262 -0.0113433 1.02 255 255 255
