ply
format ascii 1.0
comment Created by Open3D
element vertex 1313
property double x
property double y
property double z
property uchar red
property uchar green
property uchar blue
end_header
0.132631 -0.0393402 0.694 0 0 0
-0.10514 0.160555 0.782 255 255 255
-0.0980178 0.163112 0.776 255 255 255
0.193267 -0.0582275 0.764 0 0 0
0.354887 0.150964 0.772 255 255 255
-0.650361 -0.33587 1.316 255 255 255
0.328925 0.205018 0.666 255 255 255
-0.245477 0.00809597 0.963 0 0 0
0.0213834 0.210608 0.677 255 255 255
-0.158589 0.270921 0.746 255 255 255
0.171641 0.168856 0.751 255 255 255
0.0515792 0.0745214 0.895 255 255 255
-0.453913 0.297427 0.878 255 255 255
-0.513583 0.0780093 0.975 255 255 255
-0.267452 0.285194 0.807 255 255 255
0.438091 0.0225193 0.856 255 255 255
0.102154 0.187142 0.718 255 255 255
-0.174886 -0.309073 1.068 255 255 255
-0.341801 0.206742 0.751 255 255 255
-0.456675 0.0576275 1.007 255 255 255
-0.485162 -0.108667 1.135 255 255 255
-0.0356421 -0.0911971 0.969 255 255 255
0.0562092 -0.0296327 0.834 255 255 255
-0.274054 -0.367308 1.189 255 255 255
0.217382 0.219174 0.647 255 255 255
0.0855161 -0.365612 1.022 255 255 255
-0.358764 0.329051 0.849 255 255 255
0.220535 -0.373593 0.986 255 255 255
-0.129832 0.202927 0.696 255 255 255
0.0199181 -0.345442 1.073 0 0 0
0.363815 -0.115252 0.855 255 255 255
-0.103145 0.227134 0.677 255 255 255
0.0327938 0.165346 0.763 255 255 255
-0.0220492 0.00780172 0.928 255 255 255
-0.0902852 -0.25809 0.98 0 0 0
-0.273576 0.211041 0.732 255 255 255
0.0913925 -0.342319 1.032 255 255 255
-0.194854 0.233583 0.71 0 0 0
-0.260573 0.0746086 0.802 255 255 255
0.206582 -0.240167 1.012 255 255 255
-0.208396 -0.16945 1.098 255 255 255
0.123989 0.130014 0.782 255 255 255
-0.101525 -0.410371 1.102 255 255 255
0.10334 -0.280209 1.051 255 255 255
0.384779 0.00432799 0.84 255 255 255
0.386505 -0.333679 0.937 255 255 255
-0.358033 -0.129266 1.154 255 255 255
-0.0251586 0.238939 0.655 255 255 255
-0.372151 0.00386345 1.096 255 255 255
0.0806159 0.185171 0.724 255 255 255
0.114438 -0.296746 1.043 255 255 255
0.182896 -0.285509 1.027 255 255 255
0.172065 -0.0581711 0.732 255 255 255
-0.55461 -0.384404 1.278 255 255 255
-0.150681 0.054988 0.989 255 255 255
-0.374844 0.20578 0.761 255 255 255
0.1504 0.054803 0.714 0 0 0
0.312515 0.146695 0.776 255 255 255
-0.0819435 0.211673 0.684 255 255 255
0.306455 -0.00687511 0.874 255 255 255
-0.383482 0.152716 0.822 255 255 255
0.0150931 -0.0863789 0.986 255 255 255
0.155649 -0.0602706 0.701 255 255 255
-0.268117 0.303191 0.813 255 255 255
-0.0917806 0.25432 0.691 255 255 255
0.144025 -0.225632 1.036 255 255 255
-0.545658 -0.055462 1.182 255 255 255
0.278281 0.199369 0.68 255 255 255
0.121133 0.139836 0.78 0 0 0
-0.596124 -0.236646 1.324 255 255 255
0.00211132 -0.186203 0.924 255 255 255
0.0589473 0.015518 0.854 255 255 255
0.416026 -0.339535 0.928 255 255 255
0.380739 -0.24617 0.977 0 0 0
-0.128142 -0.0061703 0.989 255 255 255
-0.231094 -0.316274 1.158 255 255 255
0.286951 0.0280746 1.005 0 0 0
-0.129819 -0.279187 0.954 255 255 255
0.0411063 -0.275383 1.079 255 255 255
0.116287 0.21895 0.659 255 255 255
-0.0185556 -0.0733188 0.983 255 255 255
0.25383 0.0942756 0.889 255 255 255
-0.695217 -0.235378 1.393 255 255 255
-0.457367 0.0796838 0.957 255 255 255
0.233416 0.236121 0.617 255 255 255
0.258546 -0.340322 0.978 255 255 255
-0.486422 -0.422083 1.242 255 255 255
0.267275 -0.345625 0.975 255 255 255
0.326213 -0.138743 1.005 255 255 255
-0.131165 0.152725 0.801 255 255 255
0.0545745 0.0897375 0.873 255 255 255
-0.41189 0.144399 0.828 255 255 255
-0.427842 -0.358819 1.254 255 255 255
-0.545386 -0.0127779 1.149 255 255 255
-0.18435 0.0369373 1.024 255 255 255
-0.122427 0.249302 0.699 255 255 255
-0.189028 -0.403319 1.143 255 255 255
-0.403332 -0.270994 1.217 0 0 0
-0.392748 0.154824 0.819 255 255 255
-0.256444 0.207556 0.724 255 255 255
0.324351 0.0836754 0.884 0 0 0
-0.13808 -0.0513379 0.991 255 255 255
-0.19974 0.111811 0.879 255 255 255
-0.620501 -0.0732045 1.189 255 255 255
0.0557722 0.138281 0.808 255 255 255
0.0453746 0.00642716 0.948 255 255 255
0.287058 0.066101 0.941 255 255 255
-0.195867 -0.0373074 1.05 255 255 255
0.0467382 0.140114 0.811 255 255 255
-0.14867 0.151989 0.804 255 255 255
0.393309 -0.210836 0.786 0 0 0
-0.29308 0.138125 0.839 255 255 255
0.182389 0.18323 0.721 255 255 255
-0.271319 -0.351366 1.194 255 255 255
0.194083 0.190296 0.708 255 255 255
-0.284278 -0.177319 1.137 255 255 255
-0.579072 -0.241745 1.305 255 255 255
-0.145935 0.127337 0.849 255 255 255
0.0590532 -0.042324 0.817 255 255 255
0.412381 -0.343294 0.93 255 255 255
0.162236 -0.0314799 0.695 255 255 255
0.342842 -0.0521407 0.947 0 0 0
-0.359147 -0.0712844 1.128 0 0 0
-0.00631652 -0.150715 1.079 255 255 255
-0.198338 0.26401 0.754 255 255 255
-0.250807 -0.300348 1.162 255 255 255
-0.362649 -0.122025 1.139 255 255 255
0.0369835 -0.0118686 0.931 0 0 0
0.227865 -0.367657 0.983 255 255 255
-0.226046 0.149905 0.814 255 255 255
-0.422338 -0.0425461 1.145 0 0 0
-0.55245 -0.470897 1.227 255 255 255
-0.208325 0.0545937 0.879 0 0 0
-0.50529 -0.158253 1.16 255 255 255
0.187158 -0.364437 1.005 255 255 255
-0.0401816 -0.314037 1.143 255 255 255
-0.325344 -0.135367 1.158 255 255 255
0.0954978 -0.363949 1.022 255 255 255
-0.299698 0.0115684 0.992 255 255 255
0.160098 0.237125 0.617 255 255 255
-0.148167 0.194423 0.719 255 255 255
-0.526336 -0.0320238 1.169 255 255 255
0.25503 0.195004 0.692 255 255 255
-0.512758 -0.412862 1.257 255 255 255
0.337768 0.113521 0.849 255 255 255
-0.404185 0.261316 0.84 255 255 255
0.249411 0.117785 0.84 255 255 255
0.38584 -0.174877 0.797 255 255 255
-0.635404 -0.263386 1.362 255 255 255
0.354743 -0.103331 0.86 255 255 255
0.13728 -0.303184 1.036 255 255 255
-0.228779 -0.359478 1.128 255 255 255
-0.00880904 -0.0674045 0.967 255 255 255
-0.0950783 0.159487 0.783 255 255 255
-0.0732434 0.17467 0.755 255 255 255
0.0891851 0.206792 0.69 255 255 255
-0.258148 0.233503 0.739 255 255 255
0.280321 0.219206 0.644 255 255 255
0.00962304 -0.325499 1.094 0 0 0
-0.56874 -0.456777 1.232 255 255 255
0.24966 -0.210732 1.013 255 255 255
0.309157 -0.34751 0.967 255 255 255
0.0460747 -0.29453 1.072 255 255 255
0.0244805 -0.140288 1.122 0 0 0
-0.34723 0.177806 0.774 255 255 255
0.0899737 -0.0524877 0.753 255 255 255
0.103377 0.221929 0.652 255 255 255
-0.33419 -0.184044 1.156 0 0 0
-0.00104052 -0.165437 1.072 0 0 0
-0.158026 -0.124024 1.005 255 255 255
-0.514463 0.0279387 1.062 255 255 255
0.144782 0.231501 0.629 255 255 255
-0.311858 0.205565 0.738 255 255 255
0.103152 -0.332243 1.032 255 255 255
-0.405849 -0.45701 1.201 255 255 255
-0.598389 -0.103498 1.227 0 0 0
-0.44373 0.253246 0.845 255 255 255
0.164519 -0.0800313 0.725 255 255 255
-0.403277 0.216102 0.785 255 255 255
-0.0208019 0.163104 0.77 255 255 255
0.112335 0.17467 0.755 255 255 255
-0.273321 0.2269 0.741 255 255 255
0.139742 0.0371613 0.757 0 0 0
-0.522176 -0.402175 1.275 255 255 255
0.148803 0.035553 0.701 0 0 0
-0.381316 -0.283219 1.21 0 0 0
-0.195499 0.221299 0.704 255 255 255
-0.266909 -0.254087 1.158 255 255 255
0.116537 -0.0954882 0.735 0 0 0
-0.645227 -0.111719 1.252 255 255 255
0.436049 0.0646802 0.88 255 255 255
0.207827 0.136627 0.806 0 0 0
-0.00281045 0.217697 0.665 255 255 255
0.364022 -0.212524 0.812 255 255 255
-0.0524865 0.0806355 0.932 255 255 255
-0.252061 0.153297 0.804 255 255 255
-0.506109 -0.100659 1.149 255 255 255
-0.319427 -0.427781 1.185 255 255 255
0.354833 0.189285 0.7 255 255 255
-0.228924 0.214313 0.719 255 255 255
-0.552418 -0.0899326 1.18 255 255 255
-0.219338 0.186152 0.742 255 255 255
0.33126 0.207019 0.662 255 255 255
0.151492 0.151144 0.786 255 255 255
0.187546 -0.293293 1.025 255 255 255
-0.513844 -0.0901403 1.158 255 255 255
0.06756 -0.00365239 0.792 0 0 0
0.414056 0.0958424 0.864 255 255 255
0.22783 -0.161479 1.004 0 0 0
-0.0415523 -0.0569505 0.925 255 255 255
0.420853 -0.322799 0.932 255 255 255
0.220289 0.178594 0.726 255 255 255
0.11848 0.0202832 0.771 255 255 255
-0.328359 -0.133944 1.162 255 255 255
-0.390937 -0.0273984 1.135 255 255 255
0.404143 -0.316055 0.939 255 255 255
-0.370255 0.134403 0.85 255 255 255
0.31852 -0.10399 1.017 255 255 255
-0.657398 -0.313326 1.348 255 255 255
0.0931372 -0.0123062 0.769 255 255 255
0.110264 0.0292167 0.775 255 255 255
0.00472397 0.223239 0.659 255 255 255
0.316091 0.188146 0.7 255 255 255
0.222267 0.0942178 0.862 0 0 0
-0.113242 0.119708 0.874 255 255 255
-0.0486104 0.142306 0.816 255 255 255
-0.0681975 -0.19957 1.032 255 255 255
-0.289653 -0.0231405 1.108 255 255 255
0.155529 -0.242023 1.034 255 255 255
-0.303086 -0.413746 1.189 255 255 255
-0.310466 0.151044 0.813 255 255 255
-0.1785 0.138841 0.827 255 255 255
-0.113091 -0.273835 0.957 0 0 0
-0.495202 0.0757956 0.967 255 255 255
0.187533 -0.0217952 0.751 255 255 255
-0.222712 -0.342941 1.116 255 255 255
-0.426003 -0.100833 1.13 255 255 255
0.185695 0.23601 0.622 255 255 255
-0.183 -0.231244 1.176 255 255 255
0.177431 0.124668 0.805 255 255 255
-0.136061 0.284199 0.749 255 255 255
-0.0521351 -0.351461 1.12 255 255 255
-0.384404 -0.308153 1.239 255 255 255
0.110991 0.181954 0.73 255 255 255
-0.232719 0.156108 0.805 255 255 255
-0.0402692 0.232538 0.658 255 255 255
-0.106448 -0.379263 1.116 255 255 255
0.317146 0.0638231 0.888 0 0 0
-0.422959 0.3361 0.882 255 255 255
0.0784206 -0.0249172 0.772 255 255 255
-0.587157 -0.458631 1.237 255 255 255
-0.197312 -0.358198 1.096 255 255 255
0.11958 0.024016 0.77 255 255 255
0.301733 0.0583202 0.939 255 255 255
0.252958 -0.27832 1.013 255 255 255
-0.410546 0.0162439 1.089 255 255 255
0.0298483 0.0648442 0.945 255 255 255
-0.253729 0.155332 0.801 255 255 255
0.335562 0.0938918 0.872 255 255 255
-0.278019 0.150672 0.811 255 255 255
0.0541369 -0.0547272 0.866 255 255 255
0.268327 -0.17481 1.015 255 255 255
-0.00800558 -0.119856 1.07 0 0 0
0.156129 -0.0404112 0.693 255 255 255
0.0150013 -0.175161 0.98 255 255 255
-0.585768 -0.405645 1.26 255 255 255
-0.228277 0.100057 0.852 255 255 255
-0.165297 0.263212 0.738 255 255 255
0.0752648 -0.0757699 0.753 255 255 255
-0.424727 0.0144717 1.089 255 255 255
0.178969 0.177445 0.731 255 255 255
0.129331 0.0410729 0.761 255 255 255
0.0592745 0.142475 0.802 255 255 255
0.0332097 0.129468 0.836 255 255 255
0.423562 -0.305033 0.938 255 255 255
0.073352 -0.0393888 0.785 255 255 255
-0.0719067 0.099355 0.909 255 255 255
-0.128919 -0.00296935 0.995 255 255 255
0.134533 -0.00905125 0.71 0 0 0
0.111118 0.0535908 0.781 255 255 255
-0.389971 0.0275704 1.048 255 255 255
-0.0436723 -0.330891 1.137 255 255 255
-0.475672 -0.177091 1.185 255 255 255
-0.101302 -0.191918 1.027 255 255 255
-0.28353 0.125369 0.864 255 255 255
0.0955595 0.045152 0.789 255 255 255
-0.513575 -0.415958 1.254 255 255 255
0.136403 0.139937 0.795 255 255 255
-0.194269 -0.40447 1.141 255 255 255
-0.572772 -0.409836 1.254 255 255 255
-0.0372194 -0.0896202 0.969 255 255 255
0.181884 -0.0214179 0.738 255 255 255
0.471388 -0.297473 0.924 255 255 255
-0.463807 -0.101458 1.137 255 255 255
0.350361 -0.247178 0.981 0 0 0
0.126753 0.188966 0.725 255 255 255
-0.298325 -0.378833 1.201 255 255 255
-0.359147 -0.093312 1.128 0 0 0
0.405633 -0.0602661 0.808 255 255 255
-0.0311128 -0.00427957 0.928 255 255 255
-0.323285 0.232668 0.768 255 255 255
-0.609023 -0.404731 1.27 255 255 255
0.214045 0.229937 0.622 255 255 255
0.463852 -0.296378 0.93 255 255 255
0.402706 -0.167095 0.797 255 255 255
0.0780549 0.197541 0.701 255 255 255
0.171543 0.225487 0.641 255 255 255
-0.136269 -0.0697628 0.978 0 0 0
-0.582327 -0.402634 1.257 255 255 255
0.141368 0.220529 0.651 255 255 255
-0.144052 -0.156942 1.098 255 255 255
-0.500498 -0.0913096 1.149 0 0 0
-0.356396 0.0965025 0.91 255 255 255
-0.239673 0.0515042 0.9 255 255 255
-0.363223 -0.121596 1.135 255 255 255
-0.443673 -0.0653024 1.152 0 0 0
-0.419342 -0.0556863 1.147 0 0 0
0.0131871 0.0379105 0.964 255 255 255
-0.42803 -0.19297 1.176 255 255 255
0.174877 -0.249225 1.029 255 255 255
-0.00996641 0.145809 0.806 255 255 255
0.103956 0.0153437 0.775 255 255 255
0.295859 -0.283564 0.991 255 255 255
-0.0106347 0.165933 0.76 255 255 255
0.244169 0.0599758 0.941 255 255 255
0.224618 -0.32422 0.997 255 255 255
-0.18795 -0.0591803 1.044 255 255 255
-0.0428819 0.12073 0.861 255 255 255
-0.163384 -0.133911 1.018 255 255 255
0.212811 0.137768 0.805 255 255 255
0.317247 0.144138 0.804 255 255 255
-0.107182 0.120715 0.871 255 255 255
0.0338522 -0.148644 1.13 255 255 255
-0.196592 -0.275146 1.092 255 255 255
-0.484303 -0.201414 1.192 0 0 0
0.155483 0.0596171 0.716 0 0 0
0.371696 -0.16706 0.97 255 255 255
-0.0679517 -0.0252515 0.98 255 255 255
-0.00419735 0.191548 0.717 255 255 255
0.344371 0.0675443 0.88 255 255 255
-0.135153 -0.269603 1.07 0 0 0
-0.167303 -0.275017 1.064 255 255 255
-0.0641897 0.0696782 0.948 255 255 255
-0.458487 0.0485071 1.022 255 255 255
-0.353065 -0.251796 1.201 255 255 255
0.147205 -0.0231561 0.683 255 255 255
-0.282776 0.125659 0.866 255 255 255
0.0647646 0.165211 0.774 255 255 255
-0.228215 0.283807 0.785 255 255 255
0.376158 -0.159804 0.793 0 0 0
0.188126 0.237269 0.62 255 255 255
0.018832 -0.142657 1.112 0 0 0
-0.0667729 -0.0890653 0.963 255 255 255
0.42237 -0.322799 0.932 255 255 255
0.381958 -0.18781 0.808 255 255 255
0.0964876 0.218121 0.663 255 255 255
0.285545 -0.374262 0.967 255 255 255
-0.470447 0.0212238 1.072 255 255 255
-0.232759 0.21344 0.72 255 255 255
-0.328014 -0.0325622 1.122 0 0 0
0.37229 -0.177071 0.807 255 255 255
-0.242541 0.147618 0.816 255 255 255
0.11207 0.241533 0.618 255 255 255
-0.415482 -0.192477 1.173 255 255 255
0.359981 -0.293095 0.964 255 255 255
0.101316 0.228943 0.639 255 255 255
0.308441 -0.112817 1.022 255 255 255
0.394621 0.142557 0.781 255 255 255
-0.147346 -0.295722 1.07 255 255 255
0.374467 -0.168464 0.969 255 255 255
0.0732257 0.23392 0.63 255 255 255
-0.1618 -0.0533064 1.029 255 255 255
-0.329282 0.300694 0.817 255 255 255
0.413665 -0.199574 0.824 255 255 255
0.0878535 0.0297445 0.789 255 255 255
-0.596023 -0.417948 1.26 255 255 255
0.0369276 0.0976062 0.893 255 255 255
-0.638591 -0.462338 1.247 255 255 255
-0.595684 -0.0343034 1.182 255 255 255
-0.0592273 -0.262304 1.083 255 255 255
0.271076 0.0764365 0.918 255 255 255
0.14268 0.0455426 0.753 0 0 0
0.171527 -0.301136 1.029 255 255 255
0.214242 -0.284953 1.025 255 255 255
0.181617 0.0980025 0.812 255 255 255
0.201279 -0.17094 1.002 255 255 255
-0.102999 -0.383581 1.118 255 255 255
-0.347274 -0.156635 1.162 255 255 255
-0.583958 -0.00519266 1.126 255 255 255
-0.64755 -0.332343 1.319 255 255 255
-0.409652 0.123266 0.869 255 255 255
0.0953715 0.189945 0.711 255 255 255
-0.6239 -0.464527 1.242 255 255 255
0.0541276 0.068235 0.889 255 255 255
-0.00712375 0.156738 0.782 255 255 255
0.285708 -0.114704 1.024 255 255 255
0.182387 -0.0575416 0.755 0 0 0
0.32714 0.202676 0.669 255 255 255
0.128651 0.0334657 0.757 255 255 255
0.149155 0.220568 0.648 255 255 255
0.0928434 0.2388 0.624 255 255 255
-0.0788721 -0.211772 1.018 255 255 255
-0.150624 0.197718 0.714 255 255 255
-0.0369122 -0.18584 0.961 0 0 0
-0.154506 -0.428774 1.122 255 255 255
-0.115009 0.211054 0.682 255 255 255
-0.19879 -0.413425 1.135 255 255 255
-0.429478 0.141713 0.836 255 255 255
-0.115846 0.0261498 0.994 0 0 0
-0.408968 -0.26813 1.222 255 255 255
-0.231947 0.285253 0.789 255 255 255
-0.132972 -0.0447966 0.989 0 0 0
0.278496 0.0202339 1.022 0 0 0
0.395417 -0.149124 0.798 255 255 255
0.0670115 0.204308 0.693 255 255 255
-0.49675 0.0534965 1.022 255 255 255
0.128261 0.0423669 0.762 255 255 255
-0.358623 -0.164199 1.162 255 255 255
-0.134539 0.0638602 0.977 255 255 255
-0.0490667 -0.0307915 0.954 0 0 0
0.394094 -0.194062 0.963 255 255 255
0.00547665 0.166806 0.764 255 255 255
0.334492 0.0782738 0.888 0 0 0
-0.295029 -0.420215 1.18 255 255 255
-0.224243 0.221334 0.719 255 255 255
0.320175 0.0254395 0.967 255 255 255
0.13111 -0.107409 0.743 0 0 0
-0.415769 0.146561 0.825 255 255 255
-0.475064 -0.218934 1.203 0 0 0
-0.012187 -0.300757 1.135 255 255 255
0.341664 -0.0853629 1.012 255 255 255
0.312968 0.0120932 1.037 255 255 255
0.146441 0.220191 0.65 255 255 255
-0.116328 -0.0870439 0.958 255 255 255
0.0676453 -0.0526949 0.793 0 0 0
-0.341554 0.244114 0.793 255 255 255
-0.325627 -0.239503 1.208 255 255 255
0.241572 -0.225928 1 255 255 255
-0.391099 0.168188 0.794 255 255 255
-0.214103 -0.0802417 0.97 255 255 255
0.356884 -0.230271 0.977 255 255 255
-0.664343 -0.433252 1.281 255 255 255
0.120532 -0.305164 1.037 255 255 255
-0.106328 0.19379 0.721 255 255 255
0.301354 0.139423 0.807 255 255 255
0.248423 0.167077 0.754 255 255 255
-0.614865 -0.10392 1.232 255 255 255
-0.0649062 0.0346854 1.007 255 255 255
0.303919 -0.132254 1.018 255 255 255
-0.337146 -0.0709053 1.122 255 255 255
0.148877 0.232525 0.629 255 255 255
-0.39837 0.317319 0.866 255 255 255
0.272745 -0.174465 1.013 255 255 255
0.112378 0.100334 0.799 0 0 0
0.351533 0.0832968 0.88 0 0 0
-0.375287 0.313576 0.852 255 255 255
0.323643 0.0694466 0.886 0 0 0
-0.15813 0.201247 0.706 255 255 255
0.213723 0.186736 0.712 255 255 255
-0.0910939 -0.201552 1.025 0 0 0
-0.318353 -0.109173 1.16 0 0 0
-0.203329 -0.269321 1.09 0 0 0
-0.296 0.163897 0.792 255 255 255
-0.328721 0.171828 0.787 255 255 255
0.0139546 0.134315 0.824 255 255 255
0.1171 0.241533 0.618 255 255 255
-0.233278 -0.157428 1.089 0 0 0
-0.199756 0.0871359 0.905 255 255 255
0.139548 0.193688 0.712 255 255 255
0.301396 0.0356388 0.988 255 255 255
0.375765 -0.121763 0.806 0 0 0
0.148969 0.126681 0.793 255 255 255
-0.128217 0.162035 0.783 255 255 255
0.212151 -0.303645 1.015 255 255 255
0.233206 0.228794 0.63 255 255 255
-0.397417 -0.109248 1.122 255 255 255
0.361777 -0.147352 0.986 255 255 255
-0.46265 0.102165 0.921 255 255 255
0.0690421 0.191909 0.714 255 255 255
-0.60338 -0.0343034 1.182 255 255 255
0.033902 0.165933 0.76 255 255 255
-0.392782 0.199913 0.767 255 255 255
0.139999 0.076272 0.779 255 255 255
-0.626809 -0.401983 1.281 255 255 255
-0.0183553 0.189621 0.723 255 255 255
-0.315435 0.116973 0.844 255 255 255
-0.280483 0.187865 0.744 255 255 255
0.107166 0.13095 0.78 255 255 255
-0.340625 0.00890304 1.059 255 255 255
0.118375 -0.0996156 0.739 0 0 0
0.0915765 0.00653226 0.777 255 255 255
-0.160933 0.044783 1.013 255 255 255
0.293889 0.119188 0.85 255 255 255
-0.185039 -0.413443 1.13 255 255 255
-0.277478 0.165424 0.787 255 255 255
-0.0667437 0.209552 0.688 255 255 255
0.236905 -0.265824 1.022 0 0 0
0.305064 -0.341921 0.969 255 255 255
-0.507338 -0.455665 1.229 255 255 255
0.243645 0.207497 0.667 255 255 255
-0.636428 -0.377659 1.305 255 255 255
0.285715 -0.289566 0.995 255 255 255
0.00210446 -0.0477116 0.921 255 255 255
0.356955 -0.0702441 0.817 255 255 255
-0.250129 0.295173 0.802 255 255 255
0.193635 0.124977 0.807 255 255 255
0.142895 0.213805 0.663 255 255 255
-0.177204 0.134189 0.84 255 255 255
0.250707 0.22547 0.638 255 255 255
-0.258367 -0.197672 1.137 255 255 255
-0.209461 -0.255726 1.085 255 255 255
-0.0998393 0.230439 0.677 255 255 255
0.00043242 0.225042 0.658 255 255 255
0.227654 0.235356 0.615 255 255 255
-0.238634 -0.323812 1.158 255 255 255
0.397894 -0.163126 0.803 255 255 255
0.113902 0.0241408 0.774 255 255 255
0.413175 -0.358006 0.925 255 255 255
-0.0166277 -0.17387 0.964 0 0 0
0.0767996 -0.229664 1.087 255 255 255
0.267615 0.106174 0.868 255 255 255
-0.318152 0.0449358 0.886 255 255 255
-0.389375 0.048602 1.024 255 255 255
0.247253 0.220568 0.648 255 255 255
0.084837 -0.337935 1.034 255 255 255
-0.582049 -0.425481 1.252 255 255 255
0.331793 0.195564 0.69 255 255 255
-0.0602782 0.168849 0.762 255 255 255
0.340927 0.162384 0.755 255 255 255
-0.399472 0.159911 0.811 255 255 255
-0.522195 -0.297262 1.27 0 0 0
0.111813 0.131711 0.777 255 255 255
-0.24866 0.162449 0.785 255 255 255
0.371305 -0.351948 0.941 255 255 255
0.170054 -0.003182 0.69 255 255 255
0.163009 0.201655 0.684 255 255 255
0.260068 0.114767 0.848 255 255 255
-0.0474497 -0.384951 1.096 255 255 255
-0.404989 -0.3954 1.222 255 255 255
0.469884 -0.304991 0.924 255 255 255
-0.147723 -0.00983536 1.036 255 255 255
-0.50264 -0.0623545 1.167 0 0 0
0.379353 -0.102246 0.797 255 255 255
-0.692948 -0.203248 1.375 255 255 255
-0.664733 -0.310314 1.354 255 255 255
0.190324 -0.225909 1.022 255 255 255
-0.520089 0.0405847 1.032 255 255 255
-0.378509 -0.380856 1.22 255 255 255
-0.449488 0.275812 0.864 255 255 255
0.179407 0.134336 0.808 255 255 255
0.162576 -0.208773 1.036 255 255 255
0.327128 -0.174983 0.988 255 255 255
-0.340796 -0.394462 1.213 255 255 255
-0.096722 0.158818 0.786 255 255 255
0.345849 0.18326 0.712 255 255 255
0.339508 0.0795393 0.886 0 0 0
0.386257 -0.225405 0.963 255 255 255
0.434924 0.0253645 0.858 255 255 255
0.128952 0.078535 0.789 255 255 255
-0.219227 0.00928178 0.925 0 0 0
-0.0803948 0.154289 0.789 255 255 255
-0.1673 0.302696 0.781 255 255 255
-0.118096 -0.415461 1.106 255 255 255
-0.543811 -0.0801952 1.178 255 255 255
0.384746 -0.00656046 0.834 255 255 255
-0.0706919 0.0836689 0.932 255 255 255
0.284218 0.0104658 1.043 0 0 0
0.332378 0.139339 0.822 255 255 255
0.0521866 0.188184 0.722 255 255 255
-0.177515 0.173282 0.749 255 255 255
0.370736 -0.215353 0.798 0 0 0
-0.0503197 -0.416624 1.081 255 255 255
0.128469 0.213126 0.678 255 255 255
-0.603886 -0.0705593 1.21 0 0 0
-0.36601 -0.429118 1.205 255 255 255
-0.217153 0.0209782 0.91 0 0 0
0.276146 0.167732 0.746 255 255 255
0.361655 -0.182574 0.977 255 255 255
-0.0719318 -0.371998 1.116 255 255 255
0.311387 0.149987 0.767 255 255 255
-0.0946423 0.154484 0.79 255 255 255
0.246404 -0.195589 1.02 255 255 255
-0.344899 0.110129 0.877 255 255 255
-0.262111 0.189263 0.74 255 255 255
-0.318157 0.301699 0.809 0 0 0
0.0704041 -0.0450655 0.795 0 0 0
0.423569 -0.0107213 0.841 255 255 255
0.261347 0.0218542 1.02 255 255 255
0.388308 -0.35845 0.934 255 255 255
-0.562356 -0.424462 1.249 255 255 255
0.16367 0.22128 0.647 255 255 255
-0.544249 -0.400523 1.283 255 255 255
-0.098532 -0.0910089 0.967 255 255 255
-0.37066 -0.433557 1.201 255 255 255
-0.199144 0.0617032 0.944 255 255 255
-0.132871 0.164997 0.773 255 255 255
0.258281 -0.344744 0.977 255 255 255
-0.550157 -0.44682 1.249 255 255 255
-0.0738267 0.165211 0.774 255 255 255
-0.33292 0.00883579 1.051 255 255 255
-0.173869 0.200042 0.714 255 255 255
0.145253 0.0701901 0.729 255 255 255
0.096387 0.160379 0.775 255 255 255
-0.613366 -0.0973492 1.225 255 255 255
0.153476 0.223398 0.644 255 255 255
-0.118727 -0.183904 1.048 255 255 255
0.29959 -0.152431 1.009 255 255 255
0.0342028 0.115125 0.861 255 255 255
-0.0576058 -0.0264902 0.967 0 0 0
-0.461806 -0.376583 1.252 255 255 255
0.0303112 0.180316 0.733 255 255 255
0.438441 -0.356791 0.918 255 255 255
-0.398563 0.225607 0.796 255 255 255
-0.0191715 0.020033 0.935 255 255 255
0.410787 -0.262731 0.913 0 0 0
-0.346743 -0.125667 1.173 0 0 0
-0.646408 -0.167801 1.308 0 0 0
-0.400379 0.0393577 1.044 255 255 255
-0.211397 -0.141064 1.034 0 0 0
-0.383947 -0.129102 1.12 0 0 0
0.0493723 0.0815143 0.908 255 255 255
-0.635001 -0.0924477 1.213 255 255 255
-0.432343 -0.0848051 1.137 255 255 255
-0.427085 0.00214062 1.128 255 255 255
-0.0482249 -0.188542 1.036 0 0 0
0.339306 -0.161793 0.986 255 255 255
-0.387676 0.0665889 0.994 255 255 255
0.301608 -0.360177 0.963 255 255 255
-0.388255 -0.449192 1.201 255 255 255
0.366094 0.168617 0.734 255 255 255
0.151018 0.146774 0.797 0 0 0
0.0183977 0.205371 0.689 255 255 255
-0.206373 0.17482 0.761 255 255 255
-0.0319659 -0.341125 1.116 255 255 255
0.377345 -0.0858138 0.801 0 0 0
-0.119912 -0.294254 0.914 255 255 255
0.252303 -0.320656 0.991 255 255 255
-0.352426 -0.0438276 1.13 0 0 0
0.031619 -0.185649 0.952 255 255 255
0.119754 -0.204985 1.06 0 0 0
-0.290768 0.171129 0.778 255 255 255
0.402243 -0.146591 0.96 255 255 255
-0.481832 0.0677948 0.988 255 255 255
-0.423313 0.149065 0.824 255 255 255
-0.23802 0.188059 0.74 255 255 255
0.0995933 0.202954 0.7 255 255 255
0.360503 -0.102028 0.816 255 255 255
0.392821 -0.0509355 0.806 255 255 255
0.19113 0.116372 0.802 0 0 0
0.00252262 -0.323084 1.104 255 255 255
0.0343251 0.0940819 0.901 255 255 255
-0.225557 -0.313816 1.149 255 255 255
0.434425 0.0895319 0.871 0 0 0
-0.03498 -0.0678368 0.951 255 255 255
0.137821 0.0422557 0.76 0 0 0
-0.0309634 -0.397274 1.081 255 255 255
0.286822 0.0505652 0.966 255 255 255
0.37289 -0.184233 0.969 255 255 255
0.0227978 0.167389 0.761 255 255 255
-0.438127 0.0680006 0.991 255 255 255
0.207827 0.135316 0.806 0 0 0
0.102875 -0.0696449 0.74 255 255 255
-0.255196 0.308863 0.814 255 255 255
-0.574935 -0.103432 1.203 255 255 255
0.197549 0.207031 0.669 255 255 255
-0.0112116 0.233942 0.65 255 255 255
0.28961 0.166908 0.737 255 255 255
-0.059044 0.201536 0.703 255 255 255
-0.163842 -0.312802 1.087 255 255 255
0.0477453 0.0488901 0.934 255 255 255
0.10308 -0.209614 1.066 0 0 0
-0.426309 0.101722 0.917 255 255 255
-0.0201601 -0.110942 1.068 255 255 255
-0.151487 0.0986295 0.916 255 255 255
0.21576 0.162222 0.76 255 255 255
0.239442 0.236121 0.617 255 255 255
0.0680412 0.205139 0.692 255 255 255
0.389725 -0.0276653 0.816 0 0 0
-0.000896864 0.0799434 0.924 255 255 255
0.0330472 -0.185938 0.995 0 0 0
-0.0104248 0.175994 0.745 255 255 255
0.155448 0.0250698 0.695 255 255 255
0.211922 0.18861 0.706 255 255 255
-0.0300413 -0.345331 1.112 255 255 255
-0.42979 0.155202 0.821 255 255 255
-0.202302 0.0351338 0.974 0 0 0
-0.361619 -0.405301 1.21 255 255 255
0.260039 0.0685022 0.932 255 255 255
0.386955 -0.183805 0.802 0 0 0
-0.16599 0.0827692 0.939 255 255 255
-0.159772 -0.311933 1.06 255 255 255
-0.658121 -0.310314 1.354 255 255 255
0.113117 0.226544 0.647 255 255 255
-0.418659 0.332096 0.879 255 255 255
0.206541 0.167188 0.749 255 255 255
0.364687 0.0933534 0.867 255 255 255
0.0265129 0.185938 0.727 255 255 255
-0.0974145 -0.273851 0.941 0 0 0
-0.602439 -0.362794 1.305 255 255 255
0.415655 -0.257812 0.901 0 0 0
0.0980038 0.139988 0.788 0 0 0
-0.435079 -0.276787 1.234 255 255 255
0.137356 -0.334666 1.024 255 255 255
-0.159693 -0.0968825 0.995 0 0 0
-0.146676 -0.230756 1.118 255 255 255
-0.0183705 0.208222 0.68 255 255 255
-0.029354 0.132031 0.835 255 255 255
-0.0809545 0.193685 0.725 255 255 255
0.359942 -0.159376 0.981 255 255 255
0.283679 -0.277757 1.005 255 255 255
-0.0940148 0.169293 0.764 255 255 255
-0.422324 -0.124738 1.13 255 255 255
0.121606 0.221207 0.653 255 255 255
0.300341 0.22813 0.631 255 255 255
-0.150355 -0.390227 1.132 255 255 255
0.131839 -0.348298 1.02 255 255 255
-0.0735539 -0.252923 0.991 0 0 0
0.0271416 -0.0498833 0.906 255 255 255
0.376168 0.0542832 0.874 255 255 255
0.39431 -0.101091 0.788 0 0 0
0.119577 -0.047904 0.739 255 255 255
-0.195336 0.0930268 0.905 255 255 255
-0.0869704 -0.262469 0.961 0 0 0
-0.502596 -0.426125 1.242 255 255 255
0.0345823 0.234078 0.636 255 255 255
-0.238959 0.0900155 0.836 255 255 255
-0.266048 0.0311721 0.905 255 255 255
-0.192494 -0.00818877 1.041 255 255 255
0.152054 0.199243 0.695 255 255 255
-0.147376 0.105694 0.9 255 255 255
0.0772614 0.113337 0.799 255 255 255
-0.337676 0.0153489 1.029 255 255 255
0.0233401 0.250131 0.64 255 255 255
0.424636 -0.310807 0.937 255 255 255
0.4198 0.00991243 0.85 255 255 255
0.386821 0.0622419 0.866 0 0 0
0.415472 0.118159 0.833 255 255 255
-0.159292 0.235186 0.701 255 255 255
-0.20195 -0.417859 1.132 255 255 255
-0.699531 -0.306395 1.366 255 255 255
-0.114754 0.195668 0.715 255 255 255
-0.0996458 0.126845 0.855 255 255 255
-0.629502 -0.428078 1.278 255 255 255
0.363574 -0.111961 0.811 255 255 255
0.0203352 0.142754 0.811 255 255 255
0.03226 0.210772 0.674 255 255 255
0.0694811 0.241847 0.624 255 255 255
0.243988 -0.215039 1.01 255 255 255
-0.371812 0.127587 0.86 255 255 255
-0.269722 -0.42326 1.162 255 255 255
-0.364795 -0.433557 1.201 255 255 255
-0.0481027 0.15626 0.786 255 255 255
-0.444203 -0.454428 1.215 255 255 255
-0.325214 -0.217587 1.185 0 0 0
0.290186 -0.331908 0.972 255 255 255
-0.167124 0.097563 0.92 255 255 255
-0.411258 -0.225069 1.194 0 0 0
-0.055881 -0.348436 1.122 255 255 255
-0.608161 -0.0301215 1.169 255 255 255
-0.0971947 -0.147362 1.055 0 0 0
0.295389 0.0808859 0.901 255 255 255
-0.0493753 -0.0887879 0.96 255 255 255
-0.47811 -0.409182 1.252 255 255 255
-0.473834 -0.452328 1.22 255 255 255
0.114688 -0.326571 1.03 255 255 255
-0.200765 0.139345 0.83 255 255 255
-0.264825 0.287821 0.807 255 255 255
0.00517491 0.0230514 0.934 255 255 255
0.0926364 0.0520947 0.797 255 255 255
-0.192082 -0.0508799 1.048 255 255 255
0.311568 -0.251966 1 0 0 0
-0.337759 0.145746 0.828 255 255 255
-0.264492 0.100644 0.857 255 255 255
0.329848 -0.228681 0.977 255 255 255
0.310805 0.202676 0.669 255 255 255
-0.157123 -0.235503 1.141 255 255 255
-0.0885778 0.111305 0.898 255 255 255
-0.28559 -0.198748 1.165 255 255 255
0.0704503 0.21452 0.672 255 255 255
0.330068 0.0119182 1.022 255 255 255
-0.0339869 0.0844543 0.924 255 255 255
0.211524 -0.314276 1.012 255 255 255
0.162939 0.171211 0.756 255 255 255
0.0176266 0.112468 0.873 255 255 255
-0.329741 0.141543 0.835 255 255 255
0.300786 -0.290156 0.986 255 255 255
-0.360832 -0.143164 1.145 0 0 0
-0.156354 -0.196018 1.149 0 0 0
0.178578 -0.350507 1.012 255 255 255
0.424948 -0.323967 0.931 255 255 255
0.226721 0.116003 0.837 255 255 255
0.313196 -0.250338 1 255 255 255
-0.482528 0.0744522 0.97 255 255 255
0.152083 0.0147837 0.69 255 255 255
0.0632403 0.226867 0.654 255 255 255
0.322967 -0.263659 0.995 255 255 255
0.410905 -0.303912 0.944 255 255 255
0.348074 -0.104086 1.002 255 255 255
-0.6653 -0.246298 1.378 255 255 255
0.165396 -0.374763 1.002 255 255 255
0.336726 0.15582 0.765 255 255 255
0.32278 -0.0379013 1.02 255 255 255
0.308627 0.202676 0.669 255 255 255
-0.269965 -0.0655752 1.094 255 255 255
0.34073 0.0873939 0.878 0 0 0
-0.189105 -0.317108 1.06 255 255 255
-0.291686 0.271388 0.805 255 255 255
0.392711 -0.205369 0.909 255 255 255
0.422978 -0.329673 0.93 255 255 255
-0.478874 -0.407795 1.254 255 255 255
0.107276 -0.0464224 0.754 255 255 255
-0.227085 0.174266 0.764 255 255 255
-0.0221241 -0.401807 1.079 255 255 255
0.104127 -0.266832 1.059 255 255 255
-0.344833 -0.123759 1.173 0 0 0
-0.396416 0.019443 1.07 255 255 255
0.342661 -0.00384608 0.834 255 255 255
-0.411601 0.0956994 0.931 255 255 255
-0.49342 -0.125511 1.137 255 255 255
-0.176335 0.192381 0.729 255 255 255
-0.206733 0.024282 0.923 0 0 0
0.326838 -0.169234 0.992 255 255 255
-0.337196 -0.450173 1.173 255 255 255
0.292916 0.152724 0.781 255 255 255
0.315366 0.132812 0.823 255 255 255
0.159283 0.197257 0.692 255 255 255
-0.171258 0.213638 0.694 255 255 255
-0.632469 -0.35992 1.31 255 255 255
-0.592413 -0.371123 1.297 255 255 255
0.0025409 -0.281995 1.112 255 255 255
0.140975 -0.106343 0.744 0 0 0
0.00505856 0.0879062 0.913 255 255 255
-0.131881 -0.163147 1.116 0 0 0
0.164807 -0.0603951 0.716 255 255 255
-0.145915 0.122958 0.857 255 255 255
-0.555974 0.0039269 1.114 255 255 255
0.179959 0.18662 0.716 255 255 255
-0.406646 -0.383041 1.227 255 255 255
-0.189384 -0.114676 0.981 255 255 255
0.447814 0.0643127 0.875 255 255 255
-0.394479 0.224756 0.793 255 255 255
0.327406 -0.212706 0.984 255 255 255
0.316703 0.101819 0.867 255 255 255
0.388535 -0.049747 0.808 0 0 0
0.191142 -0.0932753 0.746 255 255 255
-0.450079 -0.155557 1.154 0 0 0
-0.0469797 0.222101 0.662 255 255 255
0.335155 -0.0175224 0.839 255 255 255
-0.174652 0.0549324 0.988 255 255 255
0.460859 -0.307999 0.924 255 255 255
-0.474791 -0.403714 1.254 255 255 255
0.24364 0.1926 0.708 255 255 255
0.370117 -0.204944 0.97 255 255 255
0.326211 -0.35326 0.957 255 255 255
-0.140185 -0.00469461 1.018 255 255 255
-0.174812 0.0416498 1.017 255 255 255
-0.312846 -0.424774 1.182 255 255 255
-0.574521 -0.125974 1.194 255 255 255
0.293185 0.066101 0.941 255 255 255
-0.0871571 0.01165 0.999 255 255 255
-0.428235 0.138064 0.847 255 255 255
-0.113359 0.154168 0.795 255 255 255
0.112977 0.239431 0.623 255 255 255
0.145636 0.0603665 0.725 255 255 255
-0.172407 0.176702 0.748 255 255 255
0.345102 0.0540968 0.871 255 255 255
-0.287849 -0.0682175 1.108 0 0 0
-0.0835963 -0.244183 1.015 255 255 255
-0.0375628 0.219437 0.667 255 255 255
0.182753 0.215489 0.655 255 255 255
-0.298043 0.143397 0.83 255 255 255
0.396313 -0.270721 0.957 255 255 255
-0.302738 -0.230681 1.203 255 255 255
0.226275 0.147682 0.788 255 255 255
-0.255171 0.111824 0.868 255 255 255
0.309106 0.0376773 0.92 255 255 255
-0.620096 -0.232161 1.348 255 255 255
0.00761751 0.114385 0.866 255 255 255
-0.258321 -0.430111 1.145 255 255 255
-0.32374 -0.261568 1.201 0 0 0
-0.504829 -0.343662 1.289 255 255 255
-0.0896854 0.0486484 0.991 255 255 255
0.142751 -0.219522 1.039 255 255 255
-0.406121 0.108865 0.902 255 255 255
0.00718273 -0.0877806 1.002 255 255 255
-0.307586 0.146205 0.823 255 255 255
-0.577721 -0.0108132 1.139 255 255 255
-0.0887561 -0.373998 1.122 255 255 255
-0.0817826 -0.174465 1.013 255 255 255
-0.497864 0.0127112 1.09 255 255 255
-0.0813726 -0.0109875 0.988 255 255 255
-0.269184 0.0393896 0.891 255 255 255
-0.156492 -0.259882 1.073 255 255 255
-0.00607065 -0.0925343 1.037 255 255 255
-0.329174 0.136201 0.844 255 255 255
0.179308 0.232155 0.628 255 255 255
-0.189341 0.235069 0.711 255 255 255
0.130911 0.209753 0.685 255 255 255
0.430547 -0.325133 0.93 255 255 255
0.296944 0.10323 0.867 255 255 255
-0.336536 0.300953 0.825 255 255 255
0.279012 -0.222674 1 255 255 255
0.376226 0.160663 0.747 255 255 255
0.163913 -0.347556 1.013 255 255 255
-0.332052 0.0152445 1.022 255 255 255
0.139511 0.0156407 0.73 0 0 0
0.0941557 0.150246 0.788 255 255 255
-0.213411 0.0225331 0.913 0 0 0
0.154322 0.236504 0.618 255 255 255
-0.447545 0.0344906 1.051 255 255 255
-0.238208 0.0602918 0.9 0 0 0
0.345044 -0.275813 0.975 255 255 255
-0.315708 0.184498 0.75 255 255 255
-0.232165 0.0488449 0.905 0 0 0
0.155896 -0.0485842 0.697 255 255 255
0.18903 -0.301339 1.024 255 255 255
-0.325606 -0.0671337 1.12 255 255 255
-0.239282 0.214033 0.722 255 255 255
0.014793 0.207609 0.678 255 255 255
0.0384429 0.194629 0.707 255 255 255
0.0164757 0.140978 0.816 255 255 255
-0.284269 0.21071 0.735 255 255 255
0.000522452 0.148993 0.795 255 255 255
0.139323 -0.0720872 0.705 255 255 255
-0.00344016 0.139308 0.814 255 255 255
-0.0852778 0.205436 0.693 255 255 255
-0.184201 -0.0929498 1.005 255 255 255
-0.266495 0.0587955 0.837 255 255 255
0.341474 -0.199692 0.983 255 255 255
-0.327897 0.108758 0.855 255 255 255
-0.326885 0.312855 0.821 255 255 255
-0.17189 0.0490902 1 255 255 255
-0.178982 0.187984 0.735 255 255 255
0.388308 -0.35085 0.934 255 255 255
-0.086383 -0.410202 1.092 255 255 255
0.141796 0.123474 0.789 0 0 0
0.0942344 0.214972 0.67 255 255 255
0.344422 0.157275 0.76 255 255 255
0.0639116 0.230768 0.65 255 255 255
0.216781 0.127543 0.815 0 0 0
-0.121755 0.174967 0.751 255 255 255
0.0764972 -0.0504321 0.778 255 255 255
-0.137823 -0.413429 1.12 255 255 255
0.228964 -0.170493 1.009 255 255 255
-0.419313 -0.285666 1.229 0 0 0
-0.051512 0.104402 0.889 255 255 255
0.177562 0.194158 0.693 255 255 255
-0.00849494 0.205893 0.687 255 255 255
-0.121467 -0.216445 1.057 0 0 0
0.0906414 0.22299 0.652 255 255 255
-0.137932 -0.223612 1.092 255 255 255
-0.287901 0.162403 0.791 255 255 255
-0.0297936 -0.206457 0.934 0 0 0
-0.269167 0.18156 0.753 255 255 255
0.150439 0.158913 0.774 255 255 255
-0.532294 -0.124966 1.149 255 255 255
-0.275379 -0.271989 1.154 255 255 255
0.0725099 0.0276932 0.804 255 255 255
0.273624 -0.342452 0.975 255 255 255
-0.249611 0.160505 0.788 255 255 255
-0.521281 0.0654943 1.002 255 255 255
-0.338439 0.15853 0.804 255 255 255
0.147591 -0.0368677 0.69 255 255 255
-0.0460524 0.183894 0.733 255 255 255
0.144648 0.161851 0.77 255 255 255
0.394296 -0.157506 0.801 255 255 255
0.407026 0.059492 0.867 0 0 0
0.146782 -0.343318 1.02 255 255 255
0.25071 -0.244804 1.004 255 255 255
0.0615364 -0.063336 0.781 255 255 255
0.363095 -0.18889 0.807 255 255 255
0.401741 -0.0769218 0.79 255 255 255
0.11501 -0.198832 1.064 0 0 0
-0.0813117 0.0836689 0.932 255 255 255
-0.207838 -0.223394 1.165 255 255 255
0.104251 -0.300141 1.043 255 255 255
0.233871 0.217784 0.646 255 255 255
-0.655703 -0.249691 1.372 255 255 255
0.108427 0.232737 0.638 255 255 255
0.293087 0.233234 0.62 255 255 255
-0.692949 -0.230844 1.393 255 255 255
0.261388 0.165059 0.756 255 255 255
-0.0346874 0.191178 0.72 255 255 255
-0.215271 0.0632837 0.861 255 255 255
-0.461828 0.0039128 1.11 255 255 255
0.308504 0.110278 0.856 255 255 255
-0.436624 -0.229103 1.205 0 0 0
0.123559 0.174901 0.756 255 255 255
-0.242872 0.0251694 0.901 255 255 255
0.22543 0.214502 0.652 255 255 255
0.165065 -0.385406 1 255 255 255
-0.0054267 -0.0359542 0.927 255 255 255
0.118472 0.213899 0.684 255 255 255
-0.259849 0.193293 0.737 255 255 255
0.391007 0.121786 0.83 255 255 255
0.01131 -0.340477 1.085 0 0 0
0.318666 0.0271528 0.972 255 255 255
-0.0577557 0.228565 0.662 255 255 255
0.0513216 -0.189365 1.11 255 255 255
0.313162 0.0783619 0.889 255 255 255
-0.662009 -0.296632 1.362 255 255 255
0.148216 0.161641 0.769 255 255 255
-0.237195 -0.0186704 1.059 0 0 0
0.241331 -0.230579 0.999 255 255 255
-0.0537655 -0.361102 1.116 255 255 255
-0.24052 -0.351212 1.149 255 255 255
-0.0439451 0.219861 0.665 255 255 255
0.169836 -0.356036 1.009 255 255 255
0.0900899 0.203219 0.697 255 255 255
0.106034 0.241533 0.618 255 255 255
-0.197554 0.282714 0.775 255 255 255
0.405477 -0.200184 0.821 255 255 255
0.0743799 0.0235316 0.796 255 255 255
0.00521369 0.0722263 0.941 255 255 255
-0.238649 -0.422264 1.149 255 255 255
-0.227769 0.177831 0.758 255 255 255
-0.545541 -0.302178 1.291 0 0 0
-0.260819 -0.392907 1.173 255 255 255
-0.302682 0.184744 0.751 255 255 255
0.150573 -0.358741 1.012 255 255 255
-0.281502 -0.436124 1.156 255 255 255
-0.3429 -0.154478 1.16 255 255 255
-0.13101 0.0219399 1.024 255 255 255
-0.421046 -0.356209 1.252 255 255 255
0.30592 -0.0334381 1.036 255 255 255
0.0883451 0.211084 0.675 255 255 255
0.0320894 0.158061 0.776 255 255 255
0.139873 0.19668 0.702 255 255 255
-0.329605 -0.259613 1.201 0 0 0
-0.409001 -0.0256414 1.139 255 255 255
0.345595 0.144382 0.791 255 255 255
0.393709 0.121786 0.83 255 255 255
-0.293634 0.0521448 0.886 255 255 255
0.290377 -0.137089 1.017 255 255 255
-0.171236 0.170655 0.759 255 255 255
-0.200692 0.0717981 0.916 255 255 255
0.0391886 0.207115 0.68 255 255 255
0.00811889 -0.184499 0.923 255 255 255
-0.00779787 0.120029 0.856 255 255 255
0.388305 -0.0119317 0.83 0 0 0
0.177431 0.108948 0.805 255 255 255
-0.31405 0.165186 0.792 255 255 255
-0.255521 0.254907 0.771 255 255 255
-0.170639 -0.433478 1.12 255 255 255
-0.211355 -0.412619 1.143 255 255 255
-0.17165 0.141669 0.82 255 255 255
-0.338548 -0.407548 1.205 255 255 255
-0.571252 -0.380244 1.278 255 255 255
0.0472844 -0.325732 1.06 255 255 255
-0.130024 0.231831 0.691 255 255 255
0.378544 0.150378 0.769 255 255 255
0.128389 -0.285684 1.046 255 255 255
0.300963 0.0689671 0.918 255 255 255
-0.39745 0.312368 0.864 255 255 255
0.252542 0.163244 0.759 255 255 255
-0.094855 0.118421 0.875 255 255 255
-0.65893 -0.361569 1.316 255 255 255
0.127132 -0.387233 1.009 255 255 255
-0.0238348 0.212022 0.678 255 255 255
-0.367791 -0.0420631 1.132 0 0 0
0.385492 -0.141815 0.981 255 255 255
0.0257011 -0.236581 1.025 255 255 255
-0.019284 -0.332639 1.118 255 255 255
-0.265446 0.310001 0.817 255 255 255
0.34378 -0.131412 0.999 255 255 255
-0.37673 0.132863 0.849 255 255 255
0.282932 -0.132514 1.02 255 255 255
0.240923 0.141053 0.794 255 255 255
0.248674 -0.293641 1.009 255 255 255
-0.172442 0.152178 0.805 255 255 255
-0.304112 -0.186669 1.149 0 0 0
-0.072133 -0.0740272 0.951 255 255 255
0.133189 -0.0171149 0.709 0 0 0
0.190673 -0.331725 1.015 255 255 255
-0.280372 0.14858 0.814 255 255 255
0.104761 0.0370685 0.781 255 255 255
0.138292 0.117351 0.791 255 255 255
0.0217583 -0.19607 0.928 255 255 255
0.0564114 -0.0392738 0.837 0 0 0
-0.491569 -0.123661 1.137 255 255 255
-0.179725 -0.403319 1.143 255 255 255
-0.121219 -0.266121 1.07 0 0 0
0.287656 -0.0947995 1.025 255 255 255
-0.488535 -0.457047 1.222 255 255 255
-0.0506196 -0.0354489 0.954 0 0 0
-0.366918 -0.0495626 1.135 0 0 0
-0.581775 -0.127135 1.205 255 255 255
0.0194541 -0.400495 1.048 0 0 0
0.214643 0.150567 0.783 255 255 255
-0.489276 -0.0202571 1.149 255 255 255
-0.0234329 -0.0102646 0.923 255 255 255
0.0697185 0.134644 0.802 255 255 255
0.132438 -0.0686454 0.705 255 255 255
-0.0694613 -0.324768 1.135 255 255 255
0.370579 -0.194625 0.809 255 255 255
0.341914 -0.0260209 0.849 0 0 0
0.177367 0.143457 0.793 0 0 0
-0.334255 0.167552 0.791 255 255 255
-0.504779 -0.353898 1.273 255 255 255
-0.283688 0.0466393 0.891 255 255 255
-0.324969 0.235136 0.772 255 255 255
0.0692839 0.14418 0.797 255 255 255
-0.47091 -0.303124 1.26 255 255 255
-0.459355 0.349114 0.897 255 255 255
-0.223573 0.037104 0.906 0 0 0
-0.144486 -0.1365 1.025 0 0 0
-0.300663 -0.155934 1.143 255 255 255
-0.0739534 -0.0362292 0.975 255 255 255
-0.546808 -0.323938 1.294 255 255 255
-0.15768 -0.051381 1.024 255 255 255
0.120225 -0.107409 0.743 0 0 0
0.357158 -0.141648 0.991 255 255 255
0.228495 0.225088 0.634 255 255 255
0.100547 0.0872225 0.798 255 255 255
-0.288627 -0.0870267 1.118 255 255 255
0.0691236 -0.316125 1.051 255 255 255
0.163765 -0.378024 1.002 255 255 255
-0.265668 0.178828 0.757 255 255 255
-0.197102 0.0575199 0.88 255 255 255
-0.398158 0.0211842 1.07 255 255 255
-0.444224 0.349011 0.893 255 255 255
-0.398411 -0.0732497 1.13 255 255 255
-0.381508 0.164456 0.801 255 255 255
0.10595 -0.244659 1.06 255 255 255
-0.0969607 0.187893 0.73 255 255 255
-0.413423 0.334194 0.877 255 255 255
0.443888 -0.336608 0.92 255 255 255
0.246873 0.209806 0.664 255 255 255
-0.391573 -0.316738 1.249 255 255 255
-0.127908 -0.0874982 0.963 255 255 255
-0.142524 -0.198399 1.1 255 255 255
-0.607384 -0.474116 1.225 255 255 255
-0.14278 -0.186756 1.116 0 0 0
-0.505713 0.0344906 1.051 255 255 255
-0.14535 0.22219 0.689 255 255 255
0.316015 -0.142579 1.009 255 255 255
-0.4379 -0.373576 1.242 255 255 255
-0.205214 -0.0677791 1.02 0 0 0
0.286866 0.194441 0.69 255 255 255
0.228075 0.118018 0.832 255 255 255
0.172018 0.201582 0.68 255 255 255
0.198253 -0.298502 1.02 255 255 255
-0.408644 -0.389031 1.227 255 255 255
0.114177 -0.0590453 0.743 255 255 255
0.434251 -0.282137 0.938 255 255 255
-0.169716 0.0649141 0.969 255 255 255
0.397768 -0.317065 0.942 255 255 255
-0.152168 0.241117 0.705 255 255 255
0.0518669 -0.339099 1.048 255 255 255
-0.269504 -0.191609 1.145 255 255 255
-0.459296 -0.108667 1.135 255 255 255
-0.0251785 -0.193882 0.932 255 255 255
-0.359979 0.18225 0.761 255 255 255
0.338555 0.0323457 0.858 0 0 0
-0.202917 0.161377 0.786 255 255 255
0.0735432 0.0197689 0.801 255 255 255
0.14183 0.0653217 0.755 255 255 255
-0.0112158 0.191815 0.718 255 255 255
-0.652385 -0.126518 1.278 255 255 255
-0.403381 0.0643098 1.009 255 255 255
-0.0989463 -0.0732488 0.941 255 255 255
-0.0419686 0.25129 0.668 255 255 255
-0.0544013 0.0615692 0.966 255 255 255
-0.134176 -0.406139 1.12 255 255 255
0.398015 -0.167305 0.798 255 255 255
-0.438177 0.0471648 1.029 255 255 255
-0.239791 0.209925 0.72 255 255 255
0.261339 0.18861 0.706 255 255 255
-0.0197368 0.238905 0.652 255 255 255
-0.539886 -0.055462 1.182 255 255 255
-0.296759 0.14816 0.819 255 255 255
0.290668 0.159874 0.749 255 255 255
-0.096596 -0.00899992 0.948 255 255 255
0.258844 0.228794 0.63 255 255 255
-0.0117781 0.170758 0.754 255 255 255
0.116846 0.239047 0.622 255 255 255
0.274084 0.169172 0.747 255 255 255
0.136412 -0.0587081 0.696 255 255 255
-0.581666 -0.182148 1.26 255 255 255
0.132046 -0.270882 1.048 0 0 0
0.0604266 0.0219932 0.836 255 255 255
-0.130484 0.175994 0.745 255 255 255
-0.39601 0.188434 0.766 255 255 255
0.12256 0.150183 0.781 255 255 255
-0.134134 0.208735 0.689 255 255 255
0.153804 0.0402305 0.703 255 255 255
0.13834 -0.268149 1.044 0 0 0
-0.468706 -0.447255 1.217 255 255 255
-0.154346 -0.0330508 1.024 255 255 255
-0.260455 -0.306921 1.18 255 255 255
0.40235 -0.169164 0.964 255 255 255
0.319397 -0.223915 0.984 255 255 255
0.418225 0.0338599 0.861 255 255 255
-0.212192 -0.187091 1.118 0 0 0
0.0121338 0.104168 0.887 255 255 255
0.0452909 0.212333 0.672 255 255 255
-0.12278 0.215493 0.682 255 255 255
-0.0600014 0.231068 0.663 255 255 255
0.286136 -0.356113 0.969 255 255 255
0.130645 0.227218 0.64 255 255 255
0.271309 -0.145793 1.02 255 255 255
-0.314315 0.035551 0.904 255 255 255
0.293989 0.174826 0.73 255 255 255
0.363815 0.166072 0.744 255 255 255
-0.484057 -0.358041 1.273 255 255 255
0.342831 0.147958 0.776 255 255 255
0.336521 -0.0188878 0.839 255 255 255
0.393481 0.026324 0.844 0 0 0
0.0245337 0.114385 0.866 255 255 255
0.328229 0.203765 0.669 255 255 255
0.409556 -0.0187302 0.832 255 255 255
0.321617 -0.296667 0.981 255 255 255
-0.1967 0.0459273 1.002 255 255 255
-0.374705 0.244181 0.806 255 255 255
-0.210472 0.05478 0.882 0 0 0
-0.353156 -0.406597 1.208 255 255 255
-0.383219 0.0834744 0.947 255 255 255
0.269034 -0.0355987 1.05 0 0 0
-0.212869 0.102608 0.886 255 255 255
-0.458666 -0.371616 1.249 255 255 255
-0.329284 -0.166535 1.152 255 255 255
-0.414232 -0.120846 1.128 255 255 255
0.0867241 -0.285249 1.057 255 255 255
0.303589 0.230029 0.625 255 255 255
0.282397 -0.367967 0.967 255 255 255
-0.202264 0.186097 0.737 255 255 255
0.253936 0.197779 0.686 255 255 255
0.340532 -0.0274025 0.849 0 0 0
-0.253829 -0.311621 1.176 255 255 255
0.295577 0.225088 0.634 255 255 255
0.244263 -0.284663 1.018 255 255 255
0.285619 0.195831 0.687 255 255 255
-0.592149 -0.0223388 1.16 255 255 255
-0.228608 0.152934 0.809 255 255 255
-0.45137 -0.0852526 1.143 255 255 255
-0.0191051 0.221608 0.667 255 255 255
-0.137301 -0.188979 1.087 255 255 255
0.363801 -0.283869 0.97 255 255 255
-0.0116357 0.070695 0.941 255 255 255
-0.141877 0.0520832 0.995 255 255 255
-0.364703 -0.375054 1.227 255 255 255
-0.412417 0.151194 0.821 255 255 255
-0.0922928 0.16035 0.781 255 255 255
-0.300827 -0.0469168 1.116 255 255 255
0.146259 -0.379156 1.005 255 255 255
-0.110584 -0.119117 1.005 255 255 255
0.218024 0.148586 0.786 255 255 255
0.299417 0.0487396 0.961 255 255 255
0.236111 0.196132 0.696 255 255 255
0.29765 -0.207404 0.997 255 255 255
-0.561323 -0.195222 1.265 255 255 255
-0.0564811 0.188822 0.729 255 255 255
0.121294 0.172004 0.765 255 255 255
-0.463343 -0.0742221 1.145 255 255 255
-0.0474891 0.102194 0.895 255 255 255
-0.284778 -0.101636 1.139 0 0 0
-0.137577 -0.170717 1.118 0 0 0
0.102503 -0.0464839 0.755 255 255 255
0.0338445 0.18007 0.732 255 255 255
0.276716 -0.0670267 1.034 255 255 255
0.394727 -0.11349 0.794 255 255 255
-0.00281411 -0.149511 1.083 0 0 0
-0.0743784 -0.0841011 0.96 255 255 255
0.331051 0.146932 0.784 255 255 255
0.310104 -0.0845433 1.022 255 255 255
-0.402214 0.176193 0.778 255 255 255
0.300407 0.168107 0.737 255 255 255
-0.106518 -0.414242 1.098 255 255 255
0.0652697 -0.27883 1.072 255 255 255
-0.0163943 0.205669 0.69 255 255 255
-0.676885 -0.140192 1.289 255 255 255
-0.47266 -0.191715 1.192 255 255 255
0.191084 0.148244 0.791 255 255 255
0.327406 -0.195091 0.984 255 255 255
-0.158892 0.289025 0.765 255 255 255
-0.0726694 -0.141366 1.024 0 0 0
0.419087 0.111347 0.843 255 255 255
0.13025 -0.110123 0.745 0 0 0
-0.164455 -0.267361 1.068 255 255 255
-0.471129 -0.277909 1.239 255 255 255
0.374026 -0.331564 0.944 255 255 255
-0.144301 -0.0161949 1.012 255 255 255
-0.396487 0.150406 0.824 255 255 255
0.316027 -0.0177522 0.85 0 0 0
0.2908 -0.258645 1.007 0 0 0
0.313628 -0.0122336 0.851 0 0 0
0.385511 -0.153956 0.977 255 255 255
0.132603 -0.30068 1.039 255 255 255
-0.104678 -0.261353 1.044 0 0 0
-0.0695748 0.103998 0.898 255 255 255
0.370155 0.0575199 0.88 255 255 255
-0.48473 -0.0598856 1.156 255 255 255
0.0943947 0.121059 0.79 255 255 255
-0.019315 0.0723031 0.942 255 255 255
0.321994 -0.157108 0.997 255 255 255
0.0551997 0.0419098 0.883 255 255 255
0.27629 -0.144133 1.02 255 255 255
0.368538 -0.269663 0.97 255 255 255
0.113252 0.114196 0.787 255 255 255
0.375551 -0.210765 0.781 0 0 0
0.402307 0.0850839 0.869 0 0 0
-0.511917 -0.339994 1.291 255 255 255
0.28415 0.077421 0.912 255 255 255
0.171135 0.0286266 0.699 255 255 255
-0.18591 -0.120318 0.988 255 255 255
0.238023 0.171705 0.737 255 255 255
-0.602887 -0.0606136 1.208 255 255 255
0.369607 -0.233451 0.977 255 255 255
0.0316728 -0.181633 1.118 0 0 0
-0.136179 0.210671 0.688 255 255 255
0.0879009 -0.018515 0.767 255 255 255
0.278261 0.0726603 0.927 255 255 255
-0.5201 -0.252786 1.275 255 255 255
