ply
format ascii 1.0
comment Created by Open3D
element vertex 1311
property double x
property double y
property double z
property uchar red
property uchar green
property uchar blue
end_header
-0.75755 0.400547 1.607 255 255 255
0.0598247 0.202563 0.792 255 255 255
-0.0126373 0.0897413 0.809 255 255 255
-0.381699 -0.143761 1.135 255 255 255
-0.199231 -0.17129 1.087 255 255 255
0.136677 0.0623249 0.812 255 255 255
0.145379 0.162177 0.701 255 255 255
0.280638 0.214098 0.626 255 255 255
0.147795 -0.366982 1.254 255 255 255
0.340017 -0.055741 0.764 0 0 0
0.0733216 0.259531 0.813 255 255 255
0.111055 -0.0237292 0.983 255 255 255
0.0475066 -0.200561 1.247 255 255 255
-0.384022 0.380935 1.278 255 255 255
0.0531248 -0.119357 1.149 255 255 255
0.355315 -0.205488 1.171 255 255 255
0.059637 -0.154588 1.205 255 255 255
0.0912181 -0.476115 1.262 255 255 255
0.30334 0.000255244 0.944 0 0 0
0.54036 -0.145429 1.066 255 255 255
-0.218066 0.445465 1.169 255 255 255
0.449604 0.00938212 0.935 255 255 255
0.240176 -0.00612039 0.981 255 255 255
0.209676 0.0122791 0.924 255 255 255
-0.159986 -0.434252 1.122 255 255 255
0.192591 0.261681 0.711 255 255 255
0.424576 -0.207055 1.108 255 255 255
-0.691063 -0.466505 1.316 255 255 255
-0.506106 -0.0578134 1.116 255 255 255
-0.0132286 -0.204164 1.232 0 0 0
-0.311404 0.188596 1.102 255 255 255
0.0506153 0.1713 0.751 255 255 255
0.135189 0.064195 0.819 255 255 255
0.317709 -0.253154 1.18 255 255 255
0.00493666 0.31053 0.891 255 255 255
0.188785 0.113642 0.766 0 0 0
0.286382 -0.158526 1.162 0 0 0
-0.00306096 -0.124286 1.178 255 255 255
0.152096 0.174082 0.685 255 255 255
-0.00647928 0.236991 0.866 255 255 255
-0.693356 -0.312411 1.403 255 255 255
0.322366 0.124419 0.727 0 0 0
0.0521184 0.0503792 0.856 255 255 255
0.0863427 0.101841 0.811 0 0 0
-0.0197162 -0.410049 1.409 255 255 255
-0.140539 0.266351 0.997 255 255 255
0.274859 -0.269677 1.22 255 255 255
-0.463339 -0.296006 1.198 0 0 0
-0.00633713 0.191819 0.847 255 255 255
0.00453774 0.0855195 0.819 255 255 255
-0.0453635 0.0303799 0.882 0 0 0
0.193049 0.26739 0.717 255 255 255
0.192023 0.104642 0.764 255 255 255
-0.62941 -0.506423 1.378 255 255 255
-0.396675 0.0250125 1.085 255 255 255
-0.65034 -0.0567997 1.254 255 255 255
0.152492 0.187181 0.672 255 255 255
0.38335 0.0520271 0.884 0 0 0
0.286655 0.0734257 0.833 0 0 0
-0.495158 -0.121812 1.12 255 255 255
-0.136675 -0.0800988 1.029 255 255 255
-0.656237 0.438459 1.547 255 255 255
-0.200621 0.0962077 0.951 255 255 255
-0.401641 -0.0832903 1.07 255 255 255
-0.0784051 0.0925211 0.822 255 255 255
-0.754489 0.379387 1.595 255 255 255
-0.0103324 -0.480558 1.381 255 255 255
0.0607527 0.239664 0.822 255 255 255
0.265246 -0.110485 1.098 255 255 255
0.256317 0.140754 0.708 255 255 255
0.29092 0.227591 0.605 255 255 255
0.207602 -0.0076932 0.978 255 255 255
0.123495 0.156831 0.713 255 255 255
-0.105264 -0.0101868 0.916 255 255 255
-0.0647766 -0.377414 1.442 255 255 255
0.404145 0.0556897 0.852 0 0 0
0.325601 0.117735 0.737 0 0 0
0.220517 0.223266 0.626 255 255 255
0.322359 -0.277427 1.169 255 255 255
0.277085 -0.30681 1.187 255 255 255
0.29129 0.0914609 0.801 0 0 0
-0.13905 -0.373796 1.21 255 255 255
-0.0627513 0.209373 0.905 255 255 255
0.110837 -0.234113 1.275 0 0 0
0.420874 -0.174697 1.132 255 255 255
-0.119369 -0.310878 1.319 0 0 0
0.263069 0.0348431 0.886 0 0 0
-0.0281319 -0.504218 1.372 255 255 255
0.283818 0.179276 0.667 255 255 255
0.0258026 -0.399996 1.39 255 255 255
0.142186 0.241137 0.744 255 255 255
-0.313708 -0.358192 1.044 255 255 255
0.282428 -0.219309 1.227 255 255 255
0.304196 0.139606 0.726 255 255 255
-0.0125306 -0.161107 1.167 255 255 255
0.0136695 0.00750748 0.893 0 0 0
0.263094 0.117804 0.73 255 255 255
-0.304672 -0.254407 1.072 255 255 255
-0.363962 -0.0424185 1.009 255 255 255
0.0319631 0.0370907 0.839 255 255 255
-0.0635812 0.395519 1.012 255 255 255
-0.00677108 0.315409 0.905 255 255 255
0.235141 -0.307398 1.22 255 255 255
-0.282814 -0.0722982 1.062 255 255 255
-0.231001 0.0686386 0.955 255 255 255
0.358455 0.0370028 0.869 255 255 255
-0.24593 0.262958 1.098 255 255 255
-0.0256416 -0.049035 1.01 255 255 255
0.388929 -0.389541 1.037 255 255 255
0.415049 -0.0605877 1.039 255 255 255
0.362778 -0.0915205 1.085 255 255 255
0.43677 -0.119749 1.135 0 0 0
0.34799 -0.198303 1.185 255 255 255
0.437771 0.00636614 0.939 255 255 255
-0.271928 -0.313658 1.06 0 0 0
0.386136 0.0193688 0.904 255 255 255
-0.265111 -0.0201748 0.966 255 255 255
-0.306965 -0.349999 1.05 255 255 255
0.391064 -0.104359 1.09 0 0 0
-0.249352 0.415796 1.182 255 255 255
0.262605 0.0888539 0.801 0 0 0
0.281626 -0.342656 1.158 255 255 255
-0.438395 -0.368092 1.173 0 0 0
0.116352 0.167162 0.698 255 255 255
-0.145361 0.144658 0.944 255 255 255
0.484071 -0.188116 1.072 255 255 255
-0.57836 -0.543718 1.435 255 255 255
-0.138779 -0.412319 1.225 255 255 255
-0.596007 -0.062683 1.21 255 255 255
-0.288614 0.0525543 1.004 255 255 255
-0.213776 0.0354723 0.902 255 255 255
0.417213 -0.325295 1.053 255 255 255
0.357925 0.0235716 0.896 255 255 255
0.129197 0.235476 0.753 255 255 255
-0.650083 -0.246932 1.333 255 255 255
0.351337 -0.374772 1.077 255 255 255
0.0844605 0.0882344 0.845 255 255 255
-0.0452946 -0.243671 1.351 255 255 255
-0.11304 -0.341501 1.459 255 255 255
-0.792822 0.297072 1.599 255 255 255
0.226195 0.220827 0.622 255 255 255
-0.0261844 0.120951 0.781 255 255 255
0.28828 0.0768412 0.826 0 0 0
-0.210183 -0.285592 1.098 0 0 0
0.219219 0.184994 0.672 255 255 255
0.0835116 -0.157408 1.182 255 255 255
0.0594952 -0.0601805 1.004 255 255 255
0.240666 -0.0093322 0.983 255 255 255
-0.252645 0.21713 1.066 0 0 0
0.00549816 0.136257 0.767 255 255 255
0.289141 -0.351238 1.143 255 255 255
-0.0889892 -0.0362415 1.02 255 255 255
-0.648534 -0.379458 1.357 0 0 0
0.31995 0.148562 0.696 0 0 0
-0.558057 0.401252 1.449 255 255 255
-0.188988 0.0436412 0.889 255 255 255
0.171299 0.0343712 0.874 0 0 0
-0.4883 0.161294 1.252 255 255 255
0.213164 -0.363349 1.208 255 255 255
0.149736 -0.113705 1.13 255 255 255
0.373475 0.013559 0.909 255 255 255
-0.707789 -0.33209 1.409 0 0 0
0.503145 -0.272848 0.999 255 255 255
-0.372313 0.46935 1.31 255 255 255
-0.162818 0.38236 1.092 255 255 255
0.0613548 -0.422896 1.327 0 0 0
0.141758 0.0805272 0.796 255 255 255
0.0940311 0.275369 0.809 255 255 255
-0.261026 0.154885 1.044 255 255 255
-0.673952 -0.468193 1.333 255 255 255
0.0427344 -0.0153308 0.958 255 255 255
-0.630443 0.120476 1.342 255 255 255
-0.425249 -0.253011 1.128 255 255 255
0.421832 0.0811664 0.843 255 255 255
0.327018 0.127589 0.699 255 255 255
-0.222517 -0.210281 1.106 255 255 255
-0.733308 0.268257 1.524 255 255 255
-0.0786963 -0.43283 1.439 255 255 255
0.0713282 -0.124096 1.141 255 255 255
-0.0488366 0.200784 0.893 255 255 255
-0.507236 0.418345 1.419 255 255 255
0.338681 -0.0654293 0.761 255 255 255
0.310923 0.138645 0.709 0 0 0
-0.0540778 0.138125 0.839 255 255 255
-0.553328 0.486789 1.487 255 255 255
-0.000838626 0.0311659 0.864 255 255 255
-0.337402 0.301493 1.194 255 255 255
-0.759966 0.435191 1.629 255 255 255
-0.200233 0.219379 1.02 255 255 255
-0.139597 0.344059 1.051 255 255 255
0.225132 0.135909 0.738 255 255 255
0.223565 0.0945024 0.783 255 255 255
0.172966 0.151665 0.716 255 255 255
-0.439113 -0.14689 1.145 255 255 255
0.480527 -0.232601 1.068 255 255 255
0.264679 -0.131626 1.126 255 255 255
0.117808 -0.00126874 0.935 255 255 255
-0.443542 -0.0279055 1.083 255 255 255
-0.673315 -0.48474 1.319 255 255 255
0.452091 -0.192327 1.096 255 255 255
0.14887 -0.301936 1.299 255 255 255
0.0310969 0.128697 0.752 255 255 255
0.371463 -0.216025 1.156 255 255 255
0.0405092 0.14326 0.745 255 255 255
-0.648993 -0.335842 1.396 0 0 0
-0.176897 -0.0786198 1.01 255 255 255
-0.598362 0.276899 1.416 255 255 255
-0.642847 0.093848 1.336 255 255 255
0.286728 0.0955886 0.792 0 0 0
0.149092 -0.345498 1.265 255 255 255
-0.298413 0.100519 1.044 255 255 255
-0.0320961 0.291454 0.913 255 255 255
-0.342683 -0.282407 1.034 0 0 0
0.486855 -0.127027 1.102 0 0 0
-0.230357 -0.323415 1.036 255 255 255
0.253211 0.0603013 0.839 0 0 0
-0.0407308 -0.425403 1.422 255 255 255
0.0790909 -0.432998 1.299 255 255 255
-0.904108 0.479271 1.794 0 0 0
-0.328949 0.357613 1.213 255 255 255
0.410477 -0.0519832 1.036 255 255 255
-0.101044 0.0496157 0.867 255 255 255
0.100989 0.0980025 0.812 255 255 255
-0.0293024 0.209312 0.874 255 255 255
0.250066 0.173728 0.697 255 255 255
0.139788 -0.262457 1.313 255 255 255
0.489564 -0.33094 0.988 255 255 255
0.338984 0.104885 0.748 255 255 255
-0.16981 0.285475 1.037 255 255 255
0.482442 -0.00286789 0.961 255 255 255
0.406621 -0.171711 1.149 255 255 255
0.136933 0.125228 0.776 0 0 0
0.136396 0.181396 0.679 255 255 255
0.26656 0.218048 0.617 255 255 255
-0.383231 -0.159198 1.077 255 255 255
-0.0705402 0.259046 0.93 255 255 255
0.266964 0.214773 0.625 255 255 255
0.104841 0.0134545 0.902 0 0 0
-0.729442 0.636745 1.7 255 255 255
-0.388445 0.0799226 1.112 255 255 255
-0.528729 0.157915 1.291 255 255 255
0.283336 0.177075 0.671 255 255 255
-0.667133 0.502712 1.591 255 255 255
-0.124469 0.0419098 0.883 255 255 255
-0.222789 -0.347627 1.048 0 0 0
0.215229 0.141722 0.737 255 255 255
0.318548 0.173645 0.658 0 0 0
-0.0107053 -0.0484038 0.997 255 255 255
-0.166687 -0.359228 1.169 0 0 0
0.101275 -0.0684436 1.03 0 0 0
-0.644016 -0.327691 1.4 0 0 0
0.24799 0.176311 0.685 255 255 255
0.177595 0.0484959 0.824 255 255 255
-0.462473 0.388242 1.362 255 255 255
0.277435 0.195404 0.652 255 255 255
0.094543 -0.384913 1.308 255 255 255
-0.256967 0.322822 1.139 255 255 255
-0.448128 -0.147404 1.149 255 255 255
-0.25485 0.475554 1.227 255 255 255
-0.917184 0.571404 1.763 255 255 255
0.359915 -0.0644439 0.764 255 255 255
-0.502601 0.183361 1.278 255 255 255
0.369995 -0.287424 1.112 255 255 255
0.215705 -0.0736147 1.032 255 255 255
-0.527447 -0.160982 1.18 255 255 255
-0.393204 -0.0115991 1.043 255 255 255
0.302541 0.155234 0.711 255 255 255
0.133469 0.143925 0.736 255 255 255
-0.179888 -0.212262 1.156 255 255 255
-0.134081 0.307955 1.022 255 255 255
-0.327094 0.453944 1.267 255 255 255
-0.276689 -0.348023 1.039 255 255 255
0.0818672 -0.0659896 1.018 255 255 255
-0.109603 -0.500477 1.445 255 255 255
0.16412 -0.0918245 1.068 255 255 255
-0.313378 -0.277269 1.066 255 255 255
-0.201789 0.000254703 0.942 255 255 255
-0.174756 -0.225301 1.185 255 255 255
0.269573 0.217044 0.617 255 255 255
-0.0193244 -0.491794 1.381 255 255 255
-0.293695 -0.308127 1.083 255 255 255
0.000659801 -0.055279 1.004 255 255 255
0.383375 0.11376 0.784 255 255 255
-0.208776 0.315348 1.1 255 255 255
0.23586 0.128006 0.734 255 255 255
-0.277103 0.0431031 0.975 255 255 255
0.214973 0.185257 0.669 255 255 255
-0.110412 0.0536 0.863 255 255 255
-0.227094 -0.22566 1.102 255 255 255
0.276974 0.106994 0.772 255 255 255
0.445641 -0.0233188 0.966 255 255 255
-0.770519 0.226097 1.524 255 255 255
-0.820318 0.206976 1.567 255 255 255
0.316939 0.117326 0.742 0 0 0
0.398069 0.113018 0.806 255 255 255
-0.118713 0.0653951 0.852 255 255 255
0.432411 -0.325525 1.032 255 255 255
0.0203322 -0.0538055 1.007 255 255 255
0.285229 -0.0596905 1.053 255 255 255
-0.106829 0.0749608 0.835 255 255 255
-0.539536 -0.0210505 1.194 255 255 255
0.256011 0.223882 0.611 0 0 0
-0.917916 0.338977 1.748 255 255 255
-0.713841 -0.39317 1.351 255 255 255
0.264573 -0.0243085 1.007 255 255 255
-0.623675 0.132277 1.351 255 255 255
-0.23946 0.0345322 0.916 255 255 255
-0.141939 -0.428062 1.393 255 255 255
-0.721574 0.0793737 1.387 255 255 255
-0.370865 0.0622056 1.087 255 255 255
0.0190854 0.183021 0.814 255 255 255
0.0862704 -0.295119 1.345 255 255 255
-0.214982 0.209186 1.027 255 255 255
0.321315 -0.204118 1.208 255 255 255
-0.237777 -0.167689 1.11 255 255 255
-0.248508 0.408638 1.178 255 255 255
0.28635 -0.0745841 1.07 255 255 255
-0.257188 -0.207055 1.108 255 255 255
-0.208426 -0.0527903 0.988 0 0 0
-0.789953 0.181932 1.528 255 255 255
0.164421 -0.0773464 1.037 255 255 255
0.171728 0.213689 0.666 255 255 255
-0.385366 -0.352187 1.083 0 0 0
-0.229844 0.28976 1.098 0 0 0
0.242088 -0.323933 1.215 255 255 255
0.0512856 0.159803 0.743 255 255 255
0.0553707 -0.420184 1.339 255 255 255
-0.921405 0.543894 1.805 255 255 255
0.0214304 -0.284404 1.4 255 255 255
0.16794 -0.341947 1.252 255 255 255
-0.67915 -0.475086 1.322 255 255 255
-0.132122 0.347529 1.046 255 255 255
0.196424 0.161726 0.704 255 255 255
-0.158827 0.00927175 0.924 255 255 255
-0.197669 0.348294 1.108 255 255 255
-0.825113 0.256749 1.591 255 255 255
0.235716 -0.272957 1.244 255 255 255
0.236533 0.168599 0.704 0 0 0
0.479729 -0.270994 1.029 255 255 255
-0.775994 0.619196 1.705 255 255 255
0.139799 0.12157 0.785 255 255 255
0.0562745 0.133561 0.745 255 255 255
0.191779 -0.232038 1.275 255 255 255
0.364894 0.0978818 0.811 255 255 255
-0.384312 0.0356064 1.085 255 255 255
-0.0786963 -0.423463 1.439 255 255 255
-0.20927 -0.0562326 0.992 0 0 0
0.0986883 0.00916137 0.913 0 0 0
0.109062 -0.0385528 0.994 255 255 255
-0.0320232 -0.128872 1.118 255 255 255
-0.138772 0.162574 0.941 255 255 255
0.0931499 0.00323246 0.917 0 0 0
0.0395315 0.295201 0.855 255 255 255
0.486822 -0.10769 1.106 255 255 255
-0.00787074 0.233632 0.864 255 255 255
0.140462 0.0753457 0.796 255 255 255
-0.641234 0.533781 1.591 255 255 255
0.310612 0.213754 0.631 255 255 255
-0.147235 -0.211666 1.229 0 0 0
0.287646 0.0390519 0.852 0 0 0
-0.211209 -0.020133 0.964 255 255 255
0.0695034 0.191147 0.757 255 255 255
0.227231 0.123393 0.757 0 0 0
0.0148861 0.302057 0.879 255 255 255
-0.675855 -0.336756 1.419 0 0 0
0.46007 -0.238929 1.073 255 255 255
-0.192684 -0.0963734 1.024 255 255 255
-0.165882 0.05855 0.874 255 255 255
-0.252198 -0.393885 1.022 255 255 255
-0.378315 -0.31052 1.073 255 255 255
-0.0159381 -0.129439 1.139 255 255 255
-0.11197 0.0701917 0.843 255 255 255
0.134001 0.293799 0.781 255 255 255
-0.384942 -0.184627 1.072 255 255 255
-0.327808 -0.0353177 0.994 255 255 255
-0.352408 0.039697 1.053 255 255 255
0.00576339 0.167689 0.804 255 255 255
-0.0158402 -0.141538 1.132 255 255 255
-0.393003 0.135854 1.141 255 255 255
-0.68405 -0.478301 1.319 255 255 255
-0.025827 -0.0916892 1.087 255 255 255
-0.08358 0.282435 0.958 255 255 255
-0.0437447 0.249962 0.908 255 255 255
-0.295247 -0.345452 1.057 255 255 255
0.146027 -0.197259 1.239 0 0 0
-0.598557 0.185279 1.369 255 255 255
0.45761 -0.298655 1.032 255 255 255
-0.20134 -0.388008 1.07 255 255 255
0.358452 0.0764111 0.836 255 255 255
-0.0434391 -0.3569 1.435 255 255 255
-0.290328 0.438896 1.225 0 0 0
-0.281308 0.0711587 1.013 255 255 255
-0.168389 0.214321 0.989 255 255 255
0.194558 0.0697808 0.822 255 255 255
0.0667143 -0.317713 1.348 255 255 255
-0.594617 0.59074 1.591 255 255 255
0.31951 0.136885 0.7 255 255 255
-0.335479 -0.272984 1.043 0 0 0
0.293987 0.0272909 0.875 255 255 255
-0.323692 0.0934349 1.06 255 255 255
0.334434 0.109461 0.746 255 255 255
-0.646776 -0.43892 1.406 255 255 255
0.175835 0.00964302 0.961 255 255 255
0.0109574 0.0966749 0.801 255 255 255
-0.355181 -0.227551 1.077 0 0 0
-0.168109 0.184882 0.978 255 255 255
0.333762 0.168422 0.667 255 255 255
0.165087 0.0198616 0.927 255 255 255
0.467837 -0.349605 1 255 255 255
-0.0214077 0.0163721 0.901 255 255 255
0.427935 -0.153804 1.141 255 255 255
0.382226 -0.268481 1.116 255 255 255
0.0552259 0.0394644 0.861 255 255 255
0.132563 -0.32032 1.305 255 255 255
-0.138312 0.222832 0.97 255 255 255
0.3685 0.091849 0.828 255 255 255
-0.589672 -0.220243 1.291 255 255 255
-0.319547 -0.337463 1.081 255 255 255
-0.349671 -0.183191 1.139 255 255 255
-0.222233 -0.266811 1.087 0 0 0
0.320968 -0.409588 1.081 255 255 255
0.00908973 0.0243593 0.872 255 255 255
0.245943 -0.0581033 1.025 255 255 255
-0.016204 -0.156096 1.158 255 255 255
-0.144661 0.0107288 0.92 255 255 255
0.392539 -0.225877 1.13 255 255 255
0.447855 -0.368764 0.999 255 255 255
-0.0270311 -0.351493 1.432 255 255 255
0.372869 0.086322 0.814 255 255 255
-0.0575404 -0.527752 1.381 255 255 255
0.0858856 -0.309055 1.339 255 255 255
-0.172154 -0.27442 1.118 255 255 255
-0.117244 0.369362 1.05 255 255 255
-0.140635 -0.0933374 1.046 0 0 0
-0.57433 -0.51442 1.425 255 255 255
-0.0786351 -0.186292 1.22 0 0 0
0.0764362 0.234416 0.804 255 255 255
-0.0580524 0.266396 0.924 255 255 255
0.0358019 0.132882 0.748 255 255 255
0.404236 0.058655 0.835 0 0 0
0.280431 -0.247263 1.227 255 255 255
-0.0512428 0.294541 0.937 255 255 255
0.194664 0.151972 0.723 255 255 255
-0.109669 0.210045 0.941 255 255 255
0.226929 -0.355486 1.208 255 255 255
-0.688118 -0.247517 1.348 255 255 255
-0.688517 0.01558 1.336 255 255 255
-0.665326 -0.0227606 1.291 255 255 255
0.245465 0.187434 0.669 255 255 255
-0.122585 0.0666248 0.85 255 255 255
-0.327408 -0.160911 1.152 0 0 0
-0.122224 -0.398066 1.484 255 255 255
0.218634 -0.30412 1.239 255 255 255
-0.376781 -0.0460648 1.017 255 255 255
0.051199 0.32924 0.864 255 255 255
0.0190564 0.146144 0.76 255 255 255
-0.807118 0.644129 1.655 255 255 255
-0.237857 -0.222073 1.102 255 255 255
0.53252 -0.136162 1.089 255 255 255
-0.625785 -0.464387 1.4 255 255 255
-0.0197262 0.12286 0.777 255 255 255
-0.365192 -0.162488 1.124 255 255 255
0.407254 -0.189099 1.13 255 255 255
-0.0225253 -0.332828 1.442 255 255 255
0.0102828 -0.146165 1.169 255 255 255
0.0831732 -0.0514933 0.994 255 255 255
0.333286 -0.391996 1.081 255 255 255
-0.627756 0.302841 1.452 255 255 255
-0.264428 0.419475 1.198 255 255 255
-0.557285 -0.308003 1.289 255 255 255
0.0285848 -0.0555543 1.009 255 255 255
-0.102272 -0.0395612 1.02 255 255 255
-0.433659 0.0222929 1.126 255 255 255
0.408741 -0.237181 1.114 255 255 255
0.0280653 -0.363804 1.39 255 255 255
0.0751341 0.205048 0.777 255 255 255
-0.48635 -0.237088 1.247 0 0 0
0.0737932 -0.101945 1.122 255 255 255
-0.494647 0.0942937 1.203 255 255 255
-0.530471 0.497882 1.484 255 255 255
-0.387048 -0.361158 1.073 255 255 255
-0.15114 -0.103749 1.048 0 0 0
0.065622 0.178666 0.741 255 255 255
-0.752331 0.513511 1.677 255 255 255
-0.571571 -0.0913096 1.149 255 255 255
-0.506433 -0.144289 1.154 255 255 255
0.236644 0.016572 0.912 0 0 0
-0.29258 -0.236051 1.092 255 255 255
-0.0692507 0.217167 0.913 255 255 255
-0.640415 -0.231986 1.322 255 255 255
0.386054 0.130355 0.769 255 255 255
-0.442566 0.498013 1.39 255 255 255
-0.740511 0.628446 1.7 255 255 255
-0.00926452 -0.0609598 1.017 255 255 255
-0.619656 0.246245 1.412 255 255 255
-0.658087 -0.0246689 1.281 255 255 255
0.0666654 0.0134545 0.902 0 0 0
0.293118 0.144712 0.722 255 255 255
0.241379 0.119382 0.755 255 255 255
-0.221872 0.439758 1.169 255 255 255
0.448493 -0.26696 1.046 255 255 255
0.195792 0.178923 0.678 255 255 255
-0.624253 0.243947 1.412 255 255 255
0.129796 0.177426 0.685 255 255 255
-0.209421 0.00481747 0.935 255 255 255
0.24267 0.218342 0.615 0 0 0
-0.327977 -0.181848 1.154 255 255 255
-0.143816 -0.189795 1.217 255 255 255
-0.31149 0.45949 1.254 255 255 255
-0.36546 -0.378215 1.092 255 255 255
-0.141692 -0.00882904 0.93 0 0 0
0.223477 0.121569 0.761 0 0 0
-0.120272 -0.346833 1.432 255 255 255
0.273817 -0.333733 1.173 255 255 255
-0.479213 0.0835219 1.189 255 255 255
-0.0468037 0.251994 0.91 0 0 0
0.046892 0.00747385 0.889 255 255 255
0.076065 0.136924 0.737 255 255 255
-0.40369 0.344307 1.281 255 255 255
0.438179 -0.25162 1.075 255 255 255
-0.200989 -0.0582551 0.999 0 0 0
-0.531718 -0.304179 1.273 255 255 255
-0.0823586 0.264481 0.944 255 255 255
-0.5907 -0.122025 1.139 255 255 255
0.123842 -0.469454 1.239 255 255 255
-0.442615 -0.0396849 1.068 255 255 255
-0.642868 -0.463816 1.378 255 255 255
-0.584657 0.363357 1.439 255 255 255
-0.580696 0.346 1.435 255 255 255
0.320555 0.0500849 0.851 255 255 255
0.209577 -0.373796 1.21 255 255 255
-0.0826258 -0.259192 1.387 255 255 255
-0.126113 -0.48141 1.473 255 255 255
-0.435879 0.450388 1.369 255 255 255
0.246847 0.170891 0.704 0 0 0
0.252065 0.0438376 0.893 255 255 255
-0.354609 -0.190271 1.137 255 255 255
-0.443585 -0.0826676 1.062 255 255 255
0.198889 0.104915 0.757 255 255 255
-0.179392 -0.227186 1.165 255 255 255
0.0669507 0.237915 0.816 255 255 255
-0.0275612 0.127795 0.784 255 255 255
-0.367147 0.395085 1.27 255 255 255
0.342227 -0.335678 1.11 255 255 255
0.342745 0.0421194 0.858 255 255 255
-0.351768 -0.238023 1.046 0 0 0
-0.233898 -0.392222 1.022 255 255 255
0.0525952 -0.495196 1.324 255 255 255
0.180528 -0.0294536 0.961 255 255 255
0.145553 0.0121993 0.918 255 255 255
-0.0384962 0.0769343 0.827 255 255 255
-0.0778976 -0.0398327 1.027 255 255 255
0.147829 0.237787 0.73 255 255 255
0.384802 0.130355 0.769 255 255 255
-0.384084 -0.260184 1.06 255 255 255
-0.349462 -0.0974421 1.092 255 255 255
-0.547889 -0.112296 1.116 255 255 255
-0.419971 -0.238994 1.114 255 255 255
0.200723 0.160352 0.703 0 0 0
-0.133471 -0.177327 1.213 255 255 255
-0.0169133 0.283111 0.896 255 255 255
-0.674133 -0.228944 1.342 255 255 255
0.0812803 -0.0103981 0.935 0 0 0
0.189996 0.246857 0.689 255 255 255
0.413754 -0.23951 1.108 255 255 255
-0.333493 0.18289 1.122 255 255 255
0.392284 -0.242969 1.124 255 255 255
0.201273 0.229348 0.646 255 255 255
-0.275241 0.451002 1.22 255 255 255
0.382719 0.0235716 0.896 255 255 255
0.223167 0.171108 0.691 0 0 0
0.335152 0.0903825 0.803 255 255 255
-0.0935096 0.343836 1.015 255 255 255
-0.0178678 -0.314709 1.445 255 255 255
0.405361 -0.202865 1.135 255 255 255
0.468695 -0.249127 1.057 255 255 255
0.477827 -0.212284 1.062 255 255 255
-0.350721 0.345766 1.227 255 255 255
-0.0292353 0.0513209 0.872 0 0 0
0.0475929 -0.404204 1.366 255 255 255
0.480459 -0.229999 1.064 255 255 255
-0.25708 0.122503 1.015 255 255 255
-0.239225 0.109709 0.989 255 255 255
-0.24738 0.463058 1.21 255 255 255
0.303054 -0.255066 1.198 255 255 255
0.133204 0.165789 0.697 255 255 255
-0.120636 -0.229578 1.333 255 255 255
-0.0786444 0.137407 0.869 255 255 255
0.238069 -0.440832 1.139 255 255 255
-0.409453 0.341465 1.286 255 255 255
0.106312 0.0639368 0.833 255 255 255
-0.768183 0.622913 1.7 255 255 255
0.334547 0.0307243 0.892 0 0 0
-0.30991 -0.11048 1.116 255 255 255
-0.217094 0.0539105 0.916 0 0 0
0.00397147 -0.0591882 1.015 255 255 255
0.17628 -0.384771 1.239 255 255 255
0.301999 0.110928 0.756 255 255 255
-0.416656 -0.111693 1.11 255 255 255
0.482877 -0.174506 1.085 255 255 255
-0.0438493 0.312975 0.942 0 0 0
-0.207497 -0.407375 1.057 255 255 255
0.380267 0.104352 0.81 255 255 255
0.532056 -0.164219 1.053 255 255 255
-0.621315 -0.411306 1.39 255 255 255
-0.686397 -0.407453 1.362 255 255 255
-0.567836 0.0957876 1.275 255 255 255
-0.651201 0.443494 1.547 255 255 255
0.425725 -0.364661 1.024 255 255 255
-0.0607539 -0.00445942 0.967 255 255 255
-0.502608 -0.172607 1.194 255 255 255
-0.611318 -0.532338 1.393 255 255 255
-0.338279 0.473308 1.286 255 255 255
-0.0802282 0.102504 0.827 255 255 255
0.450441 -0.211173 1.092 255 255 255
0.0518905 0.209544 0.809 255 255 255
0.0450986 0.033624 0.855 255 255 255
0.210807 -0.448264 1.173 255 255 255
-0.344491 0.0603744 1.055 255 255 255
0.481857 -0.341966 0.992 255 255 255
0.247001 -0.316693 1.21 255 255 255
0.297781 -0.00127688 0.941 0 0 0
0.0183495 0.220569 0.841 255 255 255
-0.00358065 -0.472786 1.378 255 255 255
-0.714061 0.234652 1.484 255 255 255
-0.0465943 0.0612357 0.852 255 255 255
-0.485354 0.0248966 1.162 255 255 255
0.125675 0.0105422 0.904 0 0 0
0.0473161 -0.197736 1.242 255 255 255
-0.905125 0.596962 1.729 255 255 255
0.078908 0.30818 0.83 255 255 255
0.0744834 -0.400045 1.33 255 255 255
-0.695848 0.218378 1.456 255 255 255
-0.169178 -0.0870957 1.013 255 255 255
-0.109893 0.0120266 0.905 0 0 0
0.374716 0.0333259 0.884 255 255 255
-0.754347 0.545452 1.7 0 0 0
-0.211511 -0.157435 1.154 255 255 255
-0.620886 -0.524394 1.384 255 255 255
-0.803468 0.272799 1.579 255 255 255
-0.564803 -0.166778 1.194 255 255 255
-0.662936 0.0456042 1.324 255 255 255
-0.569911 0.0937127 1.275 255 255 255
-0.309761 0.0363963 1.009 255 255 255
-0.233778 0.0107637 0.923 255 255 255
-0.116285 -0.470861 1.47 255 255 255
-0.0456207 0.186444 0.887 255 255 255
0.00464447 -0.123304 1.187 255 255 255
-0.306989 -0.198754 1.112 255 255 255
0.466783 -0.294724 1.03 255 255 255
-0.478407 0.0795182 1.187 255 255 255
-0.163265 -0.318313 1.145 255 255 255
-0.502378 -0.0129225 1.162 255 255 255
0.198904 -0.187924 1.205 0 0 0
0.268534 0.232157 0.599 255 255 255
-0.202281 -0.374076 1.075 255 255 255
0.300774 -0.0339713 1.002 255 255 255
0.0180303 0.154132 0.769 255 255 255
0.199699 -0.45002 1.198 255 255 255
-0.643517 0.231302 1.419 255 255 255
-0.510308 0.0914302 1.217 255 255 255
-0.0929125 -0.535017 1.406 255 255 255
0.0707864 -0.325035 1.342 255 255 255
-0.0184539 0.288769 0.9 255 255 255
-0.63842 0.11199 1.345 255 255 255
0.0644136 -0.0863825 1.087 0 0 0
0.132457 0.269056 0.772 255 255 255
-0.184913 0.208568 1 255 255 255
0.125947 0.0926027 0.811 255 255 255
0.375119 0.0106471 0.913 255 255 255
-0.648184 -0.465044 1.375 255 255 255
0.204621 0.178923 0.678 255 255 255
-0.653254 -0.0806395 1.244 255 255 255
0.155883 -0.334463 1.27 255 255 255
-0.396038 -0.0661024 1.046 255 255 255
0.218623 0.0238084 0.905 255 255 255
0.0695762 0.0926876 0.848 255 255 255
0.433625 -0.310325 1.043 255 255 255
0.392627 0.0452401 0.892 255 255 255
0.0158714 0.0600599 0.855 255 255 255
-0.0473299 0.207817 0.892 255 255 255
0.0611666 0.152464 0.731 255 255 255
0.131377 -0.467559 1.234 255 255 255
0.346936 -0.354779 1.102 255 255 255
0.14756 -0.417332 1.252 255 255 255
0.360901 0.12923 0.748 255 255 255
-0.14708 -0.4679 1.262 255 255 255
0.058905 0.0974891 0.797 255 255 255
-0.5577 0.224614 1.351 255 255 255
0.285944 -0.121377 1.116 255 255 255
0.146847 0.141722 0.737 255 255 255
0.299731 -0.384267 1.12 255 255 255
-0.437628 0.360989 1.327 255 255 255
0.239367 0.130568 0.709 255 255 255
-0.243968 -0.289412 1.066 255 255 255
-0.184384 -0.375332 1.126 255 255 255
0.208463 0.133412 0.765 255 255 255
0.23177 0.191647 0.661 255 255 255
-0.653642 0.19715 1.406 255 255 255
-0.00927717 0.222384 0.864 255 255 255
-0.11235 -0.00569614 0.913 255 255 255
-0.0436636 0.354578 0.972 255 255 255
0.0839182 0.0091714 0.914 0 0 0
-0.658483 0.274487 1.452 255 255 255
0.20102 0.235722 0.652 255 255 255
0.208527 -0.412992 1.227 255 255 255
0.0738016 0.0289446 0.882 255 255 255
-0.092516 -0.541847 1.4 255 255 255
-0.346243 -0.204917 1.116 255 255 255
-0.251385 -0.242918 1.083 255 255 255
0.318801 0.130016 0.706 255 255 255
-0.199521 -0.370201 1.079 255 255 255
0.274649 -0.00125517 0.925 255 255 255
-0.633809 0.320075 1.466 255 255 255
-0.907529 0.331571 1.739 255 255 255
0.354643 -0.167756 1.201 255 255 255
-0.0906646 -0.228432 1.339 255 255 255
0.207176 -0.450922 1.185 255 255 255
0.0687588 0.0864959 0.855 255 255 255
0.370806 -0.400282 1.043 255 255 255
-0.0648663 0.116315 0.82 0 0 0
-0.521432 -0.365353 1.299 255 255 255
-0.0833492 0.357642 1.012 255 255 255
-0.358124 -0.266229 1.03 255 255 255
-0.0767858 0.0828539 0.819 255 255 255
0.113753 0.174612 0.696 255 255 255
0.241148 0.209979 0.632 255 255 255
-0.318731 -0.0236809 0.981 255 255 255
-0.109106 -0.43737 1.47 255 255 255
-0.150547 -0.116156 1.068 255 255 255
0.152945 0.204191 0.674 255 255 255
0.18429 -0.0984065 1.064 255 255 255
0.0139577 -0.481195 1.339 255 255 255
0.288177 0.0259853 0.879 255 255 255
0.0755631 0.278795 0.823 255 255 255
-0.188804 0.153051 0.978 255 255 255
0.0290842 -0.487716 1.333 255 255 255
-0.376407 -0.0063949 1.025 255 255 255
0.235866 0.204305 0.64 255 255 255
-0.0643979 -0.0380871 1.025 255 255 255
0.333645 0.0976526 0.758 255 255 255
-0.685704 -0.448511 1.339 255 255 255
0.223643 0.173977 0.689 255 255 255
-0.133441 -0.0879778 1.043 255 255 255
-0.606872 -0.522402 1.409 255 255 255
0.0947702 0.21721 0.762 255 255 255
0.444773 -0.339332 1.018 255 255 255
0.265196 0.104027 0.778 255 255 255
-0.254067 0.221841 1.072 255 255 255
-0.263976 0.127542 1.029 255 255 255
-0.00393041 0.355904 0.93 0 0 0
-0.756001 0.609881 1.71 255 255 255
-0.453202 0.525456 1.409 255 255 255
-0.263323 -0.226215 1.096 255 255 255
-0.361623 0.163966 1.13 255 255 255
0.525728 -0.157868 1.068 255 255 255
0.118803 0.119718 0.765 255 255 255
0.117783 -0.289663 1.33 255 255 255
0.262337 0.211701 0.631 255 255 255
0.319889 0.16957 0.663 255 255 255
-0.250358 0.438238 1.196 255 255 255
-0.53354 -0.026677 1.185 255 255 255
-0.289373 -0.117175 1.128 255 255 255
-0.132336 0.217637 0.961 255 255 255
0.127854 -0.0892057 1.1 255 255 255
0.141622 -0.111272 1.124 255 255 255
-0.581813 -0.547241 1.432 255 255 255
-0.328085 0.395292 1.232 255 255 255
-0.0226347 -0.313222 1.449 0 0 0
0.000647972 -0.0414516 0.986 255 255 255
0.450097 -0.360807 1.004 255 255 255
0.448205 -0.140288 1.122 255 255 255
0.246074 0.175098 0.689 255 255 255
0.143708 0.183066 0.677 255 255 255
0.0661049 0.24769 0.822 255 255 255
0.190902 -0.0248908 0.966 255 255 255
-0.160979 -0.340204 1.169 0 0 0
0.403082 -0.196166 1.139 255 255 255
0.252301 -0.0262049 1.017 255 255 255
-0.198315 -0.0991887 1.036 255 255 255
0.278938 -0.035124 1.036 255 255 255
-0.18638 -0.36655 1.116 255 255 255
0.122353 0.143534 0.734 255 255 255
-0.0407308 -0.464742 1.422 255 255 255
0.0995791 0.162644 0.708 255 255 255
0.050287 0.19031 0.784 255 255 255
-0.583193 -0.312057 1.324 255 255 255
0.119027 -0.112498 1.118 255 255 255
0.151878 -0.366982 1.254 255 255 255
-0.375606 -0.0695068 1.046 255 255 255
0.495876 -0.0329542 0.972 255 255 255
0.17192 0.116988 0.78 255 255 255
-0.420903 0.21311 1.222 255 255 255
0.159765 0.213281 0.675 255 255 255
0.248414 0.0972987 0.785 255 255 255
-0.496491 0.0744064 1.198 255 255 255
-0.735173 0.0755611 1.4 255 255 255
-0.0154083 -0.345224 1.435 255 255 255
0.279737 0.0170262 0.937 255 255 255
0.283109 -0.430382 1.112 255 255 255
0.299957 -0.321371 1.156 255 255 255
-0.119623 -0.0180058 0.935 255 255 255
-0.413603 0.311083 1.273 255 255 255
0.271884 -0.00277836 0.931 255 255 255
0.208466 -0.355568 1.215 255 255 255
-0.3085 -0.00915182 0.964 255 255 255
-0.502602 0.0828908 1.208 255 255 255
-0.260487 -0.0473444 1.009 255 255 255
-0.132157 -0.267701 1.297 255 255 255
-0.708568 -0.385289 1.362 255 255 255
0.033424 -0.489885 1.333 255 255 255
-0.0560255 0.106724 0.808 255 255 255
0.484598 -0.0481125 0.991 0 0 0
-0.257189 -0.35896 1.022 255 255 255
0.219958 0.107409 0.766 255 255 255
-0.414404 0.0200608 1.104 255 255 255
0.223116 0.0823983 0.777 255 255 255
-0.175524 -0.105756 1.051 255 255 255
0.488416 -0.216036 1.055 255 255 255
-0.103628 -0.214958 1.31 255 255 255
-0.521342 -0.189666 1.229 255 255 255
0.10619 0.126753 0.755 255 255 255
-0.138946 0.285976 1.009 255 255 255
0.314633 -0.236947 1.205 255 255 255
-0.15686 0.0237821 0.904 255 255 255
0.109692 0.181052 0.699 255 255 255
-0.0702911 0.109777 0.821 255 255 255
-0.507831 -0.089424 1.081 255 255 255
0.219189 0.188705 0.662 255 255 255
-0.582706 0.485452 1.513 255 255 255
-0.0723459 0.128112 0.845 255 255 255
-0.127055 -0.414971 1.484 255 255 255
-0.598557 0.196418 1.369 255 255 255
-0.0767657 0.00322189 0.914 0 0 0
-0.461768 -0.130486 1.132 255 255 255
-0.202664 -0.167358 1.096 255 255 255
0.129698 0.225063 0.735 255 255 255
0.0131248 0.155335 0.775 0 0 0
0.307461 -0.0255607 0.992 255 255 255
-0.589275 0.0628846 1.281 255 255 255
0.393519 -0.179018 1.16 255 255 255
0.0506917 -0.304992 1.39 255 255 255
0.021219 0.352228 0.905 255 255 255
-0.136398 -0.535017 1.406 255 255 255
-0.779567 0.534764 1.719 0 0 0
-0.194869 -0.0825558 1.018 255 255 255
-0.0396446 0.0999575 0.796 255 255 255
0.462028 0.00334174 0.948 255 255 255
-0.349643 -0.234921 1.055 0 0 0
-0.518392 0.546181 1.484 255 255 255
0.196456 0.171356 0.692 255 255 255
0.133926 -0.461389 1.239 255 255 255
0.263567 0.0715747 0.812 0 0 0
0.243201 0.0828046 0.793 0 0 0
-0.484221 0.042312 1.173 255 255 255
0.235179 -0.107213 1.083 255 255 255
-0.591627 0.585194 1.583 255 255 255
-0.199716 0.190742 1.009 255 255 255
-0.14714 -0.508666 1.378 255 255 255
-0.086842 -0.519182 1.419 255 255 255
-0.31789 -0.39782 1.041 255 255 255
-0.673635 0.395091 1.535 255 255 255
-0.177367 -0.260354 1.128 255 255 255
0.09524 -0.284809 1.348 255 255 255
0.509475 -0.136162 1.089 255 255 255
-0.39975 -0.0875026 1.079 255 255 255
0.126967 0.138686 0.74 255 255 255
0.169836 -0.132621 1.167 255 255 255
-0.367565 0.161281 1.137 255 255 255
0.171986 0.187959 0.667 255 255 255
-0.155145 -0.0402916 0.997 0 0 0
-0.426678 -0.0994009 1.094 255 255 255
0.184603 0.217289 0.654 255 255 255
0.249757 -0.0156988 0.981 255 255 255
-0.106805 -0.505424 1.439 255 255 255
-0.255541 0.0449948 0.948 255 255 255
-0.347522 -0.375826 1.075 255 255 255
-0.318632 -0.245684 1.072 255 255 255
0.419165 -0.196236 1.108 255 255 255
-0.146556 -0.118888 1.077 255 255 255
-0.183499 -0.161107 1.167 255 255 255
-0.0128628 -0.378753 1.412 255 255 255
0.110938 0.282014 0.798 255 255 255
0.226693 0.213077 0.629 255 255 255
-0.411984 0.0909708 1.137 255 255 255
-0.325725 -0.208858 1.108 255 255 255
0.165239 -0.356816 1.247 255 255 255
-0.66837 -0.464687 1.348 255 255 255
-0.272781 0.143814 1.05 255 255 255
0.370547 0.135809 0.731 255 255 255
-0.812074 0.619196 1.705 255 255 255
-0.523606 -0.00928218 1.18 255 255 255
0.263138 0.148918 0.714 255 255 255
-0.979231 0.496636 1.859 0 0 0
-0.0862229 -0.0692307 1.068 0 0 0
-0.194062 0.350097 1.108 255 255 255
0.301753 0.228575 0.605 255 255 255
-0.220639 0.203092 1.03 255 255 255
0.0943798 0.289604 0.812 255 255 255
0.298323 -0.405393 1.108 255 255 255
-0.0952879 -0.0257411 0.999 255 255 255
0.0505543 -0.446651 1.327 255 255 255
0.11486 0.0451208 0.836 255 255 255
0.0117746 -0.0188146 0.977 255 255 255
0.142155 0.117351 0.791 0 0 0
-0.631067 -0.352811 1.348 0 0 0
0.0164097 0.313845 0.884 255 255 255
-0.659185 -0.301424 1.384 255 255 255
0.207932 0.181129 0.678 255 255 255
0.193657 -0.214766 1.247 255 255 255
-0.575689 0.0143905 1.234 255 255 255
-0.190555 0.432939 1.141 255 255 255
0.152814 -0.0164843 0.935 255 255 255
0.24267 0.219343 0.615 0 0 0
-0.621809 -0.0792134 1.222 255 255 255
0.444943 -0.114409 1.137 0 0 0
0.337443 -0.0654293 0.761 255 255 255
0.197937 0.205988 0.642 255 255 255
-0.63401 -0.042515 1.254 255 255 255
0.375899 -0.405374 1.043 255 255 255
0.294687 -0.0557824 1.044 255 255 255
0.237515 -0.299948 1.222 255 255 255
0.0386531 0.241025 0.836 255 255 255
0.151359 0.0994552 0.792 255 255 255
-0.297765 -0.0533583 1.03 255 255 255
0.0568751 -0.236188 1.275 0 0 0
-0.346161 0.219649 1.152 255 255 255
0.161998 0.261209 0.746 255 255 255
0.297342 0.086322 0.814 255 255 255
0.374103 -0.373009 1.062 255 255 255
-0.145447 0.000250107 0.925 0 0 0
-0.291882 0.0821697 1.027 255 255 255
0.491229 -0.237225 1.05 255 255 255
-0.630278 -0.509796 1.375 255 255 255
-0.0441656 -0.334378 1.459 255 255 255
-0.238998 0.403614 1.169 255 255 255
0.301695 -0.27351 1.185 255 255 255
-0.0580481 -0.0744767 1.094 255 255 255
0.467097 -0.367378 0.978 255 255 255
-0.210985 0.410657 1.141 255 255 255
-0.509455 0.384768 1.406 255 255 255
0.286538 0.229401 0.602 255 255 255
-0.586791 0.222376 1.378 0 0 0
-0.444624 0.304284 1.297 255 255 255
-0.193299 -0.318759 1.114 0 0 0
-0.561233 -0.474981 1.439 255 255 255
-0.0230946 -0.0282089 0.972 255 255 255
-0.0500634 0.049444 0.864 255 255 255
0.0915572 0.00770084 0.916 0 0 0
0.196151 0.211541 0.643 255 255 255
-0.650729 -0.309516 1.39 255 255 255
-0.390968 -0.305233 1.079 255 255 255
-0.116717 -0.135175 1.11 255 255 255
-0.267745 -0.236304 1.085 255 255 255
0.385799 0.0263991 0.893 255 255 255
-0.0364575 0.185345 0.875 255 255 255
-0.146901 0.175687 0.954 255 255 255
0.0689086 -0.350618 1.348 255 255 255
-0.562046 -0.205028 1.262 255 255 255
0.226503 -0.315152 1.227 255 255 255
0.0360603 0.237794 0.839 255 255 255
-0.756439 0.646474 1.668 255 255 255
-0.632937 -0.444347 1.416 255 255 255
0.0988049 -0.475137 1.254 255 255 255
-0.0600476 -0.119419 1.098 255 255 255
-0.146685 -0.182494 1.208 255 255 255
-0.548631 -0.0551804 1.176 255 255 255
0.0789548 0.118473 0.765 255 255 255
-0.0397283 -0.265963 1.387 255 255 255
-0.350894 -0.31311 1.064 0 0 0
0.0865257 0.202929 0.755 255 255 255
0.260488 -0.0766074 1.05 255 255 255
0.0911035 -0.0798723 1.048 255 255 255
-0.238277 0.0920051 0.972 255 255 255
-0.335306 -0.347739 1.064 255 255 255
-0.542549 0.490637 1.484 255 255 255
0.167581 -0.00587083 0.941 0 0 0
-0.301465 -0.155388 1.139 0 0 0
-0.305231 -0.0254834 0.989 255 255 255
0.146239 0.233582 0.728 255 255 255
0.0911254 0.23624 0.784 255 255 255
-0.549071 0.109879 1.27 255 255 255
0.331716 -0.228577 1.182 255 255 255
-0.364913 -0.145914 1.152 255 255 255
-0.0888064 -0.123217 1.1 255 255 255
0.00315555 -0.462579 1.381 255 255 255
-0.187382 -0.19689 1.122 255 255 255
-0.319547 0.141024 1.081 255 255 255
0.145481 0.188017 0.675 255 255 255
0.0748692 -0.064017 1.013 255 255 255
0.0209119 0.0450128 0.834 255 255 255
-0.375515 -0.382784 1.07 255 255 255
-0.213568 -0.374989 1.053 0 0 0
-0.104898 -0.495774 1.445 255 255 255
-0.00838999 0.335973 0.921 255 255 255
0.272111 0.0124518 0.937 255 255 255
0.1254 0.152182 0.724 255 255 255
0.0532617 0.310803 0.852 255 255 255
-0.317451 0.493241 1.278 255 255 255
0.276776 -0.172607 1.194 0 0 0
-0.674034 0.631501 1.686 0 0 0
-0.0203622 0.185716 0.857 255 255 255
-0.702263 0.36953 1.543 255 255 255
0.425758 -0.28943 1.079 255 255 255
-0.531455 0.379891 1.422 255 255 255
-0.462949 0.0342331 1.158 255 255 255
0.365219 0.00622376 0.918 255 255 255
-0.17548 -0.293906 1.116 255 255 255
0.294914 -0.428305 1.102 255 255 255
-0.171501 -0.0708897 1.017 255 255 255
-0.288025 -0.27786 1.075 255 255 255
0.289535 -0.0208222 0.997 255 255 255
0.412459 -0.336834 1.041 255 255 255
0.199822 -0.109716 1.073 255 255 255
-0.132699 -0.198867 1.262 255 255 255
0.416139 -0.248521 1.1 255 255 255
0.204519 -0.445826 1.192 255 255 255
0.267466 -0.362749 1.162 255 255 255
-0.415374 -0.0521337 1.039 255 255 255
0.197665 -0.206503 1.234 0 0 0
0.270689 -0.346069 1.176 255 255 255
0.200532 -0.436237 1.203 255 255 255
0.232616 -0.423687 1.158 255 255 255
0.400476 0.117738 0.785 255 255 255
-0.618876 -0.170081 1.232 255 255 255
-0.564493 -0.0252707 1.21 255 255 255
0.165566 0.116609 0.786 255 255 255
-0.241914 -0.10315 1.096 255 255 255
-0.367731 0.346508 1.244 255 255 255
0.263521 0.193695 0.657 255 255 255
0.33314 0.0254767 0.912 0 0 0
0.204802 0.174336 0.686 255 255 255
-0.312061 0.177191 1.098 255 255 255
0.295235 0.0577765 0.842 255 255 255
0.191677 0.176908 0.683 255 255 255
0.337547 0.0280707 0.9 0 0 0
-0.459103 0.467137 1.406 255 255 255
0.238213 0.162874 0.709 0 0 0
0.118865 0.0781854 0.826 255 255 255
0.329577 -0.0628698 0.76 255 255 255
0.469666 -0.147553 1.108 255 255 255
0.0294059 0.241958 0.844 255 255 255
-0.595945 0.472859 1.528 255 255 255
0.269711 -0.0541871 1.046 255 255 255
-0.760042 0.490575 1.664 255 255 255
-0.148736 0.0389917 0.882 255 255 255
0.108436 0.246458 0.78 255 255 255
-0.449087 -0.236986 1.176 0 0 0
-0.697357 0.643527 1.696 255 255 255
0.215524 0.147415 0.718 255 255 255
-0.791556 0.314249 1.607 255 255 255
0.167315 -0.0277736 0.957 0 0 0
0.354171 0.0879212 0.842 255 255 255
-0.280949 -0.382422 1.036 255 255 255
-0.329343 0.161696 1.102 255 255 255
0.157372 -0.396006 1.249 255 255 255
0.322905 0.167336 0.667 0 0 0
0.329726 -0.192641 1.21 255 255 255
0.280707 -0.336276 1.162 255 255 255
-0.121812 0.0149886 0.906 255 255 255
0.224013 0.209281 0.633 255 255 255
-0.0534953 0.206292 0.898 255 255 255
0.048011 -0.342724 1.378 255 255 255
0.0611088 0.222709 0.809 255 255 255
0.295478 0.194343 0.652 255 255 255
-0.625221 -0.455907 1.409 255 255 255
-0.28115 -0.396887 1.043 255 255 255
0.182036 -0.420384 1.237 255 255 255
-0.562732 -0.430938 1.425 0 0 0
0.194434 -0.305274 1.252 255 255 255
0.317669 0.0917221 0.792 255 255 255
-0.373188 -0.246063 1.044 255 255 255
0.318521 0.0123588 0.93 255 255 255
-0.323905 -0.402364 1.044 255 255 255
0.408934 0.0931964 0.828 0 0 0
0.136307 0.0572276 0.834 255 255 255
0.0129385 0.144427 0.764 255 255 255
-0.34369 0.113295 1.085 255 255 255
0.159434 0.204853 0.669 255 255 255
-0.545658 -0.043921 1.182 255 255 255
0.268604 0.100235 0.788 255 255 255
0.410573 -0.370869 1.032 255 255 255
0.213155 0.250429 0.66 255 255 255
0.192235 -0.199017 1.225 0 0 0
-0.0135745 0.222256 0.869 255 255 255
0.487692 -0.0348558 0.981 255 255 255
0.216454 0.222289 0.629 255 255 255
-0.343423 -0.30933 1.057 0 0 0
-0.0351133 0.204322 0.877 255 255 255
-0.273968 -0.337394 1.048 255 255 255
-0.452612 -0.0123887 1.114 255 255 255
0.165833 -0.231406 1.283 0 0 0
-0.12869 -0.125529 1.089 0 0 0
-0.516681 -0.0206803 1.173 255 255 255
0.187754 -0.0984065 1.064 255 255 255
-0.407941 0.381363 1.308 255 255 255
0.207789 0.108754 0.758 255 255 255
0.239237 0.11954 0.756 255 255 255
0.275537 -0.125233 1.118 255 255 255
-0.456041 0.252482 1.27 255 255 255
0.333071 0.155811 0.688 255 255 255
-0.511029 0.588198 1.505 255 255 255
0.209194 -0.00610167 0.978 255 255 255
0.320132 0.0575707 0.839 255 255 255
-0.245187 -0.261335 1.079 0 0 0
-0.243875 -0.356395 1.029 255 255 255
0.32487 0.143203 0.692 255 255 255
-0.586684 0.188071 1.357 255 255 255
-0.045422 0.0121196 0.912 255 255 255
-0.0214272 0.170538 0.844 255 255 255
0.154348 -0.177088 1.225 255 255 255
-0.210938 -0.372973 1.057 0 0 0
-0.180657 0.291039 1.051 255 255 255
-0.52462 0.0925571 1.232 255 255 255
-0.463339 -0.247268 1.198 0 0 0
-0.0455033 0.0896304 0.808 255 255 255
-0.567144 0.121123 1.302 255 255 255
-0.27266 0.136066 1.043 255 255 255
0.181687 0.211225 0.655 255 255 255
-0.31805 -0.055355 1.036 255 255 255
0.256849 -0.287157 1.21 255 255 255
-0.448432 0.0506185 1.145 255 255 255
-0.404826 0.311186 1.265 255 255 255
0.312194 0.172245 0.665 255 255 255
-0.628103 -0.485951 1.39 255 255 255
-0.250443 0.0211626 0.918 255 255 255
0.0430423 0.264678 0.842 255 255 255
0.114316 0.231481 0.76 255 255 255
-0.250084 0.186176 1.048 255 255 255
0.265961 -0.234617 1.234 255 255 255
0.240563 0.124911 0.723 255 255 255
-0.36601 0.278778 1.205 255 255 255
-0.0424667 -0.192323 1.208 0 0 0
0.38772 -0.171188 1.171 255 255 255
0.0420579 0.128526 0.751 255 255 255
-0.617023 -0.477817 1.406 255 255 255
0.0671194 -0.439802 1.313 0 0 0
0.276354 0.220265 0.612 255 255 255
-0.668418 -0.0186451 1.297 255 255 255
0.0809748 -0.0851905 1.072 255 255 255
-0.0413004 0.128278 0.803 255 255 255
0.398352 -0.351396 1.044 255 255 255
-0.196052 -0.366543 1.089 255 255 255
-0.0570541 -0.49355 1.425 255 255 255
0.0409731 -0.139385 1.176 255 255 255
-0.412717 0.0583122 1.114 255 255 255
0.0880069 -0.466495 1.275 255 255 255
0.454291 0.0222616 0.902 255 255 255
-0.463348 0.503785 1.419 255 255 255
0.304057 0.121839 0.755 255 255 255
-0.227864 -0.0605402 1.01 0 0 0
-0.820794 0.644868 1.65 255 255 255
0.304461 -0.374665 1.124 255 255 255
0.21335 0.23061 0.635 255 255 255
0.249493 0.124095 0.705 255 255 255
0.166054 0.0469261 0.82 255 255 255
0.117013 0.139512 0.738 255 255 255
0.278923 0.125103 0.731 255 255 255
0.379597 -0.0466537 1.03 0 0 0
0.0948996 0.0699419 0.84 0 0 0
0.226842 0.222494 0.621 255 255 255
-0.20091 0.0484131 0.897 255 255 255
0.0744614 0.252294 0.811 255 255 255
-0.171965 -0.081907 1.01 0 0 0
0.284128 -0.426481 1.116 255 255 255
0.146163 0.133592 0.752 255 255 255
-0.430483 0.447098 1.359 255 255 255
0.299788 -0.0174187 0.988 255 255 255
0.178488 0.1995 0.655 255 255 255
0.267324 0.206781 0.638 255 255 255
0.311764 0.182446 0.655 255 255 255
-0.831496 0.633588 1.677 255 255 255
0.225064 0.12479 0.758 0 0 0
-0.716964 -0.322919 1.409 0 0 0
0.0361101 0.110783 0.781 255 255 255
-0.0494063 -0.00941764 0.992 255 255 255
0.484952 -0.0123148 0.966 255 255 255
-0.143618 -0.506656 1.456 255 255 255
0.366217 0.0909388 0.832 255 255 255
0.139126 0.16058 0.704 255 255 255
0.119932 0.165127 0.699 255 255 255
-0.364636 0.0138073 1.039 255 255 255
-0.515814 0.28928 1.345 255 255 255
0.311247 -0.311965 1.156 255 255 255
-0.188196 -0.304803 1.116 255 255 255
-0.129502 0.249367 0.975 255 255 255
0.187018 0.196303 0.655 255 255 255
-0.487723 0.440504 1.416 255 255 255
-0.495339 -0.0765393 1.073 255 255 255
0.308537 -0.0123658 0.97 255 255 255
-0.575356 0.405129 1.463 0 0 0
0.497492 -0.277481 1.004 255 255 255
-0.271072 -0.329494 1.05 255 255 255
0.253425 0.206457 0.637 255 255 255
0.221808 -0.0836806 1.053 255 255 255
-0.181904 -0.145027 1.145 255 255 255
0.277709 0.218342 0.615 255 255 255
-0.506304 -0.029838 1.158 255 255 255
-0.290169 0.188869 1.083 255 255 255
0.368755 -0.362332 1.087 255 255 255
0.334869 0.0291743 0.889 0 0 0
-0.138772 0.159511 0.941 255 255 255
0.515265 -0.122097 1.09 255 255 255
-0.0534031 0.0624751 0.85 255 255 255
0.122375 0.270786 0.788 255 255 255
0.414807 -0.366798 1.03 255 255 255
-0.257644 0.181578 1.051 255 255 255
-0.00347397 0.0844951 0.822 255 255 255
0.083845 0.126418 0.753 255 255 255
0.115812 0.139512 0.738 255 255 255
-0.0426353 -0.113499 1.11 255 255 255
0.0734459 0.0744927 0.861 255 255 255
0.220679 -0.39307 1.185 255 255 255
-0.476505 0.423367 1.39 255 255 255
0.451657 -0.381615 0.986 255 255 255
-0.128327 -0.00874359 0.921 0 0 0
0.478459 -0.173059 1.087 255 255 255
-0.532974 -0.222707 1.281 255 255 255
0.393367 0.0308965 0.897 255 255 255
0.214022 0.206457 0.637 0 0 0
0.0436195 -0.372685 1.381 0 0 0
0.200869 0.0258399 0.925 255 255 255
0.317988 0.16495 0.675 0 0 0
-0.1815 0.31254 1.066 255 255 255
0.227021 -0.0608399 1.015 255 255 255
-0.810742 0.429324 1.668 255 255 255
0.00669528 -0.0134268 0.934 255 255 255
-0.606052 0.207129 1.381 255 255 255
-0.188455 0.117427 0.96 255 255 255
0.208624 0.0808306 0.799 255 255 255
0.0320179 0.0933434 0.806 255 255 255
-0.0831611 0.147471 0.887 255 255 255
0.072766 0.168424 0.728 255 255 255
-0.165097 -0.414175 1.132 0 0 0
-0.315476 0.390095 1.222 255 255 255
0.0218301 -0.13173 1.176 255 255 255
0.382463 0.0292727 0.892 255 255 255
-0.012434 -0.1071 1.158 255 255 255
0.0855944 -0.489466 1.27 255 255 255
0.181084 0.0768337 0.798 255 255 255
-0.593953 0.296584 1.422 255 255 255
0.326826 0.147067 0.689 255 255 255
0.240432 0.170405 0.702 0 0 0
-0.175072 0.389448 1.102 255 255 255
0.251229 0.0820281 0.798 0 0 0
-0.794395 0.633374 1.691 255 255 255
-0.421401 -0.00853489 1.085 255 255 255
-0.10354 0.0178383 0.901 0 0 0
-0.103202 0.241935 0.952 255 255 255
0.362928 -0.268925 1.141 255 255 255
-0.25993 0.369371 1.169 255 255 255
-0.403455 -0.0954022 1.089 255 255 255
0.081161 -0.370578 1.333 255 255 255
-0.370953 0.0209268 1.057 255 255 255
-0.366565 -0.363332 1.09 255 255 255
0.161728 0.0807946 0.786 255 255 255
0.396577 -0.0619289 1.062 255 255 255
-0.221311 0.0994 0.967 255 255 255
-0.610463 -0.512025 1.412 255 255 255
0.122479 0.137853 0.742 255 255 255
-0.362568 -0.168832 1.094 0 0 0
-0.183013 0.10516 0.948 255 255 255
0.445892 -0.306556 1.036 255 255 255
0.476247 -0.286325 1.036 255 255 255
0.111259 -0.00128095 0.944 0 0 0
0.261117 -0.164264 1.176 0 0 0
0.496715 -0.110686 1.1 0 0 0
0.245468 0.218048 0.617 255 255 255
0.227717 0.235596 0.629 255 255 255
-0.356388 -0.0370467 0.997 255 255 255
-0.455091 0.0151893 1.143 255 255 255
0.303756 0.210273 0.636 255 255 255
0.055528 -0.0056899 0.912 0 0 0
-0.0565271 0.161507 0.877 255 255 255
-0.368906 -0.202675 1.066 255 255 255
0.0603049 0.140141 0.735 255 255 255
0.156192 -0.00432107 0.937 255 255 255
0.144168 0.250954 0.748 255 255 255
-0.614556 -0.0999556 1.185 255 255 255
-0.625221 -0.451322 1.409 255 255 255
0.0263739 0.0382727 0.835 255 255 255
-0.415304 0.268202 1.247 255 255 255
0.251788 0.171133 0.705 255 255 255
0.225601 0.113345 0.764 255 255 255
0.22012 -0.168949 1.182 0 0 0
-0.500486 -0.00157677 1.162 0 0 0
0.0949663 0.0234664 0.892 255 255 255
0.12394 0.0625812 0.833 0 0 0
-0.106953 0.272326 0.972 255 255 255
0.0594163 0.117994 0.77 255 255 255
0.132438 0.21014 0.705 255 255 255
0.318901 -0.406648 1.092 255 255 255
-0.427573 0.353714 1.316 255 255 255
0.488105 -0.286065 1.029 255 255 255
0.446959 -0.374516 0.997 255 255 255
0.282042 -0.355878 1.152 255 255 255
0.252352 -0.350593 1.198 255 255 255
0.215675 0.150909 0.707 255 255 255
0.447307 -0.32672 1.02 255 255 255
0.237875 -0.432729 1.147 255 255 255
0.162641 0.00804553 0.957 255 255 255
0.110052 0.294805 0.801 255 255 255
-0.609 0.402095 1.487 255 255 255
-0.137441 -0.39088 1.196 255 255 255
0.148987 0.292048 0.773 255 255 255
-0.648621 -0.480042 1.348 255 255 255
0.541078 -0.141693 1.064 255 255 255
-0.140365 -0.22347 1.239 255 255 255
-0.551138 -0.326196 1.27 255 255 255
0.402291 -0.05054 1.041 255 255 255
0.0647406 0.300599 0.839 255 255 255
