ply
format ascii 1.0
comment Created by Open3D
element vertex 1316
property double x
property double y
property double z
property uchar red
property uchar green
property uchar blue
end_header
0.313826 -0.483422 1.265 255 255 255
-0.0923981 -0.321703 1.302 255 255 255
-0.533213 0.0830934 1.452 255 255 255
-0.258321 0.00217288 1.145 255 255 255
-0.386305 -0.200091 1.416 255 255 255
-0.57113 0.53694 1.682 255 255 255
0.249203 -0.201865 0.92 0 0 0
-0.546533 0.0643672 1.456 255 255 255
-0.361974 -0.307428 1.351 255 255 255
0.0319349 0.0436565 1.066 255 255 255
-0.730486 -0.339015 1.696 255 255 255
0.310958 -0.0730131 0.958 255 255 255
0.1798 0.104875 0.974 255 255 255
0.506649 -0.383128 1.122 255 255 255
0.543869 -0.362885 1.094 255 255 255
-0.454701 0.0628864 1.372 255 255 255
0.540199 -0.125763 1.192 255 255 255
-0.0144097 -0.423309 1.342 255 255 255
0.383412 0.180665 0.84 255 255 255
0.152062 -0.23627 0.969 255 255 255
0.104956 0.168315 0.833 255 255 255
0.204684 -0.175067 0.883 255 255 255
-0.0121705 -0.440983 1.336 255 255 255
-0.211468 -0.191484 1.254 255 255 255
-0.268575 0.0526651 1.149 255 255 255
-0.252441 -0.300684 1.225 255 255 255
-0.681131 0.107827 1.535 255 255 255
-0.150079 -0.274529 1.27 255 255 255
-0.294164 0.0769933 1.208 255 255 255
0.0632436 -0.0462652 0.986 0 0 0
0.342779 0.115754 0.91 255 255 255
0.0388782 -0.340799 1.456 255 255 255
0.0655658 0.291712 0.928 255 255 255
0.013365 0.248289 0.977 255 255 255
0.480953 -0.405615 1.139 255 255 255
0.00218215 0.200737 0.955 255 255 255
-0.0296782 -0.111922 1.169 255 255 255
0.253792 -0.463523 1.351 255 255 255
0.0640273 0.354282 0.95 255 255 255
0.132217 0.186616 0.801 255 255 255
-0.11188 0.262958 1.098 255 255 255
0.536922 -0.406557 1.073 255 255 255
0.0871246 -0.0408106 0.901 255 255 255
0.173464 0.143774 0.9 255 255 255
0.570949 -0.124096 1.141 255 255 255
0.192822 -0.484903 1.387 255 255 255
0.305846 -0.195461 0.947 255 255 255
0.121931 -0.0618824 0.909 0 0 0
-0.226113 -0.106796 1.291 255 255 255
0.327575 0.0894 0.961 255 255 255
0.406254 0.174244 0.842 255 255 255
0.489781 0.0968147 0.957 255 255 255
0.229872 -0.248647 1.013 255 255 255
0.211264 -0.0588349 0.931 255 255 255
-0.302344 0.20034 1.267 255 255 255
-0.281672 -0.214137 1.305 255 255 255
-0.166016 -0.325266 1.22 255 255 255
-0.0873025 0.226257 1.06 255 255 255
-0.146628 0.344791 1.176 255 255 255
0.339048 0.254337 0.682 255 255 255
0.0942672 0.00780172 0.928 255 255 255
-0.49534 -0.322235 1.502 255 255 255
-0.0164559 -0.0915415 1.176 255 255 255
0.0599118 -0.151857 0.984 255 255 255
0.224875 0.238552 0.718 255 255 255
-0.117768 0.301033 1.12 255 255 255
0.429494 -0.120635 1.26 255 255 255
-0.293064 0.313208 1.299 255 255 255
-0.678632 -0.0770214 1.535 255 255 255
-0.662872 0.204452 1.587 255 255 255
-0.730194 -0.0766741 1.435 255 255 255
0.256959 0.168036 0.812 0 0 0
-0.661021 0.189909 1.595 255 255 255
-0.327526 0.315545 1.345 255 255 255
-0.369734 -0.447231 1.316 255 255 255
0.252778 0.247932 0.692 255 255 255
0.105291 0.173412 0.825 255 255 255
-0.668828 0.133845 1.547 255 255 255
0.110707 -0.207243 0.966 0 0 0
0.444841 -0.0344345 1.257 0 0 0
0.0833673 -0.0219187 0.908 255 255 255
0.330707 0.242375 0.702 255 255 255
-0.0620364 -0.287286 1.381 255 255 255
0.413526 0.0548575 1.048 255 255 255
-0.050004 0.189797 1.004 255 255 255
0.140306 0.299007 0.85 255 255 255
-0.277271 -0.0188514 1.178 255 255 255
0.299001 -0.426657 1.299 255 255 255
-0.152364 -0.371537 1.222 255 255 255
0.0309606 -0.244389 1.419 255 255 255
0.438056 0.0042653 1.21 255 255 255
0.402288 -0.404998 1.215 255 255 255
-0.434072 -0.103996 1.336 255 255 255
-0.490394 0.254485 1.487 255 255 255
-0.268308 -0.128894 1.302 255 255 255
0.165081 0.190632 0.796 255 255 255
-0.0432868 -0.333084 1.357 255 255 255
0.267091 0.0599977 0.992 0 0 0
0.285734 0.243171 0.701 255 255 255
-0.335599 0.345681 1.369 255 255 255
0.458191 -0.425262 1.147 255 255 255
0.031397 -0.374287 1.439 255 255 255
0.121675 -0.430467 1.513 255 255 255
0.128245 -0.520279 1.422 255 255 255
0.472826 -0.343248 1.16 255 255 255
-0.0512975 0.105578 0.938 255 255 255
-0.10308 -0.200883 1.359 255 255 255
0.147991 0.269334 0.831 255 255 255
-0.469924 -0.442376 1.432 255 255 255
0.206642 0.0768929 0.981 255 255 255
0.571155 -0.172228 1.116 255 255 255
-0.0956687 -0.125025 1.185 255 255 255
-0.611005 -0.395023 1.642 255 255 255
-0.621662 0.109232 1.555 255 255 255
-0.0661929 -0.536478 1.422 255 255 255
0.395846 0.144593 0.896 255 255 255
0.237791 -0.0544648 0.934 255 255 255
-0.554145 -0.208321 1.509 255 255 255
0.340528 0.0799295 0.999 255 255 255
0.307502 0.0371538 1.03 255 255 255
-0.113686 -0.120154 1.234 0 0 0
0.0218301 -0.0398705 1.176 255 255 255
0.333063 0.234898 0.707 0 0 0
0.507977 -0.158247 1.203 255 255 255
-0.519756 -0.237789 1.509 255 255 255
0.499313 -0.191209 1.201 255 255 255
-0.915 -0.441685 1.941 0 0 0
-0.686128 0.0129048 1.535 255 255 255
-0.383625 0.121289 1.327 255 255 255
-0.266223 0.453436 1.345 255 255 255
-0.0268424 -0.251848 1.422 255 255 255
-0.278448 0.509377 1.384 255 255 255
-0.471186 -0.371206 1.543 255 255 255
0.316758 0.0947596 0.952 255 255 255
-0.575654 -0.48042 1.547 255 255 255
0.294235 0.176107 0.851 255 255 255
-0.618807 -0.229078 1.567 255 255 255
0.0931499 -0.0057211 0.917 255 255 255
0.469453 -0.326123 1.18 255 255 255
0.485512 -0.356194 1.141 255 255 255
0.260736 -0.263105 1.051 0 0 0
-0.124778 -0.326971 1.265 255 255 255
0.190736 -0.508684 1.372 255 255 255
0.473398 -0.208984 1.225 255 255 255
-0.327674 0.561229 1.442 255 255 255
0.0614339 -0.121233 1.009 255 255 255
0.564386 -0.159095 1.139 255 255 255
-0.679239 0.00042802 1.583 255 255 255
-0.283589 -0.255354 1.257 255 255 255
-0.128943 -0.284266 1.286 255 255 255
-0.559859 0.144232 1.498 255 255 255
0.270781 -0.494346 1.316 255 255 255
-0.721959 -0.621397 1.633 255 255 255
0.336039 0.235714 0.706 0 0 0
0.00652681 -0.118535 1.178 255 255 255
0.0416477 0.00499265 0.969 0 0 0
0.543226 -0.058405 1.203 255 255 255
-0.185307 0.195613 1.143 255 255 255
0.522174 -0.417811 1.075 255 255 255
0.381381 0.103508 0.947 255 255 255
0.454938 -0.279973 1.213 255 255 255
0.153124 0.0917257 0.986 255 255 255
-0.336224 -0.446104 1.319 255 255 255
-0.12792 0.43897 1.198 255 255 255
-0.697021 0.674267 1.865 255 255 255
-0.588756 -0.242507 1.555 255 255 255
0.457728 -0.0178545 1.242 255 255 255
-0.463427 -0.278156 1.463 255 255 255
-0.639289 -0.468136 1.225 255 255 255
-0.123394 0.0606198 1.03 255 255 255
0.505535 0.0740147 1.007 255 255 255
0.144117 -0.120562 0.928 255 255 255
-0.587876 0.1043 1.52 255 255 255
0.248463 0.0990397 0.995 255 255 255
-0.502615 -0.0584708 1.339 255 255 255
0.0541198 -0.301468 1.484 255 255 255
-0.143012 0.00964286 1.147 255 255 255
-0.682393 -0.0139841 1.473 255 255 255
0.296795 0.223562 0.734 255 255 255
0.523774 -0.336876 1.108 255 255 255
-0.0594974 0.132789 0.947 255 255 255
0.169587 -0.133752 0.895 255 255 255
0.168364 -0.0671257 0.963 255 255 255
-0.33189 -0.370435 1.302 255 255 255
0.52449 -0.161218 1.196 255 255 255
0.0397729 -0.0591803 1.044 255 255 255
-0.641826 0.231282 1.612 255 255 255
-0.982257 -0.0600014 1.859 0 0 0
0.167041 0.26089 0.793 255 255 255
-0.450331 -0.18565 1.429 0 0 0
-0.0163394 0.371359 1.046 255 255 255
0.30901 0.0978581 0.952 255 255 255
0.166863 -0.442682 1.456 255 255 255
0.234386 -0.112177 0.909 255 255 255
-0.181456 -0.29872 1.217 255 255 255
0.485764 -0.130575 1.257 0 0 0
0.11491 -0.0843485 0.912 255 255 255
0.198814 0.166295 0.823 0 0 0
0.00855906 -0.0113353 1.194 255 255 255
0.277946 -0.152768 0.931 255 255 255
0.251522 0.219639 0.745 255 255 255
-0.29447 0.144919 1.234 255 255 255
-0.138648 0.237357 1.112 255 255 255
0.229485 0.263661 0.707 255 255 255
-0.786652 0.560269 1.646 255 255 255
0.150751 0.0816821 0.981 255 255 255
-0.0389581 -0.10747 1.162 255 255 255
0.382775 0.13577 0.886 255 255 255
0.563401 -0.0824599 1.156 255 255 255
-0.0815356 -0.450485 1.265 255 255 255
-0.056191 0.315658 1.059 255 255 255
-0.118943 -0.393343 1.247 255 255 255
-0.17508 0.196436 1.137 255 255 255
-0.744551 0.193989 1.487 255 255 255
-0.230283 -0.422533 1.203 0 0 0
0.254738 -0.197358 0.913 0 0 0
-0.340801 -0.14922 1.372 255 255 255
0.232983 -0.0926747 0.921 255 255 255
0.300156 0.252848 0.687 255 255 255
0.262247 0.103584 0.992 255 255 255
0.113693 0.255745 0.858 255 255 255
0.117362 -0.0825009 0.908 255 255 255
-0.681876 0.101089 1.509 255 255 255
0.225376 0.279748 0.731 255 255 255
0.070838 -0.570402 1.48 255 255 255
-0.84119 0.377456 1.691 0 0 0
0.188146 0.229896 0.739 255 255 255
-0.673519 0.70151 1.81 255 255 255
0.337087 -0.402611 1.283 255 255 255
0.338243 0.147007 0.82 255 255 255
-0.0447907 0.362412 1.075 255 255 255
-0.00679352 0.139141 0.908 255 255 255
-0.665129 -0.171165 1.387 255 255 255
-0.0155428 0.272293 0.995 255 255 255
-0.142499 0.3169 1.158 255 255 255
-0.824338 0.669038 1.719 0 0 0
0.360179 0.0912761 0.948 0 0 0
0.287635 -0.491447 1.286 255 255 255
0.241865 0.0141705 0.95 255 255 255
0.329232 0.25173 0.687 255 255 255
-0.389072 0.42142 1.47 255 255 255
0.0521415 -0.0545001 1.02 0 0 0
-0.682086 -0.275931 1.633 255 255 255
0.222058 0.21436 0.752 255 255 255
0.158088 0.082939 0.977 255 255 255
0.0252999 0.382853 1.009 255 255 255
-0.0222206 0.25515 1.004 255 255 255
-0.0333256 0.204082 0.994 0 0 0
-0.652207 -0.0564804 1.52 255 255 255
-0.571522 0.165701 1.516 255 255 255
-0.186674 0.436345 1.252 255 255 255
0.500405 -0.261864 1.176 255 255 255
-0.725674 0.227115 1.498 255 255 255
0.0344266 0.233757 0.944 255 255 255
-0.0286147 0.221366 0.999 255 255 255
0.230292 0.175719 0.793 0 0 0
-0.0364128 0.15607 0.948 255 255 255
-0.0893382 0.155251 1.024 255 255 255
0.250586 0.11008 0.978 255 255 255
0.482672 -0.0931588 1.249 255 255 255
0.0189674 -0.0744241 1.12 0 0 0
-0.174651 -0.164533 1.299 255 255 255
-0.422914 0.0767985 1.342 255 255 255
0.0542302 0.0186302 0.941 0 0 0
-0.250407 0.143262 1.187 255 255 255
0.391649 0.18848 0.809 255 255 255
-0.0648273 0.092857 0.981 255 255 255
-0.238722 0.405819 1.291 255 255 255
0.2432 0.0914008 1 255 255 255
-0.151391 0.245842 1.126 255 255 255
0.270586 -0.124781 0.937 255 255 255
0.569108 -0.233136 1.112 255 255 255
-0.0824053 -0.417694 1.247 255 255 255
0.152659 -0.252481 0.983 255 255 255
0.151882 0.0814323 0.978 255 255 255
-0.670396 -0.343123 1.624 255 255 255
0.525578 -0.340483 1.108 255 255 255
-0.113301 0.340499 1.13 255 255 255
-0.148496 0.218625 1.118 255 255 255
0.131366 -0.14414 0.934 255 255 255
-0.750543 0.522934 1.655 255 255 255
-0.673071 0.373674 1.65 255 255 255
-0.959234 -0.52381 1.941 255 255 255
0.0929755 0.167361 0.835 255 255 255
0.398191 0.12141 0.908 255 255 255
0.130818 -0.177378 0.941 255 255 255
0.506623 -0.333187 1.126 255 255 255
-0.301226 -0.0419387 1.237 255 255 255
0.305206 0.201689 0.737 255 255 255
-0.176536 -0.214087 1.267 255 255 255
-0.269908 -0.448704 1.26 0 0 0
-0.192452 -0.475348 1.305 0 0 0
0.169113 0.00944233 0.941 255 255 255
-0.889018 0.371349 1.899 0 0 0
0.582269 -0.0723588 1.145 255 255 255
0.124599 0.00335584 0.952 0 0 0
0.290758 0.209376 0.743 0 0 0
-0.191296 -0.175034 1.283 255 255 255
-0.701132 0.64161 1.876 0 0 0
-0.684801 -0.140639 1.333 255 255 255
0.3002 -0.374207 1.362 255 255 255
-0.551974 -0.370738 1.595 255 255 255
-0.159435 -0.179126 1.313 255 255 255
0.171988 -0.0589207 0.957 255 255 255
-0.686788 0.187037 1.509 255 255 255
-0.326537 0.171284 1.281 255 255 255
-0.335366 -0.00544169 1.18 255 255 255
0.390555 -0.299996 1.247 255 255 255
0.0612552 0.365471 0.955 255 255 255
0.262244 -0.375747 1.384 255 255 255
0.551193 -0.198236 1.162 255 255 255
0.124882 -0.0421695 0.931 0 0 0
-0.14084 -0.23146 1.319 255 255 255
0.13358 0.207424 0.786 255 255 255
0.164891 -0.0834003 0.952 255 255 255
-0.330533 -0.341704 1.322 255 255 255
0.508381 -0.419338 1.102 255 255 255
-0.10899 0.235558 1.087 255 255 255
-0.651695 0.325395 1.664 255 255 255
0.199401 0.023545 0.954 255 255 255
-0.0926959 -0.200133 1.369 0 0 0
-0.0742119 -0.29996 1.357 255 255 255
0.0103003 -0.10068 1.171 0 0 0
-0.157834 0.0803417 1.025 0 0 0
0.444712 0.0985719 0.944 255 255 255
-0.160006 -0.118618 1.354 0 0 0
-0.0011434 -0.0648593 1.178 255 255 255
0.215377 0.107601 0.97 255 255 255
0.0655721 -0.059761 0.997 0 0 0
0.187303 0.256988 0.755 255 255 255
0.398987 0.0625436 1.007 0 0 0
0.25069 0.10348 0.991 255 255 255
0.177199 0.289703 0.816 255 255 255
0.21334 0.169358 0.812 0 0 0
-0.154214 -0.270395 1.27 255 255 255
-0.692943 0.103856 1.445 255 255 255
0.427432 0.0455616 1.07 255 255 255
-0.217827 0.201603 1.178 255 255 255
-0.575334 -0.0113667 1.445 255 255 255
-0.098009 -0.160226 1.265 255 255 255
-0.661026 -0.191818 1.342 255 255 255
0.339397 -0.359371 1.308 255 255 255
0.143282 0.109959 0.963 255 255 255
0.286448 -0.155608 0.939 0 0 0
0.0292686 0.329374 0.977 255 255 255
0.234374 -0.490898 1.366 255 255 255
0.210696 0.185684 0.797 255 255 255
-0.149559 0.255004 1.126 255 255 255
0.204728 0.199227 0.789 255 255 255
0.229976 0.223584 0.742 255 255 255
-0.748321 0.619169 1.744 255 255 255
-0.631991 0.418733 1.691 255 255 255
-0.612467 -0.493213 1.532 255 255 255
0.363253 0.0525889 1.108 255 255 255
0.12744 0.159481 0.866 255 255 255
0.312576 0.104706 0.917 0 0 0
-0.582658 -0.309093 1.559 255 255 255
0.119202 0.15169 0.878 255 255 255
-0.315459 -0.2475 1.313 255 255 255
0.472757 -0.189193 1.239 255 255 255
0.230636 0.245252 0.707 255 255 255
-0.632937 -0.144788 1.416 255 255 255
0.431516 0.0566004 1.018 255 255 255
-0.0987707 0.444305 1.176 255 255 255
-0.186674 -0.0526343 1.252 255 255 255
0.0136788 -0.0735738 1.135 0 0 0
0.496424 -0.371805 1.132 255 255 255
0.00950669 0.130849 0.912 255 255 255
-0.214719 -0.322829 1.182 255 255 255
-0.13112 0.306678 1.141 255 255 255
-0.685877 0.192085 1.491 255 255 255
0.0595791 0.211707 0.884 255 255 255
0.322884 -0.106585 0.98 255 255 255
0.561662 -0.176086 1.141 0 0 0
0.0853601 0.21842 0.854 255 255 255
-0.0859 0.256546 1.064 255 255 255
0.317084 -0.119951 0.972 255 255 255
-0.196382 -0.188598 1.262 255 255 255
0.154498 -0.14782 0.892 255 255 255
-0.443083 0.16283 1.406 255 255 255
0.178486 0.188514 0.798 255 255 255
0.413915 -0.313445 1.244 255 255 255
0.174271 0.0518673 0.961 255 255 255
-0.177189 0.46468 1.257 255 255 255
0.0550816 -0.129956 1.013 255 255 255
0.50748 -0.327594 1.132 255 255 255
-0.674924 -0.606482 1.567 255 255 255
0.400939 -0.409509 1.205 255 255 255
-0.554095 0.619675 1.714 255 255 255
-0.459663 0.466032 1.555 255 255 255
0.0307887 0.209937 0.927 255 255 255
-0.533409 -0.476834 1.459 0 0 0
-0.3897 -0.424809 1.333 0 0 0
-0.370171 0.191253 1.333 255 255 255
-0.0761784 0.105257 0.963 255 255 255
0.179117 0.253171 0.762 255 255 255
-0.471536 -0.216699 1.466 255 255 255
-0.277424 -0.477472 1.305 255 255 255
0.227231 0.212089 0.757 255 255 255
0.47568 -0.0913452 1.252 255 255 255
0.391634 0.110627 0.942 255 255 255
0.0990416 -0.242493 0.975 0 0 0
-0.53625 -0.250729 1.528 255 255 255
-0.0616162 -0.0289192 1.198 0 0 0
-0.670433 0.264172 1.637 255 255 255
-0.673071 0.379044 1.65 255 255 255
-0.332655 -0.445617 1.305 255 255 255
-0.222277 -0.130984 1.281 255 255 255
-0.817889 -0.459003 1.81 255 255 255
0.125254 0.109274 0.957 255 255 255
-0.331033 -0.417631 1.324 255 255 255
0.0890829 -0.073473 0.906 255 255 255
0.128941 -0.563521 1.456 255 255 255
-0.103932 0.0666708 1.02 255 255 255
-0.190013 0.0293593 1.116 255 255 255
0.0546687 -0.529706 1.435 0 0 0
0.548978 -0.364523 1.083 255 255 255
0.313547 0.122794 0.886 0 0 0
-0.937117 -0.545921 1.941 255 255 255
0.130567 0.193296 0.791 255 255 255
0.36824 0.0591536 1.096 255 255 255
0.195504 -0.105357 0.914 255 255 255
0.193465 -0.468041 1.425 255 255 255
0.546459 -0.393447 1.085 255 255 255
0.184077 0.316295 0.823 255 255 255
-0.0423612 -0.136939 1.205 255 255 255
-0.045374 0.0410542 1.089 255 255 255
-0.777778 0.679681 1.799 0 0 0
0.191034 0.0451372 0.951 255 255 255
-0.170987 0.389196 1.213 255 255 255
0.348266 0.207562 0.763 255 255 255
0.23881 -0.0394337 0.938 255 255 255
-0.211406 0.000320407 1.185 255 255 255
-0.281543 0.233533 1.257 255 255 255
0.0277823 -0.0934606 1.108 0 0 0
0.207269 0.151027 0.858 255 255 255
0.352764 -0.414907 1.257 255 255 255
0.221008 0.110415 0.967 255 255 255
0.200533 0.0482831 0.952 255 255 255
-0.0234364 0.0133293 1.143 255 255 255
0.549985 -0.332012 1.092 255 255 255
0.513895 -0.186208 1.194 255 255 255
0.523145 -0.409825 1.077 255 255 255
0.115509 -0.495822 1.466 255 255 255
0.229869 0.277496 0.719 255 255 255
0.170881 0.246376 0.764 0 0 0
-0.663865 -0.471461 1.559 255 255 255
0.580204 -0.0671771 1.152 255 255 255
0.29691 -0.218808 0.948 0 0 0
-0.534494 -0.225511 1.509 255 255 255
-0.512937 0.055922 1.422 255 255 255
0.180644 0.253076 0.758 255 255 255
-0.761038 0.429136 1.587 255 255 255
-0.696896 -0.183901 1.348 0 0 0
-0.776899 0.385247 1.677 255 255 255
0.075503 -0.345714 1.477 255 255 255
0.172176 0.128885 0.941 255 255 255
-0.104093 0.040451 1.073 255 255 255
-0.380028 0.142345 1.322 255 255 255
0.191873 -0.179586 0.877 255 255 255
-0.392177 0.363157 1.429 255 255 255
-0.695848 0.118863 1.456 255 255 255
0.550752 -0.347368 1.09 255 255 255
-0.516262 0.59889 1.664 255 255 255
0.427691 0.0894 0.961 255 255 255
0.308771 -0.355795 1.351 255 255 255
-0.758144 -0.352255 1.734 255 255 255
0.532219 -0.310093 1.122 255 255 255
0.25475 -0.498562 1.333 255 255 255
-0.64369 -0.403138 1.265 255 255 255
0.325928 0.193784 0.826 255 255 255
-0.130807 -0.372153 1.244 255 255 255
-0.423548 0.180943 1.387 255 255 255
-0.0241482 -0.222891 1.4 0 0 0
0.503023 -0.38722 1.118 255 255 255
-0.205096 -0.346503 1.171 255 255 255
0.462673 -0.20734 1.239 255 255 255
0.416818 -0.360114 1.217 255 255 255
-0.26722 -0.224671 1.257 255 255 255
0.0210768 0.270645 0.966 255 255 255
-0.469124 -0.478379 1.362 255 255 255
-0.0803248 0.0502632 1.059 255 255 255
0.303908 -0.201879 0.941 255 255 255
-0.106507 -0.426811 1.244 255 255 255
-0.30805 -0.546458 1.406 255 255 255
-0.93314 -0.722272 1.882 0 0 0
-0.831336 0.58737 1.603 0 0 0
-0.476462 0.532589 1.603 255 255 255
-0.751893 0.405343 1.595 255 255 255
-0.277949 0.168742 1.232 255 255 255
0.442502 -0.12288 1.262 255 255 255
0.368013 0.172382 0.833 0 0 0
-0.214531 0.396075 1.26 255 255 255
-0.266782 -0.51271 1.359 255 255 255
-0.0465915 -0.141796 1.213 255 255 255
-0.895687 -0.576794 1.887 0 0 0
0.293368 0.101064 0.999 255 255 255
0.156192 0.128337 0.937 255 255 255
0.389148 -0.373648 1.249 255 255 255
0.249341 0.0411758 0.967 255 255 255
-0.184287 0.245715 1.16 255 255 255
0.0793679 -0.00569614 0.913 255 255 255
-0.332533 -0.501769 1.33 255 255 255
0.192582 0.0343041 0.951 255 255 255
0.548347 -0.159589 1.156 255 255 255
-0.689617 0.439126 1.664 255 255 255
0.144324 -0.150777 0.901 255 255 255
-0.0942901 -0.0610652 1.217 255 255 255
-0.513529 0.229552 1.498 255 255 255
-0.38389 0.47469 1.487 255 255 255
-0.68759 -0.131666 1.33 255 255 255
-0.66326 -0.153531 1.351 255 255 255
-0.432116 0.498879 1.547 255 255 255
-0.4059 0.315179 1.412 255 255 255
0.579566 -0.0204863 1.162 255 255 255
0.184301 0.320702 0.824 255 255 255
0.200843 -0.101336 0.918 255 255 255
0.210416 -0.190723 0.889 255 255 255
0.0117867 0.280373 0.978 255 255 255
-0.641977 -0.431413 1.234 255 255 255
0.152173 0.119296 0.95 255 255 255
-0.68759 -0.222568 1.33 255 255 255
-0.627094 -0.350711 1.575 255 255 255
0.0437082 -0.543314 1.459 0 0 0
-0.37897 -0.0660503 1.275 255 255 255
-0.553841 -0.158076 1.432 255 255 255
0.0860997 -0.398318 1.494 255 255 255
0.128834 -0.0668308 0.916 0 0 0
-0.388839 0.270641 1.384 255 255 255
0.158392 0.132202 0.932 255 255 255
0.076673 0.146639 0.882 255 255 255
0.209924 0.10329 0.974 255 255 255
-0.133152 -0.364933 1.247 255 255 255
0.156137 0.15856 0.861 255 255 255
0.0226727 0.100974 0.967 255 255 255
0.306606 -0.02312 1.027 255 255 255
-0.716742 0.691634 1.815 255 255 255
0.179984 0.0811825 0.975 0 0 0
0.0487775 -0.464387 1.4 255 255 255
-0.337965 0.52166 1.456 255 255 255
-0.0221241 0.419949 1.079 255 255 255
0.279414 0.213577 0.745 255 255 255
-0.285394 -0.386669 1.265 0 0 0
-0.703141 -0.160883 1.339 255 255 255
-0.465262 -0.165067 1.432 255 255 255
0.0938169 -0.0175051 0.909 255 255 255
0.107779 0.00646783 0.954 0 0 0
0.547645 -0.294526 1.098 255 255 255
-0.176661 0.145068 1.112 255 255 255
0.22204 0.232298 0.724 0 0 0
-0.437285 -0.00178167 1.313 255 255 255
0.303175 -0.118841 0.963 0 0 0
-0.200569 0.236109 1.178 255 255 255
0.54271 -0.123512 1.189 255 255 255
0.390052 0.198842 0.803 255 255 255
-0.502555 0.49346 1.603 255 255 255
0.507353 0.0561851 1.041 255 255 255
0.340495 0.244131 0.694 255 255 255
0.175856 0.209077 0.764 255 255 255
-0.151159 -0.248705 1.297 255 255 255
-0.587654 0.606074 1.739 0 0 0
0.266833 0.202064 0.761 0 0 0
-0.753217 -0.425296 1.71 255 255 255
-0.574618 -0.284791 1.551 255 255 255
-0.532461 0.39397 1.591 255 255 255
-0.143816 -0.389821 1.217 255 255 255
-0.197098 0.0391377 1.085 255 255 255
-0.452208 -0.313616 1.473 255 255 255
0.28092 0.179874 0.783 0 0 0
-0.0734294 0.274298 1.059 255 255 255
-0.234387 -0.0148517 1.165 255 255 255
-0.419397 -0.0987528 1.324 255 255 255
0.371643 0.197817 0.826 255 255 255
-0.187867 -0.200602 1.26 255 255 255
-0.00573697 0.217155 0.98 255 255 255
0.0730954 -0.0946888 0.989 0 0 0
-0.116035 -0.263691 1.33 255 255 255
0.407716 0.0574265 1.064 255 255 255
0.115411 0.189459 0.802 255 255 255
-0.561194 -0.244384 1.535 255 255 255
0.394521 0.142655 0.893 255 255 255
0.0998637 0.00635936 0.938 255 255 255
0.0403185 0.02565 0.975 255 255 255
-0.0139231 0.084467 0.995 255 255 255
0.511908 -0.106616 1.217 255 255 255
-0.40678 -0.0587465 1.252 255 255 255
-0.3513 0.336684 1.387 255 255 255
-0.602721 -0.521506 1.52 0 0 0
0.186591 0.0611868 0.96 255 255 255
-0.146685 -0.392836 1.208 255 255 255
-0.265747 -0.421252 1.222 255 255 255
0.238994 -0.515032 1.342 255 255 255
-0.108698 0.152358 1.05 255 255 255
0.53236 -0.125174 1.205 255 255 255
-0.0703181 0.00592007 1.149 255 255 255
0.0905191 0.196235 0.825 255 255 255
-0.652539 0.134723 1.587 255 255 255
0.0727866 -0.114438 1.007 255 255 255
-0.0100631 -0.430821 1.345 255 255 255
-0.224408 -0.25613 1.203 0 0 0
-0.548301 -0.138595 1.4 255 255 255
-0.100051 -0.260679 1.348 255 255 255
0.137769 0.0938036 0.991 255 255 255
-0.715246 0.43332 1.642 255 255 255
-0.443471 0.157578 1.4 255 255 255
-0.470079 0.290196 1.484 255 255 255
-0.0768516 0.013236 1.135 255 255 255
0.321045 0.142317 0.856 255 255 255
-0.158638 0.285263 1.152 255 255 255
-0.189683 0.0884127 1.083 255 255 255
0.0673655 -0.0300814 0.932 255 255 255
0.156192 0.000253351 0.937 255 255 255
-0.584795 0.060898 1.487 255 255 255
-0.160703 0.00031554 1.167 255 255 255
-0.0975256 -0.0291606 1.208 255 255 255
-0.138001 -0.285535 1.273 255 255 255
-0.274383 -0.365145 1.234 255 255 255
0.07292 0.36472 0.945 255 255 255
0.122083 0.296864 0.868 255 255 255
-0.459242 -0.523767 1.359 255 255 255
-0.173694 0.178361 1.128 255 255 255
0.17951 0.259251 0.769 255 255 255
-0.641665 -0.406725 1.257 255 255 255
-0.157447 0.23936 1.13 255 255 255
-0.681876 0.0814441 1.509 255 255 255
0.441738 -0.24046 1.254 255 255 255
-0.0129856 0.112003 0.928 255 255 255
0.31187 -0.455542 1.291 255 255 255
0.521995 0.0532535 1.05 255 255 255
0.0612635 -0.156024 0.98 255 255 255
0.479479 -0.0653768 1.262 255 255 255
0.16541 0.0375566 0.955 255 255 255
-0.0487906 -0.00158898 1.171 255 255 255
0.115416 -0.0314625 0.928 0 0 0
0.039252 -0.322546 1.47 255 255 255
-0.671422 0.618666 1.853 0 0 0
0.119674 -0.167921 0.975 255 255 255
0.0544607 0.321661 0.945 255 255 255
-0.496374 0.411416 1.559 255 255 255
-0.507358 -0.192276 1.48 255 255 255
-0.748787 -0.352005 1.719 255 255 255
0.0070537 0.291701 0.984 255 255 255
0.441158 0.0553215 1.025 255 255 255
-0.578116 -0.0888528 1.406 255 255 255
-0.0557905 -0.494269 1.339 0 0 0
-0.512913 0.364145 1.563 255 255 255
-0.268983 0.0648847 1.167 255 255 255
-0.116081 -0.372838 1.26 255 255 255
-0.81529 0.354464 1.543 0 0 0
-0.542641 -0.263851 1.532 255 255 255
-0.0419439 0.40013 1.092 255 255 255
-0.0221321 0.23786 1 255 255 255
-0.130985 0.0542817 1.037 255 255 255
-0.0794822 0.373937 1.12 255 255 255
-0.615213 0.585279 1.753 0 0 0
-0.566631 -0.305921 1.543 0 0 0
-0.482294 -0.398394 1.571 255 255 255
0.215576 -0.0306624 0.95 255 255 255
-0.514316 -0.402893 1.599 255 255 255
-0.00880904 0.195391 0.967 255 255 255
0.0215568 0.339513 0.988 255 255 255
-0.0651688 -0.234282 1.4 255 255 255
-0.269376 0.0994174 1.194 255 255 255
-0.872143 -0.494057 1.876 255 255 255
0.484055 0.118742 0.958 255 255 255
0.127777 0.333147 0.878 255 255 255
-0.308143 0.163984 1.257 255 255 255
0.0712224 -0.0207788 0.923 255 255 255
-0.729927 0.0388564 1.477 255 255 255
0.459608 -0.379114 1.16 255 255 255
-0.435152 0.553779 1.567 255 255 255
-0.493407 0.0207785 1.393 255 255 255
-0.090328 -0.146225 1.217 255 255 255
-0.101795 0.143028 1.032 255 255 255
-0.0740888 0.204154 1.044 255 255 255
0.0508435 0.163593 0.858 255 255 255
0.0337333 -0.0796586 1.068 255 255 255
0.387337 0.200823 0.811 255 255 255
0.300668 -0.126282 0.96 0 0 0
-0.411319 0.36804 1.439 255 255 255
-0.428017 0.0283676 1.324 255 255 255
-0.675112 0.313249 1.629 255 255 255
0.11644 -0.43424 1.509 255 255 255
-0.683032 0.0360086 1.459 255 255 255
0.391872 0.0781693 0.977 0 0 0
-0.161491 -0.124673 1.348 0 0 0
-0.729057 0.463968 1.637 255 255 255
0.0767782 -0.10174 0.995 0 0 0
-0.26195 -0.0907556 1.302 0 0 0
-0.761059 0.679819 1.815 0 0 0
-0.212677 -0.152423 1.286 255 255 255
-0.628687 0.1546 1.579 255 255 255
-0.0575404 -0.287286 1.381 255 255 255
-0.322804 -0.449095 1.381 255 255 255
0.126539 0.132141 0.921 255 255 255
-0.706292 -0.172548 1.345 255 255 255
0.0333488 -0.192267 1.33 255 255 255
-0.500159 0.157096 1.459 255 255 255
-0.258972 0.0964947 1.182 255 255 255
0.562647 -0.157794 1.143 0 0 0
-0.0463164 0.084467 0.995 255 255 255
-0.148433 -0.326299 1.239 255 255 255
-0.0695445 -0.570935 1.494 255 255 255
0.123749 0.0796094 0.995 255 255 255
0.00798695 0.177559 0.908 255 255 255
0.218053 0.170518 0.805 0 0 0
0.534655 -0.403562 1.079 255 255 255
0.323618 0.127981 0.882 0 0 0
-0.0332706 0.0664769 1.043 255 255 255
0.556622 -0.25032 1.116 255 255 255
-0.479883 -0.285625 1.477 255 255 255
-0.620041 0.0201993 1.52 255 255 255
-0.54725 -0.279833 1.524 255 255 255
0.524103 -0.0276225 1.227 0 0 0
0.23692 0.0297861 0.955 255 255 255
-0.0485159 -0.177798 1.319 0 0 0
0.172688 0.245408 0.761 0 0 0
-0.284261 -0.491999 1.327 255 255 255
-0.59227 -0.384458 1.62 255 255 255
-1.07703 0.401073 2.051 255 255 255
-0.554816 0.133852 1.491 255 255 255
-0.0955364 0.160597 1.037 255 255 255
-0.162816 -0.0730684 1.289 255 255 255
-0.562657 0.253366 1.539 255 255 255
0.403138 0.12418 0.896 255 255 255
-0.389094 0.0170232 1.281 255 255 255
0.00448014 0.0152159 1.145 255 255 255
-0.00640433 0.0359018 1.094 255 255 255
-0.476487 -0.443829 1.452 255 255 255
-0.264031 0.238831 1.242 255 255 255
-0.665013 0.268955 1.65 255 255 255
-0.703141 -0.263296 1.339 0 0 0
-0.248649 0.0734241 1.152 255 255 255
0.320841 0.192862 0.784 0 0 0
0.259592 -0.109635 0.925 0 0 0
-0.00563358 -0.455178 1.333 255 255 255
0.409626 -0.416182 1.196 255 255 255
-0.58986 0.498674 1.673 255 255 255
0.000640743 0.217634 0.975 255 255 255
0.055037 -0.0292697 0.955 0 0 0
0.113082 0.267376 0.864 255 255 255
-0.334101 -0.153685 1.372 255 255 255
-0.25461 -0.0988496 1.297 0 0 0
0.294985 0.109302 0.918 0 0 0
-0.349063 -0.00356322 1.194 255 255 255
-0.357234 0.120378 1.294 255 255 255
0.0774528 -0.0688737 0.944 255 255 255
0.0258209 0.100974 0.967 255 255 255
0.538244 -0.03301 1.205 255 255 255
-0.374831 0.555382 1.509 255 255 255
0.289004 -0.370256 1.372 255 255 255
0.0334823 0.305213 0.961 255 255 255
-0.363219 0.0814549 1.278 0 0 0
0.143068 -0.193674 0.931 255 255 255
0.0252498 0.378817 1.007 255 255 255
-0.523586 0.0779899 1.445 255 255 255
0.472287 -0.277066 1.192 255 255 255
0.0609986 0.340727 0.951 255 255 255
0.213311 -0.17915 0.889 255 255 255
-0.809418 0.474929 1.551 255 255 255
0.165622 -0.398009 1.466 255 255 255
-0.537653 -0.333657 1.532 255 255 255
-0.0407664 -0.574212 1.509 255 255 255
0.0147329 0.0476123 1.077 255 255 255
-0.0110227 -0.141446 1.21 255 255 255
-0.722842 -0.46347 1.629 255 255 255
0.119248 0.344554 0.889 255 255 255
-0.794109 0.626632 1.673 255 255 255
-0.163713 0.136094 1.098 255 255 255
-0.257 0.0881246 1.173 255 255 255
-0.596146 0.591924 1.739 0 0 0
0.0841937 0.338991 0.917 255 255 255
0.356001 -0.352599 1.291 255 255 255
-0.0308166 -0.172722 1.297 0 0 0
-0.184931 -0.232297 1.254 255 255 255
0.548977 -0.356237 1.09 255 255 255
0.153522 -0.551063 1.442 255 255 255
-0.647683 0.193953 1.607 255 255 255
0.412459 0.052797 1.041 255 255 255
0.135855 0.242928 0.815 255 255 255
0.0625138 -0.0843507 1 0 0 0
0.189634 0.199495 0.785 255 255 255
-0.14116 -0.20617 1.322 255 255 255
0.0463734 0.26557 0.937 255 255 255
-0.034877 -0.45134 1.291 255 255 255
-0.783661 0.440727 1.555 255 255 255
0.397415 0.208112 0.779 0 0 0
0.265782 0.207435 0.758 255 255 255
0.122145 -0.00743361 0.945 0 0 0
0.197965 0.315486 0.814 255 255 255
0.467757 -0.399599 1.143 255 255 255
-0.879745 -0.429038 1.899 0 0 0
0.347321 -0.426455 1.267 255 255 255
0.137006 -0.180038 0.931 255 255 255
-0.137048 0.160968 1.085 255 255 255
-0.644627 -0.379352 1.275 255 255 255
-0.465192 0.0704974 1.39 255 255 255
-0.258614 0.497231 1.351 255 255 255
0.00463665 -0.00546475 1.185 255 255 255
-0.686705 0.241437 1.559 255 255 255
-0.738915 0.386054 1.612 255 255 255
-0.704536 0.492889 1.7 255 255 255
-0.123399 0.427073 1.192 255 255 255
-0.375353 -0.395327 1.336 255 255 255
-0.718448 -0.00196621 1.449 255 255 255
-0.241973 0.114065 1.165 255 255 255
0.43939 -0.393733 1.187 255 255 255
0.0458054 0.0345205 0.957 0 0 0
-0.209547 -0.486887 1.319 255 255 255
0.0985337 -0.107076 0.97 0 0 0
-0.353799 -0.34546 1.345 0 0 0
0.217845 0.164154 0.819 255 255 255
0.193028 0.270162 0.768 255 255 255
0.333519 -0.353525 1.31 255 255 255
0.184648 -0.0523059 0.95 0 0 0
-0.299964 0.407291 1.359 255 255 255
-0.658001 -0.291222 1.289 255 255 255
-0.669722 -0.400877 1.591 255 255 255
-0.521134 0.263859 1.513 255 255 255
0.16437 -0.0246847 0.958 255 255 255
-0.322389 -0.129347 1.351 0 0 0
0.283093 0.110493 0.928 255 255 255
-0.108476 -0.358415 1.267 255 255 255
0.460862 0.00230193 1.213 255 255 255
-0.766793 0.466208 1.599 255 255 255
-0.299731 -0.140028 1.348 255 255 255
0.541295 -0.34928 1.096 255 255 255
-0.340518 -0.274388 1.319 255 255 255
0.179059 -0.527027 1.403 255 255 255
-0.648322 -0.397018 1.227 255 255 255
0.256118 0.197159 0.766 0 0 0
0.549985 -0.333789 1.092 255 255 255
0.473034 -0.274433 1.189 255 255 255
-0.368692 -0.233111 1.393 0 0 0
-0.241208 -0.046039 1.239 255 255 255
0.377318 0.142011 0.88 255 255 255
-0.135614 -0.259725 1.31 255 255 255
-0.453709 -0.161941 1.425 255 255 255
0.0697955 0.302484 0.924 255 255 255
-0.547993 -0.487672 1.435 0 0 0
-0.0865788 -0.1446 1.22 255 255 255
-0.0349432 0.159491 0.95 255 255 255
-0.26233 0.227252 1.234 255 255 255
-0.158348 -0.0637245 1.27 255 255 255
0.212047 0.0406648 0.955 255 255 255
0.0365831 -0.0612291 1.05 255 255 255
0.193003 -0.218026 0.938 255 255 255
0.00503639 0.173317 0.909 255 255 255
0.357708 -0.440503 1.26 255 255 255
0.504595 0.0696475 1.015 255 255 255
-0.0465241 -0.0809969 1.162 255 255 255
0.500184 -0.0741467 1.237 255 255 255
-0.317285 -0.192676 1.348 0 0 0
-0.214 0.469935 1.294 255 255 255
0.301196 0.0899091 1.02 255 255 255
-0.480449 0.00928141 1.369 255 255 255
-0.769027 0.522574 1.637 255 255 255
-0.0556179 0.210459 1.017 255 255 255
0.556791 -0.202505 1.154 255 255 255
0.538913 0.0551192 1.053 255 255 255
0.271668 0.0725197 1.009 255 255 255
0.527648 -0.246124 1.156 255 255 255
-0.628659 0.052872 1.535 255 255 255
0.0562328 0.164412 0.855 255 255 255
0.127088 -0.0885614 0.925 0 0 0
0.0291188 0.0983322 0.972 255 255 255
-0.637295 -0.464149 1.225 255 255 255
-0.14181 -0.462599 1.27 0 0 0
-0.313 -0.363947 1.294 255 255 255
0.32961 0.237199 0.707 0 0 0
-0.692123 -0.615251 1.583 255 255 255
-0.37096 -0.149237 1.393 0 0 0
-0.35384 0.141764 1.297 255 255 255
-0.620817 -0.409869 1.528 255 255 255
0.36061 0.215494 0.735 255 255 255
-0.619977 0.256077 1.603 255 255 255
0.460189 -0.402745 1.152 255 255 255
-0.6782 -0.0770823 1.4 255 255 255
-0.0426657 0.0735978 1.024 255 255 255
-0.322171 -0.271923 1.297 255 255 255
-0.0668394 0.018562 1.122 255 255 255
-0.191098 0.243399 1.167 255 255 255
0.439977 -0.249664 1.249 255 255 255
-0.362087 -0.0290882 1.205 255 255 255
-0.211894 -0.0775634 1.294 255 255 255
0.402725 0.0637362 1 0 0 0
-0.37478 -0.190874 1.416 255 255 255
-0.284652 0.405655 1.339 255 255 255
0.427147 0.0139474 1.196 255 255 255
-0.926268 -0.634078 1.893 0 0 0
-0.163207 0.47607 1.244 255 255 255
-0.629442 -0.458631 1.237 255 255 255
-0.67038 -0.054682 1.539 255 255 255
-0.450457 0.510428 1.567 255 255 255
0.14584 0.301774 0.85 0 0 0
-0.876137 -0.59435 1.865 0 0 0
0.22895 0.10963 0.974 255 255 255
-0.71308 0.316864 1.607 255 255 255
0.302123 -0.142762 0.945 0 0 0
-0.326722 0.267526 1.324 255 255 255
-0.526648 -0.347891 1.551 255 255 255
0.422761 -0.334368 1.217 255 255 255
0.0178929 -0.178444 1.308 0 0 0
0.0753532 0.349434 0.937 255 255 255
0.416248 -0.35908 1.227 255 255 255
-0.0352659 -0.107748 1.165 255 255 255
0.009706 -0.19794 1.354 255 255 255
-0.0817387 0.245792 1.055 255 255 255
-0.00453053 0.0491358 1.072 255 255 255
0.131653 -0.0151547 0.947 0 0 0
0.120631 0.15169 0.878 255 255 255
-0.210722 0.183421 1.16 255 255 255
-0.770667 0.425891 1.575 255 255 255
0.0631389 -0.0687582 1.01 0 0 0
0.137091 -0.117782 0.942 255 255 255
0.278175 -0.00622021 0.997 255 255 255
0.3907 -0.00928218 1.18 0 0 0
0.251699 0.0142899 0.958 255 255 255
-0.564956 0.337858 1.595 255 255 255
-0.220684 -0.175997 1.26 255 255 255
0.330122 -0.345804 1.305 255 255 255
-0.404573 -0.0278926 1.239 255 255 255
-0.233922 -0.177199 1.254 0 0 0
0.0443403 0.043943 0.994 255 255 255
0.295088 -0.488551 1.273 255 255 255
0.0952774 -0.188964 0.969 255 255 255
0.026211 -0.41322 1.412 255 255 255
-0.889018 -0.497024 1.899 255 255 255
-0.328283 -0.26032 1.313 255 255 255
-0.457837 -0.0556761 1.275 255 255 255
0.248272 0.253562 0.692 255 255 255
-0.039332 0.268565 1.024 255 255 255
0.168538 0.110073 0.964 255 255 255
0.119836 0.277979 0.862 255 255 255
0.268119 0.23271 0.718 255 255 255
-0.344105 0.472058 1.442 255 255 255
-0.119937 0.206054 1.09 255 255 255
-0.460649 -0.292836 1.477 255 255 255
-0.0784482 -0.22631 1.393 255 255 255
0.229824 -0.0120471 0.945 255 255 255
0.171602 0.28747 0.821 255 255 255
-0.00594186 0.0762544 1.015 255 255 255
0.136895 -0.458176 1.491 255 255 255
0.0727522 -0.554587 1.47 255 255 255
0.0161223 0.214049 0.952 255 255 255
-0.633024 0.214339 1.603 255 255 255
0.505302 -0.0933622 1.225 255 255 255
0.256581 -0.174305 0.909 255 255 255
-0.369362 0.4154 1.449 255 255 255
-0.106234 0.193081 1.077 255 255 255
-0.64396 0.259432 1.624 255 255 255
-0.16859 -0.0113543 1.196 255 255 255
-0.675073 -0.194379 1.442 0 0 0
-0.0657894 0.327424 1.075 255 255 255
-0.276347 -0.34806 1.252 255 255 255
0.0102155 0.0943571 0.98 255 255 255
-0.798555 0.153366 1.516 0 0 0
-0.649529 -0.266121 1.31 255 255 255
0.15568 0.233528 0.775 0 0 0
0.0934758 0.150261 0.878 255 255 255
0.123003 -0.387135 1.47 255 255 255
-0.0241638 0.301484 1.017 255 255 255
-0.130128 -0.326948 1.257 255 255 255
-0.111216 -0.295595 1.299 255 255 255
-0.364118 0.267964 1.359 255 255 255
-0.586682 0.0759749 1.498 255 255 255
-0.658841 -0.220209 1.342 255 255 255
0.12238 0.0370958 0.984 0 0 0
0.19502 0.208378 0.766 255 255 255
-0.691872 -0.286859 1.65 255 255 255
0.108873 0.00489475 0.95 0 0 0
-0.165847 -0.087249 1.313 255 255 255
0.265835 0.234065 0.715 255 255 255
0.284095 -0.236133 0.995 255 255 255
0.167814 -0.0833127 0.951 255 255 255
0.0319861 -0.314511 1.466 255 255 255
-0.631991 0.421485 1.691 255 255 255
-0.0847 -0.215839 1.384 255 255 255
0.257773 0.147363 0.845 255 255 255
-0.480824 0.48988 1.583 255 255 255
0.518814 0.0215802 1.09 0 0 0
0.0799962 -0.0965218 0.975 0 0 0
-0.0905825 0.0167361 1.122 255 255 255
-0.536668 -0.0947288 1.359 255 255 255
0.185607 0.0645122 0.963 255 255 255
-0.0528983 0.0324594 1.098 255 255 255
-0.174725 0.455409 1.254 255 255 255
0.273317 0.252848 0.687 255 255 255
-0.208938 0.355197 1.239 255 255 255
0.0753892 -0.153956 0.977 255 255 255
-0.93314 -0.664082 1.882 0 0 0
0.305268 -0.191442 0.95 255 255 255
0.148331 -0.419801 1.484 255 255 255
0.166459 0.283807 0.822 255 255 255
0.362993 0.12769 0.88 255 255 255
0.0441669 0.157707 0.864 255 255 255
-0.15561 0.381437 1.201 255 255 255
-0.668115 -0.5942 1.575 255 255 255
0.179587 0.176524 0.827 255 255 255
-0.449733 0.235051 1.442 255 255 255
0.480108 -0.384549 1.137 255 255 255
-0.480248 0.166999 1.442 255 255 255
0.125016 0.124619 0.932 255 255 255
-0.172248 0.373831 1.208 255 255 255
0.373983 -0.289843 1.213 0 0 0
0.514668 -0.419932 1.085 255 255 255
0.0343266 -0.485293 1.369 255 255 255
-0.528607 -0.427841 1.595 255 255 255
0.261168 0.0128903 0.97 255 255 255
-0.23655 -0.246752 1.205 255 255 255
0.269548 -0.170981 0.923 255 255 255
-0.542288 -0.272393 1.524 255 255 255
0.247802 0.0157992 0.955 255 255 255
-0.688695 0.179321 1.466 0 0 0
-0.510188 -0.0866032 1.336 255 255 255
-0.145839 0.16647 1.098 255 255 255
-0.353645 0.0983229 1.281 255 255 255
0.544278 -0.0504902 1.201 255 255 255
0.21089 -0.160704 0.891 255 255 255
0.132069 -0.160193 0.939 255 255 255
-0.394962 -0.412957 1.351 0 0 0
0.570132 -0.211802 1.114 255 255 255
-0.721608 0.693698 1.805 255 255 255
0.151292 -0.200592 0.935 255 255 255
0.294685 -0.425356 1.308 255 255 255
0.136795 0.297635 0.854 0 0 0
-0.252897 -0.177623 1.257 255 255 255
-0.109404 -0.399632 1.254 255 255 255
0.513955 -0.361217 1.122 255 255 255
0.566101 -0.147855 1.124 255 255 255
0.241331 0.088058 0.999 255 255 255
0.459869 -0.346789 1.185 255 255 255
0.169582 -0.417477 1.459 255 255 255
0.267401 0.143238 0.845 255 255 255
-0.165081 -0.490887 1.324 255 255 255
0.231454 0.171417 0.797 255 255 255
-0.314389 -0.124395 1.345 0 0 0
0.396626 -0.335253 1.273 255 255 255
0.16504 0.144093 0.902 255 255 255
0.188033 0.256308 0.753 255 255 255
0.404336 0.183471 0.816 255 255 255
-0.117586 0.00970171 1.154 255 255 255
-0.184743 -0.185184 1.281 255 255 255
0.10485 -0.111812 0.97 0 0 0
0.161692 0.0712952 0.97 0 0 0
0.361453 0.195029 0.843 255 255 255
0.356809 0.141863 0.845 0 0 0
0.04343 -0.471757 1.375 255 255 255
0.470079 0.0792894 0.991 255 255 255
-0.303541 0.107715 1.222 255 255 255
-0.215268 -0.358374 1.154 255 255 255
-0.0182664 0.0588799 1.059 255 255 255
0.14442 0.319973 0.858 0 0 0
-0.807139 0.606408 1.612 255 255 255
-0.230977 -0.114486 1.283 0 0 0
0.378277 0.0722507 0.983 255 255 255
-0.340205 0.410548 1.416 255 255 255
-0.269805 0.342803 1.299 255 255 255
0.40347 -0.338517 1.262 255 255 255
-0.276794 0.533052 1.387 255 255 255
0.145157 -0.178878 0.925 255 255 255
0.216638 0.183924 0.795 0 0 0
0.312631 -0.402209 1.33 255 255 255
0.106252 -0.367997 1.47 255 255 255
0.197342 -0.131863 0.902 0 0 0
0.0349372 0.301142 0.958 255 255 255
-0.0975427 -0.344955 1.286 255 255 255
0.542012 -0.0444412 1.196 255 255 255
0.101145 -0.175161 0.98 255 255 255
0.569108 0.00934862 1.112 0 0 0
0.216961 -0.0883699 0.923 255 255 255
0.217884 -0.392321 1.403 255 255 255
0.124234 0.0981439 0.986 255 255 255
0.0154449 0.185762 0.912 255 255 255
0.231521 -0.246999 1.013 255 255 255
0.0396848 0.385561 0.999 255 255 255
-0.45584 -0.292836 1.477 255 255 255
-0.37379 -0.241222 1.362 255 255 255
-0.138693 -0.220727 1.319 255 255 255
0.0328805 -0.111526 1.041 255 255 255
-0.037849 0.286621 1.029 255 255 255
-0.508368 0.0117951 1.403 255 255 255
-0.538677 0.14009 1.48 255 255 255
-0.130463 0.23026 1.104 255 255 255
-0.79564 0.428679 1.539 255 255 255
0.389779 -0.447759 1.213 255 255 255
0.102433 -0.385992 1.484 255 255 255
0.146141 0.0188282 0.951 255 255 255
0.162123 -0.478223 1.456 255 255 255
-0.0591183 -0.0499017 1.187 255 255 255
0.0615108 0.178877 0.851 255 255 255
-0.650361 -0.265198 1.316 255 255 255
0.203181 -0.150216 0.889 255 255 255
0.144964 0.250578 0.814 255 255 255
0.258475 -0.0184873 0.96 255 255 255
0.201833 -0.116614 0.909 0 0 0
0.460027 -0.123172 1.265 255 255 255
0.203315 0.156677 0.836 255 255 255
0.00792537 0.167393 0.901 255 255 255
-0.803881 0.539538 1.616 255 255 255
-0.0882909 0.0421578 1.072 255 255 255
0.275204 -0.438013 1.327 255 255 255
-0.116835 -0.293774 1.291 255 255 255
0.55804 -0.215832 1.145 255 255 255
0.204586 0.252884 0.729 255 255 255
-0.183889 -0.313354 1.22 255 255 255
0.0517042 -0.315958 1.484 255 255 255
0.318556 0.19124 0.804 255 255 255
0.00215702 0.190744 0.944 255 255 255
-0.104734 -0.419724 1.247 255 255 255
-0.765355 0.633359 1.744 0 0 0
-0.238004 0.328887 1.254 255 255 255
-0.24677 0.0166765 1.118 255 255 255
0.201444 0.317353 0.812 255 255 255
-0.902838 -0.717667 1.87 0 0 0
-0.704555 -0.405711 1.642 255 255 255
-0.318094 0.31056 1.333 255 255 255
-0.379259 0.0400163 1.283 255 255 255
-0.045194 -0.337456 1.348 255 255 255
-0.939731 0.375552 1.953 255 255 255
-0.250856 0.231953 1.227 255 255 255
-0.17584 0.487065 1.262 255 255 255
-0.0749793 -0.399745 1.294 255 255 255
-0.141276 -0.538452 1.409 0 0 0
0.15641 0.0345205 0.957 255 255 255
-0.0981742 -0.0151959 1.192 255 255 255
-0.157763 -0.288282 1.249 255 255 255
-0.0250491 -0.431534 1.327 255 255 255
-0.153607 -0.456661 1.265 0 0 0
0.493609 0.0606198 1.03 255 255 255
-0.832621 -0.588604 1.81 255 255 255
0.236448 0.174208 0.792 255 255 255
0.0653952 -0.388467 1.466 255 255 255
0.209825 0.287155 0.77 255 255 255
0.282523 0.185659 0.77 255 255 255
0.508456 -0.349679 1.126 255 255 255
-0.169967 0.335904 1.192 255 255 255
0.442192 -0.195531 1.267 255 255 255
0.360081 0.153874 0.843 255 255 255
-0.351778 0.416057 1.435 255 255 255
-0.247128 -0.102594 1.291 0 0 0
-0.0198203 0.369362 1.05 255 255 255
0.209831 0.018848 0.952 255 255 255
0.252995 -0.0742238 0.934 0 0 0
0.14074 0.241258 0.805 255 255 255
-0.377884 -0.191278 1.419 255 255 255
-0.667768 0.258845 1.637 255 255 255
0.472371 0.103181 0.944 0 0 0
0.0237601 -0.230218 1.403 255 255 255
0.347029 0.122995 0.898 255 255 255
0.0903156 -0.089423 0.934 255 255 255
0.184648 -0.0275705 0.95 255 255 255
0.0867231 0.14951 0.882 255 255 255
-0.0719318 0.387131 1.116 255 255 255
-0.624154 -0.418716 1.524 255 255 255
0.211141 0.253156 0.723 255 255 255
-0.398496 0.338994 1.435 255 255 255
-0.437628 0.019794 1.327 255 255 255
-0.7084 0.502769 1.696 255 255 255
-0.185858 0.300386 1.182 255 255 255
-0.675112 0.292042 1.629 255 255 255
0.239947 0.128237 0.855 255 255 255
-0.630742 0.277931 1.624 255 255 255
-0.0784525 0.263459 1.057 255 255 255
0.255991 -0.454729 1.351 255 255 255
0.0076848 -0.392361 1.387 255 255 255
-0.57506 -0.331164 1.532 255 255 255
0.251408 -0.0183139 0.951 255 255 255
-0.206379 0.115744 1.126 255 255 255
-0.194591 0.50246 1.291 255 255 255
0.187497 0.162008 0.857 255 255 255
0.164125 0.146214 0.897 255 255 255
0.483718 -0.132621 1.257 0 0 0
0.455072 -0.20217 1.257 255 255 255
0.311346 0.163974 0.86 255 255 255
-0.676662 0.242578 1.583 255 255 255
0.52823 -0.29492 1.141 255 255 255
-0.416505 -0.258717 1.409 255 255 255
-0.271151 -0.0015632 1.152 255 255 255
0.149482 0.313289 0.855 255 255 255
-0.244563 0.0435735 1.108 255 255 255
-0.609094 0.262586 1.595 255 255 255
0.0710295 -0.344937 1.484 255 255 255
-0.683225 0.543213 1.774 255 255 255
-0.456893 -0.251815 1.435 255 255 255
0.17178 0.224408 0.757 255 255 255
-0.685352 -0.0768621 1.396 255 255 255
-0.122707 -0.440982 1.244 255 255 255
0.503944 -0.415905 1.112 255 255 255
-0.217729 0.0253583 1.1 255 255 255
0.230663 -0.148665 0.906 0 0 0
0.378291 0.167601 0.85 255 255 255
-0.028185 0.0899384 0.984 255 255 255
0.33642 -0.371428 1.313 255 255 255
0.0767599 0.231585 0.883 255 255 255
-0.236881 -0.314536 1.187 0 0 0
0.473487 -0.0303434 1.257 0 0 0
0.0444092 -0.443496 1.406 255 255 255
-0.768207 0.491997 1.624 255 255 255
-0.044365 -0.159846 1.262 255 255 255
-0.70243 -0.0047241 1.583 255 255 255
-0.890503 -0.470346 1.929 0 0 0
-0.978654 0.409723 1.905 255 255 255
-0.19779 0.341809 1.22 255 255 255
0.385084 0.140412 0.888 255 255 255
0.0118108 0.268188 0.98 255 255 255
0.206731 0.172 0.812 0 0 0
0.0822656 0.26853 0.896 255 255 255
0.027395 0.310266 0.967 255 255 255
-0.290538 -0.147478 1.336 255 255 255
0.378916 -0.435665 1.229 255 255 255
-0.65404 -0.270852 1.302 255 255 255
0.547203 -0.306571 1.09 255 255 255
0.259592 -0.105119 0.925 0 0 0
0.0143431 0.111564 0.937 255 255 255
0.172856 0.303029 0.827 255 255 255
-0.14052 -0.239499 1.316 255 255 255
-0.365559 0.213147 1.348 255 255 255
0.384353 0.129563 0.883 255 255 255
-0.666927 0.409524 1.71 255 255 255
0.432829 0.0869905 0.969 255 255 255
0.134326 -0.130427 0.923 255 255 255
-0.704336 0.581985 1.769 255 255 255
-0.516104 -0.119932 1.369 255 255 255
-0.0435871 -0.0459608 1.185 0 0 0
0.511788 0.0800095 1 255 255 255
-0.567175 -0.194614 1.498 255 255 255
-0.4018 0.00241959 1.275 255 255 255
-0.582192 0.22253 1.551 255 255 255
0.218032 0.293908 0.768 255 255 255
-0.447179 -0.426815 1.419 255 255 255
0.123791 0.141001 0.901 255 255 255
0.358902 -0.404679 1.257 255 255 255
-0.227462 -0.122071 1.275 255 255 255
-0.148033 0.0746027 1.015 255 255 255
0.240534 0.202673 0.768 255 255 255
-0.44713 0.349625 1.48 255 255 255
0.308165 0.234392 0.716 255 255 255
0.380297 -0.414989 1.227 255 255 255
0.433012 0.125461 0.916 255 255 255
0.270249 0.154492 0.854 255 255 255
-0.0806874 0.162944 1.02 255 255 255
0.537056 -0.176519 1.156 255 255 255
0.0263409 -0.394486 1.419 255 255 255
0.40251 -0.00942378 1.198 0 0 0
0.436118 -0.413905 1.173 255 255 255
-0.167898 -0.346759 1.205 255 255 255
-0.57214 -0.449245 1.579 255 255 255
-0.220163 0.166431 1.16 255 255 255
-0.444587 0.00035745 1.322 255 255 255
0.47537 -0.126987 1.262 255 255 255
0.505021 -0.20209 1.196 255 255 255
0.0687525 -0.316597 1.487 255 255 255
-0.55176 -0.11102 1.369 255 255 255
-0.394474 0.554916 1.528 255 255 255
-0.799741 0.551831 1.629 255 255 255
-0.316077 0.559668 1.432 255 255 255
0.563519 -0.13338 1.141 255 255 255
-0.186185 -0.0773835 1.291 255 255 255
-0.648548 0.694751 1.831 255 255 255
-0.690574 0.182203 1.47 0 0 0
-0.13629 0.15481 1.079 255 255 255
-0.0381459 -0.250077 1.412 255 255 255
-0.0104905 0.205361 0.977 255 255 255
-0.561975 -0.0770823 1.4 255 255 255
0.24212 0.015733 0.951 255 255 255
0.18442 -0.415823 1.445 255 255 255
0.114311 0.170821 0.832 255 255 255
-0.371282 0.0354774 1.27 255 255 255
0.287903 0.208727 0.745 0 0 0
-0.350428 0.300465 1.366 255 255 255
-0.452657 -0.171697 1.429 255 255 255
0.279162 -0.0190457 0.989 255 255 255
0.418291 0.0517942 1.13 255 255 255
0.182629 0.252408 0.756 255 255 255
0.447363 -0.344745 1.198 255 255 255
0.0604984 -0.375768 1.463 255 255 255
0.0547554 -0.143935 1.007 255 255 255
-0.638192 -0.281687 1.313 255 255 255
-0.0756058 -0.0836725 1.173 255 255 255
0.0818983 0.244106 0.892 255 255 255
0.0875114 -0.02921 0.905 255 255 255
-0.313572 0.474257 1.4 255 255 255
-0.669722 0.0314991 1.591 255 255 255
0.46677 0.104495 0.942 255 255 255
-0.425039 0.419034 1.487 255 255 255
-0.0555962 0.00782377 1.154 255 255 255
0.22453 0.218089 0.748 255 255 255
0.544868 -0.0328183 1.198 255 255 255
0.160226 -0.123874 0.908 255 255 255
-0.234553 -0.0228202 1.185 255 255 255
-0.729927 0.18307 1.477 255 255 255
-0.0403983 0.235075 1.009 0 0 0
-0.86424 -0.701345 1.859 255 255 255
-0.189216 -0.122731 1.327 255 255 255
-0.756951 0.203279 1.502 255 255 255
0.0108707 0.136754 0.902 255 255 255
-0.0552905 -0.353794 1.327 255 255 255
-0.0591832 0.121357 0.942 255 255 255
-0.193929 0.0169897 1.139 255 255 255
-0.669808 0.283684 1.642 255 255 255
0.0285796 0.105826 0.954 255 255 255
-0.552389 0.143558 1.491 255 255 255
0.140066 0.163402 0.857 255 255 255
0.168971 0.231786 0.761 255 255 255
0.357672 0.129664 0.874 255 255 255
-0.553547 0.487947 1.646 255 255 255
-0.133163 0.0696475 1.015 255 255 255
0.215303 -0.486357 1.372 255 255 255
0.355328 0.116977 0.908 255 255 255
0.477459 0.109789 0.948 255 255 255
0.0348204 0.131136 0.914 255 255 255
0.406657 0.176564 0.84 255 255 255
-0.119897 -0.376042 1.257 255 255 255
0.277839 -0.465422 1.319 255 255 255
0.372867 -0.0275915 1.143 0 0 0
