ply
format ascii 1.0
comment Created by Open3D
element vertex 1337
property double x
property double y
property double z
property uchar red
property uchar green
property uchar blue
end_header
0.0819479 -0.271126 0.794 255 255 255
0.27107 0.290597 0.944 255 255 255
0.0102319 0.494341 2.615 0 0 0
0.0549794 0.116693 0.954 0 0 0
-0.0918836 0.196129 1.094 255 255 255
-0.266655 -0.201709 0.667 0 0 0
-0.318316 -0.0619042 0.72 0 0 0
0.105291 -0.210557 0.825 255 255 255
-0.154768 0.282781 0.909 255 255 255
-0.239372 0.227614 0.852 255 255 255
-0.31577 0.205162 0.834 255 255 255
0.393611 0.173122 0.878 255 255 255
0.829824 -0.0526675 2.044 255 255 255
0.298235 -0.260855 0.775 255 255 255
-0.114529 0.369786 1.124 255 255 255
-0.295499 0.229053 0.842 255 255 255
-0.400432 0.0684896 0.777 255 255 255
-0.311051 -0.161615 0.681 255 255 255
0.855827 0.0380722 1.923 0 0 0
0.356726 -0.138699 0.776 255 255 255
-0.385139 0.159764 0.817 0 0 0
-0.20669 -0.105657 0.707 255 255 255
0.31284 0.172866 0.884 255 255 255
-0.159502 -0.074439 0.728 255 255 255
0.290737 0.36125 0.948 255 255 255
-0.309872 0.131707 0.808 255 255 255
0.322041 -0.122401 1.842 255 255 255
0.84875 -0.347917 2.303 0 0 0
-0.349501 0.227079 0.85 255 255 255
-0.466751 0.341494 0.9 255 255 255
-0.105676 0.0983997 1.005 0 0 0
-0.38124 -0.0529685 0.726 255 255 255
-0.149805 0.225038 0.897 255 255 255
0.136208 0.526311 2.071 255 255 255
0.336047 0.156258 0.896 0 0 0
-0.400793 0.133515 0.811 255 255 255
-0.113502 0.394523 1.132 255 255 255
-0.112333 -0.228666 0.686 255 255 255
-0.380653 0.249634 0.861 255 255 255
-0.395794 0.0327022 0.768 0 0 0
-0.266791 -0.0391653 0.733 255 255 255
0.852562 -0.191428 1.966 255 255 255
0.370267 -0.0924868 1.905 255 255 255
0.712108 0.568168 1.491 255 255 255
0.240974 0.188125 0.895 255 255 255
0.0179138 0.557813 2.499 255 255 255
-0.0808736 -0.124147 0.91 255 255 255
0.854018 0.136918 1.905 255 255 255
-0.303585 -0.0516444 0.724 255 255 255
-0.302168 -0.15722 0.686 255 255 255
-0.417439 0.128078 0.81 255 255 255
0.406774 0.150472 0.914 0 0 0
-0.328049 0.108406 0.801 0 0 0
0.22211 -0.0666543 1.966 255 255 255
-0.170841 0.0367363 0.774 0 0 0
-0.175609 -0.0647829 0.726 0 0 0
-0.144982 -0.0169067 0.751 255 255 255
-0.153226 0.173003 0.836 255 255 255
0.830014 -0.108755 1.865 255 255 255
0.0728428 0.123151 0.944 0 0 0
-0.368726 -0.122837 0.7 0 0 0
0.716375 0.12567 2.196 255 255 255
-0.347517 0.203316 0.832 255 255 255
0.891996 0.172163 2.509 255 255 255
0.102108 -0.213544 0.821 255 255 255
-0.317337 -0.211608 0.664 255 255 255
0.349953 0.245748 0.898 255 255 255
0.206009 0.185212 0.895 255 255 255
0.0139013 0.613124 2.509 255 255 255
-0.101541 0.330785 1.122 255 255 255
-0.117934 0.184933 1.041 0 0 0
-0.0773973 -0.138039 0.904 255 255 255
-0.155984 0.287518 0.934 255 255 255
-0.30024 0.29524 0.88 255 255 255
-0.381457 0.302057 0.879 255 255 255
0.253808 0.282343 0.937 255 255 255
0.173714 -0.255621 0.794 0 0 0
0.327821 -0.226392 0.824 255 255 255
0.299935 -0.23241 0.836 255 255 255
-0.26513 0.318137 0.892 255 255 255
0.415363 0.259398 0.91 255 255 255
-0.394244 0.310264 0.882 255 255 255
-0.373583 0.143458 0.815 255 255 255
0.337505 0.208749 0.896 255 255 255
-0.294883 0.112597 0.803 255 255 255
-0.0844737 -0.146379 0.901 255 255 255
-0.298034 0.127762 0.808 255 255 255
0.700466 0.0989132 2.158 255 255 255
-0.369021 -0.035781 0.737 255 255 255
0.243114 0.244177 0.914 0 0 0
-0.268895 -0.0460695 0.729 255 255 255
-0.473023 0.337813 0.898 255 255 255
-0.244776 -0.113228 0.704 255 255 255
0.0512083 0.531523 2.347 255 255 255
0.223565 -0.25208 0.783 0 0 0
0.209407 -0.189025 0.802 255 255 255
0.339084 -0.258398 0.779 255 255 255
0.391473 0.146969 0.92 0 0 0
-0.0916764 0.115668 1.013 255 255 255
0.217434 0.287223 0.938 255 255 255
1.3501 -0.381354 2.638 0 0 0
-0.254416 0.101126 0.795 0 0 0
0.103552 0.0922389 0.958 0 0 0
-0.341306 0.0454355 0.772 255 255 255
-0.180057 -0.213555 0.66 0 0 0
0.344298 0.294544 0.918 255 255 255
0.26097 0.117998 0.952 0 0 0
-0.39146 0.237876 0.854 255 255 255
-0.249278 -0.238879 0.65 255 255 255
-0.000941513 0.14075 0.97 255 255 255
0.852836 -0.078213 2.695 255 255 255
0.863097 -0.21898 2.044 255 255 255
0.354055 0.255366 0.901 255 255 255
-0.242986 0.160742 0.822 255 255 255
-0.353522 -0.0914698 0.713 255 255 255
-0.202305 -0.0180081 0.746 0 0 0
0.940973 -0.0921955 1.899 255 255 255
-0.14774 0.076256 0.792 255 255 255
-0.230357 -0.108263 0.709 255 255 255
0.390426 0.221086 0.887 255 255 255
-0.122372 0.195075 1.05 0 0 0
0.857243 -0.0559648 1.826 255 255 255
-0.181654 -0.21612 0.658 0 0 0
-0.239432 -0.236431 0.652 255 255 255
0.312105 0.155955 0.886 255 255 255
0.323862 -0.226781 1.724 255 255 255
-0.341247 -0.224686 0.658 255 255 255
-0.275072 0.149905 0.814 255 255 255
-0.310852 -0.209446 0.664 255 255 255
0.140208 -0.191761 0.825 255 255 255
0.358636 0.131386 0.948 0 0 0
0.0941958 0.0922389 0.958 0 0 0
-0.287844 -0.077136 0.72 255 255 255
-0.210983 0.0495868 0.778 255 255 255
0.365244 -0.241607 0.778 255 255 255
0.34711 0.206652 0.887 255 255 255
0.164744 0.618151 2.181 255 255 255
0.851239 -0.199469 2.32 255 255 255
-0.285754 -0.111725 0.709 255 255 255
-0.341537 0.113337 0.799 255 255 255
0.245699 0.149586 0.891 255 255 255
0.342956 0.22745 0.895 255 255 255
-0.0913755 -0.224615 0.869 0 0 0
-0.235704 0.0507221 0.776 0 0 0
0.223441 0.14925 0.889 255 255 255
-0.0716859 0.308534 1.141 255 255 255
-0.399935 0.343658 0.898 255 255 255
1.20268 -0.291857 2.365 255 255 255
-0.0573064 0.0839577 0.989 0 0 0
-0.441831 0.218609 0.844 255 255 255
-0.32583 -0.231123 0.655 255 255 255
-0.110728 -0.0546397 0.937 0 0 0
0.247204 0.160281 0.886 255 255 255
-0.164754 0.0430897 0.775 255 255 255
-0.00250617 0.630963 2.582 255 255 255
0.879487 0.0859616 2.099 255 255 255
-0.0519992 0.102331 0.98 255 255 255
0.120804 0.154958 0.923 255 255 255
0.114861 -0.119601 2.051 255 255 255
-0.144602 0.054932 0.782 255 255 255
-0.402769 0.147437 0.815 255 255 255
-0.164242 -0.074439 0.728 255 255 255
-0.371385 0.162224 0.816 0 0 0
0.833566 -0.208262 2.469 255 255 255
0.188154 0.33614 0.96 255 255 255
-0.146807 0.0668096 0.787 255 255 255
0.701645 0.580851 1.505 255 255 255
0.390783 -0.160596 0.766 255 255 255
0.367278 -0.146208 0.769 255 255 255
0.275189 -0.10296 1.87 255 255 255
-0.261423 -0.215279 0.662 255 255 255
-0.387541 -0.0370305 0.738 255 255 255
0.843146 0.121896 1.696 255 255 255
0.296973 -0.263377 0.775 255 255 255
0.331462 -0.2473 0.776 255 255 255
-0.325993 0.259442 0.861 255 255 255
0.268417 -0.149568 0.78 255 255 255
0.257129 0.309524 0.955 255 255 255
0.382063 -0.194693 0.868 255 255 255
0.0896413 -0.247071 0.817 255 255 255
0.36481 0.237645 0.895 255 255 255
-0.258553 0.0793132 0.784 255 255 255
0.098799 0.130125 0.928 255 255 255
-0.332163 -0.0546455 0.717 255 255 255
0.394312 0.21507 0.886 255 255 255
0.0709355 -0.259178 0.801 255 255 255
0.271688 0.355335 0.957 255 255 255
-0.0525864 -0.29262 0.837 255 255 255
0.387527 0.236716 0.897 255 255 255
0.925065 -0.262315 2.071 255 255 255
0.17684 0.323727 0.984 0 0 0
-0.308753 -0.0191963 0.745 0 0 0
-0.0504039 0.102331 0.98 255 255 255
0.28879 -0.269196 0.77 255 255 255
-0.324338 -0.234309 0.652 255 255 255
-0.0964994 -0.203848 0.877 0 0 0
0.410867 0.140999 0.93 0 0 0
-0.266084 -0.0299459 0.741 255 255 255
0.302097 -0.229484 0.802 255 255 255
-0.348682 -0.19756 0.664 255 255 255
-0.224102 0.131544 0.807 255 255 255
0.0247795 0.019883 0.928 255 255 255
0.233594 -0.297045 0.774 255 255 255
0.25903 0.138436 0.923 255 255 255
-0.243533 0.231773 0.852 255 255 255
-0.277198 0.10971 0.801 255 255 255
0.168187 -0.0583333 2.01 255 255 255
-0.122873 -0.0205669 0.852 0 0 0
0.35177 0.302014 0.918 255 255 255
-0.117573 -0.173458 0.684 255 255 255
-0.193267 0.0925328 0.799 255 255 255
-0.357155 0.185045 0.823 255 255 255
0.228711 0.332486 0.928 255 255 255
0.85122 -0.388164 2.212 255 255 255
0.254259 0.206655 0.906 255 255 255
0.398435 0.158463 0.892 0 0 0
-0.271268 -0.206515 0.665 255 255 255
0.182431 -0.261052 0.787 255 255 255
-0.236299 0.0920695 0.795 255 255 255
0.0100487 0.0818354 0.964 0 0 0
-0.137614 -0.189041 0.684 255 255 255
0.317874 0.179024 0.886 255 255 255
0.113727 0.0629044 0.939 255 255 255
-0.112422 -0.155626 0.754 0 0 0
-0.303907 0.254349 0.858 255 255 255
-0.107682 0.32544 1.11 255 255 255
0.467343 0.134436 0.937 0 0 0
0.161194 0.508126 2.181 255 255 255
0.0458533 0.0969158 0.958 0 0 0
0.0961233 -0.246058 0.827 255 255 255
0.359373 -0.25713 0.779 255 255 255
0.439299 0.131667 0.939 0 0 0
0.84866 -0.314699 2.253 255 255 255
0.0366109 0.0862723 0.961 0 0 0
0.313373 -0.265899 0.775 255 255 255
0.133735 -0.0706888 2.085 255 255 255
-0.198946 -0.125115 0.7 255 255 255
0.268011 0.317294 0.955 255 255 255
-0.087855 0.10515 1.007 255 255 255
-0.297788 -0.118618 0.702 255 255 255
-0.318453 -0.154761 0.685 0 0 0
-0.121066 -0.0972764 0.778 0 0 0
0.27112 0.351485 0.955 255 255 255
-0.113113 0.115668 1.013 0 0 0
0.112273 0.0500323 0.927 255 255 255
0.173601 -0.126201 1.997 255 255 255
0.364468 -0.154116 0.771 255 255 255
-0.10648 -0.20823 0.854 255 255 255
0.767119 0.695727 1.882 255 255 255
0.828713 -0.13403 2.017 255 255 255
0.277417 -0.210785 0.842 255 255 255
-0.339162 -0.0435769 0.727 255 255 255
-0.248977 -0.163486 0.675 255 255 255
0.368543 0.346795 0.934 255 255 255
-0.229155 -0.229341 0.656 255 255 255
-0.294229 -0.173039 0.678 255 255 255
-0.354138 0.148398 0.813 255 255 255
-0.0919315 -0.0649648 0.932 255 255 255
0.17735 0.0621675 0.928 255 255 255
0.0266867 0.0631054 0.942 255 255 255
0.425557 0.150802 0.916 255 255 255
-0.281583 -0.0627254 0.716 255 255 255
1.23332 -0.331462 2.489 0 0 0
0.813434 0.183451 1.972 255 255 255
-0.327116 -0.178334 0.673 0 0 0
-0.0671012 0.0873528 0.991 255 255 255
0.104007 -0.0630638 2.173 255 255 255
-0.421946 0.228731 0.851 255 255 255
0.453611 0.200559 0.892 255 255 255
-0.31961 -0.0438167 0.731 255 255 255
0.187741 0.304811 0.95 0 0 0
-0.284186 0.267995 0.866 255 255 255
-0.229708 0.18683 0.837 255 255 255
-0.277694 -0.080427 0.718 0 0 0
-0.312802 -0.0460695 0.729 255 255 255
-0.228767 0.156157 0.819 255 255 255
-0.446753 0.35331 0.904 255 255 255
0.260359 -0.231254 0.827 255 255 255
-0.256395 0.337436 0.897 255 255 255
-0.373605 0.0224969 0.761 0 0 0
-0.17342 0.268923 0.869 255 255 255
0.387228 0.12548 0.95 0 0 0
-0.245139 0.0846318 0.786 255 255 255
-0.209265 0.276629 0.871 255 255 255
0.966211 -0.213055 2.051 255 255 255
-0.378152 0.0584492 0.778 0 0 0
0.282414 0.205955 0.916 255 255 255
-0.15552 -0.228784 0.67 255 255 255
-0.424654 0.177224 0.824 0 0 0
0.314279 0.172866 0.884 255 255 255
-0.264469 -0.0931497 0.717 255 255 255
-0.129082 -0.0585685 0.737 255 255 255
0.130785 -0.277965 0.777 255 255 255
-0.172792 0.00143277 0.755 0 0 0
0.839033 -0.020232 2.572 255 255 255
-0.152083 -0.0490402 0.738 255 255 255
-0.106228 -0.187269 0.841 255 255 255
-0.446676 0.327945 0.895 255 255 255
-0.106474 -0.133183 0.901 0 0 0
-0.31919 0.156721 0.815 255 255 255
-0.264653 -0.132328 0.696 0 0 0
-0.342819 0.116372 0.802 255 255 255
0.902136 0.156371 1.774 255 255 255
-0.384788 0.0288774 0.766 255 255 255
-0.160221 0.291605 0.882 255 255 255
-0.11882 0.395665 1.13 255 255 255
-0.164468 -0.0674233 0.729 0 0 0
0.39549 0.171888 0.879 255 255 255
-0.237154 0.246215 0.854 255 255 255
-0.126847 -0.21228 0.68 255 255 255
-0.113565 -0.232101 0.667 255 255 255
-0.329591 0.0581487 0.774 255 255 255
-0.376585 0.064946 0.78 0 0 0
0.835559 -0.0237245 2.499 255 255 255
-0.247853 -0.195782 0.669 255 255 255
0.21293 0.119547 0.952 0 0 0
0.768316 0.703463 1.87 255 255 255
-0.334239 0.293474 0.879 255 255 255
-0.161088 -0.00469167 0.752 255 255 255
-0.142066 0.263617 1.044 255 255 255
0.204546 -0.104132 1.837 255 255 255
-0.199664 -0.0793689 0.719 255 255 255
-0.282593 -0.121247 0.704 255 255 255
-0.148278 -0.0333823 0.737 255 255 255
0.344156 -0.266004 0.779 255 255 255
0.840158 -0.086454 2.55 255 255 255
-0.339834 0.100744 0.792 255 255 255
0.715934 0.160133 2.228 255 255 255
-0.391309 0.174176 0.816 255 255 255
-0.207857 -0.0770288 0.719 255 255 255
0.128299 -0.266775 0.785 255 255 255
-0.0733221 -0.205759 0.873 255 255 255
0.172458 0.193706 0.951 0 0 0
0.193793 0.163899 0.906 255 255 255
-0.346353 0.0163049 0.761 255 255 255
0.143362 -0.239972 0.82 255 255 255
0.3104 0.2351 0.902 255 255 255
0.306413 0.135441 0.944 0 0 0
0.290756 -0.176115 1.779 255 255 255
-0.284498 0.31562 0.889 255 255 255
0.348854 -0.25779 0.781 255 255 255
0.378988 0.245103 0.901 255 255 255
0.0340619 -0.00734709 0.934 255 255 255
-0.394668 0.339976 0.896 255 255 255
-0.176012 -0.0921112 0.718 0 0 0
-0.221407 -0.0071107 0.749 255 255 255
0.316899 0.150962 0.908 0 0 0
-0.105664 -0.174869 0.882 255 255 255
-0.0976373 -0.315433 0.815 0 0 0
0.245284 -0.19592 1.724 255 255 255
-0.318023 -0.185172 0.67 255 255 255
-0.317585 -0.0572969 0.721 0 0 0
-0.264785 -0.00712968 0.751 255 255 255
-0.161803 0.40642 1.062 255 255 255
0.879709 -0.00536871 1.799 255 255 255
-0.384347 0.261449 0.863 255 255 255
0.184934 -0.301601 0.776 255 255 255
-0.228456 -0.233963 0.654 255 255 255
-0.310683 -0.172858 0.673 255 255 255
-0.380922 0.268614 0.868 255 255 255
0.398322 -0.203353 0.834 255 255 255
0.266303 0.21961 0.917 255 255 255
-0.196104 -0.165996 0.69 255 255 255
-0.161988 0.338619 0.908 255 255 255
0.176405 -0.271193 0.783 255 255 255
0.332612 -0.274388 0.767 255 255 255
0.867264 0.0748324 1.985 255 255 255
-0.252968 -0.021621 0.745 255 255 255
-0.176154 0.0970369 0.804 255 255 255
0.131189 -0.19703 0.819 255 255 255
-0.273368 0.34003 0.9 255 255 255
-0.380749 0.174816 0.819 255 255 255
0.873411 -0.0267529 2.818 255 255 255
0.899537 -0.284963 2.114 255 255 255
-0.119971 -0.126243 0.74 255 255 255
-0.270098 0.138794 0.811 255 255 255
0.375251 0.125612 0.951 0 0 0
-0.356594 0.0994552 0.792 255 255 255
-0.117636 -0.0682468 0.825 0 0 0
-0.0920314 -0.173363 0.889 0 0 0
-0.199895 0.173529 0.832 255 255 255
-0.16692 0.138623 0.81 255 255 255
-0.161486 0.31992 0.897 255 255 255
-0.383171 0.337385 0.893 255 255 255
-0.184113 -0.205894 0.663 255 255 255
0.228878 0.100974 0.967 255 255 255
-0.412935 0.297765 0.879 255 255 255
0.215438 0.138528 0.904 255 255 255
0.335937 0.188099 0.888 255 255 255
0.697094 0.202978 2.261 255 255 255
-0.189333 -0.155665 0.694 255 255 255
0.335965 0.104828 0.945 255 255 255
-0.105058 -0.2317 0.754 255 255 255
-0.100624 0.0239893 0.972 0 0 0
0.237874 0.495396 2.269 255 255 255
-0.128899 0.340466 1.106 0 0 0
-0.212388 0.305213 0.884 255 255 255
0.278098 0.131248 0.947 0 0 0
0.161396 0.415868 1.073 255 255 255
0.349267 0.249225 0.9 255 255 255
-0.310227 -0.0715746 0.723 255 255 255
-0.264087 0.00266493 0.756 255 255 255
-0.206385 0.0443508 0.775 255 255 255
-0.302595 0.17186 0.824 255 255 255
-0.33013 0.236762 0.85 255 255 255
0.357829 -0.216568 0.854 0 0 0
-0.201337 -0.0346285 0.738 255 255 255
0.171283 0.409589 1.048 255 255 255
-0.0924264 0.0113002 0.969 255 255 255
-0.435829 0.283461 0.879 255 255 255
-0.245975 0.105271 0.797 0 0 0
-0.349307 0.144074 0.811 255 255 255
-0.270431 -0.0263994 0.743 255 255 255
0.896409 -0.349959 2.244 255 255 255
-0.190386 0.164213 0.826 0 0 0
0.173785 0.215848 0.967 255 255 255
-0.186524 0.122237 0.815 0 0 0
0.213825 0.231296 0.916 255 255 255
-0.376407 0.0931284 0.793 255 255 255
-0.175438 0.289718 0.872 255 255 255
-0.100552 -0.203383 0.875 0 0 0
0.208969 0.15793 0.889 255 255 255
0.838447 -0.0670612 1.978 255 255 255
-0.230479 -0.208993 0.666 255 255 255
-0.140076 0.09947 0.847 255 255 255
-0.314065 0.050526 0.773 255 255 255
-0.372103 0.0250393 0.763 255 255 255
0.368595 0.35286 0.938 255 255 255
0.352952 -0.0183131 1.929 0 0 0
-0.308506 0.271126 0.867 255 255 255
0.0945313 0.499108 2.286 255 255 255
-0.212834 -0.0747926 0.72 255 255 255
-0.328864 -0.0747926 0.72 255 255 255
0.125099 -0.257863 0.789 0 0 0
-0.38291 -0.0227721 0.743 0 0 0
-0.0574223 0.0776767 0.991 0 0 0
-0.150175 0.00892119 0.765 255 255 255
-0.254109 0.314173 0.889 255 255 255
0.868997 0.18537 1.748 255 255 255
0.279737 0.213641 0.917 255 255 255
-0.268547 0.0519849 0.776 0 0 0
0.249557 0.124687 0.944 0 0 0
-0.266518 -0.0107673 0.749 255 255 255
0.358599 0.11335 0.952 255 255 255
1.02342 -0.209279 2.114 255 255 255
0.874343 -0.0228703 1.794 255 255 255
0.224404 -0.195941 0.809 255 255 255
-0.255348 0.0752931 0.782 255 255 255
-0.112303 -0.0986711 0.856 255 255 255
0.15207 -0.264283 0.789 255 255 255
-0.067169 0.0745265 0.992 255 255 255
-0.218816 -0.105956 0.709 255 255 255
-0.152783 0.234668 0.906 255 255 255
0.223469 -0.208484 1.646 255 255 255
0.164123 -0.241831 0.804 255 255 255
-0.435423 0.253316 0.864 255 255 255
-0.100942 -0.139511 0.904 0 0 0
0.305191 -0.228869 0.843 255 255 255
-0.209583 -0.102494 0.709 255 255 255
-0.130092 0.0423999 0.836 255 255 255
0.82785 -0.0821044 1.953 255 255 255
-0.243806 0.126291 0.807 255 255 255
-0.0937876 0.203219 1.075 255 255 255
0.830785 -0.0119975 1.923 255 255 255
-0.316622 0.0187817 0.761 255 255 255
-0.0871835 0.0529468 0.981 255 255 255
-0.276746 0.32104 0.892 255 255 255
0.980604 -0.0976942 1.947 255 255 255
0.195268 0.147681 0.906 255 255 255
0.270467 -0.043291 1.923 255 255 255
-0.107549 -0.201869 0.781 255 255 255
-0.122027 -0.174571 0.684 255 255 255
-0.230742 0.220324 0.856 255 255 255
0.87276 -0.0290453 1.815 255 255 255
0.211555 0.199428 0.9 255 255 255
0.20064 0.249307 1.041 255 255 255
0.367755 -0.142639 0.77 255 255 255
0.351348 0.13866 0.945 0 0 0
-0.212975 -0.243792 0.649 0 0 0
-0.141507 -0.0713717 0.733 255 255 255
0.192906 0.120206 0.945 255 255 255
0.307609 0.275723 0.92 255 255 255
0.162197 -0.283922 0.776 255 255 255
-0.203084 0.121038 0.807 0 0 0
-0.286589 0.19613 0.836 255 255 255
0.351692 0.184375 0.884 255 255 255
-0.28203 0.027703 0.768 0 0 0
0.0379369 0.109045 0.955 0 0 0
0.0355061 -0.0118814 0.932 255 255 255
0.306258 -0.229668 0.831 255 255 255
0.246838 -0.234429 1.659 255 255 255
-0.0881345 -0.200021 0.879 0 0 0
-0.372967 -0.0506056 0.726 255 255 255
-0.145467 0.412918 1.137 255 255 255
-0.0930297 -0.127528 0.913 0 0 0
-0.129083 -0.15387 0.686 255 255 255
-0.23184 0.068754 0.78 0 0 0
-0.123119 -0.0533046 0.783 255 255 255
0.20267 -0.160952 0.786 255 255 255
0.186904 0.489947 2.278 255 255 255
-0.287904 0.284368 0.873 255 255 255
-0.104178 -0.0169427 0.961 0 0 0
-0.347093 -0.0179598 0.744 255 255 255
-0.34334 0.179469 0.822 255 255 255
0.310164 -0.229317 0.806 255 255 255
-0.252082 0.0353851 0.772 0 0 0
-0.157996 0.0661305 0.779 255 255 255
-0.344991 0.108477 0.792 255 255 255
-0.322994 -0.194693 0.669 0 0 0
0.185369 0.0796282 0.938 255 255 255
-0.182729 -0.1785 0.682 255 255 255
-0.184631 0.219904 0.849 255 255 255
0.844881 -0.0310616 1.941 255 255 255
-0.147318 0.414769 1.137 255 255 255
-0.0952406 -0.10006 0.92 0 0 0
-0.141679 0.0366888 0.773 255 255 255
0.885335 -0.355029 2.253 255 255 255
0.0271117 0.132634 0.957 255 255 255
-0.14845 -0.136269 0.693 255 255 255
-0.298806 -0.0655101 0.721 255 255 255
0.108853 -0.271193 0.783 255 255 255
-0.150682 0.0379959 0.774 255 255 255
-0.130918 0.20191 1.05 255 255 255
0.879487 0.0893774 2.099 255 255 255
-0.138498 0.194377 0.994 0 0 0
0.148168 0.150778 0.925 255 255 255
0.123683 0.0633064 0.945 255 255 255
-0.267656 -0.161289 0.675 255 255 255
-0.074162 -0.179378 0.883 255 255 255
-0.254445 0.0176125 0.764 255 255 255
0.370599 0.151432 0.902 0 0 0
0.163168 -0.25917 0.793 0 0 0
0.898466 -0.467714 2.768 0 0 0
0.448436 0.166663 0.905 0 0 0
0.23516 0.23177 0.912 255 255 255
-0.324896 -0.0758588 0.719 255 255 255
-0.377329 0.122199 0.806 0 0 0
1.42671 -1.09039 2.967 255 255 255
0.822146 -0.0322779 2.017 255 255 255
-0.33847 -0.0512164 0.718 255 255 255
0.416446 0.181497 0.884 255 255 255
-0.243855 -0.199538 0.667 255 255 255
-0.299836 0.0416666 0.772 255 255 255
-0.259272 0.179215 0.827 255 255 255
-0.215752 0.343658 0.898 255 255 255
0.437898 0.292192 0.92 0 0 0
0.169902 -0.240071 0.839 255 255 255
-0.243156 0.308788 0.886 255 255 255
-0.219742 -0.104087 0.712 255 255 255
0.0645384 0.135671 0.935 255 255 255
-0.104349 0.279803 1.094 255 255 255
-0.279893 0.118118 0.805 255 255 255
-0.227976 0.0264188 0.767 255 255 255
-0.355169 0.249869 0.857 255 255 255
-0.207568 -0.0839323 0.718 255 255 255
-0.327457 -0.197368 0.667 255 255 255
-0.0736721 0.294195 1.143 255 255 255
-0.314472 0.0531105 0.774 255 255 255
0.27786 -0.233946 0.827 255 255 255
0.078857 -0.249061 0.802 255 255 255
0.411786 0.134723 0.939 0 0 0
-0.382507 0.0187324 0.759 0 0 0
-0.286644 -0.0558123 0.717 255 255 255
0.389128 0.264666 0.918 255 255 255
-0.407755 0.25834 0.862 255 255 255
0.357501 0.144811 0.945 255 255 255
0.845194 -0.129999 1.865 255 255 255
0.0418868 0.00636614 0.939 255 255 255
0.86604 0.031615 1.911 0 0 0
0.108457 0.0939937 0.96 0 0 0
-0.0812566 -0.184916 0.882 255 255 255
-0.184867 -0.219332 0.658 0 0 0
-0.451054 0.288854 0.878 255 255 255
-0.332308 0.119428 0.805 0 0 0
0.0806459 -0.235926 0.834 0 0 0
-0.128382 -0.0785287 0.733 255 255 255
0.175411 -0.294145 0.773 255 255 255
-0.146046 -0.19546 0.687 255 255 255
0.285806 0.353163 0.947 255 255 255
-0.306366 -0.0915981 0.714 0 0 0
0.041003 0.0685667 0.954 255 255 255
-0.147137 -0.115998 0.714 255 255 255
0.149804 0.337397 1.041 255 255 255
-0.30694 -0.0414942 0.732 255 255 255
0.15211 -0.190188 0.824 255 255 255
-0.0410824 0.14628 0.986 255 255 255
-0.258108 0.0481344 0.775 255 255 255
-0.127818 0.016789 0.848 0 0 0
-0.301644 -0.0469965 0.725 255 255 255
0.848501 -0.149457 2.365 255 255 255
0.276177 0.10085 0.951 255 255 255
-0.101376 -0.28078 0.754 255 255 255
-0.256418 0.322491 0.892 255 255 255
0.26773 0.0980637 0.954 255 255 255
0.356989 0.256833 0.901 255 255 255
-0.102206 0.0224075 0.972 0 0 0
1.00284 -0.145803 2.044 255 255 255
-0.0924394 0.365515 1.145 255 255 255
-0.199698 -0.231089 0.661 255 255 255
0.116947 -0.265836 0.786 255 255 255
0.92403 0.225811 2.66 255 255 255
0.143712 -0.213804 0.822 255 255 255
-0.362012 0.256342 0.86 255 255 255
-0.232348 0.168449 0.827 255 255 255
0.866006 0.137031 1.997 255 255 255
-0.253073 0.157682 0.82 255 255 255
-0.370056 0.144962 0.816 255 255 255
-0.252815 0.0846318 0.786 255 255 255
-0.044562 0.0680692 0.992 255 255 255
0.227882 -0.148801 0.776 255 255 255
-0.0595407 -0.293319 0.839 255 255 255
0.267307 0.128166 0.947 0 0 0
-0.18091 0.223192 0.851 255 255 255
-0.215676 0.287538 0.874 255 255 255
-0.330867 0.204424 0.831 255 255 255
0.198814 -0.236832 0.823 255 255 255
-0.113803 0.40111 1.135 255 255 255
-0.228125 0.0481965 0.776 255 255 255
-0.372713 0.163552 0.816 0 0 0
-0.248656 0.0558452 0.777 255 255 255
-0.348199 0.190633 0.824 255 255 255
1.13291 -0.31375 2.356 255 255 255
0.417406 0.153917 0.908 255 255 255
-0.0932325 0.260047 1.132 255 255 255
-0.222713 0.113762 0.802 255 255 255
-0.435572 0.238433 0.856 255 255 255
0.383047 0.194997 0.88 255 255 255
-0.279434 -0.193605 0.669 0 0 0
-0.251544 0.0100864 0.759 255 255 255
0.275305 0.120588 0.948 0 0 0
-0.240716 0.325759 0.893 255 255 255
-0.381247 0.0505914 0.774 0 0 0
-0.32396 -0.136072 0.692 0 0 0
0.0997138 0.472553 2.32 255 255 255
-0.380298 0.0237665 0.762 255 255 255
0.0442938 0.0969158 0.958 0 0 0
-0.124481 0.0101807 0.873 0 0 0
-0.297445 -0.0287401 0.741 0 0 0
0.369188 -0.24886 0.773 255 255 255
-0.0908417 -0.139819 0.906 0 0 0
-0.133461 0.000218201 0.807 255 255 255
0.0666781 0.0882932 0.966 0 0 0
0.18869 0.540546 2.212 255 255 255
-0.0665028 -0.145566 0.896 255 255 255
-0.17062 0.24291 0.862 255 255 255
0.175865 -0.301212 0.775 255 255 255
0.217351 0.34537 0.951 255 255 255
-0.240446 0.322491 0.892 255 255 255
-0.0935259 0.211374 1.072 255 255 255
-0.15753 -0.0992598 0.719 255 255 255
0.101052 0.156121 0.921 255 255 255
0.446466 0.125421 0.938 255 255 255
0.420164 0.279874 0.914 255 255 255
-0.20529 0.335977 0.897 255 255 255
-0.074078 -0.186351 0.882 255 255 255
0.800428 0.648965 1.779 0 0 0
-0.0722089 -0.0136855 0.952 255 255 255
-0.101365 -0.00915182 0.964 0 0 0
0.261276 0.260839 0.931 255 255 255
-0.339165 -0.0826486 0.717 255 255 255
-0.178609 0.332315 0.895 255 255 255
0.064577 -0.245451 0.803 255 255 255
0.13047 0.0847084 0.961 255 255 255
0.11597 -0.293384 0.771 255 255 255
-0.216615 0.0290659 0.771 255 255 255
0.303225 -0.0641794 1.893 255 255 255
-0.209745 0.287209 0.873 255 255 255
-0.14199 0.137249 0.842 255 255 255
-0.217871 -0.239246 0.651 255 255 255
-0.318537 -0.214202 0.662 255 255 255
0.789683 0.705773 1.821 0 0 0
0.349603 0.203535 0.886 255 255 255
1.01697 -0.284386 2.189 255 255 255
-0.164482 -0.196788 0.68 255 255 255
0.185482 -0.0899102 1.985 255 255 255
-0.407706 0.0518509 0.774 255 255 255
-0.322933 0.199643 0.828 255 255 255
-0.117246 -0.161765 0.716 255 255 255
-0.285113 -0.201709 0.667 255 255 255
0.450818 0.15981 0.925 255 255 255
-0.130474 0.136286 1.007 255 255 255
-0.257649 0.0982903 0.793 0 0 0
-0.166767 -0.22993 0.667 255 255 255
0.402031 0.272726 0.91 255 255 255
-0.251174 -0.168978 0.675 255 255 255
-0.304041 -0.0985695 0.714 255 255 255
0.90591 -0.414625 2.805 255 255 255
-0.183955 0.279785 0.872 255 255 255
-0.114115 -0.0997372 0.819 0 0 0
-0.268544 -0.185984 0.669 255 255 255
-0.131839 -0.0394858 0.739 255 255 255
-0.251349 0.24372 0.855 255 255 255
0.0630071 0.100034 0.958 0 0 0
0.0164949 0.1445 0.974 255 255 255
0.203322 0.185419 0.896 255 255 255
-0.183413 -0.114699 0.706 255 255 255
-0.0753791 -0.224728 0.864 255 255 255
0.218633 0.55252 2.261 255 255 255
0.394312 0.209302 0.886 255 255 255
-0.3558 -0.133653 0.697 255 255 255
0.474939 0.143716 0.928 0 0 0
-0.138414 0.0499054 0.783 255 255 255
0.265536 0.254505 0.93 255 255 255
0.0645665 0.114065 0.958 255 255 255
-0.452089 0.267509 0.869 255 255 255
-0.104984 -0.239559 0.842 255 255 255
-0.145488 -0.122741 0.706 255 255 255
0.880845 -0.20164 1.972 255 255 255
-0.22657 0.0468732 0.775 255 255 255
-0.178208 0.23899 0.858 255 255 255
-0.340891 -0.0071107 0.749 255 255 255
-0.231476 0.00265788 0.754 255 255 255
0.358789 -0.139781 0.775 255 255 255
-0.396747 0.154824 0.819 0 0 0
-0.227162 -0.188161 0.669 255 255 255
-0.0671699 -0.305765 0.832 255 255 255
-0.206687 -0.0758588 0.719 255 255 255
-0.0999212 0.125559 1.013 255 255 255
0.897432 0.000515084 1.905 255 255 255
-0.342519 -0.119419 0.7 255 255 255
-0.17714 0.0241408 0.774 0 0 0
0.163818 0.181705 0.937 255 255 255
0.178261 0.382586 0.983 0 0 0
0.342531 -0.228602 0.837 255 255 255
-0.153907 -0.0263284 0.741 255 255 255
-0.373634 -0.0635139 0.725 255 255 255
0.279781 -0.218411 0.845 0 0 0
-0.3745 0.173059 0.817 255 255 255
-0.356785 0.151044 0.813 255 255 255
-0.258912 0.24708 0.857 255 255 255
-0.352401 0.128757 0.806 255 255 255
0.357645 -0.245406 0.778 255 255 255
-0.158759 -0.113674 0.714 255 255 255
0.233741 0.132571 0.924 255 255 255
0.402625 0.286903 0.908 255 255 255
-0.267508 0.0467522 0.773 0 0 0
-0.1704 -0.165034 0.686 255 255 255
-0.225104 -0.114861 0.707 0 0 0
-0.0888622 -0.11304 0.916 255 255 255
-0.240759 0.223454 0.852 255 255 255
-0.405419 0.264258 0.863 255 255 255
-0.344128 -0.103502 0.708 255 255 255
0.157999 -0.292007 0.774 255 255 255
0.0255211 -0.235145 0.808 0 0 0
-0.0654881 0.0809021 0.991 255 255 255
-0.103401 -0.186296 0.875 0 0 0
0.403069 0.278343 0.909 255 255 255
-0.0690232 -0.116743 0.91 255 255 255
0.427769 0.146104 0.924 0 0 0
0.00698201 0.152425 0.974 255 255 255
-0.217781 -0.158987 0.684 255 255 255
-0.336105 0.148033 0.811 255 255 255
0.829944 -0.191983 2.519 255 255 255
0.0976279 0.0420312 0.917 255 255 255
-0.169447 -0.062764 0.73 0 0 0
0.0420206 0.133621 0.942 255 255 255
-0.0994679 -0.199794 0.878 0 0 0
-0.144808 -0.212132 0.676 255 255 255
0.915886 -0.307628 2.128 0 0 0
0.185186 0.209987 0.969 0 0 0
-0.167473 -0.0513724 0.737 0 0 0
-0.115213 0.279478 1.079 0 0 0
-0.148618 0.276249 0.986 0 0 0
-0.0068235 0.556248 2.626 255 255 255
0.297536 0.111566 0.95 255 255 255
-0.101633 -0.264972 0.721 255 255 255
0.414972 0.197991 0.887 255 255 255
0.397095 0.160824 0.889 0 0 0
-0.397122 0.0771532 0.788 255 255 255
-0.395558 0.0812058 0.79 255 255 255
-0.0773857 -0.17153 0.887 255 255 255
-0.335859 0.222143 0.847 255 255 255
0.217496 -0.289862 0.775 255 255 255
0.275305 0.307255 0.948 255 255 255
-0.317584 0.259442 0.861 255 255 255
-0.364877 -0.133653 0.697 255 255 255
-0.249745 -0.0367294 0.732 255 255 255
0.353264 0.152625 0.918 0 0 0
0.845937 -0.00889578 1.929 255 255 255
-0.383209 0.204293 0.836 255 255 255
1.14979 -0.256946 2.261 255 255 255
0.306418 0.261452 0.912 255 255 255
-0.150568 0.0226743 0.767 255 255 255
0.962473 -0.092778 1.911 255 255 255
0.303452 0.192001 0.886 255 255 255
0.100284 0.0374316 0.914 255 255 255
0.110286 0.17148 0.923 255 255 255
-0.172656 0.0946551 0.806 255 255 255
0.111259 0.117006 0.944 255 255 255
0.315427 0.368963 0.948 255 255 255
-0.256616 0.236486 0.854 255 255 255
-0.117498 0.406651 1.135 255 255 255
-0.197712 -0.015601 0.747 0 0 0
-0.22052 -0.0192221 0.746 0 0 0
0.331619 0.149311 0.916 255 255 255
-0.295064 -0.247921 0.646 255 255 255
0.239359 0.152143 0.889 255 255 255
-0.369674 0.332652 0.892 255 255 255
-0.260593 -0.0192221 0.746 255 255 255
-0.0186122 0.0756803 0.986 255 255 255
0.412887 0.161909 0.895 0 0 0
0.0722279 -0.0895884 2.411 255 255 255
-0.383631 0.136155 0.811 255 255 255
0.0847446 0.145946 0.923 255 255 255
-0.113615 -0.147357 0.762 0 0 0
0.127318 -0.274878 0.779 255 255 255
-0.353977 -0.180257 0.672 0 0 0
-0.162507 -0.198186 0.681 255 255 255
0.131459 -0.271771 0.781 255 255 255
0.858093 -0.173984 2.684 255 255 255
0.371998 -0.256999 0.771 0 0 0
-0.161631 0.41408 1.096 0 0 0
0.201096 -0.274728 0.775 255 255 255
0.273246 0.349106 0.957 255 255 255
-0.301246 0.0263843 0.766 0 0 0
-0.257729 -0.0702033 0.721 255 255 255
0.15739 0.0989888 0.963 0 0 0
0.811464 0.206953 2.392 255 255 255
-0.0982217 -0.222687 0.867 0 0 0
-0.202921 0.322853 0.893 255 255 255
-0.301957 0.0403579 0.771 255 255 255
-0.222564 0.32977 0.896 255 255 255
-0.255487 -0.0921112 0.718 255 255 255
-0.167537 -0.177831 0.688 255 255 255
0.343923 0.289746 0.917 255 255 255
0.257812 -0.214308 1.714 255 255 255
0.386954 -0.18752 0.83 255 255 255
0.271932 0.293061 0.947 255 255 255
-0.147102 0.279135 1.02 0 0 0
-0.284965 0.0902049 0.79 255 255 255
0.131149 0.100869 0.966 0 0 0
0.356837 -0.263469 0.779 255 255 255
-0.409655 0.213472 0.84 255 255 255
-0.13391 0.441584 1.149 0 0 0
-0.116031 -0.0671771 0.863 255 255 255
-0.0876952 -0.295642 0.834 0 0 0
-0.282242 0.0404103 0.772 255 255 255
0.092873 -0.278054 0.788 255 255 255
-0.180285 0.265789 0.868 255 255 255
-0.354269 -0.138724 0.694 0 0 0
0.220722 0.345596 0.939 255 255 255
0.123553 0.509511 2.085 255 255 255
0.245875 -0.263955 0.773 255 255 255
0.416676 -0.223168 0.822 255 255 255
0.905639 -0.104923 2.953 255 255 255
0.0888556 -0.254311 0.798 255 255 255
-0.224974 0.211864 0.85 255 255 255
0.821952 0.0285946 1.917 0 0 0
0.379302 0.212665 0.888 255 255 255
-0.0826704 0.658485 2.731 0 0 0
-0.162026 0.325384 0.9 255 255 255
0.117775 -0.272467 0.783 255 255 255
-0.114587 -0.121176 0.777 0 0 0
-0.167886 0.0278473 0.772 255 255 255
0.198938 0.265681 1.059 255 255 255
-0.228908 0.0741152 0.783 255 255 255
-0.103388 -0.216042 0.863 0 0 0
0.204633 0.502781 2.269 255 255 255
-0.136377 -0.145574 0.689 255 255 255
-0.12158 -0.063416 0.798 0 0 0
-0.431927 0.274737 0.874 255 255 255
0.370611 0.112153 0.955 255 255 255
-0.313117 0.300898 0.884 255 255 255
-0.17896 0.0847313 0.799 255 255 255
-0.170168 -0.0649614 0.728 0 0 0
0.352731 0.181292 0.883 255 255 255
-0.287069 0.31671 0.888 255 255 255
-0.258844 -0.106958 0.708 255 255 255
0.109416 0.476787 2.286 255 255 255
0.324946 -0.213667 0.848 0 0 0
0.345395 0.278082 0.913 255 255 255
0.87084 -0.112597 2.244 255 255 255
0.383169 0.181487 0.877 255 255 255
0.83622 -0.040003 2.269 255 255 255
-0.212049 -0.206826 0.666 255 255 255
-0.144729 0.280777 1.051 0 0 0
-0.235764 0.247604 0.854 255 255 255
-0.377 0.274109 0.872 255 255 255
0.367454 -0.261101 0.772 0 0 0
-0.419834 0.118411 0.807 255 255 255
-0.186596 -0.117978 0.705 255 255 255
0.136727 0.0831446 0.961 255 255 255
0.832781 -0.154001 1.899 255 255 255
0.271818 0.317847 0.952 255 255 255
0.196799 -0.249531 0.783 0 0 0
0.044896 -0.00279925 0.938 255 255 255
-0.319272 -0.122661 0.699 255 255 255
0.194003 0.199585 0.921 0 0 0
0.816644 -0.124621 1.972 255 255 255
-0.254319 -0.0932796 0.718 255 255 255
-0.256486 0.00761608 0.759 255 255 255
0.19686 0.381418 0.98 255 255 255
-0.144122 0.425512 1.141 255 255 255
-0.125125 0.0718832 0.978 255 255 255
0.204325 0.366476 0.97 255 255 255
0.856708 -0.164304 1.911 255 255 255
-0.425836 0.31382 0.888 255 255 255
0.405941 0.116693 0.954 255 255 255
-0.32042 0.173412 0.825 0 0 0
-0.329528 -0.190339 0.669 0 0 0
-0.152114 -0.0168842 0.75 255 255 255
-0.347753 -0.104358 0.706 255 255 255
-0.134992 -0.17517 0.682 255 255 255
-0.238694 -0.179394 0.677 0 0 0
0.181275 -0.0845007 2.01 255 255 255
0.83575 0.0482752 1.633 0 0 0
-0.403404 0.050526 0.773 255 255 255
-0.131737 0.0642392 0.874 0 0 0
-0.381718 0.0986621 0.796 255 255 255
-0.20463 -0.0747926 0.72 255 255 255
-0.376745 0.341053 0.895 255 255 255
-0.336737 -0.105657 0.707 255 255 255
-0.316933 -0.188443 0.67 255 255 255
0.887929 -0.342781 2.269 0 0 0
0.853233 -0.0513915 1.876 255 255 255
-0.376062 0.094657 0.795 255 255 255
0.3189 0.211901 0.897 255 255 255
0.172734 0.355591 0.988 255 255 255
0.360578 0.13866 0.945 0 0 0
0.0428236 0.0877448 0.96 0 0 0
0.299162 0.25144 0.908 255 255 255
-0.370861 0.0237977 0.763 255 255 255
-0.242182 0.263951 0.862 255 255 255
-0.169219 0.303775 0.884 255 255 255
0.413881 0.260879 0.91 255 255 255
-0.113316 -0.2149 0.692 255 255 255
-0.265418 0.250744 0.86 255 255 255
-0.2298 -0.150276 0.69 255 255 255
-0.325792 0.177439 0.825 0 0 0
-0.330723 0.155204 0.814 255 255 255
-0.327473 0.124822 0.806 0 0 0
0.162905 0.332929 1.017 255 255 255
-0.355571 -0.021592 0.744 0 0 0
-0.110293 0.324299 1.1 255 255 255
-0.0864066 -0.259206 0.848 0 0 0
-0.132252 0.0854028 0.887 0 0 0
0.256946 0.357105 0.966 255 255 255
-0.25678 -0.0263639 0.742 255 255 255
-0.000934719 0.0723478 0.963 255 255 255
-0.17075 0.315233 0.892 255 255 255
-0.292842 -0.138524 0.693 0 0 0
-0.153874 -0.202168 0.687 255 255 255
0.123809 0.14895 0.923 255 255 255
-0.263851 -0.15208 0.688 255 255 255
0.0533144 0.119547 0.952 0 0 0
-0.132033 0.185013 1.032 255 255 255
0.443977 0.213123 0.896 255 255 255
-0.329764 0.109847 0.802 0 0 0
1.08161 -0.365587 2.32 0 0 0
-0.191769 0.0226743 0.767 255 255 255
-0.171544 -0.100893 0.714 0 0 0
-0.313437 0.103974 0.797 0 0 0
0.108525 -0.213024 0.819 255 255 255
-0.426756 0.33706 0.896 255 255 255
-0.218729 -0.119125 0.705 0 0 0
-0.233824 0.244252 0.852 255 255 255
0.276727 0.283869 0.932 255 255 255
-0.296469 0.203175 0.837 255 255 255
-0.308679 -0.111252 0.706 255 255 255
-0.357237 -0.144872 0.691 0 0 0
0.171776 0.570637 2.136 255 255 255
-0.35103 0.166004 0.815 255 255 255
0.424163 0.270654 0.913 255 255 255
-0.384019 0.0212865 0.762 255 255 255
0.253801 0.368109 0.966 255 255 255
-0.00885459 0.0714422 0.972 255 255 255
-0.209738 -0.199048 0.669 255 255 255
0.808318 0.0152747 2.253 0 0 0
-0.183888 0.131154 0.821 0 0 0
0.892274 0.00368346 1.941 255 255 255
-0.283858 0.304806 0.887 255 255 255
-0.131446 0.0255443 0.819 255 255 255
-0.377833 -0.0669608 0.724 255 255 255
-0.186804 -0.156568 0.693 255 255 255
-0.17966 0.0254003 0.774 0 0 0
-0.127864 0.212768 1.053 255 255 255
-0.328363 -0.0287013 0.74 255 255 255
-0.203524 0.307742 0.883 255 255 255
-0.395625 0.185494 0.825 255 255 255
-0.371746 0.346195 0.897 255 255 255
-0.253514 0.325394 0.892 255 255 255
-0.322913 -0.154761 0.685 255 255 255
-0.306635 -0.156103 0.686 255 255 255
-0.2856 -0.24687 0.646 255 255 255
-0.0908994 -0.0546397 0.937 255 255 255
0.206244 -0.199425 1.616 255 255 255
0.159751 0.354792 1.018 255 255 255
-0.134276 0.00155613 0.82 255 255 255
0.174413 -0.184374 0.828 255 255 255
-0.367566 0.300968 0.88 255 255 255
-0.0685424 -0.25813 0.849 255 255 255
-0.385817 -0.0381796 0.737 255 255 255
0.344954 -0.161065 1.805 255 255 255
0.207122 0.10973 0.961 0 0 0
0.105547 -0.208376 0.827 255 255 255
-0.332149 0.0766636 0.783 255 255 255
-0.24648 -0.0840492 0.719 255 255 255
0.834846 -0.020232 2.572 255 255 255
-0.146471 -0.155665 0.689 255 255 255
-0.216472 0.349205 0.901 255 255 255
0.0219928 0.0445202 0.938 255 255 255
-0.330839 -0.124579 0.697 0 0 0
-0.31362 -0.102928 0.712 0 0 0
0.0146645 0.336978 1.072 255 255 255
0.207384 0.130966 0.934 255 255 255
0.356639 0.196875 0.882 255 255 255
0.883339 -0.0174397 1.837 255 255 255
0.0643643 0.0764091 0.955 255 255 255
-0.341703 0.32503 0.891 255 255 255
-0.405396 0.0466918 0.772 255 255 255
-0.132611 0.139734 0.963 255 255 255
0.171478 0.374643 1.009 255 255 255
0.221161 -0.222237 1.629 255 255 255
-0.20077 0.10737 0.803 0 0 0
0.0647621 0.528868 2.286 255 255 255
-0.229524 -0.241307 0.648 255 255 255
-0.0982371 0.326467 1.126 255 255 255
0.0207713 0.110252 0.952 0 0 0
-0.234434 -0.197663 0.668 255 255 255
0.302009 0.161723 0.886 255 255 255
0.383747 0.317917 0.934 255 255 255
0.803122 0.0258737 1.947 0 0 0
-0.307103 0.210738 0.84 255 255 255
0.392523 0.257 0.912 255 255 255
0.430283 0.244448 0.904 255 255 255
0.0891897 -0.252661 0.801 255 255 255
0.120579 0.484228 2.286 255 255 255
-0.335978 0.0913747 0.789 255 255 255
-0.103401 -0.189144 0.875 0 0 0
0.0614849 -0.118469 2.818 255 255 255
-0.283867 0.208374 0.836 255 255 255
-0.152978 -0.171113 0.688 255 255 255
-0.087787 -0.260586 0.848 0 0 0
-0.293414 0.104235 0.799 0 0 0
-0.160049 0.104626 0.802 255 255 255
0.207738 -0.252707 0.781 0 0 0
0.29445 0.285015 0.921 255 255 255
0.844416 -0.136434 1.87 255 255 255
0.871443 -0.254842 2.121 255 255 255
0.69018 0.202894 2.181 255 255 255
0.101464 -0.27955 0.785 255 255 255
-0.133155 -0.0630219 0.733 255 255 255
0.320724 0.145852 0.932 255 255 255
-0.112127 -0.230412 0.678 255 255 255
-0.27883 -0.110571 0.709 255 255 255
0.228713 0.166235 0.887 255 255 255
-0.121518 -0.254446 0.663 255 255 255
-0.166895 -0.102055 0.714 0 0 0
0.135748 -0.0565416 2.064 255 255 255
0.874609 0.0224254 1.923 255 255 255
-0.295404 0.125132 0.808 255 255 255
-0.132777 0.281234 1.079 255 255 255
-0.174975 0.308091 0.884 255 255 255
0.232986 0.114065 0.958 0 0 0
-0.312067 0.0847395 0.787 255 255 255
-0.335117 -0.0131698 0.747 255 255 255
-0.256656 -0.0932796 0.718 255 255 255
-0.112932 0.0239152 0.969 0 0 0
0.231971 0.246471 0.917 255 255 255
-0.173744 0.167709 0.83 255 255 255
0.278449 -0.237923 0.813 255 255 255
-0.152741 -0.13382 0.692 255 255 255
0.00698201 0.146085 0.974 255 255 255
0.35885 0.307654 0.917 255 255 255
-0.341115 0.0939426 0.789 255 255 255
0.0706822 -0.00571486 0.916 255 255 255
0.829252 -0.268765 2.365 255 255 255
-0.00125505 -0.0313094 0.483 0 0 0
-0.453182 0.254427 0.863 255 255 255
0.845501 -0.11143 1.859 255 255 255
0.355653 -0.227256 0.808 255 255 255
-0.154979 -0.184694 0.697 255 255 255
-0.369884 -0.0143661 0.746 0 0 0
0.269565 0.31574 0.955 255 255 255
0.0931499 0.046508 0.917 255 255 255
-0.342636 0.0138281 0.761 255 255 255
-0.386863 0.115354 0.804 0 0 0
-0.300206 -0.127982 0.697 0 0 0
-0.115025 -0.112651 0.816 0 0 0
0.423065 -0.210284 0.84 0 0 0
0.305019 -0.230415 0.824 255 255 255
0.153881 0.113231 0.951 0 0 0
0.309591 0.146489 0.917 0 0 0
0.189685 0.114899 0.952 0 0 0
0.814743 0.16378 1.893 255 255 255
0.347893 0.16661 0.889 255 255 255
-0.283143 -0.0838154 0.717 0 0 0
-0.146207 0.0444653 0.777 255 255 255
0.375119 0.148822 0.913 255 255 255
-0.347475 0.166208 0.816 255 255 255
-0.20127 0.112878 0.805 0 0 0
0.197246 0.495396 2.269 255 255 255
-0.296569 0.00264731 0.751 255 255 255
-0.22689 0.242865 0.852 255 255 255
0.339721 0.231135 0.898 255 255 255
0.242461 0.21845 0.906 255 255 255
-0.347359 -0.133461 0.696 0 0 0
-0.350168 0.152367 0.813 255 255 255
0.220424 -0.29879 0.772 255 255 255
-0.20769 0.153679 0.82 0 0 0
-0.234693 -0.161289 0.675 255 255 255
-0.128143 -0.20151 0.681 255 255 255
-0.233463 -0.127575 0.701 255 255 255
0.175865 -0.281034 0.775 255 255 255
0.390358 -0.220456 0.793 255 255 255
-0.278178 -0.132886 0.693 255 255 255
-0.139512 -0.208039 0.677 255 255 255
0.0757553 0.116758 0.942 255 255 255
0.277602 0.19424 0.91 255 255 255
0.258469 0.241551 0.921 255 255 255
0.130798 0.114899 0.952 255 255 255
-0.186237 -0.112719 0.708 255 255 255
-0.251095 -0.0401379 0.729 255 255 255
0.207403 -0.279772 0.775 255 255 255
0.087008 -0.288851 0.793 255 255 255
-0.114884 -0.113839 0.815 0 0 0
0.19529 0.205281 0.913 0 0 0
-0.349629 0.275212 0.871 255 255 255
-0.127745 0.281755 1.081 0 0 0
0.821586 0.0742611 1.744 255 255 255
-0.0720133 0.0890553 0.992 255 255 255
-0.0203813 0.0730592 0.994 255 255 255
0.190114 0.282815 0.97 0 0 0
-0.0930055 0.0761408 0.992 255 255 255
-0.155218 0.40094 1.114 0 0 0
-0.109484 -0.210161 0.845 255 255 255
0.212278 -0.258398 0.779 0 0 0
0.295729 0.141746 0.925 255 255 255
0.0347184 0.125744 0.952 255 255 255
0.203582 0.374328 0.974 255 255 255
-0.103968 0.259268 1.09 255 255 255
-0.331217 0.0339962 0.769 255 255 255
0.223388 0.319926 0.931 255 255 255
0.196139 0.248352 0.924 0 0 0
0.143195 0.111801 0.952 0 0 0
-0.410407 0.154446 0.817 255 255 255
0.467382 0.145696 0.931 0 0 0
0.23049 -0.165852 1.929 255 255 255
0.151217 -0.279589 0.778 255 255 255
0.85122 -0.258577 2.212 255 255 255
0.379162 0.261452 0.912 255 255 255
0.938911 -0.510996 2.967 0 0 0
-0.436935 0.26125 0.867 255 255 255
-0.270964 -0.15118 0.689 0 0 0
0.0653538 0.0077765 0.925 255 255 255
0.279371 0.152657 0.892 255 255 255
-0.165961 -0.194818 0.677 0 0 0
0.392313 -0.143705 0.769 255 255 255
0.205095 -0.230498 0.849 0 0 0
-0.331326 0.137136 0.809 0 0 0
-0.272621 -0.127211 0.699 255 255 255
-0.146997 -0.0969197 0.719 255 255 255
-0.292644 -0.0404682 0.735 255 255 255
0.396613 -0.208668 0.839 0 0 0
-0.126907 -0.0414094 0.775 255 255 255
0.447803 0.186043 0.892 255 255 255
-0.121636 -0.142405 0.701 255 255 255
0.193855 0.57411 2.189 255 255 255
0.835279 -0.0585364 2.017 255 255 255
-0.392637 0.143634 0.816 255 255 255
-0.315013 0.199254 0.832 255 255 255
-0.309889 0.170106 0.822 255 255 255
-0.120421 -0.220605 0.675 255 255 255
-0.446942 0.309529 0.884 255 255 255
-0.256621 -0.18135 0.672 0 0 0
-0.292659 -0.23359 0.65 255 255 255
0.824819 -0.0438374 2.099 255 255 255
-0.172006 0.27458 0.869 255 255 255
-0.219355 -0.0496965 0.73 255 255 255
-0.378266 0.126447 0.808 0 0 0
-0.146522 -0.201285 0.684 255 255 255
0.872254 -0.110984 2.286 255 255 255
0.28123 0.227072 0.917 255 255 255
0.435204 0.238036 0.902 0 0 0
0.331298 -0.20796 1.779 255 255 255
-0.157733 0.0525208 0.784 255 255 255
0.240825 0.364323 0.952 255 255 255
-0.319168 0.282947 0.873 255 255 255
-0.1342 -0.207243 0.678 255 255 255
0.266452 -0.216266 0.842 0 0 0
-0.141949 0.247719 1.007 0 0 0
-0.27239 0.318137 0.892 255 255 255
0.300585 0.130971 0.945 0 0 0
-0.233729 -0.0727511 0.723 0 0 0
-0.189241 0.104887 0.804 0 0 0
0.0959231 -0.221792 0.837 255 255 255
0.235461 -0.262454 0.776 255 255 255
-0.384246 0.115354 0.804 0 0 0
-0.324442 -0.180257 0.672 0 0 0
-0.144888 -0.0724656 0.732 255 255 255
0.322945 -0.196189 0.85 255 255 255
0.212891 0.222865 0.912 255 255 255
-0.235471 0.258538 0.858 255 255 255
0.445398 0.186252 0.893 255 255 255
0.309515 0.203234 0.891 255 255 255
-0.318577 -0.129876 0.695 0 0 0
0.287862 0.227045 0.905 255 255 255
0.81216 -0.116179 1.887 255 255 255
0.934481 -0.484557 2.953 0 0 0
-0.264578 0.3371 0.9 255 255 255
-0.1065 0.434868 1.156 255 255 255
-0.247509 -0.0656009 0.722 255 255 255
0.176077 -0.255299 0.793 0 0 0
-0.262091 -0.164947 0.672 255 255 255
-0.270074 0.0226447 0.766 0 0 0
0.014738 0.485533 2.66 0 0 0
-0.108695 -0.213341 0.729 0 0 0
-0.26803 0.106568 0.797 0 0 0
-0.0671012 0.0825148 0.991 255 255 255
-0.253508 0.28688 0.872 255 255 255
-0.215493 0.0469337 0.776 255 255 255
-0.22114 -0.218091 0.664 255 255 255
-0.442799 0.332686 0.896 255 255 255
-0.213827 0.305213 0.884 255 255 255
-0.128132 0.0317048 0.841 0 0 0
0.322279 0.108474 0.95 255 255 255
-0.264594 0.0138281 0.761 255 255 255
-0.128207 -0.0831864 0.732 255 255 255
0.413822 -0.226352 0.819 255 255 255
0.804844 0.682161 1.87 255 255 255
0.196296 0.320067 0.954 255 255 255
0.825749 -0.139925 1.876 255 255 255
0.221051 0.484228 2.286 255 255 255
0.164298 -0.289488 0.774 255 255 255
-0.205218 -0.0382833 0.739 255 255 255
0.16549 -0.0782304 2.017 255 255 255
-0.145144 0.104235 0.799 255 255 255
-0.17093 0.071841 0.786 0 0 0
-0.265766 0.20093 0.839 255 255 255
0.325495 0.346385 0.937 255 255 255
-0.320409 -0.222207 0.657 255 255 255
1.18243 -0.359479 2.459 0 0 0
-0.298866 -0.230065 0.652 255 255 255
0.446838 0.160966 0.923 255 255 255
-0.307683 -0.247921 0.646 255 255 255
-0.385996 0.170192 0.816 255 255 255
-0.00875438 0.131624 0.961 255 255 255
-0.350547 -0.102205 0.707 255 255 255
-0.289273 0.0455532 0.774 255 255 255
-0.0976794 -0.247368 0.85 0 0 0
0.394871 0.266488 0.914 255 255 255
-0.246104 -0.242052 0.65 255 255 255
0.224179 0.323425 0.928 255 255 255
-0.112634 0.187959 1.039 0 0 0
0.415337 -0.22183 0.822 255 255 255
-0.17735 0.334144 0.896 255 255 255
-0.323457 -0.248973 0.646 255 255 255
-0.344952 -0.0251564 0.742 0 0 0
-0.128065 0.060933 0.888 0 0 0
0.382943 -0.219786 0.845 0 0 0
-0.346651 -0.0815954 0.718 255 255 255
1.05808 0.220363 2.871 255 255 255
-0.198622 -0.231089 0.661 255 255 255
-0.189006 -0.0668684 0.723 255 255 255
-0.215206 -0.124153 0.701 0 0 0
-0.33736 -0.00591543 0.752 255 255 255
0.731432 0.174008 2.22 255 255 255
0.19529 0.191909 0.913 0 0 0
0.379318 0.187409 0.878 255 255 255
0.362427 -0.144266 0.772 255 255 255
-0.0856933 -0.278964 0.841 0 0 0
-0.304072 0.313466 0.887 255 255 255
-0.352815 0.15369 0.813 255 255 255
-0.306166 -0.16359 0.68 255 255 255
0.162585 0.325667 1.015 255 255 255
0.23552 -0.232059 0.811 255 255 255
-0.260201 -0.0322266 0.738 255 255 255
-0.206255 0.115354 0.804 0 0 0
0.0947557 0.100532 0.948 0 0 0
0.211418 -0.157914 0.79 255 255 255
0.825307 0.203305 1.947 255 255 255
-0.270103 0.152742 0.815 255 255 255
-0.124287 -0.0862548 0.759 255 255 255
1.03256 -0.122099 2.037 255 255 255
-0.111875 0.176616 1.032 0 0 0
0.177717 0.33198 0.98 0 0 0
-0.0855036 0.287138 1.152 255 255 255
-0.23179 -0.0566685 0.728 0 0 0
-0.227626 -0.21593 0.664 255 255 255
0.129124 -0.245221 0.798 255 255 255
-0.15973 -0.157696 0.693 255 255 255
-0.12386 -0.191266 0.688 255 255 255
-0.119901 -0.197722 0.691 255 255 255
0.913876 -0.392621 2.844 255 255 255
-0.268196 0.27458 0.869 255 255 255
0.146756 0.059314 0.955 255 255 255
-0.312257 -0.201709 0.667 255 255 255
0.210011 -0.254922 0.78 0 0 0
-0.299564 -0.0630759 0.72 255 255 255
-0.0675604 -0.208362 0.872 255 255 255
0.807504 0.0900257 1.668 255 255 255
-0.225323 -0.133653 0.697 255 255 255
0.247794 0.112858 0.961 0 0 0
-0.309298 -0.184081 0.67 255 255 255
0.0413043 -0.235145 0.808 0 0 0
-0.458722 0.293474 0.879 255 255 255
-0.157053 0.395486 1.089 0 0 0
0.821834 -0.144517 2.411 255 255 255
-0.272919 0.214839 0.84 255 255 255
-0.383902 0.254132 0.862 255 255 255
-0.230792 -0.0287013 0.74 255 255 255
-0.156611 0.419172 1.124 0 0 0
0.170547 0.362603 0.994 255 255 255
-0.11069 0.414371 1.141 255 255 255
-0.344314 -0.058227 0.718 255 255 255
-0.105423 -0.225822 0.731 255 255 255
0.064886 -0.0823855 2.43 0 0 0
-0.14461 -0.114675 0.713 255 255 255
0.0859334 -0.267586 0.795 0 0 0
-0.13039 0.116157 0.925 0 0 0
0.123809 0.145946 0.923 255 255 255
-0.116121 0.153734 1.025 0 0 0
0.149416 -0.23461 0.839 0 0 0
-0.215762 0.32104 0.892 255 255 255
-0.0923802 0.210998 1.079 255 255 255
-0.136603 0.0566786 0.826 255 255 255
-0.30696 0.312023 0.887 255 255 255
-0.125654 -0.0910741 0.738 255 255 255
-0.11345 -0.220851 0.686 255 255 255
0.118152 0.116204 0.95 255 255 255
-0.281612 -0.190339 0.669 255 255 255
0.0396155 0.103152 0.958 0 0 0
-0.340262 0.101775 0.79 255 255 255
0.087313 -0.00120497 0.888 255 255 255
-0.133685 -0.182671 0.681 255 255 255
0.330534 0.340716 0.934 255 255 255
-0.210573 -0.231111 0.658 255 255 255
-0.0810879 -0.154315 0.896 255 255 255
-0.347734 -0.146908 0.69 0 0 0
0.21918 -0.255249 0.781 0 0 0
0.150649 0.0877448 0.96 255 255 255
-0.254387 -0.193605 0.669 0 0 0
0.44302 0.260592 0.909 0 0 0
-0.110137 -0.0604148 0.932 255 255 255
-0.178808 0.338518 0.896 255 255 255
0.877474 -0.0263217 1.831 255 255 255
0.276035 -0.144491 0.78 255 255 255
