ply
format ascii 1.0
comment Created by Open3D
element vertex 1289
property double x
property double y
property double z
property uchar red
property uchar green
property uchar blue
end_header
0.0275694 -0.131072 0.576 255 255 255
0.181653 0.0405317 0.577 255 255 255
-0.00603101 0.152316 0.431 255 255 255
0.214155 -0.00820845 0.571 255 255 255
-0.230958 0.0992019 0.451 255 255 255
-0.186989 0.14395 0.386 255 255 255
0.217721 0.0105028 0.578 255 255 255
-0.0271847 -0.068268 0.584 255 255 255
0.205069 -0.0248468 0.569 255 255 255
0.306049 0.12959 0.598 255 255 255
-0.1858 0.114874 0.438 255 255 255
-0.116194 -0.0363841 0.607 255 255 255
-0.16511 0.133857 0.413 255 255 255
0.18119 0.0985649 0.617 255 255 255
0.0365097 0.142201 0.428 255 255 255
-0.168273 -0.187577 0.56 255 255 255
0.19625 -0.0912261 0.573 255 255 255
0.1492 -0.0045231 0.575 255 255 255
0.06143 -0.1313 0.577 255 255 255
0.174472 -0.0896731 0.575 255 255 255
-0.0485689 0.156618 0.411 255 255 255
-0.208428 -0.0146768 0.608 255 255 255
-0.113465 -0.100909 0.603 255 255 255
-0.28293 -0.0591669 0.588 255 255 255
-0.0111371 -0.122736 0.59 255 255 255
0.286852 0.147409 0.624 255 255 255
-0.0120759 0.142694 0.447 255 255 255
0.25868 -0.162559 0.529 255 255 255
-0.202452 -0.10466 0.602 255 255 255
-0.052791 0.146024 0.429 255 255 255
-0.256799 -0.0216632 0.583 255 255 255
-0.0782942 0.140392 0.431 255 255 255
0.190715 0.0470228 0.576 255 255 255
-0.159315 0.146335 0.389 255 255 255
0.260553 -0.0856508 0.555 255 255 255
-0.359298 -0.0252676 0.68 255 255 255
-0.2168 -0.150837 0.549 255 255 255
0.0552243 -0.113327 0.591 255 255 255
0.10027 -0.0468865 0.59 255 255 255
0.253908 0.0450014 0.599 255 255 255
0.207624 -0.207048 0.556 255 255 255
-0.0710564 0.0715142 0.516 255 255 255
-0.110735 -0.14362 0.529 255 255 255
-0.165985 -0.149084 0.524 255 255 255
0.301683 0.172418 0.619 255 255 255
-0.207351 -0.0762501 0.602 0 0 0
-0.110544 -0.144561 0.52 255 255 255
-0.239003 -0.17395 0.507 0 0 0
0.0412899 0.158546 0.427 255 255 255
0.0161771 0.100324 0.54 255 255 255
-0.247925 -0.146144 0.505 0 0 0
0.228496 -0.111545 0.572 255 255 255
-0.200676 0.0338211 0.591 255 255 255
-0.245797 -0.103931 0.542 255 255 255
0.26546 0.0184019 0.59 255 255 255
0.244679 0.10183 0.644 255 255 255
0.221868 0.0378455 0.579 255 255 255
-0.0509507 -0.0274025 0.584 255 255 255
0.280234 0.0605977 0.599 255 255 255
-0.222601 0.0755028 0.498 255 255 255
0.172932 -0.0651172 0.573 255 255 255
-0.0901606 0.11893 0.471 255 255 255
-0.19127 -0.0175323 0.64 0 0 0
0.10765 0.0947146 0.599 255 255 255
-0.290916 0.00517032 0.615 255 255 255
-0.189735 0.10753 0.449 255 255 255
0.158172 -0.0383417 0.577 255 255 255
-0.130013 -0.184333 0.52 255 255 255
0.0652627 0.0510409 0.613 255 255 255
-0.168053 -0.0539649 0.616 0 0 0
0.0013847 0.037638 0.606 255 255 255
0.273225 -0.0148417 0.576 255 255 255
-0.0177021 0.107546 0.528 255 255 255
-0.227009 0.00016142 0.597 255 255 255
0.0365316 0.0382417 0.6 255 255 255
-0.212788 -0.0990989 0.598 0 0 0
-0.254016 0.0620361 0.514 255 255 255
-0.212923 -0.113128 0.585 0 0 0
0.0451154 0.107878 0.561 255 255 255
0.0372064 0.154738 0.428 255 255 255
-0.0281354 -0.171857 0.584 255 255 255
0.141959 0.0704563 0.576 255 255 255
-0.258357 -0.187796 0.511 0 0 0
-0.0284577 0.125739 0.465 0 0 0
-0.0399105 0.141497 0.441 255 255 255
0.0546407 0.0975608 0.617 255 255 255
0.0779906 0.137091 0.561 255 255 255
-0.14489 -0.0651476 0.599 0 0 0
0.195521 0.159798 0.474 255 255 255
0.0536357 -0.192267 0.574 255 255 255
-0.0624461 0.137092 0.443 255 255 255
-0.0668131 0.15658 0.404 255 255 255
-0.0531577 -0.184821 0.577 255 255 255
0.248212 -0.0928748 0.566 255 255 255
-0.0354957 -0.154635 0.58 255 255 255
-0.127014 0.0177577 0.675 255 255 255
0.0555208 -0.17851 0.584 255 255 255
-0.22107 0.0953999 0.461 255 255 255
-0.115831 -0.0457284 0.6 255 255 255
0.289666 0.0339589 0.577 255 255 255
0.0519846 -0.214903 0.598 255 255 255
0.205936 -0.0652309 0.574 255 255 255
-0.138163 0.121232 0.443 255 255 255
0.227853 -0.159952 0.559 255 255 255
-0.0237911 -0.129005 0.571 255 255 255
0.211366 -0.0955537 0.571 255 255 255
0.182233 -0.0165423 0.57 255 255 255
-0.00159804 -0.234023 0.615 255 255 255
-0.0991019 0.0559535 0.672 255 255 255
0.0829531 -0.161244 0.57 255 255 255
-0.169614 -0.0190671 0.657 0 0 0
0.00472397 0.020554 0.659 0 0 0
-0.307668 0.0108481 0.597 255 255 255
-0.0742344 0.139892 0.436 255 255 255
-0.161146 -0.123488 0.567 255 255 255
-0.163616 -0.016439 0.681 255 255 255
0.118518 -0.102574 0.59 255 255 255
-0.233853 -0.0667484 0.571 0 0 0
0.0916262 -0.0219233 0.59 255 255 255
0.225309 -0.0816156 0.571 255 255 255
-0.281262 -0.0116508 0.605 255 255 255
-0.081931 -0.00552998 0.703 255 255 255
-0.263863 0.0609615 0.512 255 255 255
-0.208331 -0.0938838 0.602 0 0 0
-0.201505 0.138816 0.391 255 255 255
0.0471472 -0.0744071 0.611 255 255 255
0.069419 -0.147449 0.589 255 255 255
0.0619253 -0.21074 0.6 255 255 255
-0.054723 0.154317 0.412 255 255 255
-0.121909 0.137868 0.417 255 255 255
0.16099 0.0536772 0.577 255 255 255
0.0689813 0.115386 0.562 255 255 255
-0.176638 0.136857 0.404 255 255 255
-0.000433873 0.14124 0.447 255 255 255
0.0681244 -0.223569 0.603 255 255 255
0.08694 -0.184201 0.578 255 255 255
0.107355 -0.0277779 0.592 255 255 255
0.160526 -0.126438 0.572 255 255 255
-0.1775 0.144808 0.39 255 255 255
0.134679 0.0729589 0.581 255 255 255
-0.133996 -0.187185 0.543 255 255 255
0.157624 -0.180437 0.575 255 255 255
0.215044 -0.0302422 0.566 255 255 255
0.0563456 -0.221606 0.603 255 255 255
0.0257021 -0.204198 0.598 255 255 255
0.034195 0.120318 0.547 255 255 255
0.105313 -0.0627801 0.586 255 255 255
-0.228778 0.0911262 0.466 255 255 255
0.129893 0.0687013 0.585 255 255 255
0.146215 0.0368395 0.578 255 255 255
-0.0904223 0.104377 0.489 255 255 255
0.244099 0.0554439 0.629 255 255 255
-0.227381 -0.121339 0.553 0 0 0
0.0519839 -0.204263 0.587 255 255 255
0.209309 -0.0744418 0.573 255 255 255
-0.202195 -0.135699 0.525 0 0 0
-0.0362301 -0.0846172 0.592 255 255 255
-0.127464 0.12854 0.436 255 255 255
0.15696 -0.0617088 0.576 255 255 255
0.15321 -0.0757689 0.576 255 255 255
-0.230068 0.0442075 0.564 255 255 255
0.301608 0.103765 0.595 255 255 255
-0.138199 0.141847 0.407 255 255 255
-0.278301 0.0332526 0.565 255 255 255
0.207673 -0.186824 0.566 255 255 255
-0.149832 0.03251 0.641 255 255 255
-0.123725 -0.119178 0.582 255 255 255
-0.135274 0.102199 0.49 255 255 255
0.196588 0.173797 0.462 255 255 255
-0.21668 -0.180977 0.565 0 0 0
-0.11382 -0.033051 0.638 0 0 0
-0.0327864 0.130191 0.462 255 255 255
-0.0984456 0.0441204 0.675 255 255 255
0.0931245 0.0721536 0.606 255 255 255
-0.23082 -0.156902 0.5 255 255 255
-0.30741 -0.000841305 0.62 255 255 255
0.164747 -0.0327079 0.577 255 255 255
-0.0385951 -0.192782 0.57 255 255 255
0.136035 -0.215272 0.591 255 255 255
-0.0198007 0.160631 0.411 255 255 255
-0.25892 -0.149135 0.504 255 255 255
0.269333 -0.111456 0.54 255 255 255
0.152944 -0.0990302 0.575 255 255 255
-0.0645403 -0.0280616 0.578 255 255 255
-0.199199 0.146729 0.377 255 255 255
-0.0226303 0.144756 0.44 255 255 255
-0.148108 0.126071 0.43 255 255 255
0.0649543 0.0377318 0.592 255 255 255
-0.103343 -0.126967 0.554 255 255 255
0.254279 -0.191949 0.52 255 255 255
-0.135073 -0.168423 0.551 255 255 255
-0.212017 0.122553 0.418 255 255 255
-0.0621923 0.112611 0.48 255 255 255
0.0686927 -0.118136 0.591 255 255 255
-0.0496373 -0.0681245 0.591 255 255 255
-0.0634568 0.146726 0.421 255 255 255
0.0925866 -0.0248037 0.59 255 255 255
-0.167044 -0.127886 0.562 255 255 255
-0.162911 0.128149 0.423 255 255 255
0.055288 0.0819355 0.636 255 255 255
0.12977 -0.147944 0.576 255 255 255
0.0808848 0.0645312 0.618 255 255 255
-0.237413 -0.0558341 0.564 255 255 255
0.203931 -0.0165713 0.571 255 255 255
0.243666 0.175739 0.495 255 255 255
-0.0396149 0.148464 0.43 255 255 255
-0.211192 -0.00285458 0.619 255 255 255
0.200136 0.101608 0.491 255 255 255
0.242284 0.100044 0.646 255 255 255
0.246804 -0.0856574 0.567 255 255 255
0.162586 -0.0532727 0.576 255 255 255
0.0175334 0.160882 0.424 255 255 255
-0.0171001 -0.158196 0.597 255 255 255
-0.235431 0.0579528 0.555 255 255 255
0.0797706 -0.215361 0.602 255 255 255
0.239627 -0.134049 0.561 255 255 255
-0.172249 0.130812 0.414 0 0 0
0.295686 0.142744 0.617 255 255 255
-0.209001 0.131272 0.403 255 255 255
0.111586 0.00499378 0.594 255 255 255
0.0464398 0.118465 0.555 255 255 255
-0.0506676 0.0414887 0.668 255 255 255
-0.000434843 0.137181 0.448 255 255 255
-0.167208 0.120026 0.436 255 255 255
0.0645175 -0.0797152 0.606 255 255 255
0.0473414 -0.130361 0.577 255 255 255
0.250728 0.169763 0.506 255 255 255
-0.0838948 0.116274 0.479 255 255 255
0.21677 -0.134119 0.573 255 255 255
0.011045 -0.103443 0.595 255 255 255
0.102976 0.0308312 0.589 255 255 255
-0.076663 0.138746 0.446 255 255 255
0.0880534 -0.127592 0.573 255 255 255
-0.0944685 0.0421098 0.678 255 255 255
-0.262037 0.067534 0.499 255 255 255
-0.214607 -0.0686187 0.587 255 255 255
0.0963487 -0.166329 0.578 255 255 255
-0.0677301 0.118395 0.475 255 255 255
0.27321 -0.0297356 0.574 255 255 255
-0.240504 -0.107459 0.542 255 255 255
0.0346935 -0.101721 0.602 255 255 255
0.150397 -0.14232 0.576 255 255 255
-0.00538381 -0.0969771 0.591 255 255 255
0.000292442 0.143504 0.445 255 255 255
-0.299858 0.0137165 0.595 255 255 255
0.0460771 -0.0802414 0.61 255 255 255
-0.0999173 0.0787777 0.531 255 255 255
-0.0659205 0.136148 0.447 255 255 255
0.182951 0.0944543 0.623 255 255 255
-0.0505145 -0.154368 0.579 255 255 255
-0.202959 0.0700894 0.573 255 255 255
-0.221489 0.0388547 0.58 255 255 255
0.14894 -0.00825158 0.574 255 255 255
-0.239097 -0.158347 0.502 0 0 0
-0.119172 0.046924 0.668 255 255 255
-0.0957972 -0.0518448 0.603 255 255 255
-0.0951349 0.15112 0.407 255 255 255
0.0289808 0.154761 0.43 255 255 255
0.247321 0.0608507 0.632 255 255 255
-0.1535 -0.148504 0.528 255 255 255
0.253662 -0.125134 0.546 255 255 255
-0.0222627 0.14124 0.447 255 255 255
-0.0623218 0.0917112 0.481 255 255 255
-0.177775 0.0467779 0.573 255 255 255
-0.234045 -0.0930435 0.556 0 0 0
0.181338 -0.222931 0.576 255 255 255
0.192102 -0.0109576 0.569 255 255 255
-0.275041 0.0452957 0.544 255 255 255
-0.0406601 0.0695641 0.514 0 0 0
0.0977946 -0.169083 0.581 255 255 255
0.262692 0.0672204 0.615 255 255 255
-0.0854112 -0.0388288 0.599 255 255 255
-0.235431 -0.091973 0.555 0 0 0
-0.049572 -0.136466 0.579 255 255 255
-0.0261306 0.117918 0.464 255 255 255
-0.186776 0.0597279 0.572 255 255 255
0.222223 0.173276 0.475 255 255 255
-0.192668 0.0368306 0.593 255 255 255
-0.156739 -0.11408 0.585 255 255 255
-0.267615 -0.0189784 0.588 255 255 255
0.0410008 -0.0385047 0.594 255 255 255
-0.160657 0.125485 0.428 255 255 255
-0.0382243 0.0705375 0.515 0 0 0
0.141021 0.0432734 0.576 255 255 255
-0.0653177 -0.181871 0.48 255 255 255
-0.13228 -0.134288 0.562 255 255 255
0.215839 0.00956224 0.578 255 255 255
0.0695414 -0.124861 0.582 255 255 255
0.109331 -0.171269 0.582 255 255 255
0.234657 0.0133246 0.578 255 255 255
0.272287 -0.0157791 0.576 255 255 255
-0.0900249 0.0821108 0.514 255 255 255
-0.151199 -0.0274807 0.68 0 0 0
-0.262488 0.0415455 0.553 255 255 255
-0.233997 0.0175896 0.595 255 255 255
-0.0759232 0.0181523 0.69 255 255 255
-0.1752 -0.0744942 0.62 255 255 255
-0.0198143 -0.0460043 0.591 255 255 255
0.127714 -0.155952 0.571 255 255 255
-0.004154 0.129984 0.456 255 255 255
0.245479 -0.182344 0.534 255 255 255
0.0857668 0.00307081 0.596 255 255 255
0.217873 -0.0862616 0.571 255 255 255
0.291757 0.165728 0.628 255 255 255
-0.231868 0.0225063 0.597 255 255 255
-0.0685401 -0.0272148 0.58 255 255 255
0.017876 0.1334 0.45 255 255 255
0.299703 0.154792 0.617 255 255 255
-0.029086 -0.068268 0.584 255 255 255
0.237808 -0.0584878 0.572 255 255 255
-0.260786 0.0383576 0.559 255 255 255
-0.174938 0.149064 0.383 255 255 255
-0.119577 -0.0301008 0.716 0 0 0
-0.292335 0.00117279 0.618 255 255 255
0.142896 -0.0495233 0.576 255 255 255
0.0697726 -0.00658358 0.592 255 255 255
0.0853657 -0.0506104 0.6 255 255 255
0.0341616 -0.0762707 0.61 255 255 255
0.0835161 0.0393236 0.587 255 255 255
-0.198359 -0.0505228 0.623 0 0 0
-0.146814 0.0938219 0.505 255 255 255
0.255683 -0.19803 0.516 255 255 255
0.267637 0.0380505 0.597 255 255 255
0.176971 -0.0166584 0.574 255 255 255
0.0255144 -0.04602 0.617 255 255 255
0.1726 -0.143944 0.575 255 255 255
-0.0164986 -0.132009 0.576 255 255 255
-0.0364749 -0.109436 0.596 255 255 255
0.139146 0.0507722 0.576 255 255 255
-0.0964956 -0.145521 0.536 255 255 255
-0.0421771 -0.123701 0.581 255 255 255
0.12332 -0.00368097 0.59 255 255 255
0.271437 -0.0851504 0.546 255 255 255
0.213201 -0.17485 0.566 255 255 255
-0.198701 -0.11945 0.588 0 0 0
-0.217058 0.00512829 0.61 255 255 255
0.275114 0.00485926 0.578 255 255 255
-0.0917746 -0.116225 0.596 255 255 255
-0.133685 -0.000924078 0.681 255 255 255
-0.294033 0.025464 0.576 255 255 255
-0.213492 0.113301 0.432 255 255 255
0.217323 -0.0538336 0.572 255 255 255
0.20019 0.0293655 0.579 255 255 255
-0.182246 0.137111 0.399 255 255 255
0.240687 -0.0814727 0.57 255 255 255
-0.0503473 0.144936 0.432 255 255 255
0.136806 -0.0581607 0.578 255 255 255
-0.183515 0.142361 0.392 255 255 255
-0.00403272 0.0922444 0.539 255 255 255
0.0876358 -0.109109 0.589 255 255 255
0.11487 -0.112365 0.591 255 255 255
0.105777 -0.134798 0.568 255 255 255
0.0967551 -0.0990679 0.592 255 255 255
-0.246247 0.0592045 0.526 255 255 255
0.162586 -0.0523354 0.576 255 255 255
0.311917 0.244923 0.64 255 255 255
0.0716816 -0.121488 0.584 255 255 255
0.121399 -0.100653 0.59 255 255 255
-0.140236 0.118159 0.445 255 255 255
-0.0353459 0.127526 0.466 255 255 255
-0.085471 0.155941 0.399 255 255 255
0.0817441 -0.146242 0.588 255 255 255
0.0280651 -0.0709567 0.607 255 255 255
-0.212407 0.109634 0.437 255 255 255
-0.0333954 -0.0895852 0.593 255 255 255
-0.151894 0.129526 0.423 255 255 255
0.267595 -0.0406593 0.57 255 255 255
0.23747 0.141693 0.524 255 255 255
-0.0192912 0.119924 0.463 255 255 255
-0.164559 0.132479 0.415 255 255 255
0.210806 -0.0947902 0.572 255 255 255
0.0720506 -0.222587 0.603 255 255 255
-0.0515737 0.104669 0.483 255 255 255
0.0388697 -0.114289 0.591 255 255 255
-0.0737409 0.142533 0.429 255 255 255
0.0338805 0.140766 0.43 255 255 255
0.211278 0.170237 0.473 255 255 255
-0.051818 0.112142 0.478 255 255 255
0.00233202 -0.0444537 0.596 255 255 255
0.140531 -0.113803 0.574 255 255 255
-0.228549 -0.0398934 0.586 0 0 0
0.251023 -0.125592 0.548 255 255 255
0.198116 -0.00450737 0.573 255 255 255
0.16099 -0.0411586 0.577 255 255 255
-0.209801 0.108011 0.442 255 255 255
-0.250056 -0.113247 0.536 255 255 255
0.0456091 0.0545934 0.631 255 255 255
-0.0500782 -0.125946 0.574 255 255 255
0.00912322 -0.0551225 0.596 255 255 255
0.26498 0.0786109 0.618 255 255 255
0.0948155 -0.2295 0.598 255 255 255
-0.13475 -0.0134418 0.698 255 255 255
-0.201818 -0.0198499 0.615 255 255 255
0.23988 -0.159189 0.547 255 255 255
-0.0347302 -0.0605613 0.583 255 255 255
0.182598 0.01809 0.58 255 255 255
0.0664904 -0.220736 0.606 255 255 255
0.193927 0.0199777 0.58 255 255 255
-0.167016 -0.123972 0.565 255 255 255
0.21453 -0.0538336 0.572 255 255 255
0.174401 0.0341943 0.581 255 255 255
-0.0207357 -0.00538839 0.685 255 255 255
0.196233 0.169109 0.472 255 255 255
0.250117 -0.0903894 0.562 255 255 255
-0.195156 0.0681054 0.572 255 255 255
0.07032 -0.217418 0.605 255 255 255
0.181359 0.167093 0.454 255 255 255
0.144771 -0.0504607 0.576 255 255 255
0.247324 -0.199775 0.525 255 255 255
-0.245834 -0.0860389 0.546 0 0 0
0.0508745 -0.232348 0.608 255 255 255
-0.147802 -0.187008 0.5 255 255 255
0.286574 0.0508731 0.588 255 255 255
-0.184625 0.144831 0.385 255 255 255
0.0628542 0.0467437 0.609 255 255 255
0.0152451 -0.227401 0.608 255 255 255
0.195223 -0.0156147 0.57 255 255 255
-0.0493195 0.0774333 0.5 0 0 0
0.24018 -0.0249341 0.571 255 255 255
0.0445664 -0.116976 0.59 255 255 255
-0.0920749 -0.186946 0.481 255 255 255
0.130398 -0.0880745 0.583 255 255 255
0.182233 -0.0156147 0.57 255 255 255
-0.128587 0.128245 0.435 255 255 255
-0.187203 -0.0971588 0.623 255 255 255
0.0747969 0.15663 0.42 255 255 255
-0.012664 0.113769 0.533 255 255 255
0.257633 -0.121357 0.545 255 255 255
0.163151 0.00485926 0.578 255 255 255
0.14467 0.0173531 0.587 255 255 255
-0.0970791 -0.146806 0.525 255 255 255
-0.115765 -0.0123412 0.7 0 0 0
0.0194044 0.153021 0.435 255 255 255
-0.126075 -0.0709567 0.607 255 255 255
0.213053 -0.212482 0.549 255 255 255
-0.160789 -0.122998 0.569 255 255 255
-0.18779 0.112791 0.441 255 255 255
0.0749953 -0.213756 0.603 255 255 255
-0.00351243 -0.0681856 0.6 255 255 255
-0.0522323 0.140379 0.442 255 255 255
0.269573 0.0855121 0.617 255 255 255
-0.206007 0.0355027 0.587 255 255 255
0.150919 -0.195488 0.578 255 255 255
-0.207573 -0.10962 0.597 255 255 255
0.138421 -0.131322 0.573 255 255 255
-0.23093 -0.0423165 0.58 0 0 0
-0.132283 -0.116478 0.578 255 255 255
-0.188502 -0.178534 0.566 255 255 255
0.261904 0.00298838 0.58 255 255 255
-0.113688 -0.105113 0.599 255 255 255
0.145709 -0.0617088 0.576 255 255 255
0.22213 -0.125996 0.57 255 255 255
0.203747 0.168572 0.477 255 255 255
0.120078 -0.0384746 0.579 255 255 255
0.30022 0.158551 0.616 255 255 255
0.218001 0.0786916 0.652 255 255 255
0.187856 -0.0828339 0.573 255 255 255
0.130483 0.000160068 0.592 255 255 255
-0.209988 0.124075 0.414 255 255 255
-0.111634 0.149917 0.402 255 255 255
0.0409318 0.0329705 0.593 255 255 255
-0.0361885 -0.125448 0.576 255 255 255
-0.0403555 -0.112346 0.596 255 255 255
0.00176467 0.13443 0.451 0 0 0
-0.0209873 -0.14848 0.597 255 255 255
0.22196 0.063152 0.645 255 255 255
-0.253841 0.0564212 0.524 255 255 255
-0.211829 0.01718 0.615 255 255 255
-0.105715 -0.032792 0.633 0 0 0
-0.0695841 0.139821 0.438 255 255 255
-0.0330054 0.151242 0.426 255 255 255
-0.258675 -0.139484 0.52 255 255 255
0.0838263 -0.175127 0.576 255 255 255
-0.282449 -0.0476034 0.587 255 255 255
-0.182051 0.136804 0.4 255 255 255
0.215084 -0.0974121 0.571 255 255 255
0.264097 -0.171122 0.521 255 255 255
-0.178169 0.136518 0.403 255 255 255
-0.251008 0.00886031 0.594 255 255 255
0.0914226 0.150022 0.565 255 255 255
0.0246236 0.107944 0.552 255 255 255
-0.0251988 0.15293 0.423 255 255 255
0.286089 -0.0280488 0.559 255 255 255
0.261563 -0.186274 0.516 255 255 255
0.179765 0.0246969 0.58 255 255 255
-0.115898 -0.124252 0.558 255 255 255
0.0466071 -0.0941957 0.604 255 255 255
-0.0992702 0.144307 0.416 255 255 255
0.0712086 0.156939 0.419 255 255 255
-0.213404 -0.0241265 0.597 255 255 255
-0.098789 0.0269385 0.685 255 255 255
-0.203296 0.137895 0.392 255 255 255
0.232744 -0.0862616 0.571 255 255 255
-0.0327154 0.131409 0.461 255 255 255
-0.0716719 -0.173863 0.486 255 255 255
-0.153277 0.000179806 0.665 255 255 255
0.180709 -0.0316037 0.574 255 255 255
0.0429347 -0.0365715 0.594 255 255 255
-0.245394 -0.0751703 0.551 0 0 0
-0.278514 -0.0182974 0.597 255 255 255
0.161593 -0.215358 0.586 255 255 255
-0.0287469 0.0282737 0.664 255 255 255
-0.00394563 0.0144409 0.674 0 0 0
-0.0131243 -0.10213 0.593 255 255 255
-0.064579 0.151389 0.415 255 255 255
0.143469 0.00874098 0.586 255 255 255
-0.00109134 0.160047 0.42 255 255 255
-0.301437 -0.0368036 0.614 255 255 255
-0.220915 0.117545 0.422 255 255 255
0.268168 0.0584436 0.607 255 255 255
0.195807 -0.040588 0.569 255 255 255
-0.170809 0.124382 0.429 255 255 255
-0.0713725 -0.0423165 0.58 255 255 255
0.171365 -0.0661649 0.574 255 255 255
-0.0776047 0.00810487 0.695 255 255 255
-0.0490654 0.150837 0.421 255 255 255
-0.226481 -0.121339 0.553 0 0 0
-0.174191 -0.0644048 0.62 255 255 255
-0.05 -0.0511615 0.584 255 255 255
-0.00283158 0.0045424 0.67 255 255 255
-0.236412 -0.0532689 0.566 255 255 255
0.234532 0.154279 0.512 255 255 255
-0.0206709 -0.141458 0.588 255 255 255
0.0961013 0.0393906 0.588 255 255 255
-0.169164 0.136537 0.405 255 255 255
0.211154 -0.18675 0.563 255 255 255
0.212076 0.00956224 0.578 255 255 255
0.0292989 -0.183845 0.592 255 255 255
0.0391409 0.136426 0.434 255 255 255
-0.164696 -0.0269898 0.642 255 255 255
-0.0454064 -0.161442 0.574 255 255 255
-0.110562 0.10558 0.473 0 0 0
0.088745 -0.0238436 0.59 255 255 255
0.196617 -0.202482 0.566 255 255 255
-0.157686 0.138195 0.406 255 255 255
0.0741222 0.0180921 0.612 0 0 0
0.101917 0.00982694 0.594 255 255 255
-0.0133285 0.100101 0.525 255 255 255
-0.257075 -0.154262 0.502 255 255 255
0.168562 -0.0680331 0.574 255 255 255
0.197659 -0.038736 0.569 255 255 255
0.068344 0.0336494 0.588 255 255 255
0.145023 -0.0458535 0.577 255 255 255
-0.012836 0.0112497 0.68 0 0 0
-0.209514 0.0113205 0.623 255 255 255
-0.0236736 0.0747539 0.527 0 0 0
-0.151459 -0.111793 0.583 255 255 255
0.195565 -0.156881 0.571 255 255 255
0.0803748 -0.141688 0.585 255 255 255
-0.247103 0.0667024 0.505 255 255 255
0.123947 0.0474456 0.593 0 0 0
-0.112547 0.15348 0.396 255 255 255
0.124701 -0.2166 0.592 255 255 255
0.249966 -0.00541135 0.57 255 255 255
0.26656 0.0794877 0.617 255 255 255
0.143085 -0.0194267 0.573 255 255 255
0.169837 -0.0789661 0.572 255 255 255
-0.0252327 0.00576722 0.686 0 0 0
-0.146708 0.126771 0.43 255 255 255
0.105493 -0.21095 0.587 255 255 255
0.138936 0.08422 0.587 255 255 255
0.142245 -0.198393 0.581 255 255 255
0.120288 0.0117602 0.594 255 255 255
-0.0800434 0.111186 0.484 255 255 255
-0.195225 0.132583 0.403 255 255 255
-0.0146487 -0.125666 0.577 255 255 255
-0.252271 0.0551994 0.537 255 255 255
-0.280327 0.0289597 0.571 255 255 255
-0.109439 0.00924915 0.696 255 255 255
0.198409 0.151983 0.481 0 0 0
0.136096 -0.0251088 0.575 255 255 255
0.0445664 -0.116015 0.59 255 255 255
0.107537 -0.0809002 0.593 255 255 255
0.232718 0.140034 0.521 255 255 255
0.00424369 -0.186735 0.592 255 255 255
-0.161467 0.133507 0.414 255 255 255
-0.254763 0.018589 0.596 255 255 255
-0.0513681 -0.170092 0.578 255 255 255
-0.0824497 0.0510116 0.679 255 255 255
-0.135482 0.146851 0.399 255 255 255
0.169149 -0.179814 0.576 255 255 255
-0.242245 -0.076205 0.552 255 255 255
-0.204225 0.120577 0.423 255 255 255
0.241611 -0.143837 0.553 255 255 255
-0.238336 0.0822372 0.476 255 255 255
-0.201107 0.127189 0.411 255 255 255
-0.0804026 0.149987 0.413 255 255 255
0.00250435 0.130315 0.452 255 255 255
0.00517023 0.155798 0.429 255 255 255
0.274597 0.0269972 0.589 255 255 255
0.194295 -0.0165423 0.57 255 255 255
0.0363489 -0.223287 0.597 255 255 255
-0.0630492 -0.178877 0.573 255 255 255
-0.108432 -0.144566 0.514 255 255 255
0.258711 -0.0157517 0.575 255 255 255
0.280416 0.0845419 0.61 255 255 255
0.238389 0.0882061 0.644 255 255 255
0.297124 0.161599 0.62 255 255 255
0.249755 -0.175601 0.532 255 255 255
-0.212832 -0.12072 0.567 0 0 0
0.275123 0.0105755 0.582 255 255 255
0.180079 -0.0510411 0.572 255 255 255
0.0328719 0.159561 0.426 255 255 255
-0.222171 0.0700707 0.558 255 255 255
-0.163352 -0.0392444 0.621 0 0 0
0.28756 0.0618163 0.592 255 255 255
0.121459 0.015653 0.595 255 255 255
-0.241085 -0.0484916 0.564 0 0 0
0.254695 -0.101551 0.558 255 255 255
0.167274 -0.191999 0.576 255 255 255
0.192924 0.00766776 0.577 255 255 255
-0.0207537 0.110643 0.462 0 0 0
-0.0407346 -0.130617 0.574 255 255 255
0.168726 -0.206903 0.581 255 255 255
0.287829 0.00107411 0.566 255 255 255
0.215838 -0.0828339 0.573 255 255 255
0.145777 0.00110067 0.58 255 255 255
-0.136039 -0.108199 0.574 255 255 255
0.0488182 -0.179936 0.595 255 255 255
-0.355509 -0.084648 0.677 255 255 255
0.240687 -0.0879657 0.57 255 255 255
-0.174819 0.0126115 0.637 255 255 255
0.020094 -0.168192 0.605 255 255 255
0.103053 -0.0625659 0.584 255 255 255
0.226109 -0.186442 0.546 255 255 255
-0.0727207 0.0756622 0.51 255 255 255
-0.192667 -0.0746144 0.621 0 0 0
0.268568 0.0784836 0.617 255 255 255
0.225165 -0.11547 0.573 255 255 255
-0.0884391 0.125562 0.47 255 255 255
0.0736378 0.011048 0.608 255 255 255
0.0271551 0.133666 0.446 255 255 255
-0.213087 -0.161482 0.558 255 255 255
-0.293919 -0.0278563 0.615 255 255 255
0.19762 -0.151018 0.577 255 255 255
0.206939 -0.189835 0.564 255 255 255
0.124864 -0.170144 0.575 255 255 255
0.149634 0.00871115 0.584 255 255 255
0.106212 0.0299741 0.591 255 255 255
-0.265011 0.0600108 0.511 255 255 255
-0.00414489 0.132661 0.455 255 255 255
-0.0207161 0.150563 0.43 255 255 255
0.169149 -0.0476487 0.576 255 255 255
0.0310807 0.154062 0.43 255 255 255
-0.288908 0.0255082 0.577 255 255 255
-0.0915823 0.145001 0.418 255 255 255
-0.308896 0.00412884 0.609 255 255 255
0.253433 -0.191949 0.52 255 255 255
0.0623708 0.050125 0.614 255 255 255
0.223986 -0.1362 0.57 255 255 255
-0.00835386 -0.150423 0.597 255 255 255
0.131201 -0.125069 0.57 255 255 255
-0.108378 -0.0409826 0.602 255 255 255
-0.00714712 -0.128705 0.578 255 255 255
0.0187618 -0.116802 0.594 255 255 255
-0.174421 -0.0116183 0.659 255 255 255
0.25272 0.0683134 0.625 255 255 255
-0.110474 -0.147012 0.508 255 255 255
0.285054 0.027576 0.581 255 255 255
-0.236871 0.0898018 0.467 255 255 255
-0.10581 0.069439 0.539 0 0 0
-0.0467512 -0.14795 0.591 255 255 255
0.0435783 0.139741 0.429 255 255 255
0.159685 -0.213451 0.586 255 255 255
-0.0165548 0.150913 0.431 255 255 255
-0.102871 0.151502 0.401 255 255 255
0.0989728 0.03652 0.588 0 0 0
0.203712 -0.171418 0.573 255 255 255
-0.00343047 -0.195333 0.586 255 255 255
-0.162683 0.113146 0.451 255 255 255
-0.0282077 0.0112001 0.677 0 0 0
-0.232083 -0.0928016 0.56 0 0 0
-0.2785 0.0520882 0.532 255 255 255
0.154225 0.0221293 0.587 255 255 255
0.195412 0.174921 0.461 255 255 255
-0.182191 0.124019 0.423 255 255 255
-0.14612 0.0217248 0.662 255 255 255
-0.142872 0.139216 0.409 255 255 255
0.157073 0.155461 0.43 255 255 255
0.223769 0.174822 0.475 255 255 255
-0.0957591 -0.0920023 0.609 255 255 255
-0.240337 -0.0652287 0.558 255 255 255
0.231499 0.130608 0.524 255 255 255
-0.214833 -0.0301563 0.601 255 255 255
0.218891 0.159933 0.501 255 255 255
-0.234413 -0.165372 0.506 255 255 255
-0.0981886 0.0796418 0.531 255 255 255
0.069523 0.138422 0.559 255 255 255
0.279871 0.0220162 0.584 255 255 255
0.103326 -0.0979388 0.591 255 255 255
-0.140485 0.0453786 0.646 255 255 255
0.208774 -0.156332 0.569 255 255 255
0.121255 0.00982694 0.594 255 255 255
-0.275814 -0.18844 0.522 255 255 255
-0.0769796 0.147061 0.42 255 255 255
-0.0170428 -0.100538 0.595 255 255 255
-0.189482 0.00851826 0.641 255 255 255
0.0435852 -0.095021 0.603 255 255 255
-0.177853 0.145959 0.388 255 255 255
0.291773 0.131843 0.613 255 255 255
-0.0645748 -0.131562 0.57 255 255 255
0.178216 -0.120552 0.575 255 255 255
0.0633214 -0.228854 0.604 255 255 255
0.144083 -0.0392807 0.577 255 255 255
-0.139324 0.0729147 0.52 0 0 0
-0.271215 0.0437652 0.547 255 255 255
0.223703 -0.162972 0.56 255 255 255
0.19625 -0.0800366 0.573 255 255 255
0.242078 0.0360232 0.58 255 255 255
-0.230532 -0.0441279 0.579 0 0 0
-0.0197137 -0.036202 0.588 255 255 255
0.235558 0.0743505 0.642 255 255 255
-0.246704 -0.096347 0.544 255 255 255
-0.212675 -0.0491442 0.606 0 0 0
-0.157381 0.0524108 0.642 255 255 255
-0.209584 0.101339 0.454 255 255 255
-0.245791 -0.151716 0.499 0 0 0
0.00327449 -0.195076 0.591 255 255 255
0.0541964 -0.196164 0.58 255 255 255
0.00331881 -0.177246 0.599 255 255 255
0.14878 -0.0449145 0.577 255 255 255
0.103647 -0.175057 0.582 255 255 255
-0.0574355 0.120975 0.473 255 255 255
-0.234965 0.0282404 0.595 255 255 255
0.131662 -0.0156695 0.572 255 255 255
0.234565 -0.141605 0.562 255 255 255
-0.203103 -0.0129904 0.622 255 255 255
0.0229449 0.152314 0.435 255 255 255
0.0219907 -0.157823 0.603 255 255 255
0.0111749 -0.158541 0.602 255 255 255
0.130174 -0.0377268 0.582 255 255 255
-0.133399 -0.00993352 0.691 255 255 255
0.0243599 0.131349 0.448 255 255 255
0.264347 -0.0407306 0.571 255 255 255
-0.187081 -0.186333 0.559 255 255 255
-0.198585 0.146729 0.377 255 255 255
0.134447 -0.0357095 0.58 255 255 255
-0.129896 0.0863836 0.5 0 0 0
0.244476 0.0863461 0.638 255 255 255
0.228698 0.155945 0.512 255 255 255
0.115453 0.0620251 0.594 255 255 255
0.125055 0.0816092 0.603 255 255 255
-0.204808 0.104108 0.45 255 255 255
-0.00186377 0.147238 0.441 255 255 255
-0.195761 -0.0611799 0.618 0 0 0
-0.209486 -0.0088266 0.614 255 255 255
-0.0755688 0.0784281 0.496 255 255 255
0.132296 0.0713126 0.583 255 255 255
0.259782 -0.172765 0.526 255 255 255
-0.311389 0.000164935 0.61 255 255 255
-0.00831189 -0.0810366 0.594 255 255 255
-0.293441 0.0131554 0.614 255 255 255
0.224772 -0.000776172 0.572 255 255 255
0.29025 0.12906 0.614 255 255 255
0.23621 -0.146536 0.553 255 255 255
-0.230986 -0.173314 0.564 255 255 255
-0.13178 0.0513403 0.655 255 255 255
-0.132712 -0.0344099 0.644 0 0 0
-0.0410185 -0.13623 0.578 255 255 255
-0.190936 -0.0461103 0.632 255 255 255
-0.234205 -0.10278 0.55 255 255 255
0.243841 0.172405 0.497 255 255 255
-0.0261906 0.138406 0.452 255 255 255
0.0494746 0.0423581 0.603 255 255 255
0.0920921 -0.215036 0.593 255 255 255
0.244466 -0.00354371 0.568 255 255 255
-0.155347 -0.0266725 0.66 0 0 0
-0.259791 -0.028952 0.577 255 255 255
0.232744 0.00015439 0.571 255 255 255
-0.208974 0.126158 0.412 255 255 255
0.0181244 0.0306841 0.605 255 255 255
0.168069 0.0352003 0.582 255 255 255
0.170469 0.0765781 0.587 255 255 255
-0.00629688 0.139991 0.45 255 255 255
0.114423 -0.177924 0.579 255 255 255
0.265157 0.0077475 0.583 255 255 255
0.079817 0.137091 0.561 255 255 255
0.267277 0.0931405 0.621 255 255 255
0.300736 0.119481 0.601 255 255 255
-0.184986 0.132582 0.405 255 255 255
-0.0922644 0.117913 0.47 255 255 255
0.176971 -0.0493514 0.574 255 255 255
-0.13178 0.0481426 0.655 255 255 255
0.0209913 0.104161 0.551 255 255 255
0.274103 0.0328037 0.59 255 255 255
0.06156 0.150177 0.423 255 255 255
-0.258029 0.0617947 0.512 255 255 255
-0.000541613 0.0537258 0.558 0 0 0
-0.135826 0.100214 0.492 255 255 255
0.21304 -0.104281 0.573 255 255 255
0.0753639 0.102082 0.614 255 255 255
0.102883 0.00402714 0.594 255 255 255
-0.300965 -0.0393474 0.607 255 255 255
0.229012 0.012384 0.578 255 255 255
0.0632165 -0.225531 0.603 255 255 255
0.0873191 0.0226194 0.6 255 255 255
0.0913156 -0.108924 0.588 255 255 255
0.217491 -0.0072665 0.57 255 255 255
0.146392 -0.13833 0.575 255 255 255
-0.258865 -0.142045 0.517 255 255 255
-0.171614 -0.123052 0.565 255 255 255
0.18541 -0.186699 0.577 255 255 255
-0.224492 -0.116778 0.557 0 0 0
0.154148 -0.0720195 0.576 255 255 255
-0.0949828 0.0138192 0.698 255 255 255
-0.161756 0.129974 0.42 255 255 255
0.0329511 0.0425688 0.606 255 255 255
0.014245 0.131495 0.451 0 0 0
-0.151515 -0.113263 0.576 255 255 255
0.257847 0.0580238 0.613 255 255 255
-0.160857 0.11436 0.45 255 255 255
0.135395 0.0488975 0.576 255 255 255
0.116224 0.0493756 0.593 255 255 255
0.240312 -0.181959 0.538 255 255 255
0.0387884 0.121651 0.549 255 255 255
-0.185569 -0.116999 0.595 255 255 255
-0.113277 -0.0537181 0.602 0 0 0
-0.262157 0.055029 0.527 255 255 255
0.0207304 0.0359865 0.595 255 255 255
0.132102 0.0500079 0.578 0 0 0
0.210626 -0.0174392 0.569 255 255 255
-0.137434 0.132968 0.423 255 255 255
0.0800357 -0.226888 0.604 255 255 255
0.0182742 -0.0961241 0.61 255 255 255
0.187735 -0.0662808 0.567 255 255 255
-0.0631058 -0.121021 0.591 255 255 255
0.0045806 0.0261694 0.639 0 0 0
-0.178803 -0.0737223 0.622 255 255 255
-0.0601884 -0.007818 0.703 255 255 255
0.239426 -0.160372 0.548 255 255 255
0.24811 -0.000773458 0.57 255 255 255
-0.239666 -0.138905 0.521 0 0 0
0.0498731 0.124337 0.553 255 255 255
0.120693 0.0690232 0.596 255 255 255
-0.224488 -0.0543983 0.578 255 255 255
0.175989 0.00770763 0.58 255 255 255
-0.169056 -0.0820331 0.616 255 255 255
-0.240526 0.00497696 0.592 255 255 255
0.219732 -0.0909077 0.571 255 255 255
0.280238 0.00296261 0.575 255 255 255
-0.0258747 -0.125448 0.576 255 255 255
0.20297 0.168572 0.477 255 255 255
-0.240941 -0.0906473 0.547 0 0 0
-0.170703 -0.174529 0.562 255 255 255
-0.249207 0.0295683 0.583 255 255 255
0.241259 0.0673397 0.635 255 255 255
0.293566 0.0512129 0.581 255 255 255
0.170087 -0.185438 0.576 255 255 255
0.0318229 0.0608635 0.643 255 255 255
0.160245 -0.160598 0.571 255 255 255
0.218874 -0.0209572 0.564 255 255 255
-0.126701 -0.105557 0.596 255 255 255
0.167628 -0.0699013 0.574 255 255 255
-0.19784 0.110638 0.441 255 255 255
0.0908195 -0.0296545 0.591 255 255 255
-0.0274127 -0.19337 0.569 255 255 255
0.131892 -0.110808 0.573 255 255 255
-0.126214 0.0488776 0.665 0 0 0
-0.302852 -0.0331809 0.621 255 255 255
-0.269688 -0.142167 0.53 255 255 255
-0.285836 0.0222562 0.617 255 255 255
-0.239364 0.0905396 0.463 255 255 255
0.159111 -0.102192 0.577 255 255 255
-0.0503966 0.0134431 0.679 255 255 255
-0.204673 0.0901723 0.477 255 255 255
-0.128637 0.0286144 0.672 255 255 255
-0.0865391 0.129597 0.468 255 255 255
-0.0113735 0.156318 0.421 255 255 255
-0.188822 -0.0872999 0.625 255 255 255
0.299783 0.136929 0.609 255 255 255
0.262894 0.0967916 0.625 255 255 255
0.184791 0.0236712 0.578 255 255 255
-0.0387188 0.129909 0.461 255 255 255
-0.17008 0.146335 0.389 255 255 255
0.0302114 -0.191229 0.591 255 255 255
0.00938201 0.155461 0.43 255 255 255
0.105428 -0.0740201 0.592 255 255 255
-0.0822106 -0.0318986 0.597 255 255 255
0.218754 -0.181784 0.559 255 255 255
-0.217398 -0.0460821 0.592 0 0 0
0.0306327 0.055372 0.64 255 255 255
0.0878809 -0.177616 0.578 255 255 255
0.0533441 -0.164356 0.581 255 255 255
-0.196565 0.0731751 0.568 255 255 255
-0.211885 -0.130092 0.53 255 255 255
-0.189004 0.108261 0.449 255 255 255
-0.126434 0.0864997 0.496 0 0 0
0.245615 -0.201484 0.525 255 255 255
-0.284839 -0.0376645 0.596 255 255 255
0.140286 -0.10801 0.573 255 255 255
0.0180669 0.0904454 0.572 255 255 255
-0.155774 0.0536221 0.644 255 255 255
0.185381 -0.152101 0.574 255 255 255
-0.0859816 -0.0675452 0.603 0 0 0
-0.15829 0.135884 0.411 255 255 255
-0.222748 -0.0105076 0.596 255 255 255
-0.153802 0.145102 0.396 255 255 255
-0.101123 0.114389 0.465 0 0 0
0.00425803 -0.103269 0.594 255 255 255
-0.141369 -0.0322854 0.665 0 0 0
0.192841 0.151633 0.475 255 255 255
0.258161 -0.184688 0.521 255 255 255
-0.216681 -0.0426566 0.598 255 255 255
0.143334 -0.0213288 0.574 255 255 255
0.227823 -0.12463 0.568 255 255 255
-0.0698103 -0.0563747 0.599 255 255 255
0.00137099 -0.149227 0.6 255 255 255
0.143888 -0.196164 0.58 255 255 255
0.183832 -0.193537 0.575 255 255 255
0.196593 -0.113803 0.574 255 255 255
-0.0200395 0.0271113 0.662 255 255 255
-0.238614 0.0614545 0.554 255 255 255
-0.0511562 0.158286 0.405 255 255 255
-0.0092788 -0.08007 0.594 255 255 255
0.0872657 -0.0934452 0.593 255 255 255
0.133473 -0.0663673 0.584 255 255 255
-0.103937 -0.0748953 0.599 255 255 255
-0.243396 -0.00745772 0.585 255 255 255
0.0979629 -0.173163 0.582 255 255 255
-0.297783 0.0245266 0.576 255 255 255
0.106392 -0.0894341 0.592 255 255 255
0.178513 0.0595166 0.579 255 255 255
-0.0779092 0.133198 0.462 255 255 255
0.0893466 0.0243264 0.594 255 255 255
-0.121575 0.103237 0.48 255 255 255
0.269946 -0.0997045 0.543 255 255 255
0.0550374 0.0346651 0.589 255 255 255
-0.195761 -0.0672141 0.618 0 0 0
-0.0695838 0.09384 0.488 255 255 255
-0.219033 0.0389217 0.581 255 255 255
-0.235907 -0.0588992 0.567 255 255 255
-0.0832583 -0.175732 0.489 255 255 255
-0.231997 -0.0949621 0.562 0 0 0
-0.137647 -0.0683551 0.593 0 0 0
0.0469929 0.00908405 0.609 0 0 0
0.0833204 -0.18923 0.579 255 255 255
0.132813 -0.183882 0.577 255 255 255
-0.0335643 -0.116225 0.596 255 255 255
-0.198531 -0.0869042 0.608 255 255 255
-0.0262249 0.0524062 0.655 255 255 255
-0.128807 0.139234 0.413 255 255 255
-0.159584 -0.0229866 0.678 0 0 0
-0.152678 -0.126281 0.563 255 255 255
0.0242319 -0.0494686 0.61 255 255 255
-0.161226 0.127762 0.424 255 255 255
0.249912 -0.0538336 0.572 255 255 255
0.147219 0.161231 0.416 255 255 255
-0.225265 -0.0489234 0.58 255 255 255
0.0805086 -0.207316 0.593 255 255 255
-0.211193 -0.0573495 0.599 255 255 255
0.262222 -0.189734 0.514 255 255 255
-0.0125452 0.0886434 0.528 255 255 255
0.24539 -0.093203 0.568 255 255 255
-0.113323 -0.119299 0.592 255 255 255
-0.121571 -0.183556 0.535 255 255 255
-0.13036 0.000184133 0.681 255 255 255
0.125453 0.0501709 0.591 0 0 0
0.00327449 -0.133524 0.591 255 255 255
0.222707 -0.187032 0.553 255 255 255
0.20033 -0.0923194 0.574 255 255 255
0.175259 0.169955 0.446 255 255 255
0.206357 -0.155679 0.57 255 255 255
0.108319 -0.00080331 0.592 255 255 255
0.0905391 -0.148793 0.583 255 255 255
-0.0990962 -0.000953931 0.703 255 255 255
-0.233488 -0.161771 0.559 255 255 255
-0.295364 0.0338092 0.559 255 255 255
-0.233979 0.0500936 0.558 255 255 255
-0.332952 -0.0164393 0.638 255 255 255
0.0991825 0.0175896 0.595 255 255 255
-0.0113669 0.0291332 0.659 255 255 255
-0.00866431 0.124864 0.459 255 255 255
-0.208964 0.0841376 0.487 255 255 255
-0.0581641 0.113935 0.479 255 255 255
0.241458 -0.199576 0.529 255 255 255
0.0698961 0.12819 0.562 255 255 255
-0.0913134 0.116357 0.473 255 255 255
-0.185845 0.0560046 0.572 255 255 255
0.256977 -0.0756216 0.561 255 255 255
0.254567 -0.0584878 0.572 255 255 255
-0.226524 -0.0607714 0.576 0 0 0
-0.0557814 -0.17763 0.575 255 255 255
0.262032 -0.0643217 0.566 255 255 255
-0.119657 0.129959 0.436 255 255 255
-0.222992 -0.0554346 0.579 0 0 0
-0.175975 0.0258008 0.63 255 255 255
-0.137647 -0.0693201 0.593 0 0 0
0.0220637 -0.164254 0.605 255 255 255
0.241954 -0.0287513 0.573 255 255 255
-0.0568485 -0.110406 0.596 0 0 0
-0.198997 0.13094 0.404 255 255 255
-0.199085 0.061295 0.578 255 255 255
-0.120475 0.0774848 0.534 255 255 255
-0.111365 -0.112534 0.597 255 255 255
-0.0768803 -0.0341717 0.586 255 255 255
-0.00514395 0.161231 0.416 255 255 255
-0.303614 0.0145861 0.591 255 255 255
-0.209758 0.113563 0.433 255 255 255
0.130174 -0.0453037 0.582 255 255 255
-0.090206 -0.0766301 0.605 255 255 255
-0.300596 0.025464 0.576 255 255 255
0.210809 -0.0367545 0.567 255 255 255
0.249378 0.0845056 0.632 255 255 255
-0.0582881 -0.000941719 0.694 0 0 0
0.276046 0.107776 0.618 255 255 255
0.141561 0.0869374 0.586 255 255 255
-0.308238 0.00797341 0.6 255 255 255
-0.255734 0.0108299 0.596 255 255 255
0.0797662 0.0723817 0.625 255 255 255
0.0255732 -0.18284 0.595 255 255 255
0.021626 -0.196701 0.593 255 255 255
-0.194126 -0.0213253 0.629 0 0 0
0.262145 0.0441001 0.6 255 255 255
0.0202463 0.0554586 0.641 255 255 255
-0.22378 -0.0913886 0.586 255 255 255
-0.242304 0.0702668 0.507 255 255 255
0.0346911 0.055199 0.638 255 255 255
0.12541 0.0890144 0.6 255 255 255
-0.0490583 -0.156498 0.573 255 255 255
-0.180215 0.125874 0.42 255 255 255
-0.122512 0.0902377 0.49 0 0 0
0.261712 -0.1902 0.513 255 255 255
0.0620688 -0.154486 0.583 255 255 255
0.225257 0.158034 0.508 255 255 255
-0.326191 -0.112067 0.627 255 255 255
-0.149216 0.142366 0.401 255 255 255
-0.164931 0.0430236 0.627 255 255 255
-0.108489 0.144635 0.415 255 255 255
-0.087717 0.051963 0.677 255 255 255
-0.127543 0.0264273 0.672 255 255 255
-0.239305 -0.0178376 0.582 255 255 255
-0.288444 -0.00782742 0.614 255 255 255
-0.0318832 -0.123178 0.583 255 255 255
-0.0518324 0.0426395 0.669 255 255 255
0.167855 -0.107072 0.578 255 255 255
-0.132534 -0.122565 0.567 255 255 255
-0.0305794 0.15901 0.412 255 255 255
0.0886773 -0.216124 0.596 255 255 255
-0.161768 0.140453 0.403 255 255 255
0.0725286 -0.055152 0.607 255 255 255
0.179152 -0.201959 0.575 255 255 255
0.201935 -0.0321977 0.568 255 255 255
-0.232807 -0.0567251 0.573 255 255 255
-0.224303 -0.101522 0.568 0 0 0
0.246553 0.0915373 0.638 255 255 255
-0.245131 -0.123424 0.531 255 255 255
-0.204871 -0.116409 0.592 255 255 255
0.203712 -0.0604549 0.573 255 255 255
0.0013687 -0.140205 0.599 255 255 255
0.0196955 -0.193806 0.593 255 255 255
-0.0451094 0.14742 0.429 255 255 255
-0.020342 0.147325 0.437 255 255 255
0.253908 0.0440266 0.599 255 255 255
0.184471 0.029264 0.577 255 255 255
0.0692205 -0.23082 0.604 255 255 255
-0.0676292 0.152675 0.413 255 255 255
0.272573 -0.11412 0.536 255 255 255
-0.0910876 0.15555 0.398 255 255 255
0.046115 0.0697343 0.638 255 255 255
0.205716 0.00484245 0.576 255 255 255
-0.295826 0.0183083 0.587 255 255 255
0.162284 0.0878275 0.592 255 255 255
0.0090773 -0.10599 0.593 255 255 255
-0.21105 -0.0531765 0.607 0 0 0
0.0437298 -0.229233 0.605 255 255 255
-0.195701 0.136725 0.396 255 255 255
-0.0768349 0.137602 0.447 255 255 255
-0.0958006 0.105673 0.484 255 255 255
-0.0826253 -0.0220365 0.719 0 0 0
-0.0176303 0.130839 0.459 0 0 0
-0.0795609 -0.108037 0.599 255 255 255
-0.246291 0.0582197 0.549 255 255 255
0.0761929 -0.17763 0.575 255 255 255
0.272644 0.0328593 0.591 255 255 255
0.238396 -0.144617 0.556 255 255 255
-0.0913047 0.128347 0.469 255 255 255
-0.148802 0.129832 0.424 255 255 255
-0.199851 -0.101411 0.606 255 255 255
0.0222879 0.149826 0.436 255 255 255
-0.231188 0.103209 0.443 255 255 255
0.110736 -0.128569 0.565 255 255 255
-0.285984 0.0411699 0.548 255 255 255
-0.2241 -0.0618159 0.577 255 255 255
0.127894 -0.176064 0.576 255 255 255
0.0038566 0.0999528 0.538 255 255 255
-0.062971 0.143259 0.427 255 255 255
0.207443 -0.00637228 0.573 255 255 255
-0.172667 0.144274 0.392 255 255 255
-0.192864 -0.102415 0.612 255 255 255
-0.249123 -0.11717 0.534 255 255 255
0.286598 0.0668583 0.594 255 255 255
-0.215594 -0.0889191 0.595 255 255 255
-0.078129 -0.0979649 0.603 255 255 255
0.234458 -0.151386 0.551 255 255 255
-0.139543 0.0709175 0.524 0 0 0
-0.164777 -0.0568797 0.615 0 0 0
-0.0860926 -0.0101923 0.709 255 255 255
-0.323098 -0.0184867 0.637 255 255 255
0.264974 -0.132563 0.533 255 255 255
-0.116084 0.0491716 0.669 255 255 255
0.024947 0.022653 0.628 255 255 255
0.0825605 0.156618 0.411 255 255 255
-0.282168 -0.137936 0.551 0 0 0
-0.156663 0.134203 0.412 255 255 255
-0.170024 -0.00958851 0.667 0 0 0
-0.139901 0.136202 0.414 255 255 255
-0.210868 0.102364 0.452 255 255 255
0.197183 -0.0865638 0.573 255 255 255
0.0829953 0.00210445 0.597 255 255 255
-0.106167 0.0875835 0.532 255 255 255
0.119478 -0.101614 0.59 255 255 255
0.228097 -0.074182 0.571 255 255 255
-0.119551 -0.037495 0.609 255 255 255
-0.270592 -0.048586 0.576 255 255 255
-0.218816 -0.104281 0.573 0 0 0
0.135395 0.0498348 0.576 0 0 0
-0.176213 0.0498026 0.565 255 255 255
0.293254 0.0262638 0.573 255 255 255
-0.104375 0.111601 0.466 0 0 0
0.0481418 -0.0754014 0.611 255 255 255
-0.251009 0.0802491 0.478 255 255 255
-0.00831189 -0.0675037 0.594 255 255 255
-0.0425291 -0.129457 0.573 255 255 255
0.240468 0.149027 0.514 255 255 255
0.0975537 -0.0286927 0.591 255 255 255
0.286189 0.15424 0.627 255 255 255
0.155753 0.00773421 0.582 255 255 255
0.0435205 0.10203 0.564 255 255 255
-0.297012 0.0128768 0.601 255 255 255
0.203133 -0.0642968 0.574 255 255 255
0.191587 -0.112673 0.573 255 255 255
-0.0770204 -0.180376 0.566 255 255 255
0.182592 0.00578982 0.577 255 255 255
0.253589 -0.00358115 0.574 255 255 255
-0.128189 -0.0538073 0.603 255 255 255
0.227561 -0.19706 0.541 255 255 255
-0.193255 0.0468856 0.586 255 255 255
0.168906 -0.134816 0.572 255 255 255
0.0295383 0.108597 0.56 255 255 255
-0.30989 -0.00593349 0.625 255 255 255
0.0393883 0.139741 0.429 255 255 255
-0.133868 0.147219 0.4 255 255 255
-0.030332 0.132333 0.459 255 255 255
0.0557313 0.0228833 0.607 255 255 255
-0.245759 0.0146354 0.593 255 255 255
0.0307915 0.160254 0.426 255 255 255
0.125299 -0.0233182 0.577 255 255 255
0.0846838 0.147658 0.563 255 255 255
0.171999 -0.070712 0.573 255 255 255
0.268771 -0.087816 0.546 255 255 255
-0.196048 -0.00400539 0.642 255 255 255
0.0662368 0.114472 0.562 255 255 255
-0.128332 -0.150796 0.527 255 255 255
0.285508 0.16523 0.63 255 255 255
-0.0384668 0.13279 0.458 255 255 255
-0.257242 0.0195261 0.595 255 255 255
-0.229123 0.0669083 0.526 255 255 255
-0.16701 0.050486 0.631 255 255 255
-0.0157252 0.0582197 0.549 0 0 0
0.222215 -0.204858 0.543 255 255 255
0.0171961 0.0169421 0.644 0 0 0
0.164186 0.168914 0.434 0 0 0
-0.18393 -0.189296 0.534 255 255 255
-0.214139 -0.114596 0.578 0 0 0
0.139597 -0.118474 0.574 255 255 255
-0.228189 -0.0392056 0.59 0 0 0
0.146137 -0.0979239 0.574 255 255 255
0.0870314 0.157571 0.41 0 0 0
-0.160584 -0.0199378 0.687 0 0 0
0.133057 -0.157534 0.57 255 255 255
-0.234205 -0.10636 0.55 0 0 0
-0.0413733 -0.06151 0.583 255 255 255
0.159874 -0.136917 0.573 255 255 255
0.227676 0.0114236 0.577 255 255 255
-0.165425 0.147472 0.387 255 255 255
-0.251072 0.0363296 0.57 255 255 255
-0.206824 -0.0108426 0.615 255 255 255
-0.102194 0.0387998 0.678 255 255 255
-0.0630046 0.149762 0.418 255 255 255
0.132813 -0.18576 0.577 255 255 255
-0.190953 -0.0747345 0.622 255 255 255
-0.0248414 0.156868 0.417 255 255 255
0.134679 -0.0556261 0.581 255 255 255
-0.125042 -0.149084 0.524 255 255 255
0.13657 0.0341943 0.581 255 255 255
0.246804 -0.083812 0.567 255 255 255
-0.0278364 -0.103965 0.598 255 255 255
-0.221622 0.1145 0.426 255 255 255
-0.268864 0.0282404 0.595 255 255 255
-0.261747 -0.0479956 0.569 255 255 255
-0.163814 0.0809103 0.528 255 255 255
0.183512 -0.150233 0.574 255 255 255
-0.232837 -0.11014 0.551 0 0 0
0.151335 -0.0504607 0.576 255 255 255
0.224772 -0.102237 0.572 255 255 255
0.273959 -0.0429847 0.564 255 255 255
0.234513 0.0733057 0.642 255 255 255
-0.223615 0.0837864 0.476 255 255 255
0.146975 -0.161244 0.57 255 255 255
-0.213591 0.0477936 0.574 255 255 255
0.0376333 -0.174215 0.602 255 255 255
-0.0151162 0.00685347 0.683 255 255 255
-0.235007 0.0641591 0.554 255 255 255
0.0763254 -0.182626 0.576 255 255 255
-0.117761 -0.0355712 0.61 0 0 0
0.0683442 0.157571 0.41 255 255 255
0.219854 0.164933 0.494 255 255 255
-0.216742 0.0697224 0.57 255 255 255
0.218314 -0.199806 0.551 255 255 255
0.28569 -0.0271877 0.56 255 255 255
0.126415 -0.00753421 0.591 255 255 255
0.202199 -0.178255 0.574 255 255 255
0.235917 -0.199724 0.534 255 255 255
-0.0532498 -0.124002 0.578 255 255 255
-0.127105 0.0444819 0.664 255 255 255
-0.127039 0.148149 0.399 255 255 255
-0.00536559 -0.124445 0.589 255 255 255
0.248677 0.0502066 0.615 255 255 255
0.0302625 -0.196369 0.592 255 255 255
-0.0898296 0.14823 0.41 255 255 255
-0.190228 -0.0362791 0.64 255 255 255
-0.0141847 -0.111563 0.597 255 255 255
-0.208803 -0.0416634 0.612 255 255 255
-0.287969 0.0245692 0.577 255 255 255
-0.263894 -0.0226507 0.584 255 255 255
0.106751 0.0591252 0.594 255 255 255
-0.168184 0.141301 0.398 255 255 255
0.27107 0.0389567 0.596 255 255 255
-0.146349 -0.0727022 0.597 255 255 255
0.103582 0.0345474 0.587 255 255 255
-0.145743 0.0527374 0.646 255 255 255
-0.191693 -0.117936 0.59 0 0 0
-0.246704 -0.0972323 0.544 255 255 255
-0.228019 0.0918846 0.466 255 255 255
0.0661525 0.0121166 0.612 255 255 255
0.304746 0.153287 0.611 255 255 255
-0.0937073 -0.124002 0.578 255 255 255
0.0954678 -0.0228834 0.59 255 255 255
-0.271499 -0.0283529 0.584 255 255 255
0.0142422 0.0935102 0.568 255 255 255
-0.029728 -0.124943 0.578 255 255 255
-0.182148 0.12884 0.412 255 255 255
-0.274803 0.031034 0.575 255 255 255
-0.157484 0.0331867 0.634 255 255 255
-0.194778 0.0513011 0.582 255 255 255
-0.000440667 0.127936 0.454 255 255 255
-0.164462 -0.118231 0.582 255 255 255
0.158008 -0.124795 0.573 255 255 255
-0.0670888 0.129627 0.46 255 255 255
-0.183916 0.127383 0.416 255 255 255
-0.19127 -0.0185738 0.64 0 0 0
0.172467 0.153853 0.452 255 255 255
0.210124 0.179811 0.462 255 255 255
0.214905 -0.0632523 0.573 255 255 255
0.120642 0.0280506 0.591 255 255 255
-0.00632437 -0.123487 0.589 255 255 255
0.07032 -0.0736765 0.605 255 255 255
0.182896 -0.219737 0.575 255 255 255
0.161739 -0.124795 0.573 255 255 255
0.182592 0.0442875 0.577 255 255 255
0.22852 -0.16934 0.554 255 255 255
0.163605 -0.0744418 0.573 255 255 255
-0.2074 -0.0185426 0.605 255 255 255
-0.167081 0.121737 0.432 255 255 255
0.213178 0.16694 0.479 255 255 255
-0.177107 -0.189162 0.562 0 0 0
-0.255441 -0.158347 0.502 255 255 255
0.243438 -0.153285 0.545 255 255 255
0.144017 -0.0194267 0.573 255 255 255
-0.226396 0.046961 0.564 255 255 255
-0.0549374 0.076995 0.492 0 0 0
0.0925866 -0.0267239 0.59 255 255 255
-0.0895549 -0.0101923 0.709 255 255 255
0.0954685 0.0176191 0.596 255 255 255
0.187856 -0.0986858 0.573 255 255 255
0.262133 0.0202877 0.589 255 255 255
0.0834643 -0.19522 0.58 255 255 255
0.105542 -0.0538276 0.582 255 255 255
0.0344416 0.0452026 0.615 255 255 255
0.241219 -0.154455 0.546 255 255 255
-0.253296 -0.125779 0.53 255 255 255
-0.076198 0.126326 0.47 255 255 255
-0.0364283 0.0588042 0.538 255 255 255
-0.255005 -0.14261 0.516 255 255 255
-0.162789 -0.0228171 0.673 0 0 0
0.293342 0.0357126 0.575 255 255 255
0.165399 -0.0963904 0.576 255 255 255
-0.14213 0.0595687 0.537 255 255 255
-0.112649 -0.145691 0.518 255 255 255
