ply
format ascii 1.0
comment Created by Open3D
element vertex 1302
property double x
property double y
property double z
property uchar red
property uchar green
property uchar blue
end_header
0.00387841 -0.139924 0.7 255 255 255
0.139868 -0.0916669 0.664 255 255 255
0.209716 0.180568 0.48 255 255 255
0.125687 -0.209929 0.636 255 255 255
-0.266605 -0.0248037 0.59 255 255 255
0.289017 0.0660026 0.595 255 255 255
-0.249845 -0.139579 0.53 0 0 0
-0.0188594 -0.182842 0.491 255 255 255
-0.0876742 0.121386 0.487 255 255 255
0.290369 0.0440247 0.586 255 255 255
-0.0129587 0.0587938 0.632 255 255 255
0.297491 0.0544215 0.585 255 255 255
0.0975755 0.135477 0.478 255 255 255
0.146206 0.122498 0.515 255 255 255
-0.0706656 -0.0653917 0.858 255 255 255
-0.118622 0.153415 0.415 255 255 255
-0.327246 0.00639189 0.637 255 255 255
0.0898764 -0.218511 0.662 255 255 255
0.255945 -0.0874962 0.573 255 255 255
-0.138888 0.148012 0.415 255 255 255
0.244776 -0.162747 0.55 255 255 255
0.106504 0.14421 0.466 255 255 255
-0.0651863 0.144291 0.452 255 255 255
-0.266816 -0.0716903 0.566 0 0 0
-0.115426 0.0296556 0.647 255 255 255
-0.109214 0.128489 0.464 255 255 255
0.186002 -0.123531 0.613 255 255 255
0.113262 -0.0798821 0.693 255 255 255
-0.199493 -0.249909 0.643 255 255 255
-0.196595 0.0240142 0.637 255 255 255
0.163573 0.123168 0.525 255 255 255
-0.153867 0.0625638 0.564 0 0 0
-0.207806 -0.192765 0.584 0 0 0
0.0740611 -0.215113 0.675 255 255 255
0.180643 0.112231 0.551 255 255 255
-0.23943 -0.0565271 0.571 255 255 255
0.0362805 -0.0886081 0.758 255 255 255
0.223156 -0.0918239 0.595 255 255 255
-0.12061 0.0957153 0.502 0 0 0
-0.208351 0.146483 0.398 255 255 255
-0.0152933 -0.213465 0.691 255 255 255
-0.196839 -0.191553 0.854 255 255 255
0.0315412 -0.00753791 0.794 255 255 255
0.217938 0.0598675 0.655 255 255 255
-0.149789 0.0436268 0.607 255 255 255
-0.227476 -0.150776 0.569 255 255 255
0.0196326 -0.184762 0.693 255 255 255
0.0495599 -0.136511 0.718 255 255 255
0.181005 -0.216524 0.584 255 255 255
0.0367958 0.13312 0.467 255 255 255
-0.0362595 0.138736 0.468 255 255 255
0.0906792 -0.214629 0.66 255 255 255
-0.0379975 0.0759491 0.548 255 255 255
0.165711 -0.145822 0.623 255 255 255
-0.196797 -0.055279 0.631 0 0 0
0.0212897 0.0544154 0.641 255 255 255
-0.0695851 -0.0777386 0.694 255 255 255
0.240747 -0.0644951 0.593 255 255 255
-0.0142474 -0.0347252 0.826 255 255 255
-0.176449 -0.0979198 0.914 255 255 255
0.0865257 0.0137191 0.755 255 255 255
-0.23368 0.117434 0.445 255 255 255
0.0879343 -0.156786 0.689 255 255 255
0.111087 0.124803 0.504 255 255 255
0.216581 -0.05959 0.612 255 255 255
0.202199 -0.201608 0.574 255 255 255
-0.273148 0.0627694 0.542 255 255 255
-0.211193 -0.100239 0.599 0 0 0
0.0627931 -0.243683 0.672 255 255 255
-0.221919 0.132025 0.42 255 255 255
-0.197024 0.145404 0.404 255 255 255
-0.200163 -0.108048 0.652 255 255 255
0.265196 -0.0920544 0.561 255 255 255
-0.0766877 -0.0340925 0.879 255 255 255
-0.0124146 0.110743 0.489 255 255 255
-0.21443 0.0041424 0.611 255 255 255
-0.0612508 0.0825439 0.533 255 255 255
0.260798 -0.0294036 0.586 255 255 255
-0.161077 0.146627 0.413 255 255 255
0.00199552 0.10305 0.51 255 255 255
-0.160128 0.0434831 0.605 255 255 255
0.154906 -0.10137 0.65 255 255 255
0.0158178 0.141974 0.454 255 255 255
-0.120246 0.0678673 0.57 255 255 255
-0.0304396 0.157286 0.439 255 255 255
-0.208989 -0.195893 0.582 0 0 0
-0.264656 -0.242212 0.662 255 255 255
-0.0657226 -0.141264 0.701 255 255 255
-0.060107 -0.18111 0.495 255 255 255
0.0902395 0.111208 0.521 255 255 255
0.126675 0.126443 0.504 255 255 255
0.126037 0.0717964 0.603 255 255 255
0.190865 -0.155281 0.597 255 255 255
-0.202843 -0.112099 0.69 255 255 255
0.0601524 0.0856608 0.565 255 255 255
0.00838806 -0.143655 0.696 255 255 255
0.124538 0.128392 0.502 255 255 255
-0.150377 0.132642 0.445 255 255 255
-0.11449 0.073967 0.56 0 0 0
0.115579 -0.189929 0.649 255 255 255
0.242012 0.177646 0.505 255 255 255
-0.225951 -0.236814 0.656 255 255 255
-0.222907 0.0218955 0.607 255 255 255
0.133307 -0.21342 0.628 255 255 255
0.212388 0.120765 0.545 255 255 255
0.169081 -0.180304 0.606 255 255 255
0.211522 0.116028 0.552 255 255 255
-0.266828 -0.0431111 0.578 255 255 255
-0.0277816 0.102646 0.508 255 255 255
-0.0516593 0.0772616 0.551 255 255 255
0.118682 0.133547 0.488 255 255 255
-0.12344 -0.0481763 0.725 255 255 255
0.0978913 -0.118737 0.696 255 255 255
-0.117026 0.0948416 0.515 255 255 255
0.247071 0.0713605 0.634 255 255 255
-0.0414238 0.16202 0.427 255 255 255
0.0871671 -0.208993 0.666 255 255 255
0.19899 0.129394 0.526 255 255 255
-0.204461 -0.086524 0.666 255 255 255
0.0692976 0.163642 0.424 0 0 0
0.26291 0.0217873 0.604 255 255 255
0.189495 -0.212418 0.578 255 255 255
-0.221836 -0.120761 0.576 255 255 255
-0.173599 0.0770462 0.537 255 255 255
0.175442 -0.0779387 0.64 255 255 255
-0.135978 0.125136 0.46 255 255 255
0.122451 -0.233579 0.63 255 255 255
-0.0800258 0.152307 0.429 255 255 255
0.0646619 -0.193504 0.692 255 255 255
-0.0925477 0.134867 0.46 255 255 255
0.0428862 0.0653582 0.607 255 255 255
0.174907 0.0415508 0.687 255 255 255
0.220799 0.0629689 0.654 255 255 255
-0.240763 -0.184941 0.529 255 255 255
0.129748 -0.129096 0.662 255 255 255
0.277277 -0.0879768 0.547 255 255 255
0.181174 0.126344 0.524 255 255 255
0.2089 0.086831 0.674 255 255 255
0.045604 0.155853 0.435 255 255 255
-0.0549365 0.159502 0.424 255 255 255
-0.197906 -0.0774993 0.628 0 0 0
-0.0828581 -0.195839 0.506 255 255 255
-0.118472 0.0921481 0.514 255 255 255
-0.28044 -0.224036 0.632 255 255 255
0.0200287 0.127526 0.466 255 255 255
-0.289183 0.0357446 0.591 255 255 255
0.248677 0.0251865 0.615 255 255 255
-0.123915 0.14273 0.436 255 255 255
-0.178503 0.0916103 0.511 255 255 255
-0.240337 -0.0924702 0.558 0 0 0
0.0744187 -0.155649 0.699 255 255 255
0.1491 -0.220838 0.609 255 255 255
-0.184418 0.114881 0.467 255 255 255
-0.0325221 0.15322 0.448 255 255 255
-0.285446 -0.01682 0.614 255 255 255
-0.0975448 0.0521234 0.614 0 0 0
0.153388 0.153165 0.461 255 255 255
-0.203009 -0.0698377 0.683 255 255 255
-0.195647 0.0885924 0.508 255 255 255
0.164524 -0.0260639 0.672 255 255 255
0.047725 0.0912756 0.549 255 255 255
0.204195 0.112041 0.559 255 255 255
-0.00943503 0.0829317 0.547 255 255 255
0.241668 0.0879701 0.65 255 255 255
-0.204189 0.146568 0.4 255 255 255
-0.227599 -0.0754901 0.596 255 255 255
0.0253823 -0.26711 0.696 255 255 255
0.0334805 0.139449 0.453 255 255 255
0.144321 -0.185531 0.627 255 255 255
0.0832022 -0.0695087 0.726 255 255 255
-0.189945 -0.21019 0.684 255 255 255
-0.172306 0.13408 0.431 255 255 255
-0.126944 0.105488 0.498 255 255 255
-0.246927 -0.0498475 0.569 0 0 0
-0.0519442 -0.171901 0.494 255 255 255
-0.219047 -0.221277 0.63 0 0 0
0.135233 -0.164896 0.642 255 255 255
-0.193619 -0.240424 0.666 255 255 255
-0.0812247 -0.12008 0.678 0 0 0
-0.198321 -0.0471796 0.71 0 0 0
-0.0264123 -0.0442413 0.828 255 255 255
-0.0590616 0.113254 0.493 0 0 0
-0.0594714 0.14055 0.459 0 0 0
0.0464047 0.104174 0.524 255 255 255
-0.0743664 -0.104751 0.686 255 255 255
-0.283545 0.0356524 0.623 255 255 255
0.082358 -0.191255 0.68 255 255 255
0.149633 -0.0607854 0.669 255 255 255
-0.197812 0.102311 0.483 255 255 255
0.138607 -0.134802 0.648 255 255 255
-0.0500302 0.103206 0.491 255 255 255
0.10129 -0.108543 0.696 255 255 255
-0.140819 0.142564 0.427 255 255 255
-0.19582 -0.109694 0.689 255 255 255
-0.234931 0.116973 0.446 255 255 255
-0.0510403 -0.0825632 0.834 255 255 255
0.14753 -0.168498 0.632 255 255 255
0.200445 -0.0206568 0.64 255 255 255
0.0987854 0.0481664 0.719 255 255 255
0.079319 0.100139 0.539 255 255 255
0.250354 -0.173756 0.537 255 255 255
0.104302 -0.128194 0.686 255 255 255
0.0940851 -0.131758 0.693 255 255 255
0.0440167 0.0599842 0.623 255 255 255
0.0431406 0.0581426 0.625 255 255 255
0.153833 -0.0823974 0.659 255 255 255
0.0339543 -0.0126423 0.79 255 255 255
0.106071 -0.20894 0.649 255 255 255
-0.00536653 0.162557 0.434 255 255 255
-0.0374484 0.067286 0.581 255 255 255
-0.0110439 -0.184197 0.499 0 0 0
-0.0198588 -0.175826 0.496 0 0 0
-0.331878 0.00737019 0.632 255 255 255
-0.01277 -0.173396 0.503 255 255 255
0.00852043 0.136068 0.459 0 0 0
-0.192499 0.0528297 0.578 255 255 255
0.13251 -0.157026 0.644 255 255 255
-0.263294 0.030887 0.609 255 255 255
-0.222328 -0.129946 0.563 255 255 255
0.137242 -0.184954 0.632 255 255 255
0.160043 -0.0432368 0.667 255 255 255
0.273082 -0.134432 0.537 255 255 255
-0.196959 -0.0724034 0.697 255 255 255
0.271934 -0.101329 0.547 255 255 255
-0.175609 -0.0576943 0.726 255 255 255
-0.17599 -0.130684 0.904 255 255 255
0.24941 0.0855753 0.64 255 255 255
0.244035 -0.111493 0.567 255 255 255
-0.229822 0.107636 0.462 255 255 255
0.14481 -0.0971155 0.657 255 255 255
-0.0290085 0.133572 0.474 0 0 0
0.266695 0.0760831 0.622 255 255 255
-0.062468 0.081264 0.536 255 255 255
-0.123648 0.151753 0.416 255 255 255
-0.203486 -0.153897 0.588 255 255 255
-0.15953 0.140513 0.425 255 255 255
0.0129941 -0.138785 0.7 255 255 255
0.130347 0.160144 0.439 255 255 255
0.0487282 -0.125696 0.723 255 255 255
-0.239158 -0.00272546 0.591 255 255 255
-0.0632288 0.0946342 0.488 0 0 0
-0.263152 -0.14362 0.529 255 255 255
0.0778195 -0.00961218 0.754 255 255 255
-0.267653 0.0713593 0.521 0 0 0
0.236768 0.0895758 0.654 255 255 255
0.19547 -0.0390342 0.634 255 255 255
-0.0845395 0.0124835 0.687 255 255 255
0.272326 -0.105586 0.546 255 255 255
-0.267376 -0.0163269 0.596 255 255 255
0.0210003 -0.130998 0.701 255 255 255
0.0179427 0.113825 0.492 255 255 255
0.0630266 0.0481567 0.641 255 255 255
0.148404 -0.179409 0.627 255 255 255
0.151732 -0.104543 0.65 255 255 255
0.170957 -0.212747 0.592 255 255 255
0.112905 0.105687 0.536 255 255 255
0.217863 0.14678 0.512 255 255 255
-0.302437 0.0261447 0.614 255 255 255
0.283867 -0.0363007 0.56 255 255 255
0.127353 0.122969 0.51 255 255 255
0.26155 0.0279597 0.61 255 255 255
-0.00893987 0.161887 0.436 255 255 255
0.057679 0.15826 0.43 255 255 255
-0.259338 -0.270924 0.7 0 0 0
0.246479 -0.181757 0.54 255 255 255
-0.168026 0.132584 0.44 255 255 255
-0.00738793 -0.0604898 0.811 255 255 255
0.0230168 -0.152057 0.693 255 255 255
-0.28691 -0.169512 0.543 255 255 255
-0.0326142 0.103889 0.506 255 255 255
0.189524 -0.148744 0.602 255 255 255
-0.13936 0.0600306 0.584 255 255 255
0.249631 -0.0762951 0.58 255 255 255
-0.243613 0.0772421 0.515 0 0 0
0.20229 -0.212815 0.569 255 255 255
0.0962023 -0.129316 0.692 255 255 255
-0.263282 -0.148484 0.531 255 255 255
-0.0434843 0.136849 0.472 255 255 255
-0.190223 -0.00196365 0.658 0 0 0
0.223931 -0.00187114 0.627 255 255 255
-0.252434 -0.149066 0.53 0 0 0
-0.0588521 0.139359 0.46 255 255 255
-0.207147 -0.110815 0.593 0 0 0
0.134844 0.0846504 0.59 255 255 255
-0.00210214 -0.0563911 0.809 255 255 255
0.283582 -0.00266551 0.578 255 255 255
0.244325 0.130521 0.545 255 255 255
0.101688 -0.23498 0.648 255 255 255
-0.115254 0.147429 0.425 255 255 255
0.01587 -0.0726951 0.786 255 255 255
0.140318 -0.114048 0.656 255 255 255
0.0083348 0.155754 0.449 255 255 255
0.0126971 -0.238017 0.684 255 255 255
-0.231171 -0.124697 0.56 255 255 255
-0.0819451 0.160456 0.414 255 255 255
0.109667 -0.150506 0.671 255 255 255
0.0932498 -0.24658 0.648 255 255 255
0.0885075 0.117389 0.511 255 255 255
0.203988 0.106997 0.566 255 255 255
0.236821 0.0266557 0.626 255 255 255
0.219399 -0.161723 0.575 255 255 255
0.0563971 -0.253183 0.674 255 255 255
-0.289204 0.0369548 0.595 255 255 255
-0.0959658 0.10471 0.51 255 255 255
0.171606 0.140816 0.494 255 255 255
0.18794 0.12226 0.536 255 255 255
-0.184508 0.138147 0.422 255 255 255
0.0583939 0.0498511 0.636 255 255 255
0.189433 0.127309 0.528 255 255 255
0.0149894 -0.241297 0.687 255 255 255
-0.301455 -0.0826737 0.606 255 255 255
0.0168768 0.160161 0.443 0 0 0
0.0873191 0.0724156 0.6 255 255 255
0.125921 0.128952 0.501 255 255 255
-0.121904 0.107856 0.494 0 0 0
-0.17013 -0.17248 0.659 255 255 255
-0.160789 0.0584887 0.569 0 0 0
-0.0404687 -0.0489833 0.84 255 255 255
0.12291 -0.144817 0.66 255 255 255
0.225782 -0.0723315 0.602 255 255 255
-0.196737 0.123952 0.445 255 255 255
-0.144874 0.138864 0.435 255 255 255
-0.30893 -0.096535 0.619 255 255 255
0.149394 0.145285 0.477 255 255 255
0.231425 0.15669 0.52 0 0 0
0.202375 0.112041 0.559 255 255 255
0.21025 0.0561133 0.661 255 255 255
0.125308 0.0635914 0.609 255 255 255
0.229775 -0.0544319 0.61 255 255 255
-0.0880627 0.13112 0.468 255 255 255
0.0241059 0.0367513 0.661 255 255 255
-0.219051 -0.181575 0.564 0 0 0
-0.181695 -0.247319 0.67 255 255 255
-0.183254 0.132282 0.432 255 255 255
0.0510625 0.0298848 0.676 255 255 255
0.174128 -0.0861359 0.639 255 255 255
-0.313993 -0.00928662 0.646 255 255 255
0.0570665 -0.236211 0.682 255 255 255
0.033924 0.136815 0.459 255 255 255
0.0223247 0.0774012 0.586 255 255 255
0.147546 0.10627 0.548 255 255 255
0.211082 -0.107599 0.602 255 255 255
-0.238914 0.026746 0.605 255 255 255
0.136279 -0.163851 0.642 255 255 255
0.250272 0.120068 0.614 255 255 255
0.0786452 0.0188064 0.762 255 255 255
0.213113 0.084135 0.67 255 255 255
0.164744 0.161586 0.451 255 255 255
0.0960211 0.0893385 0.565 255 255 255
0.144855 0.0127924 0.704 255 255 255
-0.0636221 0.0411099 0.645 255 255 255
0.189109 -0.0767209 0.63 255 255 255
-0.0664464 0.156461 0.427 255 255 255
0.260145 -0.1504 0.541 255 255 255
0.214104 -0.0874599 0.605 255 255 255
-0.0803291 0.0699451 0.557 0 0 0
-0.357142 -0.0561996 0.693 255 255 255
0.252263 -0.0918369 0.571 255 255 255
0.138545 -0.16906 0.638 255 255 255
-0.242722 -0.120912 0.547 0 0 0
0.0377332 0.120293 0.489 255 255 255
0.0348155 -0.105179 0.753 255 255 255
0.0922307 -0.034347 0.732 255 255 255
-0.170469 0.104958 0.488 255 255 255
-0.220104 -0.136117 0.562 255 255 255
0.0661572 0.161641 0.426 0 0 0
-0.256237 -0.0575675 0.563 255 255 255
-0.133555 0.145696 0.426 255 255 255
0.0539868 0.0709673 0.588 255 255 255
-0.186786 0.0173894 0.661 255 255 255
0.0497216 -0.0711507 0.756 255 255 255
-0.00179292 -0.148031 0.69 255 255 255
-0.00359877 0.116759 0.481 255 255 255
0.180095 0.154729 0.468 255 255 255
0.300958 0.16675 0.628 255 255 255
-0.173744 0.0422176 0.601 255 255 255
0.077286 -0.109179 0.715 255 255 255
0.153578 0.166194 0.438 255 255 255
-0.115867 0.138746 0.446 255 255 255
-0.10448 0.106569 0.507 255 255 255
0.259873 -0.157438 0.535 255 255 255
0.088337 0.0795772 0.581 255 255 255
0.210039 -0.170144 0.575 255 255 255
0.131704 -0.12675 0.661 255 255 255
0.258422 0.0290473 0.612 255 255 255
0.302622 0.0885693 0.597 255 255 255
-0.0553129 0.0476308 0.634 255 255 255
-0.206811 -0.0904637 0.612 0 0 0
0.139076 -0.00889827 0.698 255 255 255
-0.0361151 0.162459 0.43 255 255 255
-0.147893 -0.216692 0.877 255 255 255
0.0875598 -0.202314 0.669 255 255 255
0.0361009 0.15836 0.44 0 0 0
0.199623 -0.0869039 0.615 255 255 255
0.165226 -0.145274 0.625 255 255 255
-0.0590437 -0.0224687 0.872 255 255 255
0.0183443 -0.213347 0.687 255 255 255
-0.0507535 0.148846 0.448 255 255 255
-0.134469 0.0386938 0.623 255 255 255
-0.170401 0.125166 0.452 255 255 255
-0.0815864 -0.116102 0.841 0 0 0
0.210611 -0.209109 0.564 255 255 255
0.247083 -0.0242073 0.599 255 255 255
-0.221722 0.0689237 0.535 255 255 255
-0.150616 0.0834113 0.533 255 255 255
-0.0115849 0.0681914 0.565 0 0 0
-0.0752959 -0.124337 0.832 255 255 255
-0.156981 0.0650856 0.562 0 0 0
0.164489 0.0812208 0.593 255 255 255
0.0157008 0.0700104 0.588 255 255 255
-0.202527 0.0106872 0.646 255 255 255
0.254605 -0.0926036 0.57 255 255 255
0.132725 0.109843 0.535 255 255 255
-0.225288 0.0911585 0.495 255 255 255
-0.0618501 -0.0718668 0.852 255 255 255
-0.17312 0.150377 0.405 255 255 255
-0.0516486 -0.0124636 0.867 255 255 255
-0.212049 -0.229586 0.666 255 255 255
0.29427 0.186463 0.629 0 0 0
0.219221 0.18132 0.482 255 255 255
-0.0772436 -0.0649261 0.702 0 0 0
0.111525 -0.195511 0.65 255 255 255
0.210437 -0.192191 0.571 255 255 255
0.128652 0.0994985 0.555 255 255 255
0.143709 0.0105011 0.704 255 255 255
-0.0164181 -0.216839 0.691 255 255 255
0.235974 -0.158698 0.561 255 255 255
-0.194293 -0.116615 0.598 0 0 0
-0.240504 -0.148914 0.542 0 0 0
0.0582384 -0.0110836 0.771 255 255 255
-0.190136 -0.234975 0.669 255 255 255
0.286908 -0.0164262 0.566 255 255 255
-0.158029 0.142616 0.421 255 255 255
0.173018 -0.0107379 0.671 255 255 255
-0.324602 0.0123146 0.622 255 255 255
-0.179926 0.149348 0.404 255 255 255
-0.112441 0.127312 0.468 255 255 255
-0.198612 -0.0610506 0.627 0 0 0
0.217417 -0.078729 0.606 255 255 255
0.158677 0.142691 0.484 255 255 255
0.254563 -0.18634 0.533 255 255 255
-0.057843 0.0314679 0.663 255 255 255
0.272016 -0.0763981 0.56 255 255 255
0.253332 -0.10901 0.559 255 255 255
-0.0949256 -0.0417138 0.889 255 255 255
0.0329301 -0.220376 0.688 255 255 255
0.102508 0.0665646 0.609 255 255 255
0.208449 0.0298848 0.652 255 255 255
-0.112537 0.0461283 0.614 255 255 255
0.16109 0.1616 0.449 255 255 255
0.179893 -0.127143 0.616 255 255 255
-0.196414 0.0823812 0.521 255 255 255
-0.330276 -0.0956373 0.647 255 255 255
-0.00857923 -0.0921007 0.799 255 255 255
-0.0634893 0.129255 0.478 0 0 0
0.197605 -0.162376 0.591 255 255 255
-0.0773971 0.0885924 0.508 255 255 255
-0.0531706 -0.145827 0.701 255 255 255
-0.0167687 0.118117 0.477 255 255 255
-0.212401 0.0756115 0.527 255 255 255
-0.101054 -0.0389514 0.892 255 255 255
0.108687 0.15872 0.441 255 255 255
-0.070955 0.121031 0.492 255 255 255
0.117425 0.112916 0.525 255 255 255
0.220991 -0.091161 0.597 255 255 255
0.0758221 0.108664 0.521 255 255 255
-0.301389 -0.0360377 0.618 255 255 255
-0.201861 -0.0400659 0.634 0 0 0
-0.00729684 -0.0897243 0.801 255 255 255
0.0205287 0.15691 0.444 0 0 0
0.00691381 -0.104672 0.786 255 255 255
0.138928 0.155667 0.453 255 255 255
-0.278339 -0.142276 0.547 0 0 0
0.0673016 -0.177633 0.696 255 255 255
0.082446 -0.161505 0.69 255 255 255
-0.0694714 0.0735412 0.55 0 0 0
0.196614 0.0033748 0.655 255 255 255
-0.183916 0.142276 0.416 255 255 255
-0.089717 0.0711059 0.559 255 255 255
-0.0825208 0.0904234 0.509 0 0 0
0.144144 -0.228766 0.609 255 255 255
-0.218463 -0.127702 0.582 255 255 255
-0.0836704 0.109385 0.501 255 255 255
0.296321 0.112958 0.608 255 255 255
0.210614 0.120765 0.545 255 255 255
0.271583 0.0175896 0.595 255 255 255
-0.214899 -0.172016 0.575 0 0 0
-0.204847 0.0512129 0.581 255 255 255
-0.0877977 0.159396 0.413 255 255 255
0.0231181 0.119603 0.483 255 255 255
0.166985 0.137627 0.497 255 255 255
-0.0647098 0.153376 0.434 255 255 255
-0.0701832 0.0825393 0.522 255 255 255
-0.321294 -0.0198605 0.648 255 255 255
-0.206374 0.149759 0.393 255 255 255
-0.166392 0.0843473 0.528 255 255 255
0.209518 0.182936 0.476 255 255 255
0.000337787 0.101349 0.514 255 255 255
-0.220899 -0.132947 0.576 0 0 0
0.197363 -0.18923 0.579 255 255 255
0.200431 -0.161552 0.588 255 255 255
-0.278697 -0.0136874 0.608 255 255 255
0.278698 0.0628605 0.602 255 255 255
0.0789985 -0.0970545 0.72 255 255 255
0.215466 -0.164164 0.577 255 255 255
-0.0538064 0.0988069 0.489 255 255 255
0.168329 0.137104 0.501 255 255 255
-0.0457954 -0.189273 0.693 255 255 255
0.263921 -0.121802 0.547 255 255 255
-0.206987 0.0791414 0.522 255 255 255
-0.112 0.156036 0.413 255 255 255
0.0290043 0.159438 0.441 255 255 255
-0.24433 0.0841105 0.501 255 255 255
-0.18987 0.0988129 0.493 255 255 255
0.0601975 0.162399 0.428 255 255 255
-0.265795 -0.0350054 0.584 255 255 255
-0.216732 -0.138832 0.585 0 0 0
0.153848 -0.103485 0.65 255 255 255
-0.0405168 -0.0449359 0.841 255 255 255
0.0178695 0.0175476 0.819 255 255 255
-0.185041 0.13454 0.428 255 255 255
-0.0726448 0.136957 0.462 255 255 255
-0.0523212 0.095022 0.49 0 0 0
-0.359719 -0.0282082 0.698 255 255 255
0.0308687 -0.239675 0.692 255 255 255
0.0572787 0.11317 0.507 255 255 255
-0.208653 -0.175953 0.652 255 255 255
0.0508694 0.0607043 0.62 255 255 255
0.217667 0.0467892 0.651 255 255 255
0.285065 -0.0219526 0.566 255 255 255
-0.234641 0.0950372 0.486 255 255 255
-0.202259 0.151789 0.39 255 255 255
0.135091 -0.081463 0.678 255 255 255
-0.0891126 0.157169 0.416 255 255 255
-0.108478 -0.0531058 0.712 255 255 255
0.25679 0.119167 0.625 0 0 0
-0.0111452 0.158715 0.439 255 255 255
0.141024 -0.0529321 0.68 255 255 255
0.0824791 -0.180454 0.681 255 255 255
-0.0456032 0.102436 0.495 0 0 0
-0.0651585 -0.103785 0.841 255 255 255
0.243413 -0.181213 0.541 255 255 255
-0.197421 -0.022491 0.633 0 0 0
-0.0683568 -0.145291 0.693 255 255 255
-0.0903503 0.148774 0.435 255 255 255
0.13935 0.049611 0.723 255 255 255
-0.256642 -0.127441 0.537 0 0 0
-0.11271 0.10756 0.489 0 0 0
0.284388 0.0904979 0.61 255 255 255
-0.0875029 0.116935 0.495 0 0 0
-0.0861365 -0.0243766 0.719 255 255 255
0.303545 0.0873043 0.595 255 255 255
0.219403 -0.184001 0.563 255 255 255
0.136076 -0.150155 0.646 255 255 255
-0.23747 -0.0669821 0.573 0 0 0
0.208182 -0.016362 0.635 255 255 255
0.224102 -0.176957 0.561 255 255 255
0.266584 -0.0867311 0.562 255 255 255
-0.0823342 0.0861251 0.513 255 255 255
-0.193889 0.136809 0.42 255 255 255
0.0768897 0.162262 0.424 255 255 255
-0.182114 -0.0214849 0.701 255 255 255
0.0613527 0.0916081 0.551 255 255 255
0.224531 0.163444 0.512 0 0 0
-0.0189429 0.100708 0.515 255 255 255
-0.183065 0.0704697 0.547 255 255 255
0.149901 -0.17384 0.629 255 255 255
-0.117744 0.148462 0.424 255 255 255
0.183175 -0.188343 0.591 255 255 255
0.0719679 -0.0133461 0.757 255 255 255
-0.116747 0.124797 0.47 255 255 255
0.103258 -0.108231 0.694 255 255 255
0.161428 -0.084029 0.655 255 255 255
-0.196892 -0.143816 0.606 255 255 255
0.115411 0.0828392 0.584 255 255 255
-0.109721 0.144859 0.436 255 255 255
0.00116991 0.102621 0.512 255 255 255
-0.226987 0.0279597 0.61 255 255 255
-0.20382 -0.0909072 0.615 255 255 255
-0.113389 0.140379 0.442 255 255 255
-0.201445 0.0647084 0.551 255 255 255
0.261998 -0.0689672 0.574 255 255 255
0.0387994 -0.0837845 0.759 255 255 255
0.0384394 0.0349141 0.667 255 255 255
-0.0866805 -0.142437 0.669 0 0 0
0.14203 0.161957 0.442 255 255 255
0.134705 -0.214435 0.625 255 255 255
-0.153953 -0.202882 0.879 255 255 255
0.0995933 -0.0966368 0.7 255 255 255
-0.186755 0.119595 0.456 255 255 255
-0.169908 0.138438 0.425 255 255 255
0.0499741 -0.12587 0.724 255 255 255
-0.196518 -0.250992 0.654 0 0 0
0.239552 0.0858546 0.65 255 255 255
-0.16113 -0.185964 0.887 255 255 255
-0.219868 0.132708 0.42 255 255 255
0.130041 -0.211694 0.632 255 255 255
0.22785 0.0838261 0.659 255 255 255
0.283632 0.06851 0.6 255 255 255
0.240678 -0.16513 0.555 255 255 255
0.291229 0.0361474 0.582 255 255 255
0.22811 0.179113 0.491 255 255 255
-0.209284 -0.0806845 0.921 0 0 0
-0.230509 -0.0551225 0.596 255 255 255
0.26738 0.00400002 0.59 255 255 255
0.122816 0.125872 0.505 255 255 255
0.0537292 0.0787555 0.575 255 255 255
-0.23615 -0.0884027 0.561 255 255 255
0.105369 0.0541608 0.626 255 255 255
0.0484586 -0.133191 0.719 255 255 255
0.298113 0.0712087 0.59 255 255 255
0.257056 -0.0369061 0.584 255 255 255
-0.196374 -0.250514 0.65 0 0 0
-0.232278 -0.088583 0.574 0 0 0
0.220296 0.166301 0.508 0 0 0
0.188857 -0.148991 0.603 255 255 255
0.0521005 0.127199 0.482 255 255 255
-0.136211 0.156418 0.407 255 255 255
0.0362435 -0.126724 0.709 255 255 255
-0.104824 0.153255 0.422 255 255 255
-0.191474 0.143875 0.409 255 255 255
-0.130609 0.144265 0.43 255 255 255
0.267886 0.00303475 0.589 255 255 255
0.172173 0.126226 0.52 255 255 255
-0.11839 0.0678673 0.57 255 255 255
-0.26303 -0.0385411 0.58 255 255 255
-0.232083 -0.110116 0.56 0 0 0
0.126617 0.162597 0.436 255 255 255
0.16342 -0.160771 0.622 255 255 255
-0.0808653 -0.133828 0.675 0 0 0
0.116157 -0.123208 0.677 255 255 255
-0.195862 0.0761854 0.531 255 255 255
0.0938118 0.0962658 0.552 255 255 255
0.166396 -0.189491 0.607 255 255 255
-0.222754 0.0859122 0.502 255 255 255
-0.0101767 0.0635277 0.59 255 255 255
-0.240097 -0.196034 0.566 0 0 0
-0.177233 0.087638 0.517 255 255 255
0.0498704 0.0661135 0.596 255 255 255
0.141102 0.0257551 0.714 255 255 255
-0.0258985 0.0983011 0.52 255 255 255
0.0784388 0.00886288 0.76 255 255 255
-0.155042 0.15273 0.406 255 255 255
0.249016 -0.186516 0.536 255 255 255
-0.200363 -0.042913 0.697 0 0 0
0.0878055 -0.105507 0.706 255 255 255
0.0835231 0.117887 0.506 255 255 255
-0.217417 0.0873717 0.501 0 0 0
-0.11557 0.038818 0.625 255 255 255
-0.247446 0.0896228 0.491 255 255 255
0.0593738 -0.228777 0.683 255 255 255
-0.0524452 0.146581 0.45 255 255 255
0.0455782 -0.224233 0.693 255 255 255
-0.175663 0.092261 0.51 255 255 255
0.116612 0.105884 0.537 255 255 255
-0.0312204 -0.180771 0.695 255 255 255
0.0518934 -0.239061 0.687 255 255 255
0.191678 -0.0862828 0.625 255 255 255
0.219485 -0.060289 0.609 255 255 255
0.234295 0.00826577 0.622 255 255 255
-0.0767439 -0.108789 0.848 255 255 255
0.0843029 0.109512 0.521 255 255 255
0.136607 0.0765756 0.602 255 255 255
0.155505 -0.0842856 0.657 255 255 255
0.18766 0.0951939 0.584 255 255 255
-0.152352 0.0867603 0.527 255 255 255
-0.137899 0.111311 0.488 255 255 255
-0.118108 0.0443456 0.617 255 255 255
-0.242453 0.00401358 0.592 255 255 255
0.110195 -0.0835056 0.695 255 255 255
0.214458 -0.0836599 0.606 255 255 255
-0.0498264 -0.183689 0.489 255 255 255
-0.191379 0.127861 0.441 255 255 255
-0.0878001 -0.194192 0.506 255 255 255
-0.201475 0.0106872 0.646 255 255 255
0.254171 -0.18582 0.534 255 255 255
-0.0996543 0.00693374 0.691 255 255 255
0.0360412 -0.102728 0.753 255 255 255
-0.2111 -0.00281308 0.61 255 255 255
0.0956351 0.0533967 0.629 255 255 255
0.116329 -0.12008 0.678 255 255 255
0.00252374 0.0579039 0.645 255 255 255
0.179068 -0.216681 0.587 255 255 255
-0.256078 -0.0986586 0.547 255 255 255
0.242978 0.174956 0.514 255 255 255
0.205031 -0.12336 0.593 255 255 255
-0.195721 0.13645 0.421 255 255 255
0.124359 0.098773 0.556 255 255 255
0.0497993 0.106575 0.515 255 255 255
0.281786 0.0337639 0.59 255 255 255
0.0772932 -0.0860489 0.726 255 255 255
0.111644 0.14977 0.453 255 255 255
-0.132056 0.124928 0.462 255 255 255
0.121732 0.0711675 0.606 255 255 255
0.0672922 0.0383729 0.652 255 255 255
0.179841 0.141429 0.499 255 255 255
0.0475582 0.0226109 0.689 255 255 255
0.00718214 -0.155665 0.689 255 255 255
0.160039 0.113296 0.539 255 255 255
0.192118 -0.180075 0.586 255 255 255
0.300774 0.125036 0.609 255 255 255
0.294286 0.116689 0.612 255 255 255
-0.0572736 -0.126129 0.826 255 255 255
0.146892 -0.111231 0.652 255 255 255
0.136876 -0.111521 0.66 255 255 255
-0.227596 -0.0875741 0.586 0 0 0
0.0160374 -0.232451 0.684 255 255 255
-0.214079 0.00314295 0.61 255 255 255
-0.286652 0.0548451 0.551 255 255 255
-0.188574 0.114635 0.466 255 255 255
0.247635 0.104733 0.649 255 255 255
0.225504 -0.0979388 0.591 255 255 255
-0.12159 0.10345 0.496 0 0 0
0.220847 -0.101336 0.594 255 255 255
-0.217288 0.0547849 0.569 255 255 255
0.226385 -0.0692772 0.601 255 255 255
-0.264013 -0.168585 0.529 255 255 255
-0.250163 -0.0181441 0.592 255 255 255
-0.179491 -0.199618 0.871 255 255 255
-0.218263 -0.137644 0.584 0 0 0
0.252974 -0.0353651 0.59 255 255 255
-0.218667 0.129361 0.427 255 255 255
0.204518 -0.154327 0.586 255 255 255
0.212081 0.0989899 0.66 0 0 0
0.233468 0.111961 0.642 255 255 255
0.043229 -0.139612 0.71 255 255 255
0.18289 -0.209039 0.587 255 255 255
-0.194637 -0.0503832 0.634 0 0 0
0.234066 -0.154683 0.563 255 255 255
0.213587 -0.161347 0.577 255 255 255
0.26719 -0.137194 0.541 255 255 255
0.0680982 0.0565573 0.63 255 255 255
-0.137668 0.0654271 0.573 255 255 255
0.164617 0.0856106 0.59 255 255 255
0.0167719 0.0951958 0.531 0 0 0
0.115622 0.0700655 0.605 255 255 255
0.0252 -0.153867 0.691 255 255 255
0.263693 0.0562115 0.615 255 255 255
-0.236914 0.0562386 0.565 0 0 0
-0.251442 0.0888238 0.491 255 255 255
0.0487007 0.0959306 0.54 255 255 255
-0.0764442 -0.00926797 0.727 0 0 0
-0.12462 -0.0528956 0.725 0 0 0
0.0379718 0.0724135 0.592 255 255 255
-0.1436 0.00911626 0.686 0 0 0
-0.147148 0.0978782 0.509 255 255 255
-0.162421 0.146627 0.413 255 255 255
0.23989 0.12786 0.545 255 255 255
-0.232643 0.11436 0.45 255 255 255
0.252545 -0.0372221 0.589 255 255 255
-0.0899564 0.146188 0.44 255 255 255
0.0812948 0.0801069 0.578 255 255 255
-0.289583 0.0259646 0.634 255 255 255
0.131053 -0.171165 0.642 255 255 255
-0.0912152 0.0941861 0.516 255 255 255
0.229101 -0.0616576 0.603 255 255 255
0.125816 -0.129486 0.664 255 255 255
0.0725749 0.0798298 0.576 255 255 255
-0.214093 -0.153537 0.583 0 0 0
0.240054 -0.142519 0.562 255 255 255
-0.108578 0.14404 0.44 255 255 255
-0.0938941 0.00916942 0.69 255 255 255
0.263878 -0.0566261 0.572 255 255 255
-0.135059 0.00690364 0.688 0 0 0
0.288045 0.0681675 0.597 255 255 255
0.239394 0.149611 0.534 255 255 255
0.235061 -0.158698 0.561 255 255 255
-0.225658 0.0457459 0.596 255 255 255
0.0962007 0.162715 0.427 255 255 255
0.244051 0.117517 0.606 255 255 255
-0.131782 -0.0243766 0.719 0 0 0
0.0363987 0.165763 0.435 0 0 0
0.273704 0.0772284 0.615 255 255 255
-0.259947 0.0694762 0.526 0 0 0
0.258514 -0.0358942 0.583 255 255 255
0.25674 -0.052608 0.579 255 255 255
0.317277 0.234662 0.632 255 255 255
-0.035827 0.159392 0.435 255 255 255
-0.0927561 -0.00924248 0.725 0 0 0
0.170832 0.135179 0.506 255 255 255
0.265959 0.0226948 0.602 255 255 255
-0.217712 -0.155579 0.58 255 255 255
0.128914 -0.167233 0.647 255 255 255
-0.223967 -0.0889809 0.589 0 0 0
-0.106771 -0.017477 0.724 255 255 255
0.165503 -0.182786 0.611 255 255 255
0.156096 0.133028 0.501 255 255 255
-0.119831 0.146024 0.429 255 255 255
-0.0456589 -0.17739 0.487 0 0 0
0.0633537 -0.224896 0.678 255 255 255
0.182275 -0.0127292 0.661 255 255 255
-0.0463713 0.13081 0.478 255 255 255
0.321901 0.244305 0.633 255 255 255
-0.0466145 0.160359 0.43 255 255 255
-0.203637 0.0595983 0.562 255 255 255
0.124014 0.000193596 0.716 255 255 255
0.165487 -0.0865609 0.65 255 255 255
0.0496568 -0.242415 0.687 255 255 255
-0.0440184 0.159699 0.432 255 255 255
0.0194343 -0.21527 0.686 255 255 255
-0.180894 0.0988058 0.497 255 255 255
-0.204913 0.0609902 0.558 255 255 255
0.150021 0.0949333 0.571 255 255 255
-0.21448 -0.247154 0.644 0 0 0
-0.245719 0.0586837 0.562 0 0 0
0.134204 0.0534346 0.727 0 0 0
0.0956538 -0.237821 0.65 255 255 255
0.254126 -0.146727 0.547 255 255 255
-0.211282 -0.226674 0.667 255 255 255
0.287061 0.0442501 0.589 255 255 255
-0.195836 0.139571 0.414 255 255 255
0.122703 -0.0738148 0.689 255 255 255
0.0490315 0.163264 0.434 255 255 255
0.0467062 -0.226488 0.693 255 255 255
-0.194689 0.0335168 0.621 0 0 0
0.0583139 -0.00858535 0.772 255 255 255
-0.219218 -0.0185426 0.605 255 255 255
0.091005 0.0774012 0.586 255 255 255
-0.233826 -0.146177 0.562 255 255 255
-0.122762 0.111196 0.491 255 255 255
0.105137 -0.14414 0.677 255 255 255
0.253777 0.00700867 0.601 255 255 255
0.200278 0.0878616 0.682 0 0 0
-0.217272 -0.151079 0.869 255 255 255
0.220584 0.0377256 0.641 255 255 255
0.183585 0.0571192 0.686 255 255 255
0.177427 0.155251 0.465 255 255 255
0.180403 0.165919 0.461 0 0 0
-0.180485 0.0837083 0.524 255 255 255
-0.0157291 0.0389615 0.662 255 255 255
-0.0831471 0.0490672 0.626 0 0 0
-0.0556901 0.00820983 0.704 0 0 0
-0.235478 0.069931 0.523 255 255 255
0.049457 -0.180932 0.7 255 255 255
-0.0532272 0.111196 0.491 255 255 255
-0.234069 0.108667 0.46 255 255 255
-0.0945012 0.061778 0.601 255 255 255
-0.199903 -0.0473992 0.68 0 0 0
-0.147631 0.147971 0.413 255 255 255
0.145374 0.0930749 0.571 255 255 255
0.28722 -0.0209201 0.563 255 255 255
0.0273744 0.124578 0.475 255 255 255
-0.0301247 -0.0864094 0.819 255 255 255
0.0468428 0.0325468 0.663 255 255 255
0.202505 0.171221 0.489 255 255 255
0.234789 -0.0994593 0.583 255 255 255
-0.0899211 0.0178103 0.677 255 255 255
0.28211 -0.0120088 0.575 255 255 255
-0.0790917 0.105728 0.503 255 255 255
0.0964852 0.0321912 0.756 0 0 0
-0.179261 -0.156354 0.891 255 255 255
0.166111 -0.0217542 0.674 255 255 255
0.0901231 0.156215 0.438 255 255 255
0.221406 -0.212744 0.552 255 255 255
0.212931 0.0492836 0.656 255 255 255
-0.127771 0.153045 0.414 255 255 255
0.0121494 0.144508 0.455 255 255 255
0.271582 0.0764755 0.617 255 255 255
0.153128 -0.0510634 0.67 255 255 255
-0.120097 0.14812 0.425 255 255 255
0.00198378 0.105744 0.507 255 255 255
-0.0545844 -0.118064 0.826 255 255 255
0.188073 0.182517 0.467 0 0 0
0.0597096 0.122079 0.493 255 255 255
-0.169234 -0.0653284 0.719 0 0 0
0.21617 0.183321 0.477 255 255 255
0.201096 -0.052033 0.629 255 255 255
0.0126984 0.0730845 0.582 255 255 255
-0.112799 0.152207 0.421 255 255 255
0.0738039 0.0809952 0.571 255 255 255
0.182365 0.12029 0.535 255 255 255
0.228535 0.137359 0.527 255 255 255
-0.00358268 0.059921 0.612 255 255 255
-0.128974 0.0236991 0.657 255 255 255
-0.207707 -0.0880296 0.695 255 255 255
-0.233196 0.101389 0.475 255 255 255
0.0431702 0.135454 0.462 255 255 255
0.0452398 -0.00234265 0.785 255 255 255
-0.0809803 -0.0455358 0.879 255 255 255
-0.117215 -0.00686386 0.723 255 255 255
-0.037809 -0.17299 0.488 0 0 0
-0.0950451 0.100513 0.514 255 255 255
0.0559149 0.0635914 0.609 255 255 255
0.0912288 -0.201883 0.664 255 255 255
-0.0554528 -0.148109 0.701 255 255 255
-0.0311705 0.044396 0.647 255 255 255
0.109376 0.135827 0.482 255 255 255
-0.188475 0.147376 0.404 255 255 255
-0.194473 -0.127318 0.901 255 255 255
-0.211622 -0.191528 0.693 255 255 255
-0.285746 -0.0351047 0.602 255 255 255
0.200844 0.137637 0.509 255 255 255
-0.0474384 -0.175732 0.489 0 0 0
0.0607647 -0.172711 0.699 255 255 255
0.0463662 0.112723 0.505 255 255 255
0.274548 0.0624976 0.608 255 255 255
-0.244133 0.0877587 0.494 255 255 255
-0.234568 -0.0500392 0.582 0 0 0
0.0395017 0.153364 0.438 255 255 255
0.252654 -0.088583 0.574 255 255 255
-0.0542412 0.141296 0.459 255 255 255
-0.0689931 0.0576452 0.609 255 255 255
0.230657 -0.0208507 0.615 255 255 255
-0.25209 -0.0171807 0.592 255 255 255
-0.258216 -0.10697 0.544 255 255 255
-0.0086544 -0.0784797 0.806 255 255 255
0.155847 0.142197 0.485 255 255 255
0.0338395 -0.130968 0.707 255 255 255
0.154773 0.13166 0.502 255 255 255
-0.23342 -0.0192366 0.596 255 255 255
-0.198951 -0.24498 0.655 0 0 0
0.0276963 -0.116927 0.727 255 255 255
-0.203003 -0.109253 0.595 0 0 0
-0.0498896 -0.0235864 0.861 255 255 255
-0.0878944 -0.0858983 0.687 0 0 0
0.267997 -0.17052 0.527 255 255 255
-0.212221 -0.113327 0.591 0 0 0
0.12828 -0.0923599 0.677 255 255 255
-0.116806 0.075519 0.558 255 255 255
-0.247397 -0.0219233 0.59 255 255 255
0.0302329 0.16263 0.438 0 0 0
0.213958 -0.15222 0.578 255 255 255
0.144188 0.15865 0.451 255 255 255
-0.122558 -0.0752258 0.713 255 255 255
-0.210159 0.0751794 0.53 255 255 255
-0.233488 -0.182694 0.559 255 255 255
0.203296 -0.0867626 0.614 255 255 255
-0.216309 -0.211332 0.634 0 0 0
-0.237699 0.0108481 0.597 255 255 255
-0.047727 0.132587 0.476 255 255 255
0.0917014 0.161105 0.432 255 255 255
-0.250628 -0.117825 0.541 0 0 0
-0.0569096 0.0604192 0.607 0 0 0
-0.208322 -0.220605 0.675 0 0 0
-0.169176 -0.214716 0.869 255 255 255
-0.0807292 0.106547 0.503 255 255 255
-0.221323 0.078982 0.51 255 255 255
-0.263152 -0.137594 0.529 0 0 0
-0.224688 -0.0813094 0.596 255 255 255
-0.131103 -0.00211585 0.709 0 0 0
-0.0761523 0.156372 0.423 255 255 255
-0.155219 0.114817 0.473 255 255 255
-0.0572736 -0.127473 0.826 255 255 255
-0.23962 -0.141496 0.544 0 0 0
-0.111345 0.105388 0.49 0 0 0
0.24458 -0.119163 0.564 255 255 255
-0.200073 0.103802 0.479 255 255 255
0.251677 0.013901 0.603 255 255 255
0.120208 -0.242421 0.629 255 255 255
0.160245 0.130182 0.509 255 255 255
-0.108783 -0.0486073 0.714 255 255 255
-0.184451 -0.122336 0.649 255 255 255
-0.213028 -0.12421 0.869 255 255 255
-0.0218329 0.0973518 0.524 255 255 255
-0.13628 0.1285 0.456 255 255 255
-0.132116 0.0923274 0.515 0 0 0
0.243232 -0.0634229 0.592 255 255 255
0.077351 0.0732529 0.591 255 255 255
0.188084 -0.0797966 0.63 255 255 255
0.0689711 0.154437 0.435 255 255 255
-0.204745 -0.168714 0.858 255 255 255
-0.282883 -0.248305 0.647 255 255 255
-0.00589395 0.0538719 0.647 255 255 255
-0.143004 0.0928653 0.518 255 255 255
0.177452 -0.0805566 0.636 255 255 255
-0.359399 -0.0573273 0.693 255 255 255
0.250047 0.164306 0.52 255 255 255
-0.0602551 -0.0308763 0.869 255 255 255
-0.0209956 -0.0388046 0.827 255 255 255
-0.343431 -0.120086 0.654 255 255 255
0.193211 -0.0715949 0.63 255 255 255
-0.179824 0.11691 0.463 255 255 255
-0.197542 -0.101745 0.608 0 0 0
0.192807 -0.160301 0.594 255 255 255
-0.216263 -0.0274034 0.605 255 255 255
0.26807 -0.0325945 0.575 255 255 255
-0.240287 -0.0773094 0.56 0 0 0
-0.180957 0.106362 0.48 255 255 255
0.25455 0.0573083 0.627 255 255 255
-0.0764281 0.0830085 0.536 255 255 255
-0.0355226 0.156212 0.44 255 255 255
0.197627 -0.0501448 0.631 255 255 255
0.0898549 -0.237156 0.654 255 255 255
0.234511 0.0267408 0.628 255 255 255
-0.0863591 -0.119548 0.675 0 0 0
0.169754 0.0751565 0.698 0 0 0
-0.251654 -0.136643 0.532 0 0 0
0.270905 -0.0936104 0.554 255 255 255
0.0339352 -0.123262 0.709 255 255 255
0.244608 -0.0442299 0.593 255 255 255
0.0741507 0.0776863 0.581 255 255 255
0.109108 -0.171928 0.661 255 255 255
0.158345 -0.0411891 0.669 255 255 255
0.0904727 -0.00709171 0.747 255 255 255
0.0386978 -0.167361 0.691 255 255 255
-0.00945712 -0.193904 0.501 0 0 0
0.201636 0.0108196 0.654 255 255 255
0.109769 -0.163228 0.665 255 255 255
0.0079205 0.0698811 0.579 0 0 0
0.166122 -0.197068 0.606 255 255 255
-0.117513 0.129909 0.461 255 255 255
-0.230811 0.02881 0.607 255 255 255
-0.0194821 0.153904 0.45 255 255 255
-0.015657 0.138439 0.467 255 255 255
-0.0277463 -0.173484 0.693 255 255 255
-0.0129809 -0.0146507 0.831 255 255 255
-0.0466867 0.15113 0.444 255 255 255
-0.21542 -0.200799 0.65 255 255 255
-0.229825 -0.24077 0.661 255 255 255
0.0901402 -0.192286 0.672 255 255 255
-0.305922 0.0239497 0.609 255 255 255
0.0493863 -0.147686 0.699 255 255 255
-0.264426 -0.0789907 0.559 0 0 0
-0.00895504 0.00565427 0.834 255 255 255
0.0116703 0.0782257 0.578 255 255 255
0.0872962 -0.16344 0.684 255 255 255
0.0215219 0.000217931 0.806 255 255 255
-0.0324448 -0.141593 0.697 255 255 255
0.124586 -0.123929 0.669 255 255 255
0.12142 -0.163221 0.652 255 255 255
-0.0530193 0.136451 0.468 255 255 255
0.0196326 -0.179123 0.693 255 255 255
0.294317 0.111344 0.61 255 255 255
-0.309937 -0.096535 0.619 255 255 255
0.185594 -0.0831353 0.632 255 255 255
-0.202601 -0.17007 0.591 255 255 255
-0.261886 -0.125693 0.537 255 255 255
0.0834443 -0.11848 0.708 255 255 255
-0.214648 -0.0313933 0.606 0 0 0
-0.146362 0.0322057 0.635 255 255 255
0.136565 -0.0890911 0.669 255 255 255
0.299458 0.156281 0.627 255 255 255
0.144922 0.15865 0.451 255 255 255
-0.26659 -0.00572463 0.603 255 255 255
-0.197321 -0.0329474 0.636 0 0 0
-0.184073 0.112559 0.47 255 255 255
0.155001 0.00582607 0.693 255 255 255
-0.127101 0.000190892 0.706 0 0 0
0.00105794 0.138761 0.463 255 255 255
-0.147261 -0.0274989 0.709 255 255 255
-0.139731 0.0660121 0.57 255 255 255
-0.216794 0.132654 0.422 255 255 255
-0.147576 0.102251 0.502 255 255 255
-0.200075 -0.0722995 0.696 255 255 255
-0.163878 -0.132643 0.623 255 255 255
-0.101316 0.113549 0.484 0 0 0
-0.111347 0.0814482 0.549 255 255 255
-0.18984 -0.100895 0.914 255 255 255
-0.122419 -0.0664984 0.719 255 255 255
0.201477 -0.0508472 0.627 255 255 255
0.0527243 -0.158834 0.698 255 255 255
-0.20596 0.150905 0.391 255 255 255
-0.174337 0.127419 0.447 255 255 255
0.267458 -0.0900677 0.56 255 255 255
-0.304258 -0.011301 0.641 255 255 255
-0.0312751 0.083868 0.525 0 0 0
0.121282 -0.150573 0.657 255 255 255
-0.266877 -0.157717 0.533 255 255 255
0.117413 0.0288262 0.733 255 255 255
0.0177604 0.00949261 0.814 255 255 255
-0.115505 0.128009 0.465 255 255 255
-0.203852 0.136838 0.418 255 255 255
0.218092 -0.214804 0.555 255 255 255
0.267391 -0.119583 0.545 255 255 255
-0.0776046 0.149482 0.435 255 255 255
-0.198344 -0.245295 0.653 0 0 0
-0.168454 0.11792 0.467 255 255 255
-0.0510365 0.0972083 0.493 0 0 0
0.0621015 0.142819 0.452 255 255 255
-0.212862 0.0313435 0.618 255 255 255
-0.0482145 0.0971883 0.497 255 255 255
0.284625 0.0191651 0.584 255 255 255
-0.205756 -0.0243185 0.627 255 255 255
-0.154503 0.0355951 0.622 255 255 255
-0.025002 0.104701 0.502 255 255 255
0.0969993 -0.0836784 0.706 255 255 255
0.205832 0.139571 0.507 255 255 255
-0.0319572 -0.0566404 0.832 255 255 255
-0.0185688 -0.00659979 0.839 255 255 255
0.148761 0.11867 0.524 255 255 255
0.235738 0.175598 0.511 255 255 255
-0.234018 0.0946342 0.488 255 255 255
0.0779979 0.0494301 0.644 255 255 255
0.134319 -0.129387 0.658 255 255 255
-0.2792 0.0654412 0.535 255 255 255
-0.246768 0.0816562 0.506 255 255 255
0.299017 0.0700104 0.588 255 255 255
0.154497 0.113325 0.535 255 255 255
-0.123453 0.102041 0.497 0 0 0
-0.236537 -0.0669821 0.573 0 0 0
-0.0948602 0.101987 0.513 255 255 255
0.195019 -0.175246 0.589 255 255 255
-0.0607911 0.0827853 0.529 255 255 255
-0.178423 -0.226603 0.67 255 255 255
-0.214365 0.108568 0.466 255 255 255
0.207231 -0.173887 0.575 255 255 255
-0.130701 -0.0187068 0.726 0 0 0
0.233747 -0.0296152 0.61 255 255 255
0.082483 -0.209783 0.672 255 255 255
-0.0632237 0.131812 0.476 255 255 255
0.191271 -0.0824776 0.627 255 255 255
0.0837336 -0.00469167 0.752 255 255 255
0.222041 -0.137872 0.577 255 255 255
0.116004 0.0976921 0.555 255 255 255
0.164769 -0.0250075 0.673 255 255 255
-0.193468 0.112875 0.465 255 255 255
-0.1554 0.0530125 0.58 255 255 255
0.187017 -0.211994 0.582 255 255 255
0.132378 -0.130656 0.659 255 255 255
-0.123405 0.0769193 0.555 255 255 255
0.157239 -0.130645 0.638 255 255 255
0.0572408 0.0943309 0.546 255 255 255
0.00953298 -0.0692958 0.791 255 255 255
0.100603 0.0270537 0.75 255 255 255
-0.0195314 0.0900112 0.531 255 255 255
0.172361 0.0100984 0.677 255 255 255
-0.0125279 -0.0937516 0.802 255 255 255
-0.118408 -0.0771113 0.709 255 255 255
-0.202408 -0.155858 0.872 255 255 255
-0.210043 -0.110815 0.593 0 0 0
-0.270224 -0.124905 0.545 0 0 0
-0.174411 0.13408 0.431 255 255 255
0.0733785 0.0731289 0.59 255 255 255
-0.209002 0.119684 0.448 255 255 255
0.26872 0.0851929 0.622 255 255 255
-0.112264 0.0434117 0.618 255 255 255
-0.159565 0.0355951 0.622 255 255 255
-0.0528289 0.0513496 0.629 255 255 255
-0.261277 -0.109424 0.543 255 255 255
-0.0165622 -0.18396 0.494 255 255 255
0.216494 -0.102991 0.598 255 255 255
-0.0382817 -0.142202 0.7 255 255 255
0.187613 -0.216181 0.578 255 255 255
0.257521 0.0443456 0.617 255 255 255
0.173159 -0.0570311 0.651 255 255 255
-0.177212 -0.186174 0.888 255 255 255
-0.0144091 0.119418 0.476 255 255 255
0.170108 -0.121444 0.628 255 255 255
-0.0176681 0.0427478 0.654 255 255 255
0.279876 0.0154163 0.586 255 255 255
-0.268251 -0.0531802 0.575 0 0 0
-0.0512436 0.0935751 0.495 0 0 0
0.285099 0.105764 0.618 255 255 255
0.0377361 -0.195193 0.694 255 255 255
0.0892214 0.0926057 0.557 255 255 255
-0.213668 0.138897 0.412 255 255 255
-0.0640937 0.13861 0.46 255 255 255
0.106985 0.123982 0.504 255 255 255
-0.175519 0.0909564 0.512 255 255 255
0.0172197 0.147233 0.452 255 255 255
-0.0708057 0.051023 0.625 0 0 0
-0.275547 0.0604562 0.545 255 255 255
-0.0144744 0.0427478 0.654 255 255 255
0.236368 0.177524 0.507 255 255 255
-0.0931111 0.0299306 0.653 255 255 255
-0.130675 0.102454 0.503 255 255 255
-0.246164 0.0709175 0.524 255 255 255
-0.188946 0.0897712 0.51 255 255 255
-0.096115 0.0582511 0.605 0 0 0
-0.247556 0.00984349 0.595 255 255 255
0.173855 -0.0911922 0.638 255 255 255
0.0670914 -0.128332 0.718 255 255 255
0.0944442 0.137429 0.474 255 255 255
-0.147494 0.0330296 0.631 255 255 255
0.021705 0.109436 0.505 255 255 255
0.178206 -0.0917968 0.635 255 255 255
0.0295874 0.160858 0.439 255 255 255
0.272929 -0.0936589 0.549 255 255 255
-0.0403868 -0.181291 0.697 255 255 255
0.0949209 0.10683 0.533 255 255 255
0.172967 0.104418 0.567 255 255 255
0.0878599 -0.241782 0.655 255 255 255
-0.0975313 -0.105559 0.684 255 255 255
-0.150631 0.0863917 0.53 255 255 255
0.0356906 0.166471 0.435 0 0 0
0.174645 0.14337 0.489 255 255 255
0.235133 -0.167229 0.559 255 255 255
0.0613715 0.0281988 0.748 0 0 0
-0.208096 -0.183635 0.631 255 255 255
0.282185 0.0596229 0.599 255 255 255
0.186918 -0.0667853 0.633 255 255 255
0.10682 -0.000995996 0.734 255 255 255
0.238585 -0.0880745 0.583 255 255 255
0.0569212 0.14673 0.446 255 255 255
0.266667 -0.0452972 0.57 255 255 255
0.0730368 -0.1133 0.719 255 255 255
-0.0318917 0.138092 0.471 255 255 255
0.00943893 -0.158136 0.69 255 255 255
0.0599072 0.0934424 0.546 255 255 255
-0.168064 -0.0395873 0.719 255 255 255
-0.186511 0.135671 0.425 255 255 255
0.202654 0.123591 0.538 255 255 255
-0.224488 -0.102369 0.578 255 255 255
0.132686 -0.145796 0.65 255 255 255
0.00181199 -0.0849567 0.793 255 255 255
-0.175359 0.00567474 0.675 0 0 0
0.147045 -0.126366 0.648 255 255 255
0.232221 -0.134816 0.572 255 255 255
0.198307 -0.136593 0.596 255 255 255
0.077932 -0.0677007 0.732 255 255 255
0.00318584 0.0656555 0.575 0 0 0
0.120693 0.079692 0.596 255 255 255
0.0786429 0.122015 0.496 255 255 255
-0.165538 -0.000934934 0.689 0 0 0
0.0571115 0.157225 0.431 0 0 0
0.00606058 -0.217332 0.689 255 255 255
0.273193 0.0493903 0.605 255 255 255
0.0329117 0.0369737 0.665 255 255 255
0.244875 -0.071728 0.589 255 255 255
0.103693 -0.136326 0.682 255 255 255
0.165655 -0.159996 0.619 255 255 255
-0.211193 -0.102189 0.599 0 0 0
0.30252 0.18383 0.627 255 255 255
-0.252505 -0.178588 0.523 0 0 0
0.288648 -0.017286 0.564 255 255 255
0.0330093 0.164392 0.437 0 0 0
0.181278 0.131387 0.517 255 255 255
-0.121928 0.0432712 0.616 255 255 255
0.0330371 0.145604 0.447 255 255 255
-0.0442304 -0.143015 0.704 255 255 255
0.265276 -0.0444474 0.571 255 255 255
0.214194 -0.124445 0.589 255 255 255
-0.0654992 -0.11835 0.828 255 255 255
0.262455 -0.0653445 0.575 255 255 255
0.0616875 -0.216868 0.684 255 255 255
0.0528879 0.0607043 0.62 255 255 255
-0.223323 -0.156109 0.575 255 255 255
0.0447399 -0.0821143 0.755 255 255 255
0.209634 -0.0638854 0.615 255 255 255
0.202325 0.128168 0.528 255 255 255
0.254695 -0.108815 0.558 255 255 255
-0.0601079 -0.114308 0.828 255 255 255
0.217824 -0.00598096 0.63 255 255 255
0.244842 0.109125 0.65 255 255 255
-0.339214 -0.120409 0.65 255 255 255
0.246255 -0.104662 0.57 255 255 255
0.202779 -0.198459 0.573 255 255 255
0.227654 -0.0288571 0.615 255 255 255
0.130452 -0.205142 0.634 255 255 255
-0.0970519 -0.195401 0.507 255 255 255
0.285586 0.0724156 0.6 255 255 255
0.213654 0.013691 0.639 255 255 255
0.0321643 0.029708 0.672 255 255 255
-0.11048 0.153896 0.42 255 255 255
0.306207 0.184804 0.62 255 255 255
0.304566 0.111886 0.597 255 255 255
0.203158 -0.123015 0.596 255 255 255
-0.264147 -0.160581 0.531 255 255 255
0.102159 -0.221237 0.651 255 255 255
0.12464 0.114188 0.523 255 255 255
0.00938874 0.128766 0.465 0 0 0
-0.153669 0.0935273 0.517 255 255 255
0.323962 0.246365 0.633 255 255 255
-0.249819 -0.111601 0.545 0 0 0
0.0508004 0.1365 0.463 255 255 255
-0.110306 -0.00922973 0.724 0 0 0
0.267786 -0.113167 0.544 255 255 255
0.0321649 0.147849 0.445 0 0 0
0.308743 0.184914 0.617 255 255 255
0.227813 -0.0875074 0.592 255 255 255
-0.0519662 0.0864514 0.51 0 0 0
0.117993 -0.0591298 0.701 255 255 255
0.188738 0.131895 0.519 255 255 255
-0.133241 0.146046 0.425 255 255 255
0.0977919 -0.0106092 0.738 255 255 255
0.257633 -0.138208 0.545 255 255 255
-0.261195 -0.116945 0.541 255 255 255
-0.177921 0.0370147 0.612 255 255 255
-0.00343593 -0.0513779 0.813 255 255 255
-0.180335 -0.253482 0.669 255 255 255
0.128963 -0.174299 0.642 255 255 255
-0.219218 -0.0717074 0.605 255 255 255
-0.251481 -0.162252 0.528 255 255 255
-0.102376 0.104491 0.513 255 255 255
0.246669 -0.0565835 0.591 255 255 255
-0.00339676 0.153056 0.454 255 255 255
-0.171043 0.0132847 0.671 255 255 255
0.223714 0.108658 0.641 255 255 255
0.184706 -0.00736205 0.662 255 255 255
0.125746 0.162887 0.433 255 255 255
-0.0102499 0.0840926 0.543 255 255 255
0.276574 -0.0508816 0.56 255 255 255
-0.186931 -0.140719 0.893 255 255 255
0.0991217 -0.0671038 0.713 255 255 255
0.282222 -0.0282997 0.564 255 255 255
0.0276093 0.115661 0.493 255 255 255
0.0489587 0.13388 0.467 255 255 255
-0.235656 -0.0977058 0.562 0 0 0
0.0313148 -0.12433 0.702 255 255 255
-0.178621 0.132677 0.431 0 0 0
-0.196957 -0.101309 0.693 255 255 255
-0.07807 0.0925433 0.507 0 0 0
0.0739737 0.0188804 0.765 255 255 255
0.141974 -0.0667237 0.674 255 255 255
0.0290361 0.0966027 0.534 255 255 255
0.124958 -0.11884 0.671 255 255 255
-0.170167 0.0948311 0.506 255 255 255
0.19371 -0.00836285 0.656 255 255 255
0.189026 0.140386 0.504 255 255 255
-0.140891 -0.00440468 0.706 0 0 0
-0.0983849 0.126326 0.47 0 0 0
0.201518 0.0660893 0.675 255 255 255
