ply
format ascii 1.0
comment Created by Open3D
element vertex 1302
property double x
property double y
property double z
property uchar red
property uchar green
property uchar blue
end_header
0.365827 -0.109067 0.819 255 255 255
0.0828629 0.170872 0.502 255 255 255
-0.137228 0.0750447 0.447 255 255 255
-0.136019 0.0994049 0.57 255 255 255
-0.0381964 0.0242015 0.493 0 0 0
-0.0963345 -0.082574 0.427 255 255 255
0.0352849 -0.272676 0.791 255 255 255
-0.00337193 0.119198 0.576 255 255 255
-0.0239534 -0.143148 0.438 0 0 0
-0.10624 0.112143 0.555 255 255 255
0.00253548 0.0803179 0.648 255 255 255
-0.134942 -0.0137497 0.426 255 255 255
0.18203 0.139082 0.558 255 255 255
-0.213987 0.112154 0.433 255 255 255
0.325461 0.115778 0.64 255 255 255
0.37604 -0.148711 0.769 255 255 255
0.375932 -0.0802979 0.798 255 255 255
-0.0767287 -0.0257922 0.455 255 255 255
0.146181 0.16909 0.527 255 255 255
0.191227 0.137091 0.561 255 255 255
0.0323357 -0.251463 0.814 255 255 255
-0.0450964 0.00247829 0.481 255 255 255
-0.195517 -0.0526593 0.377 255 255 255
0.144761 -0.137214 0.828 255 255 255
0.331546 -0.104776 0.884 255 255 255
0.331684 -0.123361 0.873 255 255 255
-0.0199821 -0.00798411 0.841 255 255 255
-0.174625 0.104389 0.557 255 255 255
-0.0440671 0.169286 0.462 255 255 255
0.121308 0.0880583 0.675 255 255 255
-0.0744392 -0.117169 0.429 255 255 255
0.128622 -0.277637 0.837 0 0 0
-0.119973 -0.0735 0.415 0 0 0
-0.141566 -0.0184713 0.423 255 255 255
-0.141968 0.108667 0.46 255 255 255
0.2038 0.189771 0.498 255 255 255
0.212469 0.0310639 0.824 0 0 0
0.113252 0.0296691 0.787 0 0 0
0.0471695 -0.288649 0.796 255 255 255
-0.113517 0.0321022 0.457 255 255 255
-0.0911591 0.155364 0.413 255 255 255
0.232123 -0.294885 0.889 255 255 255
0.385021 -0.136197 0.762 255 255 255
0.0635095 0.0323189 0.759 255 255 255
-0.0709765 0.124281 0.541 255 255 255
0.00316935 0.0371268 0.81 255 255 255
0.24986 -0.224143 0.951 255 255 255
-0.205945 0.124075 0.414 255 255 255
0.343206 -0.162827 0.842 255 255 255
0.0981068 0.152453 0.541 255 255 255
0.242848 -0.214045 0.618 0 0 0
-0.0863321 -0.0277672 0.451 0 0 0
0.22032 -0.142899 0.59 0 0 0
-0.206277 0.0228335 0.399 255 255 255
-0.137042 -0.0984895 0.396 255 255 255
0.202765 0.0563746 0.767 255 255 255
0.119721 0.183158 0.489 255 255 255
0.244026 0.167045 0.518 255 255 255
-0.180817 0.000770472 0.406 255 255 255
0.0146462 0.0335964 0.789 255 255 255
-0.170394 -0.0692594 0.384 255 255 255
0.380643 0.0843709 0.808 0 0 0
-0.1771 0.0746333 0.424 255 255 255
0.144453 -0.0147036 0.834 255 255 255
-0.0148585 0.129033 0.55 255 255 255
-0.186806 -0.0657167 0.378 255 255 255
0.220104 -0.182882 0.592 255 255 255
0.068218 -0.0554179 0.743 255 255 255
0.111463 -0.284354 0.821 0 0 0
0.12443 0.140956 0.573 255 255 255
0.0784178 -0.0643116 0.748 255 255 255
-0.0781093 0.0723189 0.477 255 255 255
0.129935 -0.292168 0.828 0 0 0
-0.187264 -0.0790196 0.374 255 255 255
0.379463 -0.18556 0.751 255 255 255
0.231726 0.105096 0.626 0 0 0
0.101252 -0.237852 0.836 0 0 0
0.016267 0.138878 0.543 255 255 255
0.224958 0.00549834 0.811 255 255 255
0.392528 0.0552832 0.787 255 255 255
-0.170198 0.033924 0.424 255 255 255
-0.141231 -0.0198011 0.422 255 255 255
0.374395 -0.0629392 0.792 255 255 255
-0.00578463 0.0859401 0.635 255 255 255
-0.163707 0.00623503 0.418 255 255 255
0.0198225 0.16173 0.499 255 255 255
-0.101545 -0.0914977 0.417 255 255 255
0.0156883 -0.0857714 0.777 255 255 255
-0.0824882 -0.153346 0.41 255 255 255
-0.029327 -0.0983548 0.455 0 0 0
-0.171537 -0.0567214 0.388 255 255 255
0.0604243 0.164861 0.456 255 255 255
0.209494 0.105199 0.639 255 255 255
-0.185037 0.126332 0.417 255 255 255
0.00979812 0.00418888 0.813 255 255 255
-0.0800152 -0.132531 0.418 255 255 255
0.0968644 -0.136604 0.731 0 0 0
-0.102926 -0.111041 0.409 255 255 255
0.142756 -0.0629737 0.809 255 255 255
-0.0449794 -0.0896662 0.456 255 255 255
-0.136063 0.00294239 0.434 255 255 255
0.270983 0.11536 0.632 255 255 255
-0.0287981 0.0300593 0.497 255 255 255
0.0765614 0.164971 0.509 255 255 255
0.281279 -0.268268 0.927 255 255 255
0.375836 -0.229854 0.756 255 255 255
0.0801678 0.046768 0.753 0 0 0
0.0807272 -0.14846 0.725 255 255 255
0.372351 -0.227314 0.764 255 255 255
-0.187665 -0.100915 0.363 255 255 255
0.215873 0.113329 0.61 0 0 0
0.279661 -0.172123 0.963 255 255 255
-0.198137 0.0827027 0.416 255 255 255
-0.00341876 0.114201 0.584 255 255 255
0.368441 -0.149281 0.813 255 255 255
0.38584 0.0248581 0.797 255 255 255
-0.0224568 0.0528898 0.704 255 255 255
-0.0610784 0.147474 0.503 255 255 255
-0.111854 0.154902 0.41 255 255 255
-0.196923 0.145583 0.387 255 255 255
-0.0465238 0.168508 0.464 255 255 255
0.344715 -0.164978 0.839 255 255 255
-0.104383 -0.0831772 0.423 255 255 255
0.365367 -0.267448 0.765 255 255 255
-0.0387188 0.17192 0.461 255 255 255
0.152758 -0.143626 0.85 255 255 255
0.369427 -0.276102 0.758 255 255 255
-0.0339936 -0.0826063 0.458 0 0 0
0.275106 -0.129702 0.986 255 255 255
-0.0894042 -0.0283116 0.448 255 255 255
0.0666737 0.139082 0.558 255 255 255
0.0308899 0.144066 0.536 255 255 255
0.368507 0.0257314 0.825 255 255 255
0.029815 0.0565135 0.721 0 0 0
0.280675 -0.244922 0.93 255 255 255
-0.114209 0.0968698 0.577 255 255 255
-0.195786 0.148347 0.386 255 255 255
0.174683 -0.259061 0.781 255 255 255
0.13896 0.0728796 0.709 255 255 255
-0.110613 -0.140377 0.396 255 255 255
0.174681 0.154654 0.552 255 255 255
-0.0807627 0.133585 0.519 255 255 255
-0.069156 0.0545897 0.485 255 255 255
-0.141487 -0.117664 0.387 255 255 255
-0.0371905 0.110954 0.577 255 255 255
-0.130286 0.155941 0.399 255 255 255
-0.147366 0.0297803 0.434 255 255 255
0.142159 0.0790144 0.702 255 255 255
0.0405636 -0.0617116 0.746 0 0 0
0.251117 0.128401 0.597 255 255 255
0.37213 -0.0962417 0.801 255 255 255
-0.0602488 -0.0271158 0.465 255 255 255
0.0904536 0.178748 0.49 255 255 255
0.00705455 -0.239925 0.802 255 255 255
0.023847 -0.134946 0.755 0 0 0
-0.120586 -0.121996 0.397 0 0 0
0.385047 -0.121652 0.772 255 255 255
-0.186875 0.110869 0.54 255 255 255
-0.18616 -0.0534974 0.383 255 255 255
-0.18028 -0.104131 0.366 255 255 255
0.0379049 0.167462 0.453 255 255 255
0.187735 0.0785877 0.719 0 0 0
0.21551 0.0923267 0.699 0 0 0
-0.0293688 0.00815603 0.493 255 255 255
-0.111529 0.0321724 0.458 0 0 0
0.126342 0.166105 0.523 255 255 255
0.226705 -0.0372562 0.794 255 255 255
-0.0334961 -0.0367411 0.472 0 0 0
-0.100058 -0.00573671 0.45 255 255 255
0.0337714 0.121268 0.586 255 255 255
0.0256591 0.110914 0.597 255 255 255
0.0957909 0.176449 0.497 255 255 255
-0.151608 0.0204091 0.43 255 255 255
-0.143133 0.0638465 0.445 255 255 255
-0.0453206 0.175919 0.452 255 255 255
0.328754 -0.0405842 0.896 255 255 255
0.239658 -0.147337 0.581 0 0 0
0.14789 0.15487 0.556 255 255 255
-0.0746127 -0.105546 0.43 255 255 255
0.0399602 0.102565 0.623 255 255 255
-0.0285663 0.156577 0.493 255 255 255
0.0628766 -0.133835 0.71 0 0 0
0.371633 0.0310262 0.823 255 255 255
-0.071581 -0.0702809 0.446 255 255 255
0.387776 0.0673189 0.793 255 255 255
-0.142843 -0.0888232 0.396 255 255 255
-0.0215602 0.0317406 0.498 255 255 255
-0.122344 0.135545 0.438 255 255 255
-0.207445 0.0254945 0.4 255 255 255
0.0340788 -0.129577 0.712 0 0 0
0.154053 0.125936 0.59 255 255 255
-0.160111 -0.0910678 0.376 0 0 0
-0.00614554 0.158656 0.497 255 255 255
-0.141271 -0.12081 0.383 0 0 0
-0.0557775 0.163733 0.472 255 255 255
0.218827 -0.170539 0.586 255 255 255
0.355112 -0.259332 0.778 255 255 255
0.238521 -0.195768 0.602 255 255 255
-0.101734 -0.0944356 0.415 255 255 255
-0.107261 0.138345 0.429 255 255 255
-0.0207537 -0.0810723 0.462 0 0 0
0.0298331 -0.0193509 0.751 0 0 0
0.341769 -0.00975304 0.877 255 255 255
-0.191992 -0.0121063 0.395 255 255 255
0.0568032 0.0112171 0.752 255 255 255
-0.0826374 -0.0539482 0.443 255 255 255
0.192701 -0.185625 0.944 255 255 255
-0.0417148 -0.162926 0.43 255 255 255
-0.0607497 -0.118371 0.436 255 255 255
0.0257422 -0.246466 0.815 255 255 255
0.146901 0.142879 0.577 255 255 255
-0.147408 0.135168 0.43 255 255 255
-0.136195 0.040039 0.446 255 255 255
-0.0974313 -0.0451872 0.435 255 255 255
0.0387695 -0.230455 0.81 255 255 255
-0.145195 -0.14039 0.377 255 255 255
-0.0181262 -0.17304 0.819 255 255 255
-0.0289473 -0.0406676 0.473 0 0 0
0.377581 -0.0386454 0.796 255 255 255
-0.197338 0.00723206 0.398 255 255 255
-0.170287 0.0557831 0.433 255 255 255
0.281102 0.110744 0.641 255 255 255
-0.18938 -0.0630889 0.377 255 255 255
0.152506 0.0183963 0.798 0 0 0
0.0475115 0.11301 0.603 255 255 255
0.0200009 0.0587845 0.706 255 255 255
0.372505 0.0710542 0.837 255 255 255
-0.0496251 0.174796 0.451 255 255 255
0.00186683 -0.177936 0.817 255 255 255
0.0483774 0.167895 0.484 0 0 0
0.00710733 -0.212792 0.808 255 255 255
-0.137882 0.147563 0.41 255 255 255
-0.0896422 -0.0643002 0.435 255 255 255
0.307352 -0.203217 0.906 255 255 255
0.175048 0.176491 0.521 255 255 255
0.362634 -0.0389454 0.83 255 255 255
0.329232 0.0940956 0.687 255 255 255
-0.0753033 0.0201834 0.474 255 255 255
-0.0190925 -0.141258 0.441 0 0 0
0.248323 -0.150866 0.988 255 255 255
-0.0732625 0.1415 0.508 255 255 255
-0.138331 -0.0933341 0.396 255 255 255
-0.0696009 -0.0440109 0.452 255 255 255
0.335181 -0.080502 0.886 255 255 255
-0.136168 -0.12365 0.388 255 255 255
-0.0355711 -0.00146229 0.49 0 0 0
0.368944 -0.01846 0.82 255 255 255
-0.0212571 0.159936 0.491 255 255 255
0.00978607 -0.163633 0.812 255 255 255
0.149965 0.104928 0.625 255 255 255
0.102807 0.185649 0.477 255 255 255
0.220566 -0.218938 0.612 255 255 255
0.293464 -0.155277 0.937 255 255 255
-0.126792 0.104412 0.562 255 255 255
-0.0883662 0.13274 0.519 255 255 255
-0.191506 -0.0139992 0.394 255 255 255
0.378524 -0.20716 0.754 255 255 255
-0.031583 -0.00305708 0.49 0 0 0
-0.113976 0.0125707 0.45 255 255 255
-0.106255 -0.105716 0.409 0 0 0
0.190607 0.0726623 0.73 255 255 255
0.267665 0.169509 0.523 255 255 255
-0.0916091 -0.125265 0.412 255 255 255
-0.177723 0.000110317 0.408 255 255 255
-0.19849 0.121615 0.522 255 255 255
0.129772 0.173781 0.513 255 255 255
0.201127 0.0204106 0.827 0 0 0
-0.170707 0.0709921 0.427 255 255 255
0.0824554 0.103717 0.63 255 255 255
0.100151 0.126035 0.595 255 255 255
-0.144912 0.0177329 0.433 255 255 255
-0.124489 -0.122685 0.393 255 255 255
-0.169582 -0.0131041 0.406 255 255 255
0.259524 0.130656 0.594 255 255 255
0.0787324 -0.0315722 0.751 255 255 255
-0.0197418 -0.0302419 0.892 255 255 255
-0.00793541 0.1539 0.508 255 255 255
-0.0399105 -0.126188 0.441 255 255 255
0.151398 0.0920411 0.672 255 255 255
0.249324 -0.0536986 1.005 255 255 255
0.377155 -0.1317 0.787 255 255 255
0.10915 0.156275 0.539 255 255 255
0.115468 0.0816789 0.686 255 255 255
0.171259 -0.262792 0.777 0 0 0
0.24543 -0.156253 0.579 255 255 255
-0.0960897 0.0551959 0.47 255 255 255
0.0182413 0.033128 0.778 0 0 0
0.0330055 0.106845 0.607 255 255 255
0.111111 0.157444 0.54 255 255 255
0.0347693 0.00265083 0.752 255 255 255
0.0715922 0.145242 0.547 255 255 255
0.0944986 -0.0766885 0.75 0 0 0
-0.13718 0.151321 0.404 255 255 255
-0.19915 0.024616 0.407 255 255 255
-0.137859 -0.0705846 0.406 255 255 255
0.0769028 -0.247546 0.823 255 255 255
-0.160506 -0.0100179 0.415 255 255 255
0.222318 -0.031455 0.811 255 255 255
0.387547 -0.0996455 0.767 255 255 255
0.143741 0.150785 0.561 255 255 255
0.347139 0.0157906 0.869 255 255 255
0.0599397 -0.257135 0.811 255 255 255
0.241331 -0.129786 0.999 255 255 255
0.243676 -0.20234 0.61 0 0 0
-0.0791242 -0.0199124 0.456 255 255 255
-0.00326266 -0.269895 0.772 255 255 255
0.0812286 0.170872 0.502 255 255 255
0.0275565 0.111698 0.596 255 255 255
-0.135549 -0.0637848 0.409 255 255 255
0.343588 -0.011193 0.878 255 255 255
0.370423 -0.268867 0.755 255 255 255
-0.138885 0.0318397 0.443 255 255 255
0.0194075 -0.135822 0.774 255 255 255
0.0633726 -0.0721686 0.729 0 0 0
0.153963 0.148183 0.565 0 0 0
0.133815 0.0170334 0.795 0 0 0
-0.162557 -0.132952 0.365 0 0 0
-0.136614 0.126849 0.445 255 255 255
0.0626572 -0.246881 0.812 255 255 255
0.115812 0.0566451 0.738 255 255 255
-0.0569096 0.0890651 0.607 255 255 255
0.0676096 -0.229886 0.808 255 255 255
0.105908 -0.0904744 0.753 255 255 255
-0.0835612 -0.142026 0.412 255 255 255
-0.0878472 -0.151562 0.407 255 255 255
-0.149696 -0.0917535 0.392 255 255 255
-0.000846391 -0.0891632 0.872 255 255 255
0.323386 0.0791531 0.866 0 0 0
-0.184945 0.0799641 0.423 255 255 255
0.159224 -0.0206393 0.855 0 0 0
-0.172675 0.0741177 0.425 255 255 255
0.354987 0.0761583 0.864 255 255 255
0.352989 0.0847902 0.866 255 255 255
-0.0566991 0.132353 0.531 255 255 255
-0.0778251 0.163168 0.466 255 255 255
0.205864 -0.206457 0.934 255 255 255
-0.13379 -0.136392 0.383 255 255 255
0.07626 0.151916 0.536 255 255 255
0.0946612 0.113442 0.616 255 255 255
0.0582238 -0.07403 0.724 255 255 255
0.202016 0.037081 0.809 0 0 0
0.314185 -0.0428399 0.913 255 255 255
0.0229476 -0.194252 0.766 0 0 0
0.132951 -0.294224 0.83 0 0 0
0.368722 -0.181301 0.78 255 255 255
0.100818 0.0306745 0.78 255 255 255
0.261628 -0.107348 1.002 255 255 255
-0.106476 -0.147093 0.395 255 255 255
0.387767 -0.0137516 0.78 255 255 255
-0.119898 0.031084 0.453 255 255 255
0.369812 0.0504416 0.834 255 255 255
-0.152547 -0.138156 0.371 255 255 255
0.0335998 0.0945036 0.637 255 255 255
-0.121801 0.152807 0.401 255 255 255
-0.162312 -0.0269787 0.406 255 255 255
-0.097408 -0.116266 0.411 255 255 255
-0.078921 0.160822 0.468 255 255 255
-0.106851 -0.0435702 0.433 255 255 255
0.104074 -0.268611 0.826 255 255 255
-0.0940453 0.129627 0.46 255 255 255
-0.177825 0.114023 0.443 255 255 255
0.114945 0.182362 0.489 255 255 255
0.352033 -0.272676 0.791 255 255 255
-0.131368 0.0963661 0.574 255 255 255
-0.179219 -0.0847231 0.375 255 255 255
-0.0646708 0.0259606 0.481 0 0 0
-0.0756317 -0.0786437 0.44 255 255 255
0.366437 0.0621076 0.845 255 255 255
-0.0228287 -0.21638 0.797 255 255 255
0.269414 0.13891 0.584 255 255 255
0.21831 -0.152696 0.969 255 255 255
-0.108073 0.0171907 0.456 255 255 255
0.217001 0.183052 0.493 255 255 255
-0.00911611 -0.133786 0.849 255 255 255
0.119482 -0.289698 0.821 0 0 0
0.247259 0.177971 0.499 255 255 255
-0.0605079 -0.0219126 0.467 255 255 255
0.0619458 0.0223195 0.755 255 255 255
0.067216 0.0286135 0.759 255 255 255
-0.126911 0.0225186 0.444 255 255 255
-0.137042 -0.103 0.396 0 0 0
-0.194147 -0.0386396 0.384 255 255 255
-0.0659795 -0.142713 0.424 255 255 255
-0.166377 0.0669024 0.432 255 255 255
0.0496936 0.0923981 0.644 255 255 255
0.326524 -0.0100755 0.906 255 255 255
0.35143 -0.11761 0.842 255 255 255
0.284346 0.109505 0.646 255 255 255
-0.0258675 -0.0437465 0.473 0 0 0
-0.0972527 0.0045556 0.454 255 255 255
-0.156562 0.0710694 0.436 255 255 255
-0.0804735 -0.115803 0.424 255 255 255
0.202758 0.123473 0.592 255 255 255
-0.110555 0.0148989 0.454 255 255 255
-0.0819005 0.0270111 0.472 255 255 255
-0.170082 0.0275834 0.422 255 255 255
0.234811 0.164306 0.52 255 255 255
-0.124624 -0.0562107 0.417 255 255 255
0.175001 0.108313 0.583 0 0 0
0.103435 -0.166616 0.727 255 255 255
0.376738 -0.143194 0.773 255 255 255
-0.117582 0.0132143 0.447 255 255 255
0.345498 -0.0167926 0.872 255 255 255
0.200513 -0.23237 0.624 255 255 255
-0.12568 -0.0594608 0.416 255 255 255
0.264521 -0.285954 0.916 255 255 255
0.190844 0.0914586 0.684 255 255 255
-0.078347 -0.118812 0.42 255 255 255
-0.203735 0.114637 0.529 255 255 255
0.216793 -0.317742 0.857 255 255 255
0.0527998 0.0650267 0.699 255 255 255
-0.178633 0.114173 0.539 255 255 255
0.246119 -0.0458384 1.012 255 255 255
-0.152559 -0.125053 0.377 255 255 255
0.247012 0.148635 0.553 255 255 255
0.35888 0.0914853 0.837 0 0 0
0.0884138 -0.109094 0.73 0 0 0
-0.134733 0.131579 0.432 255 255 255
0.367591 -0.17945 0.783 255 255 255
-0.0709038 0.145019 0.503 255 255 255
0.216776 0.0149002 0.82 255 255 255
-0.194326 0.124594 0.418 255 255 255
-0.0988475 -0.0423557 0.435 255 255 255
0.196035 0.0334591 0.817 0 0 0
0.167056 0.0421523 0.781 255 255 255
-0.182153 0.00543521 0.409 255 255 255
-0.0802552 -0.0264743 0.454 255 255 255
-0.0593665 0.164569 0.47 255 255 255
0.0621099 0.02977 0.757 255 255 255
-0.17659 -0.052933 0.388 255 255 255
0.0748729 0.114322 0.61 255 255 255
0.249528 -0.235433 0.635 255 255 255
-0.178825 -0.00972824 0.403 255 255 255
0.0285331 0.0641894 0.69 255 255 255
0.349136 0.0628169 0.874 255 255 255
0.224034 -0.0647121 1.024 255 255 255
0.0303402 0.155945 0.512 255 255 255
0.257317 0.174704 0.506 255 255 255
0.0589921 -0.0910694 0.719 0 0 0
0.284806 0.00463713 0.9 255 255 255
-0.0358615 0.0250545 0.494 0 0 0
0.00750828 0.0964819 0.623 255 255 255
-0.185902 0.142084 0.393 255 255 255
-0.106884 -0.0761132 0.422 255 255 255
-0.0472062 -0.0837297 0.456 255 255 255
-0.0343919 0.152686 0.496 255 255 255
0.021899 0.0329151 0.773 0 0 0
-0.0563683 0.00168145 0.477 255 255 255
-0.123932 0.0581313 0.457 255 255 255
0.0861125 0.178813 0.488 255 255 255
0.130406 -0.243191 0.831 255 255 255
-0.112662 -0.126488 0.401 255 255 255
0.0158902 -0.112489 0.787 255 255 255
0.0433508 -0.126101 0.712 0 0 0
-0.177853 -0.0516702 0.388 255 255 255
0.131034 -0.279691 0.835 0 0 0
-0.229925 0.110695 0.507 255 255 255
-0.0121843 -0.246036 0.78 255 255 255
0.265472 0.162646 0.534 255 255 255
0.085472 -0.211493 0.779 255 255 255
0.366133 -0.264612 0.764 255 255 255
0.350574 0.0524375 0.867 255 255 255
-0.171612 0.102035 0.559 255 255 255
-0.138775 -0.113498 0.39 255 255 255
-0.0733981 -0.122414 0.423 255 255 255
0.225636 0.0807561 0.728 255 255 255
-0.157663 -0.126557 0.376 255 255 255
-0.205767 0.0879066 0.415 255 255 255
-0.145368 -0.066784 0.403 255 255 255
-0.124403 0.122564 0.456 255 255 255
-0.120448 -0.0585259 0.419 255 255 255
0.263259 -0.150691 0.583 0 0 0
0.370636 -0.099402 0.795 255 255 255
0.232181 -0.242806 0.63 0 0 0
0.132364 0.124215 0.605 255 255 255
0.094797 0.0835405 0.674 255 255 255
-0.0813316 -0.0786383 0.436 255 255 255
0.0852925 0.0276309 0.766 255 255 255
-0.0933118 -0.152317 0.402 255 255 255
-0.0752959 0.14313 0.505 255 255 255
-0.0543685 0.113319 0.57 255 255 255
0.145462 -0.28958 0.795 255 255 255
-0.165346 -0.140695 0.362 255 255 255
0.029189 0.127455 0.571 255 255 255
0.195262 -0.226403 0.63 0 0 0
-0.023659 -0.0837156 0.46 0 0 0
-0.107963 0.117237 0.541 255 255 255
0.104683 -0.0843475 0.753 255 255 255
-0.181283 0.122986 0.429 255 255 255
-0.0419088 -0.143999 0.432 255 255 255
-0.140347 0.0535794 0.45 0 0 0
0.071016 0.0286512 0.76 255 255 255
0.133984 0.0144641 0.796 0 0 0
0.143895 -0.291685 0.808 255 255 255
-0.0915965 -0.0450928 0.441 255 255 255
-0.0600399 -0.116952 0.436 255 255 255
0.10967 0.15974 0.533 255 255 255
-0.049231 0.0344906 0.491 255 255 255
-0.100043 -0.0580979 0.431 255 255 255
0.311522 -0.188899 0.901 255 255 255
-0.17149 0.111417 0.547 255 255 255
-0.0264685 -0.0564714 0.47 0 0 0
-0.1576 0.0346441 0.433 255 255 255
0.377872 0.0657678 0.822 255 255 255
0.0341616 0.106381 0.61 255 255 255
0.0580896 -0.126545 0.708 255 255 255
-0.159761 -0.0568879 0.398 255 255 255
-0.0154598 0.00821814 0.819 255 255 255
-0.159009 0.12977 0.433 255 255 255
-0.16623 0.0405125 0.428 255 255 255
0.367454 -0.238488 0.772 255 255 255
0.0461043 0.064072 0.701 255 255 255
0.318189 -0.173077 0.895 255 255 255
0.306111 -0.186894 0.92 255 255 255
0.381707 -0.130194 0.778 255 255 255
-0.0805025 -0.118642 0.417 255 255 255
-0.148688 0.0745855 0.44 255 255 255
0.00574905 -0.0337162 0.802 0 0 0
-0.102537 0.071716 0.468 255 255 255
0.225085 0.163774 0.521 255 255 255
0.36749 -0.160197 0.808 255 255 255
-0.0951219 0.0627106 0.469 255 255 255
0.0512856 -0.0360723 0.743 0 0 0
0.072134 0.165973 0.507 255 255 255
0.0774048 0.0349267 0.762 0 0 0
-0.0048099 0.141056 0.528 255 255 255
0.203673 -0.193511 0.945 255 255 255
-0.0743678 -0.0781048 0.441 255 255 255
0.379751 -0.21943 0.754 255 255 255
-0.0499283 0.0328255 0.49 255 255 255
0.0732937 0.13867 0.56 255 255 255
-0.151179 0.0503549 0.441 0 0 0
0.383544 -0.135311 0.764 255 255 255
-0.118032 -0.0976732 0.406 0 0 0
-0.169247 0.14925 0.39 255 255 255
0.0212129 0.142659 0.534 255 255 255
-0.066822 0.14895 0.497 255 255 255
0.0518264 -0.260128 0.808 255 255 255
-0.144161 -0.057512 0.407 0 0 0
-0.0859154 0.108681 0.57 255 255 255
0.0459989 0.166455 0.501 255 255 255
0.125575 -0.0204074 0.792 0 0 0
-0.186606 0.0444336 0.419 255 255 255
0.117964 -0.140244 0.744 0 0 0
-0.177254 -0.0238564 0.398 255 255 255
-0.187056 0.114636 0.533 255 255 255
0.16316 0.146344 0.565 0 0 0
0.219854 0.179403 0.494 0 0 0
0.0623453 -0.151034 0.704 0 0 0
0.0344923 0.169609 0.447 255 255 255
-0.0160261 -0.131023 0.849 255 255 255
0.205863 -0.126246 0.948 255 255 255
-0.187058 0.0255267 0.411 255 255 255
0.160905 -0.250485 0.782 255 255 255
-0.215066 0.122644 0.416 255 255 255
-0.00524716 0.118261 0.576 255 255 255
0.310635 0.11371 0.646 255 255 255
0.0204004 -0.188772 0.764 0 0 0
0.140888 0.0465708 0.77 255 255 255
-0.169108 0.0297139 0.423 255 255 255
0.269696 0.0623138 0.795 0 0 0
-0.0483047 -0.12633 0.439 255 255 255
-0.173252 -0.11929 0.365 255 255 255
-0.0800784 -0.0308391 0.453 255 255 255
-0.189368 -0.0988236 0.364 255 255 255
0.15518 0.071667 0.72 255 255 255
0.251188 -0.0849987 0.77 0 0 0
0.0368701 -0.157924 0.699 0 0 0
0.175703 0.140743 0.561 0 0 0
0.0713366 0.124764 0.589 255 255 255
-0.0139024 0.0264505 0.806 255 255 255
0.0333103 0.125256 0.578 255 255 255
-0.101204 0.137764 0.436 255 255 255
-0.171584 -0.102481 0.373 255 255 255
-0.19845 -0.0151263 0.39 255 255 255
-0.0922736 0.158518 0.409 255 255 255
0.286107 -0.158643 0.948 255 255 255
0.166572 -0.0109252 0.857 255 255 255
0.0360476 0.132763 0.562 255 255 255
-0.175323 0.136857 0.404 255 255 255
-0.14398 0.139543 0.42 255 255 255
0.181217 -0.0110527 0.867 255 255 255
-0.0346633 -0.096556 0.457 0 0 0
0.336386 -0.186287 0.849 255 255 255
0.212396 0.176123 0.503 255 255 255
-0.176682 0.147724 0.391 255 255 255
0.255327 -0.153458 0.984 255 255 255
-0.253877 0.11687 0.488 255 255 255
0.220426 0.138802 0.568 255 255 255
0.319646 -0.173077 0.895 255 255 255
-0.0278457 -0.0976143 0.455 0 0 0
-0.00496423 -0.03703 0.848 255 255 255
-0.207828 0.0295471 0.402 255 255 255
0.262131 0.111264 0.638 255 255 255
-0.18236 0.0644351 0.425 255 255 255
-0.15078 0.104202 0.556 255 255 255
-0.209364 0.117415 0.465 255 255 255
0.0612862 -0.182225 0.705 0 0 0
-0.179176 0.0298991 0.416 255 255 255
0.336593 -0.307852 0.816 255 255 255
0.164206 0.0596071 0.745 255 255 255
0.364016 -0.134356 0.827 255 255 255
0.00972082 0.121586 0.574 255 255 255
0.255512 -0.207674 0.617 0 0 0
0.0974274 0.178238 0.493 255 255 255
-0.11591 -0.0418688 0.43 0 0 0
0.133006 0.180493 0.497 255 255 255
-0.0645363 0.157134 0.48 255 255 255
0.386993 -0.0328334 0.781 255 255 255
0.133373 -0.0418577 0.808 255 255 255
0.0105743 -0.277792 0.773 255 255 255
0.145203 0.181582 0.5 255 255 255
-0.149404 0.0452285 0.44 255 255 255
-0.0306899 -0.0892654 0.873 255 255 255
0.208666 -0.301358 0.858 255 255 255
0.114675 0.172426 0.509 255 255 255
0.359654 0.0180404 0.842 255 255 255
0.344474 0.00733934 0.873 255 255 255
0.251129 0.169247 0.517 255 255 255
-0.0618384 -0.147543 0.424 255 255 255
0.210381 -0.180471 0.6 0 0 0
-0.130231 0.021747 0.443 255 255 255
-0.0315058 -0.148904 0.434 0 0 0
-0.229262 0.122747 0.483 255 255 255
0.199181 0.033541 0.819 0 0 0
-0.158465 0.0132244 0.424 255 255 255
0.356482 -0.266687 0.781 255 255 255
-0.146768 -0.101064 0.391 0 0 0
-0.132805 -0.111813 0.393 255 255 255
0.0421397 0.168149 0.494 255 255 255
0.0276647 0.0731226 0.669 255 255 255
0.361312 -0.275989 0.775 255 255 255
0.365822 -0.00917476 0.825 255 255 255
-0.128115 0.121079 0.456 255 255 255
0.360061 0.0877544 0.815 0 0 0
0.118898 0.000211441 0.782 255 255 255
-0.0557072 -0.0377097 0.465 255 255 255
0.334587 -0.187603 0.855 255 255 255
0.383903 0.00150489 0.793 255 255 255
-0.0122468 -0.237092 0.784 255 255 255
0.012239 0.147948 0.522 255 255 255
0.0655554 -0.128779 0.714 255 255 255
0.306754 -0.195872 0.913 255 255 255
-0.181796 -0.137397 0.355 255 255 255
-0.179053 -0.00318583 0.405 255 255 255
0.352923 -0.304337 0.793 255 255 255
0.383903 -0.00107606 0.793 255 255 255
0.138848 -0.274991 0.817 255 255 255
0.187814 -0.285836 0.799 255 255 255
0.16284 -0.199574 0.824 255 255 255
0.31452 -0.179302 0.897 255 255 255
-0.0812887 -0.095492 0.432 255 255 255
-0.0423802 0.0355771 0.495 255 255 255
0.098152 0.165359 0.518 255 255 255
-0.170047 0.127831 0.436 255 255 255
-0.0743808 0.114976 0.56 255 255 255
-0.131586 -0.0816149 0.405 255 255 255
-0.19167 -0.0878096 0.365 255 255 255
-0.222222 0.113896 0.514 255 255 255
-0.0663042 -0.018792 0.465 255 255 255
0.00188205 0.16842 0.481 255 255 255
-0.130102 -0.13961 0.385 255 255 255
-0.123741 0.0123752 0.443 255 255 255
-0.187752 0.0428643 0.417 255 255 255
0.0776131 -0.0144817 0.752 255 255 255
-0.0318688 -0.134902 0.439 0 0 0
0.23598 0.102218 0.689 255 255 255
0.296754 0.0973828 0.711 255 255 255
-0.139866 -0.0583173 0.408 255 255 255
0.0385949 0.0370631 0.755 0 0 0
-0.162158 0.0725264 0.432 255 255 255
0.331171 -0.110405 0.883 255 255 255
0.0250181 0.106493 0.605 255 255 255
-0.137109 0.138147 0.422 255 255 255
0.0717665 -0.127164 0.718 255 255 255
0.36793 -0.232507 0.773 255 255 255
-0.139807 0.117334 0.453 255 255 255
-0.0209006 -0.118978 0.449 0 0 0
0.330222 -0.00707963 0.9 255 255 255
-0.0386273 -0.044903 0.469 255 255 255
-0.245433 0.111297 0.495 255 255 255
-0.112847 -0.120202 0.404 255 255 255
0.218655 -0.154486 0.583 0 0 0
-0.0920031 -0.154933 0.402 255 255 255
0.0257129 0.159753 0.503 0 0 0
-0.20364 0.140005 0.389 255 255 255
-0.0873754 -0.102693 0.424 255 255 255
-0.168347 -0.0927825 0.378 255 255 255
0.339795 0.0246666 0.883 255 255 255
-0.0601467 -0.0955446 0.442 255 255 255
0.345803 0.0560879 0.88 255 255 255
0.150633 -0.0914045 0.816 255 255 255
0.136855 -0.250953 0.821 255 255 255
-0.157267 0.119338 0.444 255 255 255
-0.184986 0.00472298 0.405 255 255 255
-0.0923258 -0.0791393 0.431 255 255 255
-0.150206 0.0140457 0.428 255 255 255
-0.0191381 -0.0294296 0.478 255 255 255
0.00325544 -0.158186 0.832 255 255 255
-0.151594 0.0370127 0.436 255 255 255
0.127499 0.160339 0.535 255 255 255
-0.0628397 -0.0718027 0.451 255 255 255
0.25233 -0.178366 0.593 0 0 0
0.264023 -0.261569 0.93 255 255 255
-0.222625 0.113674 0.513 255 255 255
-0.0599031 0.174062 0.451 255 255 255
-0.148596 -0.123279 0.381 255 255 255
-0.206243 0.112931 0.436 255 255 255
0.0257127 -0.145118 0.738 0 0 0
-0.204047 0.0242531 0.401 255 255 255
-0.0192455 -0.18432 0.81 255 255 255
-0.0933249 -0.0463171 0.439 255 255 255
-0.163893 -0.123864 0.368 0 0 0
0.349549 -0.0109762 0.861 255 255 255
-0.181201 0.139756 0.401 255 255 255
-0.17848 0.0725633 0.424 255 255 255
-0.0183426 -0.256076 0.772 255 255 255
-0.0837611 0.16076 0.457 255 255 255
-0.098427 0.0212219 0.463 255 255 255
-0.00330492 -0.251758 0.782 255 255 255
0.0181007 -0.0337113 0.772 255 255 255
-0.00200747 0.170184 0.475 255 255 255
0.0455518 0.154484 0.524 255 255 255
0.256145 -0.162569 0.981 255 255 255
-0.122269 -0.136346 0.39 255 255 255
0.0632856 0.0558775 0.728 255 255 255
-0.0713955 -0.0907001 0.436 255 255 255
-0.154648 0.00424453 0.423 255 255 255
0.222101 -0.19707 0.6 255 255 255
-0.0670954 -0.0687143 0.45 255 255 255
0.326809 -0.1943 0.879 255 255 255
-0.0317198 -0.0178359 0.48 0 0 0
-0.0294533 0.143125 0.523 255 255 255
0.150817 -0.0582783 0.817 255 255 255
0.219098 0.102338 0.675 255 255 255
0.0673041 -0.306654 0.789 255 255 255
0.396394 0.0469942 0.777 255 255 255
0.177043 0.0610643 0.748 255 255 255
0.154429 0.0992991 0.648 0 0 0
0.0239734 -0.0368491 0.759 0 0 0
-0.14184 0.151806 0.395 255 255 255
-0.0396701 0.121138 0.559 255 255 255
0.380085 0.0509914 0.821 255 255 255
0.210975 0.132091 0.575 255 255 255
0.0388236 -0.146208 0.714 0 0 0
-0.0482612 -0.158637 0.426 255 255 255
-0.140024 -0.12268 0.383 255 255 255
-0.0795162 -0.0235191 0.454 255 255 255
-0.17573 0.134892 0.408 255 255 255
0.0481769 -0.247185 0.813 255 255 255
-0.00470969 0.147372 0.517 255 255 255
-0.0268859 -0.0716072 0.464 0 0 0
0.395126 0.0587497 0.782 255 255 255
0.260657 -0.165942 0.59 0 0 0
0.134451 0.119285 0.61 255 255 255
0.0985654 -0.161661 0.726 0 0 0
0.127024 0.0131191 0.793 0 0 0
-0.0265962 -0.0850275 0.459 0 0 0
0.0895467 -0.167355 0.72 0 0 0
0.113785 0.110532 0.611 255 255 255
0.065322 0.137336 0.562 255 255 255
0.0882196 0.0162621 0.759 255 255 255
0.173207 0.0783691 0.717 255 255 255
-0.169763 -0.105516 0.373 255 255 255
-0.148572 0.111929 0.455 255 255 255
-0.0699718 -0.050571 0.445 255 255 255
-0.181332 -0.0218583 0.397 255 255 255
0.17215 0.16038 0.544 0 0 0
-0.0752736 0.126148 0.534 255 255 255
-0.192256 0.0453601 0.415 255 255 255
0.0276626 0.171195 0.48 255 255 255
-0.16579 -0.0993691 0.375 0 0 0
0.0436599 0.126196 0.578 255 255 255
0.244303 -0.0439884 0.776 255 255 255
-0.0978843 0.033349 0.464 255 255 255
0.386912 -0.126512 0.756 255 255 255
-0.175697 0.125778 0.429 255 255 255
-0.127272 0.0708918 0.453 255 255 255
-0.0570929 -0.0756397 0.452 255 255 255
0.359024 -0.285751 0.781 255 255 255
0.221008 -0.160248 0.967 255 255 255
-0.181804 -0.0509072 0.387 255 255 255
-0.251442 0.114392 0.491 255 255 255
0.359539 -0.179889 0.802 255 255 255
-0.139723 0.0584446 0.448 255 255 255
-0.0658474 0.109253 0.573 255 255 255
-0.0488549 -0.103925 0.444 255 255 255
0.383038 0.023709 0.802 255 255 255
-0.0151767 -0.210431 0.804 255 255 255
-0.0904373 0.149439 0.419 255 255 255
0.352962 -0.283467 0.796 255 255 255
0.200154 0.0323655 0.823 0 0 0
0.327292 0.0661502 0.9 255 255 255
-0.0829289 0.131808 0.522 255 255 255
0.303523 0.0978502 0.682 255 255 255
0.142313 -0.0567397 0.814 255 255 255
-0.0141669 0.172246 0.468 255 255 255
-0.175855 0.0819177 0.426 255 255 255
0.0171494 -0.0483925 0.786 0 0 0
-0.141769 0.0419324 0.443 255 255 255
0.365161 -0.182696 0.786 255 255 255
-0.038926 -0.13317 0.438 255 255 255
-0.111527 -0.0455786 0.432 255 255 255
-0.0845028 -0.0234673 0.453 255 255 255
-0.107757 0.035384 0.461 255 255 255
-0.0802124 -0.0964494 0.43 255 255 255
0.220794 0.166268 0.513 255 255 255
-0.0116054 0.121734 0.566 255 255 255
-0.174077 -0.107096 0.368 255 255 255
-0.143926 -0.0817044 0.399 255 255 255
-0.0967593 -0.0659658 0.432 255 255 255
0.101281 -0.0957033 0.746 255 255 255
-0.184446 -0.0846507 0.372 255 255 255
-0.183352 -0.108005 0.365 255 255 255
0.276149 -0.135844 0.984 255 255 255
-0.0648175 0.0493684 0.488 0 0 0
0.183226 0.0713765 0.729 255 255 255
0.00973786 -0.0734149 0.808 255 255 255
-0.100242 -0.0312435 0.438 255 255 255
0.149769 0.0946937 0.66 255 255 255
0.320385 -0.198848 0.893 255 255 255
0.133979 -0.265219 0.828 255 255 255
-0.151174 -0.0651475 0.401 255 255 255
-0.0175345 0.143125 0.523 255 255 255
-0.0385705 -0.140429 0.434 255 255 255
0.103672 0.176901 0.496 255 255 255
-0.0792797 -0.116076 0.425 255 255 255
0.128315 0.0286048 0.793 0 0 0
0.0374154 0.0346517 0.756 0 0 0
-0.174831 -0.0383635 0.394 255 255 255
0.159677 -0.0302012 0.85 255 255 255
0.214069 0.0297591 0.825 0 0 0
0.161891 -0.108655 0.826 255 255 255
0.283266 0.0872749 0.733 0 0 0
0.143594 0.0862698 0.687 255 255 255
0.276013 0.145873 0.574 255 255 255
-0.19454 0.065258 0.417 255 255 255
-0.0220115 0.159611 0.49 255 255 255
-0.170202 0.0534213 0.431 0 0 0
-0.182745 -0.0544033 0.385 255 255 255
-0.140265 -0.0907565 0.396 255 255 255
-0.127656 -0.0917049 0.403 0 0 0
0.381755 0.0506808 0.816 255 255 255
-0.16333 -0.0312922 0.402 0 0 0
-0.0922761 -0.110644 0.415 255 255 255
0.381536 -0.151917 0.76 255 255 255
0.0766534 0.145598 0.545 255 255 255
-0.0173364 -0.157721 0.433 0 0 0
0.105971 0.172574 0.507 255 255 255
0.328088 -0.196784 0.871 255 255 255
0.00187825 0.0243002 0.822 255 255 255
0.254689 0.130656 0.594 255 255 255
-0.0888345 -0.0576159 0.438 255 255 255
0.379559 -0.239524 0.744 255 255 255
0.123137 -0.121157 0.761 255 255 255
-0.0758273 -0.0830855 0.437 255 255 255
-0.189768 -0.0584895 0.379 255 255 255
-0.0419943 0.0424457 0.5 0 0 0
0.124979 -0.296739 0.822 0 0 0
-0.175113 0.0190676 0.416 255 255 255
-0.13755 -0.0560708 0.411 255 255 255
-0.175442 0.0706596 0.425 255 255 255
-0.0872593 -0.0234155 0.452 255 255 255
0.165691 0.107146 0.587 255 255 255
0.0329991 -0.265999 0.798 255 255 255
0.0791081 0.121601 0.597 255 255 255
0.262169 -0.285017 0.913 255 255 255
-0.0797516 0.143913 0.502 255 255 255
0.0241911 0.117253 0.585 0 0 0
0.333204 -0.103946 0.877 255 255 255
-0.189563 0.0484089 0.418 255 255 255
0.0910926 0.152788 0.536 255 255 255
-0.133944 0.000823608 0.434 255 255 255
-0.0516293 -0.105853 0.443 255 255 255
0.228146 -0.172512 0.583 255 255 255
-0.132141 0.0508753 0.452 0 0 0
-0.1367 -0.0171755 0.425 255 255 255
0.2828 0.147785 0.567 255 255 255
-0.159906 0.0236854 0.426 255 255 255
0.241865 -0.217724 0.95 255 255 255
-0.200397 -0.0286413 0.384 0 0 0
0.0885285 0.12313 0.595 255 255 255
-0.0704433 0.0645826 0.483 255 255 255
0.0401684 -0.162009 0.697 0 0 0
-0.123142 -0.112222 0.399 255 255 255
0.0303631 -0.218974 0.797 255 255 255
0.368233 -0.193011 0.771 255 255 255
-0.0591355 0.153878 0.487 255 255 255
-0.0756324 0.0541395 0.481 255 255 255
0.0454764 -0.139415 0.709 0 0 0
-0.16295 0.0582981 0.436 255 255 255
0.0460771 0.108366 0.61 255 255 255
-0.0352554 -0.0253799 0.475 0 0 0
-0.0400959 0.117841 0.565 255 255 255
-0.0664274 -0.0970857 0.436 255 255 255
-0.176637 -0.0873965 0.376 255 255 255
-0.0851578 0.154902 0.41 255 255 255
0.382482 -0.117382 0.777 255 255 255
0.292583 -0.196378 0.944 255 255 255
-0.107178 0.0568788 0.465 255 255 255
0.148765 0.0672593 0.723 255 255 255
-0.059257 0.0358681 0.488 255 255 255
0.228784 -0.179398 0.96 255 255 255
0.0613354 -0.249523 0.812 255 255 255
-0.0890036 0.0686335 0.473 255 255 255
0.0169261 0.126116 0.565 255 255 255
-0.127362 -0.126839 0.392 255 255 255
0.200834 -0.240879 0.625 255 255 255
-0.178599 -0.109787 0.365 255 255 255
-0.0511252 0.105056 0.586 255 255 255
0.0995157 -0.123856 0.733 255 255 255
-0.051003 0.12674 0.544 255 255 255
0.297449 0.000249025 0.921 255 255 255
0.0713099 -0.167741 0.702 0 0 0
0.292583 -0.194842 0.944 255 255 255
0.373922 -0.115636 0.791 255 255 255
0.0386737 -0.258813 0.808 255 255 255
0.223849 0.0369893 0.807 0 0 0
0.196126 0.191044 0.495 255 255 255
-0.083923 -0.039072 0.446 0 0 0
0.200954 -0.150332 0.954 255 255 255
0.0334815 -0.296429 0.779 255 255 255
0.355809 -0.0716197 0.833 255 255 255
-0.183266 0.0181254 0.41 255 255 255
0.112283 -0.0755345 0.763 255 255 255
-0.126118 0.147299 0.413 255 255 255
0.193021 0.153358 0.538 0 0 0
0.188754 0.0850127 0.714 0 0 0
0.101829 -0.181245 0.724 255 255 255
0.226353 -0.231517 0.937 255 255 255
0.367535 -0.0974432 0.811 255 255 255
0.289197 -0.144758 0.938 255 255 255
0.161908 0.104524 0.605 255 255 255
0.0806602 0.163246 0.514 255 255 255
-0.114415 0.00302375 0.446 255 255 255
0.263757 0.102186 0.674 255 255 255
0.0449474 -0.10745 0.719 0 0 0
-0.0637426 0.101587 0.588 255 255 255
-0.103952 0.129293 0.451 255 255 255
-0.0252659 0.174549 0.462 255 255 255
0.303289 -0.199497 0.916 255 255 255
-0.0364429 0.00332883 0.491 0 0 0
-0.17335 -0.0156693 0.404 255 255 255
-0.081745 -0.0419751 0.446 255 255 255
0.0947583 -0.168285 0.724 0 0 0
-0.125562 -0.0810899 0.409 255 255 255
-0.198732 -0.0378167 0.382 255 255 255
-0.178297 -0.0334029 0.396 0 0 0
0.338262 -0.0605037 0.868 255 255 255
0.358091 -0.182557 0.832 255 255 255
0.23833 0.167103 0.513 255 255 255
-0.200845 0.0887954 0.416 255 255 255
-0.147822 -0.0771593 0.399 255 255 255
0.305317 -0.0466237 0.9 255 255 255
0.104994 0.124098 0.595 0 0 0
0.045908 0.0394681 0.754 0 0 0
0.375299 -0.0338423 0.805 255 255 255
0.307238 0.0205901 0.961 255 255 255
-0.0352804 -0.137844 0.437 255 255 255
0.368441 -0.0699001 0.813 255 255 255
0.232255 0.124372 0.601 255 255 255
-0.113491 -0.0790929 0.416 255 255 255
-0.0221797 0.00690217 0.821 255 255 255
-0.00488228 -0.16128 0.834 255 255 255
-0.187527 0.0345546 0.415 255 255 255
0.213376 0.150366 0.543 255 255 255
-0.106101 -0.146177 0.396 255 255 255
-0.0645932 -0.0939672 0.438 255 255 255
-0.190976 -0.0334455 0.389 0 0 0
0.0146935 0.116499 0.586 255 255 255
0.013351 0.160427 0.5 255 255 255
0.11981 0.0181658 0.788 0 0 0
0.156519 -0.0597538 0.819 255 255 255
0.0872951 0.169912 0.504 255 255 255
0.0122153 -0.0218606 0.798 0 0 0
0.391061 -0.0423402 0.769 255 255 255
0.0429107 0.0785661 0.669 255 255 255
0.19459 0.164256 0.528 255 255 255
-0.056707 0.165798 0.467 255 255 255
-0.108462 -0.0363552 0.431 255 255 255
-0.125586 0.0255804 0.447 255 255 255
-0.146687 0.119417 0.447 255 255 255
-0.187469 -0.11958 0.357 255 255 255
-0.0705373 -0.05407 0.444 255 255 255
0.252213 -0.164817 0.586 255 255 255
-0.152584 -0.056291 0.403 255 255 255
-0.0395481 -0.111401 0.445 255 255 255
0.139776 -0.157372 0.807 255 255 255
0.0357789 0.166073 0.495 255 255 255
-0.182227 -0.0679196 0.38 255 255 255
-0.0588894 -0.110361 0.438 255 255 255
-0.00995249 0.116588 0.577 255 255 255
-0.127263 -0.145497 0.384 255 255 255
-0.0181663 -0.152428 0.436 0 0 0
-0.0374702 0.137619 0.528 255 255 255
-0.0259994 0.0895286 0.624 255 255 255
-0.167599 0.138195 0.406 255 255 255
-0.0764718 0.000886232 0.467 255 255 255
-0.0833307 0.149467 0.421 255 255 255
0.338763 -0.105513 0.855 255 255 255
0.230663 -0.282832 0.906 255 255 255
-0.108093 -0.134971 0.401 255 255 255
0.383 -0.150284 0.758 255 255 255
0.0363047 0.137587 0.552 255 255 255
0.324691 -0.0689737 0.905 255 255 255
-0.166432 -0.0131687 0.408 255 255 255
0.394879 0.0686658 0.779 255 255 255
0.246193 -0.0514324 0.774 255 255 255
-0.182191 0.0861594 0.423 255 255 255
0.255613 0.164256 0.528 255 255 255
-0.0226914 -0.0565916 0.471 0 0 0
-0.0443341 -0.0928376 0.457 255 255 255
-0.0634893 0.00557429 0.478 255 255 255
0.0921814 0.145035 0.553 255 255 255
-0.131639 -0.136748 0.384 255 255 255
0.0962852 0.111151 0.62 255 255 255
-0.19241 0.127189 0.411 255 255 255
-0.181447 0.0311779 0.415 255 255 255
-0.151449 -0.064985 0.4 255 255 255
-0.173738 -0.00121758 0.408 255 255 255
0.048961 0.157697 0.515 255 255 255
-0.211768 0.120595 0.507 255 255 255
-0.0948688 -0.0548443 0.433 255 255 255
0.225038 0.155986 0.535 255 255 255
0.249434 -0.182226 0.593 0 0 0
-0.0007668 -0.241477 0.79 255 255 255
-0.180085 -0.0897342 0.373 255 255 255
-0.0893914 -0.141975 0.408 255 255 255
-0.00119268 0.179391 0.459 255 255 255
-0.107232 -0.0869556 0.418 255 255 255
-0.142881 -0.139901 0.379 0 0 0
-0.0406558 0.169235 0.466 255 255 255
-0.111551 0.100861 0.573 255 255 255
0.145266 0.0838814 0.695 255 255 255
-0.143294 -0.0277761 0.418 255 255 255
0.234321 -0.0759293 1.018 255 255 255
-0.0887272 -0.143967 0.408 255 255 255
0.107422 0.179912 0.491 255 255 255
0.144389 0.181582 0.5 255 255 255
0.377919 0.0159377 0.805 255 255 255
-0.0790434 0.107575 0.574 255 255 255
0.135667 0.00546444 0.806 255 255 255
0.0295398 -0.229137 0.81 255 255 255
0.0559721 0.0670128 0.696 255 255 255
-0.158887 -0.128392 0.376 255 255 255
0.0083809 -0.224823 0.804 255 255 255
-0.210115 0.0819766 0.409 255 255 255
0.36045 -0.107181 0.825 255 255 255
-0.0827681 0.0552417 0.477 255 255 255
-0.0153217 -0.096556 0.457 255 255 255
0.158446 0.117731 0.578 0 0 0
-0.190865 -0.013358 0.394 255 255 255
-0.158715 0.058117 0.44 255 255 255
-0.0542677 -0.104658 0.441 255 255 255
0.0289194 -0.132489 0.728 0 0 0
0.0908806 -0.303046 0.793 255 255 255
0.274877 0.148838 0.564 255 255 255
-0.130106 -0.0579672 0.415 255 255 255
-0.190331 -0.0900824 0.367 255 255 255
0.328754 -0.0566231 0.896 255 255 255
0.147654 -0.242813 0.786 255 255 255
-0.0452347 0.0304955 0.491 255 255 255
0.181715 -0.189721 0.912 255 255 255
0.0805235 0.157895 0.524 255 255 255
-0.0166113 -0.0770927 0.88 255 255 255
-0.164473 0.121678 0.442 255 255 255
0.0249432 0.0441995 0.751 255 255 255
0.175262 0.154374 0.551 255 255 255
0.0928688 -0.281935 0.799 255 255 255
-0.163649 -0.0400483 0.398 0 0 0
-0.152559 -0.124439 0.377 255 255 255
0.128637 0.12442 0.606 255 255 255
-0.163579 -0.114903 0.37 0 0 0
-0.171612 0.102945 0.559 255 255 255
-0.131264 -0.0923241 0.4 255 255 255
0.304542 0.0996961 0.672 255 255 255
-0.195346 -0.0701219 0.372 255 255 255
-0.135449 -0.0916317 0.397 255 255 255
0.201301 0.108462 0.605 0 0 0
-0.0841224 -0.107777 0.425 0 0 0
-0.070085 0.145019 0.503 255 255 255
-0.0284422 0.125237 0.553 255 255 255
-0.0696009 -0.0447465 0.452 255 255 255
0.0684903 0.139082 0.558 255 255 255
0.219435 0.00552546 0.815 255 255 255
-0.0135063 0.138662 0.532 255 255 255
0.344733 -0.0499163 0.856 255 255 255
-0.111006 -0.0692459 0.422 255 255 255
0.0103325 0.0649909 0.675 255 255 255
0.330589 0.0574263 0.901 255 255 255
-0.0190413 -0.094325 0.457 255 255 255
0.166842 -0.25746 0.78 0 0 0
0.16537 -0.145712 0.888 0 0 0
-0.0593635 0.135724 0.524 255 255 255
-0.168884 -0.0776017 0.382 255 255 255
-0.0545714 0.0943659 0.603 255 255 255
-0.176591 -0.107402 0.367 255 255 255
0.283716 0.101239 0.722 255 255 255
-0.132214 0.0165875 0.44 255 255 255
-0.202593 -0.020678 0.387 255 255 255
0.049033 -0.160182 0.694 255 255 255
0.255626 -0.262234 0.927 255 255 255
0.0504131 0.00385397 0.748 255 255 255
-0.142627 -0.0810551 0.399 255 255 255
-0.174113 0.0598723 0.432 255 255 255
0.376697 -0.00241129 0.808 255 255 255
0.13728 0.140791 0.58 255 255 255
0.0490614 0.14356 0.544 255 255 255
0.00843302 0.0291819 0.809 255 255 255
0.0165933 0.175606 0.455 255 255 255
-0.105964 0.0400582 0.463 255 255 255
0.0443848 -0.141923 0.71 0 0 0
-0.0103003 -0.161087 0.833 255 255 255
0.220515 0.123394 0.601 255 255 255
-0.145129 -0.0593528 0.406 255 255 255
-0.107193 -0.128409 0.405 255 255 255
-0.0324209 0.0574342 0.503 255 255 255
0.183797 -0.295221 0.766 255 255 255
0.310035 0.0431313 0.941 255 255 255
0.0836067 0.0237665 0.762 255 255 255
0.152873 -0.123237 0.843 255 255 255
-0.0980784 -0.0160244 0.451 255 255 255
-0.121148 0.15346 0.401 255 255 255
-0.0617929 -0.0159686 0.471 255 255 255
-0.201632 0.129581 0.408 255 255 255
-0.147027 0.0240746 0.433 255 255 255
-0.0948754 0.127925 0.527 255 255 255
0.17303 0.104909 0.613 255 255 255
0.0224691 0.170787 0.454 255 255 255
0.0117255 -0.293975 0.766 255 255 255
0.0108557 0.17794 0.463 255 255 255
0.350206 -0.0702321 0.849 255 255 255
-0.117319 0.130037 0.446 255 255 255
0.377331 -0.24854 0.742 255 255 255
0.0227861 0.0799973 0.654 0 0 0
0.342542 -0.0502079 0.861 255 255 255
-0.0819005 0.0216344 0.472 255 255 255
-0.0611416 -0.0938094 0.444 255 255 255
-0.201873 0.0137088 0.398 255 255 255
-0.185279 0.0290114 0.413 255 255 255
-0.162415 -0.0532452 0.395 255 255 255
-0.158358 0.122838 0.441 255 255 255
0.214507 0.168781 0.508 255 255 255
-0.0774143 -0.141709 0.415 255 255 255
-0.0348079 0.0622216 0.502 0 0 0
-0.156786 -0.0502636 0.402 255 255 255
0.0639406 0.171347 0.501 255 255 255
0.261508 0.157145 0.542 255 255 255
-0.128808 -0.0111055 0.431 255 255 255
-0.0219639 -0.132646 0.441 0 0 0
0.0478498 0.0831305 0.662 255 255 255
0.257262 0.127094 0.6 255 255 255
0.21026 -0.213609 0.611 255 255 255
-0.0546024 0.0574272 0.489 255 255 255
0.0428193 -0.0155175 0.743 255 255 255
0.191096 0.146485 0.545 255 255 255
0.269178 -0.0484921 0.809 0 0 0
-0.0132297 -0.271892 0.767 255 255 255
0.135045 0.174956 0.514 255 255 255
0.374221 -0.154516 0.773 255 255 255
-0.158274 -0.0807147 0.388 255 255 255
-0.141769 0.0765359 0.443 255 255 255
-0.184257 0.0661969 0.423 255 255 255
-0.00748814 0.000222257 0.822 0 0 0
-0.0267972 -0.00784142 0.49 255 255 255
-0.0988522 0.119686 0.465 255 255 255
-0.0354418 -0.132045 0.439 255 255 255
0.100118 -0.297152 0.805 255 255 255
0.2184 -0.1525 0.59 0 0 0
0.241605 -0.0191185 0.792 255 255 255
0.24018 0.140464 0.571 255 255 255
-0.0576682 0.0334857 0.488 255 255 255
-0.0759723 -0.119377 0.422 255 255 255
-0.00999114 -0.207533 0.808 255 255 255
0.287974 0.0202258 0.944 255 255 255
0.14979 -0.041446 0.826 255 255 255
-0.160914 0.021555 0.425 255 255 255
-0.167927 0.0786357 0.427 255 255 255
0.151492 -0.240255 0.786 255 255 255
-0.0516486 0.102278 0.592 255 255 255
0.0411284 0.147596 0.533 255 255 255
0.186083 0.179975 0.514 255 255 255
0.249503 -0.162403 0.98 255 255 255
-0.0965353 -0.0665144 0.431 255 255 255
0.394621 0.0396104 0.781 255 255 255
0.205863 -0.192582 0.948 255 255 255
0.00223029 0.121667 0.57 255 255 255
-0.0281408 0.0742192 0.65 255 255 255
0.241011 -0.141648 0.991 255 255 255
0.214104 -0.200681 0.605 255 255 255
-0.19845 0.142269 0.39 255 255 255
-0.0430333 0.127626 0.544 255 255 255
-0.0260743 -0.076727 0.463 0 0 0
-0.0317532 0.127672 0.548 255 255 255
0.260859 -0.157602 0.584 0 0 0
-0.0256644 -0.0230871 0.896 255 255 255
0.343121 -0.0392253 0.866 255 255 255
0.348553 0.0285179 0.869 255 255 255
-0.175969 -0.0991795 0.372 255 255 255
0.201466 0.1591 0.528 0 0 0
-0.125334 -0.00626775 0.436 255 255 255
0.152415 0.15668 0.556 255 255 255
0.37782 -0.164121 0.765 255 255 255
0.35358 0.0677222 0.864 255 255 255
-0.1194 -0.137968 0.391 255 255 255
-0.144112 -0.0644792 0.405 0 0 0
0.18441 0.162137 0.541 255 255 255
0.0962018 -0.159298 0.726 0 0 0
-0.107204 -0.0657428 0.426 255 255 255
-0.0422635 -0.0530711 0.467 255 255 255
0.0397712 0.018609 0.754 255 255 255
-0.0741449 0.0995039 0.587 255 255 255
0.131347 -0.268102 0.837 0 0 0
0.0137249 0.152372 0.514 255 255 255
-0.0361803 -0.0200532 0.477 0 0 0
0.260938 0.158906 0.539 255 255 255
-0.0963011 -0.00356341 0.453 255 255 255
-0.103784 -0.146546 0.397 255 255 255
-0.0185688 -0.151325 0.839 255 255 255
0.173214 -0.205604 0.816 255 255 255
0.114637 -0.0289462 0.779 0 0 0
-0.189994 -0.0643159 0.377 255 255 255
-0.150884 0.0377222 0.436 255 255 255
-0.0770641 -0.0750636 0.44 255 255 255
0.128161 -0.23864 0.834 255 255 255
0.0267682 -0.183748 0.734 0 0 0
0.293886 0.101099 0.721 255 255 255
0.348148 -0.0347955 0.861 255 255 255
0.379026 -0.186548 0.755 255 255 255
-0.166967 0.114596 0.541 255 255 255
0.372457 0.0148275 0.816 255 255 255
0.368944 -0.0331385 0.82 255 255 255
0.0670482 -0.21851 0.786 255 255 255
0.0384093 0.123705 0.584 255 255 255
0.338892 -0.0970052 0.866 255 255 255
0.262315 0.152235 0.553 255 255 255
-0.142949 -0.104245 0.391 255 255 255
0.232256 -0.194004 0.955 255 255 255
-0.13686 -0.0776605 0.405 255 255 255
0.00457098 -0.168938 0.825 255 255 255
0.00491752 0.0615846 0.686 255 255 255
0.190222 0.152171 0.54 0 0 0
-0.185028 -0.0121982 0.398 255 255 255
-0.0284619 0.0387876 0.741 255 255 255
-0.0203045 -0.111682 0.452 0 0 0
0.155077 0.0466918 0.772 255 255 255
-0.102611 -0.0586629 0.43 255 255 255
-0.120311 0.00155454 0.441 0 0 0
-0.0624488 -0.00684277 0.476 255 255 255
-0.0271454 0.0410325 0.738 255 255 255
-0.106146 -0.0301822 0.433 255 255 255
0.215377 -0.0249939 0.97 0 0 0
-0.00922144 0.073102 0.659 255 255 255
0.373595 -0.23353 0.764 255 255 255
-0.0151876 -0.11414 0.453 255 255 255
0.249977 -0.179992 0.592 0 0 0
-0.209269 0.028821 0.401 255 255 255
-0.195465 0.124401 0.523 255 255 255
0.231375 0.0201145 0.815 255 255 255
-0.116515 0.116157 0.463 255 255 255
-0.169555 0.0185233 0.419 255 255 255
0.117295 0.176347 0.499 255 255 255
-0.0481322 -0.10537 0.444 255 255 255
-0.124185 -0.0160523 0.432 0 0 0
0.208683 0.0911892 0.699 0 0 0
0.348913 -0.0457373 0.856 255 255 255
0.00191253 -0.156412 0.837 255 255 255
-0.0335166 0.143996 0.52 255 255 255
-0.0577069 0.0917252 0.605 255 255 255
0.357717 -0.0725372 0.828 255 255 255
-0.071068 -0.0945216 0.434 255 255 255
-0.183047 -0.0374351 0.391 255 255 255
-0.212357 0.123321 0.416 255 255 255
-0.0202079 -0.0148647 0.485 255 255 255
0.0134127 -0.0539173 0.792 255 255 255
0.117723 -0.262654 0.837 0 0 0
0.0862005 0.022556 0.763 255 255 255
-0.0931666 0.158906 0.41 255 255 255
0.0876757 0.168114 0.511 255 255 255
0.296545 0.0954138 0.705 255 255 255
-0.0569386 -0.129835 0.434 255 255 255
-0.189512 0.109991 0.54 255 255 255
-0.0420041 0.146207 0.51 255 255 255
0.382766 -0.0433863 0.788 255 255 255
0.226405 -0.292506 0.895 255 255 255
0.187874 0.0954775 0.658 255 255 255
-0.157278 -0.000568559 0.419 255 255 255
-0.0567531 0.0998917 0.595 255 255 255
-0.101674 -0.0634133 0.429 255 255 255
-0.0260332 -0.107529 0.86 255 255 255
-0.196866 -0.0403033 0.382 255 255 255
-0.163649 -0.0432867 0.398 255 255 255
-0.0866392 0.115818 0.551 255 255 255
0.0746602 -0.283235 0.799 255 255 255
-0.085001 -0.0844389 0.433 255 255 255
-0.0315134 0.13788 0.529 255 255 255
-0.189103 0.0547918 0.42 0 0 0
0.196171 0.103837 0.65 255 255 255
0.249935 -0.0900109 0.77 0 0 0
-0.0754434 0.111072 0.568 255 255 255
-0.0607717 -0.080053 0.452 255 255 255
-0.10409 0.110933 0.558 255 255 255
