ply
format ascii 1.0
comment Created by Open3D
element vertex 1299
property double x
property double y
property double z
property uchar red
property uchar green
property uchar blue
end_header
0.00388792 -0.163876 0.442 255 255 255
0.218545 -0.162923 0.802 255 255 255
0.0730841 -0.245902 0.796 255 255 255
-0.155992 -0.0253661 0.412 255 255 255
-0.0077792 0.0212053 0.498 255 255 255
-0.203934 -0.0190314 0.392 255 255 255
-0.189294 -0.116914 0.365 255 255 255
-0.0593495 0.0194939 0.476 255 255 255
-0.0188329 -0.103591 0.452 255 255 255
-0.096168 -0.138923 0.403 0 0 0
-0.139524 -0.0581744 0.407 255 255 255
0.177745 0.0769899 0.726 255 255 255
-0.0958362 -0.11665 0.41 255 255 255
0.0207362 0.0689479 0.522 0 0 0
-0.152637 -0.0791967 0.393 255 255 255
0.349007 -0.081096 1 255 255 255
0.303998 0.107493 0.709 0 0 0
-0.0733182 0.119621 0.552 255 255 255
0.0314294 0.173166 0.49 255 255 255
0.0409786 0.130408 0.58 255 255 255
-0.182358 0.138223 0.414 255 255 255
-0.109543 0.137191 0.441 255 255 255
0.148813 -0.145721 0.729 0 0 0
-0.179012 0.0365109 0.422 255 255 255
-0.110759 0.0631413 0.461 255 255 255
0.16662 0.175023 0.532 255 255 255
0.0925457 0.072434 0.716 255 255 255
0.0698114 0.151473 0.547 255 255 255
0.0941557 0.0348361 0.788 255 255 255
0.294881 0.1186 0.693 255 255 255
0.28062 0.115777 0.683 0 0 0
0.386072 -0.127699 0.925 255 255 255
-0.0760632 -0.129553 0.415 255 255 255
-0.0482635 0.111731 0.586 255 255 255
0.128691 0.163595 0.54 255 255 255
0.180431 -0.22247 0.85 0 0 0
-0.106389 0.0258666 0.452 255 255 255
-0.0505558 -0.143413 0.422 255 255 255
0.0260708 0.038315 0.51 255 255 255
-0.113335 -0.0453174 0.423 255 255 255
-0.209657 0.0269973 0.403 255 255 255
0.110405 -0.103719 0.734 0 0 0
0.0130884 -0.123175 0.462 255 255 255
-0.215532 0.0915155 0.413 255 255 255
-0.163244 -0.0199053 0.41 255 255 255
-0.199909 0.115003 0.444 255 255 255
0.417523 -0.121637 0.851 255 255 255
-0.0727261 0.0982584 0.591 255 255 255
-0.120206 0.139109 0.438 255 255 255
0.153086 0.0680022 0.744 255 255 255
0.422561 -0.125383 0.839 255 255 255
0.145749 -0.265053 0.811 255 255 255
0.155555 -0.0539271 0.756 255 255 255
0.139928 -0.136851 0.726 0 0 0
-0.162271 0.0607039 0.438 255 255 255
-0.0706438 0.159814 0.423 255 255 255
0.0948946 -0.122717 0.763 0 0 0
-0.0268665 -0.127758 0.439 255 255 255
-0.204483 -0.0288651 0.387 0 0 0
0.184803 -0.0744875 0.765 0 0 0
-0.0922196 -0.0179433 0.444 255 255 255
0.0269134 -0.107788 0.467 0 0 0
-0.0857922 -0.0879957 0.423 255 255 255
-0.192751 0.125786 0.422 255 255 255
-0.0400486 0.141056 0.528 255 255 255
-0.178906 0.0875852 0.43 255 255 255
0.210552 -0.241881 0.86 0 0 0
-0.175519 0.0556543 0.432 0 0 0
-0.0068706 0.00412785 0.491 255 255 255
-0.177049 -0.104909 0.373 255 255 255
0.00579692 -0.0405727 0.481 255 255 255
0.0120046 0.0442976 0.512 0 0 0
-0.153813 0.146843 0.408 255 255 255
0.113367 0.167913 0.526 255 255 255
0.113326 0.161238 0.538 255 255 255
0.406068 0.0994537 0.871 255 255 255
0.308527 -0.104991 0.98 255 255 255
0.233726 0.1683 0.541 255 255 255
0.0999197 -0.211899 0.825 255 255 255
-0.0659221 0.138406 0.452 255 255 255
-0.0562911 0.0449326 0.483 255 255 255
0.0908361 0.0648891 0.75 0 0 0
0.297103 -0.155811 0.588 255 255 255
0.192777 -0.0688876 0.772 255 255 255
0.00116762 0.0583477 0.511 255 255 255
0.266797 -0.196755 0.627 0 0 0
0.0205015 0.177111 0.477 255 255 255
0.166213 0.155814 0.566 255 255 255
-0.146672 -0.0222275 0.416 255 255 255
0.222609 0.161817 0.555 255 255 255
-0.0312554 0.129303 0.555 255 255 255
0.239961 0.109797 0.654 255 255 255
0.0394471 0.109254 0.615 255 255 255
0.268452 0.136108 0.601 255 255 255
-0.115477 -0.137451 0.395 0 0 0
-0.00130182 0.021333 0.501 255 255 255
-0.031651 -0.129723 0.436 255 255 255
-0.141449 0.0691703 0.442 255 255 255
-0.0215655 -0.152084 0.433 255 255 255
-0.188145 0.13722 0.409 255 255 255
-0.0275183 -0.130318 0.438 255 255 255
0.356368 -0.240382 0.93 255 255 255
-0.152547 -0.132119 0.371 255 255 255
0.144521 -0.235681 0.819 255 255 255
0.0267254 -0.153268 0.451 0 0 0
-0.0548395 -0.149536 0.418 255 255 255
-0.0675207 0.0507964 0.479 0 0 0
0.234074 0.105946 0.677 255 255 255
0.0087047 0.0578538 0.514 255 255 255
0.261632 -0.185064 0.622 255 255 255
-0.0366656 0.0700729 0.494 255 255 255
-0.145642 -0.105339 0.388 255 255 255
0.342573 -0.0815015 1.005 255 255 255
0.0620208 0.144272 0.557 255 255 255
-0.131498 0.131151 0.44 255 255 255
-0.133217 -0.0864657 0.4 255 255 255
-0.10643 0.137596 0.44 255 255 255
-0.0471772 -0.0383009 0.463 255 255 255
0.333757 -0.0458837 1.013 255 255 255
0.318009 -0.0539515 0.774 0 0 0
-0.187911 -0.0142123 0.4 255 255 255
-0.0710724 -0.0248866 0.452 255 255 255
0.203356 0.192375 0.507 255 255 255
0.148697 0.0760355 0.717 255 255 255
0.103885 0.175451 0.513 255 255 255
-0.193088 0.109234 0.45 255 255 255
-0.163738 -0.128404 0.369 255 255 255
-0.203902 0.137488 0.402 255 255 255
0.108699 0.119456 0.616 255 255 255
0.278184 -0.230207 0.632 255 255 255
0.319616 -0.0753326 1.01 255 255 255
0.172348 0.154515 0.568 255 255 255
-0.0202614 -0.0577543 0.468 255 255 255
-0.184186 0.116918 0.52 255 255 255
0.281219 0.0192953 0.837 0 0 0
0.423607 -0.0824642 0.833 255 255 255
0.127339 0.165616 0.538 255 255 255
-0.0681361 -0.153424 0.412 0 0 0
0.0995254 0.0453177 0.77 255 255 255
-0.173424 -0.10174 0.377 255 255 255
0.309751 -0.0539658 1.01 255 255 255
0.224318 0.156962 0.557 255 255 255
-0.139558 -0.0195665 0.417 255 255 255
0.00828132 -0.0309026 0.489 255 255 255
-0.16919 0.0739324 0.432 255 255 255
0.0807252 -0.034515 0.821 255 255 255
0.129216 -0.130851 0.719 0 0 0
-0.200438 0.133878 0.411 255 255 255
-0.182882 -0.0950973 0.375 255 255 255
-0.154908 -0.130451 0.368 255 255 255
-0.187407 -0.0647162 0.383 255 255 255
0.407293 -0.0617584 0.886 255 255 255
0.0168631 -0.048702 0.484 0 0 0
0.132173 -0.00840741 0.756 0 0 0
-0.0594859 -0.133799 0.422 255 255 255
-0.163615 0.0488493 0.434 255 255 255
-0.186559 -0.124201 0.362 255 255 255
0.209942 0.0830113 0.727 255 255 255
-0.170757 -0.03774 0.401 255 255 255
0.00855756 -0.113155 0.461 255 255 255
-0.194274 -0.0415677 0.388 255 255 255
0.276374 0.01669 0.843 255 255 255
-0.0525662 -0.0172414 0.464 255 255 255
0.0141933 0.00991896 0.501 0 0 0
-0.0109672 0.121178 0.581 255 255 255
0.153872 0.00394672 0.766 255 255 255
-0.0846522 0.0380428 0.466 255 255 255
-0.0947552 -0.0866882 0.42 255 255 255
0.178039 -0.145904 0.742 255 255 255
-0.188283 -0.00120863 0.405 255 255 255
-0.0160975 0.129105 0.562 255 255 255
-0.213198 0.127752 0.415 255 255 255
0.286725 0.152146 0.573 255 255 255
0.419584 -0.0821797 0.844 255 255 255
0.0183924 -0.123441 0.463 0 0 0
-0.0393977 0.0334857 0.488 255 255 255
0.253062 -0.221997 0.808 255 255 255
0.0218579 -0.0309658 0.49 0 0 0
0.330956 -0.269841 0.902 255 255 255
0.146771 0.0750776 0.719 255 255 255
-0.151339 -0.0678985 0.398 255 255 255
0.111634 -0.203635 0.803 255 255 255
0.131484 0.16919 0.53 255 255 255
-0.079179 0.151263 0.432 255 255 255
-0.178945 -0.0581337 0.389 255 255 255
-0.110369 -0.0704612 0.417 255 255 255
0.294846 -0.187516 0.607 255 255 255
-0.163374 -0.0349931 0.407 255 255 255
0.317494 -0.236589 0.927 255 255 255
0.200797 0.10199 0.68 255 255 255
0.123611 -0.240569 0.813 255 255 255
0.0800459 -0.263948 0.788 255 255 255
0.239197 0.196113 0.506 255 255 255
0.132173 -0.00717715 0.756 0 0 0
0.245145 0.162415 0.539 255 255 255
-0.13646 -0.0251751 0.42 255 255 255
-0.0584626 0.117664 0.488 255 255 255
-0.192719 0.0386997 0.416 255 255 255
-0.0117517 -0.160573 0.435 255 255 255
-0.158696 -0.111556 0.377 255 255 255
0.0273168 -0.0839494 0.474 0 0 0
0.376452 -0.172463 0.931 255 255 255
0.231731 -0.296577 0.807 255 255 255
-0.153233 -0.0312478 0.41 0 0 0
-0.0235706 -0.154888 0.431 255 255 255
-0.0688498 0.11549 0.567 255 255 255
0.271414 0.0259498 0.832 255 255 255
0.192292 0.0377805 0.796 0 0 0
-0.139913 -0.120179 0.381 255 255 255
-0.152268 -0.031324 0.411 0 0 0
0.229579 -0.227481 0.795 255 255 255
0.0797995 -0.133184 0.854 255 255 255
-0.204775 0.132513 0.413 255 255 255
-0.0202595 -0.106297 0.451 255 255 255
0.00181944 -0.0868957 0.465 255 255 255
-0.0405257 -0.0570155 0.456 255 255 255
-0.11196 0.120701 0.466 255 255 255
-0.206291 0.0383276 0.412 255 255 255
0.195048 0.143703 0.592 0 0 0
0.112056 0.0697611 0.737 255 255 255
-0.188587 0.0630518 0.425 255 255 255
0.131619 0.0767716 0.713 255 255 255
-0.0802564 0.109825 0.576 255 255 255
0.183001 0.0975914 0.688 255 255 255
0.00272597 -0.0158799 0.492 255 255 255
0.205995 0.159417 0.569 0 0 0
-0.200283 0.139407 0.4 255 255 255
0.00447726 0.0407248 0.509 255 255 255
-0.132071 0.106455 0.573 255 255 255
0.427321 -0.0244652 0.843 255 255 255
-0.148346 -0.0255508 0.415 255 255 255
0.219636 0.031697 0.806 0 0 0
0.190324 0.121175 0.641 255 255 255
-0.101592 -0.0778029 0.42 255 255 255
0.0240426 0.0644526 0.52 255 255 255
0.275577 0.012664 0.849 0 0 0
-0.160404 -0.0187068 0.413 255 255 255
-0.0514957 -0.004443 0.468 255 255 255
-0.0854593 -0.146429 0.402 255 255 255
-0.175697 0.073419 0.429 255 255 255
0.144264 -0.136417 0.73 255 255 255
0.15367 -0.28089 0.811 255 255 255
-0.0699089 0.136802 0.454 255 255 255
-0.163294 -0.132847 0.368 255 255 255
-0.120973 -0.0813557 0.407 0 0 0
-0.164648 0.0416904 0.433 255 255 255
-0.105949 -0.0919642 0.413 255 255 255
0.165367 0.178003 0.528 255 255 255
0.0104102 -0.161005 0.444 255 255 255
-0.146736 -0.116459 0.381 255 255 255
-0.131302 -0.0334563 0.421 0 0 0
0.00573666 -0.0626146 0.476 255 255 255
0.30059 -0.212735 0.623 0 0 0
0.164604 -0.0602373 0.758 0 0 0
-0.226115 0.117897 0.436 255 255 255
0.0655548 0.00834859 0.832 0 0 0
-0.165091 -0.132847 0.368 255 255 255
0.103073 0.109016 0.637 255 255 255
-0.0334251 0.17335 0.471 255 255 255
0.28074 -0.175004 0.598 0 0 0
-0.0967891 0.0600345 0.466 255 255 255
0.286784 0.0990942 0.715 255 255 255
-0.0949809 -0.0807286 0.421 255 255 255
-0.0935794 -0.130708 0.406 255 255 255
0.0344056 0.181387 0.476 255 255 255
-0.0414904 0.0539949 0.494 255 255 255
0.370599 0.0237295 0.902 255 255 255
0.130055 0.0618807 0.758 0 0 0
0.194958 0.181784 0.529 255 255 255
0.0191691 -0.167537 0.446 255 255 255
-0.0560998 -0.0239335 0.462 255 255 255
0.0451261 0.144249 0.55 255 255 255
-0.127464 0.00224643 0.436 255 255 255
0.0225916 -0.0874357 0.472 0 0 0
-0.0456922 -0.00753737 0.471 255 255 255
0.104281 -0.0615519 0.759 0 0 0
-0.168837 -0.0158633 0.409 255 255 255
-0.167116 -0.0800833 0.388 255 255 255
-0.0672911 -0.0745518 0.437 255 255 255
0.0620137 0.16399 0.519 255 255 255
0.159037 0.152277 0.57 255 255 255
0.211563 0.0971539 0.701 255 255 255
0.154571 0.126082 0.619 255 255 255
0.304711 -0.234469 0.638 255 255 255
-0.217164 0.131871 0.411 255 255 255
0.302799 -0.0453095 0.777 255 255 255
-0.0167468 -0.14888 0.436 255 255 255
-0.138694 -0.114811 0.388 255 255 255
-0.145224 -0.0752114 0.399 255 255 255
0.361175 -0.158018 0.963 255 255 255
-0.134675 -0.113153 0.391 255 255 255
-0.193665 0.0615235 0.424 0 0 0
-0.0391734 0.129502 0.552 255 255 255
0.2972 0.0344906 0.81 255 255 255
-0.036955 -0.113013 0.44 255 255 255
0.116827 -0.118473 0.722 0 0 0
0.409196 0.0868463 0.887 255 255 255
0.276848 0.0366044 0.828 0 0 0
-0.141541 0.1492 0.409 255 255 255
-0.136413 0.0396799 0.442 255 255 255
0.0343054 0.170787 0.497 255 255 255
0.196741 0.110636 0.659 0 0 0
-0.0664464 -0.105505 0.427 255 255 255
0.234801 -0.241607 0.778 255 255 255
0.244745 0.127111 0.591 0 0 0
0.278841 -0.115262 0.934 0 0 0
0.358841 -0.13979 0.978 255 255 255
0.194851 0.194601 0.5 0 0 0
-0.198488 0.0239537 0.407 255 255 255
-0.180556 -0.107387 0.369 255 255 255
-0.0219712 -0.0405816 0.472 255 255 255
-0.0823217 0.104698 0.584 255 255 255
0.112186 -0.0206552 0.754 0 0 0
0.147829 -0.130477 0.73 255 255 255
-0.0877191 0.14273 0.436 255 255 255
0.120699 0.0892324 0.684 255 255 255
-0.0281157 0.103369 0.604 255 255 255
-0.0100061 -0.0165449 0.488 255 255 255
-0.184321 0.11984 0.518 255 255 255
0.0831864 -0.0115867 0.806 255 255 255
-0.172553 0.0143977 0.418 255 255 255
0.253935 0.135537 0.59 255 255 255
0.0410348 -0.153147 0.455 255 255 255
0.0156079 0.0722071 0.521 255 255 255
-0.207544 0.109478 0.448 255 255 255
-0.19385 0.0153435 0.407 255 255 255
0.0206674 -0.164275 0.447 0 0 0
-0.11098 -0.117645 0.402 255 255 255
-0.155603 0.136809 0.42 255 255 255
0.193834 0.191928 0.508 255 255 255
0.127059 -0.151678 0.707 255 255 255
-0.186569 0.0763414 0.422 255 255 255
-0.163928 -0.0659337 0.394 255 255 255
0.115855 0.180237 0.467 255 255 255
0.117251 0.0449058 0.763 255 255 255
0.382925 0.0442354 0.932 255 255 255
-0.0827368 0.158605 0.418 255 255 255
-0.0522516 0.12563 0.482 255 255 255
-0.116526 -0.0799537 0.41 0 0 0
-0.00356136 -0.0471224 0.476 255 255 255
0.0808622 -0.235436 0.809 255 255 255
0.227775 -0.0374135 0.826 255 255 255
0.395966 0.0107288 0.92 255 255 255
-0.137536 -0.0608236 0.407 255 255 255
-0.0135312 -0.125722 0.447 255 255 255
-0.152184 0.138176 0.42 255 255 255
-0.226689 0.111131 0.509 255 255 255
0.317961 0.0872055 0.753 255 255 255
-0.00215538 0.0690227 0.51 0 0 0
0.254223 0.107351 0.672 255 255 255
-0.00562643 0.151073 0.524 255 255 255
-0.0322484 0.0223678 0.488 255 255 255
0.0559265 0.177224 0.488 255 255 255
-0.18616 -0.0647162 0.383 255 255 255
-0.0103357 -0.0697903 0.467 255 255 255
-0.123731 0.144987 0.428 255 255 255
-0.0839255 0.0189206 0.462 255 255 255
0.226114 -0.257176 0.783 0 0 0
-0.176777 -0.0999793 0.375 255 255 255
-0.138538 -0.0576533 0.408 255 255 255
0.256674 -0.276732 0.753 0 0 0
0.0310068 0.170444 0.496 255 255 255
-0.0861963 -0.120099 0.415 255 255 255
-0.144208 0.0177329 0.433 255 255 255
-0.0292626 -0.0877953 0.454 255 255 255
0.210615 0.0162742 0.822 255 255 255
-0.0882068 -0.0408794 0.442 255 255 255
-0.00129142 0.0106486 0.497 255 255 255
-0.0652893 -0.116493 0.424 255 255 255
0.343522 0.112635 0.691 255 255 255
-0.100976 -0.0536396 0.429 255 255 255
-0.123556 -0.0268581 0.425 255 255 255
0.0130128 0.139238 0.555 255 255 255
-0.176516 0.0555255 0.431 0 0 0
0.319176 0.00541698 0.799 255 255 255
0.00988384 -0.141416 0.453 255 255 255
0.175679 -0.299945 0.809 255 255 255
-0.115746 0.142827 0.432 255 255 255
0.25552 0.156779 0.55 255 255 255
0.218891 -0.3016 0.828 0 0 0
0.25642 0.0430799 0.823 0 0 0
0.140634 0.179999 0.507 255 255 255
0.148992 0.168729 0.534 255 255 255
0.109367 0.0100997 0.76 255 255 255
-0.0512436 0.12338 0.495 255 255 255
-0.139179 -0.136818 0.379 255 255 255
-0.169556 -0.134507 0.366 255 255 255
0.373471 -0.0821466 0.858 255 255 255
0.250456 0.168552 0.528 0 0 0
0.00181553 -0.088219 0.464 255 255 255
0.0125183 0.104089 0.62 255 255 255
0.0165933 -0.139819 0.455 255 255 255
0.0911249 0.0722316 0.714 255 255 255
-0.202686 0.0503289 0.417 255 255 255
-0.183661 -0.108294 0.368 255 255 255
-0.154406 -0.0864291 0.391 255 255 255
-0.118799 -0.0502235 0.418 0 0 0
0.120118 0.12085 0.618 255 255 255
-0.0649869 0.110022 0.582 255 255 255
-0.0910847 -0.0308095 0.442 255 255 255
0.113376 0.0237665 0.762 255 255 255
0.0441908 -0.155307 0.457 255 255 255
-0.0112384 -0.045286 0.473 255 255 255
-0.18727 0.0194598 0.41 255 255 255
-0.1647 0.0694906 0.435 255 255 255
-0.0634893 0.122254 0.478 255 255 255
-0.116907 -0.0817554 0.409 0 0 0
-0.0160771 0.0452458 0.504 0 0 0
0.172831 -0.307464 0.808 255 255 255
-0.18102 -0.0692594 0.384 255 255 255
-0.194394 0.00405388 0.404 255 255 255
-0.151339 -0.0691938 0.398 255 255 255
-0.0575042 0.123546 0.48 255 255 255
0.0142923 0.130015 0.57 255 255 255
0.0715727 0.124933 0.599 255 255 255
-0.0462141 -0.155719 0.42 255 255 255
0.405115 -0.126058 0.872 255 255 255
0.249074 0.120761 0.65 255 255 255
-0.0330051 -0.0130396 0.476 255 255 255
0.117956 0.13696 0.592 255 255 255
0.000288499 -0.169193 0.439 255 255 255
-0.0562004 -0.147495 0.418 255 255 255
-0.0606433 0.128173 0.474 255 255 255
-0.0919893 -0.0797354 0.423 255 255 255
0.0559392 0.150971 0.542 255 255 255
0.099321 0.174767 0.511 255 255 255
0.394023 0.106284 0.825 255 255 255
-0.118284 0.145302 0.431 255 255 255
-0.0602506 0.0296259 0.477 255 255 255
0.154417 -0.223168 0.822 255 255 255
0.114275 -0.212466 0.822 255 255 255
0.00541126 -0.147474 0.449 255 255 255
-0.0608711 0.105415 0.588 255 255 255
0.0192267 0.173409 0.484 255 255 255
0.425334 -0.0232851 0.85 255 255 255
0.0912844 0.0344054 0.808 255 255 255
0.251902 0.0831789 0.739 255 255 255
0.175121 -0.102849 0.745 0 0 0
-0.0262649 0.0307439 0.495 255 255 255
-0.142888 0.0432763 0.442 255 255 255
-0.0679567 -0.144411 0.415 255 255 255
0.29228 -0.175612 0.948 255 255 255
-0.149508 0.132369 0.43 255 255 255
0.0147599 0.154447 0.521 255 255 255
-0.183312 0.132592 0.424 255 255 255
-0.172949 -0.0901814 0.38 255 255 255
0.319322 -0.148728 0.974 255 255 255
0.290109 -0.112717 0.951 0 0 0
0.32347 -0.0600936 0.772 0 0 0
0.198694 0.189273 0.512 255 255 255
-0.166441 0.0516744 0.434 255 255 255
-0.184002 0.0746333 0.424 255 255 255
-0.00046008 -0.0638942 0.474 255 255 255
-0.156204 0.060402 0.441 255 255 255
-0.195408 -0.0347115 0.389 255 255 255
-0.211847 0.0656203 0.415 255 255 255
-0.000470757 -0.031439 0.485 255 255 255
0.197239 -0.227277 0.863 0 0 0
0.193782 0.062942 0.771 255 255 255
0.246625 0.171454 0.529 0 0 0
-0.200354 -0.0259155 0.39 0 0 0
-0.157043 -0.0234114 0.413 255 255 255
0.374364 0.0178977 0.904 255 255 255
0.0734145 0.1664 0.516 0 0 0
-0.121323 0.11716 0.467 255 255 255
-0.114712 0.152242 0.423 255 255 255
0.17208 0.0153437 0.775 0 0 0
-0.167748 -0.0750321 0.388 255 255 255
0.284223 0.152667 0.568 255 255 255
-0.16551 -0.00864634 0.414 255 255 255
-0.124462 0.021747 0.443 255 255 255
-0.0135348 0.0327471 0.501 255 255 255
-0.184057 -0.102259 0.37 255 255 255
-0.0742172 0.125328 0.472 255 255 255
0.110669 0.112452 0.633 255 255 255
0.080387 0.173399 0.507 255 255 255
0.112502 0.115283 0.626 255 255 255
0.0405057 0.116547 0.601 255 255 255
-0.0740366 -0.132255 0.415 255 255 255
-0.0471211 0.163557 0.422 255 255 255
0.212847 0.13022 0.575 0 0 0
-0.186322 0.0868477 0.423 255 255 255
0.111735 -0.2221 0.823 255 255 255
-0.049987 0.163944 0.423 255 255 255
-0.154716 -0.0918427 0.387 255 255 255
-0.180922 -0.139529 0.359 255 255 255
-0.171609 0.150946 0.403 255 255 255
-0.152983 -0.0923173 0.389 255 255 255
-0.123371 -0.0362827 0.422 0 0 0
-0.0739344 -0.148913 0.407 255 255 255
-0.00220187 0.152752 0.521 255 255 255
0.409822 -0.294323 0.819 255 255 255
0.303651 -0.292943 0.862 255 255 255
-0.212409 0.0275845 0.402 255 255 255
-0.03979 0.151567 0.503 255 255 255
0.279332 -0.16638 0.595 255 255 255
-0.180077 -0.0776017 0.382 255 255 255
-0.133162 0.15035 0.414 255 255 255
-0.172607 0.0763892 0.43 255 255 255
-0.192875 -0.0385097 0.389 255 255 255
0.144386 0.0212865 0.762 255 255 255
0.414327 -0.302689 0.82 255 255 255
-0.0344899 -0.128304 0.436 255 255 255
-0.190928 -0.107999 0.367 255 255 255
-0.0450322 -0.118808 0.435 255 255 255
-0.144414 -0.0623476 0.404 255 255 255
-0.131004 0.136948 0.429 255 255 255
-0.0152571 -0.154554 0.434 255 255 255
-0.189258 -0.0375309 0.392 255 255 255
-0.0956637 0.0246653 0.457 255 255 255
0.0770192 -0.135963 0.854 255 255 255
-0.207311 0.137798 0.401 255 255 255
0.203162 0.119275 0.642 255 255 255
-0.0879185 0.155263 0.42 255 255 255
0.277104 -0.241075 0.639 255 255 255
0.218754 0.162983 0.559 255 255 255
0.150983 0.0263154 0.764 255 255 255
-0.110415 -0.14443 0.393 255 255 255
0.206558 0.159137 0.568 0 0 0
-0.156876 -0.133083 0.367 255 255 255
-0.175763 -0.023442 0.402 255 255 255
-0.0456589 0.0373796 0.487 255 255 255
-0.180076 0.120331 0.445 255 255 255
0.121659 0.162716 0.54 255 255 255
0.244078 -0.0468 0.85 255 255 255
0.330072 -0.248277 0.92 255 255 255
0.0773869 -0.22497 0.814 255 255 255
-0.0422142 -0.00450945 0.475 0 0 0
-0.159724 -0.0830348 0.39 255 255 255
-0.00892858 -0.0491346 0.473 255 255 255
0.304179 -0.293693 0.844 255 255 255
0.414501 -0.0530717 0.862 255 255 255
0.153053 -0.0850692 0.738 255 255 255
0.233716 0.141246 0.578 255 255 255
0.063285 0.110675 0.623 255 255 255
-0.104456 0.0732102 0.463 255 255 255
-0.00685661 -0.0118284 0.49 255 255 255
0.291168 -0.0486715 0.97 0 0 0
0.0228309 0.177887 0.477 255 255 255
-0.0194184 0.00881294 0.485 255 255 255
-0.116906 0.035272 0.45 255 255 255
0.162955 0.159968 0.558 255 255 255
0.275873 -0.169165 0.598 255 255 255
-0.0390411 -0.0592417 0.456 255 255 255
-0.172003 0.0788535 0.432 255 255 255
-0.0382078 0.0174226 0.483 255 255 255
0.153564 0.11682 0.64 255 255 255
0.166886 0.163939 0.55 255 255 255
0.195002 0.172521 0.546 255 255 255
-0.158393 0.118508 0.551 255 255 255
-0.0344612 0.0543228 0.497 255 255 255
0.13025 -0.0458682 0.745 255 255 255
0.017715 -0.11111 0.465 0 0 0
0.275358 -0.198024 0.612 0 0 0
0.0644238 0.164517 0.518 255 255 255
0.0127 0.0943403 0.629 255 255 255
-0.0438147 0.154761 0.43 255 255 255
0.273366 -0.195036 0.612 255 255 255
0.201692 -0.312012 0.813 0 0 0
-0.130106 -0.047837 0.415 255 255 255
0.257688 0.158594 0.547 255 255 255
0.347589 -0.215203 0.939 255 255 255
-0.102224 -0.0867475 0.417 255 255 255
-0.0895863 0.122743 0.468 255 255 255
-0.000446491 -0.101681 0.46 255 255 255
0.422429 0.0464701 0.861 255 255 255
-0.124403 0.130726 0.456 255 255 255
0.00304732 0.138878 0.55 255 255 255
-0.110684 -0.0141047 0.437 255 255 255
0.189796 0.0182349 0.791 255 255 255
0.189495 0.153473 0.578 255 255 255
-0.146239 -0.0868712 0.393 255 255 255
0.0163056 -0.0958338 0.468 0 0 0
0.0685672 0.082566 0.675 255 255 255
0.0948867 0.102034 0.652 255 255 255
0.390012 -0.11203 0.896 255 255 255
-0.147111 -0.0540673 0.406 255 255 255
-0.122766 0.123907 0.461 255 255 255
-0.109054 0.0365643 0.457 255 255 255
-0.098427 0.0822516 0.463 255 255 255
0.22944 -0.275437 0.777 0 0 0
-0.167088 0.120486 0.451 255 255 255
-0.134724 -0.104778 0.393 255 255 255
0.0351804 -0.083529 0.476 255 255 255
-0.173691 -0.0652643 0.39 255 255 255
-0.181757 -0.125725 0.363 255 255 255
0.0295067 0.0467972 0.512 255 255 255
0.0108002 -0.0135601 0.495 255 255 255
-0.113179 0.00806793 0.444 255 255 255
-0.0522425 -0.153985 0.419 255 255 255
0.120518 -0.12914 0.716 255 255 255
0.143333 0.0275226 0.763 255 255 255
0.417834 0.0566048 0.866 255 255 255
-0.046897 -0.0753614 0.446 255 255 255
-0.188443 0.124261 0.431 255 255 255
0.286143 -0.0959117 0.938 0 0 0
-0.132248 0.114365 0.468 255 255 255
-0.134598 -0.140271 0.38 255 255 255
0.162176 -0.0209292 0.764 255 255 255
0.115972 -0.114088 0.724 0 0 0
0.216606 0.193893 0.511 255 255 255
-0.161651 -0.0382106 0.406 255 255 255
0.423433 -0.0929727 0.83 255 255 255
-0.0660443 0.124316 0.474 255 255 255
-0.193162 -0.0708759 0.376 255 255 255
0.0147188 -0.106799 0.466 255 255 255
-0.210798 0.122063 0.421 255 255 255
-0.101058 -0.0937602 0.415 255 255 255
-0.0520348 0.0298123 0.48 255 255 255
-0.13379 -0.132652 0.383 255 255 255
-0.184098 -0.0340473 0.396 255 255 255
-0.0813785 -0.0403419 0.444 0 0 0
-0.0187778 -0.0594041 0.469 255 255 255
-0.192504 0.13176 0.417 255 255 255
-0.101682 -0.0434696 0.432 255 255 255
-0.170345 -0.126002 0.369 255 255 255
0.0193912 0.0233303 0.509 0 0 0
-0.0902542 0.138435 0.445 255 255 255
-0.139796 -0.133117 0.379 255 255 255
0.423452 0.0112824 0.849 255 255 255
0.205654 0.119944 0.64 255 255 255
0.172348 0.122219 0.625 255 255 255
0.146813 0.164201 0.542 255 255 255
0.263808 -0.259147 0.789 255 255 255
-0.105787 0.155441 0.415 255 255 255
0.171526 0.0499692 0.784 255 255 255
-0.0333541 -0.0304667 0.47 0 0 0
-0.160985 0.00215369 0.418 255 255 255
0.0815161 -0.158905 0.843 255 255 255
0.409798 -0.0627009 0.879 255 255 255
-0.195406 0.120888 0.434 255 255 255
0.074035 -0.180713 0.836 255 255 255
-0.136862 -0.041759 0.415 255 255 255
0.0651881 0.0683608 0.71 0 0 0
-0.019451 -0.153493 0.433 255 255 255
-0.12924 -0.0715963 0.408 255 255 255
0.0590392 0.180161 0.481 255 255 255
0.00707203 -0.106634 0.462 255 255 255
0.0852505 -0.108655 0.826 255 255 255
0.120369 -0.259134 0.809 255 255 255
-0.149443 -0.118009 0.38 255 255 255
0.0577402 0.0924849 0.652 255 255 255
-0.15657 0.144894 0.41 255 255 255
0.0312049 -0.120427 0.463 0 0 0
-0.0739157 0.0743346 0.475 255 255 255
-0.136473 -0.0825601 0.4 255 255 255
0.00214029 0.139011 0.547 255 255 255
0.0908361 0.0636686 0.75 0 0 0
-0.0385063 0.156229 0.497 255 255 255
0.415371 -0.11426 0.858 255 255 255
0.160149 -0.153467 0.732 0 0 0
-0.141887 -0.0512639 0.41 255 255 255
0.0869261 0.0973224 0.656 255 255 255
0.0875386 -0.16555 0.835 255 255 255
-0.0367398 0.0653816 0.495 255 255 255
0.00701764 0.0518975 0.513 255 255 255
0.307743 0.000214416 0.793 255 255 255
0.235907 0.161266 0.544 0 0 0
-0.00331446 -0.149829 0.443 255 255 255
-0.107471 0.0566342 0.463 0 0 0
-0.179322 0.0576296 0.431 0 0 0
-0.0165578 -0.0565916 0.471 255 255 255
0.407485 -0.162487 0.862 255 255 255
0.0229791 -0.0136149 0.497 0 0 0
-0.1235 -0.0707851 0.411 255 255 255
-0.0402598 -0.11082 0.437 255 255 255
0.243613 -0.193653 0.816 255 255 255
-0.179468 -0.110689 0.368 255 255 255
0.33209 -0.0245741 1.018 255 255 255
-0.0735014 -0.142026 0.412 255 255 255
-0.152352 -0.134291 0.372 255 255 255
-0.150306 -0.0975107 0.387 255 255 255
0.186551 0.117915 0.646 255 255 255
-0.183744 0.0692764 0.425 255 255 255
-0.112487 -0.0393071 0.425 255 255 255
0.218711 0.0675199 0.766 255 255 255
-0.126408 -0.116882 0.395 255 255 255
-0.134463 -0.0959118 0.396 255 255 255
-0.125882 0.137521 0.433 255 255 255
-0.151665 -0.0274439 0.413 255 255 255
0.293513 -0.105089 0.952 255 255 255
-0.187699 0.0469229 0.423 255 255 255
-0.154543 -0.0970067 0.385 255 255 255
0.0447587 0.180971 0.479 255 255 255
0.40168 -0.0901591 0.896 255 255 255
-0.180297 -0.0219685 0.399 255 255 255
-0.168884 -0.0875479 0.382 255 255 255
0.0257405 -0.0379866 0.488 0 0 0
0.311087 -0.0571963 1.009 255 255 255
-0.104436 -0.0924096 0.415 255 255 255
0.227136 -0.230198 0.791 255 255 255
0.0658524 -0.0664568 0.891 255 255 255
-0.0464342 -0.149594 0.422 255 255 255
0.00704141 -0.119647 0.46 255 255 255
0.0105384 -0.0454574 0.483 255 255 255
-0.0891898 0.128687 0.462 255 255 255
0.179341 0.174695 0.539 255 255 255
-0.121934 -0.00765152 0.434 255 255 255
-0.173488 0.132141 0.427 255 255 255
-0.208875 0.141007 0.399 255 255 255
-0.106515 -0.102639 0.41 255 255 255
-0.111261 0.0109827 0.445 255 255 255
-0.118434 -0.0309348 0.424 0 0 0
0.369057 -0.128732 0.955 255 255 255
-0.132218 -0.0993843 0.397 255 255 255
-0.0958843 -0.098048 0.416 255 255 255
0.0498763 0.175118 0.491 255 255 255
0.405115 -0.103353 0.872 255 255 255
0.402056 0.013186 0.884 255 255 255
-0.174136 -0.0603414 0.391 255 255 255
-0.100033 0.141369 0.434 255 255 255
0.0215445 0.156143 0.521 255 255 255
-0.0857994 0.0265533 0.464 255 255 255
0.0232617 -0.0433671 0.486 0 0 0
-0.0650455 0.0740262 0.478 255 255 255
-0.194035 0.00935951 0.406 255 255 255
0.0792478 0.146085 0.557 255 255 255
-0.143535 0.126563 0.444 255 255 255
-0.0772042 -0.0980944 0.425 255 255 255
-0.257519 0.112102 0.495 255 255 255
0.426814 -0.0079936 0.842 255 255 255
0.240492 0.0168682 0.852 255 255 255
-0.153544 -0.06902 0.397 255 255 255
0.110648 -0.247793 0.815 255 255 255
-0.186375 -0.0390047 0.394 255 255 255
0.398275 0.0906626 0.882 255 255 255
-0.146755 0.126124 0.445 255 255 255
0.0169328 -0.0362492 0.486 0 0 0
0.113367 0.168769 0.526 255 255 255
-0.111103 -0.0531394 0.425 255 255 255
-0.114761 0.0568918 0.459 0 0 0
0.015112 -0.14056 0.455 255 255 255
-0.104224 -0.054211 0.428 255 255 255
-0.142925 -0.0402135 0.413 255 255 255
-0.0802837 -0.0996978 0.423 0 0 0
0.12112 0.145191 0.575 255 255 255
-0.0840351 0.141569 0.439 255 255 255
0.310904 -0.0940136 0.772 255 255 255
0.0284924 0.155337 0.524 255 255 255
0.246854 0.150022 0.565 255 255 255
-0.158502 -0.139434 0.368 255 255 255
-0.182743 -0.101328 0.371 255 255 255
0.283944 0.00295046 0.837 255 255 255
-0.193901 -0.0495194 0.386 255 255 255
-0.13552 0.0603038 0.451 255 255 255
0.30568 -0.00364778 0.791 255 255 255
0.223985 0.150407 0.563 0 0 0
-0.102877 -0.145532 0.396 255 255 255
0.0729402 -0.0720944 0.889 255 255 255
0.0217308 0.181395 0.47 255 255 255
0.101944 0.00267903 0.76 255 255 255
-0.0478272 0.0109963 0.477 255 255 255
-0.0872986 -0.0749304 0.427 255 255 255
0.0884102 -0.128995 0.794 255 255 255
0.0899705 0.0242411 0.82 255 255 255
-0.0576973 -0.132363 0.424 255 255 255
0.166341 -0.020984 0.766 0 0 0
-0.0700723 0.11813 0.562 255 255 255
0.120225 -0.0493724 0.743 255 255 255
0.210732 0.121438 0.601 255 255 255
-0.125797 0.0797379 0.453 255 255 255
-0.113215 -0.0586656 0.42 255 255 255
-0.0355183 -0.0926738 0.449 255 255 255
-0.138694 -0.114179 0.388 255 255 255
0.161775 0.0601975 0.768 0 0 0
0.259317 -0.237481 0.807 255 255 255
0.141466 0.147741 0.574 255 255 255
-0.128207 0.132167 0.441 255 255 255
-0.119104 0.0367366 0.45 255 255 255
0.0112148 0.0586903 0.514 255 255 255
0.0608932 0.126896 0.59 255 255 255
0.292897 -0.172891 0.95 255 255 255
0.00633366 -0.0993306 0.463 255 255 255
-0.0562366 -0.0333424 0.457 255 255 255
0.196799 -0.0456594 0.783 255 255 255
-0.0248573 0.140921 0.534 255 255 255
0.0113586 -0.144365 0.453 255 255 255
-0.042392 0.00245768 0.477 255 255 255
-0.137546 -0.0571291 0.409 255 255 255
-0.0919482 0.152628 0.426 255 255 255
-0.060107 0.112102 0.495 255 255 255
-0.0188329 -0.108004 0.452 255 255 255
-0.0767726 -0.143303 0.408 255 255 255
-0.143747 -0.108496 0.388 255 255 255
-0.102623 -0.0296818 0.436 255 255 255
0.18834 0.195415 0.5 255 255 255
0.413009 -0.140461 0.856 255 255 255
-0.0739157 0.0727887 0.475 255 255 255
0.313884 -0.191039 0.948 255 255 255
-0.0522144 0.0558357 0.489 255 255 255
-0.0409194 0.157892 0.429 255 255 255
0.060966 0.0804882 0.676 255 255 255
-0.105565 -0.145438 0.394 255 255 255
0.310904 -0.0638624 0.772 0 0 0
-0.126911 0.0254087 0.444 255 255 255
-0.026141 -0.0177616 0.478 255 255 255
-0.163986 0.134662 0.424 255 255 255
0.12134 0.122066 0.614 255 255 255
0.289403 -0.0337582 0.803 255 255 255
0.13873 0.0812991 0.702 255 255 255
-0.154026 0.0160974 0.427 255 255 255
-0.17075 -0.0887912 0.382 255 255 255
-0.0369568 0.16081 0.477 255 255 255
0.172524 0.01159 0.777 0 0 0
-0.0806531 -0.0239373 0.448 255 255 255
0.365192 -0.205813 0.945 255 255 255
-0.192002 0.0249789 0.413 255 255 255
-0.196623 0.0828144 0.42 255 255 255
0.11464 -0.00470415 0.754 255 255 255
0.00116762 0.0483689 0.511 255 255 255
0.335075 -0.0557195 1.012 255 255 255
0.233279 -0.299329 0.79 255 255 255
-0.0756317 -0.0585951 0.44 0 0 0
0.276827 0.153591 0.568 255 255 255
0.316766 0.0850924 0.756 255 255 255
0.420688 -0.124115 0.849 255 255 255
0.111104 -0.126873 0.723 0 0 0
0.288978 0.00561359 0.828 255 255 255
-0.143014 -0.115219 0.381 255 255 255
-0.110885 0.139572 0.435 255 255 255
0.396437 -0.0144666 0.904 255 255 255
0.151947 0.0816466 0.705 255 255 255
0.0166399 0.00258134 0.501 0 0 0
-0.117056 0.136987 0.445 255 255 255
0.00336198 -0.0815374 0.469 255 255 255
0.111261 -0.164798 0.709 0 0 0
-0.000447462 -0.0989016 0.461 255 255 255
-0.0246876 -0.0100247 0.48 255 255 255
-0.180785 -0.0459406 0.393 255 255 255
0.0924829 -0.293266 0.774 255 255 255
-0.0365595 0.0126803 0.482 0 0 0
-0.16925 0.139557 0.41 255 255 255
0.275817 0.160334 0.553 255 255 255
0.0348576 0.166962 0.505 255 255 255
-0.0548454 0.115248 0.575 255 255 255
-0.128589 -0.129333 0.388 255 255 255
-0.15764 0.0589667 0.441 255 255 255
-0.190048 -0.0374351 0.391 255 255 255
0.222592 -0.106649 0.842 255 255 255
-0.0405216 0.0721911 0.492 255 255 255
-0.138331 -0.090112 0.396 255 255 255
-0.0335256 -0.115684 0.442 255 255 255
-0.146811 -0.121078 0.378 255 255 255
0.17849 0.1498 0.582 255 255 255
-0.17477 -0.00189998 0.412 255 255 255
0.406557 -0.139283 0.866 255 255 255
-0.0262649 0.032355 0.495 255 255 255
-0.0732933 0.126595 0.471 255 255 255
-0.0986638 -0.0027888 0.447 255 255 255
-0.131572 -0.0968001 0.397 255 255 255
-0.0804026 -0.130273 0.413 255 255 255
-0.129521 -0.0614214 0.411 255 255 255
-0.173106 0.0684665 0.433 255 255 255
0.0980569 -0.168391 0.74 0 0 0
0.263501 0.0763794 0.755 255 255 255
-0.158937 0.0266447 0.429 255 255 255
0.24224 -0.220409 0.807 0 0 0
-0.104412 0.131341 0.453 255 255 255
-0.0074043 -0.0446104 0.474 255 255 255
0.308069 -0.218201 0.63 0 0 0
-0.112301 0.139572 0.435 255 255 255
0.286112 -0.159491 0.591 0 0 0
-0.0765342 -0.0850551 0.429 255 255 255
-0.163424 -0.10693 0.378 255 255 255
-0.127769 0.0379465 0.447 255 255 255
0.242821 0.125187 0.591 0 0 0
0.0357269 0.138833 0.557 255 255 255
-0.136104 0.0338489 0.441 255 255 255
-0.194125 0.124413 0.422 255 255 255
-0.241211 0.111458 0.503 255 255 255
0.225808 0.117045 0.647 0 0 0
-0.00333691 -0.145037 0.446 255 255 255
-0.196647 -0.0486379 0.384 255 255 255
-0.0893829 0.028003 0.463 255 255 255
-0.116199 0.156492 0.416 255 255 255
-0.0780062 -0.138337 0.411 255 255 255
-0.122382 0.113645 0.567 255 255 255
-0.156633 -0.122559 0.375 255 255 255
0.161437 0.145064 0.582 0 0 0
-0.176346 -0.0921673 0.378 255 255 255
-0.183933 0.00745011 0.41 255 255 255
0.100172 -0.0754612 0.775 0 0 0
0.418711 0.106843 0.862 255 255 255
-0.0208675 -0.0147728 0.482 255 255 255
-0.059058 -0.0973466 0.434 255 255 255
-0.0299716 0.177195 0.465 255 255 255
0.154387 0.144613 0.584 255 255 255
0.0740941 -0.234854 0.807 255 255 255
0.0981884 -0.142747 0.732 0 0 0
0.207623 0.143662 0.584 255 255 255
-0.231205 0.10926 0.508 255 255 255
-0.177075 -0.01439 0.405 255 255 255
0.145929 -0.260094 0.812 255 255 255
0.222462 -0.24384 0.802 0 0 0
-0.0791242 -0.00952351 0.456 255 255 255
-0.0790398 -0.143922 0.406 255 255 255
-0.0979361 -0.0071533 0.447 255 255 255
-0.0353328 -0.147886 0.429 255 255 255
-0.0646373 0.125351 0.475 255 255 255
-0.00434531 -0.0433402 0.477 255 255 255
-0.223009 0.120739 0.426 255 255 255
-0.027813 0.000129785 0.48 255 255 255
-0.0991086 -0.0695741 0.424 0 0 0
0.180459 0.0129702 0.784 0 0 0
0.334342 -0.161822 0.967 255 255 255
-0.187822 -0.0363475 0.393 255 255 255
0.106384 -0.11876 0.731 0 0 0
-0.132326 0.0122355 0.438 255 255 255
0.217453 0.187513 0.521 255 255 255
-0.105565 0.0403709 0.458 255 255 255
0.111563 -0.253487 0.812 255 255 255
-0.148923 -0.0426941 0.411 255 255 255
0.0800281 0.098851 0.652 0 0 0
0.160106 0.0587942 0.766 0 0 0
-0.0729444 0.119583 0.556 255 255 255
0.121606 0.104316 0.653 255 255 255
-0.154386 0.133147 0.428 255 255 255
0.148803 0.0846056 0.701 255 255 255
-0.0747452 -0.0606051 0.439 255 255 255
-0.105191 -0.0774324 0.418 255 255 255
0.272472 -0.189435 0.61 255 255 255
-0.172003 0.0774475 0.432 255 255 255
-0.14916 0.013318 0.427 255 255 255
0.271524 0.137145 0.597 255 255 255
0.0113586 -0.146576 0.453 255 255 255
0.184034 -0.304646 0.811 255 255 255
0.265732 0.149894 0.568 255 255 255
-0.17827 -0.11009 0.368 255 255 255
-0.0214659 -0.156992 0.431 255 255 255
-0.167148 0.0537932 0.434 255 255 255
0.0191261 -0.170782 0.445 255 255 255
-0.0556267 -0.134433 0.424 255 255 255
-0.10308 0.11506 0.474 255 255 255
0.318164 -0.288915 0.871 255 255 255
0.00493055 -0.0722264 0.473 255 255 255
0.0590863 0.160147 0.523 255 255 255
-0.111267 0.0712386 0.46 255 255 255
-0.0502252 0.0994222 0.598 255 255 255
0.218643 -0.0639856 0.822 255 255 255
0.0162287 -0.168609 0.445 255 255 255
-0.11425 0.0459288 0.454 255 255 255
-0.209341 0.121147 0.425 255 255 255
0.258786 -0.222706 0.64 0 0 0
-0.148033 -0.10354 0.386 255 255 255
-0.16476 0.0222989 0.426 255 255 255
-0.15187 -0.101489 0.383 255 255 255
-0.0885346 -0.00281376 0.451 255 255 255
-0.00191871 -0.122519 0.454 255 255 255
0.107988 0.0570218 0.759 255 255 255
-0.101058 -0.0924096 0.415 255 255 255
-0.180371 0.145104 0.405 255 255 255
-0.13142 0.133908 0.435 255 255 255
0.327369 -0.207341 0.938 255 255 255
0.281638 -0.282105 0.785 255 255 255
0.19371 0.131973 0.609 0 0 0
-0.0757923 -0.109503 0.421 255 255 255
0.197848 -0.298322 0.819 0 0 0
-0.143286 -0.032382 0.416 0 0 0
-0.147366 0.0248365 0.434 255 255 255
0.205057 0.183477 0.524 255 255 255
-0.103721 0.1334 0.45 255 255 255
0.138404 0.0876422 0.689 255 255 255
-0.0675264 0.13424 0.463 255 255 255
-0.193091 -0.0968399 0.37 255 255 255
0.278163 -0.157638 0.942 255 255 255
-0.146641 -0.0335738 0.414 0 0 0
-0.14012 0.154881 0.403 255 255 255
0.0900417 -0.106137 0.797 255 255 255
0.125627 0.0994398 0.663 255 255 255
0.400221 0.029404 0.896 255 255 255
-0.112016 0.0727358 0.46 255 255 255
0.0923373 0.103677 0.649 255 255 255
-0.0682842 -0.132892 0.417 0 0 0
0.266372 -0.192367 0.626 0 0 0
0.0477862 0.177289 0.486 255 255 255
-0.155929 -0.125401 0.369 255 255 255
-0.140525 -0.144301 0.376 255 255 255
-0.155195 -0.0747199 0.393 255 255 255
0.0143497 -0.0622297 0.479 255 255 255
0.195153 -0.222288 0.86 0 0 0
0.245717 0.104309 0.688 255 255 255
0.0789554 -0.241531 0.803 255 255 255
0.124753 0.150287 0.566 255 255 255
0.421832 -0.0724795 0.843 255 255 255
0.0981118 0.150346 0.556 255 255 255
-0.196042 -0.0141413 0.398 255 255 255
0.246398 0.164128 0.536 255 255 255
0.262475 0.128711 0.603 0 0 0
-0.154324 0.00701452 0.424 255 255 255
0.34983 -0.142249 0.984 255 255 255
0.412661 -0.303428 0.822 255 255 255
-0.196277 -0.0247726 0.392 0 0 0
-0.140866 0.0634061 0.447 255 255 255
0.288326 -0.0222167 0.811 255 255 255
-0.193889 0.0759796 0.42 255 255 255
0.306638 -0.118613 0.974 255 255 255
-0.0176687 -0.0874584 0.46 255 255 255
-0.161192 0.119546 0.453 255 255 255
-0.0906939 0.0294461 0.462 255 255 255
-0.213725 0.0458103 0.407 255 255 255
0.100607 0.156241 0.545 255 255 255
-0.0803388 0.130473 0.463 255 255 255
-0.0467921 -0.0668131 0.452 255 255 255
0.0170674 -0.104211 0.468 0 0 0
-0.0172998 0.151286 0.516 255 255 255
-0.128498 0.131748 0.442 255 255 255
0.28293 -0.195071 0.609 255 255 255
-0.0806176 0.11659 0.559 255 255 255
-0.0251733 -0.109719 0.447 255 255 255
0.183578 0.176339 0.536 255 255 255
-0.138891 0.149315 0.413 255 255 255
0.17118 0.182708 0.517 255 255 255
-0.0880627 0.071716 0.468 255 255 255
-0.0361803 -0.00608091 0.477 0 0 0
-0.122975 -0.034992 0.423 0 0 0
-0.0690174 0.0161199 0.468 255 255 255
0.221432 -0.215396 0.803 255 255 255
0.220399 -0.213047 0.804 255 255 255
0.0624819 0.0621571 0.793 255 255 255
0.0256105 -0.10028 0.471 0 0 0
-0.178515 -0.107365 0.371 255 255 255
-0.040979 0.108838 0.591 255 255 255
-0.206596 -0.01262 0.391 255 255 255
0.309498 -0.042881 1.02 0 0 0
-0.0887341 -0.139613 0.405 255 255 255
-0.0551866 -0.00367354 0.467 255 255 255
0.171146 0.125675 0.617 255 255 255
-0.0392861 -0.00297597 0.477 255 255 255
-0.138181 -0.0176148 0.419 255 255 255
0.235687 0.122095 0.59 0 0 0
-0.096824 -0.137612 0.403 255 255 255
0.0827901 -0.142274 0.842 255 255 255
0.164735 -0.30183 0.807 255 255 255
-0.0629736 0.0704304 0.48 255 255 255
-0.163911 -0.0225741 0.41 255 255 255
-0.00380826 0.0539778 0.509 0 0 0
-0.00529271 0.121178 0.581 255 255 255
-0.0395217 -0.0735955 0.453 255 255 255
0.414083 -0.0646667 0.867 255 255 255
0.233611 0.187382 0.523 0 0 0
0.369993 -0.237355 0.93 255 255 255
0.209395 -0.240762 0.861 0 0 0
-0.206143 0.139407 0.4 255 255 255
0.0671306 -0.12594 0.852 255 255 255
0.350233 -0.208226 0.942 255 255 255
0.243315 0.00869979 0.867 255 255 255
0.168906 0.153742 0.572 255 255 255
0.207522 0.17929 0.537 255 255 255
-0.132248 -0.0799003 0.403 255 255 255
0.21293 0.097874 0.698 0 0 0
0.289906 -0.191467 0.607 255 255 255
0.213551 -0.109599 0.823 255 255 255
-0.0539256 0.0156209 0.476 255 255 255
-0.153581 -0.123169 0.375 255 255 255
-0.134158 0.0114964 0.437 255 255 255
0.313969 -0.0508291 1.013 255 255 255
0.146358 -0.0549384 0.753 255 255 255
0.227527 -0.00117511 0.866 0 0 0
-0.17075 -0.0875479 0.382 255 255 255
0.226144 0.195173 0.51 255 255 255
-0.146732 -0.00126533 0.424 255 255 255
0.286695 -0.204468 0.925 255 255 255
-0.081092 0.117463 0.538 255 255 255
0.020029 -0.159165 0.449 0 0 0
0.0116094 -0.112139 0.463 255 255 255
-0.0123384 -0.00145036 0.486 255 255 255
-0.0908852 0.113315 0.483 255 255 255
-0.121766 -0.026228 0.426 255 255 255
0.112115 0.177922 0.461 255 255 255
-0.177188 -0.124125 0.367 255 255 255
-0.179914 -0.0653921 0.387 255 255 255
0.0239999 -0.139819 0.455 0 0 0
-0.0561864 0.132927 0.469 255 255 255
0.229402 0.181424 0.533 0 0 0
-0.0635486 0.00696593 0.467 255 255 255
0.296192 -0.157301 0.59 255 255 255
-0.112203 0.0022825 0.443 255 255 255
-0.0883877 0.111997 0.568 255 255 255
-0.10383 0.153163 0.418 255 255 255
-0.172284 -0.0369949 0.4 255 255 255
0.0266252 -0.117912 0.462 0 0 0
0.124213 0.0175203 0.76 255 255 255
-0.152752 -0.112764 0.379 255 255 255
-0.0195254 -0.104095 0.451 255 255 255
0.225358 -0.279703 0.827 255 255 255
0.128813 0.159776 0.548 255 255 255
0.136528 0.131323 0.606 255 255 255
0.358659 -0.208668 0.944 255 255 255
-0.125562 -0.0737685 0.409 255 255 255
-0.143366 0.111502 0.472 255 255 255
-0.131722 0.133507 0.436 255 255 255
-0.0908942 -0.148955 0.4 255 255 255
0.151031 -0.0392675 0.758 0 0 0
-0.173115 -0.106082 0.375 255 255 255
0.0984306 0.145826 0.563 255 255 255
0.0712498 0.115882 0.613 255 255 255
-0.10218 0.113459 0.477 255 255 255
-0.19343 -0.0261813 0.394 0 0 0
0.0738579 -0.182995 0.834 255 255 255
0.279379 0.146706 0.581 255 255 255
-0.0716346 -0.152972 0.409 0 0 0
0.353338 -0.178391 0.963 255 255 255
0.168885 -0.294315 0.808 255 255 255
0.154574 0.127269 0.615 255 255 255
-0.180096 0.0217231 0.415 255 255 255
0.147829 -0.0984025 0.73 255 255 255
0.122023 -0.121322 0.718 255 255 255
-0.163992 0.12683 0.435 255 255 255
0.253472 0.0634318 0.777 255 255 255
0.0927106 0.110894 0.63 255 255 255
0.0247933 0.157773 0.518 255 255 255
-0.0637818 0.120173 0.563 255 255 255
-0.104756 0.0518883 0.461 0 0 0
-0.082074 0.0624757 0.473 255 255 255
0.106681 -0.163157 0.717 0 0 0
0.0892967 0.137705 0.575 255 255 255
-0.0493246 -0.0494861 0.455 255 255 255
-0.0551602 0.0360612 0.48 255 255 255
-0.0363671 0.165001 0.433 255 255 255
-0.0111988 0.0462488 0.506 255 255 255
-0.0965124 -0.145336 0.399 255 255 255
-0.167232 0.130751 0.427 255 255 255
0.425053 0.0364067 0.855 255 255 255
0.00545947 -0.139942 0.453 255 255 255
0.129661 -0.139431 0.715 0 0 0
0.244417 -0.270605 0.753 255 255 255
0.0592856 0.0725715 0.695 255 255 255
0.00684543 0.129559 0.568 255 255 255
-0.123142 -0.101833 0.399 255 255 255
0.105775 0.142821 0.573 255 255 255
-0.0169796 0.000916596 0.483 255 255 255
-0.103479 0.0783148 0.462 255 255 255
0.0734028 0.0861868 0.669 255 255 255
-0.179048 0.0737716 0.427 255 255 255
0.200052 -0.241038 0.857 0 0 0
-0.0747502 0.162394 0.419 255 255 255
0.401789 -0.0230098 0.893 255 255 255
-0.0295849 -0.0626192 0.459 255 255 255
-0.0330829 -0.152756 0.427 255 255 255
0.410474 -0.288907 0.815 255 255 255
0.067409 0.155986 0.535 255 255 255
-0.19834 0.00931341 0.404 255 255 255
0.348769 -0.0781528 1.004 255 255 255
0.15754 0.178529 0.522 255 255 255
-0.00428154 -0.0710035 0.47 255 255 255
-0.19509 -0.0719079 0.375 255 255 255
0.210475 0.0954138 0.705 255 255 255
0.248305 0.159495 0.544 255 255 255
0.170598 -0.00356938 0.774 0 0 0
0.25726 0.163821 0.535 255 255 255
-0.129406 -0.00129219 0.433 255 255 255
0.0348977 -0.129189 0.462 255 255 255
0.180113 -0.0250786 0.777 0 0 0
0.425133 -0.0460291 0.836 255 255 255
-0.156922 0.0668609 0.441 255 255 255
0.261396 -0.26313 0.778 255 255 255
-0.164116 -0.0591798 0.396 255 255 255
-0.041757 0.148647 0.507 255 255 255
0.331095 0.0886657 0.755 0 0 0
-0.00638084 -0.101539 0.456 255 255 255
-0.175918 -0.0461744 0.395 255 255 255
-0.0333877 0.147657 0.518 255 255 255
-0.0373406 -0.146845 0.428 255 255 255
0.389323 -0.166725 0.908 255 255 255
0.00892435 -0.16963 0.442 255 255 255
0.264438 0.131654 0.603 0 0 0
0.197747 0.107476 0.666 0 0 0
0.15139 0.162748 0.549 255 255 255
-0.140644 0.0492524 0.444 255 255 255
-0.0450109 0.119601 0.569 255 255 255
-0.00155127 0.112857 0.597 255 255 255
0.413598 -0.152046 0.843 255 255 255
-0.0162766 -0.0842616 0.463 255 255 255
0.249047 0.190567 0.511 255 255 255
-0.0416952 0.0326246 0.487 255 255 255
-0.0286825 -0.11647 0.445 255 255 255
0.402644 -0.122779 0.879 255 255 255
0.0718651 0.145822 0.556 255 255 255
0.254652 0.155553 0.552 255 255 255
-0.172197 -0.098672 0.377 255 255 255
-0.031767 -0.151721 0.428 255 255 255
-0.139514 0.115473 0.558 255 255 255
-0.102318 -0.0666566 0.423 255 255 255
-0.0917964 -0.0108387 0.449 255 255 255
0.418029 -0.153753 0.83 255 255 255
-0.0933969 0.14273 0.436 255 255 255
-0.00547611 0.0491042 0.51 0 0 0
0.326031 -0.026411 1.025 255 255 255
0.0512997 0.146667 0.549 255 255 255
-0.180575 -0.130451 0.363 255 255 255
-0.20216 0.109722 0.449 255 255 255
-0.189316 0.085269 0.422 255 255 255
-0.181265 -0.111887 0.368 255 255 255
0.269452 0.166433 0.535 255 255 255
0.213828 0.11635 0.649 0 0 0
-0.202792 -0.0127814 0.396 255 255 255
0.00520158 0.163354 0.499 255 255 255
-0.00879644 -0.0787409 0.466 255 255 255
-0.146651 -0.0967485 0.389 255 255 255
0.0315035 -0.0692451 0.479 255 255 255
-0.00159024 0.106729 0.612 255 255 255
-0.0185015 0.0451561 0.503 0 0 0
-0.0199484 0.112479 0.595 255 255 255
-0.184529 -0.00843749 0.404 255 255 255
-0.0850749 -0.050373 0.437 255 255 255
0.0495393 0.0962901 0.642 255 255 255
0.219551 0.191685 0.514 255 255 255
-0.0452839 0.0284266 0.483 0 0 0
-0.0744392 0.1551 0.429 255 255 255
-0.0187778 -0.0525352 0.469 255 255 255
-0.0735243 -0.0312974 0.449 255 255 255
0.129648 -0.0827318 0.728 0 0 0
-0.174436 0.0156828 0.416 255 255 255
-0.178211 -0.134586 0.363 255 255 255
-0.139293 -0.118319 0.381 255 255 255
0.122109 0.079352 0.705 255 255 255
-0.149141 0.0247792 0.433 255 255 255
-0.0433922 -0.0113697 0.471 255 255 255
0.109367 -0.0801845 0.76 0 0 0
-0.0167727 -0.0926344 0.456 255 255 255
-0.144516 -0.110164 0.385 255 255 255
0.136877 -0.0727625 0.735 0 0 0
-0.0687917 0.0451507 0.477 255 255 255
-0.111149 -0.111273 0.405 255 255 255
0.28878 0.13284 0.613 255 255 255
-0.188365 -0.100181 0.369 255 255 255
-0.199358 0.049324 0.42 255 255 255
-0.117271 0.157467 0.415 255 255 255
0.404075 0.011681 0.879 255 255 255
0.285765 -0.132975 0.952 255 255 255
0.00518073 -0.00552709 0.497 255 255 255
-0.0227332 -0.125754 0.442 255 255 255
0.0106212 -0.145102 0.453 255 255 255
-0.0480847 0.15088 0.437 255 255 255
0.209963 -0.288822 0.83 0 0 0
0.0575345 0.174933 0.495 255 255 255
0.224605 -0.212002 0.805 255 255 255
0.023617 -0.11716 0.462 0 0 0
-0.158479 -0.00799189 0.415 255 255 255
-0.143281 0.138112 0.424 255 255 255
0.014443 0.105422 0.616 255 255 255
0.303082 -0.192582 0.948 255 255 255
-0.204225 0.123331 0.423 255 255 255
0.279206 0.0459808 0.827 0 0 0
-0.14759 0.0733197 0.441 255 255 255
0.0726782 -0.138418 0.852 255 255 255
-0.0126031 -0.146666 0.44 255 255 255
0.306241 0.138599 0.612 255 255 255
-0.0387438 0.14455 0.522 255 255 255
-0.142127 -0.131188 0.377 255 255 255
-0.125336 0.130892 0.454 255 255 255
-0.060377 0.024243 0.478 255 255 255
-0.139756 -0.00197377 0.428 255 255 255
0.197355 0.137605 0.599 255 255 255
-0.063236 0.0589583 0.482 255 255 255
0.321652 -0.016435 1.027 0 0 0
0.124624 0.000204141 0.755 255 255 255
-0.0519932 -0.156643 0.417 255 255 255
0.124706 0.148567 0.57 255 255 255
0.413598 -0.158905 0.843 255 255 255
-0.203374 0.11728 0.439 255 255 255
0.116706 -0.255815 0.811 255 255 255
-0.214339 0.0745324 0.412 255 255 255
-0.123728 0.151024 0.414 255 255 255
-0.191666 0.115986 0.445 255 255 255
-0.0746678 0.0238373 0.47 255 255 255
-0.176467 0.0197446 0.416 255 255 255
-0.171639 -0.0457622 0.397 255 255 255
-0.179188 0.131363 0.429 255 255 255
-0.210326 0.0603627 0.416 0 0 0
-0.230104 0.112984 0.475 255 255 255
-0.153478 0.120753 0.452 255 255 255
0.298372 -0.127921 0.583 0 0 0
-0.186569 0.0777149 0.422 255 255 255
-0.0567154 -0.118012 0.427 255 255 255
-0.151961 0.0254839 0.433 255 255 255
0.270808 -0.232999 0.634 255 255 255
0.268059 -0.233444 0.83 255 255 255
0.317325 -0.263374 0.905 255 255 255
0.0345082 0.149856 0.538 255 255 255
-0.0937797 0.136452 0.448 255 255 255
0.187317 -0.0202528 0.786 255 255 255
-0.165367 0.0290941 0.424 255 255 255
-0.184859 -0.109491 0.368 255 255 255
0.156902 -0.232248 0.821 255 255 255
0.0212752 -0.0159767 0.495 0 0 0
0.242976 0.182275 0.523 255 255 255
-0.122624 -0.0173371 0.429 255 255 255
-0.126754 0.00153692 0.436 255 255 255
0.223017 0.0512439 0.804 0 0 0
0.308932 -0.265437 0.902 255 255 255
0.0546678 0.059501 0.792 255 255 255
-0.0844909 -0.0634461 0.434 255 255 255
0.0652058 0.143482 0.561 255 255 255
0.346443 -0.0812582 1.002 255 255 255
-0.10376 -0.0924096 0.415 255 255 255
0.0994206 -0.286287 0.779 255 255 255
0.388902 0.0969417 0.849 255 255 255
0.278549 0.154345 0.564 255 255 255
