ply
format ascii 1.0
comment Created by Open3D
element vertex 1295
property double x
property double y
property double z
property uchar red
property uchar green
property uchar blue
end_header
0.179828 -0.252298 0.804 255 255 255
0.194808 0.135803 0.622 255 255 255
0.00470123 -0.107031 0.451 255 255 255
-0.193471 -0.00521403 0.409 255 255 255
0.0429288 -0.0726845 0.476 255 255 255
-0.191609 -0.0701612 0.389 255 255 255
-0.086827 -0.0100404 0.446 255 255 255
-0.209064 0.114905 0.461 255 255 255
0.288271 0.0832877 0.762 255 255 255
-0.107007 0.126908 0.461 255 255 255
-0.196367 0.132076 0.418 255 255 255
0.140336 0.088151 0.693 0 0 0
-0.0308761 0.147794 0.456 255 255 255
-0.0886887 -0.0742356 0.427 255 255 255
-0.0656304 -0.0291702 0.45 0 0 0
0.00851842 0.0811721 0.503 255 255 255
-0.17176 0.115721 0.534 255 255 255
0.244293 0.0725619 0.78 255 255 255
-0.0865511 -0.0955734 0.42 255 255 255
-0.181705 -0.0603159 0.395 255 255 255
-0.0817654 -0.100358 0.42 255 255 255
0.0829743 0.0271147 0.518 255 255 255
0.214341 -0.0354262 0.755 255 255 255
-0.149509 -0.00197377 0.428 255 255 255
-0.213359 0.0605466 0.422 0 0 0
-0.0534725 0.0208663 0.472 255 255 255
0.0120106 -0.0341681 0.479 255 255 255
0.051178 -0.160583 0.453 255 255 255
0.143147 0.119944 0.64 255 255 255
0.191105 -0.232631 0.813 255 255 255
-0.0425401 0.118407 0.586 255 255 255
-0.0440671 0.141468 0.462 255 255 255
-0.23505 0.113375 0.449 255 255 255
-0.0646256 -0.149038 0.411 0 0 0
0.207206 0.0816482 0.747 255 255 255
-0.149989 0.0538289 0.446 255 255 255
0.0197664 -0.0434311 0.478 0 0 0
0.00518073 0.0300593 0.497 255 255 255
0.171431 -0.118892 0.882 255 255 255
0.0656126 0.127643 0.598 255 255 255
-0.0451766 0.143225 0.458 255 255 255
0.0977347 0.11402 0.636 255 255 255
0.224194 0.0504606 0.772 255 255 255
-0.116002 0.080618 0.458 255 255 255
-0.0759881 0.141546 0.455 255 255 255
0.236167 0.032617 0.766 0 0 0
-0.0891723 -0.133017 0.407 255 255 255
-0.101239 0.135464 0.452 255 255 255
-0.188782 -0.1291 0.371 255 255 255
-0.13664 -0.146121 0.384 255 255 255
0.0523167 -0.0644546 0.484 255 255 255
-0.119765 0.0197611 0.447 255 255 255
-0.209136 0.135884 0.411 255 255 255
0.322349 -0.202645 0.794 255 255 255
-0.101869 -0.0640542 0.424 255 255 255
-0.121373 0.0812123 0.453 255 255 255
0.0140239 -0.140052 0.444 255 255 255
0.173251 0.0502646 0.769 255 255 255
-0.0399036 -0.0619856 0.449 255 255 255
-0.0846776 0.0309498 0.462 255 255 255
0.184986 -0.129154 0.736 0 0 0
0.0516353 -0.0630092 0.485 255 255 255
-0.204978 0.143604 0.399 255 255 255
0.0429288 -0.0734591 0.476 255 255 255
-0.0192051 0.122185 0.5 255 255 255
-0.0162946 -0.108016 0.443 255 255 255
-0.12454 0.149855 0.426 255 255 255
0.221815 -0.26206 0.814 255 255 255
0.0403824 0.11707 0.614 255 255 255
-0.139958 -0.123019 0.388 255 255 255
0.00678509 0.0267702 0.496 255 255 255
-0.0727055 0.148962 0.444 255 255 255
-0.117157 -0.0704612 0.417 255 255 255
0.247285 -0.149515 0.736 255 255 255
0.188444 0.140661 0.608 255 255 255
0.267322 0.0694592 0.788 255 255 255
0.256379 0.141317 0.624 255 255 255
-0.108352 -0.00491545 0.442 255 255 255
0.325967 -0.169751 0.816 255 255 255
0.302443 0.126244 0.651 255 255 255
0.385131 -0.157144 0.93 255 255 255
0.315412 -0.0692983 0.806 255 255 255
0.0969241 0.133705 0.599 255 255 255
-0.121578 0.0145379 0.443 255 255 255
0.00111507 0.00251436 0.488 255 255 255
0.0323915 0.169428 0.505 255 255 255
-0.0798665 0.138147 0.456 255 255 255
-0.13465 0.00364865 0.434 255 255 255
0.322154 -0.289199 0.76 255 255 255
-0.0699593 -0.156198 0.407 255 255 255
-0.183958 0.12947 0.432 255 255 255
0.0787362 -0.114754 0.477 0 0 0
-0.125142 -0.0743096 0.412 255 255 255
-0.0368153 -0.0704385 0.447 255 255 255
-0.145255 -0.138522 0.382 255 255 255
0.177421 0.191996 0.506 255 255 255
-0.127326 -0.135647 0.388 255 255 255
-0.152313 0.115447 0.521 255 255 255
-0.185237 -0.0210843 0.407 255 255 255
-0.0312716 -0.0740045 0.451 255 255 255
-0.194403 -0.0729494 0.387 255 255 255
-0.0795729 0.147572 0.442 255 255 255
-0.0664385 0.115384 0.595 255 255 255
0.0271551 -0.158827 0.446 255 255 255
-0.200595 0.0709921 0.427 255 255 255
-0.124702 -0.0640452 0.415 255 255 255
-0.103933 -0.0993572 0.413 255 255 255
0.0816871 0.0634844 0.526 255 255 255
-0.0539602 -0.00288862 0.463 255 255 255
0.384842 0.0399147 0.787 255 255 255
0.211407 0.112224 0.675 255 255 255
-0.181449 -0.0412073 0.403 255 255 255
-0.00122127 -0.0442339 0.47 255 255 255
0.237724 -0.0160187 0.767 255 255 255
0.162202 0.10469 0.676 255 255 255
0.328811 -0.306013 0.794 255 255 255
0.264084 0.0206778 0.786 255 255 255
-0.148257 0.110237 0.55 255 255 255
-0.00930611 0.129299 0.493 255 255 255
0.0728369 0.118838 0.618 255 255 255
0.160357 0.146594 0.592 255 255 255
-0.135213 -0.0712801 0.41 255 255 255
0.0404494 0.176633 0.493 255 255 255
-0.0857878 0.000857767 0.452 255 255 255
0.0938788 -0.0957614 0.483 255 255 255
0.0976322 0.188317 0.49 255 255 255
-0.154352 0.1179 0.54 255 255 255
0.242706 -0.0954467 0.744 255 255 255
-0.197158 0.113143 0.463 255 255 255
-0.176125 0.122779 0.446 255 255 255
-0.0989483 0.0230765 0.455 255 255 255
-0.138154 -0.145741 0.383 255 255 255
-0.161845 -0.113954 0.383 255 255 255
0.0698553 -0.0857932 0.48 255 255 255
-0.102775 0.118308 0.515 255 255 255
0.262905 0.198067 0.522 255 255 255
0.214654 -0.137871 0.719 0 0 0
-0.182587 -0.0283698 0.407 0 0 0
0.131231 0.123855 0.623 255 255 255
-0.0884288 -0.0438721 0.436 255 255 255
-0.0620862 -0.11978 0.421 255 255 255
0.0544367 -0.0879914 0.475 255 255 255
0.251882 0.0229403 0.776 0 0 0
-0.0438147 -0.120941 0.43 255 255 255
0.118443 0.185346 0.497 255 255 255
-0.172985 -0.093732 0.387 255 255 255
0.283601 0.114089 0.693 0 0 0
0.077667 0.0392166 0.522 255 255 255
0.299768 -0.220481 0.817 255 255 255
0.363994 0.031815 0.809 255 255 255
0.468897 -0.169433 0.931 255 255 255
0.186437 -0.0345816 0.737 255 255 255
0.168134 -0.170033 0.837 255 255 255
0.0271404 0.129116 0.587 255 255 255
0.235271 -0.206279 0.824 255 255 255
0.143437 0.0702749 0.844 255 255 255
-0.0211706 0.0431035 0.489 255 255 255
-0.187873 -0.11858 0.374 255 255 255
0.0815761 0.139847 0.58 255 255 255
-0.0929685 -0.0486146 0.434 255 255 255
0.278676 0.174045 0.548 255 255 255
-0.142763 -0.110174 0.394 255 255 255
0.0473819 -0.0365475 0.49 255 255 255
-0.13852 -0.0771916 0.406 255 255 255
0.0427178 0.129034 0.591 255 255 255
-0.0738495 0.127726 0.556 255 255 255
-0.00918592 -0.107048 0.448 255 255 255
-0.0105494 0.158355 0.444 255 255 255
-0.200131 -0.0207735 0.401 255 255 255
0.156208 0.17834 0.529 255 255 255
-0.00418133 -0.0753172 0.459 255 255 255
-0.203115 0.0526776 0.425 255 255 255
0.348843 0.0863305 0.767 255 255 255
-0.0265238 0.130358 0.485 255 255 255
0.214389 0.135007 0.623 255 255 255
0.207645 0.0361667 0.762 255 255 255
-0.128923 -0.0846673 0.407 255 255 255
0.30454 -0.254164 0.845 255 255 255
-0.182394 -0.124666 0.374 255 255 255
-0.194812 0.0406313 0.422 255 255 255
-0.0183985 0.13732 0.479 255 255 255
-0.190594 -0.121855 0.371 255 255 255
0.325625 -0.22153 0.655 0 0 0
0.167907 -0.137518 0.791 255 255 255
-0.0351189 -0.108189 0.435 255 255 255
-0.0220564 0.0472748 0.491 255 255 255
-0.16996 0.00284747 0.42 255 255 255
0.0313062 0.184486 0.476 255 255 255
-0.00570039 -0.0688936 0.461 255 255 255
-0.18438 -0.0484682 0.398 255 255 255
0.0824895 -0.157481 0.459 0 0 0
0.134849 0.155627 0.562 255 255 255
-0.177629 0.0507332 0.432 255 255 255
0.00396709 -0.106297 0.451 255 255 255
0.24993 -0.298464 0.798 255 255 255
0.375673 0.0642476 0.803 255 255 255
-0.120551 0.16094 0.417 255 255 255
-0.0996948 -0.124147 0.404 255 255 255
-0.103655 0.117188 0.503 255 255 255
0.200271 -0.107898 0.722 255 255 255
-0.161353 0.0154387 0.428 255 255 255
-0.173312 0.152444 0.407 255 255 255
0.00110364 0.143183 0.483 255 255 255
0.0408142 0.0625188 0.518 0 0 0
0.0653248 0.184786 0.487 255 255 255
-0.01575 0.124442 0.583 255 255 255
-0.0887312 -0.146429 0.402 255 255 255
-0.0403941 0.140267 0.463 255 255 255
0.18803 0.171682 0.549 255 255 255
0.02451 0.110614 0.617 255 255 255
-0.0782242 0.0547785 0.473 0 0 0
0.276465 0.150281 0.573 0 0 0
-0.0206213 -0.10297 0.443 255 255 255
-0.0798183 0.0158444 0.46 255 255 255
0.295958 -0.242646 0.848 0 0 0
0.0460853 0.0284114 0.511 255 255 255
-0.0968243 0.0111555 0.452 255 255 255
0.364816 0.0211777 0.805 255 255 255
0.0184168 0.0445138 0.505 255 255 255
0.187042 -0.135229 0.73 0 0 0
-0.0869705 -0.140618 0.406 255 255 255
-0.0828417 -0.0932816 0.422 255 255 255
0.0668698 -0.124543 0.47 255 255 255
0.19889 -0.2493 0.807 255 255 255
0.262652 -0.215151 0.843 255 255 255
-0.181107 0.125279 0.437 255 255 255
-0.19573 0.0793306 0.427 255 255 255
-0.216876 0.0310277 0.413 255 255 255
-0.132168 -0.0597041 0.413 255 255 255
0.161106 -0.0244652 0.843 255 255 255
-0.135318 0.111537 0.552 255 255 255
0.364109 0.119041 0.716 255 255 255
-0.207292 0.0121205 0.41 255 255 255
0.282347 0.0186499 0.809 255 255 255
0.00116305 0.132667 0.509 255 255 255
0.240503 -0.0443182 0.76 0 0 0
0.109169 0.134375 0.602 255 255 255
-0.0613993 0.134928 0.468 255 255 255
-0.148437 0.0163236 0.433 255 255 255
0.279166 0.155713 0.569 255 255 255
-0.1706 0.0263963 0.425 255 255 255
0.0339603 -0.0134779 0.492 255 255 255
0.32148 -0.273521 0.725 255 255 255
-0.144824 0.156418 0.407 255 255 255
0.0688338 0.177054 0.501 255 255 255
0.23977 0.0887091 0.735 255 255 255
0.0917407 -0.128913 0.472 255 255 255
-0.194074 0.0163597 0.416 255 255 255
0.43459 -0.0561759 0.991 255 255 255
0.358623 -0.137174 0.928 255 255 255
-0.0800784 0.000859665 0.453 255 255 255
-0.0160593 0.138879 0.479 255 255 255
0.116509 0.146454 0.58 255 255 255
0.0301386 0.174128 0.495 255 255 255
0.0995737 -0.155503 0.462 255 255 255
-0.208474 -0.0244425 0.397 0 0 0
-0.0911644 -0.12132 0.41 255 255 255
-0.0489654 0.120647 0.583 255 255 255
-0.191154 0.0274527 0.42 255 255 255
0.0261219 0.0650002 0.511 255 255 255
-0.0411327 -0.139263 0.424 255 255 255
0.0435139 -0.158787 0.45 255 255 255
-0.20975 0.141847 0.407 255 255 255
-0.167288 -0.125666 0.377 255 255 255
0.317631 -0.245963 0.764 255 255 255
-0.040906 -0.0550442 0.452 255 255 255
-0.0749441 -0.0580624 0.436 255 255 255
-0.0549303 0.0748041 0.478 255 255 255
-0.128071 0.113697 0.478 255 255 255
0.192191 -0.11811 0.727 255 255 255
0.0195383 -0.167383 0.438 255 255 255
-0.141015 -0.139248 0.384 255 255 255
-0.00800339 -0.0595259 0.464 255 255 255
-0.102999 -0.153132 0.394 255 255 255
-0.15001 -0.0436795 0.414 255 255 255
-0.0634893 0.0802491 0.478 255 255 255
-0.0581641 0.0492374 0.479 255 255 255
-0.0600399 -0.0779288 0.436 255 255 255
0.0897202 -0.169803 0.454 0 0 0
0.0285267 0.124307 0.596 255 255 255
-0.142591 -0.017135 0.424 255 255 255
-0.171217 0.0679864 0.439 255 255 255
-0.0306161 0.136946 0.475 255 255 255
0.0033333 0.149954 0.465 255 255 255
0.280189 0.127303 0.651 0 0 0
-0.0232972 -0.157251 0.426 255 255 255
0.254472 0.167002 0.576 255 255 255
-0.201853 -0.0617726 0.388 255 255 255
0.218809 0.0274866 0.762 255 255 255
-0.182962 0.152534 0.402 255 255 255
0.192796 0.169042 0.555 255 255 255
-0.188909 -0.0947589 0.381 255 255 255
0.070996 -0.122768 0.472 255 255 255
0.0880538 -0.11553 0.477 255 255 255
-0.0473733 -0.090197 0.437 0 0 0
0.183797 0.0650269 0.766 255 255 255
0.04789 0.104376 0.634 255 255 255
-0.0694305 -0.0930336 0.424 0 0 0
-0.0995088 -0.0908191 0.417 255 255 255
0.0837013 -0.136015 0.47 0 0 0
0.0393247 -0.121408 0.461 255 255 255
-0.0918957 -0.0306004 0.439 0 0 0
0.0123235 -0.166236 0.435 255 255 255
0.379037 -0.0627953 0.945 0 0 0
-0.13186 -0.11338 0.394 255 255 255
-0.137535 0.0504251 0.448 255 255 255
-0.104506 0.00301019 0.444 255 255 255
-0.183047 -0.0717945 0.391 255 255 255
0.073301 -0.125073 0.472 0 0 0
0.192438 0.142921 0.605 255 255 255
0.274507 -0.281682 0.821 255 255 255
-0.18381 -0.0608044 0.394 255 255 255
0.0613658 -0.174204 0.452 255 255 255
0.184934 -0.172795 0.776 0 0 0
-0.165079 0.051203 0.436 255 255 255
-0.157176 0.157504 0.403 255 255 255
0.231009 -0.144733 0.73 0 0 0
0.0142766 -0.121244 0.452 255 255 255
-0.176635 0.0082757 0.418 255 255 255
0.462806 -0.186698 0.934 255 255 255
-0.195273 0.0427927 0.423 255 255 255
-0.100275 -0.0455786 0.432 255 255 255
-0.0409176 0.00165325 0.469 255 255 255
-0.147081 -0.0909856 0.397 255 255 255
-0.181906 -0.13101 0.373 255 255 255
0.052843 0.17011 0.512 255 255 255
0.0370281 0.00339663 0.501 255 255 255
-0.108593 -0.0781127 0.418 255 255 255
-0.155698 -0.0402135 0.413 255 255 255
-0.0120084 -0.0214244 0.473 255 255 255
0.0583251 -0.15382 0.457 255 255 255
0.275844 -0.284354 0.821 255 255 255
-0.151821 0.153483 0.408 255 255 255
0.302721 -0.0704938 0.79 255 255 255
0.268052 0.139972 0.569 0 0 0
0.0606994 -0.00895616 0.508 255 255 255
-0.0698689 0.119741 0.49 255 255 255
0.0920885 -0.0765841 0.486 255 255 255
0.0735985 -0.134199 0.469 0 0 0
-0.0916755 0.0822022 0.467 255 255 255
-0.159345 -0.0367639 0.412 255 255 255
-0.123759 -0.104301 0.401 255 255 255
-0.0265131 -0.164015 0.422 255 255 255
0.143917 0.176992 0.525 255 255 255
0.325722 -0.271954 0.74 255 255 255
0.394261 -0.0368237 0.991 0 0 0
-0.0585749 0.152261 0.441 255 255 255
0.0241424 -0.161005 0.444 255 255 255
0.243016 0.153712 0.601 255 255 255
0.212018 -0.223096 0.812 255 255 255
0.228089 0.0375049 0.764 255 255 255
0.232025 -0.095748 0.737 255 255 255
0.0827918 -0.0994372 0.478 0 0 0
0.131053 0.121589 0.627 255 255 255
-0.0703903 0.0305248 0.467 255 255 255
-0.167624 0.0189211 0.428 255 255 255
0.351382 0.0940761 0.759 255 255 255
-0.0785879 -0.0863369 0.425 255 255 255
-0.0803616 -0.148547 0.406 255 255 255
-0.132735 0.0100742 0.437 255 255 255
0.217455 -0.285478 0.798 255 255 255
-0.0954017 -0.0135468 0.442 255 255 255
0.217924 -0.0862702 0.738 255 255 255
0.075531 0.0280116 0.519 255 255 255
0.3292 -0.269653 0.737 0 0 0
0.186684 -0.150612 0.724 0 0 0
-0.00447284 0.0233043 0.491 255 255 255
0.134831 0.171883 0.533 255 255 255
0.0173596 -0.165578 0.437 255 255 255
-0.0281668 -0.107264 0.437 255 255 255
-0.132709 0.147764 0.43 255 255 255
0.0168768 -0.156317 0.443 255 255 255
-0.133544 0.00578072 0.435 255 255 255
-0.0308556 -0.0918482 0.445 255 255 255
-0.173081 0.134604 0.426 255 255 255
0.446931 -0.137623 0.952 255 255 255
-0.136909 0.146364 0.43 255 255 255
0.227882 0.0545105 0.776 255 255 255
0.189211 0.184681 0.525 255 255 255
0.440828 -0.169361 0.939 255 255 255
0.249412 0.194562 0.524 255 255 255
-0.0462743 0.0288497 0.477 255 255 255
-0.177952 0.10644 0.47 255 255 255
0.0618121 -0.0427311 0.497 255 255 255
-0.082702 0.118138 0.58 255 255 255
0.0139924 -0.147666 0.443 255 255 255
-0.107932 -0.125542 0.398 255 255 255
0.0848437 0.173283 0.514 255 255 255
-0.109135 -0.148907 0.393 255 255 255
-0.132614 -0.0384338 0.423 255 255 255
0.402808 -0.278592 0.861 255 255 255
-0.180817 0.15207 0.406 255 255 255
0.232275 -0.118053 0.734 255 255 255
0.135126 0.154243 0.567 255 255 255
0.0818464 -0.0613917 0.491 0 0 0
-0.0841015 -0.0652627 0.432 255 255 255
-0.132574 -0.0921316 0.402 255 255 255
0.115125 0.178925 0.511 255 255 255
-0.214553 0.0909779 0.423 255 255 255
-0.116467 0.0429736 0.454 255 255 255
0.0241711 0.168606 0.505 255 255 255
-0.161407 -0.0959734 0.391 255 255 255
-0.0308556 -0.0896757 0.445 255 255 255
0.0621687 -0.0895374 0.475 255 255 255
0.0381367 0.0656362 0.516 255 255 255
0.0115591 0.0113651 0.493 255 255 255
-0.0978609 0.137794 0.45 255 255 255
0.224551 0.139595 0.612 255 255 255
-0.0841442 0.124841 0.476 255 255 255
-0.0584929 0.116926 0.593 255 255 255
0.199493 -0.144086 0.715 255 255 255
-0.125032 -0.0995747 0.403 255 255 255
-0.151441 0.126408 0.446 255 255 255
0.221946 -0.0282402 0.76 255 255 255
-0.0888728 -0.000609268 0.449 255 255 255
-0.0634893 0.129255 0.478 255 255 255
0.367252 -0.0151172 0.785 255 255 255
0.161348 0.0660456 0.778 255 255 255
0.0670036 0.0719071 0.525 255 255 255
-0.0934319 0.0231779 0.457 255 255 255
-0.184744 0.114143 0.464 255 255 255
0.40732 0.0399595 0.814 255 255 255
-0.145729 -0.074839 0.404 255 255 255
-0.185845 -0.0353926 0.404 255 255 255
-0.00197366 -0.0530711 0.467 255 255 255
0.22226 -0.271289 0.806 255 255 255
0.0635577 -0.0411962 0.498 255 255 255
0.0593275 -0.153746 0.459 255 255 255
-0.121752 -0.100231 0.403 255 255 255
0.0559691 0.10816 0.632 255 255 255
-0.0292775 -0.0241407 0.466 255 255 255
-0.0451902 0.0840582 0.482 255 255 255
-0.135668 0.00932016 0.435 255 255 255
0.259796 -0.00611208 0.777 255 255 255
-0.0770641 -0.0485707 0.44 255 255 255
-0.0673798 0.0623583 0.478 255 255 255
-0.192284 0.131902 0.424 255 255 255
0.0412683 -0.107558 0.466 255 255 255
-0.110058 0.0312213 0.455 255 255 255
-0.118155 -0.0494475 0.423 255 255 255
0.0558652 -0.0901202 0.474 255 255 255
0.0341674 -0.00872696 0.495 255 255 255
-0.0820413 -0.0545148 0.436 255 255 255
0.167369 0.00269666 0.765 0 0 0
0.0588117 0.177971 0.499 255 255 255
-0.0239906 -0.157251 0.426 255 255 255
-0.214488 0.0268644 0.411 255 255 255
-0.0769236 -0.12445 0.416 255 255 255
0.0837013 -0.133721 0.47 0 0 0
0.401282 -0.127045 0.954 255 255 255
0.322023 -0.270941 0.703 255 255 255
0.164239 0.125347 0.641 255 255 255
0.00748533 -0.00145931 0.489 255 255 255
-0.211695 0.123146 0.437 255 255 255
0.193311 -0.0252581 0.745 255 255 255
-0.216047 0.114365 0.468 255 255 255
0.0165844 -0.0525447 0.476 255 255 255
0.257156 0.139902 0.609 0 0 0
-0.0246036 0.0652495 0.494 255 255 255
-0.105817 -0.0511847 0.426 255 255 255
-0.0703903 0.0282449 0.467 255 255 255
-0.0191246 0.147272 0.459 255 255 255
-0.187908 0.0755128 0.433 255 255 255
-0.126814 0.060705 0.454 0 0 0
0.220627 0.0213423 0.764 255 255 255
-0.143366 0.116111 0.472 255 255 255
-0.211738 0.0113695 0.407 255 255 255
-0.150779 -0.0311773 0.418 0 0 0
-0.164639 -0.0587681 0.402 255 255 255
0.209942 -0.116927 0.727 0 0 0
-0.0318412 0.16627 0.429 255 255 255
-0.0785158 0.12705 0.557 255 255 255
0.00913853 0.119658 0.597 255 255 255
-0.100281 0.0133326 0.451 255 255 255
-0.156763 0.00979752 0.425 255 255 255
-0.0430141 0.131665 0.484 255 255 255
-0.104711 -0.0467671 0.43 255 255 255
-0.125303 -0.0575679 0.417 255 255 255
0.0648389 -0.154416 0.461 255 255 255
0.215528 0.117959 0.664 255 255 255
0.449519 -0.181392 0.938 255 255 255
-0.0979587 0.159878 0.425 255 255 255
0.061654 -0.0844807 0.477 255 255 255
0.0420654 -0.0787156 0.475 255 255 255
0.156431 0.0289332 0.84 255 255 255
0.199375 -0.0288952 0.745 255 255 255
-0.216575 0.03523 0.415 255 255 255
-0.0265383 -0.0550296 0.458 0 0 0
-0.125586 0.0394013 0.447 255 255 255
-0.161456 -0.00468191 0.421 255 255 255
0.244014 0.118111 0.671 255 255 255
-0.0361044 0.135685 0.476 255 255 255
-0.025849 -0.0506681 0.459 255 255 255
0.270662 -0.130564 0.751 0 0 0
0.324697 -0.244114 0.766 255 255 255
0.377507 0.0102591 0.772 255 255 255
0.248099 0.134946 0.642 255 255 255
-0.0300366 0.118953 0.584 255 255 255
0.312238 0.110265 0.712 255 255 255
0.121679 0.184537 0.497 0 0 0
0.202468 -0.0457451 0.743 0 0 0
-0.193603 0.148239 0.401 255 255 255
-0.089024 0.153372 0.432 255 255 255
-0.1103 0.130726 0.456 255 255 255
-0.190502 -0.121578 0.372 255 255 255
0.158917 0.160485 0.563 255 255 255
-0.144556 0.152901 0.41 255 255 255
-0.0924835 -0.0919366 0.419 255 255 255
-0.176703 -0.138156 0.371 255 255 255
0.33229 0.106819 0.728 255 255 255
0.419429 -0.163249 0.939 255 255 255
0.208184 -0.155539 0.725 0 0 0
-0.0078999 -0.0729172 0.458 255 255 255
-0.169151 -0.00396832 0.418 255 255 255
-0.0921884 -0.0382835 0.437 255 255 255
-0.0899236 -0.0859306 0.423 255 255 255
-0.20262 0.00411409 0.41 255 255 255
-0.125443 -0.12873 0.39 255 255 255
-0.14552 -0.124897 0.386 255 255 255
-0.135776 -0.0443125 0.42 255 255 255
-0.0750857 -0.0472458 0.441 255 255 255
-0.0547083 -0.142392 0.417 255 255 255
0.165522 0.129348 0.63 255 255 255
-0.0772277 -0.12722 0.414 255 255 255
-0.143294 -0.0386597 0.418 255 255 255
0.0324459 0.141245 0.563 255 255 255
-0.0438147 -0.12164 0.43 255 255 255
-0.015087 -0.089951 0.45 255 255 255
0.136213 0.133955 0.609 0 0 0
-0.0837136 0.040988 0.465 255 255 255
-0.0189193 -0.124332 0.437 255 255 255
0.206828 0.0150269 0.759 0 0 0
0.228686 0.0774922 0.766 0 0 0
-0.00597242 -0.0022274 0.483 255 255 255
0.0635324 -0.162001 0.457 255 255 255
-0.148057 -0.0332179 0.418 255 255 255
0.125251 0.175131 0.522 255 255 255
-0.0293864 -0.122066 0.434 255 255 255
-0.00283336 -0.00538252 0.484 255 255 255
-0.216575 0.0399574 0.415 255 255 255
0.0200211 0.0395046 0.504 255 255 255
0.16674 -0.0665096 0.804 255 255 255
0.428078 -0.155557 0.948 255 255 255
0.00197595 0.0584844 0.505 0 0 0
-0.0188178 -0.0205237 0.47 255 255 255
0.30036 -0.261172 0.841 0 0 0
-0.040906 -0.0543087 0.452 255 255 255
0.257215 -0.0780129 0.751 0 0 0
0.0804113 -0.0575135 0.492 0 0 0
0.00819665 -0.0242856 0.484 255 255 255
0.207875 0.185227 0.529 255 255 255
0.277146 -0.0553537 0.776 255 255 255
0.380807 -0.00103942 0.766 255 255 255
-0.219277 0.0433341 0.415 255 255 255
0.161579 0.103896 0.678 255 255 255
0.105561 0.180709 0.509 255 255 255
-0.122576 0.128844 0.452 255 255 255
0.219973 -0.220481 0.817 255 255 255
-0.186263 -0.130659 0.372 255 255 255
-0.195256 0.032237 0.42 255 255 255
0.260359 0.186189 0.547 255 255 255
0.0179952 -0.125198 0.453 255 255 255
0.063207 -0.106992 0.477 255 255 255
-0.187758 -0.0851028 0.385 255 255 255
0.0305828 -0.10203 0.465 255 255 255
-0.0309413 -0.1056 0.436 255 255 255
0.220338 0.000206304 0.763 255 255 255
-0.0926491 0.118275 0.484 255 255 255
-0.17385 -0.0140022 0.413 255 255 255
0.00380875 -0.166176 0.433 255 255 255
-0.0547599 0.152194 0.445 255 255 255
-0.19181 -0.0573062 0.392 255 255 255
-0.0375929 -0.145818 0.423 255 255 255
0.0551486 0.0355442 0.518 255 255 255
0.440778 0.0944364 0.864 255 255 255
0.428855 -0.237285 0.901 255 255 255
0.0764232 -0.0759492 0.487 0 0 0
0.242268 0.158154 0.592 255 255 255
0.392048 -0.107311 0.958 255 255 255
-0.181706 0.0518979 0.43 255 255 255
0.192202 0.100002 0.697 255 255 255
-0.17068 0.0488493 0.434 255 255 255
0.311709 -0.231548 0.774 255 255 255
0.0759475 -0.112897 0.479 0 0 0
-0.210969 0.114652 0.457 255 255 255
-0.179738 0.130876 0.432 255 255 255
0.460335 -0.100895 0.914 255 255 255
0.00488886 -0.0548248 0.469 255 255 255
-0.0254373 -0.107755 0.439 255 255 255
0.214679 0.100433 0.7 255 255 255
-0.0377569 -0.0931755 0.441 255 255 255
-0.00978239 -0.124316 0.442 255 255 255
-0.00189758 0.156485 0.449 255 255 255
0.0602323 -0.130308 0.466 255 255 255
-0.119405 -0.0427652 0.425 255 255 255
-0.0972045 0.124266 0.468 255 255 255
0.20587 -0.0144624 0.751 0 0 0
-0.0516992 -0.0104232 0.463 255 255 255
0.16536 -0.0986691 0.779 255 255 255
-0.0603874 0.0285473 0.472 255 255 255
-0.0264122 -0.0159007 0.469 0 0 0
0.176333 -0.0676907 0.745 0 0 0
0.00941146 0.0562409 0.507 0 0 0
0.400149 -0.13493 0.944 255 255 255
-0.163615 0.0446118 0.434 255 255 255
-0.166694 -0.0707794 0.396 255 255 255
-0.118986 -0.0946021 0.407 255 255 255
0.257725 -0.306013 0.794 255 255 255
0.146447 0.184384 0.51 255 255 255
0.00524327 0.0500673 0.503 255 255 255
-0.0338372 0.0716042 0.488 255 255 255
0.402327 -0.0529506 0.991 255 255 255
0.235504 0.0165406 0.772 0 0 0
-0.0688029 -0.153926 0.408 255 255 255
-0.188202 0.0191593 0.418 255 255 255
0.0826927 -0.167583 0.456 0 0 0
0.211889 0.17874 0.546 255 255 255
-0.154699 -0.0898845 0.395 255 255 255
-0.0971515 0.0335896 0.457 255 255 255
-0.178387 -0.0237919 0.408 255 255 255
0.0576176 0.00262771 0.51 255 255 255
-0.0307863 0.155465 0.444 255 255 255
-0.167148 0.0474368 0.434 255 255 255
0.313581 -0.197173 0.798 0 0 0
-0.0941066 -0.0360674 0.436 255 255 255
-0.206408 0.14454 0.398 255 255 255
-0.201522 0.0285452 0.416 255 255 255
0.365192 -0.112006 0.945 255 255 255
-0.166619 0.134854 0.429 255 255 255
0.195741 -0.0908997 0.727 0 0 0
0.0653312 0.108332 0.633 255 255 255
0.023534 0.0755139 0.509 255 255 255
0.0334964 -0.00714466 0.497 255 255 255
-0.052832 -0.0730813 0.441 255 255 255
0.101848 0.172391 0.524 255 255 255
0.0364986 -0.0883907 0.473 255 255 255
-0.209001 0.143732 0.403 255 255 255
0.241452 0.133692 0.641 255 255 255
0.231525 -0.0739505 0.747 0 0 0
-0.0532958 -0.0446475 0.451 255 255 255
0.00685349 0.0376389 0.501 255 255 255
0.0751254 -0.141068 0.469 0 0 0
0.326313 0.0671942 0.807 0 0 0
-0.0708265 -0.119495 0.42 255 255 255
0.168542 -0.0888685 0.782 0 0 0
0.349753 0.0853042 0.769 255 255 255
-0.0383927 -0.1208 0.432 255 255 255
0.445244 -0.0582624 0.972 255 255 255
-0.0112693 0.116743 0.597 255 255 255
-0.0329545 0.155465 0.444 255 255 255
0.1252 0.181181 0.508 0 0 0
-0.0935794 -0.128726 0.406 255 255 255
-0.0160258 0.00246283 0.478 0 0 0
-0.015258 0.114591 0.601 255 255 255
-0.0237894 -0.12801 0.435 255 255 255
-0.165858 -0.00193687 0.42 255 255 255
-0.163374 -0.0442656 0.407 255 255 255
-0.166484 -0.102814 0.388 255 255 255
0.159481 0.160135 0.565 255 255 255
0.17785 -0.215689 0.819 255 255 255
-0.0691698 -0.0050489 0.454 255 255 255
0.205413 -0.204585 0.828 255 255 255
-0.206574 0.0382055 0.418 255 255 255
-0.172966 0.0699699 0.438 255 255 255
-0.130634 0.113996 0.476 255 255 255
0.407591 -0.103812 0.969 255 255 255
-0.162366 0.013318 0.427 255 255 255
0.217728 -0.284536 0.799 255 255 255
0.0489587 -0.119188 0.467 255 255 255
-0.0419181 -0.044303 0.455 255 255 255
-0.169017 0.0196176 0.428 255 255 255
-0.159324 -0.0114782 0.419 255 255 255
0.0517429 -0.148939 0.458 255 255 255
-0.0211172 -0.162722 0.424 0 0 0
0.458864 -0.209351 0.92 255 255 255
-0.162111 -0.0674197 0.399 255 255 255
-0.0149529 -0.103667 0.446 255 255 255
0.22392 0.138826 0.613 0 0 0
-0.151357 -0.100302 0.393 255 255 255
0.133515 0.153591 0.568 0 0 0
-0.0912683 0.00231857 0.45 255 255 255
-0.135683 0.116111 0.472 255 255 255
0.0126068 -0.136022 0.445 255 255 255
0.0804113 -0.0559122 0.492 0 0 0
-0.0306052 -0.0719619 0.452 255 255 255
-0.0954017 -0.0149854 0.442 255 255 255
0.0642275 -0.153248 0.462 255 255 255
-0.145789 -0.0916317 0.397 255 255 255
-0.104224 -0.0493355 0.428 255 255 255
-0.213711 0.0454694 0.416 255 255 255
0.202033 -0.0765586 0.737 0 0 0
0.249412 -0.1661 0.757 0 0 0
-0.148805 0.0673431 0.449 255 255 255
0.238634 0.0442936 0.774 255 255 255
-0.186569 0.0296436 0.422 255 255 255
-0.00720122 -0.066643 0.461 255 255 255
0.0762287 0.0245858 0.518 255 255 255
-0.0456388 -0.140333 0.421 0 0 0
-0.121193 -0.109625 0.399 255 255 255
0.394192 0.0799926 0.817 0 0 0
-0.0537811 0.0145967 0.468 0 0 0
-0.11592 -0.0775521 0.415 255 255 255
-0.0487296 0.0578658 0.486 0 0 0
-0.0326955 -0.159208 0.422 255 255 255
-0.0747722 0.152314 0.435 255 255 255
0.0065115 0.151952 0.476 255 255 255
-0.107661 -0.131041 0.397 255 255 255
0.452728 -0.244716 0.896 255 255 255
-0.107138 -0.0652798 0.423 255 255 255
-0.127634 0.0217961 0.444 255 255 255
-0.172355 -0.0943618 0.387 255 255 255
-0.110486 0.0709498 0.463 255 255 255
-0.192521 0.133392 0.42 255 255 255
0.310549 -0.184951 0.807 255 255 255
0.256065 0.105139 0.701 255 255 255
-0.157236 -0.110736 0.387 255 255 255
-0.0922196 -0.00999543 0.444 255 255 255
0.226707 0.0718177 0.772 255 255 255
0.291606 -0.288075 0.824 0 0 0
0.0497527 0.0149585 0.506 255 255 255
-0.0593173 -0.135958 0.416 255 255 255
0.166326 -0.053293 0.802 255 255 255
0.376548 -0.0758248 0.935 0 0 0
0.362229 0.0238863 0.808 255 255 255
-0.118532 0.121956 0.465 255 255 255
-0.1395 -0.0267317 0.423 0 0 0
0.0143497 -0.0365065 0.479 255 255 255
0.0691086 -0.0227833 0.503 0 0 0
-0.165161 0.126139 0.44 255 255 255
0.188146 -0.0575248 0.739 0 0 0
0.102865 0.18578 0.496 255 255 255
0.370981 -0.024427 0.948 0 0 0
0.00814584 0.157462 0.481 255 255 255
0.0305067 -0.0189273 0.488 255 255 255
0.0882404 0.186304 0.491 255 255 255
-0.185727 0.142266 0.414 255 255 255
-0.0573141 0.0216344 0.472 255 255 255
0.304708 0.0432857 0.802 255 255 255
0.225697 -0.293461 0.795 255 255 255
0.0874603 -0.106438 0.478 255 255 255
0.390167 0.0439237 0.79 255 255 255
-0.042565 -0.0501161 0.454 255 255 255
0.231373 0.0695744 0.775 255 255 255
0.394758 -0.237928 0.887 255 255 255
0.308865 -0.249208 0.786 0 0 0
0.0764042 0.061655 0.525 0 0 0
0.0162651 -0.139231 0.446 255 255 255
0.191303 0.138053 0.614 255 255 255
-0.0158164 -0.15243 0.43 255 255 255
0.182397 -0.123459 0.745 0 0 0
0.467381 -0.184899 0.925 255 255 255
-0.0443341 -0.0370609 0.457 255 255 255
0.0740693 -0.0877194 0.482 0 0 0
-0.0539602 -0.00665589 0.463 255 255 255
0.202855 -0.169595 0.74 255 255 255
-0.0970257 -0.0957985 0.418 255 255 255
-0.137899 0.127198 0.454 255 255 255
-0.053307 0.155857 0.439 255 255 255
0.263824 0.140305 0.578 255 255 255
-0.183934 0.143266 0.413 255 255 255
-0.0790931 -0.0902737 0.424 255 255 255
0.282902 0.134105 0.638 0 0 0
0.0481227 0.0328241 0.515 255 255 255
-0.160348 -0.138302 0.378 255 255 255
-0.20629 0.0462345 0.423 255 255 255
0.0321355 0.127111 0.591 255 255 255
-0.201759 0.113038 0.472 255 255 255
-0.179472 0.115393 0.466 255 255 255
0.255996 0.191167 0.536 255 255 255
0.191235 -0.108941 0.737 0 0 0
0.0288188 -0.110905 0.461 255 255 255
0.301572 0.0757746 0.787 255 255 255
0.310449 -0.229029 0.774 255 255 255
-0.0585284 0.0620957 0.482 0 0 0
0.0649296 -0.0588745 0.49 255 255 255
-0.0514944 -0.153124 0.413 255 255 255
0.222093 0.189173 0.528 255 255 255
0.327444 0.130728 0.663 255 255 255
0.0864433 -0.0937994 0.481 255 255 255
-0.197573 0.136885 0.412 255 255 255
0.0228788 0.182927 0.478 255 255 255
0.0472903 0.158301 0.534 255 255 255
0.102321 0.163595 0.54 255 255 255
0.0800205 -0.152496 0.462 0 0 0
0.299096 -0.193069 0.808 255 255 255
0.1544 0.167496 0.547 255 255 255
-0.178212 -0.103711 0.382 255 255 255
-0.00466006 0.167501 0.434 255 255 255
-0.180814 0.134345 0.423 255 255 255
0.0351208 0.155694 0.534 255 255 255
0.200051 -0.151489 0.717 0 0 0
-0.1488 -0.117336 0.388 255 255 255
-0.208118 0.0107598 0.409 255 255 255
-0.151412 0.145661 0.416 255 255 255
0.148703 0.0708844 0.835 255 255 255
-0.042139 0.0724426 0.483 255 255 255
0.0441627 -0.0648378 0.481 255 255 255
0.0814969 0.015195 0.514 255 255 255
-0.144909 -0.0507201 0.411 255 255 255
0.330103 0.0310262 0.823 255 255 255
-0.165362 0.151782 0.407 255 255 255
0.347249 0.0782364 0.786 255 255 255
-0.18412 0.136158 0.418 255 255 255
0.130818 0.112659 0.646 255 255 255
-0.00290946 0.0389559 0.497 255 255 255
0.224945 0.0226447 0.766 255 255 255
0.238035 0.104239 0.695 0 0 0
0.427003 -0.269988 0.888 255 255 255
-0.168746 -0.0472265 0.404 255 255 255
0.16249 0.153739 0.579 255 255 255
-0.0911591 -0.114815 0.413 255 255 255
0.00349101 -0.0101709 0.487 255 255 255
0.3065 -0.288126 0.828 0 0 0
0.0119108 0.0596585 0.508 0 0 0
0.410919 -0.218923 0.91 255 255 255
-0.181031 0.150377 0.405 255 255 255
0.167696 0.192877 0.504 255 255 255
-0.191884 -0.0773578 0.387 255 255 255
-0.166254 0.0639903 0.441 255 255 255
0.0716839 0.0731773 0.528 255 255 255
-0.0296817 0.0372261 0.485 255 255 255
0.250981 -0.0897535 0.747 0 0 0
-0.175015 0.129959 0.436 255 255 255
-0.00808963 -0.0319283 0.469 255 255 255
0.320936 -0.263273 0.686 0 0 0
0.0373237 0.0165726 0.505 255 255 255
-0.0350973 -0.0566404 0.453 255 255 255
0.0101758 -0.164441 0.434 0 0 0
-0.107138 -0.0856562 0.415 255 255 255
0.358734 0.0439874 0.815 255 255 255
0.261574 -0.110271 0.746 0 0 0
-0.04553 -0.104873 0.433 255 255 255
0.198544 -0.118145 0.72 255 255 255
-0.217692 0.0296116 0.412 255 255 255
0.0855137 0.0134958 0.513 0 0 0
-0.162127 -0.142086 0.375 255 255 255
0.282899 -0.234078 0.842 0 0 0
-0.165836 0.0792359 0.438 255 255 255
0.251735 -0.1529 0.735 0 0 0
0.189433 0.140661 0.608 255 255 255
0.319425 0.00574919 0.848 0 0 0
0.284747 -0.213891 0.86 0 0 0
-0.021084 0.0357946 0.487 255 255 255
0.380999 -0.167918 0.931 255 255 255
0.186271 0.159978 0.571 255 255 255
-0.120544 -0.112871 0.399 255 255 255
0.30502 0.0636876 0.796 0 0 0
-0.150058 0.147015 0.416 255 255 255
0.118852 0.0848936 0.713 255 255 255
0.0132442 0.0186987 0.496 0 0 0
-0.124428 -0.0249582 0.428 255 255 255
0.139953 0.171978 0.536 255 255 255
0.0866462 0.176824 0.505 255 255 255
-0.0336197 -0.144433 0.425 255 255 255
-0.0864377 0.145349 0.444 255 255 255
-0.229193 0.110045 0.493 255 255 255
0.00445967 0.145347 0.507 255 255 255
-0.0546929 0.160773 0.433 255 255 255
-0.0108005 0.0199854 0.488 255 255 255
-0.206591 0.00209186 0.406 255 255 255
-0.0240081 -0.109184 0.439 0 0 0
0.202071 -0.0362179 0.746 0 0 0
-0.0942723 0.115907 0.501 255 255 255
0.0458392 0.139291 0.57 255 255 255
-0.10532 -0.0592243 0.424 255 255 255
0.267832 -0.00106113 0.782 255 255 255
-0.143154 0.122623 0.459 255 255 255
-0.116172 -0.133558 0.393 255 255 255
0.0368844 -0.0644334 0.478 255 255 255
0.0902041 -0.130449 0.472 255 255 255
-0.092198 0.0414753 0.462 255 255 255
0.0631307 -0.145162 0.465 255 255 255
-0.19594 0.032237 0.42 255 255 255
-0.177446 0.0560408 0.435 255 255 255
0.0273987 -0.141944 0.45 255 255 255
0.398945 0.0154823 0.782 0 0 0
-0.109732 0.0717032 0.463 255 255 255
-0.13124 -0.110089 0.396 255 255 255
-0.102134 0.152649 0.428 255 255 255
0.458363 -0.086317 0.95 255 255 255
0.315544 -0.24725 0.768 255 255 255
-0.0655482 0.0481544 0.476 255 255 255
0.0277202 -0.0437037 0.481 255 255 255
-0.141774 -0.14622 0.381 255 255 255
-0.0521459 0.00620597 0.467 255 255 255
0.30761 -0.0998463 0.831 0 0 0
0.356518 0.0586482 0.816 255 255 255
0.432984 -0.148467 0.952 255 255 255
-0.0773506 -0.0167212 0.45 255 255 255
-0.11216 -0.00632525 0.44 255 255 255
-0.00757613 0.0111807 0.485 255 255 255
-0.0163275 0.0207369 0.487 255 255 255
0.300607 -0.198902 0.805 255 255 255
0.221271 0.164841 0.575 255 255 255
0.204976 0.100146 0.698 255 255 255
-0.15123 -0.0499295 0.41 255 255 255
-0.0909153 0.12628 0.467 255 255 255
-0.166762 0.0423951 0.433 255 255 255
0.121425 0.157301 0.555 255 255 255
-0.0936364 0.0284459 0.458 255 255 255
0.0467781 -0.108781 0.468 255 255 255
-0.101661 0.080164 0.464 255 255 255
-0.119298 -0.0721493 0.415 255 255 255
-0.0509301 -0.0866412 0.437 255 255 255
-0.0842888 0.130754 0.464 255 255 255
0.175526 0.0639469 0.768 0 0 0
0.0532243 0.186816 0.478 255 255 255
-0.127326 -0.137541 0.388 255 255 255
-0.213711 0.0393767 0.416 255 255 255
-0.0346633 0.145143 0.457 255 255 255
-0.0545657 0.121387 0.582 255 255 255
-0.211713 0.115395 0.457 255 255 255
-0.207689 0.143732 0.403 255 255 255
-0.0332313 0.122089 0.543 255 255 255
0.291205 0.0291459 0.808 255 255 255
0.0434281 -0.0899301 0.473 255 255 255
-0.0779095 -0.147588 0.407 255 255 255
0.0799547 -0.145474 0.466 0 0 0
0.2559 0.138258 0.638 255 255 255
0.19889 -0.250613 0.807 255 255 255
-0.181262 -0.0296945 0.407 0 0 0
0.23038 0.121504 0.654 255 255 255
-0.0655473 0.0152599 0.465 0 0 0
-0.0648596 0.0323192 0.471 255 255 255
-0.205585 0.132798 0.416 255 255 255
-0.183492 -0.117066 0.375 255 255 255
0.330175 0.022572 0.858 255 255 255
0.0466257 -0.138061 0.459 255 255 255
-0.116078 0.162686 0.418 255 255 255
-0.174151 0.124991 0.441 255 255 255
-0.164207 0.0190096 0.43 255 255 255
0.00604639 -0.140859 0.442 255 255 255
0.077846 0.00763717 0.512 0 0 0
-0.0904687 -0.150633 0.401 255 255 255
-0.167644 0.0858464 0.439 255 255 255
0.066023 0.0734756 0.524 0 0 0
-0.00856993 0.153795 0.454 255 255 255
-0.159625 -0.0162123 0.418 255 255 255
0.0259911 -0.0535433 0.478 255 255 255
-0.0260168 0.153562 0.449 255 255 255
-0.109324 -0.133933 0.396 255 255 255
0.027568 0.0397398 0.507 255 255 255
-0.177723 -0.0211361 0.408 255 255 255
0.0164244 0.158382 0.52 255 255 255
-0.156241 -0.144685 0.377 255 255 255
0.395234 -0.259968 0.869 255 255 255
0.247494 -0.270312 0.807 255 255 255
0.41843 -0.207854 0.92 255 255 255
0.228619 0.123743 0.649 0 0 0
-0.172489 0.0751537 0.435 255 255 255
0.285743 0.116964 0.69 255 255 255
-0.151997 -0.100302 0.393 255 255 255
-0.0323811 -0.0158329 0.467 255 255 255
-0.136988 0.0757162 0.451 255 255 255
-0.110999 0.0835776 0.462 255 255 255
0.128788 0.126489 0.621 255 255 255
0.407459 0.00359554 1.02 0 0 0
-0.0067326 -0.162603 0.431 255 255 255
-0.165609 0.116799 0.531 255 255 255
-0.200794 0.141879 0.409 255 255 255
-0.0529246 -0.138984 0.419 255 255 255
0.0530494 0.0294146 0.514 255 255 255
0.0488323 0.00588915 0.505 255 255 255
-0.126463 -0.00766915 0.435 255 255 255
0.168968 0.0235316 0.796 255 255 255
0.0219199 0.0632132 0.51 255 255 255
0.0290064 -0.104831 0.464 255 255 255
0.0815554 -0.0307225 0.499 0 0 0
0.00590539 0.0128907 0.49 255 255 255
0.0636291 -0.0187649 0.505 255 255 255
0.00831519 0.012118 0.491 255 255 255
0.329591 0.140606 0.644 255 255 255
0.192049 0.09134 0.709 255 255 255
-0.0217149 -0.130433 0.436 0 0 0
-0.0836139 0.061706 0.473 255 255 255
-0.0114499 0.15498 0.451 255 255 255
-0.0261869 -0.0331694 0.465 255 255 255
0.128256 0.11107 0.649 255 255 255
-0.123536 -0.133121 0.388 255 255 255
-0.0315784 -0.112437 0.435 255 255 255
-0.204597 0.0196496 0.414 255 255 255
-0.181403 0.0838407 0.436 255 255 255
-0.0514957 0.0138352 0.468 0 0 0
0.210484 0.174147 0.554 255 255 255
0.100459 0.141734 0.58 255 255 255
-0.0815532 0.000859665 0.453 255 255 255
0.216757 0.15575 0.583 0 0 0
-0.0286825 -0.0961931 0.445 0 0 0
-0.103397 -0.137848 0.398 255 255 255
-0.18855 -0.016448 0.407 255 255 255
-0.125446 -0.0711295 0.413 255 255 255
0.0725276 -0.0162672 0.504 0 0 0
0.431935 -0.114613 0.967 255 255 255
0.237605 -0.078813 0.747 0 0 0
0.0862146 -0.167956 0.455 0 0 0
-0.101092 0.130554 0.458 255 255 255
0.129307 0.0847007 0.824 255 255 255
-0.225843 0.110205 0.454 255 255 255
-0.148903 -0.123947 0.385 255 255 255
-0.180278 0.0602881 0.435 0 0 0
0.263785 0.124887 0.655 0 0 0
-0.0958362 -0.113314 0.41 255 255 255
-0.171801 -0.0440481 0.405 255 255 255
0.00631695 0.115545 0.606 255 255 255
0.0349836 -0.168953 0.444 255 255 255
0.296745 -0.297229 0.816 0 0 0
0.0418182 0.0585292 0.52 255 255 255
-0.135473 0.110627 0.485 255 255 255
-0.10463 -0.0647442 0.424 255 255 255
-0.190403 -0.00189537 0.411 255 255 255
0.308574 -0.118839 0.841 255 255 255
0.465374 -0.19435 0.927 255 255 255
-0.155439 -0.102598 0.392 255 255 255
0.205256 -0.118637 0.723 0 0 0
-0.0379705 0.0266878 0.48 255 255 255
0.141602 0.105754 0.662 0 0 0
-0.162665 0.0862375 0.441 255 255 255
-0.164473 0.125274 0.442 255 255 255
0.0794486 0.183907 0.491 255 255 255
0.0241053 -0.115148 0.457 255 255 255
-0.169276 0.00079704 0.42 255 255 255
0.0424962 -0.170094 0.447 255 255 255
0.0136458 0.127069 0.582 255 255 255
0.151575 0.136479 0.607 255 255 255
0.0635533 0.00429599 0.511 255 255 255
0.244603 -0.0248204 0.769 255 255 255
0.0711785 0.0101367 0.512 0 0 0
-0.194751 0.0170367 0.416 255 255 255
-0.157702 -0.0684102 0.401 255 255 255
0.198231 0.151859 0.59 255 255 255
0.258611 -0.0459146 0.766 0 0 0
-0.138608 -0.134319 0.386 255 255 255
0.229889 0.131408 0.635 255 255 255
-0.0490416 -0.155216 0.415 255 255 255
-0.138181 -0.0421615 0.419 255 255 255
-0.196396 -0.109451 0.374 255 255 255
0.00963103 -0.0355779 0.477 255 255 255
-0.0383482 0.0124961 0.475 255 255 255
0.137833 0.122171 0.63 0 0 0
-0.204333 -0.03644 0.394 255 255 255
0.262474 0.164268 0.573 255 255 255
0.329341 -0.262554 0.751 255 255 255
-0.0821012 -0.0273362 0.444 0 0 0
0.075145 -0.0619374 0.489 0 0 0
0.0243151 0.126466 0.588 255 255 255
-0.135742 -0.143996 0.385 255 255 255
0.11887 0.141535 0.587 255 255 255
0.173483 -0.194274 0.83 255 255 255
0.0655532 0.141641 0.572 255 255 255
-0.191793 0.135528 0.414 255 255 255
0.255081 -0.262279 0.823 255 255 255
0.228521 0.186458 0.535 255 255 255
0.364697 -0.0215044 0.785 255 255 255
-0.119762 0.113935 0.479 255 255 255
0.394157 -0.0925825 0.967 255 255 255
0.268849 0.173609 0.561 255 255 255
0.165703 -0.0960014 0.799 255 255 255
-0.166324 -0.118315 0.379 255 255 255
-0.114293 -0.0841023 0.414 255 255 255
-0.176936 -0.094118 0.386 255 255 255
-0.179455 -0.100602 0.382 255 255 255
0.010713 0.161534 0.491 255 255 255
0.128849 0.110522 0.652 255 255 255
-0.103675 0.134289 0.453 255 255 255
-0.0510466 0.157641 0.438 255 255 255
0.466833 0.0764365 0.918 255 255 255
-0.0555843 -0.104603 0.429 255 255 255
0.235157 0.0493956 0.775 255 255 255
-0.0492766 0.031113 0.476 255 255 255
0.0615248 -0.0858528 0.476 255 255 255
-0.0844592 0.141332 0.445 255 255 255
0.0931135 0.182396 0.5 255 255 255
-0.146435 -0.0948619 0.397 255 255 255
0.150471 0.178524 0.527 255 255 255
0.0504764 -0.00397246 0.505 255 255 255
-0.159785 0.123054 0.447 255 255 255
0.212611 -0.12587 0.724 0 0 0
0.0530253 0.0502596 0.522 0 0 0
-0.144515 -0.0636289 0.408 255 255 255
-0.0708265 -0.116078 0.42 255 255 255
0.30824 -0.231805 0.801 0 0 0
0.0443448 -0.157672 0.451 255 255 255
-0.142836 -0.0700962 0.407 255 255 255
0.154806 0.150747 0.582 255 255 255
-0.136742 -0.102615 0.397 255 255 255
-0.135165 0.138435 0.445 255 255 255
-0.0649012 0.150022 0.445 255 255 255
-0.141887 -0.0525983 0.41 255 255 255
0.197123 -0.222867 0.816 255 255 255
0.319966 0.117688 0.701 0 0 0
-0.0800434 0.120638 0.484 255 255 255
0.114972 0.116756 0.634 255 255 255
-0.069481 0.0243927 0.466 255 255 255
-0.181138 -0.074976 0.391 255 255 255
-0.197726 0.122864 0.436 255 255 255
-0.172538 -0.0991431 0.386 255 255 255
-0.106543 0.0449407 0.459 255 255 255
-0.0214388 0.155815 0.445 255 255 255
-0.100814 0.117396 0.581 255 255 255
-0.107639 0.137711 0.445 255 255 255
0.107453 0.148157 0.572 255 255 255
-0.0103831 -0.132866 0.437 255 255 255
-0.197671 -0.0702483 0.386 255 255 255
-0.0596024 -0.0704458 0.438 255 255 255
0.0706903 0.0704659 0.527 255 255 255
0.256176 0.163059 0.582 0 0 0
0.185063 -0.25884 0.804 255 255 255
0.220315 -0.119786 0.73 255 255 255
-0.0153552 0.149187 0.458 255 255 255
0.352496 0.0575311 0.819 0 0 0
-0.1022 0.134289 0.453 255 255 255
0.469821 -0.12972 0.918 255 255 255
-0.216965 0.0693095 0.421 255 255 255
-0.126368 -0.142855 0.387 255 255 255
-0.152547 0.141246 0.421 255 255 255
0.0954405 -0.10822 0.479 255 255 255
0.0909059 -0.152584 0.46 255 255 255
0.222487 0.120288 0.659 0 0 0
0.0752613 -0.0457812 0.495 0 0 0
-0.15707 -0.123603 0.382 255 255 255
0.0292486 -0.128253 0.456 255 255 255
0.376145 -0.1411 0.934 255 255 255
0.035397 0.00176605 0.501 255 255 255
-0.0651244 0.00613953 0.462 255 255 255
0.0803698 0.0520581 0.523 255 255 255
0.0821798 -0.053619 0.493 0 0 0
-0.181277 0.0714497 0.434 255 255 255
-0.183044 -0.011259 0.411 255 255 255
-0.0260316 0.000128703 0.476 255 255 255
0.326618 0.0211264 0.856 255 255 255
0.197088 -0.198955 0.827 255 255 255
0.169965 -0.013205 0.749 0 0 0
-0.0391555 0.0482757 0.485 255 255 255
0.153429 0.0923945 0.691 255 255 255
0.187939 0.114372 0.662 255 255 255
0.0847403 0.160959 0.54 255 255 255
-0.0808786 -0.129958 0.412 255 255 255
-0.196017 -0.0144255 0.406 255 255 255
0.00517031 0.0283845 0.496 255 255 255
-0.06258 0.0762001 0.477 255 255 255
-0.156913 0.0772568 0.443 255 255 255
0.191279 0.0538081 0.766 255 255 255
-0.0305375 0.151311 0.451 255 255 255
-0.00617095 0.162309 0.441 255 255 255
-0.18535 0.119951 0.449 255 255 255
-0.021113 -0.018994 0.47 255 255 255
0.0397899 0.019038 0.505 255 255 255
0.170987 -0.12554 0.831 255 255 255
-0.136514 0.121875 0.546 255 255 255
0.44848 -0.0803019 0.952 255 255 255
-0.00984878 -0.113573 0.445 255 255 255
0.205857 0.0982947 0.701 255 255 255
-0.0296075 -0.141638 0.427 255 255 255
0.0331594 -0.0126773 0.492 255 255 255
0.412969 -0.0872696 0.978 255 255 255
-0.203051 -0.0396459 0.394 255 255 255
0.0879267 0.122861 0.618 255 255 255
-0.113344 -0.0865875 0.413 255 255 255
0.0420509 -0.131052 0.458 255 255 255
0.293403 0.13265 0.636 0 0 0
0.0408545 -0.148788 0.453 255 255 255
-0.000462992 -0.0254868 0.477 255 255 255
0.0706903 0.0747539 0.527 0 0 0
-0.175441 -0.0126273 0.412 255 255 255
0.0261532 -0.095629 0.467 255 255 255
0.32249 -0.0579246 0.831 255 255 255
0.422815 -0.0212399 1.017 255 255 255
0.0827651 -0.0696091 0.487 0 0 0
-0.235149 0.10972 0.452 255 255 255
-0.145046 0.133186 0.442 255 255 255
-0.19047 0.133392 0.42 255 255 255
0.0415769 0.0480955 0.517 255 255 255
-0.0892401 -0.0335342 0.44 0 0 0
0.10585 0.114874 0.635 255 255 255
-0.131592 -0.0964703 0.401 255 255 255
-0.165291 0.0316786 0.431 255 255 255
0.365785 0.11804 0.717 255 255 255
0.147213 0.00581698 0.858 255 255 255
0.0288728 0.00991896 0.501 255 255 255
-0.0362203 0.127988 0.488 255 255 255
-0.090255 0.117194 0.58 255 255 255
-0.235884 0.10972 0.452 255 255 255
-0.00260759 0.105593 0.617 255 255 255
0.388052 0.0064566 0.768 255 255 255
-0.108815 0.129984 0.456 255 255 255
-0.11203 0.0425139 0.457 255 255 255
0.217819 -0.269666 0.809 255 255 255
0.189694 0.0859652 0.722 255 255 255
-0.153916 -0.117682 0.385 255 255 255
0.169362 -0.13256 0.85 255 255 255
-0.151358 0.146982 0.414 255 255 255
0.166296 0.166033 0.554 255 255 255
0.218711 0.0749991 0.766 0 0 0
0.211883 -0.0305117 0.755 255 255 255
0.17455 0.00633049 0.753 255 255 255
-0.0355226 -0.0972604 0.44 0 0 0
-0.085912 0.118764 0.486 255 255 255
-0.188656 0.136183 0.416 255 255 255
-0.0776944 0.140613 0.452 255 255 255
-0.0102643 -0.151029 0.432 255 255 255
0.384715 -0.27159 0.831 255 255 255
-0.00594769 -0.00926289 0.481 255 255 255
-0.152612 -0.00749285 0.425 255 255 255
0.371584 -0.14262 0.934 255 255 255
-0.207125 -0.0407204 0.392 255 255 255
-0.0783207 0.0143472 0.46 255 255 255
0.0320764 -0.137295 0.454 255 255 255
0.0868917 -0.0419223 0.497 255 255 255
-0.152666 0.0205514 0.433 255 255 255
0.044962 0.149075 0.548 255 255 255
0.175939 0.177419 0.534 255 255 255
-0.0857072 0.165107 0.426 0 0 0
-0.0260863 0.136746 0.477 255 255 255
-0.0786642 -0.0266736 0.445 255 255 255
-0.105072 -0.0659682 0.423 255 255 255
-0.127315 -0.0952197 0.404 255 255 255
-0.155516 -0.110042 0.389 255 255 255
0.336141 0.0815516 0.781 255 255 255
-0.211447 0.0127566 0.409 255 255 255
-0.00340706 0.128964 0.582 255 255 255
-0.18259 -0.0066092 0.413 255 255 255
0.259109 0.134735 0.646 255 255 255
0.169876 0.112387 0.663 255 255 255
-0.217401 0.0358188 0.414 255 255 255
-0.152248 -0.10196 0.392 255 255 255
0.290946 0.130767 0.642 0 0 0
-0.106368 -0.134271 0.397 255 255 255
-0.17304 0.125423 0.44 255 255 255
0.0575295 -0.0972672 0.475 255 255 255
-0.0927967 0.0735264 0.465 255 255 255
-0.0417028 0.0273545 0.478 255 255 255
-0.145916 0.0214033 0.436 255 255 255
-0.035827 -0.111729 0.435 255 255 255
-0.102032 -0.0796632 0.419 255 255 255
-0.0241175 -0.102505 0.441 255 255 255
0.21814 0.0424781 0.764 255 255 255
0.189731 0.104816 0.684 255 255 255
-0.147627 -0.10274 0.395 255 255 255
-0.164101 0.0682962 0.441 255 255 255
0.203837 -0.128332 0.718 0 0 0
0.205989 -0.163442 0.734 255 255 255
-0.1594 0.13782 0.421 255 255 255
-0.0799918 0.0173792 0.461 255 255 255
0.246258 0.154632 0.597 255 255 255
0.248029 0.0989556 0.714 255 255 255
0.295379 0.0710108 0.791 0 0 0
-0.104137 -0.0692459 0.422 255 255 255
0.371098 -0.0377229 0.777 255 255 255
-0.138888 -0.0498631 0.415 255 255 255
-0.157914 -0.0853849 0.395 255 255 255
-0.0506943 0.147145 0.454 255 255 255
0.406594 -0.00970245 1.022 0 0 0
-0.0896569 -0.0787292 0.425 255 255 255
-0.0975476 0.0592761 0.466 0 0 0
0.00115163 0.0534476 0.504 0 0 0
-0.143945 -0.047048 0.414 255 255 255
0.360477 -0.23922 0.822 255 255 255
-0.00922693 0.155369 0.45 255 255 255
0.304413 0.119286 0.684 255 255 255
0.451401 0.0844695 0.908 255 255 255
0.0156381 0.142078 0.552 255 255 255
0.298313 -0.200915 0.824 255 255 255
0.192809 0.147832 0.597 255 255 255
0.132471 0.183794 0.495 255 255 255
0.320977 0.122834 0.679 255 255 255
0.0397543 0.146934 0.55 255 255 255
-0.000584321 0.116741 0.602 255 255 255
0.424473 0.00361317 1.025 255 255 255
-0.185493 0.153344 0.399 255 255 255
0.0436679 0.152133 0.543 255 255 255
0.422804 -0.00305888 1.025 255 255 255
-0.174801 -0.124109 0.376 255 255 255
-0.0436362 0.12478 0.491 255 255 255
0.217628 0.055414 0.771 255 255 255
0.0116905 0.129241 0.579 255 255 255
-0.0206662 0.125243 0.496 255 255 255
-0.206263 0.031253 0.416 255 255 255
-0.168985 -0.0510445 0.403 255 255 255
0.0508252 0.10816 0.632 255 255 255
-0.198656 0.11755 0.451 255 255 255
0.195193 0.0778136 0.757 0 0 0
-0.223942 0.111015 0.501 255 255 255
0.0578748 0.174358 0.505 255 255 255
-0.0207144 0.155091 0.445 255 255 255
0.160358 0.020534 0.832 0 0 0
-0.12937 0.039225 0.445 255 255 255
-0.138734 -0.0151717 0.427 255 255 255
-0.122104 -0.104561 0.402 255 255 255
0.0666606 -0.0581956 0.491 255 255 255
-0.217251 0.0446847 0.415 255 255 255
-0.102858 0.0607928 0.466 0 0 0
-0.0927543 -0.0527304 0.433 255 255 255
-0.159139 -0.123899 0.381 255 255 255
0.0513377 0.153929 0.54 255 255 255
-0.00291532 0.0455176 0.498 255 255 255
