ply
format ascii 1.0
comment Created by Open3D
element vertex 1299
property double x
property double y
property double z
property uchar red
property uchar green
property uchar blue
end_header
0.271233 0.0826319 0.756 255 255 255
-0.0729555 -0.00573671 0.45 255 255 255
-0.211595 0.0471089 0.431 255 255 255
0.211502 0.100657 0.686 255 255 255
0.361104 0.0662154 0.78 0 0 0
0.4023 0.0313278 0.831 255 255 255
-0.0691736 -0.0707227 0.431 255 255 255
0.0332491 -0.0807213 0.46 255 255 255
-0.167109 0.145681 0.418 255 255 255
0.255115 0.0771887 0.763 255 255 255
-0.0825963 -0.135981 0.404 255 255 255
0.0511916 0.020313 0.496 255 255 255
0.336646 0.0312066 0.762 0 0 0
-0.0919893 -0.0707867 0.423 255 255 255
0.067425 -0.031439 0.485 255 255 255
0.0545866 0.0510882 0.505 255 255 255
-0.172163 -0.14188 0.381 255 255 255
-0.216506 0.069553 0.431 255 255 255
0.0347886 0.128904 0.504 255 255 255
-0.108112 0.160631 0.411 255 255 255
-0.150862 -0.0711062 0.409 255 255 255
-0.0912829 0.0652026 0.465 0 0 0
0.0816705 -0.0757829 0.476 255 255 255
-0.170103 -0.0277097 0.417 0 0 0
0.149497 -0.125307 0.47 0 0 0
-0.144327 0.0267328 0.442 255 255 255
0.113974 -0.0972672 0.475 255 255 255
0.2361 0.0716628 0.813 255 255 255
-0.0578138 -0.0838539 0.43 255 255 255
-0.00398092 -0.11082 0.437 0 0 0
0.396964 0.0382269 0.834 0 0 0
0.354661 -0.272418 0.794 255 255 255
0.0420635 -0.157741 0.435 0 0 0
-0.0520527 -0.112777 0.423 255 255 255
-0.187073 -0.0100662 0.417 255 255 255
-0.223806 0.106884 0.462 255 255 255
-0.00896633 0.0124961 0.475 255 255 255
-0.183067 0.0667093 0.44 255 255 255
-0.159761 -0.0989869 0.398 255 255 255
0.18689 0.176122 0.538 0 0 0
0.26631 0.187668 0.541 255 255 255
-0.114483 0.0280732 0.452 255 255 255
-0.122172 -0.04484 0.425 255 255 255
0.250786 0.166423 0.574 255 255 255
-0.0483775 0.121073 0.576 255 255 255
0.0770123 -0.10062 0.462 255 255 255
0.095827 -0.169017 0.448 255 255 255
-0.00680063 0.0396755 0.486 255 255 255
0.0639486 0.138479 0.528 255 255 255
0.115275 0.0869529 0.523 255 255 255
0.145052 -0.130867 0.468 0 0 0
0.225863 0.113404 0.669 255 255 255
-0.118515 0.158226 0.417 255 255 255
-0.130484 -0.148906 0.388 255 255 255
-0.0506784 -0.0587282 0.441 255 255 255
-0.139411 0.0386739 0.447 255 255 255
0.252587 -0.0224963 0.734 0 0 0
-0.00926836 0.0664513 0.491 255 255 255
-0.10015 0.0680827 0.464 255 255 255
-0.00943197 -0.0373042 0.46 0 0 0
-0.101837 0.0448428 0.458 255 255 255
-0.197635 -0.0727126 0.396 255 255 255
0.1465 0.113873 0.641 255 255 255
0.130129 0.171129 0.528 255 255 255
-0.141682 -0.102739 0.4 255 255 255
0.0732522 -0.0355312 0.487 255 255 255
0.266197 -0.0164789 0.732 0 0 0
0.29041 -0.257536 0.788 255 255 255
-0.0264803 -0.0340861 0.457 0 0 0
0.138614 -0.0904799 0.48 0 0 0
-0.000581409 0.120059 0.599 255 255 255
0.0659418 0.124372 0.601 255 255 255
-0.0486011 -0.102508 0.429 255 255 255
0.0645056 -0.0897291 0.464 255 255 255
-0.0525456 -0.132573 0.416 255 255 255
0.18154 0.168721 0.551 255 255 255
0.3222 -0.0617447 0.732 0 0 0
0.141739 -0.101416 0.48 0 0 0
-0.060347 0.122213 0.484 255 255 255
-0.138219 -0.0788111 0.411 255 255 255
-0.0407287 -0.109674 0.427 255 255 255
-0.160976 -0.0110025 0.427 255 255 255
0.0997097 0.174616 0.513 255 255 255
0.140558 -0.118386 0.476 0 0 0
-0.187908 0.129065 0.433 255 255 255
0.0555184 0.0520128 0.506 255 255 255
-0.123847 0.149162 0.426 255 255 255
0.0749889 0.172373 0.504 255 255 255
-0.150783 -0.145875 0.385 255 255 255
-0.0864107 -0.0527304 0.433 255 255 255
0.121749 -0.0424731 0.494 255 255 255
-0.197016 0.0781646 0.436 255 255 255
-0.0658221 -0.147225 0.406 255 255 255
0.055697 0.00414467 0.493 255 255 255
-0.119244 0.126358 0.459 255 255 255
-0.203583 0.0840845 0.441 255 255 255
0.0871894 0.135572 0.586 255 255 255
0.140442 0.174566 0.528 255 255 255
-0.0893949 0.0837221 0.467 255 255 255
0.0176377 -0.110428 0.444 255 255 255
0.0637393 -0.0228511 0.487 255 255 255
0.00828985 0.117517 0.606 255 255 255
-0.0501566 0.12976 0.477 255 255 255
0.0115887 -0.136897 0.434 255 255 255
-0.0223125 -0.0647637 0.448 255 255 255
0.106985 -0.0484094 0.489 255 255 255
-0.0639035 -0.128878 0.415 255 255 255
-0.211985 0.0186559 0.422 255 255 255
-0.145123 -0.133173 0.39 255 255 255
-0.0386435 -0.108979 0.427 255 255 255
0.253993 0.191615 0.53 255 255 255
-0.0754329 0.0880842 0.47 255 255 255
-0.0730792 0.0158444 0.46 255 255 255
0.275786 0.0986619 0.729 255 255 255
0.0255596 0.0717377 0.5 255 255 255
-0.151776 -0.0419602 0.417 255 255 255
0.0887411 -0.0488026 0.485 255 255 255
-0.084027 0.126595 0.471 255 255 255
0.100755 0.115836 0.629 255 255 255
-0.103316 0.113227 0.486 255 255 255
-0.0116707 -0.122206 0.432 255 255 255
0.1528 -0.0463985 0.493 255 255 255
-0.175113 0.144307 0.416 255 255 255
0.0790664 -0.0544348 0.479 255 255 255
0.00915157 0.0827674 0.493 255 255 255
0.0551271 0.0632132 0.51 0 0 0
0.124401 0.0477112 0.522 255 255 255
0.0320708 0.075806 0.5 255 255 255
0.163918 0.189151 0.505 255 255 255
0.083069 -0.132863 0.454 255 255 255
0.341197 -0.0765586 0.737 0 0 0
0.00106023 -0.0338532 0.464 255 255 255
0.278857 -0.192219 0.799 255 255 255
-0.149449 0.147061 0.42 255 255 255
-0.162576 0.0241858 0.435 255 255 255
0.00174119 -0.0846065 0.445 255 255 255
0.024523 -0.0974901 0.451 255 255 255
0.10084 -0.0104842 0.502 255 255 255
-0.0787523 0.0449641 0.467 255 255 255
0.00507649 0.0381721 0.487 255 255 255
0.000327929 0.126813 0.499 255 255 255
-0.107708 -0.122878 0.402 255 255 255
-0.107261 0.150911 0.429 255 255 255
0.359977 -0.209721 0.827 255 255 255
-0.133784 -0.123639 0.394 255 255 255
0.0109026 -0.0384664 0.465 255 255 255
-0.172695 -0.0156064 0.42 255 255 255
-0.203116 -0.0863974 0.388 255 255 255
0.209961 0.169946 0.555 255 255 255
-0.0971284 0.00817695 0.45 255 255 255
-0.146016 0.151123 0.418 255 255 255
-0.0256812 0.130089 0.484 255 255 255
0.264356 0.000201978 0.747 0 0 0
-0.111337 -0.0210705 0.434 255 255 255
0.00194857 0.12899 0.498 255 255 255
0.14244 -0.162269 0.462 255 255 255
-0.048759 0.13426 0.471 255 255 255
-0.124597 0.130892 0.454 255 255 255
0.282865 -0.117825 0.711 255 255 255
0.160915 -0.0750024 0.486 255 255 255
-0.0540389 0.0598991 0.477 0 0 0
0.115549 -0.039337 0.495 255 255 255
0.143575 -0.0283431 0.5 0 0 0
-0.185727 0.146308 0.414 255 255 255
0.123733 -0.0686753 0.486 255 255 255
0.320132 -0.0710796 0.73 255 255 255
0.273271 -0.0141543 0.735 255 255 255
-0.196757 0.0804773 0.437 255 255 255
0.255536 0.0651967 0.768 255 255 255
0.326357 -0.0608844 0.736 0 0 0
0.0517429 -0.096022 0.458 255 255 255
-0.052668 -0.0987868 0.428 255 255 255
0.0274958 -0.0625462 0.464 255 255 255
0.331693 0.107839 0.719 255 255 255
0.249334 0.0280032 0.813 255 255 255
-0.126685 -0.112411 0.402 255 255 255
0.395536 -0.17828 0.831 255 255 255
-0.175257 -0.041923 0.41 255 255 255
-0.1715 -0.0484766 0.409 255 255 255
-0.2137 0.0499144 0.431 255 255 255
0.0355384 0.0713495 0.503 255 255 255
0.0505764 0.0717751 0.506 255 255 255
0.153617 -0.0139436 0.509 255 255 255
-0.211935 0.105837 0.464 255 255 255
0.245238 0.192804 0.517 255 255 255
-0.131141 0.15574 0.414 255 255 255
-0.193396 0.140245 0.416 255 255 255
-0.160598 -0.138885 0.383 255 255 255
0.0136133 -0.14577 0.431 255 255 255
-0.0391898 -0.142054 0.418 255 255 255
-0.204569 0.112175 0.456 255 255 255
-0.185562 0.108135 0.488 255 255 255
-0.119194 -0.0670683 0.417 255 255 255
0.33558 -0.0960266 0.73 255 255 255
-0.207033 -0.0412073 0.403 0 0 0
-0.193643 -0.095237 0.388 0 0 0
0.118108 -0.0347827 0.499 255 255 255
0.283353 0.0526139 0.749 255 255 255
-0.211738 0.145821 0.407 255 255 255
-0.146726 -0.0349093 0.422 255 255 255
0.0470573 0.167712 0.442 255 255 255
-0.175257 -0.0412558 0.41 255 255 255
-0.0894984 -0.0848392 0.421 255 255 255
-0.0777873 -0.104391 0.417 255 255 255
0.095042 -0.0728372 0.477 255 255 255
0.132853 0.0109699 0.512 0 0 0
-0.0788528 -0.0397967 0.438 255 255 255
0.0696495 -0.0368876 0.484 255 255 255
0.318444 0.0780992 0.772 0 0 0
-0.0288114 -0.0587998 0.447 255 255 255
0.297933 0.123919 0.667 0 0 0
-0.144263 -0.146254 0.386 255 255 255
0.084107 -0.0912642 0.468 0 0 0
-0.0817472 -0.110111 0.413 255 255 255
-0.174136 -0.108699 0.391 255 255 255
0.0057005 0.142527 0.473 255 255 255
-0.181259 0.11366 0.459 255 255 255
0.0460163 0.15016 0.468 255 255 255
0.0283466 -0.163305 0.431 255 255 255
-0.191835 -0.136709 0.377 255 255 255
0.0256107 0.0604671 0.501 0 0 0
-0.000449403 0.145542 0.463 255 255 255
-0.150313 -0.107783 0.397 255 255 255
-0.1368 -0.144487 0.388 255 255 255
0.0706225 0.0414715 0.508 255 255 255
0.000293099 0.159794 0.446 255 255 255
0.22474 0.141969 0.618 255 255 255
0.0174483 -0.0691906 0.458 0 0 0
-0.0477885 0.0268394 0.469 255 255 255
-0.191693 0.128767 0.432 255 255 255
0.0156032 0.0869548 0.494 255 255 255
0.166218 0.18825 0.507 255 255 255
-0.105846 0.0461311 0.456 255 255 255
-0.20045 0.140239 0.418 255 255 255
-0.119633 0.11128 0.542 255 255 255
0.10084 0.0123895 0.502 255 255 255
0.100985 0.0250851 0.511 255 255 255
0.0129751 -0.065464 0.458 255 255 255
0.249729 0.198104 0.509 255 255 255
-0.00893987 -0.108438 0.436 255 255 255
0.122355 -0.150338 0.46 255 255 255
0.247358 0.185564 0.54 255 255 255
0.28213 -0.0388447 0.727 255 255 255
-0.0907206 0.0645845 0.466 255 255 255
0.0924005 0.178467 0.505 255 255 255
0.0514759 0.122498 0.515 255 255 255
0.385803 -0.127768 0.771 255 255 255
0.0653389 -0.147999 0.444 255 255 255
0.219862 0.1965 0.507 255 255 255
-0.148535 -0.120433 0.394 255 255 255
-0.118465 0.0765557 0.456 255 255 255
0.243885 0.179629 0.546 255 255 255
0.0333616 0.0315494 0.495 255 255 255
0.130161 -0.00399606 0.508 255 255 255
-0.0867413 0.0689861 0.465 255 255 255
0.146125 -0.130383 0.469 0 0 0
0.0711561 -0.0851715 0.468 255 255 255
0.241735 0.190298 0.524 255 255 255
-0.146857 0.0670575 0.452 255 255 255
-0.0898483 -0.0389055 0.436 255 255 255
-0.00531706 -0.131437 0.43 0 0 0
-0.0780381 0.145668 0.454 255 255 255
0.138198 0.0677642 0.526 0 0 0
-0.135865 -0.0965346 0.404 255 255 255
-0.215935 0.0123866 0.419 255 255 255
-0.211893 0.109925 0.459 255 255 255
0.10323 0.133036 0.596 255 255 255
0.260011 -0.0834514 0.745 0 0 0
0.00104652 -0.0490671 0.458 255 255 255
-0.0046186 0.11977 0.507 255 255 255
-0.11302 0.0850899 0.458 255 255 255
0.0758695 0.0115034 0.499 255 255 255
-0.0625186 -0.00283247 0.454 255 255 255
0.38742 -0.220202 0.831 0 0 0
0.0304635 0.160473 0.452 255 255 255
-0.0948964 0.139255 0.443 255 255 255
0.296683 0.0874371 0.755 0 0 0
0.0412867 -0.00695778 0.484 0 0 0
0.251481 0.0322475 0.82 0 0 0
0.14918 -0.00564943 0.508 255 255 255
-0.208348 0.0698758 0.433 255 255 255
-0.127701 -0.0153493 0.432 255 255 255
0.373628 0.01159 0.777 255 255 255
0.399202 -0.201022 0.803 255 255 255
0.187972 0.147089 0.594 255 255 255
0.0383505 0.0397647 0.497 255 255 255
0.121752 -0.0310303 0.504 255 255 255
0.0978573 -0.121408 0.461 255 255 255
-0.116646 0.0235029 0.449 255 255 255
0.0242491 -0.147151 0.433 255 255 255
-0.158629 -0.117908 0.392 255 255 255
-0.0938253 -0.0291051 0.438 0 0 0
0.274014 -0.0297843 0.737 0 0 0
0.2763 -0.125995 0.718 0 0 0
-0.197432 -0.102814 0.388 255 255 255
-0.0853048 0.160882 0.424 255 255 255
0.182416 0.117588 0.65 255 255 255
-0.122778 -0.0237854 0.432 255 255 255
-0.0563427 0.0167372 0.464 255 255 255
0.279848 0.0826319 0.756 255 255 255
0.121153 -0.138809 0.464 255 255 255
-0.172296 0.109942 0.482 255 255 255
-0.0126162 -0.00823332 0.467 255 255 255
0.282897 -0.104379 0.714 255 255 255
-0.19561 -0.133899 0.376 255 255 255
-0.13293 -0.0125663 0.433 0 0 0
0.24959 0.037906 0.827 0 0 0
-0.217598 0.122155 0.436 255 255 255
0.0808721 -0.146338 0.45 255 255 255
-0.0631048 0.123804 0.481 255 255 255
0.331684 0.0436069 0.762 0 0 0
-0.0275221 -0.0186707 0.462 255 255 255
0.0123096 -0.05539 0.461 255 255 255
0.047032 0.15609 0.463 255 255 255
-0.0116186 0.0860747 0.489 255 255 255
0.0835231 0.0240162 0.506 255 255 255
-0.0235079 0.0147215 0.472 255 255 255
-0.213063 -0.0224089 0.407 255 255 255
0.0190634 -0.0621418 0.461 255 255 255
0.147656 0.157456 0.562 255 255 255
0.124966 0.188246 0.494 255 255 255
-0.0273696 0.0610293 0.486 0 0 0
0.279315 0.114385 0.688 255 255 255
0.0390319 -0.112402 0.449 0 0 0
0.149786 -0.0347827 0.499 255 255 255
0.264192 0.156838 0.598 255 255 255
0.392666 -0.176193 0.803 255 255 255
0.0576869 -0.125657 0.452 255 255 255
-0.158239 -0.00686524 0.429 255 255 255
0.0678421 -0.0205156 0.488 255 255 255
-0.0757116 0.0449641 0.467 255 255 255
0.397575 -0.193662 0.805 255 255 255
0.273093 -0.117785 0.725 0 0 0
-0.0326673 -0.04821 0.45 255 255 255
0.32894 -0.187577 0.807 255 255 255
-0.158304 0.0106866 0.433 255 255 255
-0.0777281 0.0521365 0.47 255 255 255
0.06123 -0.129783 0.451 255 255 255
-0.0298768 -0.145129 0.421 255 255 255
0.375932 -0.271193 0.798 255 255 255
0.162956 0.15428 0.574 255 255 255
0.0363629 0.138645 0.492 255 255 255
0.266201 0.141201 0.628 255 255 255
-0.0599896 0.011427 0.463 255 255 255
0.147385 -0.0534015 0.491 0 0 0
0.291172 0.169106 0.58 0 0 0
0.331095 0.00634731 0.755 255 255 255
-0.125183 0.0195843 0.443 255 255 255
-0.0975663 -0.143029 0.398 255 255 255
0.0915464 -0.0956816 0.471 255 255 255
-0.143296 0.150479 0.42 255 255 255
0.0346505 0.0556862 0.502 0 0 0
-0.183917 -0.0793567 0.397 255 255 255
0.255322 0.041132 0.811 255 255 255
-0.0744284 0.166411 0.433 255 255 255
0.312664 -0.119482 0.721 0 0 0
0.292176 0.167795 0.582 0 0 0
0.140231 0.0368087 0.524 0 0 0
-0.0403986 0.0815356 0.481 255 255 255
0.253124 0.0576716 0.821 255 255 255
-0.217774 0.00891307 0.416 255 255 255
-0.196186 0.1354 0.422 255 255 255
0.00988384 -0.0780186 0.453 255 255 255
-0.157677 -0.136478 0.385 255 255 255
-0.151594 0.0178558 0.436 255 255 255
-0.201521 0.054625 0.435 0 0 0
0.014829 0.0524931 0.495 255 255 255
0.0381305 -0.118448 0.447 0 0 0
0.346489 -0.236427 0.799 255 255 255
0.0716665 -0.135955 0.452 255 255 255
0.184427 0.110972 0.661 255 255 255
-0.172097 0.00636928 0.427 255 255 255
-0.0517596 0.159779 0.438 255 255 255
0.130595 -0.0489044 0.494 255 255 255
0.14279 0.0342505 0.524 0 0 0
0.25497 0.0914954 0.748 255 255 255
-0.149779 0.0251226 0.439 255 255 255
-0.214058 0.00691525 0.418 255 255 255
-0.0648596 0.130428 0.471 255 255 255
-0.099778 0.157003 0.421 255 255 255
-0.0118058 -0.10442 0.437 255 255 255
-0.0580763 -0.135992 0.412 255 255 255
-0.0415033 0.0206453 0.467 255 255 255
0.299862 0.133454 0.65 0 0 0
0.117838 -0.15382 0.457 255 255 255
0.0551271 0.129608 0.51 255 255 255
0.0889812 -0.13434 0.454 255 255 255
-0.00403558 -0.0907145 0.443 0 0 0
-0.167822 -0.1456 0.381 255 255 255
-0.19499 -0.0337511 0.408 255 255 255
-0.0911194 -0.089891 0.419 255 255 255
-0.114709 0.110399 0.484 255 255 255
0.024073 0.117517 0.606 255 255 255
-0.100281 0.0133326 0.451 255 255 255
-0.0737601 0.0618365 0.474 0 0 0
-0.0335406 -0.130983 0.424 255 255 255
0.33274 -0.167773 0.788 255 255 255
-0.0078999 0.149932 0.458 255 255 255
-0.145667 -0.050782 0.417 255 255 255
-0.0841352 0.140065 0.455 255 255 255
-0.0369043 -0.132051 0.423 255 255 255
0.130924 0.138389 0.594 255 255 255
-0.0109058 -0.03797 0.459 0 0 0
-0.121747 0.00586046 0.441 255 255 255
-0.0961089 0.154708 0.426 255 255 255
0.0155357 -0.16141 0.426 255 255 255
0.126771 -0.00235653 0.511 255 255 255
0.306894 -0.142365 0.724 0 0 0
-0.0756591 -0.0744094 0.428 255 255 255
-0.150133 -0.0361108 0.42 0 0 0
-0.157208 0.00221552 0.43 255 255 255
-0.0947162 0.12628 0.467 255 255 255
-0.00328453 -0.105612 0.439 0 0 0
-0.177371 -0.00539251 0.423 255 255 255
0.0226394 -0.0245034 0.473 255 255 255
0.27229 0.155205 0.603 255 255 255
-0.141121 -0.125883 0.393 255 255 255
-0.141245 -0.0456795 0.42 255 255 255
0.231251 0.113912 0.672 255 255 255
0.0365105 -0.0937058 0.454 0 0 0
-0.142609 0.151753 0.416 255 255 255
0.259296 0.0360726 0.787 255 255 255
-0.0876057 0.139258 0.45 255 255 255
-0.209517 0.0918477 0.462 255 255 255
0.0351999 -0.0597825 0.466 255 255 255
0.289456 0.150548 0.604 0 0 0
-0.175162 0.00774085 0.426 255 255 255
0.0143481 -0.143999 0.432 255 255 255
-0.0479275 0.0561354 0.478 0 0 0
-0.199708 -0.0744574 0.395 0 0 0
0.120933 -0.107316 0.475 255 255 255
0.0920145 0.175109 0.512 255 255 255
0.0173993 -0.131744 0.438 255 255 255
-0.0124812 -0.0314518 0.462 0 0 0
0.0425662 0.0423608 0.499 255 255 255
-0.0705819 0.113713 0.495 255 255 255
-0.0171309 -0.0753614 0.446 255 255 255
0.27788 0.0848673 0.754 255 255 255
0.0320066 0.0496692 0.499 255 255 255
0.247435 0.0869739 0.751 255 255 255
-0.174021 -0.0736307 0.401 255 255 255
0.0534375 -0.0506741 0.473 255 255 255
0.242416 0.186628 0.533 255 255 255
0.0686422 -0.0635224 0.477 255 255 255
-0.0988573 0.157997 0.42 255 255 255
-0.20059 -0.0895544 0.388 0 0 0
-0.0709042 -0.0632999 0.433 255 255 255
-0.200168 0.142276 0.416 255 255 255
-0.207604 0.0358036 0.43 255 255 255
-0.128574 0.0556556 0.455 0 0 0
-0.0433495 0.0757401 0.479 255 255 255
-0.0726628 -0.1457 0.4 255 255 255
0.25918 0.0126394 0.764 255 255 255
-0.122903 0.00369909 0.44 255 255 255
0.0281693 0.0672568 0.503 255 255 255
0.000375246 0.126526 0.571 255 255 255
0.334213 0.112942 0.707 255 255 255
-0.102714 -0.0776177 0.419 255 255 255
-0.00121347 -0.0226726 0.467 255 255 255
-0.158303 -0.134598 0.385 255 255 255
-0.163807 0.144327 0.42 255 255 255
-0.00198211 -0.0181904 0.469 255 255 255
0.365097 0.0140825 0.775 255 255 255
-0.194906 -0.0908172 0.388 0 0 0
-0.19405 -0.144971 0.373 255 255 255
0.0458136 -0.154911 0.437 255 255 255
-0.132235 -0.116118 0.399 255 255 255
0.319913 -0.261383 0.788 255 255 255
-0.0415033 0.0191253 0.467 255 255 255
0.082849 -0.112405 0.461 255 255 255
-0.125888 0.0869445 0.456 255 255 255
-0.124597 0.0710483 0.454 255 255 255
-0.173305 -0.107063 0.392 255 255 255
0.236318 0.169948 0.564 255 255 255
0.134353 0.188201 0.496 255 255 255
0.313176 -0.223035 0.807 255 255 255
-0.0578914 -0.155814 0.406 255 255 255
-0.0155348 0.0540223 0.487 255 255 255
0.113119 -0.162794 0.453 255 255 255
-0.0336252 -0.0952278 0.434 255 255 255
-0.210275 0.120511 0.443 255 255 255
-0.029089 -0.00590244 0.463 255 255 255
0.200018 0.153166 0.584 0 0 0
0.0107566 0.0771515 0.493 255 255 255
-0.159021 -0.0299595 0.42 0 0 0
-0.146322 -0.00199682 0.433 255 255 255
0.253669 0.0837512 0.755 255 255 255
0.0945691 -0.127511 0.456 255 255 255
0.0295304 0.163061 0.449 255 255 255
0.0243055 -0.107537 0.447 255 255 255
-0.154491 -0.0392458 0.417 255 255 255
-0.0322275 0.11893 0.5 255 255 255
0.142042 0.166577 0.544 255 255 255
-0.199817 -0.0412073 0.403 0 0 0
-0.156763 -0.0199419 0.425 255 255 255
0.337433 -0.263042 0.793 255 255 255
0.21303 0.164683 0.568 255 255 255
-0.199397 0.147971 0.413 255 255 255
0.360846 0.0165835 0.774 255 255 255
0.378406 -0.219113 0.832 0 0 0
-0.160455 0.155475 0.408 255 255 255
0.127663 -0.0559122 0.492 255 255 255
-0.124676 0.0871352 0.457 255 255 255
0.109415 -0.151257 0.456 255 255 255
0.277845 -0.136146 0.71 255 255 255
-0.211717 0.11979 0.443 255 255 255
0.106471 -0.0392575 0.494 255 255 255
-0.128372 0.118172 0.465 255 255 255
0.294096 -0.227041 0.798 255 255 255
0.147233 0.152544 0.571 255 255 255
0.101876 0.10781 0.636 255 255 255
-0.164369 0.12854 0.436 255 255 255
-0.225775 0.110936 0.448 255 255 255
-0.00402647 -0.091229 0.442 0 0 0
0.33309 -0.0384905 0.743 255 255 255
0.287651 -0.0494242 0.726 255 255 255
-0.0637148 -0.0145888 0.452 0 0 0
0.364819 -0.187291 0.835 0 0 0
-0.12361 -0.029973 0.43 0 0 0
0.0883752 0.188771 0.483 255 255 255
-0.119873 -0.0677469 0.417 255 255 255
0.196288 0.131398 0.63 255 255 255
0.0224243 0.139829 0.485 255 255 255
0.112704 0.17328 0.519 255 255 255
0.0301881 -0.0820397 0.459 255 255 255
0.0426437 -0.145564 0.441 255 255 255
-0.0758206 -0.0828789 0.425 255 255 255
-0.162421 -0.0388694 0.413 0 0 0
0.120112 -0.0162672 0.504 255 255 255
-0.0284752 0.0351331 0.478 255 255 255
0.353977 -0.0267903 0.754 255 255 255
0.463736 -0.10478 0.909 255 255 255
0.340851 -0.276069 0.786 255 255 255
-0.0552521 -0.0276441 0.449 0 0 0
0.201718 0.161553 0.57 255 255 255
0.0344923 -0.109719 0.447 255 255 255
-0.0622823 -0.0289758 0.447 0 0 0
0.00101225 -0.0935981 0.443 255 255 255
0.368507 -0.225325 0.825 255 255 255
0.0614471 -0.158122 0.442 255 255 255
0.352715 0.103202 0.736 255 255 255
0.258277 -0.0642256 0.747 0 0 0
0.128102 0.0101565 0.513 255 255 255
-0.127368 -0.118417 0.398 255 255 255
-0.0610985 0.00536438 0.46 255 255 255
-0.145307 0.0385009 0.445 255 255 255
-0.211021 0.0293 0.427 255 255 255
0.137182 -0.0765841 0.486 0 0 0
0.255115 -0.0780178 0.763 0 0 0
-0.156282 -0.0560708 0.411 0 0 0
-0.023228 0.120316 0.499 255 255 255
0.00633925 0.121691 0.526 255 255 255
-0.0965036 -0.106642 0.41 255 255 255
0.10469 -0.0322169 0.497 255 255 255
-0.132141 0.0736775 0.452 255 255 255
0.278994 -0.08829 0.725 0 0 0
-0.0133764 -0.0120331 0.467 255 255 255
0.0445941 0.171574 0.439 255 255 255
-0.182744 -0.111308 0.389 255 255 255
-0.209915 0.0336259 0.429 255 255 255
-0.13866 0.0137234 0.44 255 255 255
-0.0937501 0.140779 0.441 255 255 255
-0.0555919 0.0870674 0.477 255 255 255
0.406847 -0.064764 0.832 255 255 255
-0.119298 -0.0816041 0.415 255 255 255
0.407334 -0.0271567 0.801 255 255 255
0.111574 -0.128515 0.465 255 255 255
0.101164 -0.0636669 0.484 255 255 255
0.382689 0.00148022 0.78 255 255 255
0.0945074 0.134577 0.59 255 255 255
-0.0938476 -0.0878455 0.419 255 255 255
0.00710264 -0.0398938 0.464 255 255 255
-0.179743 0.00984363 0.427 255 255 255
0.278366 0.168584 0.575 0 0 0
0.0232771 0.112521 0.611 255 255 255
0.218513 0.132028 0.638 255 255 255
-0.13589 0.0290868 0.445 255 255 255
-0.144257 0.128731 0.444 255 255 255
0.388873 -0.245742 0.817 0 0 0
-0.0361511 -0.019956 0.457 255 255 255
0.274451 0.0123747 0.748 0 0 0
-0.12977 0.137997 0.439 255 255 255
-0.132877 0.0405776 0.452 255 255 255
0.0594673 0.146353 0.491 255 255 255
-0.21116 0.0069318 0.419 255 255 255
0.028312 -0.0528438 0.465 255 255 255
-0.129802 0.130911 0.449 255 255 255
-0.00447284 0.13277 0.491 255 255 255
-0.160248 -0.104934 0.396 255 255 255
0.0626511 -0.111186 0.456 255 255 255
-0.111985 0.00591361 0.445 255 255 255
-0.0530371 -0.0847503 0.431 255 255 255
-0.00120827 -0.0308993 0.465 255 255 255
0.0368814 0.128348 0.575 255 255 255
-0.0290692 -0.0461153 0.451 255 255 255
0.101046 -0.025643 0.495 255 255 255
-0.0927489 0.0361342 0.461 255 255 255
0.228805 0.193271 0.516 255 255 255
-0.0558435 -0.0826461 0.431 255 255 255
-0.0513642 0.000124377 0.46 255 255 255
0.166775 0.126691 0.627 255 255 255
0.0199276 -0.152083 0.431 255 255 255
0.105954 0.180216 0.503 255 255 255
-0.193732 0.0730301 0.435 255 255 255
0.265254 0.0504441 0.753 255 255 255
-0.137647 0.132214 0.446 255 255 255
0.25443 0.00142329 0.75 0 0 0
-0.193346 -0.0213951 0.413 255 255 255
-0.153614 0.118888 0.459 255 255 255
-0.0719468 -0.138315 0.407 255 255 255
0.14474 0.0705996 0.528 0 0 0
0.109985 -0.0282864 0.499 255 255 255
0.349803 -0.124864 0.725 0 0 0
0.0284439 -0.00221357 0.48 255 255 255
-0.204071 0.0279102 0.427 255 255 255
-0.141282 0.067943 0.453 255 255 255
0.00303223 -0.154078 0.423 0 0 0
0.141084 0.0581267 0.524 255 255 255
-0.0289634 -0.0186303 0.461 255 255 255
0.295155 0.130416 0.656 0 0 0
0.063472 -0.038845 0.479 255 255 255
0.0442711 0.124933 0.599 255 255 255
0.0816357 0.187974 0.485 255 255 255
0.346469 -0.272075 0.793 255 255 255
-0.0576973 -0.104763 0.424 255 255 255
0.345057 -0.0895078 0.735 255 255 255
0.236914 0.0921889 0.785 255 255 255
-0.170662 0.152444 0.407 255 255 255
0.150486 -0.0924365 0.478 0 0 0
-0.16268 -0.111244 0.391 255 255 255
-0.210474 -0.0166097 0.411 255 255 255
-0.153517 -0.141122 0.384 255 255 255
-0.0697874 -0.139958 0.406 255 255 255
0.041862 -0.120171 0.448 255 255 255
-0.176304 0.0560961 0.441 0 0 0
0.292324 0.0172206 0.747 0 0 0
-0.0825963 -0.135324 0.404 255 255 255
0.0551271 0.0615533 0.51 0 0 0
0.275669 0.00994018 0.748 0 0 0
0.136485 0.00594746 0.51 0 0 0
-0.11521 0.145665 0.43 255 255 255
0.365765 -0.0880237 0.753 255 255 255
0.0234355 -0.156291 0.431 255 255 255
-0.181367 0.119486 0.45 255 255 255
-0.165822 -0.0980922 0.397 255 255 255
-0.221966 0.0767304 0.428 255 255 255
-0.163374 -0.0647976 0.407 255 255 255
0.0514519 -0.0409255 0.476 255 255 255
-0.153922 0.0709964 0.449 255 255 255
-0.100745 0.150913 0.431 255 255 255
-0.158861 -0.119516 0.391 255 255 255
0.0744856 0.120263 0.615 255 255 255
-0.143387 0.123776 0.455 255 255 255
-0.216177 0.11019 0.457 255 255 255
-0.0445848 0.145762 0.452 255 255 255
-0.0805671 0.0210844 0.46 255 255 255
0.0436594 0.0225969 0.493 255 255 255
0.273906 0.0756485 0.76 255 255 255
-0.192674 -0.0247555 0.413 255 255 255
0.295411 -0.0898994 0.719 255 255 255
-0.188037 -0.136457 0.378 255 255 255
0.0718723 -0.119872 0.458 255 255 255
0.114794 0.028745 0.517 255 255 255
0.180319 0.17834 0.529 255 255 255
0.0739096 0.150788 0.551 255 255 255
0.107584 -0.0750135 0.481 255 255 255
-0.12302 0.0181424 0.443 255 255 255
0.143114 -0.0822288 0.482 0 0 0
-0.0785538 0.0120226 0.457 255 255 255
0.32066 -0.22407 0.806 255 255 255
-0.101422 -0.098876 0.411 255 255 255
0.142908 0.171336 0.534 255 255 255
0.341301 -0.240721 0.796 255 255 255
-0.0721052 -0.0552243 0.436 255 255 255
-0.0517438 -0.136982 0.415 255 255 255
0.0432486 0.0653165 0.507 255 255 255
0.0982805 -0.133448 0.456 255 255 255
0.127921 -0.0955479 0.478 255 255 255
-0.123171 -0.129749 0.397 255 255 255
-0.170115 -0.108977 0.392 255 255 255
-0.168188 0.108482 0.486 255 255 255
-0.129218 0.0202593 0.442 255 255 255
0.0144992 0.122973 0.543 255 255 255
0.304478 0.0590218 0.753 255 255 255
-0.111788 0.109838 0.485 255 255 255
-0.151501 -0.0354273 0.42 0 0 0
0.0760304 0.0857894 0.511 255 255 255
0.0660747 -0.137245 0.449 255 255 255
0.0795009 -0.116399 0.459 255 255 255
0.0311944 0.0845868 0.499 255 255 255
0.00981274 0.136163 0.486 255 255 255
-0.163034 0.0475919 0.442 255 255 255
0.339811 -0.193786 0.811 255 255 255
-0.134381 -0.131942 0.392 255 255 255
-0.0426849 0.160508 0.44 255 255 255
0.00234367 -0.151325 0.423 0 0 0
0.0618121 0.0082222 0.497 255 255 255
0.336755 -0.209365 0.81 255 255 255
-0.181031 -0.0499797 0.405 255 255 255
0.042501 0.130293 0.588 255 255 255
0.1865 0.181097 0.527 255 255 255
-0.00798475 -0.147883 0.423 255 255 255
0.028312 -0.0543572 0.465 255 255 255
0.398052 -0.190418 0.825 255 255 255
0.0219818 0.129734 0.577 255 255 255
0.162595 0.187878 0.506 255 255 255
0.0360356 0.151359 0.467 255 255 255
-0.0759143 0.114056 0.493 255 255 255
0.253365 -0.0210661 0.769 0 0 0
-0.0855219 -0.0193447 0.443 255 255 255
-0.193606 0.108504 0.469 255 255 255
0.010102 -0.0435751 0.463 255 255 255
-0.194887 0.074617 0.436 255 255 255
-0.14842 -0.128114 0.392 255 255 255
-0.0714454 0.0587511 0.474 0 0 0
-0.195662 0.113659 0.456 255 255 255
0.0295698 0.0805266 0.499 255 255 255
0.11287 -0.169055 0.452 255 255 255
-0.148269 -0.112382 0.395 255 255 255
0.31061 0.0879003 0.759 255 255 255
-0.160194 0.108932 0.481 255 255 255
0.248364 0.0105382 0.793 255 255 255
-0.183064 -0.116404 0.387 255 255 255
-0.0888131 -0.0848392 0.421 255 255 255
0.168674 0.116864 0.646 255 255 255
-0.189474 0.0202667 0.427 255 255 255
0.206868 0.145633 0.604 255 255 255
0.0992275 -0.043724 0.49 255 255 255
-0.00488555 -0.0494861 0.455 0 0 0
-0.195334 0.0584319 0.437 255 255 255
-0.144329 0.0786519 0.451 255 255 255
-0.141876 -0.0241483 0.426 255 255 255
-0.165589 0.0696398 0.445 255 255 255
0.347217 0.00143847 0.758 255 255 255
-0.192478 -0.0785124 0.396 0 0 0
0.00394949 0.159408 0.449 255 255 255
0.0729877 0.0710984 0.513 255 255 255
0.309589 -0.284817 0.775 255 255 255
0.0839043 0.156527 0.546 255 255 255
-0.0312716 -0.0446475 0.451 255 255 255
-0.0774543 0.0624757 0.473 0 0 0
0.258036 0.0152051 0.768 0 0 0
0.00757717 0.131435 0.495 255 255 255
-0.123394 0.112063 0.481 255 255 255
-0.203414 0.0677619 0.433 255 255 255
-0.12413 0.0497321 0.455 255 255 255
-0.0425514 0.119834 0.497 255 255 255
0.0937395 -0.00879748 0.499 255 255 255
-0.101015 0.0155344 0.451 255 255 255
-0.0257874 0.0879193 0.486 255 255 255
-0.186513 0.0528634 0.438 255 255 255
0.137176 -0.153999 0.462 255 255 255
0.355593 -0.249429 0.799 255 255 255
-0.141852 -0.143855 0.388 255 255 255
0.0263106 -0.115485 0.444 255 255 255
-0.194998 -0.136347 0.376 255 255 255
0.040249 -0.0759736 0.463 0 0 0
-0.069481 0.0410761 0.466 255 255 255
0.341531 -0.138063 0.72 0 0 0
0.32168 -0.177279 0.802 255 255 255
0.374605 -0.0403942 0.756 255 255 255
-0.00829662 0.0283089 0.481 255 255 255
-0.0625196 0.0250971 0.465 255 255 255
0.0827918 -0.0628777 0.478 255 255 255
0.0731297 0.139091 0.573 255 255 255
0.341262 -0.048293 0.745 0 0 0
-0.0507339 0.0267822 0.468 255 255 255
-0.115141 0.00810427 0.446 255 255 255
0.0950686 0.0445572 0.515 255 255 255
-0.0444182 -0.0589946 0.443 255 255 255
-0.174938 -0.129536 0.383 255 255 255
0.140851 -0.0347827 0.499 0 0 0
-0.174589 -0.0425902 0.41 255 255 255
0.186026 0.155754 0.576 255 255 255
0.336079 0.126149 0.685 255 255 255
0.280918 -0.150672 0.73 0 0 0
-0.118336 0.00154749 0.439 0 0 0
0.000971115 -0.147891 0.425 0 0 0
0.350497 -0.293893 0.779 255 255 255
-0.191579 -0.0400936 0.405 255 255 255
0.040031 -0.154556 0.436 255 255 255
-0.0982076 0.0297404 0.455 255 255 255
0.0270863 -0.0404097 0.47 255 255 255
0.0170673 -0.0997578 0.448 255 255 255
-0.165208 -0.0677745 0.405 255 255 255
-0.0936651 -0.00927289 0.444 255 255 255
0.250496 0.170852 0.567 255 255 255
-0.0864377 -0.0143306 0.444 255 255 255
-0.215224 0.137207 0.415 255 255 255
-0.121105 0.0376354 0.452 255 255 255
-0.159603 -0.104934 0.396 255 255 255
-0.0368018 0.133081 0.475 255 255 255
0.163195 -0.128913 0.472 255 255 255
0.00178814 -0.0586279 0.457 255 255 255
0.399876 -0.274252 0.807 0 0 0
0.291133 -0.183956 0.797 255 255 255
0.223978 0.155863 0.587 255 255 255
0.0104337 -0.104159 0.445 255 255 255
0.0978227 -0.0216154 0.495 255 255 255
-0.0232475 0.152382 0.452 255 255 255
0.0358041 0.154162 0.464 255 255 255
0.162973 0.170625 0.54 255 255 255
0.16024 -0.170925 0.457 255 255 255
0.0969886 -0.0144817 0.499 255 255 255
-0.17078 0.119924 0.463 255 255 255
0.0433571 -0.0746275 0.464 0 0 0
0.0940446 0.178467 0.505 255 255 255
0.142575 0.183914 0.511 255 255 255
0.0972246 0.188374 0.484 255 255 255
-0.0754262 -0.0287165 0.443 0 0 0
-0.08196 -0.0937456 0.421 255 255 255
0.0479152 0.0796931 0.504 255 255 255
0.193367 0.159697 0.57 0 0 0
0.392308 -0.15799 0.784 255 255 255
0.132101 -0.134675 0.468 255 255 255
0.032755 0.00645846 0.486 255 255 255
0.259255 0.139821 0.631 255 255 255
-0.0764816 -0.122655 0.41 255 255 255
-0.00727894 -0.150967 0.422 255 255 255
0.148151 -0.0932143 0.478 0 0 0
0.334572 -0.0868785 0.733 255 255 255
0.0190102 0.0594136 0.499 0 0 0
-0.145703 0.0384144 0.444 255 255 255
0.281422 -0.285622 0.767 255 255 255
0.272104 -0.155832 0.755 0 0 0
-0.198323 0.112421 0.457 255 255 255
-0.209449 -0.0211879 0.409 255 255 255
0.00190944 0.0430153 0.488 255 255 255
0.274223 0.0973419 0.728 255 255 255
-0.130578 -0.127486 0.394 255 255 255
0.273925 0.0929253 0.74 0 0 0
-0.0679071 -0.0450928 0.441 255 255 255
-0.0277068 0.163026 0.441 255 255 255
-0.145008 0.148097 0.421 255 255 255
0.260674 0.141996 0.627 255 255 255
0.100023 -0.0055827 0.502 255 255 255
-0.173368 0.109048 0.485 255 255 255
-0.0214592 -0.0306335 0.461 0 0 0
0.353217 -0.00962492 0.755 255 255 255
-0.00201592 0.140628 0.477 255 255 255
0.148184 -0.0526025 0.491 0 0 0
-0.0691828 0.133775 0.464 255 255 255
0.401912 -0.20311 0.833 255 255 255
-0.0538985 0.160492 0.438 255 255 255
-0.0848802 0.151245 0.436 255 255 255
-0.188009 -0.0589143 0.403 0 0 0
0.00273151 0.0683265 0.493 255 255 255
0.170008 0.183194 0.516 255 255 255
-0.178516 -0.137179 0.38 255 255 255
0.13002 -0.138649 0.466 255 255 255
0.406871 -0.145976 0.795 255 255 255
-0.130223 -0.0857489 0.409 255 255 255
0.0643859 -0.0373639 0.48 255 255 255
-0.106717 0.0671825 0.463 0 0 0
0.040162 -0.0803204 0.462 255 255 255
-0.0768685 -0.0301583 0.443 0 0 0
0.150069 0.147906 0.582 255 255 255
0.262017 -0.116137 0.737 0 0 0
-0.152493 -0.147611 0.383 255 255 255
-0.189144 0.0358868 0.431 255 255 255
-0.183378 0.016871 0.429 255 255 255
-0.0300187 -0.134804 0.423 255 255 255
-0.201522 -0.00191843 0.416 255 255 255
0.115565 0.144566 0.58 255 255 255
-0.155198 0.114635 0.466 255 255 255
0.110341 -0.131729 0.463 255 255 255
0.148151 -0.103327 0.478 0 0 0
-0.17774 -0.0135237 0.419 255 255 255
0.27788 0.0860943 0.754 255 255 255
0.0255084 0.0561655 0.499 0 0 0
0.297246 -0.236834 0.796 255 255 255
-0.164381 -0.120804 0.389 255 255 255
-0.0577944 -0.144005 0.41 255 255 255
0.312257 0.0645175 0.76 255 255 255
-0.0434585 0.12268 0.489 255 255 255
0.273317 0.114219 0.687 255 255 255
0.336286 0.0337751 0.764 0 0 0
-0.0775896 -0.0279956 0.443 0 0 0
-0.213032 0.134075 0.42 255 255 255
0.105292 -0.121443 0.464 255 255 255
-0.0973394 -0.0185397 0.441 255 255 255
-0.0586442 -0.031158 0.447 0 0 0
-0.187668 -0.125759 0.381 255 255 255
-0.107524 0.128879 0.46 255 255 255
-0.026141 0.0335774 0.478 255 255 255
-0.131971 0.0268538 0.444 255 255 255
-0.036387 -0.124376 0.425 255 255 255
0.0921808 -0.165372 0.448 255 255 255
0.162041 -0.163064 0.46 255 255 255
-0.191106 -0.0538009 0.404 255 255 255
-0.081019 -0.0122178 0.446 255 255 255
-0.0811952 -0.0236701 0.443 255 255 255
0.253088 0.118847 0.669 255 255 255
-0.173738 -0.0536696 0.408 255 255 255
-0.177093 0.0119841 0.429 255 255 255
0.0641795 -0.164941 0.441 255 255 255
0.371037 -0.248909 0.81 255 255 255
0.0180746 -0.0798439 0.455 255 255 255
-0.034245 0.160519 0.442 255 255 255
-0.098869 -0.0413605 0.432 255 255 255
0.0964656 0.0844357 0.518 0 0 0
0.144466 0.0413074 0.527 0 0 0
0.0713176 0.0560716 0.513 0 0 0
0.140958 -0.0990722 0.48 0 0 0
-0.0909251 -0.0998383 0.415 255 255 255
0.243929 0.197275 0.509 255 255 255
-0.0784932 0.0659037 0.47 255 255 255
-0.0400685 0.136451 0.468 255 255 255
0.144096 0.119007 0.635 255 255 255
0.113121 0.190725 0.488 255 255 255
0.089214 -0.120881 0.459 255 255 255
0.0253692 0.159353 0.453 255 255 255
0.121226 0.160359 0.55 255 255 255
0.24436 0.136574 0.635 255 255 255
0.0286097 -0.146415 0.435 255 255 255
-0.148112 0.143632 0.424 255 255 255
0.00664829 0.0357211 0.486 0 0 0
0.20282 0.134047 0.628 255 255 255
-0.127405 0.143198 0.431 255 255 255
0.0874412 -0.0254358 0.491 255 255 255
0.144772 0.0368789 0.525 0 0 0
-0.0206197 -0.12804 0.428 255 255 255
0.139759 -0.0363338 0.498 0 0 0
0.0291358 -0.130364 0.443 255 255 255
-0.115532 -0.148267 0.393 255 255 255
0.1723 0.147058 0.59 255 255 255
0.0352543 0.142956 0.477 255 255 255
0.398234 -0.194625 0.809 255 255 255
-0.0809917 -0.0397967 0.438 255 255 255
-0.152663 0.0100281 0.435 255 255 255
-0.0982959 0.0170399 0.452 255 255 255
0.048122 -0.116831 0.452 255 255 255
-0.157272 0.132088 0.436 255 255 255
0.054084 0.0571785 0.508 0 0 0
0.127581 -0.12634 0.471 255 255 255
-0.198695 -0.101551 0.388 255 255 255
0.279026 -0.0945796 0.719 255 255 255
-0.21068 0.125252 0.432 255 255 255
0.00028587 0.167179 0.435 255 255 255
0.0247531 -0.126474 0.442 255 255 255
0.0519141 0.0459746 0.503 255 255 255
-0.0551019 -0.119495 0.42 255 255 255
-0.0525128 0.119812 0.57 255 255 255
0.0404604 -0.167586 0.433 255 255 255
0.251191 0.129223 0.65 255 255 255
0.121173 0.157243 0.558 255 255 255
-0.114162 -0.0203642 0.434 255 255 255
-0.198322 -0.0851565 0.391 255 255 255
0.334869 -0.279396 0.781 255 255 255
-0.0104544 -0.0979764 0.44 255 255 255
0.0705976 0.126882 0.599 255 255 255
-0.179228 -0.0294601 0.413 0 0 0
0.00101682 0.162332 0.445 255 255 255
-0.0862941 -0.0071533 0.447 255 255 255
0.0903581 -0.0609241 0.481 255 255 255
0.05137 0.00252466 0.49 255 255 255
0.293607 0.096277 0.738 0 0 0
0.071831 0.116827 0.618 255 255 255
0.00104195 0.15373 0.456 255 255 255
-0.114736 0.0406674 0.453 255 255 255
-0.0175413 -0.150609 0.421 255 255 255
0.254282 0.12653 0.658 255 255 255
-0.219692 0.0783059 0.429 255 255 255
-0.058922 -0.076688 0.433 255 255 255
0.0954217 -0.144365 0.453 255 255 255
-0.21195 0.122281 0.439 255 255 255
0.0558172 0.166649 0.443 255 255 255
-0.122799 -0.118361 0.4 255 255 255
-0.196396 -0.141099 0.374 255 255 255
0.00975293 0.161607 0.447 255 255 255
-0.0171554 0.058898 0.488 0 0 0
-0.229845 0.0850642 0.435 255 255 255
-0.156658 -0.0266053 0.421 255 255 255
-0.158717 0.127432 0.442 255 255 255
-0.149096 0.0171856 0.437 255 255 255
-0.163887 0.00923446 0.431 255 255 255
-0.183744 0.00979752 0.425 255 255 255
-0.0339014 0.00544601 0.467 255 255 255
0.290967 -0.116668 0.711 255 255 255
0.271875 0.122834 0.667 255 255 255
0.0359623 0.124384 0.509 255 255 255
-0.168379 -0.120493 0.388 255 255 255
-0.00042999 -0.0856681 0.443 255 255 255
0.0383505 0.0373384 0.497 255 255 255
-0.172495 0.122779 0.446 255 255 255
0.117028 -0.0831021 0.478 255 255 255
-0.109531 0.0539041 0.459 0 0 0
0.0686422 -0.0642986 0.477 255 255 255
-0.118985 0.0865806 0.458 255 255 255
0.028992 -0.0962352 0.452 0 0 0
0.302667 -0.199396 0.807 255 255 255
0.200412 0.0984425 0.694 255 255 255
-0.0376389 0.144399 0.457 255 255 255
-0.0651635 0.00384201 0.457 255 255 255
0.120285 -0.165734 0.455 255 255 255
0.142014 0.182001 0.515 255 255 255
-0.138152 -0.0969514 0.403 255 255 255
0.314893 0.11946 0.685 0 0 0
0.115859 -0.149685 0.458 255 255 255
-0.187474 0.12947 0.432 255 255 255
0.32597 -0.276855 0.781 255 255 255
0.149708 -0.0924365 0.478 0 0 0
0.0379647 0.0225511 0.492 255 255 255
0.192794 0.195805 0.501 255 255 255
-0.132588 0.107691 0.486 255 255 255
-0.162984 0.0350442 0.438 255 255 255
0.467817 -0.096749 0.917 255 255 255
0.158576 -0.148305 0.463 255 255 255
-0.0777135 -0.108766 0.413 255 255 255
0.0491224 0.0604852 0.508 0 0 0
0.187339 0.147557 0.592 255 255 255
0.082577 0.150979 0.555 255 255 255
0.0886674 -0.0912762 0.472 0 0 0
-0.114014 0.126358 0.459 255 255 255
0.262222 0.0374068 0.762 255 255 255
0.132903 0.00345087 0.509 0 0 0
0.00561614 -0.0339991 0.466 255 255 255
0.146279 0.147906 0.582 255 255 255
0.0651946 0.155458 0.492 255 255 255
-0.173404 -0.14002 0.381 255 255 255
-0.185592 0.108482 0.486 255 255 255
0.0422974 0.145901 0.469 255 255 255
-0.0132332 0.148235 0.462 255 255 255
0.0507788 0.141047 0.492 255 255 255
-0.0804446 0.0778087 0.468 255 255 255
0.130842 0.167367 0.538 255 255 255
0.108578 -0.0250884 0.5 255 255 255
0.15714 0.1866 0.507 255 255 255
0.310385 -0.212001 0.81 255 255 255
-0.15762 -0.0627591 0.411 255 255 255
-0.157832 -0.0779328 0.403 0 0 0
-0.113274 0.104958 0.488 255 255 255
0.0846655 0.0132327 0.503 255 255 255
-0.121419 -0.0613995 0.42 255 255 255
-0.170004 0.119686 0.465 255 255 255
-0.216053 0.138897 0.414 255 255 255
-0.0169761 -0.138573 0.424 255 255 255
-0.0758036 -0.0371987 0.441 255 255 255
-0.18582 0.0139472 0.425 255 255 255
0.1508 -0.102763 0.479 0 0 0
-0.150797 -0.0923241 0.4 255 255 255
-0.127675 -0.112784 0.401 255 255 255
-0.0541128 -0.0754525 0.434 255 255 255
-0.14579 0.158677 0.406 255 255 255
0.116638 0.174956 0.514 255 255 255
-0.0697542 -0.149046 0.402 255 255 255
-0.173361 0.125853 0.439 255 255 255
0.394118 -0.181589 0.798 255 255 255
0.00588223 -0.141234 0.43 255 255 255
-0.183947 -0.12948 0.381 255 255 255
-0.0403986 0.0604014 0.481 0 0 0
0.294765 -0.133646 0.709 255 255 255
-0.0891386 -0.0389055 0.436 255 255 255
0.259355 0.13327 0.644 255 255 255
-0.179322 0.0197551 0.431 255 255 255
0.260982 0.0770876 0.762 0 0 0
-0.0760358 0.0833175 0.469 255 255 255
0.337239 -0.219367 0.808 255 255 255
-0.100428 -0.0835545 0.418 255 255 255
0.170724 0.175681 0.534 255 255 255
0.25099 0.128085 0.655 255 255 255
0.33299 0.0612073 0.765 0 0 0
-0.216806 0.0663526 0.433 255 255 255
0.235311 0.164841 0.575 255 255 255
-0.150243 -0.0882064 0.402 255 255 255
-0.137857 -0.137332 0.391 255 255 255
-0.165453 -0.00751048 0.426 255 255 255
0.0481671 -0.154906 0.439 255 255 255
-0.13582 0.0729419 0.452 255 255 255
0.0321656 -0.0529575 0.466 255 255 255
-0.179926 -0.0616902 0.404 255 255 255
0.116616 0.135717 0.595 255 255 255
-0.0532625 0.0862911 0.477 255 255 255
-0.0906845 -0.0955693 0.417 255 255 255
0.152761 -0.116101 0.473 0 0 0
0.13893 0.0236512 0.516 0 0 0
-0.0927543 -0.0456841 0.433 255 255 255
-0.200072 -0.118939 0.381 255 255 255
0.317961 0.046768 0.753 0 0 0
-0.0801653 0.0249352 0.462 255 255 255
0.263152 -0.14581 0.754 0 0 0
-0.0440916 -0.0500708 0.447 255 255 255
-0.17475 0.00218976 0.425 255 255 255
-0.0605963 0.121136 0.486 255 255 255
0.10341 -0.132832 0.459 255 255 255
-0.13102 0.119406 0.461 255 255 255
-0.0233177 0.0544771 0.484 0 0 0
0.129392 -0.0286265 0.505 255 255 255
0.177702 0.10973 0.66 255 255 255
0.0843479 -0.0589884 0.478 255 255 255
-0.147542 -0.100786 0.4 255 255 255
0.0483018 -0.0653702 0.468 255 255 255
0.259717 0.174522 0.561 255 255 255
0.0641176 -0.0457647 0.478 255 255 255
0.0669486 -0.0633892 0.476 255 255 255
-0.101834 -0.0725073 0.421 255 255 255
-0.170175 0.0445125 0.44 255 255 255
0.119881 -0.00235192 0.51 255 255 255
-0.116988 -0.0175392 0.434 255 255 255
0.0102289 0.120078 0.604 255 255 255
-0.0306052 -0.0418043 0.452 255 255 255
-0.0909734 -0.032669 0.438 0 0 0
0.0142817 -0.148931 0.43 255 255 255
0.109864 -0.140162 0.461 255 255 255
-0.119195 -0.0919634 0.41 255 255 255
-0.08559 0.149826 0.436 255 255 255
0.124442 -0.136838 0.465 255 255 255
-0.13268 0.113757 0.475 255 255 255
-0.024555 -0.0612549 0.449 255 255 255
0.313701 -0.129501 0.718 0 0 0
-0.0792345 -0.127056 0.407 255 255 255
-0.145436 0.129297 0.441 255 255 255
-0.114191 -0.142594 0.395 255 255 255
0.294096 -0.182888 0.798 255 255 255
-0.0789581 -0.123687 0.409 255 255 255
0.275237 0.145146 0.623 255 255 255
0.0446336 0.130544 0.504 255 255 255
0.0473448 0.0333614 0.498 255 255 255
-0.0249738 -0.111403 0.431 255 255 255
-0.0449794 -0.0169441 0.456 255 255 255
-0.178807 -0.146914 0.378 255 255 255
0.0751645 0.188374 0.484 255 255 255
0.295148 -0.0660552 0.727 0 0 0
0.0548445 -0.100713 0.459 255 255 255
-0.228182 0.110688 0.447 255 255 255
-0.181201 0.15346 0.401 255 255 255
-0.228819 0.0875467 0.444 255 255 255
0.0646646 -0.0197215 0.488 255 255 255
0.0517879 -0.0559436 0.472 255 255 255
-0.169425 -0.0277097 0.417 0 0 0
-0.0219216 0.0628687 0.488 255 255 255
0.115616 -0.146596 0.46 255 255 255
0.0868184 -0.0222851 0.492 255 255 255
-0.201203 0.0083351 0.421 255 255 255
-0.0900788 0.154376 0.427 255 255 255
0.39381 -0.300754 0.787 0 0 0
0.0935873 0.112765 0.629 255 255 255
0.0563184 0.154494 0.465 255 255 255
-0.205627 0.150746 0.399 255 255 255
-0.204328 0.0329278 0.429 255 255 255
0.107953 -0.116645 0.469 255 255 255
0.28541 0.044023 0.748 255 255 255
0.137923 -0.168694 0.457 255 255 255
-0.0494143 -0.0964494 0.43 255 255 255
-0.111773 0.0845288 0.459 255 255 255
0.0926763 -0.135079 0.454 255 255 255
-0.00619893 -0.0878308 0.443 0 0 0
0.290822 -0.040248 0.731 255 255 255
0.108728 0.131107 0.605 255 255 255
-0.0421945 -0.0155278 0.458 255 255 255
0.255787 -0.0905946 0.754 0 0 0
0.0451582 -0.0369747 0.475 0 0 0
0.0841801 0.0206816 0.505 255 255 255
-0.203853 -0.101919 0.387 255 255 255
0.393796 -0.177291 0.808 255 255 255
-0.133022 0.0360043 0.45 255 255 255
0.361341 -0.0316983 0.754 255 255 255
-0.131548 0.148462 0.424 255 255 255
0.0644511 0.0280778 0.505 255 255 255
0.155161 -0.0363338 0.498 255 255 255
-0.101393 0.032774 0.456 255 255 255
0.252661 -0.00102042 0.752 0 0 0
-0.147299 0.132694 0.438 255 255 255
0.277862 -0.117488 0.716 0 0 0
0.145256 0.187583 0.503 255 255 255
0.210437 0.165945 0.566 255 255 255
0.125971 0.0795963 0.525 0 0 0
0.360591 -0.0255972 0.755 255 255 255
0.331116 -0.0349101 0.744 255 255 255
0.154054 -0.145291 0.463 0 0 0
0.111267 -0.0795442 0.48 255 255 255
-0.138694 -0.146381 0.388 255 255 255
-0.198661 -0.0362285 0.406 0 0 0
0.0187739 -0.0848401 0.454 255 255 255
-0.0434998 0.158003 0.441 255 255 255
0.106018 -0.100148 0.474 255 255 255
0.00111507 0.0398388 0.488 255 255 255
-0.0893949 0.0814423 0.467 255 255 255
-0.17167 0.149261 0.411 255 255 255
0.0757889 -0.0644334 0.478 255 255 255
-0.0844121 0.15756 0.43 255 255 255
-0.217404 0.0784884 0.43 255 255 255
-0.0156789 -0.0775388 0.446 255 255 255
0.0283254 -0.0107608 0.478 255 255 255
-0.181222 0.0515553 0.439 255 255 255
0.398689 -0.206472 0.784 255 255 255
0.0777242 -0.134781 0.453 255 255 255
-0.154065 0.00292205 0.431 255 255 255
0.0909724 -0.0912762 0.472 255 255 255
0.253624 -0.0845572 0.766 255 255 255
-0.0078309 -0.0508549 0.454 0 0 0
-0.0415871 -0.0814764 0.436 255 255 255
-0.0288922 0.0695855 0.485 255 255 255
-0.164288 -0.0157179 0.423 255 255 255
0.147385 -0.0557985 0.491 0 0 0
-0.0919893 -0.0742285 0.423 255 255 255
0.304002 0.165455 0.594 255 255 255
-0.0502476 0.146581 0.45 255 255 255
-0.0572287 0.113592 0.498 255 255 255
0.00900307 0.0269658 0.485 255 255 255
0.1894 0.169333 0.553 255 255 255
-0.00869382 -0.144093 0.424 255 255 255
-0.00260505 -0.0809857 0.445 0 0 0
0.32146 -0.233949 0.795 255 255 255
0.395593 -0.185726 0.788 0 0 0
0.201592 0.172837 0.547 255 255 255
0.0768354 0.175887 0.5 255 255 255
0.0853022 0.161238 0.538 255 255 255
0.38003 -0.301267 0.785 255 255 255
-0.101302 -0.0865395 0.416 255 255 255
0.313658 -0.272119 0.782 255 255 255
-0.00817352 -0.119671 0.433 255 255 255
0.341433 0.0553421 0.77 255 255 255
-0.106921 -0.103719 0.409 255 255 255
-0.037829 -0.144094 0.418 255 255 255
-0.137152 -0.14296 0.389 255 255 255
-0.176704 0.068451 0.442 255 255 255
0.222609 0.172655 0.555 255 255 255
0.361116 0.115707 0.717 255 255 255
0.124174 -0.14032 0.464 255 255 255
-0.16449 0.142277 0.42 255 255 255
0.250941 0.157191 0.592 255 255 255
0.022766 0.155079 0.46 255 255 255
-0.145797 0.0808537 0.451 255 255 255
0.0345891 0.148637 0.468 255 255 255
-0.184508 0.138147 0.422 255 255 255
0.0894397 -0.104973 0.468 255 255 255
0.0197431 0.0543228 0.497 255 255 255
0.0267405 -0.060281 0.464 255 255 255
-0.0440993 -0.147075 0.413 255 255 255
-0.155844 0.010005 0.434 255 255 255
0.0890568 -0.0970082 0.47 255 255 255
-0.164818 0.0840845 0.441 255 255 255
0.14413 0.163637 0.552 255 255 255
0.156431 0.149543 0.581 255 255 255
-0.00111473 -0.139509 0.429 0 0 0
-0.0551982 -0.0638847 0.437 255 255 255
-0.098538 0.0495301 0.46 255 255 255
-0.114689 -0.0169105 0.436 255 255 255
0.108333 -0.0932057 0.474 255 255 255
-0.130936 -0.101542 0.403 255 255 255
0.0982805 -0.140126 0.456 255 255 255
-0.0836661 -0.128065 0.406 255 255 255
-0.0622097 -0.157019 0.404 255 255 255
0.115189 -0.0138067 0.504 255 255 255
0.366652 0.0688421 0.781 0 0 0
0.191215 0.121742 0.644 255 255 255
-0.0817931 0.046484 0.467 255 255 255
0.179234 0.171889 0.544 255 255 255
0.347761 -0.225941 0.808 255 255 255
0.073553 -0.0181703 0.489 255 255 255
0.333128 -0.298305 0.774 255 255 255
0.0302887 0.114697 0.612 255 255 255
-0.137827 -0.0511473 0.42 255 255 255
0.321263 0.0161764 0.755 0 0 0
0.152132 0.144178 0.59 255 255 255
0.0390839 0.140117 0.486 255 255 255
0.162695 -0.156176 0.464 255 255 255
-0.157715 -0.0482786 0.413 255 255 255
0.0654408 0.0196631 0.5 255 255 255
0.060136 0.130216 0.592 255 255 255
-0.0309268 0.0100272 0.468 255 255 255
0.27276 -0.130042 0.721 0 0 0
0.108695 -0.158371 0.453 255 255 255
-0.177287 -0.0455902 0.407 255 255 255
0.138986 0.0879504 0.529 255 255 255
0.202391 0.11813 0.653 255 255 255
-0.0926574 -0.137925 0.402 255 255 255
-0.0303344 -0.0509119 0.448 255 255 255
0.00830353 0.114748 0.607 255 255 255
-0.0621642 0.151544 0.441 255 255 255
-0.0601687 -0.0153583 0.453 255 255 255
0.0396659 -0.0672213 0.465 255 255 255
-0.127372 0.0869445 0.456 255 255 255
0.0894358 -0.0905081 0.472 255 255 255
0.119815 0.169411 0.528 255 255 255
-0.0686931 0.0530139 0.471 255 255 255
-0.169917 -0.0965563 0.396 255 255 255
-0.183681 0.11003 0.469 255 255 255
0.091065 0.186341 0.489 255 255 255
0.00995408 0.0707333 0.493 255 255 255
0.0296315 -0.0260979 0.474 255 255 255
0.15404 0.192625 0.497 255 255 255
-0.153365 0.024297 0.437 255 255 255
-0.075206 -0.109703 0.414 255 255 255
0.00750063 0.043989 0.49 255 255 255
-0.0645605 0.138007 0.458 255 255 255
0.276973 0.0974756 0.729 255 255 255
-0.0336225 -0.0367365 0.453 255 255 255
0.108259 0.177745 0.51 255 255 255
-0.0829566 0.133306 0.465 255 255 255
-0.201256 -0.0779176 0.393 0 0 0
-0.10858 -0.135257 0.398 255 255 255
0.30596 0.114718 0.69 255 255 255
0.164532 -0.0819513 0.485 255 255 255
0.317755 -0.0675158 0.73 255 255 255
0.0877219 0.150248 0.559 255 255 255
-0.141383 -0.101038 0.401 255 255 255
0.067807 0.115821 0.618 255 255 255
