ply
format ascii 1.0
comment Created by Open3D
element vertex 1295
property double x
property double y
property double z
property uchar red
property uchar green
property uchar blue
end_header
-0.217786 -0.0138142 0.428 255 255 255
-0.187072 0.0116017 0.441 255 255 255
-0.0169796 0.0810886 0.483 255 255 255
-0.12506 0.121757 0.453 255 255 255
0.213671 0.178847 0.518 255 255 255
0.129957 0.0567283 0.504 255 255 255
0.253503 0.132703 0.617 255 255 255
-0.0597451 -0.115801 0.419 255 255 255
0.197767 -0.103098 0.463 255 255 255
0.00449275 -0.107194 0.431 255 255 255
0.0578317 0.137966 0.484 255 255 255
0.184335 -0.0573125 0.477 255 255 255
0.092741 0.133042 0.498 255 255 255
0.0348222 -0.0253821 0.461 255 255 255
0.0797468 -0.138375 0.432 0 0 0
-0.160405 0.0938585 0.484 255 255 255
-0.141402 0.0987559 0.481 255 255 255
-0.0865421 -0.150445 0.404 255 255 255
-0.0689362 -0.0380883 0.443 0 0 0
0.0877007 0.0785863 0.497 255 255 255
0.0110433 0.0146903 0.471 255 255 255
0.0567563 0.00631228 0.475 255 255 255
-0.0177368 -0.0589946 0.443 255 255 255
0.213885 -0.115656 0.462 255 255 255
0.228823 0.168348 0.544 255 255 255
0.0263183 -0.154035 0.421 255 255 255
0.0850055 -0.0183455 0.473 255 255 255
-0.177523 0.108431 0.459 255 255 255
0.104746 0.0048767 0.486 255 255 255
0.209959 0.185775 0.507 255 255 255
0.199234 -0.0446714 0.483 255 255 255
-0.187938 0.00582059 0.438 255 255 255
0.15298 0.00332883 0.491 255 255 255
-0.0572305 -0.152511 0.406 255 255 255
0.0621421 -0.150671 0.427 255 255 255
0.0982336 -0.103634 0.449 255 255 255
0.134084 0.141956 0.498 255 255 255
0.119168 0.0144855 0.49 255 255 255
-0.105795 0.0329896 0.459 255 255 255
-0.0313251 0.117182 0.486 255 255 255
0.182199 0.155834 0.553 255 255 255
0.0404713 -0.0519347 0.457 255 255 255
-0.193645 -0.0269844 0.427 255 255 255
0.0429347 0.12389 0.594 255 255 255
0.256274 0.171889 0.544 255 255 255
-0.0935576 0.0119437 0.454 255 255 255
-0.168832 -0.124894 0.398 255 255 255
-0.167559 -0.136166 0.395 0 0 0
0.0796141 -0.106574 0.443 0 0 0
-0.0393773 0.160731 0.42 255 255 255
0.182193 0.021333 0.501 255 255 255
-0.147359 0.0993317 0.48 255 255 255
0.0536496 0.166714 0.449 255 255 255
0.09055 0.135355 0.602 255 255 255
-0.111687 0.0907139 0.506 255 255 255
-0.052839 -0.136322 0.413 255 255 255
-0.167184 0.0754013 0.472 255 255 255
0.253034 0.182299 0.528 255 255 255
-0.133217 -0.141795 0.4 255 255 255
0.0242491 -0.112624 0.433 255 255 255
-0.0969196 0.118417 0.463 255 255 255
0.199379 -0.0638942 0.474 255 255 255
0.0205196 0.144599 0.46 255 255 255
-0.123121 0.100739 0.483 255 255 255
-0.129376 0.0884693 0.498 255 255 255
0.00249326 -0.0533361 0.45 255 255 255
0.127143 -0.0255402 0.478 255 255 255
0.0477887 -0.155455 0.423 255 255 255
0.0604959 -0.0769402 0.451 255 255 255
0.0157099 0.0193711 0.473 255 255 255
-0.144254 0.0827221 0.488 255 255 255
-0.0800934 -0.137327 0.408 255 255 255
-0.0607285 -0.0537047 0.441 255 255 255
-0.111046 0.00964155 0.45 255 255 255
-0.223187 0.0738426 0.467 255 255 255
0.16143 -0.113888 0.452 255 255 255
0.364412 0.022556 0.763 255 255 255
-0.163373 -0.0477185 0.426 255 255 255
-0.125466 0.138544 0.434 255 255 255
-0.0687897 0.148795 0.433 255 255 255
-0.0617988 -0.143338 0.41 255 255 255
0.354199 0.110843 0.701 255 255 255
-0.116282 -0.0323706 0.434 255 255 255
-0.0255814 -0.123007 0.418 255 255 255
-0.232079 0.0723002 0.462 255 255 255
-0.117946 -0.147284 0.399 255 255 255
-0.176808 -0.134271 0.397 0 0 0
-0.0518736 0.153023 0.433 255 255 255
0.177404 0.0163757 0.499 255 255 255
-0.194283 -0.0660712 0.415 255 255 255
-0.171391 -0.145976 0.392 255 255 255
0.0349733 -0.020218 0.463 255 255 255
-0.115797 0.143953 0.427 255 255 255
0.0434767 -0.139184 0.428 255 255 255
-0.204017 -0.0371447 0.424 255 255 255
0.22614 0.0163757 0.499 0 0 0
-0.163417 -0.0673899 0.419 255 255 255
-0.197184 -0.0672595 0.414 255 255 255
0.0307238 0.0289707 0.479 255 255 255
-0.199281 -0.115827 0.398 255 255 255
-0.158851 -0.0990604 0.409 255 255 255
-0.193861 0.139904 0.417 255 255 255
-0.19499 -0.0835474 0.408 255 255 255
-0.0576574 -0.0375361 0.445 0 0 0
0.0523365 0.0125487 0.477 255 255 255
0.0797069 0.11909 0.609 255 255 255
0.206598 0.0569064 0.513 255 255 255
-0.172863 -0.148785 0.391 255 255 255
-0.117094 -0.109844 0.412 255 255 255
-0.168199 0.113899 0.454 255 255 255
0.127681 0.0104771 0.489 255 255 255
0.019427 0.158266 0.452 255 255 255
-0.217234 0.105539 0.453 255 255 255
-0.183806 -0.0229755 0.43 255 255 255
-0.131395 -0.055604 0.428 255 255 255
-0.0667727 0.0204684 0.463 255 255 255
0.209322 0.154988 0.563 255 255 255
0.22407 -0.0400381 0.484 0 0 0
0.174006 -0.0259143 0.485 255 255 255
-0.0806071 0.0987659 0.518 0 0 0
-0.189164 0.0803026 0.483 255 255 255
-0.13243 0.0103277 0.448 255 255 255
0.00931656 -0.128435 0.427 255 255 255
-0.151865 0.00804975 0.443 0 0 0
0.0673214 -0.147188 0.429 255 255 255
-0.0583875 0.160192 0.424 255 255 255
-0.0269277 -0.0686194 0.44 255 255 255
0.0801795 0.00874025 0.481 255 255 255
0.0966249 0.0418515 0.493 255 255 255
-0.000438726 0.147968 0.452 255 255 255
0.288095 0.126837 0.638 255 255 255
-0.00120308 -0.0081628 0.463 255 255 255
0.12848 -0.000659474 0.486 255 255 255
0.171551 -0.0471224 0.476 255 255 255
-0.193605 -0.0180773 0.43 255 255 255
0.0278374 -0.110059 0.434 255 255 255
0.222494 -0.149445 0.455 255 255 255
0.0911272 -0.0950771 0.45 255 255 255
-0.080486 -0.132663 0.41 255 255 255
-0.115997 -0.149232 0.399 255 255 255
0.0571858 0.0761944 0.492 255 255 255
-0.104184 -0.105661 0.414 255 255 255
-0.167077 0.0249642 0.449 0 0 0
-0.131528 -0.104227 0.411 0 0 0
-0.0123166 -0.102047 0.43 255 255 255
0.139478 0.0235891 0.497 255 255 255
0.214357 -0.0699172 0.473 255 255 255
0.0160463 -0.0893841 0.44 255 255 255
0.240189 -0.0561107 0.48 255 255 255
0.372754 0.0789251 0.733 255 255 255
-0.117768 0.073052 0.462 255 255 255
-0.0811005 -0.0721255 0.431 0 0 0
-0.110328 0.11227 0.472 255 255 255
-0.121397 -0.141241 0.404 255 255 255
-0.119108 -0.0401395 0.434 0 0 0
-0.190048 -0.143059 0.391 255 255 255
0.0500795 0.0611061 0.493 0 0 0
0.0248941 0.114732 0.503 255 255 255
0.0560652 0.119283 0.6 255 255 255
0.0337532 0.0765255 0.489 255 255 255
0.153626 0.154245 0.535 255 255 255
0.175359 0.188701 0.491 255 255 255
0.220779 -0.138467 0.453 255 255 255
0.0252528 0.119915 0.494 255 255 255
0.120549 -0.106734 0.456 255 255 255
-0.00695129 -0.0585367 0.445 255 255 255
0.175883 -0.0734539 0.471 255 255 255
0.046978 0.000127081 0.47 255 255 255
-0.135436 -0.0392515 0.432 0 0 0
-0.202943 -0.0939048 0.404 0 0 0
0.179089 -0.128599 0.452 255 255 255
0.12429 0.135474 0.501 255 255 255
0.224531 0.125883 0.623 255 255 255
0.120332 -0.0878235 0.458 255 255 255
0.189488 -0.124736 0.454 255 255 255
0.213956 0.000134922 0.499 255 255 255
0.0841715 0.142956 0.477 255 255 255
-0.00510686 -0.159845 0.413 255 255 255
0.0402478 0.130848 0.481 255 255 255
0.162158 -0.0739053 0.469 255 255 255
0.00260962 0.0116244 0.471 255 255 255
-0.0646256 -0.136331 0.411 255 255 255
0.289156 0.122981 0.645 255 255 255
0.0556912 -0.099141 0.442 255 255 255
-0.0818462 0.0295099 0.463 255 255 255
0.0940364 -0.113783 0.443 255 255 255
-0.0838092 0.112529 0.483 255 255 255
0.0140555 -0.0766408 0.445 255 255 255
0.106571 0.127541 0.593 255 255 255
-0.190537 0.146483 0.407 255 255 255
-0.0965374 -0.117504 0.413 255 255 255
0.066508 0.155555 0.457 255 255 255
-0.141769 0.00516613 0.443 255 255 255
0.181229 -0.05576 0.477 255 255 255
0.0794285 -0.124616 0.438 0 0 0
0.217144 -0.00390953 0.497 255 255 255
-0.0656599 -0.154772 0.405 255 255 255
-0.11311 -0.0628614 0.43 255 255 255
-0.0267501 0.0395505 0.475 255 255 255
-0.178834 0.116082 0.451 255 255 255
-0.132693 -0.00204755 0.444 255 255 255
-0.0886486 0.112105 0.488 255 255 255
0.148099 -0.063847 0.468 255 255 255
0.0879879 0.117526 0.508 255 255 255
0.0452533 0.0117478 0.476 255 255 255
-0.193861 0.139225 0.417 255 255 255
-0.0828353 0.10345 0.496 0 0 0
-0.0191358 -0.0603 0.442 255 255 255
-0.191197 0.0403083 0.449 0 0 0
0.170283 -0.100494 0.458 255 255 255
-0.028777 -0.105011 0.425 255 255 255
-0.204163 -0.131903 0.39 0 0 0
-0.182085 0.104855 0.463 255 255 255
0.218828 0.12261 0.627 255 255 255
-0.0944306 -0.0700213 0.431 0 0 0
-0.1899 -0.128777 0.396 255 255 255
0.14577 -0.0195194 0.483 255 255 255
-0.132521 0.0511381 0.461 0 0 0
0.0931078 -0.14189 0.432 255 255 255
-0.03897 -0.105893 0.423 255 255 255
0.0407727 0.11482 0.507 255 255 255
-0.23155 0.0898018 0.467 255 255 255
-0.0478999 -0.14235 0.411 255 255 255
-0.0720625 -0.0159533 0.449 255 255 255
-0.101668 -0.0390839 0.438 0 0 0
-0.169647 0.0360043 0.45 255 255 255
0.151259 -0.0749492 0.466 255 255 255
0.0320926 -0.0793587 0.444 255 255 255
0.155331 -0.136132 0.443 255 255 255
-0.0851973 0.108 0.491 255 255 255
-0.121227 -0.0337832 0.434 255 255 255
-0.170919 -0.0646625 0.419 255 255 255
-0.0677291 -0.104269 0.422 255 255 255
-0.204823 0.0768391 0.481 255 255 255
0.293212 0.122309 0.647 255 255 255
-0.00342669 -0.0222357 0.458 255 255 255
-0.0209471 -0.0416193 0.45 255 255 255
-0.045445 -0.0412494 0.446 0 0 0
0.00800067 -0.11 0.431 255 255 255
0.084107 -0.037953 0.468 255 255 255
-0.16845 0.0102125 0.443 255 255 255
0.170093 0.183655 0.499 255 255 255
0.174134 0.127729 0.603 255 255 255
0.367655 0.0684074 0.762 0 0 0
0.157965 0.0801675 0.507 255 255 255
0.215773 0.087977 0.519 255 255 255
0.185409 -0.0268687 0.488 255 255 255
-0.0552479 -0.150529 0.406 255 255 255
0.134722 -0.130659 0.444 255 255 255
-0.0784966 -0.0414105 0.44 255 255 255
0.272683 0.160343 0.569 255 255 255
0.0500795 0.0659197 0.493 255 255 255
0.195207 0.0647965 0.516 0 0 0
0.0236569 0.131588 0.478 255 255 255
0.0905063 0.140117 0.486 255 255 255
-0.216575 -0.0518891 0.415 255 255 255
-0.0672244 -0.0729958 0.432 0 0 0
-0.0318638 -0.0393348 0.449 0 0 0
-0.0240364 -0.0278904 0.453 255 255 255
0.102675 0.0780905 0.499 255 255 255
-0.0228875 0.144953 0.445 255 255 255
-0.158345 0.121779 0.445 255 255 255
0.169185 0.178821 0.506 255 255 255
-0.201332 0.092104 0.471 255 255 255
-0.00114331 0.168385 0.44 255 255 255
0.100037 0.134663 0.498 255 255 255
0.146875 -0.126003 0.448 255 255 255
0.29177 0.114752 0.658 255 255 255
0.190711 0.159174 0.549 255 255 255
0.0997892 0.15609 0.463 255 255 255
-0.159746 0.0258093 0.451 0 0 0
0.187526 0.0090855 0.5 255 255 255
0.106689 -0.0200532 0.477 255 255 255
-0.0947319 -0.126298 0.411 255 255 255
-0.2132 0.144141 0.406 255 255 255
0.216393 -0.0185419 0.499 255 255 255
0.233029 0.163329 0.554 255 255 255
-0.171696 0.12977 0.433 255 255 255
-0.148453 0.135483 0.431 255 255 255
-0.176781 0.0225186 0.444 0 0 0
0.0210338 -0.135442 0.425 255 255 255
0.140548 -0.165472 0.433 255 255 255
0.045604 -0.118808 0.435 255 255 255
-0.127404 0.152739 0.415 255 255 255
-0.186255 0.103571 0.464 255 255 255
0.137018 -0.104049 0.454 255 255 255
-0.123369 0.11003 0.469 255 255 255
0.132549 0.15997 0.459 255 255 255
-0.137759 0.145012 0.424 255 255 255
0.231146 0.13539 0.611 255 255 255
0.131973 -0.0383584 0.473 255 255 255
-0.165589 0.0153277 0.445 255 255 255
-0.00741992 0.0302747 0.475 0 0 0
0.24054 -0.0786519 0.47 255 255 255
0.0681468 0.0606707 0.496 0 0 0
-0.109535 -0.0953458 0.419 255 255 255
0.0853725 -0.140484 0.432 0 0 0
-0.213539 -0.0382521 0.421 0 0 0
-0.215316 0.049807 0.449 255 255 255
0.0638876 -0.0301426 0.465 0 0 0
0.0390319 0.165253 0.449 255 255 255
0.232476 -0.0627461 0.477 0 0 0
-0.221602 -0.0287287 0.422 0 0 0
0.0571858 0.0801976 0.492 255 255 255
-0.0963453 -0.0998798 0.418 255 255 255
0.0825731 0.127306 0.601 255 255 255
0.17236 0.0660895 0.513 0 0 0
0.155753 0.138435 0.582 255 255 255
-0.00833111 0.0520066 0.483 0 0 0
-0.170276 0.0124031 0.444 255 255 255
-0.0455539 -0.131936 0.414 255 255 255
-0.0581055 -0.0916073 0.427 255 255 255
0.21484 0.162748 0.549 255 255 255
0.162411 0.0737121 0.508 255 255 255
-0.206617 0.0393132 0.446 0 0 0
-0.0681294 0.135464 0.452 255 255 255
0.241017 -0.0666273 0.477 255 255 255
0.334709 0.128954 0.654 255 255 255
-0.0408183 0.103423 0.516 255 255 255
-0.15762 -0.0941942 0.411 255 255 255
0.249613 0.160135 0.565 255 255 255
-0.195836 0.140918 0.414 255 255 255
-0.162296 0.00011897 0.44 255 255 255
0.113254 -0.0405816 0.472 255 255 255
0.0188253 -0.0961055 0.438 255 255 255
0.0579057 0.165614 0.448 255 255 255
0.0819863 -0.156264 0.429 0 0 0
0.279693 0.17289 0.55 0 0 0
0.231427 -0.098035 0.464 0 0 0
-0.106797 -0.137976 0.406 255 255 255
0.156315 -0.085015 0.463 255 255 255
-0.134463 -0.15391 0.396 255 255 255
-0.138426 -0.13854 0.4 0 0 0
-0.23307 0.0898018 0.467 255 255 255
-0.0431116 -0.148676 0.41 255 255 255
-0.232487 0.0323401 0.44 255 255 255
0.207258 -0.106341 0.464 255 255 255
0.209105 0.0172566 0.501 255 255 255
0.231774 -0.0524226 0.482 0 0 0
0.0637397 -0.0873641 0.448 255 255 255
0.155358 -0.158478 0.439 255 255 255
-0.0267121 0.000124648 0.461 255 255 255
0.0571858 0.0753937 0.492 255 255 255
0.186875 -0.14794 0.446 255 255 255
0.0678112 0.163423 0.446 255 255 255
-0.0446251 0.132621 0.46 255 255 255
-0.0936236 -0.0998798 0.418 255 255 255
-0.11299 0.0476955 0.464 255 255 255
-0.0258541 -0.0818089 0.434 255 255 255
-0.0203045 -0.0322421 0.452 0 0 0
0.0126634 -0.0697111 0.447 255 255 255
-0.100115 0.097166 0.523 255 255 255
-0.14938 -0.0831547 0.416 255 255 255
0.23735 -0.0458338 0.487 0 0 0
-0.201873 0.150369 0.398 255 255 255
0.185276 0.18905 0.494 255 255 255
0.0368072 0.0179824 0.477 255 255 255
-0.1481 -0.138495 0.398 255 255 255
-0.0909251 0.158817 0.415 255 255 255
0.195204 -0.118123 0.457 255 255 255
0.215389 0.170551 0.537 255 255 255
0.233524 -0.0361 0.484 0 0 0
0.220744 -0.0208519 0.496 255 255 255
0.205347 -0.0817113 0.47 255 255 255
-0.21523 0.104524 0.455 255 255 255
0.0964169 -0.112595 0.444 255 255 255
-0.134058 0.135854 0.439 255 255 255
0.112009 -0.0465284 0.47 255 255 255
0.0952631 -0.117123 0.442 255 255 255
-0.146249 0.0648245 0.457 255 255 255
0.0956887 0.12505 0.505 255 255 255
0.166218 0.178349 0.507 255 255 255
-0.00754488 0.0653686 0.483 255 255 255
0.163559 0.0556344 0.509 255 255 255
0.153138 0.0319956 0.502 255 255 255
-0.16842 -0.0487592 0.423 255 255 255
0.0693397 0.052281 0.493 255 255 255
-0.134127 -0.0874261 0.417 255 255 255
0.0641812 -0.0949577 0.446 255 255 255
0.0840726 0.138081 0.49 255 255 255
-0.0618769 -0.120774 0.415 255 255 255
0.0192551 0.16124 0.448 255 255 255
-0.117522 0.111841 0.467 255 255 255
0.0867616 0.145448 0.47 255 255 255
-0.0926574 -0.151008 0.402 255 255 255
0.317012 0.12803 0.644 0 0 0
-0.190637 0.0940345 0.473 255 255 255
0.151059 -0.106265 0.454 255 255 255
-0.204114 0.00153692 0.436 255 255 255
-0.225285 0.087107 0.473 255 255 255
0.204163 -0.1714 0.441 255 255 255
0.0831828 0.170145 0.439 255 255 255
-0.220868 0.112835 0.444 255 255 255
-0.0259009 -0.0449789 0.447 255 255 255
0.200147 0.00581918 0.499 255 255 255
0.190314 0.174796 0.521 255 255 255
-0.0674081 -0.111977 0.42 255 255 255
-0.119894 -0.147284 0.399 255 255 255
0.274535 0.161269 0.569 255 255 255
0.151059 -0.104049 0.454 255 255 255
0.0909221 -0.134381 0.435 255 255 255
-0.0729821 0.0436302 0.469 255 255 255
-0.116264 0.073052 0.462 255 255 255
0.207158 0.174429 0.525 255 255 255
-0.146316 -0.128112 0.402 0 0 0
0.122659 0.05476 0.501 255 255 255
-0.154025 0.052296 0.458 255 255 255
0.215773 0.0862879 0.519 255 255 255
-0.0954321 -0.0845539 0.423 0 0 0
0.00907655 -0.159652 0.416 255 255 255
0.118053 0.0217505 0.492 255 255 255
0.196684 0.129 0.609 255 255 255
0.00604639 -0.0775627 0.442 255 255 255
-0.0045849 -0.116623 0.427 255 255 255
-0.0221614 -0.00586419 0.46 255 255 255
0.0836556 0.132775 0.497 255 255 255
0.0851002 -0.0606414 0.461 255 255 255
0.368999 -0.015058 0.721 255 255 255
-0.0158164 -0.0985487 0.43 255 255 255
-0.0182064 0.0317537 0.474 255 255 255
-0.0815707 0.158303 0.419 255 255 255
0.19021 0.14034 0.586 255 255 255
-0.0444785 0.159814 0.423 255 255 255
-0.00693567 -0.0656305 0.444 255 255 255
-0.139327 -0.143962 0.397 0 0 0
0.214514 0.078535 0.518 255 255 255
-0.10542 0.00819512 0.451 255 255 255
0.204012 0.156263 0.561 255 255 255
-0.00675865 0.0520066 0.483 0 0 0
0.0545016 -0.0782342 0.45 255 255 255
0.162253 -0.0378271 0.476 255 255 255
0.198405 0.0364395 0.507 255 255 255
0.234649 -0.074378 0.472 0 0 0
0.145884 0.185989 0.486 255 255 255
0.195964 0.0768491 0.518 255 255 255
-0.0579594 0.0438162 0.471 255 255 255
-0.0905697 0.137092 0.443 255 255 255
0.163625 0.187956 0.487 255 255 255
0.098512 0.11626 0.615 255 255 255
-0.087553 0.133666 0.446 255 255 255
-0.0146416 0.136068 0.459 255 255 255
-0.0323606 -0.0147179 0.456 255 255 255
0.230309 0.0180719 0.501 255 255 255
-0.0866852 -0.0854438 0.424 0 0 0
-0.0623051 0.146852 0.442 255 255 255
0.140356 0.14753 0.506 255 255 255
0.174184 0.0758106 0.511 255 255 255
0.0222592 -0.14616 0.422 255 255 255
0.222897 -0.16823 0.444 255 255 255
0.119055 0.0590713 0.503 0 0 0
-0.123137 0.102456 0.48 255 255 255
-0.084027 0.119697 0.471 255 255 255
0.0873104 0.157879 0.453 255 255 255
-0.0455335 0.105701 0.564 255 255 255
0.179423 0.180824 0.507 255 255 255
-0.239398 0.0941596 0.466 255 255 255
-0.0806531 0.134265 0.448 255 255 255
0.113132 0.0379936 0.495 0 0 0
-0.00953893 -0.102285 0.431 255 255 255
-0.0795951 -0.0900608 0.423 255 255 255
0.168029 -0.0417878 0.477 255 255 255
-0.10526 0.152892 0.421 255 255 255
0.375805 -0.0503092 0.739 0 0 0
-0.0682421 0.148432 0.434 255 255 255
0.105979 -0.0826237 0.454 255 255 255
0.0812315 -0.0807886 0.452 255 255 255
-0.110516 -0.103215 0.415 255 255 255
0.00351968 0.121584 0.491 255 255 255
-0.0183565 0.165022 0.424 255 255 255
0.18676 -0.15089 0.444 255 255 255
-0.174692 -0.069448 0.415 255 255 255
-0.0341323 -0.033564 0.45 0 0 0
0.254725 0.175794 0.537 255 255 255
0.194921 0.167617 0.536 255 255 255
-0.0398716 -0.144357 0.411 255 255 255
0.218404 0.135268 0.606 255 255 255
-0.0639985 0.0799134 0.476 255 255 255
0.227416 -0.135519 0.453 255 255 255
-0.119554 0.0898176 0.501 255 255 255
0.0936708 0.0143673 0.486 255 255 255
0.0444381 0.130089 0.484 255 255 255
0.0346609 -0.124729 0.431 255 255 255
-0.115569 0.098412 0.491 255 255 255
-0.0781859 -0.14884 0.405 255 255 255
-0.0838936 0.0403178 0.466 255 255 255
0.0779924 0.0664545 0.497 255 255 255
-0.200989 -0.140789 0.39 255 255 255
-0.225099 0.0760081 0.471 255 255 255
0.174266 0.00983977 0.497 255 255 255
-0.167248 0.14823 0.41 255 255 255
0.229857 -0.138162 0.452 0 0 0
0.0570772 -0.0676981 0.453 255 255 255
-0.0114752 -0.037391 0.452 0 0 0
-0.15212 0.121871 0.448 255 255 255
-0.17836 0.145917 0.411 255 255 255
0.0106475 0.0851045 0.488 255 255 255
0.217041 0.0586903 0.514 0 0 0
-0.0925972 0.0393896 0.464 255 255 255
-0.0841072 0.0317702 0.463 255 255 255
-0.188216 0.0173822 0.442 255 255 255
-0.118401 0.139957 0.434 255 255 255
0.231425 0.18123 0.52 255 255 255
0.187526 0.00745817 0.5 255 255 255
-0.0342616 0.107183 0.506 255 255 255
0.0227946 0.108242 0.511 255 255 255
-0.116501 -0.0816071 0.422 255 255 255
0.0259911 0.0265766 0.478 255 255 255
-0.21004 0.0859822 0.484 255 255 255
-0.0156235 0.00619268 0.466 255 255 255
0.111244 0.149272 0.47 255 255 255
-0.152867 0.0509163 0.459 0 0 0
0.152601 -0.112417 0.452 255 255 255
0.0544963 -0.146502 0.427 255 255 255
-0.118122 0.0976027 0.495 255 255 255
0.0713082 0.147428 0.469 255 255 255
-0.209554 0.115465 0.443 255 255 255
0.220454 0.0163757 0.499 0 0 0
0.19735 -0.0834181 0.471 255 255 255
0.220943 -0.0914592 0.469 255 255 255
-0.0892858 -0.0983073 0.42 255 255 255
-0.19652 0.0679476 0.458 255 255 255
0.00757004 0.162335 0.447 255 255 255
-0.141432 -0.125807 0.403 255 255 255
0.0350488 0.145101 0.464 255 255 255
-0.030874 0.120951 0.479 255 255 255
0.00330463 0.143413 0.461 255 255 255
0.223465 -0.06184 0.476 0 0 0
-0.15875 0.157113 0.402 255 255 255
-0.16631 -0.0723232 0.416 255 255 255
0.0481671 -0.110613 0.439 255 255 255
-0.185932 0.00942729 0.44 255 255 255
0.227221 -0.0463391 0.484 0 0 0
0.162253 -0.0393763 0.476 255 255 255
0.164414 0.178934 0.504 255 255 255
-0.148745 0.0754013 0.472 255 255 255
-0.039707 -0.0882572 0.431 255 255 255
-0.132576 -0.131379 0.404 0 0 0
-0.0858047 0.0164487 0.456 255 255 255
-0.20364 -0.137263 0.389 255 255 255
-0.120776 0.0377162 0.462 255 255 255
0.0450196 0.128186 0.596 255 255 255
-0.233544 0.0547847 0.442 255 255 255
0.116583 0.171638 0.441 255 255 255
0.0908577 -0.0763091 0.456 255 255 255
-0.181043 -0.0928427 0.408 255 255 255
0.225523 -0.0876432 0.469 0 0 0
-0.127946 -0.13269 0.406 255 255 255
0.0706609 -0.0702183 0.455 0 0 0
0.107817 0.117492 0.611 255 255 255
0.0498632 -0.138113 0.429 255 255 255
0.226627 -0.0974896 0.465 0 0 0
0.152573 0.134121 0.588 255 255 255
-0.142872 0.158518 0.409 255 255 255
-0.196453 0.0500289 0.451 255 255 255
0.220042 -0.136993 0.453 255 255 255
-0.00603101 -0.101583 0.431 255 255 255
0.213599 0.150949 0.572 255 255 255
0.171135 -0.0456689 0.477 0 0 0
0.114689 -0.124316 0.442 255 255 255
0.194564 -0.112664 0.459 255 255 255
-0.072865 0.133847 0.454 255 255 255
-0.0221674 -0.0924655 0.431 255 255 255
-0.177067 0.0503616 0.454 255 255 255
-0.188368 0.00797707 0.439 255 255 255
0.200272 -0.136086 0.45 255 255 255
-0.0305602 0.102822 0.513 255 255 255
0.12233 0.0860834 0.503 255 255 255
0.231137 -0.080602 0.468 0 0 0
0.110841 -0.126188 0.441 255 255 255
0.0684349 0.012654 0.481 255 255 255
-0.176353 0.148592 0.411 255 255 255
-0.0625871 0.144627 0.444 255 255 255
0.150394 -0.109475 0.452 255 255 255
-0.0277233 0.137975 0.453 255 255 255
-0.155844 -0.0238955 0.434 255 255 255
-0.0995292 -0.0312435 0.438 255 255 255
-0.159069 0.12871 0.439 255 255 255
0.0255995 -0.117988 0.432 255 255 255
0.0910074 0.0426538 0.493 255 255 255
0.125634 0.134653 0.57 255 255 255
0.0376411 -0.12108 0.433 255 255 255
0.047672 0.0851742 0.493 255 255 255
0.362413 0.0962892 0.729 255 255 255
0.0107819 -0.117442 0.43 255 255 255
-0.086724 0.0566049 0.469 0 0 0
-0.191349 -0.128452 0.395 255 255 255
-0.130248 -0.117121 0.407 255 255 255
0.218669 -0.0638942 0.474 255 255 255
0.223089 0.128097 0.619 255 255 255
0.154505 -0.0308556 0.476 255 255 255
-0.186841 -0.0502235 0.418 255 255 255
-0.0436864 -0.109076 0.422 255 255 255
-0.147799 0.0962214 0.484 255 255 255
0.101768 -0.0813248 0.455 0 0 0
0.10785 0.123451 0.512 255 255 255
-0.109356 -0.0641114 0.429 255 255 255
0.241816 -0.0708364 0.474 255 255 255
0.0115887 -0.10229 0.434 255 255 255
-0.0771268 0.0476486 0.471 0 0 0
-0.197573 -0.0736391 0.412 255 255 255
0.153207 -0.0459583 0.472 255 255 255
0.011562 -0.104169 0.433 255 255 255
0.025213 0.0351331 0.478 255 255 255
0.0890568 -0.0319964 0.47 255 255 255
-0.165161 0.000834994 0.44 255 255 255
-0.139917 -0.0189954 0.435 255 255 255
-0.0824177 -0.0497755 0.438 0 0 0
-0.21931 0.0179377 0.438 0 0 0
0.00676588 -0.0768434 0.442 255 255 255
-0.220709 -0.0428433 0.419 255 255 255
-0.0866103 0.145607 0.434 255 255 255
0.0956397 0.143855 0.48 255 255 255
0.141135 -0.152778 0.437 255 255 255
-0.201681 -0.0445235 0.422 255 255 255
0.10239 -0.0371914 0.468 255 255 255
0.00338348 0.132241 0.472 255 255 255
0.193315 0.0483689 0.511 255 255 255
0.00482631 -0.0104232 0.463 255 255 255
-0.0761523 -0.0893724 0.423 255 255 255
0.139685 -0.128344 0.446 255 255 255
0.0120693 0.154588 0.452 255 255 255
-0.102132 0.139744 0.44 255 255 255
0.319238 0.104915 0.692 0 0 0
0.231706 0.00660464 0.497 255 255 255
0.108817 -0.0022274 0.483 255 255 255
0.0501612 -0.0916418 0.444 255 255 255
0.183803 -0.104379 0.462 255 255 255
0.0821775 -0.149631 0.43 0 0 0
-0.104281 -0.0432615 0.437 255 255 255
0.0200736 0.15903 0.45 255 255 255
-0.115286 0.136473 0.441 255 255 255
0.0133012 -0.0771911 0.444 255 255 255
0.188878 -0.0853535 0.469 255 255 255
-0.148808 -0.0404693 0.43 255 255 255
0.195929 0.182474 0.507 255 255 255
0.0339593 -0.126132 0.431 255 255 255
-0.0171309 -0.0514104 0.446 255 255 255
0.226911 0.0381648 0.508 0 0 0
-0.063151 -0.0696416 0.433 255 255 255
-0.0578636 0.112529 0.483 255 255 255
-0.226713 0.0747623 0.468 255 255 255
0.0319284 -0.121503 0.432 255 255 255
-0.108547 0.0321724 0.458 255 255 255
0.0452297 0.146096 0.46 255 255 255
0.0962643 -0.0764764 0.457 255 255 255
0.123685 0.154494 0.465 255 255 255
0.10961 0.0808493 0.501 255 255 255
-0.0341918 0.0292533 0.471 0 0 0
0.0273744 0.016361 0.475 255 255 255
0.0484963 -0.0969832 0.442 255 255 255
-0.0137803 -0.09268 0.432 255 255 255
-0.115389 -0.131369 0.406 255 255 255
0.124514 -0.0435615 0.471 255 255 255
-0.00639483 0.143656 0.457 255 255 255
-0.0289141 -0.126106 0.417 255 255 255
0.0983713 -0.0868647 0.453 255 255 255
-0.0344775 0.147125 0.445 255 255 255
0.0994254 0.0878349 0.499 255 255 255
0.214459 0.0313029 0.504 0 0 0
-0.0226914 0.0254209 0.471 0 0 0
-0.0228604 -0.00809228 0.459 255 255 255
0.109405 -0.12834 0.441 255 255 255
-0.152343 0.0377187 0.453 255 255 255
0.0335382 -0.00818043 0.464 255 255 255
0.123991 0.167427 0.447 255 255 255
-0.197122 0.013037 0.441 255 255 255
-0.051839 0.109242 0.493 255 255 255
0.226895 -0.1003 0.464 0 0 0
-0.0364511 -0.0796901 0.434 255 255 255
0.170588 -0.0857495 0.467 255 255 255
-0.0898483 -0.0509672 0.436 0 0 0
0.0228813 0.118261 0.576 255 255 255
0.233967 0.155214 0.574 255 255 255
0.126568 -0.112169 0.451 0 0 0
0.00892435 -0.0804398 0.442 255 255 255
-0.000430961 -0.0706883 0.444 255 255 255
-0.0940161 0.111083 0.487 255 255 255
0.0328153 -0.0808038 0.444 255 255 255
0.0919241 -0.00221818 0.481 255 255 255
0.0355726 -0.0381355 0.461 255 255 255
0.0384234 -0.0890711 0.442 255 255 255
-0.153596 -0.0658122 0.422 255 255 255
0.113297 -0.0479559 0.469 255 255 255
-0.11302 0.118629 0.458 255 255 255
0.0976049 0.0544321 0.498 255 255 255
-0.00976004 0.0342115 0.476 255 255 255
0.0898676 0.128924 0.604 255 255 255
0.1151 -0.0828056 0.455 255 255 255
-0.028712 -0.0140065 0.457 255 255 255
-0.155485 -0.0252497 0.433 0 0 0
-0.0391898 -0.123007 0.418 255 255 255
-0.0320271 0.0324564 0.473 255 255 255
0.139197 0.020313 0.496 255 255 255
0.141463 0.13371 0.513 255 255 255
-0.0840274 -0.127636 0.411 255 255 255
0.014481 -0.100633 0.436 255 255 255
0.0720716 -0.0235329 0.469 255 255 255
0.00243232 -0.0834658 0.439 255 255 255
-0.111049 0.018552 0.453 255 255 255
0.0413791 0.0125224 0.476 255 255 255
0.147786 -0.140859 0.442 255 255 255
-0.137109 -0.0713061 0.422 255 255 255
0.108253 -0.0507912 0.467 255 255 255
-0.107814 0.156791 0.415 255 255 255
-0.00447284 0.119986 0.491 255 255 255
0.198573 0.157585 0.556 255 255 255
-0.157278 0.143302 0.419 255 255 255
-0.024233 0.11064 0.503 255 255 255
-0.170746 -0.0870483 0.412 0 0 0
0.137816 -0.124995 0.447 255 255 255
-0.108837 0.0156033 0.453 255 255 255
-0.133418 0.0898176 0.501 255 255 255
-0.0385705 -0.0761588 0.434 255 255 255
0.150599 0.0196238 0.499 255 255 255
-0.0256754 0.153718 0.431 255 255 255
0.0385104 -0.0871099 0.443 255 255 255
-0.179679 0.110448 0.455 255 255 255
0.111642 -0.0792773 0.456 255 255 255
-0.12808 -0.0957863 0.415 0 0 0
0.11966 -0.0465284 0.47 255 255 255
0.198405 0.0372646 0.507 255 255 255
0.226217 0.169493 0.542 255 255 255
-0.218921 0.00082171 0.433 255 255 255
0.0551243 0.139459 0.481 255 255 255
0.00182727 0.00316612 0.467 255 255 255
-0.201637 -0.117525 0.395 0 0 0
-0.170903 -0.0251331 0.431 255 255 255
-0.0227503 -0.131896 0.416 255 255 255
0.10438 -0.12547 0.441 0 0 0
-0.0340694 -0.113197 0.422 255 255 255
0.0442894 -0.114824 0.436 255 255 255
0.20389 0.163636 0.546 255 255 255
0.109243 0.027355 0.492 255 255 255
0.0826848 0.167748 0.444 255 255 255
-0.141238 0.154317 0.412 255 255 255
-0.222303 -0.00968025 0.43 255 255 255
0.0214792 -0.107941 0.434 255 255 255
-0.207068 -0.04898 0.419 255 255 255
0.168103 0.154242 0.557 255 255 255
0.107689 0.0024989 0.485 255 255 255
-0.196319 0.145515 0.408 255 255 255
0.0263717 0.0482757 0.485 255 255 255
-0.19031 0.0846559 0.49 255 255 255
-0.151868 -0.140377 0.396 255 255 255
-0.124026 -0.099163 0.415 255 255 255
0.134857 0.132146 0.507 255 255 255
0.0805165 0.167748 0.444 255 255 255
-0.207113 0.102679 0.46 255 255 255
-0.112511 0.127542 0.45 255 255 255
-0.16807 0.00659302 0.442 255 255 255
-0.220868 0.0384144 0.444 0 0 0
0.216335 0.000134382 0.497 255 255 255
0.203148 -0.0705375 0.472 255 255 255
-0.18174 0.0101894 0.442 255 255 255
0.0847937 0.015127 0.485 255 255 255
0.127744 0.151035 0.466 255 255 255
0.0774575 -0.142263 0.431 255 255 255
0.0760952 -0.0546398 0.461 0 0 0
0.143288 0.0326164 0.499 255 255 255
-0.0895411 -0.10192 0.418 255 255 255
0.0153649 -0.0867166 0.441 255 255 255
0.0663128 0.142956 0.477 255 255 255
0.231103 -0.148788 0.453 0 0 0
-0.0465061 -0.0920364 0.429 255 255 255
-0.187971 0.140575 0.419 255 255 255
-0.200475 -0.0826803 0.407 0 0 0
-0.0908903 0.0355375 0.463 255 255 255
0.00459698 -0.0781048 0.441 255 255 255
0.0360832 -0.147195 0.423 255 255 255
0.0969835 -0.0534853 0.464 255 255 255
-0.0931513 0.119924 0.463 255 255 255
-0.128497 0.00375794 0.447 255 255 255
-0.00121867 0.00623255 0.469 0 0 0
0.239299 -0.0262348 0.491 255 255 255
0.0251847 -0.137516 0.425 255 255 255
-0.0409047 -0.0475672 0.444 255 255 255
-0.110486 0.0581411 0.463 255 255 255
-0.202938 -0.0729687 0.412 0 0 0
-0.00623209 0.108399 0.504 255 255 255
-0.110375 -0.0534351 0.433 0 0 0
0.107457 -0.0841013 0.454 255 255 255
-0.157903 0.0926646 0.486 255 255 255
-0.0307284 -0.0830297 0.433 255 255 255
0.235475 0.173617 0.533 255 255 255
0.023218 -0.13191 0.427 255 255 255
-0.055973 0.153372 0.432 255 255 255
-0.0773462 -0.0939683 0.422 255 255 255
0.189237 -0.0882179 0.468 255 255 255
-0.170775 -0.125542 0.398 255 255 255
0.111403 0.134661 0.578 255 255 255
-0.179685 0.126702 0.437 255 255 255
0.219006 -0.0409101 0.485 255 255 255
-0.111294 0.0237646 0.454 255 255 255
-0.0732252 -0.0823806 0.426 0 0 0
0.0383724 0.113393 0.508 255 255 255
-0.0460724 -0.100861 0.425 255 255 255
-0.199769 0.141235 0.411 255 255 255
0.010342 0.0224974 0.474 255 255 255
-0.109502 -0.155076 0.399 255 255 255
-0.0928969 -0.0833738 0.424 0 0 0
-0.194586 0.151396 0.399 255 255 255
-0.0187461 0.155841 0.433 255 255 255
0.0115091 0.144284 0.459 255 255 255
0.0322177 0.152246 0.456 255 255 255
0.162481 0.167375 0.527 255 255 255
-0.163985 -0.117645 0.402 0 0 0
0.221027 -0.158022 0.452 255 255 255
-0.00593533 0.0462157 0.48 255 255 255
0.183902 0.0123155 0.499 255 255 255
0.220212 -0.0646656 0.474 255 255 255
-0.0678469 0.147697 0.436 255 255 255
-0.0963959 0.00231857 0.45 255 255 255
0.208668 -0.0478154 0.483 255 255 255
-0.195836 0.140244 0.414 255 255 255
0.0666339 0.165928 0.443 255 255 255
0.157462 -0.131541 0.447 255 255 255
-0.119497 0.00229796 0.446 255 255 255
0.0332501 -0.155087 0.422 255 255 255
0.227041 -0.0580887 0.477 0 0 0
-0.183899 0.0195401 0.442 0 0 0
-0.218855 -0.0314756 0.422 255 255 255
0.00468038 0.15137 0.449 255 255 255
0.0990044 0.00565592 0.485 255 255 255
-0.159783 -0.00845407 0.439 0 0 0
0.180477 0.12085 0.618 255 255 255
-0.109449 0.0523386 0.465 0 0 0
0.0153301 -0.0908162 0.44 255 255 255
0.108776 -0.163626 0.43 255 255 255
0.239236 -0.0394127 0.486 255 255 255
0.0124923 -0.157322 0.417 255 255 255
-0.224401 0.0238018 0.441 255 255 255
0.166212 -0.11804 0.451 255 255 255
-0.0315784 -0.0770422 0.435 255 255 255
-0.000463962 0.0398003 0.478 255 255 255
-0.138203 0.117112 0.455 255 255 255
0.158585 -0.059016 0.472 255 255 255
-0.0878745 0.0692829 0.467 255 255 255
0.0603251 -0.157892 0.424 255 255 255
-0.146883 0.0987559 0.481 255 255 255
0.113374 -0.0749891 0.457 255 255 255
-0.0443241 -0.0735027 0.435 255 255 255
-0.10051 -0.150354 0.402 255 255 255
-0.0202023 -0.0853402 0.434 255 255 255
-0.193187 -0.0886412 0.407 255 255 255
0.103026 -0.0565056 0.464 0 0 0
-0.0893286 0.135956 0.444 255 255 255
-0.0144696 0.125365 0.478 255 255 255
0.0695738 0.161969 0.448 255 255 255
0.0189972 0.168431 0.442 255 255 255
0.203653 -0.140792 0.451 255 255 255
0.0884668 0.154741 0.459 255 255 255
-0.21368 0.129832 0.424 255 255 255
0.182003 0.039583 0.505 255 255 255
0.0238161 -0.0996694 0.438 255 255 255
0.348563 0.100959 0.72 255 255 255
0.235817 0.159216 0.565 255 255 255
-0.0763662 -0.0715898 0.432 0 0 0
-0.192974 0.130522 0.424 255 255 255
0.149961 -0.0848314 0.462 255 255 255
-0.161032 -0.0347902 0.429 0 0 0
-0.19412 0.115567 0.449 255 255 255
-0.00271042 -0.00665589 0.463 0 0 0
0.236145 0.157288 0.568 255 255 255
0.104229 -0.0521991 0.466 255 255 255
0.0690932 0.0632194 0.497 255 255 255
0.0470387 0.117715 0.597 255 255 255
-0.00709188 -0.0309071 0.454 0 0 0
-0.139728 -0.137238 0.4 0 0 0
-0.112058 -0.0733685 0.426 0 0 0
0.123518 -0.106734 0.456 0 0 0
0.12731 -0.0549417 0.47 0 0 0
-0.197338 -0.11777 0.398 255 255 255
-0.0930274 -0.0665144 0.431 0 0 0
-0.0687403 -0.0944136 0.424 255 255 255
-0.113893 0.156116 0.415 255 255 255
-0.17641 -0.0378347 0.424 255 255 255
0.0476758 -0.159895 0.422 255 255 255
-0.00046105 0.0264098 0.475 255 255 255
0.10105 0.0862108 0.499 255 255 255
0.198514 -0.147397 0.451 255 255 255
0.146798 -0.119243 0.45 255 255 255
0.163051 0.176085 0.51 255 255 255
0.0654763 -0.0657756 0.455 255 255 255
0.118497 -0.000656761 0.484 255 255 255
0.183944 -0.0558769 0.478 255 255 255
0.0773457 0.151897 0.464 255 255 255
0.0667715 0.152652 0.464 255 255 255
-0.101911 0.0164126 0.455 255 255 255
-0.117582 0.00594019 0.447 255 255 255
0.00824745 0.0833451 0.487 255 255 255
0.0710345 -0.119186 0.439 255 255 255
0.185618 -0.153433 0.443 255 255 255
-0.189734 -0.0801487 0.411 0 0 0
0.171025 0.141694 0.576 255 255 255
-0.122864 0.14812 0.425 255 255 255
0.069004 0.13904 0.485 255 255 255
-0.103737 0.149855 0.426 255 255 255
-0.0541184 0.159814 0.423 255 255 255
0.220565 -0.0254876 0.492 255 255 255
0.320345 0.135328 0.634 255 255 255
-0.22127 -0.0138142 0.428 255 255 255
-0.00120308 0.141021 0.463 255 255 255
-0.00190181 0.151707 0.45 255 255 255
-0.0739344 -0.146926 0.407 255 255 255
0.366736 0.0223195 0.755 255 255 255
0.341766 0.111672 0.692 255 255 255
0.0932487 -0.0402377 0.468 255 255 255
-0.137869 -0.0878935 0.416 255 255 255
-0.162712 0.153107 0.407 255 255 255
0.0283254 0.0374667 0.478 255 255 255
0.136112 -0.112169 0.451 255 255 255
0.368379 0.0797865 0.741 255 255 255
0.0132659 -0.150935 0.42 255 255 255
-0.0516191 -0.131936 0.414 255 255 255
-0.19434 -0.0276793 0.427 255 255 255
-0.0162578 -0.0646156 0.442 255 255 255
-0.188935 0.0252943 0.442 255 255 255
-0.220437 0.0128892 0.436 255 255 255
0.167666 -0.0992194 0.459 255 255 255
-0.219269 0.0825526 0.487 255 255 255
0.13033 0.0017167 0.487 255 255 255
-0.0963869 0.105603 0.491 255 255 255
-0.0556267 -0.0985536 0.424 255 255 255
0.063538 -0.0189132 0.468 255 255 255
0.0836179 -0.0705269 0.457 255 255 255
-0.138039 -0.056169 0.427 0 0 0
0.0265892 0.071751 0.489 255 255 255
0.117559 -0.151022 0.434 255 255 255
-0.0212666 -0.1062 0.427 255 255 255
-0.18435 0.091645 0.489 255 255 255
-0.0788528 -0.0533393 0.438 0 0 0
0.0578322 -0.0240889 0.465 255 255 255
0.205277 0.156962 0.557 255 255 255
0.195929 0.0323143 0.507 255 255 255
-0.0128054 0.129716 0.474 255 255 255
0.164859 -0.0775556 0.468 255 255 255
0.280825 0.126837 0.638 255 255 255
-0.113076 0.139821 0.438 255 255 255
0.202981 -0.0176233 0.496 255 255 255
-0.138558 0.0989612 0.482 255 255 255
-0.0589383 -0.0911253 0.428 255 255 255
-0.0702195 -0.0415987 0.442 255 255 255
0.062792 0.0537763 0.492 0 0 0
0.139782 -0.132104 0.444 255 255 255
-0.105448 -0.000607911 0.448 255 255 255
-0.100905 0.117918 0.464 255 255 255
0.152188 0.0801675 0.507 255 255 255
0.169359 0.0746856 0.509 255 255 255
-0.0304445 -0.0983195 0.429 255 255 255
-0.233878 0.109945 0.444 255 255 255
-0.109311 -0.112127 0.413 255 255 255
-0.217208 -0.00689725 0.431 255 255 255
-0.173233 -0.0658686 0.418 0 0 0
-0.204454 -0.118848 0.393 255 255 255
-0.116509 0.116153 0.46 255 255 255
-0.155594 -0.112971 0.404 255 255 255
-0.0515351 -0.147287 0.408 255 255 255
-0.148537 0.0146364 0.446 0 0 0
-0.0987929 -0.115767 0.414 255 255 255
0.0756304 -0.0014235 0.477 0 0 0
-0.0610539 -0.127894 0.414 255 255 255
0.345969 0.117891 0.676 255 255 255
0.109432 -0.0957109 0.453 255 255 255
0.0584644 0.122918 0.503 255 255 255
0.150456 -0.00383873 0.488 255 255 255
0.168414 -0.120976 0.451 255 255 255
0.166493 -0.146613 0.442 255 255 255
-0.185088 0.12977 0.433 255 255 255
-0.0139493 0.118216 0.487 255 255 255
-0.102195 0.0385513 0.463 255 255 255
-0.0854065 -0.133344 0.408 255 255 255
0.173542 -0.165244 0.438 255 255 255
0.127178 0.131885 0.506 255 255 255
-0.0238729 -0.143367 0.412 255 255 255
-0.0824195 -0.120864 0.413 255 255 255
0.1793 -0.0602908 0.476 255 255 255
-0.15906 -0.0872596 0.413 255 255 255
0.23459 0.168922 0.543 255 255 255
-0.197584 0.0703479 0.464 255 255 255
-0.152312 -0.0246018 0.434 0 0 0
-0.0863271 0.11893 0.471 255 255 255
0.0926834 0.171249 0.44 255 255 255
-0.109054 0.122089 0.457 255 255 255
0.158276 0.0546984 0.508 255 255 255
-0.0709688 -0.140992 0.409 255 255 255
0.14036 0.070544 0.509 255 255 255
0.053884 -0.110613 0.439 255 255 255
-0.161387 -0.107186 0.407 255 255 255
-0.0991086 0.151222 0.424 255 255 255
0.0753247 0.00637873 0.48 255 255 255
0.111873 0.0330265 0.493 255 255 255
-0.0322306 -0.127158 0.416 255 255 255
-0.0479308 0.0151943 0.463 0 0 0
0.162127 0.0295448 0.502 0 0 0
0.0917581 -0.123472 0.439 255 255 255
0.0779109 0.145298 0.472 255 255 255
-0.214863 0.0800105 0.486 255 255 255
-0.147266 0.0243415 0.451 0 0 0
-0.1781 0.058102 0.451 255 255 255
0.116598 0.0590713 0.503 0 0 0
0.0136693 0.106416 0.583 255 255 255
-0.165508 -0.0983949 0.409 0 0 0
0.0193598 -0.106528 0.434 255 255 255
-0.0479204 -0.12407 0.417 255 255 255
0.0332501 -0.148907 0.422 255 255 255
0.328424 0.106858 0.69 0 0 0
0.110044 0.0289563 0.492 255 255 255
0.162895 -0.148771 0.442 255 255 255
-0.0165226 0.0184834 0.47 255 255 255
-0.0282723 0.140723 0.45 255 255 255
0.0525337 -0.018792 0.465 255 255 255
0.0810518 -0.0835455 0.451 255 255 255
0.119143 0.156008 0.465 255 255 255
-0.0463977 0.156131 0.428 255 255 255
0.055697 0.0603038 0.493 0 0 0
-0.176631 0.0603038 0.451 255 255 255
-0.198697 -0.132279 0.393 255 255 255
0.0145681 0.111723 0.581 255 255 255
-0.1419 -0.0612942 0.424 255 255 255
0.375652 -0.0380242 0.734 0 0 0
-0.181931 -0.0419746 0.424 0 0 0
0.0175334 -0.137883 0.424 255 255 255
0.0267405 0.141326 0.464 255 255 255
0.1581 -0.118563 0.453 255 255 255
0.0694185 0.162335 0.447 255 255 255
0.0250668 -0.0276327 0.461 255 255 255
-0.0853788 0.0750818 0.47 255 255 255
-0.0880416 -0.127636 0.411 255 255 255
-0.210117 0.0784287 0.486 255 255 255
-0.0329869 -0.125428 0.417 255 255 255
0.10105 0.133309 0.499 255 255 255
0.0661738 -0.00684277 0.476 255 255 255
0.20392 -0.0974896 0.465 255 255 255
-0.206472 0.0896052 0.474 255 255 255
-0.147226 0.150899 0.41 255 255 255
0.0324806 -0.128638 0.43 255 255 255
0.0540973 0.151754 0.459 255 255 255
0.11983 -0.160872 0.432 255 255 255
-0.052457 -0.0800259 0.432 255 255 255
0.0209743 0.0811339 0.488 255 255 255
0.203608 0.146889 0.578 255 255 255
-0.213854 0.0666124 0.449 255 255 255
-0.173367 -0.129428 0.398 255 255 255
0.039486 0.0624562 0.491 255 255 255
0.082874 -0.0697832 0.457 255 255 255
0.0324296 -0.0439456 0.459 255 255 255
0.238717 0.147517 0.588 255 255 255
0.210773 0.0560716 0.513 255 255 255
0.0214996 -0.00138769 0.465 255 255 255
0.00566435 0.133975 0.47 255 255 255
0.00578648 -0.137558 0.423 255 255 255
-0.0519434 -0.151189 0.406 255 255 255
0.134674 -0.0563513 0.469 255 255 255
0.051033 -0.126012 0.433 255 255 255
-0.104675 -0.0749304 0.427 0 0 0
-0.201505 -0.12906 0.391 255 255 255
0.193247 -0.0602908 0.476 255 255 255
0.217852 -0.158787 0.45 255 255 255
0.0973774 0.131397 0.501 255 255 255
-0.0582171 -0.0724602 0.433 255 255 255
-0.132245 -0.12775 0.405 0 0 0
0.0458131 0.15498 0.451 255 255 255
-0.109671 -0.147083 0.402 255 255 255
0.148377 0.177588 0.489 255 255 255
-0.221092 0.0383278 0.443 0 0 0
-0.0523356 -0.0840489 0.431 255 255 255
0.0231181 0.0457186 0.483 255 255 255
0.0207164 0.0448396 0.482 255 255 255
0.240257 0.188534 0.51 255 255 255
-0.036733 0.146004 0.446 255 255 255
0.0889297 -0.0921479 0.45 255 255 255
-0.198322 -0.140513 0.391 255 255 255
-0.0625871 -0.0417869 0.444 0 0 0
0.19947 0.179139 0.514 255 255 255
0.0861763 -0.154868 0.429 0 0 0
-0.206476 0.0100972 0.438 255 255 255
0.0276422 -0.0515938 0.454 255 255 255
0.0700918 0.153165 0.461 255 255 255
0.152181 -0.030081 0.476 255 255 255
0.109774 0.155919 0.467 255 255 255
0.212599 -0.0438854 0.483 255 255 255
-0.156623 0.0874829 0.497 255 255 255
0.0439794 -0.102273 0.44 255 255 255
0.117759 -0.112169 0.451 255 255 255
-0.0780898 -0.117397 0.415 255 255 255
0.249351 0.149876 0.586 255 255 255
-0.00459563 -0.112717 0.428 255 255 255
-0.146201 0.155856 0.409 255 255 255
-0.197184 0.140244 0.414 255 255 255
-0.168472 -0.0778504 0.413 255 255 255
0.101862 0.0845868 0.499 255 255 255
-0.150899 -0.0231893 0.434 0 0 0
-0.145422 -0.145532 0.396 255 255 255
0.0878692 -0.012265 0.476 255 255 255
-0.14914 -0.0639031 0.423 255 255 255
0.0260143 -0.0991825 0.439 255 255 255
-0.105704 -0.0418393 0.437 0 0 0
-0.0434998 -0.0587282 0.441 255 255 255
-0.10271 0.0111555 0.452 255 255 255
-0.155142 -0.104794 0.408 255 255 255
-0.151826 0.0131552 0.445 0 0 0
-0.176782 -0.0783324 0.412 0 0 0
-0.127268 0.112654 0.461 255 255 255
0.159496 -0.101762 0.457 255 255 255
0.178715 0.0321868 0.505 255 255 255
0.0930925 0.00406059 0.483 255 255 255
-0.0969196 0.0362909 0.463 255 255 255
0.105976 -0.160827 0.43 255 255 255
-0.0935115 -0.0740574 0.43 0 0 0
-0.0410649 -0.0668819 0.438 255 255 255
0.165866 0.0691581 0.511 255 255 255
-0.0825946 0.115545 0.476 255 255 255
-0.0236253 -0.088462 0.432 255 255 255
0.292678 0.15575 0.583 255 255 255
0.227976 -0.026128 0.489 0 0 0
0.128218 -0.124156 0.444 255 255 255
-0.140427 -0.131383 0.402 0 0 0
0.0353282 0.0219094 0.478 255 255 255
0.357851 0.0831406 0.784 255 255 255
-0.00456342 -0.120918 0.425 255 255 255
0.212325 0.127683 0.617 255 255 255
0.150297 0.0171533 0.498 255 255 255
-0.210461 0.0533413 0.448 255 255 255
0.152923 0.181744 0.496 255 255 255
0.163435 0.0278554 0.501 0 0 0
-0.0547581 0.156131 0.428 255 255 255
-0.13277 -0.086069 0.417 0 0 0
0.237231 -0.0889795 0.468 0 0 0
0.237738 -0.0853535 0.469 0 0 0
0.0565383 -0.0972026 0.443 255 255 255
-0.177218 -0.0244317 0.431 255 255 255
0.186271 0.148827 0.571 255 255 255
-0.192048 0.114614 0.451 255 255 255
-0.0158164 -0.100648 0.43 255 255 255
0.181759 -0.116866 0.455 255 255 255
-0.125002 -0.0960171 0.416 0 0 0
-0.0251392 -0.11457 0.422 255 255 255
-0.0361684 -0.0399762 0.448 0 0 0
0.0656153 -0.108246 0.441 255 255 255
-0.194691 0.0231364 0.442 0 0 0
-0.217274 0.0888339 0.474 255 255 255
0.0487772 0.0406329 0.488 255 255 255
-0.164035 0.0757208 0.474 255 255 255
-0.0587754 -0.0261244 0.448 255 255 255
-0.0784932 0.0697279 0.47 255 255 255
-0.107571 -0.0857275 0.422 0 0 0
-0.0465851 0.139258 0.45 255 255 255
0.194462 0.0123155 0.499 255 255 255
0.213243 0.169361 0.536 255 255 255
0.0768157 0.145448 0.47 255 255 255
0.2271 0.169493 0.542 255 255 255
0.226346 0.0847617 0.52 0 0 0
-0.180096 -0.0640452 0.415 255 255 255
-0.114728 -0.136654 0.406 255 255 255
0.115606 -0.0913502 0.457 0 0 0
-0.0364035 -0.0581421 0.442 255 255 255
0.371229 -0.0841471 0.73 255 255 255
0.2456 0.172382 0.54 255 255 255
0.0546743 -0.158208 0.423 255 255 255
-0.155142 -0.10413 0.408 255 255 255
-0.0489661 0.0378445 0.473 255 255 255
0.0291976 -0.144441 0.423 255 255 255
-0.0468715 0.00761009 0.46 0 0 0
-0.0259486 -0.107523 0.424 255 255 255
0.0970082 0.158529 0.457 255 255 255
0.13033 0.0201901 0.493 255 255 255
-0.226491 0.00788622 0.434 255 255 255
0.0532895 0.128497 0.493 255 255 255
0.00506607 0.083174 0.486 255 255 255
0.357728 0.0428117 0.77 255 255 255
0.0591545 -0.107529 0.441 255 255 255
0.159491 0.041145 0.504 0 0 0
-0.222589 0.111166 0.446 255 255 255
-0.0780062 -0.127636 0.411 255 255 255
-0.0180967 -0.127769 0.418 255 255 255
0.142994 -0.129505 0.445 255 255 255
-0.130936 -0.146635 0.399 255 255 255
-0.107599 0.126459 0.454 255 255 255
-0.0176687 -0.014847 0.46 255 255 255
0.068008 0.00246283 0.478 255 255 255
0.0167237 0.041529 0.48 255 255 255
0.153477 0.126882 0.599 255 255 255
-0.11424 0.138791 0.437 255 255 255
0.0462784 0.144035 0.463 255 255 255
-0.0875179 -0.0536819 0.435 0 0 0
-0.189031 0.131138 0.426 255 255 255
-0.0535322 0.137238 0.453 255 255 255
0.17553 -0.095357 0.462 255 255 255
-0.157803 -0.0836301 0.415 255 255 255
-0.198883 -0.0551166 0.419 255 255 255
0.0526566 -0.140207 0.429 255 255 255
-0.165028 0.131482 0.434 255 255 255
0.118632 -0.0421178 0.472 0 0 0
-0.185871 0.0290868 0.445 255 255 255
0.132666 -0.0511175 0.47 255 255 255
0.36893 -0.0423445 0.747 255 255 255
-0.205461 -0.024205 0.427 255 255 255
0.220779 -0.136256 0.453 255 255 255
-0.15929 0.05652 0.456 255 255 255
0.208727 -0.0929857 0.469 255 255 255
-0.129553 -0.0685592 0.422 0 0 0
-0.00573748 -0.0013847 0.464 255 255 255
0.202323 -0.0515311 0.481 255 255 255
0.161023 -0.165528 0.435 255 255 255
0.258421 0.141936 0.605 255 255 255
0.0912089 -0.140105 0.433 255 255 255
0.22911 -0.0360254 0.483 0 0 0
0.219283 -0.0736099 0.472 255 255 255
0.0890568 -0.0312315 0.47 255 255 255
-0.0874156 -0.142908 0.405 255 255 255
0.0882716 -0.0160703 0.474 255 255 255
-0.0455578 -0.152598 0.408 255 255 255
-0.199346 0.121289 0.438 255 255 255
-0.113244 0.0118384 0.45 255 255 255
-0.11043 -0.0374864 0.436 0 0 0
-0.0339219 0.0569132 0.478 0 0 0
0.0613881 0.0165677 0.481 255 255 255
-0.0775719 0.12813 0.46 255 255 255
0.214224 -0.163895 0.444 255 255 255
0.111371 -0.117457 0.446 255 255 255
-0.0560824 0.146072 0.444 255 255 255
-0.108489 -0.104566 0.415 255 255 255
-0.0917718 -0.0925948 0.422 255 255 255
0.171752 -0.112176 0.454 255 255 255
-0.00519693 0.0812565 0.484 255 255 255
-0.0822733 0.0164847 0.457 255 255 255
-0.179228 -0.148149 0.391 0 0 0
-0.0863463 0.113549 0.484 255 255 255
0.183026 -0.0189273 0.488 255 255 255
0.258578 0.171056 0.547 255 255 255
0.0349825 -0.111729 0.435 255 255 255
0.143469 -0.143017 0.442 255 255 255
-0.170131 -0.135523 0.395 255 255 255
0.039486 0.0808336 0.491 255 255 255
0.270355 0.160986 0.568 255 255 255
-0.0886118 -0.0747571 0.43 0 0 0
-0.0939465 -0.0617477 0.432 255 255 255
0.217351 0.187507 0.505 255 255 255
-0.00815863 0.0255289 0.473 255 255 255
-0.110782 -0.098725 0.416 255 255 255
-0.079897 -0.142289 0.407 255 255 255
0.0715365 -0.162415 0.425 255 255 255
-0.161152 -0.0644388 0.422 255 255 255
0.233794 -0.0160735 0.498 0 0 0
0.176142 0.134577 0.59 255 255 255
-0.0408774 -0.0715432 0.436 255 255 255
0.064425 -0.134468 0.433 255 255 255
0.051291 -0.0611982 0.454 255 255 255
-0.118239 -0.121024 0.409 255 255 255
0.150063 -0.0705502 0.467 255 255 255
0.191752 -0.0174101 0.49 255 255 255
0.114611 -0.0948606 0.456 0 0 0
0.205576 -0.132277 0.452 255 255 255
-0.180164 -0.0270476 0.428 255 255 255
-0.0127176 -0.0584052 0.444 255 255 255
0.23419 -0.108138 0.462 0 0 0
-0.0601923 0.15056 0.432 255 255 255
-0.115496 0.0275796 0.456 255 255 255
0.0446957 -0.100124 0.44 255 255 255
-0.155042 0.156695 0.406 255 255 255
-0.139059 -0.0521215 0.428 255 255 255
-0.0923144 0.140779 0.441 255 255 255
0.262557 0.183977 0.523 255 255 255
-0.0281517 -0.00212134 0.46 255 255 255
0.0199591 -0.160036 0.417 255 255 255
-0.0794662 0.156095 0.426 255 255 255
0.214522 -0.0270339 0.491 255 255 255
-0.0526998 -0.0726275 0.434 255 255 255
0.0213471 -0.0760872 0.446 255 255 255
-0.144687 -0.147362 0.394 255 255 255
0.152822 -0.144456 0.442 255 255 255
0.200978 -0.11291 0.46 255 255 255
0.0763516 0.165229 0.445 255 255 255
0.0153649 -0.0852813 0.441 255 255 255
0.196315 0.0414715 0.508 255 255 255
0.188501 0.181649 0.507 255 255 255
-0.0533964 -0.148913 0.407 255 255 255
-0.107511 -0.0642609 0.43 255 255 255
-0.159536 0.108153 0.461 255 255 255
-0.121801 -0.144107 0.401 255 255 255
-0.080772 0.147385 0.433 255 255 255
0.200566 0.0685516 0.519 255 255 255
-0.16746 0.0614438 0.454 255 255 255
-0.221102 -0.0206335 0.425 255 255 255
-0.0616855 0.102646 0.508 255 255 255
-0.04375 0.104084 0.511 255 255 255
-0.172456 0.0864997 0.496 255 255 255
-0.119831 -0.0599227 0.429 255 255 255
0.138433 -0.142298 0.442 0 0 0
0.164491 -0.0348746 0.478 255 255 255
0.0889696 -0.162547 0.429 255 255 255
-0.097484 -0.073187 0.429 255 255 255
-0.143211 0.126278 0.443 255 255 255
-0.0133496 0.153697 0.441 255 255 255
0.100507 0.159667 0.456 255 255 255
