ply
format ascii 1.0
comment Created by Open3D
element vertex 1295
property double x
property double y
property double z
property uchar red
property uchar green
property uchar blue
end_header
-0.189212 0.030198 0.462 0 0 0
0.0203296 0.0270683 0.473 255 255 255
0.262055 0.175981 0.522 255 255 255
-0.11123 0.123116 0.442 255 255 255
-0.105334 0.116139 0.457 255 255 255
-0.0736045 0.0493904 0.473 255 255 255
-0.209668 -0.000611981 0.451 0 0 0
-0.102623 -0.0665765 0.436 0 0 0
-0.109954 0.14432 0.418 255 255 255
0.237738 -0.0204801 0.469 0 0 0
-0.101656 -0.0962455 0.426 255 255 255
0.135041 0.167619 0.438 255 255 255
0.112664 0.133361 0.476 255 255 255
-0.211075 -0.131692 0.407 255 255 255
-0.125627 0.0638994 0.496 255 255 255
0.0594967 0.153562 0.449 255 255 255
0.142767 0.130876 0.595 255 255 255
-0.0593302 -0.0765098 0.436 0 0 0
0.0912474 -0.0726207 0.447 255 255 255
-0.102409 -0.130904 0.415 255 255 255
0.133698 -0.086389 0.443 255 255 255
0.244592 0.0489724 0.492 0 0 0
0.268845 0.139141 0.589 255 255 255
-0.0493578 -0.152083 0.412 255 255 255
0.179621 -0.0394639 0.459 255 255 255
-0.156863 0.0545468 0.471 255 255 255
0.14909 0.0708768 0.494 255 255 255
0.188945 -0.0991825 0.439 255 255 255
0.137401 -0.0946108 0.441 255 255 255
0.0537696 -0.153559 0.416 255 255 255
-0.0402591 -0.0138839 0.453 255 255 255
-0.0912002 0.119858 0.457 255 255 255
-0.196678 -0.139297 0.406 255 255 255
-0.000464933 0.0461195 0.479 255 255 255
-0.113603 0.139492 0.424 255 255 255
-0.0869337 0.00914683 0.462 0 0 0
-0.146916 0.144579 0.411 255 255 255
-0.179373 0.0120489 0.458 255 255 255
-0.157573 -0.0721255 0.431 255 255 255
-0.0438943 -0.0476743 0.445 0 0 0
-0.115436 0.0803256 0.508 255 255 255
-0.0846757 -0.0291702 0.45 255 255 255
-0.199645 -0.0556772 0.434 255 255 255
-0.105919 -0.0277056 0.45 255 255 255
-0.132877 -0.0167955 0.452 255 255 255
-0.158264 -0.117566 0.418 0 0 0
0.169439 0.0196987 0.481 255 255 255
-0.130589 -0.1426 0.406 255 255 255
0.177235 0.077308 0.494 255 255 255
0.043883 0.16462 0.432 255 255 255
0.148771 0.0243444 0.48 255 255 255
-0.110917 0.0267822 0.468 255 255 255
0.159496 0.157042 0.457 255 255 255
0.0808721 -0.0599268 0.45 255 255 255
-0.0731466 0.0889212 0.496 255 255 255
-0.103654 0.0719169 0.507 255 255 255
-0.10688 -0.13261 0.414 255 255 255
-0.00109914 -0.11966 0.423 255 255 255
0.135691 0.15258 0.457 255 255 255
-0.103255 0.00537604 0.461 255 255 255
0.195197 -0.113665 0.437 255 255 255
-0.13852 -0.144583 0.406 255 255 255
-0.106882 -0.065867 0.436 255 255 255
-0.136139 -0.0744018 0.432 255 255 255
-0.0177504 -0.159351 0.41 255 255 255
0.18378 -0.143723 0.427 255 255 255
0.211481 0.0704985 0.497 0 0 0
0.155287 -0.0120847 0.469 255 255 255
0.162349 -0.126833 0.431 255 255 255
0.223712 -0.0855572 0.45 0 0 0
0.105016 0.0290311 0.48 255 255 255
-0.0895931 0.140112 0.428 255 255 255
-0.0423939 -0.075263 0.437 0 0 0
-0.177512 -0.144583 0.406 255 255 255
-0.0855604 0.0323192 0.471 0 0 0
0.180093 0.163061 0.449 255 255 255
0.214517 -0.0331694 0.465 255 255 255
0.0473313 -0.155812 0.413 255 255 255
-0.0560643 -0.152753 0.412 255 255 255
0.146186 -0.118966 0.433 255 255 255
0.139746 -0.15777 0.42 255 255 255
0.0628736 -0.154978 0.418 255 255 255
0.250603 0.158857 0.551 255 255 255
0.111307 0.117654 0.505 255 255 255
0.0446743 -0.0171671 0.462 255 255 255
-0.00191449 -0.0190442 0.453 255 255 255
-0.0481479 -0.107085 0.425 0 0 0
0.110399 -0.0422667 0.457 255 255 255
-0.0667728 0.132767 0.443 255 255 255
0.0189542 -0.0745166 0.441 255 255 255
0.00102824 -0.0460131 0.45 255 255 255
0.0758351 -0.00742535 0.464 255 255 255
-0.174915 0.0158444 0.46 255 255 255
0.24348 0.0230195 0.485 255 255 255
0.159922 0.141611 0.483 255 255 255
0.0688707 0.0031729 0.468 0 0 0
-0.0183746 0.141497 0.441 255 255 255
-0.0380469 -0.0138839 0.453 255 255 255
-0.225819 0.105073 0.451 255 255 255
0.0572032 -0.039034 0.454 0 0 0
-0.0709476 -0.0913383 0.429 255 255 255
-0.0379445 0.0674334 0.47 255 255 255
-0.0611482 -0.106143 0.424 0 0 0
0.216308 -0.156512 0.424 255 255 255
-0.184528 0.00902804 0.456 255 255 255
0.104544 -0.0637296 0.451 255 255 255
0.0747564 0.11579 0.497 255 255 255
0.0448988 -0.0739663 0.442 255 255 255
-0.151608 -0.0782559 0.43 255 255 255
0.148988 -0.15198 0.421 255 255 255
0.144408 -0.0501161 0.454 0 0 0
0.0673812 -0.0119301 0.463 255 255 255
0.0334108 0.103473 0.508 255 255 255
0.0452036 -0.0650542 0.445 255 255 255
0.117404 0.0491661 0.486 255 255 255
0.0634519 -0.0949572 0.436 255 255 255
0.0718448 -0.112805 0.431 255 255 255
0.000299014 -0.00135784 0.455 255 255 255
-0.0856165 0.122295 0.455 255 255 255
0.237663 0.159193 0.546 255 255 255
-0.0032172 -0.0992484 0.43 255 255 255
-0.218298 0.137868 0.417 255 255 255
-0.0659704 -0.082325 0.433 0 0 0
-0.0314554 0.0582243 0.476 255 255 255
-0.196614 0.152234 0.41 255 255 255
0.11213 0.117654 0.505 255 255 255
0.236539 0.139364 0.578 255 255 255
-0.0679954 -0.0953043 0.428 255 255 255
-0.0129404 0.0546938 0.479 0 0 0
-0.172158 0.087107 0.473 255 255 255
0.03327 0.0660176 0.482 255 255 255
0.206065 -0.0984218 0.442 255 255 255
0.02101 -0.158402 0.411 255 255 255
-0.191848 0.00307798 0.454 0 0 0
-0.207958 -0.0842621 0.425 0 0 0
0.0538637 0.0115997 0.47 255 255 255
-0.00406291 -0.0557651 0.446 0 0 0
-0.195948 -0.0766776 0.429 255 255 255
-0.165106 0.0393896 0.464 255 255 255
-0.0345916 -0.129747 0.42 255 255 255
0.187813 0.0357211 0.486 255 255 255
-0.0676901 -0.00958616 0.459 255 255 255
-0.072702 -0.0957765 0.427 255 255 255
-0.149461 -0.138978 0.407 255 255 255
0.213203 -0.113405 0.436 255 255 255
-0.109797 -0.0890359 0.428 0 0 0
0.202121 -0.0876998 0.446 0 0 0
-0.13395 -0.0458105 0.441 255 255 255
-0.00610098 -0.0814764 0.436 0 0 0
0.0452047 -0.158787 0.412 255 255 255
0.106631 -0.0343099 0.46 0 0 0
-0.0915823 -0.119606 0.418 255 255 255
0.105307 -0.069867 0.448 255 255 255
0.187088 -0.108223 0.438 255 255 255
-0.011476 0.110957 0.483 255 255 255
-0.114502 -0.0569032 0.438 255 255 255
0.210059 0.00714493 0.479 255 255 255
-0.00614296 -0.0763218 0.439 0 0 0
-0.0978349 -0.0542989 0.44 255 255 255
-0.108864 0.0276026 0.469 255 255 255
-0.0351884 -0.151045 0.411 255 255 255
-0.130482 0.0841376 0.487 255 255 255
0.066369 -0.0541885 0.451 255 255 255
0.00343366 0.0585913 0.479 255 255 255
-0.0830071 0.0784585 0.512 255 255 255
0.0924613 -0.121358 0.429 255 255 255
-0.104952 -0.0305668 0.449 255 255 255
0.159543 0.129562 0.494 255 255 255
-0.266952 0.0912211 0.528 255 255 255
-0.181705 -0.121616 0.411 255 255 255
0.157818 0.0211758 0.479 255 255 255
0.0509101 -0.00667027 0.464 255 255 255
-0.106011 -0.103383 0.424 0 0 0
-0.190229 0.140583 0.415 255 255 255
-0.0604344 0.123776 0.455 255 255 255
-0.161467 0.15035 0.414 255 255 255
-0.188319 0.101487 0.458 255 255 255
-0.140809 0.125423 0.44 255 255 255
-0.217509 0.106069 0.449 255 255 255
-0.213359 -0.0925948 0.422 255 255 255
0.100319 0.139796 0.469 255 255 255
-0.211516 0.119913 0.428 255 255 255
-0.15878 -0.0907492 0.423 255 255 255
-0.104742 -0.0397086 0.445 0 0 0
-0.16205 0.130361 0.428 255 255 255
0.142275 0.120629 0.597 255 255 255
0.226385 0.126328 0.601 255 255 255
-0.159628 -0.120279 0.411 255 255 255
-0.220923 -0.00646901 0.45 255 255 255
0.251513 0.0955246 0.501 0 0 0
0.208198 -0.0121877 0.473 255 255 255
0.043804 -0.0337878 0.453 255 255 255
-0.00402647 -0.0638963 0.442 255 255 255
0.217602 -0.0754724 0.451 255 255 255
0.155946 0.119481 0.601 255 255 255
0.044771 0.133486 0.463 255 255 255
0.203916 -0.0144663 0.472 255 255 255
-0.0715102 -0.121546 0.42 255 255 255
-0.0472124 0.133103 0.449 255 255 255
-0.0491819 -0.120064 0.422 255 255 255
0.101508 -0.085999 0.441 255 255 255
-0.0542677 -0.0580106 0.441 0 0 0
0.119961 -0.0629956 0.451 255 255 255
0.127743 -0.108897 0.435 255 255 255
0.226631 0.052281 0.493 255 255 255
0.090397 0.111458 0.503 255 255 255
0.0217308 0.0115997 0.47 0 0 0
0.0753247 0.126671 0.48 255 255 255
0.0833451 0.00241131 0.468 255 255 255
0.0853041 0.0313091 0.479 0 0 0
-0.068448 -0.13049 0.418 255 255 255
-0.0603016 -0.0294295 0.454 255 255 255
0.223892 -0.0113939 0.472 255 255 255
-0.0694946 0.140339 0.433 255 255 255
0.125331 0.0329367 0.48 255 255 255
0.0590578 -0.0982788 0.435 255 255 255
0.161648 -0.127534 0.431 255 255 255
-0.0574251 -0.124871 0.422 0 0 0
-0.0800258 -0.0920364 0.429 255 255 255
-0.178041 -0.0196067 0.449 255 255 255
0.241472 0.0110885 0.481 255 255 255
-0.169638 0.0386346 0.464 255 255 255
-0.180886 -0.0260661 0.447 255 255 255
-0.209397 0.00747774 0.452 255 255 255
0.134225 0.166237 0.44 255 255 255
-0.214633 -0.123322 0.41 255 255 255
0.206601 0.07827 0.495 255 255 255
0.080248 -0.0342353 0.459 0 0 0
0.0749415 -0.155286 0.417 255 255 255
0.222499 -0.0712264 0.452 255 255 255
-0.234319 -0.00864664 0.449 255 255 255
0.0925726 -0.148201 0.42 255 255 255
0.0503837 -0.152205 0.416 255 255 255
0.0673991 -0.0304341 0.458 255 255 255
-0.141149 -0.0862499 0.428 255 255 255
-0.0177769 0.140292 0.444 255 255 255
-0.206101 0.0757431 0.484 255 255 255
0.136607 0.113802 0.602 255 255 255
0.113399 0.11482 0.507 255 255 255
0.133297 0.148766 0.459 255 255 255
0.0908604 0.117934 0.579 255 255 255
0.180642 0.0461919 0.488 255 255 255
-0.167393 0.152976 0.412 255 255 255
0.0577741 -0.0977952 0.436 255 255 255
0.0699202 -0.03912 0.455 0 0 0
0.116116 0.00996293 0.465 255 255 255
-0.0230286 0.0670255 0.478 255 255 255
-0.1846 -0.122655 0.41 255 255 255
0.00162772 -0.138666 0.416 255 255 255
-0.0964427 0.0244974 0.468 255 255 255
0.0461784 -0.0149116 0.462 0 0 0
-0.277448 0.0767007 0.547 255 255 255
0.273521 0.160044 0.552 255 255 255
0.148861 0.14559 0.468 255 255 255
0.0210995 0.0255289 0.473 255 255 255
-0.102091 0.160631 0.411 255 255 255
0.0333327 -0.0483171 0.451 255 255 255
-0.215568 -0.0835705 0.425 0 0 0
-0.138219 0.145917 0.411 255 255 255
-0.0306476 -0.0603 0.442 0 0 0
-0.174945 0.142266 0.414 255 255 255
0.202633 -0.0675486 0.452 255 255 255
-0.176191 -0.145904 0.406 255 255 255
-0.0480165 -0.151412 0.412 255 255 255
-0.0974624 0.0114023 0.462 0 0 0
0.0697927 0.13906 0.464 255 255 255
-0.105022 0.147612 0.412 255 255 255
-0.213198 0.129102 0.415 255 255 255
0.0617446 -0.0848946 0.439 255 255 255
-0.147745 -0.0246663 0.448 255 255 255
-0.149859 -0.0801683 0.429 255 255 255
0.184151 0.131384 0.576 255 255 255
-0.0515605 0.155575 0.419 255 255 255
0.087869 -0.0895873 0.441 255 255 255
0.0516746 -0.141018 0.421 255 255 255
-0.219423 -0.0266137 0.444 255 255 255
-0.11618 -0.0791393 0.431 255 255 255
0.0702277 0.0193301 0.472 255 255 255
0.189208 0.135473 0.498 255 255 255
0.198119 0.0390446 0.488 255 255 255
-0.213365 0.0636629 0.488 255 255 255
-0.192474 0.103835 0.452 255 255 255
-0.0868045 0.0823166 0.505 255 255 255
-0.148923 0.0219753 0.463 255 255 255
-0.147027 -0.068937 0.433 255 255 255
0.141251 -0.0622617 0.451 0 0 0
0.0752395 0.163062 0.447 255 255 255
-0.106429 0.122053 0.446 255 255 255
0.246492 0.0472748 0.491 255 255 255
-0.202186 0.087107 0.473 255 255 255
-0.0586086 0.117163 0.464 255 255 255
-0.225843 0.0148989 0.454 255 255 255
-0.0892301 -0.0752787 0.433 255 255 255
0.208384 -0.138811 0.429 255 255 255
-0.0344896 0.104528 0.486 255 255 255
0.00176858 -0.0278288 0.452 255 255 255
0.0925901 -0.159357 0.417 255 255 255
-0.181669 -0.0877201 0.425 255 255 255
-0.104683 0.0940524 0.485 255 255 255
-0.120635 -0.0109352 0.453 255 255 255
0.144129 0.0101772 0.475 255 255 255
0.107094 -0.0119043 0.462 255 255 255
0.187181 -0.091124 0.445 0 0 0
0.0642477 0.111893 0.577 255 255 255
0.187157 -0.0426367 0.461 255 255 255
0.0338567 0.162484 0.421 255 255 255
-0.0770068 -0.0421634 0.448 255 255 255
0.00592327 -0.0935992 0.433 255 255 255
0.154406 0.131706 0.493 255 255 255
0.202204 -0.0972026 0.443 255 255 255
-0.15652 -0.150072 0.403 255 255 255
0.127351 0.163744 0.441 255 255 255
0.201162 -0.0690197 0.452 0 0 0
0.00652518 0.0389408 0.477 255 255 255
-0.223881 -0.0717908 0.429 255 255 255
-0.0331029 0.129242 0.456 255 255 255
-0.00665449 0.156788 0.426 255 255 255
0.034826 -0.0739663 0.442 255 255 255
-0.000402812 -0.140359 0.415 255 255 255
-0.125234 0.135991 0.426 255 255 255
-0.145353 -0.101522 0.422 255 255 255
-0.0635999 -0.05514 0.441 0 0 0
0.157317 -0.0502265 0.455 255 255 255
0.11311 -0.0179189 0.462 255 255 255
0.105361 -0.0283829 0.461 0 0 0
-0.205921 0.057897 0.493 255 255 255
-0.0675875 0.0464094 0.474 255 255 255
-0.182562 -0.106849 0.416 255 255 255
-0.223847 0.0456877 0.459 255 255 255
-0.13152 -0.0717555 0.433 255 255 255
-0.0912548 0.14223 0.426 255 255 255
-0.114229 -0.0182262 0.451 255 255 255
0.104383 0.0660453 0.488 255 255 255
-0.208204 -0.141898 0.404 255 255 255
-0.0214988 -0.134571 0.418 255 255 255
0.0186356 0.0982628 0.511 255 255 255
0.12101 0.0888238 0.491 255 255 255
0.0352199 -0.0566176 0.447 255 255 255
0.0727298 0.165229 0.445 255 255 255
-0.105271 0.101851 0.47 255 255 255
-0.0438528 0.0466052 0.476 255 255 255
-0.0820778 -0.0593111 0.44 255 255 255
-0.200274 -0.00503777 0.453 255 255 255
0.0950325 -0.125254 0.428 255 255 255
0.0207594 0.0763726 0.483 255 255 255
0.236724 -0.0241925 0.467 255 255 255
0.185592 0.0664545 0.497 0 0 0
0.111886 -0.0637296 0.451 255 255 255
-0.164268 0.123846 0.432 255 255 255
-0.015087 -0.0416193 0.45 0 0 0
-0.132572 -0.150529 0.406 255 255 255
0.0548601 0.112421 0.5 255 255 255
0.0172959 -0.0286907 0.454 255 255 255
-0.0675357 -0.0768651 0.434 255 255 255
0.0730566 -0.066074 0.447 255 255 255
-0.152067 -0.0152566 0.45 255 255 255
-0.0482749 0.0862664 0.524 255 255 255
-0.149779 -0.0520323 0.439 255 255 255
-0.0574056 -0.152753 0.412 255 255 255
-0.0159268 -0.0879621 0.433 0 0 0
0.159136 0.0292126 0.483 255 255 255
-0.142952 -0.106763 0.421 255 255 255
-0.224041 -0.0143952 0.446 255 255 255
-0.109581 -0.0233119 0.45 255 255 255
-0.188802 0.0368844 0.461 255 255 255
-0.0360286 0.0387775 0.475 0 0 0
-0.125696 0.118754 0.45 255 255 255
-0.115511 0.012906 0.462 255 255 255
0.243198 0.0772784 0.499 255 255 255
0.132574 -0.12304 0.43 255 255 255
0.230305 -0.0840926 0.45 0 0 0
0.0641099 0.117172 0.496 255 255 255
-0.204968 -0.0273362 0.444 255 255 255
0.0834656 0.0216802 0.473 255 255 255
0.0188294 0.0294396 0.474 255 255 255
0.185598 -0.0454395 0.459 255 255 255
-0.0651354 -0.108647 0.423 255 255 255
-0.191719 0.0180508 0.459 255 255 255
-0.114952 -0.0589067 0.437 0 0 0
0.12302 -0.13576 0.426 255 255 255
-0.264644 0.0884492 0.532 255 255 255
0.0860646 -0.134058 0.425 255 255 255
-0.208656 0.0679107 0.49 255 255 255
0.171135 0.01022 0.477 255 255 255
0.189318 -0.00985767 0.472 255 255 255
-0.173167 -0.0360066 0.444 255 255 255
-0.2028 -0.0258912 0.444 255 255 255
0.121766 0.157095 0.455 255 255 255
-0.106421 0.0205568 0.465 255 255 255
-0.00241772 -0.146403 0.413 255 255 255
0.029569 0.124824 0.473 255 255 255
0.104311 -0.0081628 0.463 255 255 255
-0.112503 0.107636 0.462 255 255 255
-0.230277 0.0126825 0.454 255 255 255
0.0626769 0.0239894 0.473 255 255 255
-0.0114048 0.0657437 0.48 255 255 255
0.213904 -0.0160025 0.472 255 255 255
0.200565 -0.0264157 0.466 255 255 255
-0.219502 -0.104641 0.418 255 255 255
0.175271 0.0787561 0.493 255 255 255
0.125549 0.0854533 0.49 255 255 255
-0.231301 -0.0122178 0.446 255 255 255
0.242939 0.163865 0.538 255 255 255
-0.159307 -0.0747571 0.43 255 255 255
0.249066 0.0987858 0.501 255 255 255
0.116505 -0.135442 0.425 255 255 255
-0.125302 -0.137315 0.406 255 255 255
0.16801 -0.0284445 0.462 255 255 255
0.133699 0.13818 0.482 255 255 255
-0.0603016 0.127936 0.454 255 255 255
0.201772 0.0713072 0.497 0 0 0
0.016153 -0.118563 0.424 255 255 255
-0.10443 -0.0934725 0.426 255 255 255
-0.0293091 -0.143043 0.413 255 255 255
-0.23827 0.0269552 0.458 0 0 0
-0.0947552 -0.118128 0.42 255 255 255
-0.0814216 0.159458 0.408 255 255 255
0.179229 0.157386 0.458 255 255 255
-0.0930322 0.128579 0.441 255 255 255
-0.0955736 -0.0724602 0.433 0 0 0
0.10605 -0.0956105 0.439 255 255 255
0.048921 0.0217261 0.474 255 255 255
-0.104167 0.0918325 0.49 255 255 255
-0.0802552 -0.0220415 0.454 255 255 255
-0.0261906 -0.0197377 0.452 255 255 255
-0.190556 0.100742 0.458 255 255 255
0.0536496 -0.0568709 0.449 255 255 255
0.0359803 -0.105546 0.43 255 255 255
0.249468 0.0343501 0.489 255 255 255
0.0895306 0.068007 0.485 255 255 255
0.141081 0.144683 0.47 255 255 255
0.14638 0.130904 0.493 255 255 255
0.274651 0.14387 0.581 255 255 255
-0.104078 -0.120574 0.419 255 255 255
-0.157529 0.0901859 0.473 255 255 255
0.144532 -0.157086 0.42 255 255 255
0.151088 0.00476632 0.475 255 255 255
-0.160297 -0.120279 0.411 255 255 255
0.182277 0.134121 0.499 255 255 255
-0.108151 -0.0909124 0.427 0 0 0
-0.0162946 -0.0575528 0.443 0 0 0
-0.153364 -0.0742296 0.431 255 255 255
0.222359 0.0647065 0.496 255 255 255
0.115331 -0.0492686 0.453 255 255 255
-0.109852 -0.140002 0.41 0 0 0
0.135987 0.127003 0.595 255 255 255
-0.0860116 -0.0854517 0.431 255 255 255
0.152923 0.126857 0.496 255 255 255
-0.0234527 -0.0624578 0.442 0 0 0
0.124242 0.0723984 0.488 255 255 255
-0.119538 -0.076688 0.433 255 255 255
0.197363 0.122619 0.602 255 255 255
-0.184618 0.113046 0.442 255 255 255
-0.0945014 0.159573 0.41 255 255 255
-0.0496441 -0.0856499 0.432 255 255 255
0.286401 0.153699 0.565 255 255 255
0.0199318 0.073077 0.482 255 255 255
-0.146817 0.117628 0.443 0 0 0
-0.113711 0.135615 0.427 255 255 255
-0.0218078 -0.155058 0.411 255 255 255
-0.185661 0.118607 0.436 255 255 255
0.0415917 -0.129297 0.423 255 255 255
-0.148156 0.00160742 0.456 0 0 0
-0.15703 -0.0974019 0.422 255 255 255
-0.186956 0.0234315 0.462 0 0 0
0.0399188 0.0994524 0.565 255 255 255
0.217076 -0.0383836 0.464 255 255 255
0.211055 0.0655137 0.496 0 0 0
-0.25684 0.0968593 0.508 255 255 255
-0.0915317 0.0863253 0.495 255 255 255
0.205576 -0.0712264 0.452 255 255 255
-0.0070665 0.0987527 0.505 0 0 0
-0.0111196 0.121219 0.468 255 255 255
-0.154376 -0.0374517 0.444 0 0 0
-0.151968 0.154988 0.412 255 255 255
0.0899122 -0.0771911 0.444 255 255 255
-0.108338 -0.0116982 0.454 255 255 255
0.0024157 -0.0843144 0.436 255 255 255
0.205565 0.128598 0.589 0 0 0
-0.181957 0.102753 0.457 255 255 255
0.275902 0.150818 0.568 255 255 255
0.0240528 0.111646 0.486 255 255 255
-0.210413 -0.131692 0.407 255 255 255
0.16094 -0.157086 0.42 255 255 255
0.17553 0.0719709 0.496 255 255 255
0.152996 0.0267434 0.481 255 255 255
-0.138125 0.0594475 0.486 255 255 255
0.0778429 -0.153617 0.418 255 255 255
-0.0132619 0.0136873 0.463 255 255 255
0.162953 0.0348583 0.485 255 255 255
0.0386186 0.0999281 0.573 255 255 255
0.259043 0.178156 0.516 255 255 255
0.196933 0.0431035 0.489 0 0 0
0.143536 -0.0965444 0.44 255 255 255
-0.212577 -0.0625953 0.433 255 255 255
-0.0227395 0.0323878 0.472 255 255 255
-0.096168 -0.155975 0.403 255 255 255
0.105098 -0.0867166 0.441 255 255 255
0.164835 -0.125018 0.432 255 255 255
-0.12981 -0.0736988 0.432 255 255 255
0.127861 -0.114034 0.433 255 255 255
-0.104352 -0.135992 0.412 255 255 255
-0.0464265 0.0894644 0.513 255 255 255
-0.155037 -0.0224792 0.448 255 255 255
0.0365595 0.0521143 0.484 255 255 255
-0.0424809 0.107474 0.478 255 255 255
-0.172695 0.134759 0.42 255 255 255
-0.209469 -0.0130307 0.449 255 255 255
-0.201122 0.0323129 0.46 0 0 0
0.0662218 -0.0577299 0.45 255 255 255
0.205867 -0.119241 0.434 255 255 255
-0.139009 0.13027 0.43 255 255 255
0.0604397 -0.146834 0.42 255 255 255
0.180861 -0.00372861 0.474 255 255 255
-0.22064 -0.0494345 0.435 255 255 255
0.151439 -0.10252 0.438 0 0 0
-0.250063 0.0931842 0.506 255 255 255
0.121236 -0.117285 0.432 255 255 255
-0.0513641 0.1488 0.423 255 255 255
0.235204 -0.0338532 0.464 0 0 0
-0.157967 0.101088 0.463 255 255 255
0.162543 -0.0885517 0.443 255 255 255
-0.0522872 0.127478 0.455 255 255 255
0.0788014 0.122971 0.487 255 255 255
0.159496 -0.0467289 0.457 255 255 255
-0.0299686 0.056018 0.477 255 255 255
0.021679 -0.157733 0.411 255 255 255
-0.179053 -0.14884 0.405 255 255 255
-0.188942 0.156968 0.405 255 255 255
0.136374 -0.0972604 0.44 255 255 255
-0.00111993 0.15442 0.431 255 255 255
-0.154497 0.108226 0.455 0 0 0
0.28211 0.147063 0.575 255 255 255
-0.0930295 0.0291912 0.47 255 255 255
0.0101964 0.10204 0.505 255 255 255
0.0364085 0.060527 0.482 0 0 0
-0.0095832 0.151613 0.433 255 255 255
-0.0517459 -0.0439545 0.444 255 255 255
0.298884 0.145563 0.584 255 255 255
-0.0488549 -0.0410644 0.444 255 255 255
-0.180611 -0.0415046 0.441 0 0 0
-0.10226 -0.143654 0.409 255 255 255
0.190855 -0.00755337 0.472 0 0 0
0.106802 0.00465594 0.464 255 255 255
-0.0740641 -0.0742106 0.435 255 255 255
0.0388427 0.118817 0.483 255 255 255
-0.170456 0.0663062 0.502 255 255 255
-0.0786575 0.140339 0.433 255 255 255
-0.164037 -0.142952 0.407 255 255 255
-0.0458863 0.0347656 0.473 255 255 255
0.161091 -0.0938932 0.441 255 255 255
0.0854263 0.160152 0.447 255 255 255
0.00130244 0.0956946 0.57 255 255 255
-0.198062 0.00823146 0.453 255 255 255
0.068691 0.0131853 0.472 255 255 255
0.235524 0.173958 0.516 255 255 255
0.1658 -0.0873066 0.444 255 255 255
0.130069 0.0741382 0.489 255 255 255
-0.00976532 -0.15372 0.411 255 255 255
-0.0734489 0.0354602 0.472 0 0 0
0.0224001 0.00850403 0.468 255 255 255
0.226079 -0.10149 0.446 255 255 255
-0.210656 0.125954 0.418 255 255 255
-0.193305 0.0293824 0.461 255 255 255
-0.181691 0.0226797 0.462 0 0 0
-0.135178 -0.0583287 0.438 255 255 255
0.0687398 -0.0318551 0.457 255 255 255
0.0725682 -0.127741 0.427 255 255 255
0.23345 0.154592 0.555 255 255 255
-0.177038 -0.057796 0.434 255 255 255
-0.0754523 0.0918325 0.49 255 255 255
0.0372702 0.116459 0.483 255 255 255
-0.114709 -0.0240442 0.45 255 255 255
0.067089 -0.109552 0.432 255 255 255
0.0223206 -0.0446475 0.451 0 0 0
-0.164099 0.137165 0.419 255 255 255
-0.0111909 0.118164 0.471 255 255 255
-0.0447563 0.0902992 0.513 255 255 255
0.0362314 -0.0971223 0.433 255 255 255
0.114369 0.122342 0.504 255 255 255
0.0356531 0.0200982 0.472 255 255 255
-0.107316 -0.114984 0.421 255 255 255
0.138132 0.0062857 0.473 255 255 255
-0.141824 -0.136654 0.406 255 255 255
0.168488 -0.141638 0.427 255 255 255
-0.133635 0.130474 0.433 255 255 255
0.088293 -0.0171671 0.462 0 0 0
0.125891 -0.0775388 0.446 255 255 255
0.0512599 -0.115074 0.429 255 255 255
-0.0775253 -0.144708 0.412 255 255 255
-0.0585963 -0.0118012 0.458 255 255 255
0.0369213 -0.0489423 0.45 255 255 255
0.112621 -0.035807 0.46 0 0 0
0.202344 -0.0662237 0.453 255 255 255
-0.275794 0.0804097 0.542 255 255 255
-0.0278291 -0.150376 0.411 255 255 255
-0.0260863 0.056018 0.477 255 255 255
-0.0853708 0.0681879 0.492 255 255 255
0.198376 -0.143028 0.427 0 0 0
0.0242511 -0.0601199 0.446 255 255 255
-0.20741 0.0441938 0.459 255 255 255
-0.0753055 -0.0955522 0.426 0 0 0
0.100143 -0.125546 0.429 255 255 255
-0.00843779 0.140512 0.447 255 255 255
0.217143 -0.148587 0.427 255 255 255
-0.127779 -0.0451951 0.442 255 255 255
0.00981839 -0.0416193 0.45 0 0 0
0.0830011 -0.147518 0.42 255 255 255
-0.112752 0.137377 0.426 255 255 255
-0.182301 0.00531773 0.456 0 0 0
-0.0298429 0.0387775 0.475 0 0 0
-0.0330287 -0.0491226 0.445 255 255 255
-0.110054 0.134854 0.429 255 255 255
-0.0560512 -0.111137 0.422 0 0 0
0.203278 -0.123194 0.433 0 0 0
-0.0460803 0.0418694 0.475 255 255 255
-0.143674 -0.0492867 0.44 255 255 255
-0.0821547 0.149822 0.422 255 255 255
0.100119 -0.140311 0.423 255 255 255
-0.0699778 -0.147032 0.411 0 0 0
-0.138219 0.156618 0.411 255 255 255
-0.0513944 -0.0969232 0.429 0 0 0
-0.198939 -0.0563835 0.434 255 255 255
-0.209567 0.113251 0.44 255 255 255
-0.0261906 -0.00723331 0.452 255 255 255
-0.0797641 0.0493904 0.473 255 255 255
0.0523167 0.0599905 0.484 0 0 0
0.207507 -0.123194 0.433 0 0 0
0.0753222 -0.0927529 0.439 255 255 255
0.0429833 0.136364 0.46 255 255 255
-0.209081 0.0672503 0.491 255 255 255
0.0127768 -0.0351065 0.451 255 255 255
0.223322 -0.0264157 0.466 255 255 255
-0.238202 0.0919019 0.482 255 255 255
0.118986 0.0491661 0.486 255 255 255
-0.196406 -0.0978562 0.421 255 255 255
-0.043946 -0.0124096 0.453 255 255 255
-0.145712 0.0135987 0.46 255 255 255
-0.120369 -0.0123822 0.452 255 255 255
0.15963 -0.105842 0.437 255 255 255
-0.0957823 0.090606 0.492 255 255 255
-0.136881 0.149261 0.411 255 255 255
0.0737603 -0.154298 0.418 255 255 255
-0.0873567 0.129021 0.445 255 255 255
0.195602 -0.148233 0.424 255 255 255
-0.169823 -0.146204 0.405 255 255 255
0.115111 -0.00213978 0.464 255 255 255
-0.0412671 0.104452 0.482 255 255 255
-0.126423 0.0329451 0.469 255 255 255
-0.128789 0.122674 0.443 255 255 255
-0.173018 0.0715356 0.493 255 255 255
-0.016839 0.0476784 0.479 0 0 0
-0.0761523 -0.102451 0.423 0 0 0
-0.078675 -0.0572929 0.441 255 255 255
-0.12519 0.0843104 0.488 255 255 255
-0.013859 0.096143 0.513 0 0 0
0.242588 -0.00912808 0.474 255 255 255
0.150073 -0.129338 0.43 0 0 0
0.0682673 0.160138 0.449 255 255 255
0.262745 0.170694 0.532 255 255 255
-0.154552 -0.148761 0.403 255 255 255
-0.113255 0.0114023 0.462 0 0 0
-0.00934386 0.102436 0.495 255 255 255
-0.0138801 -0.142715 0.414 255 255 255
-0.0303815 0.0930909 0.51 0 0 0
-0.167927 0.132835 0.427 255 255 255
-0.168309 -0.0978562 0.421 0 0 0
-0.0380137 -0.0526249 0.444 255 255 255
0.177657 -0.139509 0.429 255 255 255
-0.107876 -0.0305668 0.449 255 255 255
0.0412867 0.0497514 0.484 0 0 0
-0.0497591 -0.0816204 0.433 255 255 255
-0.184002 -0.0895837 0.424 255 255 255
0.0916395 -0.143413 0.422 255 255 255
0.132148 -0.0672497 0.45 255 255 255
0.00238245 -0.100648 0.43 255 255 255
0.000314128 0.0592468 0.478 255 255 255
0.241076 0.187063 0.493 255 255 255
-0.178901 -0.0877201 0.425 255 255 255
0.208026 -0.155823 0.424 255 255 255
-0.192285 -0.103961 0.418 255 255 255
-0.155014 -0.0923437 0.424 255 255 255
-0.106651 -0.0269733 0.45 255 255 255
-0.0843839 0.0393839 0.473 255 255 255
0.220703 -0.118534 0.434 255 255 255
0.00999294 0.133536 0.458 255 255 255
-0.161266 0.0365261 0.466 255 255 255
-0.175534 0.135153 0.417 255 255 255
0.0817882 -0.0697111 0.447 255 255 255
0.202442 -0.161571 0.421 255 255 255
0.0167586 0.0737081 0.481 255 255 255
-0.1582 -0.00431958 0.455 255 255 255
-0.07821 0.123035 0.455 255 255 255
-0.0129258 -0.110369 0.427 255 255 255
-0.20527 -0.0399784 0.44 0 0 0
-0.14455 -0.00652651 0.454 255 255 255
-0.170561 0.0792196 0.486 255 255 255
0.0754806 -0.148885 0.42 255 255 255
0.0301265 0.144877 0.447 255 255 255
-0.205113 0.151782 0.407 255 255 255
0.100874 -0.0571242 0.451 255 255 255
0.0039319 -0.0544353 0.447 255 255 255
-0.0166256 -0.024151 0.452 255 255 255
-0.177161 0.100433 0.46 255 255 255
0.110579 -0.00364994 0.464 255 255 255
0.158555 -0.111986 0.436 255 255 255
0.0758369 0.167712 0.442 255 255 255
-0.161253 -0.146863 0.405 255 255 255
0.0480812 0.114722 0.489 255 255 255
-0.10526 -0.112243 0.421 255 255 255
-0.0150882 0.0324564 0.473 255 255 255
-0.120569 -0.0247765 0.45 255 255 255
-0.186625 -0.105495 0.416 255 255 255
0.212668 -0.0706468 0.453 255 255 255
-0.194615 0.0827555 0.479 255 255 255
-0.171804 -0.0827674 0.428 0 0 0
-0.0216662 0.0923776 0.52 255 255 255
-0.12829 -0.146204 0.405 255 255 255
0.0691777 -0.159944 0.415 255 255 255
0.0115592 -0.0111283 0.461 0 0 0
-0.128495 0.145601 0.412 255 255 255
0.0499493 0.103473 0.508 255 255 255
-0.00729619 -0.116907 0.423 255 255 255
0.154949 -0.132915 0.428 0 0 0
0.157767 0.122015 0.496 255 255 255
0.160124 0.139327 0.486 255 255 255
0.211862 0.175287 0.496 255 255 255
-0.141388 -0.0696416 0.433 255 255 255
0.218584 -0.119947 0.434 255 255 255
-0.176972 -0.0181858 0.45 255 255 255
-0.102171 -0.155814 0.406 255 255 255
-0.106929 -0.156362 0.404 255 255 255
-0.2346 -0.0172208 0.444 255 255 255
0.134924 0.0281323 0.478 255 255 255
0.123853 0.147593 0.46 255 255 255
0.182609 0.154741 0.459 255 255 255
0.109864 -0.0306335 0.461 0 0 0
-0.0834173 0.150442 0.418 255 255 255
0.139551 0.143918 0.47 255 255 255
0.0742327 0.0320216 0.478 255 255 255
-0.0544459 0.158142 0.415 255 255 255
-0.00418236 0.0965769 0.559 0 0 0
0.240443 0.0532987 0.495 255 255 255
0.0473313 -0.158501 0.413 255 255 255
0.106212 -0.0465244 0.455 255 255 255
-0.0775719 0.116901 0.46 255 255 255
-0.100466 0.0268394 0.469 255 255 255
0.174018 0.0869548 0.494 255 255 255
0.0102766 0.0177562 0.471 255 255 255
-0.00136418 0.0975376 0.525 255 255 255
0.125006 0.0600591 0.491 0 0 0
0.09533 0.00468604 0.467 255 255 255
-0.00129402 0.101436 0.498 0 0 0
0.0711464 0.0216802 0.473 255 255 255
0.10296 -0.106066 0.435 255 255 255
-0.214389 0.138214 0.416 255 255 255
0.0957745 0.10601 0.586 255 255 255
0.243484 0.0514788 0.493 255 255 255
0.0414161 0.0998701 0.515 255 255 255
0.140338 -0.0172786 0.465 255 255 255
-0.179185 0.067534 0.499 255 255 255
-0.0580845 0.127198 0.454 255 255 255
0.151729 -0.15335 0.421 255 255 255
-0.054011 0.0291912 0.47 255 255 255
-0.140503 -0.15185 0.406 255 255 255
-0.192745 -0.102846 0.419 255 255 255
0.0665949 -0.0918289 0.438 255 255 255
0.0734074 -0.158975 0.416 255 255 255
-0.0214724 0.0545797 0.478 255 255 255
0.232431 0.043989 0.49 255 255 255
-0.177705 -0.0181858 0.45 255 255 255
-0.0199162 0.0436896 0.478 255 255 255
0.216518 -0.0190344 0.471 255 255 255
0.251321 0.0789025 0.499 255 255 255
0.152877 -0.106309 0.436 0 0 0
-0.0959037 -0.052987 0.441 255 255 255
-0.12465 0.0828917 0.489 255 255 255
-0.13253 0.0382877 0.469 0 0 0
0.160716 -0.0716435 0.45 255 255 255
-0.181133 -0.0839637 0.427 0 0 0
0.187824 0.112586 0.606 255 255 255
0.172415 -0.00908957 0.472 255 255 255
0.160543 0.152833 0.46 255 255 255
-0.143571 0.14391 0.411 255 255 255
0.204684 -0.0136982 0.472 255 255 255
0.288953 0.14249 0.587 255 255 255
-0.153606 0.140566 0.411 255 255 255
-0.148451 0.135721 0.423 255 255 255
0.247695 0.0573263 0.495 255 255 255
-0.1084 0.105001 0.467 255 255 255
-0.103852 0.0988615 0.474 255 255 255
-0.0101808 0.0098558 0.46 255 255 255
0.0333214 -0.0133789 0.461 255 255 255
-0.101204 0.133507 0.436 255 255 255
0.0558864 -0.124266 0.427 255 255 255
-0.185197 -0.00357128 0.454 255 255 255
-0.0969968 0.0221652 0.467 255 255 255
0.211609 0.161848 0.507 255 255 255
-0.266678 0.0737029 0.558 255 255 255
-0.0709591 0.122564 0.456 255 255 255
-0.0599136 -0.0936504 0.43 0 0 0
0.0882989 0.141176 0.466 255 255 255
0.202093 -0.1181 0.435 0 0 0
0.163102 -0.119671 0.433 255 255 255
0.0685455 0.0123909 0.471 255 255 255
-0.126859 0.0205568 0.465 255 255 255
0.00597799 -0.0837967 0.437 255 255 255
-0.110314 -0.0269733 0.45 255 255 255
0.0825209 0.0131853 0.472 255 255 255
0.0316589 -0.0832757 0.438 255 255 255
0.200686 -0.144772 0.426 255 255 255
0.110579 -0.00289486 0.464 255 255 255
0.239843 0.145272 0.568 255 255 255
0.292387 0.131323 0.606 255 255 255
0.234133 0.0931443 0.497 0 0 0
-0.207964 -0.14476 0.401 255 255 255
0.111365 -0.0291331 0.461 0 0 0
-0.0395485 -0.0773964 0.437 0 0 0
0.192126 0.0118219 0.479 0 0 0
0.0500204 -0.159845 0.413 255 255 255
-0.00314986 0.163854 0.421 255 255 255
-0.0994471 -0.0446771 0.444 0 0 0
-0.140226 0.145917 0.411 255 255 255
0.131652 0.127369 0.498 255 255 255
-0.180577 0.028003 0.463 0 0 0
0.117288 -0.114034 0.433 255 255 255
0.0854263 0.165244 0.447 255 255 255
0.19627 -0.131437 0.43 0 0 0
-0.16551 0.142266 0.414 255 255 255
0.0180087 0.160348 0.419 255 255 255
-0.059965 -0.0456041 0.446 255 255 255
0.242484 0.155495 0.555 255 255 255
-0.108743 0.0114023 0.462 0 0 0
-0.0388245 -0.103206 0.429 255 255 255
0.15581 -0.0173157 0.466 255 255 255
0.10734 0.06908 0.487 255 255 255
0.0973271 -0.114473 0.432 255 255 255
-0.168883 0.0967758 0.464 255 255 255
0.0815928 -0.0818783 0.442 255 255 255
0.16769 0.141408 0.485 255 255 255
-0.0430729 -0.0519024 0.444 255 255 255
-0.159021 -0.105826 0.42 255 255 255
-0.00684194 -0.0768607 0.438 0 0 0
-0.0637296 0.0417813 0.474 0 0 0
-0.0936272 -0.132255 0.415 255 255 255
-0.0649769 -0.158297 0.409 0 0 0
0.124413 0.128213 0.495 255 255 255
0.0114018 -0.108284 0.427 255 255 255
-0.165229 0.000865358 0.456 0 0 0
0.0188683 -0.0791794 0.439 255 255 255
-0.00779414 0.0898864 0.557 255 255 255
-0.143631 -0.0990095 0.423 0 0 0
-0.090352 0.0377645 0.472 0 0 0
-0.200698 -0.0108387 0.449 255 255 255
-0.041527 -0.125946 0.421 0 0 0
0.118119 -0.0291331 0.461 0 0 0
-0.114964 -0.0182262 0.451 255 255 255
0.203356 -0.0449846 0.462 255 255 255
-0.0138801 -0.144737 0.414 255 255 255
0.145818 -0.113591 0.434 255 255 255
0.053508 -0.0375564 0.454 0 0 0
-0.146872 0.123555 0.441 255 255 255
0.0660785 -0.118841 0.43 255 255 255
-0.17573 -0.139983 0.408 255 255 255
0.148397 0.161971 0.446 255 255 255
0.0228503 0.147059 0.447 255 255 255
0.0775527 -0.0476887 0.452 255 255 255
0.0624543 -0.100878 0.434 255 255 255
-0.0725781 0.0730289 0.509 255 255 255
0.0574084 0.0271255 0.474 255 255 255
-0.108607 0.122779 0.446 255 255 255
-0.147408 -0.0768564 0.43 255 255 255
0.152103 -0.0883518 0.442 0 0 0
0.117093 0.0517508 0.488 255 255 255
0.0175185 -0.0737989 0.441 255 255 255
-0.0131377 -0.0867527 0.434 255 255 255
0.0395806 0.129999 0.464 255 255 255
0.0323037 0.127312 0.468 255 255 255
-0.107145 0.122143 0.449 255 255 255
0.156459 -0.0409578 0.459 255 255 255
-0.100242 0.130555 0.438 255 255 255
0.032147 -0.0302348 0.455 255 255 255
0.129656 -0.0186707 0.462 255 255 255
-0.0953528 0.122224 0.452 255 255 255
0.107004 0.164522 0.449 255 255 255
0.155544 -0.058722 0.452 255 255 255
-0.169696 -0.111587 0.416 0 0 0
0.0607519 -0.124961 0.427 255 255 255
-0.123895 0.0959363 0.471 255 255 255
0.0890574 0.140418 0.466 255 255 255
-0.172409 -0.137991 0.408 255 255 255
0.0550612 -0.0923304 0.437 255 255 255
0.13897 0.150678 0.458 255 255 255
-0.0809173 0.114402 0.462 255 255 255
-0.155198 0.0987096 0.466 255 255 255
0.168788 0.161944 0.452 255 255 255
0.0416767 -0.10509 0.431 255 255 255
-0.00873981 0.0106735 0.463 255 255 255
-0.232426 -0.00281376 0.451 0 0 0
0.174783 -0.117828 0.434 255 255 255
0.133253 0.0765255 0.489 255 255 255
0.150326 -0.162167 0.419 255 255 255
-0.0859038 0.137132 0.434 255 255 255
0.201451 -0.0754724 0.451 0 0 0
-0.00411757 -0.0212088 0.452 255 255 255
0.185501 -0.154078 0.423 255 255 255
-0.187497 -0.0978562 0.421 255 255 255
0.0767817 0.113545 0.505 255 255 255
0.119337 0.12715 0.494 255 255 255
0.06303 0.17047 0.438 255 255 255
-0.00832453 -0.0666224 0.441 255 255 255
0.139843 -0.115443 0.433 255 255 255
-0.122923 0.130369 0.435 255 255 255
-0.156204 0.0884341 0.476 255 255 255
-0.192457 -0.0780739 0.429 0 0 0
-0.187887 -0.13964 0.407 255 255 255
0.145216 -0.156403 0.42 255 255 255
0.0237558 0.120422 0.48 255 255 255
0.175626 0.0845431 0.494 255 255 255
0.00550768 0.134731 0.457 255 255 255
-0.168541 0.0181294 0.461 255 255 255
0.113737 -0.136133 0.425 255 255 255
0.0805129 0.125891 0.483 255 255 255
0.0511404 -0.119682 0.428 255 255 255
-0.169816 0.152003 0.413 255 255 255
0.220744 0.0630922 0.496 255 255 255
-0.0877074 -0.0948289 0.429 255 255 255
-0.205921 0.0707333 0.493 255 255 255
-0.0764718 0.0236851 0.467 255 255 255
-0.0498855 0.0852507 0.523 255 255 255
0.167261 0.124307 0.596 255 255 255
-0.173612 0.0688809 0.497 255 255 255
0.181484 0.0388846 0.486 255 255 255
0.137258 0.0265766 0.478 255 255 255
-0.169292 0.100651 0.461 255 255 255
-0.016017 -0.137642 0.417 255 255 255
-0.184935 0.121455 0.431 255 255 255
-0.00735743 0.0246544 0.471 255 255 255
0.0898615 0.151311 0.451 255 255 255
-0.186354 -0.0393516 0.441 0 0 0
-0.209341 -0.0870285 0.425 0 0 0
-0.0491845 -0.0987868 0.428 255 255 255
0.173214 0.0765041 0.494 255 255 255
0.235991 0.012654 0.481 255 255 255
0.137794 0.0856277 0.491 255 255 255
0.00517023 -0.105301 0.429 255 255 255
0.13077 -0.0423592 0.458 255 255 255
0.127662 -0.143753 0.423 255 255 255
0.194661 -0.14197 0.428 255 255 255
0.210059 -0.0860977 0.449 0 0 0
0.153216 -0.132528 0.429 0 0 0
0.0230005 -0.121725 0.423 255 255 255
-0.179864 0.120182 0.434 255 255 255
-0.20649 -0.0960285 0.422 255 255 255
-0.072022 0.151484 0.419 255 255 255
-0.203256 0.109469 0.445 255 255 255
0.0280684 -0.0126287 0.461 255 255 255
-0.11077 0.0615658 0.484 255 255 255
-0.104185 -0.0994776 0.425 0 0 0
-0.165705 -0.153351 0.403 255 255 255
0.0612841 0.108006 0.506 255 255 255
-0.196782 0.14363 0.416 255 255 255
0.207164 0.0395939 0.485 255 255 255
-0.0191782 0.113935 0.479 255 255 255
-0.0287469 -0.0535878 0.446 0 0 0
0.180291 0.136283 0.498 255 255 255
-0.129422 0.110431 0.458 255 255 255
-0.0121861 0.068087 0.48 255 255 255
-0.203155 -0.0778919 0.428 255 255 255
-0.199191 0.0404591 0.459 255 255 255
-0.0978384 0.151566 0.41 255 255 255
0.102103 0.126152 0.481 255 255 255
-0.0880072 -0.0558576 0.441 0 0 0
0.190086 -0.0106258 0.472 255 255 255
-0.168994 -0.129642 0.411 255 255 255
0.183831 -0.0681331 0.451 255 255 255
-0.0840782 -0.148615 0.408 255 255 255
0.0940105 0.0100272 0.468 255 255 255
-0.196013 0.108745 0.445 255 255 255
0.154881 -0.144093 0.424 0 0 0
0.0795361 0.00241131 0.468 255 255 255
0.181691 0.0586992 0.493 255 255 255
0.198363 -0.150993 0.424 0 0 0
0.0524884 -0.0289435 0.458 255 255 255
0.18281 -0.105372 0.438 255 255 255
-0.178303 -0.0303625 0.446 255 255 255
-0.113978 0.135236 0.428 255 255 255
-0.0291425 -0.0637518 0.441 0 0 0
-0.144128 0.0495238 0.467 255 255 255
-0.138555 0.14359 0.412 255 255 255
0.236419 0.0423942 0.49 255 255 255
-0.212327 -0.120571 0.412 0 0 0
-0.020574 0.130554 0.458 255 255 255
-0.032014 -0.0644694 0.441 0 0 0
0.117333 0.0813001 0.489 255 255 255
-0.208937 -0.138655 0.408 255 255 255
-0.226836 0.0456877 0.459 255 255 255
-0.109316 -0.145295 0.408 0 0 0
0.178625 0.0486738 0.489 255 255 255
0.125849 0.0305296 0.479 255 255 255
-0.175262 0.102753 0.457 255 255 255
0.0392394 -0.0238299 0.46 255 255 255
0.0268439 -0.0352621 0.453 255 255 255
0.192888 -0.115976 0.435 255 255 255
0.148771 0.0259067 0.48 255 255 255
-0.165246 0.154235 0.41 255 255 255
0.137176 -0.0239335 0.462 255 255 255
-0.211799 -0.0921259 0.423 255 255 255
-0.207113 0.0315644 0.46 0 0 0
0.0522086 0.0645826 0.483 255 255 255
-0.108178 0.0839602 0.505 255 255 255
0.201093 -0.110613 0.439 255 255 255
0.187713 -0.0742413 0.448 255 255 255
0.189354 -0.0925723 0.445 255 255 255
-0.144447 -0.0540521 0.438 255 255 255
0.0351434 -0.085219 0.437 255 255 255
0.0511277 0.0209105 0.473 255 255 255
0.0509101 -0.00591518 0.464 255 255 255
-0.128007 0.135991 0.426 255 255 255
0.103216 0.0854533 0.49 255 255 255
-0.180187 0.0437308 0.462 255 255 255
0.201726 0.133721 0.578 255 255 255
0.101082 0.139796 0.469 255 255 255
-0.0609657 -0.0110801 0.459 255 255 255
0.000959691 -0.129064 0.42 255 255 255
-0.0249158 -0.100648 0.43 255 255 255
0.131661 0.0813001 0.489 255 255 255
-0.080462 -0.0648915 0.439 255 255 255
-0.024379 0.116603 0.474 255 255 255
0.213729 0.0220928 0.482 255 255 255
0.0839667 -0.153617 0.418 255 255 255
-0.0327971 0.0678638 0.473 255 255 255
-0.163894 0.0814243 0.485 255 255 255
0.103453 0.0266878 0.48 255 255 255
0.175919 -0.0880291 0.444 0 0 0
0.0419555 -0.0554096 0.449 255 255 255
-0.114627 0.0619474 0.487 255 255 255
-0.167081 -0.0666688 0.432 255 255 255
0.157751 0.0460026 0.486 255 255 255
0.13345 0.158698 0.447 255 255 255
-0.217277 0.120328 0.427 255 255 255
0.0602502 -0.160232 0.414 255 255 255
-0.0306729 -0.010198 0.453 255 255 255
0.0311209 -0.158787 0.412 255 255 255
-0.143494 0.111437 0.453 255 255 255
0.131479 -0.120521 0.431 255 255 255
-0.0136825 -0.0359199 0.452 255 255 255
0.0833723 -0.0936803 0.44 255 255 255
-0.156197 0.0520256 0.469 255 255 255
-0.118149 0.0771705 0.509 255 255 255
0.108001 0.0615316 0.49 255 255 255
-0.0347563 0.155316 0.422 255 255 255
0.2485 0.13796 0.584 255 255 255
0.102847 0.150243 0.45 255 255 255
-0.0730188 0.140339 0.433 255 255 255
0.25487 0.186529 0.498 255 255 255
-0.168994 0.153943 0.411 255 255 255
-0.129209 -0.0817546 0.43 255 255 255
0.0379059 -0.00889699 0.462 255 255 255
0.134359 0.0202685 0.476 255 255 255
0.249882 0.074327 0.501 0 0 0
0.0463408 0.148448 0.449 255 255 255
0.20209 0.0477801 0.488 255 255 255
0.0673214 -0.12415 0.429 255 255 255
-0.235839 0.0467381 0.462 255 255 255
-0.0637495 -0.139347 0.414 0 0 0
-0.0527413 -0.114153 0.423 0 0 0
0.0279024 -0.148779 0.414 255 255 255
0.06303 -0.0925417 0.438 255 255 255
-0.0317219 0.137602 0.447 255 255 255
-0.134533 0.0991332 0.468 255 255 255
-0.0627031 -0.133927 0.416 0 0 0
-0.0333739 0.14404 0.44 255 255 255
0.286654 0.148827 0.571 255 255 255
0.208519 -0.0741686 0.452 255 255 255
-0.185501 -0.113345 0.415 0 0 0
0.136726 0.128723 0.594 255 255 255
0.241146 0.155215 0.554 255 255 255
0.12139 -0.1611 0.418 255 255 255
0.212973 -0.143723 0.427 255 255 255
-0.0479213 0.150865 0.423 255 255 255
-0.205529 -0.0597768 0.433 255 255 255
0.0031971 -0.0564909 0.446 255 255 255
0.00655253 0.0445605 0.479 0 0 0
-0.13659 -0.0850551 0.429 255 255 255
0.0911411 0.0384846 0.481 255 255 255
0.227822 -0.0888221 0.448 255 255 255
-0.241998 0.0284459 0.458 0 0 0
0.0917251 0.0138352 0.468 255 255 255
-0.233351 -0.0265538 0.443 255 255 255
0.0198998 0.129719 0.463 255 255 255
-0.127444 -0.0233637 0.451 255 255 255
0.17704 -0.0838824 0.445 255 255 255
-0.188878 -0.109293 0.415 255 255 255
-0.189771 -0.111725 0.414 0 0 0
-0.0538985 -0.0718713 0.438 255 255 255
-0.122465 0.125708 0.441 255 255 255
0.0824249 -0.102526 0.435 255 255 255
-0.217188 0.020159 0.456 255 255 255
0.0396289 0.0496486 0.483 0 0 0
0.195714 -0.0950399 0.443 255 255 255
-0.0399629 0.0967972 0.495 255 255 255
0.0809654 -0.114208 0.431 255 255 255
-0.135202 0.14426 0.412 255 255 255
-0.215602 -0.0645597 0.432 255 255 255
0.0865955 -0.00441452 0.465 255 255 255
0.132457 0.0741382 0.489 255 255 255
-0.184485 0.0552417 0.477 255 255 255
0.0424182 -0.0141598 0.462 255 255 255
-0.165174 -0.101725 0.42 255 255 255
0.123499 0.0369958 0.482 255 255 255
-0.140425 0.109707 0.455 0 0 0
0.016153 -0.117873 0.424 255 255 255
0.00862148 -0.108979 0.427 255 255 255
0.182016 0.000128433 0.475 255 255 255
-0.258492 0.103471 0.5 255 255 255
-0.141833 0.0144096 0.462 255 255 255
0.145646 0.0266878 0.48 255 255 255
-0.136454 -0.0668231 0.433 255 255 255
-0.0282313 -0.0711586 0.438 0 0 0
0.0871621 0.0640607 0.485 255 255 255
-0.164101 -0.0450928 0.441 255 255 255
-0.00712371 -0.147075 0.413 255 255 255
0.216955 -0.14197 0.428 255 255 255
-0.0344096 0.0587511 0.474 255 255 255
-0.104506 -0.0461221 0.444 0 0 0
-0.127013 0.0761922 0.508 255 255 255
-0.148259 -0.0395301 0.443 0 0 0
-0.00587709 -0.124279 0.42 255 255 255
-0.173922 0.152901 0.41 255 255 255
-0.0929432 -0.120967 0.418 255 255 255
-0.177295 0.157895 0.404 255 255 255
0.116847 0.0169897 0.471 255 255 255
-0.0334741 0.133696 0.451 255 255 255
-0.279086 0.0720121 0.552 255 255 255
0.240689 0.0142195 0.481 255 255 255
-0.0659221 -0.0315065 0.452 255 255 255
-0.0192295 0.0882726 0.547 0 0 0
-0.130111 -0.0710509 0.433 255 255 255
-0.218511 -0.0868238 0.424 0 0 0
-0.0831281 0.145343 0.427 255 255 255
0.0473729 -0.0260189 0.459 255 255 255
0.109881 0.112946 0.506 255 255 255
0.114214 0.13646 0.476 255 255 255
-0.0988972 0.0745388 0.508 255 255 255
0.109149 0.070016 0.488 255 255 255
-0.0522788 0.0921782 0.505 255 255 255
0.0693414 -0.0193805 0.461 0 0 0
-0.0283979 0.133257 0.452 255 255 255
-0.00550254 -0.0570884 0.445 0 0 0
0.138364 0.145726 0.466 255 255 255
0.210479 -0.158521 0.422 255 255 255
0.124792 -0.16042 0.418 255 255 255
-0.0237401 0.0947508 0.51 0 0 0
-0.10234 -0.134651 0.412 255 255 255
0.0270863 0.0123646 0.47 255 255 255
-0.191122 0.0779573 0.488 255 255 255
0.207731 -0.12783 0.432 255 255 255
0.064417 0.142479 0.458 255 255 255
0.014782 0.127312 0.468 255 255 255
0.154893 0.0785963 0.492 255 255 255
-0.0526852 0.0997825 0.486 255 255 255
0.183645 0.165521 0.44 0 0 0
-0.241998 0.0247193 0.458 255 255 255
-0.192658 0.106069 0.449 255 255 255
-0.163943 -0.0640046 0.433 255 255 255
-0.0654118 -0.136635 0.416 0 0 0
0.102271 0.00390086 0.464 255 255 255
-0.179715 -0.134008 0.408 255 255 255
0.208912 -0.156832 0.423 255 255 255
-0.146993 0.00309832 0.457 0 0 0
0.0301316 0.0566051 0.482 0 0 0
0.10393 -0.0378873 0.458 0 0 0
-0.199687 0.131128 0.415 255 255 255
0.0920639 -0.0578582 0.451 255 255 255
0.0800732 0.147697 0.458 255 255 255
0.107326 -0.00740934 0.463 255 255 255
-0.0289141 0.16094 0.417 255 255 255
-0.149404 -0.0500028 0.44 255 255 255
-0.14402 0.074327 0.501 255 255 255
-0.00591907 -0.118284 0.423 255 255 255
-0.215541 0.104339 0.451 255 255 255
-0.139726 0.0266105 0.465 0 0 0
-0.121227 0.131482 0.434 255 255 255
-0.0469991 -0.0102205 0.454 255 255 255
-0.0903013 0.113907 0.46 255 255 255
-0.115243 0.112669 0.455 255 255 255
-0.228692 -0.00935643 0.448 255 255 255
-0.180762 -0.00283247 0.454 255 255 255
-0.13192 -0.0722928 0.432 255 255 255
-0.0961226 -0.116078 0.42 255 255 255
0.152601 -0.058722 0.452 255 255 255
0.0523738 -0.0303677 0.457 255 255 255
-0.0795162 0.124242 0.454 255 255 255
-0.0155221 0.156002 0.422 255 255 255
0.163591 -0.100841 0.44 255 255 255
-0.194799 -0.0420307 0.439 0 0 0
0.176355 0.135125 0.572 255 255 255
-0.0280905 0.126358 0.459 255 255 255
-0.129802 -0.0381742 0.444 0 0 0
-0.204569 0.0142225 0.456 255 255 255
0.047993 -0.0670756 0.444 255 255 255
0.170282 0.158925 0.456 255 255 255
-0.195334 -0.0468173 0.437 255 255 255
0.038562 -0.137949 0.42 255 255 255
-0.0410148 -0.0985487 0.43 0 0 0
-0.0775225 -0.0285011 0.451 0 0 0
0.0471765 -0.0526038 0.45 255 255 255
-0.0508221 -0.142371 0.413 255 255 255
-0.063815 -0.0267076 0.458 255 255 255
0.0963648 -0.107941 0.434 255 255 255
0.0955056 -0.12913 0.427 255 255 255
0.239003 0.159788 0.545 255 255 255
-0.060889 0.137369 0.437 255 255 255
0.185657 -0.120375 0.433 255 255 255
-0.0352701 0.122712 0.465 0 0 0
-0.0127441 -0.123205 0.421 255 255 255
-0.160048 -0.0687778 0.432 255 255 255
0.0810129 0.123509 0.486 255 255 255
-0.0935115 0.137967 0.43 255 255 255
0.156734 -0.0806223 0.447 255 255 255
0.157447 0.116935 0.603 255 255 255
-0.0374168 0.0609363 0.473 255 255 255
-0.155485 -0.0668231 0.433 255 255 255
0.0939472 0.1656 0.446 255 255 255
-0.103989 -0.0312277 0.448 255 255 255
-0.155784 0.102902 0.461 255 255 255
0.0354008 -0.149814 0.415 255 255 255
-0.23156 0.0373897 0.458 255 255 255
-0.156897 -0.0346394 0.445 0 0 0
0.145675 0.00863123 0.475 255 255 255
-0.0539351 -0.101335 0.427 255 255 255
-0.150161 -0.100149 0.422 0 0 0
0.153915 0.0740924 0.494 255 255 255
-0.265207 0.0839377 0.542 255 255 255
0.185344 0.122778 0.598 255 255 255
-0.202116 0.0514709 0.464 255 255 255
-0.000399901 -0.149401 0.412 255 255 255
-0.211218 -0.139958 0.406 255 255 255
-0.0980016 -0.0388968 0.444 0 0 0
-0.00790925 -0.13012 0.419 255 255 255
-0.233544 -0.0322481 0.442 255 255 255
0.0529856 0.00775898 0.469 255 255 255
-0.183219 0.129361 0.427 255 255 255
-0.185337 0.101487 0.458 255 255 255
0.077098 -0.124848 0.429 255 255 255
-0.197339 -0.0935026 0.423 255 255 255
-0.194553 -0.0123274 0.45 255 255 255
-0.158462 0.157466 0.408 255 255 255
-0.211893 0.0247733 0.459 255 255 255
0.185498 0.149628 0.476 255 255 255
-0.078491 0.00237524 0.461 255 255 255
-0.124784 -0.017531 0.452 255 255 255
0.0955204 -0.0422667 0.457 255 255 255
-0.00735743 0.022355 0.471 255 255 255
-0.21125 0.0127383 0.456 255 255 255
-0.225271 -0.0115178 0.447 255 255 255
0.023157 -0.0337878 0.453 255 255 255
0.197424 0.137677 0.571 255 255 255
-0.23147 0.00821329 0.452 255 255 255
-0.229934 -0.00937731 0.449 255 255 255
0.142282 0.00552764 0.474 255 255 255
0.00970683 -0.142715 0.414 255 255 255
0.216626 -0.10297 0.443 255 255 255
-0.12795 0.0512624 0.469 255 255 255
0.0824895 0.147272 0.459 255 255 255
0.0680208 -0.0932544 0.438 255 255 255
-0.0594859 -0.120751 0.422 0 0 0
0.00675057 -0.0737989 0.441 255 255 255
-0.10581 0.0306555 0.469 0 0 0
0.20275 -0.0824444 0.449 255 255 255
-0.0789942 0.0401537 0.473 255 255 255
-0.195836 -0.110377 0.414 255 255 255
0.0851361 0.104877 0.585 255 255 255
-0.0291309 0.0582243 0.476 255 255 255
0.139467 -0.086389 0.443 255 255 255
0.179655 0.170145 0.439 255 255 255
-0.194055 0.0969003 0.461 255 255 255
0.219045 -0.141273 0.428 255 255 255
0.178768 -0.149274 0.425 255 255 255
-0.177394 0.147337 0.415 255 255 255
-0.176287 -0.00796886 0.452 255 255 255
0.167481 0.0526526 0.489 255 255 255
-0.144664 -0.107876 0.42 255 255 255
0.138364 0.144968 0.466 255 255 255
-0.198137 0.145661 0.416 255 255 255
0.0811558 0.13406 0.473 255 255 255
0.18265 0.0429272 0.487 255 255 255
0.032418 0.0643152 0.481 255 255 255
-0.0547761 0.0268966 0.47 255 255 255
0.228636 0.0158178 0.482 0 0 0
-0.215751 -0.0854438 0.424 0 0 0
-0.0137165 -0.0978489 0.43 255 255 255
-0.274167 0.0927635 0.527 255 255 255
-0.12208 0.0803652 0.498 255 255 255
