ply
format ascii 1.0
comment Created by Open3D
element vertex 1299
property double x
property double y
property double z
property uchar red
property uchar green
property uchar blue
end_header
-0.0936735 -0.0718027 0.451 255 255 255
0.215672 -0.0231564 0.447 255 255 255
-0.0552751 0.107366 0.481 255 255 255
0.106469 -0.0877589 0.432 255 255 255
-0.14139 -0.0303371 0.468 255 255 255
-0.212966 0.105071 0.52 255 255 255
-0.151574 0.049957 0.486 255 255 255
-0.00631088 -0.0490511 0.451 0 0 0
-0.0691075 -0.109605 0.435 0 0 0
0.0136765 -0.0992362 0.433 255 255 255
0.164738 0.158698 0.447 255 255 255
-0.184082 0.00247314 0.48 255 255 255
0.225498 0.142102 0.482 255 255 255
-0.0660443 0.00861306 0.474 0 0 0
-0.260461 0.105871 0.496 255 255 255
0.0178642 -0.102522 0.432 0 0 0
-0.119445 0.061674 0.511 255 255 255
0.0516223 -0.0832757 0.438 0 0 0
-0.0131186 -0.0326701 0.458 0 0 0
0.00641381 -0.151939 0.419 0 0 0
-0.218447 -0.0513304 0.465 255 255 255
-0.0267016 -0.111235 0.425 255 255 255
0.0957292 0.163792 0.428 255 255 255
0.21913 0.0774265 0.475 0 0 0
-0.200124 -0.0923526 0.451 255 255 255
-0.0136825 -0.0528376 0.452 255 255 255
0.0851903 -0.0603 0.442 255 255 255
-0.185216 -0.121605 0.44 0 0 0
-0.113514 -0.0447899 0.46 0 0 0
0.127874 -0.102485 0.426 255 255 255
0.0184814 -0.118142 0.43 0 0 0
0.0728286 0.0585913 0.479 255 255 255
0.154471 -0.117039 0.421 255 255 255
-0.0090834 -0.0755754 0.443 255 255 255
-0.0640575 -0.148144 0.416 255 255 255
-0.0639967 -0.0508549 0.454 255 255 255
0.0388982 -0.00507114 0.456 255 255 255
0.0647617 -0.0570884 0.445 255 255 255
0.0968957 -0.108979 0.427 255 255 255
0.0164578 -0.108146 0.432 0 0 0
0.139881 0.0151286 0.461 0 0 0
0.228071 0.145008 0.578 255 255 255
-0.0190925 -0.0845637 0.441 255 255 255
-0.0709152 -0.0615278 0.451 255 255 255
0.0865935 -0.0132628 0.457 255 255 255
0.130255 0.0670255 0.478 0 0 0
-0.276645 0.0626297 0.573 255 255 255
0.214951 -0.102408 0.42 255 255 255
0.0651672 0.054808 0.48 0 0 0
0.095827 -0.0754352 0.438 255 255 255
-0.224396 -0.144079 0.426 0 0 0
0.0634324 -0.0409779 0.451 255 255 255
-0.218578 0.124271 0.489 255 255 255
0.0807775 -0.0992484 0.43 255 255 255
0.185112 0.095606 0.477 255 255 255
0.189667 0.15515 0.458 255 255 255
0.0172812 0.101836 0.496 255 255 255
-0.070297 -0.104659 0.438 255 255 255
0.0348781 -0.0263577 0.452 255 255 255
0.0392315 0.150789 0.443 255 255 255
-0.123057 -0.118201 0.438 0 0 0
-0.0719123 0.114574 0.472 0 0 0
-0.154865 -0.0339261 0.465 255 255 255
0.171158 -0.0994776 0.425 255 255 255
0.0331805 -0.111844 0.43 255 255 255
-0.0593449 -0.127316 0.421 255 255 255
-0.0787204 0.110898 0.476 0 0 0
-0.151555 0.000128703 0.476 255 255 255
-0.259335 0.0863917 0.53 255 255 255
-0.00442729 0.109273 0.486 255 255 255
-0.143347 -0.118471 0.439 0 0 0
0.165042 -0.119495 0.42 255 255 255
0.216893 0.0241833 0.462 255 255 255
-0.0964986 -0.00985767 0.472 255 255 255
-0.0323081 -0.162072 0.417 255 255 255
-0.0451902 0.107589 0.482 255 255 255
0.166121 -0.113614 0.421 255 255 255
0.014859 0.0824639 0.496 255 255 255
-0.192313 0.0999528 0.538 255 255 255
0.253232 0.14738 0.569 255 255 255
-0.108849 -0.0848249 0.45 0 0 0
-0.0618643 0.135956 0.444 255 255 255
0.0447151 -0.140683 0.42 255 255 255
-0.0415871 0.145569 0.436 255 255 255
-0.227041 -0.0398938 0.464 255 255 255
0.0957357 -0.150436 0.413 255 255 255
-0.0283495 -0.109489 0.429 255 255 255
-0.049131 -0.0936803 0.44 255 255 255
0.0192702 0.0198427 0.466 255 255 255
-0.235149 -0.065342 0.452 0 0 0
0.158133 -0.123007 0.418 255 255 255
-0.0645992 0.163642 0.424 255 255 255
0.170203 -0.144357 0.411 255 255 255
0.0464427 -0.0618782 0.443 255 255 255
0.0954787 -0.0539482 0.443 255 255 255
0.177678 0.131706 0.493 255 255 255
0.145146 -0.0793229 0.432 255 255 255
-0.253635 0.114101 0.483 255 255 255
-0.203159 -0.12931 0.437 255 255 255
-0.215483 0.0966301 0.539 255 255 255
0.0887321 -0.0422575 0.449 255 255 255
0.217092 0.00380838 0.453 255 255 255
0.0529271 -0.0823744 0.437 0 0 0
0.0153169 -0.150935 0.42 255 255 255
-0.130445 -0.0279923 0.467 255 255 255
-0.174212 -0.129835 0.434 0 0 0
-0.0976791 -0.00141454 0.474 0 0 0
0.22579 0.0822372 0.476 0 0 0
0.231389 0.133208 0.584 255 255 255
-0.211699 0.148181 0.446 0 0 0
0.0880538 0.052913 0.477 0 0 0
0.082965 0.0601503 0.479 0 0 0
-0.114454 -0.0853671 0.449 0 0 0
-0.217131 0.0111576 0.484 255 255 255
-0.183594 -0.112342 0.443 0 0 0
-0.110312 0.0244459 0.482 0 0 0
0.120695 -0.0182262 0.451 255 255 255
-0.0461609 -0.0991825 0.439 255 255 255
0.209668 0.0456261 0.466 255 255 255
0.027764 0.00160742 0.456 255 255 255
0.0667715 0.0227779 0.464 255 255 255
-0.0664714 -0.0917402 0.441 255 255 255
0.162158 0.141322 0.469 255 255 255
0.121065 0.127194 0.488 255 255 255
0.179728 -0.0690962 0.434 255 255 255
0.220598 -0.0490627 0.438 255 255 255
0.0627232 -0.139678 0.417 255 255 255
0.119411 0.125579 0.491 255 255 255
0.185501 -0.104516 0.423 255 255 255
-0.133171 -0.0647493 0.453 255 255 255
0.0362538 -0.124376 0.425 255 255 255
-0.0251392 -0.130365 0.422 255 255 255
-0.0162475 -0.122414 0.423 255 255 255
0.0821994 0.110086 0.508 255 255 255
0.158985 0.0286943 0.462 255 255 255
-0.244933 0.0815916 0.544 255 255 255
-0.00829662 0.0549222 0.481 255 255 255
0.0826957 0.0324564 0.473 255 255 255
-0.203316 0.128249 0.483 255 255 255
0.0786792 0.0393007 0.472 255 255 255
0.0643665 0.028003 0.463 255 255 255
0.197844 -0.0600529 0.435 255 255 255
0.14824 0.0165569 0.459 0 0 0
-0.191003 -0.0829952 0.452 255 255 255
0.20327 -0.0726579 0.43 255 255 255
0.0328224 0.0793826 0.487 255 255 255
0.0143797 0.0634003 0.48 255 255 255
0.126333 -0.0411569 0.445 255 255 255
-0.030165 -0.00520459 0.468 255 255 255
-0.196314 -0.028937 0.47 0 0 0
-0.267565 0.0568068 0.59 255 255 255
0.198949 -0.0491747 0.439 255 255 255
-0.172229 -0.0319283 0.469 255 255 255
0.0164578 -0.100413 0.432 255 255 255
-0.0740453 0.102946 0.486 255 255 255
-0.00111473 -0.117867 0.429 0 0 0
0.14245 -0.146719 0.412 255 255 255
-0.121997 0.161496 0.422 255 255 255
0.0857685 -0.0512951 0.445 255 255 255
0.0691519 -0.0474777 0.45 0 0 0
0.222827 0.0655546 0.473 255 255 255
-0.0792489 0.0813335 0.504 255 255 255
-0.238828 -0.0726975 0.452 255 255 255
0.168796 0.0185929 0.454 255 255 255
0.033063 0.0687247 0.479 255 255 255
0.125834 -0.020428 0.451 255 255 255
-0.108356 -0.0776741 0.451 255 255 255
0.143352 -0.0116724 0.453 255 255 255
0.0505001 -0.0515257 0.447 0 0 0
-0.107861 -0.0704908 0.452 255 255 255
-0.105887 -0.0647493 0.453 255 255 255
0.0925505 -0.0793478 0.436 255 255 255
-0.204119 -0.148561 0.433 0 0 0
0.105487 -0.137642 0.417 255 255 255
-0.187592 0.0276406 0.483 255 255 255
0.103656 0.162511 0.432 255 255 255
-0.223587 -0.106797 0.438 0 0 0
0.107788 0.0820644 0.475 255 255 255
0.106775 -0.0491226 0.445 255 255 255
0.17213 0.0215956 0.455 255 255 255
-0.0399579 -0.0363967 0.458 255 255 255
0.109947 0.0430498 0.471 255 255 255
-0.102756 0.113083 0.469 255 255 255
-0.136273 0.114905 0.461 255 255 255
-0.127677 -0.0257675 0.468 255 255 255
0.0552645 -0.156106 0.412 255 255 255
-0.184837 -0.105119 0.446 0 0 0
-0.0253422 0.137794 0.45 255 255 255
-0.086759 0.0863836 0.5 255 255 255
0.189632 -0.102451 0.423 255 255 255
-0.173294 -0.0122135 0.474 255 255 255
0.164892 -0.0690962 0.434 255 255 255
-0.0208184 0.156564 0.418 255 255 255
-0.0161107 -0.0989566 0.438 255 255 255
0.0175415 0.0713599 0.481 255 255 255
0.196011 0.00453553 0.452 255 255 255
-0.0424982 0.0866288 0.516 255 255 255
0.0911681 -0.116907 0.423 255 255 255
0.048325 -0.0909903 0.434 255 255 255
-0.181277 0.146313 0.434 255 255 255
0.195879 0.123493 0.583 255 255 255
0.167646 0.149414 0.461 255 255 255
-0.110537 -0.0940206 0.445 255 255 255
0.233606 0.0986529 0.473 255 255 255
0.178347 -0.101314 0.424 255 255 255
-0.185249 0.009523 0.481 255 255 255
0.107721 -0.158017 0.41 255 255 255
0.0808721 -0.0364932 0.45 255 255 255
-0.160609 -0.0129575 0.473 255 255 255
-0.227053 0.0111807 0.485 255 255 255
-0.0967727 0.103452 0.481 255 255 255
-0.23154 0.102138 0.518 255 255 255
0.0119835 -0.134116 0.423 0 0 0
-0.17945 -0.14081 0.433 255 255 255
0.0491044 -0.0723636 0.441 0 0 0
0.182098 0.0281974 0.454 255 255 255
0.223298 0.0926906 0.474 255 255 255
-0.0264363 0.0913117 0.514 255 255 255
0.189432 -0.115525 0.418 255 255 255
0.171772 -0.0817546 0.43 255 255 255
0.0960991 0.15834 0.436 255 255 255
0.173516 -0.118529 0.419 255 255 255
0.140713 -0.00800412 0.454 255 255 255
-0.0581055 0.144648 0.427 255 255 255
-0.0304411 0.074979 0.511 255 255 255
-0.0630695 0.124592 0.458 0 0 0
-0.21399 0.130537 0.477 255 255 255
0.168573 0.0546627 0.472 255 255 255
-0.16592 0.153005 0.429 255 255 255
0.0271551 0.148181 0.446 255 255 255
0.118306 -0.150742 0.412 255 255 255
0.19468 -0.103583 0.422 255 255 255
-0.228509 0.13084 0.467 255 255 255
0.173465 0.079305 0.477 0 0 0
-0.0340901 0.142608 0.44 255 255 255
-0.0950338 -0.11722 0.437 0 0 0
-0.129041 -0.00756937 0.473 255 255 255
0.118894 0.0429584 0.47 255 255 255
0.144812 -0.143043 0.413 255 255 255
0.161091 0.163026 0.441 255 255 255
-0.0398702 -0.134571 0.418 255 255 255
0.110166 -0.0427967 0.447 255 255 255
0.1251 -0.0240976 0.451 0 0 0
-0.157993 0.137683 0.438 255 255 255
-0.232776 -0.0525631 0.456 0 0 0
0.189618 -0.0669774 0.434 255 255 255
0.144177 -0.103627 0.425 255 255 255
-0.0552349 -0.0849472 0.443 255 255 255
0.105098 -0.0644694 0.441 255 255 255
-0.0511913 -0.161683 0.416 0 0 0
-0.149551 -0.0565202 0.458 255 255 255
-0.123767 0.143862 0.433 255 255 255
-0.108966 0.136111 0.433 255 255 255
-0.203748 0.121334 0.388 255 255 255
0.15814 -0.080542 0.431 255 255 255
0.0315111 -0.0586683 0.446 0 0 0
0.119893 -0.0377891 0.448 255 255 255
0.0494834 -0.0804246 0.438 255 255 255
0.0644968 -0.154389 0.411 255 255 255
0.0453087 -0.078465 0.439 255 255 255
-0.194383 -0.0575156 0.46 255 255 255
0.0375702 -0.0510255 0.449 0 0 0
0.0105978 0.140613 0.452 255 255 255
0.0255372 -0.00803939 0.456 255 255 255
-0.0700607 -0.0917402 0.441 255 255 255
0.184719 0.0618365 0.474 255 255 255
0.027381 -0.0832757 0.438 255 255 255
-0.0923994 -0.111786 0.438 0 0 0
-0.0450968 -0.146113 0.416 255 255 255
0.0946732 0.152536 0.446 255 255 255
0.0478776 0.0507964 0.479 0 0 0
-0.0194576 -0.159059 0.418 255 255 255
0.0495403 0.081366 0.48 255 255 255
0.0325632 -0.138606 0.422 255 255 255
-0.0720357 0.0750181 0.517 255 255 255
-0.100155 0.0767157 0.506 255 255 255
-0.116192 -0.112042 0.439 255 255 255
0.121659 -0.151412 0.412 255 255 255
0.034624 -0.135859 0.422 255 255 255
-0.0523356 0.144601 0.431 255 255 255
-0.15194 -0.0744968 0.454 255 255 255
0.0477897 -0.145785 0.417 255 255 255
0.0933234 -0.0879621 0.433 255 255 255
-0.0867455 -0.0366351 0.461 0 0 0
0.21467 -0.0477459 0.439 255 255 255
0.210153 0.144938 0.481 255 255 255
-0.174465 -0.0809673 0.453 255 255 255
0.155154 0.0724705 0.478 255 255 255
-0.141612 0.0681554 0.516 255 255 255
-0.0548321 -0.0240371 0.464 255 255 255
-0.180515 0.0127066 0.483 255 255 255
0.19792 0.158616 0.453 255 255 255
-0.136916 -0.115614 0.439 0 0 0
-0.103859 0.0737121 0.508 255 255 255
-0.0154383 0.0748323 0.51 255 255 255
-0.0834371 -0.00140858 0.472 255 255 255
0.151725 0.150762 0.456 255 255 255
-0.0578138 -0.114643 0.43 255 255 255
-0.210544 0.0537526 0.549 255 255 255
0.0343674 0.135576 0.465 255 255 255
-0.204324 0.00246283 0.478 255 255 255
0.0460162 -0.0175698 0.453 255 255 255
-0.109732 -0.0337802 0.463 255 255 255
-0.214821 -0.0244516 0.472 255 255 255
0.109149 -0.00211211 0.458 255 255 255
0.0222216 -0.0510255 0.449 0 0 0
0.163513 -0.143019 0.411 255 255 255
0.17971 0.0578574 0.473 255 255 255
0.094173 -0.140013 0.418 255 255 255
0.17884 0.124389 0.574 255 255 255
-0.167077 -0.0955964 0.449 255 255 255
0.230375 0.156252 0.468 255 255 255
-0.140733 0.118853 0.456 255 255 255
0.00859468 0.131226 0.463 255 255 255
-0.241936 0.0981939 0.515 255 255 255
-0.0613095 0.127758 0.456 255 255 255
0.134458 0.0182081 0.463 255 255 255
0.223442 0.158821 0.46 255 255 255
0.216137 -0.037283 0.442 255 255 255
-0.220437 -0.112695 0.436 255 255 255
-0.106811 0.151962 0.43 255 255 255
0.0327072 -0.0957131 0.433 255 255 255
-0.12361 0.150563 0.43 255 255 255
0.0870212 -0.0526249 0.444 255 255 255
-0.106717 -0.0345337 0.463 255 255 255
0.162308 -0.119495 0.42 255 255 255
0.174708 0.0245034 0.454 255 255 255
0.131707 0.154246 0.451 255 255 255
0.171646 0.141458 0.472 255 255 255
-0.0646373 0.017134 0.475 255 255 255
0.0506131 -0.0501829 0.448 0 0 0
-0.138047 -0.0333121 0.467 255 255 255
-0.0790695 -0.0395499 0.46 0 0 0
-0.0977282 0.158122 0.424 255 255 255
0.086996 -0.15178 0.413 255 255 255
0.0523041 -0.0438162 0.45 0 0 0
-0.186675 -0.0796684 0.454 0 0 0
-0.134821 -0.0258226 0.469 255 255 255
-0.14444 -0.0144969 0.473 255 255 255
0.224081 0.0486595 0.466 255 255 255
0.0244746 0.0205126 0.464 255 255 255
0.0259911 0.0398003 0.478 255 255 255
0.20403 0.161607 0.447 255 255 255
-0.107615 0.0094438 0.477 255 255 255
-0.0902856 0.100947 0.484 255 255 255
-0.235573 -0.0804311 0.45 0 0 0
-0.0582497 0.148112 0.423 255 255 255
0.00249881 -0.0519868 0.451 0 0 0
-0.144329 -0.0754724 0.451 255 255 255
0.076567 0.058469 0.478 0 0 0
0.140403 -0.15791 0.408 255 255 255
0.0430768 0.0248812 0.461 255 255 255
-0.0460563 0.131786 0.452 255 255 255
0.235417 0.107662 0.472 255 255 255
0.11336 -0.141374 0.416 255 255 255
0.164578 0.066745 0.476 0 0 0
-0.0616924 0.132807 0.448 255 255 255
-0.2057 0.0545465 0.548 255 255 255
-0.218886 0.141734 0.458 0 0 0
0.0669348 0.152194 0.445 255 255 255
-0.0811952 -0.094319 0.443 255 255 255
0.0294513 0.083439 0.497 255 255 255
0.0403315 0.0769988 0.482 255 255 255
0.156775 0.170011 0.435 255 255 255
0.113478 0.122881 0.493 255 255 255
-0.188273 -0.0977885 0.449 255 255 255
-0.113898 -0.160504 0.42 255 255 255
-0.22107 0.121584 0.491 255 255 255
0.1887 -0.0992435 0.424 255 255 255
0.103073 -0.124575 0.421 255 255 255
0.0774157 0.134453 0.469 255 255 255
0.136397 0.057329 0.475 255 255 255
0.13259 0.0693591 0.478 255 255 255
0.03296 0.00234948 0.456 255 255 255
0.0523365 0.039717 0.477 255 255 255
-0.206005 -0.13571 0.437 255 255 255
0.103305 -0.0285643 0.452 0 0 0
0.0348781 0.144291 0.452 255 255 255
-0.131629 -0.00758538 0.474 255 255 255
-0.0119138 -0.0831284 0.441 255 255 255
0.169446 -0.0731648 0.433 255 255 255
-0.162308 -0.0778464 0.452 255 255 255
-0.123632 0.10644 0.47 255 255 255
0.143466 -0.0978611 0.427 255 255 255
-0.2625 0.101636 0.503 255 255 255
-0.195912 -0.149623 0.432 255 255 255
0.0644511 -0.0249416 0.453 255 255 255
0.114109 0.138007 0.463 255 255 255
0.128678 -0.144387 0.413 255 255 255
0.00593695 -0.0973466 0.434 255 255 255
0.244896 0.148306 0.569 255 255 255
0.205294 0.00823146 0.453 255 255 255
0.0677688 -0.0723636 0.441 0 0 0
0.125596 -0.110712 0.423 255 255 255
0.027764 0.00234948 0.456 255 255 255
-0.0961212 0.133186 0.442 255 255 255
0.0527932 -0.134211 0.419 255 255 255
0.198801 -0.102209 0.422 255 255 255
-0.174151 -0.114705 0.441 0 0 0
-0.153352 -0.0674043 0.456 255 255 255
-0.0404441 -0.0948961 0.439 255 255 255
-0.00875869 -0.0104457 0.464 255 255 255
-0.0886292 -0.0307664 0.463 255 255 255
-0.103078 0.113361 0.467 255 255 255
-0.0288249 0.00472618 0.471 255 255 255
0.0164197 -0.112104 0.431 0 0 0
-0.225164 -0.0176873 0.476 255 255 255
0.140488 0.0227288 0.463 0 0 0
-0.0637148 -0.0572509 0.452 255 255 255
-0.202405 0.1512 0.44 255 255 255
-0.157267 -0.103202 0.444 255 255 255
0.157293 -0.136652 0.414 255 255 255
0.122436 0.16269 0.444 255 255 255
0.242807 0.148233 0.479 255 255 255
0.147581 0.129046 0.489 255 255 255
0.0972529 -0.0732969 0.438 255 255 255
-0.134769 0.079535 0.503 255 255 255
-0.0105494 0.143904 0.444 255 255 255
0.138433 -0.0795065 0.433 255 255 255
0.0728454 0.105121 0.512 255 255 255
-0.0738049 0.091964 0.495 255 255 255
-0.0959675 -0.0829898 0.448 0 0 0
0.156999 -0.101098 0.426 255 255 255
-0.213148 -0.0430066 0.465 255 255 255
-0.201535 -0.161151 0.429 255 255 255
-0.202562 0.100266 0.535 255 255 255
0.115468 0.155815 0.445 255 255 255
-0.0323606 -0.039948 0.456 255 255 255
-0.225318 -0.0804311 0.45 255 255 255
0.0337762 -0.1441 0.42 255 255 255
-0.100972 0.13674 0.435 255 255 255
0.0123363 -0.00664151 0.462 255 255 255
-0.0642104 -0.118429 0.426 255 255 255
-0.227114 -0.0259877 0.472 255 255 255
-0.159263 0.156827 0.428 255 255 255
-0.034337 0.0155224 0.473 0 0 0
0.0292253 0.0634003 0.48 255 255 255
-0.0635999 -0.0924579 0.441 255 255 255
-0.100726 -0.0662237 0.453 255 255 255
-0.0593002 0.130315 0.452 255 255 255
-0.14382 0.109326 0.466 255 255 255
0.267544 0.137488 0.582 255 255 255
-0.0854355 0.12161 0.458 0 0 0
0.0694592 -0.0388621 0.452 255 255 255
0.0536538 -0.0604364 0.443 255 255 255
0.0398063 0.165107 0.426 255 255 255
0.166946 -0.00721731 0.451 255 255 255
0.199559 0.143074 0.48 255 255 255
0.129371 -0.0510646 0.443 255 255 255
-0.0307799 -0.126843 0.424 255 255 255
0.00641574 0.0207337 0.469 255 255 255
0.0018664 0.0342833 0.477 255 255 255
0.0608323 -0.133211 0.418 255 255 255
0.0924613 0.161383 0.429 255 255 255
0.150501 0.125243 0.496 255 255 255
0.0803177 0.148375 0.451 255 255 255
-0.239915 0.107152 0.502 255 255 255
0.181296 0.155324 0.452 255 255 255
0.0708632 -0.119095 0.421 255 255 255
0.0677102 -0.0814764 0.436 0 0 0
0.194385 -0.149575 0.407 255 255 255
-0.0397803 0.0614386 0.483 255 255 255
-0.147209 -0.0492813 0.46 0 0 0
-0.232206 -0.0726975 0.452 0 0 0
0.097645 -0.00137277 0.46 255 255 255
-0.0189193 -0.100864 0.437 255 255 255
-0.120407 0.130899 0.444 255 255 255
0.117743 -0.121438 0.422 255 255 255
0.00860309 0.0960326 0.508 255 255 255
-0.0464342 -0.122811 0.422 255 255 255
-0.129636 0.0821507 0.499 255 255 255
-0.0975862 0.0964196 0.489 255 255 255
-0.0539 -0.137312 0.416 255 255 255
0.143958 0.156136 0.448 255 255 255
0.141511 0.0548943 0.474 255 255 255
-0.0472649 -0.109857 0.436 0 0 0
-0.213445 -0.05122 0.464 255 255 255
-0.179743 -0.15901 0.427 255 255 255
-0.043215 -0.112805 0.431 255 255 255
-0.0414284 -0.131114 0.42 255 255 255
0.19697 -0.0789556 0.43 255 255 255
0.175093 0.0275191 0.455 255 255 255
-0.0302827 0.0628801 0.482 255 255 255
-0.129328 -0.0428216 0.463 0 0 0
0.183244 -0.0850551 0.429 255 255 255
0.148778 0.0317702 0.463 255 255 255
-0.188927 -0.0430066 0.465 0 0 0
0.12712 0.124486 0.493 255 255 255
0.0361477 -0.103928 0.432 0 0 0
0.0814393 -0.131484 0.419 255 255 255
-0.234583 0.0811417 0.553 255 255 255
-0.126879 -0.0839057 0.449 255 255 255
-0.165674 0.0423983 0.481 255 255 255
-0.281641 0.0771897 0.538 255 255 255
0.12143 -0.020428 0.451 255 255 255
-0.0551019 -0.127697 0.42 255 255 255
0.0974328 0.141296 0.459 255 255 255
0.11952 -0.0743812 0.436 255 255 255
-0.154721 -0.149281 0.427 255 255 255
-0.0256238 0.13192 0.455 255 255 255
0.217125 0.0749495 0.474 0 0 0
0.125002 -0.118409 0.421 255 255 255
0.0665162 -0.0366554 0.452 0 0 0
0.126568 -0.0248315 0.451 0 0 0
-0.07201 -0.159268 0.415 255 255 255
0.00264286 0.0342833 0.477 255 255 255
-0.0119679 -0.078459 0.443 255 255 255
0.174305 -0.123773 0.416 255 255 255
0.0663331 -0.0659047 0.441 0 0 0
-0.0652491 0.0814718 0.51 255 255 255
0.0384234 -0.0696506 0.442 0 0 0
-0.190721 0.0892995 0.559 255 255 255
0.130108 -0.115257 0.422 255 255 255
-0.1357 0.0362866 0.483 0 0 0
0.18096 0.154193 0.453 255 255 255
0.182771 0.142085 0.469 255 255 255
0.144812 -0.141027 0.413 255 255 255
0.141953 0.00683169 0.458 255 255 255
0.0664835 0.152607 0.442 255 255 255
0.116921 0.128514 0.484 255 255 255
0.0617468 -0.144411 0.415 255 255 255
0.186262 0.0626078 0.474 255 255 255
0.171704 -0.0181858 0.45 0 0 0
-0.100346 0.12161 0.458 255 255 255
-0.0119443 -0.160715 0.417 0 0 0
0.0587937 0.0609298 0.479 0 0 0
0.0552645 -0.160128 0.412 255 255 255
0.13717 0.058875 0.475 255 255 255
0.0832296 -0.156396 0.411 255 255 255
-0.141918 -0.153714 0.422 255 255 255
-0.0234533 0.13221 0.456 255 255 255
0.0247234 -0.115074 0.429 0 0 0
-0.207955 0.129283 0.481 255 255 255
-0.205675 0.0362866 0.483 255 255 255
0.115934 -0.102966 0.428 255 255 255
0.207163 -0.135332 0.41 255 255 255
-0.135772 0.00244738 0.475 255 255 255
0.0651885 -0.0190442 0.453 255 255 255
0.0185674 -0.103928 0.432 0 0 0
0.224176 -0.018834 0.448 0 0 0
0.0576506 0.041183 0.476 255 255 255
0.135754 -0.0661692 0.438 255 255 255
0.0305692 0.113926 0.489 255 255 255
-0.0475901 -0.0984681 0.439 255 255 255
-0.238061 0.00090521 0.477 0 0 0
-0.212992 0.00403537 0.48 255 255 255
0.195464 0.0561989 0.472 255 255 255
-0.0151876 0.135764 0.453 255 255 255
0.101816 0.0729419 0.476 255 255 255
-0.143494 -0.0699096 0.453 255 255 255
-0.0894977 0.0536895 0.484 255 255 255
-0.0468755 -0.0977537 0.439 255 255 255
-0.00372596 0.0730715 0.498 255 255 255
0.210756 0.136954 0.486 255 255 255
0.107797 0.116503 0.55 255 255 255
0.100267 0.0884341 0.476 255 255 255
0.0229461 -0.136546 0.422 255 255 255
-0.207643 -0.14997 0.433 255 255 255
-0.126472 0.0875811 0.493 255 255 255
-0.242211 0.000903312 0.476 0 0 0
0.0115091 -0.0297536 0.459 255 255 255
0.107981 0.152575 0.444 255 255 255
-0.0122593 -0.109234 0.428 255 255 255
-0.0658236 0.0250209 0.478 255 255 255
0.0734617 -0.019825 0.454 255 255 255
-0.0344899 -0.10489 0.436 255 255 255
-0.0769586 0.128844 0.452 255 255 255
-0.0574235 -0.135606 0.417 255 255 255
0.138379 -0.123596 0.42 255 255 255
0.201228 0.128017 0.582 255 255 255
0.131254 0.1439 0.465 255 255 255
-0.131248 -0.0611982 0.454 255 255 255
0.00188987 0.111743 0.483 255 255 255
-0.241702 -0.0265858 0.469 0 0 0
-0.219648 0.120157 0.495 255 255 255
0.0886076 0.0602759 0.48 0 0 0
-0.11451 0.137268 0.43 255 255 255
0.147671 0.158343 0.446 255 255 255
-0.0391898 -0.157019 0.418 255 255 255
0.0491649 -0.109489 0.429 255 255 255
0.093207 0.138305 0.464 255 255 255
-0.0404535 -0.074803 0.447 255 255 255
0.0894083 -0.00212134 0.46 0 0 0
0.170372 -0.0838539 0.43 255 255 255
-0.195455 0.143537 0.459 255 255 255
0.133584 0.0574497 0.476 255 255 255
0.176965 0.163766 0.443 255 255 255
0.207335 -0.128257 0.413 255 255 255
0.0667964 0.113024 0.492 255 255 255
-0.0228597 -0.157019 0.418 0 0 0
0.083027 -0.159351 0.41 255 255 255
-0.188461 0.137607 0.393 255 255 255
0.0153445 0.0106505 0.462 255 255 255
-0.244488 0.107109 0.498 255 255 255
0.00787072 -0.133743 0.424 0 0 0
-0.267659 0.0592826 0.586 255 255 255
-0.265194 0.0567106 0.589 255 255 255
-0.11878 -0.012162 0.472 255 255 255
-0.218886 0.140989 0.458 0 0 0
-0.004499 -0.151939 0.419 255 255 255
0.16279 0.0255758 0.46 255 255 255
0.0732547 -0.129438 0.419 255 255 255
0.235146 0.0709427 0.473 255 255 255
-0.227583 -0.0491742 0.459 255 255 255
-0.0105613 -0.160329 0.416 0 0 0
0.0740774 0.0521368 0.477 0 0 0
-0.0495318 0.0957977 0.494 255 255 255
0.18671 -0.114845 0.418 255 255 255
-0.133311 -0.0555313 0.456 255 255 255
-0.0250606 0.141332 0.445 255 255 255
-0.0947199 0.126527 0.449 255 255 255
0.032254 -0.124266 0.427 255 255 255
-0.23908 -0.0471379 0.461 0 0 0
-0.0884378 -0.0337072 0.462 0 0 0
-0.001868 0.146133 0.442 255 255 255
0.148986 -0.072087 0.435 255 255 255
0.0347886 0.101838 0.504 255 255 255
-0.0813854 0.0219094 0.478 255 255 255
0.152939 -0.0116724 0.453 255 255 255
-0.249433 0.0253349 0.484 255 255 255
0.0253185 0.0626192 0.48 255 255 255
-0.000466874 0.0635324 0.481 255 255 255
-0.231319 0.134574 0.459 255 255 255
0.0799616 -0.121438 0.422 255 255 255
-0.211949 -0.117194 0.445 255 255 255
-0.161233 0.0937367 0.509 255 255 255
0.0817774 -0.0582737 0.443 0 0 0
0.0851057 0.143656 0.457 255 255 255
-0.114412 -0.00679965 0.473 255 255 255
0.0433519 -0.00284495 0.456 255 255 255
0.0833581 0.11108 0.505 255 255 255
-0.140302 0.144901 0.434 255 255 255
0.0649796 0.139213 0.462 255 255 255
0.0258824 0.121742 0.476 255 255 255
0.184236 -0.0540521 0.438 255 255 255
0.146066 -0.021115 0.45 0 0 0
-0.081304 0.00397652 0.473 0 0 0
-0.17742 0.0757953 0.581 255 255 255
0.187441 0.100263 0.477 255 255 255
0.126159 -0.0849469 0.432 255 255 255
-0.0475279 -0.0535731 0.452 255 255 255
0.193653 0.102592 0.477 255 255 255
-0.125177 0.13893 0.433 255 255 255
0.127058 -0.0404327 0.445 255 255 255
-0.189771 0.148204 0.384 255 255 255
-0.222302 0.136205 0.462 0 0 0
0.113804 -0.0435241 0.447 255 255 255
0.133865 0.0630041 0.477 0 0 0
-0.120262 0.0243952 0.481 255 255 255
0.143057 0.0303287 0.464 255 255 255
0.0621666 -0.0617385 0.442 0 0 0
-0.127729 -0.0129027 0.471 255 255 255
-0.152783 -0.00528244 0.475 0 0 0
-0.159906 0.166493 0.426 255 255 255
0.0425749 0.15866 0.433 255 255 255
0.187557 -0.149278 0.408 255 255 255
-0.240371 0.0615071 0.58 255 255 255
-0.0422175 -0.11411 0.428 255 255 255
-0.18852 -0.0459345 0.464 0 0 0
0.076567 0.0841385 0.478 255 255 255
-0.0819682 -0.0189132 0.468 255 255 255
-0.0337531 -0.0759166 0.445 255 255 255
0.199539 -0.00134292 0.45 255 255 255
0.0235986 0.155495 0.434 255 255 255
-0.239914 -0.0168061 0.473 0 0 0
-0.0893128 0.0315706 0.483 0 0 0
0.0113837 0.139757 0.454 255 255 255
-0.198988 0.0638193 0.567 255 255 255
0.0730545 -0.142715 0.414 255 255 255
-0.216754 0.139514 0.463 255 255 255
-0.0124001 -0.0290067 0.459 0 0 0
0.19437 -0.0701838 0.432 255 255 255
-0.0578507 0.123846 0.458 0 0 0
-0.125417 -0.080983 0.449 255 255 255
-0.0248853 0.119952 0.469 255 255 255
-0.116515 0.115404 0.463 255 255 255
-0.00273384 -0.00671339 0.467 0 0 0
0.137893 -0.0668819 0.438 255 255 255
-0.0546781 0.0805306 0.52 255 255 255
0.218514 0.152211 0.472 255 255 255
-0.183899 -0.114965 0.442 0 0 0
-0.0488549 -0.0800812 0.444 255 255 255
-0.0714677 0.0809925 0.507 255 255 255
0.0701951 0.0699902 0.477 255 255 255
0.0790242 -0.030771 0.452 0 0 0
0.0139828 -0.144443 0.421 0 0 0
0.155626 -0.0326858 0.448 255 255 255
-0.0672983 0.0355006 0.483 255 255 255
0.07584 -0.120751 0.422 255 255 255
0.134791 0.00759355 0.459 255 255 255
0.146734 -0.0544223 0.441 255 255 255
-0.139009 0.149163 0.43 255 255 255
0.18115 0.160511 0.448 255 255 255
0.0554796 -0.024151 0.452 255 255 255
0.29479 0.137008 0.576 255 255 255
-0.197253 -0.0437633 0.465 255 255 255
-0.0135917 -0.0619856 0.449 255 255 255
0.137738 -0.133927 0.416 255 255 255
-0.161603 0.124396 0.444 255 255 255
0.140781 0.0451566 0.469 255 255 255
-0.098502 0.132046 0.443 255 255 255
-0.116881 0.144601 0.431 255 255 255
-0.0743811 0.078152 0.51 255 255 255
-0.037886 -0.0283213 0.46 0 0 0
0.00554383 -0.0223328 0.46 255 255 255
-0.0555874 -0.0240371 0.464 255 255 255
0.130778 -0.0868544 0.431 255 255 255
-0.181738 0.000129785 0.48 255 255 255
0.157366 0.132139 0.48 255 255 255
-0.0540049 0.126551 0.457 255 255 255
-0.107164 0.00399334 0.475 0 0 0
-0.0525662 -0.023282 0.464 255 255 255
-0.118284 0.141795 0.431 255 255 255
0.162844 -0.143019 0.411 255 255 255
0.0528377 0.11086 0.504 255 255 255
0.167316 -0.000613338 0.452 255 255 255
0.117284 -0.0131177 0.452 255 255 255
-0.223665 -0.116416 0.434 0 0 0
-0.164524 0.149515 0.429 255 255 255
-0.0739244 -0.0813497 0.447 0 0 0
-0.0926778 0.159814 0.423 255 255 255
-0.021785 0.121219 0.468 255 255 255
0.0641176 0.0693591 0.478 255 255 255
-0.207925 -0.0918219 0.452 0 0 0
0.110662 -0.030771 0.452 0 0 0
-0.0318569 -0.136582 0.42 255 255 255
0.0400262 0.0894191 0.508 255 255 255
-0.237186 0.0781029 0.557 255 255 255
-0.15533 0.105134 0.471 255 255 255
0.0868636 0.0585913 0.479 0 0 0
0.102138 0.00686152 0.46 255 255 255
0.0133911 -0.0609821 0.447 255 255 255
0.0607276 -0.0617385 0.442 0 0 0
-0.0368977 0.136452 0.448 255 255 255
-0.18796 -0.0965417 0.45 0 0 0
-0.000459109 0.0124435 0.473 255 255 255
0.232836 0.0986529 0.473 255 255 255
0.138067 0.0296373 0.465 255 255 255
0.135743 -0.146049 0.412 255 255 255
0.219778 -0.028122 0.445 0 0 0
-0.238092 -0.0623998 0.452 255 255 255
-0.209791 -0.142495 0.436 255 255 255
-0.190958 0.135505 0.47 255 255 255
-0.127404 -0.0272324 0.467 255 255 255
0.0410965 -0.122993 0.425 255 255 255
-0.0159018 0.161803 0.414 255 255 255
0.0186308 0.129874 0.469 255 255 255
0.19497 0.0200263 0.453 255 255 255
0.00560409 -0.00895477 0.465 255 255 255
-0.111965 0.0149398 0.479 255 255 255
-0.123376 0.0300607 0.484 255 255 255
0.04277 0.114625 0.492 255 255 255
-0.0457506 -0.067831 0.449 255 255 255
0.134644 0.152044 0.451 255 255 255
-0.131629 -0.00527131 0.474 0 0 0
0.0719126 -0.0721995 0.44 0 0 0
-0.0438935 -0.118563 0.424 255 255 255
-0.0656255 -0.0788133 0.445 0 0 0
0.190966 0.0304139 0.454 255 255 255
0.130817 -0.010198 0.453 255 255 255
-0.213881 -0.115946 0.443 255 255 255
0.0870944 0.129488 0.476 255 255 255
-0.205069 0.10411 0.528 255 255 255
-0.179738 -0.146811 0.432 255 255 255
-0.236489 0.0829317 0.547 255 255 255
-0.187098 -0.037953 0.468 255 255 255
-0.157692 -0.0575156 0.46 255 255 255
0.121507 -0.102269 0.428 255 255 255
-0.196581 0.139959 0.467 255 255 255
0.0972855 -0.0450795 0.448 255 255 255
0.0836346 -0.154468 0.413 255 255 255
0.0573261 -0.0804246 0.438 255 255 255
0.0566717 -0.0921899 0.433 255 255 255
0.0516681 0.0732484 0.478 255 255 255
-0.172721 0.00560927 0.481 255 255 255
0.151465 -0.0966973 0.428 255 255 255
-0.0716719 0.103737 0.486 0 0 0
-0.193036 0.105828 0.528 255 255 255
0.0916547 0.141604 0.46 255 255 255
0.0814055 0.0640477 0.479 0 0 0
-0.198585 0.137527 0.377 255 255 255
0.209988 -0.0848569 0.428 255 255 255
0.084547 -0.0176086 0.454 255 255 255
-0.0756422 0.156052 0.424 255 255 255
0.169275 0.126563 0.567 255 255 255
0.226511 0.164858 0.444 255 255 255
-0.0243909 0.140924 0.446 255 255 255
0.156383 0.0932773 0.477 255 255 255
0.117017 -0.0863529 0.432 255 255 255
-0.126644 -0.0279923 0.467 255 255 255
-0.185057 0.095045 0.545 255 255 255
-0.236218 0.076564 0.559 255 255 255
-0.0144821 -0.0442057 0.454 255 255 255
-0.0297138 -0.0238817 0.461 0 0 0
-0.0484826 -0.144759 0.416 255 255 255
-0.201038 -0.0452767 0.465 255 255 255
-0.0852184 -0.0795217 0.449 0 0 0
0.122604 0.165554 0.442 255 255 255
-0.0199733 0.0873003 0.52 255 255 255
0.107647 0.0415168 0.471 255 255 255
-0.159746 -0.0835455 0.451 0 0 0
0.0994053 -0.0380422 0.451 255 255 255
0.040785 -0.116471 0.429 0 0 0
0.00914645 0.139449 0.453 255 255 255
0.104034 0.132241 0.472 255 255 255
0.207784 0.159002 0.452 255 255 255
0.131683 0.00309154 0.456 255 255 255
0.00704141 -0.0238299 0.46 255 255 255
0.169883 -0.0145566 0.451 255 255 255
0.0642517 0.0757401 0.479 255 255 255
0.0763071 -0.0451802 0.449 0 0 0
0.121078 0.007577 0.458 255 255 255
-0.146962 -0.123621 0.437 0 0 0
-0.12863 0.0908493 0.489 255 255 255
-0.136 -0.103691 0.443 0 0 0
0.128037 -0.0233637 0.451 0 0 0
-0.108743 -0.0397219 0.462 0 0 0
-0.0191662 -0.0230813 0.46 0 0 0
0.232557 0.0741781 0.474 255 255 255
-0.182909 -0.0896152 0.452 0 0 0
-0.0310589 -0.000637763 0.47 255 255 255
-0.015657 -0.00367354 0.467 255 255 255
0.042547 -0.0786437 0.44 0 0 0
-0.256681 0.0683121 0.566 255 255 255
-0.221858 0.0158834 0.484 0 0 0
-0.102524 0.109119 0.475 255 255 255
0.146757 0.0961801 0.476 255 255 255
0.0860121 0.10741 0.511 255 255 255
0.0518843 0.0805849 0.48 255 255 255
-0.0666578 -0.0579864 0.452 255 255 255
0.173385 -0.109763 0.422 255 255 255
-0.0647346 -0.148144 0.416 255 255 255
-0.243679 0.0917315 0.526 255 255 255
0.0115353 -0.101116 0.432 255 255 255
0.165652 0.166144 0.436 255 255 255
-0.214541 -0.125754 0.437 255 255 255
0.169911 0.15258 0.457 255 255 255
-0.0681665 0.0818176 0.507 255 255 255
0.182387 0.102029 0.478 255 255 255
0.12086 0.127726 0.484 255 255 255
0.127653 0.0598991 0.477 0 0 0
0.180155 -0.120677 0.417 255 255 255
-0.185516 -0.131247 0.434 0 0 0
0.0305024 -0.139293 0.422 255 255 255
-0.0107395 -0.052102 0.452 255 255 255
0.147065 0.132865 0.477 255 255 255
-0.246559 0.0237106 0.483 255 255 255
0.0529818 -0.116349 0.426 255 255 255
0.00462826 -0.0699657 0.444 0 0 0
-0.0705247 0.00474625 0.473 0 0 0
0.0874173 -0.146437 0.415 255 255 255
-0.0745749 -0.108223 0.438 0 0 0
-0.0938298 0.0828092 0.503 255 255 255
-0.0718666 0.0322896 0.482 0 0 0
-0.150519 -0.127176 0.437 255 255 255
0.0299254 0.0880692 0.505 255 255 255
0.151686 -0.0440535 0.445 255 255 255
-0.00929548 -0.150935 0.42 0 0 0
-0.109578 0.126691 0.447 255 255 255
0.0572928 -0.139678 0.417 255 255 255
0.0959874 0.0795776 0.474 255 255 255
0.0709716 0.0490318 0.477 255 255 255
-0.26965 0.0603544 0.578 255 255 255
0.0682885 0.000122755 0.454 255 255 255
-0.0194579 -0.00595343 0.467 255 255 255
-0.216505 -0.10394 0.441 255 255 255
-0.222641 -0.0704908 0.452 255 255 255
-0.257588 0.0667048 0.568 255 255 255
0.270802 0.147785 0.567 255 255 255
-0.249708 0.00633886 0.477 255 255 255
-0.258149 0.0795276 0.542 255 255 255
-0.0104464 0.026243 0.472 255 255 255
0.0744662 -0.118004 0.422 255 255 255
-0.0209678 -0.133482 0.421 255 255 255
0.266139 0.138197 0.581 255 255 255
-0.0263246 -0.139666 0.419 255 255 255
-0.0195687 -0.0557798 0.452 255 255 255
0.0258184 -0.0552862 0.448 255 255 255
0.106166 -0.138321 0.417 255 255 255
-0.222311 0.116722 0.501 255 255 255
0.174169 -0.064448 0.436 255 255 255
0.129753 -0.0709961 0.437 255 255 255
-0.00772741 -0.0633056 0.448 255 255 255
-0.0780831 -0.0716435 0.45 255 255 255
0.142994 0.157987 0.445 255 255 255
0.194516 0.139253 0.483 255 255 255
-0.0127749 -0.0710067 0.446 255 255 255
-0.0985943 -0.0152021 0.471 255 255 255
0.0318644 -0.0329047 0.451 255 255 255
0.121955 -0.145059 0.413 255 255 255
-0.00359129 0.0602759 0.48 255 255 255
-0.21218 -0.128893 0.438 255 255 255
-0.183683 0.0361363 0.481 255 255 255
-0.209979 0.121769 0.495 255 255 255
-0.0451102 -0.0165218 0.465 255 255 255
0.0967943 0.115213 0.498 255 255 255
-0.0883433 0.0487614 0.482 255 255 255
-0.198414 0.075948 0.568 255 255 255
-0.0913134 -0.00372074 0.473 255 255 255
-0.00602189 0.0682875 0.487 255 255 255
-0.037829 -0.140693 0.418 255 255 255
0.0371068 -0.0926157 0.435 0 0 0
-0.265987 0.0801129 0.54 255 255 255
-0.247282 -0.0371914 0.468 255 255 255
0.225635 -0.019563 0.448 255 255 255
-0.0800939 0.16493 0.422 255 255 255
-0.147832 -0.00989944 0.474 255 255 255
0.0843479 0.081027 0.478 255 255 255
0.00284786 0.0837837 0.514 255 255 255
-0.161379 0.10789 0.473 255 255 255
-0.210133 -0.0910863 0.452 255 255 255
0.0749042 0.106161 0.509 255 255 255
-0.167007 0.147064 0.43 255 255 255
0.0503109 -0.0791794 0.439 255 255 255
-0.0895863 0.113603 0.468 255 255 255
0.130378 -0.150072 0.412 255 255 255
0.0997651 -0.01546 0.456 255 255 255
-0.121434 -0.0577575 0.456 255 255 255
-0.226305 -0.116684 0.435 0 0 0
-0.114843 0.0141308 0.478 255 255 255
0.124524 0.127463 0.486 255 255 255
0.148486 0.128236 0.492 255 255 255
-0.128068 -0.105133 0.443 255 255 255
-0.0579166 -0.0740756 0.447 255 255 255
-0.159345 -0.141187 0.432 255 255 255
-0.0111672 0.121737 0.47 255 255 255
-0.242711 0.124266 0.468 255 255 255
0.0920018 -0.0103106 0.458 255 255 255
0.236954 0.0654161 0.472 255 255 255
-0.207425 0.0769193 0.555 255 255 255
-0.0490113 0.0478775 0.481 255 255 255
0.114997 -0.0791658 0.435 255 255 255
-0.125976 -0.0784081 0.451 255 255 255
-0.135817 0.112899 0.462 255 255 255
0.105072 -0.0457063 0.447 255 255 255
-0.0833204 -0.106326 0.439 255 255 255
-0.149021 0.0914576 0.488 255 255 255
0.176535 0.0111802 0.453 255 255 255
-0.121012 0.0300607 0.484 255 255 255
0.0699301 0.132445 0.47 255 255 255
0.0456786 0.0142537 0.457 255 255 255
0.11227 -0.150742 0.412 255 255 255
0.0255295 0.0781059 0.484 255 255 255
-0.197321 0.000907107 0.478 255 255 255
-0.103311 0.141466 0.43 255 255 255
-0.243491 0.0646072 0.574 255 255 255
0.0957357 -0.154468 0.413 255 255 255
0.00541126 -0.0583322 0.449 0 0 0
-0.122611 0.049443 0.481 255 255 255
0.0598491 0.126124 0.475 255 255 255
-0.0592972 0.0807509 0.516 255 255 255
-0.0326702 0.0839155 0.52 255 255 255
-0.220613 0.0347146 0.483 255 255 255
0.136397 0.0897942 0.475 255 255 255
-0.114748 -0.0278725 0.465 255 255 255
-0.0944077 -0.0703349 0.451 255 255 255
0.0413807 -0.154169 0.414 255 255 255
0.190855 0.0577351 0.472 255 255 255
0.128161 0.084561 0.476 255 255 255
0.0925182 0.0868848 0.476 255 255 255
0.188612 0.105141 0.478 255 255 255
-0.103784 0.130176 0.444 255 255 255
0.032405 -0.115773 0.429 255 255 255
-0.23301 0.11989 0.481 255 255 255
0.0929424 0.163096 0.428 255 255 255
-0.192815 -0.116858 0.441 255 255 255
0.0782153 -0.12633 0.42 255 255 255
-0.0353601 -0.0711659 0.447 255 255 255
-0.23631 0.06025 0.577 255 255 255
0.0473862 -0.0395976 0.452 0 0 0
-0.253635 0.0197806 0.483 255 255 255
0.161818 0.0684377 0.477 0 0 0
-0.0929249 0.161799 0.421 255 255 255
-0.217984 0.0863847 0.552 255 255 255
-0.199397 -0.140044 0.435 255 255 255
-0.0624217 0.133536 0.448 255 255 255
-0.0447317 -0.0963249 0.439 255 255 255
-0.0144183 -0.0506309 0.452 255 255 255
0.110479 0.0383693 0.47 255 255 255
0.0826185 0.0738714 0.477 255 255 255
-0.0878756 -0.0322733 0.463 0 0 0
-0.00423599 -0.00971147 0.465 0 0 0
0.138902 0.0540087 0.473 255 255 255
-0.219154 -0.0933868 0.442 255 255 255
0.00272043 0.105603 0.491 255 255 255
0.0277328 0.131882 0.468 255 255 255
-0.14969 0.100616 0.475 255 255 255
0.120268 -0.0490123 0.444 255 255 255
-0.204483 0.122281 0.387 255 255 255
0.12351 0.0687247 0.479 255 255 255
-0.0334497 0.142932 0.441 255 255 255
0.105813 0.114504 0.549 255 255 255
0.179245 -0.0576159 0.438 255 255 255
0.192251 -0.0310186 0.445 255 255 255
-0.0721052 0.141311 0.436 255 255 255
0.0634641 0.101615 0.524 0 0 0
0.0619126 0.080417 0.479 255 255 255
-0.074952 0.165712 0.424 255 255 255
-0.0908903 -0.0300129 0.463 255 255 255
-0.174391 -0.00375221 0.477 255 255 255
-0.110724 -0.0315879 0.464 255 255 255
-0.198188 0.0385646 0.482 255 255 255
0.155485 -0.147032 0.411 255 255 255
0.0811798 0.101788 0.512 0 0 0
-0.21931 -0.111074 0.438 255 255 255
-0.286758 0.0537437 0.588 255 255 255
-0.0792797 0.164028 0.425 255 255 255
0.0312405 0.125351 0.475 255 255 255
0.129983 0.0622278 0.477 0 0 0
-0.239663 -0.0295755 0.468 0 0 0
-0.0782902 -0.0828046 0.447 255 255 255
-0.165222 0.151609 0.429 255 255 255
-0.191813 -0.114965 0.442 255 255 255
-0.170369 -0.0385491 0.466 255 255 255
-0.202195 0.105227 0.525 255 255 255
-0.14638 0.166189 0.427 255 255 255
-0.0610992 -0.070023 0.449 0 0 0
-0.0884449 0.116151 0.466 255 255 255
-0.107007 -0.0426367 0.461 0 0 0
0.119678 -0.0818089 0.434 255 255 255
-0.159263 0.149863 0.428 255 255 255
0.0883932 -0.0277672 0.451 255 255 255
-0.100211 -0.104658 0.441 255 255 255
-0.17507 0.0361363 0.481 255 255 255
-0.112113 0.0284266 0.483 255 255 255
-0.0899633 0.00398493 0.474 0 0 0
-0.161783 0.143899 0.431 255 255 255
0.125199 0.0288806 0.465 255 255 255
-0.0848388 -0.0849868 0.447 255 255 255
0.117592 0.132801 0.474 255 255 255
0.026668 -0.0825629 0.438 255 255 255
0.0981548 0.111901 0.505 255 255 255
0.240273 0.093462 0.474 255 255 255
0.286492 0.141276 0.582 0 0 0
-0.0811637 0.145012 0.424 255 255 255
-0.204792 0.100948 0.534 255 255 255
-0.167403 -0.0525029 0.462 0 0 0
-0.0852402 -0.0500057 0.453 255 255 255
-0.093675 0.137838 0.434 255 255 255
0.204108 0.155753 0.462 255 255 255
0.150554 -0.137326 0.414 255 255 255
-0.212653 0.129283 0.481 255 255 255
0.193757 -0.109243 0.42 255 255 255
0.102058 -0.0227301 0.453 255 255 255
0.0118557 -0.0692432 0.444 0 0 0
-0.0487966 0.0680754 0.503 255 255 255
-0.0517126 -0.0657851 0.45 255 255 255
0.0710877 -0.0197814 0.453 255 255 255
0.0231636 0.163027 0.426 255 255 255
0.0586709 0.0654697 0.478 255 255 255
0.0491473 -0.14375 0.417 255 255 255
-0.0679031 0.089459 0.499 255 255 255
0.194009 -0.146982 0.409 255 255 255
-0.117018 -0.0293859 0.465 255 255 255
-0.00251139 0.155798 0.429 255 255 255
-0.17304 -0.065607 0.459 255 255 255
-0.06634 0.12289 0.46 0 0 0
0.0338017 -0.115074 0.429 255 255 255
-0.188052 -0.0583908 0.461 0 0 0
0.149998 0.0842057 0.474 255 255 255
0.186986 0.143918 0.47 255 255 255
0.216387 -0.00720131 0.45 255 255 255
-0.185398 -0.067247 0.46 255 255 255
0.121383 0.0234315 0.462 255 255 255
0.11445 -0.127697 0.42 255 255 255
0.0450004 -0.06332 0.443 0 0 0
-0.0756422 0.155362 0.424 255 255 255
-0.155416 0.155071 0.427 255 255 255
0.122075 -0.0915512 0.43 255 255 255
0.0234899 0.15759 0.432 255 255 255
0.128893 0.0486207 0.473 255 255 255
-0.0883882 0.0211315 0.478 255 255 255
-0.235792 -0.0114421 0.474 255 255 255
-0.121002 -0.0492813 0.46 0 0 0
0.137943 0.0897942 0.475 255 255 255
-0.0892041 0.112559 0.47 255 255 255
-0.147619 0.0475843 0.486 255 255 255
-0.0205282 -0.085999 0.441 255 255 255
0.1611 -0.0326129 0.447 255 255 255
0.234425 0.146503 0.481 255 255 255
-0.0209334 0.123735 0.466 255 255 255
0.165924 -0.103383 0.424 255 255 255
-0.0112468 -0.0806218 0.443 255 255 255
0.104297 -0.111497 0.426 255 255 255
0.19505 0.051481 0.471 255 255 255
-0.209397 -0.0910863 0.452 0 0 0
-0.158829 0.0466009 0.484 255 255 255
-0.104954 0.152316 0.431 255 255 255
-0.122299 -0.100086 0.443 255 255 255
0.154295 -0.071215 0.434 255 255 255
-0.198297 0.122326 0.494 255 255 255
0.176063 -0.156475 0.406 255 255 255
0.0241968 -0.0585367 0.445 255 255 255
-0.157214 0.11239 0.463 255 255 255
-0.146896 -0.0243997 0.471 255 255 255
-0.109842 0.0564066 0.494 255 255 255
-0.180285 -0.16034 0.425 255 255 255
-0.116174 -0.0818957 0.45 0 0 0
-0.143452 0.0157521 0.48 255 255 255
0.164701 0.126602 0.495 255 255 255
0.19307 0.0314957 0.459 255 255 255
-0.197044 -0.0963271 0.449 255 255 255
-0.23791 0.0315706 0.483 255 255 255
0.157284 -0.155536 0.407 255 255 255
-0.228767 0.0845881 0.552 255 255 255
0.167189 0.144968 0.466 255 255 255
0.0535826 0.0188796 0.461 255 255 255
0.0778958 -0.0176086 0.454 255 255 255
-0.0979778 0.0895474 0.495 255 255 255
0.143469 0.161238 0.442 255 255 255
0.00939289 0.0981248 0.506 255 255 255
0.0487065 -0.120226 0.425 255 255 255
-0.185762 -0.0950771 0.45 0 0 0
0.136881 0.135886 0.474 255 255 255
-0.0237401 0.0748323 0.51 255 255 255
-0.0254591 0.100019 0.495 255 255 255
-0.0608175 -0.156643 0.417 255 255 255
0.118832 0.0648272 0.479 255 255 255
0.0144096 0.0510085 0.481 0 0 0
-0.00652953 0.159285 0.418 255 255 255
0.237186 0.093462 0.474 255 255 255
-0.221399 0.0378586 0.483 255 255 255
0.112124 0.0738714 0.477 255 255 255
0.0158527 0.139325 0.455 255 255 255
0.0331849 -0.0510255 0.449 0 0 0
0.119656 0.0297648 0.467 255 255 255
-0.111097 0.109966 0.472 255 255 255
-0.0226114 -0.0434669 0.454 255 255 255
0.022101 -0.151258 0.419 255 255 255
-0.196659 -0.0311651 0.469 0 0 0
-0.0533035 0.150509 0.422 255 255 255
0.0697927 0.0205126 0.464 255 255 255
-0.236142 0.00795751 0.481 255 255 255
0.247551 0.145619 0.573 255 255 255
-0.174591 -0.153114 0.428 255 255 255
-0.0969075 0.00321358 0.474 0 0 0
-0.12663 0.118853 0.456 255 255 255
0.147604 -0.0348729 0.448 255 255 255
-0.163608 -0.0068284 0.475 0 0 0
-0.200131 0.158293 0.432 255 255 255
0.0892027 0.0656067 0.479 0 0 0
-0.0183132 -0.121725 0.423 255 255 255
0.13838 0.0113776 0.461 255 255 255
-0.128068 0.129162 0.443 255 255 255
-0.184051 0.13112 0.468 255 255 255
-0.00450973 -0.139316 0.42 255 255 255
0.106718 -0.0153922 0.454 255 255 255
0.0532322 0.114862 0.5 255 255 255
0.0353109 -0.133799 0.422 255 255 255
0.051716 0.162715 0.427 255 255 255
-0.19058 -0.0872152 0.451 255 255 255
-0.10956 -0.0129301 0.472 255 255 255
-0.172608 -0.0918219 0.452 0 0 0
-0.229785 0.0866505 0.548 255 255 255
-0.0575902 -0.0120589 0.468 255 255 255
0.106689 0.0575704 0.477 0 0 0
-0.197972 0.138754 0.377 255 255 255
-0.207137 -0.0175387 0.472 255 255 255
-0.178336 0.0714349 0.584 255 255 255
-0.0602223 0.0370726 0.483 0 0 0
0.00184683 0.0231706 0.472 255 255 255
-0.0172141 -0.00139664 0.468 255 255 255
0.0785218 -0.0865528 0.433 255 255 255
-0.221905 -0.00220896 0.479 255 255 255
0.0612526 0.134166 0.468 255 255 255
-0.149808 -0.12291 0.437 0 0 0
-0.138409 0.153322 0.426 255 255 255
0.130255 0.0709148 0.478 0 0 0
0.110087 -0.0732969 0.438 255 255 255
0.0194356 0.128621 0.47 255 255 255
-0.170208 -0.0122135 0.474 0 0 0
0.183549 -0.117963 0.417 255 255 255
-0.0524529 0.123692 0.463 255 255 255
-0.226502 -0.0377908 0.466 255 255 255
0.0873374 0.143656 0.457 255 255 255
-0.240269 0.0315706 0.483 255 255 255
0.0106693 0.109152 0.489 255 255 255
0.222223 0.104481 0.475 255 255 255
0.155716 -0.0672861 0.436 255 255 255
0.0548092 -0.0876605 0.435 255 255 255
0.212393 -0.106255 0.419 255 255 255
0.0882922 -0.0821859 0.436 255 255 255
-0.168714 0.151609 0.429 255 255 255
0.0188245 -0.144787 0.422 255 255 255
-0.068472 0.142496 0.431 255 255 255
0.0367958 0.1354 0.467 255 255 255
-0.168806 0.0377018 0.481 255 255 255
0.120332 0.0105583 0.458 255 255 255
-0.20787 0.0016885 0.479 255 255 255
-0.0829334 0.159561 0.426 255 255 255
-0.0262618 0.155884 0.418 255 255 255
0.127303 -0.0189601 0.451 255 255 255
0.00733295 -0.0999409 0.433 255 255 255
-0.11554 0.163169 0.421 255 255 255
0.0697878 0.014316 0.459 255 255 255
-0.206062 -0.0583908 0.461 255 255 255
0.101992 -0.0147179 0.456 0 0 0
0.0813411 -0.0893714 0.433 255 255 255
-0.192474 -0.0844663 0.452 255 255 255
-0.0138944 -0.0290067 0.459 0 0 0
-0.0614963 -0.139678 0.417 255 255 255
-0.110068 0.122959 0.452 255 255 255
-0.056335 -0.0760872 0.446 255 255 255
0.169625 -0.149942 0.408 255 255 255
-0.150325 -0.0944432 0.447 255 255 255
-0.10032 0.0425746 0.483 255 255 255
0.176261 -0.0864514 0.429 255 255 255
0.135948 0.12609 0.493 255 255 255
0.147616 -0.0826461 0.431 255 255 255
-0.118262 -0.00526019 0.473 0 0 0
0.170456 -0.146674 0.41 255 255 255
-0.13722 -0.0167706 0.472 255 255 255
0.0119091 -0.066652 0.446 255 255 255
0.174461 -0.147341 0.41 255 255 255
0.164006 -0.0918218 0.428 255 255 255
0.186665 0.0715427 0.477 0 0 0
-0.185591 0.0771514 0.577 255 255 255
0.159296 -0.043232 0.444 255 255 255
0.118841 -0.0058387 0.458 255 255 255
0.106572 0.137254 0.463 255 255 255
0.0509382 -0.150489 0.415 255 255 255
-0.242628 0.0292126 0.483 255 255 255
-0.0555049 0.0417886 0.483 0 0 0
0.107781 -0.134571 0.418 255 255 255
-0.13524 -0.0598522 0.455 255 255 255
0.14729 -0.102485 0.426 255 255 255
0.131784 -0.0828379 0.432 255 255 255
0.0784947 0.162779 0.429 255 255 255
-0.074807 0.0944169 0.491 255 255 255
0.078239 -0.00878145 0.456 255 255 255
-0.242034 0.0977339 0.517 255 255 255
-0.118875 -0.111117 0.441 255 255 255
-0.0492178 0.08327 0.516 255 255 255
-0.228083 -0.133059 0.433 0 0 0
-0.137392 -0.164489 0.425 255 255 255
0.227314 -0.0231564 0.447 255 255 255
0.203526 -0.108983 0.419 255 255 255
-0.0242521 0.0823812 0.521 255 255 255
0.0575644 -0.119943 0.424 255 255 255
0.194898 0.140533 0.482 255 255 255
-0.0232588 0.12172 0.467 255 255 255
0.11823 0.151707 0.45 255 255 255
0.209215 0.157324 0.46 255 255 255
-0.106822 -0.0549094 0.457 255 255 255
-0.0665125 0.145358 0.423 255 255 255
0.104691 -0.120751 0.422 255 255 255
-0.235149 -0.0609286 0.452 0 0 0
-0.0896458 -0.101299 0.442 255 255 255
-0.127573 0.0393489 0.482 0 0 0
-0.155052 -0.153785 0.426 255 255 255
-0.110727 -0.108717 0.44 255 255 255
0.111348 0.0567942 0.477 0 0 0
-0.202186 0.13406 0.473 255 255 255
0.172399 -0.0246663 0.448 0 0 0
-0.0216531 -0.134167 0.421 255 255 255
0.131626 0.012878 0.461 0 0 0
0.000327929 0.0764664 0.499 255 255 255
-0.00855105 0.137238 0.453 255 255 255
0.0208985 0.142084 0.452 255 255 255
-0.0832343 0.162952 0.424 255 255 255
0.195982 0.0746476 0.477 0 0 0
0.0442075 0.134063 0.465 255 255 255
-0.189157 0.129525 0.479 255 255 255
0.179881 0.0274586 0.454 255 255 255
-0.0525784 -0.114034 0.433 255 255 255
-0.0258675 0.0109041 0.473 0 0 0
-0.00688881 -0.083846 0.441 255 255 255
0.24169 0.143183 0.483 255 255 255
-0.149846 0.145272 0.433 255 255 255
-0.0306052 -0.0550442 0.452 255 255 255
-0.0842888 -0.0300778 0.464 255 255 255
0.158889 -0.117445 0.42 255 255 255
0.112089 -0.114423 0.424 255 255 255
-0.18817 -0.04452 0.465 0 0 0
-0.0184175 -0.0268242 0.46 0 0 0
0.0737554 0.0322505 0.47 255 255 255
-0.128337 0.0869548 0.494 255 255 255
-0.0906939 -0.0352109 0.462 0 0 0
0.177504 -0.0246663 0.448 0 0 0
0.0945691 -0.01546 0.456 0 0 0
-0.180855 0.0688187 0.586 255 255 255
-0.15333 0.158546 0.427 255 255 255
-0.151511 -0.0368735 0.464 255 255 255
-0.120103 0.121954 0.451 255 255 255
-0.248343 0.0915571 0.525 255 255 255
0.0896067 0.12976 0.477 255 255 255
0.242476 0.142397 0.483 255 255 255
-0.152047 0.0110654 0.48 255 255 255
-0.187592 0.126677 0.483 255 255 255
-0.184098 0.128714 0.476 255 255 255
-0.0381867 0.0155224 0.473 0 0 0
-0.0637582 0.154995 0.423 255 255 255
0.106076 -0.14541 0.414 255 255 255
-0.00406291 -0.0652004 0.446 255 255 255
0.00401107 -0.0377219 0.456 255 255 255
0.0665039 -0.14837 0.411 255 255 255
0.113454 -0.0643233 0.44 255 255 255
-0.174151 -0.11614 0.441 0 0 0
-0.0114752 -0.0484243 0.452 255 255 255
