ply
format ascii 1.0
comment Created by Open3D
element vertex 1305
property double x
property double y
property double z
property uchar red
property uchar green
property uchar blue
end_header
-0.172653 -0.0328814 0.483 255 255 255
-0.141939 0.131984 0.533 255 255 255
-0.194194 0.0277998 0.5 255 255 255
-0.00393545 0.100291 0.526 255 255 255
-0.038287 0.0363617 0.484 255 255 255
-0.104759 -0.170622 0.439 0 0 0
0.140558 0.0837864 0.476 0 0 0
0.0291033 0.120119 0.505 255 255 255
0.174533 -0.0129436 0.446 255 255 255
-0.136912 0.0910241 0.594 255 255 255
-0.167335 -0.0848075 0.466 255 255 255
-0.458433 -0.146092 0.873 255 255 255
0.175679 -0.0609034 0.431 255 255 255
-0.120821 -0.076794 0.468 255 255 255
0.122776 0.0194169 0.456 255 255 255
0.20187 -0.0565636 0.43 255 255 255
0.16089 0.0769375 0.472 255 255 255
-0.102073 0.16052 0.446 255 255 255
0.197597 -0.0957985 0.418 255 255 255
-0.187416 0.103129 0.56 255 255 255
-0.0826539 -0.0983548 0.455 0 0 0
0.0724637 -0.0827514 0.439 0 0 0
-0.421145 -0.166733 0.855 255 255 255
-0.131822 0.00894013 0.492 0 0 0
-0.0591583 0.161225 0.44 255 255 255
-0.139567 -0.0834696 0.467 255 255 255
0.0762602 0.0196724 0.462 255 255 255
0.11325 -0.0516686 0.442 0 0 0
0.196053 -0.0795469 0.422 255 255 255
0.14141 -0.102244 0.425 255 255 255
-0.151359 0.0474224 0.501 0 0 0
0.198488 0.0587462 0.456 255 255 255
0.109438 -0.0377048 0.447 0 0 0
0.0250116 -0.112178 0.434 255 255 255
0.213967 0.0394895 0.448 255 255 255
0.130108 -0.11663 0.422 255 255 255
0.131341 -0.102485 0.426 255 255 255
0.0679632 -0.0566176 0.447 0 0 0
-0.132116 0.134231 0.515 255 255 255
0.092798 -0.0314368 0.451 0 0 0
0.176146 0.0133622 0.452 255 255 255
0.169019 -0.108042 0.418 255 255 255
-0.168893 -0.133294 0.448 0 0 0
0.169837 -0.054971 0.434 255 255 255
-0.214483 0.0751045 0.614 255 255 255
0.229123 0.104241 0.467 255 255 255
-0.138934 -0.0618253 0.47 255 255 255
0.168488 -0.0790997 0.427 255 255 255
0.0792314 0.0798038 0.48 0 0 0
-0.149781 -0.122158 0.461 255 255 255
-0.213785 0.118217 0.522 255 255 255
-0.108164 -0.0424748 0.476 255 255 255
-0.0586442 -0.119903 0.447 255 255 255
0.197124 -0.0982837 0.417 255 255 255
0.213416 -0.0914977 0.417 255 255 255
-0.00671698 -0.135635 0.43 255 255 255
-0.145297 0.0591755 0.497 255 255 255
0.0931013 0.0726221 0.479 0 0 0
-0.0243276 -0.0106483 0.473 0 0 0
0.0939469 -0.0190442 0.453 255 255 255
0.0967974 0.0950285 0.478 255 255 255
-0.121747 -0.162788 0.441 255 255 255
-0.00120827 -0.0286292 0.465 255 255 255
-0.0914498 0.0048767 0.486 255 255 255
-0.0471194 0.118307 0.494 255 255 255
-0.134857 -0.0412695 0.48 0 0 0
-0.408701 -0.306277 0.864 255 255 255
-0.0544868 0.167948 0.437 255 255 255
-0.0341939 0.109436 0.505 255 255 255
-0.14097 -0.140368 0.452 0 0 0
-0.250235 0.0727489 0.611 255 255 255
-0.177161 -0.0912013 0.46 0 0 0
0.119386 0.0905672 0.475 255 255 255
0.0970684 -0.0449789 0.447 0 0 0
0.0540973 0.15997 0.459 255 255 255
-0.0900524 0.00805677 0.487 255 255 255
-0.244777 0.1079 0.534 255 255 255
0.120342 -0.0570331 0.439 0 0 0
-0.0011693 0.156833 0.45 255 255 255
0.182558 0.0283838 0.457 255 255 255
0.152133 0.0127104 0.455 0 0 0
-0.214617 0.127263 0.504 255 255 255
-0.256187 0.0964402 0.553 255 255 255
0.0592191 0.0215427 0.47 255 255 255
0.155052 0.0638262 0.466 255 255 255
0.0759985 0.0334209 0.465 255 255 255
0.117803 0.00898844 0.454 255 255 255
0.135349 -0.0513179 0.439 255 255 255
-0.228973 0.0766006 0.61 255 255 255
0.0584984 0.0685126 0.483 0 0 0
-0.0889272 0.145347 0.453 255 255 255
-0.119765 0.167288 0.439 255 255 255
-0.132877 0.161944 0.452 255 255 255
-0.066732 -0.0562311 0.468 255 255 255
-0.122465 -0.157764 0.441 255 255 255
-0.0506403 -0.115538 0.447 255 255 255
-0.178425 0.123013 0.528 255 255 255
0.190091 -0.02709 0.44 255 255 255
-0.410188 -0.24665 0.786 255 255 255
0.0826058 -0.151577 0.418 255 255 255
0.0814232 -0.0466415 0.449 0 0 0
-0.0322424 0.144657 0.465 0 0 0
0.190295 0.0742831 0.465 255 255 255
-0.0384668 -0.0401233 0.458 255 255 255
0.147596 -0.0696416 0.433 255 255 255
-0.259009 0.0115495 0.501 255 255 255
-0.16781 -0.0992194 0.459 0 0 0
-0.181703 0.13601 0.497 255 255 255
-0.154898 -0.00782542 0.489 255 255 255
-0.0510591 0.133493 0.471 255 255 255
0.0719836 -0.0294295 0.454 0 0 0
-0.202756 0.083156 0.6 255 255 255
-0.0846522 -0.0620575 0.466 0 0 0
-0.088467 0.00884928 0.487 255 255 255
-0.0527483 0.0564066 0.494 0 0 0
0.212724 0.0506502 0.45 255 255 255
0.122776 0.020901 0.456 255 255 255
-0.0787204 -0.026208 0.476 0 0 0
-0.116748 0.141734 0.458 255 255 255
-0.0212571 0.0640542 0.491 0 0 0
0.17047 0.0948042 0.473 255 255 255
0.144827 0.000859665 0.453 255 255 255
0.152634 0.0851564 0.475 255 255 255
-0.0829566 -0.0634377 0.465 0 0 0
-0.249217 0.0864188 0.57 255 255 255
0.0206535 -0.0194646 0.463 255 255 255
0.20085 0.169311 0.458 255 255 255
0.0663799 -0.140999 0.423 0 0 0
-0.441846 -0.0788448 0.9 255 255 255
-0.210918 0.122498 0.515 255 255 255
0.117484 -0.0606051 0.439 0 0 0
-0.231705 0.106476 0.54 255 255 255
-0.373086 -0.220084 0.778 0 0 0
-0.143265 -0.0320289 0.482 255 255 255
-0.0295593 0.0315706 0.483 0 0 0
-0.0115626 -0.160775 0.428 255 255 255
-0.146317 0.106641 0.574 255 255 255
0.128935 -0.135958 0.416 255 255 255
-0.0479235 0.0708768 0.494 255 255 255
0.0696357 -0.0185091 0.458 0 0 0
-0.14424 0.157287 0.411 255 255 255
0.23545 0.122938 0.463 255 255 255
-0.0684014 -0.0548248 0.469 0 0 0
0.131123 -0.0217987 0.449 0 0 0
-0.0335477 -0.152788 0.433 0 0 0
-0.0121413 0.104084 0.511 255 255 255
0.110448 -0.109335 0.423 255 255 255
-0.133009 0.128207 0.539 255 255 255
-0.0848503 0.0120687 0.489 255 255 255
-0.0981758 0.0655137 0.496 255 255 255
-0.0597235 -0.00532692 0.479 255 255 255
0.0873105 -0.130741 0.421 255 255 255
-0.220868 0.155465 0.444 0 0 0
-0.0999895 0.0290151 0.493 255 255 255
-0.145071 0.141459 0.404 255 255 255
-0.200374 0.152833 0.46 0 0 0
-0.281156 0.0544203 0.629 0 0 0
0.0512094 0.049443 0.481 255 255 255
0.188156 -0.150158 0.405 255 255 255
-0.392587 -0.239383 0.779 255 255 255
-0.378734 -0.255184 0.809 255 255 255
0.0566992 -0.0562653 0.45 255 255 255
-0.437184 -0.181186 0.851 255 255 255
-0.0441203 -0.157721 0.433 255 255 255
-0.18547 0.0990561 0.568 255 255 255
0.0651983 -0.0545571 0.448 0 0 0
0.121695 0.0566049 0.469 255 255 255
-0.0593302 -0.159523 0.436 0 0 0
0.00103052 0.157182 0.451 255 255 255
-0.36549 -0.226593 0.77 255 255 255
-0.0830191 -0.0384395 0.474 255 255 255
-0.100528 -0.0116835 0.484 255 255 255
0.142135 -0.118409 0.421 255 255 255
-0.153601 0.0394262 0.503 0 0 0
0.176926 -0.102164 0.419 255 255 255
0.153396 -0.151641 0.409 255 255 255
-0.133618 -0.0211351 0.484 0 0 0
0.0575927 0.0762144 0.482 0 0 0
0.0420886 0.120462 0.503 255 255 255
0.19546 -0.0346484 0.436 255 255 255
-0.0509978 0.0198625 0.485 0 0 0
-0.0692986 0.015949 0.486 0 0 0
0.107094 0.0399717 0.462 255 255 255
-0.220802 0.110254 0.537 255 255 255
-0.160511 -0.165658 0.441 0 0 0
-0.0823354 0.128745 0.479 255 255 255
-0.0596212 0.0392847 0.491 255 255 255
0.146787 -0.146363 0.411 255 255 255
0.100593 -0.104319 0.425 255 255 255
-0.0259996 0.0750872 0.49 255 255 255
0.0126034 0.14069 0.472 255 255 255
0.194876 -0.0971589 0.418 255 255 255
-0.186356 -0.010986 0.488 0 0 0
0.0217779 -0.0554096 0.455 0 0 0
0.109535 0.127918 0.52 255 255 255
-0.0398946 -0.0176501 0.475 0 0 0
-0.136869 0.00332205 0.49 0 0 0
-0.177548 -0.0614502 0.473 0 0 0
0.222757 0.12655 0.468 255 255 255
-0.426491 -0.150036 0.863 255 255 255
-0.031341 0.151646 0.452 255 255 255
0.0446828 0.0131294 0.47 255 255 255
-0.271779 0.0545934 0.631 255 255 255
0.0699224 -0.0781048 0.441 0 0 0
0.101046 0.142712 0.495 255 255 255
0.0558475 0.101191 0.509 255 255 255
-0.189947 0.143372 0.481 255 255 255
-0.438308 -0.11053 0.884 255 255 255
0.0931047 -0.0588614 0.442 0 0 0
0.124175 -0.0887522 0.43 255 255 255
-0.206662 0.151754 0.459 255 255 255
-0.0811391 -0.0895092 0.459 255 255 255
-0.0636284 0.0982045 0.524 255 255 255
0.0763743 0.149907 0.472 255 255 255
0.170353 -0.0879957 0.423 255 255 255
-0.110664 -0.000660831 0.487 255 255 255
0.141878 -0.000614695 0.453 255 255 255
-0.174148 -0.0707013 0.468 0 0 0
0.217832 0.0831843 0.464 255 255 255
-0.450294 -0.147174 0.871 255 255 255
-0.248935 0.0932707 0.561 255 255 255
-0.0124654 0.0592601 0.491 255 255 255
-0.118425 0.164115 0.442 255 255 255
0.13799 -0.109335 0.423 255 255 255
-0.108978 -0.0774805 0.463 255 255 255
0.154587 -0.0874381 0.427 255 255 255
-0.0537755 -0.146377 0.437 255 255 255
-0.148942 0.00735376 0.493 255 255 255
0.110907 0.00233402 0.453 255 255 255
-0.0833956 -0.10116 0.451 255 255 255
0.20729 -0.0290387 0.437 255 255 255
0.105935 0.025409 0.457 255 255 255
0.139274 0.163705 0.459 255 255 255
0.0673078 -0.0889778 0.438 255 255 255
0.195441 0.00742811 0.449 255 255 255
0.131793 -0.107958 0.423 255 255 255
-0.117316 0.0210776 0.495 255 255 255
0.147531 -0.0115951 0.45 0 0 0
-0.129166 0.13215 0.52 255 255 255
0.0381489 -0.156832 0.423 255 255 255
0.109919 -0.0412494 0.446 0 0 0
0.0474912 0.0771586 0.483 255 255 255
0.130239 -0.0116209 0.451 255 255 255
-0.0850856 0.0573263 0.495 0 0 0
0.120394 -0.0962251 0.429 255 255 255
-0.0600873 -0.0855876 0.458 255 255 255
-0.0106898 0.0425746 0.483 255 255 255
-0.160151 0.0402448 0.503 0 0 0
-0.280941 0.0791663 0.578 255 255 255
-0.316479 0.0464288 0.618 255 255 255
0.0794307 0.100573 0.486 255 255 255
0.205648 -0.125731 0.407 255 255 255
0.18511 -0.138978 0.407 255 255 255
-0.145483 0.11771 0.56 255 255 255
-0.19769 0.126869 0.509 255 255 255
0.0155391 -0.0891514 0.446 255 255 255
0.0209642 0.166907 0.438 255 255 255
-0.0900146 0.113235 0.5 255 255 255
0.184525 -0.0533116 0.432 255 255 255
-0.0672911 -0.144244 0.437 255 255 255
0.16401 0.165255 0.451 255 255 255
0.0966414 -0.158211 0.414 255 255 255
0.176902 -0.0521459 0.434 255 255 255
-0.120369 0.128136 0.501 255 255 255
0.112022 -0.0614592 0.44 0 0 0
-0.052428 0.0424807 0.491 255 255 255
-0.466702 -0.132407 0.886 255 255 255
-0.0888207 -0.069342 0.464 255 255 255
0.167889 -0.0939683 0.422 255 255 255
-0.0743092 0.11887 0.493 255 255 255
0.0514989 -0.114208 0.431 255 255 255
0.181212 0.0712563 0.465 255 255 255
0.188781 0.0750398 0.465 255 255 255
-0.15277 0.150521 0.395 255 255 255
0.122946 -0.12389 0.421 255 255 255
-0.158878 0.150532 0.489 255 255 255
-0.00788854 0.11108 0.505 255 255 255
0.203743 -0.0531882 0.431 255 255 255
0.0582935 -0.049785 0.451 255 255 255
-0.0436362 0.121584 0.491 255 255 255
0.171716 0.149471 0.483 255 255 255
-0.0715961 -0.0253799 0.475 0 0 0
-0.210916 0.128648 0.503 255 255 255
0.187882 -0.155319 0.403 255 255 255
-0.096991 0.153262 0.446 255 255 255
0.0558423 -0.0597936 0.449 255 255 255
0.19462 -0.105495 0.416 255 255 255
0.172049 0.0813734 0.471 255 255 255
-0.182117 -0.0257005 0.481 0 0 0
0.118883 0.0624757 0.473 255 255 255
-0.143049 -0.167912 0.447 255 255 255
0.122489 -0.0969232 0.429 255 255 255
-0.182648 0.137322 0.493 255 255 255
0.233653 0.0701836 0.458 255 255 255
-0.10326 0.147388 0.448 255 255 255
0.100361 -0.0219444 0.452 0 0 0
-0.0359976 0.0269658 0.485 0 0 0
0.178196 -0.0568267 0.432 255 255 255
0.116116 0.0500684 0.465 255 255 255
0.00099168 -0.112884 0.434 255 255 255
0.114988 0.0744911 0.476 0 0 0
0.196067 -0.144226 0.405 255 255 255
-0.35764 -0.211305 0.783 0 0 0
-0.133418 0.0457918 0.501 0 0 0
0.206496 -0.118652 0.41 255 255 255
-0.264147 0.109022 0.531 255 255 255
0.0178673 0.145901 0.469 255 255 255
0.0176874 0.0774781 0.485 255 255 255
0.159397 -0.0884118 0.425 255 255 255
0.0751506 -0.0882651 0.438 0 0 0
0.0170721 0.126918 0.49 255 255 255
-0.0168039 0.0110193 0.478 255 255 255
0.218473 0.170427 0.459 255 255 255
0.106733 0.0556035 0.467 255 255 255
0.0728144 0.166353 0.45 255 255 255
-0.0364914 0.152382 0.452 255 255 255
-0.183253 -0.0171969 0.484 0 0 0
-0.193472 0.0105843 0.494 255 255 255
0.169908 0.0314957 0.459 255 255 255
-0.0628788 -0.14959 0.436 255 255 255
0.0555936 0.165244 0.447 255 255 255
0.0219694 -0.0305006 0.459 255 255 255
-0.174731 0.117432 0.546 255 255 255
-0.0194579 -0.0272324 0.467 255 255 255
-0.138475 -0.040404 0.479 255 255 255
0.195012 -0.0381083 0.435 255 255 255
0.0637201 -0.104873 0.433 0 0 0
-0.27214 0.0651741 0.54 255 255 255
0.185822 -0.122208 0.413 255 255 255
-0.185648 -0.0494462 0.476 255 255 255
-0.17873 0.0212905 0.5 255 255 255
0.119018 0.00454556 0.453 255 255 255
0.00255975 -0.0352109 0.462 255 255 255
0.0826561 -0.0757796 0.44 255 255 255
-0.0120084 -0.0083391 0.473 0 0 0
-0.455665 -0.0683215 0.916 255 255 255
-0.0715592 -0.153489 0.437 255 255 255
0.144261 0.151035 0.478 255 255 255
-0.185208 -0.0777213 0.469 255 255 255
0.138433 -0.0675277 0.433 255 255 255
0.108202 -0.136964 0.417 255 255 255
-0.136721 -0.133155 0.455 255 255 255
0.0570438 0.090708 0.484 255 255 255
0.114815 -0.0660181 0.437 255 255 255
0.207929 0.0218943 0.446 255 255 255
0.210578 0.0226708 0.447 255 255 255
-0.0518864 -0.0781344 0.458 0 0 0
-0.171287 0.113949 0.555 255 255 255
-0.0322275 0.113235 0.5 255 255 255
0.0890432 0.147457 0.474 255 255 255
0.0718731 -0.129825 0.427 255 255 255
0.122751 -0.13185 0.418 255 255 255
-0.136487 -0.0297374 0.483 0 0 0
-0.212354 0.149839 0.46 255 255 255
-0.187197 -0.0509955 0.476 255 255 255
0.0629103 0.0138647 0.469 255 255 255
0.0768169 -0.037391 0.452 255 255 255
0.085126 0.0662476 0.478 255 255 255
-0.0641534 0.0268546 0.483 255 255 255
-0.12048 0.169431 0.439 255 255 255
-0.192652 0.144812 0.478 255 255 255
0.144405 -0.0627398 0.434 255 255 255
-0.212918 0.161245 0.444 0 0 0
0.127787 0.163348 0.458 255 255 255
0.124198 -0.0500028 0.44 0 0 0
0.0329949 0.153639 0.467 255 255 255
-0.0721731 -0.0865214 0.459 0 0 0
-0.125695 -0.0682332 0.472 0 0 0
0.0905869 0.0574904 0.47 255 255 255
-0.164946 -0.083241 0.47 255 255 255
0.0186104 -0.130945 0.433 255 255 255
0.207752 -0.0135161 0.441 255 255 255
0.221462 0.171921 0.459 255 255 255
0.210758 -0.0482786 0.431 255 255 255
0.0982307 0.125606 0.514 0 0 0
0.176463 -0.136666 0.41 255 255 255
0.148328 -0.0960195 0.425 255 255 255
0.129538 0.0434441 0.467 255 255 255
-0.0891144 0.0661871 0.495 255 255 255
-0.00395359 -0.115709 0.434 255 255 255
0.137701 -0.014492 0.449 0 0 0
0.148344 0.0310838 0.464 255 255 255
-0.166651 -0.0923497 0.462 0 0 0
-0.424234 -0.146499 0.867 255 255 255
-0.074901 -0.0758095 0.462 0 0 0
0.0129751 -0.0527936 0.458 0 0 0
0.0856461 -0.0322421 0.452 0 0 0
-0.0055891 0.155324 0.452 255 255 255
0.151039 0.0355375 0.463 255 255 255
-0.0614149 -0.0284119 0.474 0 0 0
0.0856618 0.00383361 0.456 255 255 255
0.231666 0.106293 0.466 255 255 255
0.195298 0.00521277 0.447 0 0 0
0.163372 -0.0698589 0.43 255 255 255
-0.394668 -0.30101 0.861 255 255 255
-0.0383041 0.0856038 0.505 255 255 255
0.164844 -0.0928142 0.423 255 255 255
0.102058 -0.0168327 0.453 255 255 255
-0.492566 -0.0272222 0.938 255 255 255
0.0774695 0.146685 0.474 255 255 255
0.174617 -0.0794208 0.425 255 255 255
0.196706 -0.0933003 0.419 255 255 255
-0.238088 0.11377 0.525 255 255 255
-0.083923 -0.10657 0.446 255 255 255
-0.128713 -0.0777213 0.469 0 0 0
0.109915 0.00752737 0.455 255 255 255
0.184104 0.041206 0.459 0 0 0
-0.046034 0.0464758 0.491 0 0 0
0.213258 0.0312593 0.445 255 255 255
0.0345956 -0.0423592 0.458 255 255 255
-0.039458 -0.148171 0.436 255 255 255
-0.034815 -0.0618722 0.459 0 0 0
0.174651 0.151952 0.476 255 255 255
0.0133434 -0.00217206 0.471 0 0 0
-0.416696 -0.315442 0.866 255 255 255
-0.0845623 -0.0376682 0.474 255 255 255
0.14582 -0.0231564 0.447 255 255 255
-0.327813 0.0193589 0.693 255 255 255
-0.133697 0.0318044 0.499 255 255 255
0.169209 -0.144939 0.407 255 255 255
0.00741763 0.165481 0.438 255 255 255
-0.171043 -0.137779 0.446 0 0 0
-0.0407392 0.099032 0.515 255 255 255
0.00549562 -0.0622099 0.456 255 255 255
-0.00395359 -0.119947 0.434 255 255 255
0.156898 -0.103583 0.422 255 255 255
-0.0614463 0.165179 0.441 255 255 255
-0.126689 0.0284418 0.497 255 255 255
-0.0568558 0.147052 0.456 255 255 255
-0.0735243 0.152832 0.449 255 255 255
-0.424217 -0.171291 0.85 255 255 255
0.0436799 -0.134936 0.43 255 255 255
-0.0505804 -0.156673 0.434 0 0 0
-0.00112772 -0.116416 0.434 255 255 255
0.0369616 0.138099 0.479 255 255 255
-0.0266878 0.046986 0.488 255 255 255
0.0277328 -0.00139664 0.468 0 0 0
0.103662 -0.0558576 0.441 255 255 255
-0.0765387 -0.154911 0.437 255 255 255
-0.043983 0.126672 0.486 255 255 255
-0.0308482 0.0696474 0.491 255 255 255
-0.0926674 -0.0293064 0.476 0 0 0
0.166547 0.173584 0.446 255 255 255
-0.128497 0.162335 0.447 255 255 255
0.189253 0.035077 0.457 0 0 0
0.270287 0.16903 0.564 255 255 255
0.163285 -0.112392 0.419 255 255 255
-0.138917 0.15119 0.486 255 255 255
-0.0931517 0.163057 0.445 255 255 255
0.00618319 -0.0749042 0.452 255 255 255
0.144639 -0.0491747 0.439 255 255 255
0.212167 -0.0681941 0.424 255 255 255
0.136543 -0.013792 0.45 0 0 0
-0.176477 0.108597 0.56 255 255 255
0.00187814 0.0384046 0.48 255 255 255
-0.0332825 0.0102843 0.48 255 255 255
0.128778 0.156679 0.467 255 255 255
0.184283 -0.00784545 0.445 255 255 255
-0.130452 0.157729 0.459 255 255 255
-0.00594769 0.0251779 0.481 255 255 255
0.0812393 -0.0562376 0.444 0 0 0
0.0293356 -0.148582 0.425 255 255 255
0.155682 0.170638 0.444 255 255 255
-0.0623979 0.0572105 0.494 0 0 0
0.0613835 0.0153912 0.469 255 255 255
0.0772902 -0.0987591 0.434 0 0 0
-0.139879 -0.093303 0.463 255 255 255
-0.100838 -0.0286517 0.478 255 255 255
-0.270102 0.0837828 0.571 255 255 255
0.119006 -0.0466336 0.442 0 0 0
0.202159 -0.142555 0.404 255 255 255
-0.182001 0.0845414 0.596 255 255 255
0.187021 0.167454 0.457 255 255 255
-0.187571 0.117019 0.532 255 255 255
0.0634552 -0.0652004 0.446 255 255 255
-0.0718082 -0.101384 0.452 255 255 255
0.0347881 -0.153063 0.424 255 255 255
-0.137475 -0.10243 0.46 255 255 255
-0.0644465 0.137974 0.468 255 255 255
-0.0521559 0.132801 0.474 255 255 255
0.14795 -0.118128 0.42 255 255 255
0.0593642 -0.0625766 0.448 255 255 255
-0.04317 -0.129505 0.445 255 255 255
-0.129925 0.0518965 0.497 0 0 0
0.0214792 -0.129835 0.434 255 255 255
-0.177254 0.145187 0.398 255 255 255
-0.0517596 -0.141723 0.438 255 255 255
0.00733295 -0.122489 0.433 255 255 255
-0.220812 0.158003 0.441 0 0 0
0.16901 0.142459 0.557 255 255 255
-0.00319475 -0.154146 0.427 255 255 255
0.142231 -0.0587719 0.436 255 255 255
0.155618 0.102616 0.47 255 255 255
0.141451 -0.140354 0.413 255 255 255
-0.0753033 -0.0322687 0.474 0 0 0
-0.428187 -0.131212 0.878 255 255 255
-0.174422 0.00741342 0.497 255 255 255
0.0753222 -0.085609 0.439 0 0 0
0.155512 0.109198 0.472 255 255 255
-0.458059 -0.143579 0.875 255 255 255
-0.123601 -0.00383873 0.488 255 255 255
-0.172659 -0.0806682 0.464 0 0 0
0.0357715 -0.0464221 0.454 255 255 255
-0.208555 0.143733 0.477 255 255 255
0.00098254 -0.137035 0.43 255 255 255
-0.411538 -0.0850034 0.873 255 255 255
-0.156428 -0.0828271 0.472 255 255 255
0.155106 -0.148676 0.41 255 255 255
-0.426126 -0.217022 0.814 255 255 255
0.10944 -0.0299025 0.45 0 0 0
-0.0516414 0.16297 0.437 255 255 255
0.0398365 0.00316612 0.467 0 0 0
-0.00552727 -0.0900787 0.447 0 0 0
-0.420804 -0.0408559 0.902 255 255 255
0.0247405 -0.0546691 0.455 0 0 0
0.237981 0.101525 0.465 0 0 0
-0.0423802 0.0750479 0.495 255 255 255
0.107379 0.0338101 0.46 255 255 255
-0.270856 0.00402036 0.593 255 255 255
0.102244 0.147923 0.478 255 255 255
-0.146024 0.147667 0.403 255 255 255
0.137738 -0.13325 0.416 255 255 255
0.074349 0.136208 0.489 255 255 255
-0.0391865 0.164297 0.433 255 255 255
-0.197318 0.10435 0.552 255 255 255
0.0131451 0.149631 0.464 255 255 255
0.108911 0.0187158 0.457 255 255 255
-0.112742 0.0999457 0.584 255 255 255
-0.142089 0.173528 0.444 255 255 255
-0.100343 -0.136939 0.448 255 255 255
-0.0819163 -0.121713 0.443 255 255 255
0.0390507 -0.114738 0.433 255 255 255
-0.0711147 0.145887 0.457 255 255 255
-0.166497 -0.0189273 0.488 255 255 255
0.106631 0.0345587 0.46 255 255 255
-0.12331 0.00491684 0.49 0 0 0
0.167491 -0.0985413 0.421 255 255 255
0.210427 0.0767179 0.466 255 255 255
0.220271 0.0494742 0.446 255 255 255
-0.104251 -0.0171614 0.483 255 255 255
-0.0310792 -0.0588845 0.459 0 0 0
-0.0575946 0.168716 0.439 255 255 255
0.0289278 -0.0644635 0.451 0 0 0
0.00180771 -0.0382182 0.462 255 255 255
-0.258056 0.0929382 0.559 255 255 255
-0.0801014 -0.0284719 0.475 0 0 0
-0.164736 0.0450663 0.502 0 0 0
-0.0908011 -0.0998356 0.455 0 0 0
0.0951024 -0.00506002 0.455 255 255 255
0.0390507 -0.120375 0.433 255 255 255
0.208768 0.0718581 0.464 0 0 0
0.00648414 0.0101558 0.474 255 255 255
0.191641 -0.0340167 0.437 255 255 255
0.12813 0.1331 0.534 0 0 0
0.0911311 -0.0821859 0.436 0 0 0
-0.132815 -0.171069 0.442 255 255 255
-0.0329946 -0.149955 0.435 0 0 0
0.0741089 -0.0103106 0.458 255 255 255
-0.0503359 0.0547988 0.494 0 0 0
-0.141393 -0.144461 0.451 255 255 255
0.115903 0.136017 0.5 0 0 0
0.13778 0.0232794 0.459 255 255 255
0.0552759 0.150481 0.469 255 255 255
0.0314378 0.0359109 0.478 0 0 0
-0.108784 0.139803 0.459 255 255 255
-0.132626 0.145129 0.495 255 255 255
0.192907 0.163223 0.464 255 255 255
0.00335481 -0.00977413 0.468 0 0 0
0.112095 -0.0849469 0.432 255 255 255
-0.186356 -0.0117801 0.488 0 0 0
-0.0822937 0.0112499 0.488 255 255 255
-0.171302 -0.00308827 0.495 255 255 255
0.169524 0.0118911 0.452 255 255 255
-0.128768 -0.0636246 0.472 0 0 0
-0.107489 0.0349823 0.498 255 255 255
-0.173013 -0.112423 0.455 0 0 0
-0.182537 -0.0426532 0.478 0 0 0
-0.0156235 -0.0256574 0.466 255 255 255
-0.156621 0.113044 0.564 255 255 255
0.0848496 -0.145803 0.419 255 255 255
-0.301796 0.037549 0.638 255 255 255
-0.156929 0.156545 0.483 255 255 255
-0.00960533 -0.115003 0.434 255 255 255
0.0962548 -0.0350286 0.45 255 255 255
-0.3891 -0.457531 1.393 255 255 255
0.074805 0.152879 0.467 255 255 255
-0.0491078 -0.0912878 0.453 0 0 0
-0.139691 0.141767 0.506 255 255 255
-0.0032172 -0.139834 0.43 255 255 255
0.0581642 -0.055533 0.45 255 255 255
0.180865 0.101087 0.47 255 255 255
-0.138182 0.000132218 0.489 0 0 0
-0.0053418 -0.146108 0.432 255 255 255
0.108333 0.0649219 0.474 255 255 255
-0.228476 0.103405 0.547 255 255 255
-0.11148 -0.0859537 0.464 255 255 255
-0.0659026 -0.127912 0.442 255 255 255
-0.0414161 0.0894644 0.513 255 255 255
0.212246 0.0757965 0.465 255 255 255
0.150314 0.0851564 0.475 0 0 0
0.181244 0.105451 0.469 255 255 255
0.0527754 0.0549222 0.481 255 255 255
0.136515 -0.0978611 0.427 255 255 255
0.189253 0.0365643 0.457 0 0 0
-0.114763 0.166573 0.439 255 255 255
0.21567 -0.0412648 0.431 255 255 255
-0.111509 -0.105653 0.461 0 0 0
-0.00288019 0.124233 0.492 255 255 255
0.10131 -0.0796901 0.434 255 255 255
0.208598 0.114121 0.467 255 255 255
0.0669446 -0.00885848 0.46 255 255 255
0.205662 -0.115597 0.411 255 255 255
0.220292 0.175919 0.452 255 255 255
0.00763779 -0.0762063 0.451 255 255 255
-0.3983 -0.258086 0.814 255 255 255
-0.00127064 0.0629975 0.489 0 0 0
0.0560761 0.156843 0.463 255 255 255
0.00181944 -0.0180353 0.465 255 255 255
0.0808187 -0.0125465 0.458 255 255 255
-0.17859 -0.120091 0.456 0 0 0
0.160972 0.145554 0.491 255 255 255
-0.184262 0.041145 0.504 255 255 255
-0.172914 0.144323 0.495 255 255 255
0.0855039 0.121526 0.518 255 255 255
-0.0931898 0.0137161 0.491 0 0 0
-0.262666 0.0893385 0.565 255 255 255
0.0205642 -0.0253821 0.461 255 255 255
0.0092511 -0.157892 0.424 255 255 255
0.17801 0.0170776 0.453 0 0 0
0.139712 -0.0589067 0.437 255 255 255
0.109247 0.0825827 0.478 0 0 0
0.171529 -0.0228974 0.442 255 255 255
-0.00821037 0.0101986 0.476 255 255 255
0.0943297 -0.0615988 0.441 0 0 0
0.122702 -0.15974 0.411 255 255 255
0.172053 -0.00353195 0.449 0 0 0
0.16468 -0.0321751 0.441 255 255 255
0.0440794 -0.0831284 0.441 255 255 255
0.113887 -0.144387 0.413 255 255 255
-0.0421688 0.104287 0.512 255 255 255
0.052733 -0.151683 0.424 255 255 255
-0.0754262 -0.1109 0.443 255 255 255
0.0631744 -0.152302 0.42 255 255 255
0.0939472 -0.0499588 0.446 0 0 0
-0.313941 0.0542099 0.615 255 255 255
0.0426936 -0.000630979 0.465 0 0 0
-0.0560375 0.165481 0.438 255 255 255
0.0665853 0.0130736 0.468 255 255 255
-0.151394 0.0950995 0.572 255 255 255
0.0964356 0.0447715 0.465 255 255 255
-0.0719855 0.0913939 0.529 255 255 255
0.0264854 -0.116684 0.435 255 255 255
0.0550068 -0.119118 0.431 0 0 0
0.185839 -0.000606554 0.447 0 0 0
-0.072217 -0.030726 0.474 0 0 0
0.220729 0.0210735 0.444 255 255 255
-0.173011 -0.0203474 0.484 255 255 255
-0.0626506 0.0735852 0.496 255 255 255
0.232683 0.127253 0.465 255 255 255
-0.176824 0.147047 0.488 255 255 255
-0.219712 0.0960095 0.561 255 255 255
-0.113477 0.138901 0.466 0 0 0
-0.159797 -0.156317 0.443 0 0 0
0.197276 0.0856071 0.469 255 255 255
0.160372 -0.0151549 0.447 255 255 255
0.0414933 -0.161268 0.422 255 255 255
-0.0402725 -0.109952 0.445 255 255 255
-0.128824 0.0488571 0.499 0 0 0
0.155359 -0.0572213 0.435 255 255 255
-0.108854 0.123509 0.486 255 255 255
-0.148805 -0.161357 0.449 255 255 255
-0.185181 0.141198 0.487 255 255 255
-0.141529 -0.0634898 0.471 255 255 255
0.0191245 0.121857 0.502 255 255 255
-0.101003 -0.0921498 0.461 255 255 255
-0.0491051 0.139959 0.467 255 255 255
-0.0519997 -0.0596314 0.459 255 255 255
0.000320043 0.0762125 0.487 255 255 255
0.221233 0.0983716 0.468 0 0 0
0.183576 -0.119809 0.414 255 255 255
0.0781232 0.0911392 0.478 255 255 255
-0.177847 -0.120091 0.456 0 0 0
0.195324 -0.0531882 0.431 255 255 255
-0.0509507 0.13474 0.47 255 255 255
0.170878 0.0969081 0.472 0 0 0
-0.0728265 -0.0547079 0.468 255 255 255
0.228108 0.154035 0.553 255 255 255
0.202841 0.124493 0.466 255 255 255
-0.274315 0.0767085 0.588 255 255 255
0.126848 0.161067 0.46 255 255 255
0.168983 0.101302 0.471 255 255 255
-0.101682 -0.0218321 0.482 255 255 255
0.089877 -0.102047 0.43 255 255 255
-0.190041 0.0920266 0.582 255 255 255
0.197697 -0.131692 0.407 255 255 255
-0.0744739 0.106971 0.505 255 255 255
-0.180512 -0.0932439 0.459 0 0 0
-0.0669235 -0.117653 0.444 255 255 255
-0.0217149 -0.136109 0.436 255 255 255
-0.149869 -0.149999 0.45 255 255 255
-0.191646 0.0386844 0.504 255 255 255
0.0908577 -0.0058132 0.456 255 255 255
0.128888 0.0112049 0.454 255 255 255
0.00601903 -0.0936803 0.44 255 255 255
0.2037 -0.0163496 0.44 255 255 255
0.143868 -0.0130597 0.45 0 0 0
-0.0471772 0.144788 0.463 255 255 255
-0.146637 0.0842669 0.568 255 255 255
0.103248 0.0500684 0.465 255 255 255
-0.0229322 -0.000645905 0.476 255 255 255
-0.467673 -0.0391394 0.931 255 255 255
0.12841 -0.157349 0.41 255 255 255
0.0181938 -0.0356514 0.458 255 255 255
-0.196651 0.084375 0.378 255 255 255
-0.259009 0.00339663 0.501 255 255 255
0.0466959 -0.109552 0.432 255 255 255
-0.0259769 0.136946 0.475 255 255 255
0.189053 -0.00205677 0.446 0 0 0
0.159663 -0.150606 0.408 255 255 255
-0.11852 -0.0968606 0.462 0 0 0
0.110413 0.00529441 0.454 255 255 255
-0.207949 0.0716379 0.396 255 255 255
-0.159536 -0.104153 0.461 255 255 255
0.0875778 -0.140348 0.419 255 255 255
0.123546 0.136283 0.498 0 0 0
0.103385 -0.0427009 0.446 0 0 0
0.125687 -0.0994833 0.428 255 255 255
0.18048 0.114609 0.469 255 255 255
-0.167362 0.118508 0.551 255 255 255
0.00349818 0.0811339 0.488 255 255 255
0.0514519 0.031113 0.476 255 255 255
0.0464116 -0.158208 0.423 255 255 255
-0.0657259 0.00484659 0.483 255 255 255
-0.10126 -0.0256471 0.48 255 255 255
0.0972024 0.0805849 0.48 0 0 0
0.191803 -0.0277428 0.439 255 255 255
-0.10161 0.0332945 0.497 255 255 255
-0.0791161 0.0746923 0.498 255 255 255
0.0372774 -0.101575 0.437 255 255 255
0.183869 -0.00855036 0.444 255 255 255
0.0975504 -0.153866 0.415 255 255 255
0.0372968 0.114339 0.516 255 255 255
0.0151907 0.168983 0.436 255 255 255
0.168792 0.0455881 0.458 255 255 255
0.135304 0.133266 0.549 0 0 0
-0.0490876 0.108006 0.506 255 255 255
-0.112019 -0.00698653 0.486 255 255 255
0.199902 0.109034 0.468 255 255 255
-0.0516805 0.0292731 0.484 255 255 255
0.0189089 0.0202685 0.476 255 255 255
-0.0699455 0.0269658 0.485 255 255 255
-0.434398 -0.132792 0.879 255 255 255
0.213011 -0.0177816 0.44 255 255 255
0.115904 -0.151108 0.413 255 255 255
-0.178904 0.0883409 0.589 255 255 255
-0.415507 -0.167534 0.852 255 255 255
-0.171185 0.00579586 0.497 255 255 255
-0.0582273 0.138439 0.467 255 255 255
-0.00685661 0.0798716 0.49 255 255 255
0.00928778 0.151336 0.46 255 255 255
-0.00615695 -0.0972604 0.44 255 255 255
-0.243021 0.0940157 0.56 255 255 255
0.151535 -0.134306 0.413 255 255 255
-0.192514 0.0871328 0.382 255 255 255
0.0417268 0.047778 0.48 255 255 255
0.186638 -0.0149854 0.442 255 255 255
0.0436107 -0.0615278 0.451 255 255 255
-0.0886953 0.0967052 0.516 255 255 255
-0.176808 0.146115 0.397 255 255 255
0.00188596 0.0448396 0.482 255 255 255
-0.0151876 -0.0787558 0.453 255 255 255
0.16468 -0.0300221 0.441 255 255 255
0.127378 -0.089942 0.429 255 255 255
-0.296603 0.0385872 0.638 255 255 255
0.136414 0.00453553 0.452 255 255 255
0.196692 0.0536692 0.457 255 255 255
0.217077 0.157587 0.479 255 255 255
0.0209642 0.166194 0.438 255 255 255
-0.0198746 0.00556262 0.477 255 255 255
-0.113642 -0.0599108 0.473 0 0 0
-0.0373918 0.150839 0.454 255 255 255
0.220691 0.150617 0.557 255 255 255
0.0158275 -0.109353 0.434 255 255 255
-0.079567 0.153988 0.446 255 255 255
-0.109038 0.0218389 0.494 255 255 255
-0.152867 -0.125362 0.459 255 255 255
0.127782 -0.0353636 0.445 0 0 0
0.0690406 0.000124107 0.459 255 255 255
-0.123339 -0.0840492 0.466 255 255 255
0.178152 0.165919 0.461 255 255 255
0.113549 -0.0412494 0.446 0 0 0
0.0722098 -0.124848 0.429 255 255 255
-0.0250445 -0.0167706 0.472 0 0 0
0.0212334 0.0202685 0.476 255 255 255
-0.0875029 0.0557153 0.495 0 0 0
0.200022 -0.139613 0.405 255 255 255
-0.144449 0.108509 0.574 255 255 255
-0.368812 -0.217273 0.777 0 0 0
0.0186963 -0.117392 0.435 255 255 255
-0.278841 0.0666802 0.531 255 255 255
0.0586505 -0.104631 0.432 255 255 255
-0.0748494 -0.0076974 0.481 255 255 255
-0.0263849 0.0886296 0.513 255 255 255
-0.414508 -0.20112 0.836 255 255 255
0.10956 -0.136964 0.417 255 255 255
-0.200104 0.11867 0.524 255 255 255
-0.140069 0.125429 0.546 255 255 255
-0.124198 0.0359364 0.5 255 255 255
0.0732847 0.153639 0.467 255 255 255
0.17355 0.0863373 0.473 0 0 0
0.109928 0.166714 0.449 255 255 255
0.195504 -0.111319 0.415 255 255 255
-0.169054 0.139008 0.397 255 255 255
-0.17902 -0.0411835 0.479 0 0 0
0.19074 0.0276401 0.457 255 255 255
-0.158308 -0.098035 0.464 255 255 255
-0.169793 -0.0539802 0.475 255 255 255
0.051291 -0.0368176 0.454 255 255 255
0.0757014 -0.115074 0.429 255 255 255
-0.0923465 0.14279 0.459 0 0 0
0.18823 -0.0284572 0.439 255 255 255
0.122221 0.0919193 0.474 255 255 255
0.14478 -0.145025 0.411 255 255 255
-0.128624 -0.0297374 0.483 0 0 0
0.0850538 0.0997456 0.482 255 255 255
0.0229525 0.160138 0.449 255 255 255
0.130973 -0.0318141 0.446 255 255 255
0.00626526 -0.0475764 0.458 0 0 0
0.207125 -0.133351 0.406 255 255 255
0.0512094 0.0596187 0.481 255 255 255
-0.0357007 0.132414 0.481 0 0 0
0.074805 0.0366045 0.467 255 255 255
0.0528853 -0.0331965 0.455 255 255 255
-0.115138 -0.0494462 0.476 255 255 255
-0.138763 0.165622 0.452 255 255 255
-0.17278 0.10402 0.575 255 255 255
0.156534 -0.134651 0.412 255 255 255
-0.176162 -0.0171969 0.484 0 0 0
0.166559 -0.146926 0.407 255 255 255
-0.0475847 0.142999 0.467 255 255 255
0.0715485 -0.147869 0.421 0 0 0
0.00944747 -0.123898 0.433 255 255 255
0.149156 -0.138003 0.412 255 255 255
0.0193061 0.132209 0.486 255 255 255
-0.101445 -0.0625902 0.47 0 0 0
-0.110724 -0.0859537 0.464 255 255 255
-0.274993 0.0897787 0.562 255 255 255
-0.0674449 -0.0329703 0.473 255 255 255
0.0956987 -0.0931668 0.431 255 255 255
-0.150163 -0.0258608 0.484 255 255 255
-0.412467 -0.312623 0.866 255 255 255
0.0207598 0.160138 0.449 0 0 0
-0.0181705 0.120719 0.494 255 255 255
-0.099187 0.0306197 0.493 255 255 255
-0.0820279 0.0453348 0.496 255 255 255
0.00698018 -0.0577575 0.456 255 255 255
0.0626421 0.00772589 0.467 255 255 255
-0.131005 -0.0156862 0.486 0 0 0
0.128903 0.159512 0.462 255 255 255
0.0757889 0.0631362 0.478 255 255 255
0.104005 0.048555 0.465 255 255 255
-0.125697 0.107384 0.578 255 255 255
-0.162432 -0.0399554 0.483 255 255 255
0.0856306 0.0519146 0.468 255 255 255
-0.223178 0.162644 0.425 0 0 0
0.159223 0.164886 0.452 255 255 255
-0.188768 -0.0179846 0.484 255 255 255
-0.224206 0.0723418 0.616 255 255 255
-0.183308 -0.0710035 0.47 255 255 255
0.216884 0.0402185 0.448 255 255 255
-0.045419 0.0683265 0.493 255 255 255
0.0739667 0.121424 0.514 255 255 255
0.0398365 0.00240616 0.467 0 0 0
-0.275218 0.076267 0.592 255 255 255
-0.0812151 -0.0223819 0.477 255 255 255
-0.106902 0.166573 0.439 255 255 255
0.190979 -0.152417 0.404 255 255 255
0.181266 -0.0417435 0.436 255 255 255
-0.0959583 -0.0825759 0.462 255 255 255
0.025718 -0.121359 0.434 255 255 255
-0.0914711 -0.104829 0.451 255 255 255
0.0519995 0.154399 0.467 255 255 255
0.176275 0.103381 0.47 255 255 255
0.136613 -0.107958 0.423 255 255 255
0.00257083 0.146611 0.464 255 255 255
0.10183 0.0362126 0.462 255 255 255
0.00244894 -0.0905097 0.442 255 255 255
-0.141608 0.12052 0.552 255 255 255
0.00460921 0.0982045 0.524 255 255 255
-0.40407 -0.217782 0.807 0 0 0
-0.40625 -0.213048 0.814 255 255 255
-0.000496964 0.0909564 0.512 255 255 255
0.0773451 0.0888056 0.478 255 255 255
-0.0625961 -0.0792242 0.46 255 255 255
0.120353 -0.0318854 0.447 255 255 255
0.148457 0.0414753 0.462 255 255 255
0.227115 0.109326 0.466 255 255 255
-0.0197852 0.151836 0.457 0 0 0
0.199475 0.0822022 0.467 255 255 255
0.19307 0.0486755 0.459 0 0 0
0.117606 0.0322427 0.459 255 255 255
-0.116765 -0.0101501 0.486 255 255 255
-0.19387 0.0825646 0.381 255 255 255
0.0637429 -0.0968183 0.438 255 255 255
-0.101388 0.027355 0.492 255 255 255
0.173631 0.035077 0.457 255 255 255
-0.121528 -0.107386 0.462 0 0 0
0.203194 -0.0709541 0.424 255 255 255
-0.210573 0.14876 0.466 255 255 255
0.00257637 -0.0172786 0.465 255 255 255
-0.0172609 0.0624562 0.491 0 0 0
-0.0987836 0.0605484 0.495 255 255 255
-0.0251505 0.0510611 0.489 0 0 0
0.138364 0.159376 0.466 255 255 255
0.0144396 0.0456239 0.482 255 255 255
-0.0529113 -0.0922282 0.454 0 0 0
0.175913 0.0704996 0.465 255 255 255
0.24107 0.157243 0.558 255 255 255
-0.0658292 -0.0599108 0.467 255 255 255
0.121791 -0.0976214 0.429 255 255 255
0.0754389 -0.160329 0.416 255 255 255
-0.0777405 -0.077896 0.461 255 255 255
0.0975027 -0.0371428 0.449 255 255 255
0.0698855 0.114599 0.521 255 255 255
-0.217078 0.128083 0.504 255 255 255
0.0729708 0.0281239 0.465 255 255 255
0.191387 -0.0085311 0.443 255 255 255
-0.0311318 0.0362866 0.483 255 255 255
0.0297935 0.159353 0.453 255 255 255
0.110485 0.13409 0.505 0 0 0
-0.026305 0.0142195 0.481 255 255 255
0.0851853 0.0587511 0.474 255 255 255
-0.397917 -0.228851 0.782 255 255 255
-0.0853788 -0.053412 0.47 255 255 255
-0.0348767 0.166729 0.432 255 255 255
-0.427896 -0.325584 0.863 255 255 255
0.0563978 0.149139 0.472 255 255 255
-0.150323 -0.0967329 0.465 255 255 255
0.0882598 -0.136939 0.419 255 255 255
-0.0536106 0.145347 0.46 255 255 255
-0.274566 0.0890223 0.563 255 255 255
0.0321784 -0.148239 0.426 255 255 255
-0.150794 -0.132415 0.455 255 255 255
0.0504235 -0.159895 0.422 255 255 255
0.182244 -0.137327 0.408 255 255 255
0.182321 -0.0185818 0.442 255 255 255
0.00544742 -0.0749042 0.452 255 255 255
0.0881094 0.159034 0.465 255 255 255
0.152808 -0.143688 0.411 255 255 255
-0.111788 -0.0124969 0.485 255 255 255
0.144692 0.142865 0.49 255 255 255
-0.106166 -0.0461531 0.474 255 255 255
0.184922 -0.126298 0.411 255 255 255
-0.131304 -0.0946051 0.462 255 255 255
0.192544 -0.120192 0.413 255 255 255
0.213308 0.100108 0.469 255 255 255
-0.138934 -0.0748277 0.47 255 255 255
0.0868917 0.130348 0.497 255 255 255
-0.116127 0.159425 0.447 255 255 255
0.191903 0.0597492 0.458 255 255 255
0.159282 -0.0483499 0.438 255 255 255
-0.0161474 -0.101326 0.439 255 255 255
-0.194086 0.154497 0.402 255 255 255
0.214763 -0.0392515 0.432 255 255 255
-0.0130469 -0.139458 0.431 255 255 255
0.0760963 0.135689 0.49 255 255 255
0.153737 -0.117165 0.419 255 255 255
0.053257 0.120006 0.508 255 255 255
-0.153648 0.0910567 0.57 255 255 255
-0.397226 -0.192496 0.834 255 255 255
-0.0483778 0.0992243 0.516 255 255 255
-0.158747 0.124051 0.54 255 255 255
0.15143 -0.100624 0.424 255 255 255
0.0554423 0.0350596 0.477 255 255 255
0.203041 -0.0524869 0.431 255 255 255
0.125468 0.0463844 0.466 255 255 255
0.108313 0.159447 0.464 0 0 0
-0.0717175 -0.00378367 0.481 255 255 255
-0.127779 -0.163157 0.442 255 255 255
-0.165589 -0.141091 0.445 0 0 0
0.27357 0.168084 0.567 255 255 255
0.0010945 0.134981 0.479 255 255 255
0.0166298 -0.0562734 0.456 255 255 255
-0.129766 0.11549 0.567 255 255 255
0.0259911 0.0304659 0.478 0 0 0
-0.0332222 0.159779 0.438 255 255 255
0.196525 -0.0678225 0.426 255 255 255
-0.176436 -0.079158 0.464 0 0 0
-0.0294031 -0.0242443 0.468 255 255 255
-0.0246664 -0.135308 0.438 255 255 255
0.212034 0.0212159 0.447 0 0 0
0.071918 0.0351597 0.468 255 255 255
-0.104467 -0.0132588 0.484 255 255 255
-0.0745744 0.0946127 0.523 255 255 255
-0.116722 -0.166376 0.441 255 255 255
-0.220059 0.104993 0.546 255 255 255
-0.117269 0.141021 0.463 255 255 255
0.0196275 0.165521 0.44 255 255 255
-0.119436 -0.0250732 0.484 255 255 255
0.218243 -0.0163124 0.439 255 255 255
0.170971 -0.00207522 0.45 0 0 0
0.077846 0.124284 0.512 255 255 255
0.0979837 0.0805849 0.48 0 0 0
-0.111751 -0.0915978 0.462 0 0 0
-0.175708 0.0459746 0.503 255 255 255
-0.155034 -0.116156 0.461 255 255 255
0.00874263 -0.124603 0.433 255 255 255
-0.137956 0.168154 0.447 255 255 255
-0.0989858 0.0193485 0.492 255 255 255
-0.0011641 -0.0815317 0.448 0 0 0
0.209806 0.109795 0.468 255 255 255
0.212609 0.14831 0.562 255 255 255
-0.0209398 0.0997193 0.523 255 255 255
0.108215 -0.0255654 0.451 0 0 0
0.0792942 0.122736 0.516 255 255 255
-0.230589 0.120587 0.514 255 255 255
0.0108321 -0.133454 0.432 255 255 255
-0.0732629 -0.120993 0.443 255 255 255
-0.0929501 -0.0848314 0.462 255 255 255
-0.160456 0.136518 0.403 255 255 255
0.196236 -0.0978391 0.418 255 255 255
0.0718723 -0.00285743 0.458 255 255 255
-0.0568558 -0.0911503 0.456 0 0 0
0.10336 -0.101552 0.425 255 255 255
-0.176644 0.121575 0.533 255 255 255
-0.0854107 -0.0635742 0.466 0 0 0
-0.0161008 -0.0609921 0.458 0 0 0
0.1261 0.0855149 0.477 0 0 0
0.115392 -0.104564 0.426 255 255 255
0.159499 -0.139006 0.411 255 255 255
-0.0683994 -0.166944 0.435 255 255 255
-0.0259769 -0.00219051 0.475 255 255 255
-0.0148649 -0.0241407 0.466 255 255 255
-0.176312 0.000132759 0.491 255 255 255
0.0922458 -0.107145 0.428 255 255 255
0.103583 0.0893961 0.477 255 255 255
-0.248072 0.0695596 0.618 255 255 255
0.14754 -0.128203 0.415 255 255 255
0.0711496 0.00992008 0.463 255 255 255
0.102944 -0.0558576 0.441 255 255 255
0.105792 -0.0756264 0.435 255 255 255
0.114594 -0.0109352 0.453 0 0 0
-0.136514 0.125429 0.546 255 255 255
0.0840726 0.135689 0.49 255 255 255
0.0439311 0.115794 0.515 255 255 255
-0.446529 -0.0118304 0.928 255 255 255
0.0748243 -0.108146 0.432 0 0 0
-0.0756275 0.122718 0.486 255 255 255
-0.134603 0.159104 0.463 255 255 255
-0.159538 0.00901282 0.496 255 255 255
-0.210979 0.145298 0.472 255 255 255
0.116351 0.15735 0.469 255 255 255
-0.100058 -0.109723 0.45 255 255 255
-0.16172 0.162884 0.474 255 255 255
-0.0244383 0.0958289 0.525 255 255 255
-0.279484 0.0903705 0.56 255 255 255
0.0638095 0.0230724 0.47 255 255 255
-0.105017 0.0282701 0.494 255 255 255
-0.0348772 0.111458 0.503 255 255 255
0.12927 -0.076688 0.433 255 255 255
0.130308 0.0255202 0.459 255 255 255
-0.00203282 0.0251779 0.481 255 255 255
-0.142776 -0.0242354 0.483 255 255 255
0.0130615 -0.1056 0.436 255 255 255
-0.014621 0.0323566 0.483 0 0 0
-0.118361 0.0235416 0.496 255 255 255
-0.134743 0.1656 0.446 255 255 255
0.119491 0.165622 0.452 255 255 255
-0.146694 0.147114 0.499 255 255 255
-0.439383 -0.330679 0.858 255 255 255
0.0826058 -0.154298 0.418 255 255 255
0.168976 -0.0921259 0.423 255 255 255
0.138193 0.145054 0.484 255 255 255
0.0414883 -0.0786362 0.444 255 255 255
-0.156308 0.0106271 0.496 255 255 255
0.164257 -0.114165 0.418 255 255 255
0.129375 -0.0833475 0.431 255 255 255
0.203224 0.165559 0.46 255 255 255
-0.397292 -0.274913 0.837 255 255 255
-0.214117 0.161238 0.442 0 0 0
0.143229 0.16853 0.448 255 255 255
-0.177869 -0.0418754 0.478 0 0 0
0.175862 0.0432575 0.457 255 255 255
-0.147208 -0.0736099 0.472 255 255 255
-0.00377834 0.108614 0.505 255 255 255
-0.0216651 -0.139336 0.435 255 255 255
-0.163894 -0.0298605 0.485 255 255 255
-0.150762 -0.170398 0.444 255 255 255
0.0988216 0.0354607 0.462 255 255 255
-0.154506 0.0179637 0.498 255 255 255
-0.166678 -0.0964413 0.46 0 0 0
0.0930038 0.16415 0.452 0 0 0
-0.185801 -0.0861482 0.461 255 255 255
0.148457 0.0271906 0.462 255 255 255
0.0568373 -0.0259056 0.457 255 255 255
-0.123032 -0.105131 0.462 0 0 0
0.109895 0.0299365 0.458 255 255 255
0.109415 0.0142225 0.456 255 255 255
0.122702 0.132658 0.522 255 255 255
-0.446526 -0.159496 0.861 255 255 255
-0.0357648 -0.105133 0.443 255 255 255
-0.158098 0.0766017 0.566 255 255 255
-0.16172 -0.0785499 0.474 255 255 255
0.137459 0.0899833 0.476 0 0 0
-0.126893 0.0368236 0.501 255 255 255
0.202571 0.150749 0.503 0 0 0
-0.106177 0.158324 0.448 255 255 255
-0.0140352 0.0647212 0.49 0 0 0
-0.425813 -0.122779 0.879 255 255 255
-0.130951 -0.0436128 0.48 0 0 0
-0.0737601 -0.0284119 0.474 0 0 0
0.0151785 -0.0519347 0.457 0 0 0
-0.140758 0.0457918 0.501 0 0 0
0.23043 0.168534 0.462 255 255 255
0.181759 0.0164126 0.455 255 255 255
0.0878886 0.163377 0.456 255 255 255
-0.146095 -0.0893575 0.466 255 255 255
0.199402 -0.0199297 0.44 255 255 255
-0.118348 -0.0125227 0.486 255 255 255
-0.147282 0.146888 0.501 255 255 255
0.148665 0.165253 0.449 255 255 255
-0.161163 -0.118346 0.455 255 255 255
0.177034 0.0512491 0.462 255 255 255
0.0349836 -0.0800812 0.444 0 0 0
0.224675 -0.00988286 0.439 255 255 255
-0.054629 -0.0889241 0.456 255 255 255
-0.0828239 0.164858 0.444 255 255 255
-0.172563 -0.0613203 0.472 0 0 0
0.0846121 -0.0798938 0.439 0 0 0
-0.0180912 -0.0144356 0.471 0 0 0
-0.0471073 -0.121629 0.448 255 255 255
0.216321 0.0771437 0.464 255 255 255
-0.202343 0.144509 0.477 255 255 255
-0.395797 -0.197213 0.831 255 255 255
0.197254 -0.0213618 0.44 255 255 255
0.0092474 -0.0490671 0.458 0 0 0
0.0546718 0.131172 0.491 255 255 255
0.143093 -0.153346 0.41 255 255 255
-0.235215 0.108769 0.534 255 255 255
-0.085598 0.146907 0.451 255 255 255
-0.424145 -0.0439858 0.906 255 255 255
-0.150106 -0.111897 0.462 255 255 255
0.0642998 0.0107888 0.468 255 255 255
0.0409276 -0.0961055 0.438 255 255 255
-0.172776 0.041145 0.504 255 255 255
0.0770309 -0.145814 0.421 255 255 255
0.0206211 -0.0847967 0.446 0 0 0
0.118542 -0.00726532 0.454 255 255 255
-0.153818 -0.136993 0.453 255 255 255
-0.155226 0.146483 0.398 255 255 255
0.217424 0.122743 0.468 255 255 255
-0.218787 0.113129 0.53 255 255 255
0.21688 0.0276385 0.445 255 255 255
-0.238172 0.0888886 0.568 255 255 255
-0.142598 -0.0574798 0.472 255 255 255
-0.0295849 -0.0558967 0.459 255 255 255
0.135052 0.0971134 0.473 255 255 255
-0.104719 0.14593 0.448 255 255 255
0.0273168 0.0178693 0.474 255 255 255
-0.0799918 0.142662 0.461 255 255 255
0.033412 -0.129535 0.433 255 255 255
-0.0607712 -0.023061 0.475 0 0 0
-0.102223 0.0424457 0.5 255 255 255
-0.192677 0.144637 0.48 255 255 255
0.142608 0.0425014 0.465 255 255 255
-0.0907225 0.129255 0.478 0 0 0
-0.227876 0.0892015 0.57 255 255 255
0.0278931 0.0773183 0.484 255 255 255
0.0616433 0.0920926 0.483 255 255 255
-0.1218 -0.0250732 0.484 255 255 255
-0.401669 -0.307683 0.864 255 255 255
0.0442875 -0.0281982 0.458 255 255 255
-0.138345 -0.0108959 0.484 0 0 0
0.134728 -0.141699 0.413 255 255 255
0.100119 0.0772991 0.479 0 0 0
-0.0947548 0.0621595 0.495 255 255 255
0.211341 -0.00921024 0.441 255 255 255
-0.135138 0.1512 0.481 255 255 255
-0.060347 0.0332112 0.484 255 255 255
-0.198339 0.151897 0.464 0 0 0
0.076848 -0.149568 0.42 255 255 255
0.109426 0.172806 0.444 255 255 255
0.198234 -0.0241708 0.439 255 255 255
0.221951 0.0312593 0.445 255 255 255
0.146745 0.0202916 0.459 255 255 255
-0.0365914 0.0723379 0.493 255 255 255
0.168709 -0.140992 0.409 255 255 255
0.0950804 -0.131484 0.419 255 255 255
0.0800776 -0.111144 0.43 255 255 255
-0.0392038 0.135685 0.476 255 255 255
-0.186282 0.00813949 0.492 0 0 0
-0.00341172 0.151504 0.456 255 255 255
0.00559204 0.145856 0.464 255 255 255
0.0779109 0.149139 0.472 0 0 0
0.123238 -0.120064 0.422 255 255 255
-0.167539 0.161001 0.473 0 0 0
-0.063595 -0.109473 0.446 255 255 255
0.0593642 -0.0640347 0.448 255 255 255
-0.0719123 0.133777 0.472 255 255 255
0.215431 0.0189485 0.445 255 255 255
0.0506361 0.0858046 0.483 255 255 255
-0.00343417 -0.0551497 0.459 0 0 0
-0.0562911 0.00563259 0.483 255 255 255
0.0312975 -0.121784 0.433 255 255 255
-0.0476917 0.114048 0.5 255 255 255
0.129656 0.030198 0.462 255 255 255
0.0480574 -0.0925417 0.438 255 255 255
-0.102093 -0.0491346 0.473 255 255 255
0.0606097 -0.130214 0.426 255 255 255
0.0395919 0.170145 0.439 255 255 255
-0.409624 -0.453614 1.409 255 255 255
-0.165064 0.0410633 0.503 0 0 0
-0.149857 -0.0488761 0.478 255 255 255
0.171752 0.167093 0.454 255 255 255
0.00946929 -0.117828 0.434 255 255 255
0.0788459 0.147915 0.473 255 255 255
-0.110979 -0.166376 0.441 255 255 255
0.0676353 -0.120521 0.431 0 0 0
0.188115 0.103161 0.469 255 255 255
-0.0973902 -0.168095 0.438 255 255 255
0.121004 0.127802 0.541 0 0 0
0.121236 -0.0821349 0.432 255 255 255
-0.133295 -0.0428317 0.48 0 0 0
-0.379603 -0.213786 0.797 0 0 0
0.198771 0.000844483 0.445 0 0 0
-0.188553 0.0244469 0.498 255 255 255
-0.219365 0.0904454 0.572 255 255 255
-0.227585 0.102515 0.547 255 255 255
-0.00251724 -0.131437 0.43 255 255 255
0.197448 -0.062569 0.428 255 255 255
0.00429254 0.0684277 0.488 0 0 0
0.226511 0.0246862 0.444 0 0 0
0.153235 -0.0647092 0.433 255 255 255
0.118554 -0.0452973 0.443 0 0 0
-0.153426 0.163138 0.477 255 255 255
-0.144112 0.150377 0.405 255 255 255
-0.161038 -0.0851314 0.472 255 255 255
0.209415 -0.00204294 0.443 255 255 255
-0.202053 0.141512 0.48 255 255 255
0.0886309 0.000123296 0.456 255 255 255
-0.0156943 0.123432 0.492 255 255 255
0.0980947 0.061706 0.473 255 255 255
0.104879 -0.12838 0.42 255 255 255
0.118711 -0.113465 0.423 255 255 255
0.184954 0.164378 0.463 255 255 255
0.131081 -0.0800259 0.432 255 255 255
-0.451003 -0.0224739 0.931 255 255 255
0.0618268 -0.0452808 0.45 255 255 255
0.137154 -0.0878476 0.429 255 255 255
0.213308 0.0940025 0.469 0 0 0
-0.204505 0.115935 0.531 255 255 255
-0.139915 0.0528113 0.498 255 255 255
-0.054123 -0.0811157 0.458 255 255 255
-0.301128 0.0356393 0.641 255 255 255
-0.42402 -0.157544 0.858 255 255 255
-0.0438528 -0.0161381 0.476 0 0 0
0.12974 0.0216906 0.457 255 255 255
-0.163327 -0.0992194 0.459 255 255 255
0.109974 -0.138666 0.416 255 255 255
-0.144401 -0.0963168 0.463 255 255 255
0.0444927 0.00774244 0.468 0 0 0
0.0604528 0.171249 0.44 255 255 255
-0.277955 0.09646 0.548 0 0 0
0.0996743 0.161464 0.459 255 255 255
-0.0614594 -0.169456 0.436 255 255 255
0.117216 -0.0640309 0.438 255 255 255
0.0186104 -0.141514 0.433 255 255 255
-0.0275233 -0.00373647 0.475 255 255 255
0.0846693 -0.095492 0.432 0 0 0
0.124174 0.0363693 0.464 255 255 255
-0.104071 0.130762 0.475 255 255 255
0.132169 -0.113884 0.422 255 255 255
-0.12184 0.12052 0.552 255 255 255
0.0200736 -0.0709112 0.45 255 255 255
-0.299482 0.0701813 0.606 255 255 255
-0.0328664 0.136658 0.474 255 255 255
-0.146988 0.0286134 0.5 255 255 255
-0.0305602 0.101152 0.513 255 255 255
-0.0775896 -0.120272 0.443 255 255 255
-0.0799017 -0.10212 0.452 255 255 255
-0.196651 0.0837599 0.378 255 255 255
-0.176843 0.101793 0.573 255 255 255
0.232182 0.08998 0.464 255 255 255
0.0499952 0.165253 0.449 255 255 255
0.00310391 -0.122489 0.433 255 255 255
0.213461 0.0858179 0.466 255 255 255
0.102723 -0.0818089 0.434 255 255 255
-0.2819 0.096284 0.547 0 0 0
0.207929 0.0335069 0.446 255 255 255
-0.017507 0.081986 0.498 255 255 255
-0.228458 0.0780706 0.606 255 255 255
0.0904278 -0.115656 0.426 255 255 255
-0.137111 -0.0784846 0.469 255 255 255
0.0104948 0.0408328 0.481 255 255 255
-0.100358 0.00330171 0.487 255 255 255
0.198039 0.160402 0.469 255 255 255
-0.464925 -0.0866465 0.905 255 255 255
-0.253493 0.00750292 0.503 255 255 255
0.169774 -0.0821872 0.425 255 255 255
-0.047024 0.057897 0.493 0 0 0
0.204637 -0.139613 0.405 255 255 255
0.0770476 0.0768391 0.481 255 255 255
-0.040581 0.091134 0.513 255 255 255
0.198958 -0.0957985 0.418 255 255 255
-0.201922 0.131397 0.501 255 255 255
