ply
format ascii 1.0
comment Created by Open3D
element vertex 1306
property double x
property double y
property double z
property uchar red
property uchar green
property uchar blue
end_header
-0.0636847 -0.0920258 0.468 255 255 255
-0.256996 -0.339261 0.884 255 255 255
-0.190011 0.116551 0.416 255 255 255
-0.316367 -0.271916 0.832 0 0 0
-0.19651 0.109927 0.414 255 255 255
-0.165049 0.0847089 0.403 255 255 255
0.103498 0.114732 0.503 255 255 255
0.0960369 0.118146 0.49 255 255 255
0.177717 0.168983 0.436 255 255 255
0.100031 -0.0222785 0.444 255 255 255
-0.00504661 -0.0587659 0.47 255 255 255
0.133647 0.130304 0.479 0 0 0
0.19623 0.00645878 0.433 255 255 255
-0.0565923 0.122616 0.53 255 255 255
0.0445878 0.132163 0.469 255 255 255
0.172873 -0.02864 0.431 0 0 0
-0.176806 0.132369 0.43 255 255 255
0.107613 -0.0962568 0.42 255 255 255
-0.0447348 -0.0998546 0.469 255 255 255
0.164835 -0.0315185 0.432 255 255 255
0.00765472 0.142819 0.452 255 255 255
-0.0901324 0.0574914 0.618 255 255 255
0.199855 0.160156 0.441 255 255 255
0.0563749 0.108136 0.499 255 255 255
0.158588 0.11196 0.509 255 255 255
0.00109222 -0.0294296 0.478 255 255 255
0.0837915 -0.111663 0.424 255 255 255
-0.0968748 0.152423 0.39 255 255 255
0.0580349 -0.0714843 0.449 0 0 0
0.107008 -0.10389 0.415 255 255 255
-0.0659702 -0.076794 0.468 255 255 255
0.0816555 0.0864609 0.515 255 255 255
-0.290102 -0.0724034 0.95 255 255 255
-0.0116424 -0.000664902 0.49 0 0 0
-0.0747166 0.087591 0.584 255 255 255
0.0731327 0.0611842 0.481 255 255 255
0.0412014 0.120389 0.483 255 255 255
0.0675071 -0.0815263 0.444 0 0 0
-0.0912616 -0.0511704 0.485 0 0 0
0.0403359 -0.0376286 0.464 255 255 255
-0.220182 0.033444 0.418 255 255 255
0.108021 0.0281844 0.466 0 0 0
-0.176624 0.0981338 0.407 255 255 255
-0.166537 0.118938 0.427 255 255 255
-0.289988 -0.224742 0.875 255 255 255
-0.15703 0.0996903 0.422 255 255 255
0.0115857 0.0779136 0.531 255 255 255
0.127378 -0.0766776 0.429 0 0 0
0.158104 -0.0459602 0.429 0 0 0
-0.101405 -0.0313449 0.496 255 255 255
0.0160463 -0.132346 0.44 0 0 0
-0.027016 -0.00067033 0.494 0 0 0
0.169749 0.139625 0.471 255 255 255
-0.182761 0.00459664 0.678 255 255 255
-0.206687 -0.0115061 0.719 255 255 255
0.199049 0.00857268 0.433 255 255 255
-0.237751 -0.335623 0.882 255 255 255
0.14578 -0.0389055 0.436 255 255 255
-0.082341 0.126706 0.416 255 255 255
0.0753247 0.0430913 0.48 255 255 255
0.177008 0.0206938 0.436 255 255 255
-0.050506 -0.076075 0.473 255 255 255
-0.442531 -0.18983 0.942 255 255 255
-0.0176167 0.166237 0.44 255 255 255
0.0296253 0.0819244 0.529 255 255 255
0.197746 0.0721033 0.456 255 255 255
0.0017138 -0.139584 0.438 255 255 255
-0.00565093 -0.10548 0.457 255 255 255
0.150206 -0.127434 0.404 0 0 0
0.1901 -0.13518 0.394 255 255 255
0.199922 0.164768 0.438 255 255 255
0.0755249 -0.123861 0.428 255 255 255
0.11311 0.0151614 0.462 255 255 255
0.192614 -0.0517074 0.419 255 255 255
0.0439515 -0.092261 0.447 255 255 255
0.144598 0.0657635 0.469 0 0 0
-0.325873 -0.0580826 0.969 255 255 255
-0.133062 0.108873 0.522 255 255 255
0.0722421 0.150577 0.451 255 255 255
0.0548445 -0.0506681 0.459 255 255 255
-0.295038 -0.279505 0.807 255 255 255
-0.110909 0.0150768 0.51 0 0 0
-0.121675 0.0550913 0.625 255 255 255
0.180378 -0.151967 0.391 255 255 255
-0.00190181 0.144384 0.45 255 255 255
0.205268 0.135135 0.488 0 0 0
-0.469441 -0.122049 0.989 255 255 255
0.209295 -0.0389372 0.421 0 0 0
-0.248926 -0.268542 0.794 255 255 255
0.11888 -0.107009 0.414 255 255 255
-0.0949275 0.0860912 0.574 255 255 255
-0.140619 0.0537295 0.397 255 255 255
-0.0389941 -0.0509594 0.483 0 0 0
0.178631 0.0534604 0.449 255 255 255
0.0341424 -0.0881441 0.452 255 255 255
0.155218 -0.13938 0.395 0 0 0
-0.350592 -0.160859 0.934 255 255 255
-0.202637 0.122242 0.424 255 255 255
-0.43536 -0.159088 0.96 255 255 255
-0.354829 -0.350653 0.906 255 255 255
0.165754 0.0640301 0.462 255 255 255
-0.073884 -0.0112786 0.501 255 255 255
0.115616 0.0121015 0.46 255 255 255
0.154289 0.150349 0.457 0 0 0
-0.0728346 -0.0683778 0.473 255 255 255
0.103617 -0.0129726 0.447 255 255 255
0.134566 0.133572 0.474 255 255 255
-0.429325 -0.214654 0.93 255 255 255
-0.0978641 0.0891804 0.564 255 255 255
-0.219373 0.0393509 0.423 255 255 255
-0.408064 -0.213038 0.923 255 255 255
0.00666197 0.00330171 0.487 0 0 0
0.184906 -0.0657111 0.417 255 255 255
0.139746 -0.0873716 0.42 255 255 255
0.0587406 0.0474864 0.485 255 255 255
-0.221366 0.149298 0.445 255 255 255
-0.209806 0.0229794 0.439 255 255 255
0.0687235 -0.00975324 0.467 0 0 0
-0.405216 -0.295416 0.845 0 0 0
0.0444508 -0.146163 0.424 255 255 255
0.0533357 0.124069 0.479 0 0 0
0.124774 -0.0532175 0.437 255 255 255
-0.033974 -0.0958338 0.468 255 255 255
0.163985 0.0433742 0.443 255 255 255
-0.31809 -0.272999 0.819 0 0 0
0.0806738 0.148296 0.453 0 0 0
0.157053 0.0484533 0.45 255 255 255
-0.0846204 0.145715 0.497 0 0 0
-0.0619331 0.150257 0.478 255 255 255
0.0917593 0.0957624 0.52 255 255 255
-0.434647 -0.167584 0.955 255 255 255
0.0723781 -0.117442 0.43 255 255 255
-0.155686 0.139877 0.452 0 0 0
-0.00124725 -0.0272093 0.48 255 255 255
0.177324 -0.0850369 0.412 0 0 0
0.114103 -0.0631735 0.437 255 255 255
0.0645934 0.147884 0.454 0 0 0
0.10388 -0.130542 0.416 255 255 255
0.0809091 -0.119402 0.427 255 255 255
-0.338826 -0.104519 0.961 255 255 255
0.112878 0.14747 0.455 0 0 0
0.184176 0.0440951 0.443 255 255 255
0.113088 -0.122125 0.415 255 255 255
0.0805977 -0.0156295 0.461 0 0 0
-0.045974 0.0398181 0.508 0 0 0
-0.313046 -0.208786 0.892 255 255 255
-0.13024 0.139796 0.469 0 0 0
0.104638 -0.145694 0.411 255 255 255
0.189784 -0.0298336 0.428 0 0 0
0.217349 0.0802974 0.452 255 255 255
0.0202512 0.166907 0.438 255 255 255
-0.20554 0.0403981 0.45 255 255 255
-0.430394 -0.244902 0.913 255 255 255
0.14429 0.0861862 0.468 255 255 255
-0.0887581 -0.0693897 0.48 0 0 0
-0.220966 -0.00702965 0.489 255 255 255
0.119168 -0.111319 0.415 255 255 255
-0.00115371 0.1598 0.444 255 255 255
0.079346 0.0342115 0.476 255 255 255
0.108704 -0.0136081 0.444 255 255 255
-0.221407 -0.0460441 0.516 255 255 255
0.122881 -0.0114147 0.443 255 255 255
0.094173 -0.0998798 0.418 255 255 255
0.0136833 -0.0045854 0.483 255 255 255
-0.0503954 -0.128816 0.458 255 255 255
0.144161 -0.143748 0.4 255 255 255
0.0120046 0.0926228 0.512 255 255 255
-0.183474 0.115596 0.415 0 0 0
0.19923 0.151504 0.456 255 255 255
-0.150519 0.104656 0.437 0 0 0
-0.214201 0.00314578 0.464 0 0 0
-0.0721259 -0.143945 0.454 255 255 255
0.0553615 0.0873003 0.52 255 255 255
0.145602 -0.130721 0.404 255 255 255
0.0511761 0.0926228 0.512 255 255 255
0.234376 0.144836 0.473 255 255 255
-0.0703217 0.102948 0.564 255 255 255
0.144252 0.164089 0.44 255 255 255
0.0598491 0.00940421 0.475 255 255 255
-0.0513133 -0.0340159 0.488 255 255 255
-0.0784653 -0.16683 0.448 0 0 0
0.118632 0.0546627 0.472 255 255 255
0.121576 -0.105661 0.414 255 255 255
-0.176719 0.0482788 0.629 255 255 255
0.111397 0.14821 0.455 255 255 255
0.174106 -0.119905 0.403 255 255 255
-0.230391 0.00167087 0.474 255 255 255
-0.112288 0.120941 0.505 255 255 255
-0.0740366 0.145311 0.415 255 255 255
0.191932 -0.0438368 0.422 0 0 0
0.133105 -0.134011 0.406 255 255 255
-0.0171906 -0.00941695 0.489 255 255 255
0.111123 0.00536438 0.46 0 0 0
-0.199656 0.127372 0.425 255 255 255
0.142224 0.129525 0.479 255 255 255
-0.109343 0.0916992 0.557 255 255 255
-0.000421254 -0.157379 0.434 255 255 255
-0.101525 -0.0480134 0.485 255 255 255
-0.0940251 0.0268529 0.513 255 255 255
-0.0921331 0.112665 0.536 255 255 255
0.0156767 -0.0375092 0.472 0 0 0
-0.185936 0.0281974 0.454 255 255 255
0.189194 -0.104165 0.403 255 255 255
-0.0370624 -0.160252 0.45 255 255 255
-0.372352 -0.306381 0.83 255 255 255
0.119912 0.042014 0.468 255 255 255
-0.190607 0.104862 0.41 255 255 255
-0.179465 0.106044 0.412 255 255 255
-0.170103 0.110045 0.417 255 255 255
-0.193404 0.151852 0.444 255 255 255
0.0718035 0.162224 0.435 255 255 255
-0.201574 -0.0395551 0.519 255 255 255
0.0744847 0.13936 0.465 255 255 255
0.134076 -0.108909 0.411 255 255 255
-0.280089 -0.257066 0.841 0 0 0
0.208713 0.0427867 0.437 255 255 255
0.0503615 -0.0476803 0.459 255 255 255
-0.249393 -0.0157185 0.487 255 255 255
-0.196197 0.164028 0.425 255 255 255
0.0402232 0.149633 0.446 255 255 255
-0.167789 0.15506 0.447 255 255 255
0.00946929 -0.165854 0.434 255 255 255
-0.0758165 -0.00723091 0.503 255 255 255
-0.272809 -0.0782775 0.928 255 255 255
-0.0351993 0.0114343 0.496 255 255 255
0.165117 -0.0966338 0.41 0 0 0
0.00405505 0.136661 0.461 255 255 255
-0.0352807 -0.0378309 0.486 255 255 255
0.0903952 0.036305 0.473 255 255 255
-0.152196 0.0530572 0.625 255 255 255
0.0848802 -0.123975 0.426 255 255 255
0.0886076 0.0704304 0.48 255 255 255
-0.0404368 0.149691 0.455 255 255 255
0.0798461 0.127186 0.479 255 255 255
-0.281461 -0.273858 0.802 255 255 255
0.100543 0.140267 0.463 0 0 0
0.0176007 -0.0765613 0.462 255 255 255
-0.357426 -0.163548 0.932 255 255 255
-0.131767 0.139796 0.469 0 0 0
-0.0269264 0.153117 0.452 255 255 255
-0.159012 0.14177 0.451 0 0 0
0.0835232 0.0108119 0.469 255 255 255
-0.16414 0.0160519 0.445 255 255 255
-0.2105 0.00881026 0.445 255 255 255
0.208107 -0.0110025 0.427 255 255 255
0.0176145 -0.000655404 0.483 255 255 255
0.0114111 0.0843996 0.523 255 255 255
-0.0697793 -0.138505 0.458 255 255 255
-0.126055 0.0593429 0.4 255 255 255
0.114824 0.138269 0.469 0 0 0
-0.00114331 -0.125901 0.44 255 255 255
0.191249 -0.0517074 0.419 255 255 255
0.025828 0.124578 0.475 255 255 255
-0.030165 -0.0920258 0.468 255 255 255
-0.214602 0.152231 0.443 255 255 255
0.0827999 -0.128135 0.426 255 255 255
-0.205121 -0.0289666 0.511 0 0 0
-0.196126 -0.0403218 0.518 255 255 255
0.158585 0.0992124 0.472 255 255 255
0.221027 0.0979507 0.452 255 255 255
0.132948 0.0599122 0.471 0 0 0
0.210756 0.136163 0.486 255 255 255
0.130857 0.0543152 0.469 255 255 255
0.0351868 -0.0688885 0.456 255 255 255
-0.000421254 -0.155966 0.434 255 255 255
0.168551 -0.00700927 0.438 255 255 255
0.139392 -0.0467101 0.436 0 0 0
-0.112733 -0.00893853 0.507 255 255 255
0.149671 -0.0340167 0.437 255 255 255
0.230168 0.151836 0.457 255 255 255
0.192621 0.0391412 0.436 255 255 255
0.210479 -0.00407275 0.429 0 0 0
-0.192606 0.039192 0.648 255 255 255
0.00507649 0.0017167 0.487 0 0 0
0.0539795 -0.0520483 0.458 255 255 255
0.0458347 -0.0021859 0.474 255 255 255
0.0189972 -0.113527 0.442 255 255 255
-0.403685 -0.161728 0.948 255 255 255
0.0618651 0.115191 0.491 255 255 255
-0.170359 0.0612641 0.596 255 255 255
0.251229 0.139965 0.537 255 255 255
0.0572928 -0.159208 0.422 255 255 255
0.143377 0.0636092 0.47 0 0 0
-0.0294369 -0.0484001 0.481 255 255 255
-0.51965 -0.139959 1.002 255 255 255
-0.171417 0.104703 0.412 255 255 255
0.0500467 -0.0330268 0.463 255 255 255
-0.157415 0.0545458 0.389 255 255 255
0.0788238 -0.108979 0.427 255 255 255
0.200111 0.0591736 0.448 255 255 255
-0.155042 0.0573714 0.391 255 255 255
0.00188987 0.119603 0.483 255 255 255
0.0186293 0.0224136 0.489 255 255 255
0.0091887 0.0315494 0.495 255 255 255
-0.0911455 0.146719 0.404 255 255 255
0.17133 0.0157272 0.436 255 255 255
0.111844 -0.153262 0.408 255 255 255
-0.218013 0.155495 0.434 255 255 255
-0.170555 0.0845174 0.399 255 255 255
-0.107781 -0.00316314 0.507 0 0 0
-0.455592 -0.248926 0.928 255 255 255
0.00405505 -0.0861482 0.461 255 255 255
-0.0250445 -0.0736099 0.472 255 255 255
-0.00567566 -0.0962316 0.459 255 255 255
-0.0569147 0.0987477 0.577 255 255 255
-0.203601 0.0875489 0.404 255 255 255
0.192825 -0.108869 0.401 255 255 255
0.182924 -0.150694 0.391 255 255 255
-0.0383799 0.0289568 0.506 255 255 255
-0.0824214 -0.123175 0.462 0 0 0
-0.199252 0.0518347 0.383 255 255 255
0.0517758 0.0810639 0.518 255 255 255
-0.240556 -0.0077134 0.482 0 0 0
0.0303807 -0.149631 0.43 255 255 255
-0.170799 0.041206 0.459 255 255 255
-0.441842 -0.271037 0.906 255 255 255
0.183994 -0.0996552 0.406 255 255 255
-0.0435349 0.0123155 0.499 255 255 255
-0.302485 -0.125497 0.931 255 255 255
0.139577 0.0308158 0.46 255 255 255
0.142136 -0.0984876 0.415 255 255 255
0.108717 0.135979 0.469 255 255 255
-0.186235 -0.00790543 0.494 255 255 255
0.124198 -0.0356823 0.44 255 255 255
0.096421 0.124328 0.48 255 255 255
0.149562 0.00300341 0.443 255 255 255
0.193596 0.0333884 0.435 255 255 255
-0.325329 -0.152111 0.927 255 255 255
0.0330246 0.113362 0.49 255 255 255
0.018195 -0.128049 0.44 255 255 255
0.00408144 -0.0776478 0.464 255 255 255
-0.532395 -0.115575 1.017 255 255 255
-0.443593 -0.192691 0.941 255 255 255
-0.354892 -0.240074 0.895 255 255 255
-0.215231 0.0220443 0.64 255 255 255
-0.0558971 0.0307246 0.508 0 0 0
0.197819 -0.14296 0.389 255 255 255
-0.111239 0.0888642 0.562 255 255 255
-0.363835 -0.291462 0.826 255 255 255
0.0897563 0.104298 0.504 255 255 255
0.0100148 0.136815 0.459 255 255 255
0.19532 0.129824 0.495 255 255 255
-0.0129945 -0.0327452 0.481 255 255 255
0.0821798 0.114056 0.493 255 255 255
-0.166498 0.132088 0.436 255 255 255
0.0390839 0.116391 0.486 255 255 255
-0.157007 0.0678651 0.586 255 255 255
0.151328 -0.088316 0.418 0 0 0
0.125315 0.0934555 0.486 255 255 255
0.0994308 -0.0948793 0.423 255 255 255
0.0444508 -0.164102 0.424 255 255 255
-0.252969 -0.330565 0.88 255 255 255
0.0754938 -0.0901001 0.44 0 0 0
0.0966219 0.0768391 0.481 255 255 255
0.0928053 0.141468 0.462 255 255 255
-0.174183 0.125887 0.427 0 0 0
0.165699 -0.00772204 0.438 255 255 255
0.0325709 -0.0546398 0.461 0 0 0
0.0234053 0.113131 0.489 255 255 255
-0.185942 -0.00225507 0.489 255 255 255
0.0124432 -0.0559908 0.466 0 0 0
0.186436 -0.0507041 0.422 0 0 0
0.145998 0.0255202 0.459 255 255 255
-0.20646 0.158996 0.432 255 255 255
-0.228267 -0.252596 0.822 0 0 0
0.108923 0.126671 0.48 255 255 255
-0.0154558 0.13441 0.461 0 0 0
0.000298356 -0.111437 0.454 255 255 255
0.224905 0.0679222 0.448 255 255 255
-0.198696 -0.0115861 0.724 255 255 255
0.134478 -0.00279504 0.448 255 255 255
0.0968089 -0.0800573 0.436 255 255 255
-0.162712 0.0577697 0.6 255 255 255
-0.201259 0.024853 0.447 255 255 255
-0.439126 -0.11847 0.986 255 255 255
-0.193467 -0.26516 0.784 255 255 255
-0.170948 0.140379 0.442 255 255 255
-0.198828 -0.249844 0.78 255 255 255
-0.11219 0.0914935 0.404 255 255 255
-0.174074 0.054672 0.609 255 255 255
-0.109431 0.000137085 0.507 255 255 255
-0.0751118 -0.0175167 0.493 255 255 255
-0.196027 0.000897619 0.473 255 255 255
0.171723 -0.00130413 0.437 255 255 255
-0.0618972 -0.0203277 0.503 255 255 255
0.0348318 0.0450606 0.493 0 0 0
0.187067 0.00223098 0.433 255 255 255
0.0283187 -0.0898135 0.453 0 0 0
-0.197621 0.00884985 0.447 255 255 255
-0.118446 0.0752363 0.584 255 255 255
-0.173974 0.0954845 0.407 0 0 0
-0.0541522 -0.0574326 0.478 255 255 255
-0.112154 0.0888642 0.562 255 255 255
0.0509115 -0.0113697 0.471 255 255 255
-0.0922714 0.142241 0.499 0 0 0
0.174329 -0.126803 0.402 255 255 255
0.1842 -0.101387 0.405 255 255 255
0.150038 -0.0360674 0.436 0 0 0
0.22397 0.0854463 0.452 0 0 0
-0.0607768 0.0763446 0.578 255 255 255
-0.0447975 -0.0175878 0.495 0 0 0
-0.0191381 -0.0457647 0.478 0 0 0
0.212441 0.0184375 0.433 255 255 255
0.144256 0.144788 0.463 255 255 255
-0.19449 0.052184 0.381 255 255 255
-0.144854 0.0698914 0.587 255 255 255
-0.395359 -0.104669 0.977 255 255 255
0.161421 0.000831199 0.438 255 255 255
-0.12898 0.0791706 0.395 255 255 255
-0.015258 0.0832946 0.601 255 255 255
0.0255113 0.0816765 0.533 255 255 255
-0.062038 0.0843046 0.581 255 255 255
0.204875 0.0886226 0.457 0 0 0
0.0348781 0.146497 0.452 255 255 255
0.0149489 0.1057 0.499 255 255 255
-0.121617 0.145661 0.416 255 255 255
-0.139614 0.143652 0.45 0 0 0
-0.164936 -0.108956 0.664 255 255 255
-0.356989 -0.346936 0.904 255 255 255
0.188019 0.127113 0.497 255 255 255
-0.0518468 0.111739 0.553 255 255 255
-0.149396 0.0642276 0.398 255 255 255
0.114355 0.0273084 0.464 255 255 255
0.114439 -0.11267 0.415 255 255 255
0.11157 -0.154211 0.407 255 255 255
0.0540081 0.147233 0.452 255 255 255
0.0171767 0.040247 0.493 255 255 255
-0.151139 0.0903038 0.554 255 255 255
-0.479252 -0.139329 0.986 255 255 255
-0.247651 -0.0223303 0.493 255 255 255
-0.29005 -0.135956 0.93 255 255 255
-0.308272 -0.194924 0.895 255 255 255
0.158577 -0.0142015 0.44 255 255 255
0.193411 0.00152634 0.433 255 255 255
0.16965 0.018693 0.439 255 255 255
0.0343392 -0.149281 0.427 255 255 255
0.195737 0.144599 0.46 255 255 255
0.193375 0.154246 0.451 255 255 255
0.120114 -0.0813744 0.428 0 0 0
0.0441047 0.130704 0.472 255 255 255
-0.167533 0.130369 0.435 255 255 255
-0.0891917 -0.080864 0.474 0 0 0
-0.0688651 -0.152137 0.452 255 255 255
0.241044 0.1436 0.474 255 255 255
0.126487 0.00680185 0.456 0 0 0
-0.00210044 0.0260154 0.497 255 255 255
0.150698 -0.00346115 0.44 255 255 255
-0.16419 -0.0934041 0.661 255 255 255
0.0807196 -0.132294 0.426 255 255 255
0.0385292 0.0407162 0.489 0 0 0
-0.193115 0.00532939 0.457 255 255 255
-0.0612681 -0.0659905 0.467 255 255 255
0.0697401 -0.116312 0.431 255 255 255
0.153563 0.000834994 0.44 255 255 255
-0.484355 -0.186819 0.958 255 255 255
-0.0399036 0.154293 0.449 255 255 255
-0.352848 -0.306867 0.835 255 255 255
0.129975 -0.0618907 0.433 255 255 255
-0.0264498 -0.163895 0.444 255 255 255
0.181682 0.0278527 0.437 255 255 255
-0.280031 -0.0881855 0.937 255 255 255
0.134417 -0.113314 0.41 255 255 255
0.0504642 -0.000643191 0.474 255 255 255
0.000285213 -0.160204 0.434 255 255 255
-0.0754843 0.0779296 0.59 255 255 255
-0.0522144 0.135412 0.489 255 255 255
-0.0959561 0.0679839 0.604 255 255 255
0.125547 0.0592713 0.472 0 0 0
-0.369168 -0.265216 0.877 255 255 255
-0.0747614 0.143001 0.496 255 255 255
0.0848688 0.134166 0.468 0 0 0
-0.0768974 -0.1379 0.456 0 0 0
-0.0335384 -0.114904 0.462 255 255 255
0.20353 0.149513 0.459 255 255 255
-0.149203 0.146659 0.448 0 0 0
-0.0638381 0.131783 0.512 255 255 255
0.0300254 0.0722071 0.521 255 255 255
0.222007 0.0955322 0.451 0 0 0
-0.0147182 0.165859 0.439 255 255 255
-0.439593 -0.195338 0.939 255 255 255
0.181 -0.0374075 0.427 255 255 255
-0.144943 0.0829024 0.565 255 255 255
0.0690476 -0.0929642 0.44 0 0 0
0.0301224 0.139498 0.458 255 255 255
0.154192 -0.13235 0.399 0 0 0
0.185008 0.159436 0.445 0 0 0
0.177686 0.0440951 0.443 255 255 255
-0.000479492 0.0443481 0.494 0 0 0
-0.136099 0.154263 0.421 255 255 255
-0.335708 -0.32182 0.868 255 255 255
0.0368322 0.139498 0.458 255 255 255
0.165489 -0.107584 0.406 255 255 255
-0.0674938 -0.0737477 0.468 255 255 255
-0.424914 -0.233271 0.914 255 255 255
-0.0781093 -0.0790471 0.477 255 255 255
0.195975 -0.0574299 0.416 0 0 0
0.0748539 0.0511145 0.482 255 255 255
-0.0759673 -0.00232425 0.504 255 255 255
-0.142199 0.0639049 0.396 255 255 255
0.187416 -0.108486 0.402 255 255 255
0.0358503 0.142286 0.455 255 255 255
0.0664835 -0.0883518 0.442 0 0 0
0.0793327 -0.109417 0.426 255 255 255
0.184701 -0.076321 0.412 255 255 255
-0.0673805 -0.1337 0.462 255 255 255
-0.00967803 -0.0574798 0.472 255 255 255
-0.459256 -0.129044 0.981 255 255 255
0.205008 0.0983841 0.454 255 255 255
0.151806 -0.061033 0.427 255 255 255
0.00814917 0.165859 0.439 255 255 255
0.0391129 -0.155864 0.426 255 255 255
-0.0797303 0.131169 0.413 255 255 255
0.206864 0.0594378 0.45 255 255 255
-0.0504378 -0.0208099 0.495 0 0 0
-0.143204 0.0653583 0.397 255 255 255
0.164863 -0.148379 0.395 255 255 255
0.0160463 -0.135926 0.44 0 0 0
0.084681 -0.129217 0.425 255 255 255
0.163577 -0.149022 0.395 255 255 255
-0.492001 -0.165481 0.97 255 255 255
0.189182 -0.00411072 0.433 255 255 255
-0.18422 0.0739689 0.567 0 0 0
0.206645 -0.0157551 0.424 0 0 0
-0.177279 0.0539022 0.38 255 255 255
-0.253366 -0.0364507 0.511 0 0 0
-0.370286 -0.24061 0.897 255 255 255
-0.211872 0.0205514 0.433 255 255 255
-0.226244 -0.0287965 0.508 0 0 0
0.0168486 -0.078065 0.462 255 255 255
-0.429653 -0.306972 0.839 255 255 255
0.13392 0.162287 0.439 255 255 255
-0.0698958 0.102753 0.568 255 255 255
-0.285683 -0.148816 0.916 255 255 255
-0.13884 0.158373 0.421 255 255 255
0.033097 0.0883082 0.516 255 255 255
-0.156267 0.0892409 0.553 255 255 255
0.106572 0.011427 0.463 255 255 255
0.111334 0.023533 0.464 255 255 255
0.144187 -0.0804237 0.423 0 0 0
-0.197024 0.0914935 0.404 255 255 255
-0.377766 -0.292577 0.833 255 255 255
0.144767 0.158343 0.446 255 255 255
0.183397 -0.0188207 0.431 0 0 0
-0.129874 0.108198 0.41 0 0 0
-0.205533 0.15763 0.436 255 255 255
0.00193291 0.111072 0.494 255 255 255
0.0795189 -0.122182 0.427 255 255 255
-0.0915199 0.0185047 0.513 0 0 0
0.135796 0.143144 0.465 255 255 255
0.0176774 0.148573 0.445 255 255 255
-0.00193985 -0.0954847 0.459 255 255 255
0.180661 0.158712 0.445 0 0 0
0.0416399 0.124848 0.479 0 0 0
-0.514636 -0.171445 0.977 255 255 255
-0.434998 -0.278972 0.889 255 255 255
0.0210121 0.163716 0.439 255 255 255
0.105657 -0.101189 0.415 255 255 255
0.0418673 -0.063694 0.456 255 255 255
-0.0968793 0.0871932 0.569 255 255 255
0.0923131 0.0292533 0.471 0 0 0
-0.220998 0.00465594 0.464 0 0 0
-0.0367808 0.0784045 0.601 255 255 255
0.209569 0.00851328 0.43 255 255 255
-0.215694 0.0125016 0.688 255 255 255
0.0686909 0.152878 0.447 255 255 255
0.164756 -0.129098 0.401 255 255 255
-0.0933489 0.142468 0.405 255 255 255
0.130259 -0.0777099 0.427 0 0 0
0.159397 -0.0614388 0.425 255 255 255
-0.0433994 0.14895 0.455 255 255 255
-0.0176923 -0.0358762 0.481 255 255 255
-0.368222 -0.24943 0.892 255 255 255
-0.265577 -0.30762 0.856 255 255 255
-0.144286 0.0456734 0.4 255 255 255
-0.151364 0.0706298 0.405 0 0 0
-0.0858252 0.132217 0.41 255 255 255
0.0392311 -0.118808 0.435 255 255 255
0.155052 0.0827845 0.466 255 255 255
-0.0943677 0.101996 0.549 255 255 255
-0.061417 0.172132 0.446 255 255 255
-0.181427 0.162135 0.431 255 255 255
-0.0765845 0.14847 0.407 255 255 255
0.213021 0.161603 0.443 255 255 255
-0.0906848 0.0260181 0.513 255 255 255
0.166471 0.0824292 0.464 0 0 0
-0.376745 -0.248813 0.895 255 255 255
0.0260489 -0.103591 0.452 255 255 255
-0.00531504 0.0412158 0.495 0 0 0
0.163935 -0.133649 0.399 255 255 255
0.19641 -0.100886 0.403 255 255 255
0.154312 -0.127793 0.401 0 0 0
-0.140169 0.144098 0.438 255 255 255
0.0691862 0.137847 0.465 255 255 255
-0.351854 -0.273328 0.849 255 255 255
-0.39929 -0.285095 0.868 255 255 255
0.136719 0.0468393 0.463 255 255 255
-0.149588 0.0674899 0.402 0 0 0
0.213998 0.133028 0.501 0 0 0
0.0995801 -0.0545457 0.442 0 0 0
-0.00945248 -0.0929 0.461 255 255 255
0.145685 -0.027806 0.44 255 255 255
-0.0280905 -0.11864 0.459 255 255 255
-0.0757401 0.0704867 0.592 255 255 255
-0.01999 0.158712 0.445 255 255 255
0.101414 -0.118642 0.417 255 255 255
-0.073884 -0.0120939 0.501 255 255 255
-0.150493 0.11085 0.439 255 255 255
0.197597 -0.0495433 0.418 255 255 255
-0.0802806 -0.160252 0.45 0 0 0
0.199481 0.111661 0.46 255 255 255
0.0664835 0.156203 0.442 255 255 255
-0.195617 0.0351359 0.651 255 255 255
-0.00750318 -0.16836 0.435 255 255 255
-0.32417 -0.140194 0.928 255 255 255
0.0341424 -0.086673 0.452 255 255 255
0.220038 0.159425 0.447 255 255 255
0.120109 0.0165929 0.46 255 255 255
-0.170164 0.0214951 0.655 255 255 255
-0.0799017 -0.149931 0.452 0 0 0
0.144462 -0.110514 0.412 0 0 0
0.119135 0.082663 0.474 255 255 255
-0.376367 -0.298802 0.824 255 255 255
0.181941 -0.145069 0.393 255 255 255
-0.0610085 -0.0454574 0.483 255 255 255
0.0563161 0.0866204 0.521 255 255 255
-0.186401 0.113296 0.414 255 255 255
-0.0463713 -0.0620998 0.478 0 0 0
0.190078 0.159436 0.445 255 255 255
-0.0947082 0.140617 0.499 255 255 255
0.102486 -0.0865528 0.433 0 0 0
-0.0459222 -0.133288 0.458 255 255 255
0.0856461 0.151646 0.452 0 0 0
-0.331298 -0.278012 0.822 255 255 255
-0.0448192 0.171064 0.447 255 255 255
-0.417042 -0.143616 0.961 255 255 255
0.0205015 -0.0146195 0.477 255 255 255
0.179937 0.157987 0.445 0 0 0
-0.152369 0.0656876 0.399 255 255 255
0.205867 0.0297803 0.434 255 255 255
-0.0686583 0.090923 0.581 255 255 255
0.154981 0.0267328 0.442 255 255 255
0.186847 -0.124246 0.398 255 255 255
0.136491 0.0681982 0.47 255 255 255
0.157483 -0.0296137 0.435 0 0 0
-0.16684 0.0829834 0.401 255 255 255
0.0425961 0.0495707 0.49 0 0 0
0.0153301 -0.123037 0.44 255 255 255
0.0812356 0.128477 0.478 255 255 255
-0.191559 0.16341 0.427 255 255 255
0.125956 0.0394745 0.465 0 0 0
0.0851719 -0.115803 0.424 255 255 255
0.135363 0.123223 0.488 255 255 255
-0.197762 0.105118 0.411 255 255 255
-0.170426 0.0388803 0.458 255 255 255
0.150434 -0.107309 0.41 0 0 0
-0.470865 -0.161077 0.972 255 255 255
0.0193285 0.0838043 0.53 255 255 255
-0.0997318 0.118838 0.521 255 255 255
-0.0681097 -0.0637106 0.467 255 255 255
-0.205625 0.0328546 0.447 255 255 255
-0.0154223 0.135616 0.46 255 255 255
0.200922 0.029074 0.434 255 255 255
-0.322847 -0.0887879 0.96 255 255 255
-0.00113032 -0.166236 0.435 255 255 255
0.146234 -0.0905729 0.419 0 0 0
-0.17038 0.147314 0.45 255 255 255
-0.214876 0.0118724 0.425 255 255 255
0.198732 0.0817186 0.46 0 0 0
0.169482 0.155407 0.448 0 0 0
0.121843 0.112646 0.501 255 255 255
-0.176813 0.0235187 0.652 255 255 255
-0.403427 -0.310433 0.83 255 255 255
0.194009 -0.0837522 0.409 255 255 255
0.201998 -0.0804243 0.409 255 255 255
-0.114777 0.114379 0.52 255 255 255
0.177418 0.0784843 0.463 0 0 0
0.188912 -0.00553274 0.434 255 255 255
-0.00525062 0.00251951 0.489 0 0 0
0.0236924 0.0589374 0.495 255 255 255
-0.0691279 0.133233 0.508 255 255 255
0.174878 -0.0140724 0.436 0 0 0
-0.062581 -0.0430994 0.483 255 255 255
0.118566 -0.154493 0.406 255 255 255
0.050552 -0.0604594 0.454 0 0 0
-0.167824 0.0437784 0.638 255 255 255
0.16036 -0.0177412 0.439 0 0 0
-0.216101 0.0438043 0.433 255 255 255
0.028846 -0.164954 0.428 0 0 0
-0.306032 -0.168573 0.91 255 255 255
0.150284 0.160161 0.443 255 255 255
0.185662 0.0364697 0.438 255 255 255
-0.213559 0.0454224 0.435 255 255 255
-0.246283 -0.262103 0.798 255 255 255
-0.119708 0.0679391 0.595 255 255 255
-0.313341 -0.19244 0.897 255 255 255
-0.135067 0.0661468 0.394 255 255 255
-0.106892 0.126001 0.499 255 255 255
0.14893 -0.0948907 0.417 255 255 255
0.0823312 -0.0644746 0.446 255 255 255
-0.17284 0.0784438 0.566 0 0 0
-0.309673 -0.168944 0.912 255 255 255
-0.0141312 0.160161 0.443 255 255 255
0.151691 0.0599056 0.465 255 255 255
-0.009555 -0.0779825 0.466 0 0 0
-0.0864423 -0.0420433 0.489 255 255 255
0.103969 -0.151045 0.411 255 255 255
-0.242053 -0.0132862 0.485 255 255 255
0.054964 -0.0417956 0.46 255 255 255
0.00329746 -0.088207 0.46 255 255 255
-0.0233996 -0.154894 0.441 255 255 255
0.00099168 -0.156673 0.434 255 255 255
-0.00273384 0.13388 0.467 255 255 255
0.110652 -0.122419 0.416 255 255 255
-0.296893 -0.096832 0.947 255 255 255
0.150323 -0.00633963 0.441 255 255 255
-0.161783 0.0870878 0.408 255 255 255
-0.114678 0.117619 0.512 255 255 255
-0.0831318 0.0956946 0.57 255 255 255
-0.0717175 -0.0343107 0.481 255 255 255
-0.13598 0.0586077 0.63 255 255 255
-0.49835 -0.175985 0.967 255 255 255
0.0430609 -0.0235329 0.469 0 0 0
-0.134767 0.0605295 0.395 255 255 255
-0.372343 -0.297461 0.824 255 255 255
0.148962 -0.0892092 0.419 0 0 0
-0.19069 0.125099 0.422 255 255 255
-0.0903746 -0.012935 0.502 255 255 255
0.208516 -0.0130258 0.425 0 0 0
-0.395138 -0.27021 0.884 255 255 255
0.0541134 -0.141333 0.424 255 255 255
-0.0250445 0.121487 0.472 0 0 0
0.19984 -0.0521391 0.417 255 255 255
0.111329 -0.123096 0.416 255 255 255
0.0822354 -0.0966404 0.434 255 255 255
0.202341 0.0843446 0.458 255 255 255
0.114949 -0.0229492 0.443 255 255 255
-0.0809603 -0.0887834 0.471 0 0 0
-0.00469227 0.166526 0.437 255 255 255
0.200541 0.108431 0.459 255 255 255
-0.19073 0.0965713 0.406 255 255 255
-0.0864808 0.123331 0.423 255 255 255
-0.0530686 -0.01685 0.497 0 0 0
0.198683 -0.0567529 0.416 0 0 0
0.0916964 0.00390086 0.464 255 255 255
0.0682926 0.0407479 0.48 255 255 255
0.01947 0.143873 0.453 255 255 255
-0.137608 0.134911 0.476 0 0 0
-0.182119 0.0440998 0.587 255 255 255
-0.0415153 0.0934529 0.585 255 255 255
0.117141 -0.111994 0.415 255 255 255
0.0149582 0.0826288 0.528 255 255 255
0.0526467 -0.0241407 0.466 0 0 0
-0.163114 -0.0955554 0.661 255 255 255
0.123778 -0.063029 0.436 255 255 255
-0.110644 -0.0113687 0.505 255 255 255
-0.435934 -0.189629 0.941 255 255 255
0.0823174 -0.146834 0.42 0 0 0
0.0610153 -0.136503 0.424 255 255 255
-0.0951688 0.128881 0.41 255 255 255
0.15642 0.0274521 0.442 255 255 255
-0.0485106 0.084507 0.589 255 255 255
0.0612526 -0.0120589 0.468 0 0 0
-0.398184 -0.209579 0.921 255 255 255
0.0362692 -0.0930866 0.451 255 255 255
0.0299559 0.040966 0.492 255 255 255
-0.163049 0.0167383 0.444 255 255 255
0.0936844 0.0754301 0.482 255 255 255
-0.0694842 0.0917103 0.58 255 255 255
0.158802 -0.0494508 0.429 255 255 255
0.0461248 0.00633886 0.477 255 255 255
-0.383171 -0.254069 0.893 255 255 255
-0.0907219 0.0807999 0.583 255 255 255
0.0204581 0.0906513 0.515 255 255 255
0.015577 0.130637 0.469 255 255 255
-0.0718976 -0.05576 0.477 255 255 255
-0.271633 -0.112524 0.924 255 255 255
-0.308488 -0.252556 0.863 255 255 255
0.126293 -0.118462 0.414 255 255 255
-0.0592007 0.0833592 0.581 255 255 255
-0.0039627 -0.149955 0.435 255 255 255
-0.428244 -0.281231 0.887 255 255 255
-0.171994 0.0554292 0.382 255 255 255
0.03327 0.0166021 0.482 0 0 0
0.161532 0.0810935 0.465 0 0 0
-0.0425823 0.0240637 0.507 255 255 255
0.00944747 -0.159835 0.433 255 255 255
0.0434506 -0.0354395 0.465 255 255 255
-0.121512 0.131418 0.486 255 255 255
0.033201 0.00560927 0.481 255 255 255
-0.184937 0.0132439 0.448 255 255 255
0.182228 -0.0739966 0.414 255 255 255
0.00453444 -0.165528 0.435 255 255 255
0.199086 -0.141061 0.389 255 255 255
-0.0434948 -0.143837 0.456 255 255 255
-0.0882738 0.151283 0.397 255 255 255
0.0853041 0.0500169 0.479 0 0 0
0.141711 -0.0695339 0.428 255 255 255
-0.0549083 0.105155 0.566 255 255 255
0.0391595 0.10932 0.497 255 255 255
0.0910432 -0.028911 0.446 255 255 255
-0.161431 0.0777967 0.568 255 255 255
-0.189762 0.0573845 0.596 255 255 255
-0.356944 -0.10097 0.972 255 255 255
0.11417 0.161941 0.44 255 255 255
-0.0302325 0.00817257 0.494 255 255 255
-0.0456488 -0.163914 0.448 255 255 255
0.0884705 -0.140683 0.42 0 0 0
0.211298 0.0348041 0.435 255 255 255
0.153056 0.0540215 0.46 255 255 255
0.0327178 -0.0168416 0.474 255 255 255
-0.0282369 0.121231 0.474 255 255 255
-0.183372 0.0640093 0.385 255 255 255
-0.393428 -0.23225 0.91 255 255 255
-0.0911384 0.0584971 0.618 255 255 255
-0.159645 -0.0782262 0.66 255 255 255
-0.354872 -0.0933485 0.975 255 255 255
0.181862 0.0987207 0.459 255 255 255
-0.414121 -0.106585 0.98 255 255 255
-0.0781592 -0.108019 0.468 0 0 0
0.0826561 -0.0800758 0.44 255 255 255
-0.0294284 0.0105843 0.494 255 255 255
0.162291 -0.148379 0.395 255 255 255
-0.45696 -0.208645 0.937 255 255 255
-0.152222 0.0907628 0.422 255 255 255
0.2011 -0.110645 0.398 255 255 255
-0.00640883 0.138753 0.458 255 255 255
-0.150841 0.0605295 0.395 255 255 255
-0.114906 0.0910406 0.402 255 255 255
-0.0347099 0.155407 0.448 255 255 255
-0.0861723 0.0392217 0.511 255 255 255
-0.179327 0.0430081 0.642 255 255 255
0.111725 -0.15001 0.41 255 255 255
0.0964833 0.160156 0.441 255 255 255
0.0222394 0.11989 0.481 255 255 255
-0.471338 -0.278409 0.906 255 255 255
0.0658235 -0.00748936 0.468 255 255 255
-0.0896141 0.134892 0.406 255 255 255
0.0949714 -0.0533475 0.444 0 0 0
0.0231559 0.154429 0.439 255 255 255
0.105567 -0.0709961 0.437 255 255 255
0.210995 0.0654413 0.451 255 255 255
-0.0900526 0.135878 0.405 255 255 255
0.0905491 -0.00814517 0.462 0 0 0
-0.131195 0.118476 0.505 255 255 255
0.13093 0.105747 0.511 255 255 255
0.0783117 -0.120378 0.428 255 255 255
-0.238088 -0.0357406 0.525 255 255 255
-0.184867 0.0566986 0.599 255 255 255
0.147785 -0.14476 0.401 255 255 255
0.156621 -0.11116 0.407 255 255 255
-0.410418 -0.254538 0.905 255 255 255
0.082536 0.102862 0.505 255 255 255
-0.108378 0.0667791 0.602 255 255 255
-0.164154 0.144064 0.449 255 255 255
-0.0218643 -0.158478 0.439 255 255 255
-0.119157 0.105764 0.532 255 255 255
-0.26533 -0.0763537 0.923 255 255 255
0.0608189 0.0953933 0.509 255 255 255
0.0803669 0.139815 0.464 0 0 0
-0.224378 -0.00949398 0.493 255 255 255
-0.314851 -0.197394 0.893 255 255 255
-0.133725 0.155263 0.42 255 255 255
0.0368393 -0.0977885 0.449 255 255 255
-0.257582 -0.0205576 0.489 255 255 255
0.0496308 0.16063 0.427 255 255 255
-0.00752043 -0.14888 0.436 255 255 255
0.131106 0.00381679 0.454 0 0 0
0.213468 0.164768 0.438 255 255 255
0.126772 0.159078 0.444 255 255 255
-0.0278325 -0.170014 0.443 255 255 255
0.076106 0.0469969 0.48 0 0 0
-0.407576 -0.124697 0.972 255 255 255
-0.181622 -0.0120456 0.499 255 255 255
0.0412246 -0.0773297 0.449 255 255 255
-0.472003 -0.119071 0.991 255 255 255
-0.148108 0.154761 0.43 255 255 255
0.0080273 -0.0353541 0.474 0 0 0
0.175441 0.129046 0.489 255 255 255
-0.263678 -0.172496 0.892 255 255 255
-0.17758 -0.0229192 0.506 255 255 255
-0.0375456 -0.00308827 0.495 0 0 0
0.0978099 0.121961 0.483 255 255 255
-0.0885743 -0.035896 0.492 0 0 0
-0.0598757 -0.093549 0.468 255 255 255
-0.197553 0.0702764 0.392 0 0 0
-0.074819 -0.159539 0.448 0 0 0
0.0241023 0.115838 0.487 255 255 255
-0.333464 -0.266911 0.855 255 255 255
0.0672299 0.0320216 0.478 255 255 255
0.0586667 -0.157834 0.422 255 255 255
0.0326322 0.0842382 0.522 255 255 255
0.156261 -0.0640542 0.424 0 0 0
-0.101098 0.151782 0.407 255 255 255
0.197428 -0.0111055 0.431 0 0 0
0.0829362 0.0146591 0.47 255 255 255
0.180571 0.162324 0.443 0 0 0
-0.448039 -0.221743 0.928 255 255 255
-0.000456197 -0.0564714 0.47 255 255 255
-0.00487481 0.139757 0.454 255 255 255
-0.0687894 -0.0236921 0.488 255 255 255
-0.0789939 0.0201744 0.513 255 255 255
0.200452 -0.10935 0.398 255 255 255
-0.1014 -0.00560494 0.504 0 0 0
-0.116596 0.156791 0.415 255 255 255
0.129301 -0.128878 0.415 0 0 0
-0.352057 -0.182006 0.918 255 255 255
0.210696 -0.0597041 0.413 255 255 255
-0.049632 -0.0175878 0.495 0 0 0
-0.187464 -0.0278597 0.506 255 255 255
0.160018 0.0818502 0.465 255 255 255
0.0925726 -0.137266 0.42 0 0 0
-0.482168 -0.103048 0.992 255 255 255
-0.160232 -0.0908386 0.658 255 255 255
-0.296105 -0.129902 0.93 255 255 255
0.00872164 0.065509 0.515 255 255 255
0.0977525 -0.154468 0.413 255 255 255
0.0322571 0.0883082 0.516 255 255 255
-0.190688 0.116551 0.416 255 255 255
-0.241058 -0.312944 0.863 255 255 255
-0.214401 0.0372896 0.431 255 255 255
-0.0654747 -0.151333 0.454 255 255 255
0.112376 -0.00211672 0.459 0 0 0
0.10413 -0.135606 0.417 0 0 0
-0.278767 -0.245508 0.858 255 255 255
0.114837 -0.107682 0.414 255 255 255
-0.113856 0.1102 0.41 255 255 255
0.126485 -0.0490627 0.438 255 255 255
0.173515 0.0490763 0.449 255 255 255
-0.0761906 0.0275798 0.511 0 0 0
0.169127 0.099581 0.463 255 255 255
-0.437847 -0.312433 0.839 255 255 255
0.183397 -0.0216262 0.431 0 0 0
-0.00604662 0.00411104 0.489 0 0 0
0.0398063 -0.162103 0.426 0 0 0
-0.268205 -0.333129 0.883 255 255 255
0.021278 -0.0138433 0.477 255 255 255
-0.432001 -0.137068 0.97 255 255 255
0.019226 -0.164006 0.431 255 255 255
-0.174015 0.0830102 0.398 255 255 255
-0.215252 0.0520316 0.437 255 255 255
-0.209082 0.051203 0.436 0 0 0
-0.088467 -0.0466264 0.487 0 0 0
0.00502437 -0.0155571 0.482 255 255 255
-0.0465245 0.129159 0.505 255 255 255
0.122627 -0.100701 0.413 255 255 255
0.158504 0.0833636 0.465 255 255 255
0.0708162 0.145567 0.456 255 255 255
0.0370854 -0.0771108 0.452 255 255 255
-0.165252 0.0294136 0.45 255 255 255
0.0530522 -0.0909192 0.444 255 255 255
-0.210965 -0.2493 0.807 0 0 0
-0.0739884 -0.121408 0.461 255 255 255
-0.043364 0.171791 0.447 255 255 255
0.0260143 -0.129187 0.439 255 255 255
0.221266 0.112421 0.454 255 255 255
-0.209535 -0.235207 0.822 255 255 255
-0.362215 -0.328312 0.874 255 255 255
-0.164709 0.0767258 0.399 255 255 255
-0.195276 0.0680139 0.39 255 255 255
0.105975 0.0949366 0.511 255 255 255
-0.474603 -0.290069 0.901 255 255 255
0.107008 -0.140359 0.415 255 255 255
-0.059965 -0.171166 0.446 255 255 255
-0.137209 0.0708466 0.587 255 255 255
-0.0876266 -0.00643786 0.505 255 255 255
0.195525 0.0106866 0.433 255 255 255
0.162702 -0.143599 0.396 255 255 255
0.156699 -0.0865395 0.416 0 0 0
-0.183181 0.0267018 0.652 255 255 255
-0.0265383 0.133536 0.458 255 255 255
0.183869 0.0478073 0.444 255 255 255
-0.157272 0.161178 0.436 0 0 0
0.104141 0.0589989 0.476 255 255 255
0.00383514 -0.145333 0.436 255 255 255
-0.0341939 0.031365 0.505 255 255 255
-0.36637 -0.269246 0.867 255 255 255
0.0124368 0.107486 0.496 255 255 255
0.191809 0.14163 0.465 255 255 255
-0.343224 -0.092774 0.969 255 255 255
-0.0133191 -0.0831121 0.465 0 0 0
0.0551872 -0.101808 0.438 255 255 255
0.161075 -0.0148836 0.439 255 255 255
-0.0904223 -0.0420433 0.489 0 0 0
-0.198131 0.100613 0.409 255 255 255
-0.000479492 0.110268 0.494 0 0 0
0.0300183 0.13112 0.468 255 255 255
0.0614348 0.141734 0.458 0 0 0
-0.233059 -0.0158476 0.491 255 255 255
0.0510884 0.110491 0.495 255 255 255
-0.00350151 0.13112 0.468 255 255 255
-0.213444 0.0866356 0.409 255 255 255
0.178742 -0.150186 0.393 255 255 255
0.188654 0.0641153 0.452 255 255 255
0.0540973 -0.0469334 0.459 255 255 255
0.111092 -0.0336866 0.442 255 255 255
-0.193605 0.135868 0.43 255 255 255
-0.489808 -0.26676 0.927 255 255 255
0.00640206 0.131882 0.468 255 255 255
-0.399665 -0.115206 0.972 255 255 255
-0.0242126 0.108033 0.539 255 255 255
-0.208159 0.120862 0.424 255 255 255
-0.0806073 0.154146 0.478 0 0 0
0.128479 -0.137976 0.406 255 255 255
-0.178834 0.0103969 0.451 255 255 255
0.0656332 -0.0760872 0.446 255 255 255
0.104081 -0.0123 0.449 255 255 255
-0.0186977 0.12932 0.467 255 255 255
0.138837 -0.0257162 0.441 255 255 255
0.143862 -0.0242809 0.441 255 255 255
0.0460473 -0.138533 0.426 255 255 255
0.109674 0.148623 0.454 255 255 255
0.014481 0.168273 0.436 255 255 255
-0.35383 -0.209722 0.896 255 255 255
-0.0513843 -0.070065 0.474 255 255 255
0.21488 0.0834238 0.453 0 0 0
-0.0160258 0.11992 0.478 255 255 255
-0.0957119 0.136831 0.5 0 0 0
-0.0989675 -0.0234611 0.5 0 0 0
0.206574 0.026249 0.434 255 255 255
-0.257458 -0.0330921 0.498 255 255 255
-0.037375 0.159436 0.445 255 255 255
0.189746 0.0764786 0.46 0 0 0
-0.446511 -0.296774 0.886 255 255 255
-0.291077 -0.207616 0.887 255 255 255
0.138522 -0.028522 0.44 255 255 255
0.0601011 0.023416 0.477 0 0 0
-0.0289518 -0.0275495 0.486 255 255 255
-0.282871 -0.185769 0.893 255 255 255
-0.139212 0.0899025 0.418 255 255 255
-0.118241 0.0717106 0.4 255 255 255
-0.217712 0.0479212 0.432 0 0 0
-0.0321546 0.0741259 0.606 255 255 255
0.144819 0.0308158 0.46 255 255 255
0.107266 -0.119711 0.416 255 255 255
0.181547 0.0798185 0.462 0 0 0
-0.0508634 0.0751075 0.583 255 255 255
0.119246 -0.0664239 0.435 255 255 255
-0.248082 -0.176504 0.883 255 255 255
-0.0019652 -0.0778152 0.465 0 0 0
0.0981548 0.113545 0.505 255 255 255
0.15642 0.0360835 0.442 255 255 255
0.0115825 0.0322896 0.494 255 255 255
-0.0528618 -0.124887 0.46 0 0 0
0.150733 -0.111706 0.409 0 0 0
-0.395674 -0.156049 0.951 255 255 255
-0.0182079 -0.155622 0.437 255 255 255
-0.0175421 0.0334284 0.499 255 255 255
-0.00507882 0.125593 0.473 255 255 255
-0.231507 0.129745 0.445 255 255 255
-0.0703756 -0.0920443 0.472 255 255 255
-0.110655 0.146627 0.413 255 255 255
0.122105 -0.137664 0.409 255 255 255
0.000304928 -0.0776478 0.464 0 0 0
0.0782563 -0.157157 0.413 255 255 255
0.177402 0.0698931 0.461 255 255 255
0.202335 0.0234239 0.434 255 255 255
-0.170229 0.1598 0.442 255 255 255
-0.0204841 0.138147 0.456 255 255 255
-0.210949 0.0431992 0.434 255 255 255
-0.438989 -0.131428 0.975 255 255 255
-0.00633102 0.0942892 0.512 255 255 255
-0.447612 -0.229809 0.924 255 255 255
0.00248772 -0.116055 0.449 255 255 255
0.0772139 -0.141353 0.422 255 255 255
-0.334299 -0.0783388 0.966 255 255 255
0.17177 0.100118 0.462 255 255 255
0.15428 -0.00274513 0.44 255 255 255
0.163244 0.0367195 0.441 255 255 255
0.168413 0.0621204 0.459 255 255 255
-0.448023 -0.291992 0.889 255 255 255
0.162051 -0.101057 0.409 0 0 0
0.0846987 -0.0602547 0.447 255 255 255
0.0860646 -0.127834 0.425 255 255 255
-0.0872155 0.0721742 0.598 255 255 255
0.191993 0.110913 0.46 255 255 255
0.0637429 0.159779 0.438 255 255 255
0.0835618 -0.0781048 0.441 255 255 255
0.0541154 0.0196168 0.479 0 0 0
0.0591982 -0.0520483 0.458 255 255 255
0.0132894 0.0803543 0.53 255 255 255
-0.282175 -0.107662 0.934 255 255 255
0.161386 -0.116258 0.404 255 255 255
-0.0856663 0.124055 0.518 255 255 255
0.108626 0.11332 0.504 255 255 255
0.121439 -0.0157402 0.443 255 255 255
0.193988 0.0492524 0.444 255 255 255
-0.151593 0.0856608 0.559 255 255 255
0.00916664 -0.110698 0.454 255 255 255
-0.0155735 0.160161 0.443 255 255 255
-0.25949 -0.261055 0.815 0 0 0
-0.057869 0.107493 0.559 255 255 255
-0.0689908 0.13792 0.501 255 255 255
-0.128357 0.126378 0.491 255 255 255
0.091733 0.0634003 0.48 0 0 0
-0.0764051 -0.119415 0.462 0 0 0
0.0121227 0.141974 0.454 255 255 255
-0.440721 -0.183326 0.948 255 255 255
-0.0553588 0.148541 0.475 255 255 255
0.101311 -0.0882572 0.431 0 0 0
-0.185449 0.0525269 0.379 255 255 255
0.139756 -0.119319 0.41 255 255 255
0.013866 -0.135617 0.439 255 255 255
-0.327084 -0.131698 0.932 255 255 255
0.0847702 -0.11045 0.422 255 255 255
0.0376539 -0.089951 0.45 255 255 255
-0.408227 -0.286408 0.872 255 255 255
-0.0748462 -0.0750083 0.476 255 255 255
0.178216 0.120316 0.499 255 255 255
0.0973248 0.132521 0.473 255 255 255
-0.283103 -0.236796 0.867 255 255 255
-0.0415496 0.152778 0.451 255 255 255
0.036064 0.15933 0.431 255 255 255
-0.153265 0.0570262 0.613 255 255 255
0.142308 0.0611842 0.469 255 255 255
0.0446895 -0.119671 0.433 255 255 255
-0.0280905 -0.120881 0.459 255 255 255
0.217349 0.101628 0.452 255 255 255
0.216764 0.00849348 0.429 255 255 255
0.127274 -0.127527 0.415 0 0 0
-0.00289775 0.109686 0.495 255 255 255
-0.0459657 -0.103766 0.466 255 255 255
0.112982 0.0875575 0.484 255 255 255
0.0168979 0.0127592 0.485 0 0 0
-0.0656263 0.155721 0.471 255 255 255
0.033766 0.0661741 0.501 255 255 255
-0.0719828 0.157632 0.444 255 255 255
-0.202532 0.0218452 0.445 255 255 255
0.236638 0.143431 0.476 255 255 255
0.0788929 -0.0741336 0.443 255 255 255
0.15926 0.130848 0.481 255 255 255
-0.362781 -0.161548 0.938 255 255 255
0.160489 0.145979 0.462 255 255 255
0.140312 0.00668252 0.448 255 255 255
0.168294 -0.149927 0.394 255 255 255
-0.0659702 -0.0608006 0.468 255 255 255
0.0919211 0.134453 0.469 255 255 255
0.116493 -0.141975 0.408 255 255 255
-0.224361 -0.0335134 0.517 255 255 255
0.063538 0.134166 0.468 255 255 255
-0.065682 0.127918 0.52 255 255 255
-0.152635 0.0994818 0.427 255 255 255
0.17365 0.0878979 0.461 255 255 255
0.130674 0.10969 0.51 255 255 255
-0.0359527 -0.0692937 0.474 255 255 255
0.154261 0.0310485 0.442 255 255 255
-0.0525398 0.127197 0.524 255 255 255
0.2037 0.162657 0.44 255 255 255
-0.111965 0.140438 0.479 0 0 0
-0.334869 -0.222845 0.896 255 255 255
-0.218921 0.155841 0.433 255 255 255
0.172138 -0.120561 0.403 255 255 255
0.0641624 0.1354 0.467 255 255 255
-0.394962 -0.213145 0.917 255 255 255
0.130817 0.00233402 0.453 0 0 0
0.0123616 0.025806 0.493 255 255 255
-0.167437 0.117413 0.424 255 255 255
0.000308214 -0.0601673 0.469 0 0 0
0.118887 0.142081 0.464 255 255 255
0.137806 -0.0321021 0.44 0 0 0
0.0111605 0.122517 0.476 255 255 255
-0.354475 -0.290404 0.823 255 255 255
0.190866 -0.110174 0.401 255 255 255
0.148225 0.0592761 0.466 255 255 255
-0.0676722 -0.128993 0.464 255 255 255
0.134425 -0.130688 0.408 255 255 255
0.0992399 0.14663 0.457 0 0 0
-0.13028 0.102007 0.535 255 255 255
0.158578 0.0188208 0.442 255 255 255
0.00534751 0.0928037 0.513 255 255 255
-0.0734067 0.0423815 0.509 255 255 255
0.133101 0.166795 0.434 255 255 255
0.18543 -0.0359334 0.426 255 255 255
-0.297188 -0.203514 0.888 255 255 255
-0.139557 0.084384 0.411 0 0 0
0.0526087 -0.155455 0.423 0 0 0
0.130941 -0.0242809 0.441 255 255 255
0.212496 0.139743 0.474 0 0 0
0.0131814 -0.132346 0.44 0 0 0
-0.33638 -0.184591 0.916 255 255 255
0.0981411 0.1598 0.442 0 0 0
0.0716781 0.163158 0.43 255 255 255
0.146918 -0.131379 0.404 0 0 0
-0.148556 0.0583474 0.606 255 255 255
-0.313789 -0.253434 0.866 255 255 255
-0.159451 0.0701225 0.581 255 255 255
0.143321 0.0338101 0.46 255 255 255
0.156453 0.128767 0.482 255 255 255
0.186362 0.000117077 0.433 255 255 255
0.0361001 0.0818463 0.523 255 255 255
0.10722 -0.00724931 0.453 0 0 0
0.0620379 0.00861306 0.474 255 255 255
-0.144062 0.145856 0.439 255 255 255
-0.0774949 0.154146 0.478 0 0 0
-0.0341192 -0.0847707 0.47 255 255 255
-0.18053 0.115874 0.416 0 0 0
0.214345 0.0234239 0.434 255 255 255
-0.34739 -0.200852 0.902 255 255 255
0.199827 0.156485 0.449 255 255 255
-0.00773233 0.0194665 0.495 255 255 255
0.0983708 0.0221652 0.467 255 255 255
-0.186811 0.0183882 0.449 255 255 255
0.0713764 0.111522 0.496 255 255 255
0.14409 0.152719 0.453 255 255 255
0.136553 0.0515819 0.465 255 255 255
-0.0610057 -0.0982463 0.465 255 255 255
-0.0414064 -0.0127031 0.493 0 0 0
0.0267132 -0.00996209 0.477 255 255 255
-0.161589 0.144384 0.45 0 0 0
-0.354345 -0.131858 0.944 255 255 255
0.190289 0.125374 0.503 0 0 0
0.0991766 0.0793519 0.482 255 255 255
0.0848496 -0.105574 0.419 255 255 255
0.128163 -0.150158 0.405 255 255 255
0.120159 0.0859293 0.475 255 255 255
0.0583041 -0.0979764 0.44 255 255 255
0.122737 0.131038 0.476 255 255 255
0.112427 0.0642859 0.475 0 0 0
0.0202975 0.163001 0.439 255 255 255
0.144841 -0.00710529 0.444 255 255 255
0.157861 -0.0170656 0.44 0 0 0
-0.0654811 0.0669386 0.578 255 255 255
-0.0282741 -0.114153 0.462 255 255 255
0.179692 0.0555284 0.448 255 255 255
-0.433093 -0.167584 0.955 255 255 255
0.139716 0.0209927 0.458 255 255 255
-0.129951 0.0787266 0.396 255 255 255
0.0326675 0.151887 0.442 255 255 255
-0.147075 0.158546 0.427 255 255 255
0.0965017 0.0291291 0.469 0 0 0
0.154837 -0.0733663 0.422 255 255 255
0.177786 0.104629 0.462 255 255 255
-0.16135 0.0886605 0.555 0 0 0
-0.321399 -0.232154 0.887 255 255 255
0.086996 -0.152452 0.413 255 255 255
0.0251211 -0.0547584 0.462 0 0 0
-0.138483 0.153255 0.422 255 255 255
0.0644511 0.101218 0.505 255 255 255
0.142007 -0.128409 0.405 255 255 255
0.054865 -0.0625378 0.453 0 0 0
0.148347 -0.15118 0.399 255 255 255
-0.0817001 0.104728 0.554 255 255 255
0.132148 0.154637 0.45 255 255 255
-0.0286242 0.00495697 0.494 255 255 255
-0.116579 0.0940769 0.401 255 255 255
0.0332068 0.130151 0.47 255 255 255
-0.148561 0.0781738 0.41 255 255 255
-0.00694056 0.1091 0.496 255 255 255
-0.060377 -0.0527654 0.478 255 255 255
-0.49839 -0.189937 0.958 255 255 255
0.0699019 -0.11377 0.432 255 255 255
-0.197488 0.0516994 0.382 255 255 255
-0.0338372 -0.028457 0.488 255 255 255
-0.00476743 -0.120543 0.444 255 255 255
-0.206802 -0.0217901 0.499 255 255 255
-0.109387 -0.0154164 0.503 255 255 255
-0.473771 -0.150931 0.978 255 255 255
-0.221654 0.130968 0.437 255 255 255
0.240744 0.140145 0.478 255 255 255
0.168936 0.165144 0.439 0 0 0
0.11749 0.118067 0.493 255 255 255
0.0773451 0.127699 0.478 255 255 255
-0.256863 -0.0424371 0.513 255 255 255
0.059104 0.117664 0.488 255 255 255
0.00172162 -0.133062 0.44 255 255 255
0.20978 0.00221037 0.429 255 255 255
-0.4374 -0.281548 0.888 255 255 255
-0.0522144 -0.0348814 0.489 255 255 255
-0.039298 -0.122375 0.459 0 0 0
0.139001 -0.0432615 0.437 0 0 0
-0.0974347 0.000137626 0.509 0 0 0
-0.140265 0.0658381 0.396 255 255 255
0.201296 0.135929 0.488 0 0 0
0.151998 0.122079 0.493 255 255 255
-0.361617 -0.12974 0.951 255 255 255
-0.167097 -0.0787003 0.664 255 255 255
0.077306 0.0155224 0.473 255 255 255
0.103703 0.147374 0.457 255 255 255
-0.226117 -0.0030134 0.483 255 255 255
-0.0589969 0.0783611 0.579 255 255 255
-0.323657 -0.31826 0.866 255 255 255
-0.204549 0.162399 0.428 255 255 255
-0.470704 -0.236095 0.931 255 255 255
-0.201628 0.0895212 0.404 255 255 255
-0.0221574 -0.0548685 0.476 255 255 255
-0.144018 0.139937 0.457 0 0 0
0.132445 -0.133351 0.406 255 255 255
-0.074215 0.151076 0.416 255 255 255
0.134424 -0.0481292 0.436 255 255 255
0.18088 -0.0760178 0.414 255 255 255
-0.175586 0.159438 0.441 255 255 255
0.106018 0.132801 0.474 255 255 255
0.140018 0.077975 0.469 255 255 255
0.151313 0.046976 0.457 255 255 255
-0.279058 -0.319046 0.872 255 255 255
-0.0726806 -0.0966529 0.472 255 255 255
0.208007 -0.0549994 0.413 0 0 0
-0.0195412 0.126821 0.469 0 0 0
-0.210575 0.0777629 0.401 255 255 255
-0.303499 -0.239527 0.877 255 255 255
0.136003 -0.0871636 0.419 255 255 255
-0.0174565 -0.158814 0.436 255 255 255
0.193343 -0.0830866 0.409 255 255 255
0.20607 0.00571428 0.43 255 255 255
-0.213057 -0.246466 0.815 0 0 0
0.0402853 0.0624562 0.491 255 255 255
-0.204529 0.0382861 0.451 255 255 255
