ply
format ascii 1.0
comment Created by Open3D
element vertex 1306
property double x
property double y
property double z
property uchar red
property uchar green
property uchar blue
end_header
-0.0869705 0.0298411 0.406 255 255 255
0.118631 0.115521 0.446 255 255 255
-0.0164917 0.0792247 0.517 255 255 255
-0.0549658 -0.00713963 0.642 255 255 255
-0.413569 -0.297424 1.022 255 255 255
-0.1858 -0.334001 0.874 255 255 255
-0.0805671 0.0936958 0.46 0 0 0
0.0690476 -0.145234 0.44 0 0 0
-0.0937733 0.135236 0.428 255 255 255
0.094884 0.0377791 0.514 255 255 255
0.0648974 -0.146282 0.441 0 0 0
-0.016074 0.0675443 0.531 255 255 255
0.209352 -0.0509669 0.413 0 0 0
0.0106693 -0.0539797 0.489 255 255 255
0.0944417 0.0734925 0.49 255 255 255
-0.136161 0.149544 0.401 255 255 255
0.224263 0.0417431 0.441 255 255 255
-0.0978609 0.0916589 0.45 255 255 255
0.198402 -0.0558063 0.414 0 0 0
0.103366 0.0876595 0.476 255 255 255
0.0377516 0.0590027 0.574 255 255 255
0.214951 0.144327 0.42 255 255 255
-0.501718 -0.313414 1.083 255 255 255
-0.505985 -0.372409 1.041 255 255 255
-0.125336 -0.0190862 0.454 255 255 255
-0.106938 -0.00372861 0.474 255 255 255
-0.232864 -0.33149 0.902 255 255 255
-0.13816 0.0881844 0.347 255 255 255
0.203793 -0.0382898 0.414 255 255 255
-0.185493 0.0546494 0.399 255 255 255
0.070648 0.15822 0.428 255 255 255
0.0897652 -0.0766438 0.458 255 255 255
0.121576 0.155066 0.414 255 255 255
0.106805 0.0378526 0.515 255 255 255
-0.424171 -0.269848 1.044 255 255 255
0.217978 0.0835163 0.488 255 255 255
0.0980557 0.14431 0.426 255 255 255
0.164033 0.143613 0.414 255 255 255
-0.179048 0.0307258 0.392 255 255 255
-0.551804 -0.356397 1.064 255 255 255
-0.0723004 0.145872 0.409 0 0 0
0.0234094 0.10789 0.473 255 255 255
0.118149 -0.128686 0.421 255 255 255
0.216626 0.0340024 0.443 255 255 255
0.0769868 0.109962 0.453 255 255 255
0.157822 0.0249891 0.463 0 0 0
-0.133132 -0.0620735 0.503 0 0 0
0.013315 -0.109246 0.47 255 255 255
0.167552 0.12212 0.441 255 255 255
0.0102966 0.0209421 0.608 255 255 255
-0.0405217 0.0354642 0.571 255 255 255
-0.202485 0.0670337 0.388 255 255 255
0.0148452 -0.110011 0.47 255 255 255
0.0699008 0.0859293 0.475 255 255 255
-0.19509 0.136187 0.375 255 255 255
-0.102318 0.0593133 0.423 0 0 0
0.202545 0.0899833 0.476 255 255 255
-0.0739726 -0.257067 0.864 255 255 255
0.0975751 0.152483 0.418 255 255 255
-0.00107835 0.155441 0.415 0 0 0
-0.584315 -0.235899 1.152 255 255 255
-0.00798227 -0.028135 0.511 0 0 0
0.115705 -0.100402 0.435 255 255 255
-0.168813 0.102835 0.345 255 255 255
0.0222854 0.0613181 0.561 255 255 255
-0.0330622 0.0489211 0.555 255 255 255
-0.529143 -0.144509 1.171 255 255 255
-0.105336 -0.302048 0.856 255 255 255
-0.139425 0.10032 0.356 255 255 255
-0.080474 0.122674 0.443 0 0 0
-0.0579603 -0.263044 0.856 255 255 255
0.125916 -0.0788225 0.441 0 0 0
-0.185052 0.137519 0.372 255 255 255
0.0183626 -0.0688944 0.482 255 255 255
0.118612 0.0696474 0.491 0 0 0
0.152213 0.0470948 0.481 255 255 255
-0.19363 -0.260163 0.925 255 255 255
0.0461927 0.0652014 0.563 255 255 255
-0.134122 -0.207087 0.93 255 255 255
-0.0737527 0.0252162 0.406 255 255 255
0.11064 0.102978 0.458 255 255 255
-0.202243 -0.25134 0.937 255 255 255
0.0151453 -0.144579 0.456 255 255 255
-0.055822 -0.0168 0.652 255 255 255
-0.156021 0.126021 0.365 255 255 255
0.0354954 -0.106921 0.46 255 255 255
-0.127023 0.151502 0.401 255 255 255
-0.0219008 0.0553371 0.547 255 255 255
-0.105475 0.036448 0.406 255 255 255
0.180202 -0.143424 0.392 255 255 255
0.199363 0.153672 0.405 255 255 255
0.105234 -0.150175 0.416 255 255 255
-0.452583 -0.319279 1.039 255 255 255
-0.0979238 -0.0497953 0.503 0 0 0
0.215288 0.141581 0.422 255 255 255
0.139415 0.159849 0.409 255 255 255
0.0203296 -0.0737659 0.473 255 255 255
0.191803 -0.00559648 0.439 255 255 255
0.187255 0.13353 0.427 255 255 255
0.171561 -0.0407861 0.426 255 255 255
-0.0103836 0.113924 0.409 255 255 255
0.0784106 -0.0898628 0.457 255 255 255
0.14351 -0.155464 0.4 255 255 255
0.122495 0.0411249 0.514 255 255 255
-0.472979 -0.236484 1.094 255 255 255
-0.0123638 -0.0846668 0.487 255 255 255
-0.24312 -0.300918 0.93 255 255 255
-0.0412628 0.0841105 0.501 255 255 255
-0.0772991 0.0902572 0.454 0 0 0
-0.172249 0.0661359 0.414 255 255 255
0.080552 0.00251436 0.488 255 255 255
0.0677688 -0.145564 0.441 0 0 0
0.206255 0.141938 0.419 0 0 0
-0.54626 -0.217315 1.143 255 255 255
-0.523564 -0.32184 1.07 255 255 255
0.20275 0.0490763 0.449 255 255 255
-0.0963345 0.0654332 0.427 255 255 255
-0.0814926 -0.00437654 0.461 255 255 255
-0.138331 0.15348 0.396 255 255 255
-0.290417 -0.324385 0.941 255 255 255
0.104537 -0.0361184 0.464 255 255 255
0.174045 -0.079283 0.417 0 0 0
-0.0191317 0.101774 0.411 255 255 255
0.0218258 -0.140126 0.456 255 255 255
-0.418172 -0.336017 1.013 255 255 255
0.0897152 0.0792196 0.486 0 0 0
0.124728 -0.0398604 0.455 255 255 255
0.0720684 -0.0538666 0.474 255 255 255
0.156033 -0.0346394 0.445 0 0 0
0.175767 -0.0220778 0.44 0 0 0
0.0665162 -0.112417 0.452 0 0 0
-0.554374 -0.160436 1.176 255 255 255
-0.158832 0.127558 0.366 255 255 255
0.0752395 0.113598 0.447 255 255 255
-0.00661428 0.0131982 0.616 255 255 255
-0.0744205 -0.0086659 0.45 255 255 255
-0.157324 0.096375 0.342 255 255 255
0.215431 0.0544324 0.445 255 255 255
0.0456317 -0.00229197 0.497 0 0 0
-0.015172 0.129951 0.395 255 255 255
0.224263 0.0403077 0.441 255 255 255
-0.16278 -0.19392 0.947 255 255 255
0.162934 -0.140665 0.395 255 255 255
-0.0752854 0.140894 0.422 255 255 255
-0.418997 -0.335029 1.015 255 255 255
-0.563047 -0.317176 1.096 255 255 255
-0.0783266 0.013094 0.399 255 255 255
0.046897 0.0822231 0.52 255 255 255
-0.118611 -0.252616 0.893 255 255 255
-0.419059 -0.22259 1.07 255 255 255
-0.314798 -0.205549 1.02 255 255 255
-0.334828 -0.324133 0.963 255 255 255
0.181322 -0.106133 0.403 0 0 0
0.164859 0.0945637 0.468 255 255 255
-0.362341 -0.362605 0.957 255 255 255
-0.320016 -0.335699 0.947 255 255 255
-0.02106 0.0694762 0.526 255 255 255
0.198553 -0.00979281 0.435 0 0 0
-0.124923 0.138198 0.418 255 255 255
-0.0369102 -0.00708402 0.637 255 255 255
0.1528 0.0683265 0.493 255 255 255
0.077098 -0.159754 0.429 255 255 255
-0.0611774 0.118063 0.434 255 255 255
-0.385314 -0.296925 1.009 255 255 255
0.00612931 0.0317357 0.588 255 255 255
0.0883368 -0.0944432 0.447 0 0 0
-0.241774 -0.240503 0.967 255 255 255
-0.122532 0.0361399 0.41 255 255 255
-0.140534 0.124725 0.381 255 255 255
-0.0829527 0.0313927 0.409 0 0 0
0.0678373 0.109477 0.451 255 255 255
0.0647836 0.0918846 0.466 255 255 255
0.130433 0.0170619 0.473 0 0 0
-0.115826 0.0167769 0.394 255 255 255
0.0188245 0.156002 0.422 255 255 255
0.118554 0.117628 0.443 255 255 255
0.010504 -0.160268 0.448 0 0 0
-0.0223708 0.0933318 0.498 0 0 0
-0.0258384 0.121636 0.391 255 255 255
0.107622 0.0562409 0.507 255 255 255
-0.209364 -0.282149 0.928 255 255 255
0.161787 0.00159684 0.453 0 0 0
-0.158325 -0.0766647 0.513 255 255 255
0.147598 0.137847 0.419 255 255 255
0.0212551 0.0913117 0.514 255 255 255
0.155777 0.00309832 0.457 255 255 255
-0.156698 -0.0896966 0.536 0 0 0
0.18135 -0.0989945 0.406 0 0 0
-0.0498771 -0.176976 0.672 255 255 255
-0.585536 -0.291835 1.122 255 255 255
0.171741 0.140919 0.418 255 255 255
0.185306 -0.140235 0.392 255 255 255
0.0455399 0.00659135 0.496 0 0 0
-0.139202 0.135689 0.393 255 255 255
0.106589 -0.148144 0.416 255 255 255
0.150387 0.0106274 0.461 255 255 255
-0.138772 0.137798 0.401 255 255 255
0.0603349 -0.167266 0.434 255 255 255
-0.0120588 0.0926031 0.421 255 255 255
-0.0126165 0.0692725 0.531 255 255 255
0.150356 0.120852 0.439 255 255 255
-0.0159997 0.144454 0.384 255 255 255
-0.455585 -0.189024 1.108 255 255 255
0.0522341 0.0665575 0.559 255 255 255
0.115113 0.103723 0.458 0 0 0
0.202659 -0.0809559 0.405 255 255 255
0.163648 0.148171 0.408 255 255 255
-0.143777 0.0908987 0.461 255 255 255
0.0616433 -0.0399554 0.483 255 255 255
0.025106 0.0717216 0.543 255 255 255
-0.0189797 -0.0191736 0.516 0 0 0
-0.144495 0.1312 0.38 255 255 255
-0.126054 0.122838 0.441 255 255 255
0.14873 -0.0362499 0.447 0 0 0
0.176642 0.118616 0.444 0 0 0
-0.029278 0.14395 0.386 255 255 255
-0.326034 -0.206355 1.024 255 255 255
-0.150063 0.147853 0.388 255 255 255
-0.0837654 -0.026416 0.453 255 255 255
-0.040581 0.0769421 0.513 0 0 0
0.0972024 0.0157521 0.48 0 0 0
0.0127628 -0.02554 0.509 255 255 255
-0.143765 0.133483 0.383 255 255 255
0.145485 -0.121536 0.413 255 255 255
0.215915 0.0487484 0.446 0 0 0
0.123762 -0.0994792 0.431 255 255 255
-0.436807 -0.337675 1.018 255 255 255
0.0616169 -0.086139 0.465 255 255 255
0.137082 -0.150606 0.408 255 255 255
0.0666931 0.136426 0.434 255 255 255
0.193643 -0.110089 0.396 255 255 255
-0.0788311 -0.0568818 0.523 255 255 255
0.143356 0.0426424 0.475 255 255 255
0.0570488 -0.132996 0.447 0 0 0
0.166872 0.134469 0.43 255 255 255
0.201284 -0.0650807 0.413 255 255 255
-0.181245 0.0443471 0.394 255 255 255
0.183572 0.150827 0.408 255 255 255
-0.0902024 0.087653 0.452 255 255 255
-0.521061 -0.298794 1.094 255 255 255
0.168043 -0.119028 0.409 255 255 255
0.0433206 -0.148604 0.448 255 255 255
0.184475 0.132835 0.427 255 255 255
0.0108594 0.0391897 0.585 255 255 255
0.050886 -0.110686 0.457 0 0 0
-0.0669569 0.0364044 0.413 0 0 0
-0.545062 -0.370856 1.051 255 255 255
-0.108252 0.042042 0.409 255 255 255
-0.105437 -0.0172414 0.464 255 255 255
0.165698 -0.132333 0.397 255 255 255
-0.0586298 0.0393599 0.402 255 255 255
-0.128789 0.121232 0.443 255 255 255
0.0344632 0.0854137 0.524 255 255 255
0.092793 0.163854 0.421 255 255 255
-0.16735 0.0803477 0.331 255 255 255
-0.278551 -0.339169 0.927 255 255 255
-0.146959 0.108431 0.356 255 255 255
0.0347881 0.156052 0.424 255 255 255
-0.231551 -0.200063 0.977 255 255 255
0.111316 0.125778 0.429 255 255 255
-0.562889 -0.236944 1.139 255 255 255
0.0468444 -0.167431 0.44 0 0 0
-0.0142071 -0.0660526 0.496 0 0 0
-0.128498 0.0813981 0.442 255 255 255
-0.11916 -0.0278904 0.453 255 255 255
-0.0983156 0.0436913 0.412 255 255 255
-0.0367931 0.120707 0.414 255 255 255
-0.022656 0.122273 0.391 255 255 255
0.164446 -0.142233 0.394 255 255 255
0.149006 -0.0696416 0.433 0 0 0
-0.0828007 0.0264722 0.405 255 255 255
0.0466314 0.147662 0.438 255 255 255
0.0526528 -0.122249 0.453 0 0 0
0.106802 -0.0368735 0.464 255 255 255
-0.179853 0.0691633 0.416 255 255 255
0.0374028 0.133238 0.447 255 255 255
0.00488886 -0.109776 0.469 0 0 0
0.17389 -0.131371 0.398 255 255 255
0.0815522 0.0575484 0.504 255 255 255
0.0322371 -0.153747 0.446 255 255 255
0.167604 0.0841385 0.478 255 255 255
0.0976251 0.0708768 0.494 255 255 255
0.0659128 0.128441 0.443 255 255 255
-0.0973641 0.0985056 0.458 255 255 255
0.0940326 -0.0735017 0.457 255 255 255
-0.149211 -0.157426 0.969 255 255 255
0.0126123 0.0999987 0.503 255 255 255
0.194957 0.150598 0.411 255 255 255
0.0416279 -0.0419573 0.488 0 0 0
0.045604 0.150898 0.435 255 255 255
-0.645743 0.0198835 1.333 255 255 255
-0.0754443 0.148835 0.408 0 0 0
0.0624543 -0.168679 0.434 255 255 255
-0.0191667 0.0992034 0.499 0 0 0
0.0614633 -0.157756 0.437 255 255 255
0.127629 -0.0580724 0.447 255 255 255
0.166581 0.00306442 0.452 0 0 0
-0.108911 0.133069 0.43 255 255 255
0.0933996 -0.115161 0.44 0 0 0
-0.0130419 0.152033 0.389 255 255 255
0.0293989 -0.16282 0.447 255 255 255
0.0430395 -0.0512759 0.486 255 255 255
-0.0130084 0.133331 0.388 255 255 255
0.176925 -0.121961 0.399 255 255 255
0.189651 0.0138482 0.444 255 255 255
-0.0154387 0.0615449 0.539 255 255 255
-0.116078 0.139559 0.418 255 255 255
-0.129422 0.0778657 0.354 255 255 255
0.113295 -0.0795374 0.445 0 0 0
-0.132147 -0.0976846 0.532 255 255 255
0.130954 -0.107589 0.427 0 0 0
-0.136916 0.0701296 0.439 255 255 255
-0.147976 -0.0702688 0.509 255 255 255
-0.110009 -0.0216311 0.461 255 255 255
-0.528627 -0.383187 1.029 255 255 255
-0.0383019 0.126296 0.382 255 255 255
-0.116703 -0.279445 0.868 255 255 255
0.0404035 -0.145688 0.448 255 255 255
-0.150208 -0.0341716 0.43 255 255 255
0.0348977 -0.0961088 0.462 255 255 255
0.211875 0.134854 0.429 255 255 255
0.0978085 0.151484 0.419 255 255 255
-0.0321588 0.0498243 0.555 255 255 255
0.00118133 0.087638 0.517 255 255 255
0.0699274 0.0590713 0.503 255 255 255
0.161386 -0.113703 0.409 255 255 255
0.19342 -0.0749801 0.412 255 255 255
-0.0710995 -0.0157402 0.443 255 255 255
-0.06764 0.012091 0.409 0 0 0
0.0667168 0.0599367 0.574 255 255 255
-0.522942 -0.194149 1.149 255 255 255
0.0786863 0.100334 0.463 255 255 255
0.0442236 0.0755789 0.539 255 255 255
0.122987 0.0837094 0.48 0 0 0
-0.114411 0.023424 0.398 255 255 255
-0.102018 -0.0538881 0.503 0 0 0
0.201348 0.00296951 0.438 255 255 255
0.0298069 0.0991801 0.503 255 255 255
0.167793 -0.0617279 0.427 255 255 255
0.0240895 0.157925 0.418 255 255 255
-0.127285 0.148106 0.406 255 255 255
0.0119625 -0.15881 0.448 0 0 0
0.117333 0.0725467 0.489 0 0 0
-0.110976 0.0200334 0.395 255 255 255
-0.00278653 -0.10212 0.476 0 0 0
0.131999 -0.0381265 0.452 255 255 255
-0.165734 0.0819637 0.331 0 0 0
0.179838 -0.131974 0.394 255 255 255
-0.582628 -0.258688 1.145 255 255 255
0.0028257 -0.02808 0.51 255 255 255
0.0224001 -0.118681 0.468 255 255 255
-0.105513 -0.0610372 0.508 0 0 0
0.194153 -0.130596 0.388 255 255 255
0.0681468 0.0122414 0.496 0 0 0
-0.148748 0.0545125 0.398 255 255 255
-0.142468 -0.0308155 0.432 255 255 255
-0.572294 -0.295192 1.114 255 255 255
-0.126447 -0.157763 0.952 255 255 255
0.00264286 -0.098453 0.477 0 0 0
0.162685 -0.098924 0.414 255 255 255
-0.00532943 0.144601 0.431 0 0 0
0.0339913 0.12388 0.45 255 255 255
-0.0255106 0.0929569 0.496 0 0 0
-0.0120225 0.102242 0.506 255 255 255
0.153685 0.146179 0.408 255 255 255
-0.0972073 0.0721559 0.434 255 255 255
0.166298 -0.0903567 0.418 255 255 255
0.166298 -0.0855951 0.418 0 0 0
0.136155 -0.0773964 0.437 0 0 0
0.0875179 0.163557 0.422 255 255 255
-0.16342 0.114735 0.354 255 255 255
0.16337 0.0728434 0.491 255 255 255
-0.0998111 0.0693916 0.43 255 255 255
-0.138823 -0.0719351 0.515 255 255 255
0.14638 -0.141975 0.408 255 255 255
0.0986789 -0.116063 0.438 255 255 255
0.136056 -0.13293 0.415 255 255 255
-0.0772005 -0.0751043 0.723 255 255 255
0.164725 -0.0216045 0.445 0 0 0
-0.0506274 -0.0060759 0.64 255 255 255
-0.52223 -0.254815 1.104 255 255 255
0.118778 0.13686 0.416 255 255 255
0.121057 -0.089181 0.439 255 255 255
0.0714734 -0.154198 0.433 255 255 255
-0.600315 0.0449498 1.305 255 255 255
-0.520515 -0.248525 1.108 255 255 255
-0.107943 0.014104 0.391 255 255 255
-0.0479191 -0.301773 0.783 255 255 255
-0.0833282 0.0123199 0.395 255 255 255
-0.660991 -0.0842048 1.299 255 255 255
0.0191245 0.00585417 0.502 255 255 255
-0.143685 0.0907808 0.344 255 255 255
-0.0945134 -0.011249 0.466 255 255 255
0.132738 0.140566 0.411 255 255 255
0.138694 0.0441466 0.483 255 255 255
0.164309 -0.102046 0.413 255 255 255
-0.115641 0.143613 0.414 255 255 255
0.139848 0.0928704 0.471 255 255 255
0.175489 -0.0908395 0.414 255 255 255
0.161993 0.0354607 0.462 0 0 0
-0.233178 -0.239757 0.964 255 255 255
-0.603955 0.0759401 1.327 255 255 255
-0.0962942 0.000893823 0.471 255 255 255
0.0105509 -0.155125 0.45 0 0 0
0.204445 0.00438501 0.437 255 255 255
-0.153623 -0.141237 0.977 255 255 255
0.0992085 0.0286031 0.486 255 255 255
-0.60608 -0.24804 1.165 255 255 255
0.159147 0.00754391 0.456 255 255 255
-0.105173 -0.00449047 0.473 255 255 255
0.0583773 -0.0304602 0.482 255 255 255
-0.0721921 -0.101741 0.72 255 255 255
0.0810597 -0.0562311 0.468 255 255 255
-0.0990747 0.131378 0.436 255 255 255
0.118642 0.122002 0.438 255 255 255
0.000320043 0.111083 0.487 0 0 0
-0.135523 0.108153 0.461 255 255 255
-0.0726312 0.0876063 0.448 255 255 255
0.019601 0.112746 0.474 255 255 255
0.113331 -0.0226241 0.466 255 255 255
-0.0193971 -0.0541023 0.505 255 255 255
-0.0350233 0.119546 0.417 255 255 255
0.148174 -0.111455 0.413 255 255 255
0.205949 0.0725926 0.484 255 255 255
-0.0849661 -0.0629883 0.719 0 0 0
0.174978 -0.034251 0.431 255 255 255
-0.0986136 0.0227191 0.397 255 255 255
0.0999997 0.0286031 0.486 255 255 255
0.209328 0.0417696 0.449 255 255 255
0.0657804 0.11287 0.447 255 255 255
-0.128574 -0.00283871 0.455 255 255 255
-0.196866 0.0467263 0.382 255 255 255
-0.671948 -0.0258436 1.342 255 255 255
0.178726 0.129661 0.435 255 255 255
0.171245 -0.0114663 0.445 255 255 255
-0.0845692 0.15395 0.404 255 255 255
0.166054 -0.0975766 0.414 255 255 255
0.164542 0.141939 0.417 0 0 0
-0.461224 -0.242021 1.079 255 255 255
0.206464 -0.0745488 0.406 255 255 255
-0.141941 0.113573 0.367 255 255 255
-0.0939356 -0.0428502 0.508 0 0 0
-0.167077 -0.162659 0.972 255 255 255
-0.139709 -0.0404693 0.43 255 255 255
-0.0969389 0.118111 0.456 255 255 255
-0.637295 -0.183069 1.225 255 255 255
0.0691519 -0.114117 0.45 0 0 0
-0.263365 -0.319765 0.932 255 255 255
-0.095749 0.0329813 0.404 255 255 255
-0.199131 -0.188354 0.974 255 255 255
0.138837 0.120685 0.441 255 255 255
-0.116335 0.14847 0.407 255 255 255
0.000277327 0.105871 0.422 255 255 255
-0.101164 0.0308554 0.402 255 255 255
-0.42355 -0.319452 1.018 255 255 255
-0.108211 0.133069 0.43 255 255 255
-0.164344 0.118279 0.356 255 255 255
0.162291 -0.141308 0.395 255 255 255
-0.0287239 0.132358 0.387 255 255 255
-0.132308 0.106851 0.377 255 255 255
-0.285778 -0.246082 0.983 255 255 255
-0.136465 0.0859256 0.347 255 255 255
-0.11953 -0.0096697 0.463 255 255 255
-0.20596 0.0777326 0.391 255 255 255
0.119833 -0.120792 0.427 255 255 255
0.193477 -0.0410836 0.415 255 255 255
-0.1574 0.12078 0.36 255 255 255
-0.135746 -0.143914 0.963 255 255 255
0.153928 0.153077 0.4 255 255 255
0.152836 -0.129407 0.404 255 255 255
0.0278087 0.0200121 0.581 255 255 255
0.194277 0.0263667 0.448 255 255 255
0.0513314 -0.104153 0.461 255 255 255
-0.223142 -0.193307 0.975 255 255 255
-0.535214 -0.311651 1.083 255 255 255
-0.591128 -0.229589 1.158 255 255 255
-0.0543117 -0.0602706 0.701 0 0 0
0.0791038 -0.0045949 0.484 255 255 255
-0.046851 0.043285 0.402 255 255 255
0.111296 0.130969 0.421 255 255 255
0.0226458 -0.167851 0.443 255 255 255
-0.11607 0.0875467 0.444 255 255 255
-0.134632 0.0998865 0.365 255 255 255
0.0983713 0.107751 0.453 255 255 255
0.0769028 -0.119821 0.444 255 255 255
-0.2206 -0.311419 0.912 255 255 255
0.146684 -0.134341 0.407 255 255 255
0.11337 0.10193 0.46 255 255 255
0.10944 -0.075305 0.45 255 255 255
-0.0905613 0.13807 0.426 255 255 255
0.039711 -0.0282237 0.484 255 255 255
-0.172283 0.0785261 0.419 255 255 255
0.125446 0.115053 0.447 255 255 255
0.0899476 0.0276406 0.483 255 255 255
0.101297 0.0988276 0.463 0 0 0
0.134749 -0.0013847 0.464 255 255 255
-0.132602 -0.0585655 0.501 0 0 0
0.167587 0.0515819 0.465 255 255 255
0.165836 -0.0108145 0.448 0 0 0
-0.00144213 0.0561464 0.555 255 255 255
0.1491 -0.118652 0.41 255 255 255
-0.0649828 0.00217848 0.618 255 255 255
0.0388208 0.0376494 0.576 255 255 255
0.0718448 0.143899 0.431 255 255 255
-0.133263 -0.0952662 0.533 255 255 255
-0.0927333 0.0879974 0.45 255 255 255
0.0392448 -0.0411631 0.488 0 0 0
-0.0746294 -0.309374 0.796 255 255 255
0.064425 -0.164767 0.433 0 0 0
-0.0983689 -0.281153 0.856 255 255 255
-0.139282 -0.167584 0.955 255 255 255
-0.127525 0.0945377 0.372 255 255 255
0.0553535 -0.0218774 0.483 255 255 255
0.0728144 -0.111188 0.45 0 0 0
0.190175 0.0866928 0.488 255 255 255
0.10348 0.0550215 0.511 255 255 255
-0.117686 0.116597 0.453 255 255 255
0.0275813 0.131341 0.453 255 255 255
-0.0225981 0.122594 0.39 255 255 255
0.159061 0.0677982 0.495 255 255 255
0.103453 0.0829283 0.48 255 255 255
0.11347 -0.128913 0.424 255 255 255
-0.118157 0.124273 0.441 255 255 255
-0.0939687 -0.288835 0.854 255 255 255
0.0547432 -0.137779 0.446 0 0 0
-0.128054 0.0734641 0.355 255 255 255
0.0900386 0.0378526 0.515 255 255 255
-0.129065 0.140245 0.416 255 255 255
0.0980696 -0.0517511 0.462 255 255 255
-0.405045 -0.352197 0.989 255 255 255
-0.143014 0.130306 0.381 255 255 255
0.134674 -0.0873526 0.43 255 255 255
0.0614146 0.122327 0.447 255 255 255
-0.0924985 0.0454694 0.416 255 255 255
-0.703478 -0.0413147 1.348 255 255 255
-0.0460724 0.121839 0.425 255 255 255
-0.0765598 -0.0639798 0.717 0 0 0
-0.121909 0.139225 0.417 255 255 255
0.210365 0.068393 0.456 255 255 255
0.138824 0.0984977 0.465 255 255 255
0.0561397 -0.0336674 0.483 255 255 255
0.14577 0.0771586 0.483 255 255 255
0.197388 0.139893 0.419 0 0 0
-0.325317 -0.227015 1.027 255 255 255
0.200155 0.0774645 0.495 255 255 255
-0.142284 -0.0455515 0.484 255 255 255
0.164362 0.109466 0.454 0 0 0
-0.138197 0.10642 0.365 255 255 255
-0.0791141 -0.0793689 0.719 0 0 0
0.0959097 -0.095469 0.445 0 0 0
0.0845918 -0.0331098 0.475 255 255 255
-0.332223 -0.323123 0.96 255 255 255
0.218069 0.036886 0.443 255 255 255
0.0185911 -0.0844099 0.468 255 255 255
-0.00740234 0.0758984 0.529 255 255 255
0.121449 0.0896052 0.474 255 255 255
-0.22834 -0.260898 0.944 255 255 255
0.115885 0.0675242 0.493 255 255 255
0.000391018 0.0272722 0.595 255 255 255
-0.0112874 -0.0313997 0.51 0 0 0
0.201098 -0.0477218 0.414 255 255 255
0.166163 -0.145976 0.392 255 255 255
-0.153457 0.115771 0.359 255 255 255
-0.10787 -0.0105357 0.468 255 255 255
0.135329 0.00619268 0.466 255 255 255
0.139467 -0.0546691 0.443 255 255 255
-0.0408086 0.0484596 0.407 255 255 255
-0.0874524 0.118808 0.453 0 0 0
-0.0225315 0.108055 0.412 255 255 255
0.000330558 0.0999987 0.503 0 0 0
0.0623882 0.0478392 0.586 255 255 255
-0.00519341 0.0985344 0.42 255 255 255
0.152108 0.0608291 0.504 255 255 255
0.0538524 0.153727 0.433 255 255 255
0.180326 0.0306148 0.457 0 0 0
-0.491387 -0.318953 1.072 255 255 255
-0.0749624 0.046781 0.428 255 255 255
0.198683 0.142953 0.416 0 0 0
-0.49918 -0.374086 1.027 255 255 255
-0.1827 0.106867 0.349 255 255 255
0.215965 0.0149144 0.433 255 255 255
-0.0502721 0.149748 0.388 255 255 255
-0.0267646 0.131387 0.386 255 255 255
-0.0398571 0.0604426 0.537 255 255 255
-0.127514 0.0750846 0.36 255 255 255
0.0716017 0.0697892 0.492 0 0 0
-0.11048 0.13886 0.42 255 255 255
0.190704 0.0615512 0.466 255 255 255
0.15699 0.0432581 0.465 255 255 255
0.0663872 0.0629129 0.501 255 255 255
0.117606 -0.0372231 0.459 255 255 255
-0.0205874 0.125754 0.388 255 255 255
0.0932887 -0.0749891 0.457 255 255 255
0.176819 -0.0548245 0.422 255 255 255
-0.114441 0.137461 0.422 255 255 255
0.0462635 0.155434 0.428 255 255 255
0.199306 -0.0180352 0.429 255 255 255
-0.13721 0.140868 0.408 255 255 255
0.162541 -0.00648338 0.451 0 0 0
-0.287331 -0.339118 0.931 255 255 255
0.0510196 0.088459 0.472 0 0 0
-0.181601 0.0339154 0.392 255 255 255
0.209007 0.137377 0.426 255 255 255
0.12507 0.085094 0.479 255 255 255
0.222116 0.128657 0.434 255 255 255
0.202204 0.122674 0.443 255 255 255
-0.080473 0.0837737 0.447 255 255 255
-0.404901 -0.362233 0.977 255 255 255
0.19753 -0.0586425 0.415 0 0 0
0.110102 -0.0359627 0.462 255 255 255
0.00922721 -0.143408 0.457 0 0 0
-0.104467 -0.0431886 0.484 0 0 0
0.167378 -0.113038 0.409 255 255 255
-0.161633 -0.0626973 0.495 255 255 255
0.180018 0.113598 0.447 255 255 255
0.207668 0.0575867 0.447 255 255 255
0.153676 -0.0109352 0.453 0 0 0
-0.116907 0.08156 0.439 255 255 255
0.0553581 0.0782768 0.49 255 255 255
0.219591 0.125702 0.436 0 0 0
-0.108011 0.132985 0.432 255 255 255
-0.418172 -0.339314 1.013 255 255 255
-0.0624761 -0.020075 0.655 0 0 0
-0.518331 -0.282255 1.092 255 255 255
0.216818 0.138438 0.425 0 0 0
-0.0744217 0.14056 0.421 255 255 255
0.0517768 -0.093706 0.465 0 0 0
0.0311127 0.0932734 0.511 255 255 255
0.0626511 -0.105249 0.456 0 0 0
-0.670564 0.00913904 1.348 255 255 255
-0.0841277 -0.0133209 0.459 255 255 255
0.00933838 0.151952 0.428 255 255 255
-0.216809 -0.231192 0.961 255 255 255
-0.0137509 0.0904234 0.509 255 255 255
0.0578117 -0.0780528 0.471 255 255 255
-0.114049 0.0260801 0.399 255 255 255
-0.031956 0.150379 0.388 255 255 255
-0.00547611 -0.0305698 0.51 0 0 0
-0.139865 0.114811 0.371 255 255 255
-0.113863 -0.05212 0.494 255 255 255
-0.166184 0.0674834 0.414 255 255 255
-0.151751 0.106337 0.351 255 255 255
0.120428 0.113628 0.45 255 255 255
-0.0820361 -0.241829 0.875 255 255 255
0.0225784 0.0703408 0.546 255 255 255
-0.439447 -0.231944 1.073 255 255 255
0.0372968 0.0891479 0.516 255 255 255
0.028094 0.146949 0.438 255 255 255
-0.135065 0.100118 0.462 255 255 255
-0.134764 0.0532198 0.384 255 255 255
0.191687 -0.12939 0.392 255 255 255
0.167838 0.123428 0.438 255 255 255
-0.464231 -0.351618 1.02 255 255 255
0.0760435 0.151597 0.427 255 255 255
-0.458384 -0.370761 1 255 255 255
-0.405743 -0.255979 1.036 255 255 255
-0.176191 0.0502299 0.4 255 255 255
0.127084 0.0231706 0.472 0 0 0
0.149334 0.146483 0.407 255 255 255
-0.133806 0.13686 0.416 255 255 255
0.045226 -0.0313742 0.484 255 255 255
0.170461 -0.0364395 0.432 255 255 255
-0.133449 0.0374355 0.417 255 255 255
0.0223628 0.0402789 0.587 255 255 255
0.0924727 0.122281 0.439 255 255 255
-0.166581 0.0621609 0.41 255 255 255
-0.31543 -0.296847 0.966 255 255 255
-0.301095 -0.218974 1.013 255 255 255
0.128625 0.150713 0.415 255 255 255
-0.111593 0.130369 0.435 255 255 255
0.165101 0.0112049 0.454 255 255 255
0.1065 -0.113144 0.435 255 255 255
-0.138495 0.144089 0.404 255 255 255
-0.0695509 0.0454941 0.429 255 255 255
-0.17012 0.108882 0.35 255 255 255
0.107741 0.116247 0.446 255 255 255
-0.000452315 -0.124241 0.466 0 0 0
-0.475008 -0.325913 1.055 255 255 255
0.0856596 0.149489 0.423 255 255 255
0.0739493 -0.115068 0.448 0 0 0
0.124406 -0.155348 0.41 255 255 255
-0.120544 0.152694 0.399 255 255 255
0.182627 -0.0120808 0.441 255 255 255
0.0545375 0.0653172 0.564 255 255 255
0.0694918 0.0986141 0.462 255 255 255
0.165093 0.0741382 0.489 255 255 255
-0.36021 -0.23069 1.036 255 255 255
0.160429 0.0997961 0.464 255 255 255
-0.0649094 0.0948297 0.477 0 0 0
-0.135656 -0.256061 0.9 255 255 255
0.106589 -0.151529 0.416 255 255 255
-0.134185 0.135873 0.413 255 255 255
0.172142 -0.139668 0.394 0 0 0
0.00419579 0.118117 0.477 0 0 0
-0.133847 0.00399367 0.398 255 255 255
-0.0408417 0.106305 0.421 255 255 255
-0.073149 0.123428 0.438 255 255 255
0.136083 -0.141012 0.411 255 255 255
0.134205 0.0423983 0.481 255 255 255
-0.135122 0.058331 0.431 255 255 255
-0.546799 -0.317524 1.085 255 255 255
0.0488672 0.0994676 0.459 255 255 255
-0.173081 0.0698403 0.416 255 255 255
-0.211228 -0.301851 0.91 255 255 255
0.1829 0.0498414 0.456 255 255 255
0.225699 0.0661432 0.441 255 255 255
0.112393 0.159573 0.41 255 255 255
-0.156623 -0.0564804 0.497 0 0 0
0.106492 0.158724 0.413 255 255 255
0.199646 0.0686544 0.484 255 255 255
0.00854072 0.154995 0.423 255 255 255
0.111123 0.101181 0.46 0 0 0
0.19343 -0.0901828 0.405 255 255 255
0.118863 0.0334369 0.476 255 255 255
0.0337532 -0.0380644 0.489 0 0 0
0.152447 0.116907 0.443 255 255 255
-0.214985 -0.180429 0.974 255 255 255
-0.0520324 0.128579 0.387 255 255 255
0.140747 -0.140326 0.409 255 255 255
-0.141141 -0.0800677 0.53 0 0 0
0.0917692 0.114795 0.446 255 255 255
0.0248941 0.100817 0.503 255 255 255
0.0915201 0.0803026 0.483 0 0 0
-0.140358 -0.00691325 0.432 255 255 255
-0.0752785 -0.0870017 0.705 255 255 255
-0.588106 -0.0903967 1.239 255 255 255
-0.00548684 -0.0256403 0.511 0 0 0
-0.118787 -0.00669902 0.466 255 255 255
0.212369 0.133769 0.43 0 0 0
0.152689 -0.104641 0.418 255 255 255
-0.330333 -0.232028 1.027 255 255 255
0.1423 -0.0256221 0.452 255 255 255
0.0331604 0.147285 0.439 255 255 255
0.117124 -0.0269991 0.463 0 0 0
0.108523 -0.12415 0.429 255 255 255
0.119848 -0.0319945 0.459 0 0 0
-0.144434 -0.181783 0.948 255 255 255
-0.107581 0.0166917 0.392 255 255 255
-0.388126 -0.363311 0.963 255 255 255
-0.119831 0.0664378 0.429 255 255 255
0.0734563 -0.0545227 0.473 255 255 255
0.110044 0.0705899 0.492 255 255 255
0.0390839 -0.0354583 0.486 255 255 255
0.0946435 -0.0176501 0.475 255 255 255
0.17667 0.097741 0.465 255 255 255
-0.193916 -0.2371 0.941 255 255 255
-0.303342 -0.221059 1.015 255 255 255
-0.10364 -0.0730396 0.511 255 255 255
0.129039 -0.120349 0.423 255 255 255
-0.345327 -0.259559 1.017 255 255 255
-0.150305 0.123129 0.367 255 255 255
0.104497 0.128452 0.424 255 255 255
-0.428833 -0.23173 1.064 255 255 255
-0.134109 0.13027 0.43 255 255 255
0.0561397 -0.0218774 0.483 255 255 255
-0.169477 0.0822113 0.332 255 255 255
0.19977 0.0232411 0.444 255 255 255
0.176232 0.0911479 0.474 255 255 255
-0.0310281 0.0818176 0.507 255 255 255
-0.375306 -0.272477 1.022 255 255 255
0.239407 0.0930828 0.48 255 255 255
-0.0731968 -0.0195194 0.447 255 255 255
-0.172777 0.131007 0.364 255 255 255
0.100955 0.0779446 0.483 0 0 0
-0.0891327 -0.267383 0.861 255 255 255
-0.0573795 0.111192 0.432 255 255 255
-0.0906397 0.0677619 0.433 255 255 255
0.0493767 0.01864 0.568 255 255 255
-0.155979 0.0587666 0.405 255 255 255
0.0244143 -0.161357 0.449 255 255 255
0.135861 -0.0589946 0.443 255 255 255
0.0651907 -0.0156862 0.486 255 255 255
0.163985 -0.0308792 0.443 0 0 0
-0.0650298 0.0193948 0.591 255 255 255
-0.159453 0.123807 0.362 255 255 255
-0.141783 -0.00383541 0.404 255 255 255
0.111007 -0.016664 0.469 0 0 0
0.123084 -0.0605243 0.449 255 255 255
0.18776 -0.0886412 0.407 255 255 255
0.0687861 -0.0488761 0.478 255 255 255
0.0623104 0.145272 0.433 255 255 255
0.212761 0.0524948 0.447 255 255 255
0.202162 0.140575 0.419 0 0 0
0.0397512 0.0941596 0.466 255 255 255
-0.102829 0.0851868 0.443 255 255 255
0.0800845 0.0750872 0.49 255 255 255
-0.0476794 0.121023 0.427 255 255 255
-0.0300365 0.11997 0.396 0 0 0
-0.0826973 -0.25937 0.867 255 255 255
-0.0681387 0.145515 0.408 255 255 255
-0.57081 -0.348181 1.087 255 255 255
-0.184498 0.118361 0.358 255 255 255
0.00112192 -0.0669848 0.491 255 255 255
-0.388128 -0.245388 1.034 255 255 255
0.199274 0.0656756 0.463 255 255 255
-0.0704282 -0.0950838 0.714 255 255 255
-0.158004 0.0745324 0.412 255 255 255
0.100376 -0.130037 0.43 255 255 255
-0.414575 -0.278164 1.037 255 255 255
0.0836578 0.0252826 0.483 255 255 255
0.154627 0.0031051 0.458 255 255 255
-0.0649401 0.00750462 0.413 255 255 255
-0.230039 -0.238189 0.964 255 255 255
0.15628 0.0922995 0.472 255 255 255
-0.190482 0.124833 0.365 255 255 255
-0.151279 0.0991914 0.346 255 255 255
0.0488678 0.0826302 0.497 255 255 255
0.0301939 -0.145688 0.448 255 255 255
-0.137155 0.134217 0.402 255 255 255
0.179269 -0.129749 0.397 255 255 255
0.155302 0.104924 0.46 255 255 255
-0.227372 -0.232395 0.966 255 255 255
-0.141795 -0.17462 0.951 255 255 255
0.0996346 0.0901859 0.473 255 255 255
-0.297379 -0.340211 0.934 255 255 255
-0.17462 -0.238355 0.928 255 255 255
0.20653 0.0808336 0.491 255 255 255
-0.179923 -0.273414 0.909 255 255 255
-0.0290594 0.0433665 0.565 255 255 255
0.125091 0.133756 0.419 255 255 255
0.157692 -0.0712887 0.426 255 255 255
0.0950149 -0.0237336 0.473 0 0 0
0.118778 -0.135958 0.416 255 255 255
0.167546 0.151602 0.403 255 255 255
-0.049893 0.00519554 0.618 255 255 255
-0.0434071 0.117273 0.426 255 255 255
-0.173725 0.14412 0.375 255 255 255
0.105819 -0.0383009 0.463 255 255 255
-0.351111 -0.341921 0.969 255 255 255
0.105347 -0.0159686 0.471 0 0 0
-0.0523468 0.0423127 0.399 255 255 255
-0.406776 -0.208659 1.079 255 255 255
0.168469 0.0602257 0.499 255 255 255
-0.11719 0.00835601 0.39 255 255 255
-0.0112652 -0.0338231 0.509 0 0 0
-0.478278 -0.297463 1.07 255 255 255
-0.0638629 0.151154 0.39 0 0 0
0.11097 -0.1306 0.425 255 255 255
-0.0956637 -0.0288803 0.457 255 255 255
-0.204189 0.087333 0.4 255 255 255
-0.101158 0.125993 0.442 255 255 255
-0.121037 0.109376 0.463 255 255 255
-0.554576 -0.355332 1.066 255 255 255
-0.0239308 0.100253 0.413 255 255 255
-0.0952887 -0.245795 0.879 255 255 255
0.00711057 0.0318436 0.59 255 255 255
0.196409 -0.099885 0.399 0 0 0
0.0630284 -0.138294 0.443 255 255 255
-0.0880072 0.0733197 0.441 255 255 255
0.170872 -0.0982072 0.411 0 0 0
0.176163 -0.0854498 0.414 0 0 0
-0.117882 0.0640434 0.427 255 255 255
-0.0591859 -0.288856 0.834 255 255 255
-0.290886 -0.234514 0.995 255 255 255
-0.477719 -0.367994 1.024 255 255 255
-0.468317 -0.22068 1.104 255 255 255
0.105577 0.0250732 0.479 255 255 255
-0.00654515 0.0955724 0.419 255 255 255
-0.0504969 0.0251541 0.405 255 255 255
0.162874 -0.0371143 0.44 0 0 0
0.0553494 0.104984 0.457 0 0 0
-0.15388 0.0781931 0.331 255 255 255
-0.170664 0.13896 0.371 255 255 255
0.0725326 -0.0605522 0.472 255 255 255
-0.0313784 0.119401 0.405 255 255 255
0.178163 -0.000605197 0.446 0 0 0
-0.572046 -0.301358 1.11 255 255 255
0.00203465 0.0847617 0.52 255 255 255
0.135838 -0.0213496 0.455 255 255 255
-0.0710995 -0.017182 0.443 255 255 255
-0.328981 -0.281275 0.983 255 255 255
0.199261 -0.00766915 0.435 0 0 0
0.187691 -0.0991643 0.404 255 255 255
0.0409417 -0.00554934 0.499 0 0 0
-0.0426275 0.0422217 0.562 255 255 255
-0.152051 -0.163396 0.967 255 255 255
0.104501 -0.0759744 0.454 255 255 255
0.147979 -0.0902737 0.424 0 0 0
0.0445719 0.0878436 0.477 255 255 255
0.114715 -0.140697 0.416 255 255 255
0.0259337 -0.13096 0.45 255 255 255
-0.167411 0.097203 0.341 255 255 255
0.196935 -0.0160895 0.433 0 0 0
-0.231077 -0.190134 0.975 255 255 255
-0.14066 0.0926682 0.349 255 255 255
0.195583 -0.0906176 0.404 255 255 255
0.0222216 -0.153319 0.449 255 255 255
0.0948427 -0.012265 0.476 255 255 255
-0.0176082 0.0531481 0.552 255 255 255
-0.558161 -0.203558 1.16 255 255 255
0.190546 0.0539366 0.453 255 255 255
0.0378745 -0.160282 0.444 255 255 255
0.0359476 -0.153364 0.447 255 255 255
0.189071 0.0495135 0.453 255 255 255
0.111152 -0.0619371 0.454 0 0 0
-0.0386027 0.122902 0.385 255 255 255
0.151365 0.0318388 0.464 0 0 0
0.117905 -0.0717325 0.446 0 0 0
0.114026 -0.105822 0.434 255 255 255
0.0409276 0.148375 0.438 255 255 255
-0.0469797 -0.153874 0.662 255 255 255
-0.144106 0.108176 0.359 255 255 255
-0.112847 0.0329813 0.404 0 0 0
0.15074 -0.0806139 0.424 255 255 255
0.0393274 -0.0863004 0.47 255 255 255
0.0614146 -0.129359 0.447 255 255 255
-0.135581 0.0669656 0.437 255 255 255
0.119656 -0.00975324 0.467 255 255 255
-0.0816116 0.00510307 0.607 0 0 0
-0.085506 0.0526776 0.425 255 255 255
-0.143586 0.124312 0.376 255 255 255
-0.122861 -0.211994 0.925 255 255 255
-0.007947 0.0898626 0.421 255 255 255
0.185817 -0.0689383 0.416 255 255 255
-0.156119 0.103729 0.348 255 255 255
0.185139 -0.124604 0.393 255 255 255
-0.063151 -0.0139756 0.433 255 255 255
0.0552356 0.027576 0.581 255 255 255
-0.0568312 -0.258675 0.86 255 255 255
0.164033 -0.100271 0.414 255 255 255
-0.145368 -0.308733 0.879 255 255 255
0.181978 -0.105477 0.403 0 0 0
-0.385966 -0.213883 1.07 255 255 255
0.213885 0.103125 0.462 0 0 0
0.00839049 0.131786 0.452 255 255 255
0.194222 0.0947657 0.469 0 0 0
-0.115828 -0.22956 0.917 255 255 255
0.0445174 0.0626747 0.565 255 255 255
0.0669099 0.16287 0.422 255 255 255
0.187849 -0.0452444 0.416 255 255 255
-0.253559 -0.258532 0.958 255 255 255
0.160362 -0.143879 0.395 255 255 255
0.0517417 0.0823831 0.486 255 255 255
0.0794285 -0.134595 0.438 255 255 255
-0.048887 0.034535 0.571 255 255 255
0.025876 -0.133591 0.449 255 255 255
0.166376 -0.148149 0.391 255 255 255
-0.21079 -0.246577 0.948 255 255 255
-0.127786 0.0924724 0.371 255 255 255
0.115878 -0.103464 0.433 255 255 255
0.133974 -0.0908514 0.43 255 255 255
-0.147786 0.144953 0.387 255 255 255
-0.298652 -0.332509 0.938 255 255 255
-0.267663 -0.202943 0.999 255 255 255
0.0834556 0.139634 0.433 255 255 255
0.127343 0.064837 0.497 255 255 255
-0.0788528 0.128417 0.438 0 0 0
-0.146662 0.091293 0.463 255 255 255
-0.00041446 0.151597 0.427 0 0 0
0.189073 -0.01762 0.436 0 0 0
0.0994093 -0.157086 0.42 255 255 255
0.162175 -0.11961 0.411 255 255 255
0.0880813 -0.0787075 0.457 255 255 255
0.103762 0.105772 0.454 255 255 255
0.158921 0.0501601 0.473 255 255 255
0.0603349 -0.168679 0.434 255 255 255
-0.530272 -0.329727 1.073 255 255 255
0.0506548 0.131748 0.442 255 255 255
0.177082 0.133378 0.431 255 255 255
-0.349033 -0.31609 0.972 255 255 255
-0.105871 0.0531704 0.418 0 0 0
0.130578 0.0031729 0.468 255 255 255
0.115077 -0.058722 0.452 0 0 0
-0.132197 0.14391 0.411 255 255 255
-0.199478 0.0712373 0.401 255 255 255
0.157776 -0.11665 0.41 255 255 255
0.0819047 -0.133981 0.436 255 255 255
0.0495063 -0.111674 0.458 0 0 0
-0.137546 -0.0399545 0.432 255 255 255
0.0565732 -0.127746 0.449 255 255 255
-0.13781 0.147301 0.402 255 255 255
-0.521822 -0.330547 1.07 255 255 255
0.0167713 0.0348417 0.592 255 255 255
0.0134311 0.00341019 0.503 255 255 255
0.0464783 -0.101273 0.465 0 0 0
0.131554 -0.0382109 0.453 255 255 255
0.119814 -0.0708475 0.445 0 0 0
-0.109302 -0.0475162 0.488 0 0 0
0.144812 -0.116159 0.413 255 255 255
0.131699 0.116247 0.446 255 255 255
-0.137445 -0.199948 0.932 255 255 255
-0.048639 0.126963 0.406 255 255 255
0.15893 -0.0266736 0.445 0 0 0
-0.0448937 0.0618577 0.408 255 255 255
-0.13771 0.114218 0.375 255 255 255
-0.0287755 0.10479 0.415 255 255 255
0.213913 0.0228224 0.436 255 255 255
-0.173417 0.0994477 0.343 255 255 255
-0.303843 -0.245848 0.995 255 255 255
-0.0246031 0.106301 0.413 255 255 255
-0.0568074 0.118495 0.433 255 255 255
0.0946236 0.162098 0.42 255 255 255
0.104621 0.122281 0.439 255 255 255
0.062954 -0.0444864 0.481 0 0 0
0.0505313 -0.0516383 0.482 0 0 0
-0.121301 -0.0313671 0.45 255 255 255
0.151422 0.0736834 0.486 255 255 255
0.0400244 0.160428 0.421 255 255 255
0.101048 0.121566 0.439 255 255 255
-0.00727894 0.130593 0.422 255 255 255
0.133238 -0.00440502 0.464 255 255 255
0.180304 0.134225 0.427 0 0 0
-0.197488 0.0392666 0.382 255 255 255
0.134745 0.157955 0.411 255 255 255
-0.153326 -0.287171 0.892 255 255 255
-0.0757081 -0.0677626 0.72 0 0 0
-0.0345092 0.0996635 0.419 255 255 255
-0.082143 0.145986 0.415 255 255 255
-0.0926869 -0.289173 0.855 255 255 255
-0.11605 0.149427 0.406 255 255 255
0.108167 -0.0519347 0.457 255 255 255
-0.00382606 0.115621 0.42 255 255 255
0.10236 -0.0478881 0.461 255 255 255
0.13354 0.0683265 0.493 0 0 0
0.029441 -0.0992194 0.459 255 255 255
-0.461814 -0.340665 1.022 255 255 255
0.11278 -0.130293 0.424 255 255 255
-0.139597 0.044189 0.387 255 255 255
-0.520266 -0.223182 1.135 255 255 255
0.0039319 0.133965 0.447 255 255 255
-0.123426 -0.231304 0.918 255 255 255
0.112621 -0.0395499 0.46 255 255 255
0.186362 -0.0238405 0.433 255 255 255
0.21105 0.113852 0.448 255 255 255
-0.0554313 -0.260075 0.86 255 255 255
0.16986 -0.00280128 0.449 0 0 0
-0.055676 -0.121925 0.676 255 255 255
0.0890196 0.102978 0.458 255 255 255
-0.382482 -0.213883 1.07 255 255 255
0.175441 0.0606103 0.489 255 255 255
-0.626426 -0.130722 1.239 255 255 255
-0.0414031 -0.147814 0.659 255 255 255
0.0480775 -0.0577931 0.481 0 0 0
-0.115452 -0.267555 0.88 255 255 255
0.0982805 -0.075567 0.456 255 255 255
0.0851002 -0.0748952 0.461 255 255 255
-0.0143182 0.069142 0.53 255 255 255
-0.518389 -0.311076 1.081 255 255 255
-0.468692 -0.283003 1.068 255 255 255
0.0694592 -0.109475 0.452 0 0 0
0.040694 0.0642852 0.563 255 255 255
0.208943 0.0252943 0.442 255 255 255
0.192126 -0.0370316 0.415 255 255 255
0.070195 -0.111682 0.452 0 0 0
0.118545 0.0815356 0.481 255 255 255
0.134076 -0.144357 0.411 255 255 255
-0.170983 0.0315237 0.394 255 255 255
0.0254812 0.120073 0.455 255 255 255
0.0558004 -0.0865095 0.467 255 255 255
0.0256878 -0.0513814 0.487 255 255 255
-0.0318737 0.129209 0.387 255 255 255
0.108687 -0.0989167 0.441 255 255 255
0.183816 -0.0212161 0.437 0 0 0
-0.136873 0.143834 0.407 255 255 255
-0.165637 -0.220844 0.937 255 255 255
-0.150705 0.0640391 0.405 255 255 255
0.121987 -0.0708475 0.445 0 0 0
0.164318 0.137005 0.427 255 255 255
-0.1568 0.103431 0.347 255 255 255
0.137747 0.0731925 0.488 255 255 255
-0.0702748 0.0264722 0.405 255 255 255
-0.19811 0.0398882 0.382 255 255 255
-0.0742044 -0.0211409 0.655 0 0 0
0.00274813 0.104257 0.496 0 0 0
0.105103 0.0765307 0.484 0 0 0
-0.179607 -0.283888 0.9 255 255 255
0.113712 0.119967 0.441 255 255 255
-0.0831735 -0.00588969 0.462 255 255 255
0.0797755 -0.141785 0.436 0 0 0
0.0245273 -0.0838688 0.465 255 255 255
-0.135738 0.104301 0.368 255 255 255
0.0743767 -0.0101083 0.484 255 255 255
-0.421327 -0.247788 1.037 255 255 255
-0.188775 0.0357377 0.391 255 255 255
-0.0390256 0.140339 0.383 255 255 255
0.181075 -0.112784 0.401 255 255 255
-0.197213 -0.222443 0.957 255 255 255
0.00273705 -0.0609629 0.494 255 255 255
-0.180385 -0.180706 0.967 255 255 255
-0.424989 -0.364458 0.983 255 255 255
-0.249176 -0.306972 0.93 255 255 255
-0.0127127 0.0102571 0.62 255 255 255
-0.0902604 0.129843 0.438 255 255 255
-0.123011 0.0717261 0.373 255 255 255
-0.118239 -0.0199997 0.458 255 255 255
0.18913 0.101306 0.464 255 255 255
0.132462 0.0208663 0.472 0 0 0
0.0264797 0.0886505 0.518 255 255 255
-0.00506808 -0.109711 0.472 0 0 0
-0.0891492 -0.0586724 0.509 255 255 255
0.0374865 0.124058 0.448 255 255 255
0.0763997 0.14393 0.429 255 255 255
-0.132245 0.121378 0.405 255 255 255
0.103876 -0.127238 0.43 255 255 255
0.1251 -0.0512528 0.451 0 0 0
0.0702252 -0.00780942 0.488 255 255 255
0.0416226 0.0934381 0.47 255 255 255
-0.0443129 0.0696724 0.415 255 255 255
0.105533 0.0620976 0.501 255 255 255
0.0913579 0.0865198 0.474 255 255 255
0.0651202 0.0958138 0.463 255 255 255
-0.0201391 0.0901761 0.503 0 0 0
0.222109 0.0367195 0.441 255 255 255
-0.0193843 0.0704659 0.527 255 255 255
0.144737 0.126122 0.435 255 255 255
0.121364 -0.154389 0.411 0 0 0
-0.32294 -0.268507 0.989 255 255 255
0.0205911 0.0309358 0.591 255 255 255
0.207403 0.0518832 0.448 255 255 255
0.190562 -0.115698 0.391 255 255 255
0.168211 0.142276 0.416 0 0 0
0.161394 0.0940025 0.469 255 255 255
-0.30818 -0.311596 0.963 255 255 255
-0.206156 -0.267254 0.934 255 255 255
0.18805 -0.0286606 0.421 255 255 255
0.105111 0.0350525 0.499 255 255 255
0.101609 -0.0493885 0.461 255 255 255
0.0535505 -0.0692937 0.474 255 255 255
-0.223531 -0.234807 0.963 255 255 255
-0.132022 0.0953953 0.366 255 255 255
-0.0965561 0.126563 0.444 255 255 255
0.131819 0.00240616 0.467 255 255 255
-0.100036 0.10193 0.46 0 0 0
-0.183515 0.0326395 0.392 255 255 255
0.060796 0.0694523 0.546 255 255 255
0.18663 -0.0323148 0.424 255 255 255
0.141905 0.126122 0.435 255 255 255
-0.0191317 0.104449 0.411 255 255 255
0.120809 0.149723 0.416 255 255 255
0.204646 -0.0321485 0.413 255 255 255
-0.0878385 0.0911965 0.455 255 255 255
-0.448002 -0.228396 1.081 255 255 255
0.181759 0.0252978 0.455 255 255 255
-0.416103 -0.202757 1.085 255 255 255
0.176837 -0.0874709 0.414 0 0 0
0.147589 0.0152271 0.464 255 255 255
-0.0351913 0.109209 0.419 255 255 255
-0.435339 -0.362952 0.992 255 255 255
-0.440017 -0.369527 0.988 255 255 255
0.0482774 -0.0501734 0.483 0 0 0
-0.0715592 0.123146 0.437 255 255 255
0.20847 0.0230841 0.441 255 255 255
-0.0659101 -0.0924749 0.703 255 255 255
-0.00444551 -0.0784876 0.488 0 0 0
0.144879 0.097741 0.465 255 255 255
-0.0160134 0.0690116 0.529 255 255 255
0.00753125 -0.0647193 0.492 255 255 255
-0.0988162 0.12913 0.438 255 255 255
0.0765801 0.0223678 0.488 255 255 255
0.0819204 -0.0784756 0.46 255 255 255
0.212508 0.065735 0.448 255 255 255
0.136936 -0.108213 0.424 0 0 0
-0.122893 -0.273905 0.882 255 255 255
0.13323 0.0154896 0.472 0 0 0
0.0806423 0.104984 0.457 255 255 255
0.0130135 0.0862879 0.519 255 255 255
-0.661123 -0.100493 1.291 255 255 255
0.00367739 0.091134 0.513 255 255 255
-0.151134 -0.315845 0.871 255 255 255
-0.162635 0.101712 0.345 255 255 255
-0.30156 -0.317332 0.952 255 255 255
0.0150687 0.00095455 0.503 255 255 255
0.0431281 -0.0450413 0.487 0 0 0
-0.430086 -0.344883 1.01 255 255 255
-0.0416031 0.0157846 0.6 255 255 255
0.227369 0.0847558 0.486 255 255 255
0.0373192 -0.15665 0.446 255 255 255
0.110297 -0.0271741 0.466 255 255 255
0.178232 -0.0928565 0.411 0 0 0
-0.190633 0.0617554 0.403 255 255 255
0.067872 0.00897648 0.494 0 0 0
0.196428 0.130369 0.435 255 255 255
-0.000408636 0.098769 0.421 255 255 255
0.149458 -0.0391596 0.447 0 0 0
0.0550402 -0.0880294 0.467 255 255 255
0.0638695 -0.0312446 0.482 0 0 0
-0.173499 -0.0802567 0.499 0 0 0
-0.733019 0.0531178 1.409 255 255 255
0.194777 0.0617144 0.456 255 255 255
0.194931 -0.00344542 0.438 255 255 255
-0.108966 0.132588 0.433 255 255 255
-0.0162366 0.0887668 0.509 255 255 255
-0.0636342 0.0221293 0.587 255 255 255
-0.221105 -0.332201 0.896 255 255 255
-0.0746127 0.132369 0.43 255 255 255
-0.0106827 0.0806855 0.521 255 255 255
0.0305983 0.119071 0.454 255 255 255
0.118631 0.100334 0.463 255 255 255
-0.160991 -0.0517316 0.498 255 255 255
-0.572364 -0.2058 1.162 255 255 255
-0.27066 -0.322452 0.931 255 255 255
0.0206981 -0.108606 0.464 255 255 255
0.00971179 -0.0851892 0.481 255 255 255
-0.181917 0.0888271 0.413 255 255 255
-0.00917397 -0.0876565 0.486 0 0 0
0.0308005 -0.10548 0.457 255 255 255
0.110397 -0.0809857 0.445 0 0 0
0.0881392 -0.100038 0.446 0 0 0
-0.085052 0.117811 0.452 0 0 0
-0.0688526 0.130665 0.429 255 255 255
0.062317 -0.156691 0.438 255 255 255
0.0562254 -0.169068 0.435 255 255 255
-0.180254 0.123123 0.36 255 255 255
-0.282077 -0.217029 1.004 255 255 255
-0.328222 -0.356143 0.944 255 255 255
-0.0755536 -0.256252 0.866 255 255 255
0.19842 0.00873106 0.441 0 0 0
-0.0613488 0.132798 0.416 255 255 255
0.194768 -0.133899 0.383 255 255 255
-0.226323 -0.272609 0.942 255 255 255
0.0200717 -0.110828 0.467 255 255 255
-0.069976 0.051203 0.436 0 0 0
0.177608 -0.0707992 0.419 0 0 0
-0.269929 -0.312999 0.939 255 255 255
-0.0469843 0.120328 0.427 255 255 255
0.040613 0.160731 0.42 255 255 255
-0.113342 -0.316667 0.843 255 255 255
-0.287657 -0.329105 0.937 255 255 255
0.158755 0.148691 0.404 255 255 255
0.110386 -0.143736 0.415 255 255 255
0.0893001 0.131482 0.434 255 255 255
0.210888 -0.0116973 0.427 0 0 0
-0.197417 0.0627812 0.393 255 255 255
0.0179882 0.147358 0.435 255 255 255
-0.141809 -0.0264743 0.43 255 255 255
0.160741 -0.0295038 0.444 0 0 0
-0.137759 0.108795 0.367 255 255 255
-0.615303 -0.171971 1.217 255 255 255
0.120183 -0.158185 0.407 255 255 255
0.233048 0.0959781 0.475 255 255 255
-0.134886 -0.0923134 0.536 0 0 0
0.00795986 0.0847617 0.52 255 255 255
-0.146469 0.0802284 0.335 0 0 0
-0.0796782 -0.103861 0.735 255 255 255
0.220232 0.0613968 0.443 255 255 255
0.027764 0.118111 0.456 255 255 255
0.085479 0.0417258 0.594 255 255 255
-0.0716585 0.0569426 0.442 0 0 0
0.0252571 -0.132719 0.451 255 255 255
0.0906925 0.00647175 0.487 255 255 255
-0.189212 0.086212 0.407 255 255 255
0.0142598 -0.0881767 0.476 255 255 255
0.194152 -0.0451357 0.415 255 255 255
0.170466 -0.04484 0.425 255 255 255
0.0526676 -0.0783842 0.473 0 0 0
0.0313194 0.00421192 0.501 0 0 0
0.190603 -0.0917269 0.406 255 255 255
0.151111 -0.0749304 0.427 255 255 255
0.104475 0.16074 0.413 255 255 255
0.121397 0.0795166 0.483 255 255 255
0.0380564 -0.0627494 0.483 0 0 0
0.106238 0.0299365 0.482 255 255 255
0.0702255 -0.15526 0.434 255 255 255
-0.190624 0.0378912 0.387 255 255 255
-0.0297636 0.118206 0.41 255 255 255
-0.091966 0.0221842 0.399 255 255 255
-0.0925477 0.0989358 0.46 0 0 0
0.192157 0.0881626 0.483 255 255 255
-0.0983962 0.0128314 0.391 255 255 255
0.15679 0.155941 0.399 255 255 255
-0.029278 0.14081 0.386 255 255 255
0.152678 0.0821472 0.48 255 255 255
0.023811 0.0650607 0.554 255 255 255
0.103476 -0.0703726 0.456 255 255 255
0.186638 0.121678 0.442 255 255 255
0.0403229 0.161619 0.417 255 255 255
0.0844817 0.158812 0.424 255 255 255
-0.00886582 0.0879659 0.514 255 255 255
-0.0767609 0.152807 0.401 255 255 255
0.156397 -0.102355 0.417 255 255 255
-0.0230993 0.00221373 0.628 255 255 255
0.14414 -0.122208 0.413 255 255 255
0.11443 -0.0910226 0.441 255 255 255
-0.0024587 0.0999014 0.42 255 255 255
-0.0774824 0.00982277 0.398 255 255 255
0.1314 0.139897 0.411 255 255 255
-0.125328 -0.230562 0.921 255 255 255
0.19797 0.00584717 0.44 0 0 0
-0.0676132 0.128871 0.43 255 255 255
-0.131068 0.109402 0.386 255 255 255
-0.17205 0.124881 0.36 255 255 255
0.120678 0.032525 0.474 255 255 255
0.200762 0.0203052 0.443 255 255 255
0.0727147 -0.155951 0.432 255 255 255
-0.102364 0.0826492 0.441 0 0 0
-0.0945989 0.131785 0.435 255 255 255
0.0497093 -0.164567 0.44 0 0 0
0.173821 -0.144062 0.392 255 255 255
-0.192939 0.0544672 0.393 255 255 255
0.10312 -0.0837188 0.448 0 0 0
0.141302 0.131976 0.431 255 255 255
-0.388164 -0.361673 0.967 255 255 255
0.1825 -0.123288 0.397 255 255 255
-0.164396 0.143892 0.376 255 255 255
-0.0229953 0.0982094 0.494 0 0 0
0.0784947 -0.161849 0.429 255 255 255
-0.0865222 0.0325639 0.407 255 255 255
0.0682885 -0.107743 0.454 0 0 0
0.116291 0.111679 0.451 255 255 255
0.195706 -0.0362686 0.414 255 255 255
0.0156767 -0.0858995 0.472 255 255 255
0.0268809 0.151263 0.43 255 255 255
0.193551 0.0109334 0.443 0 0 0
0.0914853 0.00409422 0.487 255 255 255
-0.0827511 0.0625552 0.436 255 255 255
-0.144608 -0.0278738 0.43 255 255 255
