ply
format ascii 1.0
comment Created by Open3D
element vertex 1308
property double x
property double y
property double z
property uchar red
property uchar green
property uchar blue
end_header
0.158518 0.0748161 0.45 255 255 255
0.0191278 0.0153363 0.549 0 0 0
-0.680019 -0.281986 1.345 255 255 255
-0.0389985 0.132908 0.402 255 255 255
0.088386 0.118263 0.44 255 255 255
-0.0929367 -0.280358 0.958 255 255 255
0.1126 -0.117255 0.448 0 0 0
-0.132551 0.0124135 0.398 255 255 255
-0.0768317 0.0677684 0.385 255 255 255
0.173821 0.142361 0.392 255 255 255
-0.0112114 -0.0282521 0.415 255 255 255
-0.17598 0.115161 0.404 255 255 255
0.106009 0.149544 0.401 255 255 255
0.0379193 0.0693366 0.413 255 255 255
-0.0607433 0.0717032 0.463 0 0 0
0.175535 0.0597768 0.464 255 255 255
0.0339309 0.0328556 0.529 255 255 255
0.168976 0.0999266 0.423 255 255 255
-0.00784342 -0.315021 0.861 255 255 255
-0.0629593 -0.310054 0.908 255 255 255
-0.481571 -0.360858 1.162 255 255 255
-0.00626397 -0.0057646 0.401 255 255 255
0.0805558 -0.0978338 0.474 255 255 255
0.140032 -0.103946 0.438 255 255 255
-0.00686086 -0.240006 0.917 255 255 255
-0.0561803 -0.00822865 0.394 255 255 255
-0.0411102 0.0386924 0.431 255 255 255
-0.769022 -0.10054 1.551 255 255 255
0.0362322 -0.300205 0.843 255 255 255
-0.0447027 -0.0119224 0.389 255 255 255
0.161732 -0.0834132 0.435 255 255 255
-0.360293 -0.406773 1.051 255 255 255
0.0749572 -0.0343644 0.493 0 0 0
0.176606 -0.00954439 0.457 0 0 0
0.059179 -0.0247327 0.612 0 0 0
0.0563367 -0.0932143 0.478 0 0 0
-0.00235333 -0.00381642 0.402 255 255 255
-0.0663629 -0.0533361 0.45 255 255 255
0.0454465 0.150269 0.391 255 255 255
0.168482 0.106141 0.415 255 255 255
0.115586 0.0352461 0.553 255 255 255
0.11287 -0.105797 0.452 255 255 255
0.204212 0.0227722 0.449 255 255 255
-0.698461 -0.0709932 1.513 255 255 255
-0.51695 -0.388332 1.165 255 255 255
0.0417636 -0.0421958 0.635 0 0 0
-0.731458 -0.276471 1.406 255 255 255
0.0910101 0.0141665 0.574 0 0 0
0.122222 0.102289 0.433 255 255 255
0.192571 0.0955358 0.428 255 255 255
-0.0343743 0.138599 0.394 255 255 255
0.0221931 0.0727737 0.48 0 0 0
-0.135637 0.0948873 0.371 255 255 255
-0.160225 0.0315796 0.372 255 255 255
0.116576 0.143266 0.413 255 255 255
-0.257526 -0.329923 1.03 255 255 255
0.0424289 -0.319887 0.83 255 255 255
-0.047015 0.0210478 0.415 255 255 255
0.0760671 -0.0570586 0.495 0 0 0
-0.0843728 0.0568705 0.356 255 255 255
0.143506 0.114526 0.421 255 255 255
-0.0462349 0.0416904 0.433 255 255 255
0.148886 0.0259631 0.496 255 255 255
-0.0333813 -0.0784895 0.493 0 0 0
0.108375 0.104644 0.434 255 255 255
0.174533 -0.0339915 0.446 0 0 0
-0.116479 0.0326854 0.417 255 255 255
-0.0890837 0.0694186 0.361 255 255 255
-0.0698088 0.0137175 0.418 255 255 255
-0.0221889 -0.305555 0.874 255 255 255
0.0938241 -0.15021 0.442 255 255 255
-0.0390023 0.0183906 0.416 255 255 255
0.190929 -0.0368613 0.437 0 0 0
-0.0302937 -0.0796134 0.495 0 0 0
0.113581 -0.142168 0.435 0 0 0
-0.11148 0.0961773 0.369 255 255 255
-0.0407034 0.0903071 0.458 255 255 255
-0.7047 -0.243184 1.412 255 255 255
0.186911 0.0592761 0.466 0 0 0
-0.0835628 0.062782 0.36 255 255 255
0.206531 0.0152588 0.443 255 255 255
0.17957 -0.109577 0.411 255 255 255
0.185731 0.13707 0.397 255 255 255
0.0219628 0.0467058 0.511 0 0 0
-0.428599 -0.351542 1.132 255 255 255
-0.710953 -0.0399644 1.551 255 255 255
0.184475 -0.0735407 0.427 255 255 255
0.215169 -0.0229755 0.43 0 0 0
0.101207 -0.12036 0.446 255 255 255
0.133304 -0.0176501 0.475 0 0 0
0.140721 0.146483 0.407 255 255 255
-0.061255 0.0240353 0.42 255 255 255
-0.223587 0.0813742 0.438 0 0 0
0.165478 -0.0343725 0.451 255 255 255
-0.750662 -0.21463 1.452 255 255 255
-0.0543908 0.055504 0.442 255 255 255
0.128203 0.0879896 0.439 0 0 0
-0.491683 -0.13847 1.333 255 255 255
0.0114738 0.112915 0.383 0 0 0
0.156009 -0.10181 0.429 0 0 0
-0.57543 -0.223572 1.336 255 255 255
0.150804 0.0243979 0.497 255 255 255
-0.0638648 0.1316 0.402 255 255 255
-0.413937 -0.170395 1.249 255 255 255
-0.0732629 0.044816 0.443 0 0 0
-0.183121 0.139709 0.373 255 255 255
-0.113512 0.11321 0.384 255 255 255
0.187171 -0.0845086 0.416 0 0 0
-0.0582273 0.0761225 0.467 0 0 0
0.131649 -0.138858 0.427 255 255 255
-0.059217 0.111465 0.425 255 255 255
-0.0906192 0.0965884 0.385 255 255 255
-0.0954573 0.106 0.392 255 255 255
0.186339 -0.0186238 0.443 255 255 255
0.192665 -0.131974 0.394 255 255 255
0.176993 0.0105583 0.458 255 255 255
-0.460699 -0.249664 1.249 255 255 255
0.200516 -0.0824772 0.406 255 255 255
-0.0598757 -0.0737477 0.468 0 0 0
0.0984298 -0.0198023 0.49 0 0 0
0.022585 -0.0927692 0.68 255 255 255
0.0879199 -0.0965248 0.464 255 255 255
-0.100819 0.135049 0.393 255 255 255
0.133005 0.0902263 0.436 255 255 255
0.219778 0.0761573 0.445 255 255 255
-0.767206 -0.187965 1.484 255 255 255
-0.143515 0.136331 0.384 255 255 255
0.119544 -0.0879887 0.455 255 255 255
0.0700196 0.0519585 0.522 255 255 255
0.0864929 0.0978821 0.445 255 255 255
-0.123565 0.0240714 0.409 255 255 255
0.172934 0.151789 0.39 255 255 255
0.185822 -0.0912921 0.413 255 255 255
0.119888 0.146784 0.406 255 255 255
0.0150663 0.0754238 0.477 0 0 0
0.00367681 0.0545309 0.418 0 0 0
-0.0849942 -0.127837 0.535 0 0 0
-0.0281513 0.0264584 0.426 0 0 0
-0.0902431 0.0307019 0.4 255 255 255
0.218186 0.054961 0.468 255 255 255
-0.0821817 0.0297117 0.433 0 0 0
0.210617 -0.00344542 0.438 0 0 0
-0.588542 -0.436229 1.187 255 255 255
-0.16425 -0.324665 0.974 255 255 255
0.0953967 0.0309134 0.556 255 255 255
-0.147081 0.122211 0.397 0 0 0
0.137012 -0.148885 0.42 255 255 255
-0.0139494 -0.283133 0.893 255 255 255
-0.428671 -0.329633 1.152 255 255 255
-0.0278897 0.140805 0.393 255 255 255
0.0751787 -0.141526 0.451 0 0 0
-0.594027 -0.0604958 1.439 255 255 255
0.196901 0.0364368 0.485 0 0 0
0.105024 -0.0629897 0.473 0 0 0
0.0747564 -0.046775 0.497 0 0 0
-0.555695 -0.397597 1.187 255 255 255
0.0843197 0.100055 0.445 255 255 255
0.220806 0.0207413 0.437 255 255 255
-0.65015 -0.0842923 1.487 255 255 255
-0.140394 0.0810268 0.363 255 255 255
0.194532 0.150469 0.385 255 255 255
0.129656 -0.0397219 0.462 255 255 255
-0.524354 -0.0612655 1.403 255 255 255
-0.477035 -0.080006 1.372 255 255 255
0.0909974 0.0797379 0.453 0 0 0
0.167472 0.129606 0.406 255 255 255
-0.0547569 -0.248872 0.945 255 255 255
0.0917692 -0.148666 0.446 255 255 255
-0.0679597 -0.00448173 0.403 255 255 255
-0.0904397 0.025367 0.398 255 255 255
0.114228 -0.123155 0.443 255 255 255
0.116872 0.01864 0.568 255 255 255
-0.258614 -0.308401 1.048 255 255 255
-0.0922668 0.10281 0.392 255 255 255
0.165109 -0.0248866 0.452 255 255 255
0.164512 -0.0858482 0.433 255 255 255
-0.0189817 0.13924 0.394 255 255 255
-0.470185 -0.379665 1.139 255 255 255
0.158582 -0.117724 0.421 0 0 0
-0.0586498 0.0393937 0.431 255 255 255
0.0146672 0.11789 0.385 255 255 255
-0.338797 -0.330235 1.092 255 255 255
0.0807318 0.0657502 0.504 255 255 255
0.146583 0.104686 0.42 255 255 255
-0.0690337 0.083005 0.463 255 255 255
-0.0491731 -0.0284719 0.475 0 0 0
-0.385335 -0.149229 1.242 255 255 255
-0.693385 -0.310314 1.354 255 255 255
-0.532911 -0.179686 1.333 255 255 255
0.137656 -0.111729 0.435 255 255 255
-0.155516 0.0475825 0.389 255 255 255
0.0342498 -0.0892243 0.67 255 255 255
-0.107191 0.138925 0.386 255 255 255
0.181266 -0.0538053 0.436 255 255 255
-0.07872 0.113425 0.422 255 255 255
0.149334 0.134562 0.407 255 255 255
0.217832 0.0295736 0.464 255 255 255
0.171028 -0.0147825 0.458 0 0 0
0.120759 -0.0907505 0.454 255 255 255
-0.0073052 0.138026 0.387 0 0 0
0.190646 0.0704643 0.455 0 0 0
-0.650173 -0.231605 1.384 255 255 255
-0.0523648 -0.0873896 0.498 255 255 255
0.180206 -0.102966 0.414 255 255 255
-0.0181246 0.0992219 0.435 255 255 255
-0.179955 -0.27638 1.018 255 255 255
0.154522 0.126828 0.412 255 255 255
-0.489584 -0.313423 1.205 255 255 255
-0.645863 -0.176173 1.409 255 255 255
-0.0230784 0.0172824 0.422 0 0 0
-0.129553 0.0413181 0.422 255 255 255
0.17673 -0.132365 0.403 255 255 255
-0.758274 -0.0256527 1.603 255 255 255
-0.16562 0.138386 0.376 255 255 255
-0.400394 -0.353741 1.11 255 255 255
0.182211 0.0694383 0.458 0 0 0
-0.0398501 0.131597 0.404 255 255 255
-0.000878422 -0.258956 0.905 255 255 255
-0.18241 0.125454 0.391 255 255 255
0.0458153 0.066722 0.499 0 0 0
-0.219426 -0.324838 1.009 255 255 255
-0.073483 -0.0535829 0.44 0 0 0
-0.483107 -0.0155248 1.396 255 255 255
-0.734663 -0.0918293 1.532 255 255 255
-0.0406601 -0.108599 0.514 255 255 255
0.0677688 -0.164223 0.441 0 0 0
-0.0803163 0.0516565 0.356 255 255 255
0.0698105 0.153205 0.392 255 255 255
-0.620731 -0.24069 1.359 255 255 255
0.0196223 -0.177828 0.655 0 0 0
-0.137925 0.0551133 0.345 255 255 255
-0.103909 0.0963538 0.372 255 255 255
-0.415594 -0.160874 1.254 255 255 255
-0.541008 -0.308899 1.242 255 255 255
-0.0535401 -0.279429 0.924 255 255 255
-0.459403 -0.172722 1.297 255 255 255
0.177108 -0.0803009 0.426 255 255 255
0.0523167 -0.08257 0.484 0 0 0
0.0415438 -0.0132372 0.588 255 255 255
-0.0348101 0.077975 0.469 255 255 255
-0.0171309 0.0523774 0.446 255 255 255
0.179906 -0.0889962 0.418 0 0 0
-0.569355 -0.363665 1.229 255 255 255
0.0660519 -0.129844 0.459 0 0 0
-0.157908 -0.3104 0.974 255 255 255
-0.503799 -0.133447 1.348 255 255 255
-0.0810817 -0.000569916 0.42 255 255 255
-0.72609 -0.129741 1.509 255 255 255
0.00484483 0.0347806 0.402 255 255 255
0.201402 -0.0350335 0.432 255 255 255
-0.186569 -0.338863 0.983 255 255 255
0.178497 0.0421339 0.478 255 255 255
-0.0153256 0.133865 0.399 0 0 0
0.0856618 0.0876866 0.456 255 255 255
-0.652436 -0.396464 1.27 255 255 255
-0.139556 0.127699 0.394 255 255 255
-0.116316 0.0810759 0.358 255 255 255
0.0289881 0.052523 0.503 255 255 255
0.210666 -0.0457882 0.421 0 0 0
-0.40793 -0.222728 1.213 255 255 255
0.175523 0.0815822 0.443 0 0 0
0.129187 0.154902 0.398 255 255 255
-0.190498 0.134201 0.378 255 255 255
0.118301 -0.159962 0.424 0 0 0
-0.280763 -0.362169 1.017 255 255 255
-0.151119 0.0357339 0.359 255 255 255
0.214131 -0.00342182 0.435 255 255 255
0.109493 -0.0148953 0.486 0 0 0
0.178255 -0.12942 0.402 255 255 255
-0.0816694 0.0820739 0.462 255 255 255
-0.0866905 0.0506408 0.349 0 0 0
0.0661502 0.151677 0.393 255 255 255
0.132034 -0.141306 0.426 255 255 255
-0.378926 -0.296988 1.149 255 255 255
-0.118344 -0.341448 0.925 255 255 255
-0.0353596 0.124448 0.413 255 255 255
-0.0520574 -0.0647493 0.453 255 255 255
-0.305958 -0.288568 1.089 255 255 255
0.175562 -0.094664 0.419 255 255 255
-0.729024 -0.294667 1.384 255 255 255
0.142817 -0.0540472 0.456 255 255 255
0.175138 0.00983438 0.459 255 255 255
0.229664 0.0473798 0.476 255 255 255
-0.67915 -0.128429 1.466 255 255 255
-0.696247 -0.33381 1.351 255 255 255
0.128192 0.0205247 0.569 255 255 255
0.112982 -0.0313742 0.484 0 0 0
0.00418002 0.0327364 0.401 255 255 255
-0.0509199 -0.000540063 0.398 0 0 0
0.0533907 0.0248887 0.543 255 255 255
-0.647921 -0.224848 1.384 255 255 255
-0.0811652 0.134486 0.397 255 255 255
0.1752 0.133883 0.401 255 255 255
-0.0826683 -0.0804189 0.495 255 255 255
-0.0615892 -0.280332 0.932 255 255 255
0.0844137 -0.0854921 0.474 255 255 255
0.144755 -0.00448097 0.472 255 255 255
0.0705829 -0.0819513 0.485 255 255 255
-0.31491 -0.357859 1.048 255 255 255
0.094988 -0.0143148 0.593 255 255 255
0.0580729 -0.00646125 0.581 255 255 255
-0.0916747 0.0919994 0.379 255 255 255
-0.199443 0.12669 0.387 255 255 255
-0.0814216 0.125597 0.408 255 255 255
-0.594632 -0.236022 1.345 255 255 255
-0.0905349 0.142459 0.382 255 255 255
0.0377479 -0.214069 0.655 255 255 255
-0.107777 0.0601995 0.342 255 255 255
0.1664 0.114787 0.405 255 255 255
0.0733715 0.146282 0.401 255 255 255
0.176717 0.126389 0.4 255 255 255
0.219673 0.0172642 0.439 255 255 255
-0.10054 0.0574167 0.342 0 0 0
-0.205803 0.0996903 0.422 255 255 255
0.113616 -0.0831474 0.461 255 255 255
0.0801013 -0.00848159 0.59 255 255 255
-0.117523 0.139372 0.389 255 255 255
0.140423 0.0882998 0.437 0 0 0
0.034812 0.130759 0.386 255 255 255
-0.0203204 0.00276612 0.408 0 0 0
-0.554366 -0.163286 1.359 255 255 255
-0.11919 0.00924425 0.401 255 255 255
-0.038372 0.114653 0.424 255 255 255
0.10014 -0.161575 0.432 255 255 255
0.00615048 -0.313924 0.858 255 255 255
0.0629763 -0.144365 0.453 0 0 0
-0.0730918 -0.00583648 0.406 0 0 0
0.183889 0.0324236 0.484 255 255 255
-0.137101 0.0690291 0.353 255 255 255
0.127597 -0.0694927 0.46 255 255 255
-0.411561 -0.410092 1.087 255 255 255
-0.0656255 0.0558807 0.445 255 255 255
-0.676985 -0.335203 1.339 255 255 255
0.208298 0.120653 0.407 255 255 255
-0.170204 0.1428 0.37 255 255 255
0.0312553 -0.134026 0.676 255 255 255
0.157039 -0.104359 0.428 0 0 0
0.196551 0.117714 0.406 255 255 255
-0.501477 -0.426638 1.126 255 255 255
-0.131376 -0.342515 0.932 255 255 255
-0.202089 0.116264 0.401 255 255 255
-0.064167 0.141539 0.388 255 255 255
0.190562 -0.142422 0.391 255 255 255
0.00417819 0.0743346 0.475 0 0 0
-0.0894856 0.136907 0.391 255 255 255
-0.0248354 0.0984376 0.441 0 0 0
0.0467194 0.150905 0.391 255 255 255
0.0162081 0.0604863 0.488 0 0 0
0.109626 -0.0897042 0.46 255 255 255
0.186456 0.0812264 0.445 255 255 255
-0.158268 -0.340802 0.957 255 255 255
0.203826 -0.0746161 0.41 0 0 0
-0.35087 -0.265201 1.149 255 255 255
-0.140265 0.021373 0.396 255 255 255
-0.00237674 0.103839 0.406 255 255 255
0.0920639 0.0874591 0.451 255 255 255
0.0603615 -0.119188 0.467 0 0 0
-0.0640261 0.101563 0.439 255 255 255
-0.0880784 0.0553424 0.35 255 255 255
-0.0165888 0.0434235 0.451 255 255 255
0.036068 0.0577895 0.499 255 255 255
0.141786 -0.1441 0.422 255 255 255
0.0689738 0.145338 0.402 255 255 255
-0.0316421 0.1342 0.4 255 255 255
-0.0723717 -0.0116667 0.402 255 255 255
-0.074151 -0.032394 0.444 0 0 0
0.0922621 -0.154553 0.438 255 255 255
0.200504 -0.103253 0.402 0 0 0
0.100175 0.152835 0.396 255 255 255
-0.153379 0.0178461 0.376 255 255 255
-0.0578363 -0.0748277 0.47 0 0 0
-0.168768 0.130759 0.386 255 255 255
0.102063 -0.0763574 0.47 0 0 0
-0.185048 -0.322594 0.992 255 255 255
-0.21357 -0.346934 0.997 255 255 255
0.0814082 -0.157764 0.441 255 255 255
-0.382232 -0.162061 1.232 255 255 255
0.0509615 -0.29943 0.837 255 255 255
-0.151868 0.0432834 0.396 255 255 255
-0.383779 -0.295545 1.158 255 255 255
0.17408 -0.0489019 0.443 255 255 255
-0.137162 0.0866975 0.367 255 255 255
-0.359663 -0.340362 1.096 255 255 255
0.0384453 0.150905 0.391 255 255 255
-0.516619 -0.405542 1.16 255 255 255
0.174735 -0.000618766 0.456 255 255 255
-0.166057 -0.347031 0.957 255 255 255
0.0332682 0.140365 0.39 0 0 0
-0.136526 0.0696035 0.353 255 255 255
-0.0235561 -0.0378873 0.458 255 255 255
-0.467532 -0.179744 1.302 255 255 255
0.20607 -0.032772 0.43 255 255 255
0.0305242 0.0700087 0.413 255 255 255
0.166003 0.0350021 0.487 255 255 255
0.0933153 0.0974422 0.443 255 255 255
-0.0821094 0.0691123 0.372 255 255 255
-0.100893 0.0659751 0.349 255 255 255
-0.120043 0.0895429 0.364 255 255 255
-0.428153 -0.16048 1.267 255 255 255
-0.286584 -0.347357 1.032 255 255 255
0.145333 0.077013 0.45 255 255 255
-0.0734391 0.0354321 0.368 255 255 255
-0.0279327 -0.0886529 0.496 0 0 0
0.0504944 0.137534 0.406 0 0 0
0.227531 0.0756026 0.446 255 255 255
-0.0185729 0.106929 0.429 255 255 255
0.0797723 -0.0311553 0.493 0 0 0
0.174127 0.0256631 0.506 255 255 255
0.183356 -0.112372 0.409 255 255 255
-0.412709 -0.333327 1.139 255 255 255
-0.116758 0.033444 0.418 255 255 255
0.160194 0.068096 0.459 255 255 255
0.155071 0.0501601 0.473 255 255 255
-0.0735612 0.0124162 0.42 0 0 0
0.0970368 0.149448 0.399 255 255 255
0.0888252 -0.123329 0.457 255 255 255
0.189289 0.145815 0.391 255 255 255
-0.477894 -0.162033 1.313 255 255 255
-0.175359 -0.309679 0.992 255 255 255
0.0609008 0.120609 0.433 255 255 255
-0.0661489 -0.246585 0.954 255 255 255
0.0874412 -0.0454113 0.491 255 255 255
-0.540857 -0.340322 1.21 255 255 255
0.0867641 0.0887796 0.454 0 0 0
-0.144687 0.128981 0.394 255 255 255
-0.151175 0.0315118 0.386 255 255 255
-0.243095 -0.35626 1.005 255 255 255
0.14138 -0.124266 0.427 255 255 255
-0.0458077 0.0371166 0.429 255 255 255
0.168547 -0.136328 0.407 0 0 0
-0.685251 -0.309626 1.351 255 255 255
0.0950978 0.0803159 0.448 0 0 0
-0.139842 0.120979 0.393 255 255 255
-0.0373794 -0.0420682 0.463 255 255 255
-0.0460563 -0.0631353 0.452 255 255 255
0.100127 0.114795 0.435 255 255 255
-0.136467 -0.267437 0.991 255 255 255
0.158089 0.153993 0.399 255 255 255
-0.0806557 -0.0302264 0.444 255 255 255
0.0503244 0.0915179 0.41 255 255 255
-0.096455 0.0762563 0.36 255 255 255
0.00211096 0.118525 0.381 255 255 255
0.140991 -0.0953285 0.441 0 0 0
-0.235817 -0.360811 0.995 255 255 255
-0.725864 -0.311329 1.378 255 255 255
-0.332084 -0.383309 1.043 255 255 255
0.128356 -0.100263 0.447 255 255 255
0.149724 0.0971552 0.429 255 255 255
0.0826457 -0.033426 0.491 0 0 0
-0.79564 -0.147347 1.539 255 255 255
-0.0978086 -0.333654 0.916 255 255 255
-0.0139398 0.089011 0.437 255 255 255
-0.00251724 0.0847862 0.43 255 255 255
0.169687 -0.118848 0.413 255 255 255
-0.68256 -0.219738 1.409 255 255 255
0.144737 -0.103234 0.435 255 255 255
-0.0479308 0.0875258 0.463 255 255 255
0.0647971 -0.0746696 0.489 0 0 0
-0.209536 0.0898125 0.434 255 255 255
-0.122286 0.0407276 0.423 255 255 255
0.143708 0.0418751 0.484 255 255 255
-0.0766949 0.0965029 0.442 255 255 255
0.0717643 -0.10587 0.472 255 255 255
0.0330798 -0.00264706 0.574 255 255 255
-0.01209 -0.309089 0.864 255 255 255
-0.0258541 0.0311928 0.434 0 0 0
-0.0956907 0.117569 0.401 255 255 255
-0.193162 0.135938 0.376 255 255 255
0.184657 -0.0427451 0.439 0 0 0
-0.129031 0.139858 0.38 255 255 255
-0.00317231 0.0573836 0.424 0 0 0
0.0758351 -0.122953 0.464 255 255 255
-0.0776944 0.0552887 0.452 255 255 255
-0.121013 0.05219 0.337 255 255 255
-0.0348854 0.0474843 0.441 255 255 255
-0.0649974 -0.0236835 0.472 0 0 0
0.111184 0.0586271 0.473 255 255 255
0.0444564 0.0605877 0.502 255 255 255
0.191049 0.14555 0.392 255 255 255
-0.0263661 -0.322932 0.871 255 255 255
0.101207 0.0944731 0.446 255 255 255
0.114321 -0.0289514 0.483 0 0 0
-0.221092 0.075815 0.443 0 0 0
0.168098 0.0472803 0.475 255 255 255
0.0687235 -0.141839 0.452 0 0 0
-0.00982504 0.146842 0.387 255 255 255
0.156459 -0.0200434 0.459 255 255 255
-0.149535 -0.337117 0.951 255 255 255
0.153823 -0.0595272 0.447 255 255 255
0.0295452 -0.296465 0.848 255 255 255
-0.0499607 0.00803812 0.406 255 255 255
0.119018 0.0694174 0.453 255 255 255
0.158723 0.109265 0.409 255 255 255
0.173913 0.0173255 0.503 255 255 255
0.143684 0.0105937 0.583 255 255 255
-0.0320837 0.148675 0.382 255 255 255
-0.268749 -0.32667 1.041 255 255 255
-0.0895663 0.00785994 0.397 0 0 0
0.216569 -0.0145785 0.43 255 255 255
-0.0488141 0.133563 0.402 255 255 255
-0.117765 0.0269298 0.412 255 255 255
0.0140405 0.122276 0.385 255 255 255
0.00574392 -0.0593316 0.653 0 0 0
-0.185118 0.0350117 0.39 255 255 255
-0.399029 -0.327191 1.137 255 255 255
-0.416745 -0.270894 1.182 255 255 255
0.0822766 -0.122423 0.462 255 255 255
-0.218763 -0.283226 1.037 255 255 255
-0.198532 0.0627674 0.414 255 255 255
0.207681 0.068243 0.455 0 0 0
-0.050453 0.124878 0.41 255 255 255
-0.219388 -0.286899 1.032 255 255 255
-0.0384395 0.132583 0.403 255 255 255
0.0762207 -0.0434523 0.496 0 0 0
0.151793 0.0619084 0.463 255 255 255
-0.125606 0.108652 0.379 255 255 255
0.113059 0.104403 0.433 255 255 255
0.0492611 0.0653588 0.501 0 0 0
-0.0800889 -0.084276 0.494 255 255 255
0.103669 -0.0468347 0.481 255 255 255
-0.123218 0.139285 0.387 255 255 255
-0.829009 0.0321525 1.624 255 255 255
0.102705 0.145463 0.406 255 255 255
0.00868935 -0.149988 0.721 0 0 0
0.196372 -0.0965891 0.407 0 0 0
0.0687398 -0.123926 0.462 0 0 0
0.173359 -0.0525064 0.443 255 255 255
0.0977777 -0.158085 0.434 255 255 255
0.128699 -0.0123166 0.478 255 255 255
0.0251897 0.126627 0.383 255 255 255
-0.412314 -0.214188 1.232 255 255 255
0.100411 -0.0411631 0.488 255 255 255
-0.0480353 0.0252813 0.418 255 255 255
0.210479 -0.045897 0.422 0 0 0
-0.581514 -0.0020232 1.491 255 255 255
0.0538032 -0.180849 0.643 255 255 255
-0.128178 0.0559744 0.34 0 0 0
0.0499969 0.142721 0.402 255 255 255
-0.0367969 -0.219557 0.958 255 255 255
-0.0564596 0.125545 0.41 255 255 255
0.165652 -0.0722527 0.436 255 255 255
0.198452 0.129243 0.389 255 255 255
0.0851853 -0.0793213 0.474 255 255 255
0.184602 -0.122528 0.403 255 255 255
-0.239849 -0.286231 1.048 255 255 255
-0.178821 0.0333963 0.386 255 255 255
0.093697 -0.100713 0.459 255 255 255
0.0155434 0.097047 0.408 255 255 255
0.00216083 0.128306 0.39 0 0 0
-0.0866178 0.0737589 0.368 255 255 255
0.193602 0.141723 0.392 255 255 255
0.188817 0.127058 0.394 255 255 255
0.13999 0.098092 0.427 255 255 255
-0.412083 -0.129041 1.262 255 255 255
-0.684854 -0.222031 1.409 255 255 255
-0.0799658 -0.0307905 0.404 255 255 255
-0.154001 0.0515168 0.405 255 255 255
0.177595 0.113646 0.408 255 255 255
0.197697 -0.0833426 0.407 255 255 255
0.0792463 0.145629 0.401 255 255 255
-0.436835 -0.073308 1.372 255 255 255
-0.464164 -0.0943802 1.354 255 255 255
-0.131585 0.0143926 0.399 255 255 255
0.109197 -0.116786 0.449 0 0 0
-0.120981 0.135344 0.392 255 255 255
0.149497 -0.00446199 0.47 255 255 255
0.154807 -0.0179577 0.463 255 255 255
-0.192284 0.0974029 0.424 255 255 255
-0.0637441 0.0511883 0.442 255 255 255
0.0844157 -0.0487064 0.492 255 255 255
-0.0296071 -0.0993458 0.497 0 0 0
0.000312157 0.0704697 0.475 0 0 0
-0.0217548 0.12688 0.41 0 0 0
0.119399 0.117136 0.423 255 255 255
0.0659128 -0.160642 0.443 0 0 0
-0.0616303 0.144454 0.384 255 255 255
-0.0152306 -0.295769 0.883 255 255 255
0.0655364 0.0870674 0.477 0 0 0
0.216832 0.0367374 0.489 255 255 255
0.196855 -0.088195 0.408 255 255 255
-0.0595714 0.140089 0.391 255 255 255
0.0406254 -0.000780242 0.575 255 255 255
-0.0519565 0.00271866 0.401 255 255 255
-0.11384 0.141585 0.383 255 255 255
-0.0371153 -0.119012 0.523 0 0 0
-0.0913176 0.0879771 0.375 255 255 255
0.107107 -0.0674651 0.472 0 0 0
-0.0433604 -0.083979 0.497 255 255 255
0.132977 -0.100086 0.443 255 255 255
-0.0142489 0.107315 0.425 255 255 255
0.175448 0.0819316 0.441 0 0 0
0.102244 -0.0504319 0.478 255 255 255
0.00341215 0.0713927 0.476 0 0 0
-0.00962276 -0.0137309 0.405 255 255 255
0.17133 -0.0694146 0.436 255 255 255
-0.0814225 0.0182672 0.429 0 0 0
-0.175328 -0.265304 1.02 255 255 255
0.0191869 0.0677266 0.483 0 0 0
0.0324073 -0.0211764 0.596 255 255 255
-0.572786 -0.168573 1.366 255 255 255
-0.0795729 -0.0329673 0.442 0 0 0
-0.584144 -0.0671925 1.432 255 255 255
0.211206 -0.0522642 0.418 255 255 255
0.179653 0.0653919 0.461 255 255 255
0.157776 0.108865 0.41 255 255 255
0.17495 -0.145532 0.396 0 0 0
0.198328 0.128941 0.39 255 255 255
-0.678676 -0.254678 1.387 255 255 255
0.194483 -0.0852914 0.41 255 255 255
-0.0996823 -0.292858 0.948 255 255 255
0.163285 0.140358 0.399 255 255 255
-0.00281318 0.117582 0.376 255 255 255
0.0920921 -0.00852471 0.593 255 255 255
0.123631 -0.138696 0.433 0 0 0
-0.257692 -0.339666 1.024 255 255 255
0.065267 0.0540893 0.518 255 255 255
0.125609 -0.108504 0.445 255 255 255
-0.0582416 0.0218802 0.418 255 255 255
-0.115389 0.0186092 0.406 255 255 255
0.13453 -0.10107 0.441 255 255 255
-0.052906 0.0791624 0.467 0 0 0
0.0959909 0.132708 0.42 255 255 255
-0.0594891 0.0408912 0.432 255 255 255
-0.14497 -0.274717 0.994 255 255 255
-0.149396 0.123166 0.398 0 0 0
0.17867 -0.134635 0.4 255 255 255
-0.341782 -0.369902 1.068 255 255 255
0.155938 -0.115385 0.425 0 0 0
0.130564 -0.137791 0.428 255 255 255
0.113835 -0.108991 0.45 0 0 0
0.0120656 0.106404 0.382 0 0 0
-0.11307 0.0269298 0.412 255 255 255
-0.0589438 -0.080158 0.479 255 255 255
0.0143785 -0.0802525 0.659 255 255 255
-0.198265 0.0772682 0.431 0 0 0
0.0408356 0.0962741 0.402 255 255 255
-0.0133496 -0.0479634 0.441 255 255 255
-0.143074 -0.290281 0.981 255 255 255
0.216538 0.000118158 0.437 0 0 0
-0.0622097 0.002739 0.404 0 0 0
-0.0880332 -0.0979249 0.498 255 255 255
0.149123 -0.0702809 0.446 0 0 0
-0.0836813 0.0583552 0.358 255 255 255
-0.020854 0.0861482 0.448 255 255 255
-0.682169 -0.0196705 1.543 255 255 255
-0.467509 -0.3864 1.137 255 255 255
-0.0744739 -0.102589 0.505 255 255 255
-0.0274578 0.0257651 0.426 0 0 0
0.209636 0.0218452 0.445 255 255 255
-0.00109914 0.0579366 0.423 0 0 0
-0.0337464 0.120513 0.418 255 255 255
-0.10812 0.099915 0.374 255 255 255
0.0247586 0.104377 0.386 255 255 255
-0.0559315 0.119936 0.416 255 255 255
-0.16224 0.135886 0.381 255 255 255
-0.131237 0.0441694 0.423 255 255 255
0.190709 0.146711 0.39 255 255 255
-0.0140355 0.0273279 0.44 0 0 0
-0.0503415 0.113807 0.426 255 255 255
-0.184508 0.0996903 0.422 255 255 255
-0.597844 -0.432973 1.194 255 255 255
0.173971 0.110067 0.412 255 255 255
-0.539592 -0.224239 1.302 255 255 255
0.146146 -0.0705961 0.448 0 0 0
0.106035 -0.140366 0.436 255 255 255
0.00621481 0.0397515 0.406 255 255 255
0.0888833 0.0520581 0.523 255 255 255
0.169977 -0.0668819 0.438 255 255 255
0.122987 -0.0154926 0.48 0 0 0
0.0568433 -0.0660526 0.496 0 0 0
0.0736378 -0.0216028 0.608 0 0 0
-0.379829 -0.325279 1.124 255 255 255
-0.078278 -0.00124146 0.416 255 255 255
-0.445502 -0.21359 1.252 255 255 255
-0.130279 0.00915204 0.397 255 255 255
0.0375186 -0.103116 0.69 0 0 0
0.178909 -0.128112 0.402 255 255 255
0.185919 -0.0264938 0.442 255 255 255
0.145216 -0.14205 0.42 255 255 255
-0.0849942 -0.133931 0.535 255 255 255
-0.636656 -0.200074 1.384 255 255 255
0.188236 0.0757162 0.451 0 0 0
0.135614 -0.119671 0.433 0 0 0
-0.0269422 0.119832 0.418 0 0 0
-0.0225827 0.133883 0.401 255 255 255
0.109623 0.101563 0.439 0 0 0
-0.674507 -0.053616 1.509 255 255 255
-0.0423502 0.0991072 0.444 255 255 255
0.0192341 0.0887954 0.416 255 255 255
0.0538032 -0.18608 0.643 0 0 0
-0.023718 0.0503126 0.447 255 255 255
-0.638966 -0.106229 1.456 255 255 255
-0.0287061 0.125423 0.414 255 255 255
0.11534 -0.132759 0.439 0 0 0
0.221287 0.0486207 0.473 255 255 255
0.191693 -0.120314 0.4 255 255 255
0.0936813 0.0601283 0.512 255 255 255
0.0259845 0.00655387 0.562 255 255 255
0.0900226 0.115661 0.441 255 255 255
0.139772 -0.156863 0.414 255 255 255
0.187317 -0.127156 0.399 0 0 0
-0.155014 0.0283231 0.377 255 255 255
-0.00251724 0.0973817 0.43 255 255 255
0.161895 -0.154279 0.402 255 255 255
0.0469824 -0.161662 0.65 255 255 255
0.168057 -0.0220415 0.454 255 255 255
-0.0397459 -0.109223 0.513 0 0 0
0.0533818 0.135201 0.413 0 0 0
0.134941 0.086758 0.44 255 255 255
-0.0789761 0.132566 0.399 255 255 255
0.160168 -0.138337 0.411 0 0 0
-0.115561 0.00141707 0.402 255 255 255
0.179117 0.120179 0.401 255 255 255
-0.55867 -0.437624 1.165 255 255 255
-0.00667524 0.139285 0.387 0 0 0
0.115101 0.0344704 0.555 255 255 255
0.0620379 -0.101691 0.474 0 0 0
-0.161329 -0.329859 0.966 255 255 255
-0.0787118 0.0727806 0.385 255 255 255
-0.120141 0.0112299 0.402 255 255 255
0.0638493 -0.0966974 0.476 0 0 0
-0.234158 -0.371135 0.988 255 255 255
0.0152939 0.116011 0.385 255 255 255
-0.414137 -0.131095 1.262 255 255 255
-0.383022 -0.265014 1.173 255 255 255
-0.0548071 -0.00118774 0.398 255 255 255
-0.593996 -0.424676 1.198 255 255 255
-0.0376389 -0.0497036 0.457 255 255 255
0.192621 0.0866788 0.436 255 255 255
0.215431 0.0298109 0.445 255 255 255
0.0443074 -0.299136 0.84 255 255 255
-0.705061 -0.203253 1.422 255 255 255
-0.0789173 0.0663603 0.377 255 255 255
-0.0844151 -0.00195071 0.423 255 255 255
0.179314 -0.0632999 0.433 255 255 255
0.149327 0.0764502 0.451 255 255 255
-0.602042 -0.311471 1.286 255 255 255
0.205868 -0.0091267 0.437 255 255 255
0.0178367 0.0818285 0.415 255 255 255
0.0617468 0.134505 0.415 255 255 255
0.0731383 0.0704985 0.497 255 255 255
0.187859 -0.143424 0.392 255 255 255
0.129477 -0.0123166 0.478 0 0 0
-0.245534 -0.314986 1.036 255 255 255
-0.129764 0.11321 0.384 255 255 255
-0.0216796 0.0543117 0.45 255 255 255
0.0866022 0.0692967 0.5 255 255 255
0.147604 0.0773997 0.448 255 255 255
0.14458 0.0833669 0.441 255 255 255
0.113712 0.0948493 0.441 255 255 255
-0.031767 0.111555 0.428 255 255 255
-0.59388 -0.147708 1.4 255 255 255
-0.190662 0.096941 0.425 255 255 255
0.216156 0.0761573 0.445 255 255 255
0.106564 -0.0514438 0.473 255 255 255
0.130166 -0.119081 0.436 255 255 255
0.196903 -0.00133994 0.449 0 0 0
-0.704229 -0.189768 1.425 255 255 255
0.186859 0.0738405 0.453 0 0 0
-0.0919645 -0.122329 0.53 0 0 0
0.104475 -0.0523239 0.474 255 255 255
-0.194125 0.101064 0.422 255 255 255
-0.0288377 0.0882635 0.459 0 0 0
0.225322 0.0548436 0.467 255 255 255
-0.141382 0.135433 0.385 255 255 255
0.0416342 -0.135295 0.666 255 255 255
-0.0685288 -0.274724 0.944 255 255 255
0.172704 -0.125684 0.409 255 255 255
-0.594027 -0.0558123 1.439 255 255 255
0.208002 -0.00770441 0.437 255 255 255
-0.0526782 -0.058722 0.452 255 255 255
0.0682544 -0.113593 0.469 0 0 0
-0.110557 0.117849 0.389 255 255 255
-0.175472 0.125134 0.394 255 255 255
0.188645 -0.0589484 0.427 255 255 255
0.0756904 -0.165578 0.437 0 0 0
0.0498767 -0.0542716 0.499 0 0 0
-0.145698 0.126737 0.395 255 255 255
-0.437088 -0.230601 1.234 255 255 255
0.138922 -0.10204 0.439 255 255 255
-0.406004 -0.326485 1.141 255 255 255
-0.0596709 -0.10651 0.512 255 255 255
0.105187 -0.161342 0.424 255 255 255
0.145898 0.151602 0.403 255 255 255
-0.0239921 -0.0833375 0.498 255 255 255
-0.0441781 -0.118838 0.526 255 255 255
0.208064 0.0452453 0.478 255 255 255
-0.510712 -0.27581 1.257 255 255 255
-0.0251937 -0.00445949 0.401 255 255 255
-0.0157482 0.113536 0.41 255 255 255
-0.018876 0.09945 0.436 255 255 255
-0.304229 -0.266906 1.102 255 255 255
0.0030609 0.0904485 0.427 255 255 255
0.0317814 -0.0797809 0.664 255 255 255
-0.428153 -0.162542 1.267 255 255 255
-0.0310703 0.111555 0.428 0 0 0
0.087072 -0.169134 0.437 255 255 255
-0.0422234 -0.130076 0.523 255 255 255
-0.535601 -0.211177 1.313 255 255 255
0.162917 0.0092127 0.507 0 0 0
-0.0108345 0.0780398 0.456 255 255 255
-0.118807 0.105624 0.377 255 255 255
-0.428751 -0.265872 1.194 255 255 255
-0.042878 0.147579 0.384 255 255 255
0.0803329 0.107778 0.447 0 0 0
0.181664 0.13871 0.398 255 255 255
-0.0963563 -0.281235 0.961 255 255 255
-0.53923 -0.262314 1.281 255 255 255
0.127653 -0.0153957 0.477 0 0 0
0.00350089 0.00464135 0.398 255 255 255
-0.204269 -0.263387 1.032 255 255 255
0.202844 0.0254396 0.486 255 255 255
0.00957836 0.131269 0.382 255 255 255
0.156775 -0.0869526 0.435 255 255 255
-0.0439168 0.10347 0.438 255 255 255
0.170355 -0.140272 0.405 0 0 0
-0.0469823 0.0516727 0.44 255 255 255
0.000272727 0.0460354 0.415 255 255 255
0.0849479 -0.0611937 0.477 255 255 255
0.187271 0.0717871 0.454 0 0 0
0.022304 0.053837 0.5 0 0 0
-0.601731 -0.442688 1.194 255 255 255
0.0903201 -0.0480134 0.485 255 255 255
0.182395 0.0521365 0.47 255 255 255
0.0563033 0.139832 0.405 255 255 255
0.113354 0.0735145 0.451 255 255 255
0.187056 0.0172422 0.478 255 255 255
-0.120302 0.0659711 0.346 255 255 255
0.00097797 0.0857848 0.428 255 255 255
-0.594817 -0.312957 1.275 255 255 255
0.111123 -0.0874584 0.46 255 255 255
0.159674 -0.155319 0.403 255 255 255
-0.065828 0.130946 0.402 255 255 255
-0.0493961 0.0252813 0.418 0 0 0
-0.146268 -0.293474 0.981 255 255 255
0.111985 0.0352461 0.553 255 255 255
-0.138425 0.144783 0.372 255 255 255
-0.039527 -0.28056 0.913 255 255 255
0.0141106 0.0277904 0.405 255 255 255
0.143136 0.077013 0.45 255 255 255
0.0290059 0.131957 0.384 0 0 0
0.0923852 0.0993801 0.442 255 255 255
0.0282595 -0.00170402 0.571 255 255 255
-0.0513382 -0.334261 0.886 255 255 255
0.0159206 0.124155 0.385 255 255 255
0.108067 -0.00075446 0.556 255 255 255
-0.542669 -0.318441 1.232 255 255 255
-0.024567 -0.0292595 0.463 255 255 255
-0.487678 -0.412711 1.128 255 255 255
0.195906 0.114366 0.413 255 255 255
-0.404567 -0.388877 1.092 255 255 255
-0.0344357 -0.054549 0.454 255 255 255
-0.0833289 0.138739 0.389 255 255 255
-0.0597389 -0.314572 0.904 255 255 255
-0.162477 0.0237736 0.373 255 255 255
-0.0445529 0.00140649 0.399 255 255 255
0.0662104 -0.15485 0.445 0 0 0
-0.139326 0.133331 0.388 255 255 255
-0.500559 -0.295938 1.247 255 255 255
-0.0991975 0.0875326 0.368 255 255 255
0.129776 0.0424864 0.482 255 255 255
0.0589516 -0.104776 0.474 0 0 0
-0.471657 -0.233779 1.262 255 255 255
-0.0304169 0.019887 0.419 255 255 255
-0.137686 0.016862 0.396 255 255 255
0.0747087 0.000156283 0.578 255 255 255
0.0794092 -0.0114005 0.592 255 255 255
-0.0544092 -0.262573 0.939 255 255 255
0.202499 -0.0804951 0.406 255 255 255
0.216141 0.060271 0.462 255 255 255
-0.152971 0.040988 0.375 255 255 255
0.161493 0.137146 0.401 255 255 255
-0.0825126 0.0512212 0.353 0 0 0
0.0983021 -0.0654369 0.474 0 0 0
0.0793776 0.125372 0.43 255 255 255
-0.00464934 0.130431 0.376 255 255 255
-0.267027 -0.283109 1.075 255 255 255
-0.19449 0.131546 0.381 255 255 255
0.167214 0.14188 0.396 255 255 255
-0.0673017 0.00947478 0.411 255 255 255
0.0406566 0.043804 0.516 255 255 255
0.095173 0.0673987 0.498 255 255 255
-0.662829 -0.0267274 1.516 255 255 255
0.0106808 0.0222398 0.4 255 255 255
-0.00388071 0.0472556 0.426 255 255 255
0.178447 0.00828598 0.456 255 255 255
-0.28292 -0.38155 1.007 255 255 255
-0.106702 0.142459 0.382 255 255 255
0.104376 0.104885 0.435 255 255 255
0.170872 -0.122954 0.411 0 0 0
0.239265 0.0558417 0.469 255 255 255
-0.184002 0.0980928 0.424 255 255 255
-0.00243528 0.103012 0.416 255 255 255
0.106112 -0.0936502 0.461 0 0 0
0.128174 0.111295 0.427 0 0 0
0.201668 0.0146035 0.445 255 255 255
-0.0768317 0.0752867 0.385 255 255 255
-0.531935 -0.175742 1.336 255 255 255
-0.0178787 -0.018675 0.398 0 0 0
-0.374068 -0.221818 1.187 255 255 255
-0.351739 -0.389669 1.051 255 255 255
0.137653 -0.0206984 0.474 0 0 0
0.0336466 -0.293359 0.847 255 255 255
0.0198634 0.0743998 0.415 255 255 255
-0.0313606 0.10838 0.432 255 255 255
-0.0268133 0.122644 0.416 0 0 0
-0.0875155 0.0634208 0.357 255 255 255
-0.0293024 -0.315511 0.874 255 255 255
0.207123 -0.0583862 0.418 255 255 255
0.124346 0.0870764 0.438 255 255 255
-0.152536 0.0137072 0.38 255 255 255
-0.36736 -0.193485 1.203 255 255 255
0.135437 0.0573681 0.469 255 255 255
-0.568964 -0.0600754 1.429 255 255 255
0.0349572 0.0205459 0.545 255 255 255
-0.482426 -0.0927214 1.362 255 255 255
0.146292 -0.00371287 0.472 255 255 255
-0.0975663 0.0111181 0.398 255 255 255
0.167094 0.0536662 0.47 0 0 0
0.100604 0.115944 0.434 255 255 255
0.111371 0.0806831 0.446 0 0 0
-0.000882305 -0.252705 0.909 255 255 255
0.212654 -0.0223794 0.432 0 0 0
-0.128211 0.14617 0.374 255 255 255
-0.0432629 -0.300793 0.898 255 255 255
0.127399 -0.043481 0.462 255 255 255
-0.0820564 0.114391 0.418 0 0 0
0.199298 0.0357946 0.487 255 255 255
0.00937858 0.0261454 0.4 255 255 255
0.158543 -0.0538281 0.448 255 255 255
-0.125927 0.0528016 0.426 255 255 255
0.225859 0.0728625 0.447 255 255 255
0.0856678 -0.0501031 0.49 255 255 255
-0.135872 0.0329639 0.412 255 255 255
0.218667 0.0404664 0.486 255 255 255
-0.153456 0.132987 0.387 255 255 255
0.182097 -0.0469244 0.438 0 0 0
0.0650202 -0.134484 0.457 0 0 0
-0.110051 0.00859169 0.401 255 255 255
0.10689 0.153221 0.397 255 255 255
0.0558837 0.0506195 0.517 255 255 255
0.0804332 -0.0235428 0.607 255 255 255
0.12927 0.0938333 0.433 255 255 255
0.132118 0.149059 0.405 255 255 255
0.0977777 -0.167973 0.434 255 255 255
0.0776666 -0.13374 0.457 255 255 255
0.136684 -0.0223349 0.476 0 0 0
0.214267 -0.044996 0.42 0 0 0
0.104475 0.0610651 0.474 255 255 255
-0.0616435 -0.0514801 0.453 255 255 255
0.152882 -0.0945216 0.434 255 255 255
0.135738 0.151321 0.404 255 255 255
0.0731383 -0.0500101 0.497 0 0 0
0.136137 0.068393 0.456 255 255 255
-0.0628673 0.002739 0.404 0 0 0
0.164368 0.0322896 0.494 255 255 255
-0.0389985 0.00403381 0.402 0 0 0
-0.154579 0.124462 0.398 255 255 255
-0.00604528 0.146842 0.387 255 255 255
0.114022 -0.0444221 0.472 255 255 255
0.192261 -0.0476876 0.432 255 255 255
0.126798 0.0384243 0.547 255 255 255
-0.0299071 -0.0338532 0.464 255 255 255
0.00372079 0.0985499 0.423 255 255 255
0.0547133 0.142421 0.403 255 255 255
-0.0621615 0.00807772 0.408 255 255 255
0.0888659 0.0691581 0.499 255 255 255
-0.0437957 0.0991072 0.444 255 255 255
-0.486205 -0.109804 1.354 255 255 255
-0.0597966 0.123544 0.41 255 255 255
0.0121604 0.121649 0.385 255 255 255
0.0259132 0.0941233 0.404 255 255 255
0.157776 0.108198 0.41 255 255 255
0.0799341 -0.0529239 0.494 255 255 255
-0.0815492 0.0168729 0.412 255 255 255
-0.129743 0.0603627 0.416 255 255 255
0.159329 0.0619084 0.463 255 255 255
-0.113897 0.105011 0.377 255 255 255
0.0080781 0.0723189 0.477 0 0 0
-0.81307 -0.0334785 1.603 255 255 255
0.107548 0.0594136 0.499 255 255 255
0.128808 -0.158453 0.42 255 255 255
0.11012 0.140918 0.414 255 255 255
-0.573062 -0.349929 1.237 255 255 255
-0.139118 0.0269303 0.402 255 255 255
-0.676963 -0.0658942 1.509 255 255 255
-0.514159 -0.213645 1.302 255 255 255
-0.487714 -0.304161 1.215 255 255 255
-0.0841857 0.136328 0.393 255 255 255
0.110944 0.105812 0.433 255 255 255
0.0628731 -0.041279 0.499 0 0 0
-0.139205 0.0471163 0.344 255 255 255
-0.421335 -0.403832 1.094 255 255 255
0.0283831 -0.0201048 0.593 255 255 255
0.0605317 0.0129097 0.56 255 255 255
0.163962 -0.06734 0.441 255 255 255
0.156154 0.11515 0.411 255 255 255
0.187842 0.124481 0.396 255 255 255
-0.543785 -0.0934288 1.406 255 255 255
-0.0441828 -0.00941442 0.39 255 255 255
-0.0819294 -0.0354056 0.428 0 0 0
-0.025459 0.12129 0.416 0 0 0
0.159388 -0.143654 0.409 255 255 255
0.204757 0.0219433 0.447 255 255 255
0.0706424 0.00847248 0.568 255 255 255
0.108189 0.0351824 0.552 255 255 255
0.0698445 0.133074 0.419 255 255 255
-0.211985 0.0990036 0.422 255 255 255
0.204556 0.0731033 0.453 255 255 255
-0.103021 0.0572489 0.341 0 0 0
-0.0399062 0.13612 0.398 255 255 255
-0.472039 -0.394493 1.139 255 255 255
0.0483774 -0.0880834 0.484 255 255 255
-0.0633882 -0.00638516 0.399 0 0 0
-0.0890146 -0.123889 0.533 0 0 0
0.208235 -0.0133629 0.436 255 255 255
0.0265863 -0.0211764 0.596 255 255 255
-0.57201 -0.0854156 1.425 255 255 255
0.00942547 0.0315096 0.402 255 255 255
-0.186913 -0.30954 1.002 255 255 255
-0.0826264 -0.326618 0.913 255 255 255
-0.717319 -0.31751 1.366 255 255 255
-0.115185 0.125775 0.394 255 255 255
-0.0166316 0.101584 0.433 255 255 255
0.0455117 -0.307602 0.837 255 255 255
-0.0852447 0.0818963 0.461 0 0 0
0.0888217 0.00391867 0.578 255 255 255
-0.121766 0.0493354 0.426 255 255 255
0.161259 0.132575 0.407 255 255 255
0.161821 0.0761112 0.449 0 0 0
0.190878 -0.100146 0.408 0 0 0
0.00819523 -0.0927692 0.68 255 255 255
0.064034 0.116115 0.44 255 255 255
0.120902 0.142266 0.414 255 255 255
-0.121419 0.09704 0.37 255 255 255
0.0560652 -0.203905 0.6 255 255 255
0.183608 -0.134609 0.398 255 255 255
0.0813812 0.11959 0.437 255 255 255
0.151529 -0.0556564 0.451 255 255 255
0.167806 -0.118073 0.415 0 0 0
0.175722 -0.0837671 0.426 255 255 255
-0.190069 0.11441 0.406 255 255 255
-0.0435984 0.0533462 0.442 0 0 0
-0.0117517 0.0893115 0.435 255 255 255
-0.496778 -0.412332 1.132 255 255 255
0.197394 -0.108216 0.401 0 0 0
0.216955 -0.0242617 0.428 255 255 255
-0.614306 -0.459405 1.192 255 255 255
0.185794 -0.0356823 0.44 0 0 0
0.0738397 0.146568 0.4 255 255 255
0.0493941 0.120754 0.431 0 0 0
-0.096086 0.0512947 0.342 255 255 255
0.021258 0.00832332 0.558 0 0 0
0.118593 0.142594 0.413 255 255 255
0.0468181 -0.304514 0.836 255 255 255
0.187495 -0.130075 0.398 255 255 255
-0.0768409 0.0118165 0.423 0 0 0
-0.143142 0.137222 0.383 255 255 255
0.00872523 -0.000773458 0.57 0 0 0
0.109303 -0.0778152 0.465 0 0 0
0.136879 -0.0366351 0.461 255 255 255
-0.196035 0.107646 0.413 255 255 255
0.0308656 0.0938423 0.4 255 255 255
0.165081 0.122037 0.405 255 255 255
-0.048584 0.0667621 0.455 255 255 255
0.0940562 -0.0419573 0.488 255 255 255
0.0740693 -0.0908569 0.482 255 255 255
0.0612663 -0.104776 0.474 0 0 0
-0.0260081 -0.26868 0.908 255 255 255
-0.0742394 0.0505405 0.369 255 255 255
0.188477 -0.0499119 0.433 0 0 0
-0.0188524 0.000768574 0.405 0 0 0
0.18994 -0.133595 0.395 255 255 255
0.0901231 0.119151 0.438 255 255 255
0.179189 -0.0110076 0.456 255 255 255
-0.061457 -0.284271 0.93 255 255 255
0.0554078 0.00108739 0.573 255 255 255
-0.126583 0.0253404 0.408 255 255 255
0.0264366 0.131613 0.383 0 0 0
0.166998 -0.122208 0.413 0 0 0
0.132363 0.0446535 0.48 255 255 255
0.186216 -0.0293045 0.441 0 0 0
-0.0816638 0.118582 0.416 255 255 255
-0.0543743 0.114231 0.425 255 255 255
-0.263169 -0.35415 1.013 255 255 255
0.0804308 0.0449076 0.529 255 255 255
-0.151751 0.0423631 0.351 255 255 255
-0.163958 0.0293933 0.375 255 255 255
0.0792901 -0.0538365 0.495 255 255 255
0.0255113 0.0296346 0.533 0 0 0
-0.0844859 -0.102591 0.501 255 255 255
-0.0370367 -0.0989336 0.499 255 255 255
0.0303402 0.0467972 0.512 255 255 255
-0.500338 -0.261509 1.267 255 255 255
0.0995235 0.00474156 0.564 255 255 255
0.0547645 -0.181612 0.642 0 0 0
0.195788 0.128941 0.39 255 255 255
0.195525 -0.0435702 0.433 255 255 255
-0.0511913 0.0217755 0.416 255 255 255
0.0710274 0.0625934 0.505 255 255 255
-0.788215 -0.103596 1.559 255 255 255
-0.0128872 -0.0229012 0.404 255 255 255
-0.649472 -0.0796663 1.491 255 255 255
0.137263 -0.108438 0.436 255 255 255
0.0957076 0.141558 0.41 255 255 255
0.158335 0.131572 0.408 255 255 255
-0.836262 0.021701 1.633 255 255 255
-0.428238 -0.399948 1.098 255 255 255
-0.628443 -0.415015 1.239 255 255 255
-0.546394 -0.377934 1.192 255 255 255
-0.0897919 0.105679 0.398 255 255 255
0.161321 0.0260154 0.497 0 0 0
0.117124 0.0600345 0.466 255 255 255
0.11097 -0.158956 0.425 255 255 255
0.219053 0.0776056 0.445 255 255 255
0.021785 0.0963259 0.389 255 255 255
-0.030739 -0.1149 0.516 0 0 0
0.209792 -0.0438368 0.422 0 0 0
-0.0211711 -0.00638516 0.399 255 255 255
-0.20694 0.103689 0.416 255 255 255
0.0900087 -0.0857495 0.467 255 255 255
0.0630849 -0.086935 0.482 0 0 0
0.0994127 -0.0434563 0.487 255 255 255
-0.00796184 -0.299866 0.874 255 255 255
0.182312 0.134177 0.398 255 255 255
-0.47151 -0.306676 1.194 255 255 255
0.0841075 -0.0205116 0.605 0 0 0
-0.641384 -0.303438 1.324 255 255 255
-0.132673 0.0549223 0.421 255 255 255
-0.158655 -0.260801 1.009 255 255 255
-0.0527983 0.0246011 0.418 0 0 0
0.17345 -0.139579 0.403 0 0 0
0.0350331 0.0873322 0.403 255 255 255
0.127921 -0.0309853 0.478 255 255 255
0.00767028 -0.289246 0.872 255 255 255
0.210057 -0.02864 0.431 0 0 0
0.131061 0.0872752 0.439 255 255 255
0.00781102 -0.278658 0.888 255 255 255
-0.195718 -0.32422 0.997 255 255 255
-0.0110669 -0.279398 0.895 255 255 255
0.114005 0.124206 0.426 255 255 255
-0.0461582 -0.0573775 0.453 255 255 255
0.0752441 -0.0195271 0.605 0 0 0
-0.0844179 0.091261 0.441 255 255 255
0.208693 -0.0231893 0.434 0 0 0
0.0359961 -0.148487 0.662 255 255 255
0.157522 -0.122912 0.42 0 0 0
-0.175851 0.0345628 0.385 255 255 255
0.0442799 -0.220068 0.657 255 255 255
-0.0789264 0.0786352 0.383 255 255 255
0.140188 -0.0907145 0.443 255 255 255
-0.0825013 -0.0866877 0.494 255 255 255
0.0888252 -0.121098 0.457 255 255 255
0.144812 0.125792 0.413 255 255 255
-0.147649 0.134806 0.385 255 255 255
0.0277877 -0.0252661 0.601 255 255 255
0.206833 -0.0709573 0.412 0 0 0
-0.130886 0.10832 0.38 255 255 255
-0.0850856 -0.0925018 0.495 0 0 0
-0.132646 -0.315783 0.952 255 255 255
0.136592 -0.0168061 0.473 0 0 0
-0.204105 0.0938829 0.43 255 255 255
-0.0654747 0.0902572 0.454 255 255 255
-0.0634524 0.0566049 0.445 255 255 255
-0.00962276 -0.0130719 0.405 255 255 255
-0.0969342 0.0806577 0.364 255 255 255
0.130954 0.100872 0.427 0 0 0
0.0882675 -0.156317 0.443 255 255 255
0.207642 0.0268966 0.47 255 255 255
-0.0536458 0.134514 0.399 255 255 255
0.122731 -0.0209167 0.479 0 0 0
0.12429 -0.0154603 0.479 0 0 0
0.119084 0.0275396 0.561 255 255 255
0.134744 -0.132915 0.428 0 0 0
-0.0412524 0.10251 0.44 255 255 255
-0.155014 0.0338446 0.377 255 255 255
-0.135658 0.129602 0.392 255 255 255
0.0737853 -0.132706 0.456 0 0 0
0.0173237 -0.298565 0.858 255 255 255
-0.509723 -0.240337 1.275 255 255 255
-0.760032 -0.154706 1.513 255 255 255
-0.072253 -0.0944384 0.501 0 0 0
0.150949 0.146784 0.406 255 255 255
-0.66677 -0.280099 1.336 255 255 255
0.201359 0.0274662 0.494 255 255 255
-0.160564 0.123134 0.4 255 255 255
-0.34413 -0.335566 1.092 255 255 255
0.0550835 -0.0322222 0.622 255 255 255
-0.129099 0.0684424 0.35 255 255 255
-0.124898 -0.309586 0.952 255 255 255
-0.194423 0.118578 0.4 255 255 255
-0.0290252 0.00876309 0.409 255 255 255
0.191052 0.0606624 0.465 0 0 0
0.171969 -0.0375361 0.445 0 0 0
-0.016458 0.137665 0.395 255 255 255
0.0282312 0.0786487 0.409 255 255 255
0.171959 -0.116549 0.412 255 255 255
-0.0390408 -0.254389 0.937 255 255 255
-0.0303443 0.0184791 0.418 255 255 255
-0.18399 -0.272477 1.022 255 255 255
-0.0355084 0.00805792 0.407 255 255 255
-0.568491 -0.0968061 1.422 255 255 255
-0.164438 0.108318 0.413 0 0 0
0.172659 -0.0867432 0.427 0 0 0
0.19462 0.109781 0.416 255 255 255
-0.855445 0.0453664 1.624 255 255 255
0.169424 -0.118462 0.414 0 0 0
-0.00529791 -0.258956 0.905 255 255 255
-0.0959652 -0.327101 0.927 255 255 255
-0.122449 0.145951 0.375 255 255 255
-0.448266 -0.0396434 1.366 255 255 255
0.152263 -0.0527207 0.451 255 255 255
0.162884 0.0703094 0.454 0 0 0
0.172704 0.111262 0.409 255 255 255
-0.0778823 0.0763409 0.384 255 255 255
0.194837 0.0405781 0.478 255 255 255
0.0801208 0.0830118 0.476 255 255 255
0.108297 0.135442 0.42 255 255 255
-0.569627 -0.188288 1.348 255 255 255
-0.715002 -0.137899 1.491 255 255 255
-0.157565 0.124125 0.399 255 255 255
-0.0668053 -0.038948 0.453 255 255 255
-0.201746 0.129743 0.383 255 255 255
0.054185 0.134855 0.414 0 0 0
-0.849124 -0.0861315 1.612 255 255 255
0.186905 0.0919971 0.431 0 0 0
-0.614095 -0.231844 1.359 255 255 255
0.186471 -0.0572633 0.43 255 255 255
0.0340142 -0.00264706 0.574 255 255 255
0.18547 0.146451 0.391 255 255 255
0.165779 0.0465073 0.475 255 255 255
0.122171 -0.0664646 0.465 0 0 0
0.0966826 0.0736775 0.452 255 255 255
-0.143488 0.123192 0.396 0 0 0
0.155959 -0.149575 0.407 255 255 255
0.124317 -0.162256 0.421 255 255 255
0.0901147 0.0957096 0.445 255 255 255
0.124533 0.0670556 0.457 255 255 255
0.00333369 -0.328366 0.852 255 255 255
-0.0754878 0.0295744 0.431 255 255 255
0.021505 0.131332 0.384 255 255 255
-0.703026 -0.176718 1.432 255 255 255
-0.150579 0.125769 0.396 255 255 255
-0.414654 -0.301719 1.16 255 255 255
-0.562099 -0.244803 1.31 255 255 255
-0.0213839 -0.27803 0.9 255 255 255
0.0481144 -0.202168 0.651 0 0 0
0.236186 0.0425746 0.483 255 255 255
-0.00468236 -0.0943795 0.514 255 255 255
0.0577285 -0.200942 0.597 0 0 0
0.137853 0.0950609 0.429 255 255 255
-0.0529619 -0.0854243 0.496 255 255 255
-0.120981 0.124499 0.392 255 255 255
-0.220812 0.0797786 0.441 0 0 0
-0.552981 -0.363477 1.215 255 255 255
-0.184756 0.101509 0.421 255 255 255
-0.567371 -0.0668641 1.425 255 255 255
0.136335 0.0410026 0.483 255 255 255
0.188551 0.00231857 0.45 255 255 255
-0.141554 0.0233063 0.396 255 255 255
0.0869686 0.0169096 0.572 255 255 255
-0.085622 0.0591327 0.459 0 0 0
-0.194775 0.126078 0.389 255 255 255
-0.245705 -0.354394 1.009 255 255 255
0.118913 0.0872752 0.439 255 255 255
-0.138511 0.0452231 0.42 255 255 255
0.144101 0.0241008 0.566 255 255 255
0.146289 0.00401015 0.477 255 255 255
-0.0134624 0.0712576 0.47 0 0 0
-0.723609 -0.0595357 1.535 255 255 255
0.211166 0.101064 0.422 255 255 255
-0.172284 0.12053 0.4 255 255 255
0.171399 -0.00433857 0.457 255 255 255
-0.0603794 -0.101565 0.504 255 255 255
-0.0484485 -0.0371914 0.468 255 255 255
0.194942 0.0312307 0.49 0 0 0
-0.00995198 0.142361 0.392 255 255 255
-0.20612 0.105629 0.413 255 255 255
0.174533 0.0792315 0.446 255 255 255
-0.300367 -0.353095 1.039 255 255 255
0.0226959 0.122887 0.383 255 255 255
0.203627 -0.094984 0.403 255 255 255
0.194948 -0.113805 0.4 0 0 0
-0.104655 0.077147 0.356 255 255 255
0.112798 -0.149623 0.432 255 255 255
-0.53411 -0.175742 1.336 255 255 255
0.0808865 -0.114628 0.467 255 255 255
-0.00153827 -0.0210343 0.592 0 0 0
0.0687338 0.117725 0.438 255 255 255
-0.0266386 -0.306221 0.88 255 255 255
0.153214 -0.0834658 0.439 255 255 255
0.0525232 -0.0414444 0.501 0 0 0
-0.103152 -0.248775 0.981 0 0 0
-0.0638629 0.140365 0.39 255 255 255
0.0939469 -0.111929 0.453 255 255 255
0.0943734 0.150902 0.396 255 255 255
0.163144 0.000124648 0.461 255 255 255
0.145552 0.112619 0.419 255 255 255
-0.0584476 -0.0120144 0.392 255 255 255
0.14763 0.10268 0.423 255 255 255
0.0296833 -0.0478847 0.642 255 255 255
0.152324 0.122939 0.417 255 255 255
0.139665 -0.0684352 0.453 255 255 255
0.130564 -0.137094 0.428 255 255 255
-0.615703 -0.42696 1.21 255 255 255
-0.0627528 0.136379 0.395 255 255 255
0.159293 -0.0736316 0.44 255 255 255
-0.0514957 0.0793319 0.468 0 0 0
