ply
format ascii 1.0
comment Created by Open3D
element vertex 1306
property double x
property double y
property double z
property uchar red
property uchar green
property uchar blue
end_header
-0.0560458 -0.10082 0.517 255 255 255
0.0275425 -0.331817 0.872 255 255 255
0.140277 0.0696636 0.521 255 255 255
-0.277829 -0.389197 1.083 255 255 255
-0.167339 0.133502 0.396 255 255 255
0.209841 -0.0406575 0.432 255 255 255
0.19462 -0.108879 0.416 255 255 255
0.201757 0.112471 0.421 0 0 0
0.194115 0.101584 0.433 255 255 255
0.0655567 -0.259579 0.887 255 255 255
-0.0993281 0.0639802 0.422 255 255 255
0.0435493 0.145423 0.38 255 255 255
-0.334053 -0.266694 1.189 255 255 255
-0.461017 -0.432366 1.187 255 255 255
-0.04317 0.0500875 0.445 0 0 0
-0.0716516 0.141301 0.398 255 255 255
-0.0676225 0.139756 0.401 255 255 255
-0.709901 0.07259 1.642 255 255 255
-0.159502 -0.319981 1.025 255 255 255
0.191575 0.00460577 0.459 0 0 0
0.132531 0.0820644 0.475 255 255 255
0.177437 -0.0615714 0.446 0 0 0
0.0383132 0.0433927 0.403 255 255 255
0.16401 -0.0864416 0.447 255 255 255
0.145399 0.00641393 0.55 255 255 255
-0.751977 -0.412082 1.432 255 255 255
-0.00818121 0.145552 0.399 255 255 255
0.154959 -0.106092 0.444 0 0 0
-0.0774742 0.068638 0.351 255 255 255
-0.430148 -0.133744 1.351 255 255 255
-0.0439213 -0.0925263 0.513 255 255 255
-0.0175829 0.0317038 0.422 255 255 255
0.0808094 -0.294398 0.85 255 255 255
0.0394285 0.0242531 0.401 255 255 255
-0.0636385 0.0709838 0.36 255 255 255
0.0300168 0.139372 0.389 255 255 255
-0.0245435 0.0168729 0.412 255 255 255
-0.000424166 0.049187 0.437 0 0 0
-0.00800339 -0.041404 0.464 255 255 255
-0.0382988 -0.0228806 0.456 0 0 0
0.0508836 0.125083 0.384 255 255 255
-0.113903 0.0910284 0.375 255 255 255
0.19734 0.0473711 0.492 255 255 255
-0.399757 -0.258424 1.262 255 255 255
-0.148462 0.111816 0.429 255 255 255
0.167806 -0.159268 0.415 255 255 255
0.00831241 -0.247334 0.945 255 255 255
0.109173 -0.0372188 0.499 0 0 0
0.175679 -0.106493 0.431 255 255 255
0.180954 0.0424807 0.491 255 255 255
0.175919 -0.0699657 0.444 255 255 255
0.0851782 -0.142452 0.659 255 255 255
-0.0678461 -0.244317 1.002 255 255 255
-0.116589 0.143434 0.388 255 255 255
-0.0726957 0.0655946 0.35 0 0 0
0.0751986 0.0633371 0.511 255 255 255
-0.128221 0.0257915 0.385 255 255 255
-0.697752 -0.0654688 1.62 255 255 255
-0.144592 -0.237225 1.05 255 255 255
0.0256932 -0.0105902 0.411 255 255 255
0.191221 -0.0939447 0.425 255 255 255
-0.207859 0.0940495 0.444 255 255 255
0.109919 -0.142134 0.446 0 0 0
-0.0403433 -0.0032173 0.409 255 255 255
-0.189214 0.128342 0.4 255 255 255
0.150451 -0.0237336 0.473 255 255 255
0.110149 0.0330761 0.562 255 255 255
-0.16925 0.123544 0.41 255 255 255
0.200848 0.0522219 0.485 255 255 255
-0.716195 -0.433418 1.403 255 255 255
0.151418 0.0247124 0.559 255 255 255
0.0991087 0.111437 0.453 0 0 0
0.168624 -0.00675652 0.47 0 0 0
-0.469535 -0.444704 1.189 255 255 255
-0.0806956 0.0320835 0.418 255 255 255
-0.139194 0.117672 0.42 255 255 255
0.0747627 0.102924 0.405 255 255 255
0.203022 -0.0411281 0.437 255 255 255
-0.183102 -0.383395 0.999 255 255 255
-0.151471 0.139096 0.39 255 255 255
0.074564 -0.0438571 0.66 0 0 0
0.17553 0.0753075 0.462 0 0 0
-0.0717461 0.110601 0.388 255 255 255
-0.33101 -0.351853 1.145 255 255 255
-0.606903 -0.488213 1.283 255 255 255
0.158335 0.146179 0.408 255 255 255
-0.104407 0.14859 0.385 255 255 255
0.131123 0.156695 0.406 255 255 255
-0.0298427 -0.028506 0.463 255 255 255
-0.137859 0.128945 0.406 255 255 255
-0.396271 -0.282353 1.232 255 255 255
0.0395054 -0.077308 0.523 255 255 255
-0.0680578 0.104107 0.385 255 255 255
0.201415 0.0743943 0.461 255 255 255
0.0938136 -0.0863984 0.691 0 0 0
-0.0510299 0.138829 0.404 255 255 255
0.00255421 -0.0418865 0.461 255 255 255
0.0560748 -0.256667 0.897 255 255 255
0.198109 0.0396887 0.565 255 255 255
0.0858705 -0.0130531 0.625 255 255 255
-0.0491784 0.138514 0.405 255 255 255
0.156009 0.105533 0.429 0 0 0
0.221831 0.0467934 0.486 255 255 255
-0.826366 0.0770798 1.624 255 255 255
-0.0627167 0.0967099 0.383 255 255 255
0.0861641 0.072742 0.507 255 255 255
0.0913971 -0.0400522 0.504 0 0 0
0.10367 0.128417 0.438 255 255 255
-0.0537704 0.109518 0.415 255 255 255
0.00373671 -0.232857 0.955 255 255 255
0.0749953 -0.00474335 0.603 255 255 255
-0.158675 0.0497254 0.412 0 0 0
-0.266757 -0.360332 1.081 255 255 255
-0.158722 0.144805 0.38 255 255 255
-0.55151 -0.146424 1.432 255 255 255
-0.103117 -0.29122 1.012 255 255 255
0.115779 0.0828092 0.503 255 255 255
-0.4324 0.0167812 1.439 255 255 255
-0.573394 -0.148469 1.452 255 255 255
0.186203 -0.0903613 0.431 255 255 255
-0.260185 -0.256825 1.145 255 255 255
-0.477735 -0.141823 1.387 255 255 255
0.0335637 0.126538 0.379 255 255 255
0.00820486 0.112327 0.442 255 255 255
-0.0466024 0.0691055 0.389 255 255 255
-0.430297 -0.0252465 1.432 255 255 255
0.160168 0.133878 0.411 255 255 255
-0.567098 -0.163873 1.442 255 255 255
0.0416155 0.135433 0.385 255 255 255
0.101617 0.0740023 0.51 255 255 255
-0.0330915 0.146293 0.394 255 255 255
0.153589 -0.127716 0.434 0 0 0
-0.297582 -0.290392 1.16 255 255 255
-0.0583993 0.103215 0.396 255 255 255
-0.105946 0.0419053 0.421 255 255 255
0.147705 0.0760593 0.462 0 0 0
0.0990924 -0.123373 0.666 255 255 255
-0.0501457 0.14353 0.397 255 255 255
-0.504515 -0.403008 1.227 255 255 255
-0.135918 -0.277895 1.036 255 255 255
0.16532 -0.132294 0.426 255 255 255
-0.0999372 0.0808036 0.362 255 255 255
0.184859 0.137855 0.405 255 255 255
-0.0373263 0.0158336 0.42 255 255 255
0.023925 -0.304498 0.896 255 255 255
0.208442 0.0933269 0.444 0 0 0
-0.211221 0.106874 0.426 255 255 255
-0.124641 0.128945 0.406 255 255 255
0.189593 0.0685229 0.467 255 255 255
-0.0627538 0.105093 0.391 255 255 255
0.159079 0.109647 0.426 255 255 255
-0.430372 -0.212014 1.305 255 255 255
-0.0559315 0.126706 0.416 0 0 0
0.155524 -0.157148 0.422 0 0 0
-0.592918 -0.217845 1.442 255 255 255
0.145899 0.12724 0.42 255 255 255
-0.762649 0.0142919 1.7 255 255 255
-0.0612805 0.133209 0.411 255 255 255
-0.564252 -0.404068 1.281 255 255 255
0.113064 -0.076579 0.481 255 255 255
-0.156326 -0.377639 0.984 255 255 255
0.0530841 0.106365 0.391 255 255 255
-0.0324357 -0.10163 0.53 255 255 255
-0.238143 -0.356154 1.048 255 255 255
0.191863 0.131267 0.399 255 255 255
0.177977 0.154513 0.397 255 255 255
-0.125302 0.113749 0.406 255 255 255
-0.643443 -0.489087 1.302 255 255 255
-0.122413 0.0421551 0.364 255 255 255
-0.473355 -0.30171 1.289 255 255 255
0.0325561 -0.0293414 0.431 255 255 255
-0.0452753 -0.0678478 0.459 255 255 255
-0.161901 0.102523 0.437 255 255 255
-0.120586 0.137716 0.397 255 255 255
0.15499 -0.132048 0.432 0 0 0
0.150945 0.0573713 0.541 255 255 255
0.042331 0.0888056 0.478 0 0 0
-0.0463237 0.0275362 0.392 255 255 255
-0.11515 0.0612681 0.358 255 255 255
0.155058 0.045635 0.559 255 255 255
0.147777 -0.0861276 0.453 0 0 0
0.195269 -0.149046 0.402 0 0 0
-0.429292 -0.261855 1.289 255 255 255
-0.361022 -0.276853 1.208 255 255 255
-0.078935 0.0734641 0.355 255 255 255
0.18135 -0.155154 0.406 0 0 0
-0.11408 0.070789 0.362 255 255 255
-0.53377 -0.1616 1.422 255 255 255
-0.169971 0.0939575 0.447 255 255 255
0.191221 0.111465 0.425 255 255 255
-0.161151 -0.370154 0.994 255 255 255
-0.0642016 0.0849978 0.37 255 255 255
0.145949 -0.0597825 0.466 255 255 255
0.139974 -0.0914893 0.454 255 255 255
-0.559832 -0.121272 1.466 255 255 255
-0.376835 -0.0702982 1.357 255 255 255
0.109919 -0.143586 0.446 0 0 0
-0.765269 0.0826189 1.629 255 255 255
-0.32599 -0.186356 1.247 255 255 255
-0.0743349 0.138796 0.402 255 255 255
-0.309492 -0.363923 1.108 255 255 255
-0.386943 -0.314861 1.203 255 255 255
0.216637 0.00815878 0.449 0 0 0
-0.0776068 0.130946 0.402 255 255 255
0.161693 -0.120375 0.433 255 255 255
-0.814596 0.00611242 1.734 255 255 255
-0.0412056 0.118222 0.432 255 255 255
-0.20174 0.137473 0.389 255 255 255
-0.0307406 -0.0493773 0.454 255 255 255
0.0439755 -0.00468042 0.595 0 0 0
0.0770494 -0.120788 0.682 255 255 255
0.0139496 0.0219849 0.42 255 255 255
-0.0152477 -0.0620998 0.478 0 0 0
-0.033221 -0.296545 0.945 255 255 255
-0.0294729 0.0596353 0.446 255 255 255
-0.0713119 0.0536204 0.427 255 255 255
-0.00659074 -0.0320645 0.471 255 255 255
-0.0254371 0.124497 0.427 255 255 255
0.153542 -0.11065 0.442 0 0 0
0.210289 -0.0680333 0.423 255 255 255
0.183584 -0.143688 0.411 255 255 255
-0.0591292 0.136221 0.41 255 255 255
-0.156371 0.122431 0.413 255 255 255
-0.116939 0.0346075 0.4 255 255 255
0.194132 0.145468 0.397 255 255 255
-0.0453345 0.138195 0.406 255 255 255
0.244328 0.0550364 0.482 255 255 255
-0.354001 -0.182148 1.26 255 255 255
0.0996247 0.0815016 0.5 0 0 0
-0.0519337 0.14836 0.391 255 255 255
0.106009 0.156723 0.401 255 255 255
-0.656788 -0.483638 1.316 255 255 255
0.00170989 0.0470536 0.437 0 0 0
0.00550768 -0.051191 0.457 255 255 255
0.118381 -0.0964481 0.471 255 255 255
-0.120889 0.0415589 0.398 255 255 255
-0.141543 0.112848 0.425 0 0 0
0.176547 -0.109234 0.428 255 255 255
0.171879 0.115621 0.42 255 255 255
0.0289134 -0.0243183 0.429 255 255 255
-0.0144999 -0.0209167 0.479 0 0 0
-0.647644 -0.187301 1.498 255 255 255
-0.128981 0.131925 0.401 255 255 255
0.00616951 0.0661752 0.451 255 255 255
-0.08716 0.0127877 0.41 255 255 255
0.063813 0.068483 0.5 255 255 255
-0.0810095 0.0665431 0.349 255 255 255
0.214818 0.0342581 0.456 255 255 255
-0.473146 -0.364608 1.239 255 255 255
0.152576 0.140244 0.414 255 255 255
0.0460269 -0.232815 0.93 255 255 255
0.217881 0.0436323 0.495 255 255 255
0.213334 0.0772977 0.456 255 255 255
0.143739 0.106271 0.432 0 0 0
0.117967 -0.0248375 0.495 0 0 0
-0.109428 0.0400536 0.416 255 255 255
-0.0244078 -0.0425442 0.46 255 255 255
-0.0785779 0.0748297 0.356 255 255 255
0.19424 0.150016 0.392 255 255 255
0.0205625 -0.33372 0.877 255 255 255
-0.0899145 0.0740418 0.355 255 255 255
0.102 0.0922518 0.488 0 0 0
0.154634 0.155756 0.407 255 255 255
0.17143 0.054808 0.48 255 255 255
-0.048238 0.0288121 0.392 255 255 255
0.184385 -0.027333 0.456 255 255 255
-0.11098 0.130292 0.402 0 0 0
-0.0666681 0.0837114 0.367 255 255 255
0.178124 0.0606754 0.477 0 0 0
0.206105 -0.11823 0.404 0 0 0
-0.258616 -0.273688 1.13 255 255 255
-0.1821 0.0916589 0.45 255 255 255
-0.362593 -0.404688 1.116 255 255 255
0.197329 -0.104818 0.416 255 255 255
0.220502 0.0913646 0.445 0 0 0
0.207335 -0.098013 0.413 255 255 255
-0.0301341 0.140177 0.406 255 255 255
0.159223 -0.0793175 0.452 255 255 255
-0.0311015 -0.247253 0.975 255 255 255
0.121652 0.0793424 0.507 255 255 255
-0.0853821 0.0592144 0.346 255 255 255
-0.15578 0.0739444 0.428 255 255 255
0.0011562 -0.0789123 0.506 0 0 0
-0.11766 0.0418364 0.407 255 255 255
-0.35818 -0.296463 1.192 255 255 255
0.0270863 0.0781412 0.47 0 0 0
-0.060465 -0.256981 0.988 255 255 255
-0.380474 0.00494564 1.403 255 255 255
-0.19669 0.129643 0.398 255 255 255
-0.00764117 0.059955 0.443 255 255 255
0.0240251 0.112514 0.429 255 255 255
-0.833372 0.124392 1.587 255 255 255
-0.0833282 0.124166 0.395 255 255 255
-0.170658 -0.362035 1.012 255 255 255
0.0427656 0.091918 0.421 0 0 0
-0.113115 0.121223 0.398 255 255 255
-0.174436 0.118582 0.416 255 255 255
-0.747321 -0.0930786 1.642 255 255 255
-0.0237691 0.000757188 0.399 255 255 255
-0.204805 0.105779 0.43 255 255 255
0.131536 -0.0464452 0.477 255 255 255
0.211259 0.00378316 0.45 255 255 255
0.127653 -0.0464452 0.477 255 255 255
-0.0687264 0.0707744 0.356 255 255 255
-0.44712 -0.18009 1.336 255 255 255
0.0114733 -0.230576 0.952 255 255 255
0.124203 0.130369 0.435 0 0 0
-0.00647879 -0.0413147 0.463 255 255 255
0.10469 -0.0475838 0.497 0 0 0
0.0902671 -0.184786 0.657 255 255 255
0.0119091 0.101731 0.446 255 255 255
-0.0669983 0.059899 0.35 255 255 255
-0.0526359 -0.225735 0.992 255 255 255
-0.789587 -0.334443 1.513 255 255 255
0.0236682 0.0784843 0.463 0 0 0
0.178707 0.138856 0.406 255 255 255
0.0379405 -0.0627738 0.537 0 0 0
0.00892435 0.0468727 0.442 255 255 255
0.200005 -0.142149 0.401 0 0 0
0.128069 -0.135602 0.446 255 255 255
-0.325489 -0.0769154 1.319 255 255 255
0.162543 0.0923958 0.443 255 255 255
-0.0681493 0.101431 0.382 255 255 255
0.192678 0.137415 0.398 255 255 255
-0.311841 -0.272184 1.171 255 255 255
0.105468 -0.0941753 0.475 0 0 0
-0.604745 -0.393931 1.324 255 255 255
-0.656432 -0.323606 1.412 255 255 255
-0.195417 0.0869174 0.452 0 0 0
-0.0305303 -0.0284445 0.462 255 255 255
-0.1258 -0.26778 1.036 255 255 255
0.126572 -0.115652 0.459 255 255 255
0.195831 0.0164126 0.455 0 0 0
0.0866611 -0.152014 0.654 255 255 255
0.129976 0.149363 0.415 255 255 255
0.0948327 -0.14138 0.659 255 255 255
0.122305 -0.0407826 0.493 255 255 255
-0.0018849 0.0596353 0.446 255 255 255
0.199455 0.120124 0.412 255 255 255
-0.258616 -0.279204 1.13 255 255 255
-0.215179 -0.372307 1.036 255 255 255
0.180006 -0.154765 0.412 0 0 0
-0.0280293 0.0746555 0.458 255 255 255
-0.126472 -0.366826 0.964 255 255 255
-0.152253 0.115343 0.424 255 255 255
0.0265708 0.0060262 0.404 255 255 255
0.0728615 -0.0993395 0.695 255 255 255
0.0502585 0.128207 0.384 255 255 255
-0.075976 0.0694064 0.352 255 255 255
0.0408356 0.0315096 0.402 255 255 255
0.174305 -0.145436 0.416 255 255 255
-0.0441902 0.0526122 0.448 0 0 0
0.0210549 -0.300793 0.898 255 255 255
0.0710105 -0.24404 0.883 255 255 255
0.00207769 -0.110463 0.531 0 0 0
-0.0537054 0.0921309 0.39 255 255 255
0.165716 0.0718581 0.464 255 255 255
0.135042 -0.00380727 0.484 0 0 0
0.0693275 0.0759796 0.42 255 255 255
0.148597 -0.0375092 0.472 255 255 255
-0.0446187 -0.0310186 0.445 0 0 0
-0.926064 -0.0628541 1.769 255 255 255
-0.201883 -0.347353 1.037 255 255 255
0.158918 -0.0474446 0.464 0 0 0
0.0835766 -0.288865 0.85 255 255 255
-0.31838 -0.164298 1.249 255 255 255
-0.055825 0.083535 0.479 255 255 255
-0.0836473 -0.311356 0.977 255 255 255
-0.128662 0.137369 0.396 255 255 255
0.112515 -0.0759538 0.482 255 255 255
-0.0728211 0.150621 0.387 255 255 255
0.171937 0.146934 0.401 255 255 255
0.0342588 0.0895434 0.426 255 255 255
0.178665 -0.155435 0.412 0 0 0
-0.768264 0.0469866 1.682 255 255 255
-0.0431147 0.118374 0.43 255 255 255
0.142204 0.0146007 0.555 255 255 255
-0.0473458 -0.00994549 0.412 0 0 0
-0.164171 -0.269257 1.055 255 255 255
0.184814 -0.0750907 0.436 0 0 0
-0.13821 0.0320016 0.392 255 255 255
-0.0335483 -0.0484243 0.452 255 255 255
0.203481 -0.00499329 0.449 255 255 255
0.0548589 0.0823051 0.414 255 255 255
0.0899145 -0.00679488 0.611 255 255 255
0.0767008 0.0452472 0.533 255 255 255
-0.0173607 0.143671 0.401 255 255 255
0.115603 -0.154542 0.44 0 0 0
-0.205323 0.136907 0.391 255 255 255
0.0759263 -0.100037 0.692 255 255 255
-0.517872 -0.25458 1.339 255 255 255
0.202072 0.0261721 0.571 255 255 255
0.111244 0.098792 0.47 255 255 255
0.0230504 0.10679 0.437 255 255 255
-0.115416 0.0194888 0.397 255 255 255
-0.0594858 -0.287618 0.972 255 255 255
-0.0484878 0.119913 0.428 255 255 255
0.0986307 -0.0637887 0.491 0 0 0
0.104602 0.122504 0.445 255 255 255
0.125619 -0.162697 0.435 255 255 255
0.134359 -0.0447986 0.476 255 255 255
-0.0585265 0.0694186 0.361 255 255 255
0.152121 -0.0587708 0.464 255 255 255
0.160122 0.0661841 0.472 255 255 255
-0.183137 -0.338588 1.036 255 255 255
0.118004 -0.281031 0.839 255 255 255
0.0179395 0.121966 0.388 255 255 255
-0.49312 -0.33163 1.275 255 255 255
-0.0011693 0.0652962 0.45 255 255 255
-0.043364 0.106324 0.447 255 255 255
-0.094316 0.0934273 0.37 255 255 255
-0.144241 -0.358635 0.989 255 255 255
-0.0731666 0.100634 0.379 255 255 255
0.171388 0.0747171 0.463 0 0 0
-0.0459506 0.0370976 0.437 0 0 0
0.033772 0.0802491 0.478 0 0 0
0.0299964 -0.00191381 0.415 0 0 0
-0.479196 -0.372673 1.239 255 255 255
0.186544 0.0418216 0.569 255 255 255
-0.768397 -0.334433 1.491 255 255 255
-0.476313 -0.351343 1.242 255 255 255
-0.0476632 -0.292524 0.957 255 255 255
0.195436 0.1254 0.401 255 255 255
-0.0706452 0.0703768 0.354 255 255 255
0.125939 0.0766421 0.511 255 255 255
-0.818742 0.0200464 1.719 255 255 255
-0.707826 -0.411987 1.4 255 255 255
0.218342 0.0270957 0.448 255 255 255
-0.849106 0.105039 1.607 255 255 255
-0.019605 -0.11695 0.533 0 0 0
-0.109601 0.0964219 0.377 255 255 255
0.2164 0.0175788 0.447 255 255 255
0.190731 -0.0895227 0.427 255 255 255
-0.819169 0.0417344 1.691 255 255 255
0.148669 0.122242 0.424 255 255 255
0.0718667 -0.0381953 0.655 255 255 255
-0.525848 -0.310889 1.31 255 255 255
-0.0843652 -0.317611 0.967 255 255 255
-0.0773785 0.0635209 0.348 0 0 0
0.00454486 0.119316 0.436 0 0 0
-0.437129 -0.37297 1.201 255 255 255
0.122654 0.143644 0.42 255 255 255
-0.0973611 0.0160451 0.408 255 255 255
0.134082 0.0790756 0.495 255 255 255
0.109718 0.0936477 0.487 255 255 255
-0.210445 0.125712 0.402 255 255 255
-0.0492162 0.0592273 0.454 255 255 255
-0.00317231 0.033924 0.424 255 255 255
-0.323459 -0.318158 1.158 255 255 255
-0.0455932 0.0818049 0.478 0 0 0
0.100023 -0.0398933 0.502 0 0 0
0.0698673 -0.119249 0.699 255 255 255
-0.041373 -0.116301 0.534 0 0 0
-0.312687 -0.349679 1.126 255 255 255
-0.103581 0.0935779 0.373 255 255 255
-0.0851578 0.0141222 0.41 255 255 255
0.0526214 0.121017 0.383 255 255 255
-0.742193 -0.444443 1.409 255 255 255
-0.555002 -0.446654 1.26 255 255 255
-0.215799 -0.302721 1.064 255 255 255
-0.568455 -0.483405 1.249 255 255 255
0.204365 -0.0752711 0.425 255 255 255
-0.079179 0.0500302 0.432 255 255 255
0.0158178 -0.0419893 0.454 255 255 255
-0.121442 -0.356366 0.974 255 255 255
-0.204464 0.129643 0.398 255 255 255
-0.108632 0.0204392 0.403 255 255 255
-0.465709 -0.213428 1.327 255 255 255
0.0608541 0.0853045 0.409 255 255 255
-0.315841 -0.164034 1.247 255 255 255
0.174001 -0.00291982 0.468 0 0 0
-0.515552 -0.262116 1.333 255 255 255
0.0315589 0.109905 0.427 255 255 255
0.0809552 0.0214507 0.569 255 255 255
0.0705978 0.0551443 0.52 255 255 255
-0.492591 -0.465616 1.198 255 255 255
0.193579 0.0219279 0.462 255 255 255
-0.468332 -0.301922 1.281 255 255 255
-0.0803939 -0.358841 0.939 255 255 255
-0.392168 -0.0599118 1.372 255 255 255
-0.588198 0.033574 1.567 255 255 255
-0.870394 -0.0420994 1.744 255 255 255
-0.049985 -0.352262 0.914 255 255 255
0.0564706 -0.0461445 0.662 0 0 0
-0.353507 -0.00859724 1.378 255 255 255
0.184385 -0.0221386 0.456 255 255 255
-0.0358455 0.0535876 0.444 255 255 255
-0.637073 -0.44995 1.324 255 255 255
-0.748626 -0.395363 1.439 255 255 255
0.147973 0.106478 0.43 0 0 0
0.171351 -0.0644635 0.451 255 255 255
0.153956 0.0671231 0.502 255 255 255
-0.673823 -0.182912 1.502 255 255 255
0.0868244 0.0549246 0.526 255 255 255
0.197844 0.0999298 0.435 255 255 255
0.0745423 0.058304 0.518 255 255 255
-0.217421 -0.296275 1.072 255 255 255
-0.107525 -0.299613 1.007 255 255 255
-0.12101 0.0417775 0.388 255 255 255
0.0369385 0.111377 0.382 255 255 255
-0.189462 -0.295239 1.062 255 255 255
-0.204913 0.109564 0.423 255 255 255
-0.0855309 -0.282602 0.999 255 255 255
-0.0988955 0.0659694 0.352 255 255 255
0.200516 0.124321 0.406 255 255 255
0.0632065 0.0915106 0.407 255 255 255
-0.113968 0.133883 0.401 255 255 255
-0.728145 -0.0896908 1.629 255 255 255
-0.313397 -0.115392 1.27 255 255 255
0.21632 -0.0127114 0.438 255 255 255
-0.550354 -0.155419 1.429 255 255 255
-0.024019 -0.034072 0.467 255 255 255
0.168813 -0.102526 0.435 255 255 255
-0.0442579 -0.0761377 0.464 0 0 0
-0.310883 0.000359613 1.33 255 255 255
0.00107622 -0.029765 0.471 255 255 255
-0.0130276 -0.295182 0.931 255 255 255
-0.194189 -0.331752 1.041 255 255 255
-0.70316 0.0031578 1.664 255 255 255
-0.357299 0.00262644 1.384 255 255 255
-0.0513086 0.091615 0.396 255 255 255
-0.39783 0.0280344 1.416 255 255 255
-0.396974 -0.391652 1.158 255 255 255
0.0184018 0.0406734 0.445 0 0 0
0.0312633 -0.0198481 0.423 0 0 0
-0.0288123 0.140177 0.406 255 255 255
-0.78442 -0.0997415 1.664 255 255 255
-0.768952 0.0847988 1.62 255 255 255
0.017672 -0.211985 0.952 255 255 255
-0.346084 -0.221454 1.239 255 255 255
0.206987 -0.0578283 0.429 255 255 255
-0.0127139 0.129974 0.42 255 255 255
0.0516428 0.117264 0.385 255 255 255
-0.158912 -0.310411 1.032 255 255 255
0.190603 -0.143922 0.406 255 255 255
0.188526 -0.121742 0.416 255 255 255
-0.0544314 0.14136 0.4 255 255 255
0.0809045 -0.28505 0.851 255 255 255
-0.34314 -0.408261 1.106 255 255 255
-0.0355183 -0.0466415 0.449 255 255 255
0.170037 -0.0936803 0.44 0 0 0
0.0421325 0.128207 0.384 255 255 255
0.210878 0.065483 0.467 255 255 255
0.197039 -0.0303625 0.446 255 255 255
0.0808873 -0.044863 0.659 0 0 0
-0.0396586 0.0180117 0.423 255 255 255
0.0675525 -0.325108 0.84 255 255 255
0.030141 0.114795 0.417 255 255 255
-0.0058735 -0.0261529 0.475 255 255 255
0.0345725 -0.204924 0.948 255 255 255
0.0570979 0.143434 0.388 0 0 0
-0.0748432 -0.314139 0.966 255 255 255
0.117391 0.119316 0.436 0 0 0
0.0425967 0.0815356 0.481 0 0 0
0.173172 -0.110444 0.43 255 255 255
0.151545 0.0590228 0.54 255 255 255
-0.0632875 0.0355592 0.411 255 255 255
0.0356456 0.0860772 0.426 255 255 255
-0.198661 0.124321 0.406 255 255 255
-0.449128 -0.172163 1.342 255 255 255
-0.0821619 0.0795498 0.359 255 255 255
0.105361 0.0143393 0.581 255 255 255
0.130024 -0.0975126 0.458 255 255 255
-0.0807888 0.0713269 0.353 255 255 255
-0.0492501 0.0258186 0.395 255 255 255
-0.147742 0.143702 0.382 255 255 255
0.204106 0.0933269 0.444 0 0 0
-0.82146 -0.269376 1.579 255 255 255
0.215127 0.0586271 0.473 255 255 255
0.0944619 -0.0781659 0.486 0 0 0
0.0474148 -0.309113 0.872 255 255 255
0.0633194 -0.130123 0.715 255 255 255
-0.146435 0.0356401 0.397 255 255 255
0.0947571 -0.275356 0.851 255 255 255
0.193532 -0.0957936 0.424 0 0 0
-0.408626 -0.0471259 1.39 255 255 255
0.0207728 0.113119 0.434 255 255 255
0.109644 -0.0968576 0.473 255 255 255
-0.22898 -0.223878 1.12 255 255 255
-0.542615 0.0229563 1.539 255 255 255
0.193751 0.109647 0.426 255 255 255
0.140766 0.153274 0.411 255 255 255
0.199506 -0.148304 0.4 255 255 255
-0.191003 0.087653 0.452 0 0 0
0.179314 -0.0943038 0.433 255 255 255
-0.424201 -0.388171 1.176 255 255 255
-0.183661 0.100619 0.438 255 255 255
-0.68256 -0.366484 1.409 255 255 255
-0.0505361 0.0907409 0.395 255 255 255
-0.632937 -0.280741 1.416 255 255 255
-0.111243 0.0477745 0.353 255 255 255
0.069641 0.0132555 0.575 255 255 255
0.195872 0.147575 0.394 255 255 255
-0.70433 -0.494224 1.333 255 255 255
0.128706 -0.0836885 0.464 255 255 255
0.192848 0.114526 0.421 255 255 255
0.118928 0.0426757 0.556 255 255 255
-0.107814 0.0379313 0.415 255 255 255
0.00258745 0.0791624 0.467 0 0 0
-0.0965751 0.0402286 0.425 255 255 255
0.179099 -0.152452 0.413 0 0 0
0.14075 0.0220227 0.56 255 255 255
0.116085 0.139457 0.426 255 255 255
-0.0797678 0.136518 0.403 0 0 0
-0.47342 -0.12323 1.381 255 255 255
-0.0428789 0.110889 0.442 255 255 255
0.162191 -0.0898772 0.446 255 255 255
-0.0351546 -0.0716428 0.507 0 0 0
-0.0228201 -0.0717841 0.508 0 0 0
0.148099 -0.0493768 0.468 0 0 0
0.00860309 -0.0883177 0.508 255 255 255
0.0977589 0.0335068 0.554 255 255 255
-0.0213424 0.11186 0.443 255 255 255
0.138495 -0.142965 0.431 255 255 255
0.18535 -0.120287 0.418 0 0 0
0.125468 -0.0817742 0.466 255 255 255
0.0399715 -0.247949 0.93 255 255 255
-0.0161934 -0.0132314 0.483 0 0 0
0.158267 0.00635215 0.478 255 255 255
-0.0954314 0.0969592 0.372 255 255 255
-0.334859 -0.14881 1.273 255 255 255
-0.828766 -0.15783 1.677 255 255 255
0.12178 0.0766421 0.511 255 255 255
0.116688 -0.018319 0.493 0 0 0
0.138432 -0.102172 0.449 255 255 255
-0.0320757 0.134181 0.414 255 255 255
-0.195701 0.132214 0.396 255 255 255
-0.0347356 -0.0808388 0.513 0 0 0
0.0118333 0.149878 0.395 255 255 255
0.129674 -0.279691 0.835 255 255 255
-0.0227846 0.0592341 0.443 255 255 255
0.0970169 0.0887419 0.495 0 0 0
-0.786193 -0.25516 1.555 255 255 255
-0.0888759 0.102013 0.375 255 255 255
-0.0456182 -0.259685 0.98 255 255 255
-0.267813 -0.295754 1.13 255 255 255
-0.444098 -0.419503 1.178 255 255 255
-0.0171763 0.0433997 0.429 255 255 255
0.112534 -0.102908 0.469 255 255 255
0.191344 0.151154 0.39 255 255 255
-0.154095 -0.379293 0.98 0 0 0
-0.109892 0.0985231 0.378 255 255 255
-0.776662 0.0652423 1.659 255 255 255
-0.121642 0.0373577 0.388 255 255 255
-0.00977109 -0.31666 0.91 255 255 255
0.126572 -0.122375 0.459 255 255 255
-0.0472649 0.0363032 0.436 255 255 255
-0.160375 -0.242119 1.064 255 255 255
0.181991 0.0700428 0.467 255 255 255
-0.167349 0.125951 0.407 255 255 255
0.11596 -0.275838 0.844 255 255 255
0.147636 -0.145112 0.427 255 255 255
0.19907 -0.0691591 0.43 255 255 255
0.164724 0.0815708 0.455 0 0 0
-0.0693088 0.0288709 0.411 255 255 255
0.0711134 0.110286 0.403 255 255 255
0.186019 -0.142323 0.409 255 255 255
-0.494809 -0.451707 1.213 255 255 255
0.0617254 -0.0996254 0.697 255 255 255
-0.178381 0.127675 0.402 255 255 255
-0.620034 -0.153582 1.502 255 255 255
0.0734441 0.112151 0.405 255 255 255
0.177273 -0.047057 0.453 255 255 255
0.0387758 0.034694 0.401 255 255 255
0.147984 -0.149625 0.426 255 255 255
-0.836555 0.102169 1.603 255 255 255
-0.641121 0.0164262 1.637 255 255 255
-0.440263 -0.411835 1.178 255 255 255
-0.0363299 0.062367 0.45 255 255 255
-0.0530279 -0.0665161 0.455 0 0 0
0.0273757 -0.0809397 0.519 255 255 255
0.151464 -0.0824417 0.453 255 255 255
0.021673 0.151251 0.387 0 0 0
-0.0251566 -0.0432928 0.46 255 255 255
0.129075 0.135868 0.43 255 255 255
-0.549879 -0.300164 1.348 255 255 255
0.00686717 -0.0684855 0.502 0 0 0
0.118682 -0.00634863 0.498 0 0 0
-0.182521 -0.271852 1.072 255 255 255
0.138686 0.00207978 0.59 255 255 255
0.0712328 -0.159611 0.659 0 0 0
-0.137547 0.123776 0.413 255 255 255
0.127288 0.0478449 0.553 255 255 255
0.177524 -0.111064 0.427 255 255 255
-0.108515 -0.233158 1.032 255 255 255
-0.296727 -0.140243 1.252 255 255 255
0.132964 0.118797 0.429 255 255 255
0.138551 -0.152075 0.429 255 255 255
0.0970322 -0.0661858 0.491 0 0 0
-0.390453 -0.0685415 1.366 255 255 255
-0.869372 -0.116685 1.714 255 255 255
-0.0598717 -0.104143 0.521 0 0 0
-0.368328 -0.390684 1.128 255 255 255
-0.0211333 0.0740035 0.454 255 255 255
0.108313 -0.113137 0.464 0 0 0
0.140376 0.0640878 0.531 255 255 255
0.152068 -0.108983 0.444 0 0 0
0.0145293 -0.0215842 0.46 255 255 255
0.127343 -0.131247 0.446 255 255 255
-0.0222854 0.130658 0.42 255 255 255
0.109426 -0.149444 0.444 0 0 0
-0.516475 -0.154331 1.419 255 255 255
-0.0542623 0.0604387 0.36 0 0 0
0.152269 0.13518 0.415 255 255 255
-0.175897 0.0889269 0.451 255 255 255
-0.0415343 0.146021 0.395 255 255 255
-0.0353297 -0.0191703 0.456 0 0 0
-0.00659074 0.0928704 0.471 255 255 255
0.17147 0.117392 0.419 255 255 255
-0.0739128 0.0525976 0.43 255 255 255
0.185264 0.146391 0.396 255 255 255
0.000616428 -0.271452 0.938 255 255 255
0.077406 0.0515007 0.526 255 255 255
-0.533892 -0.450885 1.249 255 255 255
0.195229 -0.134672 0.406 255 255 255
0.0624653 0.0484424 0.53 255 255 255
-0.00720122 0.101401 0.461 255 255 255
-0.12495 -0.282716 1.029 255 255 255
0.184201 0.00539936 0.463 0 0 0
0.056688 0.134026 0.381 255 255 255
-0.01038 -0.034218 0.469 255 255 255
-0.155986 -0.337665 1.013 255 255 255
0.0570516 0.000159527 0.59 0 0 0
-0.122263 0.145079 0.384 255 255 255
-0.00563745 -0.225405 0.963 255 255 255
0.102458 -0.0848349 0.479 0 0 0
-0.0402591 -0.0278904 0.453 0 0 0
-0.444952 -0.297444 1.262 255 255 255
-0.0831208 0.120364 0.391 255 255 255
-0.266984 -0.183956 1.192 255 255 255
0.103023 -0.130646 0.454 0 0 0
0.186484 0.143313 0.4 255 255 255
-0.646077 -0.479355 1.316 255 255 255
0.207474 0.0449765 0.501 255 255 255
0.170137 -0.0815263 0.444 255 255 255
0.205318 -0.100701 0.413 255 255 255
0.215897 0.0586271 0.473 255 255 255
-0.04863 0.0765397 0.385 255 255 255
0.136952 -0.0181332 0.488 0 0 0
-0.314992 -0.379885 1.102 255 255 255
0.194844 -0.0167583 0.451 255 255 255
0.0912401 -0.261957 0.857 255 255 255
0.20084 -0.00935643 0.448 255 255 255
-0.118392 0.0206239 0.394 255 255 255
0.179304 0.11507 0.423 255 255 255
-0.537442 -0.223873 1.378 255 255 255
0.114332 0.0499962 0.547 255 255 255
-0.20885 0.098967 0.437 0 0 0
0.0798756 0.0655741 0.509 255 255 255
-0.000385341 0.000107343 0.397 255 255 255
-0.787962 0.00605955 1.719 255 255 255
0.0500212 0.149362 0.387 255 255 255
-0.504515 -0.405005 1.227 255 255 255
-0.199077 0.0932301 0.447 0 0 0
0.182558 -0.0206997 0.457 255 255 255
0.0851705 0.0742454 0.506 255 255 255
-0.040442 -0.00255796 0.41 255 255 255
0.129537 -0.00624664 0.49 0 0 0
0.157548 -0.0627556 0.46 255 255 255
-0.175115 0.147118 0.378 255 255 255
0.206441 -0.0655885 0.425 255 255 255
0.132382 0.0509794 0.548 255 255 255
0.165002 0.0745557 0.462 0 0 0
-0.0980565 0.14136 0.4 255 255 255
-0.60933 -0.0849557 1.543 255 255 255
0.145949 -0.0605408 0.466 255 255 255
0.169897 -0.0411363 0.461 0 0 0
0.173643 -0.0402109 0.459 0 0 0
-0.2231 -0.278952 1.1 255 255 255
-0.874381 0.0278926 1.686 255 255 255
-0.0177913 0.0390281 0.427 255 255 255
-0.0288833 0.139198 0.407 255 255 255
-0.47151 -0.440745 1.194 255 255 255
0.0836628 -0.19756 0.664 255 255 255
-0.0560458 -0.0999784 0.517 255 255 255
0.146552 0.102756 0.432 0 0 0
-0.513078 -0.147092 1.416 255 255 255
-0.159343 0.141438 0.386 255 255 255
-0.0357648 0.112581 0.443 255 255 255
-0.11795 0.043931 0.408 255 255 255
0.078593 -0.27976 0.856 255 255 255
-0.0160554 0.132076 0.418 255 255 255
0.0419028 0.0470192 0.406 255 255 255
-0.0042413 0.150521 0.395 255 255 255
0.0633421 0.00301929 0.586 255 255 255
-0.866025 -0.0949214 1.724 255 255 255
-0.118 0.0582092 0.42 255 255 255
-0.0963483 0.0625675 0.349 0 0 0
0.0806706 0.022298 0.567 255 255 255
0.195583 -0.1465 0.404 0 0 0
0.128566 0.146011 0.417 255 255 255
-0.687097 -0.44194 1.359 255 255 255
0.19454 -0.0101755 0.452 255 255 255
0.204131 0.0767236 0.457 255 255 255
-0.122579 0.044745 0.361 255 255 255
0.214444 0.0154655 0.449 255 255 255
0.120029 0.14432 0.418 255 255 255
0.145636 -0.062681 0.465 0 0 0
0.0543159 0.0791272 0.415 255 255 255
0.208654 -0.0510841 0.431 0 0 0
0.235204 0.0647231 0.467 0 0 0
-0.111462 0.0922489 0.375 255 255 255
-0.196295 0.0969396 0.444 255 255 255
0.0976083 -0.0119782 0.622 0 0 0
0.00937433 -0.0771127 0.505 0 0 0
-0.770054 -0.18715 1.579 255 255 255
-0.177058 0.123605 0.408 255 255 255
0.174976 0.146851 0.399 255 255 255
-0.362589 -0.00639629 1.387 255 255 255
-0.0155899 0.0969843 0.465 255 255 255
-0.0843725 0.0278682 0.416 255 255 255
-0.21058 -0.375179 1.03 255 255 255
-0.36042 -0.382858 1.132 255 255 255
0.205437 0.0336294 0.502 255 255 255
0.0441224 0.109119 0.385 0 0 0
0.166032 -0.102998 0.437 255 255 255
-0.00648266 0.0230738 0.415 255 255 255
-0.0873613 -0.310069 0.983 255 255 255
0.103762 -0.130646 0.454 0 0 0
-0.814251 -0.268694 1.575 255 255 255
-0.118091 0.0231297 0.393 255 255 255
-0.0426009 -0.233522 0.984 255 255 255
-0.407844 -0.379545 1.173 255 255 255
-0.0268665 0.0529841 0.439 255 255 255
0.0664382 -0.285598 0.861 255 255 255
-0.123759 0.133883 0.401 255 255 255
0.0620633 -0.00080331 0.592 255 255 255
0.158062 -0.141638 0.427 0 0 0
-0.665239 0.00857355 1.664 255 255 255
-0.657074 -0.255565 1.47 255 255 255
-0.0274785 0.106069 0.449 255 255 255
-0.0768394 0.0748297 0.356 255 255 255
0.193884 0.150519 0.39 255 255 255
-0.115619 0.0743456 0.365 255 255 255
-0.107823 0.136804 0.4 255 255 255
-0.121015 0.144579 0.386 255 255 255
-0.591559 -0.12392 1.498 255 255 255
0.21059 -0.0317373 0.435 255 255 255
-0.124101 0.0521827 0.4 255 255 255
0.147596 -0.134468 0.433 255 255 255
-0.0177439 -0.00374997 0.395 255 255 255
-0.593179 -0.406199 1.308 255 255 255
0.193307 0.146934 0.394 255 255 255
0.151584 -0.0477514 0.467 0 0 0
0.0237189 -0.0850129 0.513 255 255 255
-0.134381 0.137895 0.392 255 255 255
-0.360222 -0.37178 1.149 255 255 255
0.212667 -0.0579807 0.425 255 255 255
0.110668 0.034781 0.56 255 255 255
0.152162 0.117824 0.428 255 255 255
-0.5527 -0.354334 1.313 255 255 255
0.0356966 -0.231517 0.937 255 255 255
-0.191958 0.135635 0.391 255 255 255
0.129218 0.0879974 0.45 0 0 0
-0.00524287 0.035304 0.424 255 255 255
-0.372133 -0.231927 1.252 255 255 255
0.223801 0.065483 0.467 255 255 255
0.237911 0.0474794 0.477 255 255 255
-0.068297 0.125992 0.405 255 255 255
-0.155853 0.103707 0.436 255 255 255
0.0623782 -0.301709 0.863 255 255 255
0.0444259 0.0516112 0.411 255 255 255
-0.716642 -0.0686516 1.633 255 255 255
0.204416 0.0967823 0.44 255 255 255
-0.17285 -0.346669 1.025 255 255 255
0.175737 -0.15178 0.413 255 255 255
0.0719366 -0.0826117 0.697 0 0 0
0.138705 0.0770794 0.503 255 255 255
0.0457552 0.0350401 0.405 255 255 255
-0.673823 -0.190245 1.502 255 255 255
-0.590301 -0.430221 1.297 255 255 255
-0.522813 -0.428146 1.242 255 255 255
0.0241793 0.0824886 0.473 0 0 0
0.202499 -0.116833 0.406 255 255 255
-0.10858 0.138063 0.398 255 255 255
-0.428194 -0.0343989 1.425 255 255 255
0.0635067 -0.0606945 0.668 255 255 255
0.206254 0.0409817 0.502 0 0 0
0.147973 0.107878 0.43 0 0 0
0.200309 0.0936258 0.442 0 0 0
0.178004 -0.0725277 0.442 0 0 0
-0.414972 -0.0805309 1.381 255 255 255
0.187226 0.124714 0.403 255 255 255
0.158425 0.0708028 0.467 0 0 0
0.0825819 -0.13705 0.664 255 255 255
-0.00497084 0.144684 0.402 255 255 255
0.1829 -0.0206544 0.456 255 255 255
0.0272498 0.119121 0.377 255 255 255
0.130539 -0.128632 0.447 255 255 255
-0.232143 -0.292917 1.092 255 255 255
0.15112 0.100175 0.433 255 255 255
-0.0305783 0.0532255 0.441 255 255 255
-0.0464764 -0.0480722 0.442 255 255 255
0.220926 0.0383848 0.461 255 255 255
0.0357883 0.110422 0.383 255 255 255
0.130578 -0.0699397 0.468 255 255 255
0.114228 -0.148387 0.443 0 0 0
-0.201127 0.132828 0.394 255 255 255
0.123901 0.155265 0.404 255 255 255
-0.0326162 0.140144 0.404 255 255 255
0.0718131 -0.074501 0.685 255 255 255
-0.0543403 0.148615 0.39 255 255 255
-0.0882229 0.0257752 0.415 255 255 255
-0.0184575 -0.0456375 0.461 255 255 255
-0.100841 0.107365 0.381 255 255 255
0.18732 -0.106833 0.424 0 0 0
-0.0535002 -0.310482 0.95 255 255 255
-0.0648515 0.0686494 0.357 255 255 255
0.129273 -0.0149873 0.489 0 0 0
0.19738 0.0308396 0.524 255 255 255
0.0751598 -0.130533 0.675 255 255 255
0.144197 -0.0187334 0.483 0 0 0
0.133584 -0.0331795 0.476 255 255 255
0.0586178 0.0819075 0.412 255 255 255
0.0880536 -0.0518354 0.499 0 0 0
-0.0330829 0.0320794 0.427 255 255 255
0.188218 0.0606754 0.477 0 0 0
0.084971 0.137786 0.423 0 0 0
-0.0447348 0.0901864 0.469 255 255 255
-0.510141 -0.3019 1.308 255 255 255
-0.309934 -0.279807 1.171 255 255 255
-0.447859 -0.350521 1.225 255 255 255
0.00506176 0.127924 0.42 0 0 0
-0.636688 -0.295404 1.409 255 255 255
-0.00844777 0.0208956 0.412 255 255 255
0.154254 0.156034 0.406 255 255 255
-0.600991 -0.365415 1.33 255 255 255
-0.566556 -0.390415 1.291 255 255 255
0.131033 -0.0309853 0.478 255 255 255
-0.0306198 -0.0860151 0.514 0 0 0
-0.774066 -0.322235 1.502 255 255 255
0.164544 -0.137193 0.424 255 255 255
0.214546 0.0752362 0.457 255 255 255
-0.367147 -0.183594 1.27 255 255 255
0.146547 -0.104627 0.447 0 0 0
0.162082 -0.0609921 0.458 255 255 255
0.0696601 0.0939285 0.406 255 255 255
-0.35384 -0.136841 1.297 255 255 255
0.0604826 0.0823775 0.411 255 255 255
0.017278 0.120479 0.402 255 255 255
0.0685307 -0.0473645 0.664 0 0 0
-0.0457578 -0.247682 0.983 255 255 255
0.103426 -0.0661858 0.491 255 255 255
0.148755 -0.0807615 0.456 0 0 0
-0.103493 0.060977 0.425 255 255 255
-0.0460224 0.0987207 0.459 255 255 255
0.183981 -0.0324561 0.455 0 0 0
0.0539531 -0.116222 0.73 0 0 0
-0.156321 -0.248109 1.06 255 255 255
-0.00545308 0.114944 0.441 255 255 255
-0.0511675 0.0723289 0.472 0 0 0
-0.417307 -0.25754 1.278 255 255 255
0.189871 -0.107016 0.422 255 255 255
-0.0146367 -0.0880077 0.511 255 255 255
-0.064818 0.121613 0.408 255 255 255
0.0296373 0.0118545 0.401 255 255 255
0.186859 -0.0367365 0.453 0 0 0
0.213495 -0.019975 0.441 255 255 255
0.220899 0.10088 0.433 0 0 0
0.104465 0.0582577 0.533 255 255 255
-0.392131 -0.176125 1.291 255 255 255
-0.128607 0.128945 0.406 255 255 255
0.0397396 -0.188968 0.961 255 255 255
0.130239 -0.126113 0.451 255 255 255
0.196071 0.144176 0.397 255 255 255
-0.234851 -0.328693 1.064 255 255 255
-0.0278795 0.0922789 0.468 255 255 255
0.110261 -0.308778 0.822 255 255 255
0.105471 -0.128713 0.455 0 0 0
-0.290201 -0.221676 1.176 255 255 255
0.082217 0.149427 0.406 0 0 0
-0.893629 -0.112403 1.734 255 255 255
-0.109017 0.0171175 0.402 255 255 255
0.0386541 -0.0756059 0.523 255 255 255
-0.53725 -0.303332 1.333 255 255 255
0.151641 -0.100263 0.447 0 0 0
-0.599566 -0.416841 1.308 255 255 255
0.0960168 0.0893665 0.494 255 255 255
-0.45844 -0.342499 1.232 255 255 255
-0.213861 0.121678 0.406 255 255 255
0.207028 -0.0533116 0.432 0 0 0
-0.0615516 0.0755335 0.365 255 255 255
0.229931 0.042886 0.461 255 255 255
0.197293 0.0326818 0.5 255 255 255
-0.107525 -0.301252 1.007 255 255 255
-0.0186246 0.0655883 0.447 255 255 255
-0.0878045 0.0845712 0.363 255 255 255
-0.755664 0.0943433 1.603 255 255 255
-0.0880295 -0.270653 1.009 255 255 255
0.0305712 0.137751 0.388 0 0 0
-0.0707515 0.144642 0.393 255 255 255
-0.0493246 0.0623195 0.455 255 255 255
0.0186499 0.0529646 0.451 255 255 255
0.161764 0.098967 0.437 255 255 255
-0.306827 -0.116534 1.26 255 255 255
0.00287453 0.00337122 0.401 0 0 0
-0.170757 0.129315 0.401 255 255 255
-0.0487588 0.137211 0.407 255 255 255
-0.0331029 0.101044 0.456 255 255 255
0.0115303 0.00938257 0.407 0 0 0
0.227041 0.056018 0.477 0 0 0
0.18062 -0.0419893 0.454 0 0 0
0.152057 0.0796983 0.457 255 255 255
0.0069082 -0.0803999 0.505 0 0 0
-0.00197366 0.0966415 0.467 255 255 255
-0.455507 -0.294729 1.286 255 255 255
-0.546704 -0.285442 1.351 255 255 255
-0.18259 0.119071 0.413 255 255 255
0.180206 0.120033 0.414 255 255 255
0.116355 -0.0119491 0.495 0 0 0
0.0770204 0.0975228 0.41 255 255 255
0.0741708 -0.128526 0.676 255 255 255
0.0453186 0.0464726 0.407 255 255 255
-0.500522 -0.219487 1.351 255 255 255
0.0982965 0.0740023 0.51 255 255 255
-0.144968 0.120998 0.415 255 255 255
-0.101895 0.0473666 0.427 255 255 255
-0.327977 -0.337717 1.154 255 255 255
0.0164169 0.129317 0.397 255 255 255
-0.786695 -0.269647 1.551 255 255 255
-0.147111 0.127624 0.406 255 255 255
0.0112834 0.0565086 0.45 255 255 255
0.0472946 0.0823183 0.481 0 0 0
-0.323459 -0.314389 1.158 255 255 255
0.00930863 -0.328183 0.893 255 255 255
0.118281 -0.130358 0.453 255 255 255
-0.465437 -0.116741 1.384 255 255 255
0.197364 0.129963 0.397 255 255 255
0.0404293 0.109565 0.398 255 255 255
-0.0372407 -0.0791692 0.513 0 0 0
0.196058 0.0217855 0.459 255 255 255
-0.472515 -0.178767 1.359 255 255 255
0.167301 0.0791274 0.458 0 0 0
0.0544495 -0.293167 0.871 255 255 255
0.10312 -0.137668 0.448 0 0 0
0.150604 0.140245 0.416 255 255 255
-0.353799 -0.0696766 1.345 255 255 255
-0.183947 0.143946 0.381 255 255 255
0.121762 0.0717913 0.518 255 255 255
0.187434 -0.0927345 0.429 255 255 255
-0.462655 -0.108667 1.396 255 255 255
-0.330999 -0.337003 1.158 255 255 255
-0.375407 -0.293064 1.21 255 255 255
0.128903 -0.0923497 0.462 255 255 255
0.117185 -0.00181444 0.608 0 0 0
-0.485556 -0.126295 1.39 255 255 255
-0.567044 0.0231353 1.551 255 255 255
0.01875 0.0846185 0.472 0 0 0
0.0402812 0.0427368 0.403 255 255 255
-0.143786 -0.371011 0.975 255 255 255
0.187289 0.0330199 0.577 255 255 255
-0.125413 0.144579 0.386 255 255 255
-0.149771 0.131267 0.399 255 255 255
-0.219345 0.109891 0.419 0 0 0
0.197673 -0.0875138 0.424 255 255 255
0.0347723 0.112719 0.4 255 255 255
-0.0547035 0.040014 0.402 255 255 255
0.0980509 -0.142452 0.659 255 255 255
-0.550931 -0.325903 1.319 255 255 255
-0.377584 -0.32362 1.192 255 255 255
0.181384 -0.0782863 0.438 255 255 255
0.0568675 -0.209497 0.934 255 255 255
-0.0728817 0.107586 0.384 255 255 255
-0.0445878 0.151642 0.388 255 255 255
0.174886 0.127858 0.411 255 255 255
0.179099 -0.150436 0.413 255 255 255
-0.367871 -0.425995 1.11 255 255 255
-0.0854203 0.115983 0.387 255 255 255
0.0835774 0.12957 0.43 0 0 0
0.0950804 0.145347 0.419 255 255 255
0.19462 -0.111587 0.416 255 255 255
-0.898783 -0.0364232 1.744 255 255 255
-0.56931 -0.404698 1.283 255 255 255
0.173063 0.108073 0.428 255 255 255
0.103589 -0.0713403 0.488 0 0 0
-0.0191317 0.137222 0.411 255 255 255
0.201963 -0.133666 0.401 255 255 255
-0.179753 0.144805 0.38 255 255 255
-0.00938516 -0.00117879 0.395 255 255 255
-0.21012 -0.360505 1.036 255 255 255
-0.313138 -0.339483 1.141 255 255 255
-0.361099 -0.129488 1.308 255 255 255
0.191158 -0.00062148 0.458 255 255 255
0.0763259 -0.0583452 0.666 255 255 255
0.00544449 -0.00118774 0.398 255 255 255
0.157495 -0.0993653 0.443 255 255 255
0.178525 0.0620974 0.476 0 0 0
-0.0991148 0.0619588 0.427 255 255 255
-0.0903435 0.0966986 0.371 255 255 255
-0.341563 -0.189141 1.252 255 255 255
-0.434374 -0.320446 1.232 255 255 255
0.0500212 0.110315 0.387 255 255 255
0.173202 -0.0601931 0.452 0 0 0
-0.0209334 -0.0362741 0.466 255 255 255
0.067705 -0.0382536 0.656 255 255 255
-0.157825 0.0659732 0.426 255 255 255
-0.0890837 0.0823428 0.361 255 255 255
0.177717 -0.0871525 0.436 255 255 255
0.0124324 0.0190218 0.415 0 0 0
-0.428554 -0.432678 1.167 255 255 255
-0.461961 -0.0600754 1.429 255 255 255
-0.381033 -0.169559 1.289 255 255 255
-0.674985 -0.0363797 1.616 255 255 255
0.219545 0.00520111 0.446 0 0 0
0.181084 -0.0756074 0.439 255 255 255
0.137832 -0.0295527 0.48 255 255 255
0.0562814 -0.00080331 0.592 0 0 0
-0.0341323 -0.0452808 0.45 255 255 255
0.185908 -0.152621 0.396 255 255 255
0.201073 0.0331349 0.563 255 255 255
0.0126068 0.102227 0.445 255 255 255
-0.418047 -0.363349 1.208 255 255 255
0.0683384 0.0932678 0.406 255 255 255
-0.201167 0.0972222 0.442 0 0 0
-0.22594 -0.264374 1.114 255 255 255
0.122486 0.109421 0.439 255 255 255
-0.218916 -0.271475 1.106 255 255 255
0.192281 -0.128305 0.411 0 0 0
-0.0362905 -0.0142479 0.401 255 255 255
0.0919412 0.0752172 0.507 255 255 255
0.11453 -0.00683936 0.615 255 255 255
-0.049907 -0.0179473 0.411 255 255 255
0.0245851 -0.0291716 0.439 255 255 255
0.102745 0.15607 0.401 255 255 255
0.185932 -0.089868 0.432 0 0 0
0.121649 -0.160233 0.436 255 255 255
0.157522 -0.160504 0.42 0 0 0
0.124623 0.128657 0.434 0 0 0
0.216258 -0.0409776 0.428 255 255 255
-0.203902 0.127021 0.402 255 255 255
-0.00122386 -0.031298 0.471 255 255 255
-0.13723 -0.238023 1.046 255 255 255
0.145167 0.0920888 0.445 0 0 0
-0.0495584 -0.323491 0.934 255 255 255
-0.0499552 0.0991229 0.454 0 0 0
0.0333027 0.0337868 0.398 255 255 255
-0.131851 0.147666 0.381 255 255 255
0.00240462 0.0439055 0.434 255 255 255
-0.140236 0.119546 0.417 255 255 255
0.0244762 0.00861311 0.402 255 255 255
-0.0659825 0.0721555 0.36 255 255 255
0.211521 0.0220415 0.449 255 255 255
-0.12145 0.0445933 0.402 255 255 255
-0.0568746 0.0624333 0.358 255 255 255
0.157273 -0.00528244 0.475 0 0 0
0.193387 0.152033 0.389 255 255 255
0.216857 -0.00563472 0.442 255 255 255
0.196537 0.0932022 0.44 0 0 0
-0.501537 -0.0498382 1.47 255 255 255
-0.169269 0.135689 0.393 255 255 255
-0.10983 0.0264722 0.405 255 255 255
0.149927 0.142953 0.416 255 255 255
0.215058 -0.0519997 0.427 0 0 0
-0.118908 0.053593 0.416 255 255 255
-0.646408 -0.487083 1.308 255 255 255
0.164 -0.071384 0.453 255 255 255
-0.112784 -0.271609 1.025 255 255 255
-0.250414 -0.306359 1.102 255 255 255
0.107322 0.138394 0.427 255 255 255
0.0244057 -0.27343 0.914 255 255 255
0.194445 0.110341 0.426 255 255 255
0.209166 -0.0986355 0.41 255 255 255
-0.0250445 0.0853866 0.472 0 0 0
-0.541711 -0.359841 1.302 255 255 255
0.150056 -0.13266 0.434 255 255 255
0.112225 -0.159542 0.438 0 0 0
0.111521 -0.0570586 0.495 255 255 255
-0.0284817 0.120754 0.431 255 255 255
0.0831765 0.0142652 0.578 255 255 255
-0.372135 -0.329989 1.187 255 255 255
0.0832947 0.0585292 0.52 255 255 255
0.166968 0.137548 0.408 255 255 255
-0.497135 -0.200572 1.372 255 255 255
-0.0640267 0.146451 0.391 255 255 255
0.194109 -0.0189601 0.451 255 255 255
-0.388185 -0.305634 1.213 255 255 255
0.0855071 -0.0337566 0.508 0 0 0
0.197737 0.0436323 0.495 0 0 0
0.17546 0.0641505 0.474 0 0 0
-0.329302 -0.373145 1.114 255 255 255
-0.122888 0.0338481 0.384 255 255 255
-0.517551 -0.291169 1.327 255 255 255
0.0527095 0.0894992 0.413 255 255 255
0.189087 -0.0904289 0.428 255 255 255
-0.82498 0.041611 1.686 255 255 255
-0.163943 0.105812 0.433 255 255 255
0.138025 0.0931167 0.443 0 0 0
-0.146732 0.115343 0.424 255 255 255
-0.742035 0.207896 1.449 255 255 255
0.134225 0.108955 0.44 255 255 255
-0.0407702 -0.0697165 0.505 255 255 255
0.00809652 0.000108425 0.401 255 255 255
0.179609 -0.105505 0.427 0 0 0
-0.0454025 0.0791388 0.476 0 0 0
0.184657 -0.071321 0.439 255 255 255
-0.630742 0.013653 1.624 255 255 255
0.00505856 -0.29096 0.913 255 255 255
0.0443269 0.0382408 0.404 255 255 255
0.185254 0.0749815 0.46 0 0 0
-0.0530509 -0.029276 0.42 255 255 255
-0.767667 0.0032356 1.705 255 255 255
-0.0349645 0.0519076 0.442 255 255 255
-0.0863825 0.0920726 0.367 255 255 255
-0.767483 -0.215415 1.579 255 255 255
0.0775013 -0.115915 0.686 255 255 255
-0.309782 -0.234942 1.185 255 255 255
-0.0894423 0.108938 0.38 255 255 255
-0.0896611 0.118482 0.389 255 255 255
-0.365636 0.00263782 1.39 255 255 255
0.164744 -0.0780604 0.449 255 255 255
0.0583949 0.1312 0.38 255 255 255
0.0188179 0.0186551 0.407 0 0 0
0.119889 -0.0767184 0.477 255 255 255
-0.121643 0.0390496 0.386 255 255 255
-0.0573172 0.100514 0.393 255 255 255
0.194089 -0.140931 0.405 255 255 255
-0.100612 -0.273604 1.02 255 255 255
-0.624681 -0.20004 1.484 255 255 255
-0.0258128 0.0861547 0.472 0 0 0
0.121859 -0.0443397 0.488 255 255 255
-0.126112 0.0367163 0.375 255 255 255
-0.241094 -0.362283 1.046 255 255 255
-0.447649 -0.381422 1.203 255 255 255
-0.508611 -0.0896432 1.456 255 255 255
0.0772754 -0.118916 0.684 255 255 255
0.177529 0.0467934 0.486 0 0 0
0.092115 0.0845868 0.499 0 0 0
-0.131588 -0.369541 0.967 255 255 255
0.22207 0.0506903 0.478 255 255 255
-0.170573 0.143455 0.383 255 255 255
0.194988 0.0749815 0.46 0 0 0
0.155561 -0.05337 0.463 255 255 255
0.119012 -0.0337664 0.496 255 255 255
-0.397035 -0.344745 1.198 255 255 255
-0.0315532 0.0949179 0.466 255 255 255
0.0801538 -0.2498 0.873 255 255 255
0.183643 -0.0258489 0.456 255 255 255
-0.0185731 0.144903 0.399 255 255 255
-0.360343 -0.384494 1.126 255 255 255
0.0344809 -0.32747 0.868 255 255 255
-0.0232695 -0.0635354 0.483 0 0 0
-0.0150898 -0.243399 0.966 255 255 255
0.220997 0.0893926 0.446 0 0 0
0.0352567 0.140705 0.384 0 0 0
0.121772 -0.156334 0.439 255 255 255
-0.0731446 0.0121205 0.41 255 255 255
0.185793 -0.0242579 0.454 255 255 255
-0.864254 0.0413889 1.677 255 255 255
0.0820614 0.151226 0.402 255 255 255
-0.112321 0.0563999 0.427 255 255 255
0.131732 0.0623596 0.531 255 255 255
0.146016 0.095567 0.441 255 255 255
-0.101793 -0.305362 0.999 255 255 255
-0.363012 -0.177393 1.27 255 255 255
0.19833 -0.0930605 0.421 255 255 255
0.0216262 -0.00722839 0.41 255 255 255
-0.901867 -0.0363188 1.739 255 255 255
-0.108725 -0.252119 1.034 255 255 255
-0.0109413 0.0119727 0.405 255 255 255
-0.0193383 -0.0132314 0.483 0 0 0
0.0366795 -0.294222 0.887 255 255 255
-0.262842 -0.345082 1.094 255 255 255
-0.0456647 -0.251967 0.981 255 255 255
0.0162798 -0.339429 0.877 255 255 255
0.185711 -0.0418043 0.452 0 0 0
-0.552724 -0.359371 1.308 255 255 255
-0.249113 -0.242078 1.137 255 255 255
-0.0454978 0.0808575 0.477 0 0 0
-0.0411811 -0.0362499 0.447 0 0 0
-0.0248593 -0.0779527 0.516 0 0 0
-0.185516 0.103231 0.434 255 255 255
-0.0149925 -0.0335261 0.47 255 255 255
-0.0231331 0.126773 0.423 255 255 255
0.139367 0.126084 0.423 255 255 255
-0.846936 -0.147703 1.686 255 255 255
0.0632065 0.0948222 0.407 255 255 255
0.149849 -0.104393 0.446 0 0 0
0.209138 -0.0441726 0.432 255 255 255
0.169019 -0.147495 0.418 255 255 255
0.134361 0.132061 0.429 255 255 255
-0.296672 -0.397274 1.081 255 255 255
-0.00309679 -0.11349 0.529 255 255 255
-0.10919 0.149297 0.382 255 255 255
0.124393 -0.287778 0.827 255 255 255
0.186034 0.0874591 0.451 255 255 255
0.0817992 0.0421696 0.538 255 255 255
0.115931 0.107055 0.444 255 255 255
0.0260918 -0.268031 0.921 255 255 255
-0.00189758 0.0636897 0.449 0 0 0
0.0543397 -0.232545 0.917 255 255 255
-0.151535 0.116172 0.422 255 255 255
0.198053 0.00752737 0.455 0 0 0
0.0828044 -0.0922872 0.693 255 255 255
0.0718635 -0.13273 0.675 255 255 255
0.162919 -0.0837188 0.448 255 255 255
0.104717 -0.0243233 0.501 0 0 0
-0.0711115 0.118381 0.395 255 255 255
0.142273 0.0719299 0.519 255 255 255
0.00230488 0.0217755 0.416 255 255 255
0.0692971 -0.168701 0.661 0 0 0
-0.798381 -0.0816602 1.682 255 255 255
-0.0109296 -0.0485327 0.46 255 255 255
-0.567292 -0.209752 1.419 255 255 255
-0.0608491 0.0571271 0.354 255 255 255
-0.165571 -0.259434 1.064 255 255 255
0.119348 0.0317473 0.571 255 255 255
