ply
format ascii 1.0
comment Created by Open3D
element vertex 1305
property double x
property double y
property double z
property uchar red
property uchar green
property uchar blue
end_header
0.18538 -0.123478 0.434 255 255 255
-0.301302 -0.403616 1.182 255 255 255
0.0650476 0.0184259 0.402 255 255 255
0.186277 -0.0697832 0.457 255 255 255
0.117793 -0.272171 0.9 255 255 255
0.0353042 0.0544129 0.439 255 255 255
-0.170618 -0.138787 1.239 255 255 255
0.0454162 0.00534218 0.402 255 255 255
-0.250382 -0.15503 1.308 255 255 255
0.172297 0.0586439 0.553 255 255 255
-0.258128 -0.185473 1.283 255 255 255
0.214133 -0.272635 0.81 255 255 255
0.195831 -0.137147 0.426 255 255 255
0.020143 0.147808 0.407 255 255 255
-0.0552202 0.126705 0.401 255 255 255
-0.0190653 -0.292288 1.01 255 255 255
0.215159 0.105375 0.44 0 0 0
0.214637 0.0181687 0.462 0 0 0
0.0663154 0.000785654 0.414 255 255 255
0.154226 -0.0425591 0.495 255 255 255
-0.00417975 -0.299086 0.989 255 255 255
0.153138 -0.0055827 0.502 0 0 0
0.105537 0.0950372 0.486 0 0 0
-0.690441 0.140241 1.591 255 255 255
0.0905889 0.0950853 0.411 255 255 255
-0.145308 0.114875 0.43 255 255 255
0.159374 -0.0486074 0.491 255 255 255
0.000295728 0.0572409 0.45 255 255 255
0.0415455 0.0506093 0.437 255 255 255
-0.850521 0.0118238 1.744 255 255 255
-0.14249 0.106814 0.443 255 255 255
-0.156321 -0.394731 1.06 255 255 255
-0.459384 -0.328624 1.366 255 255 255
0.0272697 -0.109243 0.551 0 0 0
-0.419519 -0.207446 1.435 255 255 255
-0.443564 -0.354215 1.345 255 255 255
-0.817876 0.0229767 1.729 255 255 255
0.114282 0.0866007 0.412 255 255 255
-0.175219 -0.325858 1.126 255 255 255
-0.165362 0.129925 0.407 255 255 255
0.0741289 0.0994728 0.424 255 255 255
-0.198137 0.117228 0.416 0 0 0
-0.0352804 0.0655433 0.437 255 255 255
0.0952966 -0.283769 0.909 255 255 255
-0.872086 -0.211059 1.831 255 255 255
0.0646954 0.121377 0.421 255 255 255
-0.0536398 -0.224046 1.077 255 255 255
0.131542 -0.311799 0.856 255 255 255
-0.507358 -0.315744 1.439 255 255 255
0.17439 -0.100713 0.459 255 255 255
-0.0553979 0.0678778 0.356 255 255 255
0.168344 -0.0929493 0.465 255 255 255
0.124042 0.0896383 0.5 0 0 0
0.0433363 0.0922995 0.472 0 0 0
0.205956 -0.151476 0.405 255 255 255
-0.440283 -0.395487 1.322 255 255 255
-0.0691125 0.0577726 0.358 255 255 255
0.212294 -0.0772117 0.44 0 0 0
0.190933 -0.0886239 0.447 255 255 255
0.019292 -0.0859427 0.529 255 255 255
-0.0476236 0.145044 0.403 255 255 255
0.142171 0.138396 0.438 255 255 255
0.140233 0.034414 0.569 255 255 255
-0.161077 0.123776 0.413 255 255 255
-0.0101808 -0.062007 0.46 255 255 255
-0.117285 0.132236 0.408 255 255 255
0.0583923 0.124312 0.376 255 255 255
0.146605 0.0428292 0.558 255 255 255
-0.239191 -0.247665 1.239 255 255 255
-0.0387858 0.0268329 0.421 255 255 255
-0.186176 0.120323 0.415 255 255 255
0.0523335 -0.0182292 0.47 255 255 255
-0.174151 0.102743 0.441 255 255 255
0.179716 -0.0435615 0.471 255 255 255
0.121757 -0.197495 0.942 255 255 255
0.118351 0.0776923 0.507 255 255 255
0.143165 0.151846 0.42 255 255 255
0.13816 -0.319861 0.837 0 0 0
0.140346 -0.0663027 0.486 0 0 0
0.207597 -0.0518715 0.45 255 255 255
-0.591078 0.0779205 1.7 255 255 255
-0.64868 0.131925 1.616 255 255 255
0.233642 0.0619669 0.481 255 255 255
0.143967 0.011879 0.6 255 255 255
0.055955 -0.0284445 0.462 255 255 255
-0.0655691 0.026578 0.417 255 255 255
-0.43797 -0.317713 1.348 255 255 255
0.0727188 0.0353466 0.401 255 255 255
0.136901 0.0118592 0.599 255 255 255
0.221996 0.0609902 0.558 255 255 255
-0.865142 -0.107763 1.848 255 255 255
0.133735 0.146038 0.427 255 255 255
0.204108 -0.0171671 0.462 255 255 255
-0.383313 -0.428146 1.242 255 255 255
0.149186 0.0939531 0.497 255 255 255
0.226001 -0.0330419 0.443 255 255 255
0.000297042 -0.0256221 0.452 0 0 0
0.169828 -0.0925892 0.467 255 255 255
-0.1647 0.109132 0.435 255 255 255
0.149266 0.135448 0.44 0 0 0
0.123927 0.0752725 0.513 255 255 255
0.236976 0.0789929 0.466 0 0 0
-0.0818515 0.0960782 0.388 255 255 255
0.0917593 -0.0607866 0.52 255 255 255
0.0658346 0.0966518 0.433 255 255 255
-0.733765 0.283735 1.393 255 255 255
-0.0820203 0.130533 0.411 0 0 0
-0.00309001 0.140578 0.413 255 255 255
0.21753 0.0594947 0.48 255 255 255
0.0601101 0.0178601 0.404 255 255 255
-0.472823 -0.205329 1.47 255 255 255
-0.643203 -0.332786 1.528 255 255 255
-0.0210176 0.130593 0.422 0 0 0
-0.021304 -0.244884 1.039 255 255 255
0.140032 -0.191593 0.921 255 255 255
-0.62468 0.0509654 1.724 255 255 255
-0.0767126 0.0574959 0.43 255 255 255
0.22521 0.0223852 0.456 0 0 0
0.200498 0.0216802 0.473 255 255 255
-0.123222 0.146335 0.389 255 255 255
-0.719573 -0.245159 1.677 255 255 255
0.0507836 -0.0115146 0.477 255 255 255
-0.0135727 0.0625501 0.369 255 255 255
-0.53516 -0.194045 1.532 255 255 255
-0.475784 -0.443958 1.319 255 255 255
0.0269134 0.105761 0.467 255 255 255
0.20978 0.112514 0.429 255 255 255
-0.0648589 0.0687828 0.435 255 255 255
-0.326577 -0.335205 1.265 255 255 255
-0.375353 -0.275751 1.336 255 255 255
0.0197889 0.131057 0.428 255 255 255
-0.156879 -0.108806 1.242 255 255 255
0.163886 -0.0777786 0.474 255 255 255
0.221022 -0.0254521 0.449 0 0 0
0.0247383 -0.0326915 0.469 255 255 255
-0.231855 -0.186988 1.265 255 255 255
0.0238416 0.117075 0.452 255 255 255
0.193477 0.131128 0.415 255 255 255
0.0624772 -0.298439 0.927 255 255 255
0.202341 0.0865806 0.458 0 0 0
-0.122215 0.0602881 0.435 255 255 255
-0.335584 -0.18431 1.351 255 255 255
-0.169405 0.124817 0.412 255 255 255
-0.0317273 0.0610969 0.357 0 0 0
-0.479741 -0.432287 1.336 255 255 255
0.0763125 0.142832 0.383 255 255 255
-0.000977427 -0.268478 1.007 255 255 255
0.0470979 -0.0115628 0.479 255 255 255
-0.162416 -0.188391 1.208 255 255 255
0.0491263 0.138308 0.395 255 255 255
-0.484053 -0.447795 1.324 255 255 255
0.0033333 0.0803368 0.465 255 255 255
0.137096 -0.112191 0.677 255 255 255
-0.0161246 0.0857542 0.387 255 255 255
0.171147 0.0976027 0.495 255 255 255
0.210786 -0.108213 0.424 255 255 255
-0.0701013 0.140802 0.404 255 255 255
-0.731784 -0.465315 1.547 255 255 255
-0.625502 -0.255229 1.571 255 255 255
-0.753154 -0.522878 1.524 255 255 255
0.210394 -0.105951 0.426 255 255 255
0.180206 0.15035 0.414 255 255 255
0.181512 0.137189 0.417 255 255 255
0.138335 -0.0784107 0.7 0 0 0
0.0146182 -0.0737542 0.516 0 0 0
0.198241 -0.295694 0.764 0 0 0
-0.171872 0.119832 0.418 255 255 255
-0.217639 -0.0831652 1.316 255 255 255
0.0730435 -0.232635 0.967 255 255 255
-0.649782 -0.483957 1.459 255 255 255
-0.718221 0.279203 1.416 255 255 255
0.171303 -0.308397 0.807 255 255 255
0.135775 0.073761 0.52 255 255 255
0.131597 -0.0302102 0.504 0 0 0
0.00326162 -0.0161665 0.455 0 0 0
-0.124753 0.138106 0.4 255 255 255
0.00988384 0.0716289 0.453 255 255 255
-0.446532 -0.323534 1.354 255 255 255
0.142799 -0.0105051 0.503 0 0 0
-0.433991 -0.487663 1.26 255 255 255
0.193266 0.127383 0.416 0 0 0
-0.21898 -0.170115 1.262 255 255 255
0.152991 -0.272068 0.867 255 255 255
-0.125138 0.102916 0.448 255 255 255
-0.172533 -0.400317 1.075 255 255 255
-0.662162 -0.318422 1.555 255 255 255
0.0411653 0.0452136 0.433 255 255 255
-0.0445878 0.109338 0.388 255 255 255
-0.288756 -0.291177 1.244 255 255 255
-0.978938 -0.0999168 1.87 255 255 255
0.0558933 -0.323925 0.918 255 255 255
0.223472 0.0261527 0.457 0 0 0
-0.2465 -0.119027 1.31 255 255 255
-0.303319 -0.0113982 1.449 255 255 255
0.195556 -0.150216 0.418 255 255 255
-0.00343417 -0.0685947 0.459 0 0 0
-0.696321 0.282408 1.409 255 255 255
0.124089 -0.234759 0.914 255 255 255
0.150168 -0.00231964 0.503 255 255 255
-0.0848207 0.0486069 0.368 255 255 255
0.139998 0.125236 0.447 255 255 255
0.0655385 0.0366517 0.401 0 0 0
0.206486 0.090996 0.454 0 0 0
0.126463 0.0544266 0.538 255 255 255
-0.0962869 -0.369072 1.027 255 255 255
-0.0736319 0.0207435 0.409 255 255 255
0.00104652 -0.0609921 0.458 255 255 255
0.0543963 -0.0204364 0.468 255 255 255
-0.0798018 -0.34836 1.03 255 255 255
-0.464288 -0.260064 1.429 255 255 255
0.0606173 0.0197834 0.403 255 255 255
-0.701769 0.0668547 1.7 255 255 255
0.0461259 -0.315215 0.932 255 255 255
0.213334 -0.0258489 0.456 0 0 0
0.196773 -0.0256574 0.466 255 255 255
-0.143337 0.0865849 0.462 255 255 255
-0.238409 -0.189345 1.267 255 255 255
-0.020216 0.0819446 0.381 255 255 255
-0.88575 -0.0311879 1.769 255 255 255
0.0822656 -0.336576 0.896 255 255 255
0.182908 0.157466 0.408 255 255 255
-0.0516292 0.0628878 0.354 0 0 0
-0.168873 0.119437 0.419 255 255 255
-0.884116 -0.267355 1.789 255 255 255
0.183514 -0.147542 0.428 255 255 255
0.159866 0.00335595 0.495 255 255 255
0.172257 -0.00145931 0.489 0 0 0
0.209525 0.0770495 0.531 255 255 255
-0.549973 -0.402262 1.422 255 255 255
0.185486 0.0859553 0.517 255 255 255
-0.0679987 0.0834163 0.371 255 255 255
-0.344592 -0.272516 1.31 255 255 255
-0.00674822 0.019801 0.432 255 255 255
0.195234 0.139234 0.413 255 255 255
0.00780678 -0.0728966 0.51 0 0 0
0.158485 -0.0785499 0.474 255 255 255
-0.198752 -0.391354 1.104 255 255 255
0.121851 -0.217914 0.931 255 255 255
0.178039 -0.306784 0.796 255 255 255
0.0582111 0.0850812 0.462 0 0 0
-0.321708 -0.192267 1.33 255 255 255
0.192584 0.0572552 0.557 0 0 0
-0.796058 -0.0520646 1.794 255 255 255
0.199465 -0.105131 0.437 0 0 0
-0.0638484 0.0910284 0.375 255 255 255
-0.523868 -0.444217 1.366 255 255 255
0.0243776 0.0365975 0.423 255 255 255
0.104269 0.0847143 0.495 255 255 255
0.0190832 0.120061 0.444 255 255 255
-0.0413734 0.0636432 0.355 0 0 0
0.0571764 0.0708383 0.448 255 255 255
-0.00234162 0.149822 0.4 255 255 255
0.183183 -0.296989 0.819 255 255 255
0.147466 -0.0916326 0.466 0 0 0
0.159866 -0.0328928 0.495 255 255 255
-0.0592882 0.101785 0.381 255 255 255
-0.0780188 0.0634056 0.367 0 0 0
-0.614522 0.228738 1.477 255 255 255
0.0129717 0.0452136 0.433 0 0 0
0.179135 0.0427475 0.569 0 0 0
-0.479391 -0.158048 1.498 255 255 255
0.0246976 -0.0779527 0.516 0 0 0
-0.128115 0.0958493 0.456 255 255 255
-0.755635 -0.505518 1.524 255 255 255
0.154299 -0.106312 0.661 255 255 255
0.161448 -0.123637 0.45 0 0 0
-0.36173 -0.441313 1.217 255 255 255
-0.00185532 0.0422681 0.439 255 255 255
-0.186841 0.117792 0.418 255 255 255
-0.107987 0.0352997 0.408 255 255 255
-0.732002 -0.26013 1.668 255 255 255
0.153477 -0.297173 0.854 255 255 255
-0.634422 -0.497013 1.435 255 255 255
-0.1753 -0.101164 1.273 255 255 255
-0.362087 -0.458532 1.205 255 255 255
0.0711134 0.0473275 0.403 255 255 255
0.0476415 -0.027349 0.469 255 255 255
-0.052544 -0.252089 1.055 255 255 255
0.0869824 0.0899204 0.484 0 0 0
0.176099 -0.112652 0.45 255 255 255
-0.768822 -0.00235972 1.739 255 255 255
0.0560563 0.0140533 0.408 255 255 255
-0.205941 -0.303019 1.165 255 255 255
0.0848496 0.1058 0.419 0 0 0
-0.899805 -0.0543711 1.774 255 255 255
-0.85648 -0.40463 1.705 255 255 255
-0.592887 -0.458766 1.425 255 255 255
0.175985 -0.131247 0.446 255 255 255
0.151458 0.130669 0.436 255 255 255
0.162527 -0.141258 0.441 0 0 0
0.160741 0.112113 0.444 255 255 255
-0.125489 -0.296471 1.092 255 255 255
0.003712 0.1354 0.422 255 255 255
-0.0759867 0.0568073 0.363 255 255 255
0.0253286 0.0285452 0.416 255 255 255
0.0587128 -0.00121758 0.408 0 0 0
0.0138704 -0.0232319 0.463 255 255 255
-0.12571 0.0567961 0.43 255 255 255
-0.828219 -0.0109992 1.763 255 255 255
-0.410786 -0.206579 1.429 255 255 255
0.132197 0.0955707 0.497 0 0 0
-0.792046 -0.326042 1.686 255 255 255
-0.0965758 0.126256 0.419 255 255 255
-0.963756 -0.176559 1.876 255 255 255
-0.120818 -0.196018 1.149 255 255 255
-0.124618 0.109202 0.441 255 255 255
-0.60776 -0.0695765 1.655 255 255 255
-0.465458 -0.395801 1.345 255 255 255
0.231785 0.0710927 0.474 255 255 255
-0.620056 -0.021621 1.696 255 255 255
-0.00575453 -0.308469 0.983 255 255 255
0.195909 -0.108687 0.437 255 255 255
-0.660297 -0.506656 1.456 255 255 255
0.164639 0.103883 0.483 255 255 255
-0.00443457 -0.00929755 0.413 255 255 255
0.136896 -0.00920037 0.64 0 0 0
-0.00800363 -0.00264531 0.424 255 255 255
0.177384 0.13083 0.425 255 255 255
0.057086 -0.03797 0.459 255 255 255
0.0429349 0.0251603 0.416 255 255 255
0.173901 0.096785 0.45 0 0 0
-0.469343 -0.437518 1.319 255 255 255
0.0811678 -0.317574 0.9 255 255 255
0.167098 0.130751 0.427 255 255 255
0.175862 -0.106224 0.457 255 255 255
0.181183 -0.00848014 0.481 255 255 255
-0.560423 0.0499899 1.691 255 255 255
-0.0865239 0.146188 0.392 255 255 255
-0.0372949 0.110183 0.391 255 255 255
0.0445633 -0.224077 0.999 255 255 255
0.168166 0.000132759 0.491 0 0 0
0.199992 -0.137147 0.426 255 255 255
0.175237 0.155441 0.415 255 255 255
-0.0165413 0.0957227 0.397 255 255 255
0.0239538 -0.014834 0.484 0 0 0
0.153235 0.124837 0.433 255 255 255
0.0211328 0.132835 0.427 255 255 255
-0.274407 -0.208114 1.281 255 255 255
0.0632219 -0.0865043 0.522 255 255 255
0.226437 0.0847129 0.46 255 255 255
0.165044 0.0195261 0.595 255 255 255
0.019601 0.0942333 0.474 0 0 0
-0.716003 0.317414 1.372 255 255 255
-0.753874 0.18467 1.551 255 255 255
-0.00880858 0.0299008 0.398 255 255 255
0.141388 -0.155793 0.661 255 255 255
0.219795 -0.0692554 0.435 255 255 255
0.253474 0.0462455 0.578 255 255 255
0.202266 -0.285817 0.81 255 255 255
-0.225736 -0.406864 1.122 255 255 255
0.0813355 0.092823 0.422 255 255 255
-0.410497 -0.217908 1.412 255 255 255
0.208484 -0.141373 0.418 0 0 0
0.130696 -0.0700896 0.708 0 0 0
0.0463783 -0.041404 0.464 255 255 255
0.085406 -0.289792 0.914 255 255 255
0.00818629 0.121402 0.441 255 255 255
0.0792224 0.138729 0.382 255 255 255
0.0785878 0.0962567 0.422 255 255 255
0.0573082 0.143326 0.381 255 255 255
-0.0589349 0.117182 0.391 255 255 255
0.188945 -0.103469 0.439 255 255 255
-0.0952134 0.140358 0.399 255 255 255
0.00254867 0.109416 0.46 255 255 255
-0.607895 -0.527696 1.375 255 255 255
0.0300687 0.142276 0.416 255 255 255
0.134622 -0.256095 0.895 255 255 255
-0.0332068 -0.250438 1.041 255 255 255
-0.190324 -0.23557 1.198 255 255 255
-0.0658289 0.0562912 0.356 255 255 255
-0.0479781 0.13357 0.406 255 255 255
0.205671 0.120292 0.422 255 255 255
-0.914751 -0.0795185 1.821 255 255 255
0.0930053 0.14859 0.385 255 255 255
-0.676662 -0.298395 1.583 255 255 255
-0.10971 0.132575 0.407 255 255 255
-0.570343 -0.167878 1.567 255 255 255
0.0507694 0.106814 0.443 255 255 255
-0.00545308 -0.0343281 0.441 255 255 255
0.147117 0.124707 0.44 255 255 255
-0.144295 0.116159 0.427 255 255 255
0.0316391 -0.102593 0.549 255 255 255
0.10392 0.117337 0.398 255 255 255
-0.421359 -0.366315 1.31 255 255 255
0.15326 -0.127146 0.652 255 255 255
0.197447 -0.138208 0.425 255 255 255
0.105073 -0.279266 0.904 255 255 255
-0.134487 0.101179 0.45 255 255 255
0.0742478 0.127539 0.382 0 0 0
0.101236 0.132267 0.376 255 255 255
-0.88052 -0.459389 1.682 255 255 255
0.150054 -0.0863984 0.691 255 255 255
0.0566817 -0.0189132 0.468 255 255 255
-0.712948 0.132806 1.595 255 255 255
-0.958521 -0.0799552 1.831 255 255 255
-0.699957 -0.0739066 1.758 255 255 255
0.194041 -0.113405 0.436 255 255 255
-0.385317 -0.0191479 1.502 255 255 255
0.0267405 -0.0459345 0.464 255 255 255
0.0859041 0.0965843 0.478 0 0 0
0.040263 -0.0275239 0.472 255 255 255
-0.00119268 -0.0723295 0.459 0 0 0
-0.581181 -0.40792 1.442 255 255 255
-0.191783 -0.0302789 1.345 255 255 255
0.173465 -0.0254868 0.477 255 255 255
0.0664536 -0.209929 0.986 255 255 255
-0.0589289 -0.338999 1.017 255 255 255
0.168264 0.0741767 0.529 255 255 255
0.181437 0.0906635 0.488 255 255 255
0.189784 0.115734 0.428 0 0 0
0.189946 -0.0446158 0.466 0 0 0
-0.676134 0.190259 1.535 255 255 255
-0.174282 0.0993304 0.445 0 0 0
-0.0490669 0.0926115 0.374 255 255 255
0.180084 -0.0559908 0.466 255 255 255
0.131653 -0.169263 0.947 255 255 255
-0.0102113 -0.366522 0.951 255 255 255
-0.0359917 0.0626987 0.437 255 255 255
-0.0082679 0.0314803 0.438 0 0 0
-0.134809 0.115575 0.43 255 255 255
0.17895 0.0920817 0.467 255 255 255
0.0345891 0.105988 0.468 255 255 255
-0.480478 0.0108407 1.599 255 255 255
-0.124237 -0.33625 1.066 255 255 255
0.213904 0.0723289 0.472 255 255 255
0.125167 0.0933318 0.498 0 0 0
-0.0565233 0.0934694 0.375 255 255 255
0.00534751 -0.0791692 0.513 0 0 0
-0.724366 0.25617 1.442 255 255 255
-0.541514 -0.170329 1.543 255 255 255
-0.127051 0.141522 0.395 255 255 255
0.0443957 0.0252208 0.417 255 255 255
-0.861008 0.00900634 1.748 255 255 255
-0.00174121 -0.0112864 0.412 255 255 255
-0.0853655 0.134546 0.411 255 255 255
-0.820899 -0.476942 1.603 255 255 255
0.0513866 0.0412698 0.436 255 255 255
0.0302394 0.13245 0.428 255 255 255
-0.0159268 0.119905 0.433 0 0 0
-0.232139 -0.0177201 1.39 255 255 255
-0.367666 0.0127787 1.52 255 255 255
0.214421 -0.106581 0.423 255 255 255
0.0493425 -0.00185386 0.402 255 255 255
-0.359023 -0.286614 1.316 255 255 255
-0.00436148 -0.231479 1.032 255 255 255
-0.79076 -0.251299 1.719 255 255 255
-0.479962 -0.0876934 1.547 255 255 255
-0.375169 -0.245869 1.351 255 255 255
0.186986 -0.0342909 0.47 0 0 0
-0.0551102 0.0670125 0.442 255 255 255
0.175138 -0.104448 0.459 255 255 255
-0.171736 -0.376164 1.081 255 255 255
-0.121934 0.130908 0.408 255 255 255
-0.163702 -0.195442 1.203 255 255 255
-0.575302 -0.493055 1.372 255 255 255
-0.339049 -0.301922 1.281 255 255 255
-0.0712106 -0.338989 1.027 255 255 255
-0.521313 0.00574229 1.629 255 255 255
-0.831831 0.0613218 1.7 255 255 255
-0.470815 -0.186801 1.494 255 255 255
0.187478 0.0645909 0.55 255 255 255
0.0925784 -0.303378 0.897 255 255 255
0.186833 0.0873068 0.496 255 255 255
-0.985428 -0.272643 1.865 255 255 255
-0.746956 0.0922397 1.659 255 255 255
-0.356592 -0.441837 1.213 255 255 255
-0.106921 0.042042 0.409 0 0 0
-0.0130072 0.0579028 0.37 255 255 255
-0.0517098 0.100281 0.38 255 255 255
-0.178397 -0.162719 1.237 255 255 255
-0.679195 -0.295466 1.595 255 255 255
-0.516321 -0.361128 1.406 255 255 255
-0.234703 -0.404248 1.13 255 255 255
-0.42073 -0.0640692 1.524 255 255 255
0.0514328 -0.0984568 0.541 0 0 0
-0.206232 -0.321371 1.156 255 255 255
0.00103281 0.113397 0.452 255 255 255
0.139254 0.113083 0.469 0 0 0
-0.0329078 0.0210985 0.416 255 255 255
0.094905 -0.338387 0.878 255 255 255
-0.051053 0.0623117 0.354 0 0 0
-0.839275 -0.230791 1.799 255 255 255
0.0610759 -0.235041 0.977 255 255 255
-0.188697 -0.326485 1.141 255 255 255
0.070483 0.102261 0.427 0 0 0
-0.178567 -0.328937 1.124 255 255 255
-0.341193 -0.211746 1.33 255 255 255
-0.303472 -0.0522444 1.406 255 255 255
0.0717346 -0.0569602 0.516 0 0 0
0.0656445 0.121604 0.379 255 255 255
-0.341764 -0.0350506 1.452 255 255 255
0.207028 -0.099007 0.432 255 255 255
-0.230594 -0.352311 1.165 255 255 255
0.204194 -0.12415 0.429 0 0 0
0.00437808 0.0158336 0.42 0 0 0
-0.0519153 0.0976489 0.377 255 255 255
-0.165251 0.0964796 0.452 0 0 0
-0.0349708 0.0862939 0.373 255 255 255
0.217604 -0.041881 0.445 255 255 255
-0.689704 -0.40636 1.543 255 255 255
0.231469 0.0567226 0.483 0 0 0
0.119374 -0.00495574 0.63 255 255 255
0.143288 0.0935192 0.499 255 255 255
-0.15282 0.121193 0.418 255 255 255
-0.0420601 0.149822 0.4 255 255 255
-0.589899 -0.425171 1.429 255 255 255
0.0696019 -0.341765 0.902 255 255 255
0.102883 0.0780528 0.504 0 0 0
0.194441 -0.148885 0.42 255 255 255
0.0270223 -0.0967012 0.546 0 0 0
0.177163 -0.00539364 0.485 0 0 0
0.196091 -0.10204 0.439 0 0 0
-0.12831 0.145179 0.391 255 255 255
-0.63071 -0.0893908 1.673 255 255 255
0.218983 -0.0814319 0.432 255 255 255
-0.116348 -0.395812 1.027 255 255 255
-0.0418324 -0.324862 1.004 255 255 255
-0.131916 -0.346865 1.072 255 255 255
0.093222 0.111492 0.405 255 255 255
0.00242678 0.122715 0.438 255 255 255
0.242106 0.0532298 0.487 255 255 255
-0.190454 -0.36212 1.108 255 255 255
0.0927838 -0.0532729 0.521 255 255 255
-0.0527047 0.151291 0.392 255 255 255
-0.237458 -0.094087 1.319 255 255 255
0.146949 -0.0601849 0.687 255 255 255
-0.699227 0.270139 1.429 255 255 255
0.158929 -0.0725142 0.48 255 255 255
-0.176738 -0.328937 1.124 255 255 255
0.0336105 0.0871471 0.465 255 255 255
-0.672885 -0.350208 1.539 255 255 255
0.00699549 -0.0430104 0.457 255 255 255
0.0698951 0.135621 0.382 0 0 0
-0.749098 -0.275999 1.682 255 255 255
-0.146371 -0.322499 1.102 255 255 255
0.146186 0.141748 0.433 255 255 255
-0.112399 0.0376571 0.412 255 255 255
0.111062 -0.250452 0.917 255 255 255
0.109021 0.0912209 0.491 0 0 0
-0.153666 0.140522 0.394 255 255 255
0.184371 0.116275 0.43 0 0 0
0.0601019 -0.0530695 0.503 0 0 0
0.148983 -0.0923909 0.466 0 0 0
-0.128173 0.0625552 0.436 255 255 255
0.195708 -0.0691724 0.453 0 0 0
0.0990506 0.139981 0.377 255 255 255
0.222109 -0.0415046 0.441 255 255 255
-0.0858845 0.0487599 0.404 0 0 0
0.229628 0.031084 0.453 255 255 255
-0.125888 0.092139 0.456 0 0 0
0.188975 -0.000644548 0.475 0 0 0
0.217349 -0.0256221 0.452 0 0 0
-0.159267 0.146188 0.392 255 255 255
-0.0360467 -0.36813 0.98 255 255 255
0.0357286 0.144579 0.411 255 255 255
-0.555219 0.00314831 1.659 255 255 255
-0.713462 0.191376 1.524 255 255 255
0.141731 0.158794 0.408 255 255 255
0.15549 0.0810639 0.518 255 255 255
0.180451 -0.159754 0.429 255 255 255
-0.320063 -0.354529 1.232 255 255 255
0.195384 -0.23405 0.837 255 255 255
-0.608062 0.232913 1.473 255 255 255
-0.00202014 0.0911392 0.478 0 0 0
0.168877 0.115323 0.437 255 255 255
-0.602986 -0.0957507 1.642 255 255 255
-0.53851 -0.453856 1.375 255 255 255
-0.0680872 0.0731576 0.365 255 255 255
0.0287991 0.0994226 0.473 0 0 0
0.180453 -0.0122908 0.477 255 255 255
0.0325003 0.0824672 0.46 255 255 255
0.207503 0.136885 0.412 255 255 255
-0.309524 -0.00671449 1.456 255 255 255
-0.511145 -0.248339 1.484 255 255 255
-0.0317394 -0.323569 0.995 255 255 255
-0.550078 -0.0443786 1.62 255 255 255
0.216464 0.109588 0.434 255 255 255
0.00475335 -0.0444004 0.456 0 0 0
0.0211297 0.080442 0.457 255 255 255
-0.175757 0.133241 0.405 255 255 255
0.162762 -0.228752 0.874 255 255 255
-0.685426 -0.532516 1.449 255 255 255
0.0318115 0.101517 0.472 255 255 255
-0.724087 -0.426888 1.563 255 255 255
-0.68527 0.27479 1.429 255 255 255
-0.0830236 0.0486069 0.368 255 255 255
-0.33411 -0.352757 1.247 255 255 255
-0.0204534 0.0743529 0.374 255 255 255
-0.605123 -0.451698 1.432 255 255 255
0.0162473 0.012091 0.409 0 0 0
0.189664 0.155923 0.404 255 255 255
-0.282738 -0.146816 1.33 255 255 255
-0.0107032 -0.0924506 0.522 0 0 0
0.177273 -0.0868647 0.453 255 255 255
0.133094 0.135038 0.441 255 255 255
-0.0327796 0.114746 0.398 255 255 255
0.121942 -0.308751 0.867 255 255 255
-0.461202 -0.383141 1.339 255 255 255
0.230365 0.031084 0.453 255 255 255
0.163958 0.105018 0.481 255 255 255
0.0673865 -0.092654 0.528 0 0 0
0.162991 -0.16768 0.657 0 0 0
0.194636 -0.0105807 0.47 255 255 255
-0.195687 0.11235 0.418 255 255 255
-0.163287 0.143087 0.394 255 255 255
0.123871 0.0376489 0.562 0 0 0
0.146353 -0.0289952 0.664 0 0 0
0.134628 0.117906 0.461 255 255 255
-0.461202 -0.389678 1.339 255 255 255
0.155061 0.100604 0.49 255 255 255
0.10105 0.0805266 0.499 0 0 0
-0.737392 -0.542217 1.502 255 255 255
0.0184814 0.13027 0.43 255 255 255
-0.141761 0.139526 0.393 255 255 255
0.135978 -0.041279 0.499 0 0 0
0.0996997 -0.211763 0.951 255 255 255
0.195506 -0.045082 0.463 255 255 255
-0.0316293 0.0245422 0.417 255 255 255
0.155678 -0.0672822 0.691 0 0 0
-0.0310247 0.0280022 0.418 255 255 255
-0.0672911 0.0534539 0.437 255 255 255
0.0116152 0.0107861 0.41 255 255 255
-0.119585 0.0393767 0.416 255 255 255
0.0439178 0.101087 0.47 0 0 0
-0.279954 -0.322451 1.232 255 255 255
0.204108 -0.00513786 0.462 255 255 255
0.174587 -0.123816 0.448 255 255 255
0.193978 0.0109271 0.474 0 0 0
0.0804968 0.0395557 0.404 255 255 255
-0.690461 0.191878 1.528 255 255 255
-0.0522041 -0.323466 1.015 255 255 255
0.193183 -0.0693251 0.454 0 0 0
-0.0496554 -0.353424 0.997 255 255 255
0.216355 -0.0175698 0.453 255 255 255
-0.080823 0.139173 0.405 255 255 255
0.0397235 0.00997085 0.404 255 255 255
0.162349 -0.157694 0.431 0 0 0
0.146294 0.0502704 0.55 255 255 255
-0.152222 0.117545 0.422 255 255 255
-0.0586965 0.137211 0.407 0 0 0
-0.845667 -0.403443 1.7 255 255 255
-0.917689 -0.0109368 1.753 255 255 255
-0.0702398 -0.357447 1.013 255 255 255
0.204338 0.0805306 0.52 255 255 255
-0.0936236 0.108269 0.418 255 255 255
-0.428701 -0.228225 1.419 255 255 255
-0.766086 0.190259 1.535 255 255 255
0.200492 -0.0844164 0.444 255 255 255
0.152833 0.000135463 0.501 255 255 255
-0.195158 -0.382371 1.104 255 255 255
-0.722303 0.279519 1.406 255 255 255
-0.372728 -0.383307 1.254 255 255 255
0.062275 -0.301984 0.924 255 255 255
0.00696487 -0.0265326 0.455 255 255 255
-0.146687 0.114004 0.432 255 255 255
-0.253445 -0.218728 1.27 255 255 255
0.0239459 -0.322994 0.955 255 255 255
0.0261485 -0.354228 0.923 255 255 255
0.000270755 0.141578 0.412 255 255 255
0.155949 -0.0857175 0.471 0 0 0
-0.0721052 0.0639743 0.436 255 255 255
0.194483 -0.159351 0.41 255 255 255
-0.736966 0.0316902 1.744 255 255 255
-0.264456 -0.262835 1.244 255 255 255
-0.345523 -0.23339 1.33 255 255 255
0.0619511 -0.210993 0.991 255 255 255
-0.217298 -0.0601062 1.327 255 255 255
-0.0878483 0.141949 0.398 255 255 255
0.202916 0.0833967 0.461 255 255 255
0.184328 -0.00454743 0.479 0 0 0
0.0403359 -0.0421591 0.464 255 255 255
0.203796 -0.0179577 0.463 255 255 255
0.215617 -0.0278904 0.453 0 0 0
-0.123944 -0.265231 1.11 255 255 255
0.161302 -0.0717802 0.691 0 0 0
-0.502714 0.0549028 1.673 255 255 255
0.1697 -0.067608 0.473 255 255 255
0.188629 -0.0925723 0.445 255 255 255
-0.158404 0.118232 0.422 255 255 255
-0.078572 0.0292522 0.407 255 255 255
0.0860379 -0.22485 0.954 255 255 255
0.0844716 -0.307217 0.904 255 255 255
0.0359844 0.000107884 0.399 255 255 255
-0.0942044 -0.317108 1.06 255 255 255
0.0490546 -0.316052 0.93 255 255 255
0.201607 -0.0581147 0.453 0 0 0
0.10024 0.0831032 0.495 0 0 0
-0.785701 -0.300376 1.696 255 255 255
-0.598668 -0.288233 1.516 255 255 255
0.0802344 0.115071 0.406 255 255 255
0.0267021 -0.234065 1 255 255 255
-0.0299813 0.133857 0.413 0 0 0
0.0418868 -0.306886 0.939 255 255 255
-0.105381 -0.217361 1.124 255 255 255
0.18862 0.148106 0.406 255 255 255
0.0271551 0.121327 0.446 255 255 255
0.026168 -0.272443 0.98 255 255 255
-0.0139564 0.0440387 0.397 255 255 255
-0.0237095 0.104384 0.398 255 255 255
-0.0213303 0.106087 0.402 255 255 255
0.0417997 0.0999805 0.472 0 0 0
0.160417 -0.258554 0.869 255 255 255
-0.0199065 0.0628873 0.364 0 0 0
-0.353879 -0.0281738 1.463 255 255 255
-0.327812 -0.282173 1.286 255 255 255
0.0510199 -0.0301426 0.465 255 255 255
0.185417 0.0356923 0.56 255 255 255
-0.151471 0.146077 0.39 255 255 255
-0.0991104 0.141007 0.399 255 255 255
-0.17641 0.115343 0.424 255 255 255
0.250054 0.0554171 0.566 255 255 255
0.224101 0.0648258 0.552 255 255 255
0.0537624 -0.270007 0.96 255 255 255
0.146271 -0.275524 0.869 255 255 255
0.179811 0.0787419 0.525 255 255 255
-0.706019 0.193856 1.524 255 255 255
-0.168202 0.153092 0.395 255 255 255
0.227269 -0.273859 0.787 0 0 0
0.132772 -0.164118 0.944 255 255 255
0.0119531 0.152045 0.399 255 255 255
-0.00791715 -0.0685947 0.459 255 255 255
-0.139963 -0.399514 1.041 255 255 255
0.19392 -0.126132 0.431 255 255 255
0.166726 0.00016845 0.623 255 255 255
-0.548903 -0.489905 1.351 255 255 255
-0.590479 -0.34331 1.477 255 255 255
0.205738 -0.292211 0.755 255 255 255
0.0574435 -0.0151053 0.468 255 255 255
0.108398 -0.289593 0.895 255 255 255
0.154053 0.108802 0.477 255 255 255
-0.769434 0.0371521 1.734 255 255 255
0.21133 -0.0847012 0.438 255 255 255
0.0649616 -0.062814 0.509 255 255 255
-0.172143 0.117545 0.422 255 255 255
-0.0157349 0.152956 0.393 255 255 255
-0.668076 -0.399923 1.528 255 255 255
-0.00811689 0.127471 0.43 255 255 255
-0.0567154 0.0362487 0.427 255 255 255
0.129039 0.1488 0.423 255 255 255
-0.0575612 0.012357 0.418 255 255 255
0.00177249 0.113648 0.453 255 255 255
0.131555 -0.0138889 0.507 0 0 0
0.23657 0.0671657 0.479 255 255 255
0.198936 -0.0777126 0.447 0 0 0
-0.00752043 0.0284985 0.436 0 0 0
0.0262771 -0.110634 0.549 0 0 0
0.163803 0.104701 0.476 255 255 255
-0.0548271 -0.24084 1.066 255 255 255
-0.837573 0.135402 1.595 255 255 255
-0.288812 -0.372739 1.194 255 255 255
-0.195231 -0.281231 1.169 255 255 255
-0.0455881 -0.24647 1.053 255 255 255
0.191913 0.119073 0.425 0 0 0
-0.0437959 0.145404 0.404 255 255 255
0.128033 0.0613797 0.53 255 255 255
0.160046 0.0425973 0.567 255 255 255
0.220069 -0.0845536 0.43 255 255 255
-0.349559 -0.314295 1.289 255 255 255
-0.774169 -0.335217 1.677 255 255 255
0.192128 -0.0702183 0.455 0 0 0
0.171541 0.159293 0.411 255 255 255
-0.517551 -0.515753 1.327 255 255 255
0.202267 -0.0943963 0.44 255 255 255
0.195836 0.0843294 0.462 0 0 0
0.0442236 -0.0954615 0.539 255 255 255
0.0739882 0.0592019 0.408 255 255 255
0.0604959 0.0500289 0.451 255 255 255
0.150132 0.157955 0.411 255 255 255
-0.0816053 0.105148 0.396 255 255 255
-0.175857 -0.0621249 1.324 255 255 255
0.0182102 -0.0535433 0.478 255 255 255
0.0661259 -0.256973 0.958 255 255 255
-0.16991 -0.249936 1.165 255 255 255
-0.085473 0.0413501 0.396 0 0 0
-0.0381254 0.112665 0.393 255 255 255
-0.71391 -0.411627 1.563 255 255 255
0.0582053 -0.00748936 0.468 255 255 255
0.0871598 0.11276 0.417 255 255 255
-0.369691 -0.0998172 1.432 255 255 255
-0.208601 -0.215057 1.237 255 255 255
-0.0433802 -0.327476 1.002 255 255 255
-0.338534 -0.182516 1.354 255 255 255
0.0517077 -0.056935 0.501 0 0 0
-0.191486 -0.353203 1.114 255 255 255
-0.549983 -0.45556 1.387 255 255 255
0.133043 0.026493 0.578 255 255 255
0.222387 -0.249617 0.821 255 255 255
0.177008 0.109383 0.436 0 0 0
0.1529 -0.182718 0.669 255 255 255
-0.629658 -0.512254 1.419 255 255 255
-0.754325 0.232913 1.473 255 255 255
-0.0109771 0.103125 0.462 0 0 0
-0.792646 -0.282548 1.705 255 255 255
0.177793 -0.0298282 0.472 255 255 255
0.159309 -0.272217 0.863 255 255 255
-0.545043 0.0553294 1.686 255 255 255
0.0645111 -0.0515195 0.512 0 0 0
-0.0936645 -0.254287 1.094 255 255 255
-0.0856519 0.048739 0.369 255 255 255
-0.806946 -0.00806108 1.748 255 255 255
0.140739 -0.0189511 0.653 0 0 0
0.0691724 0.118758 0.392 255 255 255
-0.271519 -0.371578 1.178 255 255 255
0.00173336 0.0491414 0.443 0 0 0
-0.00422688 0.0733683 0.464 255 255 255
-0.12509 0.13841 0.399 255 255 255
-0.914314 -0.0167372 1.763 255 255 255
0.188084 0.107501 0.437 0 0 0
0.000913991 0.149822 0.4 255 255 255
0.224706 0.00821329 0.452 255 255 255
0.153649 -0.00883275 0.501 0 0 0
0.198761 0.0614545 0.554 255 255 255
-0.35054 -0.159534 1.384 255 255 255
-0.0668292 0.0686246 0.434 255 255 255
0.181269 0.122819 0.426 0 0 0
0.169878 0.129361 0.427 255 255 255
0.188945 -0.109898 0.439 255 255 255
-0.544171 -0.461574 1.378 255 255 255
0.153186 -0.0789816 0.695 255 255 255
-0.166429 0.119832 0.418 255 255 255
-0.457309 -0.239135 1.429 255 255 255
-0.162493 -0.22435 1.18 255 255 255
0.225 0.0648258 0.552 255 255 255
-0.0622398 -0.342309 1.017 255 255 255
0.21603 0.0296373 0.465 255 255 255
0.0611516 0.00880595 0.411 255 255 255
-0.379044 -0.244753 1.357 255 255 255
0.206968 -0.0328128 0.46 0 0 0
0.233344 0.0597426 0.482 255 255 255
-0.085471 0.141656 0.399 255 255 255
-0.571654 -0.230592 1.543 255 255 255
-0.395865 -0.470709 1.237 255 255 255
0.201093 0.00623255 0.469 0 0 0
-0.489697 -0.475072 1.316 255 255 255
0.152833 0.00258134 0.501 255 255 255
0.203452 -0.2486 0.831 255 255 255
0.0683202 -0.0865043 0.522 0 0 0
0.160897 0.135552 0.429 255 255 255
-0.113215 0.123823 0.42 255 255 255
0.147805 -0.0627843 0.691 255 255 255
0.132738 -0.237548 0.902 255 255 255
-0.0567102 -0.348775 1.007 255 255 255
-0.134089 0.122165 0.419 255 255 255
-0.215793 -0.309237 1.167 255 255 255
0.0180746 0.0771282 0.455 255 255 255
-0.854235 0.0859503 1.642 255 255 255
0.239236 0.0491661 0.486 255 255 255
-0.544609 -0.305801 1.47 255 255 255
-0.731721 -0.329886 1.637 255 255 255
0.0227991 0.0654416 0.446 255 255 255
0.200118 0.070838 0.543 255 255 255
0.169131 -0.154554 0.434 0 0 0
0.0608875 0.144696 0.388 255 255 255
0.0135818 0.0407018 0.43 255 255 255
-0.11744 0.0812139 0.441 255 255 255
-0.275098 -0.238452 1.265 255 255 255
0.0860601 -0.283018 0.921 255 255 255
0.129378 -0.265952 0.889 255 255 255
-0.00565093 -0.0735017 0.457 0 0 0
0.133344 -0.324127 0.841 0 0 0
0.217462 -0.0694146 0.436 255 255 255
-0.530741 -0.507239 1.333 255 255 255
0.153235 0.12836 0.433 255 255 255
0.1804 0.139568 0.416 255 255 255
-0.737432 0.0900257 1.668 255 255 255
0.137703 -0.109368 0.68 255 255 255
-0.191055 -0.132305 1.254 255 255 255
0.0619732 0.138469 0.383 255 255 255
0.213405 -0.0308391 0.453 0 0 0
0.212033 -0.00434806 0.458 255 255 255
0.115162 -0.25112 0.914 255 255 255
0.178486 -0.153485 0.431 255 255 255
-0.0169727 -0.318391 0.984 255 255 255
0.0126421 0.136087 0.422 255 255 255
0.211341 -0.0680577 0.441 255 255 255
-0.682169 -0.366184 1.543 255 255 255
-0.146776 0.150232 0.386 255 255 255
0.0301465 -0.0327612 0.47 255 255 255
-0.318932 -0.372914 1.22 255 255 255
0.190521 -0.00528244 0.475 255 255 255
-0.710095 -0.00527918 1.769 255 255 255
-0.0482144 0.13954 0.408 0 0 0
0.0638105 -0.0103331 0.459 255 255 255
0.0269116 0.0619775 0.442 0 0 0
-0.0878472 0.136549 0.407 255 255 255
-0.617295 -0.0161011 1.696 255 255 255
0.215673 0.00537604 0.461 255 255 255
-0.69043 -0.296948 1.603 255 255 255
0.203653 -0.0585921 0.451 0 0 0
-0.0638648 0.143375 0.402 255 255 255
-0.50714 -0.422127 1.381 255 255 255
-0.208212 -0.364338 1.126 255 255 255
0.107332 -0.331201 0.863 255 255 255
-0.199697 -0.138758 1.257 255 255 255
-0.146979 0.0846945 0.464 255 255 255
-0.011486 0.0281685 0.401 255 255 255
-0.501277 -0.182631 1.52 255 255 255
-0.0682346 0.104377 0.386 255 255 255
-0.606427 -0.511988 1.387 255 255 255
-0.295912 0.0122659 1.459 255 255 255
-0.143 -0.119472 1.227 255 255 255
-0.405504 -0.184094 1.435 255 255 255
-0.0018849 0.0509258 0.446 0 0 0
0.227565 0.0485579 0.572 255 255 255
0.0686307 0.0326547 0.4 255 255 255
0.237164 0.0482757 0.485 255 255 255
-0.0478162 0.0733271 0.36 255 255 255
0.120016 -0.291788 0.884 255 255 255
-0.315107 -0.252342 1.294 255 255 255
0.161175 0.0382518 0.571 255 255 255
-0.00869382 -0.00195532 0.424 255 255 255
0.0518976 0.0963437 0.473 0 0 0
0.209007 0.137222 0.411 255 255 255
-0.0124812 0.103877 0.462 0 0 0
-0.626459 0.20949 1.494 255 255 255
-0.095436 0.12701 0.417 0 0 0
-0.349525 -0.0630995 1.445 255 255 255
0.012013 0.15085 0.401 255 255 255
0.0169352 -0.248711 1 255 255 255
-0.139624 -0.167734 1.215 255 255 255
-0.0512696 0.108774 0.386 255 255 255
-0.153634 0.117413 0.424 255 255 255
-0.0800285 0.0623806 0.368 255 255 255
-0.748321 -0.209545 1.744 255 255 255
0.0017138 0.123428 0.438 255 255 255
0.0333289 0.13641 0.423 0 0 0
-0.0670977 -0.311424 1.041 255 255 255
0.198621 -0.0119816 0.465 255 255 255
-0.804368 -0.514474 1.551 255 255 255
0.186837 0.157627 0.405 255 255 255
-0.242032 -0.287453 1.203 255 255 255
0.0593662 0.122177 0.399 255 255 255
0.0553569 0.0705788 0.451 255 255 255
-0.00720995 -0.0168926 0.418 255 255 255
-0.444328 -0.323534 1.354 255 255 255
-0.782148 -0.555944 1.547 255 255 255
0.0114736 0.00406391 0.405 255 255 255
-0.599203 -0.434473 1.429 255 255 255
0.212534 0.100055 0.445 0 0 0
0.0775798 0.109823 0.424 255 255 255
0.111329 0.0910723 0.411 255 255 255
-0.724123 -0.339641 1.62 255 255 255
-0.466887 -0.326314 1.375 255 255 255
0.00859468 0.107116 0.463 255 255 255
-0.376398 -0.328059 1.302 255 255 255
0.17035 -0.246652 0.862 255 255 255
-0.504769 -0.295897 1.445 255 255 255
-0.0145574 0.0728799 0.379 255 255 255
-0.711645 0.220162 1.484 255 255 255
-0.0139806 0.137189 0.417 255 255 255
-0.146715 0.119722 0.42 255 255 255
-0.200921 -0.0451934 1.333 255 255 255
0.0739231 -0.238265 0.958 255 255 255
-0.264187 -0.373181 1.171 255 255 255
0.0278513 -0.0335261 0.47 255 255 255
0.00698918 -0.304372 0.975 255 255 255
-0.00871432 -0.000576701 0.425 255 255 255
-0.242091 -0.0460071 1.357 255 255 255
-0.695034 0.100641 1.664 255 255 255
0.111886 -0.297444 0.888 255 255 255
-0.151961 0.113563 0.433 255 255 255
-0.0741161 0.13622 0.408 255 255 255
-0.126754 0.112221 0.436 255 255 255
0.0419007 -0.00928214 0.482 255 255 255
-0.00894746 0.0780349 0.474 255 255 255
0.201157 0.133552 0.41 0 0 0
-0.62982 -0.0189056 1.7 255 255 255
-0.295999 -0.129347 1.351 255 255 255
0.0305781 0.0613968 0.443 255 255 255
0.0478796 0.0365033 0.43 0 0 0
-0.0679717 0.137873 0.407 0 0 0
-0.373878 -0.202764 1.387 255 255 255
0.18211 -0.0961931 0.445 255 255 255
-0.466842 0.0427236 1.624 255 255 255
0.102546 0.0930633 0.408 255 255 255
-0.161072 0.118355 0.42 255 255 255
0.213334 -0.00803939 0.456 255 255 255
-0.410255 -0.477421 1.244 255 255 255
-0.0759184 0.117927 0.4 255 255 255
0.159655 -0.143411 0.441 0 0 0
-0.624609 -0.0997415 1.664 255 255 255
0.0887265 0.115273 0.391 255 255 255
-0.13391 -0.235284 1.149 255 255 255
0.17553 -0.0788168 0.462 255 255 255
0.0430381 0.134475 0.417 255 255 255
0.0555917 -0.038717 0.459 255 255 255
-0.0263778 -0.251647 1.039 255 255 255
0.191245 -0.158521 0.422 255 255 255
-0.131405 0.100893 0.452 255 255 255
0.0246856 -0.0486152 0.468 255 255 255
-0.0056532 0.146061 0.404 255 255 255
-0.277029 0.00272322 1.435 255 255 255
-0.0754832 0.105093 0.391 255 255 255
0.114782 0.0952882 0.409 255 255 255
0.078387 0.131957 0.384 255 255 255
0.00852053 0.136774 0.422 255 255 255
-0.364834 -0.365215 1.262 255 255 255
0.150007 0.0869391 0.508 255 255 255
0.0115091 -0.0424517 0.459 255 255 255
0.0364214 -0.0490307 0.472 255 255 255
0.0587151 -0.0165574 0.466 255 255 255
0.169164 -0.261651 0.856 255 255 255
-0.133311 0.0965913 0.456 255 255 255
-0.111532 0.122242 0.424 255 255 255
-0.910308 -0.22132 1.842 255 255 255
0.206496 0.138889 0.41 255 255 255
-0.0415871 0.0490744 0.436 255 255 255
-0.640408 0.109615 1.677 255 255 255
0.0249493 -0.028352 0.473 255 255 255
-0.699579 0.252698 1.449 255 255 255
0.0105813 0.0275834 0.422 255 255 255
0.0823402 -0.299875 0.913 255 255 255
0.0932554 0.114876 0.394 255 255 255
-0.851022 -0.134026 1.837 255 255 255
-0.883104 -0.354269 1.758 255 255 255
0.160124 -0.0544394 0.486 255 255 255
-0.0645224 0.0761275 0.365 255 255 255
0.0972096 0.1363 0.377 255 255 255
-0.0587811 0.0136847 0.417 255 255 255
-0.976205 -0.286892 1.859 255 255 255
0.196577 0.147955 0.402 255 255 255
-0.0769874 -0.36476 1.015 255 255 255
0.090322 0.135172 0.379 255 255 255
-0.0322932 0.149171 0.4 255 255 255
0.214348 0.0144408 0.463 0 0 0
-0.0527339 0.139198 0.407 0 0 0
-0.353606 -0.234443 1.336 255 255 255
-0.106397 0.145442 0.39 255 255 255
0.195626 -0.155727 0.411 255 255 255
0.13131 -0.107874 0.699 255 255 255
0.0459314 -0.0207421 0.475 255 255 255
0.0901194 0.108167 0.415 255 255 255
-0.0521141 0.0654256 0.441 255 255 255
0.00106708 0.101961 0.467 255 255 255
-0.0343514 0.140547 0.409 255 255 255
0.185848 0.0732768 0.535 255 255 255
-0.388262 -0.214513 1.39 255 255 255
0.211578 -0.0757796 0.44 0 0 0
-0.825873 -0.23242 1.789 255 255 255
-0.201283 -0.287429 1.171 255 255 255
0.22447 0.106091 0.44 255 255 255
0.172149 -0.107436 0.459 255 255 255
-0.0452906 0.0617357 0.354 0 0 0
-0.134798 -0.190568 1.173 255 255 255
-0.90558 -0.369041 1.774 255 255 255
-0.11669 0.0979507 0.452 0 0 0
-0.184121 0.132249 0.406 255 255 255
0.212441 -0.0928945 0.433 255 255 255
0.20847 -0.0831284 0.441 255 255 255
-0.249512 -0.381569 1.156 255 255 255
0.0600081 0.0418377 0.442 255 255 255
0.156238 0.0697943 0.535 255 255 255
0.0388704 0.130573 0.431 0 0 0
0.150072 0.14638 0.428 255 255 255
-0.0435654 0.140868 0.408 0 0 0
-0.0420727 0.0735308 0.361 255 255 255
0.141824 0.116153 0.46 0 0 0
-0.645555 0.197772 1.516 255 255 255
-0.143503 0.114268 0.433 255 255 255
-0.837961 -0.369862 1.724 255 255 255
-0.674377 0.241348 1.466 255 255 255
0.180451 -0.161151 0.429 255 255 255
-0.0479641 0.118381 0.395 255 255 255
0.0796588 -0.236773 0.952 255 255 255
0.0980538 -0.262036 0.921 255 255 255
0.160147 0.143259 0.427 0 0 0
-0.153866 0.0888404 0.462 0 0 0
-0.662872 -0.283654 1.587 255 255 255
0.122731 0.0560732 0.537 255 255 255
-0.0723123 0.0943449 0.381 255 255 255
0.196537 0.103227 0.44 255 255 255
0.0422544 -0.0685828 0.515 0 0 0
-0.568339 -0.493121 1.366 255 255 255
-0.611063 -0.45965 1.435 255 255 255
-0.0217046 0.12922 0.422 0 0 0
-0.663861 0.156373 1.571 255 255 255
0.179206 0.00248344 0.482 0 0 0
0.17794 0.141934 0.415 255 255 255
-0.803911 -0.498087 1.555 255 255 255
-0.0103356 -0.0310295 0.435 255 255 255
0.166412 0.117725 0.438 255 255 255
-0.678238 -0.0193393 1.739 255 255 255
-0.145078 0.0932884 0.458 255 255 255
-0.0074043 0.0965474 0.474 255 255 255
0.148841 0.115465 0.443 255 255 255
0.116548 -0.230058 0.925 255 255 255
0.177764 -0.130953 0.445 255 255 255
-0.191381 0.11671 0.419 0 0 0
0.185657 -0.133763 0.433 255 255 255
-0.126703 0.058331 0.431 255 255 255
-0.0813551 0.0582105 0.425 0 0 0
0.168216 -0.0749869 0.471 255 255 255
-0.102773 -0.385034 1.025 255 255 255
0.121698 0.0659267 0.525 255 255 255
0.182424 -0.097422 0.444 255 255 255
0.0578332 -0.0327414 0.459 255 255 255
-0.00174121 0.141578 0.412 255 255 255
-0.391399 -0.113026 1.452 255 255 255
-0.668832 0.0146619 1.744 255 255 255
-0.0496223 -0.2964 1.03 255 255 255
0.038728 -0.0834249 0.524 255 255 255
-0.300674 -0.264165 1.26 255 255 255
-0.0546115 0.047874 0.438 255 255 255
0.0055676 -0.00916247 0.407 255 255 255
0.225941 0.0119174 0.453 255 255 255
0.0854849 0.121023 0.385 255 255 255
0.178368 0.140245 0.416 255 255 255
-0.187895 0.114923 0.425 255 255 255
-0.391843 -0.358459 1.297 255 255 255
0.0247531 0.0619775 0.442 0 0 0
-0.133241 0.118381 0.425 255 255 255
-0.135091 0.0953158 0.457 255 255 255
0.169287 -0.0638942 0.474 255 255 255
0.178606 -0.282409 0.835 255 255 255
-0.0768984 0.146664 0.395 255 255 255
0.160672 -0.0304762 0.495 0 0 0
0.111675 -0.324555 0.864 255 255 255
-0.0536713 0.0612582 0.442 255 255 255
0.189203 0.134438 0.419 255 255 255
-0.367069 -0.452451 1.215 255 255 255
-0.346922 -0.365491 1.242 255 255 255
0.0053269 0.0511883 0.442 0 0 0
0.151965 -0.141782 0.651 0 0 0
-0.0495315 0.0326208 0.425 255 255 255
-0.0569759 0.0653763 0.355 255 255 255
-0.520789 -0.040892 1.587 255 255 255
-0.0341501 0.0345324 0.423 255 255 255
0.0756891 0.140962 0.383 255 255 255
0.213575 0.0606623 0.555 255 255 255
0.0606787 0.130084 0.375 0 0 0
0.193459 -0.0128479 0.469 255 255 255
0.0573202 0.12587 0.377 255 255 255
0.139769 -0.0691803 0.484 0 0 0
-0.178011 -0.362425 1.098 255 255 255
-0.0421698 0.108986 0.389 255 255 255
0.186734 -0.252961 0.841 255 255 255
-0.365516 -0.290511 1.324 255 255 255
0.214237 -0.120633 0.424 255 255 255
0.0284789 0.122951 0.444 255 255 255
-0.0144806 0.0718818 0.377 255 255 255
0.141691 -0.16377 0.942 255 255 255
-0.809477 -0.592936 1.532 255 255 255
-0.03921 -0.220023 1.066 255 255 255
0.0413519 -0.0605566 0.504 0 0 0
-0.234877 -0.265234 1.227 255 255 255
0.206063 -0.142733 0.42 0 0 0
0.183661 0.0459615 0.563 255 255 255
-0.506166 -0.282568 1.449 255 255 255
0.180866 -0.0267558 0.472 255 255 255
0.18543 0.0275285 0.58 0 0 0
0.163895 -0.0296707 0.495 255 255 255
0.209906 -0.0788225 0.441 0 0 0
0.212755 -0.0725841 0.438 255 255 255
0.162117 0.0623441 0.546 255 255 255
-0.0840274 0.133878 0.411 255 255 255
-0.0500194 0.152191 0.396 255 255 255
-0.710557 -0.0540339 1.763 255 255 255
-0.140659 -0.368509 1.059 255 255 255
0.025415 0.060402 0.441 0 0 0
0.108124 0.0952882 0.409 255 255 255
-0.49941 -0.43617 1.348 255 255 255
0.172053 0.0980313 0.449 255 255 255
0.00492919 0.145206 0.409 255 255 255
0.0493995 -0.0429141 0.464 255 255 255
0.222499 0.00306442 0.452 255 255 255
0.162274 0.0905346 0.505 255 255 255
0.0244897 -0.111527 0.549 255 255 255
0.0246018 -0.0684497 0.514 0 0 0
-0.180493 0.13871 0.398 255 255 255
-0.626239 -0.202531 1.599 255 255 255
0.156913 0.15738 0.413 255 255 255
0.0790201 -0.311874 0.909 255 255 255
0.171184 0.156116 0.415 255 255 255
0.182592 0.031142 0.577 0 0 0
0.0706269 0.148976 0.386 255 255 255
0.19475 0.0132412 0.474 0 0 0
-0.0755489 0.139832 0.405 255 255 255
0.134343 0.10122 0.493 255 255 255
-0.0654302 0.108706 0.388 255 255 255
-0.371573 -0.371951 1.257 255 255 255
-0.741029 -0.158523 1.714 255 255 255
-0.657113 -0.129528 1.664 255 255 255
0.0339676 0.0243656 0.414 0 0 0
-0.0820564 0.0511298 0.418 255 255 255
-0.689405 -0.019495 1.753 255 255 255
0.221514 -0.0233119 0.45 0 0 0
0.150497 -0.178097 0.668 255 255 255
-0.64396 -0.19777 1.624 255 255 255
-0.634893 0.236093 1.463 255 255 255
0.0489737 0.103427 0.46 0 0 0
0.135948 -0.0528167 0.493 0 0 0
0.212162 -0.0931668 0.431 255 255 255
0.142699 -0.0122863 0.638 0 0 0
-0.0531153 0.0347773 0.426 255 255 255
0.0541792 0.0330046 0.43 255 255 255
-0.143521 -0.180983 1.198 255 255 255
-0.272346 -0.190831 1.291 255 255 255
0.145363 0.0959916 0.495 0 0 0
-0.48718 -0.214898 1.47 255 255 255
0.124875 0.141466 0.43 255 255 255
0.0604604 -0.0566797 0.506 0 0 0
-0.0215124 -0.34298 0.972 255 255 255
0.113915 0.0818276 0.502 255 255 255
0.143825 -0.0847208 0.474 0 0 0
0.136196 -0.0549995 0.491 0 0 0
-0.170618 -0.154917 1.239 255 255 255
-0.511109 -0.260349 1.47 255 255 255
-0.0119621 0.0666185 0.375 255 255 255
-0.037596 0.146934 0.401 255 255 255
-0.0623892 0.099925 0.381 255 255 255
-0.00761653 -0.264784 1.018 255 255 255
0.0193598 0.0481431 0.434 255 255 255
0.158473 0.126071 0.43 255 255 255
-0.565369 -0.485182 1.375 255 255 255
-0.314631 -0.27146 1.275 255 255 255
-0.79373 -0.435377 1.633 255 255 255
-0.160518 0.102951 0.445 255 255 255
-0.501549 -0.499765 1.319 255 255 255
0.14474 0.072318 0.528 255 255 255
0.0487356 -0.0597364 0.504 0 0 0
0.0216845 0.103161 0.469 255 255 255
-0.879794 0.037045 1.729 255 255 255
-0.0117247 0.00717995 0.434 255 255 255
-0.172715 0.139756 0.401 255 255 255
0.120269 -0.000846733 0.624 255 255 255
0.0375702 0.0688044 0.449 255 255 255
0.196014 -0.0332407 0.466 0 0 0
-0.61463 -0.0724444 1.659 255 255 255
0.0460991 0.126246 0.433 255 255 255
-0.639352 -0.351678 1.513 255 255 255
0.0399813 0.000759086 0.4 255 255 255
0.0166236 0.00337963 0.402 255 255 255
-0.14828 0.133563 0.402 255 255 255
0.138336 0.133789 0.444 255 255 255
-0.337764 -0.0395846 1.445 255 255 255
0.170906 0.0951433 0.499 255 255 255
-0.165199 -0.351063 1.096 255 255 255
0.188571 0.114176 0.43 0 0 0
-0.13581 0.123914 0.418 255 255 255
-0.0284436 0.0837054 0.375 255 255 255
0.159989 -0.0514869 0.488 255 255 255
-0.0238549 -0.303622 1.004 255 255 255
-0.811179 -0.487788 1.579 255 255 255
0.214076 -0.00507114 0.456 255 255 255
-0.553985 -0.519399 1.342 255 255 255
0.0264291 0.11915 0.446 255 255 255
-0.0528607 0.0946899 0.375 255 255 255
-0.032363 0.0899112 0.378 255 255 255
0.153851 0.157669 0.412 255 255 255
0.145445 -0.190367 0.908 255 255 255
0.190914 0.0735507 0.537 255 255 255
0.0334819 -0.0831065 0.522 255 255 255
0.0597468 0.0133237 0.406 255 255 255
-0.122961 -0.332288 1.07 255 255 255
-0.0200713 0.105039 0.403 255 255 255
0.23442 0.0437232 0.47 0 0 0
0.199378 -0.026359 0.465 255 255 255
-0.144647 0.133883 0.401 255 255 255
0.0631739 0.0958479 0.439 255 255 255
-0.839275 -0.227864 1.799 255 255 255
-0.342368 -0.0830967 1.425 255 255 255
-0.64231 -0.387935 1.52 255 255 255
-0.0506879 0.0982624 0.377 255 255 255
0.0429691 -0.0333834 0.468 255 255 255
-0.72609 -0.515276 1.509 255 255 255
0.188179 -0.0129575 0.473 255 255 255
-0.688018 0.0590375 1.714 255 255 255
-0.775646 -0.164512 1.748 255 255 255
0.122967 -0.267747 0.895 255 255 255
0.199855 0.144141 0.406 255 255 255
0.00122246 -0.0991061 0.535 0 0 0
0.167175 -0.0622297 0.479 255 255 255
-0.660846 -0.507627 1.452 255 255 255
0.123326 -0.317742 0.857 255 255 255
0.151458 0.122155 0.436 255 255 255
0.159296 0.109223 0.444 0 0 0
0.115307 0.056735 0.535 0 0 0
0.155226 0.0119186 0.602 0 0 0
0.00101682 0.0515358 0.445 0 0 0
0.008902 0.146843 0.408 255 255 255
-0.224781 -0.274205 1.205 255 255 255
-0.165665 0.117136 0.423 255 255 255
-0.134869 0.111056 0.437 255 255 255
0.208466 0.0847129 0.46 255 255 255
-0.0599945 0.0170367 0.416 255 255 255
0.145498 -0.317536 0.817 255 255 255
-0.59836 -0.301636 1.509 255 255 255
0.14442 0.0100255 0.606 0 0 0
0.0712278 -0.335168 0.904 255 255 255
-0.0476238 0.0774825 0.363 255 255 255
-0.168561 -0.402689 1.072 255 255 255
0.187123 0.127846 0.422 255 255 255
0.043544 0.0850595 0.466 255 255 255
0.233938 0.0649626 0.48 255 255 255
-0.875693 0.0533343 1.71 255 255 255
0.200498 0.0209105 0.473 255 255 255
0.148634 -0.157576 0.655 255 255 255
0.0309428 0.00402378 0.401 255 255 255
0.0782378 -0.336614 0.9 255 255 255
0.153848 -0.0217901 0.499 0 0 0
-0.0116022 0.108702 0.457 0 0 0
-0.130819 0.1044 0.445 255 255 255
0.160739 -0.131973 0.446 0 0 0
0.0293916 0.141599 0.416 255 255 255
-0.0718316 0.120229 0.399 255 255 255
