ply
format ascii 1.0
comment Created by Open3D
element vertex 1309
property double x
property double y
property double z
property uchar red
property uchar green
property uchar blue
end_header
0.192151 0.160192 0.424 255 255 255
0.196315 -0.131826 0.676 255 255 255
-0.203541 -0.189087 1.308 255 255 255
0.163391 -0.271008 0.901 255 255 255
-0.535812 -0.32006 1.563 255 255 255
-0.520837 -0.419355 1.491 255 255 255
0.0171893 -0.316859 1.015 255 255 255
-0.820356 -0.305251 1.842 255 255 255
0.0292666 0.0215043 0.424 0 0 0
-0.403976 -0.10586 1.555 255 255 255
-0.282057 -0.103967 1.425 255 255 255
-0.121227 -0.177667 1.229 255 255 255
0.22129 -0.182658 0.892 255 255 255
0.00239466 -0.299874 1.048 255 255 255
0.120989 -0.266632 0.948 255 255 255
-0.00974733 -0.283533 1.07 255 255 255
0.0820908 0.031623 0.412 0 0 0
0.089045 0.127183 0.462 0 0 0
0.146011 -0.300205 0.843 0 0 0
0.159658 0.157998 0.443 0 0 0
0.0268294 -0.220848 1.07 255 255 255
-0.379578 -0.508175 1.313 255 255 255
0.218084 -0.0660775 0.452 255 255 255
-0.333162 0.000414231 1.532 255 255 255
0.204416 -0.133778 0.44 0 0 0
0.229229 -0.17481 0.889 255 255 255
0.215298 0.0448396 0.482 0 0 0
0.123192 0.13357 0.406 255 255 255
-0.0385997 -0.276658 1.098 255 255 255
0.167946 0.10325 0.528 255 255 255
0.0661296 -0.0247372 0.493 255 255 255
0.177152 -0.31181 0.841 255 255 255
0.0804113 0.0265543 0.492 0 0 0
-0.174002 -0.428154 1.13 255 255 255
-0.00629577 0.086819 0.365 0 0 0
0.224677 -0.070023 0.449 255 255 255
-0.867343 0.0282897 1.71 255 255 255
0.000264183 0.1316 0.402 255 255 255
-0.351609 -0.373914 1.345 255 255 255
0.0696357 0.140989 0.458 0 0 0
0.190395 0.100882 0.543 255 255 255
-0.0336773 0.073096 0.444 255 255 255
0.0571148 0.123809 0.478 0 0 0
-0.0305719 0.0842118 0.364 0 0 0
0.178115 -0.184782 0.932 255 255 255
-0.801314 -0.111437 1.911 255 255 255
-0.728198 0.219393 1.583 255 255 255
0.0521667 -0.303914 0.989 255 255 255
-0.248937 -0.445913 1.208 255 255 255
-0.204377 -0.406006 1.189 255 255 255
-0.806925 -0.558365 1.7 255 255 255
-0.641826 0.207673 1.612 255 255 255
0.181864 0.0599907 0.593 255 255 255
0.0779008 0.0474987 0.422 0 0 0
-0.448338 -0.340108 1.484 255 255 255
0.00205002 0.0886104 0.37 255 255 255
0.0996678 -0.0495043 0.526 255 255 255
0.222531 -0.117757 0.439 255 255 255
0.275717 -0.234719 0.772 0 0 0
-0.247893 0.0554174 1.47 255 255 255
-0.176402 -0.166422 1.281 255 255 255
-0.00404469 0.0889917 0.444 255 255 255
-0.156342 -0.26813 1.222 255 255 255
-0.140849 0.153107 0.407 255 255 255
0.0433751 0.0522307 0.427 255 255 255
-0.157974 -0.187284 1.267 255 255 255
-0.379551 -0.126401 1.528 255 255 255
-0.112796 0.152605 0.411 255 255 255
0.199643 0.117143 0.521 255 255 255
-0.852502 0.0241993 1.821 255 255 255
-0.0233544 -0.16651 1.139 255 255 255
0.0678973 -0.335971 0.961 255 255 255
-0.792546 0.152091 1.664 255 255 255
-0.558766 0.173307 1.686 255 255 255
0.0442075 -0.0180353 0.465 255 255 255
-0.253445 -0.230182 1.324 255 255 255
0.191738 0.149138 0.434 255 255 255
-0.943183 -0.294136 1.947 255 255 255
0.088014 -0.0471149 0.528 255 255 255
0.133409 0.150746 0.399 255 255 255
0.172069 0.0226988 0.659 0 0 0
-0.524124 -0.330223 1.551 255 255 255
0.185369 -0.153916 0.938 255 255 255
0.131317 -0.161 0.991 255 255 255
0.172749 0.163306 0.436 255 255 255
0.215015 0.12161 0.458 255 255 255
-0.755107 0.258935 1.513 255 255 255
0.188363 0.141311 0.436 0 0 0
0.17995 -0.0400381 0.484 0 0 0
-0.739349 0.0701581 1.784 255 255 255
0.0398624 0.073486 0.442 0 0 0
0.060729 0.13906 0.464 255 255 255
0.112766 0.147579 0.384 255 255 255
0.108039 0.126938 0.419 255 255 255
0.0993852 -0.294401 0.948 255 255 255
-0.608669 -0.0372586 1.784 255 255 255
0.182027 0.110995 0.524 255 255 255
-0.510884 -0.0785007 1.673 255 255 255
-0.602486 -0.464864 1.571 255 255 255
-0.134625 0.140513 0.425 255 255 255
0.000292442 0.0891922 0.445 255 255 255
0.178471 -0.0408777 0.701 0 0 0
-0.69095 0.0126441 1.865 255 255 255
0.0389488 -0.203056 1.068 255 255 255
-0.00956514 -0.310699 1.05 255 255 255
0.109823 0.127995 0.418 255 255 255
0.0978085 0.148757 0.419 255 255 255
0.11426 -0.189557 0.997 255 255 255
0.190157 -0.239911 0.889 255 255 255
0.0421803 0.16287 0.422 255 255 255
0.182095 0.0795767 0.561 255 255 255
-0.782388 0.102642 1.744 255 255 255
0.206881 -0.0808614 0.664 255 255 255
-0.0456032 -0.207287 1.139 255 255 255
-0.329334 -0.179924 1.439 255 255 255
0.0303854 0.134702 0.462 255 255 255
0.0548792 0.0630939 0.43 255 255 255
0.056132 -0.340516 0.974 255 255 255
0.0338402 0.0781288 0.448 0 0 0
0.0565814 0.0252783 0.407 255 255 255
0.0286096 -0.371171 0.955 255 255 255
-0.598503 -0.518835 1.491 255 255 255
0.0346711 -0.00211672 0.459 0 0 0
0.196588 -0.0885905 0.462 0 0 0
0.190641 -0.0829334 0.464 0 0 0
-0.894501 -0.4079 1.859 255 255 255
-0.765858 -0.133391 1.87 255 255 255
-0.229133 -0.117962 1.372 255 255 255
0.00426102 -0.228314 1.089 255 255 255
0.221027 0.122959 0.452 0 0 0
0.029718 -0.356494 0.992 255 255 255
-0.690561 0.334506 1.416 255 255 255
0.0728144 0.0887297 0.45 255 255 255
0.234399 0.117884 0.458 255 255 255
0.0317515 0.0936958 0.46 255 255 255
-0.0309078 0.0905269 0.368 255 255 255
0.115232 0.12512 0.413 255 255 255
-0.0798598 -0.092413 1.239 255 255 255
-0.545798 -0.166533 1.655 255 255 255
0.172577 0.150826 0.441 255 255 255
-0.699078 -0.231911 1.763 255 255 255
-0.572975 -0.551946 1.463 255 255 255
0.207804 0.158605 0.418 255 255 255
-0.288838 0.122815 1.535 255 255 255
0.0858463 -0.329924 0.935 0 0 0
-0.269403 0.0921739 1.524 255 255 255
0.175476 -0.0473125 0.712 255 255 255
0.0724191 -0.218232 1.025 255 255 255
-0.179499 0.0346265 1.403 255 255 255
0.214923 -0.0508889 0.461 255 255 255
0.19241 0.00176252 0.5 255 255 255
-0.168305 -0.405322 1.154 255 255 255
-0.867639 0.0304001 1.673 255 255 255
-0.000984808 0.103101 0.379 255 255 255
-0.489924 -0.506223 1.396 255 255 255
-0.197772 -0.0176818 1.387 255 255 255
0.183165 -0.01685 0.497 0 0 0
-0.0842158 0.0608528 0.429 0 0 0
-0.196864 -0.2849 1.252 255 255 255
-0.101647 0.135038 0.441 255 255 255
0.267151 -0.233826 0.799 255 255 255
-0.154285 -0.355637 1.176 255 255 255
0.125321 0.14925 0.39 255 255 255
0.106648 -0.248074 0.972 255 255 255
0.0946131 0.0123909 0.471 255 255 255
0.210701 0.0711903 0.582 255 255 255
0.205138 -0.195413 0.904 255 255 255
-0.1157 -0.216806 1.213 255 255 255
-0.00103469 -0.2738 1.066 255 255 255
-0.221525 -0.403231 1.198 255 255 255
-0.615014 -0.47409 1.551 255 255 255
-0.91197 -0.392055 1.87 255 255 255
-0.0132784 0.078818 0.361 255 255 255
-0.549521 -0.528841 1.439 255 255 255
0.167814 -0.163787 0.951 255 255 255
-0.0682985 -0.29209 1.116 255 255 255
0.0398294 0.12639 0.476 255 255 255
-0.781741 -0.312591 1.815 255 255 255
0.185501 0.162567 0.423 255 255 255
-0.0136846 0.0440978 0.429 255 255 255
0.0905721 0.144065 0.388 0 0 0
0.0364018 0.00989865 0.462 0 0 0
-0.230636 -0.111994 1.381 255 255 255
-0.138982 0.096683 1.409 255 255 255
0.20181 -0.231107 0.883 255 255 255
-0.168058 0.0942542 1.442 255 255 255
-0.858304 0.00852717 1.655 255 255 255
0.0647599 -0.00763338 0.477 255 255 255
0.0514215 -0.231358 1.039 255 255 255
0.185062 0.164243 0.422 255 255 255
-0.477002 -0.0532557 1.65 255 255 255
0.221753 -0.0773297 0.449 255 255 255
-0.0560643 0.138226 0.412 255 255 255
-0.132373 0.0200177 1.342 255 255 255
0.210271 -0.110702 0.947 255 255 255
0.18939 -0.0449868 0.478 0 0 0
0.10589 0.143829 0.384 0 0 0
0.199189 -0.0932628 0.66 255 255 255
0.28203 -0.327122 0.856 255 255 255
0.212398 -0.0735901 0.467 255 255 255
-0.919798 -0.337306 1.837 0 0 0
-0.197149 -0.208121 1.294 255 255 255
0.021278 0.124327 0.477 255 255 255
-0.715507 0.349469 1.384 255 255 255
-0.731085 0.154559 1.691 255 255 255
-0.137109 0.143641 0.422 255 255 255
0.0988571 0.040339 0.412 255 255 255
-0.279806 -0.0213765 1.487 255 255 255
-0.669825 0.2572 1.532 255 255 255
-0.00945644 0.134177 0.398 255 255 255
0.188736 0.162484 0.421 255 255 255
-0.0147879 0.120396 0.385 255 255 255
0.214894 -0.135308 0.438 0 0 0
-0.68622 0.351721 1.384 255 255 255
-0.886905 -0.101143 1.837 0 0 0
-0.636157 -0.285412 1.673 255 255 255
-0.914117 -0.146887 1.887 0 0 0
-0.28997 -0.428517 1.267 255 255 255
-0.397792 0.0502777 1.612 255 255 255
0.0138848 -0.316859 1.015 255 255 255
-0.766968 -0.26238 1.815 255 255 255
-0.052993 0.0486977 0.409 0 0 0
-0.0440132 0.104812 0.383 255 255 255
-0.0134101 0.0923958 0.443 255 255 255
0.138532 -0.280021 0.921 255 255 255
0.213267 -0.0168416 0.474 255 255 255
-0.189346 -0.0152913 1.375 255 255 255
0.27258 -0.172828 0.844 255 255 255
0.0410912 -0.00742535 0.464 0 0 0
-0.614231 0.265777 1.524 255 255 255
-0.749885 -0.20212 1.831 255 255 255
0.232686 0.115154 0.462 0 0 0
-0.449307 -0.147101 1.563 255 255 255
-0.600864 0.204561 1.629 255 255 255
0.216037 0.0202259 0.475 255 255 255
0.0496926 0.0078417 0.474 255 255 255
-0.0686601 0.0361479 1.294 255 255 255
0.220715 -0.0409578 0.459 255 255 255
0.201611 -0.0628565 0.472 255 255 255
-0.415804 -0.0788278 1.571 255 255 255
0.210878 -0.0492713 0.467 255 255 255
0.0638934 0.0846565 0.444 255 255 255
0.272204 0.0944345 0.568 255 255 255
-0.101789 0.148402 0.418 255 255 255
-0.538197 0.221337 1.616 255 255 255
0.0252498 -0.340582 1.007 255 255 255
-0.086512 0.0574959 0.43 255 255 255
0.0527793 0.0616944 0.43 255 255 255
0.0896252 0.127133 0.473 0 0 0
0.153798 -0.143382 0.97 255 255 255
-0.149208 0.0835141 1.419 255 255 255
-0.497522 -0.297614 1.539 255 255 255
-0.101445 0.111794 0.47 255 255 255
0.0816337 0.0465901 0.42 0 0 0
-0.669611 -0.0385953 1.848 255 255 255
0.205089 -0.126039 0.443 0 0 0
-0.124536 0.114402 0.462 255 255 255
-0.187703 -0.300397 1.232 255 255 255
-0.626117 -0.464662 1.579 255 255 255
-0.327318 0.00787282 1.528 255 255 255
0.0711651 0.0128644 0.489 255 255 255
-0.851562 0.0912945 1.642 255 255 255
-0.128409 -0.314934 1.167 255 255 255
0.230175 -0.0239853 0.463 255 255 255
-0.876965 -0.310622 1.893 255 255 255
-0.194681 -0.354983 1.213 255 255 255
-0.0734841 -0.30733 1.112 255 255 255
0.179419 -0.273705 0.886 255 255 255
0.0915388 -0.23823 0.997 255 255 255
-0.680845 -0.316769 1.71 255 255 255
-0.742253 0.0730612 1.784 255 255 255
-0.0137996 -0.199469 1.116 255 255 255
0.207123 0.153163 0.418 0 0 0
0.144101 0.131164 0.488 0 0 0
0.241472 0.106583 0.481 255 255 255
0.0178008 0.0922028 0.385 255 255 255
0.0609241 0.0412085 0.414 255 255 255
0.185745 0.00833801 0.504 0 0 0
0.254418 -0.217894 0.843 255 255 255
-0.262026 -0.307327 1.313 255 255 255
0.228645 0.0574559 0.607 0 0 0
-0.108843 0.131621 0.444 255 255 255
-0.758094 -0.446653 1.696 255 255 255
-0.646101 0.324983 1.435 255 255 255
0.182313 -0.0400381 0.484 0 0 0
0.0860413 0.12871 0.439 255 255 255
-0.551896 -0.383227 1.551 255 255 255
-0.0444036 0.101165 0.381 0 0 0
0.0455083 0.0868773 0.448 0 0 0
-0.640318 -0.590636 1.539 255 255 255
-0.0455498 0.0767336 0.44 255 255 255
-0.605001 0.0443999 1.799 255 255 255
0.0806428 -0.0536562 0.542 255 255 255
-0.0282018 0.0859888 0.364 255 255 255
0.000248411 0.100984 0.378 255 255 255
-0.230953 0.0425402 1.439 255 255 255
0.0874173 0.0365806 0.415 255 255 255
-0.085598 0.0992019 0.451 255 255 255
-0.732331 0.288827 1.477 255 255 255
0.0334625 0.067885 0.443 255 255 255
-0.596898 -0.551321 1.487 255 255 255
-0.101775 0.103703 0.468 0 0 0
0.134323 0.121336 0.49 255 255 255
-0.716682 -0.358335 1.696 255 255 255
0.190007 -0.00535692 0.681 255 255 255
-0.0835948 -0.0325951 1.265 255 255 255
0.197254 0.104718 0.54 255 255 255
-0.369616 -0.487083 1.308 255 255 255
0.250371 -0.184593 0.867 255 255 255
-0.12671 0.125623 0.451 255 255 255
0.204716 -0.0146403 0.701 255 255 255
-0.166031 0.14669 0.417 255 255 255
-0.390812 -0.117598 1.543 255 255 255
-0.293876 -0.420849 1.275 255 255 255
0.222007 -0.068867 0.451 255 255 255
-0.839591 -0.525896 1.739 255 255 255
0.204054 -0.00779341 0.487 255 255 255
0.106696 -0.313362 0.931 255 255 255
-0.361286 -0.201837 1.445 255 255 255
0.20002 -0.0407414 0.483 255 255 255
-0.0434035 -0.216682 1.13 255 255 255
-0.850767 -0.289515 1.876 255 255 255
0.177404 -0.0177299 0.499 0 0 0
-0.119098 -0.0124936 1.316 255 255 255
-0.427518 -0.423378 1.4 255 255 255
0.087869 0.125708 0.441 255 255 255
-0.23075 -0.372072 1.237 255 255 255
0.0335454 -0.300506 1.01 0 0 0
-0.0156722 -0.202007 1.12 255 255 255
-0.100275 0.141421 0.432 255 255 255
0.218243 0.132282 0.439 0 0 0
-0.617284 0.451874 1.217 255 255 255
0.188514 0.143385 0.438 255 255 255
0.0711738 -0.324133 0.963 255 255 255
0.0315444 0.0886226 0.457 0 0 0
0.102238 0.140439 0.429 255 255 255
0.196124 0.120587 0.514 255 255 255
0.234448 -0.00818043 0.464 255 255 255
0.17563 0.0832415 0.555 255 255 255
-0.108489 0.150038 0.415 255 255 255
-0.121523 -0.166071 1.232 255 255 255
-0.541463 0.188403 1.65 255 255 255
-0.257262 -0.0647263 1.429 255 255 255
-0.680626 -0.00558059 1.87 255 255 255
0.126223 -0.269257 0.941 255 255 255
-0.206905 -0.0178858 1.403 255 255 255
-0.669555 0.214339 1.603 255 255 255
-0.251891 -0.374546 1.252 255 255 255
0.2058 -0.0765392 0.664 255 255 255
0.0757955 0.00563259 0.483 255 255 255
-0.627645 0.356225 1.384 255 255 255
-0.156853 0.158518 0.409 255 255 255
-0.262625 -0.245924 1.316 255 255 255
-0.0691284 0.152483 0.418 255 255 255
-0.836906 -0.212045 1.893 255 255 255
-0.256429 -0.434247 1.225 255 255 255
-0.159793 0.123555 0.441 255 255 255
-0.045749 -0.290953 1.098 255 255 255
0.232425 0.0198427 0.466 255 255 255
-0.0819409 -0.328474 1.104 255 255 255
-0.0258541 0.0552057 0.434 255 255 255
0.213137 -0.0973998 0.454 255 255 255
0.213828 -0.108607 0.649 255 255 255
-0.161829 0.131179 0.433 0 0 0
0.0726083 0.0104557 0.488 255 255 255
0.218142 -0.189703 0.891 255 255 255
0.0824301 -0.204888 1.025 255 255 255
-0.195616 -0.428195 1.16 0 0 0
0.201753 -0.00468034 0.493 255 255 255
-0.850713 -0.461421 1.774 255 255 255
-0.834881 0.131696 1.646 255 255 255
0.0118446 0.0788234 0.375 0 0 0
0.162099 0.103975 0.523 255 255 255
0.289172 -0.217512 0.806 0 0 0
0.112683 0.131444 0.416 255 255 255
0.000245783 0.095046 0.374 255 255 255
-0.883667 -0.110453 1.794 255 255 255
0.263341 0.0983962 0.559 255 255 255
0.0561193 -0.0310303 0.504 0 0 0
0.0693588 0.155136 0.433 0 0 0
-0.00401736 0.074755 0.441 255 255 255
0.108653 0.0694828 0.406 255 255 255
0.154852 0.0832415 0.555 255 255 255
0.209455 0.00484659 0.483 255 255 255
0.0757889 -0.0053158 0.478 255 255 255
-0.0986288 -0.0535171 1.273 255 255 255
-0.632418 -0.577977 1.532 255 255 255
0.0795797 -0.24298 1.01 255 255 255
-0.126255 0.125902 0.452 255 255 255
-0.912567 -0.406181 1.865 255 255 255
0.100203 -0.00211211 0.458 255 255 255
0.0167463 -0.165272 1.094 255 255 255
-0.504008 0.0846316 1.724 255 255 255
-0.0878518 -0.0367703 1.267 255 255 255
-0.130954 -0.253263 1.208 255 255 255
-0.187867 -0.251863 1.26 255 255 255
0.222246 -0.112292 0.652 0 0 0
-0.0419266 0.145104 0.405 255 255 255
-0.120248 0.140112 0.428 255 255 255
0.275587 -0.313985 0.862 255 255 255
0.286931 -0.31524 0.854 255 255 255
-0.00647458 -0.199482 1.106 255 255 255
0.321324 -0.31502 0.835 255 255 255
-0.0526883 -0.0788893 1.217 255 255 255
0.0348222 0.0991509 0.461 255 255 255
-0.674133 0.382541 1.342 255 255 255
0.0664536 -0.298179 0.986 255 255 255
0.205183 0.161799 0.421 255 255 255
-0.495727 0.191486 1.677 255 255 255
-0.0309208 0.117901 0.383 255 255 255
-0.0432723 0.0416066 0.418 255 255 255
0.204001 0.121291 0.517 255 255 255
0.000904851 0.123836 0.396 255 255 255
0.20117 0.142166 0.43 0 0 0
-0.543859 -0.249357 1.633 255 255 255
0.177859 -0.251667 0.9 255 255 255
-0.296727 -0.44993 1.252 255 255 255
-0.422258 0.078124 1.646 255 255 255
-0.960048 -0.219589 1.905 255 255 255
-0.678365 0.0614486 1.784 255 255 255
-0.486256 -0.255702 1.543 255 255 255
-0.875067 -0.0352606 1.831 255 255 255
-0.0880416 0.153274 0.411 255 255 255
0.192025 -0.000677115 0.499 255 255 255
0.0372933 0.0468903 0.429 255 255 255
0.0221849 0.0532263 0.408 255 255 255
0.0285178 -0.21696 1.068 255 255 255
-0.761038 0.217365 1.587 255 255 255
-0.0759991 0.154611 0.411 255 255 255
-0.0350019 -0.36159 1.044 255 255 255
0.142104 0.116488 0.411 255 255 255
0.0583919 0.0568273 0.425 255 255 255
0.0723449 0.0679184 0.434 0 0 0
-0.677582 -0.00253748 1.87 255 255 255
0.160189 0.1317 0.496 0 0 0
-0.514426 -0.134343 1.624 255 255 255
0.201904 -0.00977539 0.68 255 255 255
-0.358848 -0.32535 1.39 255 255 255
-0.843936 0.0943435 1.748 255 255 255
-0.585195 -0.425795 1.559 255 255 255
0.196947 -0.0464288 0.682 0 0 0
-0.351712 -0.163816 1.484 255 255 255
0.199192 0.13711 0.481 255 255 255
-0.483081 -0.116662 1.599 255 255 255
-0.510181 -0.306714 1.547 255 255 255
0.00615358 0.123096 0.402 255 255 255
-0.114252 0.157113 0.402 255 255 255
0.100093 0.148428 0.42 255 255 255
-0.957973 -0.246765 1.853 255 255 255
-0.0421745 0.0795308 0.367 0 0 0
-0.0984184 0.145012 0.424 255 255 255
0.203041 0.135719 0.434 0 0 0
-0.203303 -0.287395 1.254 255 255 255
-0.162099 -0.166665 1.267 255 255 255
-0.11576 0.122141 0.46 255 255 255
0.229829 0.0238373 0.47 255 255 255
-0.100244 -0.287639 1.149 255 255 255
0.233385 0.0399839 0.471 0 0 0
0.214322 0.0656698 0.592 255 255 255
-0.775646 -0.34941 1.748 255 255 255
0.222221 -0.0929884 0.447 255 255 255
0.139949 -0.214858 0.951 255 255 255
-0.0117897 -0.215907 1.098 255 255 255
0.124189 -0.331201 0.863 255 255 255
-0.901589 -0.4595 1.789 0 0 0
0.156977 -0.177716 0.951 255 255 255
-0.655037 0.339731 1.409 255 255 255
0.175904 0.0557238 0.599 255 255 255
0.211462 -0.103591 0.452 255 255 255
0.177345 -0.0898901 0.675 0 0 0
-0.22804 -0.228476 1.302 255 255 255
-0.752941 0.318081 1.425 255 255 255
0.0591279 -0.0677657 0.564 0 0 0
0.00388815 0.0905429 0.373 255 255 255
-0.0971284 0.0872651 0.45 255 255 255
0.103554 -0.0331144 0.524 255 255 255
0.202374 -0.157804 0.925 255 255 255
-0.567932 0.134167 1.748 255 255 255
0.197553 0.133827 0.459 255 255 255
-0.207128 -0.389899 1.205 255 255 255
0.128213 0.142164 0.395 255 255 255
-0.00984878 0.0877438 0.445 0 0 0
-0.119437 0.073888 1.369 255 255 255
-0.261554 -0.142129 1.39 255 255 255
-0.748494 -0.274705 1.799 255 255 255
-0.300342 0.00775432 1.505 255 255 255
-0.360536 -0.213151 1.442 255 255 255
0.107935 -0.0224074 0.533 0 0 0
-0.155542 0.145681 0.418 255 255 255
-0.0492773 0.0797939 0.371 255 255 255
0.0170402 0.0715918 0.382 255 255 255
-0.0508711 0.0973332 0.383 255 255 255
0.287267 -0.310043 0.855 255 255 255
-0.00883868 0.0981699 0.372 255 255 255
-0.00779599 0.15402 0.413 255 255 255
-0.584992 -0.338754 1.579 255 255 255
-0.12637 0.156723 0.401 255 255 255
0.0111328 -0.251719 1.068 255 255 255
-0.208145 -0.0336988 1.396 255 255 255
-0.333162 -0.0045719 1.532 255 255 255
0.00289603 0.130283 0.404 255 255 255
-0.261905 -0.442743 1.232 255 255 255
-0.722289 -0.588397 1.587 255 255 255
0.311682 -0.316291 0.842 255 255 255
0.132003 0.114245 0.415 255 255 255
0.237981 0.0659593 0.465 255 255 255
0.274152 -0.197848 0.828 255 255 255
0.198638 -0.121752 0.669 255 255 255
-0.736299 0.0474853 1.805 0 0 0
0.04251 0.138761 0.463 255 255 255
0.16547 0.0710218 0.573 0 0 0
0.183393 -0.0940046 0.673 0 0 0
0.0738744 -0.305309 0.978 255 255 255
0.0758888 0.132927 0.469 0 0 0
0.0759217 -0.068006 0.566 255 255 255
0.0928921 -0.160632 1.03 255 255 255
-0.712169 0.0331803 1.826 0 0 0
-0.123458 -0.381302 1.122 255 255 255
-0.513913 0.0820634 1.729 255 255 255
-0.72058 0.171971 1.673 255 255 255
-0.0456856 0.116844 0.392 255 255 255
-0.173081 0.14015 0.426 0 0 0
0.187459 0.0262771 0.502 0 0 0
0.179387 -0.0112561 0.5 0 0 0
-0.188748 -0.10423 1.339 255 255 255
0.104974 -0.237206 0.986 255 255 255
0.0840798 -0.0592447 0.553 255 255 255
-0.217114 -0.3819 1.217 255 255 255
-0.340817 -0.238081 1.409 255 255 255
-0.401134 -0.452332 1.357 255 255 255
-0.310437 0.0506366 1.543 255 255 255
-0.42603 -0.479784 1.366 255 255 255
0.15021 -0.276676 0.91 255 255 255
0.0884771 0.149163 0.43 255 255 255
-0.0932432 0.136063 0.442 255 255 255
0.0889812 0.0991229 0.454 255 255 255
0.0254504 -0.313556 1.015 255 255 255
0.0444508 0.0477238 0.424 0 0 0
0.198462 -0.0694738 0.47 0 0 0
0.224675 -0.128473 0.439 255 255 255
0.220292 -0.0726975 0.452 255 255 255
-0.649253 0.321875 1.442 255 255 255
0.250302 -0.22201 0.843 255 255 255
-0.473763 -0.523166 1.369 255 255 255
-0.366699 -0.127876 1.516 255 255 255
0.202581 0.0441612 0.501 0 0 0
0.0950699 -0.229183 1 255 255 255
0.0709285 -0.340504 0.939 255 255 255
0.174169 0.153373 0.436 255 255 255
-0.192639 -0.0875756 1.351 255 255 255
-0.612895 0.0327987 1.805 255 255 255
0.0301465 -0.0319964 0.47 255 255 255
0.138071 0.154431 0.407 255 255 255
-0.895687 -0.076259 1.887 0 0 0
-0.409729 -0.190052 1.52 255 255 255
0.222247 -0.0606591 0.45 255 255 255
-0.0282174 0.0418076 0.427 255 255 255
0.140635 0.126933 0.487 0 0 0
0.236414 0.116935 0.495 255 255 255
-0.801479 -0.482082 1.724 255 255 255
-0.633525 -0.188763 1.71 255 255 255
-0.254641 -0.244429 1.308 255 255 255
-0.711372 0.314006 1.449 255 255 255
0.0639303 -0.192799 1.05 255 255 255
-0.0562963 0.0622911 0.386 255 255 255
0.217703 0.0747517 0.573 255 255 255
0.238126 0.110664 0.539 255 255 255
0.0773962 0.0349753 0.412 0 0 0
-0.475553 -0.41496 1.442 255 255 255
0.0602666 0.0177112 0.491 0 0 0
0.182521 0.0439034 0.625 0 0 0
0.17818 0.00456952 0.674 255 255 255
-0.0366782 -0.264969 1.094 255 255 255
-0.213299 -0.0383519 1.4 255 255 255
-0.298881 -0.483494 1.244 255 255 255
-0.230111 -0.44978 1.182 255 255 255
0.061451 -0.311669 0.983 255 255 255
-0.351609 -0.384858 1.345 255 255 255
-0.00356188 0.121 0.391 255 255 255
0.0687948 -0.186958 1.046 255 255 255
-0.117383 -0.320259 1.152 255 255 255
-0.856908 0.00578812 1.642 0 0 0
0.0960208 -0.0104232 0.463 255 255 255
-0.555289 0.128846 1.753 255 255 255
0.105912 0.121998 0.477 0 0 0
0.178922 -0.0784988 0.681 0 0 0
-0.00249348 0.0433651 0.59 0 0 0
-0.0485727 0.0744459 0.435 0 0 0
-0.803178 -0.283497 1.837 255 255 255
-0.379424 0.10012 1.612 255 255 255
0.0133517 0.115245 0.402 255 255 255
-0.00281411 -0.24468 1.083 255 255 255
0.231866 0.0731401 0.547 255 255 255
0.064417 0.141734 0.458 255 255 255
0.0440112 -0.0228668 0.471 255 255 255
0.18832 -0.0251558 0.708 0 0 0
-0.146539 0.130435 0.44 255 255 255
0.195173 -0.0829334 0.464 0 0 0
-0.654784 -0.119544 1.799 255 255 255
-0.878841 -0.0823567 1.959 0 0 0
0.023617 0.132446 0.462 0 0 0
0.180496 0.109058 0.527 255 255 255
-0.0275457 -0.268086 1.085 255 255 255
0.159322 0.0809673 0.558 0 0 0
-0.32631 -0.231341 1.396 255 255 255
0.0420544 -0.0592745 0.545 255 255 255
0.168737 -0.311439 0.84 255 255 255
0.0112149 0.0629935 0.42 255 255 255
-0.0290048 0.0828713 0.45 255 255 255
-0.188613 -0.226101 1.265 255 255 255
0.212842 0.0540269 0.48 255 255 255
0.133897 -0.252265 0.952 255 255 255
0.226004 0.000127081 0.47 0 0 0
0.224163 -0.117489 0.438 255 255 255
0.252816 -0.238638 0.82 0 0 0
-0.00243528 0.162585 0.416 255 255 255
0.0613227 0.073198 0.436 0 0 0
-0.016152 -0.363174 1.034 255 255 255
0.0688799 -0.245867 1.022 255 255 255
0.094283 -0.213184 1.009 255 255 255
0.0548296 -0.0415621 0.523 0 0 0
0.069621 0.0234941 0.495 0 0 0
0.203889 -0.0460519 0.481 255 255 255
-0.950322 -0.304734 1.821 255 255 255
-0.152089 0.146338 0.416 255 255 255
-0.755879 -0.14424 1.853 255 255 255
0.189833 0.0400901 0.629 255 255 255
0.0124624 0.0475003 0.416 255 255 255
-0.0092919 0.0912261 0.366 255 255 255
0.0514519 0.0086494 0.476 255 255 255
0.186411 -0.113125 0.676 0 0 0
0.0730923 0.0502456 0.422 255 255 255
-0.0157842 -0.175915 1.128 255 255 255
0.1492 -0.223318 0.941 255 255 255
-0.0523334 -0.164623 1.165 255 255 255
0.0996743 -0.00286367 0.459 255 255 255
-0.803178 -0.250613 1.837 255 255 255
-0.0494068 -0.0498694 1.234 255 255 255
-0.0536588 0.0493633 0.409 0 0 0
0.221753 -0.0985191 0.449 255 255 255
0.226082 -0.0158329 0.467 0 0 0
0.180165 0.0402175 0.631 255 255 255
0.179182 -0.266849 0.892 255 255 255
0.0760506 0.13168 0.47 0 0 0
0.0907689 -0.00823332 0.467 255 255 255
0.0412683 0.00695102 0.466 0 0 0
-0.739913 -0.374109 1.705 255 255 255
0.0694933 -0.348585 0.92 255 255 255
0.0776878 0.156237 0.41 255 255 255
-0.153008 0.136568 0.43 255 255 255
0.194425 0.0205178 0.501 0 0 0
-0.710068 0.313153 1.456 255 255 255
0.0875825 0.134926 0.436 255 255 255
-0.0672987 0.141505 0.428 0 0 0
0.067491 0.13369 0.469 255 255 255
0.221951 -0.114297 0.445 255 255 255
0.203148 -0.0544074 0.472 255 255 255
-0.0215351 0.0917753 0.447 255 255 255
0.202925 -0.12676 0.443 0 0 0
-0.0178329 0.0432985 0.428 255 255 255
0.200275 -0.102057 0.455 0 0 0
-0.110103 -0.0582491 1.286 255 255 255
-0.0245828 0.0993806 0.372 255 255 255
-0.580514 -0.00815792 1.769 255 255 255
-0.14999 -0.201366 1.252 255 255 255
-0.789938 -0.228055 1.848 255 255 255
-0.815336 -0.202803 1.893 0 0 0
0.27099 -0.26888 0.795 255 255 255
0.0670477 0.00966159 0.488 255 255 255
-0.127572 0.144327 0.42 255 255 255
0.216033 -0.0757327 0.457 255 255 255
0.194435 -0.209807 0.909 255 255 255
0.162388 0.0718287 0.572 0 0 0
0.0250877 -0.224331 1.07 255 255 255
0.0499353 0.0799595 0.442 255 255 255
0.0438532 0.14673 0.446 255 255 255
0.216979 -0.0469334 0.459 255 255 255
-0.343753 -0.102252 1.502 255 255 255
0.263992 0.10557 0.549 255 255 255
-0.130596 -0.171461 1.242 255 255 255
-0.687545 0.181331 1.659 255 255 255
0.0932514 -0.325419 0.918 255 255 255
0.203951 -0.0368114 0.483 255 255 255
0.146602 -0.242464 0.944 255 255 255
0.118207 0.120707 0.414 255 255 255
-0.411775 -0.398592 1.393 255 255 255
0.144287 0.135542 0.404 255 255 255
-0.474469 -0.202568 1.579 255 255 255
0.199663 0.0948115 0.554 255 255 255
-0.573324 0.306596 1.47 255 255 255
-0.784741 0.168785 1.642 255 255 255
0.217285 -0.0190344 0.471 255 255 255
-0.27127 -0.474167 1.22 0 0 0
-0.760216 0.265408 1.494 255 255 255
-0.231674 0.0329427 1.429 255 255 255
0.217664 -0.344939 0.895 255 255 255
0.214344 -0.245818 0.864 255 255 255
-0.573008 -0.3126 1.603 255 255 255
-0.335529 -0.0437935 1.509 255 255 255
0.159025 -0.172066 0.954 255 255 255
0.11084 0.145835 0.386 255 255 255
0.0942587 0.142951 0.385 255 255 255
0.206752 0.0867334 0.566 255 255 255
-0.433047 -0.36274 1.449 255 255 255
0.315281 -0.30624 0.837 255 255 255
0.120983 -0.0348098 0.537 255 255 255
-0.173491 -0.0519338 1.339 255 255 255
-0.266604 -0.163682 1.381 255 255 255
0.0181541 0.1325 0.457 0 0 0
0.189741 -0.02173 0.709 0 0 0
-0.0120759 0.0859559 0.447 0 0 0
0.23855 -0.205494 0.86 255 255 255
-0.61236 0.117435 1.753 255 255 255
0.0979495 0.0160166 0.465 255 255 255
0.146602 -0.198458 0.954 255 255 255
0.185185 -0.229698 0.9 255 255 255
-0.0177913 0.0362487 0.427 255 255 255
-0.655946 0.160536 1.696 255 255 255
-0.434537 -0.329722 1.47 255 255 255
-0.764892 0.136416 1.705 255 255 255
0.057457 0.0787024 0.439 255 255 255
-0.498727 -0.329314 1.535 255 255 255
-0.463519 -0.356987 1.494 255 255 255
0.186277 0.141425 0.457 255 255 255
-0.461836 -0.178533 1.571 255 255 255
-0.446242 0.0909972 1.686 255 255 255
0.0319349 -0.225227 1.066 255 255 255
0.0938118 -0.0600359 0.552 255 255 255
0.141026 -0.162403 0.98 255 255 255
-0.0222202 0.102076 0.373 255 255 255
-0.857481 -0.61225 1.696 255 255 255
-0.723051 0.0559542 1.794 255 255 255
0.0621687 -0.0122393 0.475 255 255 255
0.0191261 0.143504 0.445 0 0 0
-0.256735 -0.449235 1.217 255 255 255
-0.120253 0.119896 0.46 255 255 255
-0.235169 -0.0458967 1.422 255 255 255
0.177657 0.157892 0.429 255 255 255
0.107184 0.122748 0.421 255 255 255
0.232665 0.0817449 0.551 255 255 255
-0.131767 0.10774 0.469 0 0 0
0.111725 0.0815098 0.41 255 255 255
-0.866643 -0.471145 1.789 255 255 255
-0.0248579 0.0454941 0.429 255 255 255
-0.0546693 -0.0808698 1.217 255 255 255
0.108242 0.121998 0.477 0 0 0
0.0808733 0.135344 0.442 255 255 255
-0.843041 -0.477286 1.758 255 255 255
0.200975 -0.260781 0.867 255 255 255
0.0801734 -0.158654 1.039 255 255 255
-0.101775 0.117411 0.468 255 255 255
-0.11766 0.154431 0.407 255 255 255
0.0267559 0.154738 0.428 255 255 255
-0.148026 0.147015 0.416 255 255 255
0.215205 -0.0792242 0.46 255 255 255
0.21118 -0.144101 0.924 255 255 255
0.237441 -0.218469 0.856 255 255 255
0.222979 -0.0591945 0.45 255 255 255
-0.000373693 0.109745 0.385 255 255 255
-0.559458 -0.47776 1.484 255 255 255
0.219009 0.121345 0.457 255 255 255
-0.0268962 0.111119 0.379 255 255 255
-0.586208 -0.260796 1.655 255 255 255
-0.569379 0.286712 1.491 255 255 255
-0.905872 -0.0970921 1.935 255 255 255
-0.504008 0.0790206 1.724 255 255 255
0.0193369 0.0645384 0.404 255 255 255
-0.241984 -0.277987 1.286 255 255 255
-0.418292 0.155636 1.673 255 255 255
-0.0416581 -0.132738 1.185 255 255 255
-0.0384747 0.0697315 0.441 255 255 255
0.153026 0.102468 0.524 0 0 0
0.228257 -0.0739098 0.446 255 255 255
0.211333 -0.0744667 0.463 255 255 255
-0.139009 0.136568 0.43 255 255 255
0.186169 0.133297 0.49 255 255 255
0.212591 -0.0948606 0.456 255 255 255
-0.0358455 0.0889917 0.444 255 255 255
-0.867019 -0.219589 1.905 255 255 255
0.260682 -0.197572 0.85 255 255 255
0.160153 0.0702117 0.574 0 0 0
-0.135217 0.152819 0.408 255 255 255
-0.784182 -0.355099 1.748 255 255 255
-0.811769 0.140835 1.659 255 255 255
-0.961075 -0.235463 1.859 255 255 255
0.200512 0.127263 0.504 255 255 255
-0.045994 0.0368451 0.418 255 255 255
0.065702 -0.163907 1.051 255 255 255
0.0423784 -0.344711 0.986 255 255 255
-0.707688 0.321973 1.432 255 255 255
-0.0537985 -0.396326 1.046 255 255 255
0.128478 -0.150165 0.994 255 255 255
-0.565582 -0.435105 1.547 255 255 255
-0.899805 -0.4441 1.774 0 0 0
-0.0380373 0.0558355 0.428 255 255 255
-0.0821547 0.148448 0.422 255 255 255
-0.317285 -0.304551 1.348 255 255 255
-0.712813 0.328287 1.419 255 255 255
0.196485 -0.0919499 0.46 0 0 0
0.138398 -0.161464 0.984 255 255 255
-0.548023 0.141966 1.739 255 255 255
-0.115286 0.132885 0.441 255 255 255
0.0353109 0.162183 0.422 255 255 255
0.00626603 0.0831914 0.37 0 0 0
0.16309 0.133046 0.495 255 255 255
-0.049837 0.159877 0.416 255 255 255
-0.0179795 0.0823428 0.361 0 0 0
0.19745 -0.115613 0.665 255 255 255
-0.212817 -0.293336 1.262 255 255 255
0.203373 0.1103 0.533 255 255 255
0.228042 -0.0740756 0.447 255 255 255
0.0905869 0.127091 0.47 0 0 0
-0.0426363 0.0815914 0.447 255 255 255
-0.170201 -0.394696 1.167 255 255 255
0.067874 -0.214685 1.032 255 255 255
-0.133534 -0.336276 1.162 255 255 255
0.066527 -0.0471149 0.528 255 255 255
-0.0579569 -0.117135 1.203 255 255 255
0.194471 -0.0327047 0.697 255 255 255
-0.0242351 0.107792 0.376 255 255 255
-0.249254 -0.385844 1.249 255 255 255
-0.626587 -0.0657328 1.769 255 255 255
0.0547554 -0.279949 1.007 255 255 255
-0.432476 0.0295097 1.624 255 255 255
0.00892814 -0.316859 1.015 255 255 255
0.300149 -0.227336 0.79 255 255 255
-0.957973 -0.279935 1.853 255 255 255
0.220497 -0.0482162 0.457 255 255 255
0.0231032 0.0550017 0.438 0 0 0
0.163755 -0.229294 0.928 0 0 0
0.0736478 -0.305959 0.975 255 255 255
0.249733 -0.248909 0.81 255 255 255
-0.294226 -0.312009 1.333 255 255 255
-0.648993 0.345684 1.396 255 255 255
-0.0388779 0.0433783 0.422 255 255 255
-0.710953 0.245246 1.551 255 255 255
-0.544517 -0.533259 1.432 255 255 255
0.19969 -0.0518256 0.68 255 255 255
0.174867 -0.175473 0.939 255 255 255
0.0501306 -0.0576063 0.546 255 255 255
-0.0654096 -0.319542 1.098 255 255 255
-0.353804 -0.00458086 1.535 255 255 255
-0.56332 -0.172335 1.659 255 255 255
0.133185 -0.183322 0.981 255 255 255
-0.739643 0.166526 1.673 255 255 255
0.20681 -0.134902 0.439 0 0 0
-0.13878 0.035831 1.362 255 255 255
0.0238696 -0.147469 1.094 255 255 255
0.193394 -0.0773899 0.467 0 0 0
0.161814 -0.254929 0.917 255 255 255
-0.867761 0.0601675 1.668 255 255 255
-0.607647 0.466264 1.198 255 255 255
0.0138848 -0.318511 1.015 255 255 255
0.0650701 0.163076 0.419 0 0 0
-0.0852268 0.157238 0.404 255 255 255
0.252146 -0.222587 0.84 255 255 255
0.138833 -0.30415 0.858 0 0 0
0.0345545 -0.149249 1.094 255 255 255
0.21753 0.054808 0.48 0 0 0
-0.0281513 0.0410165 0.426 255 255 255
0.159663 0.0661122 0.579 0 0 0
-0.315461 0.0431037 1.543 255 255 255
-0.04474 0.0532977 0.419 255 255 255
-0.946987 -0.305571 1.826 255 255 255
0.00729026 -0.367134 1.017 255 255 255
-0.671123 0.408433 1.286 255 255 255
-0.0043319 -0.363349 1.025 255 255 255
-0.0507904 0.111103 0.392 255 255 255
0.0858356 0.106276 0.453 255 255 255
0.117178 -0.294865 0.93 255 255 255
0.14117 -0.157779 0.981 255 255 255
-0.598427 0.184031 1.659 255 255 255
-0.321612 -0.31321 1.357 255 255 255
0.219317 -0.0943448 0.45 255 255 255
0.199692 -0.352127 0.906 255 255 255
0.194059 -0.0709 0.672 0 0 0
0.112198 -0.290078 0.939 255 255 255
-0.453556 -0.469948 1.403 255 255 255
0.0175789 0.0600126 0.409 255 255 255
-0.0224122 0.0784775 0.45 255 255 255
-0.842168 -0.0525779 1.629 255 255 255
-0.122783 -0.246752 1.205 255 255 255
-0.477862 -0.4099 1.449 255 255 255
-0.895478 -0.563898 1.7 0 0 0
-0.0246644 0.0852573 0.451 255 255 255
-0.518839 0.254042 1.528 255 255 255
0.0697879 0.159241 0.427 0 0 0
-0.951541 -0.292568 1.876 255 255 255
0.212842 0.0235633 0.48 255 255 255
-0.0262065 0.0794055 0.361 0 0 0
-0.193779 -0.0615557 1.359 255 255 255
-0.365789 0.0443328 1.587 255 255 255
-0.0598741 0.0483405 0.406 255 255 255
0.0872066 0.0418822 0.414 255 255 255
-0.836346 -0.403517 1.799 255 255 255
-0.608093 0.206067 1.62 255 255 255
0.220538 -0.0607939 0.451 255 255 255
-0.887714 -0.537215 1.739 0 0 0
0.201313 -0.104788 0.454 0 0 0
0.0212813 0.153362 0.43 255 255 255
0.197235 -0.278251 0.811 0 0 0
0.156066 0.156567 0.441 255 255 255
-0.114759 0.121921 0.462 255 255 255
0.181214 0.0121564 0.669 0 0 0
0.177288 -0.132975 0.952 255 255 255
-0.166644 -0.313029 1.196 255 255 255
0.0280684 0.0923991 0.461 255 255 255
0.17117 0.0265389 0.507 255 255 255
-0.738118 -0.570222 1.616 255 255 255
-0.495259 -0.316205 1.532 255 255 255
-0.350289 0.114062 1.587 255 255 255
-0.780534 -0.260998 1.826 255 255 255
-0.151608 -0.31015 1.185 255 255 255
-0.121303 0.131028 0.442 255 255 255
-0.0724268 -0.335011 1.096 255 255 255
-0.33634 -0.176458 1.449 255 255 255
0.132404 0.128249 0.483 0 0 0
0.180351 0.076737 0.567 255 255 255
0.0287991 0.10635 0.473 255 255 255
-0.414368 -0.0281202 1.595 255 255 255
-0.0408681 0.0721668 0.366 255 255 255
0.00238245 0.0630939 0.43 255 255 255
0.189971 0.154761 0.43 255 255 255
-0.566632 -0.0137188 1.744 255 255 255
0.106099 -0.25624 0.967 255 255 255
-0.475581 -0.433962 1.435 255 255 255
-0.0968838 0.155373 0.406 255 255 255
0.191255 0.0308681 0.497 0 0 0
-0.165706 -0.403566 1.149 255 255 255
0.0060614 -0.199098 1.094 255 255 255
-0.0993914 0.0837737 0.447 255 255 255
-0.0630705 0.0601899 0.397 255 255 255
-0.544149 0.191088 1.65 255 255 255
0.0731784 0.074416 0.439 255 255 255
-0.08731 0.117918 0.464 0 0 0
-0.0526166 0.0694741 0.422 0 0 0
-0.182875 -0.43841 1.128 255 255 255
0.0881883 -0.332197 0.912 255 255 255
-0.146028 0.119071 0.454 0 0 0
-0.0927227 -0.403296 1.083 255 255 255
0.194787 -0.112704 0.667 255 255 255
-0.608604 -0.468781 1.567 255 255 255
0.0393391 0.0357393 0.421 0 0 0
0.0875267 -0.00675652 0.47 255 255 255
-0.828732 -0.442955 1.758 255 255 255
0.204547 0.0865802 0.565 255 255 255
-0.0518323 0.081825 0.372 255 255 255
-0.738118 0.19241 1.616 255 255 255
0.184795 0.104136 0.537 255 255 255
0.0741695 0.0327239 0.409 0 0 0
-0.0794174 -0.400196 1.07 255 255 255
0.140999 0.132912 0.404 255 255 255
0.208111 -0.0569367 0.675 255 255 255
-0.324263 -0.0646279 1.48 255 255 255
-0.702032 0.30905 1.459 255 255 255
0.0495963 0.0751304 0.439 255 255 255
-0.019314 0.0889506 0.364 255 255 255
0.0298816 0.123809 0.478 255 255 255
0.288614 -0.232912 0.75 0 0 0
0.21254 0.147762 0.422 0 0 0
-0.600399 -0.00243436 1.794 255 255 255
0.242048 0.0776822 0.554 255 255 255
0.174365 0.0853315 0.551 255 255 255
0.147968 0.151882 0.422 255 255 255
-0.394504 -0.299597 1.429 255 255 255
0.071508 0.0911287 0.451 255 255 255
-0.575853 -0.256798 1.664 255 255 255
0.173647 0.138753 0.484 255 255 255
0.011295 0.075834 0.423 255 255 255
-0.859038 -0.0562897 1.744 255 255 255
0.215649 -0.223318 0.875 255 255 255
0.18539 -0.227021 0.901 255 255 255
0.211921 -0.0793964 0.461 255 255 255
0.0243055 0.143422 0.447 255 255 255
-0.00473339 -0.180135 1.12 255 255 255
-0.155466 -0.317863 1.185 255 255 255
0.0474127 -0.352071 0.958 255 255 255
0.173152 0.0531521 0.603 255 255 255
-0.13747 0.144671 0.421 255 255 255
0.180637 0.112687 0.52 255 255 255
-0.0776046 0.140987 0.435 255 255 255
-0.862844 -0.0739664 1.633 255 255 255
-0.848969 0.12032 1.637 255 255 255
0.0908138 0.1492 0.409 255 255 255
0.216077 0.116998 0.528 255 255 255
-0.0344805 0.111085 0.381 255 255 255
-0.363799 -0.0795193 1.535 255 255 255
-0.121865 0.152234 0.41 255 255 255
-0.0613488 0.155138 0.416 255 255 255
-0.561243 -0.114166 1.677 255 255 255
0.205633 -0.152786 0.435 0 0 0
-0.00269458 -0.308539 1.037 255 255 255
0.184649 -0.0346674 0.486 0 0 0
0.0430879 0.0221826 0.411 255 255 255
-0.293148 -0.229968 1.348 255 255 255
0.217432 -0.132214 0.925 255 255 255
-0.381834 -0.364353 1.375 255 255 255
-0.876137 -0.0419853 1.865 255 255 255
0.192001 0.145272 0.433 255 255 255
-0.0661242 0.0517368 0.412 255 255 255
0.199692 -0.200268 0.906 255 255 255
-0.952447 -0.282329 1.953 0 0 0
0.204892 0.14393 0.429 255 255 255
0.0848258 -0.00678527 0.472 255 255 255
-0.0234616 0.0889506 0.364 255 255 255
0.210552 -0.318854 0.86 255 255 255
-0.688467 -0.569325 1.563 255 255 255
-0.0965084 -0.142615 1.22 255 255 255
0.0555116 0.132727 0.471 255 255 255
0.200698 -0.117777 0.665 0 0 0
-0.000958823 0.0889714 0.369 255 255 255
0.149382 -0.270456 0.914 255 255 255
0.238276 -0.224907 0.854 255 255 255
0.253699 0.103594 0.548 255 255 255
-0.109288 0.157504 0.403 255 255 255
-0.546622 -0.273323 1.587 255 255 255
0.0506771 -0.00296973 0.476 255 255 255
0.231316 -0.190568 0.875 255 255 255
0.161914 0.0428177 0.624 255 255 255
-0.747132 0.292839 1.473 255 255 255
0.105256 -0.200691 1.004 255 255 255
0.0145529 0.0914843 0.382 255 255 255
0.190446 0.0324857 0.497 0 0 0
-0.095539 0.13294 0.446 255 255 255
-0.034749 0.126727 0.391 255 255 255
0.254636 0.0851913 0.568 0 0 0
0.054054 -0.0644359 0.559 255 255 255
-0.499232 -0.508761 1.403 255 255 255
0.0860662 0.0250998 0.415 255 255 255
-0.877125 -0.636077 1.686 255 255 255
0.168349 -0.261612 0.904 255 255 255
-0.132056 0.110643 0.462 0 0 0
0.214502 -0.332752 0.882 255 255 255
0.171457 0.123737 0.503 255 255 255
-0.372927 -0.313747 1.409 255 255 255
-0.271312 -0.410816 1.257 255 255 255
-0.112145 -0.296916 1.156 255 255 255
-0.132395 0.130604 0.443 255 255 255
0.221514 -0.105329 0.45 255 255 255
-0.35897 -0.446641 1.308 255 255 255
0.0472115 0.162262 0.424 255 255 255
-0.126757 -0.147445 1.244 255 255 255
0.182978 0.133297 0.49 255 255 255
0.032147 -0.00802175 0.455 0 0 0
-0.35456 0.0519492 1.583 255 255 255
-0.107397 0.132344 0.444 255 255 255
0.178356 0.159986 0.429 255 255 255
0.0875825 0.133507 0.436 255 255 255
0.159525 -0.166378 0.957 255 255 255
0.187411 -0.29068 0.82 0 0 0
-0.0157492 0.0861482 0.448 255 255 255
0.0532703 0.0679184 0.434 0 0 0
-0.733933 -0.19509 1.821 255 255 255
-0.0985861 -0.317821 1.13 255 255 255
-0.460418 -0.0891952 1.62 255 255 255
0.00914201 0.047161 0.419 255 255 255
0.0777628 0.0526776 0.425 255 255 255
0.0318757 0.0618373 0.441 0 0 0
0.223162 -0.123758 0.674 0 0 0
0.0767559 0.0625392 0.431 0 0 0
0.106761 -0.0373067 0.523 255 255 255
0.00940202 0.117569 0.401 255 255 255
-0.558359 -0.286958 1.591 255 255 255
0.1181 0.119259 0.416 255 255 255
0.138338 0.136179 0.402 255 255 255
0.255907 0.105185 0.547 255 255 255
0.214404 0.0259067 0.48 255 255 255
-0.472339 0.0527417 1.691 255 255 255
0.202328 -0.284052 0.805 255 255 255
-0.650004 -0.369199 1.646 255 255 255
0.143492 -0.288411 0.905 255 255 255
0.0662757 0.0463682 0.418 255 255 255
-0.00622692 0.0768814 0.445 255 255 255
0.156858 -0.21413 0.941 255 255 255
0.0730923 0.156689 0.422 255 255 255
-0.441733 -0.22835 1.528 255 255 255
-0.116492 0.141869 0.427 255 255 255
-0.963245 -0.215125 1.893 255 255 255
0.173545 0.0447049 0.622 255 255 255
-0.601248 -0.174724 1.682 255 255 255
0.172749 -0.328504 0.867 255 255 255
-0.846778 -0.0666543 1.966 0 0 0
-0.451682 -0.238296 1.528 255 255 255
-0.122358 0.136111 0.433 255 255 255
-0.905568 -0.121996 1.882 0 0 0
-0.67251 -0.316936 1.696 255 255 255
0.0492732 0.132445 0.47 255 255 255
0.130842 -0.0331236 0.538 255 255 255
0.000688717 -0.299874 1.048 255 255 255
-0.517688 -0.520388 1.416 255 255 255
-0.0268668 0.0808537 0.451 255 255 255
0.234997 0.0703408 0.546 255 255 255
0.20197 -0.0836885 0.464 0 0 0
-0.261453 -0.402104 1.249 255 255 255
-0.0409949 0.132214 0.396 255 255 255
0.0999777 0.0696252 0.403 255 255 255
0.17011 0.134641 0.492 0 0 0
-0.211127 0.0142087 1.416 255 255 255
0.0216955 0.0676355 0.399 255 255 255
-0.192731 -0.230218 1.265 255 255 255
-0.0296769 0.048174 0.428 255 255 255
-0.799902 0.246582 1.528 255 255 255
-0.886563 -0.0973932 1.941 255 255 255
0.0560692 0.0862955 0.445 255 255 255
0.213956 -0.129902 0.439 255 255 255
0.2271 0.107752 0.542 255 255 255
-0.956734 -0.286484 1.917 255 255 255
-0.00503266 0.143172 0.407 255 255 255
-0.464954 -0.232499 1.539 255 255 255
0.0397245 -0.308922 1 255 255 255
0.172479 0.0166054 0.506 0 0 0
0.225293 -0.253387 0.847 0 0 0
0.262051 -0.333619 0.873 255 255 255
-0.759677 0.0730612 1.784 255 255 255
0.271934 -0.192972 0.842 255 255 255
-0.659906 -0.140504 1.805 255 255 255
-0.0941385 -0.286137 1.143 255 255 255
0.184329 0.143297 0.473 255 255 255
0.141422 -0.338268 0.874 255 255 255
-0.16996 0.146378 0.42 255 255 255
0.205057 0.150195 0.425 255 255 255
-0.0797631 -0.187547 1.178 255 255 255
0.0122928 -0.339999 1.02 255 255 255
-0.278297 -0.132325 1.406 255 255 255
0.138338 0.137488 0.402 255 255 255
-0.038562 0.0713282 0.442 255 255 255
0.161953 0.122342 0.504 255 255 255
-0.241984 -0.269616 1.286 255 255 255
0.269844 -0.22942 0.811 0 0 0
0.202505 -0.0189661 0.489 255 255 255
-0.663667 0.342851 1.403 255 255 255
0.170137 0.152575 0.444 255 255 255
-0.00893987 0.0625552 0.436 255 255 255
-0.0381869 -0.20358 1.139 255 255 255
-0.511373 -0.326009 1.543 255 255 255
0.222718 -0.0822608 0.448 255 255 255
0.0839195 0.00715985 0.48 255 255 255
0.210106 -0.165854 0.434 0 0 0
0.212904 0.153107 0.416 0 0 0
-0.119134 -0.125679 1.249 255 255 255
0.0964577 0.0629106 0.402 255 255 255
-0.122632 -0.0400887 1.308 255 255 255
0.17892 -0.0278896 0.492 0 0 0
-0.884123 -0.0607438 1.882 255 255 255
-0.476917 -0.449367 1.432 255 255 255
0.0371061 0.0267055 0.419 255 255 255
0.0814082 0.135755 0.441 255 255 255
0.0310361 -0.266094 1.036 255 255 255
-0.85232 -0.575795 1.719 255 255 255
-0.815227 0.12495 1.7 255 255 255
0.0611385 -0.325999 0.978 255 255 255
0.0369362 0.154432 0.433 255 255 255
-0.500027 -0.325164 1.539 255 255 255
-0.0789907 0.0999358 0.451 255 255 255
-0.142836 0.153769 0.407 255 255 255
-0.218175 0.0493242 1.432 255 255 255
0.0701422 0.0177833 0.493 255 255 255
0.0880928 0.0298272 0.415 0 0 0
-0.160506 0.148687 0.415 255 255 255
0.240459 -0.307142 0.847 255 255 255
0.0986657 0.0565089 0.403 255 255 255
0.190175 -0.0276628 0.488 0 0 0
0.206864 -0.11192 0.45 0 0 0
-0.381834 -0.368828 1.375 255 255 255
-0.422573 -0.289055 1.47 255 255 255
-0.00406291 0.0821347 0.446 255 255 255
-0.58727 0.343584 1.406 255 255 255
-0.332194 -0.0701017 1.494 255 255 255
-0.863471 0.0803498 1.753 255 255 255
0.199826 -0.00529399 0.673 255 255 255
-0.813173 -0.386362 1.774 255 255 255
0.169094 -0.253904 0.908 255 255 255
0.0144386 0.0759637 0.379 255 255 255
-0.229252 -0.074804 1.4 255 255 255
0.148755 0.100482 0.527 255 255 255
0.077615 0.0558355 0.428 255 255 255
-0.850339 0.115905 1.65 255 255 255
-0.902874 -0.4839 1.815 255 255 255
0.0609415 0.0160803 0.49 0 0 0
-0.0989154 -0.199026 1.201 255 255 255
0.209665 0.15012 0.419 0 0 0
-0.748394 0.00649313 1.842 255 255 255
0.186267 -0.0398727 0.482 0 0 0
0.219283 -0.0152344 0.472 255 255 255
0.171235 -0.269504 0.896 255 255 255
0.0543293 -0.247791 1.03 255 255 255
-0.960048 -0.27539 1.905 255 255 255
-0.0341319 -0.316617 1.07 255 255 255
0.188159 0.0908761 0.552 255 255 255
-0.191371 0.10856 1.477 255 255 255
-0.169276 0.145694 0.42 255 255 255
0.196588 -0.0893424 0.462 0 0 0
-0.814359 -0.299256 1.842 255 255 255
0.0506548 0.0799595 0.442 255 255 255
0.040613 0.164148 0.42 255 255 255
-0.690483 0.322648 1.435 255 255 255
0.0768326 0.0254025 0.409 255 255 255
0.155652 0.0922444 0.539 0 0 0
-0.787129 0.157507 1.664 255 255 255
0.100331 0.148097 0.421 255 255 255
0.218662 0.0716416 0.578 0 0 0
-0.833929 0.0995176 1.739 255 255 255
0.102705 0.051644 0.406 255 255 255
0.0410808 0.0161631 0.411 255 255 255
0.000663744 -0.374468 1.01 255 255 255
-0.396279 -0.449332 1.348 255 255 255
-0.0307953 -0.0569166 1.213 255 255 255
0.235204 0.0533236 0.467 255 255 255
-0.546779 0.321801 1.463 255 255 255
-0.190829 -0.394397 1.189 255 255 255
-0.0807808 0.148448 0.422 255 255 255
0.16651 0.128179 0.498 0 0 0
-0.275596 -0.192898 1.381 255 255 255
0.194334 0.12505 0.505 255 255 255
-0.0314213 0.0896837 0.367 255 255 255
0.180946 -0.0686047 0.693 0 0 0
0.130842 -0.0304971 0.538 255 255 255
0.0359979 0.0289569 0.422 0 0 0
-0.0145668 -0.357163 1.041 255 255 255
0.0857746 0.151597 0.427 255 255 255
-0.0379278 -0.119642 1.189 255 255 255
0.0488811 -0.0554202 0.542 255 255 255
0.252488 -0.247755 0.802 0 0 0
0.00422972 -0.244228 1.081 255 255 255
-0.045569 0.113365 0.391 255 255 255
-0.160511 0.124273 0.441 255 255 255
-0.659548 0.381686 1.339 255 255 255
-0.317451 -0.438477 1.278 255 255 255
0.135744 -0.160513 0.988 255 255 255
0.00237691 0.0608528 0.429 255 255 255
-0.835531 -0.564606 1.719 255 255 255
-0.0451628 -0.234655 1.128 255 255 255
-0.263157 -0.259329 1.308 255 255 255
0.21139 -0.120483 0.668 255 255 255
0.0529579 -0.28565 1.004 255 255 255
-0.501327 -0.285833 1.543 255 255 255
-0.413687 -0.111492 1.563 255 255 255
0.0248438 0.128895 0.471 0 0 0
0.264057 0.104161 0.551 255 255 255
0.205751 -0.121086 0.446 0 0 0
0.221755 0.0539144 0.479 0 0 0
0.19757 -0.0204312 0.704 0 0 0
-0.180487 0.0253122 1.393 255 255 255
-0.853601 0.0697648 1.774 255 255 255
-0.0587909 -0.293602 1.108 255 255 255
-0.415804 -0.0864974 1.571 255 255 255
-0.0201616 0.130878 0.392 255 255 255
-0.837648 -0.149689 1.923 0 0 0
0.0523599 0.0487563 0.421 255 255 255
0.210676 0.0190339 0.484 255 255 255
0.00921842 -0.284525 1.048 255 255 255
-0.0468003 -0.318112 1.081 255 255 255
-0.0528391 0.112665 0.393 255 255 255
0.231808 -0.256514 0.826 255 255 255
-0.243991 -0.444067 1.203 255 255 255
0.0207712 0.0771866 0.382 0 0 0
-0.684291 -0.332512 1.691 255 255 255
0.208638 -0.043839 0.474 255 255 255
0.191406 0.0925048 0.551 255 255 255
-0.0446645 0.134851 0.4 255 255 255
0.0935389 0.126538 0.434 255 255 255
0.0479002 -0.249235 1.036 255 255 255
0.0772028 -0.315312 0.96 255 255 255
0.0614471 0.14901 0.442 255 255 255
-0.107193 0.156968 0.405 255 255 255
0.0188642 0.0532263 0.408 255 255 255
0.328296 -0.303057 0.832 255 255 255
0.211341 -0.124752 0.441 0 0 0
-0.104918 0.126637 0.452 255 255 255
-0.0294729 0.0734252 0.446 255 255 255
0.0793327 0.154015 0.426 255 255 255
-0.673315 0.397449 1.319 255 255 255
-0.195287 -0.115125 1.339 255 255 255
-0.126153 0.110557 0.468 0 0 0
-0.513633 -0.0734487 1.682 255 255 255
-0.390362 -0.192795 1.484 255 255 255
0.0372343 -0.0277526 0.463 0 0 0
0.20095 0.0441612 0.501 255 255 255
-0.633127 0.192246 1.637 255 255 255
0.189118 0.0263741 0.644 255 255 255
0.21491 0.127196 0.507 255 255 255
0.204147 0.129874 0.469 255 255 255
0.0985309 -0.0354003 0.52 255 255 255
0.242346 -0.254598 0.803 0 0 0
-0.0130786 0.150899 0.41 255 255 255
-0.550854 0.0004702 1.739 255 255 255
0.0715713 -0.248647 1.013 255 255 255
0.236201 -0.19559 0.872 255 255 255
0.206654 0.0732684 0.576 255 255 255
0.0105061 0.0553432 0.419 255 255 255
-0.150298 -0.369676 1.16 255 255 255
0.174471 0.0248888 0.507 0 0 0
0.0727724 -0.20924 1.03 255 255 255
0.191597 0.136199 0.452 255 255 255
-0.120232 -0.368002 1.126 255 255 255
0.0512278 0.0881382 0.447 0 0 0
0.173646 0.0116879 0.507 0 0 0
0.273793 -0.198565 0.831 255 255 255
0.211068 -0.00296973 0.476 255 255 255
0.218051 -0.0175015 0.471 255 255 255
0.113498 -0.252046 0.963 255 255 255
0.037556 0.13388 0.467 255 255 255
-0.258496 -0.219716 1.339 255 255 255
0.0851433 0.0262845 0.487 255 255 255
-0.43589 -0.285906 1.491 255 255 255
-0.432649 0.0704714 1.655 255 255 255
-0.930826 -0.370398 1.853 0 0 0
0.296666 -0.225049 0.791 255 255 255
0.204096 -0.0126 0.489 255 255 255
