ply
format ascii 1.0
comment Created by Open3D
element vertex 1307
property double x
property double y
property double z
property uchar red
property uchar green
property uchar blue
end_header
-0.705074 0.19491 1.637 255 255 255
0.096841 -0.170106 1.114 255 255 255
0.208174 0.134113 0.493 255 255 255
-0.714366 0.279608 1.505 255 255 255
-0.448545 -0.0608229 1.794 0 0 0
-0.164777 0.0177258 1.52 255 255 255
0.297416 -0.244975 0.793 0 0 0
0.234489 0.0143673 0.486 0 0 0
0.401315 -0.252976 0.802 255 255 255
0.261101 -0.0325281 0.67 255 255 255
-0.0589801 0.131409 0.461 255 255 255
-0.390461 0.0724469 1.769 255 255 255
-0.114318 -0.0618332 1.416 255 255 255
-0.0660909 -0.118412 1.327 255 255 255
-0.460484 -0.37142 1.668 255 255 255
0.249152 -0.186099 0.931 255 255 255
-0.683412 -0.516482 1.805 255 255 255
0.123144 -0.178858 1.09 255 255 255
0.250153 0.0918639 0.558 255 255 255
-0.615841 -0.213389 1.905 255 255 255
0.117324 -0.146754 1.102 255 255 255
-0.740207 0.266475 1.528 255 255 255
-0.211085 -0.503918 1.302 0 0 0
0.279391 0.0816315 0.589 0 0 0
-0.0457506 0.0834178 0.449 255 255 255
0.132101 0.00621926 0.468 255 255 255
0.217328 0.16372 0.426 255 255 255
0.130227 -0.328427 0.995 255 255 255
-0.484469 0.249608 1.595 255 255 255
0.363994 -0.140648 0.809 255 255 255
0.29375 -0.155773 0.896 255 255 255
0.271693 -0.251152 0.863 255 255 255
-0.555383 0.450586 1.275 255 255 255
-0.528834 0.122758 1.789 255 255 255
-0.533869 -0.3844 1.739 255 255 255
0.167546 0.129304 0.403 255 255 255
0.273758 -0.170428 0.912 255 255 255
0.195982 0.14839 0.477 0 0 0
-0.249446 0.00565064 1.603 255 255 255
-0.180576 -0.388345 1.327 255 255 255
-0.319941 -0.349819 1.505 255 255 255
0.353977 -0.212068 0.754 0 0 0
0.24529 -0.27411 0.869 255 255 255
0.130973 0.114069 0.446 255 255 255
0.276361 -0.0619451 0.647 255 255 255
0.130783 0.0597191 0.407 0 0 0
0.0840339 -0.171768 1.137 255 255 255
-0.113034 -0.385844 1.249 255 255 255
0.00869863 0.100925 0.371 255 255 255
0.291212 -0.0765191 0.925 255 255 255
0.000879716 0.118517 0.385 255 255 255
0.143523 -0.00633588 0.497 0 0 0
0.209255 -0.132727 1.009 255 255 255
0.0430792 0.0525351 0.596 0 0 0
0.0268507 0.131776 0.389 255 255 255
-0.64242 0.338286 1.432 255 255 255
-0.0653085 0.0117951 1.403 255 255 255
0.148826 -0.00478477 0.504 255 255 255
-0.65737 0.386817 1.357 255 255 255
-0.0472392 0.0898043 1.409 255 255 255
-0.309359 0.000452355 1.673 255 255 255
0.355189 -0.180374 0.816 255 255 255
0.332968 -0.15894 0.858 255 255 255
-0.0519367 0.0670176 1.412 255 255 255
-0.684729 -0.59914 1.763 255 255 255
0.348435 -0.176349 0.822 255 255 255
0.143931 -0.276554 0.989 255 255 255
-0.775043 -0.315545 1.923 255 255 255
0.131769 0.043931 0.408 0 0 0
0.0647836 0.138901 0.466 0 0 0
-0.0101903 0.0823759 1.362 255 255 255
-0.753624 0.16782 1.686 255 255 255
0.191294 0.145449 0.475 0 0 0
-0.107056 0.122356 0.458 0 0 0
-0.0674433 0.157846 0.416 255 255 255
0.0634553 -0.147814 1.167 255 255 255
0.045074 -0.326082 1.09 255 255 255
-0.635722 -0.322359 1.837 255 255 255
-0.856746 -0.459654 1.673 255 255 255
-0.833929 -0.149516 1.739 255 255 255
0.396122 -0.295042 0.821 255 255 255
-0.463956 0.261269 1.587 255 255 255
0.394408 -0.281029 0.823 255 255 255
-0.331527 -0.368402 1.491 255 255 255
-0.612573 -0.249828 1.876 255 255 255
-0.563514 0.472785 1.225 255 255 255
0.0742296 0.0668609 0.441 0 0 0
0.174373 0.146665 0.469 0 0 0
-0.256873 0.148614 1.686 255 255 255
0.337508 -0.206678 0.815 255 255 255
-0.0684896 -0.401692 1.182 255 255 255
-0.560264 -0.595644 1.65 255 255 255
-0.640587 -0.61038 1.714 255 255 255
0.267535 -0.126306 0.937 255 255 255
0.217164 -0.205312 0.957 255 255 255
-0.196225 -0.163873 1.442 255 255 255
-0.671796 0.338994 1.435 255 255 255
-0.88027 -0.240373 1.805 255 255 255
0.0015925 0.155094 0.407 255 255 255
-0.325453 -0.54879 1.412 255 255 255
0.286749 -0.255278 0.785 255 255 255
-0.00127153 -0.0209638 1.31 255 255 255
0.273985 0.086018 0.544 255 255 255
0.16802 0.132578 0.401 255 255 255
0.0537804 0.093602 0.378 255 255 255
-0.369697 0.213477 1.7 255 255 255
0.36846 -0.20267 0.751 0 0 0
0.0437991 -0.111077 1.201 255 255 255
0.149743 0.0914667 0.401 255 255 255
-0.0474132 0.101487 0.458 255 255 255
-0.380135 0.159769 1.748 255 255 255
0.221985 0.161504 0.457 0 0 0
0.286313 -0.203402 0.869 255 255 255
0.152668 -0.043231 0.544 0 0 0
-0.510383 0.240425 1.603 255 255 255
-0.605819 -0.304422 1.837 255 255 255
0.265647 -0.0182171 0.665 255 255 255
0.0727939 0.0639903 0.441 0 0 0
-0.771547 0.252818 1.551 255 255 255
0.115878 0.0860823 0.433 255 255 255
0.0497868 0.0582565 0.595 0 0 0
-0.342924 -0.360726 1.52 255 255 255
0.120072 0.0261226 0.484 255 255 255
0.124545 0.116298 0.449 255 255 255
-0.372141 -0.131241 1.686 255 255 255
-0.530611 -0.182633 1.815 255 255 255
0.287971 -0.12859 0.91 255 255 255
-0.0384668 0.13279 0.458 255 255 255
-0.138001 -0.407759 1.273 255 255 255
-0.842822 0.0569046 1.734 255 255 255
0.246682 0.0338583 0.482 255 255 255
0.0453539 0.0638935 0.426 255 255 255
0.0675112 0.130576 0.48 255 255 255
-0.214514 -0.483565 1.31 255 255 255
0.0873404 0.140559 0.469 255 255 255
-0.451271 -0.240929 1.705 255 255 255
-0.509279 0.37441 1.393 255 255 255
-0.305321 -0.144922 1.595 255 255 255
-0.290498 -0.132515 1.571 255 255 255
-0.724456 0.0168778 1.682 255 255 255
0.0595867 -0.35986 1.064 255 255 255
0.136419 0.0454808 0.41 255 255 255
0.142792 0.0868963 0.398 255 255 255
0.032007 0.139358 0.398 255 255 255
0.138733 0.0974715 0.407 0 0 0
-0.211127 -0.273829 1.416 255 255 255
-0.525649 -0.504425 1.668 255 255 255
-0.518716 0.212053 1.646 255 255 255
-0.513185 -0.0806975 1.848 255 255 255
0.0856644 -0.0313156 0.46 0 0 0
0.247495 -0.162237 0.942 255 255 255
-0.0179668 0.140583 0.415 255 255 255
0.309287 -0.308382 0.878 255 255 255
-0.316447 -0.117611 1.612 255 255 255
0.105562 0.0677779 0.42 255 255 255
-0.519404 0.315907 1.48 255 255 255
-0.917131 -0.138091 1.774 255 255 255
-0.0941066 0.14344 0.436 255 255 255
-0.172411 -0.492434 1.267 255 255 255
-0.712201 0.0369239 1.865 255 255 255
-0.0528158 0.120205 0.473 255 255 255
0.0412967 0.15663 0.42 255 255 255
0.230298 0.0666682 0.601 255 255 255
0.331848 -0.293705 0.848 255 255 255
-0.305631 -0.48352 1.416 255 255 255
0.139096 0.11409 0.412 255 255 255
0.000989395 0.0670572 0.433 255 255 255
0.14318 -0.249874 1.018 255 255 255
-0.468944 -0.402318 1.65 255 255 255
0.129868 0.143594 0.428 255 255 255
-0.616802 0.348332 1.416 255 255 255
0.136881 -0.000643191 0.474 255 255 255
0.142005 0.141021 0.468 0 0 0
-0.576225 0.218166 1.612 255 255 255
-0.29235 -0.345714 1.477 255 255 255
0.244875 0.0699931 0.596 0 0 0
0.244078 -0.279182 0.85 0 0 0
-0.00865365 0.11591 0.391 255 255 255
0.104802 -0.00217668 0.472 255 255 255
0.145817 -0.0468146 0.555 255 255 255
-0.0270452 -0.0704761 1.319 255 255 255
0.138338 0.0557145 0.402 255 255 255
0.125998 -0.302413 1 255 255 255
0.145298 -0.0122146 0.506 0 0 0
-0.565516 0.0311352 1.882 0 0 0
-0.752883 -0.554219 1.748 255 255 255
-0.51624 -0.0600014 1.859 255 255 255
0.279797 -0.214389 0.862 255 255 255
0.37683 -0.183393 0.789 255 255 255
-0.73692 0.174694 1.673 255 255 255
0.344834 -0.242257 0.772 255 255 255
0.273222 0.104524 0.539 255 255 255
-0.349918 -0.310031 1.551 255 255 255
0.368164 -0.20172 0.743 0 0 0
-0.11763 0.109295 1.487 255 255 255
0.304527 -0.340297 0.902 255 255 255
0.226384 0.0120687 0.489 0 0 0
0.0571249 -0.322226 1.083 255 255 255
-0.10812 0.136679 0.444 255 255 255
0.253662 0.104993 0.546 255 255 255
0.127852 0.010881 0.472 255 255 255
0.173605 -0.293703 0.966 255 255 255
-0.580821 0.361586 1.396 255 255 255
-0.416632 -0.442416 1.555 255 255 255
0.243249 -0.0494665 0.678 0 0 0
0.105045 0.155369 0.45 255 255 255
-0.696029 0.0189348 1.887 255 255 255
-0.172562 -0.224848 1.384 255 255 255
-0.434892 -0.538042 1.539 255 255 255
-0.043997 0.153653 0.425 255 255 255
0.177897 -0.319682 0.923 255 255 255
0.0825605 0.0288709 0.411 255 255 255
0.0798705 -0.0482467 0.531 0 0 0
0.254654 -0.255207 0.897 255 255 255
0.0242248 0.0449498 1.305 255 255 255
-0.742637 -0.529403 1.799 255 255 255
0.0583497 0.158685 0.435 255 255 255
0.036064 0.0625392 0.431 255 255 255
0.144364 -0.326999 0.981 255 255 255
-0.661029 0.347348 1.412 255 255 255
-0.245537 0.0773171 1.629 255 255 255
-0.19538 0.0667243 1.567 255 255 255
0.0996659 0.0732533 0.424 255 255 255
-0.460484 -0.317132 1.668 255 255 255
0.122924 0.0580514 0.414 255 255 255
-0.230199 -0.247198 1.449 255 255 255
0.022533 -0.332044 1.116 255 255 255
0.0223996 0.115747 0.378 255 255 255
-0.181914 -0.132565 1.459 255 255 255
0.277321 -0.107662 0.934 255 255 255
0.307825 -0.150468 0.882 255 255 255
0.139761 0.101466 0.418 0 0 0
0.0804695 0.122242 0.469 255 255 255
0.256453 -0.179845 0.93 255 255 255
-0.0810387 0.0659574 1.439 255 255 255
-0.649007 -0.604468 1.729 255 255 255
0.212266 -0.294642 0.867 0 0 0
-0.0673539 -0.369471 1.196 255 255 255
0.121217 0.15088 0.437 255 255 255
0.276411 -0.241584 0.869 255 255 255
0.0826058 0.0436473 0.418 0 0 0
0.181903 -0.276256 0.96 255 255 255
0.249825 0.11659 0.534 255 255 255
0.409779 -0.278251 0.811 255 255 255
0.175081 -0.318249 0.932 255 255 255
-0.715733 -0.0315246 1.637 255 255 255
-0.00763953 -0.0399968 1.305 255 255 255
-0.144257 -0.230479 1.351 255 255 255
0.276133 -0.120822 0.93 255 255 255
-0.274887 -0.420113 1.412 255 255 255
-0.273418 -0.501652 1.359 255 255 255
0.201833 -0.30152 0.909 255 255 255
0.0189674 -0.329589 1.12 255 255 255
-0.59836 0.290173 1.509 255 255 255
-0.615636 0.433033 1.297 255 255 255
0.0197613 0.0729313 0.443 255 255 255
0.281292 -0.224564 0.858 255 255 255
0.128394 0.0147839 0.474 255 255 255
-0.00773012 0.0964219 0.377 255 255 255
-0.054928 -0.372209 1.18 255 255 255
0.108414 0.139625 0.471 0 0 0
-0.5749 -0.231688 1.853 255 255 255
0.00084841 -0.0416686 1.291 255 255 255
0.132448 0.0635647 0.402 0 0 0
0.110874 0.0715343 0.422 255 255 255
-0.828158 -0.373758 1.769 255 255 255
0.0899198 0.044254 0.411 255 255 255
0.27352 0.0756852 0.595 255 255 255
-0.634256 0.187744 1.668 255 255 255
0.122129 -0.344619 0.995 255 255 255
0.146696 -0.189816 1.043 255 255 255
0.234344 0.0303712 0.489 0 0 0
0.241507 0.114206 0.531 255 255 255
-0.403989 -0.258726 1.659 255 255 255
0.188423 -0.305033 0.938 255 255 255
-0.897272 0.131558 1.714 255 255 255
-0.37905 -0.22544 1.633 255 255 255
-0.699574 0.409729 1.324 255 255 255
-0.000436785 0.0909266 0.45 255 255 255
-0.0428514 -0.382644 1.165 255 255 255
-0.238619 -0.168247 1.502 255 255 255
-0.153054 -0.267854 1.351 255 255 255
-0.657473 0.224213 1.599 255 255 255
-0.369397 -0.0352119 1.686 255 255 255
-0.162569 -0.271252 1.357 255 255 255
-0.489581 -0.163055 1.763 255 255 255
0.0578359 0.165107 0.426 255 255 255
0.274986 -0.224083 0.878 255 255 255
-0.11403 -0.335931 1.26 255 255 255
-0.703453 -0.197122 1.959 255 255 255
0.0455159 -0.387465 1.059 255 255 255
-0.0113819 0.0851524 0.376 255 255 255
0.261307 -0.208557 0.91 255 255 255
0.252708 0.127561 0.522 255 255 255
-0.509854 0.156565 1.744 255 255 255
0.136475 0.110193 0.445 255 255 255
-0.206632 0.069628 1.575 255 255 255
-0.785107 -0.300425 1.887 255 255 255
0.0892463 0.138092 0.471 255 255 255
-0.844236 -0.613424 1.633 255 255 255
0.206745 -0.279084 0.938 255 255 255
-0.317156 -0.508867 1.416 255 255 255
0.0347005 0.0903829 0.365 0 0 0
0.046631 0.0658183 0.425 255 255 255
-0.156102 0.125068 1.532 0 0 0
-0.006139 0.125456 0.393 255 255 255
-0.876515 -0.465305 1.664 255 255 255
0.26375 0.0730251 0.597 255 255 255
0.0945563 0.16627 0.429 255 255 255
-0.241473 -0.448663 1.366 255 255 255
-0.0435963 0.115902 0.465 0 0 0
-0.661274 0.267271 1.547 255 255 255
0.191769 -0.304599 0.932 0 0 0
0.0664836 0.143724 0.462 0 0 0
0.0548995 -0.197544 1.147 255 255 255
-0.675041 0.3824 1.357 255 255 255
-0.510048 -0.115395 1.826 255 255 255
-0.303547 -0.361557 1.473 255 255 255
-0.43182 0.293958 1.555 255 255 255
-0.591973 0.39181 1.359 255 255 255
0.245656 -0.18842 0.935 255 255 255
0.0452474 0.161261 0.425 255 255 255
-0.383213 0.325413 1.513 255 255 255
-0.0758737 0.125789 0.468 255 255 255
-0.00290505 -0.378123 1.118 255 255 255
0.385169 -0.171844 0.801 255 255 255
0.124821 0.0458103 0.407 255 255 255
0.086049 -0.292239 1.07 255 255 255
0.229708 0.0408827 0.491 0 0 0
0.167805 0.139154 0.472 0 0 0
0.360916 -0.151117 0.823 255 255 255
0.22053 0.163427 0.448 255 255 255
0.15744 0.143604 0.399 255 255 255
0.0448779 -0.160709 1.178 255 255 255
0.302485 -0.172843 0.879 255 255 255
0.221189 0.0397647 0.497 0 0 0
0.228141 0.159034 0.465 255 255 255
-0.521395 0.340647 1.452 255 255 255
-0.0575404 -0.0131106 1.381 255 255 255
0.234847 -0.281944 0.867 255 255 255
-0.522334 0.394891 1.362 255 255 255
0.115054 -0.032988 0.522 0 0 0
0.101515 0.129999 0.464 255 255 255
-0.397208 0.156924 1.748 255 255 255
0.071441 -0.334357 1.06 255 255 255
0.284525 -0.352309 0.918 255 255 255
0.271334 0.0884066 0.537 255 255 255
0.169485 -0.12966 1.037 255 255 255
0.135421 0.0511089 0.407 255 255 255
-0.0384443 -0.158793 1.27 255 255 255
-0.410091 0.294714 1.559 255 255 255
0.275384 -0.2508 0.857 0 0 0
-0.576761 -0.220337 1.859 255 255 255
-0.0351366 0.0679409 1.384 255 255 255
0.0362314 0.0649433 0.433 255 255 255
0.0479017 0.0635935 0.424 255 255 255
-0.723983 0.347955 1.396 255 255 255
-0.764646 -0.373132 1.882 255 255 255
-0.838198 -0.563364 1.642 255 255 255
0.223156 0.0679391 0.595 255 255 255
-0.409398 -0.494412 1.528 255 255 255
-0.689561 0.119327 1.739 255 255 255
0.218265 -0.21887 0.955 255 255 255
-0.158011 -0.203248 1.375 255 255 255
0.0173047 -0.0470051 1.265 255 255 255
0.0757889 0.13081 0.478 0 0 0
0.196932 0.126602 0.495 255 255 255
-0.559675 0.170607 1.714 255 255 255
0.1544 -0.0541512 0.547 255 255 255
-0.777101 -0.417572 1.784 255 255 255
0.127877 -0.160381 1.085 255 255 255
0.230835 0.0320281 0.49 255 255 255
0.0338522 -0.282882 1.13 255 255 255
-0.0358721 0.131226 0.463 0 0 0
-0.389218 -0.279007 1.62 255 255 255
0.256449 0.0989607 0.552 255 255 255
-0.424181 0.32642 1.484 255 255 255
-0.519054 0.196474 1.673 0 0 0
-0.792479 -0.352151 1.935 255 255 255
-0.0554753 0.108574 0.476 0 0 0
0.188823 -0.306827 0.925 255 255 255
0.244619 -0.116187 0.967 255 255 255
-0.0155883 -0.418466 1.114 255 255 255
0.206646 0.128437 0.499 255 255 255
-0.71411 -0.425529 1.87 255 255 255
-0.769883 0.247144 1.563 255 255 255
-0.147457 0.0498818 1.52 255 255 255
0.140277 -0.0312291 0.521 0 0 0
-0.476115 -0.120275 1.81 255 255 255
0.145135 -0.0543492 0.549 0 0 0
-0.0454958 -0.0283408 1.357 255 255 255
0.0684199 0.0384317 0.436 255 255 255
0.411403 -0.309161 0.809 255 255 255
0.236954 0.154516 0.472 255 255 255
-0.107877 -0.33388 1.26 255 255 255
-0.575233 -0.553767 1.686 255 255 255
-0.0770653 -0.144652 1.33 255 255 255
0.250627 0.0497985 0.61 255 255 255
0.149373 0.0281063 0.43 255 255 255
-0.824018 -0.474571 1.748 255 255 255
0.125981 0.0769096 0.429 0 0 0
0.291022 -0.20457 0.862 255 255 255
0.186008 -0.278508 0.957 255 255 255
-0.723603 -0.656919 1.719 0 0 0
0.320999 -0.147174 0.871 255 255 255
-0.814849 0.14474 1.705 255 255 255
-0.18223 -0.467593 1.278 255 255 255
0.208088 0.0690536 0.588 0 0 0
-0.728611 -0.0636858 1.642 255 255 255
-0.0498322 -0.328599 1.196 255 255 255
-0.478583 0.324001 1.473 255 255 255
-0.443693 -0.371878 1.646 255 255 255
0.130599 -0.0262425 0.523 0 0 0
-0.808027 0.176886 1.668 255 255 255
-0.769776 -0.408235 1.794 255 255 255
0.0208799 0.126332 0.384 255 255 255
-0.009495 0.0846994 0.374 255 255 255
-0.721062 0.19491 1.637 255 255 255
-0.060471 0.14702 0.434 255 255 255
-0.0804446 0.124266 0.468 255 255 255
-0.0509507 0.112559 0.47 0 0 0
-0.200959 -0.00210462 1.551 255 255 255
0.254951 -0.066518 0.532 255 255 255
-0.408589 0.14839 1.748 255 255 255
-0.598318 0.274823 1.547 255 255 255
-0.0448336 0.0731535 0.44 0 0 0
0.120168 0.134453 0.469 0 0 0
-0.0608992 0.120968 0.476 255 255 255
0.0648446 0.0578649 0.591 0 0 0
0.0836484 0.163264 0.434 255 255 255
-0.00832474 0.144802 0.406 255 255 255
-0.446116 0.158946 1.739 255 255 255
0.0547893 -0.109598 1.185 255 255 255
0.136463 -0.038234 0.536 255 255 255
-0.681135 -0.271734 1.923 255 255 255
0.16748 -0.250706 0.995 255 255 255
-0.447886 0.0388876 1.815 255 255 255
0.00326339 0.0973023 0.371 255 255 255
0.143163 0.138198 0.418 255 255 255
-0.30805 -0.505273 1.406 255 255 255
0.127243 -0.332332 0.997 255 255 255
-0.0800814 0.018897 1.422 255 255 255
0.151111 0.0244359 0.427 255 255 255
-0.74824 -0.0966498 1.705 255 255 255
0.370256 -0.313662 0.835 255 255 255
-0.883104 0.0548314 1.758 0 0 0
0.0154346 0.102489 0.443 255 255 255
-0.70216 0.406006 1.333 255 255 255
-0.00110943 -0.351238 1.143 255 255 255
0.0938465 0.0200556 0.471 255 255 255
-0.0247692 -0.263092 1.208 255 255 255
-0.0292586 -0.0684851 1.322 255 255 255
-0.136508 -0.0446247 1.456 255 255 255
-0.887427 -0.118727 1.744 255 255 255
-0.173112 -0.12659 1.445 255 255 255
0.330504 -0.211642 0.824 255 255 255
-0.635527 0.210818 1.616 255 255 255
0.255975 -0.136611 0.945 255 255 255
0.0305216 0.104829 0.372 255 255 255
-0.807397 -0.441213 1.774 255 255 255
0.0189652 0.103943 0.371 255 255 255
0.378864 -0.301793 0.836 255 255 255
-0.0579694 0.152628 0.426 255 255 255
0.252095 0.0591377 0.604 255 255 255
0.305238 -0.145548 0.887 255 255 255
-0.0681962 -0.291879 1.247 255 255 255
0.307825 -0.15621 0.882 255 255 255
-0.434881 -0.0399367 1.774 255 255 255
0.279878 -0.195063 0.889 255 255 255
-0.719901 -0.566942 1.779 0 0 0
0.0507039 0.0972928 0.378 255 255 255
-0.797429 -0.417572 1.784 255 255 255
0.258292 0.0857912 0.572 255 255 255
-0.0618954 0.127526 0.466 255 255 255
0.15592 -0.25134 1.004 255 255 255
0.152893 0.0799723 0.399 255 255 255
0.32698 -0.223424 0.799 255 255 255
-0.00191026 0.0935374 0.452 255 255 255
0.00541126 0.0870712 0.449 255 255 255
-0.806105 -0.135892 1.71 255 255 255
0.0830504 -0.132445 1.149 255 255 255
-0.436946 -0.590765 1.52 255 255 255
0.0356891 0.143076 0.403 255 255 255
-0.43993 -0.416944 1.603 255 255 255
-0.330645 -0.367693 1.498 255 255 255
0.087162 -0.0245785 0.46 255 255 255
0.272352 -0.0960807 0.65 0 0 0
0.0747775 0.0659932 0.44 0 0 0
-0.67786 -0.290891 1.905 255 255 255
0.126059 -0.204018 1.055 255 255 255
0.0811414 0.0371662 0.414 255 255 255
-0.726297 0.0596985 1.655 255 255 255
-0.280327 -0.238892 1.516 255 255 255
0.201996 -0.202619 0.974 255 255 255
0.248677 0.0391978 0.615 255 255 255
-0.47043 0.328125 1.47 255 255 255
0.135196 -0.163846 1.073 255 255 255
-0.0551419 0.14951 0.431 255 255 255
0.307503 -0.296807 0.861 255 255 255
0.0592982 -0.175243 1.16 255 255 255
-0.165385 -0.261169 1.362 255 255 255
-0.648231 0.000508865 1.882 255 255 255
0.239863 -0.0203998 0.549 255 255 255
0.224113 0.0249023 0.491 0 0 0
0.0404853 -0.202018 1.162 255 255 255
0.127819 0.163076 0.419 255 255 255
-0.676858 0.151082 1.714 255 255 255
0.0870314 0.0374743 0.41 255 255 255
0.0462739 0.100103 0.377 255 255 255
0.289758 -0.0935803 0.93 255 255 255
0.149225 0.0231364 0.442 255 255 255
-0.514854 -0.435789 1.686 255 255 255
0.169821 -0.33811 0.904 255 255 255
-0.515034 0.176186 1.714 255 255 255
-0.0480823 -0.441003 1.154 255 255 255
0.30362 -0.0833186 0.917 255 255 255
0.110579 0.129244 0.464 255 255 255
0.348669 -0.295091 0.852 255 255 255
-0.339176 -0.0994417 1.659 255 255 255
-0.773955 0.225113 1.587 255 255 255
0.00643538 0.115122 0.38 255 255 255
-0.76856 0.00314831 1.659 255 255 255
-0.686467 -0.218094 1.947 255 255 255
0.360916 -0.155135 0.823 255 255 255
-0.088066 0.0238063 1.439 255 255 255
-0.124339 0.141695 0.435 255 255 255
0.231085 0.023663 0.656 255 255 255
0.205613 -0.240375 0.954 255 255 255
0.246662 -0.0395102 0.697 255 255 255
-0.358036 -0.556563 1.432 255 255 255
-0.186483 -0.254678 1.387 255 255 255
-0.533317 -0.405816 1.71 255 255 255
0.138752 -0.252519 1.022 255 255 255
-0.0420058 0.0670572 0.433 0 0 0
-0.732153 -0.305512 1.959 255 255 255
0.148125 0.150598 0.411 255 255 255
0.0346414 -0.405374 1.043 255 255 255
-0.0564613 0.139785 0.447 255 255 255
0.0830058 -0.382323 0.992 255 255 255
0.227773 0.0345608 0.492 255 255 255
-0.0417136 0.0272821 1.378 255 255 255
-0.674003 0.231439 1.595 255 255 255
-0.650401 -0.535097 1.779 255 255 255
0.0578547 -0.35986 1.064 255 255 255
-0.891986 -0.230791 1.799 255 255 255
-0.563892 0.391605 1.366 255 255 255
-0.0149336 0.0569296 0.406 255 255 255
-0.00112205 -0.304441 1.156 255 255 255
0.00626603 0.0976421 0.37 255 255 255
0.106329 0.0317667 0.486 0 0 0
0.14988 0.132834 0.414 255 255 255
0.0801414 0.160492 0.438 255 255 255
-0.782298 -0.274277 1.941 255 255 255
-0.11892 0.0267659 1.473 255 255 255
0.0525638 0.156201 0.434 0 0 0
0.132856 0.0983169 0.422 0 0 0
-0.840975 -0.580296 1.637 255 255 255
0.167802 -0.292577 0.978 255 255 255
-0.657705 0.235443 1.587 255 255 255
0.264851 -0.197142 0.912 255 255 255
0.204618 0.126253 0.5 255 255 255
0.0880492 0.0538507 0.418 0 0 0
-0.771854 0.242676 1.567 255 255 255
-0.00103678 0.140358 0.399 255 255 255
-0.366066 -0.0161011 1.696 255 255 255
-0.618664 0.272692 1.535 255 255 255
-0.513561 0.314346 1.484 255 255 255
0.257066 -0.20695 0.916 0 0 0
-0.363101 0.236953 1.633 255 255 255
-0.319679 -0.401488 1.47 255 255 255
0.303852 -0.333685 0.9 255 255 255
-0.888486 0.0865461 1.763 255 255 255
-0.462658 0.00639795 1.815 255 255 255
-0.77172 -0.113895 1.714 255 255 255
-0.0411102 0.14951 0.431 255 255 255
-0.0315443 0.15642 0.425 255 255 255
-0.853488 -0.226126 1.882 255 255 255
0.301546 -0.202695 0.86 255 255 255
-0.78826 -0.58937 1.655 255 255 255
0.061321 0.161434 0.431 255 255 255
0.130157 0.010881 0.472 255 255 255
0.108449 -0.204522 1.085 255 255 255
-0.431581 0.0775399 1.821 255 255 255
0.181664 0.134824 0.398 255 255 255
0.229851 -0.00920511 0.478 0 0 0
-0.636441 0.376871 1.369 255 255 255
-0.761194 -0.146751 1.774 255 255 255
-0.553315 -0.441276 1.729 255 255 255
-0.441258 -0.55413 1.535 255 255 255
0.281864 -0.0849628 0.638 255 255 255
-0.060703 -0.245711 1.26 255 255 255
-0.550501 -0.418767 1.729 255 255 255
0.0440517 0.104334 0.379 255 255 255
0.0674784 0.0246076 0.43 255 255 255
0.0730917 0.0347773 0.426 255 255 255
0.277959 -0.354959 0.921 255 255 255
0.220788 -0.152834 0.98 255 255 255
-0.0470078 -0.159793 1.278 255 255 255
0.363161 -0.159712 0.819 255 255 255
-0.0366528 0.134586 0.454 255 255 255
0.208445 0.139106 0.488 255 255 255
-0.783385 -0.0820972 1.691 0 0 0
-0.89486 0.100319 1.753 0 0 0
-0.797535 0.0196616 1.686 255 255 255
0.107613 -0.0347534 0.523 0 0 0
0.130954 0.157156 0.427 255 255 255
0.115682 -0.0303813 0.521 0 0 0
-0.808796 -0.582068 1.642 255 255 255
0.216504 -0.126281 0.997 255 255 255
-0.528364 -0.512568 1.668 255 255 255
-0.0125725 0.0812644 0.375 255 255 255
0.240117 0.147113 0.483 255 255 255
-0.526753 -0.290502 1.753 255 255 255
-0.104533 0.108266 1.473 255 255 255
-0.271339 -0.363334 1.442 255 255 255
-0.01652 -0.0126834 1.336 255 255 255
0.140141 0.0735712 0.396 255 255 255
-0.273719 -0.432056 1.406 255 255 255
-0.0314046 -0.231161 1.237 255 255 255
0.0433751 0.0647383 0.427 255 255 255
-0.459047 -0.505775 1.579 255 255 255
-0.768881 -0.369399 1.848 255 255 255
0.239426 0.144665 0.488 255 255 255
0.11877 -0.349125 0.994 255 255 255
-0.621877 0.312918 1.466 255 255 255
0.216856 0.0644968 0.599 0 0 0
0.0867818 0.142693 0.466 255 255 255
-0.81078 -0.518335 1.714 255 255 255
0.0838021 0.153172 0.45 255 255 255
-0.0405589 0.115598 1.416 255 255 255
0.204208 0.124555 0.503 255 255 255
-0.12886 0.0196279 1.477 255 255 255
-0.681086 0.420369 1.297 255 255 255
0.14102 -0.337191 0.969 0 0 0
0.184362 -0.34095 0.896 255 255 255
-0.438412 -0.412754 1.607 255 255 255
-0.290344 -0.218037 1.543 255 255 255
-0.143262 -0.392171 1.283 255 255 255
-0.629865 0.228843 1.595 255 255 255
-0.00517744 0.0831914 0.37 255 255 255
-0.0212927 -0.421889 1.128 255 255 255
-0.540358 -0.289021 1.779 255 255 255
-0.877504 0.00885693 1.719 255 255 255
0.245514 -0.275259 0.855 255 255 255
0.230507 0.14076 0.491 255 255 255
-0.041022 -0.135681 1.286 255 255 255
-0.0031571 -0.203324 1.215 255 255 255
0.148546 -0.317716 0.977 255 255 255
-0.596838 -0.236223 1.865 255 255 255
-0.744828 0.22568 1.591 255 255 255
-0.0029934 -0.325883 1.152 255 255 255
-0.404639 -0.293811 1.629 255 255 255
0.251803 0.108634 0.542 255 255 255
-0.594455 0.363858 1.396 255 255 255
0.236997 -0.27235 0.891 255 255 255
0.222359 0.0372632 0.496 0 0 0
0.0068118 0.0964338 0.445 255 255 255
0.207131 0.0690536 0.588 0 0 0
0.1994 -0.157357 1.009 255 255 255
-0.00315734 0.0529925 0.422 255 255 255
0.128808 0.162781 0.42 255 255 255
-0.739302 0.0832783 1.642 255 255 255
0.252552 -0.161548 0.938 255 255 255
-0.0306476 0.13894 0.442 0 0 0
-0.491966 0.330517 1.47 255 255 255
0.0132329 -0.383867 1.098 255 255 255
0.216504 -0.129526 0.997 255 255 255
-0.725352 0.00044857 1.659 0 0 0
0.141803 0.140919 0.418 255 255 255
-0.800693 -0.49875 1.753 255 255 255
-0.0783218 0.108135 0.488 0 0 0
-0.747353 -0.252183 1.991 255 255 255
0.17302 0.129638 0.402 255 255 255
-0.648231 0.0188847 1.882 255 255 255
-0.796282 -0.249801 1.899 255 255 255
0.1789 0.13597 0.477 0 0 0
-0.717005 -0.575628 1.779 0 0 0
0.01442 0.0863433 0.363 255 255 255
0.0815036 -0.266603 1.079 255 255 255
0.358538 -0.1936 0.794 255 255 255
0.00868382 0.145187 0.398 255 255 255
-0.00879634 0.0755134 0.429 255 255 255
-0.161491 -0.306745 1.348 255 255 255
0.221723 0.162697 0.446 255 255 255
0.295258 -0.206413 0.858 255 255 255
0.0138582 0.116977 0.38 255 255 255
-0.730247 0.17917 1.664 255 255 255
-0.104533 0.132236 1.473 255 255 255
0.06814 -0.276416 1.09 255 255 255
0.143371 0.108731 0.407 255 255 255
0.0258153 0.108436 0.374 255 255 255
0.0421874 -0.386835 1.062 255 255 255
0.11478 0.040014 0.402 0 0 0
0.014912 0.0432985 0.428 255 255 255
-0.0489989 -0.365206 1.176 255 255 255
-0.141173 -0.396347 1.283 255 255 255
-0.00215429 0.0833406 0.368 255 255 255
0.359636 -0.224041 0.753 255 255 255
0.0476185 0.0919312 0.434 255 255 255
-0.533405 0.201828 1.65 255 255 255
0.0940767 0.0798879 0.43 0 0 0
-0.822238 -0.276919 1.853 255 255 255
0.257065 -0.0715777 0.531 255 255 255
0.0173745 0.086934 0.363 255 255 255
0.112485 0.000895721 0.472 255 255 255
-0.566244 0.298604 1.502 255 255 255
-0.830499 -0.415231 1.774 255 255 255
-0.0156713 0.0558821 0.408 255 255 255
0.0527932 0.0717076 0.419 255 255 255
-0.489249 -0.117653 1.815 255 255 255
0.166773 -0.0319538 0.519 255 255 255
-0.711326 -0.0473922 1.633 255 255 255
-0.779629 0.172382 1.677 255 255 255
-0.727405 0.0274759 1.842 255 255 255
0.327821 -0.215665 0.824 255 255 255
0.0207728 0.058737 0.434 255 255 255
-0.406183 -0.507798 1.516 255 255 255
-0.86568 -0.511338 1.664 255 255 255
-0.716667 0.0306554 1.853 0 0 0
-0.00394448 0.0741036 0.433 255 255 255
-0.260861 0.0538854 1.642 0 0 0
-0.791223 0.141216 1.696 255 255 255
0.0649007 0.0463592 0.451 0 0 0
0.180341 -0.273132 0.96 255 255 255
0.354528 -0.144299 0.83 0 0 0
0.149548 0.102013 0.404 255 255 255
0.226466 -0.258658 0.925 255 255 255
-0.730646 -0.59914 1.763 0 0 0
-0.601471 -0.302253 1.842 255 255 255
0.135838 0.141546 0.455 0 0 0
-0.759361 -0.354335 1.947 0 0 0
-0.112646 0.158437 0.423 255 255 255
-0.506563 0.251571 1.591 255 255 255
-0.77144 0.0823243 1.677 255 255 255
-0.842005 -0.359962 1.744 255 255 255
0.158739 0.139708 0.399 255 255 255
-0.080486 0.158906 0.41 255 255 255
0.166969 -0.316626 0.964 255 255 255
0.228855 0.0435726 0.635 255 255 255
0.31179 -0.136771 0.877 255 255 255
-0.804134 -0.38888 1.799 255 255 255
0.0231185 -0.268004 1.145 255 255 255
0.31391 -0.159931 0.871 255 255 255
0.253417 -0.0530056 0.667 0 0 0
0.165621 0.144829 0.468 0 0 0
0.134328 0.082087 0.438 255 255 255
0.113804 0.15506 0.447 0 0 0
-0.050648 -0.213749 1.265 255 255 255
0.137853 -0.0198582 0.512 255 255 255
-0.474749 -0.546433 1.563 255 255 255
-0.545284 0.332793 1.459 255 255 255
-0.0743744 0.116459 0.483 255 255 255
0.219567 0.141488 0.488 255 255 255
-0.0754772 -0.261509 1.267 255 255 255
0.141723 -0.0130123 0.505 0 0 0
0.177916 -0.00512654 0.54 0 0 0
0.105487 0.0639008 0.417 255 255 255
-0.897095 0.0722012 1.763 255 255 255
-0.857527 0.191776 1.633 255 255 255
0.263123 -0.227021 0.901 255 255 255
-0.386087 -0.535953 1.505 255 255 255
-0.362605 0.232065 1.655 255 255 255
-0.122358 0.145976 0.433 255 255 255
0.26468 -0.357272 0.927 255 255 255
0.110372 0.101538 0.442 255 255 255
0.0325896 0.0977132 0.368 255 255 255
-0.402969 -0.359452 1.591 255 255 255
-0.109816 0.130892 0.454 255 255 255
-0.579787 -0.223362 1.859 255 255 255
0.0931238 -0.12529 1.135 255 255 255
-0.4903 -0.297616 1.696 255 255 255
-0.618956 0.423418 1.313 0 0 0
0.0180216 0.154608 0.404 255 255 255
0.103803 0.0558949 0.413 255 255 255
0.0880478 0.150507 0.453 255 255 255
-0.799901 -0.0628345 1.691 255 255 255
0.0091521 0.086819 0.365 0 0 0
0.338013 -0.325767 0.871 255 255 255
-0.0094421 -0.12288 1.262 255 255 255
0.108434 0.150431 0.455 255 255 255
-0.0542463 0.153982 0.424 255 255 255
0.27117 -0.0363388 0.66 255 255 255
0.175104 -0.309655 0.957 255 255 255
0.374782 -0.307235 0.836 255 255 255
-0.815896 0.171971 1.673 255 255 255
0.0838371 0.0405348 0.414 0 0 0
0.136617 0.0834477 0.397 0 0 0
0.306618 -0.239541 0.814 255 255 255
-0.090105 0.128598 0.459 255 255 255
-0.811672 -0.133109 1.71 255 255 255
0.273381 -0.0467225 0.655 255 255 255
-0.175867 0.156771 1.575 255 255 255
0.12281 0.143743 0.448 255 255 255
0.100474 0.0429489 0.405 255 255 255
-0.288419 -0.2646 1.494 255 255 255
-0.464588 -0.29358 1.673 255 255 255
-0.489976 0.165992 1.724 255 255 255
0.0174499 0.157355 0.406 255 255 255
0.194262 -0.217289 0.983 255 255 255
0.151049 0.0914667 0.401 255 255 255
0.256321 -0.0797654 0.655 255 255 255
0.34729 -0.205221 0.789 255 255 255
0.114061 0.142848 0.469 255 255 255
-0.539449 0.45626 1.262 255 255 255
0.219583 -0.307979 0.857 255 255 255
-0.352218 -0.479122 1.466 255 255 255
0.0439755 0.0582565 0.595 0 0 0
0.137302 0.151554 0.423 255 255 255
-0.785813 -0.414669 1.784 255 255 255
-0.557578 -0.592959 1.65 255 255 255
0.0204993 0.1136 0.377 255 255 255
-0.0122798 0.0266881 1.348 255 255 255
-0.678731 0.275697 1.524 255 255 255
0.186267 0.133474 0.482 255 255 255
0.000293099 0.0857636 0.446 255 255 255
-0.779003 0.0221129 1.664 255 255 255
0.115173 0.0180955 0.48 255 255 255
0.0767559 0.0562268 0.431 255 255 255
-0.364747 -0.372748 1.539 255 255 255
0.0831127 0.137326 0.471 255 255 255
-0.637223 -0.612725 1.705 255 255 255
-0.283911 0.183046 1.7 255 255 255
-0.408394 -0.4842 1.543 255 255 255
-0.351046 -0.0513981 1.677 255 255 255
0.132743 0.0170619 0.473 255 255 255
-0.000397959 0.158906 0.41 255 255 255
0.322438 -0.296476 0.856 255 255 255
-0.728165 -0.650697 1.71 255 255 255
-0.643378 -0.601654 1.729 255 255 255
-0.00346372 0.0524219 1.333 255 255 255
0.0479531 0.0888499 0.371 0 0 0
-0.157631 0.083495 1.547 255 255 255
-0.417189 0.106526 1.81 255 255 255
0.238986 0.141847 0.492 255 255 255
0.201053 -0.303983 0.886 0 0 0
-0.0669597 -0.386657 1.189 255 255 255
-0.747192 -0.551374 1.748 255 255 255
0.0260709 0.101582 0.369 255 255 255
0.168668 -0.172699 1.032 255 255 255
-0.0518322 -0.274982 1.244 255 255 255
0.00102139 0.0866834 0.447 255 255 255
-0.041166 -0.346503 1.171 255 255 255
0.238992 0.0428742 0.64 0 0 0
0.154729 -0.293365 0.986 255 255 255
-0.0465815 0.142859 0.443 255 255 255
-0.609896 0.167818 1.714 255 255 255
-0.120919 0.136257 0.438 255 255 255
-0.289866 0.0327662 1.655 255 255 255
-0.0268272 0.0904485 0.427 0 0 0
-0.0518921 -0.0699874 1.351 255 255 255
-0.175434 -0.316924 1.354 255 255 255
0.122664 0.142081 0.464 0 0 0
0.370062 -0.286467 0.847 255 255 255
-0.0483661 0.160168 0.415 255 255 255
0.132092 0.0460354 0.409 255 255 255
-0.00995198 0.116206 0.392 255 255 255
-0.0346069 -0.128899 1.281 255 255 255
-0.023662 -0.37152 1.154 255 255 255
0.148808 0.099545 0.402 255 255 255
0.202238 -0.130213 1.015 255 255 255
0.255574 -0.12407 0.955 255 255 255
0.0740977 0.0597172 0.436 0 0 0
0.036265 0.101538 0.442 255 255 255
-0.0871604 0.137402 0.444 255 255 255
-0.794169 -0.299958 1.865 255 255 255
-0.0188372 0.067552 0.391 255 255 255
0.14898 -0.049078 0.55 255 255 255
-0.667776 0.110492 1.779 255 255 255
-0.413332 -0.07048 1.744 255 255 255
-0.619974 0.361512 1.387 255 255 255
-0.148325 -0.278228 1.348 255 255 255
-0.711066 0.0157211 1.87 0 0 0
0.243647 -0.14146 0.957 255 255 255
-0.70724 0.0188245 1.876 255 255 255
-0.0365721 0.101853 0.453 255 255 255
-0.449367 0.0567963 1.821 255 255 255
0.138398 -0.31679 0.984 255 255 255
0.126808 0.045148 0.407 0 0 0
0.298247 -0.156529 0.892 255 255 255
-0.0205102 -0.0551987 1.313 255 255 255
0.253484 0.0692548 0.598 0 0 0
-0.44572 -0.207634 1.705 255 255 255
-0.0789577 0.149512 0.427 255 255 255
0.221608 0.0160475 0.489 0 0 0
0.160354 -0.260987 0.991 255 255 255
0.130534 -0.255979 1.036 255 255 255
-0.555168 0.00669406 1.899 255 255 255
-0.342039 -0.0240503 1.673 255 255 255
-0.023744 -0.367154 1.158 255 255 255
-0.81952 -0.465878 1.769 255 255 255
-0.319621 -0.231787 1.551 255 255 255
-0.624286 -0.608161 1.7 255 255 255
0.352177 -0.219236 0.745 255 255 255
-0.0386228 -0.397121 1.152 255 255 255
-0.847319 -0.312181 1.779 255 255 255
-0.284081 -0.463771 1.412 255 255 255
-0.670764 -0.143438 1.966 255 255 255
-0.609013 -0.59845 1.696 255 255 255
-0.109924 0.142782 0.434 255 255 255
-0.00857079 0.0504496 0.418 255 255 255
-0.775616 -0.446187 1.794 255 255 255
-0.0745365 0.141098 0.442 255 255 255
-0.4903 -0.294856 1.696 255 255 255
0.133332 -0.321627 0.994 255 255 255
-0.436068 0.0595628 1.815 255 255 255
-0.227499 -0.269932 1.432 255 255 255
0.0630476 -0.298794 1.094 255 255 255
-0.00738781 -0.104397 1.262 255 255 255
-0.568012 -0.368218 1.784 255 255 255
0.238276 -0.306901 0.854 255 255 255
-0.00325844 -0.154752 1.254 255 255 255
0.11173 0.0213084 0.482 0 0 0
-0.46467 0.340647 1.452 255 255 255
0.275513 -0.0456566 0.655 255 255 255
0.0443527 0.0521339 1.273 255 255 255
-0.712201 0.021749 1.865 0 0 0
0.145147 0.00603321 0.454 255 255 255
-0.821123 -0.476471 1.724 255 255 255
-0.892852 -0.174194 1.789 255 255 255
-0.535157 0.158489 1.734 255 255 255
-0.23204 0.026321 1.591 255 255 255
0.134204 0.102994 0.433 0 0 0
0.332241 -0.175159 0.842 255 255 255
0.0136426 -0.322068 1.132 255 255 255
0.0381858 -0.333228 1.096 255 255 255
-0.571643 0.0188847 1.882 0 0 0
-0.592075 0.354241 1.412 255 255 255
0.118582 0.120601 0.457 255 255 255
0.223779 -0.230483 0.939 0 0 0
-0.668384 -0.00870209 1.887 255 255 255
-0.408891 0.0178009 1.774 255 255 255
0.370125 -0.284079 0.844 255 255 255
0.397459 -0.304394 0.821 255 255 255
0.208415 -0.220046 0.967 255 255 255
0.383637 -0.163735 0.806 255 255 255
-0.315041 -0.325327 1.505 255 255 255
-0.580895 0.162713 1.719 255 255 255
0.0195786 0.12538 0.383 255 255 255
0.0745853 0.020266 1.225 255 255 255
0.0366293 0.128964 0.392 255 255 255
-0.71411 -0.575628 1.779 0 0 0
-0.170122 -0.373564 1.313 255 255 255
0.0834388 0.104571 0.452 255 255 255
-0.66087 -0.567215 1.753 255 255 255
-0.618328 -0.346221 1.821 255 255 255
-0.743049 0.290196 1.484 255 255 255
0.228324 -0.0030134 0.483 0 0 0
0.240796 -0.0136982 0.472 0 0 0
-0.0638208 0.124531 0.469 255 255 255
-0.481203 -0.60029 1.551 255 255 255
-0.737684 -0.118387 1.739 255 255 255
-0.473852 0.245643 1.603 255 255 255
0.0948332 0.0510663 0.412 0 0 0
-0.342705 -0.449791 1.456 255 255 255
-0.396646 0.389198 1.017 0 0 0
0.0257024 -0.199049 1.178 255 255 255
0.0246318 0.09227 0.453 255 255 255
-0.83817 -0.241439 1.882 255 255 255
0.0754078 0.00303731 0.448 255 255 255
-0.44314 -0.144675 1.784 255 255 255
-0.0555326 -0.00188208 1.387 255 255 255
0.0392047 0.0529255 0.427 255 255 255
-0.352938 -0.223348 1.599 255 255 255
-0.424759 -0.163719 1.71 255 255 255
-0.699357 -0.0399509 1.655 255 255 255
-0.0180371 -0.0835565 1.289 255 255 255
-0.262663 -0.267898 1.459 255 255 255
0.316052 -0.153195 0.873 255 255 255
-0.491131 0.263186 1.583 255 255 255
0.216069 -0.12117 0.995 255 255 255
-0.74002 -0.568833 1.758 255 255 255
0.0179203 0.0387266 1.31 255 255 255
-0.064999 -0.316632 1.225 255 255 255
-0.090482 -0.279759 1.275 255 255 255
0.289108 -0.250768 0.795 0 0 0
0.146207 0.0245574 0.455 255 255 255
-0.436635 0.414681 1.079 255 255 255
0.143274 0.101104 0.403 255 255 255
-0.472419 -0.480747 1.607 255 255 255
-0.719166 -0.0941997 1.763 255 255 255
0.0932774 0.0247068 0.472 0 0 0
-0.568074 0.0928639 1.831 255 255 255
-0.502639 -0.468307 1.646 255 255 255
0.0900504 -0.0908409 1.167 255 255 255
0.271992 -0.0213668 0.662 255 255 255
0.176724 -0.145546 1.03 255 255 255
-0.786042 -0.171379 1.853 255 255 255
0.134492 0.143971 0.425 255 255 255
0.323774 -0.226762 0.758 0 0 0
-0.228571 0.0656486 1.603 255 255 255
0.126576 -0.0208934 0.517 255 255 255
-0.505396 0.459647 1.196 255 255 255
0.231926 -0.036953 0.465 0 0 0
-0.742083 0.153513 1.71 255 255 255
-0.43042 -0.550554 1.532 255 255 255
0.118601 -0.128411 1.114 255 255 255
0.133092 0.0632485 0.4 0 0 0
0.213099 0.133583 0.497 255 255 255
0.271334 0.0875327 0.537 255 255 255
0.0208685 0.0625552 0.436 255 255 255
-0.284344 -0.51871 1.369 255 255 255
0.240924 0.0360285 0.648 0 0 0
-0.761792 -0.260193 1.978 0 0 0
-0.142606 -0.0402695 1.47 255 255 255
0.224679 0.0355052 0.494 255 255 255
-0.177215 -0.195971 1.403 255 255 255
-0.041301 0.0684665 0.433 0 0 0
-0.769304 -0.513013 1.753 255 255 255
0.0774277 0.111661 0.46 255 255 255
0.33915 -0.162799 0.849 255 255 255
0.214489 -0.191523 0.966 255 255 255
0.276895 -0.217622 0.875 255 255 255
-0.605342 -0.223063 1.882 255 255 255
-0.666663 0.0490638 1.865 255 255 255
0.245471 0.0559373 0.612 255 255 255
-0.62116 -0.0373789 1.941 255 255 255
0.109277 -0.0450015 0.544 255 255 255
-0.555911 0.440199 1.281 255 255 255
0.0994426 0.0763718 0.426 255 255 255
-0.0429547 0.118152 1.419 255 255 255
-0.752183 -0.54154 1.753 255 255 255
0.172579 0.138308 0.395 255 255 255
-0.0564152 -0.397954 1.171 255 255 255
0.256389 -0.0599282 0.535 255 255 255
0.353306 -0.267961 0.824 255 255 255
-0.106811 0.146364 0.43 255 255 255
-0.518497 0.233905 1.612 255 255 255
-0.2553 -0.0257167 1.607 255 255 255
-0.435938 -0.335213 1.637 255 255 255
-0.738424 0.0700882 1.646 255 255 255
-0.901622 -0.297525 1.744 255 255 255
-0.174474 -0.490372 1.267 255 255 255
0.154522 -0.0215246 0.512 255 255 255
-0.73525 -0.0261327 1.633 255 255 255
-0.515839 -0.150143 1.815 255 255 255
0.110041 0.0914352 0.435 255 255 255
0.256792 -0.0392449 0.673 255 255 255
-0.595726 -0.63669 1.659 255 255 255
-0.34025 0.0452228 1.719 255 255 255
-0.735143 0.295236 1.473 255 255 255
0.0941626 0.0510663 0.412 0 0 0
-0.596151 -0.183249 1.882 255 255 255
-0.752189 -0.599223 1.714 255 255 255
0.128101 -0.272934 1.03 255 255 255
0.118552 0.0670944 0.42 255 255 255
-0.0132766 0.119325 0.396 255 255 255
-0.874706 0.131942 1.719 255 255 255
0.0851465 -0.0571913 1.178 255 255 255
-0.0705891 0.115124 0.484 255 255 255
-0.267914 0.0136194 1.62 255 255 255
0.366831 -0.195525 0.776 255 255 255
0.400131 -0.280346 0.821 255 255 255
0.326205 -0.305577 0.866 255 255 255
-0.578066 -0.00564923 1.893 255 255 255
-0.804363 0.199749 1.633 255 255 255
-0.597207 0.236036 1.591 255 255 255
0.0880813 0.119114 0.457 255 255 255
0.280664 -0.0873122 0.64 255 255 255
-0.69871 -0.546968 1.799 255 255 255
0.00561782 0.0926698 0.367 255 255 255
-0.170268 -0.319907 1.348 255 255 255
-0.437321 0.243034 1.603 255 255 255
-0.518497 -0.566187 1.612 255 255 255
0.123437 0.0506945 0.409 255 255 255
-0.726041 0.0600879 1.831 255 255 255
-0.00104717 0.145044 0.403 255 255 255
0.0684199 0.159049 0.436 255 255 255
-0.821119 -0.295454 1.837 255 255 255
0.0894266 -0.184277 1.112 255 255 255
0.00536305 0.0978821 0.445 255 255 255
0.00276025 -0.194289 1.208 255 255 255
0.220918 0.144267 0.484 255 255 255
-0.520898 0.368752 1.406 255 255 255
-0.659245 -0.648527 1.719 255 255 255
0.0867712 -0.345665 1.037 255 255 255
-0.271552 0.0458692 1.642 255 255 255
0.179119 -0.0110272 0.528 0 0 0
0.246228 0.118304 0.53 255 255 255
-0.629427 -0.596434 1.714 255 255 255
0.130299 0.139199 0.467 0 0 0
0.0113823 -0.00596741 1.294 255 255 255
0.126368 -0.0427349 0.549 255 255 255
0.0200666 -0.395515 1.081 255 255 255
-0.413417 -0.489222 1.543 255 255 255
0.268672 0.103723 0.544 255 255 255
0.091352 0.0215427 0.47 0 0 0
0.0409539 -0.377575 1.075 255 255 255
0.275885 -0.0843192 0.641 255 255 255
-0.0954043 -0.024841 1.409 255 255 255
0.0802731 0.0323718 0.413 255 255 255
0.228848 0.124055 0.518 255 255 255
-0.134908 -0.303438 1.324 255 255 255
0.287201 -0.350433 0.917 255 255 255
0.34183 -0.19703 0.819 255 255 255
-0.730423 -0.149316 1.805 255 255 255
0.119653 0.00859488 0.473 255 255 255
-0.783192 -0.622495 1.65 255 255 255
0.299162 -0.115008 0.908 255 255 255
0.0283964 0.0989109 0.368 255 255 255
-0.57337 0.358065 1.4 255 255 255
-0.735449 0.0367236 1.714 255 255 255
0.127039 0.000890028 0.469 255 255 255
-0.697664 -0.617313 1.774 255 255 255
-0.109666 -0.341267 1.257 255 255 255
-0.80173 -0.602836 1.655 255 255 255
-0.330531 -0.273278 1.543 255 255 255
-0.840871 0.195505 1.642 255 255 255
-0.113067 0.161496 0.422 255 255 255
-0.470294 -0.0346444 1.799 255 255 255
-0.522933 -0.496281 1.668 255 255 255
-0.691781 0.256659 1.559 255 255 255
-0.322158 -0.270065 1.539 255 255 255
0.234657 0.0782257 0.578 255 255 255
-0.486102 -0.316001 1.691 255 255 255
0.115866 0.0984376 0.441 255 255 255
-0.423958 -0.581578 1.509 255 255 255
-0.525474 0.211538 1.642 255 255 255
0.116369 -0.133369 1.11 255 255 255
-0.705769 -0.396293 1.905 255 255 255
-0.00832167 0.0924949 0.376 255 255 255
0.164741 -0.0400886 0.526 0 0 0
0.153543 0.0799723 0.399 255 255 255
-0.164256 -0.470304 1.252 255 255 255
0.0326467 0.0575592 1.302 255 255 255
0.18277 0.155292 0.399 255 255 255
0.249504 0.140054 0.497 255 255 255
-0.0556141 0.132045 0.458 255 255 255
-0.755174 -0.466623 1.794 255 255 255
-0.393858 -0.566548 1.47 255 255 255
0.111884 0.039262 0.401 0 0 0
0.0292115 -0.229081 1.165 255 255 255
0.104917 -0.206288 1.085 255 255 255
-0.286402 -0.252523 1.509 255 255 255
0.0124463 -0.21924 1.194 255 255 255
0.269624 -0.0723619 0.646 255 255 255
-0.0337562 0.130279 0.465 0 0 0
-0.496794 -0.126932 1.821 255 255 255
0.188531 -0.280739 0.954 255 255 255
-0.546014 0.0602848 1.837 255 255 255
0.123713 0.160947 0.426 255 255 255
0.143151 0.0916598 0.399 255 255 255
0.0993217 0.0335555 0.403 255 255 255
-0.29462 0.167818 1.714 255 255 255
0.188291 -0.150773 1.02 255 255 255
0.182121 0.132566 0.399 255 255 255
-0.729355 -0.624269 1.753 0 0 0
-0.490581 -0.065057 1.831 255 255 255
0.128774 0.143231 0.429 255 255 255
0.097119 0.136849 0.472 0 0 0
0.16336 -0.131854 1.041 255 255 255
-0.848576 -0.481434 1.673 255 255 255
0.13717 0.0318207 0.475 255 255 255
-0.496374 -0.58309 1.559 255 255 255
0.226878 -0.187198 0.952 255 255 255
-0.769622 0.143551 1.691 255 255 255
-0.298895 -0.489257 1.406 255 255 255
0.162416 -0.342586 0.912 0 0 0
-0.712975 -0.609816 1.769 255 255 255
-0.0176887 0.0804928 0.38 255 255 255
-0.156779 -0.0359921 1.491 255 255 255
-0.349425 -0.374579 1.516 255 255 255
-0.751286 -0.177995 1.959 0 0 0
0.115075 0.15966 0.43 255 255 255
0.191362 0.136328 0.481 255 255 255
0.210102 0.0628605 0.602 0 0 0
0.266604 -0.109705 0.662 255 255 255
-0.0518109 0.129999 0.464 255 255 255
0.135726 0.020013 0.47 255 255 255
0.259541 -0.0730298 0.529 255 255 255
0.006826 -0.166071 1.232 255 255 255
0.149567 0.132479 0.415 255 255 255
0.0732999 0.096693 0.453 0 0 0
-0.558369 -0.469819 1.71 255 255 255
-0.884044 -0.422513 1.71 255 255 255
-0.536091 0.204513 1.65 255 255 255
-0.0365202 -0.151119 1.275 255 255 255
-0.533492 -0.563364 1.642 255 255 255
0.233695 -0.191363 0.942 255 255 255
-0.455056 -0.473567 1.583 255 255 255
0.0369845 0.0806788 0.442 255 255 255
-0.928663 0.0549873 1.763 255 255 255
-0.060554 -0.0895747 1.348 255 255 255
0.077942 0.0960527 0.45 255 255 255
0.243033 -0.0446559 0.745 0 0 0
0.016534 0.0580307 0.434 255 255 255
-0.00907416 0.150232 0.41 255 255 255
0.0174045 -0.301287 1.137 255 255 255
0.249356 -0.133394 0.955 255 255 255
-0.806946 -0.494483 1.748 255 255 255
-0.240825 -0.42253 1.375 255 255 255
-0.8204 -0.50729 1.705 255 255 255
0.243441 0.123786 0.524 255 255 255
-0.0481588 0.134281 0.458 255 255 255
0.19752 -0.275015 0.945 255 255 255
-0.670486 0.0997456 1.794 255 255 255
-0.828158 -0.379516 1.769 255 255 255
0.118149 0.157225 0.431 255 255 255
-0.0750692 -0.123286 1.333 255 255 255
-0.0399861 0.0844322 1.396 255 255 255
0.291158 -0.323814 0.897 255 255 255
0.234489 0.0507478 0.486 255 255 255
0.210574 -0.15632 0.992 255 255 255
0.0502285 -0.243401 1.126 255 255 255
0.337552 -0.167533 0.845 255 255 255
0.149105 -0.18561 1.048 255 255 255
-0.125815 0.0832881 1.498 255 255 255
-0.0281319 0.058421 1.372 255 255 255
-0.126035 -0.402634 1.257 255 255 255
0.34549 -0.291975 0.851 255 255 255
-0.613131 0.150456 1.739 255 255 255
0.0164959 0.0571924 0.433 255 255 255
-0.502752 0.268861 1.571 255 255 255
0.00874544 -0.170409 1.22 255 255 255
-0.715237 0.0156791 1.865 0 0 0
0.32787 -0.221846 0.798 255 255 255
0.146779 -0.0328616 0.52 255 255 255
0.0182623 0.100981 0.369 255 255 255
-0.336309 -0.421078 1.48 255 255 255
0.137302 0.139851 0.423 255 255 255
0.0863625 0.136081 0.472 0 0 0
0.217432 -0.35349 0.925 255 255 255
-0.57129 0.344553 1.429 255 255 255
0.117967 0.147717 0.449 0 0 0
-0.526369 0.233905 1.612 255 255 255
-0.194849 -0.410546 1.336 255 255 255
-0.888486 0.0836771 1.763 255 255 255
-0.552289 -0.283487 1.799 255 255 255
0.00143208 0.0852701 0.366 0 0 0
0.292212 -0.117256 0.914 255 255 255
-0.409291 -0.29259 1.637 255 255 255
-0.176954 -0.472933 1.27 255 255 255
-0.0770508 0.113784 0.485 0 0 0
-0.498159 -0.0916228 1.826 255 255 255
0.0031756 0.0779777 0.443 255 255 255
-0.00469113 -0.407932 1.11 255 255 255
0.291138 -0.191992 0.875 255 255 255
-0.0298604 0.141497 0.441 0 0 0
-0.00159752 0.104674 0.378 255 255 255
-0.073604 0.133108 0.454 255 255 255
0.173246 -0.269563 0.964 255 255 255
0.0818215 0.139497 0.468 255 255 255
0.0343068 0.154235 0.41 255 255 255
-0.433705 -0.444412 1.571 255 255 255
0.243912 -0.350433 0.917 255 255 255
-0.487601 0.00347471 1.831 255 255 255
-0.130883 -0.122297 1.396 255 255 255
-0.243816 -0.309547 1.432 255 255 255
0.0783587 0.0745855 0.44 0 0 0
-0.732534 0.305136 1.463 255 255 255
-0.23286 -0.0149904 1.579 255 255 255
-0.636957 -0.154249 1.941 255 255 255
-0.651295 0.0219473 1.882 255 255 255
0.10201 0.161548 0.437 255 255 255
-0.840871 -0.560692 1.642 255 255 255
-0.446119 0.210519 1.655 255 255 255
-0.407677 0.23243 1.62 255 255 255
-0.455144 -0.424002 1.62 255 255 255
0.189404 0.13324 0.484 255 255 255
-0.256095 0.00568237 1.612 255 255 255
-0.11238 0.160123 0.422 255 255 255
0.0210599 0.0688573 0.44 255 255 255
0.138948 -0.150156 1.075 255 255 255
-0.338301 -0.0674086 1.668 255 255 255
0.275709 -0.263092 0.805 0 0 0
-0.0067326 0.0737613 0.431 255 255 255
-0.614106 0.140657 1.758 255 255 255
-0.173046 -0.38815 1.319 255 255 255
0.215186 0.14698 0.48 0 0 0
0.0930463 0.0878957 0.435 255 255 255
0.247399 0.128269 0.518 255 255 255
-0.762788 -0.615408 1.682 255 255 255
-0.290344 -0.215526 1.543 255 255 255
0.198871 0.121522 0.504 0 0 0
0.0504437 0.144987 0.428 255 255 255
0.0292655 -0.354631 1.096 255 255 255
-0.703974 -0.355115 1.917 255 255 255
0.0358888 0.0903829 0.365 0 0 0
-0.107391 0.151222 0.424 255 255 255
0.215232 0.095917 0.55 0 0 0
-0.606497 0.231439 1.595 255 255 255
0.236071 0.015949 0.486 0 0 0
-0.659548 0.405655 1.339 255 255 255
0.0824069 0.140719 0.467 255 255 255
-0.0964431 -0.130113 1.359 255 255 255
0.0264006 -0.149322 1.21 255 255 255
0.120845 0.0484596 0.407 0 0 0
0.139096 0.0443617 0.412 255 255 255
-0.0144303 -0.307337 1.167 255 255 255
-0.104973 -0.187515 1.327 255 255 255
-0.134257 -0.25458 1.339 255 255 255
-0.202337 -0.285013 1.403 255 255 255
0.246572 -0.206418 0.927 255 255 255
0.0551566 0.0950831 0.379 255 255 255
0.0976799 0.13426 0.471 0 0 0
-0.773693 -0.501595 1.763 255 255 255
-0.691181 -0.367232 1.899 255 255 255
0.187805 0.141286 0.474 0 0 0
0.00736965 0.088601 0.365 0 0 0
0.0901571 -0.0313156 0.46 0 0 0
0.0990086 -0.159801 1.118 255 255 255
-0.0256154 0.0224498 1.357 255 255 255
-0.090467 0.155815 0.416 255 255 255
0.396122 -0.293706 0.821 255 255 255
0.151427 -0.209037 1.029 255 255 255
0.120169 0.00550432 0.472 255 255 255
-0.0257839 -0.346623 1.165 255 255 255
0.132795 0.116723 0.424 255 255 255
