ply
format ascii 1.0
comment Created by Open3D
element vertex 1310
property double x
property double y
property double z
property uchar red
property uchar green
property uchar blue
end_header
-0.432902 -0.424391 1.865 255 255 255
0.304981 -0.15666 0.984 255 255 255
0.325433 0.0785295 0.642 255 255 255
0.0742007 0.120548 0.454 255 255 255
0.198452 0.115317 0.389 255 255 255
0.130632 -0.109489 1.227 255 255 255
-1.09307 -0.537871 2.121 255 255 255
0.0253032 0.0904485 0.427 255 255 255
0.259686 -0.284208 0.92 255 255 255
-1.07813 -0.622434 2.092 255 255 255
-0.734069 0.313912 1.579 255 255 255
0.398349 -0.295775 0.905 255 255 255
0.165475 0.158677 0.449 255 255 255
-1.04589 -0.148477 2.181 255 255 255
0.174968 0.150513 0.438 255 255 255
0.256869 -0.207615 1.022 255 255 255
-0.0103357 0.158958 0.467 255 255 255
-0.515011 0.437652 1.378 255 255 255
-0.21082 0.049836 1.784 255 255 255
0.105513 -0.0624346 1.286 255 255 255
-0.745989 -0.45271 1.719 255 255 255
0.310416 -0.123283 0.986 255 255 255
-0.0141305 -0.393692 1.316 255 255 255
-0.767913 0.317547 1.559 255 255 255
-0.671903 0.429225 1.387 255 255 255
0.185061 0.0489727 0.469 255 255 255
0.275096 -0.264945 0.942 0 0 0
0.29645 -0.198473 0.977 255 255 255
0.0179613 -0.305191 1.313 255 255 255
-0.519563 -0.471137 1.882 0 0 0
-0.0106455 0.1512 0.481 255 255 255
0.243053 -0.211735 1.034 255 255 255
0.107164 0.0935317 0.413 255 255 255
0.292844 0.103233 0.609 255 255 255
-0.0641448 -0.389815 1.378 255 255 255
0.106617 -0.372905 1.141 0 0 0
0.0824158 -0.333878 1.194 255 255 255
-0.417966 0.266822 1.705 255 255 255
0.123351 0.0854553 0.437 255 255 255
-0.0553292 -0.494629 1.278 255 255 255
-0.702172 -0.113108 1.887 255 255 255
0.313274 -0.15601 0.97 255 255 255
-0.773457 0.0670571 1.859 255 255 255
-0.59871 -0.130878 2.071 0 0 0
0.116604 0.175273 0.458 0 0 0
-0.868559 -0.649433 1.799 255 255 255
0.0858671 -0.244616 1.244 255 255 255
-0.226979 -0.287274 1.668 255 255 255
-0.0630598 0.0388715 1.575 255 255 255
-0.359284 0.132975 1.893 255 255 255
-0.057978 0.152981 0.465 0 0 0
0.352197 -0.16965 0.9 255 255 255
-1.11307 -0.385955 2.329 255 255 255
-0.301493 0.366941 1.575 255 255 255
0.146448 0.136257 0.438 0 0 0
-0.618751 -0.588796 1.7 255 255 255
0.307897 -0.16048 0.978 255 255 255
-0.406455 0.46355 1.375 255 255 255
0.0272134 0.11968 1.466 255 255 255
-0.0724132 0.128975 1.612 255 255 255
0.20591 0.0197542 0.524 0 0 0
0.297947 -0.111381 1.009 255 255 255
0.106979 -0.263092 1.208 255 255 255
0.215593 -0.159018 1.1 255 255 255
0.253141 -0.152513 1.055 255 255 255
-0.0736515 -0.323529 1.432 255 255 255
0.147246 0.102827 0.418 255 255 255
-0.697966 0.222985 1.753 255 255 255
-0.246016 0.317287 1.65 255 255 255
0.170776 0.0879823 0.406 255 255 255
-0.402904 0.271573 1.7 255 255 255
-0.451489 0.161718 1.905 255 255 255
0.387438 -0.168714 0.858 255 255 255
-0.554039 -0.27224 1.972 255 255 255
0.365801 -0.128872 0.912 255 255 255
-0.323582 0.408345 1.466 255 255 255
-0.550034 0.408769 1.459 255 255 255
0.255301 -0.375443 1.064 255 255 255
-0.0358537 -0.0241484 1.509 255 255 255
0.354252 -0.314327 0.957 255 255 255
0.205281 -0.112064 1.132 255 255 255
0.101776 0.120473 0.43 255 255 255
0.169201 0.136345 0.436 255 255 255
-0.612761 0.42777 1.412 255 255 255
-0.402979 0.261379 1.724 255 255 255
-0.417582 -0.526475 1.799 255 255 255
0.184679 0.106181 0.388 255 255 255
-0.644609 0.0902266 1.779 255 255 255
-0.0716456 -0.423528 1.393 255 255 255
-0.0820933 0.160409 0.456 0 0 0
0.0311924 -0.414665 1.244 255 255 255
0.147998 0.104812 1.31 255 255 255
-0.466998 0.000563754 2.085 0 0 0
0.151514 -0.304803 1.116 255 255 255
-0.507998 0.295089 1.646 255 255 255
0.293399 0.107566 0.6 0 0 0
-0.233641 -0.481531 1.567 255 255 255
0.0478935 0.1318 1.442 255 255 255
-0.677586 -0.337306 1.837 255 255 255
-0.312744 0.332608 1.62 255 255 255
0.198613 0.0567679 0.458 255 255 255
-0.480718 -0.083695 2.071 255 255 255
0.179099 0.0989084 0.413 255 255 255
0.124651 -0.247345 1.189 255 255 255
0.193031 -0.114638 1.158 255 255 255
0.0281905 0.12867 0.399 255 255 255
-0.494211 -0.0663921 2.057 255 255 255
0.353735 -0.214584 0.825 0 0 0
-0.447457 0.293121 1.65 255 255 255
1.01004 -0.929678 2.392 0 0 0
-0.5068 -0.602009 1.763 0 0 0
0.846953 -0.874249 2.278 0 0 0
0.204984 0.06192 0.422 255 255 255
-0.194744 -0.0750644 1.719 255 255 255
-0.267497 -0.189757 1.719 255 255 255
-0.301687 -0.529914 1.646 255 255 255
0.0624543 0.0763935 0.434 255 255 255
0.0576416 0.0850642 0.435 255 255 255
0.154088 0.0551959 0.47 255 255 255
-1.24749 -0.445317 2.383 255 255 255
0.286448 -0.253404 0.939 255 255 255
0.086275 0.0860823 0.433 255 255 255
-0.358717 -0.043291 1.923 255 255 255
-0.126068 -0.41112 1.445 255 255 255
0.171141 0.147956 0.441 255 255 255
0.00302531 -0.275429 1.324 255 255 255
0.171283 0.0662915 0.484 0 0 0
0.402883 -0.0315869 0.889 255 255 255
0.03029 0.136493 0.401 255 255 255
-0.0451132 0.182402 1.575 0 0 0
0.267323 -0.261546 0.981 255 255 255
0.180422 0.0855936 0.401 255 255 255
0.413728 -0.302928 0.9 255 255 255
-0.66872 0.148661 1.821 0 0 0
-0.775486 -0.525474 1.71 255 255 255
-0.571875 0.207748 1.769 255 255 255
0.0319107 0.156309 0.405 255 255 255
-0.917184 0.172616 1.763 255 255 255
-0.492491 0.00732504 2.078 0 0 0
0.0467536 0.120283 0.453 255 255 255
-0.288875 0.0707232 1.876 255 255 255
-0.418131 0.479115 1.362 255 255 255
-0.767803 0.247351 1.724 255 255 255
0.148474 -0.357737 1.068 0 0 0
-0.0317092 -0.483405 1.249 255 255 255
0.06473 0.0368307 1.4 255 255 255
-0.326561 0.168954 1.882 0 0 0
0.0565732 0.109722 0.449 255 255 255
-0.212002 -0.0433063 1.794 255 255 255
0.373233 -0.313999 0.942 255 255 255
0.382431 -0.195941 0.809 0 0 0
-0.502618 0.270135 1.691 255 255 255
-0.315276 0.280695 1.705 255 255 255
-0.0608033 0.085438 1.583 255 255 255
-0.319996 -0.468713 1.686 255 255 255
0.0283643 0.244096 1.528 0 0 0
-0.529149 -0.535585 1.81 255 255 255
0.0544402 0.165494 1.429 255 255 255
0.112514 0.0937313 0.423 255 255 255
-0.832349 0.171603 1.724 255 255 255
-0.304143 0.147045 1.876 255 255 255
0.426831 -0.0798488 0.834 255 255 255
0.334263 0.045837 0.668 255 255 255
-0.505925 0.480815 1.342 255 255 255
-0.621524 0.311633 1.607 255 255 255
-0.696812 0.386082 1.463 255 255 255
0.229166 0.0912615 1.189 255 255 255
-0.344201 0.35067 1.571 255 255 255
-0.405404 0.209617 1.81 255 255 255
0.342747 -0.18405 0.906 255 255 255
0.42214 -0.287493 0.893 255 255 255
0.0439354 0.123128 0.378 255 255 255
0.0703767 0.136914 1.422 255 255 255
-0.69866 -0.154975 1.911 255 255 255
-0.207696 -0.317817 1.603 255 255 255
0.118742 -0.0890938 1.249 255 255 255
-0.451287 0.395106 1.47 255 255 255
0.177767 -0.353772 1.046 255 255 255
-0.760966 -0.366364 1.734 255 255 255
1.08746 -0.918818 2.374 255 255 255
0.130293 0.0851088 0.6 0 0 0
-1.22225 -0.358964 2.402 0 0 0
0.14481 0.123559 0.431 255 255 255
-0.246482 -0.108914 1.769 255 255 255
-0.807538 0.307755 1.587 255 255 255
-0.388803 0.106584 1.917 0 0 0
-0.430315 -0.584313 1.779 255 255 255
0.387835 -0.0925559 0.891 255 255 255
0.387633 -0.274627 0.918 255 255 255
-0.811773 0.197994 1.734 255 255 255
-0.288421 -0.206707 1.744 255 255 255
0.199525 -0.284169 1.053 255 255 255
-0.37161 0.139136 1.893 255 255 255
0.221933 -0.294098 1.022 0 0 0
-0.0283979 0.166357 0.452 255 255 255
-0.42799 -0.494125 1.831 255 255 255
-1.04377 -0.271664 2.261 255 255 255
0.0757369 0.13278 0.374 255 255 255
-0.430959 -0.666101 1.758 255 255 255
0.315535 -0.101433 0.992 255 255 255
0.0538616 0.126551 0.457 255 255 255
0.182929 0.14046 0.44 255 255 255
-0.0592689 -0.414003 1.369 255 255 255
0.381937 -0.186391 0.825 0 0 0
-0.79607 0.337638 1.535 255 255 255
0.181141 0.149845 0.434 255 255 255
0.187624 -0.276373 1.104 255 255 255
0.130241 -0.372201 1.09 0 0 0
-0.791643 -0.593934 1.691 255 255 255
-0.173869 -0.42308 1.513 255 255 255
-0.274893 0.327232 1.646 255 255 255
0.156753 0.175672 1.33 255 255 255
0.364466 -0.139665 0.905 255 255 255
-0.723061 0.113721 1.831 0 0 0
0.173322 0.177023 1.308 255 255 255
-0.014457 0.263851 1.587 255 255 255
0.122204 0.0600144 0.428 255 255 255
-0.300013 -0.266829 1.729 255 255 255
-0.489799 0.086604 1.959 255 255 255
0.00319897 -0.0907519 1.4 255 255 255
0.35092 -0.0784218 0.948 255 255 255
0.387391 -0.167903 0.861 255 255 255
-0.109785 -0.18084 1.547 255 255 255
-0.730627 -0.339984 1.729 255 255 255
0.0528482 -0.25962 1.278 255 255 255
0.427475 -0.269752 0.892 255 255 255
-0.617542 0.480009 1.31 255 255 255
-0.351646 -0.277518 1.837 255 255 255
0.0610723 -0.38121 1.234 255 255 255
-1.02783 -0.111793 2.158 255 255 255
-0.702409 0.288148 1.637 255 255 255
-0.19448 0.193167 1.794 255 255 255
0.314869 -0.0693562 0.995 255 255 255
0.129649 0.0865667 0.425 0 0 0
-0.434853 -0.0721276 2.03 255 255 255
0.155941 -0.278593 1.135 255 255 255
-0.420008 -0.24281 1.917 255 255 255
0.181075 0.135188 0.401 0 0 0
0.202727 0.0618373 0.441 255 255 255
-0.0751963 -0.435956 1.375 255 255 255
0.0703286 0.123464 0.368 255 255 255
0.241336 -0.150715 1.079 255 255 255
-0.260861 -0.382914 1.659 255 255 255
0.0177912 0.149079 0.467 0 0 0
-1.00006 -0.749459 1.978 255 255 255
-0.240234 -0.383943 1.629 255 255 255
-0.158038 -0.312555 1.551 255 255 255
0.272108 -0.0584724 1.062 255 255 255
-0.128944 0.116651 1.7 255 255 255
0.185127 0.17525 0.456 255 255 255
0.268597 -0.391152 1.055 255 255 255
0.126568 0.0905944 0.431 255 255 255
0.147161 0.136257 0.438 0 0 0
-0.600414 0.32933 1.579 255 255 255
0.181713 0.149857 0.432 255 255 255
-0.669412 -0.312367 1.831 255 255 255
0.156999 0.121433 0.426 0 0 0
0.233732 -0.0183233 1.145 255 255 255
-0.697491 0.404381 1.435 255 255 255
0.394855 -0.161841 0.844 255 255 255
-0.182833 0.3396 1.591 255 255 255
-0.698711 0.419578 1.4 255 255 255
0.0384243 0.0823495 1.439 255 255 255
0.0535323 0.124201 0.372 255 255 255
0.13428 -0.368226 1.094 0 0 0
0.052806 0.0902263 0.436 255 255 255
-0.925715 -0.255575 2.071 255 255 255
-0.0184988 -0.414849 1.322 255 255 255
-0.286305 -0.4775 1.65 255 255 255
-0.0092306 0.129842 0.489 0 0 0
-0.046163 0.156252 0.468 255 255 255
-0.724059 -0.0143638 1.826 255 255 255
0.123766 -0.325766 1.145 255 255 255
0.176858 0.0223322 1.229 255 255 255
-0.536901 -0.431749 1.911 255 255 255
-0.291849 0.379017 1.551 255 255 255
-0.264991 -0.357848 1.668 255 255 255
-0.366597 -0.358232 1.837 255 255 255
0.398015 -0.184187 0.798 0 0 0
-0.270075 0.285405 1.7 255 255 255
0.125351 -0.138227 1.234 255 255 255
0.0328562 0.0849373 0.417 255 255 255
0.0949441 -0.293814 1.205 255 255 255
-0.742339 0.397792 1.445 255 255 255
-0.256822 0.0551337 1.865 255 255 255
0.027823 -0.109508 1.378 255 255 255
-0.222731 0.191945 1.81 255 255 255
-0.517705 -0.262222 2.044 255 255 255
0.0419138 -0.426448 1.203 255 255 255
-0.361374 0.401284 1.484 255 255 255
0.175359 0.0249023 0.491 0 0 0
-0.603918 0.244625 1.705 255 255 255
-0.0509683 -0.492694 1.273 255 255 255
0.376229 -0.298928 0.938 255 255 255
0.198686 -0.0788337 1.158 255 255 255
-0.830292 0.308531 1.591 255 255 255
-0.603799 -0.0137896 1.753 0 0 0
-0.314731 -0.154446 1.831 255 255 255
-0.468725 -0.460105 1.887 255 255 255
0.0112834 0.108502 0.45 0 0 0
0.224145 0.172666 0.463 0 0 0
0.370792 -0.0937645 0.917 255 255 255
-0.534533 0.255724 1.705 255 255 255
-0.0480238 0.169533 0.443 255 255 255
-0.332073 -0.606114 1.664 255 255 255
0.0774507 0.101047 0.443 255 255 255
0.0348894 0.110794 0.38 255 255 255
0.0389056 0.126003 0.383 255 255 255
0.0231843 -0.0820589 1.369 255 255 255
-0.977093 -0.485238 2.017 0 0 0
0.0330651 0.154881 0.403 255 255 255
0.0763125 0.147818 0.383 255 255 255
0.191809 0.0387178 0.465 255 255 255
-0.146219 -0.525036 1.435 255 255 255
0.193183 -0.0535385 1.182 255 255 255
0.352138 -0.213415 0.847 0 0 0
-0.0553874 -0.26243 1.442 255 255 255
-0.470591 -0.645823 1.789 255 255 255
-0.252772 -0.324301 1.677 255 255 255
0.0667178 -0.331126 1.227 255 255 255
-0.519711 -0.455194 1.905 0 0 0
-0.706086 -0.620415 1.603 255 255 255
0.213587 0.00611072 0.524 255 255 255
0.13977 0.0874414 0.416 0 0 0
0.250994 -0.182325 1.039 255 255 255
0.32339 0.0104564 0.701 0 0 0
-0.405664 0.31785 1.612 255 255 255
0.120651 -0.283134 1.169 255 255 255
0.0395234 0.112373 0.377 0 0 0
-0.309981 0.0960084 1.893 255 255 255
-0.61778 -0.373179 1.837 255 255 255
0.130644 0.124707 0.44 255 255 255
0.393075 -0.100006 0.88 255 255 255
0.147645 0.0793932 0.406 255 255 255
0.255205 -0.207615 1.022 255 255 255
-0.659769 0.356476 1.509 255 255 255
-0.618471 -0.342333 1.848 255 255 255
0.0587029 0.138507 0.378 255 255 255
-0.00149769 0.136009 1.543 255 255 255
0.00324728 0.108488 0.453 255 255 255
0.341869 -0.0679621 0.975 255 255 255
0.142722 -0.366786 1.064 0 0 0
-0.0466032 -0.490372 1.267 255 255 255
0.0622591 -0.418931 1.145 0 0 0
-0.0176923 0.148852 0.481 255 255 255
0.0759542 -0.323933 1.215 255 255 255
0.350851 -0.074105 0.952 255 255 255
-0.565108 -0.0517744 1.784 255 255 255
-0.650547 0.274604 1.668 255 255 255
0.348799 -0.285784 0.93 255 255 255
-0.180251 0.245172 1.769 255 255 255
0.223018 -0.292194 1.027 255 255 255
-0.69709 0.0976897 1.81 255 255 255
-0.55039 0.0784255 1.774 255 255 255
0.325885 -0.139982 0.947 255 255 255
0.0314058 0.0928352 0.407 255 255 255
-0.287197 0.436079 1.463 255 255 255
-1.02131 -0.305047 2.236 255 255 255
0.160285 0.0726474 0.398 255 255 255
-0.159384 0.0419565 1.7 255 255 255
0.157212 0.110416 0.421 255 255 255
0.070089 -0.213609 1.289 255 255 255
-0.544505 0.464253 1.351 255 255 255
0.194301 0.0180935 1.213 255 255 255
0.0554948 -0.0673373 1.342 255 255 255
-0.916775 -0.136289 2.051 255 255 255
0.337763 -0.212424 0.889 255 255 255
0.16971 0.160606 1.313 255 255 255
0.196514 0.132187 0.394 255 255 255
0.227464 -0.25667 1.032 255 255 255
0.0638933 -0.222344 1.291 255 255 255
-0.544714 0.461899 1.357 255 255 255
0.424095 -0.292649 0.891 255 255 255
0.264101 -0.269466 0.975 255 255 255
-0.586262 -0.325107 1.87 255 255 255
-0.783049 0.296328 1.595 255 255 255
0.236291 0.0431859 0.529 0 0 0
0.430279 -0.283769 0.877 255 255 255
0.172726 -0.26126 1.124 255 255 255
0.341869 -0.336105 0.975 255 255 255
-1.15982 -0.469749 2.294 255 255 255
-0.598977 0.224034 1.739 255 255 255
-0.129232 0.0303092 1.668 255 255 255
-0.257938 -0.50703 1.591 255 255 255
-0.0241553 0.146143 0.485 255 255 255
-0.82348 0.258215 1.65 255 255 255
-0.632006 -0.637848 1.655 255 255 255
0.395772 -0.181646 0.804 0 0 0
-0.0180528 0.15692 0.47 255 255 255
-0.706917 -0.307931 1.805 255 255 255
-0.807739 0.123101 1.794 0 0 0
0.170657 0.082162 1.257 255 255 255
0.417924 -0.0868114 0.849 255 255 255
-0.816312 0.0285946 1.917 0 0 0
-0.00596006 0.15073 0.482 255 255 255
0.0266188 0.157467 0.415 255 255 255
-0.00914988 0.221708 1.563 255 255 255
-0.409829 0.434512 1.442 255 255 255
0.0312514 0.154331 0.405 255 255 255
0.188817 0.135393 0.394 255 255 255
-0.0475193 0.270422 1.659 255 255 255
-1.22732 -0.412729 2.374 0 0 0
-0.44015 -0.431615 1.87 255 255 255
0.399178 -0.0659347 0.884 255 255 255
-0.557813 -0.213945 1.997 255 255 255
0.258279 -0.392019 1.062 255 255 255
0.0115494 -0.318011 1.313 255 255 255
-0.592027 0.395605 1.463 255 255 255
0.0473161 -0.391766 1.242 255 255 255
0.172873 -0.168067 1.137 255 255 255
-0.784641 0.247351 1.724 255 255 255
0.136981 -0.342941 1.116 255 255 255
0.360039 -0.218888 0.821 255 255 255
-0.0325011 0.148542 0.48 255 255 255
-0.919522 0.0160658 1.911 255 255 255
-0.721542 0.323449 1.563 255 255 255
-0.542744 -0.489804 1.826 255 255 255
0.123103 -0.0791207 1.252 255 255 255
-0.917184 -0.405783 1.966 255 255 255
-0.387831 -0.290441 1.882 255 255 255
-0.582312 0.475801 1.322 255 255 255
0.405838 -0.283051 0.902 255 255 255
1.09519 -0.922682 2.374 0 0 0
0.0975953 0.0932629 0.424 255 255 255
0.191616 -0.265453 1.096 255 255 255
0.108142 -0.208177 1.244 255 255 255
0.969938 -0.815863 2.22 0 0 0
-0.462746 0.0741161 1.966 255 255 255
0.164942 0.136345 0.436 255 255 255
0.181063 0.0160315 0.514 0 0 0
0.0348035 0.136968 0.393 255 255 255
0.0592072 -0.341876 1.237 255 255 255
0.182404 0.0943582 0.394 255 255 255
0.1306 -0.438005 1.156 255 255 255
0.17546 0.0494948 0.474 255 255 255
0.0487531 0.139972 0.382 255 255 255
0.0956375 -0.0712461 1.294 255 255 255
-0.856199 0.162241 1.744 255 255 255
0.155618 -0.0848138 1.189 255 255 255
-0.808039 0.08643 1.821 255 255 255
0.267907 -0.128219 1.039 255 255 255
-0.214323 0.0412418 1.789 255 255 255
-0.253786 0.0429938 1.865 255 255 255
-0.490832 -0.107286 2.071 255 255 255
0.0644101 -0.255964 1.26 255 255 255
-0.519411 -0.244635 2.064 255 255 255
-0.870499 -0.557355 1.853 255 255 255
-0.471124 -0.13915 2.044 255 255 255
-0.174208 -0.20093 1.607 255 255 255
0.0728932 0.133666 0.446 255 255 255
-0.40395 0.502503 1.302 255 255 255
0.198904 0.0375835 1.205 255 255 255
-0.020276 -0.0609162 1.449 255 255 255
-0.629427 0.23197 1.714 255 255 255
-0.0347695 0.189608 1.571 0 0 0
0.252662 -0.343999 1.032 255 255 255
0.0746786 0.13062 0.448 255 255 255
0.00602177 0.170719 1.539 255 255 255
-0.528774 0.200237 1.779 255 255 255
-0.216948 -0.0741168 1.763 255 255 255
-0.152221 -0.00775671 1.682 255 255 255
0.00496923 -0.421265 1.27 255 255 255
0.0750429 -0.406327 1.141 0 0 0
0.298271 -0.172498 0.983 255 255 255
0.064469 0.105832 0.448 255 255 255
-0.393671 -0.15109 1.941 255 255 255
-0.067966 -0.105463 1.513 255 255 255
-0.699209 -0.52061 1.642 255 255 255
0.370028 -0.18655 0.863 255 255 255
-0.501431 0.364807 1.513 255 255 255
0.144533 0.107244 0.422 255 255 255
-0.599998 0.351937 1.532 255 255 255
0.38892 -0.00867714 0.914 0 0 0
0.327073 -0.0845164 0.983 255 255 255
0.222505 -0.404129 1.09 255 255 255
-0.0529413 0.16853 0.448 255 255 255
-0.0578644 0.228125 1.646 255 255 255
0.186514 -0.0114018 1.201 255 255 255
-0.110343 -0.232102 1.52 255 255 255
-1.03641 -0.330534 2.261 255 255 255
-0.457884 0.346437 1.575 255 255 255
-0.530232 -0.105723 2.107 255 255 255
-0.707216 -0.454363 1.769 255 255 255
-0.160669 -0.347705 1.528 255 255 255
0.283333 -0.0422718 1.046 255 255 255
-0.692536 -0.258827 1.853 255 255 255
-0.241119 -0.178411 1.691 255 255 255
-0.714768 -0.267548 1.81 255 255 255
0.209075 -0.199098 1.094 255 255 255
0.0849356 0.117194 0.369 0 0 0
0.183397 0.141094 0.431 0 0 0
0.184403 0.0776872 0.404 0 0 0
0.178698 0.0899554 0.403 255 255 255
0.0370687 0.101943 0.377 255 255 255
-1.08629 -0.681627 2.128 0 0 0
0.395279 -0.243569 0.866 255 255 255
-0.220008 -0.426119 1.579 255 255 255
0.410761 -0.0426264 0.878 255 255 255
0.179166 -0.211166 1.13 255 255 255
0.275566 -0.0515595 1.062 255 255 255
-0.65457 -0.351355 1.848 255 255 255
0.243334 -0.0607849 1.104 255 255 255
-0.225678 0.0623442 1.81 255 255 255
-0.0290956 -0.230534 1.419 255 255 255
-0.441179 -0.0260574 2.044 255 255 255
-0.157724 -0.168704 1.599 255 255 255
-1.04819 -0.11678 2.121 255 255 255
0.847071 -0.826701 2.22 255 255 255
-0.728449 -0.442266 1.744 255 255 255
-0.370727 0.228836 1.799 255 255 255
0.209728 -0.0452627 1.167 255 255 255
-0.711699 0.318243 1.575 255 255 255
-0.302045 -0.198715 1.774 255 255 255
-0.598977 0.226864 1.739 255 255 255
-0.0455712 0.159512 0.462 255 255 255
0.11968 0.183031 1.403 255 255 255
-0.403812 -0.0610219 1.991 255 255 255
-0.660187 -0.172665 1.935 255 255 255
0.0585549 0.0833376 1.416 255 255 255
0.316398 -0.0504277 1.005 255 255 255
0.124532 -0.350627 1.135 255 255 255
0.305648 -0.31742 0.981 255 255 255
-0.38274 -0.0666543 1.966 255 255 255
-1.09291 -0.776907 2.114 255 255 255
0.137295 -0.161488 1.198 255 255 255
0.0753754 0.205026 1.429 255 255 255
0.29147 0.116184 0.575 255 255 255
-0.0991272 0.16563 1.664 255 255 255
0.140021 0.0524102 0.459 0 0 0
0.33076 -0.315479 0.975 255 255 255
-0.28553 -0.41163 1.677 255 255 255
0.396288 -0.13071 0.856 255 255 255
0.290954 0.109574 0.595 0 0 0
-0.17887 -0.144549 1.65 255 255 255
0.146915 0.196471 1.339 255 255 255
0.197294 0.129933 0.393 255 255 255
-1.20785 -0.480706 2.329 255 255 255
1.15336 -0.879042 2.32 255 255 255
0.18292 0.0238738 0.503 0 0 0
0.0548818 -0.414981 1.187 255 255 255
-0.522213 0.363843 1.509 255 255 255
-0.0288905 -0.240374 1.409 255 255 255
0.263845 -0.35106 1.043 255 255 255
-0.466016 0.31785 1.612 255 255 255
-0.289446 -0.373012 1.7 255 255 255
-0.322973 -0.563797 1.659 255 255 255
-0.526888 0.023176 1.744 255 255 255
-0.560423 0.259128 1.691 255 255 255
0.126089 0.0522307 0.427 255 255 255
-0.48506 0.287751 1.65 255 255 255
-0.631653 0.444379 1.378 255 255 255
0.193292 0.174508 0.456 0 0 0
0.168949 0.0999373 1.275 255 255 255
-0.648573 -0.435439 1.774 255 255 255
-0.0210232 0.157014 0.468 255 255 255
-0.237269 0.30644 1.664 255 255 255
-0.469414 0.367269 1.513 255 255 255
-0.357196 -0.140372 1.882 255 255 255
0.191911 -0.217873 1.108 255 255 255
0.0286479 -0.26673 1.313 255 255 255
0.209546 0.0290713 0.508 0 0 0
-0.680338 -0.392136 1.774 255 255 255
-0.336496 0.358139 1.559 255 255 255
-0.00883376 0.0470652 1.509 255 255 255
-0.341141 -0.579825 1.682 255 255 255
-0.91276 -0.186899 2.057 255 255 255
0.359817 -0.0669808 0.939 255 255 255
0.0323092 -0.0646587 1.378 255 255 255
0.20249 0.0218597 1.203 255 255 255
-0.909412 -0.213678 2.057 255 255 255
-0.62787 -0.185594 1.972 255 255 255
-0.368009 -0.593302 1.705 255 255 255
-1.2721 -0.363149 2.43 255 255 255
-0.0181275 -0.0282316 1.466 255 255 255
0.412885 -0.133098 0.836 255 255 255
-1.04188 -0.118817 2.158 255 255 255
0.117152 -0.0186739 1.299 255 255 255
0.183739 0.0238738 0.503 0 0 0
-0.275775 -0.0390547 1.87 255 255 255
-0.672494 -0.505995 1.71 255 255 255
0.359164 -0.133617 0.914 255 255 255
0.18115 0.164885 0.448 0 0 0
-0.447757 0.129225 1.929 0 0 0
-0.396662 -0.00598048 2.004 255 255 255
-0.338374 0.315749 1.642 255 255 255
0.140081 0.0773176 0.409 255 255 255
0.0378553 0.127915 0.385 255 255 255
-0.513529 0.378254 1.498 255 255 255
-0.606079 0.235445 1.719 255 255 255
-0.996829 -0.761387 1.959 255 255 255
0.0010219 0.147189 1.555 255 255 255
-0.203241 0.207764 1.794 255 255 255
-0.626177 -0.0929776 1.853 255 255 255
0.122643 0.0732294 0.432 255 255 255
0.107837 0.0935317 0.413 255 255 255
-0.68163 -0.472292 1.719 255 255 255
-0.207995 -0.457763 1.547 255 255 255
0.367416 -0.0879972 0.935 255 255 255
0.236249 -0.188443 1.064 255 255 255
-0.263599 0.137445 1.87 255 255 255
-0.037291 0.16847 0.444 255 255 255
0.0938497 -0.377604 1.167 255 255 255
-0.421067 -0.388491 1.853 255 255 255
0.298105 -0.329764 1.004 255 255 255
-0.247427 -0.414478 1.624 255 255 255
-0.148239 -0.0212641 1.668 255 255 255
-0.698793 0.269982 1.673 255 255 255
-0.177955 0.285797 1.719 255 255 255
-0.218634 -0.584276 1.516 255 255 255
0.108236 0.10347 0.402 255 255 255
-0.487464 0.494932 1.31 255 255 255
-0.851947 -0.0734989 1.978 255 255 255
0.354694 -0.310236 0.954 255 255 255
0.042156 0.146077 0.39 255 255 255
0.19767 -0.310864 1.017 255 255 255
-0.648888 -0.111437 1.911 255 255 255
-0.0106392 -0.150029 1.422 255 255 255
0.229588 -0.243706 1.034 255 255 255
0.0948346 -0.251666 1.229 255 255 255
0.135073 0.072521 0.412 255 255 255
0.0318168 -0.0857562 1.357 255 255 255
0.29433 -0.38003 1.025 255 255 255
-0.0971718 0.202402 1.677 255 255 255
-0.128154 -0.480665 1.442 255 255 255
0.140721 0.0623684 0.407 255 255 255
-0.759019 0.279696 1.65 255 255 255
-0.112807 -0.385817 1.456 255 255 255
0.036424 0.0989816 0.419 255 255 255
0.151492 -0.196706 1.187 255 255 255
0.201901 -0.000727322 0.536 0 0 0
0.389127 -0.149493 0.868 255 255 255
0.273639 -0.368092 1.048 255 255 255
-0.0340126 0.171574 0.439 255 255 255
-0.43292 -0.189578 1.947 255 255 255
-0.00150157 0.219439 1.547 0 0 0
0.0901052 0.14395 0.386 255 255 255
-0.471257 -0.561511 1.837 255 255 255
-0.263918 -0.325215 1.696 255 255 255
-0.00128026 -0.366686 1.319 255 255 255
-0.414243 -0.506131 1.81 255 255 255
0.0890225 -0.200602 1.26 255 255 255
0.0820436 0.130084 0.375 255 255 255
0.145599 0.147202 1.327 255 255 255
0.215366 0.0144144 0.516 0 0 0
-0.422812 -0.556923 1.784 255 255 255
-0.0291305 0.142574 0.489 0 0 0
-0.639233 0.379133 1.473 255 255 255
-0.854799 0.174408 1.724 255 255 255
-0.283126 -0.320289 1.729 255 255 255
-0.842276 0.299674 1.599 255 255 255
0.129354 -0.155871 1.215 255 255 255
-0.757202 0.306204 1.579 255 255 255
0.16978 0.0728299 0.399 0 0 0
0.213671 0.0169992 0.518 0 0 0
-0.560357 -0.572392 1.769 255 255 255
0.825403 -0.919184 2.365 0 0 0
-0.651999 -0.260709 1.911 255 255 255
0.1088 -0.283152 1.185 255 255 255
0.137268 0.112906 1.33 255 255 255
0.0814232 0.114106 0.449 255 255 255
-0.0749167 0.164514 0.453 255 255 255
-0.817876 0.158032 1.729 255 255 255
-0.607559 0.391645 1.466 255 255 255
0.193047 -0.39137 1.094 255 255 255
-0.489249 -0.602044 1.815 255 255 255
-0.318016 -0.230791 1.799 255 255 255
0.39205 -0.134432 0.862 255 255 255
0.149742 0.0471428 0.466 255 255 255
-0.364867 0.34562 1.583 255 255 255
-0.660608 -0.389385 1.815 255 255 255
-0.316358 0.125675 1.876 255 255 255
-0.382385 0.289321 1.659 255 255 255
0.335221 -0.0445907 0.655 0 0 0
0.191445 -0.370578 1.075 255 255 255
-0.674527 0.470425 1.313 255 255 255
-0.045558 -0.0510248 1.505 255 255 255
0.184619 0.135436 0.396 0 0 0
-0.300954 -0.555347 1.642 255 255 255
-0.287571 -0.00250763 1.848 255 255 255
-0.00841736 0.127194 0.488 0 0 0
-0.00982665 0.172083 0.444 255 255 255
0.295642 0.112877 0.587 255 255 255
-0.0799256 0.200229 1.659 255 255 255
-0.62145 -0.118203 1.972 0 0 0
0.24849 0.0521861 0.533 255 255 255
0.0815506 -0.316693 1.21 255 255 255
-0.06572 -0.232921 1.463 255 255 255
-0.735791 -0.240085 1.848 255 255 255
-0.0835779 0.161151 0.456 0 0 0
0.43234 -0.2416 0.864 255 255 255
-0.675238 0.464644 1.327 255 255 255
0.15061 0.176814 0.464 0 0 0
-0.967278 0.0964193 1.842 255 255 255
0.412882 -0.232153 0.85 255 255 255
-0.741772 0.288502 1.624 255 255 255
0.276832 -0.342328 1.022 255 255 255
0.413009 -0.0944921 0.856 255 255 255
-0.371579 0.233387 1.789 255 255 255
-0.820212 -0.10371 1.941 255 255 255
-0.239352 -0.477647 1.571 255 255 255
-0.708028 -0.492235 1.682 255 255 255
0.0537925 0.00497736 1.412 255 255 255
0.171735 -0.153511 1.167 255 255 255
0.16396 0.177865 0.457 255 255 255
-0.664022 -0.465878 1.769 255 255 255
-0.574186 0.259128 1.691 255 255 255
-0.644029 0.376736 1.473 255 255 255
-0.266602 0.381541 1.551 255 255 255
0.0809989 0.128783 0.373 255 255 255
0.0887265 0.150905 0.391 255 255 255
0.21782 -0.307842 0.981 0 0 0
0.11966 0.166863 0.47 255 255 255
-0.119007 -0.535715 1.39 0 0 0
0.024781 0.0847862 0.43 255 255 255
-0.112265 -0.388678 1.449 255 255 255
0.20875 0.0586138 1.194 255 255 255
0.155095 -0.163592 1.185 255 255 255
-0.437703 0.161209 1.899 255 255 255
0.212963 0.0466016 1.185 255 255 255
-1.10495 -0.266504 2.312 255 255 255
0.370212 -0.164312 0.887 255 255 255
-0.0944911 -0.288269 1.466 255 255 255
-1.07352 -0.485972 2.151 255 255 255
0.195654 0.100003 0.391 255 255 255
-0.740798 -0.222642 1.853 255 255 255
0.2216 -0.281267 1.036 255 255 255
-0.979347 -0.126715 2.114 255 255 255
-0.965553 0.00684211 1.941 255 255 255
0.169481 0.11866 0.426 0 0 0
0.274548 -0.24313 0.984 255 255 255
-0.600077 0.104875 1.734 255 255 255
-0.187256 -0.119624 1.677 255 255 255
-0.153046 -0.380897 1.502 255 255 255
0.798454 -0.915335 2.365 0 0 0
0.280676 -0.125433 1.03 255 255 255
-0.389482 0.265441 1.714 255 255 255
0.0304026 0.127058 0.394 255 255 255
-0.370167 0.310598 1.629 255 255 255
-0.421268 0.367614 1.535 255 255 255
0.303775 -0.101831 1.012 255 255 255
0.382503 -0.16522 0.869 255 255 255
-0.382915 0.443855 1.412 255 255 255
0.239292 -0.238278 1.018 255 255 255
-0.75384 -0.146858 1.848 255 255 255
0.3232 -0.0219695 0.648 0 0 0
-0.799404 0.290713 1.607 255 255 255
-0.692854 0.184923 1.799 255 255 255
-0.0612353 0.167086 0.45 255 255 255
0.053171 0.151251 0.387 255 255 255
-0.453795 -0.569554 1.815 255 255 255
0.098411 -0.186655 1.249 255 255 255
0.202532 0.0734851 1.215 255 255 255
-0.123863 -0.015503 1.633 255 255 255
0.146833 0.0431651 0.464 0 0 0
-0.607033 0.401647 1.459 255 255 255
0.00538716 0.0975946 0.447 0 0 0
-0.551186 0.0531783 1.705 255 255 255
-0.641438 0.224034 1.739 255 255 255
0.229391 -0.162744 1.089 255 255 255
0.0583894 0.0693154 1.412 255 255 255
-0.496505 0.362345 1.513 255 255 255
0.0562499 0.0533817 1.416 255 255 255
0.0481313 0.146213 0.387 255 255 255
-0.490189 -0.415684 1.923 255 255 255
-0.156249 0.0501377 1.696 255 255 255
-0.590195 0.497258 1.283 255 255 255
0.206282 -0.0529496 1.169 255 255 255
0.0315084 -0.441338 1.18 0 0 0
0.175646 -0.194995 1.143 255 255 255
-0.526827 0.345454 1.559 255 255 255
-0.541021 0.0632335 1.753 255 255 255
0.0855758 0.109945 0.444 255 255 255
-0.785878 0.274326 1.65 255 255 255
-0.164156 -0.541948 1.449 255 255 255
0.196058 0.0404591 0.459 255 255 255
0.24337 -0.288685 0.981 0 0 0
0.000799779 -0.465079 1.217 0 0 0
0.147917 0.165584 0.458 255 255 255
0.397289 -0.00263511 0.883 255 255 255
0.126152 -0.0330589 1.283 255 255 255
0.0799735 0.107296 0.445 255 255 255
-0.0139779 0.144665 0.488 255 255 255
-0.747601 0.267383 1.691 255 255 255
-0.796622 -0.638606 1.65 255 255 255
-0.201909 -0.490458 1.539 255 255 255
-0.342051 -0.46534 1.714 255 255 255
-0.418173 -0.535194 1.789 255 255 255
0.240608 -0.0736267 1.108 255 255 255
-0.605648 -0.61153 1.664 255 255 255
-0.512302 0.0557861 1.997 255 255 255
0.376857 -0.290949 0.932 255 255 255
-0.207262 -0.313278 1.62 255 255 255
0.0930606 -0.272329 1.232 255 255 255
0.0289215 0.0873902 0.419 255 255 255
0.302519 -0.123036 0.997 255 255 255
-0.0924709 0.139392 1.642 255 255 255
0.219749 0.0882737 1.201 255 255 255
0.170113 -0.374737 1.062 255 255 255
0.202172 0.0989717 1.237 255 255 255
0.217945 -0.111894 1.112 255 255 255
0.372131 -0.323371 0.947 255 255 255
0.193021 -0.330091 1.01 0 0 0
-0.711725 -0.252114 1.848 255 255 255
0.369772 -0.242999 0.869 255 255 255
0.108258 0.0961469 0.407 255 255 255
0.0655117 -0.365491 1.242 255 255 255
-1.00002 0.00690556 1.959 0 0 0
-0.132758 -0.541127 1.416 255 255 255
-0.0837349 0.173195 0.445 255 255 255
-0.282875 0.237619 1.799 255 255 255
-0.217818 0.409005 1.477 255 255 255
-0.0116642 0.210993 1.559 0 0 0
0.16482 0.0707044 0.398 255 255 255
0.0560278 0.0951335 0.439 255 255 255
-0.861083 0.228679 1.65 255 255 255
0.111584 -0.106282 1.26 255 255 255
0.0127694 -0.454182 1.225 0 0 0
-0.426879 -0.652796 1.753 255 255 255
-0.0527827 -0.263491 1.435 255 255 255
-0.301687 0.236298 1.789 255 255 255
0.376835 -0.145876 0.889 255 255 255
-0.278203 0.208499 1.826 255 255 255
0.0131864 -0.409314 1.265 255 255 255
0.298067 -0.100482 1.015 255 255 255
-0.530158 0.104916 1.887 0 0 0
0.0686909 0.134693 0.447 255 255 255
0.298798 0.102894 0.607 0 0 0
-0.633525 -0.544953 1.71 255 255 255
0.0427471 0.106325 0.373 255 255 255
0.137973 0.124993 0.436 255 255 255
0.281304 0.119468 0.564 0 0 0
-0.410832 -0.446976 1.821 255 255 255
0.0149715 0.155942 0.474 0 0 0
-0.52183 0.486491 1.316 255 255 255
-0.0968115 -0.244019 1.502 255 255 255
0.146427 0.0243387 0.531 255 255 255
0.133911 0.0891775 0.421 255 255 255
-0.31165 0.408345 1.466 255 255 255
-0.601161 0.0764361 1.729 255 255 255
0.0562499 0.0303387 1.416 255 255 255
-0.580514 -0.589664 1.769 255 255 255
-1.03346 -0.50998 2.064 255 255 255
-0.0317201 0.0532853 1.547 255 255 255
0.107582 0.10347 0.402 255 255 255
-0.538391 0.356601 1.52 255 255 255
0.00942912 0.139199 0.467 255 255 255
-0.767405 0.0579815 1.859 255 255 255
-0.0440748 -0.167833 1.456 255 255 255
-0.808131 -0.518809 1.763 255 255 255
0.280029 0.125012 0.556 0 0 0
0.17731 0.130369 0.435 255 255 255
-0.0203179 -0.068131 1.452 255 255 255
-0.985534 -0.233658 2.181 255 255 255
0.107194 0.107007 0.403 255 255 255
0.236067 -0.394783 1.079 255 255 255
-0.289016 -0.610593 1.591 255 255 255
-0.589097 0.48232 1.299 255 255 255
-0.171407 -0.467399 1.513 255 255 255
0.167143 -0.005174 0.545 255 255 255
0.216275 -0.230864 1.068 255 255 255
0.372596 -0.178565 0.879 255 255 255
-0.315381 0.332608 1.62 255 255 255
0.196309 0.00443891 0.528 255 255 255
0.182007 0.0352348 0.469 255 255 255
-0.253534 -0.148289 1.758 255 255 255
-0.87891 0.167917 1.744 255 255 255
-0.259258 -0.151149 1.758 255 255 255
0.155302 0.179033 0.46 255 255 255
-0.341009 0.0480526 1.947 255 255 255
-0.815061 0.186168 1.729 0 0 0
0.290022 -0.134502 1.01 255 255 255
0.25231 -0.377883 1.066 255 255 255
0.0488873 0.149116 0.388 255 255 255
-0.0839894 0.122683 1.633 255 255 255
0.139662 0.108954 0.426 255 255 255
-0.511399 0.206027 1.779 255 255 255
-0.52588 -0.258009 2.037 255 255 255
-0.572211 -0.141941 2.085 255 255 255
-0.364288 -0.146887 1.887 255 255 255
-0.335698 0.287493 1.696 255 255 255
0.170362 -0.182293 1.145 255 255 255
-0.389144 -0.353446 1.859 255 255 255
-0.659088 0.0670664 1.779 255 255 255
0.215226 -0.268663 1.046 255 255 255
-0.23221 0.0772844 1.815 255 255 255
-0.684068 0.184923 1.799 255 255 255
-0.254665 0.347378 1.603 255 255 255
-0.695789 0.0208044 1.784 255 255 255
-0.366605 0.130306 1.899 255 255 255
0.213769 -0.00693504 0.544 255 255 255
-0.486269 0.19067 1.826 255 255 255
-0.199446 -0.328476 1.579 255 255 255
-0.637214 -0.4123 1.799 255 255 255
0.243553 -0.220759 1.029 255 255 255
-0.288731 -0.154674 1.799 255 255 255
0.334427 -0.151989 0.945 255 255 255
-0.0393472 0.165255 0.451 255 255 255
-0.253727 0.210891 1.821 255 255 255
-0.058832 -0.328202 1.412 255 255 255
0.175082 0.0755749 0.488 0 0 0
0.0372832 0.0898626 0.421 0 0 0
0.130972 0.174549 0.464 255 255 255
-0.439701 -0.223047 1.935 255 255 255
0.178486 0.151614 0.431 255 255 255
0.341329 -0.325999 0.978 255 255 255
0.188488 -0.0080647 0.561 0 0 0
0.136129 0.177171 0.461 255 255 255
0.330431 -0.20808 0.921 255 255 255
0.407711 -0.221554 0.831 255 255 255
0.0819673 0.121488 0.452 255 255 255
-0.192519 -0.187854 1.607 255 255 255
0.00947662 -0.309434 1.322 255 255 255
0.103699 0.100786 0.418 255 255 255
0.331438 -0.0887702 0.977 255 255 255
0.212248 -0.18274 1.092 255 255 255
0.167262 -0.00167175 1.232 255 255 255
-0.0454463 0.171574 0.439 255 255 255
1.10606 -0.915686 2.356 255 255 255
-0.50695 0.199006 1.794 255 255 255
0.0612466 0.146479 1.425 255 255 255
0.214259 -0.0263618 1.171 255 255 255
-0.65202 -0.285978 1.893 255 255 255
0.409363 -0.0910517 0.863 255 255 255
-0.466604 0.489551 1.342 255 255 255
0.191027 0.163613 1.27 255 255 255
0.0770207 -0.228159 1.265 255 255 255
0.224653 0.033989 0.52 0 0 0
-0.197751 -0.190469 1.607 255 255 255
-0.790927 0.122758 1.789 255 255 255
-0.673824 0.451522 1.359 255 255 255
0.394312 -0.0761765 0.886 255 255 255
-0.064341 0.0684276 1.607 255 255 255
0.0677688 0.0926963 0.441 255 255 255
-0.636896 0.298073 1.633 255 255 255
0.164418 0.185372 1.322 255 255 255
0.193582 -0.279193 1.087 255 255 255
-0.439322 0.314154 1.62 255 255 255
0.431786 -0.301517 0.883 255 255 255
-0.40244 0.445112 1.416 255 255 255
0.04703 0.00499146 1.416 255 255 255
0.16405 0.133835 1.302 255 255 255
0.133101 0.112413 0.434 0 0 0
0.103702 -0.342692 1.171 255 255 255
0.00727479 -0.345788 1.313 255 255 255
0.132425 0.135117 0.446 255 255 255
0.328379 -0.0348373 0.652 0 0 0
-0.355023 -0.581891 1.696 255 255 255
-0.925715 -0.265686 2.071 255 255 255
0.192165 -0.281479 1.089 255 255 255
0.294865 -0.283532 0.913 255 255 255
0.0522234 0.140207 1.432 255 255 255
-0.640564 0.22556 1.729 255 255 255
-0.69043 -0.609981 1.603 255 255 255
0.384543 -0.206004 0.797 255 255 255
-0.405505 -0.196642 1.893 255 255 255
-0.983778 -0.480335 2.024 0 0 0
0.203428 -0.195174 1.102 255 255 255
0.0956366 0.187427 1.419 255 255 255
0.27665 -0.255414 0.958 0 0 0
0.127039 0.170324 0.469 255 255 255
0.174866 -0.177436 1.126 255 255 255
0.291865 -0.0821707 1.034 255 255 255
-0.977764 -0.00588498 1.972 255 255 255
0.364014 -0.0806474 0.938 255 255 255
-0.38989 0.285461 1.668 255 255 255
0.0379536 0.130131 0.386 255 255 255
-0.38876 0.438666 1.425 255 255 255
-0.161039 0.262173 1.748 255 255 255
-0.448029 0.440083 1.4 255 255 255
-0.376961 0.31493 1.624 255 255 255
0.277184 -0.0443524 1.055 255 255 255
-0.155379 -0.14536 1.629 255 255 255
-0.728982 0.411418 1.419 255 255 255
0.405838 -0.269841 0.902 255 255 255
0.164799 0.0729643 1.275 255 255 255
-0.750831 -0.219033 1.848 255 255 255
0.23584 -0.175576 1.07 255 255 255
-0.0116044 0.189718 1.551 255 255 255
-0.0742808 -0.508351 1.319 255 255 255
0.151666 -0.379618 1.066 255 255 255
0.183553 -0.231327 1.112 255 255 255
-0.840779 -0.224793 1.923 255 255 255
-0.121261 -0.334456 1.502 255 255 255
-0.0733624 -0.244101 1.473 255 255 255
0.040563 0.124105 0.381 255 255 255
0.18088 0.147655 0.414 255 255 255
0.0850777 0.125066 0.449 255 255 255
-1.10343 -0.16165 2.121 255 255 255
-0.0381815 -0.390101 1.333 255 255 255
-0.544614 0.0755386 1.774 255 255 255
-0.661953 0.316298 1.591 255 255 255
-0.567019 -0.334204 1.887 255 255 255
-0.704762 0.293788 1.624 255 255 255
-0.0394156 -0.106448 1.459 255 255 255
0.151146 0.0541994 0.468 0 0 0
-0.0376326 -0.285249 1.393 255 255 255
1.19275 -0.863033 2.338 255 255 255
0.428926 -0.259287 0.886 255 255 255
-0.552406 -0.181767 2.037 0 0 0
0.0343608 0.124491 0.388 255 255 255
-0.047677 0.0619389 1.575 255 255 255
0.198319 -0.102171 1.145 255 255 255
0.180777 -0.0056031 1.215 255 255 255
-0.261133 -0.564875 1.579 255 255 255
-0.436558 0.186346 1.842 255 255 255
0.0894292 -0.30094 1.21 255 255 255
0.0670005 0.0810026 0.436 255 255 255
-0.294982 -0.0849731 1.876 255 255 255
-0.63775 -0.497549 1.729 255 255 255
-0.348325 0.298316 1.664 255 255 255
0.0597659 0.0829405 0.435 255 255 255
0.248236 -0.290078 0.939 0 0 0
0.117792 -0.126689 1.239 255 255 255
-0.0256154 -0.304376 1.357 255 255 255
-0.782302 -0.427001 1.763 255 255 255
0.380472 -0.145055 0.884 255 255 255
-1.1434 -0.268464 2.329 255 255 255
-0.882836 -0.459941 1.899 255 255 255
0.0562499 0.0464688 1.416 255 255 255
-0.0692264 0.122731 1.599 255 255 255
-0.186251 -0.135268 1.668 255 255 255
-0.556166 0.33871 1.563 255 255 255
-0.508798 0.167428 1.865 255 255 255
-0.0553684 0.0491237 1.575 255 255 255
0.284218 -0.0591236 1.043 255 255 255
-0.566206 0.183885 1.734 255 255 255
-0.322741 -0.468713 1.686 255 255 255
-0.565108 -0.501763 1.784 255 255 255
0.184817 -0.398161 1.098 255 255 255
0.436664 -0.291821 0.867 255 255 255
-0.247106 -0.142161 1.753 255 255 255
-0.362232 -0.467809 1.744 255 255 255
-0.777764 0.306204 1.579 255 255 255
-0.213698 -0.557139 1.516 255 255 255
0.105067 -0.350415 1.165 255 255 255
0.0669886 -0.237328 1.27 255 255 255
-0.0340678 0.161464 0.459 255 255 255
-0.161875 -0.38198 1.516 255 255 255
-0.143582 -0.542581 1.432 255 255 255
0.0207728 0.0961688 0.434 0 0 0
0.133859 -0.128717 1.22 255 255 255
0.280676 -0.350037 1.03 255 255 255
-0.366868 0.334335 1.603 255 255 255
0.0587862 0.0762175 0.433 255 255 255
-0.624609 -0.608822 1.664 255 255 255
-0.655383 0.0551745 1.769 255 255 255
-0.308285 -0.453915 1.682 255 255 255
0.403795 -0.270439 0.904 255 255 255
-0.794299 -0.523066 1.739 255 255 255
0.118897 -0.331507 1.152 255 255 255
-0.0829073 -0.179683 1.516 255 255 255
0.335852 0.0502603 0.669 0 0 0
0.0989757 0.0953329 0.424 255 255 255
0.155095 -0.171306 1.185 255 255 255
0.396588 -0.0276146 0.901 255 255 255
-0.021697 0.148685 0.483 255 255 255
-0.672388 0.238935 1.724 255 255 255
0.162472 0.0351143 1.257 255 255 255
0.401773 -0.134849 0.847 255 255 255
0.205671 0.0639802 0.422 255 255 255
0.013718 -0.284472 1.316 255 255 255
-0.777735 -0.0242089 1.899 255 255 255
-0.478208 -0.509322 1.876 255 255 255
0.116516 -0.454778 1.185 255 255 255
-0.499816 -0.616158 1.779 0 0 0
0.0508972 -0.130085 1.336 255 255 255
-0.281863 0.0552815 1.87 255 255 255
-0.57241 -0.0223477 1.753 255 255 255
-0.442889 0.369388 1.532 255 255 255
0.26034 -0.0632701 1.085 255 255 255
-0.519563 0.0403231 1.882 255 255 255
-0.392332 -0.610793 1.739 255 255 255
0.141382 0.0451366 0.461 0 0 0
0.0539449 0.0211215 1.416 255 255 255
-0.211411 0.0266853 1.789 255 255 255
1.23969 -0.92072 2.43 255 255 255
-0.529313 0.482985 1.324 255 255 255
0.173876 0.0512529 0.476 255 255 255
-0.680141 0.388463 1.463 255 255 255
0.195079 0.0130065 0.527 0 0 0
-0.448615 0.43374 1.409 255 255 255
-0.0709718 -0.349775 1.425 255 255 255
-0.628059 0.332774 1.571 255 255 255
0.254772 -0.284799 0.952 0 0 0
-0.66872 0.151624 1.821 0 0 0
-0.0716415 -0.502751 1.31 255 255 255
0.110215 -0.386384 1.085 0 0 0
0.1801 0.0460178 0.47 255 255 255
0.309984 -0.190896 0.955 255 255 255
0.357925 -0.167438 0.896 255 255 255
-0.272731 0.12223 1.87 255 255 255
0.0587868 0.115365 0.367 0 0 0
0.187598 0.115819 0.411 0 0 0
-0.962975 -0.716987 1.917 255 255 255
-0.0065549 0.131667 1.551 255 255 255
-0.312082 -0.475989 1.673 255 255 255
0.083133 0.0921431 0.435 255 255 255
-1.05517 -0.116452 1.997 255 255 255
0.411181 -0.0905241 0.858 255 255 255
-0.577916 -0.38246 1.853 255 255 255
-0.253526 -0.251365 1.682 255 255 255
0.248523 -0.170586 1.05 255 255 255
0.14313 0.0164847 0.457 255 255 255
0.120631 0.174549 0.462 0 0 0
-0.0060224 -0.0599072 1.425 255 255 255
-0.245837 0.261573 1.744 255 255 255
0.081039 0.0994199 0.439 255 255 255
0.0929025 0.136242 0.382 255 255 255
-0.147558 -0.299162 1.547 255 255 255
-0.521548 0.194994 1.784 0 0 0
-0.529699 -0.0535436 2.078 255 255 255
-0.344046 -0.434389 1.724 255 255 255
0.0432055 0.122189 0.377 255 255 255
-0.363305 -0.551531 1.696 255 255 255
0.201847 0.0459481 0.447 255 255 255
0.378344 -0.110572 0.896 255 255 255
0.212783 -0.411116 1.104 255 255 255
0.294089 -0.0818528 1.03 255 255 255
-0.053341 0.0573899 1.591 255 255 255
0.295998 -0.0781194 1.025 255 255 255
0.176211 -0.297429 1.089 255 255 255
-0.392993 0.386969 1.494 255 255 255
-0.114681 -0.0127119 1.616 255 255 255
1.09846 -0.837563 2.269 255 255 255
-0.55947 0.346206 1.551 255 255 255
-0.526888 0.0174999 1.744 255 255 255
-0.0660344 -0.207722 1.47 255 255 255
0.0319891 -0.434423 1.198 0 0 0
0.139432 0.178308 0.462 255 255 255
-0.388803 -0.16482 1.917 255 255 255
-0.239562 0.193641 1.826 255 255 255
-0.276898 -0.453809 1.642 255 255 255
0.30752 -0.225659 0.938 255 255 255
0.412685 -0.0622729 0.873 255 255 255
0.268849 -0.267892 0.947 0 0 0
-0.666749 -0.0227429 1.784 255 255 255
0.402307 -0.0930988 0.869 255 255 255
-0.146219 -0.520365 1.435 255 255 255
-0.462852 0.4219 1.439 255 255 255
0.184043 0.135297 0.426 0 0 0
0.04228 0.096682 0.43 255 255 255
0.212492 -0.0104569 0.543 0 0 0
0.274929 -0.204159 0.997 255 255 255
-0.163508 -0.310831 1.555 255 255 255
-1.04256 -0.094032 2.004 255 255 255
0.0840255 -0.114763 1.31 255 255 255
0.0508871 -0.299837 1.281 255 255 255
-0.464796 -0.528908 1.859 255 255 255
0.308537 -0.176531 0.97 255 255 255
0.163187 0.138791 0.437 255 255 255
-0.326393 0.0785081 1.917 255 255 255
0.409942 -0.170541 0.801 0 0 0
0.268597 -0.396303 1.055 255 255 255
-0.71867 -0.296182 1.805 255 255 255
0.363203 -0.105915 0.932 255 255 255
-0.00137442 -0.0480074 1.416 255 255 255
-1.08042 -0.208374 2.253 255 255 255
-0.682393 0.38153 1.473 255 255 255
-0.759907 -0.623899 1.612 255 255 255
0.0472293 0.0235251 1.422 255 255 255
-0.164777 -0.378041 1.52 255 255 255
-0.318016 -0.233719 1.799 255 255 255
-0.0449987 0.0566685 1.571 255 255 255
0.240904 -0.329764 1.004 255 255 255
0.0403829 -0.122479 1.348 255 255 255
-0.259858 -0.0419853 1.865 255 255 255
-0.742406 0.382652 1.459 255 255 255
0.412809 -0.281796 0.898 255 255 255
0.318417 0.0698805 0.649 255 255 255
-1.14803 -0.232929 2.278 255 255 255
-0.061497 0.15383 0.463 0 0 0
0.182577 0.139407 0.4 255 255 255
-0.634988 -0.248238 1.935 255 255 255
0.10886 -0.321977 1.165 255 255 255
0.396751 -0.238248 0.857 255 255 255
-1.25999 -0.450891 2.392 255 255 255
0.149982 0.139744 0.44 0 0 0
-0.399138 -0.618226 1.744 255 255 255
-0.72933 -0.218598 1.87 255 255 255
0.196435 0.0753626 0.467 255 255 255
0.047886 -0.442532 1.158 255 255 255
0.265586 -0.16566 1.03 255 255 255
0.330615 0.0727112 0.646 255 255 255
-0.304933 -0.22181 1.774 255 255 255
-0.618751 -0.58603 1.7 255 255 255
0.0553494 0.125807 0.457 0 0 0
0.317054 -0.228068 0.917 0 0 0
-0.373793 0.367614 1.535 255 255 255
0.239786 -0.0942319 1.096 255 255 255
-0.622929 0.48232 1.299 255 255 255
0.119696 0.056664 0.429 255 255 255
-0.525218 0.0696677 1.848 255 255 255
0.31036 -0.251484 0.869 255 255 255
0.177756 0.0102753 0.519 0 0 0
0.0641357 0.12479 0.456 255 255 255
0.0611666 0.120337 0.456 255 255 255
0.368478 -0.135097 0.904 255 255 255
-0.0403941 0.159857 0.463 255 255 255
-0.0532488 -0.49047 1.278 255 255 255
-0.728554 -0.538688 1.624 255 255 255
-0.391153 -0.427403 1.826 255 255 255
-0.495523 -0.62886 1.774 0 0 0
0.101627 0.206302 1.406 255 255 255
0.173938 0.16415 0.452 0 0 0
0.158918 0.175672 1.33 255 255 255
-0.558866 -0.410314 1.87 255 255 255
-0.00319348 -0.465665 1.229 0 0 0
-0.159356 -0.497175 1.47 255 255 255
-1.04287 -0.0985554 2.03 255 255 255
-0.0414581 0.242267 1.633 255 255 255
0.190709 0.0997468 0.39 255 255 255
-0.752711 0.3554 1.484 255 255 255
-0.0210402 0.167093 0.452 255 255 255
-0.982392 0.0672736 1.865 0 0 0
-1.07467 -0.152584 2.189 255 255 255
-0.697966 -0.416021 1.753 255 255 255
0.398191 -0.00414122 0.898 255 255 255
-0.515231 0.131953 1.923 255 255 255
0.0187393 0.0880978 0.436 255 255 255
-0.0332514 0.167801 0.448 255 255 255
-0.816725 0.0556363 1.882 0 0 0
0.180561 0.0912003 0.397 255 255 255
-0.264186 0.265717 1.734 255 255 255
-0.557632 -0.0959089 2.044 0 0 0
-0.00660562 0.112337 1.563 255 255 255
-0.669434 0.413157 1.425 255 255 255
0.219063 0.100583 1.208 255 255 255
-0.419342 -0.530851 1.794 255 255 255
-0.0255689 -0.480602 1.247 255 255 255
0.315295 0.0932904 0.622 0 0 0
-0.0935733 -0.402869 1.416 255 255 255
0.296471 -0.122266 1.004 255 255 255
0.0433201 0.124974 0.378 255 255 255
-0.234986 -0.539961 1.559 255 255 255
0.0468876 0.125257 0.377 255 255 255
-0.51415 0.0268039 2.017 255 255 255
-0.252056 -0.453464 1.603 255 255 255
-0.50435 -0.367391 1.966 255 255 255
-0.280014 -0.291725 1.71 255 255 255
-0.328374 -0.609692 1.659 255 255 255
-1.12254 -0.776504 2.151 255 255 255
0.0358413 0.10317 0.377 255 255 255
-0.211222 -0.388168 1.571 255 255 255
-0.65301 0.239777 1.71 255 255 255
0.23736 -0.202277 1.046 255 255 255
0.224691 -0.422641 1.092 255 255 255
-0.663183 0.443705 1.369 255 255 255
0.00105794 0.163625 0.463 255 255 255
-0.629088 0.213326 1.744 255 255 255
-0.706637 -0.172543 1.899 255 255 255
-0.183894 -0.416743 1.535 255 255 255
0.180369 0.13514 0.439 255 255 255
-0.0493218 -0.330676 1.403 255 255 255
0.305752 -0.236844 0.928 255 255 255
0.147065 0.0270729 0.46 255 255 255
0.876618 -0.877956 2.278 0 0 0
0.309445 -0.0916778 1.009 255 255 255
0.431751 -0.276148 0.88 255 255 255
0.0254404 -0.393343 1.26 255 255 255
-0.254129 -0.246475 1.686 255 255 255
-0.720198 -0.19121 1.87 255 255 255
-0.24614 -0.398173 1.633 255 255 255
0.121476 -0.345053 1.141 255 255 255
0.226883 -0.158151 1.094 255 255 255
-0.517906 -0.479021 1.865 0 0 0
0.302128 -0.381797 1.012 255 255 255
0.13629 0.0983169 0.422 255 255 255
0.184043 0.124206 0.426 255 255 255
0.117924 -0.0756453 1.262 255 255 255
-0.00776832 -0.351634 1.327 255 255 255
0.0940767 0.0994809 0.43 255 255 255
-0.340048 0.438666 1.425 255 255 255
0.252784 -0.109204 1.068 255 255 255
0.0850777 0.124335 0.449 255 255 255
0.119615 -0.134537 1.237 255 255 255
0.285315 -0.169817 1.005 255 255 255
0.408367 -0.0469663 0.879 255 255 255
0.389859 -0.0778812 0.889 255 255 255
0.0797921 -0.252713 1.244 255 255 255
0.424963 -0.123131 0.833 255 255 255
-0.599859 0.463344 1.342 255 255 255
0.0893047 0.129297 0.441 255 255 255
0.165822 0.0805736 0.402 0 0 0
-0.645215 0.333623 1.563 255 255 255
0.167071 0.137054 0.436 255 255 255
-0.150076 -0.304196 1.547 255 255 255
-0.567716 -0.0399367 1.774 255 255 255
-0.675889 -0.233451 1.917 255 255 255
0.0242248 -0.309702 1.305 255 255 255
0.359639 -0.207082 0.855 0 0 0
-0.478378 0.184443 1.853 255 255 255
-0.560996 -0.0166423 1.753 255 255 255
-0.399363 0.0522207 1.985 255 255 255
0.20591 0.00781616 0.524 255 255 255
-0.476074 0.498433 1.308 255 255 255
0.28458 -0.0988058 1.032 255 255 255
0.156528 0.132526 1.31 255 255 255
0.342322 -0.199163 0.901 255 255 255
0.399169 -0.195196 0.79 255 255 255
0.0243776 0.0944197 0.423 0 0 0
0.136712 0.0842587 0.417 255 255 255
-0.329686 0.192967 1.848 255 255 255
-1.03898 -0.175149 2.204 255 255 255
0.180251 -0.289363 1.092 255 255 255
-0.703833 0.252949 1.705 255 255 255
0.293202 -0.141872 1.004 255 255 255
-0.281488 -0.329626 1.719 255 255 255
-0.151115 -0.331164 1.532 255 255 255
-0.554461 -0.08668 1.985 255 255 255
0.122685 -0.337697 1.135 255 255 255
