ply
format ascii 1.0
comment Created by Open3D
element vertex 1315
property double x
property double y
property double z
property uchar red
property uchar green
property uchar blue
end_header
-0.36371 -0.598788 1.779 255 255 255
-0.279713 -0.53985 1.876 0 0 0
-0.314211 -0.621353 1.794 255 255 255
-1.08272 -0.513445 2.449 255 255 255
-1.14115 -0.790795 2.294 255 255 255
0.0975953 0.101543 0.424 255 255 255
0.318911 -0.113153 1.143 255 255 255
0.178885 -0.313228 1.302 255 255 255
-0.154721 0.483782 1.449 255 255 255
-0.0278676 0.308217 1.784 255 255 255
-0.11961 -0.367694 1.81 255 255 255
-1.1085 -0.359814 2.489 255 255 255
-1.13917 -0.471524 2.459 255 255 255
0.0711909 0.115567 0.449 255 255 255
0.0665162 0.114868 0.452 255 255 255
0.0631786 0.180248 0.471 255 255 255
-0.324551 0.326042 1.71 255 255 255
0.10068 -0.38224 1.425 255 255 255
0.182818 0.0773466 0.42 255 255 255
0.0956625 0.132319 0.371 0 0 0
0.249511 -0.381129 1.149 255 255 255
-0.843339 0.344936 1.616 255 255 255
0.278029 0.270772 1.362 255 255 255
-0.31955 0.415016 1.563 255 255 255
-0.337814 -0.4162 1.911 255 255 255
-1.22747 -0.294706 2.42 0 0 0
-0.751906 0.444383 1.459 255 255 255
-0.83308 0.191818 1.837 0 0 0
-0.817205 -0.295924 2.43 255 255 255
0.0897933 0.144324 0.382 255 255 255
0.19313 0.101104 0.403 0 0 0
0.215693 -0.11027 1.333 255 255 255
0.437636 -0.0809913 0.942 255 255 255
0.399871 -0.347172 1.057 255 255 255
0.274279 0.167391 1.333 255 255 255
-0.157898 0.493119 1.435 255 255 255
-0.414502 -0.0498589 1.935 255 255 255
0.196643 0.122302 0.591 0 0 0
-1.0588 -0.51743 2.449 255 255 255
0.188339 0.117475 1.439 255 255 255
-0.0681396 -0.149638 1.774 255 255 255
0.281211 -0.334462 1.077 255 255 255
-0.784691 0.326178 1.682 255 255 255
-0.657282 0.489414 1.366 255 255 255
-0.303874 0.327758 1.719 255 255 255
0.285448 0.0807538 1.267 255 255 255
-0.618723 -0.00276409 2.037 255 255 255
-0.771067 0.00750129 2.128 255 255 255
0.14195 0.143904 0.444 255 255 255
0.279815 0.00842039 1.242 255 255 255
-0.33879 0.194742 1.865 0 0 0
-0.0737499 -0.00849457 1.842 255 255 255
-0.0443595 -0.427088 1.642 255 255 255
0.355713 -0.0826923 1.085 255 255 255
0.186474 0.100192 0.41 0 0 0
0.472904 -0.25728 0.942 255 255 255
0.448686 -0.152937 0.888 255 255 255
0.148918 0.00516771 1.466 255 255 255
-0.341826 0.140113 1.865 0 0 0
0.184477 0.0989084 0.413 255 255 255
0.136723 0.0670197 1.516 255 255 255
0.205169 -0.229178 1.294 255 255 255
-0.231897 0.521227 1.362 255 255 255
-0.462046 0.150865 1.848 255 255 255
-0.18628 0.479011 1.456 255 255 255
0.210733 0.184484 1.432 255 255 255
0.323638 -0.204812 1.096 255 255 255
0.167546 0.129304 0.403 255 255 255
0.187652 0.169485 0.441 255 255 255
0.159299 -0.203203 1.39 255 255 255
0.222857 -0.077207 1.324 255 255 255
-0.217589 0.408962 1.599 255 255 255
-0.874444 0.275407 1.724 255 255 255
-0.790905 0.258735 1.744 255 255 255
-0.931322 0.211011 1.848 0 0 0
0.205109 0.0695334 0.533 255 255 255
-0.990061 -0.0125402 2.01 255 255 255
-0.842213 -0.195523 2.411 255 255 255
-1.06845 -0.8045 2.356 255 255 255
0.0215454 -0.294324 1.575 255 255 255
0.214368 -0.464242 1.286 255 255 255
0.272337 -0.267511 1.135 255 255 255
0.359074 -0.229831 1.01 255 255 255
0.359393 -0.245551 0.95 0 0 0
-0.386567 -0.29822 1.953 255 255 255
-1.03887 -0.56924 2.449 255 255 255
0.145627 0.146133 0.442 255 255 255
0.0321349 0.160748 0.501 255 255 255
0.279974 -0.145193 1.225 255 255 255
0.194267 0.106615 0.404 255 255 255
0.383651 -0.0810329 1.041 255 255 255
-0.950842 0.17357 1.899 255 255 255
-0.462866 -0.225122 1.953 255 255 255
0.279103 -0.447636 1.257 255 255 255
-0.469111 0.420913 1.52 255 255 255
0.379037 0.00205143 1.081 255 255 255
-0.738771 0.465477 1.429 255 255 255
0.311097 0.151349 1.254 255 255 255
0.115814 0.107525 1.567 255 255 255
-1.0194 -0.446661 2.499 255 255 255
0.44549 -0.124938 0.905 255 255 255
-1.09291 -0.452531 2.509 255 255 255
0.0875346 0.119148 0.383 255 255 255
-0.789491 -0.115557 2.303 255 255 255
-0.473852 0.370856 1.603 255 255 255
-0.984847 0.162228 1.911 255 255 255
-0.596146 0.308932 1.739 255 255 255
-0.0891841 0.330618 1.734 255 255 255
-0.0574074 0.383111 1.633 255 255 255
0.142134 -0.217137 1.422 255 255 255
-0.349378 -0.118587 2.092 255 255 255
0.196012 0.114802 0.592 255 255 255
0.101278 0.125423 0.44 255 255 255
0.13429 0.142448 0.366 0 0 0
0.331183 -0.419876 1.201 255 255 255
0.283511 -0.225821 1.158 255 255 255
-0.402484 -0.542408 1.784 255 255 255
0.184019 0.100738 0.415 255 255 255
-0.941446 -0.335457 2.519 0 0 0
-0.142897 0.470221 1.473 255 255 255
0.123604 -0.169384 1.449 255 255 255
-0.35602 -0.583052 1.784 255 255 255
-0.524702 -0.401199 1.815 255 255 255
-1.10992 -0.545051 2.43 255 255 255
-0.672997 0.443221 1.463 255 255 255
0.0207383 -0.451057 1.516 255 255 255
-0.459807 -0.431902 1.748 255 255 255
0.183576 0.0849999 0.414 255 255 255
-0.911713 -0.860988 2.253 0 0 0
-0.147927 -0.270331 1.87 255 255 255
-0.262709 0.0314287 2.107 255 255 255
0.512469 -0.982895 2.572 0 0 0
0.0439516 -0.0584838 1.646 255 255 255
0.0975494 0.129204 0.369 255 255 255
-0.768183 0.313069 1.7 255 255 255
-0.0528046 -0.571133 1.575 255 255 255
-0.703592 0.335268 1.646 255 255 255
-0.860585 -0.755301 2.244 255 255 255
-1.03644 -0.327039 2.582 255 255 255
-0.918169 -0.55567 2.374 0 0 0
0.40601 -0.218119 0.877 255 255 255
-0.322821 0.408986 1.579 255 255 255
0.522952 -0.788469 2.136 0 0 0
-1.21035 -0.2179 2.356 255 255 255
-0.736966 0.241707 1.744 255 255 255
0.136948 0.116211 0.435 255 255 255
-0.321154 0.163246 1.923 0 0 0
-0.0976043 0.476305 1.477 255 255 255
0.412508 0.000271467 1.004 255 255 255
0.353479 -0.419708 1.089 255 255 255
0.361334 -0.142212 1.055 255 255 255
0.342099 0.0712473 1.178 255 255 255
-0.505889 -0.13104 1.972 255 255 255
0.277299 -0.142848 1.222 255 255 255
0.272384 -0.313186 1.12 255 255 255
-0.414502 -0.16007 1.935 255 255 255
-0.522338 0.219609 1.87 0 0 0
0.358997 -0.0122997 1.106 255 255 255
-0.873946 -0.128523 2.204 255 255 255
0.207276 -0.199698 1.294 255 255 255
-0.339999 -0.353539 1.978 255 255 255
0.268205 -0.257784 1.141 255 255 255
0.211971 -0.159531 1.31 255 255 255
0.212252 0.0798887 1.396 255 255 255
-0.442182 0.214597 1.853 255 255 255
0.444314 -0.103502 0.924 255 255 255
0.236869 0.273608 1.435 255 255 255
-0.830671 -0.101633 2.166 255 255 255
-0.328422 0.348935 1.673 255 255 255
0.226818 0.184727 1.416 255 255 255
-0.345369 -0.567218 1.789 255 255 255
-0.896634 -0.159165 2.338 255 255 255
0.4188 -0.0608293 0.988 255 255 255
0.0473959 -0.0158828 1.673 255 255 255
-0.238808 0.460633 1.473 255 255 255
0.191462 0.130357 0.584 0 0 0
0.266944 0.261906 1.362 255 255 255
-0.777769 0.3326 1.673 255 255 255
0.339072 -0.221758 1.066 255 255 255
0.432724 -0.103544 0.938 255 255 255
0.128795 0.129311 0.446 255 255 255
0.108452 -0.0645316 1.535 255 255 255
-0.181279 0.334322 1.724 255 255 255
0.113228 -0.0220234 1.532 255 255 255
0.0237418 0.429497 1.551 255 255 255
-0.471407 -0.24044 1.923 255 255 255
-0.0186724 -0.00801957 1.739 255 255 255
-0.0076495 0.274418 1.81 255 255 255
-0.789246 -0.786383 2.121 255 255 255
0.0391366 0.177111 0.477 255 255 255
0.297161 0.139141 1.273 255 255 255
-1.02275 -0.791893 2.411 255 255 255
-0.390511 -0.0468549 1.941 255 255 255
0.127256 0.124095 1.551 255 255 255
-0.0801665 -0.541125 1.664 0 0 0
-0.233036 -0.163467 2.057 255 255 255
0.150754 -0.135571 1.416 255 255 255
-0.154966 -0.414821 1.81 255 255 255
-1.10201 -0.750681 2.43 255 255 255
-0.243068 -0.625331 1.876 255 255 255
-1.16577 -0.718321 2.22 255 255 255
-0.126681 -0.0930693 1.917 255 255 255
0.187235 -0.248066 1.316 255 255 255
-0.292982 -0.4814 1.923 0 0 0
0.442378 -0.294128 0.994 255 255 255
-1.08989 -0.232643 2.312 255 255 255
0.26618 -0.23829 1.173 255 255 255
0.0804018 0.107376 0.428 255 255 255
0.137765 -0.431332 1.294 0 0 0
0.086513 0.135706 0.384 255 255 255
0.423385 -0.0778793 0.98 255 255 255
-0.546537 0.404683 1.543 255 255 255
-0.259823 0.117716 2.057 255 255 255
-0.594756 -0.405028 1.917 0 0 0
-0.269522 -0.597954 1.848 0 0 0
-0.314872 0.356814 1.659 255 255 255
-0.232207 -0.589077 1.887 255 255 255
0.12901 -0.361792 1.357 255 255 255
0.0149399 0.177935 0.473 255 255 255
-0.474537 -0.0464203 1.923 255 255 255
-0.26944 0.353732 1.696 255 255 255
-0.140071 0.457475 1.494 255 255 255
0.331807 -0.0501739 1.149 255 255 255
-0.79282 0.0378865 2.085 0 0 0
0.100959 -0.459777 1.366 255 255 255
0.384646 -0.0305597 1.053 255 255 255
-0.154258 0.139859 1.991 255 255 255
-0.61991 -0.347999 1.947 255 255 255
0.116917 0.126124 0.445 255 255 255
0.116548 0.144291 0.452 255 255 255
-0.845778 0.182602 1.865 0 0 0
0.104639 0.119528 1.591 255 255 255
-0.680818 -0.613566 2.085 255 255 255
-0.850429 0.0371415 2.044 255 255 255
-0.913436 0.0239181 2.051 255 255 255
-0.326653 0.107762 1.831 255 255 255
0.0026207 0.178704 0.473 255 255 255
-0.852211 0.340592 1.633 255 255 255
0.215672 -0.241035 1.257 255 255 255
0.395513 -0.30973 1.041 255 255 255
0.309498 -0.300162 1.02 255 255 255
-0.0669694 0.223719 1.905 255 255 255
1.12529 -0.761997 2.286 0 0 0
0.403103 -0.0455213 1.005 255 255 255
-0.248945 -0.165136 2.078 255 255 255
-0.845012 0.21785 1.805 255 255 255
-0.474853 0.487513 1.412 255 255 255
-1.24831 -0.482032 2.392 255 255 255
0.238669 0.049072 0.493 0 0 0
-0.97547 -0.686268 2.44 255 255 255
-0.191367 0.385223 1.642 255 255 255
-0.778125 -0.282444 2.383 255 255 255
0.167596 -0.0759795 1.422 255 255 255
-0.831568 -0.310193 2.449 255 255 255
-0.353157 0.243474 1.799 0 0 0
0.157293 0.12677 0.414 255 255 255
-0.377558 -0.141082 2.024 255 255 255
0.353022 0.0503532 1.139 255 255 255
-0.202487 0.388928 1.624 255 255 255
0.299799 -0.322659 1.05 255 255 255
0.205747 0.0666154 0.454 0 0 0
-0.582183 0.233181 1.81 255 255 255
0.263535 0.0381649 1.291 255 255 255
-1.01701 -0.0652208 2.128 255 255 255
-0.851375 -0.614755 2.278 255 255 255
-0.835015 -0.550804 2.244 255 255 255
-0.210083 0.495649 1.409 255 255 255
-0.0687531 0.478709 1.477 255 255 255
-0.572096 0.446251 1.473 255 255 255
-0.904383 0.128505 1.966 255 255 255
0.151272 -0.426494 1.249 0 0 0
-0.413332 -0.453618 1.744 255 255 255
0.34226 -0.0541812 1.116 255 255 255
0.320671 0.0575725 1.213 255 255 255
-0.519518 0.132975 1.893 255 255 255
-0.320008 0.170563 1.935 0 0 0
-0.595883 -0.280595 1.941 255 255 255
-0.083298 -0.354053 1.729 255 255 255
-0.0381323 0.459925 1.502 255 255 255
-0.40964 -0.637696 1.705 255 255 255
0.188783 -0.412744 1.203 255 255 255
-0.382248 0.375714 1.624 255 255 255
-0.0407245 0.346329 1.714 255 255 255
0.202648 -0.00184816 1.362 255 255 255
-0.211318 0.508224 1.387 255 255 255
-0.350497 -0.488166 1.831 255 255 255
0.174234 -0.205838 1.348 255 255 255
-0.79135 0.0179574 2.136 0 0 0
-0.301732 0.525939 1.357 255 255 255
-0.870288 0.213855 1.821 0 0 0
0.212522 -0.35309 1.227 255 255 255
-0.931946 -0.183016 2.303 255 255 255
-0.484942 0.465018 1.442 255 255 255
0.0553938 0.18216 0.47 255 255 255
-0.357005 -0.457776 1.865 255 255 255
-0.765813 0.409412 1.505 255 255 255
0.0641374 -0.193928 1.551 255 255 255
-1.1542 -0.63862 2.44 255 255 255
-0.948178 -0.654571 2.411 0 0 0
0.117145 -0.352752 1.4 255 255 255
0.19287 0.112982 0.408 0 0 0
0.165413 -0.255033 1.33 255 255 255
0.142032 0.0894584 1.52 255 255 255
0.0884064 -0.342225 1.452 255 255 255
0.305239 -0.27565 1.094 255 255 255
0.228976 -0.0340638 1.322 255 255 255
0.266884 -0.115667 1.229 255 255 255
0.181423 0.126182 0.428 0 0 0
-1.11875 -0.846792 2.294 255 255 255
0.106411 0.383811 1.659 255 255 255
-0.820964 0.366229 1.583 255 255 255
0.211066 -0.0915641 1.345 255 255 255
-0.564524 0.437146 1.491 255 255 255
0.0283326 -0.0703332 1.673 255 255 255
-0.440236 -0.504667 1.784 255 255 255
0.218012 0.0809246 1.375 255 255 255
0.00665173 -0.0023068 1.7 255 255 255
0.0449595 0.40331 1.587 255 255 255
0.0661047 0.148507 0.47 255 255 255
-0.161299 0.41775 1.583 255 255 255
-0.414978 0.306102 1.739 255 255 255
0.354754 -0.0392261 1.104 255 255 255
-0.375103 0.497039 1.4 255 255 255
0.266465 -0.00789225 1.265 255 255 255
-0.283823 -0.267954 2.037 0 0 0
0.0479776 0.1751 0.48 255 255 255
0.402679 -0.299461 1.029 255 255 255
-0.639909 0.22277 1.774 255 255 255
0.0483761 0.165867 0.492 255 255 255
-0.661544 0.424287 1.48 255 255 255
0.0916588 0.148054 0.382 255 255 255
0.207261 0.0547815 1.393 255 255 255
-0.549045 0.275508 1.779 255 255 255
0.270164 0.111463 1.313 255 255 255
0.141949 -0.3015 1.354 255 255 255
0.0391087 0.37775 1.668 255 255 255
-0.408439 -0.646892 1.7 255 255 255
0.115878 0.092424 0.433 255 255 255
0.131999 0.151646 0.452 255 255 255
0.322758 -0.105785 1.124 255 255 255
-0.0128613 -0.0359011 1.719 255 255 255
-0.522677 0.464918 1.449 255 255 255
0.344055 0.163083 1.205 255 255 255
-0.526207 0.327863 1.705 255 255 255
0.10098 0.136987 0.445 255 255 255
-1.00042 0.131953 1.923 255 255 255
0.258196 0.0383902 0.511 0 0 0
0.115775 0.131642 0.449 255 255 255
0.313554 -0.294314 1.017 255 255 255
-0.059651 0.253083 1.87 255 255 255
0.217718 -0.241035 1.257 255 255 255
0.374825 0.0788423 1.149 255 255 255
-0.0553191 0.376359 1.65 255 255 255
-0.168135 0.395951 1.599 255 255 255
-1.21052 -0.554406 2.402 255 255 255
-0.480664 0.375847 1.591 255 255 255
-0.584085 0.443853 1.473 255 255 255
0.1874 -0.140028 1.348 255 255 255
-0.362278 0.100605 1.758 255 255 255
0.0296028 0.18537 1.748 255 255 255
-0.302733 0.122106 1.966 0 0 0
0.109476 0.104379 0.43 255 255 255
0.0533737 -0.146012 1.607 255 255 255
-0.204859 0.339956 1.71 255 255 255
0.0760121 0.149278 0.456 0 0 0
-0.714113 0.449525 1.445 255 255 255
1.04658 -0.899336 2.469 0 0 0
0.0733269 -0.216483 1.532 255 255 255
-0.170773 -0.340345 1.887 255 255 255
0.129225 0.2311 1.575 255 255 255
0.408807 -0.407677 1.09 0 0 0
0.0702989 0.152615 1.7 255 255 255
0.241018 -0.0727283 1.283 255 255 255
0.443217 -0.10244 0.928 255 255 255
-0.942374 -0.0670699 2.078 255 255 255
0.00100416 -0.509331 1.528 255 255 255
0.353579 -0.256643 0.951 0 0 0
0.319527 -0.106538 1.132 255 255 255
-0.841111 -0.780526 2.212 0 0 0
-0.320445 0.425544 1.555 255 255 255
0.0882203 0.148976 0.386 255 255 255
-0.128701 0.322153 1.734 255 255 255
-0.431644 0.495863 1.384 255 255 255
-0.480542 0.430732 1.494 255 255 255
-0.688418 -0.531683 2.057 255 255 255
-0.597235 -0.362192 1.905 255 255 255
0.0337014 0.176335 0.477 255 255 255
0.236765 0.0252503 0.532 255 255 255
-0.953747 -0.392846 2.519 0 0 0
0.215865 0.102165 1.39 255 255 255
-0.824305 -0.0226533 2.037 255 255 255
-0.664587 0.404683 1.543 255 255 255
0.379773 -0.173499 1.017 255 255 255
-0.970202 -0.0193384 2.037 255 255 255
-0.383299 -0.125414 2.037 255 255 255
-0.837995 -0.0225755 2.03 255 255 255
-1.15924 -0.672799 2.338 255 255 255
0.129064 0.0348792 1.513 255 255 255
-0.192211 -0.292723 1.917 255 255 255
0.191461 0.142942 0.424 0 0 0
0.0825406 0.116042 0.398 255 255 255
0.472872 -0.288856 0.945 255 255 255
0.464376 -0.274115 0.969 255 255 255
-0.316484 -0.672164 1.774 255 255 255
0.0722925 0.249537 1.682 255 255 255
-0.811518 0.183092 1.87 0 0 0
-0.310077 0.0550878 1.972 255 255 255
-0.697881 0.388027 1.567 255 255 255
-0.568976 0.372532 1.599 255 255 255
-0.592881 0.481138 1.387 255 255 255
-0.245876 -0.407022 1.972 255 255 255
0.39643 -0.366093 1.057 255 255 255
-0.791429 -0.0675501 2.204 255 255 255
0.0644215 0.24812 1.691 255 255 255
0.0764888 0.158537 0.468 255 255 255
-0.30709 0.140368 1.953 0 0 0
0.214949 0.045219 0.513 255 255 255
-0.277231 0.345521 1.71 255 255 255
0.112685 0.0663837 1.559 255 255 255
0.131702 -0.318796 1.362 255 255 255
0.205589 0.164995 1.445 255 255 255
0.368273 0.131118 1.182 255 255 255
-0.435139 0.460055 1.456 255 255 255
0.148331 0.119633 0.427 255 255 255
-0.509124 0.388027 1.567 255 255 255
0.0672032 0.13692 0.467 255 255 255
-0.0471927 0.439323 1.559 255 255 255
-0.0526332 -0.453334 1.65 255 255 255
0.442282 -0.0307269 0.952 255 255 255
-0.845265 -0.680366 2.312 0 0 0
-0.225927 -0.303405 1.966 255 255 255
0.362025 -0.241648 0.978 255 255 255
-0.364648 -0.285076 1.972 255 255 255
-0.163584 0.439194 1.532 255 255 255
-0.825871 0.25509 1.758 0 0 0
-0.229373 -0.441685 1.941 255 255 255
-0.299007 0.362054 1.646 255 255 255
0.330422 -0.26239 1.055 255 255 255
0.196251 0.103606 0.4 255 255 255
-0.106606 -0.0148908 1.893 255 255 255
-0.119649 -0.597666 1.686 255 255 255
0.271701 0.0254401 0.536 255 255 255
-1.06465 -0.0506689 2.099 255 255 255
-0.756951 0.418373 1.502 255 255 255
-0.0975637 -0.336284 1.784 255 255 255
-0.329707 0.100913 1.815 255 255 255
0.0851849 0.114643 0.414 255 255 255
1.1604 -0.951176 2.489 0 0 0
-0.60979 -0.449767 1.935 0 0 0
-1.11256 -0.469176 2.489 255 255 255
0.151275 -0.29816 1.339 255 255 255
-1.03931 -0.481477 2.469 255 255 255
-0.58733 0.220385 1.826 255 255 255
-0.216119 0.129002 2.024 255 255 255
-0.763973 0.399209 1.551 255 255 255
0.0772895 0.117013 0.438 0 0 0
0.140534 -0.249014 1.406 255 255 255
-0.338022 -0.206957 2.024 255 255 255
-0.234517 -0.703477 1.81 255 255 255
-0.777177 -0.774335 2.107 255 255 255
0.431811 -0.185754 0.886 255 255 255
0.237197 -0.0613742 1.308 255 255 255
-0.955129 0.016688 1.985 255 255 255
0.19969 0.0552887 0.452 255 255 255
-0.445154 -0.177995 1.959 255 255 255
-0.0144935 -0.398288 1.591 255 255 255
0.325939 0.00999596 1.189 255 255 255
-0.211284 -0.51544 1.865 255 255 255
0.235565 -0.302283 1.192 255 255 255
-0.0200254 0.237232 1.865 255 255 255
-0.27561 0.346267 1.7 255 255 255
1.11449 -0.739997 2.22 0 0 0
-0.485997 -0.581129 1.71 255 255 255
-0.749577 -0.0135135 2.166 255 255 255
-0.541708 0.147139 1.917 0 0 0
-1.09114 -0.507538 2.459 255 255 255
-0.851213 -0.0490033 2.03 255 255 255
0.348333 -0.367207 1.118 255 255 255
-0.863424 -0.742625 2.261 255 255 255
-0.241073 0.284036 1.815 255 255 255
-0.248044 0.000567539 2.099 255 255 255
-0.846664 -0.0795491 2.051 255 255 255
-0.232533 -0.400623 1.941 255 255 255
-0.0322943 -0.545502 1.575 255 255 255
-0.519993 0.481981 1.416 255 255 255
0.14858 0.145951 0.375 255 255 255
-0.0774578 -0.519462 1.664 255 255 255
-0.408774 0.477081 1.422 255 255 255
-0.352512 -0.486833 1.826 255 255 255
0.452713 -0.0391814 0.932 255 255 255
0.197778 -0.0394403 1.359 255 255 255
-1.15519 -0.48753 2.459 255 255 255
0.210233 -0.272022 1.249 255 255 255
-0.363077 -0.445636 1.865 255 255 255
0.11614 -0.44968 1.336 255 255 255
0.452648 -0.037786 0.935 255 255 255
-0.131833 -0.00581038 1.947 255 255 255
-1.15688 -0.853862 2.303 255 255 255
-0.330797 -0.526987 1.821 255 255 255
-1.03545 -0.463257 2.479 255 255 255
0.443149 -0.00601433 0.964 255 255 255
-0.26061 0.335292 1.729 255 255 255
-1.22161 -0.179969 2.312 0 0 0
-0.474121 -0.110368 1.947 255 255 255
0.407958 -0.20902 0.863 255 255 255
-0.0724301 -0.416093 1.673 255 255 255
-0.957025 0.17357 1.899 0 0 0
0.193058 0.151242 0.426 255 255 255
0.36022 -0.239371 0.995 255 255 255
-0.419257 0.288353 1.769 255 255 255
0.195425 0.0944306 0.397 255 255 255
-0.660614 0.474367 1.387 255 255 255
-0.0380871 0.407376 1.603 255 255 255
-0.567452 0.242018 1.81 0 0 0
-0.771261 0.337916 1.659 255 255 255
-0.276239 0.129385 2.03 255 255 255
0.104918 -0.113372 1.52 255 255 255
-0.0166109 0.438459 1.547 255 255 255
-0.299336 0.268527 1.81 255 255 255
0.415955 -0.168905 0.945 255 255 255
0.276449 0.17173 1.333 255 255 255
0.10079 0.127144 0.441 0 0 0
-1.08171 -0.347884 2.55 255 255 255
-0.521044 -0.482057 1.734 255 255 255
0.449208 0.00796146 0.947 0 0 0
0.051647 0.121103 1.724 255 255 255
-0.0112377 -0.571548 1.502 0 0 0
0.224685 -0.263795 1.239 255 255 255
-0.476115 0.271472 1.81 255 255 255
-0.322261 0.193326 1.911 255 255 255
0.236506 -0.0339092 1.316 255 255 255
-0.322917 -0.336421 1.972 255 255 255
-0.873799 -0.463541 2.338 0 0 0
-0.00426663 -0.282796 1.642 255 255 255
-0.427138 0.493611 1.384 255 255 255
-0.822939 -0.106091 2.261 255 255 255
0.0889419 0.118755 0.419 255 255 255
-0.301655 0.150363 1.959 0 0 0
-0.861089 -0.536945 2.294 255 255 255
-0.513731 -0.056679 1.953 0 0 0
-0.464288 -0.101484 1.959 255 255 255
0.154731 0.110989 0.418 255 255 255
-0.774011 -0.194152 2.347 255 255 255
0.281263 0.144762 1.305 255 255 255
0.105097 -0.453998 1.362 255 255 255
-0.517422 0.481891 1.409 255 255 255
0.0667275 0.142085 0.469 255 255 255
-1.18417 -0.257219 2.365 255 255 255
-1.10482 -0.405994 2.499 255 255 255
0.313081 0.162583 1.262 255 255 255
-0.310077 -0.352467 1.972 255 255 255
0.406311 -0.0772048 1.013 255 255 255
-0.819855 0.376235 1.571 255 255 255
-0.193069 -0.421356 1.865 255 255 255
-0.423113 0.492287 1.393 255 255 255
0.126451 0.0952426 0.433 255 255 255
-0.269534 0.364732 1.646 255 255 255
0.146532 -0.0711735 1.466 255 255 255
0.352602 -0.0106328 1.12 255 255 255
0.462764 -0.0545461 0.91 255 255 255
0.355477 0.0187771 1.135 255 255 255
0.481592 -0.27232 0.941 255 255 255
-0.095774 0.285409 1.805 255 255 255
0.232844 0.274371 1.439 255 255 255
0.433221 -0.0219944 0.977 255 255 255
-0.131426 0.0352699 1.941 0 0 0
-0.022851 0.18996 1.848 255 255 255
-0.305659 -0.306337 1.985 255 255 255
0.0998054 0.132046 0.443 0 0 0
-1.01067 -0.8726 2.303 255 255 255
-0.395866 -0.0175441 1.848 255 255 255
0.322351 -0.155045 1.11 255 255 255
-0.0861143 0.172096 1.917 255 255 255
0.116654 0.123673 0.444 255 255 255
-0.86443 0.0732254 2.03 255 255 255
-0.249139 -0.571192 1.899 255 255 255
-0.256519 -0.684564 1.799 0 0 0
-0.420442 -0.418118 1.774 255 255 255
-0.897113 -0.864852 2.244 255 255 255
0.285432 -0.356829 1.114 255 255 255
-0.385286 -0.214177 2.03 255 255 255
-0.611681 0.114236 1.941 0 0 0
0.241536 -0.0629687 1.297 255 255 255
-1.17838 -0.740694 2.244 255 255 255
-1.26418 -0.375012 2.43 255 255 255
-0.490337 0.500441 1.378 255 255 255
0.293036 -0.0596602 1.189 255 255 255
0.0504847 -0.447628 1.449 255 255 255
-0.349231 0.278403 1.779 255 255 255
-0.316858 0.00682096 1.935 255 255 255
0.0401777 0.181015 0.471 255 255 255
0.0664902 -0.206015 1.547 255 255 255
-0.11949 -0.634379 1.646 255 255 255
-1.15586 -0.34487 2.469 0 0 0
-1.09624 -0.854999 2.286 255 255 255
-0.539283 -0.262039 1.876 255 255 255
0.18626 0.0863905 0.411 255 255 255
-0.786043 -0.540866 2.189 255 255 255
-0.0197226 0.415726 1.595 255 255 255
-0.205239 0.465427 1.473 255 255 255
-0.846599 -0.136862 2.347 255 255 255
-1.01568 -0.321587 2.572 255 255 255
-0.744925 -0.664215 2.173 255 255 255
0.226752 0.0496486 0.483 0 0 0
-0.505889 -0.182385 1.972 255 255 255
-0.753834 -0.448924 2.158 255 255 255
-0.446843 0.423386 1.52 255 255 255
0.085929 0.143694 0.387 255 255 255
-0.216759 -0.171232 2.03 255 255 255
-0.696684 0.162894 1.848 0 0 0
-0.241067 -0.468097 1.959 255 255 255
-1.02342 -0.461075 2.489 255 255 255
-0.00411333 -0.401438 1.583 255 255 255
0.125198 0.107964 0.436 255 255 255
0.102355 0.140013 0.369 255 255 255
-0.314602 0.373863 1.616 255 255 255
-0.899139 0.104533 1.997 255 255 255
-0.189165 0.424403 1.579 255 255 255
-0.255344 0.413076 1.575 255 255 255
-0.466403 0.443554 1.48 255 255 255
0.393287 -0.140378 1.005 255 255 255
-0.529149 -0.40893 1.81 255 255 255
0.254003 0.0345673 0.516 255 255 255
-0.615399 0.125694 1.923 255 255 255
-0.150971 -0.322063 1.87 255 255 255
-0.731408 0.457978 1.442 255 255 255
0.461863 -0.0222808 0.923 255 255 255
-0.812002 0.138643 1.929 255 255 255
0.464704 -0.0588591 0.908 255 255 255
-0.862657 0.258685 1.763 0 0 0
-0.890355 0.0570991 2.044 255 255 255
0.0253551 0.159951 0.496 255 255 255
-1.01419 -0.872923 2.294 255 255 255
0.258198 -0.214452 1.189 255 255 255
-0.684221 0.470707 1.403 255 255 255
0.370238 -0.0489637 1.081 255 255 255
-0.58184 0.478686 1.393 255 255 255
0.120622 0.129162 0.448 255 255 255
0.225522 -0.04499 1.327 255 255 255
0.318696 0.0753381 1.213 255 255 255
-1.00969 -0.00272746 2.01 255 255 255
-0.119522 0.165793 1.953 255 255 255
0.277239 -0.165111 1.196 255 255 255
-0.250662 0.293243 1.799 255 255 255
0.454693 -0.128212 0.897 255 255 255
-0.411196 0.229832 1.784 255 255 255
-0.0603966 0.379878 1.642 255 255 255
-0.339999 -0.0348726 1.978 255 255 255
0.32874 -0.369963 1.132 255 255 255
-0.642868 0.484744 1.378 255 255 255
-0.773747 0.0314287 2.107 0 0 0
-0.475154 -0.277304 1.876 255 255 255
-0.0128987 -0.00514488 1.724 255 255 255
0.402702 -0.0928573 1.004 255 255 255
0.934155 -0.863501 2.329 0 0 0
-0.149454 -0.0559825 1.929 255 255 255
0.391855 -0.159066 0.989 255 255 255
1.13472 -0.776662 2.253 0 0 0
0.103994 -0.0523131 1.543 255 255 255
-0.448854 0.0779657 1.831 255 255 255
-0.0524023 0.435364 1.563 255 255 255
0.0797022 -0.492107 1.345 255 255 255
0.0725245 0.176438 0.467 0 0 0
0.190481 0.151256 0.428 255 255 255
-0.0971536 -0.151467 1.831 255 255 255
0.312585 0.158224 1.26 255 255 255
-0.140868 0.152358 1.985 255 255 255
-0.370012 0.506025 1.381 255 255 255
0.191779 -0.294283 1.275 255 255 255
0.339065 -0.181983 1.077 255 255 255
0.0748479 -0.466071 1.419 255 255 255
-0.271126 0.251595 1.859 255 255 255
-0.691225 0.284646 1.729 255 255 255
-0.395196 -0.398824 1.859 255 255 255
-0.966698 -0.448924 2.489 255 255 255
0.335473 -0.246063 1.044 255 255 255
0.447457 -0.116229 0.906 255 255 255
-0.614841 0.114236 1.941 0 0 0
0.362925 -0.216039 1.007 255 255 255
0.0902656 0.109305 0.422 255 255 255
0.263579 0.0295309 1.281 255 255 255
-0.88029 -0.136681 2.22 255 255 255
0.380993 -0.0896751 1.043 255 255 255
0.133714 0.11435 0.436 255 255 255
-0.798096 0.10476 1.941 0 0 0
-0.263118 0.404327 1.591 255 255 255
0.102819 0.115212 1.603 255 255 255
-0.37659 0.00349559 1.842 255 255 255
-0.340789 -0.460476 1.876 255 255 255
0.089791 0.115759 0.423 255 255 255
-1.16437 -0.801393 2.303 255 255 255
-0.872463 0.143987 1.959 255 255 255
-0.171666 -0.512003 1.831 255 255 255
-0.835015 -0.565411 2.244 255 255 255
-1.06821 -0.389727 2.499 255 255 255
0.187359 0.218187 1.487 255 255 255
0.0300691 0.174682 0.481 255 255 255
0.222469 0.0543152 0.469 255 255 255
0.247217 0.0260546 1.316 255 255 255
-0.280787 -0.150796 2.114 255 255 255
-0.634455 0.387815 1.587 255 255 255
-0.497948 0.00359237 1.893 255 255 255
-0.897158 -0.195523 2.411 255 255 255
0.226203 0.0732403 1.357 255 255 255
0.143976 0.132923 0.371 255 255 255
-0.430708 0.499283 1.381 255 255 255
-0.0572267 0.289508 1.794 255 255 255
0.0849077 0.14836 0.391 255 255 255
-0.107958 0.187694 1.917 255 255 255
0.100017 -0.25663 1.449 255 255 255
0.31508 -0.280041 1.044 255 255 255
-0.256215 -0.508015 1.929 255 255 255
-0.33871 0.211011 1.848 255 255 255
0.131623 0.105878 1.543 255 255 255
0.0825614 0.146664 0.395 255 255 255
-0.00760301 0.293243 1.799 255 255 255
0.0112777 0.172334 0.481 255 255 255
-0.206736 -0.62894 1.799 255 255 255
-1.04696 -0.52347 2.44 255 255 255
0.0776857 -0.488817 1.348 0 0 0
0.280015 -0.214282 1.167 255 255 255
-0.520386 -0.37196 1.831 255 255 255
0.395709 -0.130825 1.007 255 255 255
0.204303 0.288363 1.487 255 255 255
-1.04735 -0.300673 2.469 255 255 255
0.458245 -0.0271061 0.934 255 255 255
-1.14902 -0.392218 2.489 255 255 255
0.215205 0.0749815 0.46 255 255 255
-0.734778 -0.785073 2.037 255 255 255
0.439138 -0.0170837 0.969 255 255 255
0.112045 -0.108139 1.516 255 255 255
-0.26462 -0.298146 2.017 255 255 255
-0.161836 -0.51217 1.821 255 255 255
0.188731 0.113027 1.442 255 255 255
-0.438686 0.514897 1.357 255 255 255
-0.361828 0.273379 1.784 0 0 0
0.24515 -0.0463678 1.305 255 255 255
-0.360589 -0.254653 1.985 255 255 255
0.14458 0.142214 0.441 255 255 255
-0.329337 -0.320376 1.972 255 255 255
0.259513 -0.176095 1.232 255 255 255
0.39718 -0.344382 1.059 255 255 255
-0.64905 -0.10497 2.092 255 255 255
0.344054 -0.30281 1.029 255 255 255
0.119396 0.143044 0.366 255 255 255
0.204518 0.0725415 0.536 255 255 255
0.371075 -0.134983 1.039 255 255 255
0.338436 -0.226536 1.064 255 255 255
-0.518221 -0.462304 1.734 255 255 255
-0.281717 0.0419923 2.121 255 255 255
0.0573484 0.386161 1.646 255 255 255
-0.856746 0.324432 1.673 255 255 255
-0.550333 -0.23977 1.893 255 255 255
0.385376 -0.0443524 1.055 255 255 255
-0.255849 0.100004 2.107 255 255 255
-0.0530653 0.319977 1.753 255 255 255
0.188815 0.0877656 0.405 255 255 255
-0.358934 0.470689 1.445 255 255 255
-0.697534 0.501589 1.345 255 255 255
0.370742 -0.234168 0.98 255 255 255
0.273552 -0.0558032 1.232 255 255 255
0.0415316 -0.469579 1.466 255 255 255
-0.48419 0.358314 1.629 255 255 255
-0.155394 -0.439596 1.815 255 255 255
-1.02292 -0.585181 2.449 0 0 0
-0.370718 -0.0636883 2.078 0 0 0
-0.433114 0.142264 1.815 255 255 255
-0.352783 -0.0709262 2.092 0 0 0
-0.269922 -0.544743 1.893 0 0 0
0.0114909 -0.299556 1.603 255 255 255
-1.15162 -0.680408 2.338 255 255 255
0.3684 -0.142019 1.041 255 255 255
0.319842 0.252444 1.324 255 255 255
0.433997 -0.347627 1.048 255 255 255
0.376044 -0.23154 0.969 255 255 255
0.22781 -0.115199 1.291 255 255 255
-0.80156 0.0039833 2.099 255 255 255
-0.490848 0.358085 1.616 255 255 255
0.0951648 -0.027556 1.563 255 255 255
0.190339 0.133392 0.42 255 255 255
-0.99106 0.159617 1.917 255 255 255
-0.453397 0.339863 1.682 255 255 255
0.187817 -0.120553 1.351 255 255 255
0.286785 -0.202856 1.156 255 255 255
-0.51075 -0.159435 1.966 255 255 255
-0.783876 -0.068776 2.244 255 255 255
-0.278196 -0.495459 1.929 0 0 0
-0.716375 -0.608485 2.151 255 255 255
0.149354 -0.48154 1.322 255 255 255
0.176132 0.12922 0.422 255 255 255
-0.467546 0.173963 1.87 0 0 0
0.0851066 0.145702 0.389 255 255 255
-1.02638 -0.829231 2.383 255 255 255
-0.0394837 -0.0749996 1.784 255 255 255
-0.114199 -0.00572085 1.917 255 255 255
0.181628 0.104497 0.422 255 255 255
0.0795326 0.0213554 1.607 255 255 255
-0.641737 0.476535 1.4 255 255 255
0.0271577 -0.516234 1.463 255 255 255
0.0194253 0.167243 0.489 255 255 255
0.403951 -0.116313 0.995 255 255 255
0.0671779 -0.108949 1.563 255 255 255
-1.10718 -0.722903 2.365 255 255 255
-0.376339 -0.351395 1.966 255 255 255
-0.268791 0.0629086 2.128 0 0 0
-0.531569 -0.0668577 1.972 0 0 0
-0.375137 0.474437 1.435 255 255 255
0.172701 0.333586 1.551 255 255 255
-0.215192 -0.639595 1.821 255 255 255
-0.237718 -0.621206 1.882 255 255 255
0.0262665 0.432021 1.551 255 255 255
0.238755 0.0907557 0.468 255 255 255
-0.734915 0.404683 1.543 255 255 255
-0.466066 0.277831 1.794 255 255 255
-0.6029 0.308044 1.734 255 255 255
0.0810407 0.11575 0.397 255 255 255
0.214046 -0.315504 1.213 255 255 255
-0.800856 -0.0913734 2.261 255 255 255
0.378801 0.0380954 1.106 255 255 255
-0.00159378 -0.248059 1.642 255 255 255
0.203847 -0.471048 1.299 255 255 255
0.208145 0.130908 0.408 255 255 255
0.388522 -0.0966558 1.027 255 255 255
-0.101431 0.456262 1.498 255 255 255
-0.482958 -0.559011 1.719 255 255 255
-1.0697 -0.361888 2.561 255 255 255
-0.101867 -0.444775 1.71 255 255 255
0.184019 0.104115 0.415 0 0 0
-0.609988 -0.0423963 2.03 255 255 255
0.251382 -0.381129 1.149 255 255 255
-0.336496 0.419027 1.559 255 255 255
0.0460832 -0.464963 1.459 255 255 255
0.266607 -0.168758 1.237 255 255 255
-0.823694 -0.615341 2.253 255 255 255
0.268872 -0.00988789 1.257 255 255 255
-0.343198 0.494761 1.4 255 255 255
0.025196 -0.173663 1.646 255 255 255
0.284609 -0.327064 1.07 255 255 255
-0.07629 0.274622 1.831 255 255 255
0.232301 -0.112222 1.281 255 255 255
0.124277 -0.333754 1.378 255 255 255
-0.301369 0.351415 1.659 255 255 255
-0.542489 0.384882 1.575 255 255 255
-0.91593 -0.73085 2.329 0 0 0
0.0975908 0.10782 0.427 0 0 0
0.102433 -0.166231 1.484 255 255 255
0.0997411 -0.258273 1.445 255 255 255
0.135525 0.218604 1.559 255 255 255
-0.505469 -0.531313 1.729 255 255 255
0.319877 -0.0638682 1.16 255 255 255
-0.499759 -0.343258 1.821 255 255 255
0.347312 -0.323582 1.07 255 255 255
-0.805503 0.363653 1.583 255 255 255
-0.517193 0.491076 1.396 255 255 255
-1.01475 -0.869674 2.42 255 255 255
-0.664733 0.498335 1.354 255 255 255
0.28892 -0.110615 1.196 255 255 255
0.06305 0.3775 1.655 255 255 255
0.420623 0.0194222 0.981 0 0 0
-0.470487 0.354018 1.646 255 255 255
0.0249973 0.167243 0.489 255 255 255
-0.532096 -0.40893 1.81 255 255 255
-0.687439 0.245106 1.748 255 255 255
0.131577 -0.285658 1.384 255 255 255
0.246551 0.0433795 0.511 0 0 0
-0.128663 0.0100317 1.947 255 255 255
0.0532409 -0.140431 1.603 255 255 255
0.435906 -0.106256 0.935 255 255 255
-0.392668 -0.199676 2.017 255 255 255
0.119726 0.121678 0.442 255 255 255
-0.800693 0.254365 1.753 255 255 255
-0.312736 -0.401285 1.929 255 255 255
-0.422792 -0.654474 1.691 255 255 255
0.0715668 -0.480334 1.4 255 255 255
0.33178 -0.287926 1.012 255 255 255
0.240836 0.0427145 0.513 0 0 0
0.305665 -0.0456893 1.178 255 255 255
-0.208723 0.145898 1.985 0 0 0
0.221032 0.0514968 1.366 255 255 255
-0.0374254 0.366448 1.691 255 255 255
0.267314 -0.218219 1.178 255 255 255
-0.754475 0.0929799 1.959 255 255 255
-0.349604 0.0214808 1.842 255 255 255
-0.182778 -0.394522 1.853 255 255 255
-0.418031 -0.230194 1.997 255 255 255
-0.00474475 0.199584 1.826 255 255 255
-0.612455 0.165901 1.848 0 0 0
0.194621 -0.381272 1.215 0 0 0
0.368575 -0.184455 1.032 255 255 255
0.34531 -0.0379719 1.12 255 255 255
-0.867846 -0.657792 2.312 0 0 0
-0.206846 -0.12168 2.03 255 255 255
-0.979347 -0.0854327 2.114 255 255 255
-0.426994 -0.58139 1.719 255 255 255
-0.345059 0.467987 1.466 255 255 255
0.345217 -0.0790359 1.108 255 255 255
-1.03682 -0.0397476 2.064 255 255 255
-0.485979 -0.302018 1.859 255 255 255
0.106354 -0.268909 1.439 255 255 255
-0.207928 0.433074 1.528 255 255 255
0.189379 0.0916947 0.402 255 255 255
-0.836026 0.35086 1.607 255 255 255
0.0685455 0.166452 0.471 0 0 0
0.287125 -0.306758 1.06 0 0 0
-0.812148 0.194808 1.837 255 255 255
0.0137966 0.167351 0.487 0 0 0
-1.0669 -0.209251 2.303 255 255 255
-1.04908 -0.84344 2.347 255 255 255
-0.68868 -0.455953 2.078 255 255 255
0.345293 0.100936 1.189 255 255 255
0.168467 0.117614 1.47 255 255 255
0.0182212 0.154079 1.748 0 0 0
0.127304 0.165296 1.583 255 255 255
-0.975457 0.153378 1.917 255 255 255
0.373932 -0.232573 0.98 255 255 255
-0.332662 0.050702 1.815 0 0 0
-1.18687 -0.838871 2.303 255 255 255
0.130721 -0.306176 1.375 255 255 255
0.431839 -0.189359 0.863 0 0 0
-0.494942 -0.27946 1.87 255 255 255
-0.467271 -0.52457 1.744 255 255 255
-0.811773 0.288291 1.734 255 255 255
0.347326 0.181328 1.196 255 255 255
0.0617761 0.152979 0.472 255 255 255
0.0563297 0.0942969 1.696 255 255 255
-0.580575 -0.58404 1.805 255 255 255
0.107004 0.138949 0.449 0 0 0
-0.152003 0.0755487 2.004 255 255 255
-1.17199 -0.700982 2.356 255 255 255
0.15245 0.124708 0.423 255 255 255
0.341258 -0.181176 1.062 255 255 255
0.0682544 0.156586 0.469 255 255 255
-0.535567 0.355455 1.616 255 255 255
-0.335584 0.523613 1.351 255 255 255
-1.16523 -0.428672 2.489 255 255 255
-0.923452 0.00389221 2.051 255 255 255
-0.0218 0.0492494 1.763 255 255 255
-0.494151 0.319366 1.719 255 255 255
-0.0535496 -0.2327 1.769 255 255 255
0.121496 -0.148469 1.452 255 255 255
0.0174811 -0.0977916 1.677 255 255 255
-0.0556208 -0.436909 1.659 255 255 255
0.0454515 -0.498399 1.439 0 0 0
0.0966239 0.118925 0.432 0 0 0
0.162448 0.115537 0.41 255 255 255
0.318741 0.144069 1.244 255 255 255
-1.20881 -0.351285 2.43 0 0 0
0.232862 0.0168112 0.539 255 255 255
0.180254 0.0921363 0.422 255 255 255
-0.0927512 -0.460453 1.696 255 255 255
0.457398 -0.25429 0.948 255 255 255
-1.00316 -0.278806 2.489 255 255 255
-0.470517 0.384261 1.583 255 255 255
-0.379647 -0.410973 1.887 255 255 255
-0.817218 -0.0670699 2.078 255 255 255
-0.721919 0.436362 1.456 255 255 255
0.0884712 0.128388 0.379 255 255 255
-0.566032 -0.0976942 1.947 255 255 255
-0.217245 0.137511 2.004 255 255 255
0.434569 -0.0978537 0.942 255 255 255
0.365232 -0.198519 1.018 255 255 255
0.442152 -0.330745 1.012 255 255 255
0.406083 -0.177465 0.958 255 255 255
0.316274 -0.267862 1.077 255 255 255
0.431197 -0.111176 0.938 255 255 255
0.199696 -0.0327574 1.357 255 255 255
-1.17304 -0.87818 2.269 255 255 255
0.721805 -0.98708 2.572 255 255 255
0.290531 0.265795 1.348 255 255 255
0.0847023 0.150398 0.393 255 255 255
-0.990909 0.190898 1.887 255 255 255
-0.478208 0.171468 1.876 255 255 255
-0.331305 -0.0645771 2.107 0 0 0
0.404938 -0.156653 0.974 255 255 255
-0.334632 0.157619 1.893 0 0 0
0.207383 0.239236 1.425 255 255 255
-0.509555 -0.565556 1.705 255 255 255
-0.739255 0.229995 1.763 255 255 255
0.265801 0.179842 1.345 255 255 255
-0.749626 -0.548626 2.136 255 255 255
-0.498144 0.0816969 1.848 255 255 255
0.0835064 -0.381604 1.449 255 255 255
0.294706 -0.151352 1.165 255 255 255
-0.596014 -0.572433 1.853 255 255 255
-0.487155 0.175544 1.887 255 255 255
-0.277192 -0.23812 2.037 0 0 0
0.142406 0.114494 1.524 255 255 255
0.206992 -0.277192 1.254 255 255 255
-0.219558 0.385769 1.633 255 255 255
0.459137 -0.294168 0.978 255 255 255
-0.409048 0.446251 1.473 255 255 255
0.262733 -0.0507989 1.257 255 255 255
0.345289 -0.202664 1.048 255 255 255
0.132735 0.142819 0.452 255 255 255
-1.10596 -0.541097 2.43 255 255 255
-1.18802 -0.614067 2.469 255 255 255
-0.34303 0.333412 1.705 255 255 255
0.285358 0.189961 1.324 255 255 255
-0.0917404 -0.140386 1.842 255 255 255
-0.205614 0.486138 1.442 255 255 255
0.365337 -0.351704 1.098 255 255 255
-0.119686 0.0284156 1.905 255 255 255
0.211749 0.0755654 0.459 255 255 255
-1.1201 -0.240998 2.32 255 255 255
-0.696901 0.458501 1.429 255 255 255
-0.932137 -0.156146 2.189 255 255 255
-0.222433 0.513891 1.372 255 255 255
0.360941 -0.245975 0.934 0 0 0
-0.586078 0.420322 1.509 255 255 255
0.196409 0.102049 0.399 0 0 0
-0.965863 0.138643 1.929 255 255 255
0.0784347 -0.289978 1.487 255 255 255
0.18421 0.13454 0.428 0 0 0
-0.343747 0.364033 1.655 255 255 255
-0.315461 0.432304 1.543 255 255 255
0.105384 0.13567 0.367 0 0 0
-1.06799 -0.461075 2.489 255 255 255
0.120812 0.092424 0.433 0 0 0
0.417046 -0.325912 1.044 255 255 255
-0.176618 0.429175 1.559 255 255 255
-0.466758 0.388429 1.579 255 255 255
0.00118225 0.187851 1.799 255 255 255
0.228778 -0.177812 1.273 255 255 255
-0.532115 0.174119 1.905 255 255 255
0.169552 -0.0827468 1.419 255 255 255
0.445959 -0.143287 0.9 255 255 255
-0.278823 -0.392166 1.978 0 0 0
0.103289 -0.33913 1.429 255 255 255
0.907617 -0.859711 2.329 0 0 0
-0.921881 -0.87818 2.269 0 0 0
0.196917 0.138198 0.418 0 0 0
-0.535733 -0.591563 1.7 255 255 255
-0.399138 -0.462132 1.744 255 255 255
-0.267163 0.454413 1.484 255 255 255
0.16842 0.245214 1.535 255 255 255
-1.09563 -0.78833 2.365 255 255 255
-0.0538523 -0.0892645 1.779 255 255 255
-0.817782 -0.365592 2.42 255 255 255
0.0490407 0.389377 1.637 255 255 255
-1.24716 -0.294706 2.42 0 0 0
-0.254028 -0.115183 2.092 255 255 255
0.0790149 -0.248244 1.498 255 255 255
0.405689 -0.172149 0.972 255 255 255
-0.425662 -0.551374 1.748 255 255 255
-0.393757 -0.62891 1.758 255 255 255
-0.389051 -0.532283 1.789 255 255 255
0.387896 -0.213933 0.975 255 255 255
-0.0134337 0.173377 0.469 0 0 0
0.349273 0.173543 1.196 255 255 255
-0.0778768 -0.465099 1.673 255 255 255
-0.202107 0.286199 1.81 255 255 255
0.393119 -0.367824 1.062 255 255 255
0.144133 -0.555756 1.442 255 255 255
0.252101 0.0322345 0.519 255 255 255
0.22048 -0.34872 1.205 255 255 255
-0.391014 -0.0772147 2.078 0 0 0
-0.80896 -0.0429602 2.057 255 255 255
-0.804536 -0.639603 2.261 0 0 0
-0.651143 -0.185811 2.121 255 255 255
-0.289405 -0.403782 1.941 0 0 0
-1.10138 -0.115834 2.236 255 255 255
-0.4446 -0.21912 1.985 255 255 255
-0.344942 0.178142 1.882 255 255 255
1.06685 -0.80286 2.329 0 0 0
-0.674003 0.358623 1.595 255 255 255
0.0653397 0.146977 0.47 255 255 255
-0.193063 0.324037 1.729 255 255 255
0.0352543 0.177887 0.477 255 255 255
0.336162 -0.368002 1.126 255 255 255
-0.421035 0.312783 1.729 255 255 255
-0.36838 0.0183729 1.831 255 255 255
-0.974057 -0.00598048 2.004 255 255 255
0.471164 -0.296264 0.954 255 255 255
0.195587 0.0712479 0.446 0 0 0
-0.020651 0.171677 0.477 255 255 255
-0.263021 0.129385 2.03 255 255 255
0.209665 0.154212 0.419 255 255 255
0.41188 -0.108511 0.983 255 255 255
-0.501301 0.364726 1.599 255 255 255
-0.421037 0.448648 1.473 255 255 255
-0.907372 -0.616635 2.356 0 0 0
0.136052 -0.563521 1.456 255 255 255
-0.0178671 -0.302832 1.664 255 255 255
-0.147822 0.280581 1.831 255 255 255
-1.12516 -0.332793 2.499 255 255 255
-0.418031 -0.233444 1.997 255 255 255
0.206937 0.152166 0.419 255 255 255
0.247194 0.136674 1.351 255 255 255
0.0446195 -0.199491 1.575 255 255 255
0.0647112 0.0110441 1.629 255 255 255
-0.618614 0.501628 1.369 255 255 255
-0.0100631 -0.0331037 1.719 255 255 255
-0.232207 -0.576794 1.887 255 255 255
-0.503871 0.460055 1.456 255 255 255
-0.945807 0.0515367 1.959 0 0 0
-0.971498 -0.670385 2.44 255 255 255
-1.03498 -0.0948895 2.173 255 255 255
-0.391923 -0.355115 1.917 255 255 255
0.210323 -0.361845 1.203 255 255 255
0.101303 0.108769 0.428 255 255 255
-0.688858 0.460883 1.422 255 255 255
-0.529784 0.379109 1.583 255 255 255
-0.244256 -0.448969 1.959 255 255 255
0.112134 0.144291 0.452 0 0 0
0.0632986 -0.486853 1.419 0 0 0
0.0272732 0.168144 0.487 255 255 255
-0.900646 -0.1224 2.099 255 255 255
-0.759882 0.310303 1.7 255 255 255
-0.397904 0.412027 1.571 255 255 255
0.352202 0.070582 1.167 255 255 255
1.2586 -0.962399 2.54 255 255 255
0.417952 -0.0494743 0.986 255 255 255
-0.993509 -0.0191486 2.017 255 255 255
-0.282743 0.324011 1.744 255 255 255
0.421343 -0.0207596 0.994 255 255 255
-0.0778851 0.28446 1.799 255 255 255
0.0815282 0.11094 0.423 255 255 255
0.200658 0.112349 0.401 255 255 255
0.203688 -0.376689 1.176 0 0 0
-0.168313 -0.0125028 2.004 255 255 255
0.185492 -0.280733 1.289 255 255 255
-0.0406294 -0.158153 1.71 255 255 255
0.199192 0.123055 0.59 0 0 0
0.0924717 -0.42748 1.406 255 255 255
-0.378558 -0.441935 1.837 255 255 255
0.194545 -0.197565 1.322 255 255 255
0.368318 -0.213464 0.995 255 255 255
-1.00042 0.138211 1.923 0 0 0
-0.277642 0.261284 1.842 255 255 255
0.450721 -0.298078 0.991 255 255 255
0.0485574 0.282177 1.714 255 255 255
0.395604 -0.392722 1.083 0 0 0
-0.103197 0.252313 1.887 255 255 255
0.00865994 -0.386192 1.563 255 255 255
0.411227 -0.292659 1.017 255 255 255
0.0967896 -0.151842 1.509 255 255 255
-0.524876 -0.0791687 1.959 255 255 255
0.331578 0.155587 1.239 255 255 255
-0.207897 -0.278294 1.947 255 255 255
0.176766 -0.294159 1.302 255 255 255
0.261316 -0.0368573 1.27 255 255 255
0.0668226 -0.32869 1.498 255 255 255
0.144188 0.148291 0.442 255 255 255
-0.617295 0.326133 1.696 255 255 255
-0.230526 -0.327789 1.978 255 255 255
-0.799996 -0.67879 2.269 255 255 255
0.0943561 -0.425656 1.4 255 255 255
-0.152458 0.069233 2.01 255 255 255
0.26162 -0.165398 1.242 255 255 255
1.18407 -0.853143 2.374 255 255 255
0.123604 -0.157594 1.449 255 255 255
-0.155394 -0.492761 1.815 255 255 255
-0.554461 -0.0672985 1.985 255 255 255
0.106876 0.0962323 0.428 255 255 255
-0.360778 -0.165778 2.004 255 255 255
0.125963 -0.164668 1.449 255 255 255
-0.0661608 0.116889 1.882 255 255 255
0.448161 -0.0710315 0.932 255 255 255
0.327309 0.0469556 1.194 255 255 255
-0.387062 -0.0998663 2.057 255 255 255
0.0793346 -0.0308699 1.603 255 255 255
-0.577037 -0.58632 1.794 255 255 255
0.0195842 0.16139 0.493 0 0 0
-1.17304 -0.748945 2.269 255 255 255
-0.762612 -0.444972 2.173 255 255 255
-0.926403 0.0679241 1.972 255 255 255
0.170856 -0.429665 1.229 255 255 255
0.0796504 0.113273 0.424 255 255 255
0.128037 0.1381 0.451 255 255 255
0.0842421 0.113166 0.416 255 255 255
0.0810889 0.127999 0.391 255 255 255
0.425543 -0.155608 0.939 255 255 255
-0.45669 0.500441 1.378 255 255 255
0.204092 0.156372 0.423 255 255 255
-1.03701 -0.210795 2.32 0 0 0
-0.357217 0.364033 1.655 255 255 255
0.176343 0.0762142 1.456 255 255 255
0.153289 0.261733 1.559 0 0 0
0.134514 0.111 0.434 255 255 255
-0.566703 0.300008 1.753 255 255 255
-0.128641 -0.590171 1.696 255 255 255
-0.961698 -0.363054 2.54 0 0 0
0.207201 0.165185 0.428 0 0 0
0.158896 0.0673783 1.47 255 255 255
0.0334894 0.179082 0.474 255 255 255
-0.77466 -0.4091 2.228 255 255 255
0.225012 -0.0276516 1.324 255 255 255
-0.0767483 0.00349559 1.842 255 255 255
0.285396 -0.193785 1.158 255 255 255
-0.0190581 0.172092 0.476 0 0 0
-0.0575776 0.282472 1.805 255 255 255
0.258198 -0.216387 1.189 255 255 255
1.09718 -0.818021 2.329 0 0 0
0.373476 -0.183562 1.027 255 255 255
-0.53794 0.458792 1.452 255 255 255
-0.936386 0.0901128 1.966 255 255 255
-0.89972 -0.778485 2.269 0 0 0
0.204136 0.0137671 1.372 255 255 255
-0.383227 0.242121 1.789 255 255 255
-0.453306 -0.627493 1.642 255 255 255
-0.157563 0.260001 1.876 255 255 255
0.431361 -0.022062 0.98 255 255 255
1.10642 -0.974523 2.561 255 255 255
-0.24831 0.420103 1.563 255 255 255
-0.6471 0.502742 1.354 255 255 255
-0.549983 0.485653 1.387 255 255 255
0.407682 -0.417168 1.087 0 0 0
-0.390328 -0.262612 1.972 255 255 255
-0.115851 -0.0426156 1.893 255 255 255
-0.520462 0.460055 1.456 255 255 255
-0.588249 0.425705 1.502 255 255 255
-0.17882 -0.223739 1.941 255 255 255
0.276436 -0.133449 1.227 255 255 255
0.0295698 0.159294 0.499 255 255 255
-1.22858 -0.378966 2.43 255 255 255
-0.369685 -0.147159 2.017 255 255 255
0.2642 0.182437 1.348 255 255 255
-1.06196 -0.370629 2.593 255 255 255
0.0108171 -0.507909 1.509 255 255 255
-0.681182 0.449525 1.445 255 255 255
-0.793186 0.370442 1.579 255 255 255
0.42498 -0.0715002 0.98 255 255 255
-0.423082 0.215508 1.81 255 255 255
0.0641289 -0.491674 1.387 0 0 0
0.231331 0.294804 1.459 255 255 255
-1.19298 -0.426419 2.43 255 255 255
-0.309732 0.488448 1.435 255 255 255
0.36718 -0.0839984 1.057 255 255 255
-0.439441 0.486477 1.409 255 255 255
0.0565724 0.148542 0.48 0 0 0
-1.23197 -0.553899 2.383 255 255 255
-0.32911 -0.0423963 2.03 255 255 255
-0.18769 -0.488101 1.842 255 255 255
0.101387 -0.35223 1.435 255 255 255
-0.715855 0.222142 1.769 255 255 255
0.455136 -0.10171 0.895 255 255 255
-0.295571 0.282472 1.805 255 255 255
0.167213 0.228577 1.524 255 255 255
0.255717 -0.0493739 1.273 255 255 255
-1.01922 -0.521656 2.469 255 255 255
-0.361217 -0.432468 1.887 255 255 255
-0.0815304 -0.593615 1.637 255 255 255
-0.664103 -0.428535 2.044 255 255 255
0.406752 -0.0753326 1.01 255 255 255
0.350775 -0.231927 1.034 255 255 255
-1.18201 -0.305083 2.44 0 0 0
-0.0456861 0.415726 1.595 255 255 255
-0.0322122 0.429922 1.571 255 255 255
0.0528191 -0.303035 1.516 255 255 255
0.0035897 -0.388168 1.571 255 255 255
-0.56648 0.179567 1.865 255 255 255
-1.03474 -0.065466 2.136 255 255 255
0.342099 0.0674133 1.178 255 255 255
-1.23254 -0.371057 2.43 255 255 255
-1.12765 -0.784656 2.32 255 255 255
0.38309 -0.172915 1.004 255 255 255
-0.812545 -0.66387 2.294 255 255 255
-0.384779 -0.447221 1.81 255 255 255
0.13209 0.0959472 0.433 255 255 255
-0.831376 -0.0923131 2.114 255 255 255
-0.449948 0.326902 1.7 255 255 255
-0.453328 -0.129777 1.953 255 255 255
-0.138881 -0.366001 1.831 255 255 255
-0.0149287 0.173007 0.468 0 0 0
0.0849968 -0.46306 1.396 255 255 255
-0.61503 0.0871787 1.972 255 255 255
0.267393 0.170705 1.342 255 255 255
-0.961751 0.0802281 1.959 0 0 0
0.170585 0.287117 1.532 0 0 0
-0.332788 0.0846738 1.784 255 255 255
0.210581 0.125683 1.4 255 255 255
0.317441 -0.243815 1.087 255 255 255
-1.17406 -0.630679 2.44 255 255 255
-0.305322 -0.253829 2.004 255 255 255
-0.252328 -0.175281 2.078 255 255 255
0.276 0.0135248 0.548 255 255 255
0.128125 -0.0680328 1.502 255 255 255
-0.146665 -0.187401 1.893 255 255 255
-0.424782 0.510145 1.362 255 255 255
0.283859 0.0144838 1.242 255 255 255
0.33984 -0.0525528 1.12 255 255 255
0.180723 0.107926 0.433 255 255 255
0.196071 0.0983069 0.397 0 0 0
-0.0827452 0.0394661 1.842 255 255 255
0.351159 -0.0518021 1.104 255 255 255
-0.331855 -0.648003 1.779 255 255 255
-0.278203 0.273872 1.826 255 255 255
0.166445 -0.160571 1.393 255 255 255
0.183627 -0.0840969 1.403 255 255 255
-0.844927 0.320703 1.682 255 255 255
-0.528291 0.468337 1.445 255 255 255
-0.332927 0.348075 1.682 255 255 255
-0.548487 0.433553 1.487 255 255 255
0.223589 -0.353007 1.18 255 255 255
0.141135 0.158703 0.437 255 255 255
0.202426 0.320681 1.491 0 0 0
0.0806921 -0.282149 1.484 255 255 255
-0.374808 -0.00852224 1.848 255 255 255
-0.313709 -0.399385 1.935 255 255 255
-0.0756233 -0.102885 1.815 255 255 255
0.265045 -0.227229 1.185 255 255 255
0.210592 0.162644 0.425 255 255 255
0.304461 -0.217361 1.124 255 255 255
0.112842 0.142448 0.366 255 255 255
0.330618 0.263217 1.324 255 255 255
-0.587575 0.454066 1.452 255 255 255
0.444988 -0.144912 0.901 255 255 255
0.141674 0.109277 0.43 255 255 255
-0.35634 0.48659 1.416 255 255 255
-0.559539 0.380067 1.587 255 255 255
0.0529129 0.161082 0.497 255 255 255
0.136247 -0.249546 1.409 255 255 255
0.278859 -0.294403 1.139 255 255 255
-0.932295 0.17666 1.899 255 255 255
0.26686 -0.210193 1.176 255 255 255
