ply
format ascii 1.0
comment Created by Open3D
element vertex 1316
property double x
property double y
property double z
property uchar red
property uchar green
property uchar blue
end_header
0.216829 -0.445997 1.524 255 255 255
0.498514 0.228309 1.112 255 255 255
-0.623522 0.0557985 2.121 255 255 255
0.200929 -0.234429 1.659 255 255 255
-0.6118 0.245628 1.837 255 255 255
0.474714 0.260816 1.16 255 255 255
-0.431598 -0.764738 2.128 0 0 0
0.523291 -0.376766 1.039 255 255 255
-0.242476 -0.0554459 2.024 255 255 255
-0.116218 0.284821 1.899 255 255 255
-0.666642 0.487468 1.439 255 255 255
-0.832343 0.200812 1.985 255 255 255
-0.0193216 -0.178908 2.121 255 255 255
-0.88081 -0.605819 2.42 255 255 255
0.450167 0.00786445 1.16 255 255 255
0.237035 0.487527 1.559 255 255 255
-0.983076 0.177969 2.057 255 255 255
-0.544396 -0.700529 2.329 255 255 255
-0.0926443 -0.456366 1.923 255 255 255
-0.350416 -0.533128 1.929 255 255 255
0.180838 -0.318083 1.673 255 255 255
0.47303 -0.0927741 1.059 255 255 255
-1.05491 -0.686268 2.44 255 255 255
0.263792 -0.385639 1.429 255 255 255
0.184037 -0.338877 1.629 255 255 255
0.473362 0.0595853 1.104 255 255 255
0.364407 -0.106796 1.291 255 255 255
-0.0859981 -0.123718 2.064 255 255 255
-0.0469165 -0.585925 1.848 255 255 255
0.275568 0.160953 1.591 255 255 255
-0.0191212 -0.218041 2.099 255 255 255
0.0714644 -0.599664 1.799 255 255 255
0.404025 -0.304803 1.116 255 255 255
0.275724 0.288097 1.607 255 255 255
-0.0467873 -0.154236 2.114 0 0 0
-0.314008 -0.0384573 1.997 255 255 255
-0.118421 0.271327 1.935 0 0 0
0.132592 -0.163003 1.794 255 255 255
0.174758 0.13334 0.422 255 255 255
-0.591069 -0.0619383 2.261 255 255 255
0.137413 -0.317391 1.744 255 255 255
-0.873211 0.00399848 2.107 255 255 255
0.429576 -0.0188194 1.176 255 255 255
0.290453 0.431697 1.646 255 255 255
0.0699836 -0.462861 1.837 255 255 255
-0.757013 -0.689169 2.479 255 255 255
-0.663011 0.332471 1.774 255 255 255
-0.2036 0.543326 1.396 255 255 255
0.461271 0.190551 1.169 255 255 255
-0.0813077 0.359836 1.81 255 255 255
0.196652 0.128737 0.416 255 255 255
-0.728422 -0.00293914 2.166 255 255 255
0.315817 -0.165059 1.412 255 255 255
-0.176448 -0.434385 1.882 255 255 255
0.423564 0.180572 1.273 255 255 255
0.113715 0.400006 1.729 255 255 255
0.331675 0.372931 1.516 255 255 255
-0.758911 -0.907699 2.459 255 255 255
0.318494 0.0239056 1.445 255 255 255
0.15055 -0.35918 1.7 255 255 255
0.424584 -0.160213 1.147 255 255 255
-0.236203 0.195264 1.87 255 255 255
-0.714061 0.459243 1.484 255 255 255
-0.807535 0.251645 1.882 255 255 255
-0.355541 0.437585 1.599 255 255 255
-0.378683 0.527991 1.422 255 255 255
0.342877 -0.244484 1.297 255 255 255
0.315485 -0.0160364 1.442 255 255 255
-0.207083 0.0862626 1.882 0 0 0
-0.271868 -0.601654 1.729 255 255 255
-0.360925 0.524467 1.425 255 255 255
-0.934612 0.0624947 2.114 255 255 255
0.283338 0.256749 1.591 255 255 255
-1.06465 -0.689417 2.099 255 255 255
0.439299 0.110412 1.208 255 255 255
0.527389 -0.668008 1.947 0 0 0
0.00614698 0.478497 1.571 255 255 255
-0.216119 -0.0719144 2.024 255 255 255
-0.696743 -0.227968 2.509 255 255 255
-0.387464 -0.0441507 2.114 255 255 255
-0.279585 -0.249049 1.917 255 255 255
0.398272 -0.15142 1.227 255 255 255
0.0390335 -0.672024 1.789 255 255 255
-0.680087 0.0318613 2.136 255 255 255
-0.820568 -0.630679 2.44 255 255 255
0.061069 0.469983 1.603 255 255 255
0.436721 0.0678139 1.185 255 255 255
-0.316858 0.180009 1.935 0 0 0
0.203521 -0.414581 1.555 255 255 255
-0.736424 -0.577312 2.519 255 255 255
-0.953721 -0.84401 2.338 255 255 255
0.413008 -0.257076 1.106 255 255 255
-0.655271 -0.278325 2.638 255 255 255
-1.05808 -0.6452 2.42 255 255 255
-0.852425 0.365365 1.686 255 255 255
-0.633386 0.399499 1.624 255 255 255
-0.792619 0.420326 1.583 255 255 255
-0.860287 -0.507588 2.44 255 255 255
-0.664195 0.188289 2.024 255 255 255
0.110032 -0.62845 1.673 255 255 255
-0.243872 0.39947 1.691 255 255 255
0.356 0.371687 1.435 0 0 0
-0.666378 0.17745 2.051 255 255 255
0.413918 0.170637 1.308 255 255 255
-0.262926 0.412512 1.655 255 255 255
0.247432 -0.418233 1.47 255 255 255
-0.555104 0.371165 1.7 255 255 255
0.108701 0.167933 1.941 255 255 255
-0.286732 -0.0954483 1.966 255 255 255
-0.735757 -0.590688 2.489 255 255 255
-0.584405 -0.617064 2.449 0 0 0
-0.999568 -0.804525 2.312 255 255 255
-0.00545412 -0.0950738 2.099 255 255 255
0.152027 0.530147 1.473 255 255 255
0.0773474 0.463275 1.616 255 255 255
-0.765378 -0.516089 2.561 255 255 255
-1.04275 0.022196 2.212 255 255 255
-0.0500646 0.270097 1.972 255 255 255
0.488052 -0.100875 1.036 255 255 255
-0.349797 0.536467 1.39 255 255 255
0.406036 -0.239012 1.158 255 255 255
0.223741 0.176886 1.668 255 255 255
-0.257489 0.310252 1.848 255 255 255
-0.837572 -0.440003 2.604 255 255 255
-0.771398 -0.00292828 2.158 255 255 255
0.416907 0.254072 1.278 255 255 255
0.127706 -0.643234 1.655 255 255 255
-0.78186 0.0924837 2.092 255 255 255
0.417521 -0.196855 1.143 255 255 255
-0.117561 0.356568 1.779 255 255 255
0.290376 0.287094 1.587 255 255 255
0.31683 0.0811198 1.459 255 255 255
0.474489 -0.734944 1.991 0 0 0
-0.0912637 0.489055 1.532 255 255 255
-0.893272 0.230392 1.935 255 255 255
0.943524 -1.0578 2.768 255 255 255
-0.950642 -0.748089 2.312 255 255 255
0.351729 0.291829 1.456 255 255 255
-0.888407 0.210934 1.959 255 255 255
-0.768105 -0.381921 2.672 255 255 255
-0.230592 -0.382683 1.899 255 255 255
0.114744 0.187016 0.495 0 0 0
-0.484336 0.52629 1.393 255 255 255
0.476156 -0.0430801 1.066 255 255 255
0.386495 -0.11939 1.247 255 255 255
-0.0221621 0.198728 2.064 255 255 255
0.376965 0.152964 1.359 255 255 255
0.340677 -0.264819 1.273 0 0 0
-0.340789 0.321058 1.876 255 255 255
-0.697217 0.448598 1.505 255 255 255
-0.855464 0.00745194 2.114 255 255 255
0.313923 -0.353323 1.249 0 0 0
-0.911298 -0.744594 2.449 255 255 255
-0.152943 0.335353 1.821 255 255 255
-0.751727 -0.307631 2.707 255 255 255
-0.433928 0.531202 1.406 255 255 255
0.468325 0.219599 1.182 255 255 255
0.333576 0.114334 1.429 255 255 255
-0.0202079 0.30371 1.882 255 255 255
0.0956087 -0.593494 1.659 255 255 255
-0.302188 0.486811 1.502 255 255 255
-0.206214 0.508582 1.48 255 255 255
-0.0427021 0.43019 1.682 255 255 255
-0.741771 0.31714 1.769 255 255 255
0.285616 0.249041 1.575 255 255 255
0.178448 0.405633 1.729 255 255 255
-0.744394 0.490856 1.449 255 255 255
-0.802386 0.256126 1.87 255 255 255
0.202809 0.135544 0.412 255 255 255
0.145093 -0.222452 1.734 255 255 255
-0.579714 0.493227 1.456 255 255 255
0.032837 0.507377 1.505 255 255 255
0.201944 0.503862 1.524 255 255 255
-0.0926794 0.243539 1.991 255 255 255
0.240868 -0.196452 1.551 255 255 255
-0.870572 0.354566 1.7 255 255 255
-0.369032 -0.00628786 2.107 0 0 0
0.0870057 0.375246 1.758 255 255 255
0.346676 -0.0111386 1.416 255 255 255
0.472874 -0.143022 1.036 255 255 255
0.418294 -0.213947 1.135 255 255 255
-0.47268 -0.593831 2.312 255 255 255
-0.699144 0.209641 1.947 255 255 255
0.565576 -0.763768 2.051 255 255 255
0.105398 -0.559254 1.686 0 0 0
0.513938 -0.408483 1.051 255 255 255
0.450032 0.313093 1.232 255 255 255
0.139236 -0.627777 1.664 255 255 255
-0.148621 0.486562 1.532 255 255 255
-1.16643 -0.234472 2.449 255 255 255
0.181682 0.161548 0.437 255 255 255
-0.922682 -0.0870347 2.244 255 255 255
0.244874 0.279361 1.664 255 255 255
0.406951 0.26744 1.313 255 255 255
0.27671 -0.188969 1.473 255 255 255
-0.90264 -0.451337 2.572 255 255 255
0.131737 0.141163 0.394 0 0 0
-0.0622986 -0.374496 1.953 255 255 255
0.477794 -0.191179 0.997 255 255 255
0.0151044 0.542732 1.449 255 255 255
-0.738464 0.048734 2.114 255 255 255
0.341518 0.321243 1.505 255 255 255
-0.127105 -0.320376 1.972 255 255 255
-0.231796 0.338193 1.789 255 255 255
-0.693453 -0.495091 2.604 0 0 0
0.45426 0.0454612 1.156 255 255 255
-0.0325483 -0.55837 1.887 0 0 0
0.449184 -0.162894 1.102 0 0 0
-0.00545412 -0.180468 2.099 255 255 255
0.367331 0.0705609 1.348 255 255 255
-1.14156 -0.446191 2.43 255 255 255
-0.0563128 -0.357793 1.966 255 255 255
0.346318 -0.23907 1.302 255 255 255
0.239573 0.48499 1.559 255 255 255
0.27834 0.285482 1.607 255 255 255
0.341212 -0.306732 1.275 255 255 255
0.468066 0.0110378 1.1 255 255 255
0.275877 0.434057 1.655 255 255 255
0.526741 -0.719609 2.03 0 0 0
-0.0246029 0.479715 1.575 255 255 255
0.396291 0.296277 1.357 255 255 255
0.504687 0.103419 1.039 255 255 255
-0.112056 0.470655 1.579 255 255 255
-0.684246 0.466691 1.477 255 255 255
0.359118 0.0701931 1.384 255 255 255
0.460598 0.055472 1.13 255 255 255
0.690237 -0.830862 2.312 0 0 0
-0.111426 0.0818831 1.923 0 0 0
0.271146 -0.201005 1.456 255 255 255
-0.295616 -0.524424 1.753 255 255 255
-0.943038 -0.48753 2.459 255 255 255
-1.16657 -0.796401 2.278 255 255 255
-0.871433 -0.644961 2.449 255 255 255
-1.00293 -0.58219 2.42 255 255 255
-1.12371 -0.316745 2.469 255 255 255
-0.0532888 -0.153142 2.099 0 0 0
-0.259258 -0.551668 1.758 255 255 255
-0.358419 0.392802 1.686 255 255 255
0.306607 0.144617 1.502 255 255 255
0.324493 -0.297643 1.308 255 255 255
-0.664198 0.483782 1.449 255 255 255
0.445285 0.0895729 1.167 255 255 255
-0.00679157 0.45285 1.607 255 255 255
-0.600872 0.436884 1.587 255 255 255
0.181292 0.150913 0.431 255 255 255
-0.2756 -0.282477 1.911 255 255 255
-0.400459 -0.329658 2.092 255 255 255
-0.742644 0.346715 1.744 255 255 255
0.180384 -0.576906 1.62 255 255 255
0.301028 0.0361073 1.463 255 255 255
0.29325 -0.248483 1.403 255 255 255
0.173253 0.548205 1.47 255 255 255
0.0437295 0.38361 1.744 255 255 255
-0.614407 -0.792179 2.365 0 0 0
0.25494 0.121937 1.659 255 255 255
0.36429 0.0631614 1.378 255 255 255
-0.158447 0.540732 1.419 255 255 255
0.218174 -0.21139 1.607 255 255 255
-1.22623 -0.557284 2.449 255 255 255
0.322679 -0.625333 1.748 255 255 255
0.449084 0.102867 1.167 255 255 255
-0.462866 0.172149 1.953 255 255 255
0.355329 -0.23313 1.281 255 255 255
-0.574314 -0.618767 2.44 0 0 0
0.175811 -0.280637 1.677 255 255 255
-0.815657 0.157885 2.057 255 255 255
-0.637016 -0.560528 2.499 255 255 255
0.490802 0.114849 1.083 255 255 255
0.19219 -0.0786884 1.677 255 255 255
0.329029 -0.347916 1.237 0 0 0
-0.193498 0.0406873 1.899 255 255 255
-0.774246 -0.158351 2.383 255 255 255
-1.1192 -0.0827884 2.228 255 255 255
-1.00321 0.217309 1.959 255 255 255
0.466434 -0.209679 0.97 0 0 0
-0.483349 0.070819 2.158 255 255 255
0.0926205 0.493865 1.563 255 255 255
0.276955 -0.649486 1.729 0 0 0
-0.696026 0.0765079 2.121 0 0 0
0.997836 -0.969822 2.593 255 255 255
0.627262 -0.753709 2.136 0 0 0
-0.088001 0.274692 1.959 255 255 255
0.357807 -0.313921 1.192 0 0 0
0.32084 0.370112 1.535 255 255 255
0.230103 -0.062018 1.599 255 255 255
-0.342024 0.384997 1.7 255 255 255
-0.757701 -0.166734 2.392 0 0 0
0.396921 -0.149667 1.229 255 255 255
0.30461 -0.032305 1.435 255 255 255
0.254221 0.174432 1.62 255 255 255
-0.306456 0.160617 1.929 255 255 255
-0.922961 -0.373259 2.582 0 0 0
0.274823 -0.104697 1.502 255 255 255
-1.14862 -0.86919 2.294 255 255 255
0.0231033 -0.451822 1.917 255 255 255
0.183757 -0.124031 1.7 255 255 255
-0.103853 0.291001 1.899 255 255 255
-0.845828 -0.309385 2.684 255 255 255
0.412419 0.27962 1.31 255 255 255
0.0974274 0.18947 0.493 255 255 255
0.0219831 0.455465 1.607 255 255 255
0.21373 -0.581535 1.633 255 255 255
-0.158156 -0.267257 1.959 255 255 255
0.452393 0.260263 1.201 255 255 255
-0.211771 0.377934 1.744 255 255 255
0.371483 -0.0964108 1.265 255 255 255
-0.742935 -0.936622 2.42 255 255 255
-1.0786 -0.123534 2.312 255 255 255
-0.292067 0.262564 1.917 0 0 0
0.445285 0.0819765 1.167 255 255 255
-1.22463 -0.288015 2.43 0 0 0
0.120818 -0.0742384 1.837 255 255 255
0.192935 0.447984 1.637 255 255 255
0.41567 -0.132178 1.18 255 255 255
-0.733933 0.290902 1.821 255 255 255
0.463356 0.228639 1.189 255 255 255
0.328336 0.297671 1.535 255 255 255
-0.861356 -0.485378 2.489 255 255 255
-0.35023 0.087589 2.057 0 0 0
-0.0589492 0.340325 1.848 255 255 255
0.498654 -0.0524776 1.013 255 255 255
-0.593935 -0.0166293 2.114 255 255 255
0.00324924 0.553445 1.422 255 255 255
-0.28713 -0.221262 1.947 255 255 255
-0.175479 -0.578523 1.779 255 255 255
0.409806 -0.188132 1.158 255 255 255
-0.202771 0.0406873 1.899 255 255 255
-0.0479255 -0.686598 1.774 255 255 255
-0.477267 -0.467111 2.228 255 255 255
-0.662702 -0.0202783 2.136 255 255 255
0.426767 0.271315 1.252 255 255 255
-0.158487 0.0557841 1.887 255 255 255
-0.49894 0.472859 1.528 255 255 255
-0.202665 0.307665 1.815 255 255 255
-0.524415 0.0477364 2.228 0 0 0
0.448368 0.238962 1.222 255 255 255
0.152269 0.126401 0.415 255 255 255
0.31683 0.109611 1.459 255 255 255
-1.14497 -0.371966 2.489 255 255 255
-0.0716349 -0.506335 1.865 255 255 255
-0.0743167 -0.102634 2.114 255 255 255
0.467862 0.237622 1.176 255 255 255
1.03327 -1.06179 2.755 255 255 255
-0.385117 0.447818 1.571 255 255 255
0.456075 -0.2249 1.01 0 0 0
-0.291702 -0.0574046 1.978 255 255 255
0.369404 0.304687 1.406 255 255 255
-0.228528 0.132202 1.882 255 255 255
0.518303 -0.403135 1.046 255 255 255
-0.987295 -0.521325 2.43 255 255 255
-0.674596 0.278511 1.837 0 0 0
-0.295616 0.362768 1.753 255 255 255
-0.992761 0.101001 2.128 255 255 255
-0.081695 0.304516 1.887 255 255 255
-0.510226 -0.499836 2.278 255 255 255
0.953708 -1.14772 2.953 255 255 255
0.191473 0.130716 0.418 255 255 255
0.486822 0.180282 1.106 255 255 255
-0.0180904 0.538452 1.463 255 255 255
-0.296638 -0.151557 1.947 255 255 255
-0.952875 -0.0711367 2.204 255 255 255
-0.130712 -0.260193 1.978 255 255 255
0.0897721 0.4752 1.603 255 255 255
0.508717 -0.0498757 0.994 255 255 255
-0.461455 0.417658 1.633 255 255 255
0.137083 0.507487 1.52 255 255 255
0.0943869 0.0262059 1.972 255 255 255
-0.637332 -0.0166843 2.121 255 255 255
0.463662 0.305533 1.21 255 255 255
0.367898 0.332852 1.409 255 255 255
0.865189 -0.842467 2.479 0 0 0
-0.828732 0.329472 1.758 255 255 255
-1.0759 -0.687111 2.236 255 255 255
-1.07635 -0.320593 2.499 0 0 0
0.194455 -0.222794 1.673 255 255 255
-0.357355 0.535358 1.393 255 255 255
0.460598 0.0444387 1.13 255 255 255
0.188289 -0.0628345 1.691 255 255 255
-1.08804 -0.696041 2.173 255 255 255
-0.281349 0.359915 1.753 255 255 255
-0.139281 -0.0864766 2.057 255 255 255
-0.629209 -0.90243 2.392 255 255 255
-0.774429 -0.443296 2.649 255 255 255
-0.328436 -0.234912 1.929 255 255 255
-0.845792 0.117716 2.057 255 255 255
-0.818252 0.214121 1.959 255 255 255
-0.450754 0.490637 1.484 255 255 255
-0.0122467 0.19121 2.092 255 255 255
0.116688 0.186261 0.493 0 0 0
-0.249973 -0.385383 1.882 255 255 255
0.843607 -0.741561 2.269 0 0 0
-0.352873 0.452379 1.587 255 255 255
0.441351 -0.719944 1.959 0 0 0
0.32555 0.195564 1.445 255 255 255
-1.0337 0.169641 2.078 255 255 255
-0.321001 -0.223739 1.941 255 255 255
-0.0906945 -0.574401 1.821 255 255 255
-0.83632 0.283561 1.831 255 255 255
-0.453502 -0.527008 2.236 0 0 0
-0.975031 0.237423 1.941 255 255 255
-0.224052 0.541054 1.396 0 0 0
-0.690762 -0.452267 2.626 255 255 255
-0.809446 -0.0322588 2.244 255 255 255
0.267799 0.173899 1.591 255 255 255
0.406066 -0.178264 1.18 255 255 255
0.35896 0.198973 1.419 255 255 255
0.108701 0.101601 1.941 255 255 255
0.166404 -0.518454 1.563 0 0 0
0.127431 -0.37536 1.763 255 255 255
0.461787 0.143283 1.156 255 255 255
-0.210946 0.250854 1.81 255 255 255
0.309216 0.10231 1.491 255 255 255
1.06341 -1.03428 2.695 255 255 255
-0.0445756 0.438116 1.65 255 255 255
0.282137 -0.283046 1.416 255 255 255
-0.0346761 -0.61532 1.837 0 0 0
0.436721 0.0543152 1.185 255 255 255
-0.0187386 -0.304059 2.057 255 255 255
0.45426 0.0266493 1.156 255 255 255
-0.732632 0.224094 1.935 255 255 255
-0.126896 0.411553 1.673 255 255 255
-0.311763 0.235221 1.923 255 255 255
0.195966 -0.63059 1.686 0 0 0
0.366749 -0.140193 1.27 255 255 255
-0.118222 0.400003 1.705 255 255 255
0.103811 -0.532261 1.705 255 255 255
-0.171673 -0.00942611 2.044 0 0 0
-0.766571 -0.928746 2.42 255 255 255
-0.149658 0.378801 1.748 255 255 255
0.35796 -0.464089 1.406 255 255 255
0.132779 0.344278 1.837 255 255 255
0.469768 0.0955168 1.104 255 255 255
0.190218 0.16937 0.437 255 255 255
-0.143967 -0.673691 1.748 255 255 255
-1.22419 -0.216298 2.469 255 255 255
-0.081199 0.0246528 2.114 0 0 0
0.412708 -0.133017 1.205 255 255 255
0.379906 -0.232598 1.213 255 255 255
0.110516 -0.108755 1.865 255 255 255
-0.0423209 -0.247994 2.064 0 0 0
-0.265074 -0.392774 1.859 255 255 255
-0.654699 0.292897 1.815 0 0 0
0.154398 0.362782 1.81 255 255 255
-0.554743 0.425637 1.603 255 255 255
0.190997 0.102665 1.794 255 255 255
-0.934331 0.265142 1.848 255 255 255
0.0654252 -0.562964 1.794 255 255 255
-0.0147542 0.250842 1.972 0 0 0
-0.109148 0.536644 1.439 255 255 255
0.0782668 -0.491426 1.821 255 255 255
0.0626734 -0.447822 1.887 255 255 255
-0.298623 0.436884 1.587 255 255 255
0.220626 0.48337 1.587 255 255 255
0.336659 -0.108554 1.366 255 255 255
0.145803 0.124817 0.412 0 0 0
-0.936404 -0.55256 2.411 255 255 255
-0.508328 -0.67397 2.303 255 255 255
-0.353136 0.464946 1.543 255 255 255
0.171621 0.469998 1.612 255 255 255
-0.294027 -0.076485 1.972 255 255 255
-0.489691 -0.367669 2.286 255 255 255
0.397779 -0.00784233 1.257 255 255 255
-0.790635 -0.375877 2.66 255 255 255
0.315578 0.46827 1.571 255 255 255
0.480518 -0.202477 0.951 0 0 0
0.431227 -0.164078 1.135 255 255 255
-0.209195 0.401596 1.7 255 255 255
0.334058 -0.682341 1.763 255 255 255
0.121576 0.424716 1.682 255 255 255
-0.554131 0.270722 1.805 255 255 255
0.0299979 0.455386 1.616 255 255 255
0.328288 -0.107966 1.387 255 255 255
-0.0178458 0.271504 1.959 255 255 255
-0.0732972 -0.121584 2.085 255 255 255
-0.661201 0.43063 1.583 255 255 255
0.23315 -0.193378 1.567 255 255 255
0.116675 -0.337285 1.774 255 255 255
-0.626266 0.103433 2.107 255 255 255
0.379999 -0.0565057 1.294 255 255 255
-0.796638 -0.918 2.392 255 255 255
0.490349 0.262583 1.135 255 255 255
-0.394965 -0.494718 2.099 255 255 255
0.0141791 0.219417 1.978 0 0 0
-0.799438 0.441134 1.513 0 0 0
-0.250809 0.531704 1.432 255 255 255
0.400273 0.0207127 1.252 255 255 255
0.383542 0.163056 1.351 255 255 255
-0.815609 -0.917929 2.402 255 255 255
0.954212 -1.01259 2.684 255 255 255
0.388118 0.32482 1.375 255 255 255
-1.17043 -0.614379 2.392 255 255 255
0.447634 0.236585 1.22 255 255 255
0.295695 -0.289783 1.393 255 255 255
0.400004 -0.267621 1.12 255 255 255
-0.215235 0.470973 1.563 255 255 255
0.440638 -0.085817 1.126 255 255 255
0.220482 -0.107915 1.624 255 255 255
-0.315047 0.276421 1.905 255 255 255
-0.0146569 0.268316 1.959 255 255 255
-0.489005 0.25462 1.859 255 255 255
0.229584 0.493943 1.494 255 255 255
0.0112862 -0.251379 2.037 255 255 255
-0.692275 0.385247 1.677 255 255 255
-0.539553 0.179694 1.966 255 255 255
0.0614186 0.551519 1.429 255 255 255
-1.15519 -0.391492 2.459 255 255 255
-0.226633 0.482751 1.52 255 255 255
-0.89417 0.178937 2.03 0 0 0
0.503863 -0.09355 0.994 255 255 255
0.42638 -0.228692 1.108 255 255 255
0.215858 -0.185124 1.629 255 255 255
0.0945779 -0.0430208 1.911 255 255 255
-0.813507 -0.467291 2.479 255 255 255
-1.29083 -0.493478 2.489 255 255 255
-0.494562 0.416017 1.637 255 255 255
0.0811796 0.190334 0.487 255 255 255
0.0398163 -0.198431 1.972 255 255 255
-0.339922 -0.235378 1.959 0 0 0
0.417422 -0.0174376 1.213 255 255 255
0.368772 -0.244222 1.242 0 0 0
0.432784 -0.236753 1.079 255 255 255
-0.852489 0.117716 2.057 255 255 255
0.518303 -0.372496 1.046 255 255 255
-0.889338 -0.348048 2.582 0 0 0
-1.06023 -0.350457 2.509 0 0 0
0.99026 -0.864154 2.449 255 255 255
0.425988 0.356667 1.319 255 255 255
-0.341136 -0.3258 1.966 0 0 0
0.415613 0.0224775 1.237 255 255 255
0.335176 0.434208 1.532 255 255 255
0.462633 0.0552756 1.126 255 255 255
-0.379605 0.415356 1.624 255 255 255
-0.397081 0.401215 1.664 255 255 255
0.203932 -0.462909 1.539 255 255 255
-0.280297 0.464946 1.543 255 255 255
0.41466 0.272624 1.297 255 255 255
-0.826634 -0.458434 2.519 255 255 255
-0.836893 -0.0170934 2.173 255 255 255
-0.890618 -0.674115 2.383 255 255 255
-0.504004 0.380581 1.705 255 255 255
-0.44791 0.506115 1.459 255 255 255
-0.508283 0.509465 1.435 255 255 255
-0.0320384 -0.31986 2.051 0 0 0
-0.0864451 0.487515 1.535 255 255 255
-0.837017 -0.787467 2.374 255 255 255
-0.18127 0.246558 1.779 0 0 0
0.176218 0.00334567 1.763 255 255 255
-0.594457 -0.303542 2.561 0 0 0
-0.12873 0.478603 1.563 255 255 255
0.286779 -0.386574 1.351 255 255 255
-0.292555 -0.503302 1.769 255 255 255
0.280148 0.153473 0.571 0 0 0
-0.15325 -0.298819 1.978 255 255 255
0.00488071 0.136141 2.136 0 0 0
-0.45155 0.258286 1.842 255 255 255
-0.659225 -0.0307062 2.136 255 255 255
0.270927 -0.184369 1.494 255 255 255
0.501456 -0.0738349 1.012 255 255 255
-0.157973 0.0135391 1.997 255 255 255
-0.44626 0.431929 1.607 255 255 255
-0.465716 0.479258 1.509 255 255 255
-0.427705 0.507502 1.463 255 255 255
-0.471345 0.399466 1.668 255 255 255
-0.10708 -0.492698 1.848 255 255 255
0.420243 0.0242926 1.227 255 255 255
-0.593242 -0.0977991 2.42 255 255 255
0.171645 0.156561 0.435 255 255 255
-0.987171 -0.605819 2.42 255 255 255
-0.692823 0.364124 1.719 255 255 255
-0.57778 0.468217 1.513 255 255 255
-0.590702 0.377456 1.691 255 255 255
0.482437 0.114026 1.092 255 255 255
-0.0794659 -0.684663 1.769 255 255 255
-0.0587474 -0.203042 2.051 0 0 0
-1.1542 -0.193904 2.44 255 255 255
0.316569 -0.662225 1.794 0 0 0
0.430456 0.315721 1.275 255 255 255
0.40237 0.119739 1.265 255 255 255
-1.00303 -0.788432 2.32 255 255 255
0.382425 0.407341 1.429 0 0 0
-0.519101 -0.204281 2.519 255 255 255
0.330835 0.290177 1.535 255 255 255
-0.126612 -0.50169 1.826 255 255 255
-0.906997 -0.103182 2.278 255 255 255
-0.642563 0.500222 1.422 255 255 255
-0.344433 0.158819 1.985 0 0 0
-0.172583 0.182867 1.779 255 255 255
0.163425 -0.203744 1.719 255 255 255
-0.122451 -0.488 1.853 255 255 255
0.203921 0.344155 1.805 255 255 255
0.171561 0.141537 0.426 255 255 255
-0.200415 -0.604035 1.744 255 255 255
1.07288 -1.05235 2.719 255 255 255
-0.118932 0.0960084 1.893 255 255 255
0.0730313 0.29376 1.917 255 255 255
-0.112121 0.274476 1.935 0 0 0
0.0356556 0.553445 1.422 255 255 255
0.507694 -0.0546183 0.992 255 255 255
-0.434945 -0.560346 2.253 255 255 255
0.146931 0.536244 1.47 255 255 255
0.421116 -0.165518 1.158 255 255 255
-0.143255 0.417287 1.642 255 255 255
-0.476544 0.15003 1.997 255 255 255
-0.748003 0.474048 1.47 255 255 255
-0.367303 -0.442977 2.004 255 255 255
0.112685 0.492601 1.559 255 255 255
-0.101033 0.406171 1.696 255 255 255
-0.472563 0.394607 1.682 255 255 255
-0.0639145 0.43371 1.664 255 255 255
-0.184224 0.0345067 1.899 255 255 255
0.452107 0.117857 1.165 255 255 255
-0.836983 -0.505507 2.43 255 255 255
0.462837 0.31616 1.213 255 255 255
0.260029 0.474232 1.591 255 255 255
0.385155 -0.286938 1.169 255 255 255
0.507573 0.252739 1.116 255 255 255
0.501224 0.0102852 1.025 255 255 255
-0.745921 -0.802907 2.469 255 255 255
-0.616883 0.423512 1.595 255 255 255
-0.107527 -0.545855 1.805 255 255 255
-1.06432 -0.42395 2.509 255 255 255
-0.238663 0.288262 1.842 255 255 255
-0.966298 -0.264714 2.509 255 255 255
-1.03195 0.00779739 2.212 255 255 255
0.492633 0.0876772 1.053 255 255 255
0.304017 -0.222891 1.4 255 255 255
-0.47364 -0.4091 2.228 255 255 255
-0.810913 0.0215839 2.151 255 255 255
0.427402 0.176175 1.242 255 255 255
1.05809 -0.999531 2.638 255 255 255
0.207697 -0.497998 1.494 255 255 255
-0.998971 -0.379038 2.509 255 255 255
-0.923257 -0.63699 2.449 255 255 255
-0.0671646 -0.59975 1.826 255 255 255
-0.0989049 -0.456366 1.923 255 255 255
-0.765991 0.342891 1.739 255 255 255
0.41532 0.347437 1.333 255 255 255
0.511635 -0.37198 1.064 255 255 255
-0.168468 0.518085 1.466 255 255 255
0.441846 0.0728537 1.173 255 255 255
0.476995 -0.0187586 1.064 255 255 255
-0.126619 0.097885 1.87 255 255 255
-0.597255 0.361658 1.734 255 255 255
0.319375 0.118292 1.449 255 255 255
0.274351 -0.561621 1.599 255 255 255
-0.510222 0.471604 1.532 255 255 255
-0.669559 -0.719129 2.499 255 255 255
-0.073013 -0.299876 1.985 255 255 255
-0.0920743 -0.292381 1.978 255 255 255
-0.557436 0.531752 1.372 255 255 255
-0.418755 0.049587 2.151 255 255 255
0.0755029 0.452204 1.633 255 255 255
0.191538 -0.354337 1.603 255 255 255
0.430404 -0.168573 1.128 255 255 255
-0.475341 -0.501537 2.236 255 255 255
0.0634456 -0.51217 1.821 255 255 255
0.413878 -0.236491 1.128 255 255 255
-0.101312 0.357649 1.799 255 255 255
-0.364478 0.505148 1.477 255 255 255
0.192619 0.147075 0.422 255 255 255
0.391557 -0.0409908 1.27 255 255 255
-0.0105314 -0.693346 1.799 0 0 0
0.429039 -0.147974 1.139 255 255 255
0.505345 0.095819 1.03 255 255 255
0.229858 0.250924 1.673 0 0 0
-0.31746 -0.0541857 1.978 255 255 255
0.444145 0.038363 1.169 255 255 255
0.250925 -0.0828348 1.599 255 255 255
0.13589 0.363504 1.799 255 255 255
-0.18178 0.165962 1.784 255 255 255
-0.449615 -0.593343 2.253 255 255 255
-0.142629 -0.183552 2.057 255 255 255
-0.676095 -0.194619 2.449 255 255 255
-0.768531 0.479998 1.459 0 0 0
0.236675 0.486502 1.524 255 255 255
-0.0620414 -0.0311375 2.166 0 0 0
0.298432 -0.142456 1.439 255 255 255
-0.98792 -0.818635 2.32 255 255 255
-0.222731 0.3186 1.81 255 255 255
-0.771506 -0.549057 2.54 255 255 255
0.242905 -0.328671 1.532 255 255 255
0.0196701 -0.622856 1.887 255 255 255
0.353142 0.104878 1.396 255 255 255
0.459782 0.106771 1.128 255 255 255
-0.577921 0.131105 2.057 0 0 0
0.251645 0.340767 1.673 255 255 255
-0.180387 0.417463 1.664 255 255 255
0.242375 0.196608 1.629 255 255 255
-0.245532 0.51929 1.456 255 255 255
0.733589 -0.828471 2.392 0 0 0
-0.755825 -0.888066 2.449 255 255 255
-0.694163 -0.381921 2.672 255 255 255
-0.648994 0.0659349 2.114 255 255 255
-0.848727 0.203323 1.978 0 0 0
-0.317865 0.375313 1.719 255 255 255
-0.986551 -0.286266 2.519 255 255 255
-0.127668 -0.587954 1.799 255 255 255
-0.359088 0.463634 1.547 255 255 255
-0.0497052 0.438664 1.642 255 255 255
0.268219 -0.0144303 1.52 255 255 255
0.0834424 -0.614128 1.686 255 255 255
0.392248 0.304911 1.366 255 255 255
0.101432 0.257127 1.923 255 255 255
-1.04473 -0.808287 2.312 255 255 255
0.0825805 0.14678 1.997 255 255 255
0.495095 0.129986 1.077 255 255 255
-0.678759 -0.84757 2.402 255 255 255
0.505404 0.0340312 1.037 255 255 255
0.31018 0.217747 1.484 255 255 255
0.335176 0.429222 1.532 255 255 255
-1.03576 -0.433838 2.519 255 255 255
0.5036 -0.0293988 1.013 255 255 255
-0.208 0.247908 1.81 255 255 255
0.316764 -0.152917 1.406 255 255 255
-0.521846 0.383658 1.682 255 255 255
-1.04741 -0.688669 2.253 255 255 255
0.359118 0.0409142 1.384 255 255 255
-0.369925 0.51899 1.442 255 255 255
-0.40964 0.383355 1.705 255 255 255
0.398857 0.250384 1.336 255 255 255
-0.228244 -0.542408 1.784 255 255 255
-0.702609 0.312864 1.794 255 255 255
0.513938 -0.399931 1.051 255 255 255
0.281048 -0.400395 1.324 0 0 0
0.465382 0.191795 1.165 255 255 255
-0.31376 0.468669 1.547 255 255 255
0.0564047 0.207899 1.991 255 255 255
-0.670849 -0.782316 2.43 255 255 255
0.462452 0.0111181 1.108 255 255 255
0.267981 -0.301694 1.439 255 255 255
0.148846 0.12848 0.413 255 255 255
-0.225006 0.184443 1.853 255 255 255
-0.249927 0.217519 1.905 255 255 255
-0.050519 -0.535081 1.87 255 255 255
-0.691525 -0.584417 2.55 255 255 255
0.435139 -0.144453 1.126 255 255 255
0.496979 -0.268595 1.066 255 255 255
-0.145523 0.407609 1.668 255 255 255
-0.0543012 -0.316737 2.01 0 0 0
-0.611141 -0.0269498 2.114 255 255 255
0.127069 -0.397182 1.758 255 255 255
0.427919 0.0060901 1.182 255 255 255
0.188886 0.518216 1.48 255 255 255
0.194502 -0.485678 1.524 0 0 0
0.0626791 -0.558678 1.799 255 255 255
-0.821559 -0.918818 2.374 255 255 255
0.398977 -0.164392 1.205 255 255 255
0.392747 0.0411525 1.254 255 255 255
0.0863163 -0.13173 1.935 255 255 255
0.495515 -0.0364902 1.027 255 255 255
-0.785503 -0.36018 2.672 255 255 255
-0.959606 -0.513416 2.43 255 255 255
0.340481 0.118152 1.419 255 255 255
-0.338992 -0.401223 1.991 255 255 255
0.247161 -0.152752 1.543 255 255 255
0.249723 -0.053398 1.575 255 255 255
0.281018 -0.312014 1.422 255 255 255
0.523972 -0.374353 1.037 255 255 255
-0.765398 0.403163 1.607 255 255 255
-1.06275 -0.676435 2.286 255 255 255
-1.03898 0.0328756 2.204 255 255 255
-0.965261 -0.799758 2.32 255 255 255
0.067774 -0.537992 1.779 255 255 255
0.372249 0.0899017 1.342 255 255 255
0.294284 -0.225916 1.419 255 255 255
-0.25678 -0.374124 1.887 255 255 255
-0.0709531 0.28932 1.929 255 255 255
-0.0193216 -0.0684578 2.121 255 255 255
-1.11819 0.0944288 2.136 255 255 255
-0.290495 -0.496064 1.774 255 255 255
0.329293 -0.131838 1.354 255 255 255
0.172365 -0.122192 1.753 255 255 255
0.0887874 -0.469543 1.794 255 255 255
0.443355 0.180432 1.203 255 255 255
-0.130844 0.0203697 2.03 255 255 255
0.427972 0.124635 1.232 255 255 255
-0.319392 0.505083 1.491 255 255 255
0.302028 -0.0513421 1.445 255 255 255
-0.252231 0.158119 1.899 255 255 255
0.49313 -0.0449338 1.029 255 255 255
0.487774 -0.0470613 1.039 255 255 255
0.0320734 0.529068 1.47 255 255 255
0.467742 0.0455404 1.112 255 255 255
-1.23819 -0.561269 2.449 255 255 255
-0.68533 -0.269739 2.638 255 255 255
0.0666599 0.467375 1.612 255 255 255
-0.0951465 -0.169087 2.044 255 255 255
-0.756126 0.448122 1.52 255 255 255
0.300317 -0.36407 1.333 0 0 0
-0.0445894 0.522956 1.473 255 255 255
-0.125107 0.246899 1.941 0 0 0
-0.396483 0.483077 1.498 255 255 255
-0.256304 -0.64573 1.719 255 255 255
0.15764 0.286193 1.848 255 255 255
0.0768739 -0.235463 1.859 255 255 255
-0.889708 -0.0763846 2.253 255 255 255
-0.0432025 -0.191442 2.107 0 0 0
-0.893183 -0.116862 2.329 255 255 255
-0.432476 0.420641 1.624 255 255 255
-0.694744 -0.518317 2.593 0 0 0
-0.0852681 0.450235 1.607 255 255 255
-0.321249 0.26092 1.905 0 0 0
0.285689 -0.645245 1.748 0 0 0
0.116012 -0.606117 1.642 255 255 255
-0.0400591 0.359836 1.81 255 255 255
-0.124712 -0.293416 1.985 255 255 255
0.415114 -0.125667 1.173 255 255 255
0.464376 0.00389165 1.104 255 255 255
0.203655 0.135884 0.411 255 255 255
0.496429 -0.0612595 1.022 255 255 255
-0.0136993 0.346133 1.831 255 255 255
0.172365 -0.0822545 1.753 255 255 255
0.28405 0.270373 1.595 255 255 255
0.465669 0.319958 1.205 255 255 255
0.465745 -0.129817 1.066 255 255 255
0.437504 0.16579 1.225 255 255 255
0.322527 0.035589 1.442 255 255 255
0.322194 -0.284472 1.316 0 0 0
-0.551978 -0.499657 2.329 0 0 0
-0.684243 0.301758 1.815 255 255 255
-1.13464 0.00413891 2.181 255 255 255
0.158009 -0.454596 1.607 255 255 255
-0.753047 -0.860978 2.44 255 255 255
-0.168686 -0.482206 1.831 255 255 255
0.186085 -0.140299 1.696 255 255 255
-0.0438816 0.496535 1.532 255 255 255
0.374229 -0.718246 1.848 0 0 0
0.122989 0.0644108 1.87 255 255 255
-0.0541391 -0.332097 2.004 0 0 0
-0.88286 -0.844743 2.383 255 255 255
0.321021 0.245937 1.524 255 255 255
0.15413 0.333225 1.842 255 255 255
-0.628818 0.490856 1.449 255 255 255
-0.98024 -0.72782 2.356 255 255 255
0.240188 -0.142014 1.563 255 255 255
-0.863357 0.164099 2.051 0 0 0
0.0606343 0.0631278 2.024 255 255 255
0.659181 -0.753439 2.196 0 0 0
0.426067 0.220086 1.262 255 255 255
-0.717026 -0.280646 2.66 255 255 255
0.0408662 -0.0785019 2.024 255 255 255
-0.936552 0.232535 1.953 255 255 255
-0.725244 -0.900685 2.44 255 255 255
0.409573 0.0305296 1.237 255 255 255
0.195528 -0.123739 1.659 255 255 255
-0.189038 0.538066 1.406 255 255 255
-0.0511075 -0.086928 2.151 0 0 0
-0.391789 0.444128 1.567 255 255 255
0.176086 0.311646 1.821 255 255 255
-1.01531 -0.440282 2.509 255 255 255
-1.08887 -0.805728 2.294 255 255 255
0.432224 0.0118205 1.178 255 255 255
0.168654 -0.0399367 1.774 255 255 255
0.442967 -0.088846 1.118 255 255 255
0.466619 -0.211193 0.977 0 0 0
-0.754881 -0.473633 2.626 255 255 255
0.00473219 -0.0971758 2.071 255 255 255
0.440899 -0.156721 1.122 255 255 255
-0.0470971 0.104464 2.128 255 255 255
0.16468 0.0242657 1.826 255 255 255
-0.484938 -0.161474 2.43 255 255 255
-0.689152 -0.897827 2.411 255 255 255
-0.0184379 -0.35188 2.024 255 255 255
0.317832 -0.0817414 1.442 255 255 255
0.174482 -0.504481 1.567 255 255 255
-0.77019 -0.117765 2.347 255 255 255
0.471925 0.313675 1.196 255 255 255
0.185506 -0.325549 1.642 255 255 255
-0.4073 0.257645 1.859 0 0 0
-0.215136 -0.376503 1.899 255 255 255
-0.300129 0.524773 1.445 255 255 255
0.452178 -0.186893 1.075 255 255 255
0.0537984 -0.320877 1.899 255 255 255
-0.802386 0.253083 1.87 255 255 255
-1.19283 -0.342232 2.479 0 0 0
-0.156215 0.491536 1.509 255 255 255
-0.385359 0.301773 1.87 0 0 0
0.509251 0.181484 1.081 255 255 255
0.2289 -0.636077 1.686 0 0 0
-0.489995 0.367301 1.734 255 255 255
0.503 -0.300979 1.102 255 255 255
-0.0474291 0.0668394 2.143 255 255 255
0.376346 -0.214766 1.247 255 255 255
0.446729 -0.202383 1.083 255 255 255
0.478854 -0.159072 1.02 255 255 255
0.315705 0.393657 1.559 255 255 255
0.218021 0.117435 1.753 255 255 255
-0.70485 -0.870363 2.411 255 255 255
-0.488729 -0.178678 2.449 255 255 255
0.342313 -0.130085 1.336 255 255 255
0.505757 0.254556 1.116 255 255 255
-0.0851151 -0.341797 1.966 255 255 255
0.438617 -0.08835 1.135 255 255 255
0.310388 -0.346098 1.339 255 255 255
0.488587 -0.0611125 1.048 255 255 255
0.486822 0.165883 1.106 255 255 255
-0.86576 -0.568254 2.411 255 255 255
0.509015 -0.367153 1.234 255 255 255
-0.849242 -0.118668 2.365 255 255 255
0.485553 -0.348062 1.196 255 255 255
-0.357307 0.40218 1.668 255 255 255
0.355329 -0.183099 1.281 255 255 255
0.483452 -0.159526 1.002 255 255 255
0.104109 -0.144707 1.859 255 255 255
0.293733 0.0698534 1.524 255 255 255
-0.0430897 0.457255 1.595 255 255 255
0.268472 0.47802 1.595 255 255 255
0.159319 -0.224281 1.705 255 255 255
-0.847948 -0.895156 2.383 255 255 255
-1.09917 -0.75633 2.269 255 255 255
0.1861 0.401557 1.748 255 255 255
0.462274 -0.17145 1.066 255 255 255
0.184125 0.232735 1.784 255 255 255
-0.72107 -0.112246 2.312 255 255 255
0.0155735 0.513393 1.494 255 255 255
0.480488 0.149955 1.108 255 255 255
-0.323672 -0.681842 1.831 0 0 0
-0.39346 0.366581 1.744 255 255 255
0.438215 0.314118 1.244 255 255 255
-0.92005 -0.596459 2.43 255 255 255
-0.738996 -0.578252 2.42 255 255 255
0.208802 0.0734095 1.724 255 255 255
0.280425 -0.279027 1.419 255 255 255
0.368547 -0.163954 1.262 255 255 255
-0.422029 0.319316 1.831 255 255 255
0.296232 -0.369806 1.354 255 255 255
-0.208596 0.40883 1.673 255 255 255
0.16338 -0.548273 1.583 255 255 255
-0.860958 0.267581 1.865 255 255 255
0.514898 -0.386113 1.046 255 255 255
-0.175219 0.105126 1.837 255 255 255
0.424584 -0.173618 1.137 255 255 255
-0.162688 0.40435 1.677 255 255 255
-0.285038 0.522589 1.452 255 255 255
0.204486 0.333327 1.81 255 255 255
-0.721922 -0.505693 2.615 0 0 0
0.370892 0.136067 1.345 255 255 255
-0.126456 0.514762 1.477 255 255 255
-0.875173 -0.534437 1.677 255 255 255
0.213949 0.475424 1.595 255 255 255
0.295067 -0.641385 1.753 0 0 0
-1.121 0.0184618 2.196 255 255 255
0.0710295 0.522032 1.484 255 255 255
0.123778 0.0464484 1.882 255 255 255
0.499225 0.279815 1.13 255 255 255
-0.573557 -0.0591092 2.294 255 255 255
-1.1828 -0.125404 2.347 255 255 255
0.363342 0.0159299 1.366 255 255 255
0.301471 -0.374318 1.265 0 0 0
-1.19605 -0.501567 2.469 255 255 255
0.179316 0.0238405 1.794 255 255 255
-0.341046 0.417287 1.642 255 255 255
-0.868323 -0.28082 2.582 0 0 0
0.175126 -0.11456 1.724 255 255 255
-0.917301 0.175633 2.03 0 0 0
-0.924551 -0.545448 1.794 255 255 255
-0.349472 0.431929 1.607 255 255 255
-0.136042 0.250085 1.917 255 255 255
-0.47898 -0.417847 2.236 255 255 255
-1.26292 -0.314397 2.42 255 255 255
0.365116 0.279203 1.416 255 255 255
0.931015 -0.841125 2.44 255 255 255
-0.133525 -0.564533 1.799 255 255 255
0.584576 -0.747624 2.071 0 0 0
-0.277497 -0.596027 1.729 255 255 255
-0.666748 0.517262 1.381 255 255 255
0.0794272 -0.264143 1.848 255 255 255
0.247186 -0.126429 1.559 255 255 255
-0.339192 -0.0161337 2.051 255 255 255
0.504595 -0.0178947 1.015 255 255 255
0.287011 -0.290199 1.406 255 255 255
-0.504579 0.0193614 2.303 255 255 255
0.372311 -0.0382794 1.319 255 255 255
-0.552011 0.481112 1.477 255 255 255
-0.482215 0.0828605 2.107 255 255 255
-0.852343 -0.213757 2.44 255 255 255
-0.464704 0.0799595 2.121 255 255 255
0.503863 -0.0806095 0.994 255 255 255
-0.266885 -0.099601 1.985 255 255 255
-0.0591092 0.450235 1.607 255 255 255
-0.650635 0.405343 1.595 255 255 255
-0.907948 -0.462256 2.54 255 255 255
-0.118256 0.43254 1.629 255 255 255
-0.286272 0.0296089 1.985 255 255 255
0.247772 -0.322771 1.516 255 255 255
-0.0746682 -0.200963 2.03 255 255 255
0.209146 0.526676 1.47 255 255 255
-0.424839 -0.692664 2.078 0 0 0
-0.111393 0.0423799 1.978 255 255 255
0.477978 0.0857501 1.094 255 255 255
-0.99925 -0.833737 2.32 255 255 255
-0.0406033 0.00408198 2.151 255 255 255
-0.94473 -0.339585 2.55 255 255 255
-1.07113 -0.195414 2.459 255 255 255
-0.433058 -0.786608 2.085 0 0 0
-0.408251 -0.436966 2.151 255 255 255
0.303656 -0.369905 1.257 0 0 0
-0.166791 -0.526412 1.779 255 255 255
-0.872202 -0.737887 2.44 255 255 255
0.239005 -0.530529 1.539 255 255 255
-0.127265 0.538695 1.432 255 255 255
-0.280205 -0.386723 1.859 255 255 255
-0.840881 -0.752697 2.374 255 255 255
0.141253 0.265256 1.87 255 255 255
0.326598 -0.0879808 1.429 255 255 255
0.475191 0.200903 1.152 255 255 255
-0.249176 -0.396366 1.876 255 255 255
-0.172698 0.0994169 1.842 255 255 255
-0.539949 -0.824393 2.294 0 0 0
0.297839 -0.414849 1.322 255 255 255
0.0665594 -0.015764 2.004 255 255 255
-0.365602 -0.116009 2.107 255 255 255
-0.241422 0.209323 1.887 255 255 255
-0.0496275 -0.606352 1.837 255 255 255
-0.613551 -0.854898 2.347 0 0 0
-0.629261 -0.385232 2.55 0 0 0
-0.794239 0.101666 2.071 255 255 255
0.311438 0.0122406 1.456 255 255 255
0.47228 -0.0367853 1.085 255 255 255
0.34784 -0.30168 1.254 255 255 255
0.11244 0.379884 1.753 255 255 255
-0.125196 0.535153 1.435 255 255 255
0.492077 0.282044 1.139 255 255 255
0.337319 -0.0695952 1.387 255 255 255
-0.401799 -0.470808 2.099 255 255 255
-0.993563 0.184125 2.051 255 255 255
-0.0867603 0.0559817 2.004 255 255 255
-0.238094 -0.610095 1.729 255 255 255
-0.483796 0.308217 1.784 0 0 0
0.225213 -0.0311972 1.62 255 255 255
0.429254 -0.589782 1.719 0 0 0
0.120622 0.143014 0.448 255 255 255
-1.06008 -0.304326 2.499 0 0 0
0.512987 -0.235227 1.012 255 255 255
0.399314 -0.0362479 1.249 255 255 255
-0.573249 0.158097 2.017 255 255 255
0.293209 -0.472679 1.425 255 255 255
-0.0406033 -0.0974292 2.151 0 0 0
0.317832 -0.0864346 1.442 255 255 255
0.500539 0.178624 1.085 255 255 255
0.488422 -0.00481451 1.044 255 255 255
0.345207 0.19805 1.429 255 255 255
0.38683 -0.415347 1.31 255 255 255
0.430537 -0.680535 1.911 0 0 0
0.443991 -0.155883 1.116 255 255 255
-0.433522 -0.67685 2.071 255 255 255
-0.232978 -0.452903 1.821 255 255 255
0.514898 -0.389518 1.046 255 255 255
-0.467271 0.358067 1.744 255 255 255
0.284727 -0.215881 1.429 255 255 255
-1.22683 -0.623183 2.411 255 255 255
0.278547 0.168967 0.546 0 0 0
-0.179377 -0.514815 1.789 255 255 255
0.504631 0.125376 1.053 255 255 255
0.0570118 -0.531168 1.805 255 255 255
0.345758 -0.200951 1.316 255 255 255
-0.720563 0.126527 2.092 255 255 255
0.210028 -0.414966 1.547 255 255 255
0.42938 -0.130831 1.135 255 255 255
-0.591805 -0.062404 2.278 255 255 255
0.395337 -0.287586 1.092 255 255 255
-0.329511 0.257008 1.899 255 255 255
-1.10877 -0.652517 2.32 255 255 255
0.0282881 -0.646071 1.848 255 255 255
-0.633646 0.256744 1.831 255 255 255
-1.19605 -0.461388 2.469 255 255 255
-0.152989 0.479977 1.551 255 255 255
0.0496391 0.3363 1.859 255 255 255
0.0935825 0.558349 1.459 255 255 255
-0.0573032 -0.489293 1.893 255 255 255
-0.580263 -0.267176 2.572 0 0 0
0.108883 0.18905 0.494 255 255 255
0.0573276 -0.604998 1.815 255 255 255
-0.0536258 0.268647 1.985 255 255 255
0.268307 -0.379826 1.416 255 255 255
-0.333611 0.326118 1.87 255 255 255
-0.116056 0.396536 1.714 255 255 255
0.24782 -0.541346 1.563 255 255 255
0.454059 -0.186141 1.051 255 255 255
-0.171085 -0.11547 2.037 255 255 255
0.138307 -0.109752 1.831 255 255 255
0.107257 -0.252821 1.81 255 255 255
0.479422 -0.359523 1.215 255 255 255
0.0154637 0.378107 1.758 255 255 255
0.136456 0.139741 0.429 255 255 255
-0.0633385 0.53131 1.463 255 255 255
-0.268532 0.27022 1.905 255 255 255
0.168862 0.130284 0.421 255 255 255
-0.0399049 0.1657 2.114 255 255 255
0.220509 -0.464808 1.466 0 0 0
0.429174 -0.203829 1.12 255 255 255
-0.119446 -0.0442968 2.121 255 255 255
-0.834363 -0.505478 2.411 255 255 255
-0.0876055 0.309835 1.882 0 0 0
-1.01969 -0.308102 2.53 255 255 255
0.242271 -0.357651 1.528 255 255 255
-0.895944 -0.435173 2.626 255 255 255
-0.485152 0.303258 1.789 255 255 255
-0.184348 -0.122099 2.037 255 255 255
-0.610621 0.41937 1.599 255 255 255
-0.604258 0.0384135 2.114 255 255 255
0.324093 0.163094 1.449 255 255 255
-0.816361 0.360276 1.714 255 255 255
0.421622 -0.194312 1.139 255 255 255
0.427571 -0.135711 1.145 255 255 255
-0.164822 -0.620328 1.758 255 255 255
-0.839689 -0.46478 2.509 255 255 255
0.340007 -0.222066 1.327 255 255 255
0.192339 0.0290011 1.753 255 255 255
-0.721766 0.190257 2.01 255 255 255
-0.223059 -0.541016 1.789 255 255 255
-1.135 -0.615946 2.383 255 255 255
-0.601757 0.494235 1.452 255 255 255
0.276465 0.155876 0.573 0 0 0
-0.640871 0.460843 1.505 255 255 255
0.447904 -0.234155 1.029 0 0 0
-0.949559 -0.716318 2.356 255 255 255
-0.227992 -0.469484 1.805 255 255 255
0.127208 0.138534 0.443 255 255 255
0.259636 -0.357539 1.419 255 255 255
0.336649 -0.114464 1.357 255 255 255
-0.348771 -0.414865 2.01 0 0 0
-0.708568 0.52566 1.362 255 255 255
-0.0455477 -0.417507 1.917 0 0 0
-0.76133 -0.105084 2.32 255 255 255
-0.965261 -0.795983 2.32 255 255 255
-0.487427 0.250783 1.853 255 255 255
0.771441 -0.849915 2.489 0 0 0
-1.1636 -0.60913 2.402 255 255 255
-0.68617 -0.666122 2.561 255 255 255
-1.13887 0.0256091 2.196 255 255 255
-0.382149 0.0887812 2.085 0 0 0
-1.00705 -0.294464 2.519 255 255 255
-0.271219 0.423284 1.624 255 255 255
0.036959 -0.226262 1.991 255 255 255
-0.255322 0.17357 1.899 255 255 255
0.299538 -0.329152 1.359 255 255 255
0.272979 0.127295 1.591 255 255 255
-0.214922 -0.492898 1.794 255 255 255
0.029528 -0.376172 1.929 255 255 255
0.253904 -0.342399 1.494 255 255 255
-0.800448 -0.453989 2.54 255 255 255
0.23688 -0.388593 1.494 255 255 255
-0.930649 -0.744137 2.347 255 255 255
-0.627332 0.339016 1.763 255 255 255
-0.23221 0.316526 1.815 255 255 255
0.368193 -0.128296 1.275 255 255 255
0.103848 0.18947 0.493 255 255 255
0.360217 0.262672 1.452 255 255 255
0.440038 0.0994174 1.194 255 255 255
-0.217272 0.429088 1.616 255 255 255
0.189933 0.163059 1.784 255 255 255
-0.988277 -0.845911 2.312 255 255 255
0.0909357 0.407266 1.724 255 255 255
-0.365037 0.439086 1.595 255 255 255
0.377085 -0.390264 1.27 255 255 255
0.303032 -0.21927 1.406 255 255 255
-0.105962 -0.233444 1.997 255 255 255
0.0197952 -0.512476 1.899 255 255 255
0.370192 0.30763 1.409 255 255 255
-0.57214 0.437251 1.579 255 255 255
0.163614 -0.384068 1.664 255 255 255
-0.553434 -0.132991 2.489 255 255 255
-0.0912108 0.40049 1.719 255 255 255
-0.368622 -0.739072 1.959 255 255 255
-0.275055 -0.247469 1.929 255 255 255
0.408471 0.32939 1.339 255 255 255
0.437755 -0.175545 1.114 255 255 255
0.134188 0.39383 1.739 255 255 255
0.48362 -0.184817 0.989 255 255 255
0.471832 -0.508209 1.555 255 255 255
-0.284647 0.513408 1.487 255 255 255
0.261899 -0.19949 1.498 255 255 255
-0.766488 -0.92618 2.383 255 255 255
-0.136454 -0.576244 1.799 255 255 255
-0.55947 0.454737 1.551 255 255 255
-0.919721 -0.78391 2.329 255 255 255
0.105867 0.344278 1.837 255 255 255
0.344713 -0.294034 1.265 255 255 255
-0.680544 -0.577991 2.54 255 255 255
-1.03191 -0.077777 2.189 255 255 255
-0.852811 0.0688828 2.099 255 255 255
-0.169699 -0.473113 1.842 255 255 255
0.148293 -0.544493 1.587 0 0 0
0.0849781 -0.145188 1.905 255 255 255
-1.13325 -0.754448 2.22 255 255 255
-0.170764 0.431213 1.624 255 255 255
0.464989 -0.177594 1.041 255 255 255
-0.378755 0.0819953 2.085 255 255 255
0.388882 0.215361 1.362 255 255 255
0.289022 0.0439591 1.487 255 255 255
-1.31345 -0.521941 2.509 255 255 255
0.376657 -0.060858 1.297 255 255 255
0.0286375 0.421485 1.691 255 255 255
0.422333 0.188531 1.257 255 255 255
-0.59902 0.407427 1.624 255 255 255
0.336611 0.27425 1.516 255 255 255
0.467745 -0.139962 1.051 255 255 255
-0.326164 -0.384031 1.953 255 255 255
-0.260162 -0.267132 1.935 255 255 255
0.314668 -0.245323 1.348 255 255 255
-0.0529328 -0.564873 1.848 255 255 255
-0.177873 -0.585557 1.774 255 255 255
0.0579062 0.0770566 2.044 255 255 255
-0.941806 0.117148 2.107 255 255 255
-0.286272 0.0360694 1.985 255 255 255
0.308997 -0.303332 1.333 255 255 255
-0.368673 0.496375 1.494 255 255 255
0.207591 0.170607 1.714 255 255 255
-0.741669 -0.566854 2.509 255 255 255
-0.365433 -0.735884 1.959 255 255 255
-0.108086 0.547656 1.425 255 255 255
-1.2342 -0.322149 2.449 255 255 255
0.394757 -0.0573885 1.267 255 255 255
0.156105 0.438664 1.642 255 255 255
0.100462 -0.584904 1.65 255 255 255
0.159786 -0.213808 1.71 255 255 255
0.215781 0.129213 1.758 255 255 255
-0.777222 0.332333 1.758 255 255 255
-0.780919 0.0214334 2.136 255 255 255
0.296265 -0.101978 1.463 255 255 255
0.326375 -0.425493 1.342 255 255 255
0.413742 0.0886499 1.262 255 255 255
-1.05164 0.121378 2.121 255 255 255
-0.592291 0.454737 1.551 255 255 255
-0.790905 0.343877 1.744 255 255 255
0.424729 0.185743 1.252 255 255 255
-0.765668 0.109139 2.085 0 0 0
0.325525 -0.67938 1.748 255 255 255
0.412368 -0.257123 1.114 255 255 255
-1.15786 -0.864045 2.261 255 255 255
-1.00714 -0.285129 2.509 255 255 255
-0.0904084 0.541328 1.439 255 255 255
0.473476 -0.0307628 1.06 255 255 255
0.205211 -0.235842 1.65 255 255 255
-0.667272 0.436478 1.567 255 255 255
-0.364627 0.475346 1.528 255 255 255
-0.507474 0.476802 1.509 255 255 255
-0.243828 -0.656262 1.71 255 255 255
0.376641 0.251551 1.416 255 255 255
-0.235364 -0.522092 1.794 255 255 255
0.181441 0.212178 1.758 255 255 255
0.345106 -0.131666 1.33 255 255 255
-1.26917 -0.229972 2.402 255 255 255
-0.0574012 -0.299486 2.004 255 255 255
1.01793 -0.822416 2.42 255 255 255
0.432299 -0.0225891 1.173 255 255 255
-0.708581 0.089718 2.107 0 0 0
-1.11203 0.095092 2.151 255 255 255
0.240589 0.330675 1.691 255 255 255
0.418349 0.34457 1.322 255 255 255
0.15917 0.0898842 1.831 255 255 255
-0.747732 -0.254619 2.572 255 255 255
0.374116 -0.108332 1.26 255 255 255
0.504905 -0.362761 1.083 255 255 255
0.310456 -0.230601 1.378 255 255 255
-0.680471 0.250783 1.853 0 0 0
0.474714 0.230613 1.16 255 255 255
-0.742096 0.380207 1.691 255 255 255
-0.292274 0.0103254 2.004 255 255 255
-0.25438 -0.527892 1.784 255 255 255
-0.71493 -0.633356 2.53 255 255 255
0.127643 0.453877 1.62 255 255 255
0.946416 -0.96507 2.626 255 255 255
-0.767445 0.475143 1.466 255 255 255
0.151593 0.1237 0.415 255 255 255
-0.619427 -0.738817 2.43 0 0 0
0.46177 0.251872 1.18 255 255 255
0.473896 0.196296 1.158 255 255 255
0.125895 0.1753 0.462 255 255 255
-1.03963 -0.238302 2.489 0 0 0
-1.11123 0.108333 2.136 255 255 255
-0.110948 0.541025 1.432 255 255 255
-0.0217592 0.491337 1.555 255 255 255
0.425865 0.00225259 1.187 255 255 255
0.450635 -0.209168 1.055 255 255 255
-0.41831 -0.286335 2.204 255 255 255
0.486536 -0.112575 1.005 255 255 255
0.420903 0.282366 1.265 255 255 255
0.462168 0.291534 1.201 255 255 255
0.0778203 0.230061 1.959 255 255 255
-0.303431 -0.430707 1.853 255 255 255
-1.06432 -0.334125 2.509 0 0 0
0.467862 0.207002 1.176 255 255 255
0.29313 0.239579 1.547 255 255 255
-1.19299 -0.103544 2.286 255 255 255
-0.659443 -0.118839 2.294 255 255 255
0.405723 0.376329 1.359 255 255 255
0.104236 0.28752 1.917 255 255 255
-0.666179 0.0353373 2.136 255 255 255
0.22785 -0.028561 1.62 255 255 255
-0.0964033 -0.120767 2.071 255 255 255
-0.0586047 0.375956 1.748 255 255 255
0.466356 0.152953 1.158 255 255 255
0.115134 -0.626572 1.668 255 255 255
0.304373 -0.336008 1.351 255 255 255
-1.07228 -0.426327 2.499 255 255 255
0.313625 -0.351952 1.281 255 255 255
0.477978 0.0626062 1.094 255 255 255
-0.550329 0.50713 1.435 255 255 255
0.175506 0.2545 1.815 255 255 255
0.0197891 0.441336 1.642 255 255 255
-1.19121 -0.527546 2.459 255 255 255
-0.509632 0.339946 1.753 255 255 255
-0.453812 0.345928 1.769 255 255 255
-0.248572 -0.495957 1.784 255 255 255
-0.859473 -0.6888 2.449 255 255 255
0.472553 -0.12991 1.039 255 255 255
0.477978 0.108894 1.094 255 255 255
0.463641 0.0350571 1.124 255 255 255
-0.17942 0.527277 1.439 255 255 255
0.00138926 0.0143323 2.114 255 255 255
-1.01014 0.186823 2.044 255 255 255
0.293607 -0.379631 1.342 255 255 255
-1.12685 -0.625209 2.374 255 255 255
-0.219785 0.315654 1.81 0 0 0
