ply
format ascii 1.0
comment Created by Open3D
element vertex 1314
property double x
property double y
property double z
property uchar red
property uchar green
property uchar blue
end_header
-0.28393 0.455712 1.563 255 255 255
0.46884 -0.280741 1.416 255 255 255
0.478107 -0.254663 1.351 255 255 255
-0.295313 -0.670329 2.499 0 0 0
0.33712 0.0251561 1.893 255 255 255
0.324157 -0.322359 1.837 255 255 255
-0.27979 0.0407757 2.244 0 0 0
0.106332 0.500029 1.505 255 255 255
-0.504004 0.369482 1.705 255 255 255
0.46553 0.486811 1.502 255 255 255
0.517059 0.193606 1.305 255 255 255
-0.0519876 -0.463225 1.815 255 255 255
-0.358173 0.220732 0.695 0 0 0
0.507946 -0.312583 1.217 255 255 255
0.535636 0.190121 1.254 255 255 255
-0.532601 -0.559101 2.626 255 255 255
0.360201 -0.403034 1.71 255 255 255
-0.577652 -0.00297985 2.196 255 255 255
-0.518039 0.353961 1.724 255 255 255
0.21096 -0.684745 1.815 255 255 255
0.370405 0.315124 1.859 255 255 255
0.368824 0.529184 1.477 255 255 255
0.339112 0.323075 1.87 255 255 255
0.555437 -0.191171 1.11 255 255 255
-0.4678 -0.856377 2.383 255 255 255
0.521643 0.0756539 1.322 255 255 255
0.429003 -0.315656 1.494 255 255 255
0.455373 -0.104989 1.439 255 255 255
0.0865839 0.234265 1.941 0 0 0
-0.0131157 0.365621 1.753 255 255 255
0.0957657 0.0446075 1.935 255 255 255
-0.532404 -0.161474 2.43 255 255 255
0.409806 0.0136194 1.62 255 255 255
0.574524 0.0727295 1.171 255 255 255
1.20898 -0.83013 2.54 0 0 0
-0.518005 -0.112375 1.018 255 255 255
-0.620817 -0.747591 2.42 255 255 255
0.554501 -0.011136 1.173 255 255 255
0.521162 -0.267828 1.239 255 255 255
0.479731 -0.451342 1.381 255 255 255
-0.381368 0.275369 0.809 255 255 255
-0.427144 0.0567719 2.158 0 0 0
-0.59896 0.374704 1.691 255 255 255
0.519306 -0.146589 1.254 255 255 255
-0.324943 0.0078538 2.228 255 255 255
0.565124 0.16579 1.225 255 255 255
0.0446655 -0.355992 1.905 255 255 255
-0.12198 -0.210902 2.166 255 255 255
0.272341 0.249189 1.959 0 0 0
-0.0362995 0.228963 1.923 0 0 0
0.422984 -0.119732 1.571 255 255 255
-0.0436415 0.3893 1.719 255 255 255
0.192016 0.442389 1.607 255 255 255
0.499879 0.229878 1.439 255 255 255
0.282068 0.376833 1.779 255 255 255
-0.27322 0.515501 1.452 255 255 255
0.0354955 0.35522 1.758 255 255 255
0.42994 -0.131718 1.532 255 255 255
-0.367681 0.187865 0.744 255 255 255
0.150551 0.096682 2.037 0 0 0
0.470331 0.0640578 1.449 255 255 255
0.0775732 -0.670222 1.739 255 255 255
-0.661304 0.322548 1.571 255 255 255
-0.900711 -0.179043 2.253 0 0 0
0.0508238 -0.560045 1.794 255 255 255
0.086633 -0.559149 1.81 255 255 255
-0.0134599 -0.500127 1.799 255 255 255
0.459641 -0.111971 1.409 255 255 255
0.395908 -0.141864 1.65 255 255 255
0.223406 0.450235 1.607 255 255 255
0.356531 0.546713 1.466 255 255 255
-0.699706 -0.440808 2.66 255 255 255
0.173959 -0.687491 1.799 255 255 255
-0.315775 0.505121 1.463 255 255 255
0.569819 0.281865 1.185 255 255 255
0.280569 -0.124621 1.972 255 255 255
-0.656989 -0.574435 2.561 255 255 255
-0.0498543 0.503728 1.487 255 255 255
-0.691319 -0.179686 2.519 255 255 255
0.192168 -0.654536 1.805 255 255 255
0.423485 -0.333559 1.509 255 255 255
-0.833684 -0.604452 2.479 255 255 255
0.152885 -0.134495 2.024 255 255 255
0.13437 -0.462354 1.859 255 255 255
-0.134199 -0.0689419 2.136 255 255 255
-0.611971 -0.213407 2.53 255 255 255
0.235595 0.540615 1.456 255 255 255
-0.431363 0.21128 1.013 255 255 255
-0.396553 -0.437311 2.719 255 255 255
0.314523 0.363504 1.799 255 255 255
-0.466412 -0.0558925 0.986 255 255 255
-0.622774 0.449277 1.491 0 0 0
-0.746462 -0.46295 1.646 255 255 255
0.103772 -0.128287 2.03 255 255 255
0.557005 0.201236 1.247 255 255 255
-0.742127 -0.696123 2.392 255 255 255
-0.624549 -0.259811 2.582 255 255 255
-0.542545 -0.164392 1.205 255 255 255
0.502077 0.285307 1.459 255 255 255
0.454113 0.212982 1.555 255 255 255
0.641243 -0.436188 1.39 255 255 255
-0.146219 0.525812 1.435 255 255 255
-0.493423 -0.0945221 1.022 255 255 255
0.484756 -0.216562 1.333 255 255 255
-0.523932 0.449881 1.543 255 255 255
-0.61219 0.322898 1.769 255 255 255
-0.391267 0.15015 0.83 255 255 255
0.2661 0.109139 2.085 0 0 0
0.0136558 0.0439159 1.905 255 255 255
-0.537264 0.513021 1.419 255 255 255
-0.551436 -0.181739 1.203 255 255 255
-0.0743236 -0.393087 1.935 255 255 255
-0.544058 -0.0342154 1.249 255 255 255
0.549526 0.00418423 1.187 255 255 255
0.332281 -0.529776 1.724 255 255 255
0.533006 -0.270297 1.116 255 255 255
0.320118 -0.360041 1.831 255 255 255
0.353979 -0.184424 1.748 255 255 255
-0.597605 -0.0700633 2.286 0 0 0
-0.430898 0.132035 0.964 255 255 255
-0.173941 0.108406 2.071 255 255 255
-0.301375 -0.0141561 2.269 255 255 255
-0.789947 -0.674969 2.22 255 255 255
-0.350769 0.121378 2.121 0 0 0
-0.0427931 0.503668 1.494 255 255 255
0.478254 -0.310604 1.327 255 255 255
-0.369088 0.373348 1.71 255 255 255
0.175846 0.166273 0.442 255 255 255
-0.422939 0.307245 1.848 255 255 255
-0.380867 0.506202 1.439 255 255 255
-0.278038 0.407028 1.633 255 255 255
-0.191292 -0.19219 2.469 0 0 0
-0.813684 -0.398469 2.582 255 255 255
-0.479829 -0.256591 2.55 255 255 255
0.357695 0.0181622 1.81 255 255 255
0.0708685 -0.641115 1.784 255 255 255
-0.781986 0.109704 1.917 0 0 0
-0.0341664 -0.450167 1.81 255 255 255
0.296236 0.126899 1.991 255 255 255
0.461121 0.0557944 1.48 255 255 255
0.556972 0.359714 1.299 255 255 255
0.495534 -0.0514684 1.327 255 255 255
-0.834697 -0.080051 2.253 255 255 255
-0.110383 0.285721 1.905 255 255 255
-0.553434 -0.2221 2.489 255 255 255
-0.460772 0.0810904 2.151 255 255 255
-0.71721 -0.650547 1.794 255 255 255
0.395367 -0.12104 1.659 255 255 255
-0.95644 -0.222941 2.593 255 255 255
0.549442 -0.285388 1.077 255 255 255
-0.746698 -0.470523 2.54 255 255 255
-0.840539 -0.631617 2.22 255 255 255
0.43415 -0.0851759 1.547 255 255 255
-0.553103 -0.462256 2.684 255 255 255
0.435121 -0.411342 1.375 255 255 255
0.281729 0.438664 1.642 255 255 255
-0.299688 0.447529 1.579 255 255 255
-0.659869 -0.0172743 2.196 255 255 255
0.567867 0.189294 1.173 255 255 255
-0.664527 -0.332247 1.4 255 255 255
-0.734458 0.235376 1.899 255 255 255
0.261212 0.424716 1.682 255 255 255
0.115731 -0.26326 1.953 255 255 255
-0.520027 -0.0913787 2.356 255 255 255
0.448903 -0.283933 1.456 255 255 255
-0.377955 0.138939 0.775 255 255 255
0.302997 0.283511 1.911 255 255 255
0.543056 0.200804 1.257 255 255 255
-0.394614 0.220307 0.84 255 255 255
0.609222 -0.352543 1.198 255 255 255
-0.360991 0.240709 0.714 255 255 255
-0.316324 0.462536 1.535 255 255 255
0.571916 0.0455398 1.158 255 255 255
-0.69443 -0.378149 1.463 255 255 255
-0.308575 0.42278 1.612 255 255 255
0.33614 -0.190438 1.805 255 255 255
-0.0124797 0.418466 1.668 255 255 255
0.523099 -0.283574 1.22 255 255 255
-0.95444 -0.00687278 2.303 255 255 255
-0.398523 -0.732803 2.561 255 255 255
0.234449 -0.657172 1.837 0 0 0
-0.57591 -0.0917277 2.365 255 255 255
0.531111 -0.0599101 1.234 255 255 255
0.285929 0.513637 1.509 255 255 255
0.4681 -0.261621 1.4 255 255 255
0.533341 0.309445 1.319 255 255 255
0.553794 0.11368 1.222 255 255 255
0.537387 -0.180407 1.169 255 255 255
-0.245841 -0.0145866 2.338 255 255 255
0.449441 0.0905766 1.539 255 255 255
0.447659 -0.113073 1.516 255 255 255
-0.185928 -0.527808 2.303 255 255 255
0.326079 -0.312367 1.831 255 255 255
0.390381 -0.0850999 1.696 255 255 255
-0.029823 0.385938 1.729 255 255 255
0.320694 0.0619256 1.887 255 255 255
-0.314481 0.413984 1.629 255 255 255
-0.606903 -0.254372 1.283 255 255 255
0.947714 -0.766587 2.114 255 255 255
0.544981 0.407253 1.316 255 255 255
-0.0814785 -0.541577 1.882 255 255 255
-0.0276783 -0.134657 1.978 255 255 255
0.301052 -0.368199 1.842 255 255 255
0.16992 0.0713341 2.071 0 0 0
-0.794613 -0.73843 2.329 255 255 255
-0.735841 -0.219649 2.604 255 255 255
-0.690171 0.213733 1.985 255 255 255
0.126196 0.549975 1.425 255 255 255
-0.0188228 0.359915 1.753 255 255 255
0.56789 0.343573 1.185 255 255 255
0.508562 -0.101583 1.305 255 255 255
0.459829 -0.356476 1.362 255 255 255
0.396913 -0.309093 1.559 255 255 255
0.197108 0.250842 1.972 255 255 255
0.297778 -0.271766 1.859 255 255 255
0.146811 0.450595 1.599 255 255 255
-0.225719 0.446087 1.583 255 255 255
0.553556 -0.0854355 1.171 255 255 255
0.233225 0.540615 1.456 255 255 255
0.472337 0.456811 1.516 255 255 255
0.425779 0.383614 1.591 255 255 255
-0.438222 -0.221208 2.479 255 255 255
0.552387 -0.0441811 1.189 255 255 255
0.317321 0.357877 1.815 255 255 255
-0.586404 0.234265 1.941 255 255 255
-0.338434 0.367989 1.724 255 255 255
-0.258564 -0.615582 2.459 0 0 0
-0.480266 0.403163 1.607 255 255 255
-0.537822 -0.481693 2.695 255 255 255
-0.193426 -0.82388 2.303 255 255 255
0.47168 -0.295981 1.339 0 0 0
0.261959 0.470457 1.587 0 0 0
-0.833028 -0.663684 2.43 255 255 255
-0.686932 -0.350232 1.39 255 255 255
0.563765 0.29185 1.244 255 255 255
-0.388181 0.315473 1.826 255 255 255
0.543767 -0.249423 1.112 0 0 0
0.536318 -0.343018 1.192 255 255 255
0.204853 0.517215 1.491 255 255 255
0.153429 -0.49552 1.87 255 255 255
-0.480945 0.0790601 1.1 255 255 255
0.0102058 -0.42815 1.842 255 255 255
0.394854 -0.385612 1.571 255 255 255
0.17397 0.298738 1.929 255 255 255
-0.727668 0.225483 1.947 255 255 255
-0.474712 -0.0541865 0.904 255 255 255
0.317709 -0.458216 1.784 255 255 255
-0.199542 0.0754618 2.092 255 255 255
-0.525252 0.396398 1.633 255 255 255
-0.702494 -0.766498 2.43 255 255 255
0.542139 -0.104426 1.192 255 255 255
0.242272 0.0762554 2.114 255 255 255
0.358952 -0.373789 1.691 255 255 255
0.16054 -0.471137 1.882 255 255 255
-0.110872 0.445391 1.599 255 255 255
0.257637 0.0415567 2.099 255 255 255
0.366764 -0.327203 1.664 255 255 255
0.516813 -0.389115 1.273 255 255 255
0.378506 -0.00226338 1.668 255 255 255
-0.302235 -0.720302 2.489 255 255 255
-0.578416 0.391083 1.633 255 255 255
-0.911286 -0.511921 2.561 255 255 255
0.428775 0.105366 1.612 255 255 255
0.367806 0.262703 1.831 255 255 255
0.580235 0.198984 1.141 255 255 255
0.57525 0.185045 1.124 255 255 255
0.474805 0.459278 1.516 255 255 255
0.499995 -0.0660327 1.316 255 255 255
-0.314538 0.48082 1.491 255 255 255
-0.803662 -0.278975 2.604 0 0 0
0.40519 -0.107282 1.655 255 255 255
0.149939 -0.274034 1.985 255 255 255
-0.709152 -0.365263 2.615 0 0 0
-0.041793 0.473704 1.547 255 255 255
-0.395626 0.19411 0.851 255 255 255
0.507747 0.201693 1.39 255 255 255
-0.292951 0.0337259 2.261 0 0 0
-0.799267 -0.518968 1.612 255 255 255
0.394414 0.436751 1.655 255 255 255
0.526278 0.211715 1.286 255 255 255
0.449311 0.509826 1.505 255 255 255
-0.586682 0.453824 1.498 255 255 255
-0.326359 0.528914 1.406 255 255 255
0.528245 -0.0698373 1.232 255 255 255
-0.234424 -0.859229 2.338 0 0 0
0.577531 0.0691304 1.143 255 255 255
-0.652958 -0.300568 1.516 255 255 255
-0.0486009 -0.503055 1.799 255 255 255
0.560202 -0.0603518 1.165 255 255 255
0.00579092 0.503765 1.48 0 0 0
0.31476 0.0857126 1.87 255 255 255
0.143874 -0.543291 1.826 255 255 255
-0.652444 0.294257 1.842 255 255 255
0.527786 -0.217879 1.208 255 255 255
-0.234163 0.508489 1.459 255 255 255
-0.723727 -0.425787 1.637 255 255 255
-0.622691 0.326612 1.758 255 255 255
-0.377766 0.300885 0.836 255 255 255
-0.201384 0.472528 1.535 255 255 255
-0.373777 0.245485 0.769 255 255 255
0.550529 0.000320407 1.185 255 255 255
-0.0271606 -0.211104 1.941 255 255 255
0.280603 -0.614607 1.826 255 255 255
0.459253 -0.187054 1.422 255 255 255
-0.15421 -0.812735 2.173 0 0 0
-0.827138 -0.774466 2.044 0 0 0
0.496841 -0.197116 1.319 255 255 255
-0.0404345 -0.12783 1.972 255 255 255
-0.883212 -0.0406024 2.303 255 255 255
-0.343219 0.180791 1.978 255 255 255
-0.636841 0.375447 1.682 255 255 255
-0.276701 0.459785 1.551 255 255 255
0.554265 0.053492 1.21 255 255 255
-0.0920743 0.116414 1.978 255 255 255
-0.669777 -0.352646 1.456 255 255 255
-0.576414 -0.111815 2.383 255 255 255
-0.35423 -0.155704 2.402 255 255 255
0.447652 0.276814 1.633 255 255 255
-0.335586 0.394037 1.668 255 255 255
-0.38089 0.279142 0.828 255 255 255
0.441925 -0.0997622 1.539 255 255 255
-0.776522 0.181979 1.991 255 255 255
0.519215 -0.171737 1.244 255 255 255
-0.531117 0.340916 1.758 255 255 255
-0.391751 0.316526 1.815 255 255 255
-0.752 -0.837689 2.374 255 255 255
-0.57034 0.298223 1.848 255 255 255
-0.356908 0.406031 1.629 255 255 255
-0.328271 -0.125885 2.356 255 255 255
-0.0458329 0.204564 1.929 255 255 255
-0.298989 0.251645 1.882 255 255 255
-0.797589 -0.411267 1.917 0 0 0
-0.706814 -0.584187 1.719 255 255 255
-0.207916 0.340151 1.784 255 255 255
-0.259258 0.349498 1.758 255 255 255
-0.448894 0.0732797 0.997 255 255 255
-0.717324 -0.568581 1.911 255 255 255
0.718975 -0.723226 1.917 255 255 255
0.445592 0.511181 1.509 255 255 255
0.51441 -0.185805 1.257 255 255 255
-0.381214 0.276444 0.82 255 255 255
-0.801212 0.144942 1.972 0 0 0
-0.846011 -0.827504 2.356 255 255 255
0.263042 0.429707 1.659 255 255 255
0.515966 0.0348313 1.324 255 255 255
-0.86593 -0.373042 2.166 0 0 0
0.43461 0.359857 1.624 255 255 255
-0.313576 0.475764 1.498 255 255 255
0.270798 0.525441 1.48 255 255 255
-0.44017 -0.0766559 2.261 255 255 255
-0.363119 0.174508 2.017 0 0 0
0.403023 -0.257178 1.583 255 255 255
0.488642 0.27617 1.513 255 255 255
-0.636145 -0.586938 2.561 255 255 255
0.0968783 0.520559 1.473 255 255 255
0.592792 -0.385348 1.254 255 255 255
0.610693 -0.646075 1.758 0 0 0
-0.631495 0.171274 2.057 255 255 255
0.454451 0.100594 1.539 255 255 255
-0.35672 0.164124 0.69 0 0 0
0.525831 0.459828 1.384 255 255 255
0.281859 -0.0320698 2.004 255 255 255
-0.416482 0.0252462 0.854 255 255 255
0.349027 0.0694415 1.842 255 255 255
-0.365516 0.242109 0.747 255 255 255
-0.365775 0.265525 0.712 255 255 255
0.471145 -0.234655 1.416 255 255 255
-0.676963 -0.370393 1.509 255 255 255
0.0763902 -0.356226 1.923 255 255 255
0.392453 0.258498 1.705 255 255 255
0.258691 0.532399 1.466 255 255 255
0.570108 0.0419152 1.162 255 255 255
0.562426 -0.0635378 1.154 255 255 255
-0.534286 -0.0633046 1.222 255 255 255
-0.518891 -0.132328 1.132 255 255 255
-0.658983 -0.691365 2.43 255 255 255
0.12459 -0.601664 1.805 255 255 255
-0.77198 -0.285605 2.626 255 255 255
0.231153 0.530147 1.473 255 255 255
0.401895 0.221885 1.62 255 255 255
0.0597507 0.146865 1.799 255 255 255
-0.886617 -0.430878 2.55 255 255 255
-0.353618 0.198315 0.684 255 255 255
-0.369736 -0.0134199 2.151 255 255 255
0.0245412 -0.542528 1.794 255 255 255
-0.560026 0.465742 1.505 255 255 255
-0.16386 -0.24351 2.42 255 255 255
-0.215136 0.235376 1.899 255 255 255
0.203069 0.115285 2.136 255 255 255
0.512058 0.133579 1.342 255 255 255
0.194761 0.148953 0.412 255 255 255
0.0272876 0.517107 1.47 255 255 255
-0.0141291 0.474929 1.551 255 255 255
0.427366 -0.169558 1.559 255 255 255
0.452973 -0.110165 1.477 255 255 255
0.388491 0.306169 1.789 255 255 255
-0.179128 -0.0633354 2.312 255 255 255
-0.750971 -0.833109 2.383 255 255 255
-0.53636 -0.798133 2.43 255 255 255
0.196295 0.147254 0.411 255 255 255
-0.727787 0.0506244 2.196 255 255 255
-0.594664 -0.252349 1.316 255 255 255
0.381752 -0.496673 1.591 255 255 255
-0.297796 -0.909055 2.42 255 255 255
-0.703586 -0.383893 2.626 0 0 0
0.49297 0.0819839 1.393 255 255 255
-0.386666 0.0909114 0.785 255 255 255
-0.0818376 0.0404678 2.044 255 255 255
0.435926 -0.411219 1.429 255 255 255
-0.108084 0.106627 2.037 0 0 0
0.560832 0.341809 1.22 255 255 255
0.162206 -0.232499 2.017 255 255 255
-0.0390607 0.130718 1.905 255 255 255
0.499995 -0.13028 1.316 255 255 255
0.54796 0.0139007 1.192 255 255 255
-0.719299 -0.657014 2.42 255 255 255
0.272449 0.516019 1.516 255 255 255
-0.490253 0.257008 1.899 255 255 255
0.407116 -0.420199 1.494 255 255 255
-0.630783 -0.26315 1.459 255 255 255
0.272999 -0.274277 1.941 255 255 255
-0.200962 0.440574 1.591 255 255 255
-0.053701 -0.597105 1.774 255 255 255
0.392459 -0.364772 1.603 255 255 255
-0.134215 -0.153378 2.253 0 0 0
-0.415964 0.00412373 2.173 255 255 255
0.457612 -0.356476 1.362 255 255 255
-0.155622 0.49654 1.48 255 255 255
-0.0864572 -0.126201 1.997 255 255 255
-0.153069 0.224094 1.935 255 255 255
0.0992883 -0.507633 1.826 255 255 255
-0.9399 -0.160809 2.42 255 255 255
0.511218 0.19419 1.369 255 255 255
-0.1522 0.472479 1.543 255 255 255
0.363991 0.026387 1.769 255 255 255
0.407847 0.396163 1.677 255 255 255
-0.606427 -0.238878 1.387 255 255 255
0.370657 -0.478354 1.599 255 255 255
0.160028 -0.494057 1.876 255 255 255
-0.498436 -0.55585 2.672 255 255 255
0.528495 -0.277656 1.162 0 0 0
-0.226571 0.507443 1.456 255 255 255
0.0261757 0.401176 1.71 255 255 255
-0.959049 -0.555558 2.459 255 255 255
-0.679756 0.266107 1.876 255 255 255
0.0981464 -0.589915 1.805 255 255 255
0.120214 0.128823 1.923 255 255 255
0.518212 0.422433 1.425 0 0 0
0.72001 -0.665847 1.887 0 0 0
0.115622 -0.429038 1.899 255 255 255
0.231923 0.394379 1.729 255 255 255
0.526467 0.0406089 1.302 255 255 255
0.432996 0.519641 1.491 255 255 255
-0.370411 0.191109 0.752 255 255 255
0.235554 0.193964 2.085 255 255 255
-0.257607 0.478066 1.513 255 255 255
-0.652958 0.0430218 2.173 255 255 255
-0.499074 0.513992 1.409 255 255 255
0.438728 0.184255 1.591 255 255 255
0.114169 0.540374 1.449 255 255 255
-0.290995 0.280471 1.87 255 255 255
0.400241 -0.0628345 1.691 255 255 255
0.534045 -0.266273 1.122 255 255 255
0.0789545 0.323352 1.837 255 255 255
-0.189677 -0.0331069 2.303 255 255 255
0.48728 -0.471998 1.416 255 255 255
-0.382677 0.276947 0.872 255 255 255
-0.262731 0.405361 1.637 255 255 255
-0.722924 -0.100173 2.294 255 255 255
-0.381857 0.269068 0.783 255 255 255
0.521158 -0.644024 1.664 255 255 255
0.0124658 0.37968 1.739 255 255 255
0.0343045 0.313259 1.848 0 0 0
0.438728 0.251571 1.591 255 255 255
-0.43001 -0.593288 2.626 255 255 255
0.19165 -0.196367 2.051 0 0 0
-0.907013 -0.571564 2.459 255 255 255
0.0136558 -0.355992 1.905 255 255 255
-0.447917 0.151436 2.107 0 0 0
0.566719 -0.101581 1.118 255 255 255
-0.79354 0.135825 2.078 255 255 255
-0.487897 -0.0293666 1.072 255 255 255
0.327615 -0.545381 1.729 255 255 255
0.423738 -0.217202 1.555 255 255 255
0.534097 -0.0324663 1.26 255 255 255
-0.0685286 0.017184 2.044 255 255 255
-0.373408 -0.594173 2.649 0 0 0
0.289977 0.316799 1.887 255 255 255
0.512701 -0.147054 1.294 255 255 255
0.43461 0.344001 1.624 255 255 255
-0.645168 0.263895 1.882 255 255 255
-0.561791 0.514722 1.345 0 0 0
-0.0548415 -0.00605807 2.03 0 0 0
-0.443804 -0.0246822 0.901 255 255 255
-0.899581 0.0376865 2.278 255 255 255
0.558226 0.365492 1.297 255 255 255
-0.271696 0.07759 2.151 0 0 0
-0.00889815 0.487698 1.52 255 255 255
0.538755 -0.0589876 1.215 255 255 255
0.212331 0.539354 1.459 255 255 255
-0.391449 -0.536508 2.684 255 255 255
0.00473219 -0.049993 2.071 0 0 0
0.486705 -0.0798311 1.369 255 255 255
-0.271396 0.496375 1.494 255 255 255
0.52469 -0.0120284 1.267 255 255 255
-0.489976 0.362378 1.724 255 255 255
-0.672056 -0.329413 1.351 255 255 255
0.504481 -0.475307 1.419 255 255 255
-0.798404 -0.75738 2.329 255 255 255
-0.0554088 -0.0428349 2.051 255 255 255
0.540277 -0.0517935 1.232 255 255 255
-0.403244 0.11915 2.143 255 255 255
0.167706 0.266076 1.966 255 255 255
0.321382 0.196968 1.947 255 255 255
0.465626 -0.328624 1.366 255 255 255
-0.507356 0.487 1.473 255 255 255
-0.15647 0.15504 1.978 0 0 0
-0.430317 0.0106821 0.916 255 255 255
0.173253 0.53146 1.47 255 255 255
-0.333869 0.392495 1.673 255 255 255
-0.289476 -0.58551 2.519 0 0 0
0.42339 0.107327 1.642 255 255 255
-0.439441 -0.824081 2.509 255 255 255
-0.179384 -0.611293 2.365 255 255 255
0.573816 0.0629387 1.132 255 255 255
0.407064 0.497675 1.559 255 255 255
-0.398856 0.177391 0.864 255 255 255
0.168173 0.309543 1.899 255 255 255
0.309695 -0.658902 1.739 255 255 255
0.0750021 0.474728 1.567 255 255 255
-0.161354 -0.185496 2.383 255 255 255
0.042696 -0.449939 1.821 255 255 255
-0.076201 0.424009 1.637 255 255 255
0.0270583 -0.199034 1.978 255 255 255
-0.434528 0.417533 1.612 255 255 255
0.0580225 -0.432967 1.837 255 255 255
0.296953 -0.549896 1.799 255 255 255
0.0491956 0.544958 1.412 255 255 255
-0.613757 -0.610386 2.572 255 255 255
0.50211 0.235751 1.432 255 255 255
0.529552 0.278311 1.294 255 255 255
0.0363233 0.343011 1.799 255 255 255
0.436772 -0.325772 1.463 255 255 255
-0.421902 0.415356 1.624 255 255 255
-0.0394298 0.182022 1.923 255 255 255
-0.701444 -0.401972 1.575 255 255 255
-0.222364 0.192605 1.935 0 0 0
0.0599808 -0.376503 1.899 255 255 255
-0.171457 0.531171 1.412 255 255 255
0.125685 0.29595 1.911 255 255 255
0.531554 0.0942099 1.254 255 255 255
-0.265283 0.496469 1.487 255 255 255
0.506128 -0.363074 1.227 255 255 255
-0.648052 -0.315875 1.429 255 255 255
-0.539996 -0.623863 2.684 255 255 255
-0.411764 0.037577 0.85 255 255 255
0.0973819 -0.386993 1.905 255 255 255
0.0867382 0.171468 1.876 255 255 255
-0.750543 -0.583983 1.655 255 255 255
-0.478872 -0.016659 1.041 255 255 255
0.226462 -0.244635 2.064 255 255 255
0.497726 0.146187 1.4 255 255 255
-0.590909 -0.213915 1.165 255 255 255
-0.453293 -0.165428 2.43 255 255 255
0.514243 0.0789824 1.342 255 255 255
-0.427648 0.528557 1.393 255 255 255
-0.798085 -0.83423 2.42 255 255 255
0.213914 -0.596137 1.815 0 0 0
-0.506954 -0.670208 2.626 255 255 255
0.172428 0.540833 1.463 255 255 255
0.432677 0.431929 1.607 255 255 255
0.514608 -0.106134 1.283 255 255 255
0.343577 -0.313324 1.753 255 255 255
0.326709 0.495121 1.551 255 255 255
-0.736691 0.0401943 2.212 255 255 255
-0.959952 -0.481937 2.411 255 255 255
0.373817 -0.192738 1.696 255 255 255
0.522146 0.000346364 1.281 255 255 255
0.411203 -0.390039 1.509 0 0 0
0.168102 -0.672853 1.799 255 255 255
-0.709152 -0.369518 2.615 0 0 0
-0.542846 0.219417 1.978 255 255 255
0.507666 -0.458516 1.396 255 255 255
0.122326 -0.569554 1.815 255 255 255
-0.456282 0.495598 1.463 255 255 255
-0.150187 -0.757245 2.166 0 0 0
-0.00434719 0.411553 1.673 255 255 255
0.381351 -0.166015 1.705 255 255 255
0.37025 -0.204859 1.705 255 255 255
-0.449599 0.327436 1.81 255 255 255
-0.0326518 0.123733 1.893 255 255 255
-0.219888 0.0497483 2.158 255 255 255
0.071698 -0.409884 1.882 255 255 255
0.441457 0.0889878 1.555 255 255 255
-0.109848 0.498949 1.48 255 255 255
0.464906 0.112014 1.524 255 255 255
0.557232 -0.112064 1.132 255 255 255
0.0878016 0.0623194 1.899 255 255 255
0.478968 -0.444217 1.366 255 255 255
-0.190011 -0.358964 2.402 255 255 255
-0.0659136 -0.140239 1.966 255 255 255
0.462367 0.0656051 1.484 255 255 255
0.169811 0.459851 1.595 255 255 255
0.576573 0.0115997 1.156 255 255 255
-0.780419 -0.656036 2.402 255 255 255
0.555162 0.289652 1.252 255 255 255
0.00971265 0.362768 1.753 255 255 255
0.0336456 0.532817 1.435 255 255 255
-0.695402 -0.793438 2.392 255 255 255
-0.131833 0.219147 1.947 255 255 255
-0.426204 0.0281019 0.901 255 255 255
-0.497722 0.484498 1.48 255 255 255
0.485487 0.331196 1.452 255 255 255
-0.458848 -0.723394 2.572 255 255 255
-0.916843 -0.360052 2.519 255 255 255
0.490455 0.119234 1.432 255 255 255
0.435539 -0.0749118 1.543 255 255 255
0.0162994 0.109057 1.853 255 255 255
0.546605 0.252482 1.27 255 255 255
0.489284 -0.331587 1.316 255 255 255
-0.481038 -0.599332 2.672 255 255 255
0.385566 -0.360084 1.629 255 255 255
-0.668327 0.174622 2.057 255 255 255
0.564467 0.245502 1.215 255 255 255
-0.571461 -0.036763 1.342 255 255 255
0.47358 -0.140471 1.396 255 255 255
-0.417093 0.0282554 0.861 255 255 255
0.288669 -0.655631 1.784 255 255 255
0.299834 -0.291997 1.853 255 255 255
0.594599 -0.335642 1.173 255 255 255
0.362281 0.119847 1.789 255 255 255
0.462046 -0.34761 1.362 255 255 255
-0.636859 0.350137 1.719 255 255 255
-0.142814 0.36448 1.734 255 255 255
-0.467827 0.456646 1.532 255 255 255
-0.178224 -0.816992 2.253 255 255 255
-0.405405 -0.481558 2.719 255 255 255
-0.191759 0.494132 1.48 255 255 255
0.367235 0.228836 1.799 255 255 255
-0.142508 0.480278 1.52 255 255 255
0.352678 -0.532085 1.612 255 255 255
-0.559969 -0.173969 1.104 255 255 255
-0.400938 -0.276317 2.66 255 255 255
0.167685 0.238607 2.004 255 255 255
0.516805 0.344206 1.372 255 255 255
-0.49609 -0.0866209 1.09 255 255 255
-0.349073 -0.0969418 2.22 255 255 255
0.470106 -0.283335 1.406 255 255 255
-0.682999 -0.385003 1.528 255 255 255
-0.674985 -0.217794 2.582 255 255 255
0.548571 0.302952 1.265 255 255 255
-0.35023 0.15119 2.057 255 255 255
0.227211 -0.573432 1.876 0 0 0
-0.457589 0.0666708 1.02 255 255 255
-0.802159 -0.371813 2.572 255 255 255
-0.529401 0.314609 1.821 255 255 255
-0.768074 -0.0296907 2.329 255 255 255
-0.676247 0.162329 2.071 255 255 255
-0.929025 -0.439214 2.392 255 255 255
-0.717868 -0.636263 1.739 255 255 255
-0.224723 -0.486279 2.356 255 255 255
0.188612 -0.509237 1.887 255 255 255
0.253372 -0.0573087 2.092 255 255 255
0.414539 0.282383 1.682 255 255 255
-0.0222373 -0.033142 2.071 0 0 0
0.122614 0.427007 1.659 255 255 255
-0.280061 0.160819 2.01 255 255 255
0.075559 -0.66324 1.758 255 255 255
0.57551 0.0503532 1.139 255 255 255
0.465217 -0.254673 1.412 255 255 255
-0.458049 -0.0285967 0.886 255 255 255
0.535624 0.350984 1.33 255 255 255
0.339112 0.16179 1.87 0 0 0
0.465217 -0.148974 1.412 255 255 255
0.403469 -0.164235 1.659 255 255 255
0.0931427 0.172016 1.882 255 255 255
-0.507086 0.52628 1.387 255 255 255
0.489928 0.440813 1.487 255 255 255
-0.641283 -0.264801 1.225 255 255 255
0.163665 -0.0684578 2.121 255 255 255
0.0443841 0.059042 1.893 255 255 255
-0.00812706 -0.309286 1.923 255 255 255
0.522913 -0.299551 1.11 255 255 255
0.716013 -0.579145 1.729 0 0 0
0.0283646 0.314107 1.853 0 0 0
0.464861 -0.0946914 1.425 255 255 255
-0.378989 0.228628 0.793 255 255 255
-0.365148 -0.911978 2.449 255 255 255
-0.125906 0.130989 2.004 0 0 0
0.537567 0.0531836 1.249 255 255 255
-0.434892 -0.00978641 0.88 255 255 255
0.334091 -0.23015 1.794 255 255 255
0.417718 -0.173556 1.62 255 255 255
-0.0963004 0.392828 1.71 255 255 255
-0.514736 -0.876861 2.44 255 255 255
-0.468223 0.13776 1.083 255 255 255
-0.128859 0.114035 2.051 0 0 0
-0.386775 0.429779 1.599 255 255 255
-0.39981 0.236748 0.86 255 255 255
0.766674 -0.689082 1.935 0 0 0
0.568318 -0.0975924 1.114 255 255 255
0.311176 -0.270652 1.831 255 255 255
-0.413465 0.235074 0.925 255 255 255
0.509635 -0.162253 1.281 255 255 255
-0.430449 0.00427647 0.83 255 255 255
0.00442143 -0.248238 1.935 255 255 255
0.501058 0.276809 1.477 255 255 255
-0.809025 0.0629375 2.253 255 255 255
-0.533762 0.4654 1.528 255 255 255
-0.516635 -0.800389 2.449 255 255 255
0.275956 -0.109292 1.985 255 255 255
-0.665491 -0.873664 2.499 255 255 255
0.101749 -0.366755 1.929 255 255 255
0.479796 0.0919076 1.442 255 255 255
0.459945 0.496422 1.524 0 0 0
-0.144126 -0.14497 2.294 0 0 0
-0.187301 -0.682721 2.32 255 255 255
0.288141 -0.636437 1.763 255 255 255
-0.222045 0.51899 1.442 255 255 255
0.317698 0.545595 1.463 255 255 255
-0.477888 0.250828 1.899 255 255 255
-0.340199 0.3958 1.664 255 255 255
-0.742127 -0.618272 2.392 255 255 255
0.126045 -0.649824 1.784 255 255 255
-0.524052 -0.670208 2.626 255 255 255
-0.440731 0.401739 1.655 255 255 255
0.389678 0.0809243 1.705 255 255 255
-0.220888 -0.474777 2.356 255 255 255
-0.582074 0.451047 1.505 255 255 255
-0.704423 -0.883522 2.383 255 255 255
0.593674 0.343875 1.16 255 255 255
-0.512786 0.162878 2.078 255 255 255
0.302285 -0.62979 1.729 255 255 255
-0.482479 0.497979 1.463 255 255 255
0.0381841 -0.0530025 2.057 255 255 255
0.220642 -0.425347 1.953 0 0 0
-0.355841 0.509604 1.442 255 255 255
0.555437 -0.198397 1.11 255 255 255
-0.644093 -0.526757 2.593 255 255 255
0.411486 -0.324336 1.547 255 255 255
-0.370412 -0.322052 2.755 255 255 255
0.0139139 -0.230056 1.941 255 255 255
-0.331706 0.303587 1.826 255 255 255
-0.1696 -0.69075 2.236 255 255 255
0.180571 0.0111188 2.158 0 0 0
-0.324873 -0.656426 2.572 255 255 255
0.151607 0.380772 1.744 255 255 255
-0.377108 -0.904007 2.449 255 255 255
-0.272773 -0.552008 2.479 0 0 0
0.151304 0.534785 1.466 255 255 255
-0.682534 0.207899 1.991 255 255 255
-0.180202 -0.455352 2.278 255 255 255
0.573801 0.11338 1.158 255 255 255
0.449305 -0.397124 1.357 255 255 255
-0.301109 0.186307 1.935 255 255 255
-0.646167 0.349119 1.714 255 255 255
-0.396618 0.0488797 0.787 255 255 255
-0.334581 -0.888854 2.519 255 255 255
0.226906 -0.543379 1.899 0 0 0
0.39066 -0.0559669 1.734 255 255 255
-0.0223193 -0.454798 1.805 255 255 255
-0.0638055 -0.625673 1.815 0 0 0
-0.462194 0.445788 1.555 255 255 255
-0.376661 0.494243 1.459 255 255 255
-0.27786 0.479014 1.516 255 255 255
-0.522973 -0.115155 0.999 255 255 255
-0.777022 -0.519025 1.637 255 255 255
0.530689 -0.629953 1.677 0 0 0
-0.725679 -0.824117 2.402 255 255 255
-0.0451201 -0.361051 1.899 255 255 255
0.450127 -0.0143923 1.516 255 255 255
-0.335412 0.510664 1.445 255 255 255
-0.68583 -0.918397 2.499 255 255 255
0.523417 -0.266763 1.198 255 255 255
-0.514098 0.183167 2.004 0 0 0
0.542711 -0.130167 1.215 255 255 255
0.335146 -0.548971 1.655 0 0 0
0.253881 -0.598986 1.87 255 255 255
0.405708 0.508618 1.516 255 255 255
-0.11252 0.479014 1.516 255 255 255
-0.0101802 0.38251 1.739 255 255 255
-0.391842 0.242675 0.837 255 255 255
0.394197 0.254253 1.677 0 0 0
-0.0679738 -0.480669 1.848 255 255 255
0.188039 0.193964 2.085 255 255 255
0.478021 -0.182921 1.357 255 255 255
-0.631409 0.0874769 2.136 255 255 255
0.156875 0.250019 1.991 255 255 255
-0.437922 0.360615 1.729 255 255 255
-0.420421 0.199961 0.944 255 255 255
-0.381993 0.0644754 2.181 0 0 0
-0.361248 0.35421 1.753 255 255 255
-0.600525 0.461658 1.484 0 0 0
0.132592 -0.633031 1.794 255 255 255
0.424829 0.465925 1.607 255 255 255
0.326854 0.0377158 1.905 255 255 255
-0.0191291 0.473704 1.547 255 255 255
-0.595694 -0.157519 2.43 0 0 0
0.349119 -0.378278 1.724 255 255 255
0.511303 0.33672 1.406 255 255 255
0.525126 -0.642858 1.668 255 255 255
0.392313 0.000439106 1.624 255 255 255
0.155954 -0.668064 1.794 255 255 255
-0.361832 0.191326 0.725 255 255 255
-0.365516 0.246103 0.73 255 255 255
0.566862 0.0269028 1.167 255 255 255
0.392789 -0.614927 1.637 255 255 255
0.152885 -0.197076 2.024 255 255 255
-0.149466 0.464528 1.567 255 255 255
-0.353776 0.390705 1.677 255 255 255
-0.8829 -0.0369987 2.312 0 0 0
0.567834 0.148699 1.169 255 255 255
-0.425633 0.434681 1.579 255 255 255
0.125685 -0.428639 1.911 255 255 255
0.446951 -0.169793 1.473 255 255 255
-0.0111871 -0.344674 1.911 255 255 255
0.309465 0.503684 1.516 255 255 255
-0.147344 -0.568553 2.286 255 255 255
-0.362787 -0.145054 2.356 255 255 255
-0.611457 -0.0356545 2.228 255 255 255
-0.41998 0.233862 0.957 255 255 255
0.0843423 0.447993 1.599 255 255 255
0.126303 0.454331 1.603 255 255 255
0.489185 0.333608 1.442 255 255 255
0.0864119 0.490056 1.543 255 255 255
0.406079 -0.222789 1.595 255 255 255
-0.0570672 -0.517726 1.789 255 255 255
0.0141361 -0.198431 1.972 255 255 255
0.206648 0.284803 1.941 255 255 255
-0.118207 0.0552198 2.099 0 0 0
-0.687785 -0.81454 2.42 255 255 255
-0.201589 0.105391 2.078 255 255 255
-0.386347 -0.840413 2.509 255 255 255
0.502275 -0.247045 1.322 255 255 255
0.358254 -0.395609 1.714 255 255 255
-0.370269 0.123744 0.73 255 255 255
0.464014 0.352496 1.513 255 255 255
0.245534 -0.588696 1.876 255 255 255
-0.638877 -0.627128 2.572 255 255 255
-0.660736 -0.427822 2.66 255 255 255
0.0760791 -0.220445 1.997 255 255 255
-0.596617 0.345544 1.724 255 255 255
0.212646 0.548288 1.445 255 255 255
0.539954 0.400764 1.33 255 255 255
0.369629 -0.43892 1.677 255 255 255
-0.785107 -0.711908 1.887 255 255 255
-0.206249 0.127758 2.057 255 255 255
-0.6195 -0.0541691 2.244 255 255 255
0.420717 0.379878 1.642 255 255 255
0.573951 -0.00155641 1.147 255 255 255
0.312775 -0.558484 1.789 255 255 255
-0.429751 0.490793 1.47 255 255 255
0.453263 -0.127157 1.425 255 255 255
0.50306 0.0976752 1.359 255 255 255
-0.386271 0.082263 0.764 0 0 0
-0.0767483 0.31524 1.842 255 255 255
0.421061 -0.16444 1.583 255 255 255
0.0979954 0.271923 1.917 0 0 0
-0.736836 -0.568145 2.479 255 255 255
-0.361737 0.0182096 2.166 255 255 255
0.175196 0.169916 0.444 0 0 0
-0.429745 0.226728 0.994 255 255 255
-0.886041 -0.0653855 2.253 255 255 255
-0.377108 -0.907993 2.449 255 255 255
-0.391861 -0.723394 2.572 255 255 255
-0.882108 -0.180866 2.479 255 255 255
-0.381368 0.274053 0.809 255 255 255
0.243459 -0.699513 1.815 0 0 0
0.368206 -0.133222 1.748 255 255 255
0.0369694 0.328255 1.831 0 0 0
-0.378152 0.152138 0.778 255 255 255
0.214122 -0.472012 1.923 0 0 0
0.480394 0.197893 1.48 255 255 255
0.077603 -0.125414 2.037 255 255 255
0.19589 0.150748 0.406 255 255 255
0.427698 -0.204024 1.551 255 255 255
0.0894661 0.0414586 1.935 255 255 255
-0.424876 0.0203558 0.883 255 255 255
0.478442 0.129723 1.445 255 255 255
0.122089 0.25796 1.953 255 255 255
-0.579076 0.503778 1.381 255 255 255
-0.85293 -0.223443 2.151 0 0 0
-0.366202 0.216108 0.729 0 0 0
0.31455 -0.0332682 1.887 255 255 255
-0.361473 0.144238 0.697 255 255 255
-0.118207 -0.440066 2.099 255 255 255
-0.200924 -0.419124 2.303 255 255 255
0.488675 0.210051 1.498 255 255 255
-0.65083 -0.302518 1.339 255 255 255
0.509103 0.457133 1.432 0 0 0
-0.626756 0.400547 1.607 255 255 255
-0.402407 0.102993 0.842 255 255 255
-0.658989 0.0743308 2.158 0 0 0
-0.854365 -0.0514629 2.286 255 255 255
0.542711 -0.0570104 1.215 255 255 255
-0.440419 0.3958 1.664 255 255 255
0.525775 -0.207619 1.217 255 255 255
0.379209 0.525441 1.48 255 255 255
0.447453 -0.120693 1.459 255 255 255
-0.0659136 -0.162634 1.966 255 255 255
0.503251 -0.252874 1.286 255 255 255
-0.212251 0.405409 1.659 255 255 255
0.560174 0.339007 1.21 255 255 255
0.100766 0.47594 1.571 255 255 255
-0.140371 0.177572 1.978 0 0 0
1.34396 -0.896697 2.626 0 0 0
0.137275 -0.671163 1.779 255 255 255
-0.39744 -0.503621 2.695 255 255 255
-0.82939 -0.32172 2.54 255 255 255
-0.549071 0.49222 1.27 255 255 255
-0.192275 0.252313 1.887 255 255 255
-0.301364 -0.792418 2.449 255 255 255
0.28672 0.555378 1.439 255 255 255
-0.365704 0.144511 0.721 255 255 255
1.02865 -0.78528 2.278 0 0 0
-0.378298 -0.347594 2.78 255 255 255
-0.85341 -0.53877 2.55 255 255 255
0.504313 -0.161046 1.305 255 255 255
0.267685 0.101666 2.071 255 255 255
0.418868 0.505184 1.528 255 255 255
-0.140576 -0.475004 2.181 255 255 255
1.04675 -0.752638 2.269 255 255 255
0.447828 0.26736 1.624 255 255 255
0.505712 0.255056 1.449 255 255 255
0.545147 -0.247429 1.072 255 255 255
0.636403 -0.681791 1.815 0 0 0
0.365019 0.0149141 1.774 255 255 255
-0.746874 -0.775158 2.42 255 255 255
-0.322619 0.291259 1.842 0 0 0
-0.585001 -0.277797 2.593 0 0 0
-0.825152 -0.211047 2.064 0 0 0
0.0383424 0.0437776 1.899 255 255 255
0.473259 0.317655 1.535 255 255 255
-0.610617 0.40955 1.445 0 0 0
0.363479 0.405149 1.739 255 255 255
0.551059 0.0453518 1.203 255 255 255
0.331178 -0.235148 1.81 255 255 255
-0.402224 0.0389286 0.793 255 255 255
-0.698079 0.260001 1.876 255 255 255
0.397291 -0.302492 1.591 255 255 255
-0.0121237 -0.0432526 2.071 0 0 0
0.469282 -0.250705 1.39 255 255 255
-0.723166 -0.49749 2.53 255 255 255
-0.389396 0.531835 1.378 255 255 255
-0.736445 0.194994 1.784 0 0 0
-0.91239 0.0119535 2.32 255 255 255
-0.376102 0.228395 0.779 255 255 255
-0.565477 -0.471108 2.66 255 255 255
0.192485 0.340421 1.865 255 255 255
0.511218 0.154089 1.369 255 255 255
-0.414225 0.1829 0.92 255 255 255
-0.593185 -0.24046 1.254 255 255 255
-0.558392 0.0840009 2.136 255 255 255
0.232391 -0.267237 2.057 255 255 255
-0.515937 -0.0642536 1.167 255 255 255
0.478838 -0.111264 1.372 255 255 255
-0.262543 0.375031 1.705 255 255 255
0.568683 0.35858 1.203 255 255 255
0.307956 0.0331535 2.004 255 255 255
-0.844585 -0.303542 2.561 255 255 255
0.471987 0.213295 1.539 255 255 255
0.557898 0.311315 1.249 255 255 255
-0.871482 -0.2705 2.604 255 255 255
0.0307374 -0.463225 1.815 255 255 255
-0.665894 0.338106 1.729 255 255 255
-0.534484 -0.138231 1.064 255 255 255
0.529995 0.0167442 1.26 255 255 255
-0.502607 -0.0591092 2.294 255 255 255
0.0105216 0.0685 1.899 255 255 255
-0.62166 0.244609 1.923 255 255 255
0.377913 -0.507057 1.575 255 255 255
0.0460343 0.387627 1.724 255 255 255
0.0659542 0.250035 1.893 255 255 255
0.347026 0.420961 1.7 255 255 255
-0.802159 -0.380184 2.572 255 255 255
-0.44305 0.41007 1.624 255 255 255
0.210711 0.0319657 2.143 255 255 255
0.0676265 -0.280595 1.941 255 255 255
0.531678 -0.26411 1.169 255 255 255
-0.348979 -0.622613 2.66 255 255 255
0.501964 0.414253 1.445 255 255 255
0.353169 -0.195355 1.744 255 255 255
-0.756926 -0.511724 2.519 255 255 255
-0.408292 0.334345 1.784 255 255 255
-0.382237 0.279142 0.828 255 255 255
-0.310978 -0.549429 2.561 255 255 255
0.534782 0.181669 1.252 255 255 255
-0.451465 0.3333 1.794 255 255 255
-0.378771 0.0980063 0.742 0 0 0
-0.157476 0.329469 1.805 255 255 255
0.366405 -0.00808414 1.753 255 255 255
0.881365 -0.661729 1.966 255 255 255
0.534554 0.0205472 1.242 255 255 255
-0.145759 -0.218346 2.32 255 255 255
-0.802159 -0.367628 2.572 255 255 255
0.186292 -0.569354 1.805 255 255 255
0.549325 0.306341 1.262 255 255 255
-0.508777 -0.0953163 1.13 255 255 255
-0.0613416 0.128823 1.923 255 255 255
0.52757 0.264697 1.31 255 255 255
-0.723263 0.0364623 2.204 0 0 0
0.377913 -0.427602 1.575 0 0 0
-0.214435 0.471254 1.539 255 255 255
0.447669 -0.191001 1.452 255 255 255
0.347941 -0.522387 1.691 255 255 255
-0.413772 0.45754 1.535 255 255 255
-0.18548 -0.267726 2.499 255 255 255
-0.82007 -0.580862 2.499 255 255 255
0.392635 0.192056 1.682 255 255 255
0.175666 0.427376 1.65 255 255 255
-0.424621 0.204197 0.964 255 255 255
-0.620633 -0.267889 1.409 0 0 0
0.202815 -0.473794 1.905 255 255 255
0.222002 -0.0169203 2.151 255 255 255
0.334256 0.534942 1.473 255 255 255
-0.445549 0.019244 0.972 255 255 255
0.342062 0.112072 1.853 255 255 255
-0.00191409 -0.185594 1.972 255 255 255
-0.379124 0.184262 0.78 0 0 0
0.563994 -0.0394976 1.165 255 255 255
-0.113512 0.198182 1.959 255 255 255
-0.156286 -0.218733 2.365 255 255 255
-0.404014 0.0572276 0.834 255 255 255
-0.712413 0.264282 1.842 255 255 255
-0.586219 -0.230595 1.302 255 255 255
-0.419134 0.0430521 0.877 255 255 255
-0.768788 -0.487677 1.587 255 255 255
-0.0784344 -0.235378 1.959 255 255 255
0.2816 0.383828 1.758 255 255 255
-0.682989 0.162329 2.071 255 255 255
-0.412467 0.0566048 0.866 255 255 255
-0.718372 -0.313972 2.649 255 255 255
0.288286 -0.280357 1.876 255 255 255
0.220488 -0.228613 2.071 0 0 0
-0.453188 0.528499 1.381 255 255 255
0.50088 -0.234492 1.324 255 255 255
-0.717164 -0.530107 2.509 255 255 255
0.190108 0.253278 1.966 255 255 255
-0.548734 -0.470991 2.684 255 255 255
-0.668359 -0.0656177 2.261 0 0 0
0.281378 0.0763027 2.024 255 255 255
0.562664 -0.12795 1.11 255 255 255
-0.895544 -0.420922 2.54 255 255 255
-0.371186 0.28654 0.782 255 255 255
0.408777 -0.609599 1.637 255 255 255
-0.907117 -0.528591 2.561 255 255 255
0.112898 0.252377 1.959 255 255 255
0.530706 0.267319 1.302 255 255 255
-0.350876 0.360905 1.744 255 255 255
-0.204452 0.319316 1.831 255 255 255
-0.558081 -0.0728984 1.286 255 255 255
0.219111 -0.366685 1.997 0 0 0
-0.542929 0.16514 2.064 255 255 255
0.0767252 0.43868 1.603 255 255 255
-0.214534 -0.123385 2.459 255 255 255
0.332163 0.385589 1.753 255 255 255
-0.563678 -0.647163 2.672 255 255 255
-0.184224 0.244647 1.899 0 0 0
-0.115228 -0.602896 2.107 255 255 255
-0.522964 -0.0397209 2.253 255 255 255
-0.373235 0.268622 0.743 255 255 255
-0.448456 0.421388 1.587 255 255 255
-0.507681 0.062129 1.225 255 255 255
0.251618 0.215025 1.997 0 0 0
0.0508674 0.0346158 1.905 255 255 255
0.314915 -0.313105 1.853 255 255 255
-0.0269087 0.0599777 1.923 255 255 255
-0.456086 -0.0321554 0.905 255 255 255
-0.254771 0.154815 2.017 0 0 0
-0.749617 -0.432226 1.502 255 255 255
-0.394614 0.21894 0.84 255 255 255
-0.816378 -0.274738 2.604 0 0 0
-0.608768 -0.0737834 2.286 0 0 0
-0.835576 -0.832363 2.392 255 255 255
0.597602 -0.379138 1.247 255 255 255
-0.366443 0.028877 2.173 255 255 255
-0.170054 0.379211 1.724 255 255 255
0.251687 0.383351 1.769 255 255 255
0.513169 -0.0768986 1.249 255 255 255
-0.850288 -0.25355 2.604 0 0 0
-0.609124 -0.16426 1.425 0 0 0
0.420963 -0.493436 1.466 255 255 255
0.338505 0.46331 1.607 255 255 255
0.498793 0.173898 1.403 255 255 255
0.545184 0.0362138 1.225 255 255 255
-0.587009 0.486337 1.422 0 0 0
0.529534 0.332312 1.342 255 255 255
-0.424869 0.0219408 0.889 0 0 0
-0.701483 -0.0361826 2.261 0 0 0
-0.770015 -0.629286 1.668 255 255 255
0.0455095 -0.283753 1.941 255 255 255
-0.359486 0.141872 0.691 255 255 255
-0.706016 0.0783836 2.173 255 255 255
0.19153 -0.649433 1.799 255 255 255
-0.311847 0.170123 2.004 255 255 255
0.139281 -0.586978 1.805 255 255 255
0.441895 -0.57668 1.612 255 255 255
0.468531 0.0818982 1.473 255 255 255
-0.462943 -0.534654 2.719 255 255 255
-0.610571 -0.374323 2.649 255 255 255
-0.064368 -0.672903 1.831 0 0 0
-0.719815 -0.620087 1.71 255 255 255
0.435197 -0.370374 1.442 255 255 255
-0.474006 -0.0637642 1.009 255 255 255
-0.485071 -0.874286 2.411 255 255 255
0.0179179 -0.0756912 2.037 255 255 255
-0.46794 0.422902 1.583 255 255 255
0.486842 0.365882 1.449 255 255 255
-0.403162 0.194098 0.889 255 255 255
0.415372 0.0939666 1.642 255 255 255
-0.294132 -0.675747 2.489 0 0 0
-0.373408 -0.585552 2.649 0 0 0
-0.14155 -0.597009 2.253 255 255 255
0.433792 -0.123915 1.528 255 255 255
-0.718372 -0.417431 2.649 255 255 255
0.577297 -0.311752 1.128 255 255 255
-0.207118 -0.053444 2.374 255 255 255
-0.432548 0.0834744 0.947 255 255 255
-0.198778 0.416017 1.637 255 255 255
-0.435739 0.318444 1.826 255 255 255
0.376578 -0.115459 1.696 255 255 255
-0.253526 -0.425768 2.449 0 0 0
0.535213 -0.0694405 1.225 255 255 255
0.425492 -0.253191 1.543 255 255 255
-0.194182 -0.706703 2.312 255 255 255
0.036553 0.479916 1.559 255 255 255
-0.0306854 -0.529307 1.779 255 255 255
0.541135 -0.1543 1.173 255 255 255
0.203387 0.538452 1.463 255 255 255
-0.420039 0.431718 1.587 255 255 255
0.0594439 -0.397633 1.882 255 255 255
-0.70573 -0.638174 2.469 255 255 255
-0.287085 0.361327 1.719 255 255 255
-0.666557 -0.341518 1.449 255 255 255
0.549439 -0.385219 1.267 255 255 255
0.46797 0.436786 1.559 255 255 255
-0.0709409 0.484022 1.524 255 255 255
0.0187007 -0.545448 1.794 255 255 255
0.55177 0.368235 1.322 255 255 255
0.197563 0.141361 0.391 255 255 255
-0.432595 -0.0113842 0.893 255 255 255
-0.428421 0.421972 1.599 255 255 255
-0.541719 -0.0399902 1.239 255 255 255
0.189754 -0.567985 1.81 255 255 255
-0.641714 -0.210945 2.55 255 255 255
0.443442 0.299539 1.571 255 255 255
-0.682267 0.315979 1.686 255 255 255
0.314157 -0.416654 1.831 255 255 255
0.544579 -0.188456 1.16 255 255 255
0.263714 0.227684 1.966 255 255 255
-0.525512 0.5221 1.4 255 255 255
0.37489 -0.35699 1.664 255 255 255
-0.690284 0.310531 1.748 255 255 255
-0.321297 -0.146795 2.449 255 255 255
0.393142 0.168815 1.696 255 255 255
0.0828838 0.515808 1.48 255 255 255
-0.17104 0.370123 1.734 255 255 255
0.0687645 -0.537043 1.805 255 255 255
0.346749 0.369183 1.784 255 255 255
0.54959 -0.0340784 1.244 255 255 255
-0.0993655 0.410323 1.668 255 255 255
0.542464 -0.25794 1.102 255 255 255
0.566083 0.295687 1.21 255 255 255
0.463882 -0.298129 1.422 255 255 255
0.387755 0.498952 1.563 255 255 255
-0.576331 0.342891 1.739 255 255 255
0.22927 0.314726 1.893 255 255 255
0.464014 0.187532 1.513 255 255 255
-0.358039 0.439466 1.587 255 255 255
0.0129748 -0.482567 1.81 255 255 255
0.0267163 -0.279151 1.953 255 255 255
0.524911 -0.161802 1.215 255 255 255
-0.392338 -0.1805 2.42 255 255 255
-0.789426 0.160034 2.085 255 255 255
-0.153301 0.406631 1.664 255 255 255
-0.685087 -0.545448 1.794 255 255 255
-0.278385 -0.43985 2.53 0 0 0
0.316986 0.172678 1.959 255 255 255
0.09118 -0.383893 1.905 255 255 255
0.237577 -0.282179 2.044 255 255 255
0.49016 -0.192267 1.33 255 255 255
-0.0245794 0.540699 1.425 255 255 255
0.519295 0.283249 1.327 255 255 255
-0.0416511 -0.610005 1.753 255 255 255
0.280063 -0.578027 1.842 255 255 255
-0.0559309 0.453519 1.591 255 255 255
-0.450328 -0.221208 2.479 255 255 255
-0.551906 -0.177012 1.147 255 255 255
-0.377749 0.181116 0.772 255 255 255
-0.00158504 0.430945 1.633 255 255 255
0.30363 0.00703951 1.997 255 255 255
0.224897 0.461004 1.599 255 255 255
0.33614 -0.381365 1.805 255 255 255
-0.245128 0.179694 1.966 255 255 255
0.686128 -0.668977 1.87 255 255 255
-0.469803 0.400161 1.616 255 255 255
-0.249592 -0.505478 2.411 255 255 255
0.012258 0.398393 1.71 255 255 255
0.504028 -0.316522 1.18 0 0 0
-0.44375 0.0494496 0.975 255 255 255
-0.571554 -0.0709035 1.327 255 255 255
0.54133 0.0749366 1.239 255 255 255
-0.441521 -0.0178518 0.927 255 255 255
0.00409925 -0.525012 1.794 255 255 255
-0.120291 -0.569482 2.136 0 0 0
0.516796 -0.037699 1.299 255 255 255
0.149819 -0.531405 1.826 255 255 255
-0.329168 -0.183055 2.509 255 255 255
-0.666882 -0.323572 1.345 255 255 255
0.529518 -0.216977 1.203 255 255 255
-0.0173539 0.23612 1.905 255 255 255
-0.506814 -0.118984 1.094 255 255 255
0.485844 -0.172163 1.342 255 255 255
-0.0843662 0.531137 1.456 255 255 255
0.433867 0.515824 1.494 255 255 255
-0.650021 -0.294457 1.294 255 255 255
0.191264 0.155373 0.406 0 0 0
0.399604 0.340734 1.7 255 255 255
0.532098 -0.0305365 1.265 255 255 255
0.527959 -0.632682 1.677 0 0 0
-0.429081 -0.00260825 0.874 255 255 255
-0.0119934 0.446505 1.603 255 255 255
0.608408 -0.357451 1.208 255 255 255
-0.193063 0.374683 1.729 255 255 255
-0.56853 -0.437836 2.695 255 255 255
-0.594404 0.0767604 2.128 255 255 255
-0.433211 0.339198 1.779 255 255 255
-0.262947 -0.156383 2.54 255 255 255
-0.703453 0.223685 1.959 255 255 255
0.465692 -0.373974 1.322 255 255 255
-0.0527613 0.0640915 1.953 255 255 255
-0.276085 0.243874 1.893 255 255 255
0.229527 0.465042 1.595 255 255 255
0.290713 0.392124 1.744 255 255 255
-0.808235 -0.0593411 2.303 255 255 255
0.413868 0.23663 1.595 255 255 255
0.383527 -0.0708437 1.753 255 255 255
0.436096 -0.54389 1.563 255 255 255
0.0597507 -0.552823 1.799 255 255 255
0.533581 -0.246989 1.169 255 255 255
0.296016 -0.285194 1.848 255 255 255
-0.724272 -0.324037 1.734 255 255 255
-0.599447 -0.484384 2.638 255 255 255
-0.920944 -0.462533 2.519 255 255 255
-0.465497 0.353199 1.748 255 255 255
-0.718373 -0.599862 1.7 255 255 255
-0.350258 0.198814 0.667 255 255 255
-0.431626 -0.00700884 0.891 255 255 255
0.428266 0.105889 1.62 255 255 255
-0.674111 0.32199 1.633 0 0 0
0.436177 0.348426 1.62 255 255 255
-0.67837 -0.345585 1.575 255 255 255
-0.482527 -0.492417 2.755 255 255 255
0.0307679 -0.107397 2.01 255 255 255
-0.659774 0.336099 1.637 255 255 255
0.0596018 -0.386407 1.887 255 255 255
-0.652176 -0.923934 2.449 255 255 255
0.487696 -0.336464 1.262 0 0 0
0.567405 0.13428 1.176 255 255 255
-0.567501 0.471755 1.265 255 255 255
-0.467376 -0.256591 2.55 0 0 0
-0.0474933 -0.631771 1.758 255 255 255
0.530706 0.146548 1.302 255 255 255
-0.36813 -0.899336 2.469 255 255 255
0.51902 -0.0375539 1.294 255 255 255
0.00101927 0.479977 1.551 255 255 255
-0.187301 -0.678945 2.32 255 255 255
-0.352028 0.539735 1.381 255 255 255
-0.0832065 0.0850341 1.997 255 255 255
0.305745 0.425726 1.686 255 255 255
0.00401699 -0.674684 1.758 255 255 255
0.446273 0.392124 1.563 255 255 255
-0.503017 -0.0895972 0.952 255 255 255
-0.298592 -0.755638 2.459 255 255 255
0.152885 -0.200369 2.024 255 255 255
-0.3982 0.0697808 0.822 255 255 255
0.35266 -0.594187 1.624 255 255 255
-0.458777 -0.0395622 2.244 255 255 255
-0.215235 0.455712 1.563 255 255 255
0.553564 0.315802 1.267 255 255 255
0.142126 -0.428201 1.923 255 255 255
-0.524433 -0.111922 1.169 255 255 255
0.3958 -0.464204 1.535 255 255 255
-0.737138 -0.551683 1.705 255 255 255
0.580946 0.376639 1.192 255 255 255
-0.552204 0.439323 1.559 255 255 255
0.556793 0.265105 1.242 255 255 255
-0.78702 -0.75833 2.253 255 255 255
0.473259 0.402585 1.535 255 255 255
-0.772877 -0.445503 1.815 0 0 0
-0.212004 -0.643912 2.43 255 255 255
-0.338681 -0.191983 2.519 255 255 255
-0.811699 -0.863205 2.402 255 255 255
0.261824 0.0851016 2.078 0 0 0
0.194488 0.245168 1.978 255 255 255
0.188979 0.152118 0.417 0 0 0
0.102382 -0.356402 1.941 255 255 255
0.119464 -0.400651 1.911 255 255 255
0.0350728 -0.0297718 2.071 0 0 0
0.500926 0.197571 1.409 255 255 255
-0.922673 -0.222941 2.593 255 255 255
0.0651528 0.0887557 1.87 255 255 255
-0.879939 -0.351854 2.519 255 255 255
-0.59094 0.0940752 2.128 255 255 255
-0.520734 0.434681 1.579 255 255 255
-0.395271 0.0582121 0.792 255 255 255
0.483368 -0.61295 1.646 0 0 0
0.589053 -0.364475 1.225 255 255 255
0.254213 -0.189044 2.044 255 255 255
0.262926 0.343332 1.848 255 255 255
0.400768 0.435106 1.659 255 255 255
0.381221 -0.00226338 1.668 255 255 255
0.567787 0.00979419 1.165 255 255 255
0.250855 -0.285017 2.017 255 255 255
