ply
format ascii 1.0
comment Created by Open3D
element vertex 1317
property double x
property double y
property double z
property uchar red
property uchar green
property uchar blue
end_header
0.198088 0.133652 1.779 255 255 255
-0.331006 0.0679827 0.672 255 255 255
-0.488991 -0.141321 1.528 255 255 255
0.127178 -0.355699 1.887 255 255 255
0.45149 0.235346 2.004 255 255 255
0.0790915 -0.336423 1.991 255 255 255
0.398808 0.269644 1.923 0 0 0
-0.130819 0.0792133 2.196 0 0 0
-0.49613 -0.193757 1.094 255 255 255
0.107257 -0.582713 1.81 0 0 0
0.635209 0.397764 1.299 255 255 255
0.0923327 -0.200946 1.997 255 255 255
-0.243776 -0.619721 2.743 255 255 255
-0.242011 0.224789 1.941 255 255 255
-0.329022 0.0341745 0.869 255 255 255
-0.449667 -0.126749 0.988 255 255 255
-0.45589 -0.13616 2.402 255 255 255
-0.32533 0.115063 0.882 255 255 255
0.621489 -0.114869 1.242 255 255 255
-0.292577 0.146116 0.606 255 255 255
-0.325609 0.528557 1.393 255 255 255
0.257571 -0.049993 2.071 255 255 255
0.437733 -0.338503 1.929 255 255 255
0.551996 -0.0301766 1.567 255 255 255
-0.626486 -0.588431 1.691 255 255 255
0.425354 0.0940088 2.051 0 0 0
-0.23576 0.490637 1.484 255 255 255
-0.689961 -0.904549 2.347 0 0 0
-0.583513 -0.683909 1.805 255 255 255
0.622232 -0.0733518 1.294 255 255 255
0.589165 -0.355953 1.319 0 0 0
-0.720022 -0.524022 2.519 255 255 255
0.576035 -0.114594 1.442 255 255 255
0.25084 -0.338347 1.893 255 255 255
0.121691 -0.619223 1.763 255 255 255
-0.54278 0.136587 2.143 255 255 255
0.312346 0.45808 1.607 255 255 255
-0.578549 -0.360831 1.396 255 255 255
0.0280278 0.420591 1.655 255 255 255
-0.600483 -0.595377 1.719 255 255 255
0.0485576 0.0949255 2.071 255 255 255
-0.446743 0.501589 1.375 0 0 0
0.607857 0.0267475 1.351 255 255 255
0.115988 -0.334292 1.905 255 255 255
0.412959 -0.0474332 2.107 255 255 255
-0.41966 -0.10753 2.374 255 255 255
0.51036 0.416998 1.673 255 255 255
-0.845427 -0.561088 1.62 255 255 255
-0.40234 0.0539341 1.22 255 255 255
-0.309224 0.273391 0.831 255 255 255
-0.548701 0.229357 1.953 255 255 255
-0.276999 0.478202 1.498 255 255 255
-0.303095 0.104605 0.746 255 255 255
-0.4989 -0.867114 2.402 255 255 255
-0.301822 -0.400997 2.743 255 255 255
0.00974035 0.372385 1.758 255 255 255
-0.230381 -0.383142 2.743 255 255 255
0.604682 -0.0716969 1.384 255 255 255
-0.296781 0.197894 0.587 255 255 255
-0.463427 -0.059124 1.463 0 0 0
0.343962 -0.541799 1.831 255 255 255
0.513396 0.120631 1.758 255 255 255
0.199708 -0.274611 1.966 255 255 255
0.374385 -0.305512 1.959 0 0 0
0.62078 -0.0828435 1.278 255 255 255
0.423772 0.472591 1.603 255 255 255
0.0311622 -0.481301 2.278 255 255 255
-0.29487 0.183565 0.587 255 255 255
0.20265 0.419971 1.696 255 255 255
-0.533448 -0.368913 1.513 255 255 255
-0.30465 0.0950761 0.738 0 0 0
-0.435138 0.426108 1.595 0 0 0
-0.741154 -0.261153 2.638 0 0 0
-0.304426 0.14249 0.587 255 255 255
0.154164 -0.31456 1.917 255 255 255
0.557098 0.492578 1.567 255 255 255
0.543669 -0.0904065 1.642 255 255 255
-0.358021 0.164732 1.075 255 255 255
-0.5565 -0.760535 2.449 255 255 255
0.460872 -0.27946 1.87 255 255 255
-0.210862 -0.36569 2.78 255 255 255
-0.349832 0.484686 1.466 255 255 255
-0.590357 -0.321803 1.923 255 255 255
-0.0238218 -0.318453 2.615 255 255 255
-0.0986227 0.0228583 2.278 0 0 0
0.624025 0.0590821 1.289 255 255 255
0.917232 -0.664082 1.882 0 0 0
-0.532911 -0.314178 1.333 255 255 255
0.291027 0.400006 1.729 255 255 255
0.239301 0.36628 1.784 255 255 255
0.99031 -0.698528 1.935 255 255 255
0.171264 -0.3456 1.899 255 255 255
-0.0208414 0.262692 1.941 255 255 255
-0.696665 -0.325101 2.383 0 0 0
-0.615984 -0.572197 1.7 0 0 0
-0.302349 0.278207 0.802 255 255 255
0.242625 -0.464329 1.831 255 255 255
-0.0859477 0.345958 1.784 255 255 255
-0.621595 -0.420199 1.494 255 255 255
0.556429 -0.428216 1.416 0 0 0
-0.312404 0.412947 1.646 255 255 255
0.228863 -0.217195 1.997 255 255 255
0.360256 -0.668268 1.779 255 255 255
0.622958 -0.0728335 1.249 255 255 255
-0.43248 0.439824 1.286 0 0 0
0.0783367 -0.294703 1.972 0 0 0
0.286023 0.519617 1.484 255 255 255
0.0219634 0.089718 2.107 0 0 0
0.622891 0.225143 1.291 255 255 255
0.420656 -0.161949 1.997 255 255 255
-0.339018 -0.00119954 0.884 255 255 255
0.154228 0.485034 1.543 255 255 255
0.431967 0.45764 1.624 255 255 255
-0.0854565 0.154087 2.051 0 0 0
0.108029 -0.407564 1.929 255 255 255
-0.510464 -0.099425 2.365 255 255 255
-0.603741 -0.38994 2.638 255 255 255
-0.540422 -0.0219492 2.312 255 255 255
-0.612245 -0.582204 1.705 255 255 255
-0.665022 -0.591183 1.691 255 255 255
-0.0307771 -0.619041 2.489 0 0 0
-0.561376 0.148991 2.121 255 255 255
0.644093 0.415832 1.283 255 255 255
-0.198104 0.0753985 2.189 255 255 255
0.494707 0.0121628 1.794 255 255 255
-0.253862 0.230392 1.935 0 0 0
-0.356473 -0.0878791 2.365 255 255 255
0.452841 0.0496074 2.01 255 255 255
0.0361736 0.0249094 2.136 255 255 255
-0.3891 0.530824 1.393 255 255 255
0.600223 0.316072 1.416 255 255 255
0.172794 0.101576 1.882 255 255 255
-0.206462 0.533491 1.4 255 255 255
-0.224379 0.540908 1.384 255 255 255
0.619958 -0.100298 1.316 255 255 255
0.130947 -0.106382 1.991 255 255 255
-0.472495 0.473733 1.484 255 255 255
0.511987 -0.0368201 1.763 255 255 255
-0.0596136 -0.713841 2.509 0 0 0
0.249816 0.540615 1.456 255 255 255
-0.059376 -0.723196 2.499 0 0 0
0.0653377 -0.659562 2.181 255 255 255
-0.333039 0.0439358 0.895 255 255 255
0.585021 -0.326487 1.339 255 255 255
0.240531 0.55617 1.429 255 255 255
0.41291 -0.281343 1.991 255 255 255
-0.357757 -0.207553 2.509 0 0 0
-0.130026 -0.0614726 2.244 255 255 255
-0.428146 0.0325325 2.181 255 255 255
-0.436973 -0.162894 1.102 255 255 255
0.538733 0.566312 1.449 255 255 255
-0.450323 0.492287 1.393 255 255 255
0.239644 0.155436 1.831 255 255 255
0.957058 -0.642644 1.882 0 0 0
0.602509 -0.337793 1.208 255 255 255
0.266344 -0.127023 2.01 255 255 255
0.241775 0.417274 1.719 255 255 255
-0.230425 0.41594 1.616 255 255 255
-0.291425 0.189064 0.695 255 255 255
0.078528 0.294092 1.899 255 255 255
0.490692 -0.189519 1.769 255 255 255
0.069692 0.277291 1.911 255 255 255
-0.298593 0.1052 2.143 255 255 255
-0.373107 -0.64159 2.53 255 255 255
-0.538368 -0.558975 1.763 255 255 255
0.599062 -0.304986 1.294 255 255 255
0.629298 0.339283 1.27 255 255 255
0.231479 0.4222 1.705 255 255 255
-0.293866 0.165804 0.585 0 0 0
0.583334 -0.388563 1.278 255 255 255
-0.369621 -0.72951 2.479 255 255 255
-0.549276 -0.279703 1.247 255 255 255
-0.562354 0.030485 2.294 0 0 0
0.0329243 0.493991 1.509 255 255 255
0.141302 0.483777 1.539 255 255 255
0.5561 0.0606804 1.543 255 255 255
-0.146096 0.120577 2.107 0 0 0
-0.525836 -0.656426 2.572 255 255 255
0.0585073 0.270673 1.953 255 255 255
0.50476 -0.220857 1.7 255 255 255
-0.320727 0.0418236 0.799 255 255 255
-0.405519 -0.0665754 2.294 255 255 255
-0.710408 -0.41034 2.604 0 0 0
-0.481146 -0.144517 2.411 255 255 255
-0.372343 -0.0290892 0.858 255 255 255
0.635643 0.275987 1.313 255 255 255
0.547867 -0.443119 1.442 0 0 0
-0.421172 0.331388 1.753 255 255 255
-0.71536 -0.680643 2.42 255 255 255
-0.268974 -0.769976 2.519 255 255 255
0.448977 0.222647 2.037 255 255 255
0.51574 -0.0862021 1.664 255 255 255
0.641553 0.279386 1.299 255 255 255
-0.359551 0.00149919 0.79 255 255 255
-0.528486 -0.35404 1.452 255 255 255
0.495259 -0.409421 1.668 255 255 255
-0.283823 0.179554 2.037 255 255 255
-0.110875 -0.186849 2.561 255 255 255
0.0798462 0.0888586 2.01 255 255 255
0.160229 0.502479 1.505 255 255 255
-0.656565 -0.447993 2.626 255 255 255
-0.427062 0.517474 1.406 255 255 255
0.238958 0.493867 1.555 255 255 255
-0.509025 -0.577393 2.593 255 255 255
-0.0456811 -0.0544796 2.42 255 255 255
-0.457301 -0.107279 0.944 255 255 255
-0.481136 0.0827869 2.196 255 255 255
-0.406368 -0.0279704 0.825 255 255 255
-0.407883 -0.0651527 0.893 255 255 255
-0.670782 -0.507715 2.582 255 255 255
-0.490253 -0.632997 1.899 255 255 255
0.50921 -0.137799 1.734 255 255 255
-0.0069733 0.419321 1.65 255 255 255
0.0961889 0.374715 1.769 255 255 255
-0.509224 0.216963 1.985 255 255 255
0.256145 0.476999 1.583 255 255 255
-0.515622 0.380067 1.587 0 0 0
0.620682 -0.0722922 1.313 255 255 255
0.0931903 -0.462061 1.947 255 255 255
0.491548 0.0877115 1.848 255 255 255
-0.287973 0.143808 0.635 0 0 0
0.542996 -0.0233459 1.624 255 255 255
-0.693453 -0.431527 2.604 255 255 255
0.150582 0.544103 1.459 255 255 255
0.607303 0.317054 1.39 255 255 255
0.304057 0.471643 1.591 255 255 255
0.286566 -0.607976 1.789 255 255 255
-0.626363 -0.659546 2.489 255 255 255
-0.315462 0.0650519 0.738 255 255 255
0.585901 0.286712 1.491 255 255 255
-0.301021 -0.192969 2.479 255 255 255
0.619328 -0.373104 1.254 255 255 255
0.377672 0.337386 1.865 255 255 255
0.465732 0.139505 1.941 255 255 255
0.115988 0.136918 1.905 255 255 255
-0.448985 -0.175545 1.114 255 255 255
-0.626983 -0.853436 2.312 0 0 0
0.00129594 0.209124 1.972 255 255 255
-0.162911 -0.695543 2.593 255 255 255
0.389415 0.462129 1.612 255 255 255
0.54822 -0.416743 1.535 255 255 255
0.370819 0.128281 2.121 255 255 255
-0.136615 -0.46349 2.743 0 0 0
0.611457 0.265752 1.359 255 255 255
-0.170134 -0.379262 2.78 255 255 255
0.047761 -0.369879 2.189 255 255 255
-0.437763 0.407427 1.624 255 255 255
-0.0105195 0.542642 1.406 255 255 255
-0.0230096 0.510971 1.473 255 255 255
0.582585 -0.366982 1.254 255 255 255
-0.103168 0.543253 1.39 255 255 255
0.456894 -0.605134 1.739 255 255 255
-0.319893 -0.325251 2.707 0 0 0
-0.335019 0.0395204 0.755 255 255 255
0.0379471 -0.28172 2.479 255 255 255
-0.53026 -0.55402 1.784 0 0 0
-0.480667 -0.252786 1.275 255 255 255
-0.320016 0.259158 0.947 255 255 255
-0.190453 0.101713 2.143 0 0 0
-0.256992 0.383355 1.705 255 255 255
-0.194494 -0.35072 2.805 255 255 255
0.503572 -0.209298 1.696 255 255 255
-0.312081 0.0678687 0.756 255 255 255
0.625398 0.304037 1.305 255 255 255
0.565488 0.205391 1.555 255 255 255
0.623969 -0.127459 1.227 255 255 255
-0.821693 -0.561088 1.62 255 255 255
-0.499915 0.367783 1.71 255 255 255
0.42876 -0.51848 1.876 255 255 255
-0.325005 0.182055 0.901 255 255 255
-0.294064 0.218897 0.637 255 255 255
0.559649 0.342127 1.567 255 255 255
0.0560365 0.180791 1.978 0 0 0
-0.0105958 0.342163 1.81 255 255 255
-0.144999 0.507538 1.47 255 255 255
-0.465825 -0.138329 1.002 255 255 255
-0.400379 0.430217 1.591 255 255 255
0.213994 -0.0975844 2.01 255 255 255
0.575705 0.257704 1.535 255 255 255
-0.315466 0.424084 1.607 255 255 255
0.371018 -0.613799 1.789 255 255 255
-0.567143 -0.76496 2.329 255 255 255
-0.669662 -0.406358 2.253 0 0 0
-0.422208 -0.0571471 0.86 255 255 255
-0.530023 -0.652241 2.572 255 255 255
-0.300289 0.404894 1.668 255 255 255
0.533283 -0.489439 1.528 0 0 0
-0.109785 0.473704 1.547 255 255 255
-0.370327 -0.0245812 0.847 255 255 255
-0.533317 0.287084 1.71 255 255 255
-0.296204 0.103096 0.68 255 255 255
-0.31619 0.0800281 0.804 255 255 255
-0.621192 -0.866356 2.347 255 255 255
0.600278 0.194292 1.339 255 255 255
-0.32431 0.0770141 0.665 255 255 255
-0.401521 -0.0122742 0.767 255 255 255
0.60196 -0.618652 1.612 255 255 255
-0.309858 0.120674 0.607 255 255 255
0.600278 -0.178315 1.339 255 255 255
-0.509012 -0.184587 2.53 255 255 255
0.42823 -0.211267 1.972 255 255 255
0.534141 -0.282629 1.567 255 255 255
-0.416941 -0.0715218 0.9 255 255 255
-0.330875 0.0863461 0.638 255 255 255
-0.26982 0.45844 1.555 255 255 255
0.578382 0.373501 1.442 0 0 0
0.132645 0.40049 1.719 255 255 255
-0.535314 -0.587184 1.753 0 0 0
0.524831 -0.332505 1.65 255 255 255
-0.286276 0.17111 0.629 255 255 255
0.563124 -0.210366 1.439 255 255 255
0.543669 0.13672 1.642 255 255 255
-0.0762723 0.26712 1.905 255 255 255
0.156389 -0.482562 1.799 255 255 255
0.116353 0.177777 1.911 255 255 255
-0.501226 -0.221902 1.535 255 255 255
0.276361 0.522032 1.484 255 255 255
-0.301534 0.199809 0.576 0 0 0
-0.41544 -0.896714 2.44 255 255 255
-0.303065 0.119382 0.755 255 255 255
-0.332697 0.0678816 0.671 255 255 255
0.00651087 0.420171 1.664 255 255 255
0.16455 0.0413301 1.929 255 255 255
0.446091 -0.319795 1.911 255 255 255
0.474118 0.227026 2.017 255 255 255
0.0669907 0.438059 1.62 255 255 255
0.430537 -0.478396 1.911 255 255 255
0.344147 -0.50172 1.848 255 255 255
-0.709486 -0.524257 2.54 255 255 255
-0.318922 0.0484457 0.801 255 255 255
-0.0512402 -0.556461 2.499 0 0 0
-0.469958 -0.238039 1.252 255 255 255
-0.0477574 0.170632 2.01 255 255 255
0.321986 0.405633 1.729 255 255 255
-0.440708 -0.168595 1.116 255 255 255
0.422973 0.530147 1.473 255 255 255
-0.444898 0.215542 1.972 255 255 255
0.43652 0.33829 1.87 255 255 255
0.623529 0.324388 1.31 255 255 255
0.504927 0.163659 1.729 255 255 255
-0.578709 0.228652 1.947 255 255 255
0.548878 -0.0826276 1.595 255 255 255
-0.261391 0.287477 1.876 255 255 255
-0.541886 0.161108 2.099 255 255 255
-0.56394 -0.380031 1.452 255 255 255
-0.599781 -0.836401 2.338 255 255 255
0.57517 0.385592 1.547 255 255 255
0.538258 0.510158 1.528 255 255 255
0.38254 0.550092 1.456 255 255 255
0.112531 0.281731 1.899 255 255 255
0.569591 -0.453966 1.403 255 255 255
0.0149963 0.0992924 2.092 0 0 0
-0.340583 0.0564531 0.678 255 255 255
0.441914 -0.63985 1.805 255 255 255
-0.396937 -0.10235 1.147 255 255 255
0.371801 -0.129724 2.107 0 0 0
-0.369127 -0.00753791 0.794 255 255 255
-0.0360842 0.106101 2.092 255 255 255
-0.372151 0.0752055 1.096 255 255 255
-0.57286 -0.308481 1.291 255 255 255
0.47629 0.229884 1.985 255 255 255
0.593696 -0.017924 1.406 255 255 255
0.143477 -0.115752 1.985 255 255 255
-0.527288 -0.559575 1.774 0 0 0
-0.405575 0.445262 1.571 255 255 255
-0.276826 0.485807 1.484 255 255 255
0.137508 0.454259 1.612 255 255 255
-0.203661 0.387764 1.7 255 255 255
0.139751 -0.192597 1.978 255 255 255
-0.287414 0.137249 0.643 0 0 0
-0.584717 -0.431182 1.551 255 255 255
-0.176857 0.471254 1.539 255 255 255
0.0861321 -0.159255 2.004 255 255 255
-0.595474 -0.467118 1.842 255 255 255
0.241596 0.0744446 1.893 255 255 255
-0.304733 0.108827 0.642 255 255 255
-0.308285 0.400081 1.682 255 255 255
0.0103153 0.536644 1.439 255 255 255
-0.238398 0.466618 1.532 255 255 255
0.542016 0.368918 1.629 255 255 255
-0.295293 0.443511 1.583 255 255 255
-0.295921 0.223346 0.615 255 255 255
0.767736 -0.650991 1.682 255 255 255
0.553934 -0.0828722 1.551 255 255 255
0.473499 -0.252114 1.848 255 255 255
0.417877 0.306772 1.882 255 255 255
0.339333 0.495121 1.551 255 255 255
0.578076 0.104862 1.459 255 255 255
0.167168 0.0443309 1.923 255 255 255
0.617132 -0.0529408 1.31 255 255 255
-0.18673 -0.0526483 2.181 255 255 255
0.584116 -0.1566 1.378 255 255 255
-0.369928 0.134552 1.1 255 255 255
0.0590765 0.263679 1.972 0 0 0
-0.624326 -0.58395 2.53 255 255 255
-0.513717 -0.305229 1.351 255 255 255
0.507742 -0.126147 1.729 255 255 255
-0.0669728 -0.19676 2.638 255 255 255
-0.0987451 0.479083 1.532 255 255 255
-0.103071 0.186428 2.004 0 0 0
0.596962 0.411168 1.387 0 0 0
0.617287 -0.126182 1.254 255 255 255
0.145917 0.493991 1.509 255 255 255
-0.347919 -0.900685 2.44 255 255 255
-0.157538 0.387262 1.71 255 255 255
0.605658 0.402695 1.351 255 255 255
-0.356726 -0.0226233 0.878 255 255 255
0.00166265 -0.168119 2.53 255 255 255
-0.29008 -0.866117 2.489 255 255 255
0.263643 0.401163 1.734 255 255 255
-0.526678 0.0338452 2.269 0 0 0
0.559042 0.284512 1.587 255 255 255
0.586659 -0.224848 1.384 255 255 255
0.590474 -0.126568 1.393 255 255 255
0.61802 -0.00175588 1.294 255 255 255
0.282844 0.38449 1.748 255 255 255
-0.364333 -0.46349 2.743 255 255 255
-0.163736 0.417658 1.633 255 255 255
0.497757 0.00919183 1.784 255 255 255
-0.360358 0.488401 1.47 255 255 255
-0.316925 0.535153 1.375 255 255 255
-0.295875 0.205278 0.589 255 255 255
0.331039 0.33327 1.876 255 255 255
-0.33562 0.043571 0.918 255 255 255
0.384769 -0.376514 1.947 255 255 255
-0.679853 -0.026301 2.365 255 255 255
0.109094 0.290082 1.893 255 255 255
0.51249 0.4752 1.603 255 255 255
0.503467 -0.232392 1.724 255 255 255
0.0171468 -0.104453 2.392 255 255 255
0.339308 0.252377 1.959 255 255 255
-0.57319 -0.882749 2.402 255 255 255
-0.409919 -0.144039 1.152 255 255 255
-0.237881 0.172623 0.453 0 0 0
-0.330262 0.195526 1.997 0 0 0
0.377895 -0.609675 1.794 255 255 255
0.482371 -0.395719 1.739 255 255 255
-0.467173 -0.105347 0.927 255 255 255
-0.320276 0.0220354 2.196 255 255 255
0.616329 -0.184657 1.322 255 255 255
0.185832 -0.0620333 2.024 255 255 255
0.610115 0.258818 1.381 255 255 255
-0.405013 -0.6888 2.449 255 255 255
0.616654 0.462055 1.351 255 255 255
0.0611583 0.417995 1.677 255 255 255
0.470835 -0.385802 1.826 255 255 255
-0.347846 0.0416113 0.688 255 255 255
0.403892 -0.138083 2.078 255 255 255
-0.314942 0.0700057 0.715 255 255 255
-0.4876 -0.268114 1.299 255 255 255
-0.351958 0.00282708 0.802 255 255 255
0.628055 -0.156933 1.239 255 255 255
0.431807 0.356236 1.837 255 255 255
0.543223 0.181108 1.682 255 255 255
0.233625 -0.136836 2.01 255 255 255
-0.131967 0.185777 1.997 0 0 0
0.539022 -0.250008 1.62 255 255 255
0.138818 0.354722 1.799 255 255 255
0.304213 0.0212126 2.114 0 0 0
-0.331052 0.0434924 0.76 255 255 255
0.638143 0.47393 1.305 0 0 0
0.542133 -0.277579 1.539 255 255 255
0.0342771 0.46827 1.571 255 255 255
-0.547788 -0.402865 1.686 0 0 0
0.557896 -0.211113 1.494 255 255 255
-0.477221 -0.144517 2.411 255 255 255
-0.293816 0.229836 0.619 255 255 255
0.208889 0.235578 1.876 255 255 255
0.518796 0.221458 1.719 255 255 255
0.575591 0.110963 1.477 255 255 255
0.382009 -0.536062 1.842 255 255 255
-0.619083 -0.899034 2.383 255 255 255
0.579631 0.426638 1.559 255 255 255
-0.603406 0.19201 2.064 255 255 255
-0.180292 0.232092 1.923 255 255 255
0.359335 0.555378 1.439 255 255 255
0.464507 0.388413 1.779 255 255 255
-0.0559309 0.45093 1.591 255 255 255
-0.292969 0.118864 0.688 0 0 0
0.0708778 -0.616535 2.244 255 255 255
0.359768 0.491321 1.563 255 255 255
0.356802 0.529184 1.477 255 255 255
0.546847 0.0275948 1.668 255 255 255
-0.61502 -0.529487 1.705 0 0 0
0.0890762 0.53131 1.463 255 255 255
-0.727363 -0.321351 2.604 255 255 255
0.300537 0.406085 1.719 255 255 255
0.605226 0.157002 1.375 255 255 255
0.186907 -0.271411 1.966 255 255 255
0.620633 0.460742 1.322 255 255 255
0.0307218 0.420591 1.655 255 255 255
-0.569495 -0.255055 1.826 255 255 255
-0.367778 -0.142285 2.44 255 255 255
0.111525 -0.591761 1.784 0 0 0
-0.335125 0.0244527 0.784 255 255 255
-0.678759 -0.671672 2.402 255 255 255
-0.170453 0.393297 1.7 255 255 255
0.32323 -0.548879 1.815 255 255 255
-0.473297 -0.87821 2.411 255 255 255
-0.171581 -0.439241 2.731 255 255 255
-0.399288 0.187463 2.051 0 0 0
0.573515 0.261915 1.516 255 255 255
0.112517 -0.676144 1.848 0 0 0
-0.115878 -0.00305719 2.253 255 255 255
-0.298104 0.122897 0.725 255 255 255
-0.72429 -0.374849 2.593 255 255 255
0.00816129 0.515765 1.473 255 255 255
-0.329168 -0.677094 2.509 255 255 255
-0.436043 0.338201 1.744 255 255 255
-0.48718 0.469263 1.47 0 0 0
-0.286489 0.483392 1.484 255 255 255
-0.456651 0.41068 1.616 255 255 255
0.0122221 0.400003 1.705 255 255 255
0.300119 -0.314111 1.953 255 255 255
-0.347364 0.219234 1.043 255 255 255
0.0349753 0.451723 1.603 255 255 255
-0.416213 0.025619 1.294 255 255 255
-0.460747 -0.0778109 0.872 255 255 255
-0.394294 -0.106158 1.055 255 255 255
-0.362895 -0.0146331 0.83 255 255 255
0.0548178 -0.581486 2.338 255 255 255
0.503469 -0.210408 1.705 255 255 255
-0.356109 -0.0371177 0.957 255 255 255
-0.424363 -0.109174 0.989 255 255 255
0.447056 0.360045 1.826 255 255 255
0.595918 0.464051 1.439 255 255 255
-0.628099 -0.499047 1.624 0 0 0
-0.323921 -0.871211 2.469 255 255 255
0.595033 -0.335759 1.299 255 255 255
-0.247888 0.0403396 2.22 0 0 0
0.112837 -0.689784 1.805 0 0 0
-0.382758 0.520936 1.403 255 255 255
0.430556 -0.109214 2.044 255 255 255
0.560328 -0.432355 1.494 255 255 255
-0.557201 -0.67293 1.815 255 255 255
-0.599697 0.207273 1.985 255 255 255
0.531809 0.380193 1.655 255 255 255
0.189431 -0.289573 1.959 255 255 255
0.199601 -0.181142 2.03 255 255 255
-0.475595 -0.593644 2.572 255 255 255
-0.214721 0.509813 1.456 255 255 255
-0.527147 0.209257 2.004 255 255 255
-0.217324 -0.35072 2.805 255 255 255
0.605544 0.18128 1.308 255 255 255
-0.283355 0.412343 1.633 255 255 255
0.352025 -0.521074 1.842 255 255 255
0.263678 0.379884 1.753 255 255 255
0.56196 -0.430249 1.357 255 255 255
0.478491 -0.637696 1.705 255 255 255
-0.510408 0.27022 1.905 255 255 255
0.62682 0.0559235 1.265 255 255 255
0.280063 -0.482106 1.842 255 255 255
-0.346332 -0.42657 2.707 0 0 0
-0.23929 0.136587 2.143 0 0 0
0.471791 0.0577352 1.953 255 255 255
-0.301403 0.13448 0.757 255 255 255
0.039747 -0.564628 2.347 0 0 0
0.497144 0.501459 1.555 255 255 255
0.313923 -0.656688 1.779 255 255 255
0.57845 0.306322 1.516 255 255 255
0.23434 0.477152 1.575 255 255 255
0.459413 -0.239532 1.941 255 255 255
-0.112606 0.423284 1.624 255 255 255
-0.327886 0.0308711 0.785 255 255 255
0.627964 -0.0915179 1.227 255 255 255
-0.744256 -0.644789 1.659 255 255 255
0.467691 -0.391115 1.837 255 255 255
0.343911 0.363784 1.815 255 255 255
-0.10354 0.515612 1.459 255 255 255
-0.504694 -0.897827 2.411 255 255 255
0.461837 -0.225078 1.899 255 255 255
0.239716 0.0386661 1.953 255 255 255
-0.685636 -0.41867 1.48 255 255 255
0.508081 0.0597597 1.821 255 255 255
-0.342995 0.229866 1.015 255 255 255
0.266531 -0.661354 1.753 255 255 255
0.432042 0.480615 1.595 255 255 255
0.586026 0.0959309 1.432 255 255 255
0.230497 0.503684 1.516 255 255 255
0.275642 0.505013 1.52 255 255 255
-0.47446 -0.348694 2.684 255 255 255
0.828814 -0.629502 1.784 0 0 0
-0.284449 0.514436 1.449 255 255 255
-0.0861143 0.246966 1.917 255 255 255
-0.133932 0.196885 1.978 0 0 0
-0.174208 0.437159 1.607 255 255 255
-0.424327 -0.0651142 0.873 255 255 255
-0.135441 0.474101 1.524 255 255 255
0.602709 -0.580122 1.607 0 0 0
-0.599166 -0.244787 1.141 255 255 255
-0.336494 0.210508 0.95 255 255 255
0.624993 0.0780817 1.291 255 255 255
0.497668 -0.327587 1.753 255 255 255
0.42133 0.0912459 2.064 255 255 255
0.576203 -0.294121 1.425 255 255 255
-0.510677 0.367411 1.646 255 255 255
-0.620571 -0.562782 1.705 255 255 255
0.575028 0.23045 1.52 255 255 255
0.631068 -0.162719 1.237 255 255 255
0.560118 0.213976 1.62 255 255 255
0.440873 -0.310251 1.929 255 255 255
0.255955 -0.599664 1.799 255 255 255
-0.127587 0.378111 1.719 255 255 255
-0.348568 -0.0228119 0.945 255 255 255
0.112837 -0.642787 1.805 0 0 0
0.523727 0.407125 1.655 255 255 255
0.449913 0.237774 1.997 255 255 255
0.231155 -0.147159 2.017 255 255 255
-0.58145 -0.300036 1.273 255 255 255
0.620925 -0.0321828 1.249 255 255 255
0.0529951 0.368958 1.769 255 255 255
0.487012 -0.428004 1.677 255 255 255
-0.403125 0.0470106 1.247 255 255 255
0.245105 0.470233 1.595 255 255 255
0.629575 0.0710758 1.242 255 255 255
0.0230579 -0.00660121 2.212 255 255 255
0.160491 -0.633867 1.748 255 255 255
0.218359 -0.595893 1.779 255 255 255
-0.332368 0.507257 1.442 255 255 255
-0.305516 0.148341 0.58 255 255 255
-0.313502 0.0586746 0.781 255 255 255
-0.301402 0.213622 0.583 255 255 255
0.620643 -0.106704 1.265 255 255 255
-0.216688 -0.283178 2.684 0 0 0
-0.467902 -0.216669 1.18 255 255 255
0.373775 0.0251659 2.158 255 255 255
-0.390656 -0.855678 2.459 255 255 255
0.0834076 0.0793211 2.017 255 255 255
0.578831 0.523868 1.449 255 255 255
0.440598 0.397 1.753 255 255 255
-0.57063 -0.380551 1.445 255 255 255
0.600835 0.109421 1.396 255 255 255
0.225732 0.351969 1.815 255 255 255
0.591172 -0.353326 1.286 255 255 255
-0.40625 0.274181 1.911 255 255 255
-0.589665 -0.596837 2.017 255 255 255
-0.601171 -0.506147 1.779 255 255 255
-0.300699 0.202384 0.578 255 255 255
-0.304675 0.217992 0.582 255 255 255
0.158896 0.533852 1.47 255 255 255
0.269005 0.287071 1.935 255 255 255
-0.335312 0.0135989 0.822 255 255 255
-0.318018 0.148207 0.866 255 255 255
0.229534 -0.0368824 2.092 255 255 255
-0.0300476 -0.513416 2.43 0 0 0
0.273242 -0.0166293 2.114 0 0 0
-0.338469 0.373348 1.71 255 255 255
0.604836 0.27377 1.4 255 255 255
0.206294 0.345188 1.826 255 255 255
0.37641 -0.560694 1.815 255 255 255
-0.338473 0.168981 0.96 255 255 255
0.477694 -0.550099 1.753 255 255 255
-0.458573 -0.039862 2.261 255 255 255
0.321983 0.41885 1.714 255 255 255
0.543222 -0.439224 1.535 255 255 255
-0.328916 -0.286911 2.638 255 255 255
0.0554508 -0.245673 2.365 255 255 255
0.282418 -0.248192 1.985 255 255 255
0.613096 0.187081 1.275 255 255 255
-0.428026 0.274181 1.911 255 255 255
-0.249564 -0.874218 2.489 255 255 255
-0.439606 -0.0907472 1.333 255 255 255
0.32906 -0.53286 1.831 255 255 255
0.462089 -0.445503 1.815 255 255 255
0.329325 -0.641115 1.784 255 255 255
-0.209781 0.434983 1.599 255 255 255
-0.441977 0.301758 1.815 255 255 255
0.100485 0.328296 1.848 255 255 255
-0.314242 0.510664 1.445 255 255 255
-0.302995 0.092662 0.693 255 255 255
-0.305198 0.145314 0.583 255 255 255
-0.665968 0.0488077 2.278 255 255 255
0.171031 -0.491344 1.799 255 255 255
-0.72605 -0.0378469 2.365 0 0 0
-0.302355 0.196313 0.574 255 255 255
0.617117 0.362622 1.333 255 255 255
-0.199997 -0.617949 2.755 255 255 255
0.127987 0.164299 1.899 255 255 255
0.544103 -0.232983 1.559 255 255 255
0.558993 -0.18072 1.484 255 255 255
0.163237 0.215508 1.81 0 0 0
-0.598014 -0.400395 1.466 255 255 255
0.519695 -0.325275 1.668 255 255 255
0.454419 -0.0782304 2.017 255 255 255
-0.592385 -0.564362 1.753 255 255 255
0.255776 -0.0754311 2.03 255 255 255
0.262049 -0.497353 1.821 255 255 255
0.598528 0.499002 1.412 255 255 255
0.576907 -0.384971 1.273 255 255 255
-0.102548 0.45093 1.591 255 255 255
-0.528577 0.277567 1.686 255 255 255
-0.595726 -0.466606 1.659 255 255 255
-0.0232714 0.30371 1.882 255 255 255
0.19219 0.423453 1.677 255 255 255
0.441408 -0.59023 1.815 255 255 255
0.616332 -0.0887773 1.336 255 255 255
0.293665 -0.360223 1.911 255 255 255
0.166123 -0.41616 1.842 255 255 255
-0.40909 -0.102944 0.991 255 255 255
-0.00234893 -0.649138 2.42 255 255 255
0.320404 -0.0944397 2.085 255 255 255
0.46354 -0.0604396 1.972 255 255 255
0.232594 -0.668295 1.734 255 255 255
-0.227551 0.464946 1.543 255 255 255
-0.523118 0.245373 1.929 255 255 255
0.434284 -0.138364 1.985 255 255 255
-0.46823 -0.215934 1.176 255 255 255
-0.548466 -0.310414 1.308 255 255 255
0.37184 0.376833 1.779 255 255 255
0.302718 -0.261903 1.991 255 255 255
0.514122 0.539892 1.48 255 255 255
0.336222 -0.0848265 2.099 255 255 255
-0.371648 -0.00105163 0.775 255 255 255
-0.0823072 -0.282446 2.719 0 0 0
-0.29067 0.1374 0.68 255 255 255
-0.39497 -0.0917475 0.992 255 255 255
0.0519938 -0.220397 2.383 255 255 255
-0.623098 -0.324912 1.265 255 255 255
-0.592446 -0.563374 2.626 255 255 255
0.50484 -0.0876008 1.691 255 255 255
0.0152543 0.0698345 2.128 0 0 0
0.61866 0.0910563 1.327 255 255 255
-0.813233 -0.584338 1.583 255 255 255
-0.307439 0.28003 0.864 255 255 255
-0.453293 -0.873267 2.43 255 255 255
-0.51454 -0.898385 2.402 255 255 255
0.227152 0.510962 1.494 255 255 255
-0.341811 0.0216775 0.776 255 255 255
0.398465 0.105746 2.085 255 255 255
0.178568 -0.326015 1.911 255 255 255
-0.498971 -0.14809 1.013 255 255 255
0.138432 -0.487059 1.794 255 255 255
-0.492963 -0.1745 1.053 255 255 255
0.620682 0.459742 1.313 255 255 255
0.512315 0.0861452 1.815 255 255 255
0.385521 0.0760029 2.107 255 255 255
0.610896 0.393026 1.348 255 255 255
-0.28714 0.199571 0.622 255 255 255
-0.197751 0.431929 1.607 255 255 255
-0.321761 0.182319 0.888 255 255 255
0.460005 -0.649824 1.784 255 255 255
0.575116 -0.436267 1.362 255 255 255
-0.0801729 0.513314 1.466 255 255 255
-0.226463 0.380581 1.705 255 255 255
-0.316148 0.0889713 0.814 255 255 255
-0.0497057 0.102697 2.092 255 255 255
-0.0332727 0.239094 1.929 0 0 0
0.147101 -0.557389 1.758 255 255 255
-0.0140029 -0.520958 2.392 255 255 255
0.124025 -0.0226533 2.037 0 0 0
0.0903185 -0.59829 1.887 255 255 255
0.0889113 0.169505 1.923 255 255 255
-0.313177 0.362378 1.724 255 255 255
0.020109 0.519499 1.47 255 255 255
0.133746 0.142216 1.893 255 255 255
0.127882 0.353945 1.81 255 255 255
-0.453692 -0.148899 1.03 255 255 255
-0.485141 0.0992799 2.166 255 255 255
-0.487173 0.350371 1.734 255 255 255
0.501077 0.543421 1.47 255 255 255
-0.569128 -0.246567 1.167 255 255 255
0.576203 -0.298758 1.425 255 255 255
-0.331214 0.106869 0.91 255 255 255
0.491202 -0.355377 1.682 255 255 255
0.0201785 -0.805728 2.294 0 0 0
0.57955 -0.436267 1.362 255 255 255
0.583148 0.405588 1.509 255 255 255
0.403281 -0.2366 2.024 255 255 255
-0.305503 0.213603 0.758 0 0 0
-0.346108 0.0439142 0.689 255 255 255
0.365537 0.550639 1.445 255 255 255
-0.60775 -0.440369 1.539 255 255 255
-0.303444 0.122664 0.612 255 255 255
-0.520089 0.232535 1.953 255 255 255
-0.165069 -0.653619 2.561 255 255 255
-0.277179 0.299998 1.859 255 255 255
-0.172026 0.358067 1.744 255 255 255
0.573487 0.0511153 1.484 255 255 255
-0.362447 -0.00633234 0.805 255 255 255
-0.332732 0.0621525 0.68 255 255 255
-0.353282 0.0687554 1.002 255 255 255
0.551996 0.0616243 1.567 255 255 255
-0.355863 -0.0313268 0.924 255 255 255
0.26526 0.45808 1.607 255 255 255
-0.236682 0.102093 2.151 255 255 255
-0.0467948 -0.104218 2.479 255 255 255
0.549971 0.443144 1.629 255 255 255
0.293476 0.446889 1.633 255 255 255
-0.329643 0.136192 0.918 255 255 255
-0.301833 0.150747 0.582 255 255 255
-0.507774 0.360421 1.603 0 0 0
0.541608 -0.0284199 1.612 255 255 255
0.47668 0.0607262 1.947 255 255 255
0.233475 0.314107 1.853 255 255 255
0.605825 -0.294729 1.286 255 255 255
0.315074 0.530147 1.473 255 255 255
-0.320397 0.0737785 0.675 255 255 255
0.080761 0.108586 1.953 255 255 255
-0.482394 0.395106 1.47 0 0 0
-0.264747 -0.615127 2.684 255 255 255
-0.339999 0.206542 1.978 255 255 255
0.437211 0.156887 2.044 255 255 255
0.597029 -0.354508 1.225 255 255 255
-0.528459 -0.202347 1.102 255 255 255
0.571943 -0.391857 1.339 0 0 0
-0.331414 0.445262 1.571 255 255 255
0.069692 0.283511 1.911 255 255 255
-0.532166 -0.846822 2.411 255 255 255
-0.275775 0.292644 1.87 255 255 255
0.507336 -0.518687 1.595 255 255 255
-0.460473 0.459278 1.516 255 255 255
0.459699 0.341246 1.853 255 255 255
0.392313 -0.349071 1.953 0 0 0
-0.388803 0.262564 1.917 255 255 255
0.625967 -0.0695539 1.227 255 255 255
0.553875 0.147636 1.587 255 255 255
0.149408 0.282012 1.821 0 0 0
0.12381 0.493991 1.509 255 255 255
0.420861 0.522068 1.491 255 255 255
-0.231841 0.158294 2.107 255 255 255
-0.292866 0.212024 0.617 0 0 0
-0.719521 -0.457742 2.561 255 255 255
-0.536901 0.258632 1.911 255 255 255
-0.259515 -0.490236 2.768 255 255 255
0.569144 -0.0337233 1.498 255 255 255
0.581627 0.0383039 1.456 255 255 255
-0.787885 -0.453437 1.524 255 255 255
-0.353751 0.304237 1.848 255 255 255
0.588602 -0.205934 1.378 255 255 255
0.519012 0.262173 1.748 255 255 255
-0.615977 0.151436 2.107 255 255 255
0.237257 -0.404875 1.859 255 255 255
-0.297378 -0.951831 2.449 255 255 255
-0.324527 0.0997303 0.618 255 255 255
-0.672238 -0.579103 2.509 255 255 255
-0.55537 -0.271182 2.695 255 255 255
0.54103 -0.348607 1.543 255 255 255
0.22258 0.392124 1.744 255 255 255
-0.764118 -0.663596 2.489 255 255 255
0.610636 0.137729 1.319 255 255 255
0.553672 -0.380216 1.509 255 255 255
0.590625 0.488498 1.449 255 255 255
0.564678 -0.609981 1.603 255 255 255
-0.350553 -0.303653 2.672 0 0 0
0.439522 -0.0554459 2.024 255 255 255
-0.0516763 0.427514 1.62 255 255 255
-0.558146 -0.198588 1.799 255 255 255
-0.438689 -0.947715 2.459 255 255 255
-0.227335 0.0613452 2.196 0 0 0
-0.0314741 0.47003 1.535 255 255 255
-0.299708 0.0880912 2.151 255 255 255
-0.321297 -0.951831 2.449 255 255 255
-0.300091 0.213768 0.586 255 255 255
-0.478874 -0.244541 1.254 255 255 255
-0.254201 0.528873 1.412 255 255 255
0.472273 -0.0967911 1.929 255 255 255
0.625666 0.0776287 1.319 255 255 255
0.482819 -0.618701 1.691 0 0 0
-0.444108 -0.0428305 1.327 255 255 255
-0.0137921 -0.896516 2.356 0 0 0
0.462556 -0.630603 1.739 255 255 255
-0.611573 -0.542408 1.784 0 0 0
0.207788 0.39383 1.739 255 255 255
0.541608 0.0168276 1.677 255 255 255
-0.206615 0.227243 1.935 0 0 0
-0.519152 -0.155294 1.017 255 255 255
-0.47782 -0.248155 1.262 255 255 255
0.619264 -0.133949 1.31 255 255 255
-0.399597 0.0450125 1.194 255 255 255
-0.447215 -0.920538 2.44 255 255 255
-0.362345 -0.411522 2.695 0 0 0
0.18946 0.423453 1.677 255 255 255
-0.0787147 0.39947 1.691 255 255 255
0.106155 -0.613998 1.842 0 0 0
0.639741 0.261545 1.254 255 255 255
0.486281 -0.568997 1.62 255 255 255
-0.265694 0.531171 1.412 255 255 255
-0.415179 0.223 1.953 255 255 255
0.563934 0.195713 1.579 255 255 255
-0.60997 -0.599438 1.691 255 255 255
-0.481591 0.412533 1.439 0 0 0
-0.632929 -0.660068 2.32 255 255 255
0.262926 -0.45661 1.848 255 255 255
0.110477 -0.280245 1.917 255 255 255
0.14911 -0.596887 1.748 255 255 255
0.574253 0.502479 1.505 255 255 255
0.343911 0.36083 1.815 255 255 255
0.467862 -0.433346 1.826 255 255 255
-0.324436 -0.0875447 2.356 255 255 255
0.215219 -0.309491 1.905 255 255 255
0.307097 -0.0968473 2.064 255 255 255
0.624388 0.376956 1.33 255 255 255
0.1639 -0.667246 1.724 255 255 255
0.338037 -0.606277 1.784 255 255 255
-0.776596 -0.469042 1.551 255 255 255
0.90834 -0.644633 1.87 255 255 255
0.472599 0.127618 1.905 255 255 255
0.0483889 0.481576 1.532 255 255 255
-0.373566 0.000207115 0.766 255 255 255
-0.683612 -0.412073 2.615 0 0 0
0.522145 -0.31371 1.65 255 255 255
-0.289456 0.197728 0.667 255 255 255
0.464614 -0.584979 1.705 255 255 255
-0.358294 -0.443685 2.731 255 255 255
-0.2984 0.122753 0.633 255 255 255
0.017971 0.384822 1.724 255 255 255
-0.76209 -0.636265 2.509 255 255 255
0.265182 -0.650782 1.763 255 255 255
0.632088 0.0809854 1.239 255 255 255
-0.515937 -0.235172 1.167 255 255 255
-0.386349 -0.0284982 1.106 255 255 255
0.621284 0.234037 1.342 255 255 255
-0.364636 0.0476232 1.039 255 255 255
0.568212 -0.292605 1.452 255 255 255
0.379359 0.56084 1.435 255 255 255
0.425014 0.42974 1.691 255 255 255
0.0080671 0.531137 1.456 255 255 255
-0.12496 -0.154474 2.509 255 255 255
0.295716 0.154099 1.966 255 255 255
-0.741772 -0.607401 1.624 255 255 255
0.279056 0.438664 1.642 255 255 255
-0.323464 0.0539765 0.751 255 255 255
0.00532171 -0.73085 2.329 0 0 0
-0.297963 0.167218 0.58 255 255 255
0.563749 0.193303 1.646 255 255 255
-0.346802 -0.7041 2.489 255 255 255
0.518804 0.544328 1.466 255 255 255
-0.554514 -0.335526 2.649 255 255 255
-0.145838 0.451239 1.583 255 255 255
0.333436 0.525441 1.48 255 255 255
-0.372787 0.287911 1.899 255 255 255
-0.533232 -0.390618 2.672 0 0 0
0.560328 -0.167351 1.494 255 255 255
0.0546068 -0.632308 2.329 255 255 255
-0.107439 0.498949 1.48 255 255 255
-0.393053 -0.376437 2.695 0 0 0
-0.477844 0.371952 1.691 255 255 255
-0.698499 0.0332336 2.228 0 0 0
-0.217783 -0.750399 2.593 255 255 255
-0.230645 0.315473 1.826 255 255 255
-0.364527 0.517384 1.412 255 255 255
-0.513781 -0.392372 2.684 0 0 0
-0.346287 0.0174442 0.96 255 255 255
-0.0624284 -0.791652 2.459 255 255 255
0.318816 -0.663503 1.774 255 255 255
0.403939 -0.212328 2.044 255 255 255
0.547973 -0.112668 1.655 255 255 255
0.266958 0.417274 1.719 255 255 255
-0.0822145 0.269369 1.899 255 255 255
0.633039 0.441917 1.286 255 255 255
0.510401 0.199079 1.719 255 255 255
0.558612 -0.165307 1.543 255 255 255
0.405362 0.538636 1.47 255 255 255
-0.153218 -0.802918 2.572 255 255 255
0.553031 0.171874 1.646 255 255 255
0.134352 0.469463 1.575 255 255 255
0.572675 -0.402262 1.422 255 255 255
0.598261 0.464051 1.439 255 255 255
0.189486 -0.618563 1.753 255 255 255
-0.393692 -0.0220114 1.143 255 255 255
0.2202 -0.551287 1.794 255 255 255
-0.582628 -0.563111 1.758 255 255 255
0.593418 -0.445566 1.384 255 255 255
0.180624 -0.444924 1.837 255 255 255
-0.236364 0.346637 1.758 255 255 255
0.420925 -0.380853 1.953 255 255 255
0.49057 0.179972 1.779 255 255 255
-0.434609 -0.197345 1.227 255 255 255
-0.66173 -0.361968 1.366 255 255 255
0.149963 -0.563111 1.758 255 255 255
0.580246 0.231574 1.435 255 255 255
-0.144908 -0.585901 2.731 255 255 255
0.342657 0.506507 1.532 255 255 255
0.253078 -0.44014 1.842 255 255 255
0.549562 0.109026 1.668 255 255 255
-0.401027 -0.852198 2.449 255 255 255
-0.733667 -0.537331 1.612 255 255 255
0.543176 -0.375386 1.571 255 255 255
-0.285013 0.343777 1.758 255 255 255
0.157347 -0.191197 1.997 255 255 255
-0.48452 -0.0102746 2.228 255 255 255
-0.44156 0.483245 1.313 0 0 0
-0.715499 -0.347663 2.489 255 255 255
0.174073 0.12266 1.831 255 255 255
0.179087 -0.587664 1.763 255 255 255
0.601477 -0.0695952 1.387 255 255 255
0.631068 0.179492 1.237 255 255 255
0.379566 0.0215839 2.151 255 255 255
-0.356634 -0.221642 2.53 0 0 0
0.0768914 0.349839 1.789 255 255 255
-0.342527 0.427177 1.599 255 255 255
0.533094 -0.247927 1.659 255 255 255
-0.249427 -0.641868 2.615 255 255 255
0.301883 0.460695 1.607 255 255 255
-0.434686 -0.783649 2.459 255 255 255
-0.762672 -0.426637 1.466 255 255 255
-0.620222 -0.421055 2.672 0 0 0
-0.398753 0.23354 1.935 255 255 255
0.154215 -0.530706 1.774 255 255 255
0.472597 -0.560637 1.724 255 255 255
0.610606 0.225873 1.372 255 255 255
0.588698 -0.0341816 1.416 255 255 255
0.156389 -0.488417 1.799 255 255 255
-0.314681 0.224789 1.941 0 0 0
-0.400416 0.417533 1.612 255 255 255
-0.313325 0.195997 0.824 255 255 255
-0.0494299 0.222315 1.947 255 255 255
0.073356 0.549164 1.435 255 255 255
0.0487217 0.0918648 2.078 255 255 255
0.132545 -0.399419 1.876 255 255 255
0.216229 0.454259 1.612 255 255 255
-0.732034 -0.563724 1.62 255 255 255
0.616408 -0.18981 1.313 255 255 255
0.604137 0.243429 1.409 255 255 255
0.035029 0.501237 1.494 255 255 255
0.492988 0.298459 1.831 255 255 255
-0.709486 -0.619325 2.54 255 255 255
0.589832 -0.242588 1.345 255 255 255
-0.325604 0.462963 1.52 255 255 255
0.619287 0.288868 1.333 255 255 255
0.619828 -0.00384673 1.289 255 255 255
-0.285965 -0.645284 2.561 255 255 255
-0.400051 -0.112559 1.156 255 255 255
-0.0930593 -0.798041 2.53 255 255 255
-0.185293 0.304237 1.848 255 255 255
-0.695633 0.00432299 2.278 0 0 0
0.627964 -0.15741 1.227 255 255 255
-0.276343 0.512182 1.456 255 255 255
-0.496823 -0.875182 2.392 255 255 255
0.19052 -0.152733 2.004 255 255 255
-0.63392 -0.504903 1.991 0 0 0
-0.431278 -0.0213891 2.253 0 0 0
-0.239906 0.344754 1.763 255 255 255
0.0174909 -0.614796 2.44 0 0 0
0.533419 -0.0104627 1.677 255 255 255
0.369469 0.538636 1.47 255 255 255
0.277359 -0.233731 1.972 255 255 255
0.617287 0.175837 1.254 255 255 255
0.544296 0.271974 1.62 255 255 255
-0.554011 -0.565972 1.758 255 255 255
-0.432889 -0.115693 2.383 255 255 255
-0.514425 0.28654 1.831 255 255 255
0.271494 -0.0982641 2.024 255 255 255
0.616619 -0.0350098 1.278 255 255 255
0.388535 0.423728 1.7 255 255 255
0.597918 0.175509 1.416 255 255 255
0.266502 0.0847472 1.917 255 255 255
0.240168 -0.635724 1.769 255 255 255
0.225372 -0.036759 2.085 255 255 255
0.0958995 -0.463529 1.876 255 255 255
0.377895 -0.606756 1.794 255 255 255
-0.0964289 -0.329577 2.743 255 255 255
0.581938 0.360169 1.445 255 255 255
-0.0225253 0.53307 1.442 255 255 255
0.602557 0.0664481 1.4 255 255 255
-0.393114 0.0050441 0.744 255 255 255
0.348347 0.551843 1.442 255 255 255
0.00848818 0.484069 1.532 255 255 255
-0.636428 -0.33731 1.305 255 255 255
0.552104 0.459505 1.612 255 255 255
-0.348571 0.173194 1.012 255 255 255
-0.196023 0.0851807 2.166 255 255 255
-0.148664 0.515612 1.459 255 255 255
-0.446936 -0.0968149 0.932 255 255 255
0.562786 0.379109 1.583 255 255 255
-0.580058 0.0044027 2.32 255 255 255
0.129005 0.509957 1.484 255 255 255
-0.815099 -0.572276 1.607 255 255 255
-0.607705 -0.701271 2.479 255 255 255
0.587951 -0.381998 1.27 255 255 255
-0.456837 -0.668873 2.449 255 255 255
0.0804024 -0.0686207 2.024 255 255 255
-0.62427 -0.170707 2.449 0 0 0
-0.264703 -0.184901 2.479 0 0 0
-0.333934 0.0577853 0.694 255 255 255
0.758182 -0.576722 1.673 0 0 0
0.433328 -0.300205 1.966 255 255 255
0.183377 -0.394042 1.865 255 255 255
-0.291129 0.201325 0.603 255 255 255
-0.382032 -0.533822 2.649 255 255 255
-0.182058 -0.393785 2.755 255 255 255
0.632085 -0.442668 1.375 255 255 255
-0.591799 -0.387605 1.445 255 255 255
-0.258564 -0.931708 2.459 255 255 255
0.628445 0.322259 1.26 255 255 255
0.424004 0.312897 1.882 255 255 255
-0.38981 0.510491 1.412 255 255 255
0.16338 0.474423 1.583 255 255 255
-0.360008 0.0114707 0.769 255 255 255
-0.036073 0.274181 1.911 0 0 0
0.572226 0.118974 1.487 255 255 255
0.0911768 0.0807605 1.972 255 255 255
-0.683509 -0.897276 2.338 0 0 0
-0.156145 0.451239 1.583 255 255 255
0.469144 -0.377919 1.831 255 255 255
0.601123 0.108246 1.381 255 255 255
-0.244371 -0.831465 2.519 255 255 255
-0.438113 -0.0868678 0.923 255 255 255
-0.377695 0.0143736 0.726 255 255 255
0.633432 -0.381998 1.27 255 255 255
-0.300257 -0.880832 2.44 255 255 255
0.135441 0.0597905 1.917 255 255 255
0.44454 0.258753 1.959 255 255 255
-0.549836 -0.290375 1.267 255 255 255
-0.630764 -0.388779 1.432 255 255 255
-0.323923 0.257439 0.898 255 255 255
-0.519737 -0.235172 1.167 255 255 255
-0.381187 0.00623802 0.742 255 255 255
0.424828 0.492601 1.559 255 255 255
-0.0624796 0.148346 2.064 0 0 0
-0.590925 -0.646373 2.582 255 255 255
0.483927 0.285791 1.865 255 255 255
-0.353368 0.271072 1.911 255 255 255
-0.161073 -0.950931 2.499 255 255 255
0.0624617 -0.0299731 2.085 0 0 0
-0.348196 -0.202659 2.499 0 0 0
-0.290793 0.206667 0.619 0 0 0
-0.308033 -0.53023 2.719 255 255 255
-0.334185 0.0648946 0.674 255 255 255
-0.144121 -0.0830857 2.236 255 255 255
0.607722 0.335859 1.412 255 255 255
-0.316149 0.174155 0.835 0 0 0
-0.505822 0.206612 2.01 255 255 255
-0.0783855 -0.0145866 2.338 255 255 255
-0.0239312 0.474097 1.532 255 255 255
-0.683997 -0.407141 1.456 255 255 255
-0.043651 0.53307 1.442 255 255 255
0.195374 -0.341427 1.893 255 255 255
0.425617 -0.0605099 2.085 255 255 255
-0.387586 0.258632 1.911 255 255 255
-0.308434 0.404894 1.668 255 255 255
-0.302684 0.292717 0.817 255 255 255
-0.592199 -0.329086 1.929 255 255 255
-0.504246 0.273083 1.882 255 255 255
-0.512956 -0.174889 2.509 255 255 255
0.16551 0.0230668 1.978 255 255 255
-0.0235795 0.0506244 2.196 0 0 0
0.253225 0.065823 1.911 255 255 255
-0.718215 -0.608222 1.655 255 255 255
0.131802 -0.074465 2.004 255 255 255
0.281222 -0.350894 1.911 255 255 255
0.108038 0.446505 1.603 255 255 255
-0.294073 0.147352 0.599 255 255 255
0.618892 -0.219176 1.249 255 255 255
0.485396 -0.153783 1.859 255 255 255
0.616279 -0.25239 1.273 0 0 0
-0.305927 0.222902 0.791 255 255 255
-0.576606 -0.451178 1.682 255 255 255
0.483026 -0.271022 1.794 255 255 255
0.245291 -0.666473 1.744 255 255 255
0.334058 -0.679472 1.763 255 255 255
-0.36539 0.0343265 1.046 255 255 255
0.598875 0.11274 1.381 255 255 255
-0.269551 0.515367 1.445 255 255 255
-0.0712612 0.415625 1.646 255 255 255
0.25243 -0.383893 1.905 255 255 255
-0.340936 -0.0084398 0.889 255 255 255
0.611399 0.0263318 1.33 255 255 255
-0.286612 0.173983 0.632 255 255 255
-0.583897 0.233269 1.882 255 255 255
-0.394541 -0.0718476 0.923 255 255 255
0.616984 -0.231666 1.229 0 0 0
-0.458777 -0.00669671 2.244 0 0 0
-0.655389 -0.0379909 2.374 255 255 255
-0.299517 0.293799 0.781 255 255 255
-0.296373 0.121364 0.642 255 255 255
0.521356 -0.123374 1.691 255 255 255
-0.529805 0.2929 1.664 0 0 0
0.603938 0.0225325 1.362 255 255 255
-0.0305129 0.357443 1.769 255 255 255
0.567809 -0.273593 1.439 255 255 255
0.558063 -0.613663 1.599 255 255 255
0.540996 0.302388 1.642 255 255 255
-0.328206 0.0841446 0.645 255 255 255
0.453823 -0.5834 1.794 255 255 255
0.598563 0.111693 1.396 255 255 255
-0.482298 0.251651 1.929 255 255 255
0.481392 -0.644308 1.686 255 255 255
-0.721248 -0.558688 2.509 255 255 255
-0.187275 0.481923 1.502 255 255 255
-0.305476 0.268742 0.74 0 0 0
-0.3082 0.0873878 0.687 255 255 255
0.323026 -0.475986 1.865 255 255 255
-0.33949 0.190238 0.981 255 255 255
-0.368842 -0.053407 0.97 255 255 255
0.603459 0.204828 1.351 255 255 255
-0.717164 -0.587269 2.509 255 255 255
-0.28813 0.140664 0.659 255 255 255
0.449965 0.492578 1.567 255 255 255
0.209461 0.382737 1.753 255 255 255
0.148506 0.274418 1.81 0 0 0
-0.173353 0.155063 2.064 0 0 0
-0.403525 -0.940392 2.44 255 255 255
-0.710877 -0.439511 2.459 255 255 255
0.342086 0.449712 1.624 255 255 255
-0.290495 0.338245 1.774 255 255 255
0.483806 -0.487654 1.714 255 255 255
0.0253338 0.420591 1.655 255 255 255
-0.286245 0.205837 1.941 0 0 0
0.471543 -0.433644 1.71 255 255 255
0.570066 -0.174172 1.393 255 255 255
-0.603567 -0.142839 2.383 255 255 255
0.0158565 0.00779739 2.212 255 255 255
0.13736 0.524283 1.47 255 255 255
0.579768 -0.229726 1.4 255 255 255
0.751805 -0.583559 1.677 0 0 0
0.575574 -0.128049 1.435 255 255 255
-0.291413 0.235336 0.669 255 255 255
0.196465 -0.661732 1.739 255 255 255
0.0406345 -0.74035 2.189 255 255 255
0.582472 0.0794518 1.429 255 255 255
-0.318089 0.0467294 2.181 0 0 0
0.576203 -0.465722 1.425 255 255 255
-0.314282 0.0883642 0.669 255 255 255
-0.38967 -0.0766552 1.126 0 0 0
0.449934 -0.160566 1.941 255 255 255
-0.264693 0.0880912 2.151 255 255 255
0.547501 0.0755135 1.591 255 255 255
0.604814 -0.00854109 1.369 255 255 255
0.131526 0.490377 1.513 255 255 255
0.410729 -0.59744 1.81 0 0 0
0.618319 0.0365389 1.308 255 255 255
-0.323237 0.035455 0.802 255 255 255
0.311618 0.551499 1.435 255 255 255
-0.515935 -0.560542 1.805 0 0 0
-0.482263 -0.105347 0.927 255 255 255
0.61195 -0.289253 1.299 255 255 255
0.186604 -0.1457 1.997 255 255 255
-0.613 -0.320905 1.182 0 0 0
0.247457 0.000559968 2.071 0 0 0
-0.407659 -0.639993 2.54 255 255 255
0.418892 -0.438955 1.929 0 0 0
-0.208192 -0.359849 2.805 255 255 255
-0.198347 -0.786554 2.615 255 255 255
0.642152 0.284598 1.275 255 255 255
-0.500551 -0.497016 2.731 255 255 255
-0.320107 -0.568895 2.672 255 255 255
0.616943 -0.145803 1.283 255 255 255
-0.288105 0.166899 0.674 255 255 255
-0.10562 -0.729078 2.638 255 255 255
-0.0228561 -0.13406 2.509 255 255 255
0.548213 0.142444 1.616 255 255 255
-0.118384 0.441681 1.595 255 255 255
0.131222 0.0480526 1.947 255 255 255
-0.344564 0.159924 0.991 255 255 255
-0.509962 -0.617313 1.774 255 255 255
-0.472668 -0.233365 1.217 255 255 255
-0.673294 -0.364889 1.336 255 255 255
-0.134201 -0.123449 2.383 255 255 255
-0.695633 -0.125424 2.278 0 0 0
-0.629715 -0.509922 1.642 255 255 255
0.139096 0.175079 1.882 255 255 255
-0.704909 -0.421078 1.48 255 255 255
-0.293704 0.177118 0.72 255 255 255
0.218359 -0.598788 1.779 255 255 255
0.538323 0.441336 1.642 255 255 255
0.322578 -0.673734 1.763 255 255 255
0.558857 0.17222 1.624 255 255 255
-0.263289 0.000602419 2.228 255 255 255
-0.599447 -0.471505 2.638 255 255 255
0.968695 -0.714743 1.911 255 255 255
0.503375 -0.0822545 1.753 255 255 255
-0.169884 0.443163 1.591 255 255 255
-0.748276 -0.638606 1.65 255 255 255
0.567038 -0.230692 1.449 255 255 255
-0.177873 0.341132 1.774 255 255 255
0.327313 0.553445 1.422 255 255 255
-0.00248579 -0.370223 2.561 255 255 255
-0.268527 -0.499245 2.768 255 255 255
0.54318 -0.456947 1.487 255 255 255
0.579257 0.01461 1.456 255 255 255
0.261875 0.491279 1.571 255 255 255
-0.675098 -0.224833 2.615 255 255 255
-0.190688 0.306247 1.842 255 255 255
-0.282409 0.440935 1.583 255 255 255
-0.359185 0.0402563 0.684 255 255 255
-0.346051 0.221315 1.029 255 255 255
0.372035 0.550944 1.452 255 255 255
0.585481 0.141841 1.425 255 255 255
0.294752 -0.429076 1.859 255 255 255
-0.282126 0.400663 1.673 255 255 255
-0.283368 0.420419 1.603 255 255 255
0.349593 0.383351 1.769 255 255 255
0.566627 -0.583371 1.616 255 255 255
-0.3116 0.0937615 0.661 255 255 255
0.499094 -0.320964 1.748 255 255 255
0.192992 -0.177839 2.03 255 255 255
0.498948 -0.0924257 1.842 255 255 255
-0.471266 -0.225183 1.429 255 255 255
-0.429946 0.423512 1.595 255 255 255
0.606268 0.132683 1.333 255 255 255
-0.412912 -0.251419 2.626 255 255 255
-0.287256 0.149678 0.638 0 0 0
-0.56745 -0.525201 2.649 255 255 255
0.267729 -0.27224 1.972 255 255 255
-0.358315 -0.0195406 0.868 255 255 255
-0.36126 0.00896784 0.769 255 255 255
-0.376984 0.113421 1.178 0 0 0
-0.752871 -0.632781 2.561 255 255 255
-0.512791 0.304106 1.794 255 255 255
-0.366817 0.151939 2.114 255 255 255
0.183377 0.513393 1.494 255 255 255
0.39844 0.000573488 2.121 255 255 255
0.132528 0.413767 1.682 255 255 255
-0.1228 0.483246 1.491 255 255 255
0.490226 -0.54351 1.607 0 0 0
-0.139228 -0.267984 2.707 255 255 255
-0.113279 0.529373 1.432 255 255 255
-0.72007 -0.35797 2.593 0 0 0
0.398741 -0.286955 1.985 0 0 0
0.565774 -0.393118 1.502 255 255 255
-0.149353 -0.537014 2.731 255 255 255
-0.0629361 -0.769852 2.479 255 255 255
-0.213562 -0.763058 2.593 255 255 255
0.721599 -0.619653 1.664 255 255 255
0.584648 0.435594 1.494 255 255 255
0.409082 -0.266874 2.004 255 255 255
