ply
format ascii 1.0
comment Created by Open3D
element vertex 1302
property double x
property double y
property double z
property uchar red
property uchar green
property uchar blue
end_header
-0.127028 0.0483631 0.658 255 255 255
0.250679 -0.0338612 0.615 255 255 255
0.0189638 0.121149 0.52 255 255 255
0.0206259 0.0868641 0.592 0 0 0
-0.184873 0.130263 0.476 255 255 255
-0.193299 -0.0801766 0.633 255 255 255
0.154949 -0.0215461 0.703 255 255 255
0.140558 0.162022 0.476 255 255 255
0.0441423 -0.177956 0.725 255 255 255
-0.209689 -0.130859 0.592 255 255 255
-0.266746 -0.110084 0.584 0 0 0
0.187804 -0.133341 0.636 255 255 255
0.101831 -0.221259 0.677 255 255 255
-0.187882 -0.210782 0.697 255 255 255
-0.315243 0.0355837 0.64 255 255 255
-0.317475 -0.226093 0.632 255 255 255
-0.177674 -0.0396423 0.72 255 255 255
0.237278 0.0220788 0.641 255 255 255
-0.289835 -0.00410522 0.658 255 255 255
-0.0741974 -0.0106379 0.74 255 255 255
-0.0700897 0.144863 0.486 255 255 255
0.105914 -0.196257 0.682 255 255 255
-0.199638 -0.253103 0.668 255 255 255
0.235664 0.0883642 0.669 255 255 255
0.000310843 0.16254 0.473 255 255 255
-0.203321 0.105306 0.517 255 255 255
0.256486 -0.143116 0.568 255 255 255
0.011045 0.0795583 0.595 0 0 0
0.125592 -0.00340797 0.739 255 255 255
0.210112 -0.200846 0.591 255 255 255
0.0631242 -0.145511 0.74 255 255 255
-0.209231 0.085951 0.555 255 255 255
-0.126102 0.146927 0.465 255 255 255
0.0959916 0.13215 0.52 255 255 255
-0.0966495 0.102576 0.557 255 255 255
-0.289198 0.0397497 0.64 255 255 255
0.220251 -0.158634 0.595 255 255 255
0.151623 -0.109337 0.673 255 255 255
-0.0904029 0.121382 0.521 255 255 255
0.139511 0.00376123 0.73 255 255 255
-0.206182 -0.158101 0.593 0 0 0
0.274253 -0.00179952 0.603 255 255 255
0.053109 -0.0485157 0.788 255 255 255
-0.0974624 0.152746 0.462 255 255 255
-0.202374 -0.16666 0.596 255 255 255
-0.204709 -0.125793 0.6 255 255 255
-0.191503 0.149087 0.438 255 255 255
0.0156388 0.0696478 0.667 255 255 255
-0.152666 0.15866 0.433 255 255 255
0.0119353 0.155825 0.476 255 255 255
0.233845 -0.178876 0.576 255 255 255
-0.213585 -0.0783393 0.603 0 0 0
-0.0606687 -0.0274614 0.896 255 255 255
-0.31131 0.0559414 0.591 255 255 255
0.16696 -0.0731959 0.673 255 255 255
0.0169 0.0616041 0.674 255 255 255
0.0595706 -0.0814506 0.772 255 255 255
-0.129814 0.0642451 0.625 255 255 255
-0.25812 -0.0961566 0.586 255 255 255
-0.192667 -0.110995 0.621 0 0 0
0.13839 0.150265 0.496 255 255 255
-0.000549378 0.0931809 0.566 0 0 0
0.059993 -0.136979 0.746 255 255 255
0.134113 -0.107608 0.69 255 255 255
-0.318319 -0.205641 0.642 255 255 255
-0.137475 0.148341 0.46 255 255 255
0.174166 0.126596 0.559 255 255 255
0.0624193 0.0632298 0.668 255 255 255
0.0493767 0.101829 0.568 255 255 255
0.195236 -0.0956441 0.64 255 255 255
0.195262 -0.134133 0.63 255 255 255
0.0841704 0.133393 0.515 255 255 255
0.243854 -0.0380491 0.618 255 255 255
0.284185 -0.00948972 0.593 255 255 255
0.219223 0.123161 0.577 255 255 255
0.261568 -0.125775 0.569 255 255 255
-0.029416 0.0415511 0.706 255 255 255
-0.0628401 0.146143 0.485 255 255 255
0.216826 0.0306182 0.668 255 255 255
0.028154 -0.120396 0.772 255 255 255
-0.180715 -0.11267 0.913 255 255 255
-0.0325197 0.160402 0.469 255 255 255
0.180823 -0.0165114 0.684 255 255 255
0.244964 0.0440529 0.642 255 255 255
0.261489 -0.107825 0.577 255 255 255
-0.00743348 -0.133897 0.816 255 255 255
-0.266345 -0.15891 0.565 0 0 0
0.123314 -0.16359 0.68 255 255 255
0.0652179 0.0526538 0.686 255 255 255
0.283299 -0.0756409 0.568 255 255 255
0.177659 -0.00205616 0.689 255 255 255
0.100031 0.170638 0.444 255 255 255
0.30699 0.172954 0.632 255 255 255
-0.000659059 0.0565364 0.679 255 255 255
0.093709 -0.117785 0.725 255 255 255
0.125687 0.028425 0.754 255 255 255
-0.206796 0.138147 0.456 255 255 255
-0.0229672 -0.194304 0.72 255 255 255
0.190485 0.160434 0.495 255 255 255
0.226857 -0.0124019 0.644 255 255 255
-0.208725 -0.156871 0.592 0 0 0
-0.193299 -0.0832669 0.633 255 255 255
-0.294458 0.0684626 0.575 255 255 255
0.0207941 -0.270944 0.734 255 255 255
0.247083 -0.0797692 0.599 255 255 255
-0.132616 0.0416129 0.67 255 255 255
-0.114252 -0.038034 0.758 0 0 0
-0.131546 -0.205883 0.892 255 255 255
0.00415181 0.163733 0.472 255 255 255
-0.12989 0.159414 0.437 255 255 255
-0.251878 0.104299 0.508 255 255 255
-0.0890242 -0.078817 0.714 0 0 0
0.0779435 -0.224219 0.7 255 255 255
-0.113766 0.152914 0.458 255 255 255
-0.351133 -0.040814 0.72 255 255 255
0.187514 -0.22431 0.605 255 255 255
-0.135978 0.147593 0.46 255 255 255
0.034663 0.151244 0.469 255 255 255
-0.180088 -0.172057 0.725 255 255 255
0.250696 -0.0793697 0.596 255 255 255
-0.208373 -0.158529 0.591 0 0 0
-0.371712 0.0107249 0.719 255 255 255
0.0323727 0.149717 0.469 255 255 255
0.144984 0.158903 0.483 255 255 255
-0.0685366 0.127774 0.516 255 255 255
-0.085791 0.0731639 0.623 0 0 0
0.210955 0.186683 0.492 255 255 255
-0.198645 -0.195566 0.672 255 255 255
-0.212542 -0.0190023 0.62 0 0 0
-0.189614 -0.0544062 0.645 255 255 255
-0.244726 0.0919122 0.532 255 255 255
0.301265 0.0721536 0.606 255 255 255
0.00316368 0.089358 0.571 0 0 0
-0.0926887 -0.202159 0.555 255 255 255
0.119684 -0.145996 0.691 255 255 255
-0.278969 0.0463786 0.631 255 255 255
0.296763 0.0879504 0.613 255 255 255
-0.206434 -0.228999 0.687 255 255 255
-0.228884 -0.0888705 0.582 255 255 255
0.30065 0.179224 0.636 255 255 255
-0.282548 0.0270703 0.661 255 255 255
-0.0223704 -0.177784 0.739 255 255 255
-0.193438 0.158063 0.422 255 255 255
0.105393 0.149736 0.489 255 255 255
-0.0141007 -0.150534 0.747 255 255 255
0.266696 -0.202847 0.54 255 255 255
-0.0986749 -0.174105 0.871 255 255 255
0.0148605 -0.14712 0.736 255 255 255
0.0558864 -0.0422643 0.791 255 255 255
0.123922 -0.236092 0.654 255 255 255
-0.232315 -0.124891 0.565 255 255 255
-0.152578 0.124687 0.497 255 255 255
0.244973 -0.0252984 0.626 255 255 255
0.262431 -0.160862 0.559 255 255 255
-0.129082 0.128694 0.5 255 255 255
-0.116292 0.129767 0.501 255 255 255
-0.166215 0.153 0.439 255 255 255
0.14467 0.107146 0.587 255 255 255
-0.119173 0.100919 0.548 0 0 0
0.31935 0.18676 0.63 255 255 255
0.188022 -0.172182 0.623 255 255 255
-0.281403 -0.0689925 0.625 255 255 255
0.208239 0.0432769 0.679 255 255 255
0.162703 -0.029302 0.697 255 255 255
0.135217 -0.213088 0.652 255 255 255
0.148755 0.138216 0.527 255 255 255
-0.121995 -0.017984 0.745 255 255 255
0.259109 -0.00484562 0.616 255 255 255
0.134696 -0.0990536 0.693 255 255 255
0.138121 -0.159139 0.666 255 255 255
0.0513659 -0.0747745 0.781 255 255 255
-0.110096 -0.202369 0.883 255 255 255
0.238861 0.0467892 0.651 255 255 255
-0.00314948 -0.197718 0.538 255 255 255
0.22822 -0.0676491 0.622 255 255 255
-0.107217 0.0338232 0.689 255 255 255
-0.0568558 0.163377 0.456 255 255 255
-0.332976 0.0210842 0.676 255 255 255
0.142859 -0.141098 0.673 255 255 255
-0.231718 0.0253912 0.62 255 255 255
-0.164993 0.12609 0.493 255 255 255
0.131662 -0.0711412 0.707 255 255 255
0.0777095 -0.0470996 0.765 255 255 255
0.182909 -0.104221 0.648 255 255 255
0.0306485 0.161651 0.466 255 255 255
-0.167299 -0.0783144 0.731 255 255 255
0.17824 -0.0763087 0.662 255 255 255
0.256415 -0.194073 0.55 255 255 255
-0.177078 0.0623175 0.616 255 255 255
-0.161555 0.0251058 0.696 0 0 0
-0.00809925 0.0683947 0.655 0 0 0
0.135495 -0.0810348 0.703 255 255 255
-0.105325 0.036917 0.684 255 255 255
-0.0151876 0.169674 0.453 255 255 255
0.129566 -0.248587 0.645 255 255 255
-0.13975 -0.253666 0.862 255 255 255
-0.251579 -0.254962 0.656 255 255 255
-0.0683568 -0.119353 0.693 255 255 255
0.188066 -0.0119533 0.678 255 255 255
0.201926 0.151286 0.516 255 255 255
-0.331194 0.00822149 0.705 255 255 255
0.280166 0.0683321 0.616 255 255 255
-0.00496047 0.0638355 0.663 0 0 0
0.0261232 0.102211 0.565 255 255 255
-0.316995 0.0308509 0.65 255 255 255
-0.207538 0.138889 0.456 255 255 255
-0.148601 0.144475 0.462 255 255 255
0.0424289 0.0407449 0.83 0 0 0
-0.0320685 0.103321 0.524 0 0 0
-0.155212 0.117389 0.511 255 255 255
0.00797516 0.11799 0.521 255 255 255
-0.186187 -0.0983484 0.918 0 0 0
0.315799 0.14569 0.621 255 255 255
-0.0106622 -0.181795 0.52 255 255 255
0.224247 0.151636 0.523 255 255 255
-0.245223 -0.269413 0.702 0 0 0
0.108018 0.0339519 0.768 255 255 255
0.127558 -0.124631 0.691 255 255 255
-0.235968 -0.268616 0.712 0 0 0
0.247644 -0.0825554 0.598 255 255 255
0.20927 0.141713 0.537 255 255 255
0.0529188 0.174752 0.449 0 0 0
0.101552 -0.0350978 0.748 255 255 255
-0.0442371 0.164861 0.456 255 255 255
0.0881001 0.117398 0.55 255 255 255
0.277901 -0.168628 0.543 255 255 255
-0.099128 -0.196263 0.875 255 255 255
-0.106489 0.07536 0.608 255 255 255
0.293246 0.123001 0.629 255 255 255
-0.0978715 -0.0131522 0.746 255 255 255
-0.0719099 0.0651501 0.644 255 255 255
-0.127463 0.15026 0.459 255 255 255
0.0424809 0.134663 0.498 255 255 255
0.134451 0.0944686 0.61 255 255 255
-0.144411 -0.113656 0.909 255 255 255
0.172701 -0.187444 0.63 255 255 255
0.192391 -0.021625 0.67 255 255 255
-0.175946 -0.2133 0.713 255 255 255
-0.0600206 0.123336 0.515 255 255 255
0.163498 0.173045 0.462 255 255 255
0.206332 0.0411275 0.68 255 255 255
-0.223157 -0.0539858 0.605 0 0 0
0.0799904 -0.0457348 0.763 255 255 255
0.147045 -0.194909 0.648 255 255 255
0.00721288 -0.0905181 0.82 255 255 255
0.00497865 0.0968652 0.566 255 255 255
0.16625 -0.143281 0.653 255 255 255
0.117606 -0.176609 0.679 255 255 255
-0.159407 0.140873 0.465 255 255 255
0.167301 0.175273 0.458 255 255 255
-0.0541567 -0.0671979 0.714 0 0 0
0.209063 0.0640964 0.689 255 255 255
-0.14928 0.121763 0.505 255 255 255
-0.217291 0.071082 0.597 0 0 0
0.0743292 -0.212103 0.709 255 255 255
0.0166889 0.143556 0.479 255 255 255
-0.0301999 0.16671 0.457 255 255 255
0.134013 0.0158336 0.739 255 255 255
0.0968644 0.0561078 0.731 0 0 0
0.0286742 -0.0145097 0.823 255 255 255
-0.228523 -0.127179 0.567 0 0 0
0.249262 0.142593 0.554 255 255 255
0.252413 -0.20773 0.553 255 255 255
0.0640099 0.0658583 0.651 255 255 255
-0.337655 -0.169865 0.645 255 255 255
-0.0869705 0.0884191 0.577 255 255 255
0.232096 -0.0508472 0.627 255 255 255
-0.111342 -0.032969 0.755 0 0 0
0.289591 0.0867966 0.619 255 255 255
0.291389 -0.0278188 0.573 255 255 255
0.131556 -0.0407573 0.719 255 255 255
-0.251693 -0.153941 0.557 0 0 0
0.0162897 0.0955983 0.575 255 255 255
-0.0221381 -0.00260229 0.872 255 255 255
-0.132398 -0.245827 0.869 255 255 255
0.222648 -0.0187769 0.647 255 255 255
-0.220618 0.0867435 0.543 0 0 0
-0.184186 0.108456 0.52 255 255 255
0.123789 0.168941 0.457 255 255 255
-0.0773813 -0.118225 0.693 255 255 255
0.230737 0.0298848 0.652 255 255 255
-0.0493102 -0.117483 0.851 255 255 255
-0.143786 -0.145604 0.924 255 255 255
0.0583732 0.172132 0.446 255 255 255
0.0978891 0.0114408 0.767 255 255 255
0.0703981 0.167025 0.444 255 255 255
-0.233102 0.0254322 0.621 255 255 255
-0.25273 -0.0535166 0.589 0 0 0
-0.136843 0.0579481 0.634 255 255 255
0.00275367 0.12954 0.497 255 255 255
0.0337761 0.174147 0.457 0 0 0
0.137711 0.0475472 0.746 255 255 255
0.170301 -0.0234273 0.691 255 255 255
0.117877 0.164378 0.463 255 255 255
-0.247861 -0.253781 0.703 0 0 0
-0.224378 -0.240808 0.712 255 255 255
0.042507 0.130753 0.508 255 255 255
0.122769 0.120705 0.557 255 255 255
0.251138 0.102367 0.661 255 255 255
0.274977 -0.0969003 0.568 255 255 255
-0.00488228 -0.0662769 0.834 255 255 255
0.0553741 0.111039 0.554 255 255 255
-0.344877 -0.127517 0.665 255 255 255
-0.0100061 0.144665 0.488 0 0 0
-0.296839 0.0465039 0.619 255 255 255
-0.286852 -0.000896939 0.661 255 255 255
-0.188262 0.13369 0.469 255 255 255
-0.210398 0.0886738 0.544 255 255 255
-0.248047 -0.127204 0.559 0 0 0
0.274778 -0.0086541 0.602 255 255 255
0.135631 -0.0268282 0.722 255 255 255
0.120332 0.16782 0.458 255 255 255
0.183794 0.110171 0.593 255 255 255
-0.152337 0.110995 0.524 255 255 255
-0.309916 -0.0957 0.662 255 255 255
-0.308916 0.0449086 0.611 255 255 255
0.0664674 -0.156914 0.737 255 255 255
0.115352 -0.157468 0.692 255 255 255
0.0689024 -0.0706603 0.764 255 255 255
0.0907564 0.137377 0.505 255 255 255
0.13308 -0.145671 0.679 255 255 255
0.00568845 0.163733 0.472 255 255 255
-0.294629 0.0449205 0.625 255 255 255
-0.23401 -0.0222949 0.6 0 0 0
0.265617 -0.179005 0.545 255 255 255
-0.157177 0.0894966 0.566 255 255 255
0.228459 -0.216835 0.565 255 255 255
-0.0940251 0.118683 0.513 255 255 255
0.131572 0.106598 0.584 255 255 255
-0.219782 0.0836898 0.552 255 255 255
0.157628 -0.077277 0.68 255 255 255
0.197476 0.0123563 0.68 255 255 255
0.314191 0.198666 0.632 255 255 255
0.19525 -0.162491 0.617 255 255 255
0.0612238 0.110933 0.558 255 255 255
0.234573 -0.0907124 0.607 255 255 255
0.176681 0.102555 0.605 255 255 255
-0.20965 0.087702 0.549 255 255 255
-0.0115583 -0.10059 0.826 255 255 255
-0.140829 -0.182374 0.905 255 255 255
0.062087 -0.141074 0.742 255 255 255
-0.0198188 0.136268 0.495 255 255 255
0.24002 0.0905416 0.669 255 255 255
0.0844646 0.143289 0.497 255 255 255
0.189971 0.0419137 0.693 255 255 255
-0.0414161 -0.176843 0.513 255 255 255
0.225776 0.0129283 0.653 255 255 255
-0.0116376 -0.170741 0.745 255 255 255
-0.143702 0.148536 0.456 255 255 255
0.26943 -0.117235 0.568 255 255 255
-0.12474 0.0923578 0.561 0 0 0
-0.230621 -0.0720695 0.584 0 0 0
0.224951 -0.0620709 0.627 255 255 255
-0.174816 0.145026 0.452 255 255 255
0.0961299 0.0837746 0.619 255 255 255
-0.0194739 0.12142 0.507 0 0 0
0.0106447 0.173742 0.454 255 255 255
-0.193801 -0.205439 0.702 0 0 0
0.249351 -0.135523 0.575 255 255 255
0.0898574 0.0953732 0.591 255 255 255
0.00056254 -0.00116154 0.856 255 255 255
-0.314389 -0.229178 0.632 255 255 255
-0.192078 -0.0888822 0.629 255 255 255
-0.247094 -0.0714844 0.587 255 255 255
0.146803 0.0923905 0.616 255 255 255
-0.0678806 0.0475562 0.677 255 255 255
-0.105214 0.064759 0.63 255 255 255
0.0818775 0.159447 0.464 255 255 255
-0.151363 -0.120805 0.63 255 255 255
0.236652 -0.198226 0.567 255 255 255
-0.310429 -0.1286 0.654 255 255 255
0.104346 0.121875 0.546 255 255 255
-0.073295 -0.0247835 0.731 255 255 255
0.0404771 0.104951 0.56 255 255 255
-0.097592 -0.194617 0.874 255 255 255
-0.248534 -0.164832 0.554 0 0 0
0.0723431 0.159167 0.461 255 255 255
-0.232487 0.141176 0.44 255 255 255
-0.0470773 0.120715 0.511 255 255 255
-0.331842 -0.163274 0.648 255 255 255
-0.0365476 0.105737 0.515 0 0 0
0.00322022 -0.0868314 0.823 255 255 255
0.0519154 0.168937 0.453 255 255 255
-0.0443105 0.0807972 0.597 255 255 255
0.195556 0.079352 0.705 255 255 255
0.0935803 -0.141759 0.715 255 255 255
-0.100569 -0.031446 0.748 255 255 255
0.0109311 0.129767 0.501 255 255 255
0.269313 -0.203687 0.533 255 255 255
-0.174148 0.13569 0.468 255 255 255
0.248253 -0.0160785 0.624 255 255 255
0.199611 -0.206771 0.597 255 255 255
0.241002 0.174566 0.528 0 0 0
-0.077141 -0.177743 0.868 255 255 255
-0.175265 0.14973 0.442 255 255 255
-0.131098 0.0698802 0.612 255 255 255
0.280954 -0.0782758 0.567 255 255 255
-0.191867 -0.0593769 0.642 0 0 0
0.0217355 -0.0580643 0.814 255 255 255
0.114945 0.0617174 0.756 0 0 0
0.129232 0.125429 0.546 255 255 255
0.155812 0.125909 0.552 255 255 255
0.0435335 -0.261603 0.715 255 255 255
-0.151938 0.144035 0.463 255 255 255
-0.316502 0.0416683 0.622 255 255 255
-0.15998 -0.152919 0.905 255 255 255
-0.0580104 0.067976 0.641 0 0 0
0.201657 -0.226802 0.586 255 255 255
-0.0672452 -0.0835598 0.705 255 255 255
0.0395848 -0.227265 0.728 255 255 255
-0.0458863 0.155613 0.473 255 255 255
-0.0533762 -0.0157967 0.896 255 255 255
-0.0935987 0.0498847 0.664 255 255 255
0.122816 -0.123267 0.696 255 255 255
0.256209 0.0839967 0.652 255 255 255
0.230029 0.0107534 0.65 255 255 255
-0.0542567 0.0653524 0.646 255 255 255
-0.118585 -0.236587 0.882 255 255 255
0.26141 -0.0915543 0.581 255 255 255
0.219574 -0.172077 0.588 255 255 255
0.216062 0.0339301 0.669 255 255 255
0.167128 0.0233329 0.711 255 255 255
-0.0156675 -0.109181 0.83 255 255 255
-0.201078 -0.0868809 0.622 255 255 255
-0.0609771 0.121896 0.516 255 255 255
-0.000513465 -0.18408 0.529 0 0 0
0.0720912 0.123712 0.531 255 255 255
0.155171 0.0537286 0.731 255 255 255
0.0949405 0.0897562 0.605 255 255 255
-0.275779 0.069177 0.581 255 255 255
0.0135682 0.0614213 0.672 255 255 255
-0.0536144 0.0104955 0.9 255 255 255
0.0289529 0.001577 0.831 255 255 255
-0.0810131 0.161227 0.45 255 255 255
-0.185588 -0.0263896 0.653 0 0 0
-0.228232 -0.159547 0.564 255 255 255
-0.0475379 -0.176198 0.516 0 0 0
-0.0865783 -0.084508 0.713 0 0 0
-0.00762478 -0.0624291 0.837 255 255 255
0.23616 0.138335 0.555 255 255 255
0.00953469 0.0444241 0.697 0 0 0
0.264167 -0.167839 0.555 255 255 255
-0.114603 0.141404 0.477 255 255 255
-0.252569 -0.0907647 0.582 255 255 255
-0.177765 -0.0354411 0.73 0 0 0
0.148378 -0.0475861 0.699 255 255 255
0.217873 -0.202961 0.586 255 255 255
-0.23378 -0.0393385 0.592 0 0 0
0.158843 -0.124787 0.662 255 255 255
0.268865 0.0374986 0.62 255 255 255
0.256201 0.18594 0.512 255 255 255
-0.278665 0.0461581 0.628 255 255 255
0.279037 0.023871 0.607 255 255 255
0.0934063 -0.20694 0.688 255 255 255
0.0803799 -0.260628 0.682 255 255 255
0.17494 -0.185531 0.627 255 255 255
-0.170711 -0.246602 0.674 255 255 255
0.310751 0.132703 0.617 255 255 255
-0.16629 0.140412 0.461 255 255 255
0.0694801 0.0832333 0.615 255 255 255
-0.00126284 0.14249 0.486 255 255 255
-0.21355 0.0962409 0.532 0 0 0
0.0626022 -0.0954009 0.763 255 255 255
-0.218325 -0.0690947 0.608 0 0 0
0.294439 0.181294 0.636 0 0 0
-0.22891 0.0697181 0.602 255 255 255
-0.0829289 0.124163 0.522 255 255 255
-0.067159 0.146808 0.482 255 255 255
-0.0493132 -0.171491 0.517 0 0 0
-0.142711 0.000194948 0.721 0 0 0
0.221862 -0.142866 0.602 255 255 255
-0.115097 0.0408855 0.676 255 255 255
-0.0613589 -0.0143469 0.745 255 255 255
-0.335206 -0.139001 0.663 255 255 255
-0.19314 0.161803 0.414 255 255 255
0.15206 0.161261 0.483 255 255 255
0.189278 -0.14427 0.634 255 255 255
-0.356034 -0.0803597 0.678 255 255 255
0.20658 -0.104925 0.627 255 255 255
-0.188804 -0.159963 0.615 0 0 0
0.240512 -0.0333947 0.625 255 255 255
0.0884739 0.00397763 0.772 255 255 255
0.0915291 0.158958 0.467 255 255 255
0.0386132 0.0883314 0.602 255 255 255
-0.226819 -0.0777716 0.584 0 0 0
0.194618 -0.172973 0.615 255 255 255
-0.0726292 0.089984 0.575 0 0 0
0.133525 0.165088 0.465 255 255 255
0.139657 -0.167053 0.663 255 255 255
0.105209 0.106827 0.575 255 255 255
0.12249 0.0420889 0.757 255 255 255
-0.00619497 -0.12374 0.828 255 255 255
0.211841 0.0110181 0.666 255 255 255
0.034666 0.0944049 0.585 255 255 255
0.140035 -0.104751 0.686 255 255 255
-0.22872 -0.0777716 0.584 0 0 0
0.277003 -0.0409864 0.588 255 255 255
0.177194 0.0334614 0.705 255 255 255
-0.25045 0.0994166 0.517 255 255 255
0.126574 -0.191141 0.668 255 255 255
0.251972 -0.182618 0.556 255 255 255
-0.350695 -0.0803084 0.687 255 255 255
0.0458131 0.17553 0.451 255 255 255
0.0980885 -0.250989 0.674 255 255 255
-0.140838 -0.0305117 0.755 255 255 255
-0.356497 -0.00812939 0.731 255 255 255
0.275416 -0.101343 0.567 255 255 255
0.0629846 0.0537702 0.686 255 255 255
0.265593 -0.20745 0.536 255 255 255
-0.0661208 -0.00827396 0.744 255 255 255
-0.160689 -0.209059 0.869 255 255 255
0.122205 -0.216357 0.662 255 255 255
-0.0219995 0.109265 0.528 0 0 0
-0.0840043 -0.0295418 0.731 0 0 0
0.0156474 0.0869374 0.586 0 0 0
-0.152245 -0.0630219 0.733 0 0 0
0.206607 -0.112547 0.624 255 255 255
0.148979 0.145397 0.513 255 255 255
-0.156925 0.155143 0.439 0 0 0
-0.108825 0.0726299 0.61 255 255 255
0.245195 -0.206675 0.555 255 255 255
0.230923 -0.0225621 0.635 255 255 255
0.154242 -0.0296383 0.705 255 255 255
-0.176075 0.0633199 0.616 255 255 255
-0.0239578 0.0890483 0.575 255 255 255
-0.335039 -0.109376 0.687 255 255 255
-0.208015 0.129716 0.474 255 255 255
-0.255268 -0.240946 0.686 255 255 255
-0.249535 -0.0751771 0.586 255 255 255
-0.060116 0.0936032 0.563 0 0 0
-0.314945 -0.231161 0.629 255 255 255
0.0911161 0.116028 0.552 255 255 255
0.312726 0.150159 0.627 255 255 255
-0.0323836 -0.15317 0.748 255 255 255
-0.223638 -0.0360244 0.601 255 255 255
0.216702 -0.199827 0.588 255 255 255
0.0948946 -0.00972691 0.763 255 255 255
-0.118158 0.137396 0.482 255 255 255
-0.17527 -0.228414 0.692 255 255 255
-0.00123166 0.161341 0.474 255 255 255
0.0835348 0.0862436 0.608 255 255 255
-0.287601 0.0468044 0.623 255 255 255
-0.218429 -0.116381 0.587 255 255 255
0.105947 -0.0756237 0.728 255 255 255
0.0151289 -0.0780297 0.815 255 255 255
-0.0204841 0.169313 0.456 255 255 255
0.169435 -0.176051 0.637 255 255 255
-0.0602736 0.0960586 0.556 255 255 255
0.188587 0.117396 0.581 255 255 255
0.0356978 0.143183 0.483 255 255 255
-0.201146 -0.0173953 0.635 0 0 0
-0.0634237 0.0935102 0.568 0 0 0
0.0290386 -0.17586 0.731 255 255 255
-0.00252307 0.0807972 0.597 255 255 255
0.26874 -0.0384399 0.593 255 255 255
-0.210611 0.156002 0.422 255 255 255
0.0393673 -0.202452 0.724 255 255 255
0.274647 -0.0586638 0.583 255 255 255
0.0534337 0.141991 0.487 255 255 255
0.200437 0.0858687 0.702 255 255 255
-0.181424 -0.0684061 0.669 255 255 255
0.0938096 0.160478 0.467 255 255 255
0.116618 0.165168 0.461 255 255 255
-0.046698 -0.187114 0.516 255 255 255
0.217905 -0.209739 0.581 255 255 255
-0.220918 -0.124765 0.586 255 255 255
0.239405 0.143354 0.55 255 255 255
0.0197595 -0.13949 0.74 255 255 255
0.157164 -0.15651 0.655 255 255 255
0.19066 -0.154427 0.625 255 255 255
-0.0383799 0.132709 0.506 255 255 255
-0.143808 0.112701 0.524 255 255 255
-0.167781 -0.240878 0.689 255 255 255
-0.080473 0.162335 0.447 255 255 255
0.226458 -0.166724 0.586 255 255 255
0.29681 0.0372032 0.599 255 255 255
0.236835 0.00120884 0.637 255 255 255
0.0655983 0.113611 0.549 255 255 255
0.216792 -0.0608919 0.636 255 255 255
-0.150951 0.13654 0.479 255 255 255
-0.13675 0.0827853 0.577 0 0 0
0.0390411 -0.191427 0.718 255 255 255
0.00754714 0.0407232 0.858 255 255 255
-0.3022 0.0589262 0.592 255 255 255
-0.0506128 0.153628 0.474 255 255 255
-0.0254519 0.0284722 0.724 0 0 0
-0.157217 0.0765246 0.594 255 255 255
0.174259 0.152689 0.504 255 255 255
0.0591284 0.0693421 0.644 0 0 0
0.0592003 0.149628 0.476 255 255 255
0.173157 -0.109611 0.655 255 255 255
-0.195512 -0.219094 0.684 255 255 255
0.118182 0.0373577 0.761 255 255 255
-0.186738 0.125863 0.489 0 0 0
0.103885 0.136214 0.513 255 255 255
-0.188577 -0.0169031 0.656 0 0 0
-0.0449693 0.112946 0.506 0 0 0
-0.213348 -0.213547 0.677 0 0 0
0.231446 0.190272 0.493 255 255 255
0.254637 0.12988 0.648 0 0 0
0.129059 -0.192158 0.664 255 255 255
0.185237 -0.226888 0.604 255 255 255
-0.227127 0.115426 0.492 255 255 255
0.0433438 0.126584 0.518 255 255 255
0.000295071 0.175482 0.449 255 255 255
0.197026 -0.18554 0.607 255 255 255
0.148559 -0.244605 0.632 255 255 255
0.0433597 0.0639871 0.676 255 255 255
0.0809101 -0.199717 0.706 255 255 255
0.243159 0.0324592 0.64 255 255 255
0.0627273 -0.0467538 0.78 255 255 255
-0.221931 0.148451 0.432 255 255 255
0.232755 0.186022 0.501 255 255 255
0.11257 0.172471 0.445 255 255 255
0.169741 -0.0740703 0.671 255 255 255
0.320884 0.191164 0.631 255 255 255
0.117956 0.0907947 0.612 255 255 255
0.119165 -0.156558 0.688 255 255 255
-0.216205 0.130151 0.47 255 255 255
-0.130091 0.153904 0.45 255 255 255
-0.260028 0.0697723 0.586 255 255 255
0.0736836 -0.0630352 0.762 255 255 255
-0.140683 0.160069 0.433 255 255 255
0.302088 0.128116 0.624 255 255 255
0.238223 -0.178877 0.573 255 255 255
0.0834979 0.0695575 0.646 255 255 255
-0.152931 0.10663 0.532 255 255 255
0.258317 -0.128779 0.57 255 255 255
-0.270453 -0.0627823 0.614 0 0 0
-0.163031 0.0418614 0.674 255 255 255
0.152164 0.0333683 0.728 255 255 255
0.0881715 -0.131304 0.728 255 255 255
0.270491 -0.147066 0.555 255 255 255
0.127938 -0.133971 0.687 255 255 255
0.226669 0.121662 0.607 255 255 255
-0.0127416 0.0562033 0.675 255 255 255
0.249616 0.149482 0.543 255 255 255
0.0721838 0.142193 0.496 255 255 255
-0.249965 0.100064 0.516 255 255 255
-0.266148 0.0814351 0.555 255 255 255
-0.19481 -0.188986 0.615 0 0 0
0.0776424 0.171965 0.44 255 255 255
-0.105659 -0.045622 0.741 255 255 255
-0.253506 -0.162099 0.557 0 0 0
0.200431 -0.224705 0.588 255 255 255
-0.288802 0.0121382 0.668 255 255 255
0.260713 0.093259 0.65 255 255 255
-0.356947 -0.0434671 0.706 255 255 255
-0.187865 -0.155324 0.877 255 255 255
0.184427 -0.0611341 0.661 255 255 255
-0.163293 0.0756852 0.595 255 255 255
0.155649 -0.039737 0.701 255 255 255
0.157766 0.0692878 0.732 255 255 255
-0.0652197 0.101916 0.53 0 0 0
0.126799 -0.123864 0.693 255 255 255
0.0739919 0.117217 0.545 255 255 255
-0.0607021 -0.0759575 0.709 255 255 255
-0.178477 0.0214273 0.687 0 0 0
0.317324 0.156549 0.624 255 255 255
0.0953097 0.140107 0.503 255 255 255
-0.208385 -0.101243 0.605 0 0 0
-0.334415 -0.0902916 0.695 255 255 255
0.273822 -0.153517 0.549 255 255 255
0.0882404 0.146353 0.491 255 255 255
0.231003 -0.202629 0.569 255 255 255
0.244698 -0.128141 0.584 255 255 255
-0.262605 0.106894 0.497 255 255 255
0.0560965 -0.127014 0.759 255 255 255
0.0653324 0.161922 0.454 255 255 255
-0.207397 0.0392528 0.632 255 255 255
-0.0113538 -0.166825 0.513 255 255 255
0.0971153 -0.108197 0.724 255 255 255
-0.269796 0.0330171 0.651 255 255 255
0.11676 0.102195 0.586 255 255 255
-0.20209 -0.0818199 0.622 0 0 0
0.267971 -0.169289 0.548 255 255 255
0.249558 -0.0530012 0.605 255 255 255
0.00490971 0.164152 0.471 255 255 255
0.220531 -0.181646 0.588 255 255 255
-0.157425 -0.222108 0.683 255 255 255
0.0622714 0.0225435 0.807 255 255 255
0.0376882 0.0746906 0.636 255 255 255
0.0242789 -0.17586 0.731 255 255 255
-0.214495 -0.226011 0.695 255 255 255
0.157931 -0.0169218 0.701 255 255 255
0.261998 -0.119408 0.574 255 255 255
0.186629 -0.229884 0.599 255 255 255
0.214658 0.187822 0.495 0 0 0
0.18832 0.0969719 0.708 0 0 0
-0.219359 -0.1834 0.6 0 0 0
-0.124754 -0.0253259 0.747 255 255 255
0.205294 -0.13739 0.617 255 255 255
-0.136041 0.0328918 0.693 0 0 0
-0.267309 0.0169684 0.645 255 255 255
0.211425 -0.213673 0.584 255 255 255
0.198553 -0.0836659 0.644 255 255 255
0.013681 -0.150918 0.737 255 255 255
0.208127 -0.0745805 0.638 255 255 255
-0.246707 0.06851 0.6 255 255 255
0.267891 -0.149946 0.559 255 255 255
0.0946246 -0.0535704 0.751 255 255 255
0.237684 -0.115062 0.595 255 255 255
-0.0923723 -0.0679508 0.722 255 255 255
-0.0372407 -0.184356 0.513 0 0 0
0.218154 -0.0795433 0.628 255 255 255
-0.174883 -0.0421606 0.723 255 255 255
0.275807 0.0619123 0.622 255 255 255
-0.154372 0.106429 0.531 255 255 255
-0.071791 -0.0510738 0.716 255 255 255
0.274145 -0.0801762 0.574 255 255 255
0.254637 0.128825 0.648 0 0 0
0.00205812 -0.163349 0.526 255 255 255
0.0585355 -0.0358735 0.792 255 255 255
0.310652 0.158826 0.629 255 255 255
0.0825782 0.0919908 0.594 255 255 255
0.12731 -0.220464 0.655 255 255 255
-0.211745 -0.0781277 0.609 0 0 0
-0.13834 -0.177068 0.908 255 255 255
0.0568788 -0.133363 0.753 255 255 255
0.0253643 -0.282945 0.728 255 255 255
-0.184305 0.12478 0.491 255 255 255
0.215429 -0.077993 0.632 255 255 255
-0.151861 0.163854 0.421 0 0 0
-0.0588874 0.0807972 0.597 255 255 255
-0.0896757 0.0537987 0.659 255 255 255
-0.236311 0.0647946 0.611 255 255 255
-0.137412 0.00373032 0.724 0 0 0
0.0821478 -0.216453 0.697 255 255 255
-0.22222 0.123809 0.478 255 255 255
-0.152828 0.136044 0.48 255 255 255
-0.225738 -0.130617 0.574 0 0 0
0.195837 0.016832 0.682 255 255 255
-0.206938 0.149499 0.433 255 255 255
0.101258 -0.0705619 0.737 255 255 255
0.067605 0.0745732 0.635 255 255 255
0.251904 -0.0807637 0.592 255 255 255
0.13036 -0.00814051 0.732 255 255 255
0.148819 0.0827084 0.642 255 255 255
0.293616 0.139015 0.632 255 255 255
0.213701 -0.0958363 0.621 255 255 255
-0.137151 -0.0354262 0.755 0 0 0
0.137711 0.0463332 0.746 255 255 255
-0.080293 0.163423 0.446 255 255 255
-0.00303022 -0.196994 0.717 255 255 255
0.0179816 0.159124 0.472 255 255 255
0.0341262 -0.0773113 0.794 255 255 255
-0.00773233 0.130629 0.495 255 255 255
0.145272 -0.153258 0.664 255 255 255
-0.165861 0.13906 0.464 255 255 255
-0.121182 -0.244642 0.88 255 255 255
0.275116 -0.17329 0.541 255 255 255
-0.169337 0.154792 0.436 255 255 255
-0.213183 -0.169108 0.591 0 0 0
-0.250885 -0.188243 0.603 255 255 255
-0.160222 0.161261 0.425 255 255 255
-0.0834297 -0.0411541 0.726 255 255 255
0.0665849 0.0833686 0.616 255 255 255
-0.148639 -0.22849 0.873 255 255 255
-0.224365 0.0406561 0.622 255 255 255
0.160756 0.0414323 0.724 255 255 255
-0.173787 0.0632171 0.615 255 255 255
-0.245756 -0.12652 0.56 0 0 0
0.252509 0.0022102 0.627 255 255 255
0.101609 0.162918 0.461 255 255 255
-0.23296 0.0983919 0.525 255 255 255
-0.252434 0.0915666 0.53 255 255 255
0.231032 -0.183563 0.576 255 255 255
0.0118318 0.0821693 0.586 0 0 0
-0.220008 0.0418023 0.624 255 255 255
-0.113047 -0.0156637 0.75 255 255 255
-0.201091 0.113095 0.503 255 255 255
0.296809 0.0675556 0.609 255 255 255
0.1041 0.152615 0.483 255 255 255
0.184248 -0.0991013 0.649 255 255 255
-0.231016 -0.0541051 0.585 0 0 0
-0.196393 -0.164413 0.733 255 255 255
-0.00845185 0.134892 0.49 0 0 0
-0.201144 0.129488 0.476 255 255 255
0.0944986 -0.0559401 0.75 255 255 255
-0.0970519 0.120595 0.507 255 255 255
-0.0583963 -0.00270375 0.906 255 255 255
0.185753 0.174169 0.465 255 255 255
-0.201401 -0.0758685 0.623 0 0 0
-0.0354976 0.16006 0.468 255 255 255
0.150541 -0.0887326 0.683 255 255 255
0.193588 -0.107804 0.638 255 255 255
-0.14361 0.0915002 0.567 255 255 255
0.246278 -0.126537 0.581 255 255 255
0.125853 0.0382918 0.755 255 255 255
0.132813 -0.0757433 0.707 255 255 255
0.145452 -0.104942 0.68 255 255 255
0.254988 -0.0945711 0.588 255 255 255
-0.171785 0.0632171 0.615 255 255 255
0.123548 -0.014135 0.734 255 255 255
-0.185222 0.0465736 0.648 255 255 255
0.0355626 -0.153355 0.743 255 255 255
-0.200708 -0.0739594 0.624 0 0 0
0.300175 0.0428362 0.596 255 255 255
-0.0799069 0.0511955 0.667 255 255 255
-0.0819435 0.0413694 0.684 255 255 255
0.23322 0.0482161 0.656 255 255 255
-0.259443 -0.248755 0.668 255 255 255
0.0270286 0.15277 0.469 0 0 0
-0.00314855 -0.156193 0.745 255 255 255
0.0956641 0.0736556 0.636 255 255 255
0.0311606 -0.271161 0.725 255 255 255
-0.178811 0.0202206 0.684 0 0 0
0.0981419 0.105339 0.572 255 255 255
0.23786 0.0858003 0.666 255 255 255
0.016395 -0.0790639 0.812 255 255 255
0.242455 0.160339 0.535 0 0 0
0.0474197 -0.232119 0.721 255 255 255
0.109849 -0.143341 0.7 255 255 255
-0.146095 0.14421 0.466 255 255 255
0.157694 0.162158 0.481 255 255 255
-0.015669 0.0860472 0.58 255 255 255
-0.0339922 -0.137931 0.849 255 255 255
-0.204957 0.0465991 0.634 255 255 255
0.175301 0.114201 0.584 255 255 255
0.151746 0.0297323 0.726 255 255 255
-0.218263 -0.167105 0.584 255 255 255
-0.259216 0.0912211 0.528 0 0 0
-0.24408 -0.255871 0.712 0 0 0
-0.208936 0.152987 0.427 255 255 255
0.314247 0.16164 0.628 255 255 255
-0.200427 -0.0267375 0.636 255 255 255
0.252799 0.0621987 0.646 255 255 255
-0.253655 -0.103309 0.578 0 0 0
-0.206415 -0.111089 0.605 255 255 255
0.0195476 0.0507151 0.69 0 0 0
-0.012062 -0.00537796 0.862 255 255 255
0.253695 0.174485 0.533 255 255 255
-0.331038 -0.148887 0.659 255 255 255
-0.0237614 0.0706087 0.646 0 0 0
-0.0842863 0.0452858 0.676 255 255 255
-0.259882 -0.0843314 0.59 0 0 0
0.165862 -0.0619665 0.682 255 255 255
0.122236 0.143413 0.506 255 255 255
0.031506 0.00426101 0.827 255 255 255
0.271802 -0.0846989 0.573 255 255 255
-0.0894909 0.00992689 0.747 0 0 0
-0.234776 -0.259557 0.719 0 0 0
0.142047 0.105168 0.592 255 255 255
-0.304931 0.0442018 0.615 255 255 255
-0.230717 0.143385 0.438 255 255 255
-0.142007 0.129562 0.494 255 255 255
-0.354419 -0.0568483 0.701 255 255 255
-0.324133 0.0418693 0.625 255 255 255
0.185227 0.057554 0.705 255 255 255
0.161278 0.103488 0.599 255 255 255
-0.125479 -0.231754 0.88 255 255 255
-0.111374 0.119377 0.516 255 255 255
-0.225499 -0.0166009 0.606 0 0 0
-0.069916 -0.0260441 0.733 255 255 255
0.0515078 0.106965 0.561 255 255 255
-0.248155 0.122774 0.477 255 255 255
-0.194263 0.0836735 0.564 255 255 255
0.0705452 0.12119 0.539 255 255 255
0.0869054 0.0628512 0.664 255 255 255
-0.225587 -0.119824 0.576 0 0 0
-0.179721 -0.0167266 0.743 255 255 255
-0.351269 -0.00219344 0.735 255 255 255
0.294204 0.0783565 0.616 255 255 255
-0.0269547 -0.171813 0.508 255 255 255
0.199733 0.12564 0.567 255 255 255
-0.0333718 0.129159 0.505 255 255 255
-0.0367562 -0.0978642 0.849 255 255 255
-0.248392 0.0421373 0.629 255 255 255
0.0783669 -0.157899 0.725 255 255 255
-0.193605 -0.0792715 0.634 255 255 255
0.283226 -0.0181135 0.591 255 255 255
-0.190206 -0.0913739 0.923 0 0 0
0.184566 -0.153071 0.632 255 255 255
0.241635 -0.0945483 0.6 255 255 255
-0.20318 0.0791368 0.571 255 255 255
0.127122 0.0208954 0.748 255 255 255
-0.0182452 -0.185668 0.519 255 255 255
0.0107851 0.0852501 0.581 0 0 0
0.165691 0.109056 0.587 255 255 255
-0.00615756 -0.105582 0.823 255 255 255
0.00280938 -0.21129 0.718 255 255 255
-0.2241 -0.138811 0.577 0 0 0
-0.338701 -0.175617 0.643 255 255 255
-0.108765 0.10663 0.532 255 255 255
-0.186354 0.102973 0.531 255 255 255
-0.246139 -0.065753 0.587 255 255 255
0.19662 -0.171973 0.615 255 255 255
0.182474 -0.0881578 0.654 255 255 255
-0.177765 -0.00930622 0.73 255 255 255
0.0148452 0.162274 0.47 0 0 0
-0.229149 -0.0526473 0.59 255 255 255
-0.00352046 -0.0729753 0.833 255 255 255
-0.120021 -0.225104 0.882 255 255 255
0.0724659 -0.141323 0.737 255 255 255
0.0442032 -0.212463 0.726 255 255 255
0.051629 -0.0559957 0.785 255 255 255
0.284364 0.0802607 0.623 255 255 255
0.188069 0.143906 0.529 255 255 255
-0.171117 -0.0719706 0.727 255 255 255
-0.187809 0.109301 0.516 255 255 255
0.0679012 0.0157595 0.796 255 255 255
0.250902 0.0670204 0.652 255 255 255
-0.0659074 0.161504 0.457 255 255 255
-0.107488 0.0169901 0.737 0 0 0
-0.237352 0.105744 0.507 255 255 255
-0.331387 -0.182372 0.641 255 255 255
0.0461621 -0.113881 0.779 255 255 255
-0.214972 -0.110838 0.588 0 0 0
-0.045685 -0.0908407 0.861 255 255 255
-0.314258 -0.18671 0.638 255 255 255
-0.159347 0.13037 0.488 255 255 255
-0.146026 0.162399 0.428 255 255 255
-0.173326 -0.112834 0.643 255 255 255
-0.22908 0.101228 0.522 255 255 255
0.0788631 0.0194728 0.789 255 255 255
0.247237 -0.0150631 0.624 255 255 255
0.145494 -0.137198 0.67 255 255 255
0.279726 0.0109026 0.6 255 255 255
0.0537764 0.149628 0.476 255 255 255
0.176047 0.0288723 0.705 255 255 255
0.157107 -0.185897 0.646 255 255 255
0.0966358 0.0305565 0.777 255 255 255
0.024775 -0.0132344 0.827 255 255 255
0.0988899 0.167093 0.452 255 255 255
-0.153487 -0.00450451 0.722 255 255 255
0.247616 -0.15781 0.571 255 255 255
-0.0936801 0.110122 0.545 255 255 255
0.16086 0.0187837 0.714 255 255 255
-0.0736286 0.00173072 0.912 255 255 255
-0.182948 0.151226 0.438 255 255 255
-0.151207 -0.00809603 0.728 255 255 255
-0.0520807 -0.135486 0.851 255 255 255
-0.0657654 0.0170592 0.74 0 0 0
-0.0410589 0.161016 0.462 255 255 255
0.274648 -0.0705102 0.579 255 255 255
0.282641 -0.0412299 0.578 255 255 255
0.229398 -0.111823 0.609 255 255 255
0.00698408 0.0612385 0.67 0 0 0
-0.199037 0.0936398 0.542 255 255 255
-0.323024 -0.0727991 0.69 255 255 255
-0.28399 -0.0237812 0.64 255 255 255
-0.0158954 0.0600584 0.669 255 255 255
0.282641 -0.0525171 0.578 255 255 255
0.121735 0.0903857 0.616 255 255 255
-0.130219 0.0932707 0.561 0 0 0
0.126054 0.127566 0.54 255 255 255
-0.177801 -0.100169 0.921 255 255 255
-0.150151 0.124687 0.497 255 255 255
0.0290053 0.0830014 0.606 255 255 255
0.23124 0.188201 0.496 255 255 255
-0.153143 0.141322 0.469 255 255 255
-0.0379532 0.0641311 0.655 255 255 255
0.19969 0.0311682 0.68 255 255 255
0.0465241 0.161858 0.458 0 0 0
-0.155669 0.0327494 0.69 0 0 0
-0.298757 -0.188403 0.623 0 0 0
-0.0499126 0.168881 0.447 255 255 255
-0.278591 -0.0634981 0.621 255 255 255
-0.0317799 -0.0475708 0.864 255 255 255
0.190424 0.0608227 0.703 255 255 255
0.228251 0.0331693 0.654 255 255 255
-0.245264 0.0633199 0.616 255 255 255
-0.192008 0.154738 0.428 255 255 255
0.0634011 -0.241196 0.703 255 255 255
-0.169412 0.15859 0.429 255 255 255
0.0192789 -0.226567 0.722 255 255 255
-0.176992 -0.0526767 0.722 255 255 255
-0.296984 -0.00520746 0.662 255 255 255
0.0999097 0.154924 0.478 255 255 255
0.111532 0.161584 0.468 255 255 255
0.126386 0.097802 0.6 255 255 255
0.0400751 0.160667 0.461 255 255 255
0.227551 0.0824437 0.674 255 255 255
0.270559 -0.134906 0.557 255 255 255
0.0655559 0.000216038 0.799 255 255 255
0.206696 -0.0727313 0.64 255 255 255
-0.0584508 -0.0457535 0.724 0 0 0
-0.0755588 -0.101894 0.697 0 0 0
-0.351619 -0.0958063 0.678 255 255 255
-0.121032 0.156485 0.449 255 255 255
-0.155629 0.134981 0.479 255 255 255
0.132347 0.132966 0.53 255 255 255
-0.233826 -0.1727 0.562 255 255 255
-0.263562 -0.00599045 0.631 255 255 255
-0.300671 0.0260733 0.663 255 255 255
-0.150488 0.0721742 0.598 255 255 255
-0.0143854 -0.134137 0.834 255 255 255
0.198299 -0.17469 0.614 255 255 255
0.146494 0.140303 0.522 255 255 255
-0.30699 0.0239876 0.665 255 255 255
0.227573 -0.0626887 0.623 255 255 255
-0.00765423 0.135689 0.49 0 0 0
-0.0961834 0.16443 0.439 255 255 255
-0.0823275 0.085818 0.605 255 255 255
0.0160966 0.170789 0.462 255 255 255
-0.0861478 -0.0377652 0.729 0 0 0
-0.242743 0.0398351 0.625 255 255 255
-0.00119788 0.168919 0.461 0 0 0
-0.172768 -0.0598917 0.724 255 255 255
-0.144089 0.145979 0.462 255 255 255
0.203716 0.0133639 0.675 255 255 255
0.139054 0.136242 0.526 255 255 255
-0.225464 0.126124 0.475 255 255 255
0.111138 -0.191255 0.68 255 255 255
0.152601 0.176655 0.452 255 255 255
0.254191 -0.212359 0.551 255 255 255
0.0785164 0.159512 0.462 255 255 255
0.127592 -0.243484 0.651 255 255 255
-0.0754257 0.121848 0.523 255 255 255
0.0543221 -0.00240532 0.806 255 255 255
-0.179755 0.147456 0.446 255 255 255
-0.012118 0.00305269 0.866 255 255 255
0.220646 -0.0879047 0.615 255 255 255
-0.23167 -0.0385047 0.594 0 0 0
-0.244517 0.120951 0.479 255 255 255
-0.213919 0.0473303 0.63 255 255 255
0.0100366 0.171547 0.46 255 255 255
0.149577 0.102513 0.599 255 255 255
0.162369 -0.0578646 0.686 255 255 255
0.205823 -0.216681 0.587 255 255 255
-0.166895 -0.00329268 0.714 255 255 255
-0.097274 0.0812032 0.6 255 255 255
-0.224365 0.0426805 0.622 255 255 255
0.236004 -0.0142277 0.632 255 255 255
0.134787 0.0478022 0.75 255 255 255
0.194016 -0.111606 0.636 255 255 255
0.160641 -0.225915 0.623 255 255 255
0.144032 -0.0692977 0.7 255 255 255
-0.0806557 0.164858 0.444 255 255 255
-0.141846 0.102328 0.546 255 255 255
0.101831 -0.224564 0.677 255 255 255
0.145448 0.170789 0.462 255 255 255
0.123954 0.151637 0.49 255 255 255
0.151617 -0.0561996 0.693 255 255 255
-0.216886 -0.106053 0.588 255 255 255
-0.306823 -0.22967 0.642 255 255 255
0.210581 0.185458 0.493 255 255 255
0.223401 -0.189589 0.583 255 255 255
-0.0191782 0.157587 0.479 255 255 255
0.0524158 0.128614 0.516 255 255 255
0.24342 -0.0840873 0.602 255 255 255
-0.0937608 -0.198905 0.556 255 255 255
-0.180882 -0.0260441 0.733 0 0 0
-0.105255 0.141904 0.484 255 255 255
-0.0523021 0.0241861 0.737 0 0 0
0.0967661 -0.201342 0.688 255 255 255
-0.36781 -0.0251203 0.707 255 255 255
-0.107832 0.0736226 0.61 255 255 255
-0.0415775 -0.190104 0.515 0 0 0
0.0308679 0.172292 0.458 0 0 0
-0.115185 0.156485 0.449 255 255 255
0.00289937 -0.283175 0.741 255 255 255
-0.181378 -0.0393811 0.657 0 0 0
-0.0722958 -0.192941 0.525 255 255 255
0.00408895 -0.267616 0.738 255 255 255
0.134333 0.0976324 0.605 255 255 255
-0.0302624 -0.171813 0.508 0 0 0
0.131694 0.162965 0.472 255 255 255
-0.0342309 0.106353 0.518 0 0 0
0.12302 -0.0698138 0.717 255 255 255
-0.0311158 0.0971454 0.537 0 0 0
-0.0621162 0.159512 0.462 255 255 255
-0.0280392 -0.0040536 0.879 255 255 255
0.242087 -0.060487 0.611 255 255 255
0.286288 0.127074 0.634 255 255 255
-0.22048 -0.0567872 0.614 255 255 255
-0.267604 0.0891471 0.531 255 255 255
0.108711 -0.102198 0.715 255 255 255
0.205081 -0.0876634 0.635 255 255 255
-0.03666 0.133268 0.505 255 255 255
-0.0186486 0.12142 0.507 255 255 255
-0.273787 0.0733039 0.569 255 255 255
-0.102456 -0.200887 0.559 255 255 255
-0.16157 -0.0688919 0.732 255 255 255
-0.0481903 -0.167987 0.514 0 0 0
-0.270901 -0.227549 0.686 255 255 255
0.247983 -0.149299 0.574 255 255 255
0.221812 0.0194224 0.657 255 255 255
0.212795 0.0208659 0.669 255 255 255
-0.0631673 0.17047 0.438 255 255 255
-0.267737 -0.154586 0.566 0 0 0
0.110705 0.0873784 0.616 255 255 255
0.00204639 -0.168375 0.523 0 0 0
0.0388236 -0.181065 0.714 255 255 255
0.188861 -0.0775151 0.654 255 255 255
0.198469 -0.0993422 0.637 255 255 255
-0.373533 0.0118784 0.718 255 255 255
0.0429929 0.122933 0.524 255 255 255
-0.218817 0.127402 0.474 255 255 255
-0.208838 -0.0702311 0.618 0 0 0
-0.165435 -0.108607 0.649 255 255 255
0.12922 0.14925 0.498 255 255 255
0.10906 -0.221375 0.674 255 255 255
0.140329 -0.118568 0.682 255 255 255
-0.348608 -0.116134 0.668 255 255 255
0.0546882 -0.207165 0.724 255 255 255
0.160547 -0.0687262 0.683 255 255 255
-0.0417416 0.0918554 0.575 255 255 255
0.261652 0.117426 0.655 255 255 255
0.0812242 0.120536 0.54 255 255 255
0.195661 -0.182089 0.612 255 255 255
-0.155622 -0.0900932 0.941 255 255 255
0.321915 0.204888 0.629 255 255 255
-0.145481 -0.00692082 0.729 255 255 255
0.193555 -0.160743 0.618 255 255 255
-0.0431585 0.0927489 0.569 255 255 255
0.142165 -0.2129 0.645 255 255 255
0.21577 -0.0688455 0.633 255 255 255
0.270851 0.149109 0.583 255 255 255
-0.0832696 -0.194394 0.873 255 255 255
-0.0396156 0.152765 0.481 255 255 255
0.222796 0.146354 0.538 255 255 255
0.210568 -0.00628475 0.662 255 255 255
0.0770872 0.0423142 0.784 0 0 0
0.148983 0.169993 0.466 255 255 255
0.253306 0.177846 0.525 255 255 255
-0.146938 0.132229 0.489 255 255 255
-0.0369996 0.0621886 0.657 255 255 255
-0.0878022 0.0147102 0.743 0 0 0
0.0786275 -0.090114 0.75 255 255 255
0.0915366 -0.0980135 0.736 255 255 255
-0.235194 -0.175773 0.572 255 255 255
-0.250209 0.050486 0.631 255 255 255
0.0257451 0.0878913 0.599 255 255 255
0.098587 -0.0639677 0.744 255 255 255
0.212736 0.0821551 0.69 255 255 255
0.215165 0.078444 0.687 255 255 255
-0.230986 -0.133848 0.564 255 255 255
0.300678 0.0438796 0.597 255 255 255
-0.241731 -0.0839904 0.581 255 255 255
-0.150865 0.088274 0.57 255 255 255
0.227282 -0.198561 0.576 255 255 255
-0.281693 0.00768505 0.659 255 255 255
-0.141568 0.0640395 0.623 255 255 255
0.00902647 -0.182003 0.533 255 255 255
-0.248526 -0.15457 0.556 0 0 0
0.303238 0.0760983 0.606 255 255 255
0.117527 -0.0982934 0.712 255 255 255
0.273647 0.0641423 0.624 255 255 255
0.0700499 -0.00622221 0.791 255 255 255
-0.0948361 -0.19473 0.557 255 255 255
-0.0566962 -0.193057 0.523 255 255 255
0.0313917 -0.00245904 0.824 255 255 255
0.0959368 -0.116445 0.724 255 255 255
-0.258622 0.00945696 0.634 255 255 255
0.23536 0.0613055 0.659 255 255 255
0.207489 0.0804885 0.695 255 255 255
0.21674 -0.16181 0.596 255 255 255
-0.237818 -0.0785872 0.583 255 255 255
0.124726 -0.00221135 0.741 255 255 255
0.237851 -0.124325 0.593 255 255 255
0.026879 0.075277 0.65 255 255 255
-0.230986 -0.144862 0.564 255 255 255
-0.101887 0.105058 0.551 255 255 255
-0.215795 0.138526 0.45 255 255 255
0.134115 0.0848573 0.627 255 255 255
-0.353883 -0.0944236 0.676 255 255 255
0.253673 0.121913 0.662 255 255 255
0.203025 -0.0213668 0.662 255 255 255
0.145684 -0.0712692 0.697 255 255 255
-0.169921 -0.116838 0.642 255 255 255
-0.122562 0.033725 0.687 255 255 255
0.202869 -0.131034 0.625 255 255 255
0.0604718 0.104602 0.568 255 255 255
0.191377 -0.00312667 0.678 255 255 255
-0.108009 0.0935639 0.574 255 255 255
-0.232523 -0.0559133 0.584 0 0 0
0.070227 -0.003657 0.793 255 255 255
-0.315297 -0.181519 0.638 255 255 255
-0.155821 0.105963 0.533 255 255 255
0.23519 -0.170736 0.577 255 255 255
0.0717776 -0.166116 0.73 255 255 255
0.0921814 0.117138 0.553 255 255 255
-0.350316 0.0390203 0.663 255 255 255
0.152899 -0.168235 0.655 255 255 255
-0.232032 0.106779 0.508 255 255 255
0.14346 -0.0115221 0.72 255 255 255
0.260464 -0.104791 0.581 255 255 255
0.0380819 0.11505 0.539 255 255 255
0.175988 0.150062 0.509 255 255 255
0.113208 -0.100893 0.714 255 255 255
0.291558 0.1421 0.632 255 255 255
0.0802491 0.0284966 0.79 255 255 255
-0.100536 0.0479392 0.667 255 255 255
0.203265 -0.13604 0.62 255 255 255
0.0342144 -0.135877 0.74 255 255 255
-0.155957 0.141176 0.466 255 255 255
0.153323 0.0950881 0.614 255 255 255
0.0874427 -0.208745 0.694 255 255 255
-0.0690086 0.107995 0.526 0 0 0
-0.0894097 0.0499598 0.665 255 255 255
-0.169316 0.078756 0.589 255 255 255
-0.00834655 0.0584002 0.675 255 255 255
-0.166145 0.163076 0.419 255 255 255
-0.30078 0.0590257 0.593 255 255 255
0.283432 -0.0687269 0.572 255 255 255
0.0238576 0.123576 0.516 255 255 255
-0.211713 0.136219 0.457 255 255 255
-0.288311 0.0494459 0.618 255 255 255
0.161886 0.0909726 0.62 255 255 255
0.218135 -0.140333 0.608 255 255 255
-0.189149 -0.0366759 0.647 0 0 0
0.239302 0.0722482 0.661 255 255 255
-0.265863 -0.118768 0.58 0 0 0
-0.218465 -0.164164 0.577 255 255 255
0.0909731 0.0955345 0.592 255 255 255
-0.0327122 0.0510116 0.679 255 255 255
0.124111 -0.231123 0.655 255 255 255
0.0191988 -0.219775 0.719 255 255 255
-0.34175 -0.0271255 0.73 255 255 255
-0.0134023 0.0371649 0.71 0 0 0
0.255151 0.138004 0.561 255 255 255
0.0487956 -0.224838 0.724 255 255 255
-0.0657084 -0.201394 0.527 0 0 0
-0.0473345 0.0555372 0.667 255 255 255
-0.0367709 0.0452969 0.693 255 255 255
0.159518 -0.18922 0.643 255 255 255
0.216454 -0.0806935 0.629 255 255 255
-0.154041 0.0825555 0.582 255 255 255
-0.349211 -0.0649261 0.702 255 255 255
-0.29723 0.0640506 0.586 255 255 255
-0.186311 0.105427 0.526 255 255 255
0.0288138 0.0863721 0.602 255 255 255
-0.0990573 0.0757318 0.611 0 0 0
0.261114 0.100818 0.651 255 255 255
0.136396 -0.134621 0.679 255 255 255
-0.171011 0.00357059 0.693 255 255 255
-0.208765 0.135454 0.462 255 255 255
0.0848773 0.151983 0.481 255 255 255
-0.0884127 -0.019016 0.738 255 255 255
-0.267943 0.0557181 0.644 255 255 255
-0.182776 0.113616 0.509 255 255 255
-0.168915 0.147314 0.45 255 255 255
0.221843 0.183035 0.504 0 0 0
0.0270964 -0.152146 0.743 255 255 255
0.106239 -0.206937 0.677 255 255 255
0.00188968 -0.069758 0.827 255 255 255
-0.159134 -0.184109 0.892 255 255 255
-0.144908 -0.0355201 0.757 255 255 255
-0.240628 -0.252536 0.719 0 0 0
0.120783 0.110342 0.569 255 255 255
0.0810132 -0.22099 0.697 255 255 255
0.277527 -0.162742 0.544 255 255 255
0.0554796 0.168564 0.452 255 255 255
0.00504902 0.0879593 0.574 0 0 0
-0.139433 -0.0142699 0.741 255 255 255
-0.088477 0.162335 0.447 255 255 255
-0.188587 0.15642 0.425 255 255 255
0.250451 0.0532891 0.64 255 255 255
-0.336379 -0.121565 0.674 255 255 255
0.0715179 0.0105382 0.793 255 255 255
0.133256 0.117424 0.563 255 255 255
0.0180284 -0.204564 0.719 255 255 255
0.250092 -0.0099378 0.621 255 255 255
0.187908 -0.161805 0.626 255 255 255
-0.206855 0.0733356 0.584 255 255 255
0.0711496 0.159104 0.463 255 255 255
-0.187211 0.109092 0.519 255 255 255
-0.32617 -0.192803 0.641 255 255 255
0.211523 0.112726 0.665 255 255 255
-0.0414968 -0.161295 0.514 0 0 0
0.0689872 -0.0390877 0.779 255 255 255
0.050387 0.121754 0.53 255 255 255
-0.197773 -0.11951 0.618 255 255 255
0.26378 -0.0244902 0.606 255 255 255
0.2425 0.0676372 0.658 255 255 255
0.0222147 0.133852 0.498 255 255 255
0.0817944 -0.148256 0.724 255 255 255
0.251757 0.0964016 0.657 255 255 255
0.138198 0.136242 0.526 255 255 255
0.239674 -0.13476 0.588 255 255 255
-0.248369 0.115362 0.485 255 255 255
-0.331822 -0.207289 0.628 255 255 255
-0.186932 -0.121318 0.9 0 0 0
0.284388 0.0319304 0.61 255 255 255
-0.0367197 0.0821796 0.6 0 0 0
-0.199477 -0.168497 0.71 0 0 0
-0.0803384 0.112902 0.533 255 255 255
0.0421797 0.0885693 0.597 255 255 255
0.226756 0.154699 0.519 255 255 255
-0.176792 0.089619 0.561 255 255 255
-0.0716375 -0.114676 0.692 0 0 0
0.262848 -0.0866774 0.58 255 255 255
-0.186067 -0.140412 0.626 255 255 255
0.0810832 -0.116452 0.739 255 255 255
0.187064 0.0479641 0.699 255 255 255
-0.00486471 -0.0809139 0.831 255 255 255
0.210329 -0.11687 0.62 255 255 255
-0.269716 -0.22322 0.683 255 255 255
-0.0818457 0.107067 0.543 255 255 255
-0.25831 -0.104611 0.58 0 0 0
0.202965 -0.17653 0.61 255 255 255
0.100301 -0.173352 0.697 255 255 255
0.0632918 0.164156 0.45 255 255 255
0.291068 0.0929905 0.62 255 255 255
-0.0816611 -0.185444 0.871 255 255 255
0.0661981 -0.188707 0.721 255 255 255
0.0531262 -0.172038 0.735 255 255 255
0.214558 -0.201467 0.59 255 255 255
0.229645 -0.005058 0.643 255 255 255
0.258959 0.119216 0.659 255 255 255
-0.209817 0.0524564 0.63 255 255 255
