ply
format ascii 1.0
comment Created by Open3D
element vertex 1316
property double x
property double y
property double z
property uchar red
property uchar green
property uchar blue
end_header
0.635674 -0.00521651 1.748 255 255 255
0.0757929 -0.760987 2.53 255 255 255
-0.343509 0.216017 2.037 255 255 255
0.382509 0.3363 1.859 0 0 0
-0.26277 -0.76793 2.499 255 255 255
0.425461 0.374563 1.81 255 255 255
0.166419 -0.470167 2.411 255 255 255
0.647132 0.135696 1.696 255 255 255
-0.52694 -0.500493 1.655 0 0 0
0.683081 -0.215946 1.445 255 255 255
0.638771 0.542133 1.473 255 255 255
-0.241102 0.242786 0.687 0 0 0
0.287332 0.179273 1.831 255 255 255
-0.289314 0.0818747 0.652 255 255 255
0.51469 -0.342705 1.935 255 255 255
-0.20323 0.173783 0.458 255 255 255
0.572253 0.0906711 2.051 255 255 255
-0.318693 -0.00591668 1.283 255 255 255
-0.412711 -0.136367 1.024 255 255 255
-0.291964 0.0559266 0.699 255 255 255
0.433704 0.435664 1.682 255 255 255
0.555508 -0.526987 1.821 0 0 0
0.674945 0.133224 1.484 255 255 255
-0.767483 -0.53404 1.579 255 255 255
0.322299 -0.0957396 1.972 255 255 255
-0.0231231 0.301773 1.87 0 0 0
0.678097 0.086704 1.396 255 255 255
0.00865507 -0.0389981 2.212 255 255 255
-0.24391 0.104027 0.778 255 255 255
-0.256932 0.0573974 0.764 255 255 255
0.234911 -0.268212 1.966 0 0 0
-0.236947 0.151123 0.708 255 255 255
0.125272 0.0934563 2.114 255 255 255
-0.4037 -0.472218 2.768 255 255 255
-0.069754 -0.722005 2.582 255 255 255
0.633733 0.244746 1.668 255 255 255
0.383239 0.498928 1.555 255 255 255
0.549253 0.516262 1.524 255 255 255
-0.32626 -0.132273 1.116 255 255 255
-0.360971 -0.136152 1.048 255 255 255
-0.21673 0.156928 0.44 0 0 0
-0.249785 0.198242 0.845 255 255 255
-0.329578 0.0446563 0.719 255 255 255
-0.38446 -0.133242 2.42 255 255 255
0.645568 -0.223907 1.603 255 255 255
0.477198 0.317719 1.911 255 255 255
0.474088 -0.322905 1.911 255 255 255
0.668578 0.50993 1.47 255 255 255
-0.265353 0.141267 0.598 255 255 255
-0.46364 -0.521064 2.672 255 255 255
0.519319 0.525919 1.502 255 255 255
-0.533812 -0.287453 1.203 255 255 255
0.690466 0.16812 1.412 255 255 255
0.608109 -0.464022 1.784 255 255 255
-0.454636 -0.391072 1.513 255 255 255
-0.351646 -0.558522 1.837 0 0 0
-0.506579 -0.0872102 2.347 255 255 255
-0.330851 0.0128048 0.774 255 255 255
0.4351 0.463275 1.616 255 255 255
-0.574043 -0.677545 1.758 255 255 255
-0.500798 -0.228796 1.154 255 255 255
-0.0112925 -0.551502 2.672 255 255 255
-0.342732 0.509103 1.336 0 0 0
-0.493084 -0.10753 2.374 255 255 255
0.234439 -0.0289955 2.017 255 255 255
0.428313 -0.24119 1.929 255 255 255
-0.443363 -0.567129 2.604 255 255 255
-0.256705 0.0994829 0.678 255 255 255
-0.587329 -0.339459 1.173 255 255 255
-0.238804 0.125788 0.735 255 255 255
-0.207118 -0.0727604 2.374 0 0 0
-0.768531 -0.448343 1.459 255 255 255
-0.446904 -0.240069 1.201 255 255 255
-0.30603 0.420591 1.655 255 255 255
-0.408206 -0.476723 2.768 255 255 255
0.111507 0.120978 2.114 255 255 255
-0.494954 0.0239119 2.383 255 255 255
0.64401 0.512655 1.543 255 255 255
0.68065 -0.514163 1.535 255 255 255
0.673358 0.0570385 1.513 255 255 255
-0.535812 -0.439605 1.563 255 255 255
0.676148 0.208704 1.62 255 255 255
-0.469399 0.124048 2.051 0 0 0
0.239254 0.063315 2.03 255 255 255
0.199523 -0.0213891 2.253 255 255 255
-0.287136 0.0838637 1.141 255 255 255
-0.35115 -0.0834003 0.952 255 255 255
0.192902 0.315724 1.899 255 255 255
-0.101335 -0.447584 2.755 255 255 255
0.200473 0.500169 1.551 255 255 255
-0.362074 -0.271203 1.477 0 0 0
-0.122968 -0.164065 2.469 255 255 255
0.119056 0.0423203 2.329 0 0 0
-0.349355 0.0309458 0.7 255 255 255
0.209807 0.250058 1.941 255 255 255
-0.414399 -0.579145 2.582 255 255 255
0.596963 0.0359422 1.978 255 255 255
-0.168969 0.15352 2.136 255 255 255
-0.283523 0.0405877 0.73 255 255 255
0.717496 -0.512998 1.539 255 255 255
-0.84279 -0.600632 1.62 255 255 255
0.292001 0.184718 1.769 0 0 0
0.0840173 -0.648585 2.66 255 255 255
0.470977 -0.319795 1.911 255 255 255
-0.389268 -0.0304115 0.897 255 255 255
0.689615 0.330572 1.439 255 255 255
0.68696 0.254393 1.419 255 255 255
0.088652 0.479575 1.583 255 255 255
0.639353 -0.0341629 1.774 255 255 255
-0.302283 0.392828 1.71 255 255 255
0.480309 0.317719 1.911 255 255 255
-0.400975 -0.571367 2.604 255 255 255
-0.280329 0.507551 1.477 255 255 255
-0.126009 -0.686476 2.707 255 255 255
-0.312387 -0.88998 2.411 255 255 255
0.57008 0.514907 1.52 255 255 255
-0.0798371 0.451723 1.603 255 255 255
0.637058 -0.55295 1.744 255 255 255
-0.252816 0.0516372 0.79 255 255 255
0.114044 0.392697 1.734 255 255 255
-0.454269 -0.125875 1.02 255 255 255
0.509083 -0.621416 1.753 255 255 255
0.0628595 0.427376 1.65 255 255 255
0.641115 -0.161536 1.659 255 255 255
-0.479328 -0.666202 1.789 255 255 255
-0.287948 -0.0336832 0.948 255 255 255
-0.268544 0.0894529 0.669 255 255 255
0.389534 -0.655113 1.729 255 255 255
-0.813148 -0.583616 1.624 255 255 255
0.597144 0.0864918 1.887 255 255 255
-0.315556 -0.0451975 2.347 0 0 0
-0.374053 -0.288873 1.422 255 255 255
-0.357877 -0.0678739 0.91 255 255 255
-0.363675 0.0200294 0.717 255 255 255
0.673352 0.420817 1.502 255 255 255
0.62595 0.253696 1.729 255 255 255
-0.363962 -0.108098 1.009 255 255 255
0.6612 0.34229 1.459 255 255 255
0.471791 -0.218766 1.953 255 255 255
-0.273526 0.0893235 0.66 255 255 255
-0.477561 0.122097 2.196 255 255 255
-0.341343 -0.107089 1.015 255 255 255
-0.431026 -0.176275 1.096 255 255 255
0.700758 0.325529 1.378 255 255 255
0.200044 0.540615 1.456 0 0 0
-0.415258 -0.465517 2.755 255 255 255
0.786969 -0.574034 1.583 0 0 0
-0.0603502 -0.797062 2.54 255 255 255
-0.114549 -0.737955 2.55 255 255 255
0.435981 -0.383187 1.842 255 255 255
0.654902 -0.322604 1.563 255 255 255
0.20976 -0.323465 2.459 0 0 0
0.643273 0.256181 1.637 255 255 255
0.00993847 -0.933465 2.54 255 255 255
-0.861083 -0.635921 1.65 255 255 255
-0.30463 -0.109886 1.11 255 255 255
-0.536682 -0.161733 1.048 255 255 255
-0.359714 0.446087 1.583 255 255 255
-0.320236 -0.897827 2.411 255 255 255
0.682757 -0.200507 1.387 255 255 255
-0.251499 0.271057 0.828 255 255 255
0.256569 -0.073759 1.985 255 255 255
-0.352677 0.252377 1.959 255 255 255
-0.42009 -0.0398141 0.879 255 255 255
0.150705 0.139676 2.085 255 255 255
-0.254397 0.503765 1.48 255 255 255
0.191827 -0.478759 2.338 255 255 255
-0.277754 0.0461092 1.043 255 255 255
-0.517858 -0.503447 2.329 0 0 0
-0.25799 0.508574 1.473 255 255 255
0.560319 0.130277 2.044 255 255 255
-0.079113 0.500231 1.491 255 255 255
-0.244226 0.285019 0.771 255 255 255
0.170944 -0.865303 2.365 0 0 0
0.659366 -0.450577 1.498 255 255 255
0.110508 0.36083 1.815 255 255 255
0.582186 0.326463 1.821 255 255 255
-0.383059 -0.0723165 0.91 255 255 255
0.672571 0.00289971 1.528 255 255 255
-0.381229 -0.0109125 0.856 255 255 255
-0.481451 -0.160381 1.085 255 255 255
0.551164 0.383351 1.769 255 255 255
-0.531015 -0.454384 1.579 255 255 255
0.2525 0.0494594 2.004 255 255 255
0.138532 0.444426 1.624 255 255 255
0.672206 -0.300339 1.339 255 255 255
-0.495065 -0.0955763 2.365 255 255 255
-0.321447 0.425927 1.624 255 255 255
0.671882 -0.0505768 1.567 255 255 255
0.670875 -0.163532 1.439 255 255 255
-0.227357 -0.430976 2.707 255 255 255
-0.237562 0.13976 0.703 255 255 255
-0.317944 -0.692308 2.55 255 255 255
-0.195946 0.105529 0.41 0 0 0
-0.448545 -0.656386 1.794 255 255 255
0.667182 0.0702585 1.65 255 255 255
0.623133 0.14139 1.882 255 255 255
0.0840312 -0.346155 2.805 255 255 255
0.214197 0.415428 1.7 255 255 255
-0.172863 0.46827 1.571 255 255 255
0.412957 0.543214 1.463 255 255 255
0.694727 -0.0249644 1.416 255 255 255
0.282861 0.192091 1.784 255 255 255
0.525801 -0.0130518 2.092 0 0 0
0.212967 0.231106 1.941 0 0 0
0.64563 0.363065 1.714 255 255 255
-0.27074 0.132287 0.597 255 255 255
0.545961 0.115536 2.078 255 255 255
-0.202369 0.101073 0.383 255 255 255
-0.335562 -0.109508 1.378 255 255 255
-0.619023 -0.501906 1.642 0 0 0
0.342598 -0.105687 1.978 255 255 255
0.317932 -0.418645 1.853 255 255 255
-0.345993 0.440574 1.591 255 255 255
-0.388144 0.00445394 2.347 255 255 255
0.226357 0.530147 1.473 255 255 255
0.683215 0.169055 1.524 255 255 255
-0.234345 0.174577 0.674 0 0 0
0.665079 -0.022469 1.563 255 255 255
0.594759 0.241557 1.899 255 255 255
-0.385902 -0.0119749 0.833 255 255 255
0.296656 -0.635418 1.729 255 255 255
0.678266 0.095462 1.425 255 255 255
0.518577 0.558033 1.452 255 255 255
0.278233 0.177006 1.87 255 255 255
-0.430595 -0.0455876 0.88 255 255 255
0.402462 0.460177 1.633 255 255 255
0.656039 0.159496 1.629 255 255 255
0.664104 0.123455 1.543 255 255 255
-0.495435 -0.46755 2.196 0 0 0
-0.386864 0.00621279 0.739 255 255 255
0.308883 -0.346275 1.853 255 255 255
-0.35827 0.417056 1.362 0 0 0
-0.242029 0.12207 0.772 255 255 255
-0.235416 0.179844 0.69 0 0 0
0.591344 -0.351102 1.831 255 255 255
-0.198491 0.322296 1.831 255 255 255
0.679034 -0.14538 1.357 255 255 255
-0.410949 -0.395515 1.633 255 255 255
0.660839 0.302325 1.559 255 255 255
0.207592 -0.304778 2.261 255 255 255
0.664206 0.175025 1.555 255 255 255
-0.360691 0.128361 2.181 255 255 255
0.495779 -0.389477 1.887 255 255 255
-0.486042 -0.108955 1.017 255 255 255
0.472704 -0.353749 1.893 255 255 255
-0.15894 -0.392069 2.743 0 0 0
0.143442 -0.444873 2.489 0 0 0
0.532567 -0.234442 1.978 0 0 0
-0.00379112 0.534606 1.459 255 255 255
-0.41016 -0.554667 1.805 255 255 255
-0.301154 -0.0216455 1.124 0 0 0
0.410214 -0.163627 1.978 255 255 255
-0.465673 -0.875182 2.392 0 0 0
0.64656 -0.621469 1.599 255 255 255
-0.258543 0.0728386 0.72 255 255 255
0.579905 -0.239305 1.842 255 255 255
0.330248 0.370218 1.789 255 255 255
-0.269927 0.0631126 0.716 255 255 255
-0.108832 -0.0678523 2.338 255 255 255
-0.260783 0.0909237 0.68 255 255 255
-0.39506 -0.184964 2.593 0 0 0
0.464048 -0.665473 1.734 255 255 255
0.226129 -0.360298 2.092 255 255 255
0.611877 -0.379375 1.729 255 255 255
-0.244503 0.108155 0.684 255 255 255
-0.321789 0.0730489 0.649 255 255 255
-0.250277 0.223709 0.616 255 255 255
-0.179511 0.306772 1.882 255 255 255
0.693308 0.382964 1.359 255 255 255
-0.557787 -0.20455 1.114 255 255 255
-0.309449 0.0431931 1.254 255 255 255
-0.293759 -0.184964 2.593 255 255 255
0.317272 -0.614681 1.734 255 255 255
-0.282766 0.0773917 0.659 255 255 255
-0.406214 -0.227325 2.695 255 255 255
0.452716 -0.196519 1.953 255 255 255
-0.466237 -0.361571 1.435 255 255 255
-0.23689 0.141882 0.675 0 0 0
0.696994 0.465788 1.375 255 255 255
0.680729 0.324896 1.445 255 255 255
-0.278132 0.500231 1.491 255 255 255
0.559081 -0.130435 2.064 255 255 255
0.666851 0.429222 1.532 255 255 255
0.469847 0.447524 1.655 255 255 255
-0.202582 0.415981 1.691 255 255 255
0.376572 0.47941 1.591 255 255 255
-0.230199 0.523868 1.449 255 255 255
-0.101248 -0.117975 2.43 255 255 255
-0.48326 -0.128342 2.402 255 255 255
-0.258561 0.181655 0.587 255 255 255
0.591344 -0.354082 1.831 255 255 255
-0.513947 -0.648936 1.758 255 255 255
-0.490859 -0.117028 0.974 255 255 255
-0.234816 0.157331 0.666 255 255 255
-0.211369 -0.616725 2.672 255 255 255
0.224273 -0.402538 2.173 255 255 255
0.32709 0.526862 1.484 255 255 255
-0.836262 -0.605452 1.633 0 0 0
-0.419913 -0.664891 2.42 255 255 255
0.572521 -0.117 2.064 255 255 255
0.277756 -0.625968 1.734 255 255 255
-0.211661 0.167445 0.449 255 255 255
-0.215132 0.092869 2.181 0 0 0
-0.333375 -0.742147 2.365 255 255 255
0.0776802 -0.74196 2.593 255 255 255
0.22735 0.217121 1.929 0 0 0
-0.406737 -0.0686198 0.92 255 255 255
0.455088 -0.505982 1.799 255 255 255
-0.292778 0.0779878 0.655 255 255 255
-0.268926 0.143946 0.593 255 255 255
0.684027 0.423348 1.452 255 255 255
0.494192 0.472331 1.62 255 255 255
-0.435774 -0.46349 2.743 255 255 255
-0.296228 0.491536 1.509 255 255 255
-0.337123 0.0117783 2.286 255 255 255
0.0198577 0.298121 1.905 255 255 255
-0.319721 -0.0747277 0.96 255 255 255
-0.346243 -0.155883 1.116 255 255 255
-0.405089 -0.145686 1.043 255 255 255
-0.387219 0.3333 1.794 255 255 255
-0.343335 -0.0443563 0.884 255 255 255
-0.256108 0.077604 0.71 255 255 255
0.194127 -0.818635 2.32 255 255 255
-0.319111 0.075277 0.65 255 255 255
0.125994 0.421181 1.668 255 255 255
0.664207 0.373057 1.487 255 255 255
-0.199238 0.177437 0.454 255 255 255
0.0440993 -0.189986 2.604 255 255 255
0.129843 -0.648259 2.54 255 255 255
-0.595946 -0.64943 1.714 255 255 255
-0.538396 -0.246248 2.572 0 0 0
0.654205 -0.410197 1.52 255 255 255
-0.247516 0.268487 0.736 255 255 255
0.637152 -0.318843 1.677 255 255 255
0.267271 -0.701872 2.017 255 255 255
-0.700451 -0.57362 1.664 0 0 0
0.213219 0.0415567 2.099 0 0 0
0.567164 0.238891 1.953 255 255 255
-0.246962 0.226902 0.796 255 255 255
-0.77816 -0.591285 1.668 0 0 0
-0.467637 -0.0988591 0.937 255 255 255
-0.250643 0.207636 0.867 255 255 255
-0.0993661 0.011397 2.212 255 255 255
-0.209731 -0.514674 2.707 255 255 255
0.669943 -0.407421 1.432 0 0 0
0.652041 -0.077048 1.587 255 255 255
0.647977 0.3692 1.691 255 255 255
-0.0727564 0.47606 1.563 255 255 255
-0.387293 0.406138 1.539 0 0 0
0.246598 0.508822 1.524 255 255 255
0.5205 -0.671117 1.734 255 255 255
0.702789 -0.459545 1.442 255 255 255
0.673627 -0.36137 1.425 255 255 255
-0.464994 -0.202367 1.122 255 255 255
-0.234978 0.171452 0.679 255 255 255
0.668157 0.0453781 1.535 255 255 255
-0.246099 0.136165 0.819 255 255 255
0.619071 -0.219373 1.71 255 255 255
0.459413 -0.233215 1.941 255 255 255
0.644725 -0.437062 1.563 255 255 255
0.146957 -0.385232 2.55 0 0 0
-0.313065 0.227339 1.991 255 255 255
0.206158 0.54509 1.449 255 255 255
0.557606 0.16907 2.071 255 255 255
0.411666 -0.154515 1.985 255 255 255
-0.57789 -0.222895 1.143 255 255 255
-0.204414 0.471254 1.539 255 255 255
0.587302 -0.477808 1.837 255 255 255
-0.263644 0.19082 0.984 255 255 255
-0.350536 0.50374 1.459 255 255 255
0.511987 0.393527 1.763 255 255 255
-0.191759 0.506174 1.48 255 255 255
-0.124881 -0.664272 2.78 255 255 255
0.681326 0.37181 1.375 255 255 255
-0.41714 -0.0306986 0.864 255 255 255
0.25084 0.145297 1.893 255 255 255
-0.526678 -0.0806195 2.269 0 0 0
0.4343 -0.512022 1.81 255 255 255
-0.81613 -0.552646 1.559 255 255 255
0.668646 -0.425656 1.4 0 0 0
-0.20719 0.498889 1.487 255 255 255
0.673997 0.0174692 1.498 255 255 255
-0.404556 -0.339959 2.684 0 0 0
0.669127 0.286668 1.543 255 255 255
-0.011152 0.25162 1.905 255 255 255
-0.368535 -0.719129 2.499 255 255 255
-0.419405 -0.171934 1.859 255 255 255
0.5703 0.133603 2.044 0 0 0
-0.250242 0.0622474 0.778 255 255 255
0.506469 -0.638092 1.744 255 255 255
-0.458349 -0.352094 1.425 255 255 255
0.502139 0.258957 1.985 255 255 255
-0.247174 0.158847 0.855 255 255 255
-0.563516 -0.648055 2.572 255 255 255
-0.117493 0.464119 1.583 255 255 255
-0.160094 0.354564 1.769 255 255 255
-0.426822 0.288729 1.826 255 255 255
-0.420047 -0.162704 1.077 255 255 255
-0.421242 -0.232743 2.707 0 0 0
0.323026 -0.403146 1.865 255 255 255
-0.272914 0.193174 0.573 255 255 255
-0.251616 0.254934 0.811 255 255 255
-0.388684 -0.00886337 0.797 255 255 255
0.277268 0.460645 1.616 255 255 255
-0.231555 0.143092 2.136 255 255 255
-0.251389 0.202974 0.916 0 0 0
0.669344 0.10263 1.532 255 255 255
-0.502402 -0.306164 1.299 255 255 255
0.567984 -0.224785 1.978 255 255 255
0.359612 -0.645721 1.734 255 255 255
0.643945 -0.408792 1.612 255 255 255
-0.557352 -0.474333 1.603 0 0 0
-0.223964 0.512322 1.47 255 255 255
0.363623 0.47941 1.591 255 255 255
0.311027 -0.511937 1.779 255 255 255
0.680746 0.148138 1.513 255 255 255
0.440667 0.0209919 2.092 255 255 255
0.249084 -0.759666 2.143 0 0 0
0.569896 0.472591 1.603 255 255 255
-0.383479 -0.240156 1.607 255 255 255
-0.261018 0.0189189 0.883 255 255 255
0.0977423 0.138179 2.114 255 255 255
-0.304359 -0.0635911 0.981 255 255 255
-0.263402 0.0148231 0.896 255 255 255
0.639464 0.352835 1.705 255 255 255
-0.202286 0.12568 0.404 0 0 0
-0.446928 -0.303653 2.01 255 255 255
0.664206 -0.0704334 1.555 255 255 255
-0.188381 0.0777629 0.401 255 255 255
-0.526447 -0.595999 2.638 255 255 255
0.576907 -0.254293 1.842 255 255 255
0.207286 -0.102158 2.43 255 255 255
-0.709182 -0.48344 1.616 0 0 0
-0.238733 0.158524 0.636 0 0 0
0.579477 -0.391147 1.941 255 255 255
0.00130449 0.216963 1.985 0 0 0
0.311412 0.13931 1.815 255 255 255
0.416287 -0.258408 1.917 255 255 255
0.55197 -0.453278 1.859 0 0 0
-0.241867 0.109588 0.686 255 255 255
-0.404282 -0.231639 1.208 255 255 255
-0.587196 -0.467945 1.599 255 255 255
-0.354407 -0.686432 2.143 255 255 255
0.179458 -0.15225 2.54 255 255 255
0.663799 -0.31658 1.362 255 255 255
0.551478 0.0483882 2.099 255 255 255
0.225694 -0.0596973 2.057 255 255 255
0.286513 -0.0642619 1.991 255 255 255
-0.202886 0.481713 1.509 255 255 255
0.285398 -0.641045 1.729 255 255 255
0.646522 -0.476667 1.543 255 255 255
0.626099 -0.314721 1.714 255 255 255
0.657527 0.171874 1.646 255 255 255
0.234439 -0.137312 2.017 255 255 255
-0.21781 0.432787 1.62 255 255 255
0.101749 0.245373 1.929 0 0 0
0.565717 -0.369271 1.959 0 0 0
-0.0675894 0.532041 1.452 255 255 255
0.289121 0.279717 1.769 0 0 0
-0.308851 -0.0132824 0.83 255 255 255
-0.466837 0.129244 2.196 255 255 255
-0.257027 0.0551983 0.768 255 255 255
0.47064 -0.613955 1.748 255 255 255
0.695547 0.276338 1.39 255 255 255
-0.272468 0.170752 0.576 255 255 255
0.679533 -0.0834987 1.473 255 255 255
-0.460408 -0.342092 1.403 255 255 255
0.670717 0.315907 1.48 255 255 255
-0.623733 -0.643467 1.691 255 255 255
-0.264244 0.187806 2.092 0 0 0
0.653341 0.0864735 1.705 255 255 255
0.252387 -0.441177 1.859 255 255 255
-0.349184 -0.32381 2.695 255 255 255
0.253157 -0.553657 1.821 0 0 0
-0.289465 0.00289406 0.821 255 255 255
-0.487615 -0.165372 1.083 255 255 255
0.652358 0.42519 1.563 255 255 255
0.250106 0.0780627 1.985 255 255 255
0.12567 0.0590344 2.244 0 0 0
-0.233671 -0.679987 2.582 255 255 255
0.49057 -0.578523 1.779 255 255 255
0.644503 -0.61645 1.62 255 255 255
0.436244 -0.0264016 2.071 255 255 255
0.612767 0.31948 1.815 255 255 255
0.474819 -0.372797 1.865 255 255 255
-0.269363 0.222414 1.05 255 255 255
-0.386986 -0.635859 2.54 255 255 255
0.665849 0.41458 1.524 255 255 255
0.370405 -0.392774 1.859 255 255 255
-0.357632 -0.261566 1.412 255 255 255
-0.308437 -0.436049 2.684 255 255 255
0.6193 0.139936 1.947 255 255 255
-0.13394 0.510991 1.48 255 255 255
-0.0923956 0.474929 1.551 255 255 255
-0.424844 -0.0397236 0.877 255 255 255
-0.396676 -0.60918 1.784 255 255 255
-0.397788 -0.619621 1.789 255 255 255
-0.391663 0.401215 1.664 255 255 255
0.490709 -0.160408 1.978 255 255 255
0.647269 -0.210689 1.563 255 255 255
0.474931 0.272474 1.966 255 255 255
-0.503187 -0.193048 1.09 255 255 255
0.641169 0.542133 1.473 255 255 255
-0.264976 0.160232 0.983 255 255 255
0.00106462 0.440696 1.62 255 255 255
0.197078 -0.714669 2.402 0 0 0
0.509308 0.38293 1.794 255 255 255
-0.20358 -0.567082 2.684 255 255 255
-0.193725 0.0741039 0.392 255 255 255
-0.359111 -0.549009 1.876 255 255 255
-0.0564369 -0.775302 2.55 255 255 255
-0.53666 -0.2644 1.205 255 255 255
-0.483113 -0.172576 1.073 255 255 255
0.663572 -0.180468 1.502 255 255 255
0.126203 -0.563668 2.55 0 0 0
0.667597 -0.220891 1.528 255 255 255
0.191107 -0.192822 2.53 255 255 255
0.111524 0.334336 1.882 255 255 255
-0.423526 -0.0318446 0.857 255 255 255
0.296656 -0.638231 1.729 255 255 255
-0.403937 -0.295979 1.359 255 255 255
0.641079 -0.309915 1.673 255 255 255
-0.246119 0.265974 0.739 255 255 255
-0.3324 0.0478985 0.715 255 255 255
-0.31148 0.0666901 0.67 255 255 255
0.317517 0.419425 1.705 255 255 255
-0.446634 0.193964 2.085 255 255 255
0.438838 -0.138782 1.991 255 255 255
-0.291889 -0.68546 2.54 255 255 255
0.631018 -0.186842 1.668 255 255 255
-0.333266 -0.0337046 0.869 255 255 255
0.566131 -0.59342 1.789 0 0 0
-0.502726 -0.398366 2.695 0 0 0
0.239164 0.213316 1.923 255 255 255
0.29762 0.329426 1.821 255 255 255
0.635714 -0.617792 1.659 255 255 255
0.655764 0.41649 1.559 255 255 255
-0.322405 0.0737625 0.646 255 255 255
-0.211737 0.196694 2.078 0 0 0
-0.776769 -0.631743 1.719 255 255 255
-0.360155 0.375767 1.734 255 255 255
0.0332027 -0.416201 2.755 255 255 255
0.121289 -0.264747 2.719 0 0 0
-0.31545 -0.715699 2.53 255 255 255
0.27357 -0.33832 1.859 255 255 255
0.658671 0.3424 1.48 255 255 255
-0.240256 0.235204 0.691 255 255 255
-0.517544 -0.0964401 2.294 0 0 0
0.602275 0.0255548 1.923 255 255 255
-0.254012 0.0730605 0.734 255 255 255
-0.195634 0.064945 0.415 255 255 255
0.146308 -0.565853 2.469 0 0 0
0.662749 -0.428675 1.473 0 0 0
0.599294 0.336272 1.81 255 255 255
-0.343441 -0.44616 2.719 255 255 255
-0.41174 -0.0199151 0.825 255 255 255
0.108012 0.367114 1.774 255 255 255
0.317804 -0.401184 1.87 255 255 255
0.244793 -0.764137 2.136 0 0 0
-0.368573 -0.77333 2.32 255 255 255
0.65173 0.522328 1.52 255 255 255
-0.364958 0.478093 1.299 0 0 0
0.0118347 0.122237 2.136 0 0 0
-0.235032 0.146568 2.136 255 255 255
-0.380555 -0.143929 1.055 255 255 255
-0.299848 -0.0631524 1.147 255 255 255
-0.236418 0.159208 0.703 255 255 255
0.681379 -0.0789183 1.477 255 255 255
-0.0188468 -0.876556 2.519 255 255 255
-0.245512 -0.874218 2.489 255 255 255
0.406553 -0.428573 1.831 255 255 255
0.689124 -0.054734 1.473 255 255 255
0.645467 -0.444412 1.571 255 255 255
0.478866 -0.353749 1.893 255 255 255
-0.369404 0.0121265 0.733 255 255 255
-0.23838 0.127224 0.673 255 255 255
0.589798 -0.390716 1.893 255 255 255
-0.473561 -0.636949 2.561 255 255 255
-0.35539 -0.702405 2.128 255 255 255
-0.586211 -0.583947 1.686 255 255 255
-0.0609739 -0.456551 2.755 255 255 255
-0.581074 -0.499155 1.633 0 0 0
0.640022 -0.0895693 1.729 255 255 255
-0.176448 0.309835 1.882 255 255 255
-0.256681 0.051674 0.878 255 255 255
0.689475 0.286417 1.429 255 255 255
-0.308566 0.100334 2.189 255 255 255
0.194127 -0.467523 2.32 255 255 255
0.647588 -0.0611959 1.805 255 255 255
-0.239695 0.220818 0.749 255 255 255
-0.395818 -0.348694 2.684 0 0 0
0.261797 -0.497462 1.779 255 255 255
-0.167136 -0.612566 2.731 255 255 255
0.241596 0.320887 1.893 255 255 255
0.0839776 0.120978 2.114 255 255 255
0.198388 0.207109 1.953 0 0 0
0.456894 0.402319 1.739 255 255 255
-0.379781 -0.571367 2.604 255 255 255
-0.287706 0.0885611 0.639 255 255 255
-0.244593 0.408931 1.696 255 255 255
0.191088 -0.825601 2.329 255 255 255
-0.190035 0.368473 1.753 255 255 255
0.00498354 -0.0171563 2.181 255 255 255
0.65999 0.132685 1.563 255 255 255
-0.436682 -0.580276 1.758 255 255 255
-0.50727 -0.122355 0.966 255 255 255
0.25084 -0.421521 1.893 255 255 255
0.221548 -0.364978 2.181 255 255 255
-0.427702 0.204828 2.092 255 255 255
-0.495782 -0.50171 1.668 0 0 0
-0.135586 0.396536 1.714 255 255 255
-0.176027 -0.363689 2.731 255 255 255
0.622329 -0.144999 1.719 255 255 255
-0.274343 0.166065 0.576 255 255 255
-0.441309 -0.385209 2.695 255 255 255
0.363697 -0.309637 1.887 255 255 255
-0.049519 0.509955 1.477 255 255 255
0.602991 -0.584169 1.744 255 255 255
-0.515587 -0.224362 1.141 255 255 255
0.682096 0.150899 1.516 255 255 255
0.360256 0.385518 1.779 255 255 255
-0.272468 0.171689 0.576 255 255 255
-0.314607 0.0474965 0.709 255 255 255
-0.566206 -0.648542 1.734 255 255 255
0.613364 -0.296869 1.774 255 255 255
0.354749 0.147763 1.81 255 255 255
0.303189 -0.481441 1.784 255 255 255
-0.0766212 -0.108798 2.402 255 255 255
-0.459597 -0.476769 1.705 255 255 255
0.643199 0.0175902 1.753 255 255 255
0.628708 -0.318753 1.691 255 255 255
0.278573 0.129894 1.893 255 255 255
-0.274141 0.0548898 1.017 255 255 255
-0.282581 -0.775646 2.459 255 255 255
-0.342771 0.470128 1.213 0 0 0
-0.588756 -0.437355 1.555 255 255 255
-0.518504 -0.264181 1.213 255 255 255
0.357361 -0.529307 1.779 255 255 255
0.699232 0.327058 1.375 255 255 255
0.643614 -0.217985 1.579 255 255 255
-0.520018 -0.374323 2.649 255 255 255
-0.240447 0.137678 0.775 255 255 255
0.263638 -0.403568 1.853 255 255 255
-0.0968508 -0.398268 2.755 255 255 255
-0.27284 -0.016925 0.96 255 255 255
-0.0991284 -0.679047 2.695 255 255 255
-0.12189 0.442389 1.607 255 255 255
-0.623395 -0.623857 1.668 255 255 255
-0.364359 -0.569525 2.615 255 255 255
0.312775 -0.476968 1.789 255 255 255
-0.0309441 0.350816 1.794 255 255 255
0.0429373 -0.318768 2.805 255 255 255
-0.64568 -0.359605 1.222 255 255 255
-0.29843 0.464694 1.559 255 255 255
-0.498669 -0.253263 1.208 255 255 255
-0.240841 0.232975 0.745 255 255 255
0.698409 -0.0620086 1.369 255 255 255
0.60943 0.209323 1.887 255 255 255
0.077156 0.441142 1.612 255 255 255
0.254826 -0.626819 1.947 255 255 255
0.205095 0.46331 1.607 255 255 255
0.264352 -0.642225 1.837 0 0 0
0.652398 -0.282267 1.551 255 255 255
0.434638 0.47802 1.595 255 255 255
0.664762 -0.435129 1.416 0 0 0
0.150238 0.260336 1.947 255 255 255
-0.473762 -0.0998033 2.374 255 255 255
-0.348041 0.0437282 0.669 255 255 255
0.106021 0.193528 2.01 255 255 255
0.594335 0.303023 1.859 255 255 255
-0.327963 0.0662629 0.655 255 255 255
-0.355695 -0.0680231 0.912 255 255 255
-0.0125042 0.122237 2.136 0 0 0
0.641708 -0.554824 1.587 255 255 255
-0.542494 -0.371945 1.439 255 255 255
0.488457 -0.00281973 2.078 255 255 255
0.140068 0.430648 1.642 255 255 255
-0.261992 0.182627 0.584 255 255 255
-0.525489 -0.501423 2.55 255 255 255
0.238547 -0.019215 2.024 255 255 255
-0.383624 -0.129448 1.022 255 255 255
-0.302201 -0.184964 2.593 255 255 255
-0.516397 -0.421425 1.543 255 255 255
0.652411 -0.0754039 1.607 255 255 255
0.236926 0.313621 1.905 255 255 255
0.321449 -0.46361 1.805 255 255 255
0.624374 -0.261532 1.789 255 255 255
-0.233117 -0.60368 2.672 255 255 255
-0.32552 0.302741 1.876 255 255 255
-0.0240405 0.483777 1.539 255 255 255
0.412785 -0.62674 1.744 255 255 255
-0.112289 -0.279953 2.695 0 0 0
-0.553742 -0.16685 1.048 255 255 255
-0.464299 -0.161344 2.489 0 0 0
0.583973 -0.0596973 2.057 255 255 255
0.236537 -0.10753 1.953 255 255 255
-0.00691184 -0.540368 2.66 255 255 255
-0.0302028 0.525353 1.473 255 255 255
-0.0337695 -0.625899 2.731 255 255 255
0.636139 0.55957 1.456 255 255 255
-0.489757 -0.20855 1.116 255 255 255
0.677844 0.374784 1.429 255 255 255
-0.253323 0.471187 1.547 255 255 255
0.126747 -0.13267 2.561 255 255 255
-0.628569 -0.516521 1.646 0 0 0
-0.356038 -0.118036 1.024 255 255 255
0.526628 0.518486 1.516 255 255 255
0.668237 0.058436 1.62 255 255 255
-0.511071 -0.319242 1.327 255 255 255
0.682613 0.0758478 1.449 255 255 255
0.314775 0.495128 1.567 255 255 255
0.574931 -0.442794 1.905 0 0 0
-0.531404 -0.448596 2.707 255 255 255
0.644528 -0.0351284 1.682 255 255 255
0.655764 -0.319241 1.559 255 255 255
0.00503609 0.0687419 2.204 255 255 255
-0.239871 0.221024 0.662 255 255 255
-0.27542 0.0364041 0.767 255 255 255
0.154972 -0.596384 2.479 0 0 0
0.153408 0.241326 1.947 255 255 255
-0.71725 -0.561097 1.659 0 0 0
-0.47933 -0.261666 1.229 255 255 255
0.39551 -0.109292 1.985 255 255 255
0.260803 -0.393313 1.876 255 255 255
-0.280235 -0.347277 2.707 255 255 255
-0.0458329 0.248512 1.929 255 255 255
0.604155 0.0162172 1.929 255 255 255
-0.25902 0.0290758 0.886 255 255 255
-0.245864 0.283524 0.841 255 255 255
-0.37032 -0.588589 2.057 0 0 0
-0.387012 0.405722 1.528 0 0 0
-0.239516 0.15599 0.772 255 255 255
-0.357725 -0.0400406 0.884 255 255 255
0.265345 -0.400112 1.865 255 255 255
-0.455095 -0.545141 1.774 255 255 255
0.617929 0.476616 1.599 255 255 255
-0.537592 -0.293075 1.194 0 0 0
-0.297461 -0.0667689 1.145 255 255 255
0.684822 0.309672 1.429 255 255 255
-0.401781 -0.0143334 0.813 255 255 255
-0.591128 -0.267278 1.158 255 255 255
0.00708214 0.339218 1.81 255 255 255
0.0146721 0.423895 1.668 255 255 255
-0.217932 0.41103 1.682 255 255 255
0.648658 0.354566 1.7 255 255 255
-0.42461 -0.859296 2.402 255 255 255
0.655752 0.33776 1.547 0 0 0
-0.0491952 0.338316 1.821 255 255 255
-0.270103 0.0240933 0.815 255 255 255
0.635607 -0.51063 1.547 255 255 255
-0.08454 0.527483 1.459 255 255 255
0.640356 0.0585553 1.7 255 255 255
0.50537 0.179786 2.078 255 255 255
0.678712 0.222843 1.571 255 255 255
-0.179365 -0.680389 2.649 255 255 255
-0.233357 -0.882319 2.489 255 255 255
0.439094 -0.279727 1.935 255 255 255
-0.423384 -0.0191937 2.44 0 0 0
0.28215 0.453748 1.629 255 255 255
-0.028277 0.502579 1.498 255 255 255
0.656669 -0.377479 1.624 255 255 255
0.15991 0.50881 1.502 255 255 255
0.333128 0.299437 1.837 255 255 255
0.687532 0.549506 1.406 255 255 255
0.422268 -0.619644 1.748 255 255 255
-0.324875 -0.0576974 0.913 255 255 255
-0.426736 0.0084319 2.392 255 255 255
-0.683172 -0.509922 1.642 255 255 255
0.411543 -0.553237 1.763 255 255 255
0.21699 -0.685918 2.244 255 255 255
-0.254398 -0.0181868 2.312 0 0 0
-0.541082 -0.635254 1.744 255 255 255
0.554447 -0.282329 1.953 0 0 0
-0.27185 -0.200138 2.626 255 255 255
-0.345731 0.522594 1.439 255 255 255
-0.348591 -0.182426 1.422 255 255 255
0.334208 -0.614681 1.734 255 255 255
-0.278351 0.102894 0.625 255 255 255
0.561937 -0.339556 1.935 0 0 0
-0.164906 0.535153 1.435 255 255 255
0.264519 -0.153503 1.972 255 255 255
0.330657 0.465925 1.607 255 255 255
0.0312963 0.328296 1.848 255 255 255
-0.608166 -0.561998 1.686 0 0 0
0.342509 -0.249008 1.941 255 255 255
0.658825 -0.436472 1.459 255 255 255
-0.289536 -0.068388 1.055 255 255 255
-0.255505 0.135091 0.931 255 255 255
-0.689581 -0.466775 1.595 255 255 255
0.594072 -0.0885421 1.887 255 255 255
-0.795424 -0.564223 1.599 255 255 255
-0.156732 -0.70363 2.561 255 255 255
0.687545 0.526785 1.425 255 255 255
-0.29584 0.0349802 0.737 255 255 255
-0.125518 0.481542 1.524 255 255 255
0.461525 0.253259 1.991 255 255 255
-0.0462955 -0.641334 2.684 255 255 255
0.700551 0.53577 1.4 255 255 255
0.115668 -0.666006 2.593 255 255 255
0.0965407 0.19092 2.017 255 255 255
0.331188 -0.541761 1.763 255 255 255
-0.202559 -0.852662 2.509 255 255 255
-0.165259 0.506174 1.48 255 255 255
-0.437106 0.243954 1.87 255 255 255
0.601619 -0.376887 1.826 255 255 255
-0.623395 -0.626572 1.668 255 255 255
-0.7773 -0.621537 1.714 0 0 0
-0.273137 0.413037 1.668 255 255 255
-0.38506 -0.574342 1.784 255 255 255
-0.0248785 -0.452574 2.731 255 255 255
-0.267051 0.0614614 0.724 255 255 255
0.0299632 0.512372 1.484 255 255 255
0.268328 -0.183806 1.953 255 255 255
-0.120615 0.498806 1.494 255 255 255
0.647132 0.141216 1.696 255 255 255
-0.327249 -0.36328 2.695 0 0 0
0.63733 0.516335 1.539 255 255 255
-0.240187 0.119913 0.675 255 255 255
0.261186 -0.460271 1.815 255 255 255
0.674621 0.549496 1.442 255 255 255
0.533989 0.525919 1.502 255 255 255
0.447877 -0.622488 1.748 255 255 255
-0.494342 -0.281946 1.257 0 0 0
0.327687 0.513637 1.509 255 255 255
-0.307526 -0.0851224 1.029 255 255 255
0.173495 0.548581 1.452 255 255 255
0.0915026 -0.277219 2.755 255 255 255
0.557054 -0.31339 1.929 0 0 0
0.339388 -0.0774546 1.997 255 255 255
0.645756 0.317271 1.664 255 255 255
0.591765 0.496392 1.571 255 255 255
0.124669 -0.827366 2.519 255 255 255
0.686065 -0.136609 1.403 255 255 255
-0.121602 -0.682071 2.707 255 255 255
0.0922196 0.414451 1.696 255 255 255
0.367235 -0.476707 1.799 255 255 255
-0.270938 0.106673 2.173 255 255 255
-0.337519 -0.232743 2.707 255 255 255
-0.0191019 0.356568 1.779 255 255 255
0.216771 0.349526 1.865 255 255 255
-0.533435 -0.258025 2.695 0 0 0
-0.125531 0.417898 1.655 255 255 255
-0.582776 -0.619227 1.7 255 255 255
-0.0540499 0.27995 1.887 0 0 0
-0.0502117 0.368473 1.753 255 255 255
-0.234837 0.159859 0.663 255 255 255
0.694655 -0.00185358 1.366 255 255 255
-0.0109122 -0.789233 2.582 255 255 255
-0.457596 -0.0910506 0.951 255 255 255
0.0754368 0.312633 1.899 255 255 255
-0.748192 -0.488158 1.524 255 255 255
-0.33224 0.0244815 0.746 255 255 255
-0.468264 -0.151905 1.075 255 255 255
-0.620056 -0.64537 1.696 255 255 255
-0.583323 -0.327665 1.165 0 0 0
0.408909 -0.445503 1.815 255 255 255
-0.404399 -0.0173762 0.832 255 255 255
-0.842282 -0.617125 1.65 0 0 0
0.636089 0.395131 1.696 255 255 255
0.50344 0.507741 1.551 255 255 255
0.555722 0.0845282 2.064 255 255 255
0.151283 -0.786973 2.42 0 0 0
-0.242313 0.394895 1.719 255 255 255
0.662382 0.376085 1.539 255 255 255
-0.553014 -0.375067 1.442 255 255 255
0.0245678 -0.353765 2.793 255 255 255
0.681113 -0.17732 1.348 255 255 255
-0.351692 -0.62068 1.853 255 255 255
0.0470757 0.364837 1.763 255 255 255
-0.343757 -0.224147 1.366 255 255 255
0.662375 -0.596145 1.587 255 255 255
-0.478421 -0.447823 2.136 0 0 0
0.696994 0.257693 1.375 255 255 255
0.0880451 0.365253 1.779 255 255 255
0.126203 -0.576117 2.55 0 0 0
-0.343354 0.0316531 0.716 255 255 255
0.561994 -0.203582 1.991 255 255 255
0.6306 0.531868 1.505 255 255 255
0.336157 -0.27229 1.905 255 255 255
0.249241 0.55772 1.439 255 255 255
0.0347325 -0.0547726 2.269 255 255 255
0.684972 -0.237766 1.449 255 255 255
-0.246787 -0.0719329 2.347 0 0 0
-0.247761 0.133449 0.63 255 255 255
-0.223143 0.453815 1.583 255 255 255
-0.12003 -0.577591 2.672 255 255 255
-0.24277 0.256404 0.67 255 255 255
-0.530528 -0.542227 1.719 255 255 255
-0.349853 -0.23339 1.33 255 255 255
-0.310162 0.517986 1.459 255 255 255
-0.371128 0.000205763 0.761 255 255 255
0.0792724 0.29376 1.917 255 255 255
-0.211387 -0.907372 2.469 255 255 255
-0.258605 0.0368518 0.804 255 255 255
-0.225254 -0.878268 2.489 255 255 255
-0.303728 -0.760424 2.374 255 255 255
0.125315 0.424307 1.659 255 255 255
-0.504675 -0.15078 2.449 255 255 255
0.639119 0.120752 1.719 255 255 255
-0.346802 -0.740554 2.489 255 255 255
0.256824 -0.584892 1.826 0 0 0
0.614438 -0.271022 1.794 255 255 255
0.224589 0.099015 2.017 0 0 0
0.405204 -0.144824 1.985 255 255 255
0.339601 0.439827 1.677 255 255 255
0.207925 0.175328 1.953 255 255 255
0.688999 -0.098214 1.409 255 255 255
-0.235416 0.183212 0.69 0 0 0
0.494225 0.480417 1.603 255 255 255
0.683202 0.445112 1.416 255 255 255
0.115519 0.491321 1.563 255 255 255
0.674738 0.0387512 1.473 255 255 255
-0.353048 -0.118152 1.025 255 255 255
-0.116371 0.489256 1.502 255 255 255
-0.28089 0.116353 0.6 255 255 255
0.545746 0.358573 1.789 255 255 255
-0.338843 0.0336433 0.734 255 255 255
-0.243052 0.248254 0.709 255 255 255
-0.115331 -0.467714 2.768 255 255 255
0.0458436 -0.527889 2.707 255 255 255
0.226647 -0.771307 2.196 255 255 255
-0.0705236 0.548806 1.416 255 255 255
0.473879 0.407979 1.739 255 255 255
0.563882 0.0206407 2.057 255 255 255
-0.337084 -0.139074 1.098 255 255 255
-0.44487 -0.66066 2.54 255 255 255
0.137794 0.556932 1.425 255 255 255
0.309573 0.437098 1.677 255 255 255
-0.171165 0.443897 1.603 255 255 255
0.325592 0.47802 1.595 255 255 255
0.103128 -0.215122 2.707 0 0 0
0.411075 0.185344 1.893 255 255 255
-0.356053 0.419272 1.362 0 0 0
-0.267788 0.0302539 0.97 255 255 255
0.258315 -0.0225087 2.024 255 255 255
-0.447549 -0.638556 2.338 255 255 255
-0.102621 0.510991 1.48 255 255 255
-0.174981 0.0437939 2.212 255 255 255
-0.344016 -0.742639 2.469 255 255 255
-0.271059 0.18917 0.575 255 255 255
0.465007 -0.0296712 2.064 255 255 255
-0.335912 -0.08467 2.383 255 255 255
0.641079 -0.318083 1.673 255 255 255
-0.464252 -0.0713629 0.898 255 255 255
-0.197308 0.0963259 0.389 255 255 255
-0.314088 -0.450993 2.695 255 255 255
0.654081 0.428074 1.555 255 255 255
0.237722 -0.0618188 2.017 255 255 255
0.557664 -0.419767 1.899 0 0 0
0.278573 0.0836862 1.893 255 255 255
0.702173 0.0182325 1.372 255 255 255
-0.223569 0.476547 1.516 255 255 255
-0.129795 0.481481 1.516 255 255 255
-0.107088 0.486625 1.509 255 255 255
-0.219489 0.414276 1.673 255 255 255
-0.479172 -0.149737 1.072 255 255 255
-0.701629 -0.508536 1.629 255 255 255
-0.0206125 -0.447584 2.755 255 255 255
0.489165 0.557499 1.463 255 255 255
0.0571191 -0.0364546 2.278 255 255 255
0.661679 0.0259239 1.567 255 255 255
-0.845598 -0.615629 1.646 0 0 0
0.659261 -0.388492 1.637 255 255 255
-0.49763 -0.122195 1.017 255 255 255
-0.00715869 -0.402751 2.755 255 255 255
0.554654 -0.546968 1.799 0 0 0
0.552726 0.0411409 2.078 255 255 255
0.240026 0.307421 1.905 255 255 255
-0.356287 0.00289406 0.821 255 255 255
0.465417 -0.0428349 2.051 255 255 255
-0.0247692 -0.627573 2.719 255 255 255
0.475339 -0.673938 1.734 255 255 255
0.684822 0.509661 1.429 255 255 255
-0.257001 0.176822 0.59 255 255 255
0.258751 0.261068 1.929 255 255 255
-0.293838 0.0326257 0.738 255 255 255
-0.452793 -0.192978 1.11 255 255 255
-0.38708 -0.322488 2.684 0 0 0
-0.737073 -0.570517 1.655 255 255 255
0.463639 0.517617 1.528 255 255 255
0.360349 -0.248238 1.935 255 255 255
-0.57732 -0.197678 1.096 255 255 255
-0.454038 0.154338 1.929 0 0 0
-0.200293 0.0652623 0.385 255 255 255
-0.307518 0.0188311 0.763 255 255 255
-0.0517782 -0.360823 2.743 255 255 255
-0.366889 -0.223511 1.262 255 255 255
0.68043 -0.144737 1.351 255 255 255
0.552544 -0.515133 1.821 0 0 0
-0.287703 0.0863775 0.646 255 255 255
-0.21093 0.1329 0.408 0 0 0
-0.364036 -0.288672 1.456 255 255 255
-0.0899147 0.148078 2.158 255 255 255
-0.406771 -0.0938488 0.948 255 255 255
0.650566 0.358384 1.705 255 255 255
0.0735577 0.184355 2.017 255 255 255
-0.308718 0.00787697 0.785 255 255 255
0.260136 0.452355 1.624 255 255 255
0.559081 0.121475 2.064 255 255 255
-0.272468 -0.00733135 0.932 255 255 255
-0.429609 -0.164762 1.079 255 255 255
-0.0616921 -0.896994 2.43 255 255 255
-0.197635 0.107081 0.396 0 0 0
0.571956 0.355661 1.789 255 255 255
0.362132 -0.568236 1.774 255 255 255
-0.240895 0.27613 0.883 0 0 0
-0.652438 -0.517901 1.659 0 0 0
-0.239876 0.219861 0.665 255 255 255
-0.433172 -0.215651 1.154 255 255 255
0.384621 -0.585998 1.758 255 255 255
0.216545 0.47802 1.595 255 255 255
-0.088941 -0.826861 2.53 255 255 255
-0.273052 0.0779873 0.683 255 255 255
0.0665813 0.29595 1.911 255 255 255
0.679597 -0.0755161 1.505 255 255 255
-0.0416038 0.0543954 2.204 255 255 255
-0.235125 0.175734 0.646 255 255 255
-0.268442 0.110542 0.628 255 255 255
-0.255191 0.194464 0.597 255 255 255
-0.163041 0.38251 1.739 255 255 255
-0.284479 0.078345 0.658 255 255 255
0.50363 0.409152 1.744 255 255 255
0.5703 0.043794 2.044 255 255 255
0.0876381 0.349113 1.831 255 255 255
0.689269 0.0234755 1.419 255 255 255
0.381728 -0.364667 1.87 255 255 255
-0.139278 -0.0488289 2.338 255 255 255
0.684306 -0.426074 1.372 255 255 255
0.673528 -0.0427076 1.559 255 255 255
0.673275 0.119294 1.491 255 255 255
0.326421 -0.490151 1.784 255 255 255
-0.0483427 -0.211855 2.561 255 255 255
0.6738 -0.191814 1.406 255 255 255
0.219069 -0.789798 2.228 255 255 255
-0.166798 0.410477 1.691 255 255 255
0.154972 -0.620588 2.479 0 0 0
0.146797 0.486166 1.571 255 255 255
-0.338263 -0.198312 1.327 255 255 255
0.693284 0.305744 1.39 255 255 255
-0.256616 0.0377539 0.854 255 255 255
0.284163 -0.507611 1.774 255 255 255
-0.303401 -0.91402 2.402 255 255 255
-0.256395 0.106802 0.897 255 255 255
-0.315728 -0.0567042 0.921 255 255 255
0.352258 -0.199034 1.978 255 255 255
0.657208 -0.262993 1.587 255 255 255
0.223093 0.354208 1.842 255 255 255
-0.248358 -0.654524 2.649 255 255 255
0.647179 -0.614118 1.607 255 255 255
0.604752 0.236332 1.882 255 255 255
0.363701 -0.237835 1.953 255 255 255
-0.378008 -0.0421361 0.898 255 255 255
0.238146 -0.625032 2.078 255 255 255
-0.314069 0.0787741 0.644 255 255 255
0.590436 -0.399393 1.905 255 255 255
0.62776 -0.307106 1.734 255 255 255
-0.314314 -0.109419 1.249 255 255 255
-0.328384 -0.00687278 2.303 255 255 255
-0.250062 0.0828971 0.726 255 255 255
-0.34658 -0.0900827 0.974 255 255 255
-0.279593 0.0800119 0.672 255 255 255
0.659973 0.411829 1.551 255 255 255
-0.368687 -0.198711 1.176 255 255 255
0.446004 0.560062 1.439 255 255 255
0.323517 -0.490151 1.784 255 255 255
-0.173089 -0.465517 2.755 255 255 255
-0.379892 -0.26241 2.695 0 0 0
0.267729 -0.150294 1.972 255 255 255
-0.261679 0.260256 1.923 255 255 255
0.216964 0.415428 1.7 255 255 255
-0.304633 0.4917 1.502 255 255 255
-0.257539 0.248035 0.901 255 255 255
-0.339016 -0.0846268 0.966 255 255 255
-0.601529 -0.394941 1.429 255 255 255
-0.334645 -0.0847144 0.967 255 255 255
-0.363946 0.444959 1.579 255 255 255
0.682046 -0.229811 1.505 255 255 255
0.640053 -0.0837091 1.784 255 255 255
-0.293576 -0.712587 2.519 255 255 255
-0.304134 -0.0334424 0.9 255 255 255
0.656596 -0.0954591 1.637 255 255 255
-0.258396 0.0958663 0.904 255 255 255
0.231958 -0.341999 2.024 255 255 255
-0.282869 0.329331 1.837 255 255 255
0.599289 -0.163384 1.865 255 255 255
-0.222976 0.162183 0.422 255 255 255
-0.55296 -0.240199 1.173 255 255 255
0.262385 -0.673361 2.03 255 255 255
0.315879 -0.16313 1.972 255 255 255
-0.357141 0.128361 2.181 255 255 255
0.308452 -0.588353 1.748 255 255 255
-0.170563 -0.179686 2.519 0 0 0
0.600886 0.143099 1.991 255 255 255
-0.476431 -0.498893 1.686 255 255 255
-0.365636 0.495751 1.39 0 0 0
0.637637 0.279696 1.65 0 0 0
0.642241 0.0495566 1.774 255 255 255
-0.453005 -0.0877149 0.932 255 255 255
0.195997 -0.214251 2.54 255 255 255
0.310153 0.372887 1.774 255 255 255
-0.291712 0.0769219 0.655 255 255 255
0.567358 0.216425 2.01 255 255 255
-0.312964 -0.0752995 0.988 255 255 255
-0.0800344 -0.174889 2.509 0 0 0
0.649019 -0.447477 1.555 255 255 255
0.673999 0.193347 1.52 255 255 255
0.465117 0.456398 1.629 255 255 255
0.229534 -0.121992 2.092 255 255 255
0.131717 0.134292 2.107 255 255 255
-0.284029 -0.488423 2.66 255 255 255
-0.597339 -0.647914 1.71 255 255 255
-0.528834 -0.68367 1.789 255 255 255
0.136723 0.503684 1.516 255 255 255
-0.256935 0.261742 1.911 255 255 255
0.669224 0.0936371 1.591 255 255 255
0.695584 -0.0625318 1.432 255 255 255
-0.656956 -0.566108 1.65 255 255 255
-0.405573 -0.0458616 0.914 255 255 255
-0.417189 -0.264602 1.81 255 255 255
0.268475 0.138695 1.887 255 255 255
-0.406288 -0.438618 2.755 255 255 255
0.0875505 0.172924 2.037 255 255 255
-0.327697 0.0693421 0.644 255 255 255
0.270841 -0.623902 1.744 255 255 255
-0.2027 -0.448129 2.731 255 255 255
-0.735281 -0.453092 1.459 255 255 255
-0.0833969 -0.443101 2.755 255 255 255
-0.220062 0.152242 0.423 255 255 255
-0.197184 0.116333 0.399 255 255 255
0.480849 -0.126644 2.004 255 255 255
0.307049 -0.42815 1.842 255 255 255
0.102926 -0.910672 2.489 255 255 255
0.018136 -0.917439 2.53 255 255 255
0.265855 -0.197856 1.935 255 255 255
0.756047 -0.57661 1.583 255 255 255
-0.34995 -0.552062 1.876 255 255 255
-0.262132 0.416635 1.65 255 255 255
-0.387826 -0.00896346 0.806 255 255 255
-0.334599 -0.490714 2.649 255 255 255
-0.516885 -0.554195 1.739 255 255 255
0.673154 -0.0245645 1.535 255 255 255
-0.687204 -0.487272 1.62 0 0 0
0.0637476 0.375956 1.748 255 255 255
-0.0206125 -0.402751 2.755 255 255 255
0.696823 0.331994 1.425 255 255 255
-0.114252 -0.0329776 2.294 255 255 255
0.681314 -0.144121 1.366 255 255 255
-0.293771 0.491536 1.509 255 255 255
0.126747 -0.649451 2.561 255 255 255
-0.129837 -0.56502 2.695 255 255 255
0.673292 0.278178 1.524 255 255 255
-0.106644 0.469463 1.575 255 255 255
0.250855 -0.439286 2.017 255 255 255
-0.403869 -0.195477 1.135 255 255 255
-0.0367525 0.228652 1.947 0 0 0
0.51898 0.482151 1.583 255 255 255
-0.291492 0.302404 1.893 255 255 255
-0.391821 -0.007405 0.78 255 255 255
0.0434985 0.536767 1.452 255 255 255
0.692109 0.0163963 1.406 255 255 255
0.289209 0.138327 1.882 255 255 255
-0.361419 -0.0372476 0.886 255 255 255
0.640323 -0.1714 1.65 255 255 255
0.0915026 -0.357918 2.755 255 255 255
-0.420475 -0.206516 1.145 255 255 255
-0.362178 -0.210178 1.232 255 255 255
0.42805 -0.0263124 2.064 255 255 255
-0.5251 -0.289126 1.21 255 255 255
0.126724 -0.822296 2.479 255 255 255
-0.815896 -0.620282 1.673 0 0 0
0.300104 -0.0355602 2.017 255 255 255
-0.530963 -0.086207 2.32 0 0 0
0.495412 0.468211 1.624 255 255 255
-0.121524 -0.936421 2.44 255 255 255
0.481918 0.398133 1.758 255 255 255
-0.491083 -0.166518 1.079 255 255 255
-0.410077 0.264207 1.929 255 255 255
-0.440848 -0.053647 0.895 255 255 255
0.350831 0.194352 1.805 255 255 255
-0.384617 0.0605865 2.303 255 255 255
-0.422484 -0.326807 1.406 255 255 255
0.267935 0.27332 1.905 255 255 255
0.0291606 0.25782 1.905 255 255 255
0.0734593 -0.155426 2.593 255 255 255
0.617186 -0.433752 1.744 255 255 255
0.35845 -0.4972 1.799 255 255 255
0.241866 -0.389433 1.997 255 255 255
-0.184315 -0.928629 2.43 255 255 255
0.2598 0.0267109 2.01 0 0 0
0.674061 0.116494 1.456 255 255 255
0.168899 0.0260755 2.236 255 255 255
0.646517 0.410809 1.659 255 255 255
0.529534 -0.420789 1.876 255 255 255
0.616763 0.422731 1.696 255 255 255
0.241302 -0.649971 2.338 255 255 255
-0.0826704 -0.297025 2.731 255 255 255
0.323552 -0.242691 1.941 255 255 255
-0.44025 0.00455831 2.402 255 255 255
-0.236984 0.205018 0.666 255 255 255
-0.454798 -0.090189 0.942 255 255 255
-0.338175 0.0618135 0.642 255 255 255
-0.313535 0.0636312 0.684 255 255 255
-0.721519 -0.517386 1.591 0 0 0
-0.206005 0.126052 0.401 0 0 0
-0.368364 -0.378113 2.707 255 255 255
-0.236629 0.203008 0.656 0 0 0
-0.466751 -0.081774 0.9 255 255 255
0.378319 0.365727 1.81 0 0 0
0.577276 -0.0362654 2.057 255 255 255
0.106301 -0.0420128 2.383 255 255 255
0.0784817 0.345188 1.826 255 255 255
-0.313915 0.0643657 0.68 255 255 255
0.324387 0.232537 1.805 0 0 0
0.584486 -0.623087 1.774 255 255 255
-0.400251 -0.192777 1.13 255 255 255
-0.3308 0.346637 1.758 255 255 255
0.408995 0.360203 1.842 255 255 255
0.107832 0.544103 1.459 255 255 255
0.164155 0.460645 1.616 255 255 255
-0.385664 -0.197554 1.158 255 255 255
-0.479666 0.0391258 2.365 255 255 255
0.688591 -0.00660381 1.432 255 255 255
0.644291 -0.172603 1.587 255 255 255
-0.505814 -0.750386 1.947 255 255 255
0.175459 -0.451362 2.374 255 255 255
0.664887 0.433688 1.539 255 255 255
-0.334141 -0.142657 1.112 255 255 255
-0.255188 0.0876511 0.698 255 255 255
-0.28225 0.0823579 1.073 255 255 255
-0.382328 -0.268019 1.33 255 255 255
0.205666 -0.634953 2.411 255 255 255
0.157978 -0.769393 2.402 0 0 0
0.658128 0.299251 1.583 255 255 255
-0.276809 -0.866672 2.479 255 255 255
-0.372826 0.423512 1.595 255 255 255
-0.193158 0.405552 1.705 255 255 255
0.641701 -0.589507 1.633 255 255 255
0.650566 0.189133 1.705 255 255 255
-0.0631623 -0.0944852 2.338 255 255 255
0.673682 -0.193435 1.435 255 255 255
0.194615 -0.672767 2.42 255 255 255
-0.214138 -0.307631 2.707 255 255 255
-0.523428 -0.185317 2.54 0 0 0
0.0412535 -0.499236 2.695 255 255 255
0.690651 -0.0493635 1.456 255 255 255
-0.557145 -0.209297 1.12 255 255 255
-0.730039 -0.526415 1.587 255 255 255
0.685661 0.225612 1.357 255 255 255
0.663013 -0.130547 1.463 255 255 255
-0.0357655 0.442237 1.616 255 255 255
-0.0480589 0.274679 1.893 255 255 255
0.531227 0.345939 1.799 255 255 255
0.676969 -0.309362 1.442 255 255 255
-0.16903 0.458967 1.583 255 255 255
-0.279849 -0.0144346 0.902 255 255 255
-0.256901 0.221196 0.601 0 0 0
0.665022 0.0938069 1.551 255 255 255
0.343808 0.155647 1.799 255 255 255
-0.357626 -0.558522 1.837 0 0 0
0.31445 -0.609037 1.734 255 255 255
0.263822 0.508725 1.509 255 255 255
0.642181 -0.531172 1.563 255 255 255
0.693041 0.544189 1.422 255 255 255
0.252471 -0.281999 1.929 255 255 255
0.614884 -0.182946 1.848 255 255 255
0.521245 0.35003 1.805 255 255 255
0.0808031 0.0972173 2.121 255 255 255
0.664313 -0.383857 1.319 0 0 0
0.148225 -0.145797 2.572 255 255 255
-0.404154 -0.0272162 0.888 255 255 255
0.238243 -0.353243 1.941 0 0 0
-0.257042 0.0605672 0.757 255 255 255
-0.398915 -0.041173 0.909 255 255 255
0.0556375 -0.787751 2.55 255 255 255
0.651888 -0.161635 1.532 255 255 255
-0.616483 -0.61153 1.664 255 255 255
-0.113337 0.163948 2.136 0 0 0
0.635772 0.39561 1.71 255 255 255
-0.242337 0.239668 0.657 255 255 255
-0.309096 -0.758492 2.356 255 255 255
0.478697 0.312477 1.917 255 255 255
0.220562 -0.694047 2.32 255 255 255
-0.427853 -0.163006 1.079 255 255 255
0.205096 0.0419923 2.121 255 255 255
-0.275373 0.447214 1.587 255 255 255
0.350703 -0.00609985 2.044 0 0 0
0.579612 0.0963497 2.03 255 255 255
-0.234837 0.142597 0.663 0 0 0
0.372892 -0.170666 1.985 255 255 255
-0.537266 -0.438985 2.649 255 255 255
0.141686 -0.49749 2.53 0 0 0
-0.403374 -0.104453 2.392 255 255 255
0.441739 -0.566634 1.769 255 255 255
0.171686 -0.667638 2.43 255 255 255
0.487373 0.254913 2.004 255 255 255
0.261789 0.533852 1.47 255 255 255
0.248807 0.377594 1.769 255 255 255
0.196645 0.532399 1.466 255 255 255
0.244397 -0.639603 2.261 255 255 255
-0.166535 0.514715 1.47 255 255 255
-0.286644 0.0480324 0.717 255 255 255
0.686165 -0.183492 1.345 255 255 255
-0.334674 -0.562185 1.859 255 255 255
-0.364784 -0.206202 2.649 255 255 255
-0.134496 -0.24611 2.615 255 255 255
-0.480087 -0.244909 1.196 255 255 255
0.672274 -0.405091 1.432 0 0 0
0.482807 -0.21625 1.959 255 255 255
0.641878 -0.43385 1.668 255 255 255
0.138817 0.424307 1.659 255 255 255
-0.458759 0.169149 2.158 255 255 255
0.645446 0.564748 1.445 255 255 255
-0.354419 0.0275677 0.701 255 255 255
-0.186798 -0.937062 2.411 255 255 255
-0.409471 -0.191071 1.12 255 255 255
