ply
format ascii 1.0
comment Created by Open3D
element vertex 1326
property double x
property double y
property double z
property uchar red
property uchar green
property uchar blue
end_header
-0.0375738 0.532667 1.48 255 255 255
-0.102873 -0.931479 2.469 255 255 255
-0.183464 0.0978076 0.38 255 255 255
0.308502 -0.00278309 2.051 0 0 0
0.0382532 -0.84113 2.499 255 255 255
-0.235113 -0.0282089 0.972 255 255 255
-0.150696 0.329122 1.905 255 255 255
-0.349184 -0.376437 2.695 255 255 255
-0.326745 0.23051 2.078 255 255 255
0.420514 0.535755 1.516 255 255 255
-0.195948 0.152307 0.429 255 255 255
0.181679 0.29595 1.911 255 255 255
-0.407661 -0.551287 1.794 255 255 255
-0.525806 -0.145922 1.057 255 255 255
-0.108191 -0.100992 2.499 255 255 255
0.0464533 -0.329577 2.743 255 255 255
-0.0878816 -0.344468 2.755 0 0 0
-0.415974 0.0164069 2.42 0 0 0
-0.0900726 0.302816 1.935 0 0 0
0.660468 0.123286 1.985 255 255 255
0.474327 0.459613 1.71 255 255 255
0.435597 -0.0610219 1.991 255 255 255
0.725626 0.367614 1.535 255 255 255
-0.280689 -0.124738 1.13 255 255 255
-0.349403 -0.297025 2.731 0 0 0
0.573927 0.0340303 2.057 255 255 255
-0.0190574 0.218445 2.092 255 255 255
0.622204 -0.358581 1.87 255 255 255
0.0274733 0.537484 1.48 255 255 255
0.614939 0.45511 1.714 255 255 255
-0.517847 -0.13016 1.041 255 255 255
-0.133129 -0.913906 2.509 255 255 255
-0.537428 -0.202347 1.102 255 255 255
-0.528044 -0.113696 1.015 255 255 255
-0.339162 0.22185 2.092 255 255 255
-0.194998 0.0704674 0.376 255 255 255
0.574536 -0.241941 1.935 255 255 255
0.102698 0.263504 1.947 255 255 255
0.722833 0.0289827 1.595 255 255 255
-0.540981 -0.161646 1.07 0 0 0
0.622863 -0.609712 1.744 255 255 255
0.698643 -0.0382402 1.831 255 255 255
-0.0494327 0.454862 1.633 255 255 255
0.536774 0.458269 1.705 255 255 255
-0.83338 -0.555694 1.612 255 255 255
-0.239291 0.15958 0.601 255 255 255
0.221997 0.458296 1.655 255 255 255
0.665735 0.000554561 2.051 255 255 255
-0.455961 -0.225069 1.194 255 255 255
0.645828 -0.277436 1.941 0 0 0
-0.179545 -0.126947 2.53 255 255 255
0.0454609 -0.102956 2.449 255 255 255
0.180833 0.122541 2.204 0 0 0
-0.253508 -0.00969744 0.872 255 255 255
-0.0584256 -0.0513559 2.459 255 255 255
0.641566 0.0891681 2.017 255 255 255
-0.249176 -0.552062 1.876 255 255 255
0.197827 0.35979 1.887 255 255 255
0.0571635 0.562403 1.439 255 255 255
-0.292763 0.00849888 2.411 0 0 0
-0.633928 -0.46295 1.646 0 0 0
-0.203417 0.159945 0.798 255 255 255
0.258842 -0.770764 2.469 255 255 255
-0.400394 -0.149626 1.11 255 255 255
0.51469 0.324858 1.935 255 255 255
-0.23615 0.170462 0.598 255 255 255
-0.207705 0.134891 0.673 255 255 255
0.45645 0.5193 1.563 255 255 255
-0.383092 -0.668067 1.859 255 255 255
0.297374 0.505336 1.583 255 255 255
-0.189562 0.114979 0.39 255 255 255
0.514968 0.521843 1.563 255 255 255
-0.199428 0.159699 0.432 255 255 255
-0.683387 -0.571613 1.682 0 0 0
-0.547704 -0.149081 1.043 0 0 0
-0.557311 -0.269834 1.203 0 0 0
0.074265 -0.854569 2.479 255 255 255
-0.195705 0.151962 0.43 255 255 255
0.176553 0.536707 1.498 255 255 255
0.68315 0.218535 1.887 0 0 0
-0.306043 -0.31163 1.559 255 255 255
0.722297 0.127041 1.691 255 255 255
-0.521886 -0.177409 1.092 255 255 255
-0.411182 -0.309942 2.615 0 0 0
0.320652 0.24232 1.905 255 255 255
0.278151 0.442451 1.719 255 255 255
0.298089 0.447171 1.705 255 255 255
0.563138 0.478183 1.668 255 255 255
0.56741 0.336378 1.911 255 255 255
0.171863 -0.688159 2.55 255 255 255
-0.0731713 0.316721 1.905 255 255 255
0.608864 -0.429196 1.821 255 255 255
0.598935 0.464389 1.677 255 255 255
-0.175109 0.108049 0.402 0 0 0
-0.214389 0.146338 0.416 0 0 0
-0.292971 -0.107875 1.055 255 255 255
-0.17385 0.0659762 0.413 0 0 0
0.201755 -0.931708 2.459 255 255 255
0.733381 0.354127 1.52 255 255 255
-0.078158 0.530147 1.473 255 255 255
-0.0970318 -0.578827 2.638 255 255 255
0.0418131 -0.107815 2.469 255 255 255
-0.254222 0.552294 1.425 255 255 255
0.468007 -0.090182 1.991 255 255 255
-0.245755 0.0749214 1.273 255 255 255
-0.26145 0.0705875 0.676 255 255 255
-0.379105 -0.0935118 2.411 255 255 255
0.684212 0.389876 1.734 255 255 255
0.225494 0.565121 1.452 255 255 255
0.68465 0.0473122 1.917 255 255 255
0.280932 0.557774 1.47 255 255 255
0.449646 -0.433299 1.789 255 255 255
-0.243356 0.356891 1.81 255 255 255
0.702668 0.439827 1.677 255 255 255
0.16854 0.468149 1.633 255 255 255
0.108267 -0.130495 2.519 0 0 0
-0.18432 0.108911 0.391 255 255 255
0.253881 0.368721 1.87 255 255 255
-0.427792 0.00459247 2.42 0 0 0
0.428004 0.527721 1.543 255 255 255
-0.288578 0.491326 1.547 255 255 255
0.546054 0.537764 1.543 255 255 255
0.468717 -0.437894 1.784 255 255 255
-0.209731 0.2499 0.676 255 255 255
-0.177492 0.0580158 0.409 0 0 0
0.408673 0.21565 1.763 255 255 255
-0.355546 -0.716306 2.03 255 255 255
0.358909 -0.456829 2.196 0 0 0
0.170446 0.212702 2.037 255 255 255
0.221477 0.480491 1.612 255 255 255
-0.183592 0.17568 0.463 255 255 255
0.36631 -0.602304 1.739 255 255 255
0.30918 0.0884832 2.078 0 0 0
0.706684 0.110137 1.821 255 255 255
-0.17977 0.0850894 0.384 0 0 0
-0.265107 -0.145384 1.21 255 255 255
-0.226827 0.0267295 0.857 255 255 255
0.705523 -0.647608 1.724 255 255 255
-0.205859 0.278627 0.961 0 0 0
-0.326092 0.454659 1.595 0 0 0
0.413225 0.279049 1.821 255 255 255
-0.322488 -0.365638 1.744 255 255 255
0.724983 0.0773171 1.629 255 255 255
-0.47461 -0.246255 1.222 255 255 255
-0.252614 -0.0497252 0.991 255 255 255
0.341584 0.555841 1.484 255 255 255
0.447536 -0.615959 1.714 255 255 255
0.331036 0.3632 1.842 255 255 255
0.141239 0.308389 1.911 0 0 0
-0.267642 -0.632308 2.329 255 255 255
-0.22921 0.11594 2.286 0 0 0
0.581599 -0.559575 1.774 255 255 255
0.725863 0.0338311 1.579 255 255 255
0.708659 0.150597 1.774 255 255 255
-0.546533 -0.722361 1.923 255 255 255
-0.126009 -0.215122 2.707 0 0 0
0.70731 -0.0822101 1.815 255 255 255
-0.491728 -0.328593 1.225 255 255 255
0.633481 0.0313094 2.099 0 0 0
-0.181854 0.120179 0.401 255 255 255
-0.208736 0.109413 0.714 255 255 255
-0.314036 -0.283498 1.466 255 255 255
-0.186683 0.0839815 0.379 255 255 255
-0.0480589 0.327048 1.893 255 255 255
0.617988 -0.555362 1.779 255 255 255
0.739407 -0.545502 1.575 255 255 255
0.0512847 -0.701994 2.54 255 255 255
-0.0392623 0.390209 1.774 255 255 255
-0.616824 -0.556084 1.71 0 0 0
-0.383044 -0.185045 1.139 255 255 255
-0.488535 -0.238301 1.222 255 255 255
-0.250714 0.506151 1.516 255 255 255
0.536385 0.490785 1.62 255 255 255
-0.200137 -0.822296 2.479 255 255 255
0.516938 -0.389182 1.842 255 255 255
0.599837 -0.469543 1.794 255 255 255
0.446498 0.500123 1.591 255 255 255
0.012258 0.431786 1.71 255 255 255
0.129705 -0.943713 2.459 255 255 255
0.0404217 0.415682 1.724 255 255 255
0.181831 0.465491 1.633 255 255 255
0.346921 -0.0666543 1.966 255 255 255
-0.548576 -0.318442 1.18 255 255 255
0.556325 0.344622 1.905 255 255 255
-0.204839 0.167302 0.65 0 0 0
0.447877 -0.483104 1.748 255 255 255
-0.296131 -0.178562 1.208 255 255 255
0.275288 -0.554605 2.509 0 0 0
0.645264 -0.353749 1.893 0 0 0
0.487504 0.405153 1.789 255 255 255
0.222445 0.250058 1.941 255 255 255
0.500661 0.409827 1.784 255 255 255
-0.221451 -0.231374 2.743 255 255 255
-0.555744 -0.228119 1.132 255 255 255
0.373469 -0.650991 1.682 255 255 255
-0.204839 0.188458 0.65 255 255 255
-0.200869 0.518256 1.494 255 255 255
-0.38474 -0.501555 2.638 255 255 255
-0.233137 0.406806 1.734 255 255 255
0.729298 0.471131 1.425 255 255 255
-0.43063 0.0356799 2.392 0 0 0
-0.230774 0.0551983 0.768 255 255 255
0.20507 -0.634213 2.55 255 255 255
-0.684729 -0.610616 1.763 0 0 0
-0.218899 0.0467544 0.817 255 255 255
-0.727813 -0.607281 1.729 0 0 0
0.104115 0.440134 1.71 255 255 255
0.490855 -0.610095 1.729 255 255 255
0.40803 -0.327272 1.865 255 255 255
-0.224789 0.103854 0.685 255 255 255
0.30973 0.489461 1.607 255 255 255
-0.711699 -0.468611 1.575 0 0 0
0.732549 0.119354 1.555 255 255 255
-0.117173 0.361665 1.865 255 255 255
0.335139 -0.041185 1.972 255 255 255
-0.236775 -0.571192 1.899 255 255 255
0.51154 0.328007 1.935 255 255 255
-0.43001 -0.563374 2.626 255 255 255
-0.066161 -0.93589 2.449 255 255 255
-0.0724676 -0.736284 2.53 255 255 255
0.12604 0.383818 1.826 255 255 255
0.534337 -0.644802 1.724 255 255 255
0.298428 -0.317113 2.604 255 255 255
-0.0837725 0.149656 2.181 0 0 0
0.700544 0.327164 1.876 255 255 255
-0.204911 0.401163 1.734 255 255 255
0.691961 0.108115 1.837 255 255 255
0.307436 -0.587001 2.44 255 255 255
-0.130639 -0.123316 2.54 255 255 255
-0.299967 0.20489 2.128 255 255 255
-0.336477 0.424878 1.62 0 0 0
-0.134224 -0.205397 2.695 0 0 0
0.511416 -0.257599 1.911 255 255 255
0.413434 -0.0992497 1.978 255 255 255
0.673179 -0.0121472 1.947 255 255 255
0.45065 -0.340244 1.853 255 255 255
0.711458 -0.0822132 1.587 255 255 255
-0.51355 -0.0891337 0.981 255 255 255
-0.00259353 -0.221037 2.672 255 255 255
0.706713 -0.248059 1.642 255 255 255
0.768536 -0.559906 1.551 255 255 255
0.213699 0.538141 1.502 255 255 255
0.719951 0.172486 1.705 255 255 255
0.351223 -0.630326 2.107 0 0 0
0.634664 0.186183 2.037 255 255 255
0.742584 0.0245508 1.484 255 255 255
-0.244861 0.138146 0.61 255 255 255
0.604701 -0.49029 1.774 255 255 255
-0.406214 -0.328195 2.695 255 255 255
-0.430647 -0.60103 2.604 255 255 255
-0.116372 -0.421942 2.793 255 255 255
0.0851492 0.397098 1.779 255 255 255
-0.177574 -0.286186 2.755 255 255 255
0.738239 0.121571 1.551 255 255 255
-0.202459 0.156827 0.428 255 255 255
0.705977 0.174489 1.753 255 255 255
-0.263424 0.414074 1.729 255 255 255
0.331286 -0.635335 2.383 255 255 255
-0.205288 0.103683 0.757 255 255 255
0.671104 -0.0500135 1.941 255 255 255
-0.182058 -0.4969 2.755 255 255 255
0.495863 -0.254489 1.911 255 255 255
-0.695621 -0.50444 1.591 255 255 255
0.484779 0.408679 1.779 255 255 255
-0.229909 0.0584104 0.761 255 255 255
-0.342024 0.404363 1.7 0 0 0
0.729097 0.369208 1.491 255 255 255
0.236197 0.103268 2.253 0 0 0
-0.502645 -0.174506 1.085 255 255 255
0.346308 0.217261 1.876 255 255 255
0.634664 0.139775 2.037 255 255 255
0.0986727 0.0149967 2.212 255 255 255
0.694952 -0.0323867 1.837 255 255 255
-0.282581 -0.915702 2.459 255 255 255
-0.0875703 0.533852 1.47 0 0 0
0.709289 -0.0846945 1.805 255 255 255
0.473059 -0.0253053 1.985 255 255 255
0.268184 -0.0608075 2.519 255 255 255
0.121805 0.284821 1.899 255 255 255
0.728781 0.0155232 1.547 255 255 255
0.675756 0.569735 1.47 255 255 255
-0.151227 0.146107 2.181 0 0 0
-0.226288 0.0741554 0.745 255 255 255
-0.235278 0.322941 1.887 255 255 255
0.0597884 -0.742105 2.55 255 255 255
-0.212148 0.0922024 0.883 0 0 0
0.713793 -0.0799124 1.646 255 255 255
0.690598 0.544544 1.513 255 255 255
-0.18965 0.0736905 0.38 255 255 255
-0.292633 0.0884794 2.347 255 255 255
-0.446335 -0.879773 2.312 0 0 0
0.537371 0.22517 1.972 255 255 255
-0.20246 0.154465 0.663 0 0 0
-0.359185 0.0413694 0.684 255 255 255
0.257 -0.52631 2.53 0 0 0
-0.206435 0.285007 0.902 255 255 255
0.422774 0.216996 1.774 255 255 255
0.155578 0.538936 1.484 255 255 255
0.2084 -0.755728 2.54 255 255 255
-0.488516 -0.153318 1.085 255 255 255
-0.236052 0.550092 1.456 255 255 255
0.720353 0.542732 1.449 255 255 255
0.00106199 0.468535 1.616 255 255 255
-0.268839 -0.105699 1.104 255 255 255
-0.573517 -0.298225 1.176 255 255 255
0.580692 -0.468234 1.789 255 255 255
0.524629 0.442211 1.729 255 255 255
-0.142332 0.390658 1.763 255 255 255
-0.389699 -0.586288 2.672 255 255 255
0.380214 -0.77044 2.078 255 255 255
0.650946 -0.159435 1.966 255 255 255
-0.242553 -0.791652 2.459 255 255 255
-0.0781941 0.283385 1.953 0 0 0
-0.0768403 0.515824 1.494 255 255 255
0.0416209 -0.233774 2.719 255 255 255
-0.200791 0.207404 0.736 255 255 255
0.715717 0.105879 1.799 255 255 255
-0.184085 0.508618 1.516 255 255 255
-0.204716 0.127164 0.788 255 255 255
-0.356057 0.272213 1.876 255 255 255
0.510841 0.417364 1.779 255 255 255
-0.398919 -0.799896 2.196 255 255 255
0.359779 0.44935 1.682 255 255 255
0.701005 -0.0688541 1.853 255 255 255
-0.0190787 -0.737955 2.55 255 255 255
0.373767 -0.342163 1.831 255 255 255
-0.196478 0.083259 0.373 255 255 255
0.728804 -0.407552 1.466 0 0 0
0.18361 0.528354 1.516 255 255 255
0.0735625 -0.0713812 2.329 255 255 255
-0.0169545 0.491211 1.579 255 255 255
0.387307 -0.331197 1.853 255 255 255
0.730945 0.441146 1.48 255 255 255
0.256213 -0.227325 2.695 0 0 0
-0.159526 -0.0377028 2.356 0 0 0
-0.429957 -0.278841 1.33 255 255 255
-0.312772 0.353246 1.837 255 255 255
0.644989 0.0482268 2.092 255 255 255
-0.351633 -0.866439 2.411 255 255 255
0.024128 -0.485808 2.743 255 255 255
-0.23095 0.0473028 1.07 255 255 255
0.097498 0.219332 2.037 255 255 255
0.706921 -0.233034 1.612 255 255 255
0.732549 0.162372 1.555 255 255 255
-0.177649 0.547975 1.463 255 255 255
0.239714 -0.87474 2.479 255 255 255
0.719361 0.404683 1.543 255 255 255
-0.208703 0.312657 0.824 255 255 255
-0.216309 0.146677 0.634 255 255 255
0.676375 0.232816 1.929 255 255 255
0.0238385 0.251606 1.978 0 0 0
0.310776 -0.238938 2.044 255 255 255
0.618043 0.469847 1.677 255 255 255
0.739835 0.0881636 1.498 255 255 255
-0.472949 -0.530246 1.744 255 255 255
-0.0892719 0.365369 1.853 255 255 255
0.311263 0.031205 2.092 0 0 0
-0.40506 -0.898385 2.402 255 255 255
0.609359 -0.657798 1.714 255 255 255
0.263591 0.517837 1.551 255 255 255
0.688335 0.46851 1.682 255 255 255
-0.00644153 -0.773886 2.479 255 255 255
0.434345 -0.300425 1.887 255 255 255
-0.333508 0.168016 2.189 255 255 255
0.63632 -0.665311 1.719 255 255 255
0.528448 0.461044 1.705 255 255 255
-0.212556 0.186463 0.629 0 0 0
0.0903185 0.313729 1.887 255 255 255
-0.542499 -0.192517 1.087 255 255 255
-0.24011 -0.0182562 0.948 255 255 255
0.339124 0.212393 1.887 255 255 255
-0.743367 -0.483558 1.599 0 0 0
0.33732 0.122106 1.966 255 255 255
0.62413 -0.413675 1.831 255 255 255
0.358687 -0.551057 2.173 0 0 0
-0.319181 -0.12137 1.068 255 255 255
-0.084254 0.3834 1.81 255 255 255
-0.379694 -0.896714 2.44 255 255 255
0.611242 0.45861 1.696 255 255 255
0.282554 0.563413 1.466 255 255 255
0.723091 -0.408467 1.551 255 255 255
-0.136735 0.289351 1.972 255 255 255
-0.223078 0.530258 1.48 255 255 255
-0.216374 0.0909161 0.724 255 255 255
-0.390397 -0.197501 2.707 255 255 255
-0.372297 -0.482536 1.821 255 255 255
0.0764303 0.554522 1.449 255 255 255
-0.339859 -0.022889 2.411 0 0 0
-0.205325 -0.184286 2.707 255 255 255
0.326385 -0.116452 1.997 255 255 255
-0.234901 0.00750748 0.893 255 255 255
0.181195 -0.357918 2.755 255 255 255
0.25926 0.353649 1.887 255 255 255
0.669915 0.253116 1.893 255 255 255
0.341292 -0.800639 2.269 255 255 255
0.10664 -0.00302327 2.228 255 255 255
-0.290586 -0.899695 2.459 255 255 255
0.0376873 -0.470001 2.755 255 255 255
0.324552 -0.211757 1.947 0 0 0
-0.19405 0.0905429 0.373 0 0 0
-0.388399 -0.302582 2.42 0 0 0
0.13287 -0.819167 2.519 255 255 255
0.621209 -0.21241 1.953 255 255 255
0.730665 0.00546734 1.551 255 255 255
0.408771 0.433449 1.739 255 255 255
-0.229962 0.13426 0.629 255 255 255
0.713712 -0.444775 1.71 255 255 255
-0.203431 0.202887 0.692 255 255 255
-0.722488 -0.408893 1.429 255 255 255
0.704356 -0.200354 1.815 255 255 255
-0.766475 -0.455991 1.516 255 255 255
-0.211323 0.225769 0.657 255 255 255
-0.273016 -0.193962 1.357 255 255 255
-0.254515 -0.584789 1.893 255 255 255
-0.241123 -0.0214316 0.952 255 255 255
0.698272 0.253639 1.748 255 255 255
0.195073 0.110159 2.244 0 0 0
0.665705 -0.0286218 1.991 255 255 255
-0.2539 0.0986994 0.651 255 255 255
-0.266274 0.478364 1.579 255 255 255
0.696523 0.138926 1.81 255 255 255
0.742793 0.211269 1.456 255 255 255
0.698741 0.54459 1.52 255 255 255
-0.279606 0.17266 2.158 255 255 255
-0.314935 -0.226358 1.302 255 255 255
-0.394877 -0.596271 1.763 255 255 255
0.123866 -0.0216264 2.278 255 255 255
-0.378938 -0.232008 2.269 0 0 0
0.306848 -0.462952 2.374 255 255 255
0.3049 0.19454 1.923 255 255 255
-0.300176 0.308155 1.929 255 255 255
0.21359 -0.319067 2.768 255 255 255
-0.182542 0.174512 0.47 255 255 255
-0.220214 0.0582856 0.793 255 255 255
0.372191 -0.727403 2.071 255 255 255
0.698525 -0.636437 1.763 255 255 255
-0.211533 0.238976 0.661 255 255 255
0.601597 0.110291 2.107 0 0 0
0.260732 -0.652932 2.449 0 0 0
0.701381 0.552293 1.494 255 255 255
0.170988 0.427789 1.739 255 255 255
0.742724 0.0976531 1.494 255 255 255
0.566153 -0.510161 1.753 255 255 255
0.128317 0.372603 1.859 255 255 255
0.559491 0.0986279 2.078 0 0 0
-0.202072 0.199202 0.711 255 255 255
-0.251272 -0.106579 1.173 255 255 255
-0.209375 0.0692758 0.832 255 255 255
-0.0827775 -0.903354 2.469 255 255 255
-0.37284 -0.494859 2.071 0 0 0
-0.553399 -0.28148 1.178 255 255 255
-0.26145 0.0694875 0.676 255 255 255
-0.208249 0.28654 0.782 255 255 255
-0.210145 0.090296 0.814 0 0 0
0.672074 -0.250548 1.953 255 255 255
0.474234 0.397027 1.805 255 255 255
0.157248 0.550816 1.477 255 255 255
-0.56672 -0.517126 1.71 255 255 255
-0.367425 -0.581028 1.769 255 255 255
0.67095 -0.0122221 1.959 255 255 255
0.261076 0.304067 1.923 255 255 255
0.507673 -0.531642 1.758 255 255 255
-0.15869 -0.649127 2.593 255 255 255
-0.0260971 0.358631 1.865 255 255 255
0.335152 -0.863501 2.329 255 255 255
0.636466 -0.507611 1.774 0 0 0
-0.430661 -0.893822 2.329 0 0 0
0.406421 -0.581958 1.729 255 255 255
-0.268167 -0.0718314 1.007 255 255 255
-0.302929 0.524283 1.47 255 255 255
-0.554869 -0.289829 1.173 255 255 255
-0.248392 -0.00259333 0.869 255 255 255
0.737998 0.204545 1.442 255 255 255
0.622053 0.518216 1.583 255 255 255
-0.220844 -0.0141743 0.986 255 255 255
-0.154755 0.423438 1.71 255 255 255
0.22782 0.0658148 2.356 255 255 255
0.337499 0.529748 1.52 255 255 255
-0.355016 0.158983 2.212 255 255 255
0.511543 0.314199 1.947 255 255 255
0.518925 -0.332186 1.893 255 255 255
0.307436 -0.503617 2.44 255 255 255
0.798375 -0.501931 1.575 255 255 255
0.389505 -0.276736 1.893 255 255 255
0.699469 0.138926 1.81 255 255 255
-0.209881 0.100619 0.726 255 255 255
0.393106 0.542446 1.487 255 255 255
-0.244524 -0.0347492 0.978 255 255 255
0.191011 0.317719 1.911 255 255 255
-0.270527 0.536071 1.463 255 255 255
0.682239 0.267764 1.729 255 255 255
0.733662 0.506049 1.452 255 255 255
0.698541 0.452379 1.587 255 255 255
0.451134 0.345532 1.893 0 0 0
0.30142 -0.715195 2.303 255 255 255
0.272378 0.535696 1.502 255 255 255
0.6518 0.0141831 2.092 255 255 255
-0.23242 -0.882808 2.479 255 255 255
0.733304 0.181079 1.442 255 255 255
0.0377317 0.0767419 2.228 255 255 255
-0.313112 -0.34345 1.664 255 255 255
-0.217994 0.139125 0.642 255 255 255
-0.0185475 -0.11632 2.479 255 255 255
-0.399744 -0.098788 2.181 255 255 255
0.388407 -0.588692 1.724 255 255 255
-0.649536 -0.406327 1.412 255 255 255
0.245539 0.546927 1.473 255 255 255
-0.0429817 0.47941 1.591 255 255 255
0.58054 -0.13384 1.966 255 255 255
-0.226904 -0.425168 2.755 255 255 255
-0.213424 0.0757746 0.787 255 255 255
-0.27733 0.310326 1.923 255 255 255
0.62786 0.362861 1.887 0 0 0
-0.310752 -0.240302 2.743 255 255 255
-0.287874 0.38955 1.758 255 255 255
-0.180344 0.360502 1.859 255 255 255
0.455847 -0.321921 1.887 255 255 255
0.226509 -0.475027 2.707 255 255 255
0.444236 -0.462722 1.779 255 255 255
-0.327225 0.37968 1.739 255 255 255
-0.741855 -0.519974 1.607 255 255 255
0.713012 0.475764 1.498 255 255 255
-0.115161 -0.592312 2.66 255 255 255
0.699113 0.34634 1.848 255 255 255
0.587929 -0.343416 1.887 255 255 255
0.708156 -0.531044 1.633 255 255 255
0.0218937 -0.951176 2.489 255 255 255
-0.50947 -0.260662 1.215 0 0 0
-0.524865 -0.313029 1.196 0 0 0
0.70009 -0.0286292 1.789 255 255 255
0.677648 -0.505982 1.799 255 255 255
-0.17084 0.0224578 0.508 255 255 255
0.103672 0.169776 2.166 0 0 0
0.61736 0.103777 2.114 0 0 0
-0.144085 0.240655 2.078 0 0 0
-0.338443 0.0389753 0.701 255 255 255
0.205955 -0.724468 2.561 255 255 255
0.597644 0.555841 1.484 255 255 255
-0.00377293 0.560395 1.452 255 255 255
-0.0388804 -0.100588 2.489 0 0 0
0.404305 0.193354 1.769 0 0 0
-0.24253 0.0230464 0.825 255 255 255
-0.020276 0.563954 1.449 255 255 255
-0.207218 0.240889 0.701 255 255 255
-0.256268 0.0650605 2.329 0 0 0
0.0601103 -0.398268 2.755 255 255 255
0.324525 0.421019 1.758 255 255 255
-0.199645 0.165382 0.434 255 255 255
0.401368 0.320536 1.821 255 255 255
0.719208 0.0262548 1.587 255 255 255
-0.343325 -0.212449 1.222 255 255 255
-0.0183006 0.535075 1.48 255 255 255
0.369135 0.356655 1.794 255 255 255
0.576882 0.0890793 2.092 255 255 255
-0.217193 0.261277 0.984 255 255 255
-0.0403918 0.440327 1.7 255 255 255
-0.218614 0.0254921 0.969 0 0 0
0.322198 -0.613039 2.402 255 255 255
-0.227768 0.140076 0.623 255 255 255
-0.337188 -0.865735 2.42 255 255 255
0.714493 0.144796 1.739 255 255 255
0.012904 -0.0448509 2.329 255 255 255
0.704003 -0.29227 1.799 255 255 255
0.244649 0.520188 1.543 255 255 255
0.666834 -0.178159 1.893 255 255 255
-0.175133 0.508822 1.524 255 255 255
0.664809 -0.150271 1.853 255 255 255
-0.0581189 -0.576194 2.626 255 255 255
0.698133 0.160156 1.784 255 255 255
-0.24168 0.142406 0.607 255 255 255
0.695427 -0.434747 1.748 255 255 255
0.0482628 0.0545929 2.212 255 255 255
-0.193087 0.121947 0.392 255 255 255
-0.264219 -0.569417 1.853 255 255 255
0.299776 0.0691453 2.107 0 0 0
0.0908096 0.0363299 2.196 255 255 255
0.536467 0.38613 1.837 255 255 255
0.311198 -0.373138 2.32 255 255 255
0.0605019 0.459404 1.659 255 255 255
0.184757 -0.1993 2.615 255 255 255
0.612499 0.107572 2.121 0 0 0
-0.346332 -0.576346 2.707 255 255 255
0.666947 -0.0186644 1.966 255 255 255
-0.206768 0.291399 0.806 255 255 255
0.358865 -0.401756 1.831 255 255 255
0.707584 0.212049 1.831 255 255 255
-0.275692 -0.859158 2.469 255 255 255
0.732266 -0.131374 1.528 255 255 255
-0.252288 -0.100133 1.143 255 255 255
-0.21217 0.0381001 2.303 255 255 255
-0.647505 -0.633528 1.779 255 255 255
0.133977 -0.768128 2.54 255 255 255
0.0888447 -0.754554 2.55 255 255 255
-0.00797492 0.332153 1.887 0 0 0
-0.296678 -0.131446 1.094 255 255 255
-0.471744 -0.208988 1.18 255 255 255
-0.512434 -0.267024 1.208 0 0 0
-0.360936 -0.452026 1.794 255 255 255
-0.54841 -0.596077 1.705 255 255 255
0.0699108 0.278162 1.917 255 255 255
-0.0417672 0.232592 2.037 0 0 0
0.691961 0.0423483 1.837 255 255 255
-0.613982 -0.469445 1.65 0 0 0
-0.252597 -0.842467 2.479 255 255 255
-0.270124 0.518247 1.487 255 255 255
0.696267 0.462963 1.52 255 255 255
-0.466725 -0.288818 1.217 255 255 255
-0.349184 -0.372052 2.695 255 255 255
-0.231782 0.13752 1.171 255 255 255
-0.273306 -0.034713 0.895 255 255 255
-0.394877 -0.59914 1.763 255 255 255
-0.173913 0.064054 0.418 0 0 0
0.612897 0.551934 1.48 255 255 255
0.607913 -0.239532 1.941 255 255 255
0.288539 -0.712924 2.32 255 255 255
0.722186 -0.104393 1.571 255 255 255
-0.106103 0.495128 1.567 255 255 255
-0.245022 0.0370845 1.189 255 255 255
0.255883 -0.421541 2.519 255 255 255
-0.314068 -0.556203 1.81 255 255 255
-0.278823 -0.130121 1.145 255 255 255
0.717471 0.439141 1.624 255 255 255
0.735228 -0.583486 1.646 255 255 255
0.343845 0.401118 1.784 255 255 255
0.695823 0.51816 1.575 255 255 255
-0.203123 0.148149 0.777 255 255 255
0.461047 -0.516056 1.744 255 255 255
0.306636 0.0177136 2.107 0 0 0
0.716722 0.531137 1.456 255 255 255
0.182165 0.204749 2.057 255 255 255
0.3689 0.542446 1.487 255 255 255
0.60545 -0.0322779 2.017 0 0 0
-0.212255 0.301877 1.929 255 255 255
0.578331 0.389119 1.837 255 255 255
0.0215151 0.21888 2.064 0 0 0
-0.28156 -0.16351 1.213 255 255 255
-0.263929 0.41885 1.714 255 255 255
0.115981 0.206142 2.071 255 255 255
-0.189709 0.114684 0.389 255 255 255
0.72472 -0.185925 1.487 255 255 255
-0.251479 0.0274865 0.798 255 255 255
-0.311645 0.444008 1.642 255 255 255
0.644649 -0.472422 1.805 0 0 0
-0.59673 -0.488043 1.677 0 0 0
0.739835 0.107666 1.498 255 255 255
0.0876182 0.432796 1.714 255 255 255
0.720353 0.566312 1.449 255 255 255
-0.181334 0.0735978 0.386 255 255 255
-0.244516 0.173942 0.59 255 255 255
-0.2038 0.208213 0.77 0 0 0
0.731298 -0.186275 1.452 255 255 255
-0.218713 0.232737 0.638 255 255 255
-0.138127 0.188897 2.143 255 255 255
-0.191862 0.133899 0.407 255 255 255
0.686891 0.000472634 1.748 255 255 255
0.229521 -0.307258 2.743 255 255 255
0.754128 -0.554064 1.563 255 255 255
0.472602 -0.405985 1.81 255 255 255
-0.459575 -0.617467 1.758 255 255 255
0.0974763 0.376413 1.848 255 255 255
-0.225916 -0.276012 2.743 255 255 255
-0.0711271 0.510158 1.528 255 255 255
-0.0848226 -0.736284 2.53 255 255 255
-0.136285 -0.0781084 2.42 255 255 255
0.676222 0.478302 1.659 255 255 255
0.3049 0.285291 1.923 255 255 255
0.716011 0.534106 1.484 255 255 255
0.328719 -0.121412 1.972 255 255 255
-0.362365 -0.489293 1.893 255 255 255
0.663699 0.116826 1.985 255 255 255
0.681257 -0.309062 1.865 255 255 255
-0.125043 0.155102 2.158 0 0 0
0.166219 -0.29138 2.805 255 255 255
-0.404051 -0.501603 1.753 0 0 0
-0.247155 -0.30147 2.731 0 0 0
-0.568836 -0.205465 1.09 255 255 255
0.707344 -0.506898 1.607 255 255 255
0.254867 -0.930238 2.509 255 255 255
0.662242 0.258947 2.01 255 255 255
0.735033 0.195764 1.539 255 255 255
-0.385642 -0.616335 2.615 255 255 255
-0.122701 0.414074 1.729 255 255 255
0.67103 -0.137016 1.837 255 255 255
0.258842 -0.794872 2.469 255 255 255
-0.415796 -0.181903 2.672 255 255 255
0.732938 0.159496 1.629 255 255 255
0.219399 -0.0830144 2.572 255 255 255
0.136713 0.44586 1.7 255 255 255
0.688135 0.544544 1.513 255 255 255
-0.346222 0.0426688 0.687 255 255 255
0.736943 -0.059846 1.543 255 255 255
-0.203104 0.314921 0.875 0 0 0
-0.132598 -0.832997 2.499 255 255 255
-0.198561 0.0501176 0.394 255 255 255
-0.0814477 0.507499 1.535 255 255 255
0.641958 -0.39045 1.848 0 0 0
-0.215047 0.0915744 0.92 255 255 255
0.558497 -0.545141 1.774 255 255 255
0.113231 -0.102956 2.449 255 255 255
-0.22695 0.181398 0.602 255 255 255
-0.210917 0.276215 0.764 255 255 255
0.192718 0.16794 2.099 255 255 255
-0.725929 -0.516091 1.595 255 255 255
-0.0161277 0.521031 1.502 255 255 255
0.640346 -0.584331 1.753 255 255 255
-0.228651 0.135721 2.244 255 255 255
0.323543 -0.28295 2.151 255 255 255
0.549445 0.523179 1.567 255 255 255
0.704021 -0.264858 1.853 255 255 255
0.276385 -0.0608075 2.519 255 255 255
-0.213562 -0.725081 2.593 255 255 255
0.066618 0.453472 1.677 255 255 255
-0.195781 0.161917 0.438 255 255 255
-0.626249 -0.609712 1.744 255 255 255
0.172539 0.117043 2.236 0 0 0
0.314157 0.384869 1.831 255 255 255
0.101365 0.392236 1.81 255 255 255
-0.601161 -0.604468 1.729 255 255 255
-0.166687 0.0855497 0.407 0 0 0
-0.206429 0.158985 0.871 255 255 255
-0.127684 -0.338504 2.743 0 0 0
0.466724 -0.521732 1.744 255 255 255
0.452973 0.567641 1.477 255 255 255
0.348679 -0.826486 2.269 255 255 255
0.351332 -0.362343 1.991 255 255 255
0.492527 -0.157894 1.947 255 255 255
0.14654 -0.385209 2.695 255 255 255
-0.225661 0.129479 0.646 255 255 255
0.0788039 0.530412 1.494 255 255 255
0.0895481 0.489627 1.599 255 255 255
-0.21355 0.150008 0.635 255 255 255
-0.705924 -0.572643 1.677 255 255 255
-0.158731 -0.0736186 2.402 255 255 255
0.214292 -0.0826593 2.561 255 255 255
0.699938 0.428911 1.677 255 255 255
0.730945 0.359259 1.48 255 255 255
0.684293 -0.321202 1.865 255 255 255
0.258709 -0.829769 2.43 255 255 255
-0.412894 -0.236002 1.252 255 255 255
-0.208755 0.160867 0.633 255 255 255
-0.322729 -0.203696 2.731 0 0 0
-0.216972 0.271749 0.897 255 255 255
-0.342818 0.191756 2.136 255 255 255
-0.288826 -0.128353 1.098 255 255 255
-0.0127208 0.152644 2.173 255 255 255
-0.61437 -0.505937 1.673 255 255 255
-0.180785 0.103072 0.393 255 255 255
-0.417349 -0.258059 1.291 255 255 255
-0.0623262 0.360502 1.859 255 255 255
-0.176319 -0.643406 2.604 255 255 255
-0.355985 -0.191541 2.071 255 255 255
0.239481 -0.745381 2.519 255 255 255
-0.563661 -0.466423 1.668 255 255 255
-0.333102 0.455238 1.579 0 0 0
-0.511051 -0.777792 2.044 255 255 255
0.737079 -0.222528 1.473 255 255 255
0.373174 0.318029 1.758 0 0 0
-0.215271 0.277279 0.896 255 255 255
0.712308 -0.543585 1.655 255 255 255
0.12143 0.544709 1.48 255 255 255
-0.236175 0.0626499 0.738 255 255 255
0.683354 0.37119 1.739 255 255 255
0.173788 -0.324974 2.78 255 255 255
0.207853 -0.158124 2.638 255 255 255
-0.238099 0.0716247 0.708 255 255 255
0.461294 -0.427476 1.789 255 255 255
0.00178685 -0.485983 2.719 255 255 255
-0.322386 0.0579676 0.67 0 0 0
-0.301005 -0.532423 1.997 255 255 255
0.487333 0.392236 1.81 255 255 255
-0.237071 0.182546 0.593 255 255 255
-0.289045 0.219176 2.099 255 255 255
0.613364 0.416191 1.774 255 255 255
0.715841 -0.1109 1.591 255 255 255
-0.215281 0.058701 0.921 0 0 0
0.701443 0.523045 1.559 255 255 255
0.304522 -0.78533 2.356 0 0 0
0.125715 -0.494832 2.719 255 255 255
0.684404 0.245519 1.882 255 255 255
0.321713 0.154538 1.893 255 255 255
0.735815 0.241821 1.595 255 255 255
-0.569705 -0.280037 1.18 0 0 0
-0.331305 0.213154 2.107 255 255 255
-0.199656 0.15227 0.425 255 255 255
0.608957 -0.501603 1.753 255 255 255
0.0497299 0.193861 2.121 255 255 255
0.0464533 -0.325113 2.743 255 255 255
0.545337 0.542116 1.52 255 255 255
0.286118 0.294679 1.923 255 255 255
0.522867 -0.652219 1.714 255 255 255
-0.203523 0.20077 0.681 0 0 0
0.343977 0.0203095 2.024 255 255 255
0.393518 -0.126988 1.959 255 255 255
-0.428976 -0.0251934 0.822 0 0 0
0.686433 -0.438648 1.799 255 255 255
-0.346332 -0.40895 2.707 255 255 255
-0.239185 0.0468732 0.775 255 255 255
0.758124 -0.462141 1.52 255 255 255
-0.185199 0.512275 1.505 255 255 255
0.442608 0.125273 1.87 255 255 255
-0.520069 -0.397793 1.539 255 255 255
-0.232435 0.0762476 0.719 255 255 255
0.723091 -0.479138 1.551 255 255 255
-0.764401 -0.655113 1.729 255 255 255
-0.205767 0.145311 0.415 255 255 255
0.716333 -0.330207 1.575 255 255 255
-0.211699 0.173357 0.925 0 0 0
0.36882 -0.649888 2.071 255 255 255
0.539026 0.472368 1.686 255 255 255
0.365449 -0.794807 2.071 0 0 0
-0.106892 -0.883265 2.469 255 255 255
0.701075 0.258112 1.799 255 255 255
-0.175433 0.170324 2.173 255 255 255
0.34757 -0.832678 2.286 0 0 0
-0.234079 0.0496505 0.779 255 255 255
0.357609 0.096806 1.972 255 255 255
-0.23177 -0.691127 2.561 255 255 255
-0.329101 -0.631726 2.54 255 255 255
0.727488 0.451045 1.473 255 255 255
0.715261 0.17542 1.734 255 255 255
-0.2197 0.211763 1.092 0 0 0
-0.183848 0.103749 0.386 255 255 255
0.640172 -0.0393625 2.044 0 0 0
-0.187896 0.0650928 0.384 255 255 255
-0.215365 0.137882 2.22 255 255 255
-0.566904 -0.533834 1.719 0 0 0
-0.290995 -0.525952 1.87 255 255 255
-0.161707 0.485952 1.587 255 255 255
-0.558369 -0.522691 1.71 0 0 0
-0.464819 -0.166441 1.126 255 255 255
0.376903 0.4457 1.71 255 255 255
0.215295 0.56226 1.463 255 255 255
0.662608 -0.635254 1.744 0 0 0
-0.472824 -0.161802 1.132 255 255 255
0.104563 0.272774 1.923 255 255 255
-0.188114 0.170406 0.463 255 255 255
-0.27563 -0.209729 1.359 255 255 255
0.729541 -0.301732 1.587 255 255 255
-0.227753 0.17796 1.114 255 255 255
0.60644 -0.383698 1.859 255 255 255
-0.195701 0.0727209 0.375 255 255 255
-0.208759 0.130761 0.68 255 255 255
0.538986 -0.610793 1.739 255 255 255
-0.379105 -0.038583 2.411 255 255 255
0.599169 0.489408 1.633 255 255 255
0.214632 -0.907372 2.469 255 255 255
0.742318 -0.265503 1.513 255 255 255
-0.718627 -0.65983 1.734 255 255 255
0.173704 0.484231 1.607 255 255 255
0.325517 -0.63654 2.212 255 255 255
0.0201024 0.456468 1.668 255 255 255
0.444853 -0.416613 1.805 255 255 255
0.081535 0.496189 1.595 255 255 255
-0.0431978 0.474014 1.599 255 255 255
-0.585391 -0.549415 1.724 255 255 255
-0.197005 0.0798305 0.374 255 255 255
-0.20339 0.11615 0.75 0 0 0
-0.204651 0.144855 0.808 255 255 255
0.652358 0.534561 1.563 255 255 255
0.339623 -0.587835 2.078 255 255 255
0.682241 -0.252092 1.893 255 255 255
-0.541724 -0.194643 1.089 255 255 255
0.388491 0.320726 1.789 255 255 255
0.572312 0.318716 1.917 255 255 255
-0.110595 0.483211 1.595 255 255 255
0.710814 -0.533701 1.633 255 255 255
-0.393203 -0.193811 1.147 255 255 255
-0.0135047 0.376466 1.805 255 255 255
0.362583 0.288346 1.805 255 255 255
0.210778 -0.0444105 2.519 0 0 0
0.0806692 0.0761908 2.212 255 255 255
0.699794 -0.56165 1.71 255 255 255
-0.741855 -0.506898 1.607 0 0 0
0.456243 0.128728 1.876 255 255 255
-0.050519 0.353506 1.87 255 255 255
-0.0440748 0.552462 1.456 255 255 255
-0.581751 -0.464075 1.65 255 255 255
0.421848 0.145712 1.859 255 255 255
0.246483 0.403366 1.794 255 255 255
0.374229 0.18996 1.848 0 0 0
0.372181 0.460789 1.664 255 255 255
0.674862 0.424959 1.739 255 255 255
0.287526 -0.748834 2.374 255 255 255
-0.177573 0.180222 0.465 255 255 255
0.700248 0.242519 1.859 0 0 0
-0.0571985 0.0372729 2.253 255 255 255
0.43166 0.386925 1.799 0 0 0
0.506813 -0.20666 1.929 255 255 255
0.545931 -0.256087 1.923 255 255 255
0.73283 0.047533 1.524 255 255 255
0.693682 -0.574554 1.758 255 255 255
0.410637 0.398214 1.784 255 255 255
-0.075015 0.283385 1.953 0 0 0
-0.522057 -0.113471 1.013 255 255 255
-0.21132 0.284649 0.77 0 0 0
0.719197 0.00306671 1.616 255 255 255
0.29661 -0.585181 2.449 255 255 255
0.681064 0.0816969 1.848 255 255 255
-0.879727 -0.618701 1.691 255 255 255
-0.488876 -0.139304 1.059 255 255 255
-0.252305 -0.1184 1.196 255 255 255
-0.213132 0.0957609 0.725 255 255 255
-0.176114 0.0770466 0.394 255 255 255
-0.634455 -0.459268 1.587 255 255 255
0.144599 -0.179978 2.582 255 255 255
0.37687 -0.0315577 1.972 255 255 255
-0.218232 0.246724 1.059 255 255 255
0.343968 0.536766 1.505 0 0 0
-0.515084 -0.270283 1.205 255 255 255
-0.364884 -0.14449 1.085 255 255 255
-0.215771 0.0735473 0.777 255 255 255
0.174793 -0.0147551 2.365 255 255 255
-0.220028 0.0585796 0.797 255 255 255
-0.56874 -0.304483 1.178 255 255 255
-0.222395 0.223927 0.625 255 255 255
-0.183064 0.104647 0.387 255 255 255
0.464928 0.349717 1.899 255 255 255
0.133379 -0.407137 2.695 255 255 255
0.339044 -0.581044 2.383 255 255 255
-0.246445 0.509826 1.505 255 255 255
-0.205498 0.193223 0.796 255 255 255
-0.349355 0.033224 0.7 0 0 0
-0.110717 0.282072 1.966 255 255 255
0.15666 0.403503 1.769 255 255 255
0.343147 0.567342 1.47 255 255 255
-0.227968 0.179557 1.124 255 255 255
-0.176418 0.0694524 0.402 255 255 255
0.294368 0.512978 1.567 255 255 255
0.624292 0.435692 1.748 255 255 255
0.45065 -0.337228 1.853 255 255 255
-0.355596 0.0383637 0.69 255 255 255
-0.637223 -0.554458 1.705 255 255 255
0.513094 0.176312 1.929 255 255 255
-0.102733 -0.376491 2.793 255 255 255
-0.30557 -0.11496 1.057 255 255 255
-0.230707 0.0668913 1.077 255 255 255
0.694972 0.214597 1.853 255 255 255
0.130716 0.459404 1.659 255 255 255
-0.391449 -0.187088 2.684 255 255 255
-0.658624 -0.476143 1.583 0 0 0
0.235142 0.42838 1.753 255 255 255
0.477929 0.479842 1.655 255 255 255
-0.237471 0.138053 0.614 255 255 255
-0.642374 -0.492545 1.62 0 0 0
-0.512188 -0.0905874 0.997 255 255 255
0.180165 -0.613464 2.55 255 255 255
-0.00797492 0.338295 1.887 0 0 0
-0.228774 0.131401 0.64 255 255 255
0.2731 -0.0032336 2.383 255 255 255
0.330791 -0.162516 2.004 255 255 255
-0.271849 -0.0318001 0.895 255 255 255
-0.431731 -0.0111601 2.42 0 0 0
0.259983 -0.417441 2.519 255 255 255
0.694827 0.0982834 1.821 255 255 255
0.570343 -0.196519 1.953 255 255 255
0.732434 -0.614238 1.664 255 255 255
0.745752 0.163665 1.52 255 255 255
-0.286451 -0.16999 1.217 255 255 255
-0.202072 0.192259 0.711 255 255 255
0.720347 -0.33873 1.567 255 255 255
0.731778 0.438292 1.439 255 255 255
-0.30699 0.0596994 0.665 255 255 255
0.343885 0.544999 1.494 255 255 255
-0.210791 0.263602 0.683 255 255 255
0.255538 0.0309501 2.329 255 255 255
-0.183324 0.169826 0.474 0 0 0
-0.703731 -0.776769 2.024 0 0 0
0.270308 0.207899 1.991 0 0 0
-0.177345 -0.755729 2.499 255 255 255
-0.201219 0.108269 0.382 255 255 255
0.694952 -0.409052 1.837 255 255 255
0.625874 0.202061 2.03 255 255 255
-0.315742 -0.164367 1.137 255 255 255
-0.240711 0.393023 1.748 255 255 255
0.60572 0.546458 1.498 255 255 255
-0.431309 -0.26262 2.743 0 0 0
0.353877 -0.252168 1.917 255 255 255
0.68389 0.414477 1.719 255 255 255
0.322373 -0.202875 1.953 0 0 0
0.731299 0.101117 1.547 255 255 255
-0.300044 -0.269717 1.456 255 255 255
0.705839 -0.110411 1.842 255 255 255
-0.448501 -0.269989 1.249 0 0 0
0.264718 -0.760535 2.449 0 0 0
-0.3667 -0.223302 1.227 255 255 255
-0.221496 0.193785 1.034 255 255 255
0.374544 -0.266928 1.911 255 255 255
0.730074 0.508489 1.459 255 255 255
-0.187741 0.147406 0.431 255 255 255
0.340682 -0.546209 2.024 255 255 255
-0.33862 -0.923705 2.459 255 255 255
-0.223754 0.0851426 0.725 255 255 255
0.718453 -0.139141 1.682 255 255 255
0.0702297 -0.931218 2.479 255 255 255
-0.185698 0.0939679 0.377 255 255 255
-0.228417 0.0683678 0.748 255 255 255
0.349502 0.0436441 2.037 0 0 0
-0.198322 0.0529174 0.391 0 0 0
-0.295562 0.0793881 0.676 255 255 255
-0.197672 0.261435 2.004 255 255 255
-0.373291 -0.153238 1.11 255 255 255
-0.59381 -0.543804 1.724 0 0 0
0.668231 -0.608652 1.774 0 0 0
0.612197 -0.561152 1.779 255 255 255
0.00148587 0.0337259 2.261 255 255 255
-0.326076 -0.110887 1.051 255 255 255
0.333927 -0.573951 2.402 255 255 255
0.280234 -0.638877 2.411 0 0 0
0.714041 -0.224255 1.587 255 255 255
0.582216 0.552293 1.494 255 255 255
-0.490634 -0.805553 2.099 255 255 255
0.646253 0.332222 1.905 255 255 255
0.181634 0.207489 2.051 255 255 255
0.508306 -0.254489 1.911 255 255 255
0.736386 0.345794 1.516 255 255 255
0.702912 0.544544 1.513 255 255 255
0.251726 0.19817 2.024 0 0 0
0.236728 0.555118 1.463 255 255 255
-0.230545 -0.775646 2.459 255 255 255
0.260611 -0.00327159 2.411 255 255 255
0.028593 -0.284939 2.743 0 0 0
-0.39818 -0.419552 1.603 255 255 255
-0.406356 -0.581926 1.763 255 255 255
0.309216 0.546331 1.491 255 255 255
0.682239 0.419702 1.729 255 255 255
0.349658 0.12802 1.911 255 255 255
-0.365757 0.248387 1.978 255 255 255
-0.463811 -0.310651 1.225 255 255 255
-0.284755 -0.129756 1.11 255 255 255
-0.205981 0.127622 0.693 255 255 255
0.121147 0.0332336 2.228 255 255 255
0.503616 -0.425425 1.805 255 255 255
-0.175326 0.0751527 0.401 255 255 255
0.682222 -0.320044 1.876 255 255 255
-0.183808 0.0809164 0.382 255 255 255
-0.299825 -0.183551 1.215 255 255 255
-0.225994 0.201677 0.61 255 255 255
0.167652 0.520104 1.528 255 255 255
0.0581679 0.488402 1.595 255 255 255
0.48242 -0.057956 1.997 255 255 255
0.683871 0.366708 1.705 255 255 255
0.728218 0.459463 1.432 255 255 255
0.0860226 -0.115851 2.469 0 0 0
0.138229 -0.276498 2.793 255 255 255
0.0390339 -0.692308 2.55 255 255 255
0.33516 -0.827627 2.303 255 255 255
-0.189004 0.174752 0.449 255 255 255
-0.259992 -0.61537 2.593 255 255 255
-0.206701 0.245862 0.74 255 255 255
0.68389 -0.489076 1.719 255 255 255
-0.373605 0.0150665 0.761 255 255 255
0.597115 -0.230767 1.947 255 255 255
0.696182 0.464611 1.668 255 255 255
0.446305 -0.524424 1.753 255 255 255
0.0703724 -0.0211517 2.228 255 255 255
0.348029 0.514337 1.579 255 255 255
0.342358 0.307421 1.905 255 255 255
-0.794739 -0.48042 1.547 255 255 255
-0.243732 -0.0616344 2.392 255 255 255
-0.283671 -0.624268 1.882 255 255 255
0.705347 0.338934 1.664 255 255 255
-0.33938 -0.207278 1.215 255 255 255
0.634664 0.0867374 2.037 255 255 255
0.51912 -0.523059 1.758 255 255 255
0.385253 0.4457 1.71 255 255 255
0.736386 -0.389381 1.516 255 255 255
-0.0509702 0.0118659 2.303 255 255 255
0.209941 -0.844496 2.509 255 255 255
-0.404269 -0.104867 1.077 255 255 255
0.733493 -0.156337 1.505 255 255 255
-0.235292 0.0627348 0.739 255 255 255
-0.201256 0.0499904 0.393 0 0 0
-0.404836 -0.212176 1.198 255 255 255
0.464507 -0.456932 1.779 255 255 255
-0.193616 -0.755729 2.499 255 255 255
0.395678 -0.227923 1.923 255 255 255
-0.206336 0.222307 0.726 0 0 0
-0.722289 -0.477347 1.587 0 0 0
-0.230486 0.170339 0.601 255 255 255
0.0597884 -0.66741 2.55 255 255 255
0.71342 -0.487932 1.563 255 255 255
-0.570613 -0.504515 1.705 0 0 0
-0.817625 -0.629372 1.705 255 255 255
0.683871 0.289019 1.705 255 255 255
0.0660768 0.194615 2.092 255 255 255
0.0166307 -0.0371267 2.32 255 255 255
0.359869 -0.633668 1.821 0 0 0
-0.243526 0.0178476 0.833 255 255 255
-0.0479513 -0.41093 2.78 255 255 255
-0.395588 -0.26262 2.743 0 0 0
0.725125 0.0390689 1.583 255 255 255
0.161427 0.184402 2.092 255 255 255
0.0799112 -0.802159 2.53 255 255 255
0.197418 0.121707 2.189 255 255 255
0.687489 -0.581418 1.779 255 255 255
0.742812 -0.279535 1.509 255 255 255
0.0120009 0.190925 2.166 0 0 0
0.18287 -0.822744 2.53 255 255 255
-0.597276 -0.266694 1.189 0 0 0
-0.19758 0.149504 0.425 255 255 255
0.146474 0.369578 1.859 255 255 255
-0.425042 -0.480904 1.7 255 255 255
0.470341 0.0987471 1.947 0 0 0
0.303782 -0.611412 2.411 255 255 255
-0.229156 0.126982 0.644 255 255 255
0.0651453 0.429003 1.71 255 255 255
-0.182744 0.0653074 0.389 255 255 255
0.63107 0.528279 1.567 255 255 255
0.674719 0.360577 1.799 255 255 255
0.464082 0.5193 1.563 255 255 255
-0.190265 0.105986 0.385 255 255 255
-0.342024 0.407129 1.7 0 0 0
-0.22044 0.234508 0.64 255 255 255
-0.0566803 -0.657787 2.561 255 255 255
0.53967 -0.246699 1.923 255 255 255
-0.390004 -0.0112062 2.43 0 0 0
0.337078 0.333302 1.826 0 0 0
0.765605 -0.589101 1.535 255 255 255
-0.319602 -0.195415 1.215 255 255 255
0.53174 0.523287 1.575 255 255 255
-0.361126 0.204216 2.121 255 255 255
0.324067 -0.237877 2.572 255 255 255
-0.181174 0.0687502 0.387 255 255 255
-0.252419 0.213154 2.107 255 255 255
-0.240862 0.107504 0.653 255 255 255
0.660468 -0.0576077 1.985 255 255 255
0.195997 -0.759862 2.54 255 255 255
-0.700611 -0.814749 2.114 0 0 0
0.541608 -0.369762 1.865 255 255 255
0.436821 -0.161559 1.953 255 255 255
0.363552 0.222985 1.753 255 255 255
-0.292982 -0.644127 1.923 255 255 255
-0.317388 -0.11896 1.062 255 255 255
0.0733025 0.229509 2.01 255 255 255
-0.314959 -0.539622 2.024 255 255 255
0.45697 0.18035 1.842 255 255 255
0.485482 0.510488 1.583 255 255 255
0.40897 -0.00909408 1.972 255 255 255
0.335969 0.48024 1.62 255 255 255
-0.302702 0.447984 1.637 255 255 255
-0.247155 -0.283693 2.731 255 255 255
-0.567654 -0.341047 1.234 255 255 255
-0.254264 0.0918874 0.663 255 255 255
-0.276119 0.50254 1.52 255 255 255
0.177488 0.465385 1.642 255 255 255
0.10264 0.537606 1.487 255 255 255
-0.254909 0.0106517 1.267 255 255 255
-0.182239 0.106637 0.392 255 255 255
-0.611256 -0.533822 1.71 0 0 0
-0.590133 -0.438905 1.607 255 255 255
-0.409614 -0.918424 2.383 255 255 255
-0.221555 0.0557962 0.975 0 0 0
0.733662 0.510775 1.452 255 255 255
0.0153758 0.404402 1.748 255 255 255
0.370334 -0.78665 2.024 0 0 0
-0.505396 -0.297458 1.196 255 255 255
0.68485 -0.191344 1.842 255 255 255
-0.23617 -0.745381 2.519 255 255 255
-0.223242 0.0296806 1.004 255 255 255
0.329118 -0.391764 2.212 255 255 255
0.682991 -0.352253 1.837 255 255 255
-0.286156 0.0778248 0.672 255 255 255
0.719951 -0.113297 1.705 255 255 255
-0.770667 -0.496804 1.575 0 0 0
0.722833 0.296328 1.595 255 255 255
-0.241515 0.0815598 0.685 255 255 255
0.316542 -0.529386 2.449 0 0 0
0.736838 0.402748 1.463 255 255 255
-0.203878 0.162836 0.431 255 255 255
0.509083 -0.552951 1.753 255 255 255
-0.188508 -0.0458908 2.383 255 255 255
-0.25942 -0.14194 1.249 255 255 255
0.543542 0.535253 1.543 255 255 255
-0.450373 -0.0387271 0.855 255 255 255
-0.352512 -0.629465 1.826 255 255 255
0.348079 -0.412041 1.837 255 255 255
-0.190517 0.505184 1.528 255 255 255
-0.19369 0.170254 0.443 255 255 255
0.70009 0.35275 1.789 255 255 255
0.562045 -0.52592 1.758 255 255 255
-0.335384 -0.131643 1.081 255 255 255
0.691956 -0.0326688 1.853 255 255 255
0.72505 -0.63246 1.691 255 255 255
0.181719 -0.112313 2.572 255 255 255
0.454949 0.465225 1.7 255 255 255
-0.217045 0.475424 1.595 255 255 255
-0.54841 -0.515614 1.705 0 0 0
-0.0408486 -0.646124 2.615 255 255 255
-0.195952 0.0951431 0.372 255 255 255
-0.703673 -0.624269 1.753 255 255 255
0.168786 0.537706 1.494 255 255 255
-0.410106 -0.0661111 2.278 0 0 0
-0.246436 0.172982 0.59 255 255 255
0.734824 0.432512 1.459 0 0 0
0.342657 -0.865105 2.303 0 0 0
-0.168592 0.0698283 0.42 255 255 255
0.295255 -0.775877 2.374 0 0 0
0.281472 -0.109473 2.604 255 255 255
0.169731 0.355774 1.882 255 255 255
-0.130639 -0.69786 2.54 255 255 255
0.694266 0.154782 1.789 255 255 255
0.26495 0.51036 1.559 255 255 255
0.690586 -0.0612925 1.899 255 255 255
-0.295227 -0.544767 1.821 0 0 0
-0.133486 0.525919 1.502 255 255 255
0.29345 -0.689159 2.329 0 0 0
-0.395564 -0.514832 1.779 255 255 255
-0.311498 -0.192563 1.222 255 255 255
0.671141 -0.334321 1.923 255 255 255
0.69229 -0.00536871 1.799 255 255 255
0.728935 -0.193364 1.452 255 255 255
0.000954215 0.558033 1.452 255 255 255
0.0925467 0.519854 1.52 255 255 255
-0.234747 -0.0217018 0.964 255 255 255
-0.408869 -0.126105 1.094 255 255 255
-0.0910035 0.523087 1.487 255 255 255
-0.0371112 0.24688 1.966 0 0 0
0.736863 -0.388678 1.449 255 255 255
0.6356 0.293451 1.978 255 255 255
-0.255003 -0.105344 1.299 255 255 255
0.111528 0.525915 1.509 255 255 255
-0.0633385 0.540833 1.463 255 255 255
-0.212522 0.146661 0.415 255 255 255
0.713793 0.42634 1.646 255 255 255
0.285147 -0.299789 2.638 255 255 255
0.236484 0.419348 1.763 255 255 255
0.568923 0.395704 1.826 255 255 255
0.315222 -0.0311375 2.166 255 255 255
-0.0640329 -0.543092 2.695 255 255 255
-0.353951 -0.13875 1.068 255 255 255
-0.199397 0.164348 0.435 255 255 255
-0.0861216 0.196603 2.151 255 255 255
-0.187353 0.128648 0.403 255 255 255
-0.545169 -0.628177 1.748 255 255 255
0.741285 -0.516053 1.579 255 255 255
-0.258719 0.456882 1.612 255 255 255
-0.242743 0.00445165 0.864 255 255 255
0.376923 0.0631278 2.024 0 0 0
0.464067 0.494692 1.607 255 255 255
0.558749 0.479842 1.655 255 255 255
-0.243839 0.0974287 0.664 255 255 255
0.385278 -0.528618 1.748 255 255 255
0.269964 0.363799 1.876 255 255 255
0.33398 -0.325162 2.085 255 255 255
0.693253 0.554545 1.487 255 255 255
-0.217836 0.172305 0.615 255 255 255
0.47808 -0.481999 1.744 255 255 255
-0.243141 0.475794 1.579 255 255 255
0.51338 -0.0577819 1.991 255 255 255
0.715072 0.241142 1.7 255 255 255
-0.344478 0.140428 2.261 255 255 255
-0.00900938 0.503812 1.539 255 255 255
-0.294877 0.0660662 2.365 0 0 0
-0.232645 0.195116 0.599 255 255 255
0.337461 -0.192381 2.196 255 255 255
0.700679 0.34734 1.719 255 255 255
0.536149 0.475305 1.677 255 255 255
0.466263 0.511768 1.579 255 255 255
0.737971 0.249183 1.47 255 255 255
0.170725 -0.519237 2.731 255 255 255
-0.183235 0.511181 1.509 255 255 255
-0.332946 0.433462 1.603 0 0 0
0.319402 0.148521 1.935 255 255 255
-0.45099 -0.531642 1.758 255 255 255
0.695492 0.136356 1.815 255 255 255
0.0944417 -0.862637 2.479 255 255 255
0.491205 0.350822 1.905 255 255 255
0.340682 -0.332118 2.024 255 255 255
0.735963 -0.0377742 1.466 255 255 255
0.69166 0.270722 1.805 255 255 255
0.541817 -0.610793 1.739 255 255 255
0.635364 -0.535097 1.779 255 255 255
0.179761 0.375628 1.859 255 255 255
-0.478764 -0.515546 1.714 0 0 0
0.718631 -0.323034 1.603 255 255 255
0.511936 -0.518719 1.753 255 255 255
0.0865839 0.26901 1.941 255 255 255
-0.182704 0.108189 0.393 255 255 255
0.726896 -0.22557 1.543 255 255 255
0.734163 0.163887 1.62 255 255 255
-0.21667 0.25036 0.657 255 255 255
0.67215 0.306772 1.882 255 255 255
-0.329343 0.289742 1.953 255 255 255
0.264084 -0.544518 2.519 0 0 0
-0.0651344 -0.772276 2.411 255 255 255
0.0287181 -0.5238 2.755 255 255 255
0.682241 0.191505 1.893 255 255 255
-0.557101 -0.196732 1.081 255 255 255
-0.36596 -0.0501655 2.402 255 255 255
0.0630088 0.546713 1.466 255 255 255
0.532567 0.551334 1.498 255 255 255
0.368323 -0.736512 1.911 255 255 255
0.00369252 0.465905 1.616 255 255 255
0.721461 0.195217 1.575 255 255 255
-0.336023 -0.442222 2.695 255 255 255
-0.349369 0.0315647 0.714 255 255 255
0.227497 0.45033 1.696 255 255 255
-0.182846 0.0971892 0.38 255 255 255
-0.362075 -0.514334 1.941 0 0 0
-0.608359 -0.316024 1.215 255 255 255
0.779571 -0.541346 1.563 255 255 255
0.555099 0.409909 1.81 255 255 255
0.183253 -0.428461 2.719 255 255 255
-0.319186 0.0624544 2.374 255 255 255
0.375984 -0.288142 1.887 255 255 255
-0.274772 -0.0633967 0.978 255 255 255
-0.106915 0.491211 1.579 255 255 255
-0.539654 -0.213614 1.114 255 255 255
0.0690356 0.308565 1.893 255 255 255
0.556241 0.54069 1.516 255 255 255
0.660708 -0.653242 1.739 0 0 0
-0.312828 -0.0923336 1.677 255 255 255
-0.190379 0.0537295 0.397 255 255 255
0.70989 -0.48173 1.637 255 255 255
0.4802 0.552806 1.502 255 255 255
-0.219768 0.138379 2.228 255 255 255
-0.185753 0.11244 0.39 255 255 255
0.7153 -0.11755 1.769 255 255 255
0.737181 -0.392308 1.445 0 0 0
0.362312 0.5193 1.563 255 255 255
-0.0510987 -0.514674 2.707 255 255 255
0.741971 0.2311 1.575 255 255 255
0.13827 -0.875229 2.469 255 255 255
0.694479 -0.00227559 1.677 255 255 255
0.57599 0.50789 1.591 255 255 255
-0.39333 0.0475556 2.402 255 255 255
