ply
format ascii 1.0
comment Created by Open3D
element vertex 1326
property double x
property double y
property double z
property uchar red
property uchar green
property uchar blue
end_header
-0.317014 -0.50024 1.81 255 255 255
-0.199468 0.118758 0.392 0 0 0
-0.0846402 0.310187 2.114 0 0 0
0.456254 0.180568 1.941 255 255 255
-0.17512 0.244558 0.705 255 255 255
-0.344924 -0.834514 2.365 0 0 0
-0.86073 -0.466121 1.629 255 255 255
0.462967 -0.275276 1.842 255 255 255
-0.204966 0.116723 0.709 255 255 255
0.414155 -0.0384573 1.997 255 255 255
0.308537 -0.625899 2.731 255 255 255
0.773637 -0.202738 1.784 255 255 255
0.428852 -0.317093 2.244 255 255 255
-0.0473131 -0.240302 2.743 0 0 0
-0.253472 0.481823 1.7 255 255 255
-0.359683 -0.382433 1.705 255 255 255
-0.203591 -0.173345 2.743 255 255 255
-0.410675 -0.704139 2.092 255 255 255
0.499014 -0.324473 1.799 255 255 255
0.42502 -0.214476 1.972 255 255 255
-0.364943 0.0295937 0.785 255 255 255
-0.0483427 -0.707798 2.561 255 255 255
0.0125273 0.147787 2.261 255 255 255
0.762639 0.456704 1.659 255 255 255
-0.672832 -0.291127 1.357 255 255 255
-0.173021 0.10323 0.867 0 0 0
-0.498862 -0.142657 1.112 0 0 0
-0.456579 -0.219309 1.227 0 0 0
-0.709545 -0.392814 1.559 255 255 255
0.328851 0.356347 1.935 255 255 255
0.635262 0.597187 1.528 255 255 255
0.428061 0.479503 1.784 0 0 0
-0.155703 0.0985534 0.406 255 255 255
-0.180923 -0.464537 2.672 255 255 255
-0.774581 -0.424622 1.583 255 255 255
0.815141 -0.51914 1.629 255 255 255
0.327753 -0.284939 2.743 255 255 255
0.762285 0.0576384 1.848 255 255 255
-0.155979 0.104901 0.405 255 255 255
0.506813 -0.0936519 1.929 255 255 255
-0.19972 0.108632 0.39 255 255 255
-0.201702 -0.892051 2.449 255 255 255
-0.252896 0.474529 1.734 255 255 255
-0.292761 0.268131 2.03 0 0 0
-0.367761 -0.170519 1.265 255 255 255
-0.145873 0.0906402 0.438 255 255 255
0.438751 -0.0377028 2.356 255 255 255
-0.34609 -0.424132 1.763 0 0 0
0.753052 -0.510202 1.763 255 255 255
-0.120533 0.21938 2.204 255 255 255
0.707863 0.100979 2.057 0 0 0
-0.17603 0.164348 0.435 255 255 255
0.0204399 0.508289 1.696 255 255 255
0.270049 0.46716 1.815 255 255 255
-0.131571 -0.283693 2.731 255 255 255
0.233512 -0.959064 2.499 255 255 255
-0.175937 0.214792 0.935 0 0 0
0.784243 -0.158836 1.659 255 255 255
0.760992 0.0831999 1.882 255 255 255
-0.292317 -0.148539 2.78 0 0 0
-0.301364 -0.832271 2.449 255 255 255
-0.27073 -0.386587 1.966 255 255 255
0.334092 0.448233 1.859 255 255 255
-0.169972 0.146271 0.748 0 0 0
-0.162973 0.082036 0.406 255 255 255
-0.362285 -0.189607 1.297 255 255 255
-0.408587 -0.609434 1.893 255 255 255
-0.217356 0.41326 1.865 255 255 255
0.595863 0.592557 1.555 255 255 255
-0.214122 -0.0145912 1.015 255 255 255
0.469144 0.244825 1.831 0 0 0
-0.183137 0.113236 1.036 255 255 255
0.324596 0.221825 2.158 0 0 0
-0.579793 -0.559584 1.821 0 0 0
0.398465 0.0650304 2.085 255 255 255
0.587914 0.431022 1.917 255 255 255
0.0833321 -0.758754 2.509 255 255 255
-0.182221 0.224296 1.147 255 255 255
-0.270751 0.0971089 0.709 255 255 255
0.356707 0.464586 1.805 255 255 255
-0.180826 0.180314 0.655 255 255 255
-0.174245 0.109686 0.387 255 255 255
0.78441 -0.0398241 1.769 255 255 255
-0.529039 -0.218239 1.21 0 0 0
0.564309 -0.60949 1.696 255 255 255
0.356805 -0.284975 2.66 0 0 0
-0.297548 -0.268921 1.491 255 255 255
0.743753 0.224485 1.966 255 255 255
-0.0163504 -0.294678 2.793 255 255 255
0.789316 0.0573153 1.664 255 255 255
0.59058 0.547495 1.624 255 255 255
-0.705297 -0.528499 1.729 255 255 255
-0.174321 0.134631 0.888 0 0 0
-0.144051 0.433144 1.821 255 255 255
0.781966 -0.0554744 1.81 255 255 255
0.580009 -0.363741 1.805 255 255 255
-0.421768 -0.845648 2.261 255 255 255
0.037878 0.427909 1.876 255 255 255
0.757744 0.0247043 1.859 255 255 255
0.666947 -0.034661 1.966 255 255 255
-0.782312 -0.43235 1.583 255 255 255
-0.252271 -0.0578117 1.05 255 255 255
-0.169575 0.461293 1.748 255 255 255
-0.520043 -0.532089 1.769 255 255 255
-0.142484 -0.643593 2.459 255 255 255
-0.187027 0.135565 0.711 255 255 255
0.777637 -0.642858 1.668 255 255 255
0.620292 -0.120766 1.911 255 255 255
-0.487898 -0.0391814 0.932 0 0 0
-0.921903 -0.715197 1.929 255 255 255
0.296887 -0.794572 2.519 255 255 255
0.46185 0.592025 1.547 255 255 255
-0.179679 -0.339967 2.719 255 255 255
0.0585612 -0.414211 2.684 255 255 255
0.422218 -0.0409135 1.959 255 255 255
0.306763 -0.393785 2.755 255 255 255
-0.746921 -0.400423 1.579 255 255 255
-0.169882 0.10292 0.39 255 255 255
-0.640406 -0.437776 1.642 255 255 255
0.384313 -0.322149 2.449 255 255 255
0.323784 0.250871 2.107 0 0 0
-0.0375214 0.0514644 2.402 255 255 255
0.728448 0.429563 1.831 255 255 255
-0.472949 -0.462132 1.744 0 0 0
-0.409012 -0.401187 1.714 255 255 255
-0.181153 0.129401 1.044 255 255 255
-0.408818 -0.183029 1.252 255 255 255
0.604437 -0.324473 1.799 255 255 255
-0.457829 -0.268788 1.225 0 0 0
-0.0290509 0.568928 1.539 255 255 255
-0.175161 0.25544 0.939 0 0 0
-0.173748 0.119061 0.393 255 255 255
-0.165668 0.390984 1.935 255 255 255
0.684045 0.495428 1.748 0 0 0
0.796579 -0.590714 1.629 255 255 255
-0.305229 -0.485512 1.81 255 255 255
0.225195 0.1106 2.253 255 255 255
-0.173845 -0.487742 1.887 255 255 255
-0.515532 -0.430914 1.744 255 255 255
-0.739805 -0.581331 1.744 255 255 255
-0.438986 -0.310184 1.393 255 255 255
-0.0655673 0.254371 2.166 255 255 255
-0.508865 -0.0920412 1.013 0 0 0
-0.173744 0.117734 0.83 255 255 255
-0.183643 0.0339655 1.089 0 0 0
0.483956 -0.275276 1.842 255 255 255
0.34105 0.214105 2.151 0 0 0
-0.189824 0.487356 1.7 255 255 255
0.770602 0.255206 1.535 255 255 255
0.421303 -0.418881 2.479 0 0 0
-0.161387 0.121977 0.407 255 255 255
0.00400557 0.471171 1.753 255 255 255
0.0471501 -0.0158469 2.54 255 255 255
0.114732 -0.0453449 2.572 255 255 255
0.745406 0.394203 1.779 255 255 255
0.788498 0.0303092 1.668 255 255 255
-0.191466 0.117735 0.737 255 255 255
-0.17672 0.172894 0.676 255 255 255
0.767698 0.312287 1.624 255 255 255
-0.186678 0.140503 0.701 255 255 255
-0.174326 0.0978428 0.39 255 255 255
-0.0833969 -0.0889209 2.755 0 0 0
-0.184405 0.304868 0.98 255 255 255
-0.243238 -0.0804013 1.102 255 255 255
0.606561 0.587975 1.563 255 255 255
-0.17253 0.223258 0.733 255 255 255
0.295431 -0.0163148 2.615 255 255 255
-0.329729 -0.485489 1.799 255 255 255
-0.485535 -0.160492 1.149 255 255 255
0.797826 -0.327222 1.637 255 255 255
-0.243648 -0.893039 2.43 255 255 255
-0.220709 0.0798898 0.419 255 255 255
0.264987 -0.604491 2.695 255 255 255
0.449749 -0.576458 1.837 0 0 0
0.771469 -0.454037 1.779 255 255 255
0.145171 -0.720785 2.519 255 255 255
0.748996 0.283078 1.579 255 255 255
-0.541645 -0.209146 1.203 0 0 0
0.609792 -0.0691786 1.947 255 255 255
-0.175678 0.020345 2.42 255 255 255
0.622329 -0.592579 1.719 255 255 255
-0.500649 -0.178709 1.158 255 255 255
0.511416 -0.114547 1.911 255 255 255
-0.0355844 0.152605 2.278 255 255 255
0.761331 0.229674 1.853 255 255 255
0.731428 0.411685 1.831 255 255 255
-0.197027 0.131596 0.4 0 0 0
0.0646662 0.349051 1.947 255 255 255
-0.782388 -0.558627 1.744 255 255 255
-0.194985 0.507929 1.65 255 255 255
0.419392 0.185219 1.991 255 255 255
0.408758 -0.809768 2.338 0 0 0
-0.304045 0.0762924 0.698 0 0 0
0.671791 -0.377169 1.799 255 255 255
-0.0192433 -0.756878 2.572 255 255 255
0.644966 -0.27918 1.848 255 255 255
0.75561 0.247712 1.535 255 255 255
0.764214 -0.389838 1.831 255 255 255
-0.745482 -0.572817 1.744 255 255 255
-0.182575 -0.483387 1.882 255 255 255
0.732124 0.576342 1.587 255 255 255
0.496451 0.484107 1.769 255 255 255
0.771608 -0.587184 1.753 255 255 255
0.790683 -0.2405 1.575 255 255 255
0.605325 0.5653 1.607 255 255 255
0.235179 0.539538 1.616 255 255 255
-0.253471 -0.269759 1.612 255 255 255
-0.0972997 0.254371 2.166 0 0 0
0.175818 0.568298 1.579 255 255 255
0.314881 0.276916 2.071 255 255 255
0.0261417 0.414123 1.911 255 255 255
-0.359405 -0.246699 1.419 255 255 255
-0.20261 0.115707 0.717 255 255 255
0.608481 -0.60949 1.696 255 255 255
0.577644 -0.0155595 1.978 255 255 255
-0.19272 0.142244 0.682 255 255 255
-0.661385 -0.798027 2.143 255 255 255
-0.242741 0.504019 1.646 255 255 255
0.387954 0.254917 2.03 255 255 255
-0.218896 -0.832247 2.509 255 255 255
-0.341126 0.0449701 0.688 255 255 255
0.0843154 -0.802725 2.42 255 255 255
0.308357 0.165498 2.356 255 255 255
-0.641283 -0.580481 1.794 255 255 255
-0.225175 -0.16629 1.403 255 255 255
-0.320556 -0.23335 1.381 255 255 255
-0.578851 -0.224808 1.203 0 0 0
0.727293 -0.269003 1.882 0 0 0
-0.176383 0.172416 0.443 255 255 255
-0.0306013 0.37033 1.959 255 255 255
0.319622 -0.732395 2.604 255 255 255
0.233986 -0.472417 2.743 255 255 255
0.638773 0.467523 1.805 255 255 255
0.414808 -0.194131 2.099 255 255 255
0.713793 0.554912 1.646 255 255 255
0.060356 0.514854 1.655 255 255 255
-0.148703 0.109104 0.416 0 0 0
-0.284955 -0.180327 1.291 255 255 255
-0.208904 0.0086011 2.44 255 255 255
0.453667 -0.328493 1.805 255 255 255
-0.689186 -0.442594 1.65 0 0 0
-0.570781 -0.236936 1.215 0 0 0
0.448724 -0.503431 2.051 255 255 255
0.150311 -0.615127 2.684 255 255 255
0.64779 -0.637696 1.705 255 255 255
-0.233617 0.42839 1.826 255 255 255
-0.364614 0.0224597 0.804 0 0 0
-0.376126 -0.818635 2.32 0 0 0
0.757744 0.0368051 1.859 255 255 255
0.786209 -0.0323925 1.551 255 255 255
-0.152993 0.0816058 0.428 0 0 0
0.145831 -0.694256 2.604 255 255 255
0.482752 0.0554509 1.985 255 255 255
-0.299699 -0.217662 2.684 255 255 255
-0.44769 -0.546677 1.779 255 255 255
-0.78432 -0.526712 1.705 255 255 255
-0.0552591 -0.398366 2.695 255 255 255
-0.161618 0.0862462 0.401 255 255 255
0.210735 -0.119256 2.731 255 255 255
-0.0841186 -0.885326 2.509 255 255 255
-0.175704 0.313768 2.092 255 255 255
-0.168206 0.0695045 0.414 0 0 0
0.68072 -0.345081 1.815 255 255 255
0.18869 0.104988 2.212 255 255 255
0.449537 -0.565187 1.953 255 255 255
0.453496 -0.347307 2.204 255 255 255
-0.524003 -0.773137 2.181 0 0 0
-0.259515 -0.179429 2.768 255 255 255
-0.309282 0.0773173 0.697 255 255 255
-0.0937208 -0.912597 2.44 255 255 255
-0.149413 -0.521862 2.261 255 255 255
-0.223032 0.492889 1.7 255 255 255
0.780181 0.0145778 1.734 255 255 255
-0.315572 -0.162915 1.254 255 255 255
-0.170449 0.247885 0.761 0 0 0
-0.236749 -0.0939092 1.158 255 255 255
-0.181406 0.174436 0.661 255 255 255
0.415503 -0.842149 2.312 0 0 0
-0.0754933 0.553779 1.567 255 255 255
-0.202943 0.135542 0.404 0 0 0
0.245715 -0.959064 2.499 255 255 255
0.0449468 0.390467 1.917 0 0 0
0.540118 0.542025 1.664 255 255 255
-0.20368 0.156083 0.643 255 255 255
0.559893 -0.646219 1.691 255 255 255
0.0952963 0.321299 1.991 0 0 0
-0.26404 0.25166 2.204 255 255 255
0.448156 -0.0945258 1.947 255 255 255
0.394307 -0.159973 2.099 255 255 255
0.14075 0.529409 1.65 255 255 255
-0.613398 -0.753439 2.196 0 0 0
0.536155 0.509857 1.739 255 255 255
0.482524 0.226047 1.848 255 255 255
-0.198561 0.121287 0.394 0 0 0
0.225994 0.180901 2.261 255 255 255
0.757744 -0.196136 1.859 255 255 255
-0.0781205 -0.947846 2.449 255 255 255
0.31261 0.563674 1.595 255 255 255
0.712613 -0.349185 1.821 0 0 0
-0.234445 -0.484384 2.638 255 255 255
0.586134 -0.497462 1.779 255 255 255
-0.533979 -0.500172 1.758 0 0 0
0.161619 0.0733787 2.236 255 255 255
0.739603 -0.105367 1.972 255 255 255
0.441341 -0.370081 1.779 255 255 255
-0.170709 -0.484041 2.158 255 255 255
-0.153947 0.513482 1.642 255 255 255
0.313243 -0.547478 2.695 255 255 255
-0.208056 -0.15549 2.743 255 255 255
-0.572581 -0.817156 2.204 255 255 255
-0.101151 0.237512 2.173 0 0 0
0.359282 -0.51846 2.615 255 255 255
-0.150817 0.115621 0.42 0 0 0
-0.680242 -0.349767 1.484 255 255 255
-0.167178 -0.907372 2.469 255 255 255
-0.213134 0.124817 0.666 255 255 255
0.290574 0.00906641 2.572 255 255 255
0.337919 -0.934974 2.489 255 255 255
0.616733 -0.589782 1.719 255 255 255
-0.146995 0.10479 0.415 0 0 0
0.211439 0.470513 1.794 255 255 255
0.386129 0.123812 2.294 255 255 255
-0.374818 -0.136219 1.234 255 255 255
0.794733 0.0871019 1.664 255 255 255
-0.353892 0.0296314 0.786 0 0 0
-0.179679 -0.331118 2.719 255 255 255
0.448156 0.181126 1.947 255 255 255
-0.183112 0.22584 0.648 255 255 255
0.759184 0.0187642 1.87 255 255 255
-0.394125 -0.56112 1.826 255 255 255
-0.241403 -0.0601448 1.774 255 255 255
0.766718 -0.0772278 1.837 255 255 255
0.603434 0.518179 1.729 255 255 255
-0.20063 0.132908 0.402 0 0 0
0.199133 -0.15617 2.755 255 255 255
0.182088 -0.681857 2.638 255 255 255
0.290313 0.459359 1.831 255 255 255
-0.316002 0.0990427 0.675 255 255 255
-0.347215 0.051209 0.729 255 255 255
-0.357494 0.0247646 0.794 255 255 255
-0.0143876 0.401077 1.923 255 255 255
-0.221692 -0.509322 1.876 255 255 255
0.459961 -0.642858 1.668 255 255 255
0.689361 -0.380097 1.799 255 255 255
-0.165226 0.107638 0.391 255 255 255
0.104586 0.515009 1.673 255 255 255
0.749319 0.207563 1.899 255 255 255
0.037044 -0.81454 2.42 255 255 255
-0.00718461 0.503955 1.7 255 255 255
0.790221 -0.349207 1.719 0 0 0
-0.392605 -0.368705 1.668 255 255 255
-0.00670916 -0.667382 2.582 255 255 255
-0.177803 0.149842 0.702 255 255 255
-0.17554 0.12704 0.4 255 255 255
-0.181011 0.103655 0.388 255 255 255
0.681686 0.595517 1.543 255 255 255
-0.588787 -0.504631 1.734 0 0 0
0.419874 -0.0509669 1.978 255 255 255
0.77027 -0.581926 1.763 255 255 255
0.329181 -0.149234 2.793 255 255 255
0.0823357 -0.785989 2.479 255 255 255
0.0270294 -0.691324 2.593 255 255 255
-0.00995703 0.0849847 2.356 255 255 255
-0.272262 -0.468886 2.672 255 255 255
0.0719578 -0.0282471 2.54 255 255 255
-0.0263133 0.29839 2.128 0 0 0
-0.170976 0.174451 0.843 255 255 255
-0.310164 -0.305579 1.567 255 255 255
-0.567062 -0.143382 1.09 255 255 255
0.431385 0.265142 1.848 255 255 255
0.0016035 -0.92848 2.44 255 255 255
0.421178 -0.153306 2.365 0 0 0
0.659769 -0.504703 1.744 255 255 255
0.0667835 0.479729 1.753 255 255 255
0.790923 -0.319311 1.739 255 255 255
0.642312 0.464206 1.815 255 255 255
0.314357 -0.267084 2.743 0 0 0
0.650341 -0.552602 1.734 255 255 255
0.61385 0.211139 1.991 255 255 255
-0.244497 -0.240012 1.539 255 255 255
0.468358 0.405839 1.805 255 255 255
-0.0241315 -0.0510133 2.649 255 255 255
-0.457775 -0.774117 2.204 255 255 255
-0.455461 -0.339355 1.524 255 255 255
0.553752 0.252407 1.865 255 255 255
0.182236 0.464674 1.794 255 255 255
-0.176592 0.0668313 0.41 255 255 255
0.727845 0.413034 1.837 255 255 255
-0.1705 0.575952 1.505 255 255 255
-0.0654585 -0.286186 2.755 255 255 255
0.0217178 -0.883265 2.469 255 255 255
0.420524 0.358573 1.789 255 255 255
-0.208462 0.218911 0.611 255 255 255
-0.0108699 -0.756878 2.572 255 255 255
-0.299552 0.215929 0.574 255 255 255
-0.18401 0.117849 0.389 255 255 255
-0.200498 0.117688 0.722 255 255 255
0.785595 0.212741 1.535 255 255 255
0.185679 -0.232386 2.755 255 255 255
0.121699 0.0286761 2.459 255 255 255
-0.0810233 -0.656526 2.54 255 255 255
-0.220948 0.138099 0.657 0 0 0
0.445947 -0.606328 2.22 0 0 0
-0.211409 0.116116 0.685 255 255 255
0.317144 0.0546354 2.55 255 255 255
0.0541384 0.386135 1.911 0 0 0
-0.182809 0.079371 0.396 255 255 255
0.632684 -0.211943 1.865 255 255 255
-0.570797 -0.440596 1.673 255 255 255
0.120759 -0.944363 2.44 255 255 255
-0.193598 0.204275 0.624 0 0 0
0.136426 -0.754671 2.509 255 255 255
-0.537317 -0.167328 1.132 255 255 255
0.484933 0.469714 1.769 255 255 255
-0.173047 0.166479 0.904 255 255 255
0.480384 0.189022 1.899 255 255 255
0.756803 0.485559 1.629 255 255 255
-0.188587 0.159186 0.425 255 255 255
-0.391733 -0.0958555 1.182 255 255 255
0.193892 0.0163459 2.411 255 255 255
0.547881 -0.0879172 1.941 255 255 255
0.522898 0.530369 1.696 255 255 255
0.79534 -0.0807626 1.559 255 255 255
0.108337 0.235699 2.189 0 0 0
-0.0169763 0.163079 2.269 255 255 255
0.40255 0.228379 1.972 255 255 255
0.793783 -0.219167 1.551 255 255 255
0.777974 -0.0725006 1.794 255 255 255
0.0360868 -0.0636801 2.638 0 0 0
-0.822883 -0.429778 1.612 255 255 255
-0.196394 0.210028 0.62 0 0 0
0.137766 -0.415908 2.695 255 255 255
-0.219973 -0.0193346 1.004 255 255 255
0.733884 0.442188 1.686 255 255 255
0.747737 0.256001 1.555 255 255 255
0.635787 0.129385 2.03 255 255 255
0.312157 0.512294 1.691 255 255 255
0.778624 0.380067 1.587 255 255 255
-0.92127 -0.623085 1.799 0 0 0
-0.548287 -0.497312 1.758 0 0 0
-0.131474 0.192619 2.269 0 0 0
-0.226003 -0.457279 2.024 255 255 255
-0.207271 0.0129568 0.975 255 255 255
-0.322867 0.0984558 0.671 255 255 255
0.745674 -0.0117417 1.882 255 255 255
0.42914 -0.0374945 1.947 255 255 255
0.568476 0.00701836 1.991 255 255 255
-0.287181 -0.57007 1.865 255 255 255
0.738671 0.43815 1.805 255 255 255
0.00104819 0.545505 1.595 255 255 255
-0.184266 0.227074 1.072 255 255 255
0.407291 0.521754 1.686 255 255 255
0.102007 0.415697 1.876 255 255 255
-0.173143 0.0849214 0.882 255 255 255
-0.336601 -0.399071 1.729 0 0 0
-0.511339 -0.267666 1.229 255 255 255
0.766352 0.163804 1.673 255 255 255
0.790683 0.159334 1.575 255 255 255
-0.178024 0.124658 0.98 255 255 255
-0.381316 -0.159167 1.21 255 255 255
-0.195952 0.126842 0.714 255 255 255
0.791113 -0.280228 1.691 255 255 255
-0.0247903 0.555682 1.587 255 255 255
0.78079 -0.23065 1.821 255 255 255
-0.0743167 0.306747 2.114 255 255 255
0.773913 -0.39228 1.567 0 0 0
0.403615 -0.175095 2.572 255 255 255
0.384313 -0.892051 2.449 255 255 255
-0.245998 -0.174925 2.768 255 255 255
-0.179445 0.188458 0.65 255 255 255
-0.244512 -0.0850549 1.116 255 255 255
-0.180068 0.244383 0.664 0 0 0
0.102007 0.409592 1.876 0 0 0
0.665352 -0.562263 1.729 255 255 255
-0.185081 -0.0300184 1.165 255 255 255
0.278144 0.471764 1.81 255 255 255
-0.458577 -0.219309 1.227 0 0 0
-0.20582 -0.0196578 2.499 0 0 0
0.676739 0.372737 2.024 255 255 255
-0.619643 -0.558678 1.799 255 255 255
-0.157085 0.0773932 0.424 0 0 0
0.162787 0.458711 1.805 255 255 255
0.430973 -0.404974 2.42 255 255 255
0.631953 0.221525 1.997 255 255 255
-0.28575 0.313614 2.004 255 255 255
0.43813 -0.454942 1.917 255 255 255
0.4331 -0.437174 1.805 255 255 255
-0.180544 0.115354 0.387 255 255 255
0.276553 0.298889 2.037 0 0 0
-0.300613 -0.858592 2.411 255 255 255
-0.604473 -0.575462 1.815 255 255 255
0.559484 0.128556 2.017 255 255 255
0.0992715 0.0169425 2.499 255 255 255
0.680266 -0.602719 1.724 255 255 255
-0.213661 -0.884081 2.449 255 255 255
0.54579 0.0264584 1.991 255 255 255
-0.411291 -0.79547 2.244 255 255 255
-0.286592 -0.0604228 2.684 255 255 255
0.0379426 0.484387 1.739 255 255 255
0.149639 -0.581939 2.672 255 255 255
-0.178824 0.0706618 0.409 255 255 255
-0.181306 0.0849784 0.84 255 255 255
-0.194829 -0.501763 1.882 255 255 255
0.529206 0.493941 1.763 255 255 255
-0.375724 -0.219078 1.322 0 0 0
-0.190864 0.161325 0.427 255 255 255
0.630462 0.36637 1.972 255 255 255
0.497224 -0.0598572 1.953 255 255 255
-0.316522 0.0699748 0.703 255 255 255
0.315206 0.563674 1.595 255 255 255
0.778217 -0.0379061 1.815 255 255 255
0.583119 -0.513218 1.744 255 255 255
-0.172278 0.223884 0.823 255 255 255
-0.177462 0.107504 0.804 255 255 255
-0.452246 -0.223109 1.237 0 0 0
-0.299491 -0.867114 2.402 255 255 255
0.497627 -0.379041 1.794 255 255 255
0.0629302 -0.431682 2.684 255 255 255
-0.0118039 -0.3674 2.793 255 255 255
0.660039 -0.365756 1.815 255 255 255
-0.221713 0.576324 1.487 255 255 255
0.297177 0.584965 1.555 255 255 255
0.719612 0.399152 1.87 255 255 255
0.392547 0.247739 1.923 255 255 255
-0.208236 0.0212779 0.923 255 255 255
-0.440164 -0.259343 1.237 255 255 255
-0.161705 0.0881917 0.398 255 255 255
0.287042 0.589727 1.528 255 255 255
-0.174387 0.118421 0.393 255 255 255
-0.385022 0.00713757 0.849 255 255 255
-0.0926547 -0.880656 2.519 255 255 255
-0.387225 -0.163105 1.21 255 255 255
0.468872 -0.702201 2.037 0 0 0
0.292809 -0.34922 2.793 255 255 255
-0.147424 0.0937029 0.426 0 0 0
-0.216986 0.36637 1.972 255 255 255
0.478631 0.556566 1.612 255 255 255
0.560814 0.167361 2.01 0 0 0
0.632003 0.590518 1.563 255 255 255
-0.267163 0.555841 1.484 0 0 0
-0.184816 0.0653372 0.409 255 255 255
-0.166747 0.149152 0.424 255 255 255
-0.201117 0.0731654 0.815 255 255 255
-0.214112 0.134229 0.659 255 255 255
-0.29138 -0.283918 2.572 255 255 255
-0.188869 0.126785 0.727 255 255 255
-0.00706515 -0.477133 2.719 255 255 255
0.259636 -0.261471 2.731 255 255 255
0.775459 -0.410179 1.705 255 255 255
0.797442 -0.300124 1.664 255 255 255
0.460082 -0.739223 2.057 255 255 255
0.787203 -0.373474 1.563 255 255 255
0.80474 -0.557809 1.603 255 255 255
0.397813 -0.477029 2.509 255 255 255
0.262861 -0.827015 2.469 255 255 255
-0.0115926 -0.200128 2.743 255 255 255
-0.0243529 0.566174 1.559 255 255 255
0.43886 -0.445727 1.769 255 255 255
0.439677 0.450471 1.784 255 255 255
0.643219 0.411993 1.887 255 255 255
0.441408 -0.551833 1.815 0 0 0
0.744158 0.509738 1.729 255 255 255
-0.1768 -0.204591 2.743 0 0 0
-0.120702 -0.0330562 2.593 255 255 255
0.779659 -0.465481 1.655 255 255 255
-0.233867 0.547466 1.535 255 255 255
0.729195 0.409493 1.848 255 255 255
0.420989 0.37519 1.842 255 255 255
0.638172 0.597425 1.535 255 255 255
0.1735 -0.458626 2.638 255 255 255
-0.143226 0.470238 1.739 255 255 255
-0.175253 -0.255898 2.719 255 255 255
0.781838 -0.0235328 1.637 255 255 255
-0.232739 -0.156076 1.354 255 255 255
-0.18939 0.131917 0.399 255 255 255
-0.710071 -0.503036 1.7 255 255 255
-0.167772 0.103184 0.391 255 255 255
-0.284926 -0.517962 1.831 255 255 255
0.601182 0.531557 1.691 255 255 255
0.785256 0.243647 1.758 255 255 255
-0.191766 -0.504826 1.882 255 255 255
-0.619015 -0.848641 2.269 255 255 255
-0.402116 -0.108488 1.173 255 255 255
-0.0750421 -0.814228 2.479 255 255 255
0.411161 0.40449 1.799 255 255 255
-0.17319 0.232062 0.716 255 255 255
0.316209 0.571177 1.587 255 255 255
0.447118 -0.795054 2.173 255 255 255
-0.245668 -0.0510255 1.051 255 255 255
0.458924 -0.602755 2.037 255 255 255
-0.17159 0.0936397 0.391 255 255 255
-0.704536 -0.494736 1.7 255 255 255
0.0488618 -0.790911 2.42 255 255 255
0.176134 0.340593 1.953 0 0 0
0.571175 0.52332 1.7 255 255 255
-0.573344 -0.62984 1.81 0 0 0
-0.273847 0.163517 2.383 255 255 255
-0.59677 -0.706395 2.03 255 255 255
0.607368 0.0847786 1.991 255 255 255
0.160212 -0.306879 2.78 255 255 255
0.451763 -0.456951 2.286 255 255 255
-0.176269 0.45535 1.758 255 255 255
0.226906 -0.596641 2.66 255 255 255
0.579166 0.562685 1.607 255 255 255
-0.209046 0.506775 1.655 255 255 255
0.449374 -0.894822 2.312 255 255 255
0.0509184 -0.601866 2.743 255 255 255
0.783018 0.176194 1.612 255 255 255
-0.02891 0.0919448 2.338 255 255 255
0.174245 0.538203 1.612 255 255 255
0.258213 0.538203 1.612 255 255 255
-0.467923 -0.396306 1.705 255 255 255
0.773441 -0.42611 1.659 255 255 255
-0.30258 -0.269346 1.48 255 255 255
0.151162 -0.198303 2.78 255 255 255
0.0747615 0.42009 1.882 0 0 0
0.391967 0.150749 2.051 255 255 255
-0.180037 0.152483 0.418 255 255 255
-0.342483 0.024673 0.684 255 255 255
-0.0815807 -0.481693 2.695 255 255 255
-0.0424732 -0.410763 2.719 255 255 255
0.107267 0.0761353 2.32 255 255 255
-0.115725 0.234837 2.181 255 255 255
-0.337543 0.0483037 0.739 255 255 255
-0.360008 0.0377504 0.769 255 255 255
-0.189431 0.527372 1.603 255 255 255
-0.300447 -0.308699 1.583 255 255 255
0.463202 -0.415231 1.774 255 255 255
0.796347 -0.301246 1.571 255 255 255
0.796777 -0.612686 1.624 255 255 255
0.514692 0.513875 1.724 255 255 255
-0.0743449 0.506775 1.655 255 255 255
0.778688 -0.0625 1.682 255 255 255
0.794836 0.168295 1.563 255 255 255
0.41024 0.572617 1.591 255 255 255
-0.149537 0.483002 1.714 255 255 255
-0.247045 -0.130889 1.794 255 255 255
0.769832 0.555382 1.509 255 255 255
-0.248215 -0.0236568 0.98 255 255 255
-0.601142 -0.651599 1.805 255 255 255
0.79879 -0.260008 1.65 255 255 255
-0.173856 0.165569 0.932 255 255 255
-0.389226 -0.110245 1.192 255 255 255
0.522514 -0.0905128 1.929 255 255 255
0.40807 -0.355924 2.356 255 255 255
0.275642 0.589113 1.52 255 255 255
-0.312065 -0.181956 1.273 255 255 255
0.13129 -0.338504 2.743 255 255 255
0.783898 -0.067247 1.664 255 255 255
-0.308508 -0.216806 1.348 255 255 255
0.253651 0.193383 2.278 0 0 0
0.756784 0.279646 1.682 255 255 255
-0.316915 0.0648032 0.709 0 0 0
0.592246 0.56007 1.607 255 255 255
-0.19073 0.146784 0.406 0 0 0
0.132342 -0.754671 2.509 255 255 255
0.729831 0.367735 1.865 255 255 255
-0.553354 -0.193954 1.182 255 255 255
-0.199266 -0.868358 2.519 255 255 255
0.71432 0.308339 1.991 255 255 255
-0.390182 -0.129316 1.189 255 255 255
0.432795 -0.232494 1.935 255 255 255
0.497638 0.298851 1.763 255 255 255
0.357041 0.523254 1.682 255 255 255
0.366176 0.149421 2.286 255 255 255
-0.197625 0.0457473 0.902 255 255 255
0.227608 -0.919115 2.479 255 255 255
0.0301499 0.194274 2.204 0 0 0
0.275635 -0.779452 2.55 255 255 255
-0.642723 -0.617467 1.758 255 255 255
0.241596 0.407142 1.893 255 255 255
-0.186064 0.0979725 0.388 255 255 255
0.555578 -0.29151 1.831 255 255 255
-0.391058 -0.36981 1.673 255 255 255
0.00624027 -0.594789 2.731 255 255 255
0.701934 0.577466 1.583 255 255 255
0.59288 -0.153515 1.893 255 255 255
0.417694 -0.0820381 2.03 255 255 255
-0.831594 -0.603163 1.758 255 255 255
-0.473454 -0.172607 1.194 0 0 0
0.0785919 0.521498 1.642 255 255 255
0.446305 0.288597 1.753 255 255 255
-0.22242 -0.313085 2.755 255 255 255
0.125696 0.487217 1.739 255 255 255
0.373037 0.231063 2.114 0 0 0
0.434137 -0.113186 1.941 255 255 255
-0.232481 -0.134385 2.768 255 255 255
0.717864 0.265489 2.01 255 255 255
-0.173246 0.242392 0.726 255 255 255
-0.819664 -0.415066 1.616 0 0 0
0.73342 -0.278191 1.882 0 0 0
0.403692 0.315124 1.859 255 255 255
-0.0818052 -0.920538 2.44 255 255 255
0.243841 -0.469401 2.805 255 255 255
0.528417 -0.142088 1.905 255 255 255
0.354984 0.357266 1.923 255 255 255
0.527761 -0.247564 1.859 255 255 255
0.535951 0.307665 1.815 255 255 255
0.154041 -0.810393 2.53 255 255 255
-0.181153 0.239832 1.044 255 255 255
-0.262338 0.105739 0.705 255 255 255
-0.173221 0.164087 0.868 255 255 255
-0.698085 -0.400423 1.579 0 0 0
-0.640772 -0.857991 2.294 255 255 255
0.425368 0.271157 1.848 255 255 255
0.74001 -0.43451 1.794 0 0 0
-0.228767 -0.455841 2.672 255 255 255
-0.229961 -0.0722324 1.143 255 255 255
-0.174855 0.150082 0.417 255 255 255
-0.184103 0.168914 0.434 255 255 255
-0.156251 0.105957 0.404 255 255 255
-0.174512 0.11595 0.389 255 255 255
0.774084 0.242242 1.532 255 255 255
0.00934143 0.513523 1.686 255 255 255
0.683073 -0.608331 1.724 255 255 255
0.173735 -0.947715 2.459 255 255 255
0.423307 0.509738 1.729 255 255 255
-0.108091 0.499866 1.677 255 255 255
-0.507681 -0.262808 1.225 255 255 255
0.494967 0.473928 1.774 255 255 255
0.735176 -0.175814 1.935 0 0 0
0.00174808 -0.0598825 2.66 255 255 255
0.674986 -0.451485 1.769 255 255 255
-0.1495 0.118925 0.432 0 0 0
0.247682 -0.778175 2.519 255 255 255
0.408903 -0.189052 2.158 255 255 255
0.458919 0.193969 1.887 255 255 255
0.761032 0.378914 1.71 255 255 255
0.529057 -0.470223 1.753 255 255 255
-0.658282 -0.846366 2.303 255 255 255
0.117884 0.550696 1.595 255 255 255
0.401886 -0.160288 2.017 255 255 255
-0.146641 0.103864 0.414 0 0 0
0.528582 -0.397148 1.81 255 255 255
-0.17062 0.181189 0.862 255 255 255
-0.191249 0.133731 1.242 255 255 255
-0.198185 0.158596 0.649 255 255 255
-0.254561 0.0846985 2.459 0 0 0
0.384313 -0.927919 2.449 255 255 255
0.79583 0.167433 1.555 255 255 255
0.059063 -0.391329 2.707 255 255 255
0.767647 0.173593 1.744 255 255 255
-0.0186223 -0.837764 2.489 255 255 255
0.248556 -0.0598825 2.66 255 255 255
0.789218 -0.0348264 1.547 255 255 255
0.720978 0.561964 1.62 255 255 255
-0.388519 -0.204741 1.286 255 255 255
-0.632347 -0.629967 1.769 255 255 255
0.52975 -0.344007 1.794 255 255 255
-0.264623 -0.0869388 1.094 255 255 255
-0.165677 -0.475392 1.899 255 255 255
0.637424 0.447842 1.87 0 0 0
-0.277642 -0.461123 1.842 255 255 255
-0.138045 -0.401107 2.684 255 255 255
0.665343 0.476815 1.774 255 255 255
0.764883 0.382231 1.7 255 255 255
-0.269383 -0.083702 2.731 255 255 255
0.586717 -0.153515 1.893 255 255 255
0.11099 -0.444785 2.684 255 255 255
0.430462 -0.301398 1.953 255 255 255
-0.57176 -0.53998 1.805 0 0 0
-0.162924 0.0849411 0.401 255 255 255
0.344611 0.186422 2.196 255 255 255
-0.0147941 0.528995 1.624 255 255 255
-0.453841 -0.258821 1.225 0 0 0
0.609814 -0.447855 1.789 255 255 255
-0.525251 -0.446125 1.748 0 0 0
-0.194092 0.578149 1.498 255 255 255
0.182577 0.472592 1.769 255 255 255
0.13589 0.457186 1.799 255 255 255
0.461645 -0.145645 1.911 255 255 255
-0.322862 -0.376437 2.695 255 255 255
0.489436 -0.501865 1.744 255 255 255
-0.19223 0.0436467 1.21 255 255 255
-0.213813 0.244487 2.204 255 255 255
0.560284 0.445772 1.887 255 255 255
0.797276 -0.00730016 1.583 255 255 255
0.15465 -0.0241137 2.54 255 255 255
0.512431 -0.387239 1.805 255 255 255
0.762599 0.583224 1.524 255 255 255
0.405779 -0.565109 2.365 0 0 0
0.788119 -0.0918437 1.575 255 255 255
-0.0466372 0.43396 1.837 255 255 255
0.408217 -0.3746 2.402 255 255 255
0.797832 -0.30278 1.579 255 255 255
0.444321 -0.750837 2.286 0 0 0
-0.172885 0.195831 0.687 255 255 255
-0.285903 -0.260323 2.719 255 255 255
-0.153271 0.135033 0.423 0 0 0
0.743774 -0.173201 1.941 255 255 255
-0.193729 0.000662174 2.449 255 255 255
0.591 -0.168382 1.887 255 255 255
-0.0693164 0.223367 2.173 0 0 0
0.650341 -0.473592 1.734 255 255 255
0.457689 -0.701825 1.821 255 255 255
0.75614 -0.197296 1.87 255 255 255
-0.0567482 0.452104 1.779 255 255 255
0.106013 0.460468 1.789 255 255 255
0.0553835 -0.151026 2.743 255 255 255
-0.301522 -0.194128 1.299 255 255 255
0.219731 -0.636021 2.626 255 255 255
-0.581878 -0.658503 1.947 255 255 255
0.77777 0.233905 1.612 255 255 255
-0.559269 -0.211104 1.203 255 255 255
0.543921 0.397323 1.905 255 255 255
0.645883 0.324366 2.01 0 0 0
-0.195306 0.165501 0.643 255 255 255
-0.195512 -0.0978875 2.755 0 0 0
0.675928 -0.341229 1.826 255 255 255
0.736326 -0.414379 1.821 0 0 0
0.290818 0.52927 1.633 255 255 255
-0.217251 0.0152698 0.923 255 255 255
-0.273215 -0.725515 2.312 0 0 0
0.453681 -0.693191 2.121 255 255 255
-0.145712 0.426149 1.842 255 255 255
-0.31991 -0.197148 1.305 255 255 255
0.790435 0.226679 1.655 255 255 255
0.0525766 0.551705 1.583 255 255 255
0.798904 -0.114619 1.571 255 255 255
-0.543296 -0.409139 1.724 0 0 0
0.596195 0.0525364 1.997 255 255 255
-0.227459 -0.16629 1.403 255 255 255
0.393831 0.297182 1.899 0 0 0
0.808485 -0.564312 1.637 255 255 255
-0.159404 0.1159 0.402 0 0 0
-0.779735 -0.437502 1.583 255 255 255
0.73739 -0.354082 1.831 0 0 0
0.0559896 0.539149 1.607 255 255 255
-0.152327 0.480213 1.714 255 255 255
-0.181774 0.119091 0.391 255 255 255
0.767133 -0.376637 1.769 255 255 255
0.160566 0.531927 1.633 255 255 255
0.00444885 0.361725 1.947 0 0 0
-0.355022 -0.436667 1.779 0 0 0
-0.144007 0.493145 1.682 255 255 255
-0.819294 -0.567141 1.744 255 255 255
0.758396 0.153654 1.81 255 255 255
-0.352429 0.0555372 0.667 255 255 255
0.57545 0.0527205 2.004 255 255 255
-0.286601 -0.719406 2.269 0 0 0
0.0016035 0.06022 2.44 255 255 255
0.797746 0.219127 1.659 255 255 255
-0.0349283 0.186179 2.236 255 255 255
-0.37261 0.021929 0.785 255 255 255
-0.347122 0.00792995 0.68 0 0 0
0.486188 -0.072347 1.947 255 255 255
-0.26753 0.365255 1.966 255 255 255
-0.189766 0.106578 0.769 255 255 255
0.736393 -0.591497 1.724 0 0 0
0.75241 -0.120008 1.899 255 255 255
0.083682 0.51991 1.637 255 255 255
0.783285 -0.00503148 1.686 255 255 255
0.249783 -0.922464 2.499 255 255 255
-0.420037 -0.251696 1.249 255 255 255
0.761342 0.171326 1.81 255 255 255
0.449031 -0.329403 1.81 255 255 255
-0.256284 -0.105687 1.978 255 255 255
-0.248446 -0.0326483 2.561 0 0 0
0.515844 -0.196642 1.893 255 255 255
-0.235873 -0.106854 2.755 0 0 0
-0.154015 0.420454 1.87 255 255 255
-0.48889 -0.0361093 0.931 0 0 0
-0.205238 -0.378634 2.649 255 255 255
0.18167 0.577801 1.563 255 255 255
-0.364256 -0.157543 1.26 255 255 255
-0.259616 -0.782818 2.469 0 0 0
-0.882871 -0.592543 1.769 255 255 255
-0.208975 0.118864 0.688 255 255 255
0.742813 0.199497 1.972 0 0 0
0.661358 -0.025216 1.978 255 255 255
-0.340995 0.043978 0.69 255 255 255
-0.209745 0.156454 0.636 255 255 255
-0.982156 -0.66102 1.882 255 255 255
0.304091 -0.61701 2.731 255 255 255
0.601262 -0.565515 1.739 255 255 255
-0.237818 0.0241928 2.411 255 255 255
0.74898 0.156529 1.997 255 255 255
0.102273 0.205778 2.212 0 0 0
0.176625 0.521498 1.659 255 255 255
0.428877 -0.653628 2.365 255 255 255
0.261126 0.520362 1.664 255 255 255
-0.558086 -0.271818 1.267 255 255 255
-0.333767 -0.522356 1.805 255 255 255
-0.721519 -0.416412 1.591 255 255 255
-0.347735 -0.573895 1.848 255 255 255
-0.0235211 -0.66318 2.582 255 255 255
-0.180632 0.130723 1.041 255 255 255
-0.185909 0.29958 0.963 0 0 0
-0.286735 0.328211 1.882 0 0 0
-0.844879 -0.379474 1.599 255 255 255
-0.101286 0.461293 1.748 255 255 255
0.11752 0.142004 2.228 255 255 255
0.375349 0.57711 1.575 255 255 255
0.15816 -0.723933 2.53 255 255 255
0.706275 -0.628945 1.719 255 255 255
-0.148996 0.442172 1.774 255 255 255
-0.0968115 0.569916 1.502 255 255 255
0.659877 0.596477 1.539 255 255 255
0.17092 0.504137 1.71 255 255 255
0.0558775 -0.7203 2.561 255 255 255
-0.481887 -0.0381497 0.944 255 255 255
-0.601078 -0.258424 1.262 255 255 255
-0.26963 -0.35953 2.03 255 255 255
-0.170897 0.231154 0.763 255 255 255
-0.695698 -0.555119 1.769 255 255 255
0.459024 -0.465842 1.758 255 255 255
0.458435 -0.387346 2.228 255 255 255
-0.541452 -0.859718 2.269 255 255 255
0.787742 -0.142326 1.595 255 255 255
0.780428 0.37463 1.575 255 255 255
0.143421 0.0806561 2.236 255 255 255
-0.540463 -0.299823 1.299 255 255 255
0.341992 -0.798671 2.519 255 255 255
0.23229 -0.760987 2.53 255 255 255
-0.561153 -0.469819 1.71 255 255 255
0.760022 -0.161313 1.714 255 255 255
-0.153525 0.0946226 0.409 255 255 255
0.525316 -0.142088 1.905 255 255 255
0.778646 -0.396075 1.603 0 0 0
-0.330797 -0.541803 1.821 255 255 255
-0.139455 -0.584417 2.55 255 255 255
-0.654057 -0.689492 1.789 255 255 255
0.772684 -0.476769 1.705 255 255 255
0.40886 -0.15109 1.941 0 0 0
-0.179832 0.27169 0.701 255 255 255
0.557175 -0.422192 1.779 255 255 255
0.364393 -0.0866293 2.684 0 0 0
0.475548 0.412854 1.81 255 255 255
-0.181138 0.119091 0.391 255 255 255
-0.195323 0.109254 1.217 255 255 255
-0.251423 0.405239 1.87 255 255 255
0.797218 -0.20546 1.71 255 255 255
0.464428 -0.40195 2.312 255 255 255
-0.715038 -0.588154 1.739 255 255 255
-0.265649 -0.488101 1.842 255 255 255
-0.595484 -0.234206 1.201 0 0 0
0.786209 0.305822 1.551 255 255 255
0.0600023 0.559169 1.575 255 255 255
0.449594 -0.345956 2.151 255 255 255
0.647974 0.459359 1.831 255 255 255
-0.29798 -0.298895 2.593 255 255 255
-0.177875 0.189038 0.652 0 0 0
-0.219864 -0.0580206 1.12 255 255 255
-0.489408 -0.150749 1.132 255 255 255
-0.182237 0.259357 0.672 255 255 255
-0.100444 0.193456 2.236 255 255 255
-0.24483 0.169979 2.365 255 255 255
0.320693 0.578201 1.571 255 255 255
0.184489 0.52927 1.633 255 255 255
-0.17326 0.424529 1.848 255 255 255
0.772207 -0.455566 1.668 255 255 255
0.727752 0.314066 1.966 0 0 0
0.79089 -0.298615 1.612 255 255 255
-0.301095 0.0353373 2.136 0 0 0
-0.281945 0.378909 1.831 0 0 0
0.119728 -0.567082 2.684 255 255 255
0.428202 0.221606 1.887 255 255 255
0.373874 -0.955718 2.459 255 255 255
0.589382 -0.00592378 1.985 255 255 255
0.669984 -0.347172 1.826 255 255 255
0.351956 0.58346 1.551 255 255 255
-0.573144 -0.440934 1.664 255 255 255
0.745729 0.0687852 1.997 255 255 255
0.581975 0.0559817 2.004 255 255 255
0.169945 0.517731 1.673 255 255 255
-0.633225 -0.774869 2.166 0 0 0
0.268052 0.482465 1.763 255 255 255
-0.108498 -0.0331964 2.604 255 255 255
0.11099 -0.623863 2.684 255 255 255
0.204746 0.340593 1.953 0 0 0
-0.223681 -0.207285 1.484 255 255 255
0.76052 0.469296 1.637 255 255 255
0.39172 0.52832 1.655 255 255 255
0.188008 0.118955 2.204 255 255 255
0.153427 0.0278948 2.392 255 255 255
0.602996 0.489865 1.769 255 255 255
-0.438859 -0.249681 1.239 255 255 255
0.77455 0.455453 1.528 0 0 0
-0.343975 0.102937 0.651 0 0 0
0.638756 -0.251398 1.865 255 255 255
0.421303 -0.0235346 2.479 255 255 255
-0.337377 0.0848885 0.676 255 255 255
-0.175382 0.27115 0.74 255 255 255
0.459544 -0.328493 1.805 255 255 255
0.249967 0.252489 2.092 255 255 255
-0.27447 0.345189 2.017 255 255 255
0.195892 0.133785 2.212 255 255 255
0.75326 -0.164902 1.848 255 255 255
0.24305 0.345824 1.929 255 255 255
0.742478 0.00703951 1.997 255 255 255
-0.296285 -0.797447 2.44 255 255 255
0.0956065 0.08716 2.312 255 255 255
-0.345488 -0.003182 0.69 255 255 255
0.315438 0.200004 2.269 0 0 0
-0.235271 0.30916 2.107 255 255 255
-0.18387 0.0890806 0.815 255 255 255
0.789218 0.102425 1.567 255 255 255
0.742316 -0.0434261 1.929 255 255 255
0.77902 -0.0436926 1.81 255 255 255
0.168475 -0.100141 2.695 255 255 255
-0.172141 0.133011 0.816 0 0 0
0.742904 -0.0121472 1.947 255 255 255
-0.249045 -0.0156348 0.977 255 255 255
-0.187273 -0.00736817 2.469 255 255 255
-0.241643 0.40719 1.865 255 255 255
-0.108226 0.23044 2.173 255 255 255
0.631961 0.574057 1.595 255 255 255
-0.17737 0.233951 0.662 255 255 255
-0.204169 0.0828225 0.781 255 255 255
-0.542545 -0.211455 1.205 0 0 0
0.194083 -0.661662 2.626 255 255 255
-0.307369 -0.35705 1.677 255 255 255
0.630648 -0.232438 1.859 255 255 255
0.706717 0.0704041 2.044 0 0 0
0.377892 -0.161678 2.626 255 255 255
0.382487 -0.716252 2.489 0 0 0
0.470266 0.224368 1.859 255 255 255
-0.156903 0.130716 0.418 0 0 0
-0.498778 -0.125875 1.092 0 0 0
-0.260849 0.10628 0.701 255 255 255
0.478987 0.449209 1.779 255 255 255
0.762177 0.153229 1.805 255 255 255
-0.187404 0.0453594 0.924 255 255 255
0.541657 0.138883 2.024 0 0 0
-0.0744277 -0.120304 2.755 255 255 255
0.56452 0.471278 1.831 255 255 255
-0.400443 -0.0903137 1.185 255 255 255
-0.193096 -0.0465964 1.254 255 255 255
0.348145 -0.194072 2.66 0 0 0
-0.598368 -0.496192 1.705 255 255 255
0.424285 -0.390177 1.805 255 255 255
-0.195248 0.0923317 1.229 255 255 255
-0.175879 0.17976 0.677 255 255 255
0.551175 -0.574664 1.724 255 255 255
0.467795 -0.522928 1.748 255 255 255
0.793247 -0.207181 1.575 255 255 255
-0.24034 0.486015 1.705 255 255 255
0.767364 -0.24978 1.853 255 255 255
0.010455 -0.625422 2.672 255 255 255
-0.271126 0.408905 1.859 255 255 255
-0.165246 0.189524 0.489 0 0 0
-0.510424 -0.362603 1.571 255 255 255
0.13287 -0.00751738 2.519 255 255 255
0.255531 0.369422 1.905 0 0 0
0.404733 -0.146988 2.212 255 255 255
0.740247 0.165779 1.991 255 255 255
-0.204296 0.0479268 0.862 255 255 255
0.352726 -0.508007 2.695 255 255 255
0.452729 -0.683224 2.166 255 255 255
-0.140837 0.484658 1.71 255 255 255
0.445947 -0.696645 2.22 255 255 255
0.703923 0.173606 2.085 0 0 0
0.418302 -0.0782304 2.017 255 255 255
-0.245419 -0.171119 1.351 255 255 255
0.254566 0.484107 1.769 255 255 255
0.0448614 -0.6847 2.649 255 255 255
-0.5144 -0.243434 1.208 255 255 255
-0.189804 0.0927761 0.79 255 255 255
0.423049 0.132296 2.024 0 0 0
-0.631249 -0.433485 1.646 0 0 0
-0.0833969 -0.138237 2.755 255 255 255
-0.277937 0.189397 2.32 255 255 255
0.100946 -0.219969 2.768 0 0 0
0.291726 0.442182 1.859 255 255 255
-0.432626 -0.223511 1.262 255 255 255
0.589361 -0.522872 1.729 255 255 255
0.732578 -0.477393 1.769 0 0 0
0.533736 0.591032 1.551 255 255 255
-0.346181 0.017784 0.676 255 255 255
0.768933 -0.109152 1.821 255 255 255
0.516167 -0.514395 1.748 255 255 255
0.650955 -0.360041 1.831 255 255 255
0.762127 -0.0262498 1.826 255 255 255
-0.158184 0.136183 0.416 0 0 0
0.723293 0.581146 1.579 255 255 255
0.46033 0.0165787 1.972 255 255 255
-0.3132 -0.490046 1.805 255 255 255
-0.428647 -0.863128 2.278 255 255 255
-0.666137 -0.416775 1.633 255 255 255
-0.270464 -0.123275 2.114 255 255 255
0.654 -0.624327 1.714 255 255 255
0.316586 0.512255 1.7 255 255 255
0.7741 -0.418506 1.599 255 255 255
-0.530749 -0.134261 1.06 255 255 255
-0.168266 0.201424 0.768 255 255 255
-0.266909 -0.170969 1.316 255 255 255
0.0967656 -0.0282471 2.54 255 255 255
0.0945638 -0.699763 2.593 255 255 255
-0.0967552 -0.782274 2.519 255 255 255
0.438778 -0.654474 1.691 255 255 255
0.763628 0.31082 1.673 255 255 255
0.737139 0.509857 1.739 255 255 255
-0.408797 -0.523548 1.799 255 255 255
0.775419 0.238839 1.646 255 255 255
-0.485282 -0.737999 2.151 0 0 0
-0.202259 0.111171 0.39 255 255 255
-0.756773 -0.635308 1.784 255 255 255
-0.221424 0.456907 1.753 255 255 255
-0.188089 0.129796 0.724 255 255 255
0.444031 -0.311964 2.158 255 255 255
-0.307972 -0.227861 1.375 255 255 255
0.0614068 -0.87611 2.449 255 255 255
0.433723 -0.696739 2.329 255 255 255
-0.13773 -0.55997 2.312 255 255 255
0.662877 -0.339184 1.831 255 255 255
-0.487389 -0.0687641 0.964 255 255 255
0.0144085 0.324366 2.01 0 0 0
-0.333971 0.0946126 0.667 255 255 255
-0.169443 0.146957 0.791 0 0 0
-0.475064 -0.246416 1.213 0 0 0
-0.180721 0.301946 1.013 255 255 255
0.604893 -0.649795 1.686 255 255 255
-0.109037 0.505243 1.65 255 255 255
0.518925 -0.18432 1.893 255 255 255
-0.405606 -0.79866 2.253 255 255 255
0.307114 0.546994 1.607 255 255 255
0.786561 -0.271449 1.705 255 255 255
-0.301982 -0.466032 1.826 255 255 255
-0.4379 -0.272518 1.242 255 255 255
-0.00272262 -0.295944 2.805 255 255 255
0.390943 -0.828471 2.392 0 0 0
0.802064 -0.462048 1.624 255 255 255
0.00162256 -0.827015 2.469 255 255 255
0.0498512 -0.790854 2.469 255 255 255
-0.288126 -0.445166 2.044 0 0 0
-0.477043 -0.637058 1.959 255 255 255
-0.186844 0.114094 0.387 255 255 255
0.453973 -0.647733 2.189 0 0 0
-0.418459 -0.127903 1.176 255 255 255
-0.176281 0.263224 0.945 0 0 0
0.400244 0.544852 1.624 255 255 255
0.187679 -0.362091 2.719 255 255 255
0.317389 -0.950343 2.519 255 255 255
0.446321 -0.587612 2.204 0 0 0
0.179996 0.480104 1.744 255 255 255
-0.214626 -0.0720963 1.171 255 255 255
-0.441106 -0.256706 1.234 255 255 255
-0.477738 -0.566416 1.805 255 255 255
0.394642 -0.50968 2.489 0 0 0
0.479591 -0.0283486 1.972 255 255 255
-0.17659 0.272906 0.735 255 255 255
-0.172225 0.136874 0.406 255 255 255
-0.0856167 -0.488462 2.684 255 255 255
-0.265728 0.100854 0.711 255 255 255
-0.0936587 0.444997 1.821 255 255 255
-0.280184 -0.263573 1.502 255 255 255
0.331141 -0.934664 2.499 255 255 255
0.362709 0.568595 1.587 255 255 255
0.0217178 -0.794872 2.469 255 255 255
-0.246776 -0.19045 1.396 255 255 255
0.0786162 -0.785109 2.489 255 255 255
-0.158771 0.132834 0.414 255 255 255
0.487713 -0.491638 1.748 255 255 255
0.118897 0.582394 1.509 255 255 255
0.78175 0.00334567 1.763 255 255 255
0.411085 0.0996532 2.03 255 255 255
0.326108 0.141368 2.402 255 255 255
0.382036 0.591587 1.52 255 255 255
-0.285135 0.0931369 0.68 255 255 255
-0.196367 0.0763724 0.404 255 255 255
-1.16998 -0.865937 2.228 255 255 255
0.445241 -0.670337 2.253 255 255 255
-0.196576 0.150602 0.665 255 255 255
-0.00249647 -0.011861 2.572 0 0 0
-0.755957 -0.531313 1.729 255 255 255
0.752799 0.248409 1.555 255 255 255
-0.173849 0.164454 0.893 255 255 255
-0.19292 0.0836728 0.814 255 255 255
0.0202955 0.361725 1.947 255 255 255
0.17083 0.355242 1.929 255 255 255
0.526058 0.446786 1.853 0 0 0
0.244138 0.521498 1.659 255 255 255
-0.0026508 -0.594789 2.731 255 255 255
-0.173972 0.23538 0.705 255 255 255
-0.133723 0.450907 1.763 255 255 255
0.760638 -0.273774 1.774 255 255 255
0.720724 -0.302993 1.865 0 0 0
0.791232 0.0489989 1.571 255 255 255
0.141137 -0.943861 2.449 255 255 255
-0.424939 -0.863128 2.278 255 255 255
-0.865593 -0.612694 1.769 255 255 255
-0.135679 -0.52302 2.638 255 255 255
-0.572551 -0.621664 1.865 255 255 255
-0.474733 -0.0304042 0.942 255 255 255
-0.17882 0.38588 1.941 255 255 255
0.141573 -0.623863 2.684 255 255 255
-0.191711 0.178749 0.638 255 255 255
-0.351646 -0.5645 1.837 255 255 255
0.643199 0.485434 1.753 255 255 255
0.264195 0.303242 2.044 255 255 255
-0.192594 0.085368 0.391 255 255 255
0.147341 0.423497 1.87 255 255 255
-0.398982 -0.818643 2.278 255 255 255
0.0543108 0.233222 2.166 255 255 255
-0.608768 -0.881039 2.286 255 255 255
0.00182694 -0.392834 2.78 255 255 255
0.533428 -0.488729 1.758 255 255 255
-0.174261 0.18582 0.675 0 0 0
0.751148 0.293866 1.821 255 255 255
0.223469 0.266997 2.099 255 255 255
0.506388 -0.373202 1.794 255 255 255
0.784226 -0.14652 1.642 255 255 255
0.296793 -0.469145 2.831 255 255 255
0.650566 -0.640471 1.705 255 255 255
0.160212 -0.144015 2.78 255 255 255
-0.218745 -0.570111 1.959 255 255 255
0.471987 -0.478781 1.753 255 255 255
0.778624 -0.371461 1.587 0 0 0
0.783096 0.385099 1.535 255 255 255
-0.160689 0.0757987 0.419 0 0 0
0.673444 0.123624 2.044 255 255 255
-0.0890937 -0.340129 2.793 255 255 255
0.77495 0.337173 1.71 255 255 255
-0.176363 0.123192 0.396 255 255 255
0.58575 0.115427 2.017 255 255 255
-0.254911 -0.0807774 1.083 255 255 255
-0.222809 -0.0643388 1.135 255 255 255
-0.0477904 0.45532 1.769 255 255 255
-0.173466 0.148237 0.722 255 255 255
0.579102 -0.0315577 1.972 255 255 255
-0.434325 -0.210958 1.273 0 0 0
0.789717 0.203396 1.599 255 255 255
-0.210889 0.0430592 0.849 255 255 255
0.0200454 0.397948 1.923 255 255 255
0.490796 0.595517 1.543 255 255 255
0.287792 0.566012 1.587 255 255 255
0.492104 0.0888586 2.01 255 255 255
0.451714 -0.747423 2.128 255 255 255
-0.339545 -0.50317 1.789 255 255 255
0.0238293 0.11966 2.286 255 255 255
-0.229091 -0.0813454 1.167 255 255 255
0.356805 -0.271989 2.66 0 0 0
0.126825 -0.128707 2.743 0 0 0
-0.583513 -0.607539 1.805 255 255 255
0.333733 -0.751417 2.582 255 255 255
-0.692021 -0.876348 2.303 0 0 0
0.580364 0.426112 1.923 255 255 255
0.32281 0.554839 1.607 255 255 255
-0.0536696 0.310187 2.114 255 255 255
0.762278 0.484231 1.607 255 255 255
0.236486 0.546994 1.607 255 255 255
0.36201 -0.334063 2.604 0 0 0
0.776662 0.353348 1.583 255 255 255
0.283604 0.0880147 2.44 255 255 255
-0.343241 0.00692371 0.69 0 0 0
-0.109688 0.410223 1.893 255 255 255
0.760194 -0.270533 1.753 255 255 255
-0.351137 -0.429666 1.774 0 0 0
0.281554 0.270413 2.099 255 255 255
0.416037 -0.17134 2.402 255 255 255
-0.187495 0.218315 1.145 255 255 255
0.422118 -0.343258 1.821 255 255 255
-0.530934 -0.149522 1.096 255 255 255
-0.342003 -0.745253 2.269 255 255 255
-0.200166 0.0790646 1.273 255 255 255
-0.368952 0.0203095 0.772 255 255 255
-0.249592 -0.909598 2.411 255 255 255
0.793585 -0.312638 1.673 255 255 255
-0.0525115 -0.728636 2.561 255 255 255
-0.502488 -0.420524 1.748 0 0 0
0.254142 -0.485732 2.768 255 255 255
0.440599 -0.698756 2.286 255 255 255
-0.159345 0.0805665 0.412 255 255 255
0.68389 -0.589782 1.719 255 255 255
-0.194113 0.30916 2.107 255 255 255
-0.168657 0.186461 0.753 255 255 255
0.269552 0.526612 1.633 255 255 255
-0.789709 -0.35913 1.567 255 255 255
0.445652 0.225695 1.87 255 255 255
0.797854 -0.240416 1.682 255 255 255
-0.0537211 0.173543 2.261 255 255 255
0.313079 0.483958 1.758 255 255 255
0.024048 0.557749 1.571 255 255 255
-0.181424 0.163483 0.669 255 255 255
0.33622 0.28939 2.017 0 0 0
0.215442 0.214518 2.228 0 0 0
0.402762 -0.0854996 2.649 255 255 255
-0.190685 0.120364 0.391 255 255 255
-0.373205 -0.159334 1.242 255 255 255
-0.181578 0.239064 1.12 255 255 255
0.401146 -0.824987 2.338 0 0 0
-0.0963711 -0.628099 2.509 255 255 255
0.362804 -0.40183 2.55 0 0 0
-0.173312 0.139198 0.407 255 255 255
0.786699 0.184194 1.547 255 255 255
-0.0977895 0.0922988 2.347 255 255 255
0.436821 -0.266438 1.953 255 255 255
0.732403 -0.394716 1.826 0 0 0
0.803672 -0.220598 1.677 255 255 255
0.253225 0.358147 1.911 255 255 255
-0.163245 0.305731 2.107 255 255 255
-0.0490392 0.530329 1.62 255 255 255
-0.206472 0.17556 0.623 255 255 255
0.492069 0.590518 1.563 255 255 255
0.311263 0.272915 2.092 255 255 255
-0.530371 -0.859718 2.269 255 255 255
0.0578366 0.240272 2.166 255 255 255
0.441016 -0.656635 2.269 255 255 255
-0.309642 -0.0532565 2.55 0 0 0
0.0710049 0.342715 1.947 255 255 255
0.568759 -0.500357 1.779 255 255 255
0.526338 0.591544 1.559 255 255 255
0.78101 -0.0383833 1.705 255 255 255
-0.660123 -0.663503 1.774 255 255 255
0.516765 0.555844 1.633 255 255 255
0.422984 0.583314 1.571 255 255 255
0.0238113 -0.435381 2.707 255 255 255
0.474325 0.0788099 2.004 255 255 255
-0.01649 0.205034 2.204 255 255 255
0.289977 0.421206 1.887 0 0 0
-0.16325 0.0595042 2.411 255 255 255
0.516468 0.0455988 1.978 255 255 255
0.0495206 0.475516 1.748 255 255 255
0.216126 -0.365287 2.743 255 255 255
0.283185 0.298889 2.037 0 0 0
0.101794 -0.529761 2.672 255 255 255
-0.217855 -0.456366 1.923 0 0 0
0.654508 0.407142 1.893 255 255 255
-0.381302 -0.169667 1.229 255 255 255
0.381476 -0.31371 2.509 255 255 255
-0.0887951 0.344333 2.051 255 255 255
-0.462763 -0.257131 1.217 0 0 0
0.753301 -0.180418 1.917 255 255 255
-0.043413 0.495789 1.71 255 255 255
-0.627191 -0.307918 1.393 255 255 255
-0.287738 0.204504 2.278 255 255 255
