ply
format ascii 1.0
comment Created by Open3D
element vertex 1324
property double x
property double y
property double z
property uchar red
property uchar green
property uchar blue
end_header
0.640056 -0.361654 2.204 0 0 0
-0.141577 -0.142081 1.412 255 255 255
-0.259719 0.233708 0.603 255 255 255
0.134567 -0.477133 2.719 255 255 255
-0.321672 0.035551 0.904 0 0 0
0.480547 0.576721 1.753 255 255 255
-0.139896 0.112078 0.412 255 255 255
-0.162641 -0.77721 2.402 0 0 0
0.653768 -0.0209296 1.882 255 255 255
0.428101 -0.692091 2.519 255 255 255
-0.114556 -0.472012 1.923 255 255 255
0.449704 0.488763 1.887 255 255 255
0.308864 0.247173 2.196 255 255 255
-0.299748 0.0332832 0.678 255 255 255
-0.416523 -0.0541261 1.013 255 255 255
-0.120248 0.259567 0.693 0 0 0
-0.120687 -0.082786 1.31 255 255 255
-0.0998566 0.260214 0.98 0 0 0
0.875373 0.426563 1.911 0 0 0
-0.277434 -0.167463 1.357 255 255 255
0.614515 -0.405425 1.769 255 255 255
-0.493619 -0.55186 1.865 255 255 255
0.835412 0.00361515 1.905 255 255 255
0.384557 0.426974 1.899 255 255 255
0.633376 -0.215912 2.181 0 0 0
-0.171685 -0.699812 2.365 0 0 0
-0.129851 0.250914 0.667 255 255 255
0.623199 -0.457865 1.794 255 255 255
0.615698 -0.476916 2.329 255 255 255
0.0505974 0.365808 2.158 0 0 0
0.163418 -0.484095 2.684 255 255 255
0.233484 0.405741 2.128 255 255 255
-0.157266 0.244808 0.629 255 255 255
-0.152431 -0.0317496 1.094 255 255 255
-0.41227 -0.1446 1.22 255 255 255
-0.293919 0.197325 0.615 255 255 255
0.0601103 -0.044088 2.755 0 0 0
-0.198074 0.0561 1.009 255 255 255
-0.517516 -0.177096 1.239 0 0 0
-0.0755611 0.0693996 2.638 0 0 0
0.317389 -0.798671 2.519 255 255 255
0.707192 -0.733731 2.212 255 255 255
-0.159714 0.0896055 0.433 0 0 0
-0.396519 0.0212832 1.075 255 255 255
0.690366 0.415044 1.794 255 255 255
-0.556892 -0.354282 1.664 255 255 255
-0.812215 -0.908368 2.347 255 255 255
-0.134505 0.193222 0.674 255 255 255
-0.144974 0.203892 0.652 255 255 255
-0.10016 0.21628 0.897 255 255 255
-0.337272 0.0774163 0.678 255 255 255
-0.160335 0.2402 0.625 255 255 255
-0.21624 -0.349054 1.805 0 0 0
0.612143 0.0563162 1.905 255 255 255
-0.130411 0.0926375 0.434 255 255 255
0.414149 -0.811832 2.509 255 255 255
0.278738 0.55834 1.758 255 255 255
0.901414 0.215316 1.784 255 255 255
-0.365071 0.00400092 1.135 255 255 255
0.611545 -0.17469 2.071 255 255 255
0.486034 -0.171159 2.78 255 255 255
-0.515131 -0.126185 1.196 0 0 0
-0.265526 0.0303064 1.152 255 255 255
0.915589 0.19554 1.789 255 255 255
0.356094 -0.0351214 2.755 0 0 0
0.620209 -0.312116 2.044 255 255 255
0.258573 0.47828 1.882 255 255 255
-0.341572 0.122834 0.667 255 255 255
0.23133 0.59889 1.664 255 255 255
-0.890512 -0.44226 1.826 0 0 0
-0.265809 0.0684225 0.806 255 255 255
0.340634 -0.717924 2.509 255 255 255
-0.347846 0.0942326 0.688 255 255 255
-0.228606 0.112363 0.718 0 0 0
-0.112469 -0.362719 1.941 255 255 255
-0.298189 0.0482986 0.672 255 255 255
0.359369 0.547806 1.789 255 255 255
-0.308655 0.0461023 0.909 255 255 255
-0.308402 0.181352 0.622 255 255 255
0.927735 0.00350698 1.848 255 255 255
-0.340486 0.121748 0.667 255 255 255
-0.156764 -0.0244708 1.087 255 255 255
-0.346767 0.0474157 0.675 255 255 255
0.850981 0.53766 1.794 255 255 255
-0.327768 0.158026 0.634 255 255 255
0.897334 0.344155 1.805 255 255 255
-0.51516 -0.0707324 1.039 255 255 255
-0.118081 0.268595 0.714 0 0 0
-0.155777 0.106816 0.415 255 255 255
0.410065 -0.713841 2.509 255 255 255
-0.393684 -0.111539 1.165 255 255 255
-0.12615 0.0208476 1.053 255 255 255
-0.0865349 0.496636 1.859 255 255 255
0.0411526 0.14697 2.43 255 255 255
-0.228097 -0.0615122 1.267 255 255 255
0.594475 0.47159 1.744 0 0 0
0.177974 -0.851961 2.519 255 255 255
-0.292553 0.213878 0.608 255 255 255
-0.336062 -0.127554 1.31 255 255 255
0.0656604 -0.803657 2.459 255 255 255
-0.368666 -0.360516 1.789 0 0 0
-0.670784 -0.664783 2.024 255 255 255
-0.0693168 -0.916931 2.42 255 255 255
0.645779 -0.0902535 1.859 255 255 255
0.230915 -0.457407 2.707 255 255 255
-0.34508 0.0276846 0.676 255 255 255
0.272165 -0.215465 2.768 255 255 255
-0.320064 0.169062 0.629 255 255 255
-0.0990035 0.0347452 1.114 255 255 255
0.592119 -0.269869 2.519 0 0 0
0.339112 0.460014 1.87 255 255 255
-0.42621 -0.0839879 1.102 255 255 255
-0.770726 -0.351685 1.591 255 255 255
0.479216 0.277303 2.329 255 255 255
-0.207905 0.110989 0.74 255 255 255
-0.121523 -0.0517935 1.232 255 255 255
-0.316517 -0.79433 2.383 0 0 0
-0.525878 -0.439562 1.779 255 255 255
0.887866 0.433107 1.859 255 255 255
0.600286 -0.130609 1.831 255 255 255
-0.1409 0.0257026 0.977 255 255 255
0.605205 -0.0765015 1.893 255 255 255
-0.333193 0.0461114 0.672 255 255 255
-0.460438 -0.396257 1.729 255 255 255
0.634219 -0.408209 1.744 255 255 255
-0.312772 -0.456882 1.837 255 255 255
-0.559389 -0.618143 1.882 255 255 255
-0.261818 0.0747778 0.79 255 255 255
0.699073 -0.294811 1.779 255 255 255
0.593589 -0.292736 1.784 255 255 255
0.140301 0.570922 1.71 255 255 255
-0.363589 -0.0804046 1.21 255 255 255
0.5614 -0.0389147 2.707 255 255 255
-0.563563 -0.897827 2.411 255 255 255
-0.203635 -0.269721 1.677 255 255 255
-0.152766 0.103689 0.416 255 255 255
0.576979 -0.22019 2.561 0 0 0
-0.752856 -0.623417 1.997 255 255 255
-0.307881 0.213526 0.607 255 255 255
-0.28717 0.223653 0.605 255 255 255
0.768429 -0.207371 1.799 255 255 255
-0.0624796 0.420409 2.064 255 255 255
0.88713 0.210187 1.923 255 255 255
-0.100449 0.404328 2.085 255 255 255
0.181679 0.47632 1.911 255 255 255
-0.0257914 0.215636 2.402 0 0 0
0.0739655 0.12924 2.469 255 255 255
0.791031 -0.0751275 1.859 255 255 255
-0.447488 -0.849983 2.42 255 255 255
0.0154749 -0.317404 2.793 255 255 255
-0.274214 0.0523321 0.712 255 255 255
0.0754368 0.501142 1.899 255 255 255
0.106802 0.362296 2.158 0 0 0
-0.182537 -0.708651 2.356 0 0 0
-0.576426 -0.192706 1.262 255 255 255
0.0862927 0.615081 1.587 255 255 255
0.639897 -0.408209 1.744 255 255 255
-0.291041 0.0563393 0.841 0 0 0
0.905288 0.356096 1.821 255 255 255
0.89123 0.403523 1.905 255 255 255
0.62595 -0.469412 1.729 255 255 255
-0.159538 0.117228 0.416 255 255 255
0.582427 -0.0670969 2.604 0 0 0
-0.06676 0.50851 1.815 255 255 255
0.644578 -0.0393054 1.882 255 255 255
0.518151 0.206412 2.479 255 255 255
-0.385915 -0.0838865 1.176 255 255 255
-0.113371 0.108454 0.875 255 255 255
-0.101977 0.255117 0.875 0 0 0
0.86293 0.00984618 1.911 255 255 255
-0.329707 -0.383477 1.815 0 0 0
0.669818 0.580765 1.748 255 255 255
0.613267 -0.920538 2.44 255 255 255
-0.715209 -0.343613 1.719 255 255 255
0.907186 0.299324 1.893 255 255 255
0.0975656 -0.641116 2.561 255 255 255
0.65393 -0.593095 2.121 255 255 255
-0.304252 0.0142548 0.72 255 255 255
-0.29644 0.200002 0.614 255 255 255
-0.139557 0.117826 0.411 255 255 255
0.740553 0.234083 1.966 255 255 255
0.155393 0.609757 1.607 255 255 255
-0.192937 -0.181759 1.435 255 255 255
-0.116405 0.189479 0.718 255 255 255
0.92224 -0.0769864 1.905 255 255 255
0.47265 0.613841 1.646 255 255 255
0.409899 -0.943713 2.459 255 255 255
-0.22174 0.0244038 1.139 255 255 255
-0.353758 0.0971729 0.693 255 255 255
-0.153725 0.0834561 0.434 0 0 0
-0.0967934 0.202619 0.935 255 255 255
-0.525382 -0.586814 1.87 255 255 255
-0.108452 0.207017 0.752 0 0 0
-0.121983 0.186664 0.703 255 255 255
0.340982 0.527891 1.831 0 0 0
-0.314903 0.040825 0.675 255 255 255
-0.21555 -0.0731251 1.254 255 255 255
0.861584 0.298979 1.972 255 255 255
0.862517 0.264696 2.004 0 0 0
0.0952036 -0.698796 2.499 255 255 255
0.724552 0.230883 1.966 255 255 255
0.0786162 -0.724352 2.489 255 255 255
0.883533 0.423152 1.882 255 255 255
0.864169 0.519837 1.744 255 255 255
0.509045 0.322219 2.196 0 0 0
-0.330344 0.150382 0.641 255 255 255
-0.85477 -0.783135 2.338 0 0 0
-0.33401 -0.116181 1.302 255 255 255
-0.31174 0.0976568 0.713 255 255 255
-0.109469 0.134616 0.435 0 0 0
-0.104835 0.349096 0.997 255 255 255
0.259495 0.606781 1.62 255 255 255
-0.282457 0.0365367 0.698 255 255 255
0.111474 0.197712 2.329 255 255 255
0.640346 -0.36182 1.753 255 255 255
0.689679 -0.607593 1.646 255 255 255
0.476747 0.331766 2.212 0 0 0
-0.318973 0.0657956 0.672 255 255 255
-0.122172 0.101091 0.425 255 255 255
0.561425 0.264044 2.024 255 255 255
0.538875 0.373529 1.805 255 255 255
0.660753 -0.556332 2.166 0 0 0
-0.469788 -0.300709 1.555 255 255 255
0.2634 0.0766551 2.593 255 255 255
0.713403 0.105408 1.953 255 255 255
0.584437 0.0448842 1.947 255 255 255
-0.128335 -0.176132 1.528 255 255 255
-0.145967 0.136202 0.414 255 255 255
-0.561316 -0.555851 1.848 255 255 255
-0.122647 0.128598 0.805 255 255 255
0.355655 -0.409843 2.684 255 255 255
-0.0890133 -0.881488 2.42 255 255 255
0.663463 -0.694636 2.044 0 0 0
0.17594 -0.29833 2.743 255 255 255
-0.275119 0.10541 1.059 255 255 255
-1.06461 -0.846674 2.356 255 255 255
-0.502496 -0.277879 1.487 255 255 255
-0.100093 0.149063 0.871 255 255 255
0.545443 -0.28626 2.672 255 255 255
0.777974 -0.23015 1.794 255 255 255
-0.152269 0.171965 0.44 0 0 0
0.232214 0.231263 2.286 255 255 255
0.268328 0.435938 1.953 0 0 0
0.482678 -0.595999 2.638 255 255 255
-0.786479 -0.498719 1.826 255 255 255
0.144595 -0.90574 2.509 255 255 255
-0.117992 0.198669 0.693 255 255 255
0.544602 -0.542007 2.626 255 255 255
-0.218301 -0.337285 1.774 0 0 0
0.808548 -0.517901 1.659 255 255 255
0.512433 -0.657566 2.593 255 255 255
0.650131 0.142223 1.935 255 255 255
-0.00205871 0.383697 2.121 255 255 255
0.638057 0.0406809 2.459 255 255 255
0.861692 -0.418359 1.739 255 255 255
-0.926238 -0.907638 2.365 255 255 255
0.75687 0.369003 1.887 255 255 255
-0.904847 -0.456882 1.837 255 255 255
0.123376 0.288621 2.269 255 255 255
0.626078 -0.367525 1.753 255 255 255
-0.149934 0.232373 0.637 255 255 255
0.380303 -0.0352871 2.768 0 0 0
-0.347601 -0.0441811 1.189 255 255 255
-0.266189 -0.372553 1.805 0 0 0
0.57025 -0.264239 2.626 255 255 255
0.775419 -0.562057 1.646 255 255 255
0.644715 -0.433129 1.719 255 255 255
-0.154712 0.595517 1.543 0 0 0
-0.273365 0.055417 0.722 255 255 255
-0.72561 -0.365638 1.744 255 255 255
-0.289981 -0.0357545 1.232 255 255 255
-0.680696 -0.273593 1.439 255 255 255
-0.594664 -0.601361 1.887 255 255 255
-0.242559 -0.0890827 1.278 255 255 255
-0.097258 0.0885166 0.986 255 255 255
0.473517 -0.812663 2.499 255 255 255
-0.0379344 0.561101 1.714 255 255 255
-0.370409 -0.106282 1.26 255 255 255
-0.29901 -0.409574 1.826 255 255 255
0.603557 0.13348 2.55 255 255 255
0.915018 0.0824484 1.865 255 255 255
-0.541256 -0.128881 1.185 255 255 255
-0.421592 0.00568822 1.104 255 255 255
0.56504 -0.0758272 2.768 255 255 255
0.103718 -0.239893 2.844 255 255 255
-0.144909 0.125852 0.411 255 255 255
-0.295682 0.143414 0.652 255 255 255
0.750727 0.384356 1.887 255 255 255
0.568967 0.462396 1.71 0 0 0
0.646526 -0.524994 1.673 255 255 255
0.0205655 0.289789 2.338 255 255 255
-0.195474 -0.41395 1.859 255 255 255
0.693053 0.29155 1.923 0 0 0
0.452343 0.112289 2.54 255 255 255
-0.296802 0.114748 0.697 0 0 0
-0.0133476 0.528856 1.784 255 255 255
-0.452545 -0.444276 1.81 255 255 255
-0.0115419 0.000738423 2.731 255 255 255
0.90771 0.0702314 1.947 255 255 255
0.617359 -0.189278 1.794 255 255 255
0.332466 -0.717924 2.509 255 255 255
0.214025 -0.693426 2.509 255 255 255
0.376309 -0.624846 2.615 255 255 255
-0.097983 0.561827 1.691 255 255 255
-0.129629 0.0789109 0.879 255 255 255
-0.276821 0.0298142 0.728 0 0 0
0.621182 -0.622149 1.642 255 255 255
0.693576 -0.208639 1.81 255 255 255
-0.322448 0.0398443 0.677 255 255 255
0.325841 -0.883689 2.459 255 255 255
0.422652 0.498125 1.876 255 255 255
-0.702197 -0.500084 1.831 0 0 0
0.683613 -0.281124 1.784 255 255 255
0.751634 -0.376083 1.753 255 255 255
-0.292095 0.21873 0.605 255 255 255
0.0330581 -0.0662148 2.743 0 0 0
-0.102312 0.196621 0.81 0 0 0
0.866508 0.105084 1.947 0 0 0
-0.139196 0.154944 0.715 255 255 255
0.389079 -0.675912 2.615 255 255 255
0.162478 0.378623 2.151 255 255 255
0.631785 -0.364673 1.753 255 255 255
0.429323 0.616207 1.624 255 255 255
0.728932 -0.217475 1.81 255 255 255
0.885028 0.22992 1.905 255 255 255
-0.449455 -0.120861 1.182 255 255 255
0.655814 -0.52984 2.173 0 0 0
0.220252 -0.747216 2.582 255 255 255
0.145741 0.602653 1.616 255 255 255
-0.593034 -0.388223 1.682 255 255 255
-0.47059 -0.574641 1.87 255 255 255
0.483503 -0.00382387 2.818 0 0 0
0.806936 0.0440543 1.911 255 255 255
0.41175 0.496655 1.882 255 255 255
0.230073 0.520507 1.826 255 255 255
-0.0916634 0.103475 0.961 255 255 255
0.751552 0.0863387 1.953 255 255 255
0.486726 -0.53214 2.684 255 255 255
-0.196968 -0.28125 1.714 255 255 255
-0.375309 -0.00696265 1.116 255 255 255
0.892931 0.241684 1.876 255 255 255
0.240088 -0.910111 2.402 255 255 255
-0.687315 -0.84401 2.338 0 0 0
-0.413653 -0.0750213 1.102 255 255 255
0.357991 -0.145311 2.805 255 255 255
0.855905 0.335263 1.959 255 255 255
-0.452793 -0.0936293 1.11 255 255 255
-0.657493 -0.361946 1.7 0 0 0
-0.276144 0.112424 0.711 0 0 0
0.186904 0.256403 2.278 255 255 255
0.2494 0.508695 1.837 0 0 0
-0.33389 0.13917 0.652 255 255 255
0.901023 0.367095 1.893 255 255 255
0.238422 0.378959 2.173 255 255 255
0.857519 0.101601 1.941 255 255 255
-0.340486 0.122834 0.667 255 255 255
-0.100714 0.192651 0.889 255 255 255
-0.593487 -0.644127 1.923 255 255 255
-0.390541 -0.0397235 1.118 255 255 255
0.305281 0.152457 2.392 255 255 255
-0.426092 -0.133522 1.192 255 255 255
-0.639909 -0.452761 1.774 255 255 255
-0.12454 0.145696 0.426 255 255 255
-0.0382555 -0.804374 2.449 255 255 255
0.0630428 0.609916 1.587 255 255 255
0.312303 0.592653 1.677 255 255 255
-0.105336 0.277437 0.856 0 0 0
0.0518465 -0.326494 2.793 255 255 255
-0.165748 0.122553 0.418 0 0 0
-0.114689 0.144149 0.436 0 0 0
-0.50083 -0.786402 2.303 0 0 0
-0.286157 0.0244554 0.71 0 0 0
-0.225119 -0.498595 1.905 255 255 255
-0.143094 0.199343 0.658 255 255 255
-0.335549 -0.123102 1.308 255 255 255
0.633877 -0.110411 1.842 255 255 255
0.867918 0.0538866 1.929 255 255 255
-0.402849 -0.0371653 1.046 255 255 255
0.125358 0.61922 1.591 255 255 255
-0.511006 -0.0826676 1.062 255 255 255
-0.367731 -0.0968347 1.244 255 255 255
-0.269444 0.223653 0.605 0 0 0
0.254663 0.195275 2.392 255 255 255
-0.127676 0.026939 1.024 255 255 255
-0.297017 0.0706182 0.687 255 255 255
0.908415 0.0225654 1.935 255 255 255
0.0282178 0.027163 2.707 0 0 0
0.495464 -0.462256 2.684 255 255 255
0.845697 -0.200395 1.789 255 255 255
-0.391054 -0.0677331 1.13 255 255 255
0.136713 0.450813 1.935 0 0 0
0.357199 0.428771 1.935 0 0 0
-0.0796233 -0.385102 1.911 255 255 255
0.26846 0.177209 2.411 255 255 255
-0.599701 -0.201861 1.281 255 255 255
-0.144856 -0.0451815 1.118 255 255 255
-0.25638 -0.819119 2.365 0 0 0
0.329597 -0.66741 2.55 255 255 255
0.0118924 0.583592 1.659 255 255 255
0.347412 -0.832997 2.499 255 255 255
0.0994268 0.595705 1.633 255 255 255
0.525866 0.43018 1.821 255 255 255
-1.0702 -0.697468 2.294 255 255 255
-0.255266 -0.0176676 1.229 255 255 255
-0.17104 0.0191704 1.055 255 255 255
-0.0294529 -0.0706785 2.743 0 0 0
0.625116 -0.215899 2.294 255 255 255
-0.359399 0.111834 0.693 255 255 255
-1.06905 -0.755551 2.383 255 255 255
0.684203 -0.832058 2.196 0 0 0
0.872935 0.464879 1.853 255 255 255
0.166288 0.594501 1.637 255 255 255
0.332218 -0.0394322 2.743 0 0 0
0.622426 -0.130252 1.826 255 255 255
0.659342 -0.305635 1.758 255 255 255
0.515453 0.257514 2.356 255 255 255
0.726667 -0.503184 1.682 255 255 255
-0.340583 0.11824 0.678 255 255 255
-0.118284 0.101816 0.431 255 255 255
-0.295468 0.122984 0.686 255 255 255
-0.291525 0.0786485 0.709 255 255 255
-0.102383 0.172175 0.832 0 0 0
0.151118 0.192336 2.356 255 255 255
0.495303 -0.325251 2.707 255 255 255
0.383744 0.516449 1.865 255 255 255
-0.0665475 0.487236 1.893 255 255 255
-0.438503 -0.0133262 0.927 255 255 255
-0.830788 -0.337888 1.587 0 0 0
-0.1371 0.176826 0.687 255 255 255
-0.0824742 -0.442794 1.905 255 255 255
-0.415262 -0.0502772 1.002 255 255 255
0.222129 -0.596792 2.604 255 255 255
-0.11989 0.453217 1.959 255 255 255
0.597937 -0.68526 2.509 255 255 255
-0.664228 -0.408014 1.696 255 255 255
-0.186372 -0.708651 2.356 255 255 255
0.17054 -0.632248 2.593 255 255 255
0.922635 -0.0440788 1.826 255 255 255
0.557487 -0.0125943 2.731 255 255 255
-0.126883 0.115542 0.824 255 255 255
-0.0778573 -0.183466 2.572 255 255 255
-0.139237 0.216583 2.107 255 255 255
0.765602 -0.46534 1.714 255 255 255
0.642837 0.588521 1.729 0 0 0
-0.552017 -0.123547 1.171 255 255 255
-0.102503 -0.107614 1.412 255 255 255
-0.445213 -0.108797 1.156 255 255 255
0.126618 0.607142 1.607 255 255 255
-0.114837 -0.231377 1.696 255 255 255
-0.13812 0.103844 0.796 255 255 255
-1.26135 -0.831934 2.402 0 0 0
0.720549 -0.580296 1.637 255 255 255
-0.45509 -0.111252 1.162 255 255 255
0.273911 0.584836 1.71 255 255 255
-0.30056 -0.0213326 1.21 255 255 255
-0.78661 -0.337038 1.571 0 0 0
0.901414 -0.304349 1.784 0 0 0
-0.292347 0.105482 0.711 255 255 255
0.314344 0.0882118 2.561 255 255 255
-0.591102 -0.238128 1.357 255 255 255
-0.128635 0.239036 2.22 0 0 0
0.811249 -0.520601 1.659 255 255 255
0.836771 0.367142 1.959 255 255 255
-0.370161 -0.266539 1.39 255 255 255
0.736792 -0.817447 2.121 0 0 0
0.347818 -0.666006 2.593 255 255 255
0.160001 0.186079 2.374 0 0 0
0.337461 0.193569 2.196 255 255 255
-0.523586 -0.246516 1.445 255 255 255
-0.687315 -0.859229 2.338 0 0 0
-0.323433 -0.0334757 1.222 255 255 255
0.0531268 0.583471 1.682 255 255 255
0.656402 0.479273 1.805 255 255 255
0.104956 -0.0934042 2.755 0 0 0
0.665065 0.400993 1.758 255 255 255
0.580445 0.272031 2.01 0 0 0
-0.112541 0.387149 2.121 255 255 255
0.395168 0.473702 1.876 255 255 255
0.367938 -0.378678 2.743 255 255 255
0.853045 -0.285322 1.774 255 255 255
-0.276027 0.0739579 1.104 255 255 255
0.397813 -0.68526 2.509 255 255 255
0.454835 0.0562638 2.626 255 255 255
-0.14916 0.0946177 0.427 255 255 255
-0.0144774 -0.41198 1.935 255 255 255
0.117894 0.0498431 2.743 255 255 255
-0.280556 0.10551 1.06 255 255 255
-0.612881 -0.899502 2.374 255 255 255
0.881086 0.406924 1.784 255 255 255
-0.524493 -0.893039 2.43 255 255 255
0.652676 -0.759002 2.151 255 255 255
0.328551 -0.920869 2.42 255 255 255
0.747606 -0.490662 1.686 255 255 255
-0.292682 0.00820344 1.21 255 255 255
-0.271046 -0.0473767 1.275 255 255 255
-0.178375 -0.332446 1.779 255 255 255
0.715166 -0.181626 1.805 255 255 255
0.897066 0.395524 1.853 255 255 255
0.310539 -0.773339 2.53 255 255 255
-0.123322 0.149515 0.429 255 255 255
0.634638 -0.316177 1.753 255 255 255
-0.716012 -0.826186 2.32 0 0 0
-0.186021 -0.253403 1.642 255 255 255
0.729211 -0.249887 1.789 255 255 255
0.736855 0.549861 1.815 255 255 255
0.426242 0.296006 2.269 255 255 255
0.0936871 0.5088 1.893 255 255 255
-0.130241 0.220759 0.658 255 255 255
0.619918 -0.44133 1.81 255 255 255
0.58804 0.0642884 1.959 255 255 255
-0.387995 -0.0963727 1.165 0 0 0
0.641847 -0.264444 1.789 255 255 255
-0.0834569 -0.0766237 2.374 0 0 0
-0.382806 -0.0362139 1.122 255 255 255
-0.918169 -0.872459 2.374 255 255 255
0.11182 0.504116 1.887 255 255 255
-0.565529 -0.840205 2.338 0 0 0
0.238747 -0.85514 2.469 255 255 255
0.793927 -0.630478 1.629 255 255 255
-1.00315 -0.629682 2.128 255 255 255
0.811882 -0.59242 1.612 255 255 255
0.692538 -0.129468 1.815 255 255 255
0.591667 -0.0180283 1.899 255 255 255
-0.132489 -0.0755254 1.26 255 255 255
0.4199 0.111361 2.519 0 0 0
-0.128583 -0.45067 1.899 255 255 255
0.12798 -0.319067 2.768 255 255 255
-0.153901 0.245976 0.632 255 255 255
-0.0943822 0.0573185 1.062 255 255 255
0.696549 -0.473075 1.682 255 255 255
-0.828205 -0.337888 1.587 0 0 0
-0.604628 -0.611365 1.899 255 255 255
0.740247 0.282419 1.991 0 0 0
-0.126204 0.133392 0.42 255 255 255
0.559296 0.619622 1.633 255 255 255
0.00151347 0.311685 2.303 255 255 255
-0.0910954 0.00814242 1.201 255 255 255
0.637236 -0.424341 2.158 0 0 0
-0.323142 -0.131369 1.327 255 255 255
0.674264 0.0763323 1.941 255 255 255
-0.121186 0.143652 0.787 255 255 255
-0.152909 0.146388 0.422 255 255 255
0.312045 -0.832247 2.509 255 255 255
0.683086 -0.732729 1.985 255 255 255
-0.136662 -0.0724253 1.242 255 255 255
-0.768263 -0.293489 1.505 255 255 255
0.00759471 -0.378513 1.941 0 0 0
-0.104598 0.26581 0.85 0 0 0
0.687467 0.0219473 1.882 255 255 255
0.361917 0.418986 1.978 255 255 255
-0.188804 0.0559679 0.978 255 255 255
0.828802 -0.0483387 1.876 255 255 255
-0.936866 -0.471429 1.859 255 255 255
-0.10351 0.304974 0.927 0 0 0
-0.106182 0.352086 2.204 255 255 255
0.224474 0.150539 2.489 255 255 255
0.875566 0.271219 2.004 255 255 255
0.530282 0.339245 1.826 255 255 255
-0.313205 0.043571 0.918 255 255 255
0.808486 -0.243383 1.784 255 255 255
-1.23468 -0.901751 2.411 255 255 255
-0.143503 0.128796 0.725 255 255 255
-0.147096 0.202831 0.652 255 255 255
0.439871 0.338827 2.121 255 255 255
-0.147881 0.159896 0.701 255 255 255
0.635305 -0.335331 2.128 0 0 0
-0.118727 0.569459 1.673 255 255 255
0.757404 0.262187 1.985 255 255 255
-0.342244 0.127299 0.662 255 255 255
-0.289462 0.0559212 0.685 255 255 255
0.890966 0.173295 1.966 255 255 255
-0.256224 -0.530227 1.953 255 255 255
-0.0428481 -0.26262 2.743 255 255 255
0.0786162 -0.760806 2.489 255 255 255
-0.240472 -0.0347085 1.267 255 255 255
0.889516 0.183158 1.935 255 255 255
0.879704 0.505709 1.805 255 255 255
0.67632 -0.445815 1.714 255 255 255
0.612193 -0.508628 1.691 255 255 255
0.654279 -0.329335 2.228 0 0 0
0.441903 -0.41702 2.731 255 255 255
0.230915 -0.29882 2.707 255 255 255
-0.376805 0.0149477 0.755 255 255 255
0.488104 0.450024 1.905 0 0 0
-0.268839 0.0721613 1.104 255 255 255
0.895032 0.0892419 1.947 255 255 255
-0.267828 0.0717496 0.785 0 0 0
0.779445 -0.310155 1.784 255 255 255
-0.284423 0.0405506 0.689 255 255 255
0.90394 0.370218 1.789 255 255 255
0.344257 -0.341589 2.768 255 255 255
0.559463 -0.149705 2.719 255 255 255
0.0461679 0.563198 1.729 255 255 255
-0.0715641 -0.318283 2.649 255 255 255
-1.06115 -0.829963 2.374 255 255 255
-0.121747 -0.129203 1.422 255 255 255
-0.159345 0.0929136 0.432 0 0 0
0.159254 0.449052 1.941 255 255 255
0.86013 0.604065 1.686 255 255 255
0.475413 0.452554 1.929 255 255 255
-0.111011 0.157632 0.444 255 255 255
0.586883 0.200724 2.32 255 255 255
-0.0975102 0.422143 2.024 255 255 255
0.692582 0.580765 1.748 255 255 255
-0.179685 0.104656 0.437 255 255 255
0.280416 0.599222 1.65 255 255 255
-0.153312 -0.478483 1.899 255 255 255
0.568729 0.316721 1.905 255 255 255
-0.0982357 0.111037 0.92 255 255 255
-0.0744475 -0.368349 2.024 0 0 0
0.678994 -0.490662 1.686 255 255 255
-0.0366393 -0.369037 1.941 0 0 0
-0.282062 0.213939 0.611 255 255 255
-0.314271 0.0183627 0.698 255 255 255
0.643048 0.609722 1.664 255 255 255
-0.0143366 -0.951831 2.449 255 255 255
0.66032 -0.344704 1.753 255 255 255
0.508157 0.427909 1.876 255 255 255
0.0467443 0.588481 1.65 255 255 255
-0.761701 -0.596968 1.953 255 255 255
0.10944 0.590767 1.664 255 255 255
0.298329 0.00958459 2.719 0 0 0
-0.541721 -0.39956 1.719 255 255 255
0.0384063 -0.701592 2.509 255 255 255
0.666957 -0.300766 1.763 255 255 255
0.63665 -0.213226 1.799 255 255 255
0.35963 0.382161 2.057 255 255 255
0.652434 -0.0117729 1.887 255 255 255
-0.095679 0.20043 0.939 255 255 255
0.268972 0.577836 1.714 255 255 255
-0.0555709 0.425678 2.057 255 255 255
-0.259856 -0.316557 1.724 255 255 255
-0.585802 -0.319337 1.624 0 0 0
-0.238344 -0.123563 1.336 255 255 255
-0.127092 0.15129 0.761 255 255 255
-0.283896 -0.547024 1.991 255 255 255
0.399085 -0.0950994 2.805 255 255 255
0.740054 -0.600137 1.633 255 255 255
-0.279221 0.0969407 0.725 255 255 255
0.649362 -0.573724 1.887 255 255 255
-0.377776 -0.0283951 1.102 255 255 255
0.603434 0.374683 1.729 255 255 255
0.739854 -0.402358 1.719 255 255 255
-0.160535 0.145012 0.424 0 0 0
0.680006 -0.126932 1.821 255 255 255
0.372879 0.129763 2.479 255 255 255
-0.957973 -0.463877 1.853 0 0 0
-0.112974 0.189227 0.726 255 255 255
0.220215 0.0575065 2.684 255 255 255
-0.427792 -0.838169 2.42 255 255 255
0.0091833 0.252711 2.347 255 255 255
-0.153232 0.143301 0.421 255 255 255
-0.0176272 -0.371045 1.935 0 0 0
0.858498 0.0789995 1.929 255 255 255
0.667822 -0.543088 2.037 255 255 255
0.441055 -0.464537 2.672 255 255 255
0.645439 0.10892 1.959 255 255 255
0.69993 0.617845 1.664 255 255 255
0.0640322 -0.359245 2.731 255 255 255
-0.0224006 -0.395494 2.459 255 255 255
0.407847 0.595382 1.677 255 255 255
0.568561 -0.316961 2.638 255 255 255
0.842016 -0.31798 1.763 255 255 255
-0.321925 -0.126571 1.322 255 255 255
0.646981 0.157967 1.935 255 255 255
-0.436202 -0.0463648 0.955 255 255 255
-0.576761 -0.571261 1.859 255 255 255
-0.172143 0.116172 0.422 0 0 0
0.107356 -0.265215 2.818 255 255 255
-0.410087 -0.126953 1.185 255 255 255
-0.12367 0.325793 2.196 255 255 255
-0.866725 -0.867396 2.392 255 255 255
-0.502586 -0.170771 1.237 255 255 255
-0.0732484 0.529731 1.758 255 255 255
-0.283736 -0.273734 1.62 255 255 255
-0.225279 -0.190067 1.463 255 255 255
-0.505403 -0.151291 1.21 255 255 255
-0.164775 0.0921834 0.819 255 255 255
0.381212 0.418024 1.929 255 255 255
0.0409832 0.189685 2.42 0 0 0
0.670761 -0.498893 1.686 255 255 255
0.147735 0.0822782 2.638 255 255 255
0.179602 0.339003 2.189 255 255 255
0.0502457 -0.414417 2.143 255 255 255
0.699469 -0.22042 1.81 255 255 255
-0.276525 0.0656258 0.718 255 255 255
-0.0808329 -0.776199 2.411 255 255 255
-0.995218 -0.867396 2.392 255 255 255
-0.274828 0.0286689 0.729 0 0 0
-0.914688 -0.796027 2.365 0 0 0
-0.307425 0.190242 0.618 255 255 255
0.116976 -0.839213 2.53 255 255 255
0.0349356 0.499718 1.882 255 255 255
0.563745 0.322281 1.848 255 255 255
-1.03788 -0.842211 2.365 255 255 255
-0.13716 0.256834 2.128 255 255 255
0.228517 -0.345912 2.731 255 255 255
-0.782103 -0.28405 1.494 255 255 255
0.592479 -0.0711635 2.099 255 255 255
-0.605946 -0.57614 1.865 255 255 255
0.281437 0.585901 1.705 255 255 255
-0.574486 -0.539059 1.842 255 255 255
0.121714 0.459946 1.947 0 0 0
-0.0986449 0.277006 1.09 255 255 255
0.640346 -0.319029 1.753 255 255 255
-0.73165 -0.281112 1.466 255 255 255
0.690846 0.531063 1.842 0 0 0
0.518295 0.375245 1.985 0 0 0
-0.140837 0.33439 1.71 255 255 255
0.91303 0.197897 1.784 255 255 255
-0.141564 0.111806 0.411 255 255 255
0.136343 0.337764 2.181 0 0 0
-0.13273 0.0823175 0.827 255 255 255
0.808548 -0.515201 1.659 255 255 255
-0.52491 -0.477918 1.826 0 0 0
0.622624 -0.511395 1.682 255 255 255
0.61471 -0.691365 2.43 0 0 0
-0.110887 -0.14547 1.494 255 255 255
-0.731485 -0.462722 1.779 255 255 255
-0.056274 0.505712 1.859 255 255 255
-0.28807 0.032607 0.687 255 255 255
-0.101158 0.122397 0.442 255 255 255
-0.160178 0.0292076 0.988 255 255 255
0.475871 -0.955587 2.469 255 255 255
0.718614 -0.372491 1.763 255 255 255
-0.123989 0.189064 0.695 255 255 255
0.0510778 0.574802 1.705 255 255 255
0.376782 0.268615 2.196 255 255 255
-0.285278 -0.104046 1.283 255 255 255
0.589418 0.108586 1.953 255 255 255
0.68139 -0.40869 1.734 255 255 255
0.288262 -0.185595 2.793 255 255 255
-0.44259 -0.179036 1.267 0 0 0
-0.329075 0.037178 1.192 255 255 255
-0.26284 0.0702525 0.797 255 255 255
0.327248 0.610542 1.616 255 255 255
0.19909 0.452554 1.929 255 255 255
-0.125882 0.159364 0.433 255 255 255
-0.331684 0.0258992 0.687 255 255 255
0.615166 -0.513117 2.356 0 0 0
0.34317 0.47546 1.859 255 255 255
-0.673596 -0.568236 1.859 255 255 255
-0.306221 0.00738529 0.736 0 0 0
0.0488618 -0.527056 2.42 0 0 0
-0.191926 0.131121 0.712 255 255 255
0.346512 -0.471649 2.615 255 255 255
0.418266 -0.557363 2.638 255 255 255
0.687868 -0.441276 1.729 255 255 255
0.69268 -0.425621 1.734 255 255 255
0.92109 0.294896 1.865 255 255 255
-0.477999 -0.0939667 1.114 255 255 255
-0.514797 -0.202974 1.262 255 255 255
0.0337375 0.330566 2.204 255 255 255
0.0822774 0.57113 1.719 255 255 255
-0.121296 0.275904 2.286 255 255 255
0.33921 -0.888773 2.44 255 255 255
-0.789451 -0.498719 1.826 255 255 255
-0.350582 0.0672873 0.676 255 255 255
-0.0640207 0.598915 1.599 255 255 255
-0.273959 -0.197116 1.319 0 0 0
0.367356 -0.847104 2.469 255 255 255
0.255168 -0.405475 2.684 255 255 255
-0.453778 -0.564273 1.876 255 255 255
-0.201762 -0.063201 1.22 255 255 255
0.779028 -0.458305 1.719 255 255 255
-0.313308 -0.0499907 1.237 255 255 255
-1.07369 -0.566846 2.051 255 255 255
-0.196035 -0.218722 1.513 255 255 255
-0.339093 0.0937897 0.693 255 255 255
0.937084 -0.196161 1.831 255 255 255
0.473943 0.196743 2.459 255 255 255
0.856221 -0.530439 1.673 255 255 255
0.714434 -0.299756 1.774 255 255 255
0.121894 0.415636 2.057 255 255 255
0.262122 0.569986 1.724 255 255 255
-0.572159 -0.0997825 1.139 255 255 255
0.0931632 -0.159005 2.805 255 255 255
-0.141417 0.0917332 0.815 255 255 255
-0.0732561 -0.810602 2.42 255 255 255
0.646435 -0.241039 1.81 255 255 255
-0.0902106 0.182007 1.034 255 255 255
-0.123541 -0.765484 2.402 0 0 0
0.326737 0.268615 2.196 255 255 255
0.588786 0.153623 2.54 255 255 255
-0.119601 0.128236 0.811 255 255 255
0.331737 0.391503 2.071 255 255 255
0.535291 -0.661954 2.561 255 255 255
0.0291102 0.395352 2.128 255 255 255
0.517304 0.275627 2.347 255 255 255
0.309477 0.533898 1.821 255 255 255
0.765516 -0.600773 1.642 255 255 255
-0.317976 -0.911486 2.365 255 255 255
0.619866 -0.671569 2.374 0 0 0
-0.921494 -0.419562 1.744 255 255 255
0.329476 0.389445 2.078 255 255 255
0.335103 0.334153 2.204 255 255 255
0.572475 0.568825 1.729 255 255 255
0.653811 -0.636493 2.303 0 0 0
0.820277 0.634128 1.65 255 255 255
-0.43996 -0.0763253 1.07 255 255 255
-0.117813 0.398877 2.092 255 255 255
0.430805 0.572231 1.748 255 255 255
0.226278 0.12725 2.509 255 255 255
-0.630001 -0.259336 1.425 0 0 0
0.155223 -0.920869 2.42 255 255 255
-0.704514 -0.417156 1.734 255 255 255
-0.350582 0.062887 0.676 255 255 255
-0.605722 -0.431265 1.734 255 255 255
-0.35783 -0.895639 2.374 255 255 255
-0.319255 -0.622797 2.189 255 255 255
-0.11451 0.107878 0.43 255 255 255
0.364853 0.444109 1.893 255 255 255
-0.319919 0.0356469 0.681 255 255 255
0.0738468 0.20989 2.338 255 255 255
0.0560839 0.195275 2.392 0 0 0
0.328099 0.0685051 2.604 255 255 255
0.207196 -0.374214 2.743 255 255 255
0.138232 0.417761 2.051 0 0 0
0.603717 -0.527044 2.402 0 0 0
-0.648507 -0.409563 1.691 255 255 255
-0.168474 -0.741108 2.374 255 255 255
-0.252477 -0.73464 2.329 255 255 255
-0.194829 -0.465011 1.882 255 255 255
0.695143 -0.307547 1.769 255 255 255
0.871058 0.0538866 1.929 0 0 0
-0.366369 -0.00334835 1.122 255 255 255
0.810959 0.445238 1.966 255 255 255
0.14654 0.0708991 2.695 255 255 255
0.164738 -0.34307 2.78 255 255 255
-0.470331 -0.369862 1.724 0 0 0
0.252761 0.185056 2.411 255 255 255
0.0966817 0.232719 2.338 0 0 0
-0.345231 0.108607 0.694 255 255 255
0.206839 -0.761064 2.572 255 255 255
0.155316 0.5088 1.893 255 255 255
-0.237293 0.115545 0.716 255 255 255
-0.225828 0.0135276 1.16 255 255 255
-0.249728 0.0976101 0.739 0 0 0
-1.22393 -0.71465 2.338 255 255 255
-0.589478 -0.542057 1.842 255 255 255
-0.100787 0.290687 1.075 255 255 255
0.729857 -0.143441 1.805 255 255 255
-0.398773 -0.501695 1.905 255 255 255
-0.508504 -0.855719 2.392 255 255 255
0.596803 0.392828 1.71 255 255 255
0.597896 -0.122401 1.842 255 255 255
0.674213 -0.623417 1.997 255 255 255
0.544351 0.420883 1.794 255 255 255
0.643489 0.501218 1.81 255 255 255
-0.334415 0.113287 0.695 0 0 0
0.897164 0.345652 1.753 255 255 255
0.621532 -0.359814 2.489 255 255 255
0.911878 0.00993892 1.929 255 255 255
0.8512 0.423783 1.941 255 255 255
-0.286562 0.0635218 1.11 255 255 255
0.0341854 0.110476 2.499 255 255 255
-0.0543159 0.0610674 2.649 255 255 255
0.587631 -0.136337 2.338 255 255 255
-0.351327 -0.047768 1.182 255 255 255
0.673623 -0.767477 2.107 255 255 255
0.616151 -0.216153 1.799 255 255 255
0.813585 0.281002 2.004 255 255 255
-0.401782 0.0019072 1.005 255 255 255
-0.0999369 0.118215 0.895 255 255 255
-0.396618 -0.365713 1.758 0 0 0
-0.285522 -0.349816 1.779 0 0 0
0.60357 -0.931905 2.449 255 255 255
-0.350737 -0.228424 1.278 255 255 255
0.829803 -0.566976 1.637 255 255 255
0.731479 -0.509853 1.668 255 255 255
0.0116297 0.417291 2.099 255 255 255
0.214025 -0.697509 2.509 255 255 255
0.589795 0.328374 1.799 255 255 255
-0.333306 -0.0867127 1.244 255 255 255
-0.16325 -0.862516 2.411 0 0 0
0.841667 0.303107 1.978 0 0 0
0.744318 -0.494869 1.691 255 255 255
-0.307764 -0.054104 1.239 255 255 255
-0.103147 0.313089 0.966 0 0 0
-0.388048 0.00651545 0.775 0 0 0
0.442141 0.261937 2.294 255 255 255
0.849567 0.0787538 1.923 255 255 255
0.822781 -0.498959 1.677 255 255 255
0.0246528 -0.39577 2.365 255 255 255
-0.12242 0.251378 0.68 255 255 255
-0.0550335 -0.18272 2.684 255 255 255
0.637943 -0.566976 1.637 255 255 255
-0.203675 0.0383802 1.064 255 255 255
-0.0143951 -0.919703 2.459 255 255 255
-0.0427441 0.518665 1.799 255 255 255
-0.355683 0.102564 0.699 255 255 255
0.745406 -0.268756 1.779 255 255 255
0.926037 -0.218797 1.821 255 255 255
0.5358 -0.93589 2.449 255 255 255
0.391535 0.352633 2.121 255 255 255
0.599406 -0.335435 2.55 0 0 0
0.843388 -0.34372 1.748 255 255 255
-1.09875 -0.851078 2.347 255 255 255
-0.658087 -0.183099 1.281 255 255 255
-0.350497 -0.404736 1.831 0 0 0
-0.47498 -0.0175822 0.913 255 255 255
-0.119169 0.0374063 1.037 255 255 255
0.295971 -0.0987758 2.78 0 0 0
0.613222 -0.207371 1.799 255 255 255
-0.771921 -0.467924 1.799 255 255 255
-0.328589 -0.659338 2.253 0 0 0
0.0218058 -0.846501 2.479 255 255 255
0.656261 -0.518062 1.677 255 255 255
0.0171262 -0.392356 1.947 255 255 255
0.24206 -0.388004 2.684 255 255 255
0.90648 -0.039911 1.911 0 0 0
0.421915 -0.145311 2.805 255 255 255
0.613612 -0.165136 2.078 255 255 255
0.899839 0.328281 1.865 255 255 255
0.668895 0.105408 1.953 255 255 255
-0.537558 -0.586814 1.87 255 255 255
0.346363 0.620777 1.595 255 255 255
0.396227 -0.702862 2.499 255 255 255
0.610065 0.449915 1.748 0 0 0
-0.050215 -0.820315 2.449 255 255 255
0.609135 0.107802 2.196 255 255 255
0.189632 -0.418578 2.684 255 255 255
0.63572 -0.506335 1.865 255 255 255
0.646713 -0.251464 2.278 255 255 255
-0.119124 0.132592 0.424 0 0 0
0.553112 0.38585 1.794 255 255 255
0.646313 -0.257971 2.303 255 255 255
-0.608448 -0.621448 1.911 255 255 255
0.747114 0.604315 1.71 255 255 255
0.457186 -0.607824 2.615 255 255 255
-0.160892 0.115874 0.416 255 255 255
0.336319 0.18418 2.212 255 255 255
0.0429661 0.384963 2.128 0 0 0
0.696802 -0.677237 2.136 255 255 255
0.893834 -0.368001 1.769 255 255 255
-0.141384 0.0536788 0.938 255 255 255
-0.447128 -0.0102646 0.923 255 255 255
0.764347 -0.0839313 1.853 255 255 255
0.476983 -0.157587 2.78 255 255 255
-0.168592 0.116305 0.42 0 0 0
-0.399756 -0.623659 2.143 255 255 255
-0.122786 0.108787 0.42 255 255 255
-0.313461 0.191248 0.618 255 255 255
-0.106877 0.406353 2.078 255 255 255
0.400295 0.11861 2.499 255 255 255
0.219695 0.455978 1.917 0 0 0
-0.0967648 0.18066 0.981 255 255 255
0.637548 -0.672842 2.312 255 255 255
0.65193 -0.566589 2.22 255 255 255
0.250798 -0.401107 2.684 255 255 255
0.149963 0.206086 2.338 255 255 255
0.394525 0.583415 1.714 255 255 255
0.370251 0.609417 1.62 255 255 255
-0.0651344 0.243908 2.411 255 255 255
-0.330513 0.0504106 0.671 255 255 255
0.169732 -0.675606 2.459 255 255 255
0.574424 0.0842251 1.978 255 255 255
0.365212 0.429673 1.911 255 255 255
-0.0906757 -0.0310821 1.763 255 255 255
0.658706 0.587914 1.719 255 255 255
-0.429619 -0.919184 2.365 255 255 255
0.650564 -0.740653 2.099 255 255 255
0.882322 0.401655 1.724 255 255 255
0.895985 -0.100237 1.876 0 0 0
0.623224 -0.358967 1.753 255 255 255
-0.116288 0.0802225 0.945 255 255 255
0.61855 -0.258621 1.789 255 255 255
0.516656 0.138817 2.572 255 255 255
-0.142235 0.15227 0.425 255 255 255
-0.307529 0.0248173 0.688 255 255 255
0.271022 0.378623 2.151 0 0 0
0.188289 0.586593 1.691 255 255 255
0.65413 -0.295948 2.278 255 255 255
0.689583 0.346062 1.815 255 255 255
-0.0309008 -0.702862 2.499 255 255 255
-0.628607 -0.209407 1.302 0 0 0
0.172895 -0.914107 2.392 255 255 255
-0.233641 -0.239279 1.567 255 255 255
0.687445 0.394608 1.794 0 0 0
0.0329135 -0.025927 2.731 255 255 255
-0.841475 -0.380215 1.659 255 255 255
0.487525 0.619622 1.633 255 255 255
-0.850299 -0.485512 1.81 255 255 255
-0.43152 -0.599004 1.899 255 255 255
0.0323632 0.488759 1.911 255 255 255
-0.378582 -0.860255 2.383 255 255 255
-0.107998 0.605204 1.595 255 255 255
-0.0931787 -0.0423786 1.313 255 255 255
-0.393764 -0.0453432 1.122 255 255 255
0.658978 -0.81738 2.244 255 255 255
0.171693 0.517833 1.87 255 255 255
0.571717 0.311579 1.991 255 255 255
-0.110036 0.19956 0.738 0 0 0
0.0336382 -0.915702 2.459 255 255 255
-0.441477 -0.630441 1.929 255 255 255
0.793019 -0.34641 1.719 255 255 255
-0.29478 0.122045 0.687 255 255 255
-0.0808329 -0.795816 2.411 255 255 255
0.719568 -0.244747 1.794 255 255 255
0.495932 -0.906621 2.489 255 255 255
0.185537 0.586593 1.691 255 255 255
-0.672092 -0.870643 2.338 0 0 0
-0.3246 -0.0398288 1.234 255 255 255
0.880043 -0.413169 1.753 255 255 255
-0.310243 -0.01106 1.165 255 255 255
0.645435 -0.207371 1.799 255 255 255
0.811705 -0.435648 1.729 255 255 255
-0.288292 -0.0380659 1.242 255 255 255
-0.375416 -0.195994 1.27 0 0 0
0.874343 0.467593 1.794 255 255 255
0.74161 -0.196313 1.805 255 255 255
-0.271119 0.12111 0.701 255 255 255
0.541759 0.0228587 2.719 255 255 255
0.739144 -0.239574 1.799 255 255 255
0.595255 -0.567818 2.55 255 255 255
0.413166 0.427902 1.917 255 255 255
0.689016 -0.398549 1.739 255 255 255
0.0270294 0.089314 2.593 0 0 0
-0.0709531 -0.373033 1.929 255 255 255
0.0326966 0.375983 2.136 255 255 255
0.544551 -0.80131 2.489 255 255 255
0.238506 0.618673 1.603 255 255 255
-0.108823 0.164784 0.772 255 255 255
-0.410687 -0.0511226 1.053 0 0 0
-0.11148 0.100551 0.464 255 255 255
0.673603 -0.580807 1.646 255 255 255
-0.136213 -0.0385483 1.137 255 255 255
0.623979 -0.151468 2.173 255 255 255
-0.0873036 -0.389152 2.604 0 0 0
-0.465294 -0.0642572 0.967 255 255 255
0.317326 0.576725 1.719 255 255 255
0.427571 0.372537 2.078 255 255 255
0.172604 0.100715 2.561 255 255 255
-0.111103 0.0617983 0.995 255 255 255
-0.336502 0.0226437 0.69 255 255 255
-0.495097 -0.0966393 1.124 255 255 255
0.758248 -0.472602 1.71 255 255 255
0.0154028 -0.34307 2.78 255 255 255
-0.598845 -0.145648 1.196 255 255 255
-0.139966 -0.0139466 1.094 255 255 255
0.475369 -0.415187 2.719 255 255 255
0.0305876 0.328088 2.236 255 255 255
0.586384 -0.213595 1.853 255 255 255
-0.259164 0.0875529 0.756 255 255 255
-0.126587 0.0952426 0.433 255 255 255
-0.952949 -0.829963 2.374 255 255 255
-0.059646 0.0489709 2.695 255 255 255
0.813318 -0.326587 1.763 255 255 255
0.617516 -0.230278 2.365 255 255 255
0.14493 0.604527 1.607 255 255 255
0.440605 0.60084 1.677 255 255 255
-0.290103 0.116381 0.7 0 0 0
-0.137434 0.0937313 0.423 255 255 255
-0.430367 -0.0576137 0.988 255 255 255
0.767829 0.557888 1.784 0 0 0
-0.306981 -0.0664687 1.244 255 255 255
-0.199841 0.00402207 1.141 255 255 255
0.788649 0.578935 1.734 255 255 255
0.378435 -0.829663 2.489 255 255 255
0.396347 -0.155156 2.818 255 255 255
-0.0206481 -0.406296 1.923 255 255 255
-0.131358 0.0479612 0.977 255 255 255
-0.642209 -0.18873 1.291 255 255 255
0.430925 0.476419 1.899 255 255 255
-0.1237 0.152929 0.763 255 255 255
0.796783 0.368062 1.947 0 0 0
0.538505 0.285629 2.037 0 0 0
-0.0850362 -0.424602 1.893 255 255 255
-0.654445 -0.313902 1.637 255 255 255
0.905598 0.00679981 1.929 255 255 255
0.204216 -0.858016 2.489 255 255 255
-0.17424 -0.277811 1.71 255 255 255
0.232199 0.362608 2.181 255 255 255
-0.0740597 0.606275 1.591 255 255 255
0.794294 -0.442552 1.734 255 255 255
0.580356 0.568332 1.719 255 255 255
-0.894928 -0.535796 1.905 255 255 255
-0.154354 0.119071 0.413 255 255 255
-0.128018 0.11276 0.417 255 255 255
0.815609 0.637948 1.646 255 255 255
0.590905 -0.550179 2.604 255 255 255
0.812011 0.541849 1.779 0 0 0
-0.0772066 0.501064 1.853 255 255 255
-1.00352 -0.515893 1.935 255 255 255
0.250737 -0.509878 2.593 255 255 255
0.621163 -0.19544 2.151 0 0 0
0.459385 0.389784 2.01 255 255 255
0.568967 0.384479 1.71 255 255 255
0.0113762 0.617664 1.587 255 255 255
-0.231178 -0.829231 2.383 255 255 255
-0.103114 0.230356 0.827 255 255 255
-0.274973 0.0608672 0.717 255 255 255
-0.17849 0.111816 0.429 0 0 0
0.552232 -0.790854 2.469 255 255 255
0.619671 -0.410294 2.158 255 255 255
0.662032 -0.559054 2.136 0 0 0
-0.855044 -0.875182 2.392 255 255 255
-1.17187 -0.688961 2.303 255 255 255
-1.2561 -0.871289 2.392 255 255 255
0.726763 0.241215 1.972 255 255 255
-0.194577 -0.118572 1.305 255 255 255
-0.422828 -0.0490729 0.978 255 255 255
-0.262693 0.128588 1.024 255 255 255
0.71784 -0.458773 1.7 255 255 255
0.461782 0.0682157 2.593 255 255 255
0.645568 -0.551297 2.261 255 255 255
0.352248 0.484535 1.859 0 0 0
-0.142629 0.22818 2.057 255 255 255
-0.301437 0.199003 0.614 255 255 255
0.696184 0.0599777 1.923 255 255 255
0.613062 -0.105687 1.978 255 255 255
-0.0295814 0.403072 2.114 255 255 255
0.621567 0.626057 1.629 255 255 255
0.791495 -0.548664 1.646 255 255 255
-0.709149 -0.32352 1.659 0 0 0
0.745371 -0.605452 1.633 255 255 255
0.59263 -0.577393 2.593 255 255 255
-0.15077 -0.15357 1.412 255 255 255
-0.330702 -0.0369319 1.205 255 255 255
0.44298 0.4701 1.911 255 255 255
0.600117 -0.327699 1.769 255 255 255
-0.151256 0.0860823 0.433 0 0 0
-0.285278 -0.101958 1.283 255 255 255
0.0136243 -0.923705 2.459 255 255 255
-0.346226 0.107787 0.696 255 255 255
0.0978825 0.0706097 2.684 255 255 255
-0.121652 -0.0629217 1.254 255 255 255
0.550138 0.0752848 2.695 0 0 0
0.884338 -0.426848 1.739 255 255 255
0.452314 0.334215 2.181 255 255 255
0.60448 -0.545763 2.469 0 0 0
-0.119161 0.170043 0.735 255 255 255
0.618665 -0.252425 2.43 255 255 255
0.0176271 -0.939711 2.459 255 255 255
-0.198366 -0.248773 1.612 255 255 255
-0.0667585 -0.422857 1.899 255 255 255
-0.578341 -0.4595 1.789 255 255 255
-0.708577 -0.376991 1.744 0 0 0
-0.332351 0.170086 0.629 255 255 255
0.718614 -0.323718 1.763 255 255 255
-0.291911 0.11347 1.07 255 255 255
0.432999 0.584579 1.734 255 255 255
0.107198 0.353065 2.166 0 0 0
0.88588 0.175544 1.887 255 255 255
-0.224736 -0.200984 1.491 255 255 255
-0.106524 0.220782 0.802 255 255 255
-0.0837594 -0.537325 2.092 255 255 255
-0.541089 -0.624836 1.893 255 255 255
0.544447 -0.18307 2.755 0 0 0
0.465381 -0.81673 2.499 255 255 255
0.669298 -0.617224 1.629 255 255 255
0.166095 0.423699 1.985 0 0 0
0.463813 -0.951569 2.469 255 255 255
0.530793 0.609552 1.686 255 255 255
0.364077 0.103613 2.53 0 0 0
0.577521 -0.884802 2.44 255 255 255
-0.330886 0.115841 0.69 255 255 255
-0.261061 0.0857501 1.094 255 255 255
0.0175132 0.4509 1.991 255 255 255
0.917077 -0.0792565 1.815 255 255 255
-0.282735 0.0600496 0.817 0 0 0
-0.762549 -0.828162 2.347 0 0 0
-0.323348 0.0461114 0.672 255 255 255
-0.0964446 0.0136558 1.171 255 255 255
-0.255933 0.104614 1.051 255 255 255
0.680099 -0.684657 2.044 0 0 0
0.911254 -0.0574973 1.876 255 255 255
0.793966 -0.196932 1.784 255 255 255
-0.0607675 -0.424193 1.905 255 255 255
0.760801 -0.516652 1.655 255 255 255
0.102251 -0.444785 2.684 255 255 255
-0.473297 -0.831128 2.411 255 255 255
-0.0676576 -0.375647 2.121 255 255 255
-0.139443 0.199177 0.661 255 255 255
-1.17533 -0.785028 2.402 255 255 255
0.0338053 -0.286815 2.805 255 255 255
0.654573 -0.275317 1.784 255 255 255
0.279769 0.566011 1.729 255 255 255
-0.291591 0.0420477 0.677 255 255 255
0.60282 -0.47634 2.383 255 255 255
0.505104 0.510336 1.876 0 0 0
-0.323161 0.103445 0.705 255 255 255
-0.597339 -0.411382 1.71 0 0 0
-0.112463 -0.360185 1.997 0 0 0
-0.167668 0.120657 0.771 255 255 255
0.659358 0.105408 1.953 255 255 255
-0.160914 0.096941 0.425 0 0 0
0.591079 -0.227687 1.821 255 255 255
-0.447131 -0.0319371 0.942 255 255 255
0.329654 0.420683 2.017 0 0 0
-0.448645 -0.523179 1.893 255 255 255
0.461443 -0.616335 2.615 255 255 255
-0.096382 0.162288 1.244 255 255 255
-0.795063 -0.481234 1.805 255 255 255
-0.354304 -0.125704 1.291 255 255 255
-0.0254354 -0.364312 2.057 255 255 255
-0.15992 -0.842107 2.42 0 0 0
-1.24962 -0.884546 2.365 255 255 255
-0.527688 -0.46361 1.805 255 255 255
0.288137 -0.878774 2.479 255 255 255
-0.424688 -0.379829 1.744 255 255 255
0.643787 -0.25323 2.294 255 255 255
-0.553414 -0.627917 1.893 255 255 255
-0.314942 0.201329 0.615 255 255 255
0.615244 -0.377692 1.905 255 255 255
-0.0952879 0.182349 0.999 255 255 255
0.560307 0.378952 1.789 255 255 255
0.346548 0.445222 1.911 0 0 0
0.568476 -0.0383418 1.991 255 255 255
-0.0186971 -0.747596 2.499 255 255 255
0.200196 -0.904656 2.44 255 255 255
0.461705 -0.244765 2.743 255 255 255
0.640346 -0.307618 1.753 255 255 255
0.721431 0.535964 1.859 255 255 255
0.586293 0.100279 2.66 255 255 255
-0.427448 -0.128881 1.185 255 255 255
0.851428 -0.452173 1.696 255 255 255
-0.0207098 -0.355103 2.768 255 255 255
-0.102759 -0.161531 1.555 255 255 255
-0.376303 -0.204743 1.273 0 0 0
0.795944 -0.15605 1.815 255 255 255
-0.0514646 -0.405593 1.905 255 255 255
0.882897 0.391295 1.753 255 255 255
-0.0997309 0.262122 1.102 255 255 255
0.373431 0.514787 1.859 255 255 255
0.536053 -0.529187 2.626 255 255 255
-0.289149 -0.189376 1.31 255 255 255
-0.0775243 -0.274368 2.561 0 0 0
-0.418639 0.00206282 1.087 255 255 255
-0.0115926 -0.110852 2.743 255 255 255
-0.261813 0.0884309 0.753 0 0 0
0.625671 0.0437776 1.899 255 255 255
0.527191 0.593509 1.719 255 255 255
0.544221 0.456278 1.784 0 0 0
-0.118045 0.164875 0.446 0 0 0
0.538502 -0.570241 2.638 255 255 255
0.504116 -0.413355 2.707 255 255 255
-0.31789 0.0460208 1.041 255 255 255
0.239914 -0.876861 2.44 255 255 255
-0.859774 -0.435721 1.799 0 0 0
-0.642259 -0.814078 2.286 255 255 255
-0.712235 -0.867715 2.32 0 0 0
0.605175 -0.0413781 2.347 255 255 255
0.761044 -0.427207 1.729 255 255 255
0.336137 0.423011 1.997 255 255 255
0.205174 -0.63493 2.604 255 255 255
0.735426 0.617214 1.677 255 255 255
-0.157717 0.142955 0.422 0 0 0
0.911254 0.101252 1.876 255 255 255
-1.14489 -0.686269 2.294 255 255 255
0.604394 -0.58083 1.677 255 255 255
-0.0488617 0.275977 2.383 255 255 255
0.746072 -0.454183 1.714 255 255 255
0.00564161 -0.827015 2.469 255 255 255
0.17402 -0.587549 2.582 255 255 255
0.333381 0.618182 1.595 255 255 255
0.633861 -0.494335 2.22 255 255 255
0.504024 -0.592312 2.66 255 255 255
-0.936272 -0.494057 1.876 255 255 255
0.347313 0.458784 1.865 255 255 255
-0.143428 0.168949 0.696 255 255 255
-0.362366 -0.117921 1.275 255 255 255
0.608499 -0.802907 2.469 255 255 255
-0.322686 0.110527 0.699 255 255 255
0.192787 -0.235592 2.793 255 255 255
-0.0362302 0.589173 1.637 255 255 255
0.221118 -0.455379 2.695 255 255 255
-0.124646 0.0994728 0.424 255 255 255
0.235322 -0.466217 2.707 255 255 255
-0.374083 0.0148883 0.752 255 255 255
0.610294 -0.198588 1.799 255 255 255
-0.753217 -0.375206 1.71 255 255 255
0.327858 -0.272389 2.707 255 255 255
-0.507074 -0.441213 1.774 255 255 255
0.377179 0.444109 1.893 0 0 0
0.378388 0.556076 1.769 255 255 255
-0.404321 -0.179209 1.283 0 0 0
0.117745 0.596897 1.629 255 255 255
0.672039 -0.0987413 1.848 255 255 255
0.645937 -0.590951 1.637 255 255 255
0.326495 -0.445136 2.66 255 255 255
-0.110965 0.098496 2.228 0 0 0
0.768573 -0.315076 1.779 255 255 255
0.81707 0.0823941 1.935 255 255 255
0.571717 0.126899 1.991 255 255 255
0.519288 0.261348 2.356 255 255 255
-0.140162 0.304311 2.121 0 0 0
-0.0500685 0.540941 1.748 255 255 255
-1.20561 -0.692709 2.303 255 255 255
-0.384632 -0.0398656 1.122 255 255 255
-0.407215 -0.0715643 1.104 255 255 255
0.514009 0.527971 1.821 255 255 255
0.0664614 -0.691949 2.489 255 255 255
-0.288939 0.088576 1.085 255 255 255
-0.272242 0.101092 1.068 255 255 255
0.739144 -0.151747 1.799 255 255 255
-0.43335 -0.00403054 0.874 255 255 255
-0.432277 -0.191407 1.267 255 255 255
0.0724906 0.542488 1.753 255 255 255
0.611491 -0.130855 2.244 255 255 255
-0.0900726 -0.0719011 1.935 255 255 255
0.715398 0.275108 1.985 0 0 0
-0.364164 -0.66402 2.269 0 0 0
-0.156547 -0.65403 2.312 0 0 0
0.0935134 -0.422946 2.684 255 255 255
-1.06483 -0.745995 2.365 255 255 255
-0.0550868 -0.752705 2.489 255 255 255
-0.10478 -0.0133562 1.201 255 255 255
0.878788 -0.102354 1.859 0 0 0
0.0810091 0.475532 1.959 255 255 255
-0.143737 0.183627 0.671 255 255 255
0.447082 0.498125 1.876 255 255 255
-0.356701 0.103998 0.701 255 255 255
-0.120405 0.279052 0.714 255 255 255
-0.351293 -0.0796672 1.229 255 255 255
-0.953186 -0.803725 2.365 255 255 255
-0.130565 0.0402574 0.983 255 255 255
-0.17324 0.11507 0.423 0 0 0
-0.366491 -0.0253938 1.128 255 255 255
0.307961 -0.811832 2.509 255 255 255
-0.264802 -0.0737665 1.265 255 255 255
-0.379224 -0.105741 1.185 255 255 255
-0.136662 -0.0744464 1.242 255 255 255
-0.285953 0.0275677 0.701 255 255 255
