ply
format ascii 1.0
comment Created by Open3D
element vertex 1327
property double x
property double y
property double z
property uchar red
property uchar green
property uchar blue
end_header
0.927337 -0.511059 2.312 255 255 255
-0.375098 -0.0809849 1.11 255 255 255
0.898369 -0.544572 2.204 255 255 255
-0.120223 -0.127448 1.378 255 255 255
-0.16266 0.0954904 0.802 0 0 0
-0.0347379 0.0162439 1.089 255 255 255
-0.201558 -0.48424 1.947 255 255 255
-0.311165 -0.188959 1.322 255 255 255
0.279856 0.0141948 2.755 0 0 0
0.944419 -0.797049 2.228 0 0 0
0.858018 0.328007 1.935 255 255 255
-0.330545 -0.509565 1.923 255 255 255
0.151435 0.615446 1.71 255 255 255
-1.00042 -0.595323 1.917 255 255 255
-0.225912 0.173909 0.659 255 255 255
0.62417 -0.341468 2.731 255 255 255
-0.33588 0.148033 0.673 255 255 255
0.722131 0.561994 1.659 0 0 0
0.219153 -0.746726 2.43 255 255 255
0.440043 0.403713 2.173 0 0 0
0.583059 0.477254 1.953 255 255 255
-0.0878204 0.112154 0.433 255 255 255
0.213122 -0.307854 2.204 255 255 255
-0.131021 0.114424 1.079 255 255 255
0.98883 -0.793286 2.121 255 255 255
-0.280791 -0.60464 1.947 255 255 255
0.382708 0.374625 2.189 255 255 255
-0.168074 -0.0961556 1.348 255 255 255
-0.0448302 0.122502 0.47 0 0 0
-0.923208 -0.379859 1.826 255 255 255
-0.417578 0.0282882 0.862 255 255 255
-0.0530444 -0.109746 1.381 255 255 255
0.411214 0.339003 2.189 255 255 255
0.0781528 0.429525 2.143 255 255 255
-0.284694 -0.15848 1.319 0 0 0
0.848088 -0.825814 2.43 255 255 255
-0.635778 -0.200507 1.387 255 255 255
0.216794 -0.300472 1.947 0 0 0
0.117084 -0.331191 1.923 255 255 255
-0.530587 -0.0703997 1.114 255 255 255
0.353142 0.604113 1.758 255 255 255
0.693545 0.198307 2.53 0 0 0
0.0222942 0.019869 1.201 255 255 255
-0.293558 0.1601 0.664 255 255 255
0.817198 -0.324671 1.784 255 255 255
0.0484984 -0.81239 2.402 0 0 0
-0.319532 -0.136916 1.278 255 255 255
-0.210999 0.0850051 0.734 255 255 255
0.805728 0.197777 1.865 255 255 255
-0.315876 -0.536267 1.929 255 255 255
0.911232 0.376404 1.941 255 255 255
-0.10871 -0.881488 2.42 255 255 255
-0.0786055 -0.567034 2.236 0 0 0
0.274959 0.580909 1.848 255 255 255
0.798837 0.348964 1.929 255 255 255
-0.47266 -0.517493 1.941 255 255 255
0.304186 0.550586 1.899 255 255 255
0.358491 0.346474 2.261 255 255 255
-0.0659074 0.0982905 0.457 0 0 0
0.135022 -0.717347 2.411 0 0 0
-0.384203 -0.0524163 0.981 255 255 255
-0.361179 0.110179 0.719 255 255 255
0.0707274 0.472946 2.03 255 255 255
-0.00609853 -0.671569 2.347 255 255 255
-0.122265 -0.0941711 1.351 255 255 255
-0.464188 -0.435122 1.821 255 255 255
0.352407 0.642967 1.673 255 255 255
0.725726 -0.564595 2.499 255 255 255
0.786413 0.229195 1.899 255 255 255
-0.457906 -0.15183 1.281 255 255 255
-0.0742811 0.154419 0.729 255 255 255
0.825844 0.226139 2.519 255 255 255
-0.00980488 -0.629865 2.32 0 0 0
-0.824138 -0.881797 2.499 255 255 255
0.0491956 -0.0685519 1.412 255 255 255
-0.0640838 0.0633511 1.02 255 255 255
-0.276437 0.246885 0.637 0 0 0
-0.029354 0.145619 0.835 255 255 255
0.171189 -0.160516 2.54 0 0 0
0.563038 0.328392 2.143 255 255 255
-0.292947 -0.101474 1.203 255 255 255
0.266344 0.277019 2.392 0 0 0
-0.0300476 -0.825814 2.43 255 255 255
-0.642401 -0.349705 1.668 0 0 0
-0.358547 0.0125596 0.842 255 255 255
0.781953 0.163864 1.859 255 255 255
0.788621 0.00342537 1.805 255 255 255
-0.09038 -0.39026 1.876 255 255 255
-0.325194 -0.0966665 1.192 255 255 255
0.847538 -0.251393 1.739 255 255 255
0.928072 -0.851279 2.286 0 0 0
0.850649 0.131599 1.831 255 255 255
0.548596 -0.3548 2.731 255 255 255
0.0849781 0.539926 1.905 255 255 255
0.313289 -0.606007 2.519 255 255 255
-0.371862 -0.0956933 1.18 255 255 255
-0.222823 -0.0586058 1.249 255 255 255
-0.297834 0.067271 0.736 255 255 255
-0.0468588 0.197769 0.727 255 255 255
-0.456837 -0.900022 2.449 255 255 255
-1.18684 -0.958819 2.509 255 255 255
0.806498 0.0268345 1.799 255 255 255
0.4199 -0.925747 2.519 255 255 255
0.882344 -0.466389 2.54 255 255 255
-0.962385 -0.626897 2.107 255 255 255
0.212147 -0.286911 2.638 255 255 255
0.38808 0.650707 1.686 255 255 255
-0.822399 -0.362244 1.769 255 255 255
0.911408 -0.76496 2.329 255 255 255
0.287576 -0.876861 2.44 255 255 255
0.841761 -0.129142 2.66 255 255 255
0.298089 0.62752 1.705 255 255 255
-0.0643178 0.123555 0.441 255 255 255
0.243979 0.0993773 2.755 0 0 0
0.670079 -0.775646 2.459 255 255 255
-0.317433 -0.205022 1.387 255 255 255
-0.230389 -0.122393 1.257 255 255 255
0.512138 0.203194 2.489 255 255 255
0.849567 0.382301 1.923 0 0 0
-0.207062 0.115336 0.737 0 0 0
-0.751838 -0.915963 2.449 255 255 255
0.747606 0.590346 1.686 255 255 255
-0.226696 0.066236 0.712 255 255 255
0.75107 -0.720682 2.449 255 255 255
-0.0417775 0.223123 0.721 255 255 255
-0.0296466 0.168106 0.806 255 255 255
0.823775 -0.81333 2.44 255 255 255
0.320459 -0.136431 2.719 255 255 255
-0.0657735 0.216436 0.678 255 255 255
0.469449 0.20401 2.499 255 255 255
-0.313453 0.116723 0.709 255 255 255
-0.308993 0.215762 0.64 255 255 255
-0.601536 -0.463031 1.899 255 255 255
-0.228967 0.021817 0.738 255 255 255
0.249331 0.54045 1.929 255 255 255
0.831777 0.0432617 2.615 255 255 255
-0.0613984 -0.0490116 1.319 255 255 255
0.819698 -0.245027 1.734 255 255 255
0.273805 -0.851676 2.459 255 255 255
-0.323959 0.150869 0.671 255 255 255
-0.237109 0.210554 0.64 255 255 255
-0.185732 -0.0972549 1.333 255 255 255
0.867008 -0.237926 1.744 255 255 255
0.436302 -0.53222 2.519 255 255 255
0.910056 -0.442117 2.03 255 255 255
-0.456837 -0.852198 2.449 255 255 255
-0.296574 0.193905 0.647 255 255 255
0.912283 -0.518584 2.312 255 255 255
0.768891 -0.15473 1.734 255 255 255
-0.153721 -0.00363186 1.217 255 255 255
0.236365 -0.308994 2.719 255 255 255
0.849124 0.100913 1.815 255 255 255
-0.29961 -0.358605 1.794 0 0 0
-0.039584 0.00213683 1.126 255 255 255
-0.0112029 0.256784 0.906 255 255 255
-0.105311 -0.398141 1.87 255 255 255
0.0287195 -0.693504 2.383 255 255 255
0.694512 0.552856 1.664 255 255 255
-0.660604 -0.695963 2.365 255 255 255
-0.730577 -0.800463 2.499 255 255 255
0.811902 -0.228937 1.831 255 255 255
0.491328 -0.442364 2.593 255 255 255
0.537333 -0.348817 2.719 255 255 255
-0.255814 0.130016 0.706 0 0 0
0.356407 0.21587 2.449 255 255 255
0.625149 0.440377 2.017 255 255 255
0.85583 0.0909223 2.312 0 0 0
0.371895 0.497756 1.997 0 0 0
-0.129804 -0.520613 2.121 0 0 0
-0.518662 -0.315019 1.629 255 255 255
0.239896 -0.328262 2.66 255 255 255
0.497581 0.154551 2.626 255 255 255
-0.374738 -0.169559 1.289 0 0 0
0.411386 -0.507957 2.649 255 255 255
0.556994 -0.382519 2.707 255 255 255
0.937214 -0.67855 1.923 255 255 255
0.634422 0.649963 1.677 255 255 255
0.268974 0.294724 2.347 255 255 255
-0.712827 -0.298501 1.655 255 255 255
0.467552 0.489611 2.017 255 255 255
-0.076543 0.122019 0.433 0 0 0
-0.316335 0.238967 0.638 255 255 255
-0.0663206 0.118263 0.44 255 255 255
-0.0593718 0.117235 0.447 255 255 255
-0.637 -0.385739 1.758 255 255 255
0.901234 -0.617754 2.303 0 0 0
0.76818 0.379172 1.923 0 0 0
0.890585 0.450833 1.774 0 0 0
0.139481 0.614613 1.7 255 255 255
-0.0796643 0.160429 0.724 255 255 255
-0.204893 -0.00937658 1.192 255 255 255
-0.00958934 -0.590172 2.269 0 0 0
0.831679 0.0041541 2.189 0 0 0
0.721033 -0.794872 2.469 255 255 255
-0.0376619 -0.874286 2.411 255 255 255
0.822184 -0.655598 2.459 255 255 255
0.578681 -0.668998 2.479 255 255 255
0.962369 -0.763524 2.236 255 255 255
-0.544222 -0.378818 1.821 255 255 255
-0.0240752 -0.468398 1.947 255 255 255
0.697663 -0.505724 2.53 255 255 255
-0.382522 -0.0132687 0.923 255 255 255
0.510655 -0.341352 2.695 255 255 255
-0.069848 0.156028 0.72 255 255 255
-0.335116 0.084084 0.758 255 255 255
-0.0742551 0.167445 0.449 255 255 255
0.865189 0.153968 2.479 255 255 255
0.823822 -0.555816 1.62 255 255 255
0.590445 -0.0302378 2.719 255 255 255
0.734194 0.559614 1.668 0 0 0
0.313609 -0.789159 2.489 255 255 255
-0.239562 -0.400659 1.826 255 255 255
-0.556654 -0.0616178 1.087 255 255 255
-0.946363 -0.414508 1.848 255 255 255
0.485951 -0.707619 2.459 255 255 255
0.542511 -0.0623138 2.768 255 255 255
-0.0775926 0.130573 0.431 0 0 0
0.639511 0.167396 2.561 255 255 255
-0.142752 0.0573352 1.208 255 255 255
-0.780534 -0.406602 1.826 255 255 255
0.740537 -0.414279 2.55 255 255 255
-0.0480068 0.214794 0.709 255 255 255
-0.0883512 -0.843661 2.402 255 255 255
-0.0712297 0.100379 0.453 0 0 0
0.731567 -0.670265 2.411 255 255 255
-0.67384 -0.45779 1.929 255 255 255
-0.285907 0.0508578 0.724 255 255 255
0.0698215 -0.462544 2.004 255 255 255
0.849472 -0.168798 2.604 255 255 255
0.489954 -0.707619 2.459 255 255 255
0.241962 0.582908 1.826 255 255 255
0.809452 -0.553799 2.469 255 255 255
0.785471 -0.0642112 2.66 255 255 255
0.58783 -0.547604 2.572 255 255 255
-0.288799 0.160938 0.663 255 255 255
-0.0437476 0.179585 0.755 255 255 255
0.394613 0.545039 1.859 255 255 255
-0.468797 -0.911978 2.449 255 255 255
-0.338875 -0.489257 1.917 255 255 255
0.85768 0.169418 2.469 255 255 255
0.373766 0.510605 1.923 255 255 255
-0.214725 -0.528341 1.923 255 255 255
-0.0532883 0.134687 0.787 255 255 255
0.684176 0.542714 1.763 255 255 255
-0.212204 0.237372 0.631 255 255 255
0.99589 -0.787228 2.114 255 255 255
0.0364445 0.564455 1.805 255 255 255
0.863254 -0.138999 1.714 255 255 255
-0.726815 -0.548782 2.071 0 0 0
-0.126891 -0.0400887 1.308 255 255 255
0.332706 0.294091 2.312 0 0 0
-0.050437 -0.00347668 1.165 255 255 255
0.891637 0.159887 1.848 255 255 255
0.726419 -0.810602 2.42 255 255 255
-0.178566 0.0792093 0.809 0 0 0
0.693821 -0.932583 2.43 255 255 255
-0.0348589 -0.021456 1.217 255 255 255
0.342589 -0.132006 2.719 255 255 255
-0.0235162 0.165891 0.821 255 255 255
0.841372 0.216566 1.87 255 255 255
0.493447 -0.478303 2.582 255 255 255
-0.0543453 0.221545 0.687 255 255 255
0.360394 -0.752565 2.449 255 255 255
0.854547 -0.462533 2.519 255 255 255
-0.386427 -0.0146907 0.918 255 255 255
-0.134898 0.134343 0.736 255 255 255
-0.56637 -0.864949 2.44 255 255 255
0.755329 0.578338 1.691 255 255 255
-0.475084 -0.379831 1.784 255 255 255
0.839663 -0.81333 2.44 255 255 255
-0.0275925 0.15558 0.823 255 255 255
0.929648 0.228738 1.87 255 255 255
0.677516 -0.00370581 2.731 255 255 255
-0.0327043 -0.186451 1.595 255 255 255
1.05175 -0.831707 2.158 255 255 255
0.457296 0.51188 1.893 0 0 0
-0.0292832 0.0943631 0.918 255 255 255
0.800623 0.321666 2.294 255 255 255
0.831406 -0.171165 1.729 255 255 255
-0.102404 0.111483 1.005 255 255 255
-0.827563 -0.415286 1.865 255 255 255
0.924336 -0.859296 2.402 255 255 255
-0.465122 0.00598648 0.883 255 255 255
-0.947208 -0.615963 1.923 255 255 255
-0.835483 -0.558322 2.107 255 255 255
-0.337569 0.147813 0.672 255 255 255
0.891869 -0.176562 2.42 0 0 0
-0.0509703 -0.0903387 1.327 255 255 255
-0.490494 -0.259712 1.48 255 255 255
0.309892 -0.0394322 2.743 0 0 0
0.596804 0.435577 2.01 255 255 255
0.274147 0.459632 2.121 255 255 255
0.864137 -0.549572 1.779 255 255 255
0.12608 -0.367593 1.917 255 255 255
-0.237447 0.123221 0.72 255 255 255
-0.223766 0.172836 0.659 255 255 255
0.380735 -0.245958 2.707 255 255 255
0.464003 0.494798 1.947 255 255 255
-0.221124 0.0474965 0.709 255 255 255
0.639131 -0.335543 2.719 255 255 255
0.286541 0.533726 1.905 0 0 0
0.2525 -0.296224 2.004 255 255 255
0.67604 0.417557 2.228 0 0 0
0.432838 -0.893997 2.499 255 255 255
0.681269 -0.442364 2.593 255 255 255
-0.295449 0.218886 0.64 255 255 255
-0.170266 0.00828479 1.222 255 255 255
0.00127952 -0.46523 1.947 255 255 255
0.0739793 -0.229508 1.789 255 255 255
-0.591874 -0.249404 1.505 255 255 255
-0.267859 0.0931436 0.723 255 255 255
-0.086512 0.122573 0.43 0 0 0
0.337403 0.468074 2.128 255 255 255
-0.0570713 -0.925747 2.402 255 255 255
-0.0836522 0.10679 0.437 255 255 255
0.0711321 0.625277 1.655 255 255 255
-0.0297013 -0.0913599 1.342 255 255 255
0.126102 -0.194627 1.966 255 255 255
0.903734 0.114405 1.842 255 255 255
-0.305234 0.180549 0.652 0 0 0
0.767583 0.310363 2.092 255 255 255
0.277676 0.276684 2.356 255 255 255
0.895555 -0.798133 2.43 255 255 255
-0.317214 0.195102 0.644 255 255 255
0.402745 -0.582588 2.489 255 255 255
-0.716456 -0.448702 1.917 255 255 255
-0.0160828 0.155517 0.852 255 255 255
-0.335692 -0.374025 1.784 0 0 0
-0.0864976 0.145902 0.437 255 255 255
-0.0719697 -0.0724574 1.316 255 255 255
0.76509 0.266673 1.947 255 255 255
-0.584405 -0.864154 2.449 255 255 255
-0.042241 0.249325 0.729 255 255 255
0.0248751 0.000333115 1.232 255 255 255
-0.393298 -0.190243 1.316 255 255 255
0.713916 -0.35743 2.684 255 255 255
-0.202538 0.0410325 0.738 255 255 255
-0.1496 0.0504548 1.232 255 255 255
-0.0169349 -0.326219 1.859 0 0 0
0.253673 0.350527 2.312 255 255 255
-0.443732 -0.0975586 1.203 255 255 255
0.0721354 0.496239 1.978 255 255 255
0.0605019 0.624088 1.659 255 255 255
0.766674 0.161116 1.935 255 255 255
0.830492 0.116382 1.826 255 255 255
-0.138769 -0.114489 1.384 255 255 255
0.828192 -0.276999 1.705 255 255 255
-0.284335 0.107262 0.723 255 255 255
0.732471 -0.216689 2.672 255 255 255
0.498084 -0.817301 2.44 255 255 255
0.200934 -0.680829 2.449 255 255 255
-0.238151 0.208471 0.64 255 255 255
-0.21582 -0.18653 1.305 255 255 255
-0.463384 0.038408 0.902 0 0 0
-0.177923 -0.472969 1.966 255 255 255
0.856365 -0.0597719 1.763 255 255 255
0.369795 -0.315275 2.66 255 255 255
-0.0718586 0.173403 0.457 0 0 0
-0.588392 -0.852198 2.449 255 255 255
-0.276315 -0.0318656 1.098 255 255 255
0.755299 -0.413668 2.572 255 255 255
-0.277378 0.197198 0.644 255 255 255
-0.283942 0.101239 0.722 255 255 255
0.792403 -0.12943 1.774 255 255 255
-1.25443 -0.884501 2.53 0 0 0
0.524843 0.609835 1.758 255 255 255
-0.105203 -0.155365 1.387 255 255 255
-0.0746396 0.159764 0.721 255 255 255
-0.0673319 -0.186276 1.616 255 255 255
0.91826 -0.592906 2.158 255 255 255
-0.239157 0.0137191 0.755 255 255 255
-0.331378 -0.0483067 0.995 0 0 0
0.787547 0.205445 2.064 255 255 255
-0.222935 -0.154538 1.322 0 0 0
0.460653 0.554642 1.821 255 255 255
0.55828 0.536092 1.87 255 255 255
0.0129675 -0.0199076 1.244 255 255 255
-0.0138401 0.140095 0.886 255 255 255
-0.375632 -0.0224981 0.932 255 255 255
0.789417 0.311294 1.929 255 255 255
0.773599 -0.30535 2.649 255 255 255
-0.842969 -0.779647 2.459 0 0 0
0.675751 -0.530862 2.572 255 255 255
-0.0044291 0.0650901 1.048 255 255 255
-0.322224 0.122863 0.698 255 255 255
-0.207857 0.0598669 0.719 255 255 255
0.772308 0.021166 1.815 255 255 255
0.53968 -0.507715 2.582 255 255 255
0.82252 -0.242205 1.734 255 255 255
0.920443 0.459982 1.81 255 255 255
0.569296 0.585999 1.799 255 255 255
0.805582 -0.0866123 1.784 255 255 255
-0.386382 0.042033 0.803 255 255 255
0.597823 -0.641116 2.561 255 255 255
-0.247905 0.0373219 0.713 255 255 255
0.487973 0.50278 1.929 255 255 255
0.861168 0.381538 1.935 0 0 0
-0.477417 -0.145803 1.283 255 255 255
-0.389207 -0.00570238 0.914 255 255 255
-0.0293985 -0.37007 1.882 255 255 255
-0.121571 0.11755 0.451 0 0 0
0.911663 -0.222121 2.32 255 255 255
0.161888 -0.910111 2.402 0 0 0
-0.907565 -0.512476 1.899 255 255 255
0.704003 0.501189 1.7 255 255 255
0.0449225 -0.763344 2.42 0 0 0
0.903171 -0.430951 2.347 0 0 0
0.60786 -0.435765 2.604 255 255 255
0.317835 -0.947715 2.459 255 255 255
0.805288 0.392411 1.758 255 255 255
-0.363839 -0.54541 1.917 255 255 255
0.764268 0.0831606 1.953 255 255 255
-0.263073 -0.0105379 1.11 255 255 255
0.865039 -0.0945203 1.769 255 255 255
-0.283913 0.093407 0.716 255 255 255
0.374033 -0.201003 2.755 255 255 255
0.279125 0.574446 1.876 255 255 255
-0.923021 -0.497024 1.899 255 255 255
0.909696 -0.632936 2.374 0 0 0
-0.280989 -0.897827 2.411 255 255 255
-0.567288 -0.111714 1.187 255 255 255
-0.0871252 -0.221338 1.642 255 255 255
-0.261364 -0.321215 1.734 255 255 255
-0.363913 -0.694748 2.158 255 255 255
0.853509 -0.254694 2.037 255 255 255
-0.923555 -0.380524 1.815 255 255 255
-0.33755 0.0644076 0.805 255 255 255
-0.874037 -0.927184 2.479 255 255 255
0.716992 0.380103 2.064 255 255 255
-0.350374 0.124239 0.693 255 255 255
-0.0555666 0.135277 0.783 255 255 255
0.898964 -0.283078 2.356 255 255 255
-0.384759 0.064613 0.776 255 255 255
-0.224498 0.174715 0.658 255 255 255
-0.395679 -0.0707865 1.092 255 255 255
-0.00492357 0.00221084 1.165 255 255 255
-0.423314 -0.121667 1.229 255 255 255
-0.124465 0.00869836 1.283 255 255 255
0.890598 -0.505475 2.449 255 255 255
-0.245965 0.173361 0.661 255 255 255
0.470358 0.44471 2.166 0 0 0
-0.350102 0.0843807 0.772 255 255 255
0.589694 0.445759 1.997 255 255 255
-0.210363 -0.351991 1.805 255 255 255
-0.643286 -0.670222 2.303 255 255 255
-0.614474 -0.321894 1.637 0 0 0
0.873015 -0.0561283 1.739 255 255 255
-0.326653 0.0721898 0.776 255 255 255
0.804663 0.552733 1.714 255 255 255
0.0100541 0.320235 1.143 255 255 255
-0.223905 0.217164 0.638 255 255 255
-0.360814 -0.387451 1.779 0 0 0
0.919633 -0.604143 2.212 255 255 255
-0.0226282 0.212336 0.79 0 0 0
-0.346978 0.10607 0.731 255 255 255
-0.293217 0.121283 0.702 255 255 255
-0.0521559 0.110432 0.474 0 0 0
0.808052 -0.076744 1.899 255 255 255
-0.353662 0.10067 0.735 255 255 255
-0.278196 -0.555102 1.929 255 255 255
-0.255233 0.191336 0.649 255 255 255
0.255802 -0.900685 2.44 255 255 255
0.537048 -0.645707 2.53 255 255 255
-0.289202 0.167474 0.659 255 255 255
0.263856 0.574446 1.876 255 255 255
-0.737599 -0.67672 2.365 255 255 255
0.799163 0.0366509 2.017 255 255 255
-0.430557 -0.104033 1.21 255 255 255
0.542993 -0.410507 2.66 255 255 255
0.324801 0.622284 1.729 255 255 255
-0.189766 0.101573 0.769 255 255 255
0.884041 -0.073318 1.744 255 255 255
-0.287703 0.196759 0.646 255 255 255
0.841604 -0.143976 2.469 0 0 0
0.840158 -0.343735 2.55 255 255 255
0.797723 -0.322708 2.615 255 255 255
-0.363286 0.0327981 0.834 255 255 255
-0.175155 0.122033 0.734 255 255 255
-0.793089 -0.328749 1.7 255 255 255
0.669984 0.484849 1.826 255 255 255
-0.185573 0.0957766 0.783 255 255 255
-0.233144 0.0443457 0.714 255 255 255
-0.168869 -0.23681 1.429 255 255 255
-0.453419 -0.136712 1.257 255 255 255
0.735211 0.403478 1.848 255 255 255
0.0639896 -0.520819 2.136 255 255 255
0.465173 0.655421 1.677 255 255 255
0.63414 0.0769609 2.755 0 0 0
-0.10355 0.152952 0.443 0 0 0
-0.0995292 0.146236 0.438 255 255 255
-0.666307 -0.172722 1.297 255 255 255
-0.203628 0.0713765 0.729 255 255 255
0.720549 0.477287 1.637 255 255 255
0.901967 -0.281377 2.374 255 255 255
0.747084 -0.720682 2.449 255 255 255
0.835243 0.000591874 2.189 0 0 0
0.904913 -0.78176 2.392 255 255 255
0.145639 -0.591024 2.392 0 0 0
-0.0755674 0.119802 0.835 255 255 255
-0.825136 -0.511383 1.991 0 0 0
-0.332735 0.167779 0.656 255 255 255
0.744199 0.00962689 2.731 255 255 255
-0.187056 -0.0924982 1.327 255 255 255
-0.68724 -0.196186 1.342 0 0 0
-0.508438 -0.0948857 1.194 255 255 255
-0.244979 0.100259 0.732 255 255 255
0.779763 0.00518266 2.731 255 255 255
-0.0199328 -0.196308 1.612 255 255 255
0.904777 -0.566481 2.151 255 255 255
-0.330545 0.126677 0.694 255 255 255
0.413629 -0.0263922 2.78 255 255 255
0.0716908 0.619331 1.668 255 255 255
-0.80092 -0.564374 2.143 255 255 255
-0.183154 0.245197 0.63 255 255 255
-0.661264 -0.430763 1.893 0 0 0
0.910469 -0.482445 2.356 255 255 255
-0.620542 -0.52548 1.959 255 255 255
0.978715 -0.734779 2.092 255 255 255
-0.220888 -0.0680183 1.273 255 255 255
0.925285 -0.687724 2.158 255 255 255
0.767389 0.26395 2.489 255 255 255
0.895102 -0.511942 2.128 255 255 255
-0.025827 0.017983 1.087 255 255 255
-0.249346 0.151993 0.676 255 255 255
-0.975749 -0.680553 2.392 255 255 255
0.0894661 -0.29862 1.935 0 0 0
0.837554 0.284401 1.917 255 255 255
-0.139809 0.122321 0.743 255 255 255
0.867391 -0.297239 2.128 255 255 255
0.792558 -0.235133 2.684 255 255 255
0.2816 0.609835 1.758 255 255 255
0.0826507 -0.318674 1.923 255 255 255
0.678602 0.451932 2.01 0 0 0
0.383342 0.530364 1.893 0 0 0
-0.416607 -0.352255 1.734 255 255 255
0.763226 0.38898 1.865 255 255 255
0.00155421 -0.688266 2.365 255 255 255
0.881331 -0.66093 2.479 255 255 255
0.283871 0.527893 1.929 255 255 255
0.865455 -0.143946 2.338 255 255 255
-0.112619 0.127996 0.439 0 0 0
0.382009 0.549048 1.842 255 255 255
0.576979 -0.574435 2.561 255 255 255
0.777326 0.0215508 1.848 255 255 255
0.276515 0.518823 1.966 255 255 255
-0.0533213 0.154132 0.769 255 255 255
0.451542 0.320967 2.212 255 255 255
0.166597 -0.430383 1.991 255 255 255
0.75326 0.0696677 1.848 0 0 0
0.921979 -0.660356 2.244 0 0 0
0.678986 -0.129271 2.755 255 255 255
-0.52268 -0.944363 2.44 255 255 255
-1.04787 -0.950931 2.499 255 255 255
-0.025888 -0.882133 2.411 255 255 255
0.475871 -0.802907 2.469 255 255 255
0.893581 -0.319445 2.092 255 255 255
0.583782 -0.0946925 2.793 255 255 255
-0.662844 -0.907699 2.459 255 255 255
0.874905 -0.232362 2.604 255 255 255
0.88399 0.0237076 1.784 255 255 255
-0.328283 -0.1834 1.313 0 0 0
-0.322782 -0.161419 1.291 255 255 255
-0.47729 -0.541272 1.947 0 0 0
-0.166584 0.0527578 1.239 255 255 255
0.944838 -0.632941 2.212 255 255 255
0.820583 -0.187503 1.724 255 255 255
0.763821 -0.0858547 2.66 255 255 255
0.733396 0.349051 1.947 255 255 255
0.589401 0.546296 1.853 255 255 255
0.690966 -0.660952 2.42 255 255 255
-0.333608 -0.0368609 0.992 0 0 0
-0.364264 0.119456 0.698 255 255 255
-0.218034 0.136137 0.714 0 0 0
0.828544 0.016095 2.374 0 0 0
-0.682267 -0.33976 1.686 0 0 0
-0.0990316 0.172977 0.452 0 0 0
0.000617085 0.127083 0.939 255 255 255
0.420493 0.633539 1.729 255 255 255
-0.35785 -0.224079 1.422 255 255 255
0.356094 0.0545444 2.755 255 255 255
0.835969 0.353198 1.935 0 0 0
0.733873 0.485279 1.637 255 255 255
0.214063 0.596464 1.744 255 255 255
0.818772 0.140494 2.684 255 255 255
0.848326 -0.370944 1.826 255 255 255
-0.104069 0.0906169 1.11 255 255 255
-0.389916 0.0272381 0.83 255 255 255
-0.827581 -0.931905 2.449 255 255 255
0.115622 0.544406 1.899 255 255 255
-0.884602 -0.437589 1.923 255 255 255
-0.606051 -0.0930172 1.147 255 255 255
-0.487058 -0.500177 1.923 0 0 0
-0.536767 -0.0892467 1.171 255 255 255
0.296711 0.371362 2.212 255 255 255
-1.12019 -0.769852 2.479 0 0 0
-0.296354 0.15878 0.663 255 255 255
0.694227 0.53753 1.71 0 0 0
0.907887 -0.524154 2.32 255 255 255
-0.233184 0.15332 0.677 255 255 255
0.982303 -0.709188 2.107 0 0 0
0.741288 -0.695319 2.43 255 255 255
0.225605 0.528019 1.941 255 255 255
-0.25336 -0.0954419 1.201 255 255 255
0.901019 -0.489817 2.392 0 0 0
-0.349978 -0.299222 1.659 255 255 255
-0.307705 0.176051 0.655 255 255 255
-0.0782175 -0.0274219 1.313 255 255 255
-0.12807 -0.170796 1.366 0 0 0
-0.92985 -0.37653 1.81 255 255 255
-0.5565 -0.792418 2.449 0 0 0
0.0396479 0.614111 1.691 255 255 255
0.465813 0.572404 1.784 255 255 255
0.881814 0.230418 1.859 255 255 255
0.849834 -0.345569 1.882 255 255 255
-0.833684 -0.911047 2.479 255 255 255
-0.3627 -0.503275 1.911 255 255 255
0.241526 0.58817 1.779 255 255 255
0.0493841 0.0713631 1.149 255 255 255
0.856762 -0.343735 2.55 255 255 255
0.260803 0.571394 1.876 255 255 255
-1.1004 -0.947126 2.489 255 255 255
-0.124004 -0.838975 2.411 255 255 255
0.0483889 -0.119253 1.532 255 255 255
-0.411341 -0.0465139 0.927 255 255 255
-0.210947 0.113091 0.738 255 255 255
-0.356347 0.0686772 0.809 255 255 255
-0.120223 -0.125205 1.378 255 255 255
-0.277966 0.124532 0.701 255 255 255
-0.15197 -0.0205797 1.286 255 255 255
0.265099 0.487852 2.051 0 0 0
0.928608 -0.673171 1.899 255 255 255
0.598434 0.486956 1.941 0 0 0
-0.410002 -0.223078 1.387 255 255 255
0.517009 0.534234 1.853 255 255 255
0.9121 -0.230834 2.411 255 255 255
-0.187123 0.0843072 0.795 255 255 255
-0.160436 -0.0159863 1.254 255 255 255
-0.314064 0.104619 0.721 255 255 255
-0.00382898 0.143258 0.906 255 255 255
-0.350052 -0.225536 1.477 255 255 255
-0.347168 0.0694746 0.803 255 255 255
-0.0376857 0.0369243 1.072 255 255 255
-0.234235 -0.529989 1.929 255 255 255
-0.0582506 0.132344 0.444 255 255 255
-0.557167 -0.311039 1.595 0 0 0
-1.30797 -0.921556 2.53 0 0 0
-0.0376658 0.0899818 0.904 255 255 255
0.622046 -0.675606 2.459 255 255 255
0.856525 0.170791 2.489 255 255 255
0.33972 0.630294 1.705 255 255 255
-0.06634 0.17529 0.46 255 255 255
-0.0463756 0.116147 0.848 255 255 255
-0.0324455 -0.0537273 1.278 255 255 255
0.201567 -0.387209 1.953 255 255 255
-0.429613 -0.0144346 0.902 255 255 255
0.842986 0.200744 2.509 255 255 255
-0.340072 0.123466 0.695 255 255 255
-0.976205 -0.471429 1.859 0 0 0
-0.264981 -0.339965 1.758 0 0 0
-0.0695905 -0.00358411 1.201 255 255 255
-0.648059 -0.82633 2.479 255 255 255
-0.0496707 0.0992744 0.882 255 255 255
-0.412672 -0.0527181 0.93 255 255 255
-0.480139 -0.109123 1.201 0 0 0
-0.078191 0.131381 0.806 255 255 255
0.684125 -0.480636 2.572 255 255 255
-0.527087 -0.475459 1.887 255 255 255
-0.312705 0.147374 0.675 255 255 255
-0.469541 -0.446135 1.842 255 255 255
-0.0418934 0.228448 0.723 0 0 0
-0.404973 -0.773828 2.356 0 0 0
0.174539 0.579142 1.805 255 255 255
0.790358 -0.189679 1.744 255 255 255
0.517974 -0.695614 2.459 255 255 255
-0.38031 -0.284174 1.65 0 0 0
0.760226 -0.642591 2.44 255 255 255
0.834221 0.442211 1.729 255 255 255
-0.252167 -0.317475 1.729 255 255 255
-0.430657 0.000240373 0.889 255 255 255
0.708698 0.410127 2.151 255 255 255
0.378719 0.616331 1.744 255 255 255
0.888494 0.603565 1.799 0 0 0
0.472658 0.559651 1.799 255 255 255
-0.218535 -0.56452 1.929 255 255 255
-0.203691 0.0426693 0.725 255 255 255
-0.10117 0.0971199 0.455 0 0 0
-0.252771 -0.0246442 1.18 255 255 255
0.775689 0.102136 1.837 255 255 255
-0.022693 0.153326 0.84 255 255 255
-0.220118 0.0783691 0.717 255 255 255
-0.0225189 0.317797 0.887 0 0 0
-0.0324639 -0.644967 2.32 255 255 255
0.0209177 0.101435 1.036 255 255 255
-0.508662 -0.93589 2.449 255 255 255
-0.0318858 -0.0913599 1.342 255 255 255
-0.0903803 0.114779 0.964 255 255 255
-0.589784 -0.503275 1.911 255 255 255
-0.314656 0.0970378 0.717 255 255 255
0.429186 0.530626 1.905 0 0 0
-0.305957 0.133365 0.682 0 0 0
-0.384691 -0.0267288 0.921 255 255 255
0.548428 0.541579 1.837 255 255 255
0.79299 -0.209215 1.815 255 255 255
-0.0918484 -0.168898 1.425 255 255 255
0.384512 0.165955 2.672 255 255 255
0.877088 -0.244999 2.649 255 255 255
-0.0474132 0.135026 0.458 255 255 255
0.122277 0.249771 2.392 0 0 0
-0.302807 0.127069 0.69 255 255 255
0.575269 0.0229596 2.731 255 255 255
-0.234851 0.180865 0.657 255 255 255
0.656402 0.573267 1.805 255 255 255
-0.085812 0.123972 0.43 255 255 255
-0.381432 -0.0238086 0.924 255 255 255
-0.0592763 0.0922045 0.897 255 255 255
-0.330989 -0.0303117 0.989 0 0 0
-0.0471831 0.212823 0.714 255 255 255
0.574005 0.421997 2.158 255 255 255
0.819698 -0.239383 1.734 255 255 255
0.484266 0.376805 2.181 255 255 255
-0.21582 -0.188653 1.305 255 255 255
-0.401874 -0.0101089 0.909 255 255 255
0.348076 0.410785 2.173 0 0 0
-0.304349 0.225823 0.639 255 255 255
-0.0762541 -0.0745989 1.316 255 255 255
0.702784 -0.684581 2.42 255 255 255
0.596385 0.618418 1.758 255 255 255
-0.269975 -0.0258215 1.147 255 255 255
-1.2462 -0.905087 2.53 0 0 0
0.57176 0.513809 1.947 255 255 255
0.319351 -0.853037 2.44 255 255 255
-0.266885 -0.622901 1.985 255 255 255
0.0288746 0.608097 1.705 255 255 255
0.575645 0.326117 2.151 255 255 255
0.35113 0.350153 2.261 255 255 255
-0.627411 -0.327135 1.65 0 0 0
-0.268004 -0.202347 1.354 255 255 255
0.646671 0.170157 2.54 255 255 255
-0.197402 -0.00352741 1.182 255 255 255
0.907897 -0.439045 2.078 0 0 0
-0.271915 -0.551963 1.929 255 255 255
-0.52116 -0.117817 1.21 255 255 255
0.517689 0.426038 2.143 255 255 255
-0.230394 0.236064 0.633 0 0 0
-0.245771 0.0340312 1.037 255 255 255
0.869876 0.309543 1.899 255 255 255
-0.158269 0.109328 0.762 0 0 0
-0.352947 0.00985412 0.845 255 255 255
0.900005 -0.575011 2.253 255 255 255
-0.805437 -0.894911 2.479 255 255 255
-0.529075 -0.16639 1.297 255 255 255
0.315109 0.205579 2.469 255 255 255
0.578015 -0.71162 2.459 255 255 255
-0.512648 -0.888066 2.449 255 255 255
-0.250761 0.244043 0.635 255 255 255
-0.867483 -0.397537 1.853 255 255 255
-1.01533 -0.861463 2.499 255 255 255
-0.299491 -0.921838 2.402 255 255 255
-0.763595 -0.270568 1.571 0 0 0
-0.446597 -0.287263 1.637 255 255 255
0.0271554 -0.25934 1.774 255 255 255
-0.0567886 -0.356678 1.876 0 0 0
0.632164 -0.954997 2.499 255 255 255
0.591192 -0.0662148 2.743 255 255 255
-0.42213 -0.0831019 1.165 255 255 255
-0.102989 0.170015 0.45 0 0 0
-0.124451 0.133777 0.76 255 255 255
0.18509 -0.319771 2.212 0 0 0
0.217766 -0.591572 2.459 255 255 255
0.841805 0.111847 2.53 255 255 255
0.676969 0.611452 1.805 255 255 255
0.812607 0.666241 1.719 255 255 255
0.218109 -0.648513 2.509 255 255 255
-0.294499 -0.0162109 1.013 255 255 255
-0.0521087 0.238314 0.687 0 0 0
0.698723 0.109327 2.78 255 255 255
-0.144474 -0.0316952 1.313 255 255 255
-0.34322 0.075582 0.785 255 255 255
-0.0737716 0.169855 0.724 255 255 255
0.431109 0.093654 2.719 0 0 0
0.0482965 -0.824578 2.392 0 0 0
0.829083 -0.236374 1.941 255 255 255
0.229534 0.473773 2.092 255 255 255
-0.483981 -0.0969909 1.196 255 255 255
-0.375319 -0.0210489 0.935 255 255 255
-0.451472 -0.71148 2.244 255 255 255
0.0558665 0.494733 1.972 0 0 0
-0.0453936 0.175049 0.762 255 255 255
0.568866 -0.334041 2.743 255 255 255
0.387451 -0.935497 2.469 255 255 255
0.662608 0.636197 1.744 255 255 255
-0.198139 -0.0134563 1.21 255 255 255
0.581015 -0.967378 2.489 255 255 255
-0.0663629 0.105573 0.45 255 255 255
-0.112027 0.105073 0.451 0 0 0
0.513729 0.607893 1.769 255 255 255
0.759388 0.341223 2.136 255 255 255
-0.343324 -0.101896 1.208 255 255 255
-0.342259 -0.0383589 0.989 0 0 0
0.0298043 -0.0707644 1.366 255 255 255
0.531643 0.377215 2.143 255 255 255
0.700529 0.421293 2.085 0 0 0
0.135022 -0.787969 2.411 0 0 0
-0.422258 -0.283485 1.646 255 255 255
0.539904 0.267938 2.22 255 255 255
-0.250761 0.241976 0.635 255 255 255
-0.258321 -0.01646 1.145 255 255 255
-0.255777 0.0127055 0.768 255 255 255
0.813134 0.515046 1.691 255 255 255
0.868629 0.465465 1.753 255 255 255
-0.108591 0.137868 0.798 255 255 255
0.491034 -0.293632 2.66 255 255 255
-0.204941 0.116693 0.738 0 0 0
-0.344496 -0.130677 1.278 0 0 0
0.531873 0.474577 2.037 255 255 255
0.845272 0.207672 2.356 255 255 255
-1.07341 -0.746254 2.55 0 0 0
0.0234214 0.0493939 1.16 255 255 255
0.104176 -0.156871 1.758 255 255 255
0.433012 0.0585135 2.731 255 255 255
0.837697 0.651879 1.748 255 255 255
-0.0752242 0.0744603 1.06 255 255 255
-0.916305 -0.39218 1.842 255 255 255
0.200328 0.537494 1.941 255 255 255
-0.0458699 -0.813951 2.43 255 255 255
-0.0901486 -0.660111 2.347 255 255 255
-0.311363 0.0814217 0.734 255 255 255
-0.373586 0.0759747 0.751 255 255 255
-0.630742 -0.306124 1.624 255 255 255
0.0104411 0.0138424 1.187 255 255 255
-0.921277 -0.580426 2.017 255 255 255
-0.421566 -0.44014 1.842 255 255 255
0.116676 0.176981 2.212 255 255 255
0.748125 0.35835 2.114 255 255 255
0.751837 0.529597 1.659 0 0 0
0.89278 -0.376913 2.32 255 255 255
0.665532 -0.201003 2.755 255 255 255
0.262726 0.148562 2.672 255 255 255
0.061869 -0.158128 1.624 255 255 255
0.881795 -0.393084 2.469 255 255 255
0.789801 -0.1681 2.66 255 255 255
0.729973 0.427342 1.972 0 0 0
0.549573 0.251742 2.338 255 255 255
0.157002 0.612663 1.71 255 255 255
0.663005 0.571361 1.799 255 255 255
-0.0448349 -0.429397 1.887 255 255 255
-0.0678522 0.0308063 1.171 255 255 255
-0.0701365 0.120301 0.437 255 255 255
-0.534595 -0.860978 2.44 255 255 255
0.393213 0.575307 1.784 0 0 0
0.543325 0.613806 1.753 255 255 255
0.169437 0.624759 1.668 255 255 255
0.730952 0.381252 1.966 0 0 0
0.735656 0.385087 1.953 0 0 0
-0.212008 0.0174972 0.759 0 0 0
0.741475 0.387836 1.935 0 0 0
-0.11481 -0.384154 1.876 255 255 255
-0.199096 0.0484523 1.096 255 255 255
0.324105 0.356493 2.278 255 255 255
0.815283 0.0151242 1.799 255 255 255
-0.522614 -0.131988 1.232 255 255 255
0.54415 -0.190364 2.731 255 255 255
-0.104506 0.15691 0.444 0 0 0
0.12847 0.0939476 2.294 0 0 0
-0.78703 -0.655049 2.329 255 255 255
-0.312095 -0.168761 1.299 0 0 0
0.0972853 -0.768506 2.449 255 255 255
0.944804 0.306772 1.882 255 255 255
-0.284258 0.162506 0.665 255 255 255
0.621447 0.399561 2.189 255 255 255
0.229774 0.280777 2.459 0 0 0
0.716206 -0.436285 2.582 255 255 255
-0.732176 -0.490461 1.985 255 255 255
0.852079 -0.407106 1.815 255 255 255
0.551541 0.468255 2.024 255 255 255
0.352907 0.380354 2.181 255 255 255
0.296496 0.572609 1.87 255 255 255
0.593051 -0.359245 2.731 255 255 255
-0.201357 0.0832027 1.242 255 255 255
-0.1038 0.147238 0.441 255 255 255
-0.350881 -0.0943294 1.187 255 255 255
0.108586 -0.451179 1.997 255 255 255
0.80466 -0.426949 2.479 255 255 255
0.540741 0.266467 2.269 255 255 255
-0.00998418 0.0306167 1.096 255 255 255
-0.265174 -0.130575 1.257 255 255 255
-0.0603982 0.116664 0.832 255 255 255
-0.205096 0.0786021 0.73 255 255 255
0.717696 0.557946 1.655 0 0 0
0.149533 -0.583239 2.392 0 0 0
0.844598 -0.152933 2.42 0 0 0
0.670088 -0.675547 2.43 255 255 255
0.86745 0.304516 1.887 255 255 255
0.391971 -0.0889209 2.755 255 255 255
-0.0463901 0.226382 0.702 255 255 255
-1.14938 -0.782655 2.303 0 0 0
-1.2915 -0.921556 2.53 255 255 255
0.0861321 0.489717 2.004 255 255 255
-1.18618 -0.926531 2.499 255 255 255
0.522868 -0.486706 2.582 255 255 255
-0.169641 0.123564 0.736 255 255 255
-0.198771 0.0405331 0.751 0 0 0
0.233475 0.57645 1.853 255 255 255
-0.152042 -0.928746 2.42 255 255 255
-0.905735 -0.417736 1.876 0 0 0
-0.0415866 -0.842898 2.411 255 255 255
0.544447 -0.044088 2.755 255 255 255
0.826473 0.143002 2.572 0 0 0
-0.00670374 0.147509 0.896 255 255 255
0.763796 0.0398303 1.859 0 0 0
-0.103327 0.135407 0.433 255 255 255
-0.367372 0.0372643 0.813 255 255 255
-0.596807 -0.168828 1.316 255 255 255
-0.21252 0.0595339 0.715 255 255 255
-0.205855 0.19389 0.64 255 255 255
-0.402827 0.0405485 0.826 255 255 255
0.80264 -0.034996 1.985 255 255 255
-0.61081 -0.459941 1.899 255 255 255
0.705688 -0.85745 2.43 255 255 255
-0.221039 -0.0480552 1.239 255 255 255
-0.300848 0.176846 0.654 255 255 255
-0.142294 -0.365837 1.876 0 0 0
0.468852 0.453937 2.143 0 0 0
-0.16218 0.101389 0.787 0 0 0
-0.287706 0.217504 0.639 255 255 255
-0.210486 0.133023 0.716 0 0 0
0.0437246 0.479933 2.004 0 0 0
-0.0661608 -0.394571 1.882 255 255 255
-0.257714 -0.0851705 1.194 0 0 0
-0.302468 -0.149159 1.294 255 255 255
0.467832 -0.718532 2.469 255 255 255
-0.116432 0.106541 0.451 0 0 0
-0.587956 -0.296567 1.587 255 255 255
0.549718 -0.833183 2.44 255 255 255
-0.0837139 0.145656 0.784 255 255 255
-0.351609 -0.205379 1.345 255 255 255
-0.656755 -0.695963 2.365 255 255 255
-0.922805 -0.56181 2.057 255 255 255
-0.242102 0.0698099 0.713 255 255 255
0.686429 -0.58551 2.519 255 255 255
0.622341 0.426038 2.143 0 0 0
0.193168 -0.800663 2.402 0 0 0
-0.164034 -0.0842395 1.333 255 255 255
0.810985 -0.421979 1.664 255 255 255
0.0384991 -0.183929 1.642 255 255 255
-0.241898 0.129415 0.709 0 0 0
-0.389067 -0.927919 2.449 255 255 255
0.144532 0.391913 2.312 255 255 255
-0.303176 -0.0362415 1.02 0 0 0
-1.10809 -0.878774 2.479 255 255 255
-0.870349 -0.699034 2.402 255 255 255
-0.531634 -0.136771 1.239 255 255 255
0.0943843 -0.531875 2.196 255 255 255
0.461705 0.0453793 2.743 255 255 255
0.844598 -0.920869 2.42 255 255 255
-0.282063 0.217164 0.638 255 255 255
0.784226 0.0494594 2.004 255 255 255
-0.930234 -0.45596 1.87 255 255 255
-0.298143 -0.23882 1.47 255 255 255
-0.354886 0.123111 0.693 255 255 255
0.634054 -0.799655 2.459 255 255 255
-0.738865 -0.249404 1.505 255 255 255
0.635462 -0.700756 2.449 255 255 255
0.0206568 0.60294 1.714 255 255 255
0.749823 0.605856 1.691 255 255 255
0.736968 0.0874869 2.805 255 255 255
-0.188782 0.0719381 0.76 0 0 0
-0.240294 0.0819837 0.718 255 255 255
0.181741 -0.231428 2.459 0 0 0
-0.0817332 0.0932125 0.454 0 0 0
0.68591 -0.639957 2.43 255 255 255
-0.0829822 0.15585 0.441 255 255 255
0.809995 -0.454119 1.624 255 255 255
-0.16444 0.119013 0.745 255 255 255
0.586021 -0.843673 2.459 255 255 255
-0.276197 0.0130199 0.787 0 0 0
0.857378 -0.598174 1.719 255 255 255
-0.222866 0.20139 0.644 255 255 255
-0.375319 -0.0180058 0.935 255 255 255
-0.923275 -0.661385 2.338 255 255 255
0.862212 -0.199415 2.459 0 0 0
-0.232306 0.0397537 0.715 255 255 255
-0.349695 0.144759 0.668 0 0 0
-0.438945 -0.201899 1.351 255 255 255
-0.0368555 0.232615 0.74 0 0 0
0.539786 0.239782 2.449 255 255 255
-0.346049 -0.0653441 1.034 255 255 255
-0.19974 0.0139474 1.196 255 255 255
-0.366507 -0.181165 1.297 0 0 0
0.0940834 0.424496 2.189 255 255 255
-0.42485 0.00314434 0.892 255 255 255
0.219964 0.526482 1.947 255 255 255
0.769261 -0.738621 2.469 255 255 255
-1.0795 -0.891301 2.469 255 255 255
0.178211 0.537494 1.941 255 255 255
-0.697441 -0.916568 2.44 255 255 255
0.923244 -0.734863 2.43 255 255 255
0.637099 -0.674356 2.44 255 255 255
-0.187091 -0.0135119 1.215 255 255 255
0.220642 -0.361784 1.953 255 255 255
-0.92391 -0.58747 2.03 0 0 0
-0.0604691 0.151342 0.749 255 255 255
-0.734894 -0.867683 2.459 255 255 255
0.247199 0.385578 2.253 255 255 255
0.332264 -0.104992 2.707 255 255 255
0.00082278 -0.0404098 1.252 255 255 255
-0.322367 0.128378 0.691 255 255 255
0.884886 -0.461075 2.489 255 255 255
0.721831 0.637948 1.646 255 255 255
0.694041 0.54015 1.65 255 255 255
-0.101993 -0.345482 1.865 0 0 0
0.445947 0.314903 2.22 255 255 255
0.0466812 -0.601356 2.312 255 255 255
0.602884 0.485451 1.935 0 0 0
-0.268011 0.0466696 0.714 255 255 255
0.906116 -0.446691 2.051 255 255 255
0.860355 -0.897241 2.42 255 255 255
-0.378254 -0.500165 1.911 255 255 255
-0.0790863 0.0163056 1.227 255 255 255
-0.221675 -0.539407 1.929 255 255 255
0.911408 -0.408696 2.329 255 255 255
0.180683 -0.844041 2.392 0 0 0
0.918736 -0.783135 2.338 255 255 255
-0.191227 0.105867 0.755 255 255 255
-0.0687138 0.122435 0.437 0 0 0
0.269707 -0.200128 2.743 255 255 255
-0.00390285 -0.148693 1.502 255 255 255
0.78635 0.135828 1.848 255 255 255
0.35584 0.190073 2.53 255 255 255
-0.274068 -0.026988 1.118 255 255 255
0.36089 0.345248 2.253 255 255 255
0.816009 -0.538033 2.489 255 255 255
-0.571249 -0.210118 1.406 255 255 255
-1.32968 -0.958266 2.54 255 255 255
0.582262 -0.338504 2.743 255 255 255
-0.0239458 0.152596 0.836 255 255 255
-0.0472403 0.138295 0.793 255 255 255
-0.0968295 0.0882635 0.459 0 0 0
-0.0428916 0.245075 0.72 255 255 255
-0.197733 0.225088 0.634 255 255 255
0.131735 0.58795 1.744 255 255 255
0.867048 -0.124396 1.705 255 255 255
-0.473071 -0.940492 2.43 255 255 255
0.871437 -0.737887 2.44 255 255 255
0.721543 0.383367 2.158 255 255 255
0.62391 0.620176 1.763 255 255 255
-0.745753 -0.803666 2.509 255 255 255
-0.918601 -0.583207 2.004 255 255 255
-0.650673 -0.866117 2.489 255 255 255
0.807907 0.648523 1.739 255 255 255
0.489818 0.447297 2.128 0 0 0
-0.170268 -0.0983493 1.348 255 255 255
0.0524084 -0.808481 2.402 0 0 0
0.858541 -0.106561 2.057 255 255 255
-0.0567146 -0.0465454 1.31 255 255 255
0.257644 -0.731839 2.42 255 255 255
0.235381 0.172849 2.519 255 255 255
-0.267309 0.198554 0.645 255 255 255
-0.0135771 0.0235254 1.098 255 255 255
0.527761 0.529913 1.859 255 255 255
0.443384 0.000748427 2.768 0 0 0
-0.294084 -0.0715372 1.132 255 255 255
0.318751 0.264905 2.32 255 255 255
0.97502 -0.748416 2.121 255 255 255
0.551268 0.505858 1.953 255 255 255
-0.0551291 0.132078 0.448 255 255 255
0.879381 -0.416262 2.44 255 255 255
0.890771 -0.19544 2.151 0 0 0
-0.062882 0.13432 0.441 255 255 255
0.608133 0.57191 1.81 255 255 255
0.873259 0.0206878 1.774 255 255 255
0.244677 0.558088 1.893 255 255 255
0.474525 0.584016 1.784 255 255 255
0.909991 -0.184737 2.278 255 255 255
-0.150185 -0.194436 1.345 255 255 255
-1.08834 -0.690522 2.092 255 255 255
-0.0588899 0.233053 0.675 255 255 255
0.850625 0.63739 1.763 255 255 255
0.835632 0.0239867 1.805 255 255 255
-0.786506 -0.370081 1.779 255 255 255
0.873259 0.632707 1.774 255 255 255
-0.326568 0.180496 0.648 255 255 255
0.868245 -0.102515 1.758 255 255 255
-0.320994 0.0179333 0.837 0 0 0
0.102065 0.520089 1.935 255 255 255
-0.388829 -0.207568 1.345 255 255 255
0.759708 0.13076 2.755 255 255 255
0.536818 0.644778 1.714 255 255 255
0.315733 0.0769609 2.755 0 0 0
0.820198 0.109838 2.793 255 255 255
0.863494 -0.825242 2.44 255 255 255
0.702567 0.425205 2.071 255 255 255
0.803324 -0.11532 1.779 255 255 255
-0.117739 -0.0038139 1.278 255 255 255
0.311607 -0.0921837 2.719 255 255 255
-0.876627 -0.48424 1.947 255 255 255
-0.0223688 0.16461 0.828 255 255 255
0.219153 -0.576687 2.43 0 0 0
-0.158647 -0.361352 1.853 255 255 255
-0.054543 0.158537 0.468 0 0 0
0.853648 0.168021 2.286 255 255 255
0.296497 -0.164418 2.743 255 255 255
0.21744 -0.921368 2.411 255 255 255
-0.242243 -0.0840075 1.234 0 0 0
0.910469 -0.470943 2.356 255 255 255
-0.175256 -0.503294 1.972 255 255 255
0.359069 -0.761711 2.44 255 255 255
-0.190606 0.0810002 0.788 255 255 255
0.199854 0.590621 1.769 255 255 255
-0.149169 0.0965216 1.137 255 255 255
-0.0385891 -0.367007 1.882 255 255 255
0.934036 -0.84532 2.212 0 0 0
0.595561 0.539532 1.882 0 0 0
-0.205941 0.00979419 1.165 255 255 255
0.81995 0.024233 2.078 255 255 255
-0.893643 -0.451511 1.929 0 0 0
-0.213709 0.0715674 0.719 255 255 255
0.923244 -0.730909 2.43 255 255 255
-0.822955 -0.775646 2.459 0 0 0
0.338156 0.112827 2.755 0 0 0
-0.115721 -0.921838 2.402 255 255 255
-0.101771 0.109289 1.015 255 255 255
0.366786 -0.0352871 2.768 255 255 255
-0.0707739 -0.661385 2.338 255 255 255
-0.270363 0.125852 0.702 255 255 255
0.341776 -0.774407 2.43 255 255 255
0.759155 0.0450663 1.826 255 255 255
0.0197952 -0.373412 1.899 255 255 255
0.742066 -0.334062 2.707 255 255 255
0.440465 -0.284339 2.695 255 255 255
-0.264656 0.168236 0.662 255 255 255
-0.246019 -0.0569166 1.213 255 255 255
0.191596 0.405885 2.204 0 0 0
-0.574086 -0.422486 1.87 0 0 0
-0.247015 0.236148 0.636 255 255 255
0.893581 -0.356893 2.092 0 0 0
0.911086 -0.440014 2.166 255 255 255
0.661721 0.62813 1.677 0 0 0
-0.0631299 -0.562505 2.204 255 255 255
-0.0449255 0.121996 0.471 0 0 0
0.82752 0.0219844 2.615 255 255 255
0.732471 -0.364528 2.672 255 255 255
-1.03141 -0.802125 2.479 0 0 0
0.328241 0.459406 2.136 0 0 0
1.06399 -0.802137 2.099 255 255 255
-0.3017 0.22201 0.64 255 255 255
-1.34208 -0.987199 2.54 255 255 255
0.819287 -0.527995 2.499 255 255 255
0.838619 0.66174 1.744 255 255 255
0.239622 -0.430872 2.121 0 0 0
0.537927 0.537058 1.842 255 255 255
1.07716 -0.840572 2.181 255 255 255
0.639211 -0.66093 2.479 255 255 255
-0.658776 -0.89042 2.489 255 255 255
-0.908631 -0.434385 1.882 0 0 0
-0.273822 0.0373743 0.714 0 0 0
0.736566 0.339546 1.947 255 255 255
0.677042 0.465741 1.821 255 255 255
0.977977 0.396706 1.917 255 255 255
-0.0707739 -0.653775 2.338 255 255 255
0.589934 0.436787 2.078 255 255 255
-0.282446 0.192554 0.646 255 255 255
0.209807 -0.309022 1.941 0 0 0
0.064231 0.615039 1.686 255 255 255
0.532907 0.0803799 2.719 255 255 255
0.494707 0.558096 1.794 0 0 0
-0.377596 0.0484457 0.801 255 255 255
-0.960711 -0.465011 1.882 255 255 255
0.675681 -0.414577 2.604 255 255 255
0.00777771 0.0638568 1.085 255 255 255
-0.038681 0.213735 0.729 255 255 255
-0.138168 -0.11175 1.378 255 255 255
0.0632366 -0.256473 1.815 255 255 255
-0.046749 0.00943269 1.122 255 255 255
-0.608275 -0.176717 1.327 255 255 255
-0.0181668 0.284277 0.886 255 255 255
-0.0795162 0.173742 0.454 255 255 255
0.0105548 -0.421093 1.905 255 255 255
0.315665 0.626577 1.71 255 255 255
0.0450875 0.526251 1.923 0 0 0
-0.215521 -0.353749 1.799 255 255 255
0.494917 0.344862 2.181 255 255 255
-0.295271 -0.00630132 1.01 255 255 255
-0.280812 0.112676 0.72 255 255 255
0.184988 0.28362 2.449 0 0 0
0.918726 0.135387 1.842 255 255 255
-0.396085 0.0641967 0.771 255 255 255
0.806498 0.00634155 1.799 255 255 255
-0.11347 0.157594 0.448 0 0 0
-0.0776046 0.110548 0.435 255 255 255
0.475871 -0.726568 2.469 255 255 255
-0.209115 -0.501737 1.929 255 255 255
-0.376599 0.0694592 0.788 255 255 255
-0.0535591 0.128936 0.791 255 255 255
0.89924 -0.618767 2.44 255 255 255
-0.394725 -0.0160964 0.913 255 255 255
0.373617 -0.332612 2.626 255 255 255
-0.633387 -0.814961 2.469 255 255 255
-0.070687 0.240415 0.662 255 255 255
0.218481 0.607153 1.734 255 255 255
-0.371625 0.10445 0.728 255 255 255
-0.392471 -0.149934 1.265 255 255 255
0.414149 -0.619933 2.509 255 255 255
0.0350284 0.547107 1.887 0 0 0
0.605465 -0.378113 2.707 255 255 255
-0.218535 -0.577076 1.929 255 255 255
-0.211443 0.227546 0.638 0 0 0
0.179323 -0.30842 2.374 0 0 0
0.849908 -0.260171 2.672 255 255 255
0.566153 0.619511 1.753 255 255 255
0.411214 0.335441 2.189 255 255 255
-0.914117 -0.521521 1.887 255 255 255
-0.437757 0.0360392 0.88 255 255 255
-0.558772 -0.903697 2.459 255 255 255
0.507603 0.643862 1.719 255 255 255
-0.265575 0.082212 0.72 255 255 255
0.786535 -0.266553 2.649 255 255 255
0.287576 -0.880832 2.44 255 255 255
0.634944 0.467633 1.966 255 255 255
0.366649 0.504344 1.935 255 255 255
0.22613 -0.928746 2.42 255 255 255
0.388229 0.292463 2.329 255 255 255
-0.326672 -0.230811 1.48 255 255 255
0.885063 0.634521 1.763 255 255 255
0.716495 0.495789 1.71 255 255 255
-0.365521 0.0671109 0.806 255 255 255
0.401893 0.0940674 2.731 255 255 255
-0.339385 -0.362852 1.758 0 0 0
-0.203072 0.0165406 0.772 255 255 255
0.340461 -0.621049 2.449 255 255 255
-0.050199 0.127639 0.799 255 255 255
0.844382 -0.0601448 1.774 255 255 255
-0.313581 0.204216 0.643 255 255 255
0.0488784 0.0561012 1.182 255 255 255
0.783815 -0.0433063 1.794 255 255 255
-0.764928 -0.424676 1.853 255 255 255
0.756291 0.423343 1.744 255 255 255
0.242048 -0.301121 1.972 255 255 255
0.495966 -0.682371 2.469 255 255 255
-0.238004 -0.124142 1.254 255 255 255
-1.03931 -0.895318 2.469 255 255 255
-0.254001 0.0218178 1.102 255 255 255
-0.514269 -0.0948857 1.194 255 255 255
0.618544 0.538989 1.859 255 255 255
-0.156204 0.111221 0.758 0 0 0
0.891294 -0.394264 2.356 255 255 255
-0.187902 -0.0950857 1.333 255 255 255
-0.302635 -0.172716 1.313 0 0 0
-0.0662854 0.223269 0.672 255 255 255
-0.0685816 0.100082 0.455 0 0 0
-0.266279 0.217845 0.64 255 255 255
0.832215 -0.529932 2.489 255 255 255
0.88481 -0.0283891 1.774 255 255 255
-0.108365 0.163427 0.448 0 0 0
-0.291221 -0.0613355 1.114 255 255 255
0.329457 -0.318283 2.649 255 255 255
-0.139979 -0.601262 2.228 0 0 0
-0.0722978 -0.0620311 1.322 255 255 255
0.904777 -0.56298 2.151 255 255 255
-0.929475 -0.539945 1.887 255 255 255
-0.231814 -0.497 1.935 255 255 255
0.974774 -0.788978 2.128 255 255 255
0.510602 0.436908 2.128 0 0 0
0.687817 -0.180678 2.719 255 255 255
-0.186798 -0.827204 2.411 255 255 255
-0.737159 -0.718034 2.44 255 255 255
0.897924 -0.379543 2.143 0 0 0
0.680709 0.499825 1.784 0 0 0
0.453177 -0.694729 2.499 255 255 255
0.0443841 -0.316783 1.893 255 255 255
-0.0849141 0.134854 0.429 255 255 255
-0.96625 -0.607097 1.905 255 255 255
-0.949288 -0.410165 1.842 255 255 255
-0.061144 0.211791 0.688 255 255 255
-0.551522 -0.0777905 1.116 255 255 255
0.978715 -0.731374 2.092 255 255 255
-0.65192 -0.177626 1.302 255 255 255
-0.569326 -0.489295 1.905 255 255 255
0.909266 -0.771063 2.383 255 255 255
-0.561626 -0.676396 2.261 255 255 255
0.925632 -0.810076 2.244 0 0 0
0.781334 0.138524 1.972 255 255 255
-0.410776 -0.187091 1.324 255 255 255
0.326234 0.0322795 2.768 255 255 255
0.675327 -0.716697 2.449 255 255 255
-0.256627 -0.0952035 1.198 255 255 255
0.895818 -0.352068 2.189 255 255 255
-0.451665 -0.028197 0.92 255 255 255
0.40766 0.316037 2.228 255 255 255
-0.508846 -0.0404128 1 255 255 255
0.0860487 -0.291416 1.929 0 0 0
0.478866 0.514961 1.893 0 0 0
0.750485 0.641046 1.668 255 255 255
-0.162926 -0.0707433 1.324 255 255 255
0.900082 -0.635757 1.853 255 255 255
0.403499 0.193345 2.519 255 255 255
0.886611 -0.226502 2.449 255 255 255
0.00493011 -0.040668 1.26 255 255 255
0.845013 -0.624623 2.479 255 255 255
0.904251 -0.831128 2.411 255 255 255
-0.32119 0.140513 0.679 0 0 0
0.778372 0.0281471 1.887 0 0 0
0.829547 -0.798889 2.469 255 255 255
0.318518 0.487852 2.051 255 255 255
-1.25855 -0.938024 2.53 255 255 255
0.269221 0.272099 2.383 0 0 0
0.811705 0.658862 1.729 255 255 255
0.135526 -0.786973 2.42 0 0 0
0.0217455 0.0879229 1.077 255 255 255
0.248784 -0.675747 2.489 255 255 255
0.836007 -0.376932 2.55 255 255 255
0.71373 0.0593062 2.768 255 255 255
-0.507076 -0.373916 1.826 0 0 0
-0.431524 -0.411766 1.784 255 255 255
0.860068 0.539636 1.753 255 255 255
-0.411537 0.00170984 0.901 0 0 0
-0.108607 0.165253 0.449 255 255 255
0.29141 0.463083 2.121 255 255 255
-0.906683 -0.907372 2.469 255 255 255
-0.381432 -0.0117794 0.924 255 255 255
0.345493 0.247892 2.374 255 255 255
-0.653153 -0.1834 1.313 255 255 255
0.1805 -0.126957 2.615 0 0 0
0.927585 -0.843059 2.294 0 0 0
-1.04201 -0.713497 2.151 0 0 0
-0.223638 -0.320964 1.748 0 0 0
0.829803 -0.40714 1.637 255 255 255
