ply
format ascii 1.0
comment Created by Open3D
element vertex 1332
property double x
property double y
property double z
property uchar red
property uchar green
property uchar blue
end_header
0.947669 0.35046 1.991 255 255 255
0.404773 0.615619 1.734 255 255 255
-0.265727 0.0478712 0.861 255 255 255
0.0874188 -0.529215 2.114 255 255 255
-0.389072 -0.0260245 0.95 0 0 0
-0.223054 -0.485907 1.941 255 255 255
0.262685 -0.240373 1.805 255 255 255
-0.242332 -0.00119818 0.883 0 0 0
-0.819896 -0.420306 1.821 0 0 0
-0.0367951 -0.119319 1.362 255 255 255
0.561932 0.0762904 2.731 255 255 255
0.657364 -0.671584 2.582 255 255 255
-0.47748 -0.25003 1.539 255 255 255
-0.28379 0.222272 0.669 255 255 255
0.374425 -0.705576 2.411 255 255 255
0.998658 -0.866838 2.338 255 255 255
0.939715 0.300252 1.842 255 255 255
0.633061 0.0451808 2.731 0 0 0
-0.504073 -0.0548936 0.997 255 255 255
-0.229607 -0.911978 2.449 255 255 255
-0.50868 -0.144318 1.252 255 255 255
0.0624031 0.190963 0.792 255 255 255
-0.413083 0.0619802 0.825 255 255 255
0.123788 0.0930053 1.036 255 255 255
0.455137 -0.667763 2.402 0 0 0
-0.351758 -0.18472 1.354 255 255 255
-0.159722 0.0291014 0.74 255 255 255
0.830504 -0.140952 2.638 255 255 255
1.1071 -0.685748 2.383 255 255 255
0.973306 -0.284519 2.54 255 255 255
-0.246686 0.110677 0.73 255 255 255
-0.215302 0.223443 0.666 0 0 0
-0.426904 0.0184475 0.861 255 255 255
-0.0189996 0.150762 0.456 255 255 255
0.701095 0.049407 2.719 0 0 0
-0.262161 0.0983643 0.754 255 255 255
1.08424 0.0699783 2.66 255 255 255
-0.916493 -0.449507 1.784 255 255 255
-0.247501 0.203282 0.671 255 255 255
-0.0410779 -0.105631 1.357 255 255 255
-0.347539 -0.108368 1.237 255 255 255
-0.0813771 0.0673504 0.825 0 0 0
0.303434 0.48576 2.085 255 255 255
-0.463906 -0.0124168 0.974 255 255 255
0.278606 0.58729 1.794 255 255 255
0.841663 -0.303115 2.593 255 255 255
0.819461 0.00941892 2.672 255 255 255
0.0903452 0.0851345 0.984 255 255 255
0.849642 -0.614067 2.469 255 255 255
-0.442257 -0.947354 2.479 255 255 255
-0.205672 0.0680936 0.745 255 255 255
0.407449 0.464995 2.114 0 0 0
-0.128746 0.0721158 0.749 255 255 255
-0.172649 0.18965 0.673 255 255 255
-0.339207 -0.33976 1.686 255 255 255
0.18672 -0.404315 1.899 255 255 255
0.707812 -0.737579 2.479 255 255 255
0.962037 0.258856 2.479 255 255 255
0.40659 0.59396 1.779 255 255 255
-0.303958 0.267718 0.685 255 255 255
0.464692 -0.576101 2.411 255 255 255
0.810034 0.0880807 2.684 0 0 0
-0.806105 -0.355727 1.71 255 255 255
1.06141 -0.117948 2.604 255 255 255
-1.46751 -1.10213 2.884 255 255 255
0.0322389 -0.171922 1.375 0 0 0
-0.769659 -0.52381 1.941 0 0 0
-0.257654 0.245135 0.669 255 255 255
-0.562905 -0.177626 1.302 0 0 0
0.440599 0.368905 2.286 255 255 255
1.13291 -0.14122 2.356 255 255 255
-0.419192 -0.0513897 0.992 0 0 0
0.509476 0.565079 1.826 255 255 255
-0.633913 -0.74948 2.519 255 255 255
0.813856 0.30516 2.228 255 255 255
-0.830953 -0.48958 1.859 255 255 255
-0.216272 0.208119 0.669 255 255 255
-0.408227 0.0371306 0.872 0 0 0
-0.282043 0.051945 0.815 255 255 255
0.936527 -0.229876 2.53 255 255 255
-0.314503 -0.375832 1.865 255 255 255
0.628615 0.0229596 2.731 255 255 255
0.0477179 0.129577 0.828 255 255 255
0.643784 0.626096 1.724 255 255 255
-0.0104021 0.0873194 0.47 0 0 0
0.954965 0.184465 2.626 255 255 255
0.015345 0.164696 0.76 255 255 255
0.764098 0.027163 2.707 0 0 0
-0.370181 -0.168058 1.31 0 0 0
0.338723 0.616886 1.714 255 255 255
0.341628 0.34061 2.374 255 255 255
1.02675 -0.267726 2.499 255 255 255
0.356211 0.460626 2.158 255 255 255
-0.45486 -0.0425758 0.975 255 255 255
0.79299 0.558721 1.815 0 0 0
-0.134515 0.019836 0.754 255 255 255
0.012042 -0.195677 1.369 255 255 255
-0.380651 -0.200507 1.387 255 255 255
-0.291782 0.0362508 0.82 255 255 255
-0.985579 -0.990672 2.672 255 255 255
-0.149327 -0.864949 2.44 255 255 255
-0.552511 -0.0997621 1.118 255 255 255
0.182024 -0.0526319 1.357 255 255 255
-0.520323 -0.16352 1.291 255 255 255
-0.322814 0.0892914 0.782 255 255 255
-0.220259 0.106941 0.737 255 255 255
-0.142023 0.215963 0.663 255 255 255
-0.15267 -0.912811 2.43 255 255 255
0.600155 0.489076 2.114 255 255 255
-0.14429 -0.252534 1.539 255 255 255
0.586752 -0.725476 2.479 255 255 255
-0.0790097 -0.65219 2.057 255 255 255
-0.363063 -0.372166 1.748 0 0 0
0.702121 0.547829 1.848 0 0 0
0.591611 -0.868139 2.449 255 255 255
0.00088784 -0.0677889 1.351 255 255 255
-0.0613595 0.00233798 1.232 255 255 255
-1.00708 -0.730601 2.365 255 255 255
0.710107 -0.627586 2.459 255 255 255
-1.3009 -1.02646 2.818 255 255 255
-0.132082 0.155141 0.69 255 255 255
1.09808 -0.103497 2.561 255 255 255
0.611204 0.294091 2.312 255 255 255
0.785808 -0.391287 2.509 255 255 255
0.674122 -0.343735 2.55 255 255 255
0.478666 0.173707 2.593 0 0 0
-0.154507 0.22069 0.661 255 255 255
-0.4766 -0.130917 1.222 0 0 0
-0.147885 0.193166 0.67 255 255 255
0.346802 -0.798208 2.383 0 0 0
-0.150472 0.121168 0.736 0 0 0
-0.675822 -0.175034 1.283 255 255 255
0.35598 0.633588 1.677 255 255 255
-0.178987 0.223853 0.664 0 0 0
-0.199523 0.221692 0.664 255 255 255
0.0867382 -0.32615 1.876 0 0 0
-0.84795 -0.469484 1.805 255 255 255
0.686517 0.575307 1.784 255 255 255
0.407596 0.535833 1.935 255 255 255
0.0711222 -0.0102891 1.308 255 255 255
1.14267 -0.586828 2.329 255 255 255
1.14267 -0.241933 2.329 255 255 255
1.18915 -0.715586 2.392 255 255 255
-0.415828 -0.124031 1.213 255 255 255
-0.206629 0.218024 0.666 255 255 255
0.902996 0.457308 1.859 255 255 255
-1.07548 -0.909517 2.626 0 0 0
-0.490236 -0.791149 2.561 0 0 0
0.206996 -0.320169 1.859 255 255 255
-0.176054 -0.0336963 1.044 0 0 0
-0.269611 -0.493851 1.935 255 255 255
-1.1987 -0.768913 2.672 0 0 0
0.173196 0.613647 1.705 255 255 255
-1.1186 -0.684814 2.449 255 255 255
-0.237747 0.164528 0.687 0 0 0
-0.338478 0.221298 0.676 255 255 255
-0.082178 -0.135873 1.308 255 255 255
-0.0118814 0.0892326 0.468 0 0 0
-0.0538867 0.1285 0.456 0 0 0
-0.00965752 0.0875051 0.471 0 0 0
0.367935 -0.35683 1.893 255 255 255
0.104741 0.112221 0.969 255 255 255
-0.00892858 0.0863373 0.473 0 0 0
0.625671 0.535135 1.899 0 0 0
-0.305659 -0.538915 1.985 255 255 255
-0.282301 -0.0246074 0.955 0 0 0
0.510401 0.62428 1.719 255 255 255
0.223109 -0.790225 2.43 255 255 255
0.3049 -0.299898 1.923 255 255 255
-0.250912 -0.0167135 0.948 255 255 255
-0.0519997 0.142043 0.459 0 0 0
-0.715389 -0.90938 2.638 0 0 0
0.0993902 0.109959 0.963 255 255 255
-0.69268 -0.45465 1.929 0 0 0
-0.116845 -0.0634601 1.225 255 255 255
0.331368 0.376368 2.356 255 255 255
0.496746 0.468074 2.128 255 255 255
0.0820453 0.158929 0.863 255 255 255
0.651831 0.55714 1.859 0 0 0
-0.167925 0.214884 0.663 255 255 255
-0.158555 0.188523 0.669 255 255 255
1.06251 -0.0898104 2.649 255 255 255
0.043391 0.14566 0.798 255 255 255
-0.264586 0.162292 0.687 255 255 255
0.540355 0.502818 2.044 255 255 255
0.604382 0.642278 1.7 255 255 255
0.278487 -0.742772 2.43 0 0 0
-0.289456 0.203155 0.667 255 255 255
0.211242 -0.936538 2.43 255 255 255
0.1879 -0.42242 1.911 255 255 255
-0.32119 0.236644 0.679 255 255 255
1.07906 0.0531142 2.479 0 0 0
0.738126 -0.455518 2.459 255 255 255
-0.254424 -0.373916 1.826 255 255 255
-1.2074 -0.764565 2.672 255 255 255
0.829774 0.583415 1.714 255 255 255
0.00648414 0.104261 0.474 0 0 0
0.772932 -0.85745 2.43 255 255 255
-0.691082 -0.240556 1.466 255 255 255
-0.376737 -0.125478 1.247 255 255 255
0.42739 0.0858163 2.615 0 0 0
-0.0652765 -0.531766 1.947 255 255 255
-0.711103 -0.447298 1.911 255 255 255
-0.351033 0.168137 0.679 255 255 255
0.906544 -0.808359 2.449 255 255 255
-0.540416 -0.495085 2.017 255 255 255
0.343849 0.223823 2.286 0 0 0
-0.10907 -0.171119 1.351 0 0 0
0.0773363 -0.57756 2.03 255 255 255
-0.693304 -0.982895 2.572 255 255 255
-0.405939 -0.94332 2.479 255 255 255
-0.111426 0.0225856 0.764 0 0 0
-0.154494 -0.0139721 1.096 255 255 255
0.278083 0.504485 2.024 255 255 255
0.0837059 -0.0453968 1.339 255 255 255
-0.350965 -0.120933 1.242 255 255 255
-0.164561 -0.208717 1.412 255 255 255
-0.538594 -0.141139 1.26 255 255 255
-0.0185413 0.129021 0.445 255 255 255
-0.149862 0.167149 0.684 255 255 255
-0.245806 -0.00119411 0.88 0 0 0
0.547291 0.459406 2.136 255 255 255
-0.0644465 0.117411 0.468 255 255 255
0.061451 0.0674517 0.983 255 255 255
0.068199 -0.107265 1.378 255 255 255
0.763717 0.640501 1.748 255 255 255
-0.0687431 -0.032389 1.257 255 255 255
0.552261 0.171068 2.684 255 255 255
-0.0781449 -0.363741 1.805 255 255 255
0.713916 -0.108468 2.684 255 255 255
0.280339 -0.405593 1.905 255 255 255
0.0809783 -0.0299412 1.33 255 255 255
-0.165432 0.199599 0.666 255 255 255
-1.37574 -0.971902 2.793 0 0 0
-0.27589 -0.0705282 1.036 0 0 0
0.486358 0.129621 2.731 255 255 255
-0.225166 0.0118139 0.889 255 255 255
-0.218077 0.184439 0.678 255 255 255
-0.268738 -0.911047 2.479 255 255 255
-0.0492775 -0.574349 1.941 255 255 255
0.948388 0.390754 1.859 255 255 255
0.112941 -0.0685887 1.324 255 255 255
-0.259354 0.116029 0.719 255 255 255
0.472541 0.239985 2.411 255 255 255
0.0530374 0.0404961 1.234 255 255 255
0.280339 0.536826 1.905 255 255 255
0.105096 -0.708651 2.356 0 0 0
-0.185656 -0.65046 2.128 255 255 255
-0.609873 -0.119123 1.165 255 255 255
-0.512829 -0.110904 1.139 255 255 255
0.733196 0.651622 1.71 255 255 255
-0.40611 0.049673 0.844 255 255 255
0.0682506 0.374397 0.966 255 255 255
0.20343 0.545657 1.882 255 255 255
-0.462553 -0.170217 1.294 255 255 255
-0.163336 0.0507775 0.74 255 255 255
-0.41779 -0.0228119 0.945 255 255 255
-0.145257 -0.0186434 1.165 255 255 255
0.654573 0.572404 1.784 255 255 255
0.0890014 0.0640549 1.005 255 255 255
0.810034 0.083713 2.684 0 0 0
-0.326992 -0.231442 1.439 255 255 255
-0.408876 -0.0625782 1.044 255 255 255
0.519346 -0.234082 2.672 255 255 255
0.205995 -0.232392 1.724 255 255 255
0.883073 -0.0697509 2.707 255 255 255
-0.0046066 0.112043 1.09 255 255 255
-0.0462605 -0.550777 1.947 255 255 255
0.225289 -0.81151 2.411 255 255 255
-0.821418 -0.464329 1.831 255 255 255
-0.138599 0.248222 0.657 0 0 0
-0.835741 -0.794549 2.338 0 0 0
-0.773245 -0.305534 1.607 255 255 255
-0.298936 0.00171174 0.902 255 255 255
-0.367061 -0.951176 2.489 255 255 255
0.423094 0.229066 2.42 255 255 255
0.0674422 0.193027 0.806 0 0 0
-0.717751 -0.634867 1.972 255 255 255
-0.387674 -0.807104 2.572 0 0 0
-0.441359 -0.066583 1.002 0 0 0
0.543773 -0.780462 2.449 255 255 255
0.879158 0.0752848 2.695 0 0 0
-0.2746 -0.0719578 1.057 255 255 255
-0.0178569 0.112618 0.446 0 0 0
0.010854 -0.484037 1.959 255 255 255
-0.0353601 0.117235 0.447 255 255 255
-0.226426 0.113615 0.726 255 255 255
-0.120603 0.105053 0.767 255 255 255
1.07987 0.233408 2.509 255 255 255
1.12296 -0.209552 2.392 0 0 0
0.0283641 0.122528 0.854 255 255 255
-0.16707 0.130872 0.73 255 255 255
0.346186 0.511041 2.037 255 255 255
1.08368 0.122463 2.269 255 255 255
-0.28663 0.0729341 0.784 255 255 255
0.452704 0.181048 2.519 0 0 0
1.14363 -0.37854 2.479 255 255 255
-0.359486 0.134 0.691 255 255 255
-0.143262 -0.282876 1.612 255 255 255
-0.298791 0.0675736 0.796 255 255 255
-0.184648 0.167393 0.685 255 255 255
-0.140803 -0.881176 2.43 255 255 255
-0.317988 0.258422 0.684 255 255 255
-0.750607 -0.969344 2.626 255 255 255
0.233336 -0.177734 1.659 255 255 255
0.939309 0.315124 1.859 255 255 255
-0.195707 0.0631593 0.744 255 255 255
-0.331528 0.261433 0.689 255 255 255
-0.278006 0.161174 0.687 255 255 255
-0.263185 0.192649 0.672 255 255 255
0.379145 0.435183 2.189 255 255 255
0.17098 -0.932684 2.42 255 255 255
0.514116 -0.677067 2.479 255 255 255
-0.277042 -0.0133262 0.927 255 255 255
-0.0323769 0.114069 0.446 255 255 255
-0.322928 0.126995 0.702 0 0 0
-0.317107 -0.132093 1.252 0 0 0
-0.731309 -0.882996 2.649 0 0 0
0.733589 -0.925785 2.392 255 255 255
0.533831 -0.781565 2.44 255 255 255
-0.157163 0.0705183 0.745 255 255 255
-0.188204 -0.148304 1.305 255 255 255
1.07994 -0.0730362 2.383 0 0 0
-0.315761 0.164923 0.684 255 255 255
0.0136128 -0.416677 1.899 0 0 0
-0.358093 0.0698207 0.807 255 255 255
-0.0315532 0.0858179 0.466 0 0 0
-0.184872 -0.223001 1.445 255 255 255
-0.029985 0.000341226 1.262 255 255 255
-0.275275 0.173573 0.683 255 255 255
0.000903612 -0.160734 1.375 255 255 255
0.358167 0.419056 2.236 0 0 0
-0.821943 -0.307139 1.575 255 255 255
0.984421 0.150508 2.707 255 255 255
1.0562 -0.869678 2.356 255 255 255
-0.217565 0.199507 0.673 255 255 255
0.942776 0.147858 1.848 255 255 255
0.236179 -0.370322 1.899 255 255 255
0.560446 0.599542 1.753 0 0 0
-0.379301 -0.890814 2.572 255 255 255
-0.295105 -0.187337 1.357 255 255 255
-0.658805 -0.367363 1.794 255 255 255
-0.282436 -0.586872 2.051 255 255 255
0.876783 -0.444873 2.489 255 255 255
0.105932 0.21886 0.995 255 255 255
0.602103 0.509511 2.085 0 0 0
0.81006 -0.838975 2.411 255 255 255
-0.299088 -0.0463162 0.954 255 255 255
0.35456 -0.677992 2.383 255 255 255
-0.613734 -0.137508 1.21 255 255 255
0.0178662 0.158929 0.762 255 255 255
0.0398163 -0.480831 1.972 255 255 255
-1.46568 -0.920227 2.844 255 255 255
-0.831043 -0.937571 2.707 255 255 255
0.676911 -0.682529 2.499 255 255 255
0.818497 0.424646 2.136 255 255 255
0.455416 -0.728405 2.383 0 0 0
0.826187 -0.639591 2.459 255 255 255
0.129491 -0.396366 1.876 255 255 255
0.726879 0.530626 1.905 255 255 255
0.533394 -0.849983 2.42 255 255 255
-0.58445 -0.874072 2.572 255 255 255
-0.33264 -0.190803 1.366 255 255 255
1.15107 -0.332816 2.469 255 255 255
0.530398 0.499321 2.057 0 0 0
0.690409 -0.404369 2.489 255 255 255
-0.116448 0.0929901 0.781 255 255 255
-0.233844 -0.0838355 1.1 255 255 255
-0.372313 0.108647 0.709 255 255 255
-0.273874 -0.874218 2.489 255 255 255
0.0448584 0.189915 0.757 255 255 255
-0.106447 0.0228517 0.773 0 0 0
-0.334375 0.0530923 0.833 255 255 255
-0.336465 -0.0180443 0.937 255 255 255
0.117963 -0.367982 1.887 255 255 255
0.049838 0.17976 0.777 255 255 255
-0.34643 0.16357 0.683 255 255 255
0.436939 0.584275 1.821 255 255 255
-0.227162 0.24078 0.669 255 255 255
0.572118 0.196458 2.615 0 0 0
-0.421035 -0.370934 1.729 255 255 255
-0.316135 0.0751564 0.794 255 255 255
0.72863 0.217076 2.509 255 255 255
1.08478 0.0963834 2.672 255 255 255
-0.0667081 -0.0566367 1.297 255 255 255
0.906732 0.444134 1.842 255 255 255
-0.427888 -0.0791149 1.135 255 255 255
-0.0480344 0.160958 0.464 255 255 255
-0.6596 -0.568598 2.01 255 255 255
0.14897 -0.697382 2.383 0 0 0
0.757204 -0.774782 2.469 255 255 255
0.841209 -0.0340633 2.672 255 255 255
-0.269551 0.184167 0.677 255 255 255
0.0226255 -0.043121 1.336 255 255 255
-0.191338 0.174082 0.685 255 255 255
1.09962 -0.477277 2.489 255 255 255
-0.627787 -0.166682 1.283 255 255 255
-0.165823 -0.860169 2.449 255 255 255
-0.147376 -0.0804675 1.182 255 255 255
-0.181769 -0.852198 2.449 255 255 255
0.727151 -0.911978 2.449 255 255 255
0.00716129 0.266264 0.687 255 255 255
0.713714 0.378991 2.114 255 255 255
0.0820474 0.0621089 1 255 255 255
-1.25753 -1.00372 2.793 0 0 0
-0.427212 0.0239123 0.856 255 255 255
0.328109 0.457114 2.158 255 255 255
1.05906 -0.0595276 2.173 255 255 255
0.123537 0.0998683 1.02 255 255 255
-0.532112 -0.302235 1.646 255 255 255
0.21145 -0.398135 1.899 255 255 255
-0.149817 -0.0511346 1.171 255 255 255
0.473171 -0.288285 1.972 255 255 255
-0.690762 -0.930884 2.626 255 255 255
0.279303 -0.232677 1.837 255 255 255
-0.19272 0.182198 0.682 255 255 255
-0.55783 -0.082434 1.059 255 255 255
-0.925351 -0.982145 2.649 255 255 255
-0.299368 0.021151 0.857 255 255 255
-0.223993 -0.0684436 1.03 255 255 255
0.567489 -0.0942518 2.78 255 255 255
-0.565678 -0.161169 1.289 255 255 255
-0.174357 0.170488 0.684 255 255 255
-0.0939472 0.066195 0.795 255 255 255
-0.155582 0.181426 0.675 255 255 255
-0.140449 0.0303057 0.74 255 255 255
0.75532 -0.32457 2.53 255 255 255
0.68119 -0.476904 2.53 255 255 255
0.75714 -0.347884 2.55 255 255 255
-0.297947 0.168262 0.684 255 255 255
-0.138868 0.0314247 0.738 255 255 255
0.250798 -0.794179 2.43 255 255 255
-0.0448302 0.0903787 0.47 0 0 0
0.681644 0.401626 2.143 255 255 255
1.10686 -0.152012 2.469 255 255 255
-0.822133 -0.374153 1.744 0 0 0
-0.0396823 0.0873854 1.244 255 255 255
-0.004154 0.139631 0.456 0 0 0
1.04171 0.0712148 2.707 255 255 255
0.0118309 -0.0521665 1.345 255 255 255
-0.292698 0.150649 0.69 255 255 255
-0.267288 -0.5017 1.941 0 0 0
-0.00922693 0.118022 0.45 0 0 0
-0.53279 -0.132524 1.237 255 255 255
0.049296 -0.540155 1.966 255 255 255
0.503938 -0.917445 2.411 255 255 255
-0.0325735 0.15997 0.459 255 255 255
0.0747466 -0.0123132 1.297 255 255 255
0.663033 -0.231103 2.638 255 255 255
-0.444307 -0.0692865 0.994 0 0 0
0.587419 0.647133 1.691 255 255 255
0.191538 -0.179561 1.603 255 255 255
0.84097 0.512899 1.779 255 255 255
0.474811 -0.891278 2.383 0 0 0
0.0197176 0.241436 0.696 0 0 0
0.0233237 -0.282548 1.705 0 0 0
-0.179135 0.177498 0.681 255 255 255
0.675209 0.276324 2.42 255 255 255
0.0870279 0.206751 0.9 0 0 0
-0.249715 0.187472 0.677 255 255 255
0.746501 -0.0122669 2.66 255 255 255
0.932169 -0.746727 2.392 255 255 255
-1.32033 -0.711581 2.53 0 0 0
0.595553 -0.536128 2.499 255 255 255
0.490327 -0.54268 2.402 0 0 0
0.197153 0.634128 1.65 255 255 255
0.849267 0.18669 2.54 255 255 255
-0.565508 -0.127251 1.225 0 0 0
0.282196 -0.57171 2.269 255 255 255
-0.0288861 0.17295 0.472 255 255 255
0.00105566 0.110643 0.462 255 255 255
-0.29756 -0.144667 1.273 255 255 255
-0.166517 -0.0203938 1.059 255 255 255
0.932969 0.419661 2.044 255 255 255
-0.847101 -0.631437 2.044 0 0 0
0.632519 0.588618 1.763 255 255 255
-0.431327 -0.247612 1.509 255 255 255
-0.869979 -0.999531 2.638 255 255 255
-0.362335 0.131561 0.69 0 0 0
-0.364582 0.265181 0.69 255 255 255
0.11625 -0.0332135 1.289 255 255 255
0.894748 -0.239051 2.54 255 255 255
0.192293 -0.393796 1.893 255 255 255
0.653944 -0.521831 2.489 255 255 255
-0.155711 0.225769 0.657 0 0 0
0.740566 -0.902293 2.402 255 255 255
0.755161 0.147895 2.66 0 0 0
-0.0750602 -0.0365671 1.26 255 255 255
-0.233506 -0.478271 1.923 255 255 255
0.738321 0.314292 2.166 255 255 255
-0.651065 -0.838334 2.604 255 255 255
0.585233 -0.157155 2.695 255 255 255
-0.380942 0.0533472 0.837 255 255 255
-0.22934 0.239691 0.669 255 255 255
-0.234434 0.234985 0.668 255 255 255
-0.0170995 0.0719199 1.222 255 255 255
-0.213951 0.172103 0.686 255 255 255
0.000877983 -0.0474692 1.336 255 255 255
-0.344132 0.210146 0.672 255 255 255
0.74413 -0.410813 2.479 255 255 255
-0.226584 0.120709 0.719 0 0 0
-0.375164 -0.951176 2.489 255 255 255
-0.366646 0.0126511 0.952 255 255 255
-0.819 -0.815503 2.626 0 0 0
-0.446527 -0.0884814 1.01 0 0 0
-0.294533 0.140835 0.697 255 255 255
0.832006 0.640501 1.748 0 0 0
-0.330865 0.244707 0.683 255 255 255
-0.322928 0.12471 0.702 0 0 0
-0.206939 0.222693 0.667 255 255 255
-0.0294729 0.11044 0.446 255 255 255
-0.372185 -0.0445248 0.983 255 255 255
0.896706 0.0796704 2.695 0 0 0
0.373766 -0.299898 1.923 255 255 255
0.0784091 0.0764226 0.975 255 255 255
-0.473474 -0.0349623 0.984 255 255 255
0.541166 -0.58395 2.53 255 255 255
-0.103627 -0.555652 1.953 255 255 255
-0.313062 -0.430763 1.893 255 255 255
0.583307 0.54872 1.882 0 0 0
-0.487698 -0.0741997 1.017 255 255 255
-0.11707 -0.817906 2.43 0 0 0
0.889401 -0.685135 2.479 255 255 255
0.6548 0.386879 2.158 255 255 255
0.495966 -0.670317 2.469 255 255 255
-1.22962 -0.808112 2.731 255 255 255
0.530126 0.417127 2.151 255 255 255
0.534596 0.35592 2.228 255 255 255
-0.464299 -0.947126 2.489 255 255 255
0.737632 -0.887997 2.54 255 255 255
0.923629 -0.134675 2.684 255 255 255
0.752282 -0.710092 2.44 255 255 255
0.642258 -0.668983 2.572 255 255 255
0.749787 0.64198 1.729 255 255 255
-0.121793 -0.148084 1.322 255 255 255
-1.51303 -1.24811 3.266 0 0 0
-0.141376 0.232543 0.655 255 255 255
-0.720684 -0.960797 2.626 255 255 255
-0.0178412 0.000344742 1.275 255 255 255
-0.319172 0.102361 0.73 255 255 255
0.0765691 0.0491716 1.036 255 255 255
1.00246 -0.893471 2.338 255 255 255
-1.20922 -0.750543 2.638 255 255 255
-0.351368 0.0644301 0.822 255 255 255
-0.284788 0.0969279 0.762 255 255 255
-0.585698 -0.131057 1.205 255 255 255
0.0389017 0.181012 0.761 255 255 255
0.0886194 -0.912811 2.43 255 255 255
-0.481882 -0.0220153 0.912 255 255 255
-0.331138 0.230014 0.679 255 255 255
-0.231148 -0.368218 1.784 255 255 255
0.935111 -0.726954 2.43 255 255 255
-0.0249962 0.188361 0.486 255 255 255
-0.0808732 -0.508017 1.941 255 255 255
1.00269 0.345372 2.278 255 255 255
0.538877 0.400926 2.158 255 255 255
1.09783 -0.424203 2.44 255 255 255
0.0343045 -0.339326 1.848 255 255 255
1.14417 -0.163636 2.294 255 255 255
0.958645 -0.147117 2.672 255 255 255
-0.0384625 0.0905618 0.467 0 0 0
-0.331706 0.196144 0.669 255 255 255
-0.0963291 -0.088525 1.27 255 255 255
0.769261 -0.782818 2.469 255 255 255
0.667458 -0.560076 2.479 255 255 255
-0.358241 0.224159 0.678 255 255 255
-0.071919 0.12045 0.754 0 0 0
0.0528167 -0.530576 1.978 255 255 255
-0.00818515 0.112455 1.094 255 255 255
0.231096 0.602141 1.744 255 255 255
0.489904 0.206412 2.479 255 255 255
-0.423104 -0.922072 2.509 255 255 255
1.07655 0.198307 2.53 0 0 0
-0.274536 -0.211793 1.387 255 255 255
-0.314188 0.255822 0.683 255 255 255
0.822262 0.265182 2.356 255 255 255
0.53629 0.59267 1.758 0 0 0
0.0072251 0.142226 0.472 0 0 0
0.351882 0.354714 2.365 0 0 0
0.812749 0.45618 2.121 255 255 255
-0.313797 -0.0544754 0.961 255 255 255
0.105688 -0.799655 2.459 255 255 255
-0.0756687 0.0992176 0.78 0 0 0
0.2107 0.552868 1.865 255 255 255
1.0642 -0.32457 2.53 255 255 255
0.499967 -0.879074 2.392 255 255 255
-0.355914 0.2388 0.682 255 255 255
0.104324 0.0721422 1.027 255 255 255
-0.739099 -0.462847 1.911 255 255 255
-0.458948 -0.0889418 1.167 255 255 255
0.789655 0.572693 1.794 255 255 255
-0.1493 -0.0766205 1.182 255 255 255
0.113539 -0.193084 1.607 255 255 255
0.761223 -0.774782 2.469 255 255 255
0.115856 0.117041 0.983 255 255 255
0.0328751 0.129588 0.795 255 255 255
-0.32396 -0.127507 1.247 0 0 0
-0.231787 -0.444202 1.859 0 0 0
-0.264188 0.238602 0.669 255 255 255
0.00631998 0.124176 0.462 0 0 0
1.03374 0.258585 2.114 255 255 255
-0.454924 -0.833398 2.55 255 255 255
0.731269 0.314292 2.166 255 255 255
-0.191896 0.169 0.687 255 255 255
-0.675111 -0.317354 1.655 255 255 255
-0.172188 -0.201887 1.381 255 255 255
-0.166087 0.15649 0.696 255 255 255
0.464398 0.21815 2.43 255 255 255
-0.300415 -0.355321 1.853 255 255 255
0.158267 -0.0782835 1.381 255 255 255
0.976057 -0.121571 2.684 255 255 255
-0.563916 -0.540729 2.092 255 255 255
1.08273 -0.0833909 2.347 0 0 0
-0.0323044 0.126849 0.445 255 255 255
-0.311397 0.0418927 0.826 255 255 255
-0.282359 0.171601 0.684 255 255 255
0.203454 -0.42242 1.911 255 255 255
-0.0963806 0.0417205 0.773 0 0 0
0.505114 0.519683 1.899 0 0 0
-0.496433 -0.783602 2.55 0 0 0
1.07963 -0.247393 2.499 255 255 255
-0.0156905 0.0877094 0.468 0 0 0
-0.699566 -0.620138 1.966 255 255 255
-0.96401 -0.542915 2.024 255 255 255
-0.402937 -0.272171 1.551 255 255 255
1.06235 -0.699615 2.459 255 255 255
0.533813 0.55109 1.859 0 0 0
-0.154219 -0.180899 1.342 0 0 0
-0.418602 -0.911084 2.582 255 255 255
0.687817 0.124627 2.719 0 0 0
-0.262678 -0.215839 1.384 255 255 255
-0.366072 -0.00880056 0.927 255 255 255
0.0116957 0.100726 1.122 255 255 255
0.548843 0.285451 2.303 255 255 255
-0.0171205 0.114444 1.096 255 255 255
0.0252261 -0.869674 2.42 255 255 255
0.865806 -0.371321 2.54 255 255 255
0.889969 -0.256591 2.55 255 255 255
0.762337 -0.38566 2.499 255 255 255
0.535469 0.304594 2.278 255 255 255
0.517481 0.248831 2.383 255 255 255
0.0415513 -0.159879 1.387 255 255 255
-0.188668 -0.572422 1.978 255 255 255
-0.303724 0.102361 0.73 255 255 255
-0.350385 0.110954 0.709 255 255 255
-0.214506 0.0798942 0.742 255 255 255
0.0835184 -0.0887773 1.336 255 255 255
-0.334272 0.0468704 0.843 255 255 255
-0.71375 -0.286958 1.591 0 0 0
-0.70058 -0.19876 1.33 255 255 255
-0.586722 -0.835453 2.582 0 0 0
-0.000452315 0.100226 0.466 0 0 0
-0.352138 0.170347 0.679 255 255 255
0.645841 -0.558285 2.489 255 255 255
-0.692957 -0.414044 1.887 255 255 255
-0.112361 0.00790707 0.788 0 0 0
-0.00801419 -0.166716 1.369 255 255 255
-0.00120308 0.104855 0.463 0 0 0
0.312526 0.603244 1.739 255 255 255
-0.195655 0.196221 0.673 255 255 255
-0.345601 -0.280811 1.543 255 255 255
0.260626 0.615927 1.696 255 255 255
-0.125885 0.191789 0.669 255 255 255
0.921684 -0.463257 2.479 255 255 255
0.617531 0.536525 1.893 0 0 0
-0.296487 0.0143765 0.869 255 255 255
-0.37793 0.0463082 0.858 255 255 255
1.10057 -0.302663 2.519 255 255 255
-0.267293 0.0231507 0.88 255 255 255
-0.805364 -0.482106 1.842 255 255 255
-0.183551 -0.321234 1.719 255 255 255
-0.763588 -0.279355 1.535 0 0 0
0.437744 0.616659 1.753 255 255 255
0.0237459 -0.725967 2.278 0 0 0
0.772973 0.510642 1.935 255 255 255
-0.405462 -0.274695 1.551 255 255 255
0.116721 -0.230695 1.691 255 255 255
1.14879 -0.344993 2.499 255 255 255
0.357418 0.618229 1.71 255 255 255
-0.191164 0.207957 0.665 255 255 255
-0.166984 -0.154538 1.322 255 255 255
0.348033 -0.657477 2.365 255 255 255
0.608174 0.51283 2.071 255 255 255
1.05494 0.255469 2.303 255 255 255
0.33303 0.52486 1.941 255 255 255
-0.0114704 0.253408 0.665 255 255 255
0.364069 -0.569458 2.32 0 0 0
-0.818449 -0.978066 2.638 255 255 255
0.71148 -0.343735 2.55 255 255 255
-0.27253 -0.387442 1.848 255 255 255
-0.844406 -0.47373 1.81 255 255 255
-0.0255073 0.0448731 1.244 255 255 255
0.432754 -0.900948 2.43 0 0 0
-0.290217 -0.409216 1.865 255 255 255
0.222843 0.558938 1.865 255 255 255
0.805597 0.499501 1.953 255 255 255
-0.235468 0.129165 0.714 255 255 255
-0.564819 -0.0972419 1.11 255 255 255
0.056132 0.0779292 0.974 255 255 255
0.413671 -0.63103 2.411 0 0 0
-0.209301 -0.138309 1.291 0 0 0
-0.0500653 0.120073 0.455 0 0 0
-0.908626 -1.0167 2.638 255 255 255
-0.780776 -0.530227 1.953 255 255 255
0.537333 0.160025 2.719 255 255 255
-0.307197 -0.39026 1.876 0 0 0
-0.67062 -0.474735 1.947 0 0 0
-0.302841 -0.130056 1.252 0 0 0
0.650899 0.549834 1.865 0 0 0
0.109129 -0.0967976 1.357 255 255 255
0.298399 -0.360882 1.882 255 255 255
0.265404 -0.361841 1.887 255 255 255
-0.00889083 0.170284 0.471 0 0 0
0.539368 -0.17988 2.707 255 255 255
-0.357843 0.128192 0.69 0 0 0
-0.16037 -0.0521774 1.112 0 0 0
0.131838 -0.055451 1.319 255 255 255
-1.03414 -0.666359 2.383 0 0 0
-0.278073 -0.384937 1.865 0 0 0
-0.694779 -0.404875 1.859 255 255 255
-0.22403 0.151304 0.693 255 255 255
1.15386 -0.176622 2.269 255 255 255
-0.152661 0.0504344 0.735 255 255 255
-0.00995944 0.116557 0.45 255 255 255
0.218183 0.565079 1.826 255 255 255
0.664202 0.405114 2.143 0 0 0
-0.35517 -0.0607043 1.041 0 0 0
-0.0256154 -0.101214 1.357 255 255 255
-0.299935 0.16094 0.686 255 255 255
0.815431 0.447297 2.128 0 0 0
-0.380035 -0.00422884 0.917 255 255 255
-0.450958 -0.170612 1.297 255 255 255
-0.082165 -0.241781 1.459 255 255 255
-0.0432079 0.0940025 0.469 0 0 0
-0.750001 -0.497047 1.923 0 0 0
0.965094 0.371642 2.092 255 255 255
-0.293092 0.116888 0.71 255 255 255
0.269657 -0.599662 2.32 0 0 0
0.201539 -0.227722 1.71 255 255 255
0.969171 -0.193584 2.54 255 255 255
0.0676004 0.0270412 1.173 255 255 255
-0.0261906 0.143555 0.452 255 255 255
0.531761 0.330544 2.278 255 255 255
-0.153229 0.137186 0.732 255 255 255
-0.556937 -0.836993 2.561 0 0 0
-0.465453 -0.0973271 1.132 255 255 255
-0.0983964 -0.0637245 1.27 255 255 255
-0.336547 0.237341 0.681 255 255 255
-0.306791 -0.352253 1.837 255 255 255
0.351554 0.469633 2.151 255 255 255
0.149934 0.0437308 1.16 255 255 255
-0.138995 -0.384879 1.794 0 0 0
1.1599 -0.876348 2.303 255 255 255
0.348248 -0.720024 2.42 255 255 255
-0.189851 0.202373 0.668 255 255 255
0.238418 -0.429985 1.917 255 255 255
0.711944 -0.917445 2.411 255 255 255
0.624585 0.576443 1.815 255 255 255
-0.000649353 0.233159 0.669 255 255 255
0.42591 -0.951716 2.459 255 255 255
0.321703 0.589403 1.774 255 255 255
-0.0661714 -0.377169 1.799 255 255 255
0.538904 -0.497602 2.392 0 0 0
1.0229 0.118917 2.078 255 255 255
-0.150969 -0.0784111 1.18 255 255 255
-0.123337 0.19013 0.667 255 255 255
0.707812 -0.717408 2.479 255 255 255
0.872847 0.472619 1.947 255 255 255
-0.393415 0.0620553 0.826 255 255 255
-0.00820314 -0.545921 1.941 255 255 255
-0.00525745 0.0489219 1.244 255 255 255
-0.534045 -0.252444 1.494 255 255 255
-0.19711 0.0468301 0.754 255 255 255
-0.88207 -0.448247 1.779 255 255 255
1.01954 0.0928274 2.695 255 255 255
0.0156312 -0.00175996 1.297 255 255 255
-0.292416 -0.469212 1.899 255 255 255
0.40276 -0.773623 2.44 0 0 0
0.484462 -0.425914 2.166 255 255 255
0.42823 -0.281867 1.972 0 0 0
0.383067 0.452131 2.151 0 0 0
-0.130761 0.0989409 0.768 0 0 0
0.433462 0.0391703 2.626 0 0 0
0.183093 -0.262227 1.774 255 255 255
0.57718 0.545657 1.882 255 255 255
0.0701354 -0.102333 1.372 255 255 255
-0.0358769 0.174086 0.473 255 255 255
0.171232 -0.0615557 1.359 255 255 255
0.489904 -0.640759 2.479 255 255 255
0.929454 -0.351714 2.489 255 255 255
0.949735 0.310326 1.923 255 255 255
1.13217 -0.231696 2.42 0 0 0
0.657996 -0.862067 2.489 255 255 255
-0.138413 0.118533 0.742 255 255 255
-0.345617 0.0124518 0.937 255 255 255
-0.297056 0.204241 0.667 0 0 0
-0.417784 0.020863 0.905 0 0 0
-0.42247 0.0216693 0.878 0 0 0
1.04433 0.308812 2.338 255 255 255
-0.290003 0.0426611 0.815 255 255 255
-0.232155 0.166764 0.687 0 0 0
0.924381 -0.664983 2.392 255 255 255
1.09839 0.173166 2.356 255 255 255
0.436495 0.623434 1.748 255 255 255
0.463131 -0.0208377 2.649 255 255 255
0.709801 0.653146 1.714 255 255 255
0.877962 0.46007 2.017 0 0 0
-0.518477 -0.571836 2.158 255 255 255
0.640172 0.506144 2.044 255 255 255
0.853083 -0.677067 2.479 255 255 255
-0.323099 -0.0351888 0.947 255 255 255
1.05044 0.0190755 2.269 255 255 255
-0.129261 0.0748522 0.752 255 255 255
-0.460649 -0.230343 1.477 255 255 255
0.421303 -0.963491 2.479 255 255 255
0.706771 0.661643 1.7 255 255 255
0.941861 -0.439052 2.479 255 255 255
0.257853 -0.533206 2.158 255 255 255
0.692785 0.61157 1.763 255 255 255
-0.0149529 0.122779 0.446 255 255 255
0.787454 0.588564 1.789 255 255 255
-0.0339014 0.0837221 0.467 0 0 0
-0.26433 -0.51776 1.966 0 0 0
-0.220957 0.246591 0.67 255 255 255
0.291264 0.580441 1.837 255 255 255
0.316991 0.424808 2.228 255 255 255
0.925785 0.40167 1.972 255 255 255
0.0219142 -0.00386165 1.294 255 255 255
0.726616 0.521615 1.929 255 255 255
1.06504 -0.0140563 2.253 255 255 255
1.12315 -0.259876 2.32 0 0 0
0.233138 -0.858592 2.411 255 255 255
-1.26074 -0.87922 2.731 0 0 0
-0.466834 -0.318753 1.691 255 255 255
0.664232 -0.284975 2.66 255 255 255
-0.259022 -0.438152 1.859 255 255 255
0.810176 -0.555558 2.459 255 255 255
0.66577 -0.66318 2.582 255 255 255
0.0463771 -0.527358 1.978 255 255 255
0.00302458 0.148644 0.773 255 255 255
0.198006 0.0210932 1.275 255 255 255
0.682582 -0.646373 2.582 255 255 255
0.00545051 -0.135635 1.393 255 255 255
-0.459862 -0.926155 2.509 255 255 255
0.331522 0.189676 2.278 0 0 0
1.05286 0.295769 2.212 255 255 255
-0.225803 0.187749 0.678 255 255 255
0.0138848 0.117548 1.015 255 255 255
1.13723 -0.576655 2.365 255 255 255
0.193353 -0.0438633 1.359 255 255 255
0.781531 0.602136 1.769 255 255 255
0.418199 -0.66109 2.392 0 0 0
-0.401432 0.0283202 0.908 255 255 255
0.736279 0.465647 2.071 255 255 255
0.916916 -0.36126 2.499 255 255 255
-0.159645 0.254725 0.66 255 255 255
0.138546 -0.589095 2.338 0 0 0
0.140691 -0.0651534 1.342 255 255 255
0.0424499 0.270345 0.758 255 255 255
-0.232155 0.162292 0.687 255 255 255
0.212222 -0.233066 1.729 255 255 255
-0.31757 0.227898 0.676 255 255 255
-0.258531 0.183066 0.677 255 255 255
0.553999 -0.771644 2.459 255 255 255
-0.770576 -0.320985 1.646 255 255 255
-1.31218 -0.913846 2.755 255 255 255
-0.223705 0.193509 0.675 255 255 255
0.945866 0.403713 2.173 255 255 255
0.195519 -0.716772 2.383 0 0 0
-0.0376269 0.114581 0.448 255 255 255
-0.177991 -0.142259 1.308 255 255 255
-0.039298 0.155488 0.459 255 255 255
-0.00974137 -0.0271921 1.302 255 255 255
-0.78903 -0.929605 2.684 255 255 255
0.700648 -0.924509 2.44 255 255 255
-0.0368793 0.176739 0.476 255 255 255
0.734512 0.625217 1.753 0 0 0
0.424226 0.639046 1.677 255 255 255
-0.483295 -0.0513379 0.991 0 0 0
0.0853511 -0.583874 2.064 255 255 255
-0.107604 -0.00741809 1.189 255 255 255
0.477988 0.048771 2.684 255 255 255
-0.293183 -0.0525811 0.955 255 255 255
1.03903 -0.35454 2.509 255 255 255
0.48039 -0.29361 2.411 255 255 255
-0.0621066 0.180943 1.247 255 255 255
-0.00282736 0.244046 0.669 255 255 255
1.0907 0.0386781 2.593 0 0 0
0.568861 -0.546134 2.489 255 255 255
-0.670842 -0.922729 2.615 255 255 255
-0.144759 -0.873267 2.43 255 255 255
0.968385 0.206584 2.582 255 255 255
0.620556 0.229686 2.469 255 255 255
0.729756 0.518476 1.929 255 255 255
0.520241 -0.679798 2.489 255 255 255
0.0119101 -0.0613292 1.354 255 255 255
0.43489 0.616659 1.753 255 255 255
0.148286 -0.351694 1.882 0 0 0
0.203331 -0.944447 2.43 255 255 255
-0.240624 -0.467594 1.905 0 0 0
0.672892 -0.0512251 2.66 255 255 255
0.674128 -0.511724 2.519 255 255 255
0.0650032 0.159986 0.825 255 255 255
-0.335906 0.0913644 0.757 255 255 255
-0.332612 -0.13381 1.249 255 255 255
1.0496 0.186853 2.66 255 255 255
0.252239 -0.156136 1.659 255 255 255
-0.151497 0.082304 0.753 255 255 255
0.322299 0.520406 1.972 255 255 255
0.434593 0.549867 1.929 255 255 255
-0.380797 -0.125478 1.247 255 255 255
0.792 -0.809359 2.44 255 255 255
-0.159722 0.0278972 0.74 255 255 255
0.579659 0.395363 2.166 255 255 255
0.0293725 0.14575 0.771 255 255 255
-0.851195 -0.431333 1.769 0 0 0
-0.00508417 0.0786323 1.203 255 255 255
0.0640893 -0.0802607 1.339 255 255 255
0.72151 -0.600413 2.43 255 255 255
0.897752 -0.138421 2.672 255 255 255
-0.412867 -0.0987747 1.171 255 255 255
0.392851 0.571078 1.865 255 255 255
0.364815 0.189943 2.374 255 255 255
0.253117 -0.374124 1.887 255 255 255
0.743835 -0.298563 2.519 255 255 255
0.757953 0.476926 1.978 255 255 255
0.0128708 0.162222 0.76 255 255 255
0.69167 -0.0596349 2.649 255 255 255
0.0281963 -0.341221 1.842 255 255 255
0.806398 0.649035 1.748 255 255 255
0.998677 -0.88118 2.356 255 255 255
-1.37936 -1.05926 2.857 255 255 255
0.828771 0.00504792 2.66 255 255 255
-0.601918 -0.136883 1.222 255 255 255
-0.401929 0.0522336 0.841 255 255 255
-0.280313 0.0608533 0.81 255 255 255
0.165956 -0.17732 1.583 255 255 255
0.870384 0.0928274 2.695 0 0 0
0.886229 -0.623585 2.459 255 255 255
-0.0064648 0.152746 0.462 0 0 0
0.493259 0.566495 1.821 255 255 255
0.443407 -0.831934 2.402 0 0 0
-0.369586 0.100122 0.731 255 255 255
0.304657 0.4096 2.244 255 255 255
-0.863218 -0.381084 1.724 0 0 0
0.498803 0.507878 2.051 0 0 0
0.948082 -0.256591 2.55 255 255 255
0.702564 -0.712201 2.489 255 255 255
0.0965305 -0.900948 2.43 255 255 255
-0.32636 -0.0801094 1.098 255 255 255
1.0717 0.237491 2.509 255 255 255
-0.647254 -0.453951 1.953 255 255 255
1.14278 -0.147083 2.269 255 255 255
-0.695974 -0.509587 1.947 255 255 255
-0.163234 -0.0712959 1.158 255 255 255
0.963994 -0.780633 2.365 255 255 255
-0.0490463 -0.925785 2.392 255 255 255
-0.0895918 0.248164 0.643 255 255 255
0.0408354 0.256849 0.751 255 255 255
0.00300018 -0.0295585 1.313 255 255 255
-0.744908 -0.554171 1.959 255 255 255
-0.288629 0.0621571 0.793 255 255 255
-0.732058 -0.47054 1.917 255 255 255
0.431417 0.625884 1.739 255 255 255
-0.473602 -0.20996 1.375 255 255 255
-0.747172 -0.268461 1.502 255 255 255
0.6514 0.526077 1.911 255 255 255
-0.256316 -0.187031 1.339 0 0 0
0.60357 -0.872125 2.449 255 255 255
-0.182229 0.21845 0.664 255 255 255
-0.251495 0.256404 0.67 255 255 255
-0.338115 0.267814 0.691 255 255 255
0.041202 0.135316 0.806 255 255 255
0.948595 0.343168 2.365 255 255 255
0.205599 -0.268102 1.794 0 0 0
0.698512 -0.748655 2.489 255 255 255
1.02991 -0.581768 2.402 255 255 255
0.837697 0.501117 1.748 255 255 255
0.754219 0.144214 2.672 0 0 0
-0.247853 0.230982 0.669 255 255 255
0.117963 -0.371053 1.887 255 255 255
-0.029985 -0.00992722 1.262 255 255 255
-0.0825077 -0.770872 2.347 0 0 0
0.693821 0.261648 2.43 255 255 255
-0.276924 -0.141628 1.283 255 255 255
-0.115486 0.111221 0.758 0 0 0
0.00716952 -0.0207078 1.294 255 255 255
-0.0547907 -0.388312 1.81 255 255 255
0.902282 0.450907 1.763 255 255 255
0.470777 -0.695125 2.402 0 0 0
0.89412 -0.26904 2.55 255 255 255
1.10796 -0.0940018 2.236 255 255 255
0.557095 -0.660762 2.509 255 255 255
-0.212087 0.196221 0.673 255 255 255
-0.346431 0.117688 0.701 255 255 255
1.06831 -0.32457 2.53 255 255 255
1.14562 -0.375613 2.312 0 0 0
-0.214608 0.179714 0.681 255 255 255
0.561179 -0.656679 2.509 255 255 255
0.632401 0.623054 1.739 0 0 0
0.943886 0.30163 2.402 255 255 255
0.903405 0.451448 2.099 0 0 0
-0.0579701 -0.182673 1.339 0 0 0
-0.348206 0.0928366 0.749 255 255 255
-0.759795 -0.717347 2.411 0 0 0
0.957982 0.0624044 2.707 255 255 255
-0.00500536 0.250578 0.669 255 255 255
0.479795 0.137901 2.719 255 255 255
0.511038 0.360837 2.236 255 255 255
-0.839677 -0.41694 1.769 255 255 255
0.525801 0.4942 2.092 255 255 255
0.343608 0.415417 2.236 0 0 0
-0.269223 0.136715 0.705 255 255 255
-0.199474 0.161878 0.69 255 255 255
-0.179797 -0.0473784 1.046 0 0 0
-0.836955 -0.343404 1.677 255 255 255
-0.508661 -0.139123 1.242 255 255 255
0.344277 0.568043 1.865 255 255 255
0.732981 0.613048 1.784 255 255 255
0.827519 0.544279 1.826 0 0 0
-0.0529234 -0.60199 1.959 255 255 255
0.399842 0.43766 2.166 0 0 0
0.290778 -0.615728 2.338 255 255 255
-0.158463 0.0913644 0.757 255 255 255
-0.217426 -0.0344121 1.015 255 255 255
0.629635 -0.521831 2.489 255 255 255
-0.357489 0.0439214 0.866 255 255 255
-0.0889941 0.0585796 0.797 255 255 255
0.825054 0.576488 1.71 0 0 0
0.815431 0.436908 2.128 255 255 255
-0.187634 0.229255 0.664 255 255 255
-0.282452 0.0997487 0.746 255 255 255
0.528169 0.527283 1.893 255 255 255
1.09656 -0.580025 2.411 255 255 255
0.0447555 -0.874286 2.411 255 255 255
-0.245973 -0.686175 2.269 0 0 0
0.885366 -0.717408 2.479 255 255 255
-0.39194 -0.200507 1.387 255 255 255
-0.309985 0.266993 0.686 255 255 255
-0.166417 0.0606562 0.743 255 255 255
-0.129949 -0.0412606 1.217 255 255 255
-0.185955 -0.085551 1.147 255 255 255
-0.207539 0.0812109 0.743 0 0 0
0.570213 -0.241553 2.707 255 255 255
-0.34008 0.175354 0.677 255 255 255
-1.08221 -1.02567 2.707 255 255 255
0.598625 0.551783 1.882 0 0 0
-0.234634 0.128183 0.715 0 0 0
-0.238373 0.000237669 0.879 0 0 0
-0.209358 0.0401176 0.791 255 255 255
0.000308214 0.148954 0.469 0 0 0
1.01257 0.265002 2.057 255 255 255
-0.588686 -0.387709 1.821 0 0 0
0.0665658 -0.0499777 1.345 255 255 255
0.838195 -0.559559 2.459 255 255 255
0.917361 0.409592 1.876 255 255 255
0.743163 0.097213 2.695 255 255 255
0.80757 -0.875182 2.392 255 255 255
0.125714 -0.586307 2.312 0 0 0
0.430973 0.225128 2.42 255 255 255
0.209017 0.527525 1.905 255 255 255
-0.199876 0.0621151 0.746 255 255 255
0.124301 -0.594594 2.286 255 255 255
0.705688 -0.647866 2.43 255 255 255
0.513729 0.599257 1.769 0 0 0
-0.733508 -0.960797 2.626 255 255 255
1.12616 -0.880096 2.303 255 255 255
0.811102 -0.356184 2.55 255 255 255
0.037044 -0.920869 2.42 255 255 255
-0.463361 -0.213313 1.412 0 0 0
0.752041 0.660087 1.696 255 255 255
-0.036182 0.0928417 0.467 0 0 0
-0.246764 0.204853 0.669 255 255 255
0.253922 -0.378394 1.893 255 255 255
0.559183 0.595531 1.758 0 0 0
0.909042 0.441759 1.923 0 0 0
-0.773281 -0.628024 1.991 255 255 255
0.0659263 0.113464 0.892 255 255 255
0.633078 0.321853 2.269 255 255 255
0.862956 -0.103635 2.672 255 255 255
-0.584189 -0.1316 1.21 255 255 255
0.594705 -0.563364 2.53 255 255 255
-0.0358721 0.0980741 0.463 255 255 255
-0.45253 -0.959604 2.469 255 255 255
-0.112896 0.0550516 0.749 255 255 255
1.14768 -0.232345 2.347 255 255 255
0.0812012 -0.121143 1.409 255 255 255
-0.429027 0.0144095 0.871 255 255 255
0.31577 -0.697382 2.383 0 0 0
0.317052 0.634887 1.659 255 255 255
-0.164763 0.11355 0.741 255 255 255
0.0295255 0.213985 0.714 255 255 255
0.978073 -0.493478 2.489 255 255 255
-0.0495826 -0.102737 1.348 255 255 255
0.0209559 -0.191222 1.369 255 255 255
0.38268 -0.588201 2.365 0 0 0
1.08187 0.118347 2.582 255 255 255
-0.4203 -0.147524 1.262 255 255 255
0.427416 0.578545 1.831 255 255 255
0.845479 0.636353 1.729 0 0 0
-0.371918 -0.378229 1.763 255 255 255
0.239716 0.515392 1.953 255 255 255
-0.495023 -0.109833 1.128 255 255 255
-0.056132 0.0975241 0.475 255 255 255
-0.205468 -0.366753 1.763 255 255 255
0.0846638 -0.873267 2.43 255 255 255
0.839294 0.530409 1.705 255 255 255
-0.270111 0.170488 0.684 255 255 255
0.304464 0.631385 1.664 255 255 255
0.724546 -0.493361 2.509 255 255 255
0.242886 -0.774407 2.43 255 255 255
-0.0811232 -0.541272 1.947 255 255 255
-0.224109 0.110677 0.73 255 255 255
-0.305113 0.20346 0.668 255 255 255
0.0980764 -0.0363521 1.327 255 255 255
0.202648 -0.0350945 1.362 255 255 255
1.08007 -0.360052 2.519 255 255 255
0.808095 -0.154472 2.649 255 255 255
-0.301383 0.0714597 0.796 255 255 255
0.106476 -0.0405791 1.324 255 255 255
-0.248312 0.0755866 0.772 255 255 255
0.9191 -0.809359 2.44 255 255 255
-0.542681 -0.249511 1.491 255 255 255
-0.3415 -0.368218 1.784 255 255 255
-0.279453 0.0551335 0.823 255 255 255
1.03433 0.312116 2.151 255 255 255
-0.155825 0.13141 0.733 255 255 255
0.835354 0.647567 1.714 255 255 255
-0.363985 0.136249 0.691 255 255 255
0.00895332 0.0430209 1.249 255 255 255
-0.116258 0.067779 0.755 255 255 255
0.935684 0.308847 1.876 255 255 255
-1.43188 -0.866526 2.805 255 255 255
0.39549 -0.947551 2.469 255 255 255
-0.45094 -0.195737 1.354 0 0 0
0.111501 -0.466023 1.991 255 255 255
-0.214514 -0.161663 1.31 255 255 255
-1.31612 -1.0312 2.831 255 255 255
1.09037 -0.643593 2.459 255 255 255
-0.613152 -0.617526 2.261 255 255 255
0.0483302 0.11118 0.863 255 255 255
0.00963103 0.146838 0.477 255 255 255
-0.206776 0.0648026 0.749 255 255 255
0.749243 0.501135 1.947 255 255 255
0.396487 -0.683398 2.402 0 0 0
1.09714 -0.0693073 2.53 255 255 255
-0.193365 0.051395 0.749 255 255 255
1.12224 -0.547944 2.374 255 255 255
-0.042242 -0.872125 2.449 255 255 255
-0.0252859 0.104607 0.449 255 255 255
-0.210599 0.0797865 0.741 255 255 255
-0.488605 -0.0937836 1.051 255 255 255
-0.143196 0.0150665 0.761 255 255 255
0.153806 -0.203127 1.646 255 255 255
0.760711 0.0796704 2.695 255 255 255
0.034366 0.2257 0.718 0 0 0
-0.269054 0.259743 0.673 255 255 255
0.923874 -0.764429 2.411 255 255 255
0.98571 -0.288652 2.54 255 255 255
-0.394978 -0.0475785 0.98 255 255 255
1.10853 -0.60188 2.42 255 255 255
0.253808 0.602141 1.744 255 255 255
-0.81755 -0.960591 2.649 255 255 255
0.938265 -0.575566 2.459 255 255 255
0.0297737 0.253277 0.72 255 255 255
0.00308015 -0.0829938 1.348 255 255 255
0.106903 0.101661 0.989 255 255 255
-0.350127 0.132895 0.697 0 0 0
-0.253458 -0.0270655 0.988 255 255 255
-0.338443 0.129095 0.701 0 0 0
-0.160283 -0.0172031 1.075 255 255 255
0.0504266 0.109878 0.875 255 255 255
-0.346277 -0.495382 1.941 255 255 255
0.163775 -0.762544 2.43 255 255 255
-0.00192294 0.118593 0.455 255 255 255
-0.365903 0.107644 0.71 255 255 255
-0.291692 0.164049 0.685 255 255 255
1.15111 -0.5075 2.402 255 255 255
-0.164949 -0.0393877 1.06 0 0 0
0.340202 -0.353749 1.893 255 255 255
-0.333843 -0.351448 1.744 255 255 255
-0.160249 -0.194297 1.375 255 255 255
0.38547 0.512588 2.017 255 255 255
-0.213774 0.207808 0.668 255 255 255
0.323528 0.330268 2.383 255 255 255
0.890598 -0.644961 2.449 255 255 255
0.258213 -0.120234 1.612 255 255 255
-0.139243 0.234675 0.655 0 0 0
-0.0133476 -0.327574 1.784 0 0 0
0.915333 -0.790225 2.43 255 255 255
-0.378841 0.0747778 0.79 255 255 255
-0.0305992 -0.363267 1.774 255 255 255
-0.193293 0.151086 0.692 255 255 255
0.772333 0.549834 1.865 255 255 255
-1.40905 -0.998901 2.805 255 255 255
0.905832 -0.829963 2.374 255 255 255
0.167731 -0.770453 2.43 255 255 255
-0.243497 0.24078 0.669 255 255 255
-0.240597 0.223779 0.667 255 255 255
-0.213661 -0.856183 2.449 255 255 255
0.188745 -0.652473 2.347 255 255 255
0.485449 -0.289821 2.051 255 255 255
-0.375708 0.0352363 0.896 255 255 255
-0.37865 0.0726636 0.795 255 255 255
-0.196881 0.115977 0.726 255 255 255
-0.68609 -0.375073 1.789 255 255 255
-0.131272 0.0905447 0.771 255 255 255
-0.212443 0.15559 0.692 255 255 255
0.682372 0.335436 2.261 255 255 255
0.588544 -0.928746 2.42 255 255 255
0.398808 0.545027 1.923 255 255 255
0.0816771 0.0150166 1.13 255 255 255
1.09861 0.000695431 2.572 255 255 255
-0.329448 0.258438 0.687 255 255 255
0.442608 0.569566 1.87 255 255 255
0.00259345 0.0963518 1.135 255 255 255
0.867992 0.48621 1.696 255 255 255
-0.700149 -0.539603 1.941 255 255 255
-0.120296 0.0569521 0.742 255 255 255
-0.28992 0.0621571 0.793 255 255 255
-0.233066 -0.135364 1.283 255 255 255
0.704606 -0.214823 2.649 255 255 255
-0.336785 0.250247 0.686 255 255 255
0.957595 -0.353127 2.499 255 255 255
0.338268 0.521748 1.953 255 255 255
-0.19968 -0.463031 1.899 255 255 255
0.459295 -0.902912 2.383 0 0 0
-0.443734 -0.0680774 1 0 0 0
0.830902 0.119141 2.695 255 255 255
1.08493 -0.8726 2.303 255 255 255
-0.305496 -0.0197362 0.945 0 0 0
-0.324501 0.259178 0.686 255 255 255
-0.853629 -0.538923 1.997 255 255 255
0.636689 0.644167 1.705 255 255 255
-0.1838 0.166521 0.686 255 255 255
1.08417 -0.228876 2.519 255 255 255
0.604587 -0.061751 2.743 255 255 255
0.94385 0.319838 2.392 255 255 255
0.886229 -0.807659 2.459 255 255 255
-0.680128 -0.566619 1.947 255 255 255
0.011835 0.122255 0.472 0 0 0
-0.643007 -0.540145 2.051 255 255 255
0.21237 -0.199933 1.664 255 255 255
-0.0658993 0.0297398 1.205 255 255 255
-0.430744 -0.492165 1.966 255 255 255
0.68591 0.277466 2.43 255 255 255
0.143066 -0.268756 1.779 255 255 255
0.252472 -0.485062 2.03 255 255 255
-0.435138 -0.279892 1.595 255 255 255
0.699741 -0.773886 2.479 255 255 255
0.84322 0.176486 2.572 255 255 255
-0.686272 -0.615673 2.189 255 255 255
0.0101893 0.12248 0.467 0 0 0
1.19694 -0.657198 2.392 255 255 255
0.0633486 0.175539 0.804 255 255 255
0.169298 -0.142708 1.543 255 255 255
-0.0581767 0.110046 0.767 0 0 0
0.397781 0.452454 2.136 0 0 0
0.817909 -0.509402 2.411 255 255 255
1.14647 -0.549555 2.269 255 255 255
0.62374 -0.616961 2.582 255 255 255
-0.220765 -0.24484 1.449 255 255 255
-0.428599 0.0236051 0.845 0 0 0
0.681962 0.134065 2.731 255 255 255
-0.0158028 0.004505 1.278 255 255 255
-0.197659 0.227436 0.665 255 255 255
0.618684 -0.0917768 2.707 255 255 255
-0.549713 -0.962902 2.509 255 255 255
1.08748 0.0220769 2.626 255 255 255
0.235571 0.629132 1.637 255 255 255
-0.347734 0.143912 0.69 255 255 255
0.49971 0.07562 2.707 0 0 0
-0.327851 0.255829 0.686 255 255 255
-0.306401 -0.196964 1.378 255 255 255
-0.0109058 0.15026 0.459 255 255 255
-0.868143 -0.951538 2.672 255 255 255
0.812488 -0.774407 2.43 255 255 255
0.45748 0.642986 1.659 255 255 255
0.179985 -0.0252274 1.31 255 255 255
-0.251215 0.102314 0.747 255 255 255
0.935648 -0.634953 2.411 255 255 255
-0.21444 0.173827 0.684 255 255 255
-0.254003 0.145066 0.701 255 255 255
0.896706 0.097213 2.695 0 0 0
-0.569554 -0.495156 2.004 0 0 0
-0.501468 -0.0400222 0.952 255 255 255
0.640652 -0.883265 2.469 255 255 255
-0.482916 -0.347611 1.739 0 0 0
-0.269567 0.0487001 0.851 255 255 255
0.0383393 0.188159 0.75 255 255 255
0.129234 -0.187854 1.607 255 255 255
-0.192535 0.207186 0.666 255 255 255
-0.280699 0.134421 0.705 0 0 0
-0.0539712 -0.10493 1.348 255 255 255
-0.37351 -0.782814 2.561 0 0 0
1.07544 -0.0682564 2.649 255 255 255
0.338625 0.482196 2.114 255 255 255
-0.196281 0.21845 0.664 255 255 255
-0.269067 -0.457034 1.887 255 255 255
0.530793 -0.486279 2.356 0 0 0
0.00118948 -0.367694 1.81 255 255 255
-0.342412 0.0775448 0.792 255 255 255
-0.172 0.0291408 0.741 0 0 0
-0.0893811 -0.932583 2.43 255 255 255
-0.721308 -0.415286 1.865 255 255 255
-0.877006 -0.42987 1.763 0 0 0
1.14108 -0.542018 2.365 255 255 255
-0.178414 0.0951856 0.758 255 255 255
-0.728368 -0.623337 1.966 255 255 255
-0.49464 -0.942797 2.499 255 255 255
-0.256672 -0.806869 2.519 0 0 0
-0.470079 -0.233849 1.484 255 255 255
0.524693 -0.649824 2.53 255 255 255
-0.104869 0.0137608 1.18 255 255 255
0.719918 -0.439052 2.479 255 255 255
-0.245949 0.0261192 0.935 255 255 255
-0.465506 -0.00846828 0.892 255 255 255
-0.124537 -0.0270822 1.203 255 255 255
0.0222673 0.130679 0.786 255 255 255
-0.887028 -0.4595 1.789 255 255 255
1.04503 0.299245 2.383 255 255 255
-0.122889 0.0754494 0.758 0 0 0
-0.522338 -0.434658 1.87 255 255 255
0.721016 -0.605221 2.402 255 255 255
-0.25658 0.067444 0.81 255 255 255
-0.290538 -0.175742 1.336 0 0 0
-0.699917 -0.468883 1.923 255 255 255
-0.594148 -0.365315 1.784 255 255 255
0.814412 0.573868 1.753 0 0 0
0.0692567 -0.0146018 1.313 255 255 255
-0.111444 -0.366965 1.821 0 0 0
-0.188609 0.130155 0.726 255 255 255
