ply
format ascii 1.0
comment Created by Open3D
element vertex 1335
property double x
property double y
property double z
property uchar red
property uchar green
property uchar blue
end_header
-0.173942 0.110839 0.739 255 255 255
-0.611963 -0.159062 1.18 255 255 255
-0.305474 0.08194 0.761 255 255 255
0.213629 0.009088 1.081 255 255 255
0.566179 -0.338361 1.876 255 255 255
-0.195403 0.162405 0.712 255 255 255
0.79488 -0.296193 2.499 255 255 255
-0.418538 0.275597 0.802 255 255 255
0.107496 0.284656 0.747 255 255 255
-0.420347 -0.193993 1.327 255 255 255
0.280615 -0.680309 2.092 255 255 255
-0.0518812 0.256196 0.684 255 255 255
-0.757764 -0.543703 1.911 255 255 255
-0.051453 -0.0535888 1.068 0 0 0
0.385604 -0.184113 1.575 255 255 255
-0.588538 -0.626897 2.107 255 255 255
0.251862 0.0271977 1.102 255 255 255
1.00257 0.433844 2.064 255 255 255
0.0513314 0.0931493 0.461 255 255 255
-0.250297 -0.223369 1.403 255 255 255
0.283081 -0.412947 1.882 0 0 0
-0.109619 0.224758 0.69 255 255 255
1.11942 -0.44712 2.479 255 255 255
-0.258821 -0.0343228 0.966 0 0 0
0.122806 -0.067858 1.27 255 255 255
-0.339024 -0.531311 2.03 0 0 0
0.0219694 0.104696 0.459 255 255 255
1.14476 -0.584595 2.43 255 255 255
-0.204677 0.194905 0.708 255 255 255
-0.100758 0.0476996 0.768 255 255 255
-0.321751 -0.0112694 0.884 255 255 255
0.849152 0.639732 1.686 255 255 255
-0.284903 0.0854301 0.759 255 255 255
-0.505572 -0.180167 1.275 255 255 255
0.180264 -0.0883159 1.267 255 255 255
-0.362875 -0.0262355 0.904 255 255 255
0.359392 -0.233863 1.655 255 255 255
-0.421113 0.293568 0.812 255 255 255
0.772405 0.226842 2.356 255 255 255
1.1321 0.0425503 2.572 0 0 0
0.052603 0.111419 0.459 255 255 255
-0.239959 0.214884 0.717 255 255 255
-0.355912 0.0886657 0.755 255 255 255
-1.44515 -0.874558 2.831 255 255 255
-0.209288 -0.242475 1.435 255 255 255
-0.552724 -0.206115 1.308 255 255 255
0.749395 0.25368 2.356 255 255 255
0.0678356 -0.534935 1.947 255 255 255
0.0285688 0.112421 0.457 0 0 0
-0.109619 0.218021 0.69 0 0 0
-0.292713 -0.208353 1.336 255 255 255
-0.149082 0.112344 0.741 255 255 255
0.0456786 0.103496 0.457 0 0 0
0.790755 0.220012 2.365 255 255 255
0.948057 -0.798208 2.383 255 255 255
-0.0669591 0.157839 0.702 255 255 255
-0.363515 0.175541 0.738 255 255 255
-0.591617 -0.658533 2.143 255 255 255
-0.31938 -0.0413255 0.983 255 255 255
0.866784 0.507322 1.899 255 255 255
1.2594 0.0172882 2.55 255 255 255
0.181659 -0.264529 1.48 255 255 255
1.00617 0.466229 2.044 0 0 0
-0.049001 0.224266 0.675 0 0 0
-0.361464 0.288181 0.783 255 255 255
-0.773529 -0.577143 2.017 255 255 255
-0.0797524 0.170722 0.694 255 255 255
0.045732 -0.0874098 1.254 255 255 255
0.674454 0.481207 2.037 255 255 255
1.12901 0.275904 2.286 255 255 255
0.0778305 0.108149 0.481 0 0 0
-0.3399 0.266965 0.766 255 255 255
-0.189712 0.0710458 0.806 255 255 255
0.612888 0.549048 1.842 255 255 255
1.24479 -0.269347 2.44 255 255 255
-0.0389962 0.235648 0.673 0 0 0
0.362538 -0.0865648 1.406 255 255 255
-0.208373 -0.962727 2.53 255 255 255
-0.126451 -0.0968175 1.085 255 255 255
-0.378443 0.167361 0.739 255 255 255
0.959694 0.21393 2.383 255 255 255
0.943497 -0.784046 2.411 255 255 255
0.181149 0.0821522 0.932 255 255 255
-0.137386 -0.0120088 0.942 255 255 255
0.17325 0.197538 0.842 255 255 255
-0.905314 -0.493304 1.724 255 255 255
1.03319 -0.812168 2.356 255 255 255
-0.529663 -0.241135 1.387 255 255 255
0.954138 -0.473442 2.469 255 255 255
-0.177447 -0.246004 1.442 0 0 0
0.302763 -0.0693006 1.297 255 255 255
-0.451635 -0.0703456 0.923 255 255 255
0.592144 0.400176 2.173 0 0 0
0.138506 -0.126302 1.342 255 255 255
-0.386271 0.0068181 0.811 255 255 255
0.260555 -0.132794 1.387 255 255 255
-0.0559387 0.124738 0.722 255 255 255
0.0116414 0.0431607 0.851 0 0 0
-0.31838 0.104044 0.742 255 255 255
0.160052 0.120854 0.852 255 255 255
-0.314315 0.00465774 0.904 0 0 0
0.144787 -0.60199 1.959 255 255 255
0.228961 -0.344007 1.794 255 255 255
-0.421977 -0.577157 2.064 0 0 0
0.149719 -0.875686 2.459 0 0 0
-0.0338707 0.030879 0.754 255 255 255
0.0360356 0.144519 0.467 255 255 255
-0.372623 0.0615542 0.754 255 255 255
-0.519054 -0.345308 1.673 0 0 0
0.874498 0.455537 2.071 0 0 0
0.527223 -0.801223 2.392 255 255 255
-0.3082 -0.737887 2.44 255 255 255
0.743664 0.533619 1.81 0 0 0
1.08992 0.168046 2.449 255 255 255
1.02949 0.201532 2.374 255 255 255
0.0138704 0.11465 0.463 255 255 255
0.953457 0.497975 1.887 255 255 255
-0.304194 0.119644 0.734 255 255 255
-0.354821 0.152255 0.73 255 255 255
-0.38365 0.00158269 0.834 255 255 255
-0.0725536 0.175352 0.69 255 255 255
-0.0441212 -0.168828 1.316 0 0 0
-0.245237 -0.275595 1.528 255 255 255
1.11674 0.371063 2.189 255 255 255
-0.0510247 0.13124 0.719 0 0 0
-0.0155628 0.107663 0.759 255 255 255
0.410327 -0.378421 1.848 255 255 255
0.192228 0.0501597 0.989 255 255 255
-0.205231 -0.00575853 0.923 255 255 255
-0.773695 -0.479621 1.81 0 0 0
-0.0446657 -0.055534 1.072 255 255 255
0.379011 -0.425153 1.842 255 255 255
-0.295406 0.215216 0.73 255 255 255
0.822146 0.489611 2.017 0 0 0
0.489586 0.498087 1.923 255 255 255
0.398337 0.549337 1.794 255 255 255
0.0311422 -0.0865733 1.242 255 255 255
-0.355445 0.0227949 0.816 0 0 0
-0.4243 -0.00109641 0.808 255 255 255
1.03125 -0.184587 2.53 255 255 255
-0.337417 0.029071 0.844 255 255 255
0.0288851 -0.490813 1.887 255 255 255
-0.384129 -0.63239 2.173 255 255 255
0.898571 -0.541342 2.449 255 255 255
-0.374297 0.0195962 0.794 255 255 255
-0.426382 -0.0798801 0.947 255 255 255
0.419352 -0.348348 1.848 255 255 255
-0.178466 -0.503294 1.972 255 255 255
-0.330748 -0.149229 1.242 255 255 255
1.1918 -0.59044 2.374 255 255 255
-0.382042 0.0364515 0.768 0 0 0
0.651256 0.344065 2.294 0 0 0
0.948948 0.385509 2.057 255 255 255
-0.305 0.173362 0.719 255 255 255
-0.476405 -0.216323 1.345 0 0 0
0.584485 -0.846674 2.356 255 255 255
0.19901 -0.049229 1.171 255 255 255
-0.683995 -0.27485 1.375 255 255 255
-0.259873 0.229712 0.727 255 255 255
-0.22265 0.0516125 0.831 255 255 255
0.865997 0.0489709 2.695 255 255 255
-0.194255 -0.159418 1.275 0 0 0
0.0923775 0.0847373 1.104 255 255 255
-0.13102 -0.487553 1.935 0 0 0
1.14243 -0.598809 2.392 255 255 255
0.0263947 0.105213 0.458 255 255 255
0.454639 0.521156 1.882 255 255 255
-0.37961 0.0230882 0.781 255 255 255
-0.29628 -0.0558925 0.986 255 255 255
-0.103235 0.129796 0.724 255 255 255
0.838606 0.53744 1.774 0 0 0
-0.372805 0.136553 0.735 255 255 255
-0.410363 -0.444751 1.887 255 255 255
0.186808 -0.414821 1.81 255 255 255
0.0282069 0.0744911 0.476 0 0 0
0.160073 0.200576 0.81 0 0 0
0.110453 0.0159867 1.203 255 255 255
-0.132257 0.159413 0.709 255 255 255
-0.369187 0.213136 0.752 255 255 255
1.01418 -0.377944 2.449 255 255 255
-0.305848 0.142165 0.721 255 255 255
-0.12314 -0.157217 1.291 255 255 255
-0.32868 -0.250786 1.416 255 255 255
0.694794 -0.445808 2.078 255 255 255
0.480478 0.463036 2.03 0 0 0
0.153524 0.000317162 1.173 255 255 255
-0.264456 -0.14542 1.244 255 255 255
0.156358 -0.175299 1.384 0 0 0
-0.072133 0.188848 0.686 255 255 255
0.0271554 -0.409457 1.774 255 255 255
-0.0523264 0.155072 0.705 0 0 0
-0.212628 0.0280913 0.856 255 255 255
-0.0892203 0.11201 0.755 255 255 255
-0.910992 -0.948501 2.818 255 255 255
0.0515083 -0.514294 1.929 255 255 255
0.94308 -0.649138 2.42 255 255 255
-0.249342 0.0077765 0.925 255 255 255
0.102362 0.0501764 1.135 255 255 255
-0.0814869 -0.153726 1.297 0 0 0
-0.618406 -0.343893 1.579 0 0 0
0.508426 0.465258 1.997 255 255 255
0.094949 -0.0630722 1.257 255 255 255
-1.3679 -1.17595 3.117 255 255 255
-0.266443 0.267053 0.742 255 255 255
0.94135 0.0613209 2.66 255 255 255
-0.491695 -0.120302 1.015 255 255 255
1.05184 -0.102244 2.53 255 255 255
-0.580654 -0.17446 1.249 255 255 255
0.491613 -0.283497 1.837 255 255 255
-0.416537 -0.0831346 1.068 255 255 255
0.307764 -0.166231 1.484 255 255 255
0.00500352 0.094645 0.48 0 0 0
-0.0221833 -0.408235 1.794 255 255 255
-0.0326001 0.0173589 0.753 255 255 255
0.191628 -0.0747462 1.247 255 255 255
1.18521 -0.499646 2.44 255 255 255
-0.0982263 -0.038958 0.964 0 0 0
0.847821 0.0315682 2.707 255 255 255
-1.45474 -1.11906 3.231 255 255 255
-1.46848 -1.16386 3.181 255 255 255
-0.283098 -0.0436189 0.963 255 255 255
0.542829 0.47015 2.004 255 255 255
0.574139 -0.201026 1.966 0 0 0
0.733224 -0.313944 2.329 255 255 255
-0.25689 0.0500787 0.828 255 255 255
0.930302 -0.10479 2.593 255 255 255
1.06443 0.23332 2.383 255 255 255
0.672031 0.594754 1.739 0 0 0
0.745194 0.496323 1.953 255 255 255
0.0583276 -0.547608 1.947 255 255 255
-0.0677819 -0.893492 2.509 255 255 255
0.506503 0.556165 1.826 255 255 255
0.269398 -0.0926604 1.299 255 255 255
0.496999 0.630017 1.612 255 255 255
1.12438 -0.588995 2.499 255 255 255
-0.16922 0.261623 0.714 255 255 255
-0.285854 0.111586 0.736 255 255 255
-0.422588 -0.899649 2.66 255 255 255
1.04944 0.173932 2.42 255 255 255
-0.266382 0.0273533 0.877 255 255 255
-0.0333662 -0.656382 2.136 255 255 255
0.145123 -0.943861 2.449 255 255 255
0.831406 0.616657 1.729 255 255 255
-0.379288 -0.916964 2.66 255 255 255
0.335862 -0.117384 1.419 255 255 255
-0.378419 -0.00827841 0.872 255 255 255
-0.650097 -1.02146 2.743 0 0 0
-0.539968 -0.142621 1.126 255 255 255
0.218024 0.0672588 1.004 255 255 255
0.368679 -0.864732 2.374 255 255 255
-0.358628 -0.353647 1.7 255 255 255
-0.115736 0.182881 0.693 255 255 255
-0.287667 -0.0742727 1.018 255 255 255
-0.187866 -0.029331 0.957 255 255 255
-0.763781 -0.369992 1.459 0 0 0
0.323005 -0.0526175 1.302 255 255 255
1.24323 0.212993 2.509 255 255 255
0.105266 -0.123563 1.336 255 255 255
-0.433194 -1.02546 2.672 255 255 255
0.552744 -0.300472 1.947 0 0 0
0.563847 0.532045 1.899 255 255 255
1.03375 0.364021 2.107 255 255 255
-0.322555 0.209514 0.735 255 255 255
0.12394 0.103248 0.833 255 255 255
-0.264213 -0.923405 2.593 255 255 255
-0.500941 -0.65354 2.03 0 0 0
-0.0542662 0.262527 0.686 255 255 255
-0.0214233 0.0595761 0.793 0 0 0
-0.087749 -0.275263 1.473 255 255 255
-0.538007 -0.467729 1.893 255 255 255
0.627262 0.407267 2.136 0 0 0
0.903447 0.449822 2.03 255 255 255
1.20252 -0.485861 2.411 255 255 255
0.945474 0.114287 2.684 255 255 255
-0.219894 0.0927126 0.748 255 255 255
-0.245646 -0.418394 1.763 255 255 255
-1.44076 -1.01308 2.925 255 255 255
-0.0748669 0.141549 0.712 255 255 255
0.777328 0.378038 2.128 255 255 255
-0.240937 0.0695473 0.789 255 255 255
-0.299673 0.287892 0.762 255 255 255
0.68816 -0.918424 2.383 255 255 255
0.228813 -0.156821 1.4 0 0 0
0.0264892 0.149455 0.473 255 255 255
-0.489566 -0.933415 2.695 255 255 255
0.268328 -0.47302 1.953 255 255 255
0.878666 0.0227578 2.707 0 0 0
0.0450337 -0.647692 2.064 255 255 255
-0.576527 -0.667844 2.064 255 255 255
0.655591 0.57792 1.748 255 255 255
-0.218445 -0.182701 1.308 0 0 0
0.182492 -0.52387 1.953 255 255 255
0.0193199 0.0686097 0.824 0 0 0
0.461648 0.450638 2.064 255 255 255
0.319043 -0.437143 1.842 255 255 255
0.0186316 -0.214625 1.362 0 0 0
0.0729608 0.100273 0.809 255 255 255
1.21112 -0.474541 2.374 255 255 255
-0.157672 -0.511158 1.953 255 255 255
-0.375833 -0.185774 1.33 255 255 255
0.350581 -0.293982 1.774 255 255 255
-0.222661 0.281164 0.741 255 255 255
-0.286272 0.237896 0.734 255 255 255
-1.41558 -0.907229 2.818 255 255 255
0.515829 0.603548 1.7 255 255 255
0.457078 -0.660137 2.294 255 255 255
-0.17512 0.180311 0.705 255 255 255
-0.216103 -0.00277836 0.931 255 255 255
0.315543 0.0296411 1.201 255 255 255
1.20154 -0.314179 2.449 255 255 255
-0.325114 0.196209 0.73 255 255 255
0.0537764 0.0783642 0.476 0 0 0
0.7651 0.52645 1.826 0 0 0
-0.0105314 -0.38888 1.799 255 255 255
-0.361218 0.237978 0.761 255 255 255
0.36728 0.620217 1.607 255 255 255
-0.131906 0.254578 0.701 255 255 255
-0.216954 0.098679 0.738 0 0 0
-0.54303 -0.165398 1.242 255 255 255
0.128618 0.088418 0.874 255 255 255
-0.759485 -0.999249 2.719 0 0 0
0.0397029 -0.132621 1.257 255 255 255
1.12315 0.242253 2.32 255 255 255
-0.069654 0.135731 0.718 255 255 255
0.161581 0.0431802 1.098 255 255 255
-1.33929 -0.82226 2.719 0 0 0
0.0790373 0.230353 0.68 255 255 255
-0.0274909 0.0842011 0.782 255 255 255
-0.213385 -0.475287 1.911 0 0 0
0.970287 -0.343473 2.459 255 255 255
0.83491 0.510336 1.876 255 255 255
-0.630055 -0.30289 1.491 0 0 0
-0.13776 -0.954442 2.519 255 255 255
-0.354322 -0.0252027 0.92 255 255 255
-0.278395 0.0048793 0.947 0 0 0
-0.144001 0.161948 0.71 255 255 255
0.383 0.584182 1.7 255 255 255
0.926004 -0.758711 2.469 255 255 255
0.827806 -0.914546 2.383 255 255 255
0.374194 0.618673 1.603 255 255 255
0.156399 -0.122731 1.327 255 255 255
0.0352754 0.141479 0.467 255 255 255
-0.59502 -0.312284 1.513 0 0 0
-0.203628 0.275424 0.729 255 255 255
-0.330264 -0.229353 1.384 255 255 255
-0.138357 0.190152 0.699 255 255 255
0.363341 -0.143039 1.494 255 255 255
0.31456 -0.0967976 1.357 255 255 255
0.85306 -0.11419 2.615 255 255 255
-0.00997877 0.0711339 0.807 255 255 255
0.16786 0.0412403 1.007 255 255 255
-0.0316534 0.197156 0.68 255 255 255
-0.240476 0.0417758 0.851 255 255 255
-0.0238536 0.0810002 0.788 255 255 255
1.16208 -0.577312 2.519 255 255 255
0.263459 0.0521143 1.098 255 255 255
-0.145157 0.164259 0.71 255 255 255
0.401929 -0.896092 2.365 255 255 255
-0.17307 0.173674 0.706 255 255 255
0.185492 -0.10663 1.289 255 255 255
-0.35779 -0.529741 2.024 255 255 255
-1.22631 -1.0929 3.055 255 255 255
0.414675 -0.781565 2.44 0 0 0
0.00164227 -0.950931 2.499 255 255 255
-0.918431 -0.834778 2.731 255 255 255
0.954212 0.013829 2.684 0 0 0
0.890966 0.467633 1.966 0 0 0
-0.177255 0.00305621 0.867 0 0 0
-0.355016 -0.643739 2.212 255 255 255
-0.389227 -0.19794 1.354 255 255 255
-0.187254 -0.606325 2.107 255 255 255
-0.389068 -0.350881 1.7 0 0 0
-0.0755516 -0.450893 1.887 255 255 255
0.990138 -0.31246 2.499 255 255 255
-0.170493 0.0628625 0.802 0 0 0
-0.473209 -0.0797016 0.927 255 255 255
-0.154403 0.161948 0.71 255 255 255
0.93254 -0.805964 2.383 255 255 255
-0.240236 0.0502602 0.831 255 255 255
1.11217 -0.584928 2.499 255 255 255
-0.0169844 0.211385 0.669 0 0 0
0.798808 0.538804 1.769 0 0 0
0.615756 0.58361 1.748 255 255 255
1.05393 -0.0295816 2.66 255 255 255
0.218599 -0.205908 1.393 0 0 0
1.27999 0.0333421 2.509 255 255 255
-0.682944 -0.290295 1.429 255 255 255
1.03563 -0.0875389 2.582 255 255 255
0.029717 -0.210192 1.362 0 0 0
-0.0615072 0.15163 0.705 255 255 255
-1.25382 -1.09395 3.086 255 255 255
0.897752 -0.0297151 2.672 0 0 0
-0.216507 0.189411 0.709 0 0 0
0.440005 -0.395799 1.859 255 255 255
0.0801259 -0.132421 1.316 0 0 0
-0.412571 -0.419157 1.842 255 255 255
0.577675 0.36247 2.269 0 0 0
-0.64062 -0.200561 1.247 255 255 255
-0.31778 -0.0461245 0.983 255 255 255
-0.0865084 0.161496 0.703 255 255 255
-0.381465 -0.181036 1.327 255 255 255
0.981289 -0.181897 2.55 255 255 255
-0.41974 -0.124518 1.128 255 255 255
0.0335709 -0.0286054 1.185 255 255 255
0.835882 0.382935 2.136 255 255 255
-0.239674 0.113672 0.734 255 255 255
-0.418273 0.270665 0.799 255 255 255
-0.0879055 -0.0106575 0.836 255 255 255
1.19803 -0.730304 2.402 255 255 255
0.424141 0.582274 1.744 255 255 255
-0.201952 0.13197 0.723 255 255 255
0.097498 0.101349 0.863 255 255 255
-0.0178827 -0.016875 0.808 0 0 0
-0.369431 0.0616358 0.755 255 255 255
1.15702 -0.772014 2.374 255 255 255
0.271705 -0.168179 1.459 255 255 255
-0.254778 -0.0871783 1.075 255 255 255
0.20858 0.0338015 1.03 255 255 255
-0.155273 0.147756 0.714 255 255 255
0.241443 -0.136714 1.381 255 255 255
-0.459192 -0.118704 1.108 255 255 255
1.0689 0.113217 2.561 255 255 255
-0.617748 -0.210714 1.297 255 255 255
-0.880178 -0.862819 2.793 0 0 0
0.128339 0.225392 0.748 0 0 0
-0.201162 0.142344 0.716 255 255 255
0.0147635 -0.117284 1.225 0 0 0
0.695503 0.590223 1.734 0 0 0
0.966341 0.187973 2.449 255 255 255
-0.381215 0.211249 0.754 255 255 255
0.908738 0.483946 1.929 0 0 0
-0.79324 -0.397829 1.52 255 255 255
-0.163412 0.182347 0.704 255 255 255
0.821834 -0.705576 2.411 255 255 255
-0.251338 0.0930845 0.751 255 255 255
1.07531 -0.639294 2.489 255 255 255
-0.343826 -0.289754 1.524 255 255 255
-0.135692 0.212293 0.697 255 255 255
0.134737 -0.124673 1.348 255 255 255
-0.231643 -0.399695 1.744 0 0 0
-0.682047 -0.293235 1.432 255 255 255
0.137846 -0.198379 1.357 255 255 255
1.1304 -0.431508 2.459 255 255 255
0.42876 -0.457423 1.876 255 255 255
0.480674 -0.371943 1.876 255 255 255
-0.458049 -0.0531075 0.886 255 255 255
0.731933 0.259482 2.374 0 0 0
0.455895 -0.495267 1.953 255 255 255
-0.228474 0.243238 0.725 255 255 255
0.127254 -0.111006 1.316 255 255 255
-0.0780983 -0.0173971 0.833 0 0 0
-0.431585 -0.466955 1.941 255 255 255
0.763343 0.280245 2.261 255 255 255
-0.404044 -0.312265 1.575 255 255 255
0.814856 -0.722487 2.402 255 255 255
-0.0199801 -0.00362933 0.787 0 0 0
-0.341534 -0.215255 1.366 255 255 255
-0.282073 0.257222 0.745 255 255 255
-0.385785 -0.181036 1.327 255 255 255
-0.252451 -0.17335 1.286 255 255 255
0.280425 -0.142785 1.419 255 255 255
0.774116 -0.870643 2.338 255 255 255
0.0386818 0.160593 0.481 255 255 255
-0.361332 0.133145 0.736 255 255 255
-0.213897 0.175318 0.708 255 255 255
0.42107 -0.198866 1.633 255 255 255
0.94834 -0.837689 2.374 255 255 255
1.19412 -0.417597 2.402 255 255 255
-0.245158 0.135312 0.722 255 255 255
-0.448128 -0.136185 1.149 0 0 0
0.0556619 -0.783604 2.374 0 0 0
0.25967 -0.0756453 1.262 255 255 255
0.71376 -0.89994 2.365 0 0 0
0.112794 -0.168546 1.348 255 255 255
1.20648 -0.199387 2.509 255 255 255
0.342257 -0.677308 2.181 255 255 255
0.697154 -0.895639 2.374 255 255 255
-0.23986 -0.432088 1.784 255 255 255
-0.452118 -0.550595 2.004 255 255 255
-0.379288 -0.925621 2.66 255 255 255
0.641127 0.53261 1.837 0 0 0
-0.35436 0.203604 0.744 255 255 255
-0.242402 -0.35918 1.7 255 255 255
-0.38217 -0.0971117 1.05 0 0 0
0.889798 0.53176 1.784 255 255 255
-0.427117 0.311519 0.821 255 255 255
-0.446567 -0.115098 1.108 255 255 255
1.09037 -0.467522 2.459 255 255 255
0.99586 0.378022 2.071 255 255 255
0.921647 0.231557 2.365 255 255 255
-0.165468 0.276687 0.723 255 255 255
-0.0167761 0.107521 0.758 255 255 255
-0.0164444 0.0733034 0.802 255 255 255
0.0212222 0.100215 0.459 255 255 255
-0.349045 0.112648 0.743 255 255 255
0.780561 0.263992 2.312 0 0 0
-0.413038 0.00414251 0.804 255 255 255
-0.270152 0.130155 0.726 255 255 255
-0.150306 -0.0261194 0.9 0 0 0
-0.129836 0.225881 0.69 255 255 255
-0.0926547 -0.806869 2.519 0 0 0
1.16245 -0.0414955 2.593 255 255 255
-0.280399 -0.905243 2.626 0 0 0
0.0049514 0.099843 0.475 0 0 0
-0.0125717 0.214773 0.666 255 255 255
0.401976 0.604306 1.664 255 255 255
0.210477 0.0739255 0.984 255 255 255
-0.354625 0.1801 0.737 255 255 255
0.572253 0.464488 2.051 255 255 255
0.447132 0.565009 1.779 255 255 255
0.138196 0.164375 0.776 255 255 255
-1.41793 -1.08751 3.231 255 255 255
0.744636 0.630663 1.655 255 255 255
0.139412 -0.0157313 1.234 255 255 255
-0.317663 -0.569457 2.085 255 255 255
0.604803 0.465647 2.071 0 0 0
-0.377564 0.0943839 0.742 0 0 0
0.80374 0.523478 1.826 0 0 0
-0.0578188 0.0648628 0.779 255 255 255
-0.382522 -0.0478152 0.923 255 255 255
0.123809 -0.438946 1.837 255 255 255
-0.305875 0.279212 0.762 255 255 255
-0.515519 -0.551431 1.972 0 0 0
-0.811773 -0.479235 1.734 255 255 255
-0.028501 -0.237133 1.39 255 255 255
-0.254708 0.275877 0.743 255 255 255
0.013315 0.0964975 0.47 0 0 0
-0.137489 0.0768594 0.785 0 0 0
-1.47654 -1.0962 3.165 255 255 255
0.037507 -0.121906 1.252 0 0 0
0.124307 0.139277 0.784 255 255 255
0.0186316 -0.216841 1.362 255 255 255
0.938061 -0.754693 2.469 255 255 255
0.0760792 0.0240946 1.217 255 255 255
-0.265335 0.237462 0.729 255 255 255
0.0239277 -0.159071 1.289 255 255 255
-0.0176614 0.0755351 0.798 255 255 255
0.0466782 0.141479 0.467 255 255 255
-0.249875 0.168198 0.712 255 255 255
0.112006 0.112997 0.825 255 255 255
-0.251034 0.179785 0.712 0 0 0
-0.303674 -0.00882904 0.93 0 0 0
0.184358 -0.0198869 1.128 255 255 255
-0.559757 -0.972886 2.695 0 0 0
0.363176 -0.451815 1.853 255 255 255
0.371883 -0.849983 2.42 255 255 255
-0.586018 -0.200088 1.283 255 255 255
-0.370601 -0.118061 1.102 255 255 255
0.045623 0.13453 0.464 255 255 255
1.13658 -0.560528 2.499 255 255 255
-0.357918 -0.387451 1.779 255 255 255
-0.210147 -0.461949 1.882 255 255 255
-0.182368 -0.0887865 0.995 0 0 0
0.348968 0.620217 1.607 255 255 255
-0.0529944 0.134975 0.714 255 255 255
-0.0326866 0.0321486 0.755 255 255 255
0.789716 0.501225 1.985 255 255 255
0.110773 -0.611048 1.978 255 255 255
0.0484482 0.101104 0.775 255 255 255
-1.43982 -0.933732 2.857 255 255 255
0.8639 -0.330343 2.365 255 255 255
0.107553 -0.630361 1.978 255 255 255
-0.0708093 0.245065 0.684 255 255 255
0.0293461 -0.183492 1.345 255 255 255
0.411265 -0.247779 1.714 255 255 255
0.998062 0.119559 2.519 0 0 0
-0.23609 0.112478 0.734 0 0 0
-1.23405 -0.899972 2.898 0 0 0
0.787486 -0.605221 2.402 255 255 255
-0.476715 -0.181527 1.27 255 255 255
0.473486 0.580765 1.748 255 255 255
-0.275715 0.205808 0.722 255 255 255
0.171728 -0.0476871 1.18 255 255 255
-0.597501 -1.0433 2.707 255 255 255
-0.042932 -0.809411 2.489 0 0 0
0.15869 0.185775 0.803 0 0 0
0.956294 0.250801 2.365 255 255 255
-0.584244 -0.301875 1.498 0 0 0
0.683795 0.308301 2.278 255 255 255
1.08747 -0.444873 2.489 255 255 255
-0.501182 -0.449698 1.882 255 255 255
-0.162362 -0.946244 2.519 255 255 255
-0.396839 0.00675084 0.803 255 255 255
-0.255576 0.0596086 0.811 255 255 255
0.01796 0.107409 0.766 0 0 0
-0.253615 -0.764857 2.489 255 255 255
-0.0289997 0.0321486 0.755 255 255 255
-0.329578 0.162831 0.719 255 255 255
0.840176 0.501216 1.923 255 255 255
-0.463626 -0.189607 1.297 255 255 255
-0.324969 0.073074 0.772 255 255 255
0.851508 0.556752 1.753 255 255 255
0.0843241 0.236078 0.687 255 255 255
-0.157234 0.209246 0.702 255 255 255
0.535528 -0.520119 2.051 255 255 255
-0.400722 0.25698 0.785 255 255 255
-0.496049 -0.590919 1.997 255 255 255
-0.290955 0.178042 0.719 255 255 255
-0.341506 0.300031 0.784 255 255 255
0.944476 -0.918818 2.374 255 255 255
0.449349 -0.824578 2.392 255 255 255
-0.19639 -0.508143 1.991 255 255 255
-0.00986992 -0.323298 1.686 255 255 255
0.0578322 0.0939575 0.465 255 255 255
-0.212091 0.0967989 0.742 0 0 0
-1.20186 -1.01826 2.982 255 255 255
0.296431 -0.460929 1.929 255 255 255
0.860678 0.486956 1.941 0 0 0
-0.209421 -0.0088765 0.935 255 255 255
0.592993 0.594988 1.748 255 255 255
-0.12149 -0.258244 1.419 255 255 255
-0.472899 -0.0692786 0.909 255 255 255
-0.114953 0.274362 0.702 255 255 255
-0.273168 -0.423892 1.774 255 255 255
-0.0705236 -0.255394 1.416 255 255 255
-0.045637 0.229418 0.674 255 255 255
0.18627 -0.153685 1.372 255 255 255
-0.154185 -0.0216532 0.897 0 0 0
-0.306381 0.0133949 0.898 255 255 255
0.176933 0.363769 0.967 255 255 255
-0.158845 0.127616 0.725 255 255 255
-0.0867609 0.0596385 0.777 255 255 255
-0.47591 -0.0953338 0.963 255 255 255
-0.0311012 -0.595624 1.991 255 255 255
-0.766102 -0.388249 1.603 255 255 255
0.518307 0.561518 1.805 255 255 255
-0.313161 0.301145 0.777 255 255 255
-0.311093 0.30037 0.775 255 255 255
0.00555599 0.192699 0.533 255 255 255
0.41574 -0.88118 2.356 255 255 255
0.863698 0.330795 2.136 255 255 255
-0.110099 0.138655 0.715 255 255 255
-0.0578768 0.224598 0.676 0 0 0
-0.084936 -0.358146 1.763 255 255 255
0.832194 0.573927 1.719 255 255 255
0.0443976 0.142999 0.467 255 255 255
-0.163929 -0.309093 1.559 255 255 255
-0.361871 0.0749012 0.765 0 0 0
-0.359183 -0.786373 2.519 255 255 255
0.0531177 0.119858 0.457 255 255 255
0.447478 -0.550943 2.092 255 255 255
0.000520481 0.0363018 0.792 0 0 0
-0.32031 0.260477 0.758 255 255 255
-0.128734 -0.193993 1.327 255 255 255
-0.329369 0.2257 0.745 255 255 255
-0.0230061 0.034835 0.76 255 255 255
-0.173167 -0.0143546 0.897 0 0 0
1.0763 -0.78587 2.269 255 255 255
-0.586251 -0.596885 2.051 255 255 255
-0.37223 0.0821982 0.741 255 255 255
0.205047 -0.0431778 1.162 255 255 255
-0.439312 -0.0954898 1.09 255 255 255
0.172424 -0.588798 1.947 255 255 255
-0.0899726 0.0466918 0.772 255 255 255
-0.24862 -0.0965411 1.102 255 255 255
1.15304 -0.0997563 2.572 255 255 255
0.866831 0.066242 2.684 255 255 255
0.998303 -0.20929 2.53 255 255 255
0.71383 0.0939305 2.604 0 0 0
-0.506645 -0.10818 0.98 255 255 255
-0.249866 -0.033022 0.974 0 0 0
-0.514159 -0.666754 2.03 255 255 255
-0.380204 0.205794 0.752 255 255 255
0.221964 -0.00876301 1.114 255 255 255
-0.0813612 0.151123 0.708 255 255 255
-0.339784 0.0523562 0.801 255 255 255
0.515844 -0.449246 1.893 255 255 255
0.0443826 -0.0511629 1.217 255 255 255
-0.048728 0.0100465 0.756 255 255 255
-0.599383 -0.265827 1.435 0 0 0
0.0319568 -0.487742 1.887 255 255 255
0.725508 0.492978 2.004 255 255 255
-0.418689 0.302611 0.815 255 255 255
-0.173639 0.0328768 0.836 255 255 255
1.12215 -0.127449 2.54 255 255 255
-0.324518 0.0971902 0.745 255 255 255
0.633925 -0.295042 1.953 255 255 255
-0.4119 -0.651295 2.189 255 255 255
-0.104974 0.203129 0.689 0 0 0
-0.144376 0.0286492 0.873 255 255 255
-0.334838 0.115962 0.741 255 255 255
0.0667728 0.0976114 0.798 255 255 255
1.13977 0.0507035 2.561 255 255 255
0.117444 -0.157928 1.351 255 255 255
-0.275642 -0.370378 1.753 255 255 255
-0.0344598 0.221514 0.67 0 0 0
-0.670446 -0.248043 1.339 255 255 255
-0.413071 0.266387 0.794 255 255 255
0.109414 0.211068 0.712 255 255 255
0.403023 -0.17732 1.583 255 255 255
-0.341801 0.0955287 0.751 255 255 255
0.0330947 0.114235 0.77 255 255 255
-0.291907 0.0327227 0.868 255 255 255
0.816169 -0.798208 2.383 255 255 255
0.800525 0.442883 2.107 255 255 255
-0.00836448 0.0179583 0.779 0 0 0
-0.166369 0.0549632 0.801 255 255 255
-0.253685 0.0630976 0.805 255 255 255
0.695655 0.557059 1.763 255 255 255
0.52391 0.569773 1.794 255 255 255
0.617095 -0.629865 2.32 255 255 255
-0.164096 0.108287 0.738 255 255 255
-0.641128 -0.334406 1.547 0 0 0
0.00493055 0.108659 0.473 0 0 0
-0.0943042 0.144617 0.71 255 255 255
-0.264807 -0.265308 1.498 255 255 255
-0.345469 0.226296 0.751 255 255 255
-0.335962 -0.069635 0.999 255 255 255
0.915505 -0.806663 2.42 255 255 255
0.46262 -0.688961 2.303 255 255 255
0.987092 -0.873 2.365 255 255 255
-0.21344 -0.0312111 0.967 0 0 0
-0.196589 -0.469212 1.899 0 0 0
-0.148859 -0.00737068 0.937 255 255 255
0.206304 -0.694715 2.064 255 255 255
-0.146256 -0.161419 1.291 255 255 255
0.388006 0.540055 1.842 255 255 255
0.0209211 0.138269 0.469 255 255 255
0.390925 -0.654363 2.236 255 255 255
0.131222 -0.572956 1.947 255 255 255
0.0192288 0.126496 0.465 255 255 255
-0.313549 0.227206 0.742 255 255 255
1.04164 -0.81239 2.402 255 255 255
-0.345134 0.218426 0.745 255 255 255
-0.218198 0.180823 0.707 0 0 0
-0.30671 -0.118176 1.055 0 0 0
-0.27691 0.192082 0.719 255 255 255
-0.165939 0.175722 0.705 255 255 255
-0.280023 0.0912508 0.746 255 255 255
0.279858 -0.446978 1.923 0 0 0
0.26044 -0.00344982 1.156 255 255 255
-0.349994 0.264257 0.769 255 255 255
0.380272 -0.911092 2.374 255 255 255
0.0585891 0.0947142 0.465 255 255 255
0.853083 -0.318027 2.479 255 255 255
0.985018 0.0985827 2.615 0 0 0
-0.191388 -0.381663 1.714 0 0 0
0.94737 0.156163 2.582 0 0 0
-0.356847 0.0643632 0.773 0 0 0
0.182512 0.0986295 0.916 255 255 255
-0.2689 -0.432088 1.784 255 255 255
1.23148 -0.00347513 2.561 255 255 255
0.0610052 0.0786934 0.478 0 0 0
-0.0860289 -0.0235042 0.858 0 0 0
-0.146864 -0.141076 1.278 0 0 0
-0.105822 -0.497 1.935 255 255 255
0.829683 -0.744811 2.411 255 255 255
-0.0849743 0.0943239 0.761 255 255 255
-0.383656 -0.0111037 0.871 255 255 255
0.970711 -0.659729 2.43 255 255 255
0.224805 -0.0276881 1.147 255 255 255
-0.556288 -0.156609 1.176 0 0 0
-0.223956 0.0286492 0.873 255 255 255
-0.0512972 -0.0947478 1.102 255 255 255
-0.339373 0.17839 0.73 255 255 255
-0.383462 -0.198379 1.357 255 255 255
0.734361 0.423713 2.114 0 0 0
-0.21661 -0.946259 2.53 255 255 255
0.584794 0.515251 1.917 255 255 255
-0.698538 -0.829769 2.43 255 255 255
-0.228288 0.219551 0.717 255 255 255
0.812569 0.0491889 2.707 255 255 255
-0.0541391 -0.583207 2.004 255 255 255
0.329207 -0.177216 1.516 255 255 255
-0.0923676 0.204775 0.687 255 255 255
-0.298775 -0.395452 1.789 255 255 255
0.556709 0.515251 1.917 255 255 255
0.980604 0.463114 1.947 255 255 255
-0.117032 0.246389 0.694 255 255 255
0.768151 -0.146456 2.66 0 0 0
1.11624 -0.218926 2.499 255 255 255
0.03452 0.0990342 0.457 255 255 255
0.673967 0.224712 2.374 255 255 255
-0.0677205 0.0262465 0.762 255 255 255
-0.18722 -0.1834 1.313 255 255 255
-0.255156 -0.00131623 0.97 255 255 255
0.0380722 0.117852 0.455 255 255 255
1.12696 -0.429245 2.469 255 255 255
-0.201443 0.242887 0.717 255 255 255
0.172282 -0.330735 1.696 255 255 255
-0.612242 -0.342188 1.583 0 0 0
0.257033 0.0695468 1.064 255 255 255
0.0251603 0.0785288 0.477 0 0 0
-0.686543 -0.291187 1.422 255 255 255
-0.0918833 -0.213837 1.357 0 0 0
0.455847 -0.460105 1.887 255 255 255
-0.223104 0.0743045 0.785 255 255 255
-0.119331 -0.0297264 0.921 0 0 0
0.302528 -0.218537 1.583 255 255 255
-1.13027 -0.947132 2.898 0 0 0
-0.262678 -0.132362 1.217 255 255 255
-0.268248 -0.123512 1.189 255 255 255
0.0263713 0.0842011 0.794 0 0 0
-0.905978 -0.906807 2.831 255 255 255
-0.227529 0.131788 0.722 255 255 255
0.095992 0.00033636 1.244 255 255 255
0.355566 -0.0521665 1.345 255 255 255
0.0881786 0.270175 0.709 255 255 255
1.03833 -0.379487 2.459 255 255 255
0.53571 -0.343416 1.887 255 255 255
-0.388128 -0.0771227 1.034 255 255 255
-0.0496543 0.252857 0.684 255 255 255
0.01181 0.0967028 0.471 0 0 0
0.833101 -0.172429 2.66 255 255 255
1.21387 -0.304326 2.499 255 255 255
-0.350068 0.146315 0.73 255 255 255
-0.452946 -0.0564335 0.893 255 255 255
0.160666 0.203965 0.813 0 0 0
0.498605 0.446932 2.078 255 255 255
0.558452 -0.446978 1.923 255 255 255
-0.487538 -0.869348 2.66 0 0 0
0.250798 -0.873267 2.43 0 0 0
-0.331412 0.170796 0.723 255 255 255
1.14398 -0.428602 2.42 255 255 255
-0.416771 -0.0469345 0.906 255 255 255
0.0290064 0.13302 0.464 255 255 255
-1.42575 -1.04917 2.793 255 255 255
-0.277751 0.081656 0.77 255 255 255
-0.258334 0.229396 0.726 255 255 255
-0.392967 0.201166 0.753 255 255 255
0.824679 -0.864732 2.374 255 255 255
-0.251254 -0.00618902 0.992 255 255 255
0.733196 0.593184 1.71 0 0 0
0.0405599 0.094779 0.458 255 255 255
-1.4127 -1.17859 3.071 255 255 255
-0.00714041 0.223108 0.665 0 0 0
-0.25278 -0.291761 1.575 255 255 255
1.12094 -0.763233 2.347 255 255 255
0.0172863 0.147457 0.474 0 0 0
0.87557 0.0575065 2.684 255 255 255
-0.0391121 0.206691 0.675 0 0 0
0.0506953 0.144375 0.469 0 0 0
-0.0244821 -0.122088 1.194 0 0 0
0.434979 -0.126429 1.559 255 255 255
1.10046 -0.691654 2.312 255 255 255
0.898571 0.199929 2.449 255 255 255
-0.373126 0.0830664 0.738 255 255 255
1.18644 -0.379487 2.459 255 255 255
0.862082 -0.820686 2.392 255 255 255
-0.0994089 0.0318209 0.777 255 255 255
-0.563939 -0.504876 1.929 255 255 255
-0.383021 -0.0430276 0.917 255 255 255
-0.156296 -0.0773743 0.994 0 0 0
0.400849 0.597157 1.682 255 255 255
1.06115 0.0555567 2.593 255 255 255
1.16763 -0.0737147 2.54 255 255 255
0.105331 0.101805 0.96 255 255 255
-0.444626 -0.717284 2.228 0 0 0
-0.0661608 -0.44051 1.882 255 255 255
-0.293774 0.255481 0.747 255 255 255
0.834992 0.576725 1.719 255 255 255
0.0379581 0.0815461 0.472 0 0 0
0.0462061 -0.133676 1.267 255 255 255
0.419883 0.490325 1.905 0 0 0
1.03618 0.0434437 2.626 0 0 0
0.60366 -0.892682 2.356 0 0 0
0.918251 -0.679607 2.459 255 255 255
-0.330771 0.13123 0.732 255 255 255
-0.359314 -0.00682005 0.867 255 255 255
-0.334016 -0.0127368 0.886 255 255 255
0.158622 0.240646 0.83 255 255 255
0.952035 0.317359 2.071 255 255 255
0.182889 0.222367 0.875 255 255 255
-0.0443527 -0.589729 2.004 255 255 255
0.35705 -0.429977 1.837 255 255 255
-0.372272 -0.26243 1.442 0 0 0
0.594417 -0.738298 2.365 0 0 0
0.00076232 -0.0355527 1.16 255 255 255
1.03433 -0.699615 2.459 255 255 255
-0.0409663 0.149759 0.707 255 255 255
0.408919 -0.126401 1.528 255 255 255
-0.143975 -0.0362644 0.935 0 0 0
-0.0067638 0.203992 0.547 0 0 0
0.627567 -0.295042 1.953 255 255 255
-0.338912 -0.934726 2.649 0 0 0
0.48508 0.626321 1.616 255 255 255
0.212308 -0.613509 1.935 255 255 255
0.0926315 -0.19837 1.342 0 0 0
1.23379 -0.0282471 2.54 255 255 255
0.697656 0.423056 2.128 0 0 0
-0.250542 0.280257 0.745 255 255 255
0.878781 -0.837689 2.374 255 255 255
-0.0998088 -0.573424 2.004 0 0 0
-0.124046 -0.395452 1.789 255 255 255
0.327507 -0.113778 1.403 255 255 255
-0.234655 0.106941 0.737 0 0 0
0.638769 0.419593 2.128 0 0 0
-0.238958 -0.164338 1.281 0 0 0
0.157566 0.0485399 1.059 255 255 255
0.682894 0.414218 2.136 255 255 255
-0.235597 -0.028267 0.974 255 255 255
-0.219737 -0.0327847 0.967 0 0 0
-0.405228 -0.10958 1.089 255 255 255
-0.0310074 -0.587368 1.985 0 0 0
-0.377555 0.0182119 0.79 255 255 255
0.159101 -0.029838 1.158 255 255 255
0.637732 0.21393 2.383 0 0 0
-0.365314 0.0601191 0.767 255 255 255
0.653248 0.237198 2.383 0 0 0
0.570579 -0.511598 2.057 255 255 255
0.670161 0.491534 1.985 0 0 0
0.53501 -0.836256 2.392 255 255 255
-0.368917 0.0594921 0.759 255 255 255
0.0444784 0.0737165 0.476 0 0 0
0.656909 0.605403 1.729 255 255 255
0.852611 -0.27319 2.55 255 255 255
0.206718 0.115395 0.931 255 255 255
0.52697 -0.341564 1.911 255 255 255
0.395675 -0.254097 1.719 255 255 255
0.879651 -0.0794725 2.593 255 255 255
-0.0177619 -0.764287 2.374 0 0 0
0.182699 0.116759 0.895 255 255 255
1.17679 -0.522397 2.329 255 255 255
0.374688 -0.0600428 1.375 255 255 255
0.741256 0.468795 2.085 255 255 255
-0.150163 0.21123 0.701 255 255 255
0.878601 -0.135468 2.615 255 255 255
-0.975653 -0.958267 2.793 255 255 255
-0.616261 -0.395111 1.724 255 255 255
0.737876 0.502618 1.87 0 0 0
1.10238 -0.243433 2.459 255 255 255
0.952633 -0.288652 2.54 255 255 255
0.643273 0.629132 1.637 255 255 255
0.158496 0.0456223 1.114 255 255 255
-0.38132 -0.094767 1.043 0 0 0
0.0206304 0.0774604 0.48 0 0 0
0.392934 -0.400083 1.837 255 255 255
0.910056 0.453125 2.03 255 255 255
0.286145 -0.388445 1.882 0 0 0
0.0384053 0.0949204 0.776 0 0 0
-0.025012 0.196049 0.68 255 255 255
0.806413 -0.151465 2.672 255 255 255
-0.0690514 0.0436641 0.763 255 255 255
1.20734 -0.256476 2.469 255 255 255
0.513894 0.434369 2.099 255 255 255
-0.232352 0.0947655 0.745 255 255 255
-0.512152 -0.272866 1.473 255 255 255
-0.0291533 0.112603 0.759 255 255 255
-0.0535085 0.029652 0.754 255 255 255
-0.0484913 -0.0249482 0.814 0 0 0
0.174872 0.0518738 0.991 255 255 255
-0.346332 0.275338 0.772 255 255 255
-0.273202 0.240492 0.731 255 255 255
0.519488 0.581985 1.769 255 255 255
0.967789 -0.0633904 2.626 255 255 255
-0.477277 -0.15447 1.189 255 255 255
0.336157 -0.470694 1.905 255 255 255
0.0445722 -0.180899 1.342 0 0 0
0.378886 0.57113 1.719 255 255 255
0.222395 0.0692358 1.009 255 255 255
0.498948 0.552045 1.842 255 255 255
0.860355 -0.731839 2.42 255 255 255
1.01926 0.465847 2.057 0 0 0
-0.209029 0.0982705 0.744 0 0 0
-0.518184 -0.937571 2.707 255 255 255
-0.473474 -0.10702 0.984 255 255 255
1.02951 -0.513173 2.392 255 255 255
-0.220517 0.253025 0.726 255 255 255
0.941723 0.318431 2.078 255 255 255
-0.184329 0.153566 0.714 255 255 255
-0.224624 0.242902 0.724 255 255 255
-0.262134 0.12018 0.73 255 255 255
-0.363 -0.588391 2.092 255 255 255
0.0594567 0.119147 0.46 255 255 255
-0.394976 0.22151 0.764 255 255 255
0.0301224 0.100742 0.458 255 255 255
0.998578 0.201532 2.374 255 255 255
-0.251451 0.109339 0.737 0 0 0
1.01019 -0.465621 2.449 255 255 255
-0.576855 -0.175159 1.254 255 255 255
0.786805 0.429167 2.107 255 255 255
-0.454975 -0.0596057 0.897 255 255 255
-0.36339 -0.0187546 0.898 255 255 255
-0.155778 0.16102 0.711 255 255 255
0.0234214 0.0116399 1.16 255 255 255
-0.380458 -0.0140826 0.88 255 255 255
-0.102971 0.141946 0.714 255 255 255
0.918991 0.296254 2.329 255 255 255
-0.192659 0.0272381 0.83 0 0 0
0.111815 0.198208 0.72 255 255 255
0.317662 -0.260965 1.691 255 255 255
-0.214367 0.0883636 0.763 255 255 255
0.300254 -0.829231 2.383 0 0 0
0.925154 -0.833826 2.374 255 255 255
0.369135 -0.326491 1.794 0 0 0
-0.625729 -0.202974 1.262 255 255 255
0.141854 0.128169 0.819 255 255 255
0.892274 0.483797 1.941 0 0 0
0.0426096 0.123306 0.456 255 255 255
0.509811 0.521325 1.905 255 255 255
-0.196531 -0.0454676 0.969 0 0 0
-0.676765 -0.265855 1.33 255 255 255
-0.135055 0.0884794 0.764 255 255 255
0.0205196 0.109416 0.46 0 0 0
-0.38093 0.0156209 0.789 255 255 255
0.121064 0.0232234 1.173 255 255 255
-0.144428 0.0540711 0.788 255 255 255
-0.0289521 -0.250077 1.412 255 255 255
-0.0819435 0.236161 0.684 255 255 255
-0.280624 0.250001 0.738 255 255 255
0.73125 -0.812885 2.347 0 0 0
0.297103 0.0580716 1.145 0 0 0
-0.276394 0.235411 0.73 255 255 255
0.383254 0.538807 1.848 255 255 255
-0.186185 -0.174024 1.291 255 255 255
0.120775 -0.0240527 1.249 255 255 255
0.294067 -0.707898 2.166 255 255 255
-0.0925021 0.231944 0.688 255 255 255
0.881512 0.544744 1.779 0 0 0
1.05819 -0.0553241 2.649 255 255 255
0.699126 0.540579 1.794 0 0 0
0.976506 0.0779853 2.638 255 255 255
-0.522196 -0.251848 1.422 255 255 255
0.655325 0.351172 2.244 255 255 255
0.635144 0.469017 2.071 0 0 0
0.10886 0.0325442 1.165 255 255 255
0.65759 -0.338347 1.893 255 255 255
0.542524 0.519858 1.911 255 255 255
0.891514 0.341223 2.136 255 255 255
-0.245162 0.122388 0.729 255 255 255
0.720016 0.349316 2.143 255 255 255
0.721908 -0.213445 2.392 255 255 255
0.644718 -0.630947 2.338 255 255 255
-0.502726 -0.994814 2.695 255 255 255
0.599825 -0.850508 2.356 255 255 255
-0.0988146 0.25844 0.693 255 255 255
0.134446 0.175406 0.769 255 255 255
-0.439668 -0.635904 2.037 255 255 255
0.61096 0.526077 1.911 255 255 255
0.0792921 0.098968 0.82 255 255 255
-0.806105 -0.464254 1.71 255 255 255
0.0758292 -0.041125 1.213 255 255 255
1.08341 -0.590688 2.489 255 255 255
-0.403573 -0.244972 1.396 255 255 255
0.723967 0.293919 2.253 255 255 255
0.882067 0.594148 1.729 255 255 255
0.804411 0.299369 2.212 0 0 0
0.0710049 -0.541272 1.947 255 255 255
-0.220359 0.215147 0.714 255 255 255
-0.287553 0.266111 0.753 255 255 255
0.643499 0.48286 2.044 0 0 0
-0.0948844 0.0930855 0.761 255 255 255
-0.608164 -0.259268 1.412 0 0 0
-0.0877664 0.213408 0.686 0 0 0
-0.415132 0.00666677 0.793 255 255 255
0.984795 0.000725715 2.684 0 0 0
-0.262934 0.151665 0.716 255 255 255
-0.121183 0.275535 0.705 255 255 255
-0.18722 0.0180404 0.842 0 0 0
0.0575663 0.137506 0.469 0 0 0
-0.362766 -0.123217 1.1 255 255 255
-0.740748 -0.378249 1.616 255 255 255
0.0315444 0.100522 0.457 255 255 255
1.04208 -0.469607 2.449 255 255 255
-0.183152 0.0513714 0.806 0 0 0
-0.338287 0.271412 0.768 255 255 255
0.599825 -0.885014 2.356 255 255 255
1.08275 -0.40112 2.469 255 255 255
-0.0467341 0.226127 0.674 255 255 255
-0.625133 -0.364517 1.637 255 255 255
0.318288 -0.851479 2.402 255 255 255
1.13629 -0.116498 2.572 255 255 255
0.117457 -0.0569356 1.257 255 255 255
-0.397708 -0.0302758 0.893 255 255 255
-0.0339854 0.0806918 0.785 0 0 0
-0.753154 -0.371595 1.524 255 255 255
-0.195181 0.181974 0.707 255 255 255
-0.127705 0.267889 0.703 255 255 255
1.0716 0.392751 2.114 255 255 255
0.554479 -0.809008 2.392 255 255 255
0.885028 0.505825 1.905 255 255 255
-0.247091 0.203528 0.714 255 255 255
0.0197708 0.102679 0.46 255 255 255
0.00988248 0.0682766 0.82 0 0 0
-0.306469 -0.166665 1.267 255 255 255
0.184599 0.0409536 1 255 255 255
0.14314 -0.0945014 1.267 255 255 255
0.0507393 -0.0216323 1.227 255 255 255
-0.098377 -0.16639 1.297 255 255 255
-0.407201 -0.146744 1.205 255 255 255
-0.20513 -0.332551 1.624 255 255 255
-0.189159 0.228821 0.706 255 255 255
-0.00833415 -0.548222 1.972 255 255 255
-0.0895382 -0.0302758 0.893 0 0 0
-0.401098 0.000220905 0.817 255 255 255
-0.668944 -0.243139 1.336 255 255 255
-0.479762 -0.0843181 0.928 255 255 255
0.572591 0.607647 1.696 255 255 255
-0.299602 -0.153888 1.247 255 255 255
-0.181627 0.168405 0.708 255 255 255
-0.124189 -0.177626 1.302 255 255 255
-0.0470434 -0.388491 1.853 0 0 0
0.562859 0.546799 1.865 255 255 255
0.112815 -0.944363 2.44 255 255 255
-0.255971 0.228214 0.726 255 255 255
0.603573 -0.258896 2.044 0 0 0
1.05863 -0.433263 2.469 255 255 255
-0.156703 -0.489065 1.941 0 0 0
0.280817 -0.0334209 1.22 255 255 255
0.876714 -0.237877 2.572 255 255 255
0.113838 -0.399562 1.821 0 0 0
1.07187 -0.179686 2.519 255 255 255
-0.524661 -1.01674 2.695 255 255 255
-0.220901 0.208751 0.712 255 255 255
-0.223142 -0.0600289 0.975 0 0 0
-0.797254 -0.497312 1.758 255 255 255
0.385593 -0.856377 2.383 255 255 255
-0.586304 -0.665506 2.099 255 255 255
-0.230983 -0.519534 2.01 255 255 255
0.151458 0.04867 1.143 255 255 255
0.630724 0.604698 1.719 255 255 255
0.902516 0.34573 2.121 255 255 255
1.17223 0.112731 2.55 0 0 0
0.847606 0.203165 2.44 255 255 255
0.549294 0.591487 1.763 255 255 255
0.489436 0.585112 1.744 255 255 255
-0.306129 -0.576696 2.099 255 255 255
-0.16719 -0.938024 2.53 255 255 255
0.398788 -0.793477 2.44 0 0 0
-0.0795052 0.0314524 0.768 255 255 255
0.459047 -0.749848 2.402 255 255 255
-0.109619 0.230372 0.69 0 0 0
0.0850756 -0.349207 1.719 255 255 255
-0.050528 0.138073 0.712 255 255 255
-0.0845395 0.186888 0.687 255 255 255
-1.28855 -1.16132 3.026 255 255 255
-0.151089 0.205233 0.7 255 255 255
-0.067531 -0.17699 1.313 255 255 255
0.171755 -0.15694 1.381 255 255 255
-0.298861 -0.217771 1.354 255 255 255
-0.0553964 0.134 0.715 255 255 255
0.196397 0.0896387 0.947 255 255 255
0.266677 -0.151085 1.432 255 255 255
-0.27096 0.222001 0.725 255 255 255
0.706893 0.502639 1.893 0 0 0
-0.296514 0.132153 0.724 255 255 255
0.321926 0.594246 1.629 0 0 0
0.677442 0.582426 1.753 0 0 0
-0.263759 -0.419818 1.769 255 255 255
1.10049 -0.739352 2.32 255 255 255
-0.00123686 0.105475 0.476 255 255 255
0.88481 0.554761 1.774 0 0 0
-0.512816 -0.843086 2.469 0 0 0
0.586883 -0.67517 2.32 255 255 255
-0.159749 -0.388938 1.734 255 255 255
-0.033419 0.231672 0.671 255 255 255
-0.336062 -0.185112 1.31 255 255 255
-0.148346 0.0882478 0.762 255 255 255
0.83955 -0.187318 2.626 255 255 255
-0.336105 0.0490505 0.811 255 255 255
0.12226 -0.0791766 1.286 255 255 255
0.541182 0.461745 2.01 255 255 255
0.309817 0.0255822 1.194 255 255 255
0.210456 -0.636324 1.947 255 255 255
-0.0927655 0.0717496 0.785 255 255 255
-0.245928 0.196556 0.714 255 255 255
0.886999 -0.849908 2.365 255 255 255
-0.225984 0.095849 0.744 0 0 0
-0.0624295 0.0211747 0.758 255 255 255
-0.387118 -0.496876 1.972 255 255 255
0.05122 0.12813 0.46 255 255 255
0.0153445 0.105381 0.462 255 255 255
-0.316196 -0.111526 1.041 0 0 0
0.378719 -0.27482 1.744 255 255 255
0.956069 -0.845416 2.374 255 255 255
1.12749 -0.309959 2.479 255 255 255
-0.29619 0.0577139 0.803 255 255 255
0.998625 -0.495774 2.402 255 255 255
-0.323678 0.0373118 0.844 255 255 255
-0.686189 -0.27972 1.366 255 255 255
0.719178 -0.178678 2.449 0 0 0
0.636537 0.49302 1.991 0 0 0
0.728832 0.364186 2.128 255 255 255
0.0404713 0.125063 0.457 0 0 0
-0.343696 0.0536597 0.801 255 255 255
-0.134967 -0.309231 1.547 255 255 255
0.55207 -0.738298 2.365 0 0 0
0.678969 0.469017 2.071 255 255 255
-0.0218285 -0.0155601 0.808 0 0 0
0.811955 0.505858 1.953 255 255 255
1.24082 -0.388467 2.44 255 255 255
0.0188153 -0.440111 1.805 0 0 0
-0.171808 0.00447226 0.868 0 0 0
-0.0523505 0.0395204 0.755 255 255 255
-0.26899 -0.0232464 0.963 0 0 0
-0.386258 -0.103796 1.066 255 255 255
-0.253352 0.163563 0.712 255 255 255
0.0793888 0.0964166 0.821 255 255 255
-0.124637 -0.632988 2.151 255 255 255
0.0813228 0.252829 0.69 255 255 255
-0.351067 -0.0700533 1.005 255 255 255
-0.210737 0.172104 0.709 255 255 255
-0.119292 0.241872 0.694 255 255 255
-1.23128 -1.06804 3.055 255 255 255
-0.138752 0.183851 0.701 255 255 255
-0.120119 -0.383476 1.774 255 255 255
-0.192607 0.180567 0.706 255 255 255
0.0247383 0.142085 0.469 255 255 255
-0.618569 -0.376153 1.677 255 255 255
1.19353 -0.056258 2.499 255 255 255
-0.548557 -0.136981 1.11 255 255 255
-0.236353 0.0929605 0.75 255 255 255
-0.434743 -0.268909 1.439 255 255 255
0.235399 0.0385245 1.068 255 255 255
0.86775 -0.876849 2.365 255 255 255
0.772875 0.514787 1.859 0 0 0
0.306498 -0.0744289 1.313 255 255 255
-0.397698 -0.0458114 0.913 255 255 255
-0.278341 0.0380633 0.861 255 255 255
0.982271 -0.481477 2.469 255 255 255
0.414413 0.565666 1.763 255 255 255
-0.0882027 -0.864911 2.509 255 255 255
-0.0273151 0.0874561 0.777 0 0 0
0.230069 -0.861797 2.42 0 0 0
0.117312 0.191326 0.725 255 255 255
0.178762 -0.512756 1.947 255 255 255
0.24872 -0.109526 1.324 255 255 255
-0.022765 -0.861463 2.499 255 255 255
0.487087 0.463036 2.03 255 255 255
0.634773 0.449943 2.092 0 0 0
0.835289 -0.0562848 2.695 255 255 255
-0.367405 0.121991 0.741 255 255 255
1.13959 -0.237344 2.479 255 255 255
0.0410314 0.152211 0.472 255 255 255
0.446302 -0.295198 1.799 0 0 0
-0.203361 0.106315 0.741 0 0 0
1.29482 0.0789098 2.53 255 255 255
0.827753 0.50274 1.991 255 255 255
1.06721 -0.347663 2.489 255 255 255
-0.239983 -0.627619 2.181 0 0 0
-0.689956 -0.412954 1.705 0 0 0
0.482774 -0.89994 2.365 255 255 255
-0.187665 0.0153363 0.844 0 0 0
-0.145975 0.272081 0.714 255 255 255
-0.129262 -0.0295973 0.917 0 0 0
-0.216461 0.0908816 0.753 255 255 255
-0.584795 -0.292398 1.487 0 0 0
-0.246333 0.136487 0.722 255 255 255
1.12261 -0.631457 2.383 255 255 255
0.112543 -0.141906 1.345 255 255 255
0.0782866 0.112376 0.479 0 0 0
0.694228 -0.304918 1.935 255 255 255
-0.168782 -0.448671 1.865 255 255 255
-0.107686 0.072748 0.782 255 255 255
0.185864 -0.0180193 1.126 255 255 255
0.172734 0.360415 0.988 0 0 0
0.252691 -0.160406 1.432 255 255 255
-0.344598 -0.00116019 0.855 255 255 255
0.766092 -0.102316 2.638 0 0 0
-0.126866 -0.0261194 0.9 0 0 0
0.503576 0.615021 1.642 255 255 255
-0.384978 0.16277 0.74 255 255 255
-0.188333 -0.213587 1.384 0 0 0
0.151674 0.0894297 0.884 255 255 255
0.29141 -0.679385 2.121 255 255 255
0.932206 0.375467 2.057 255 255 255
-0.771067 -0.615831 2.128 255 255 255
-1.47492 -0.900931 2.871 0 0 0
0.0619714 0.123424 0.462 0 0 0
-0.155997 0.154294 0.712 255 255 255
-0.00073671 0.106427 0.759 0 0 0
-1.07079 -0.714063 2.44 255 255 255
-0.00931939 0.234281 0.666 0 0 0
-0.264048 -0.109361 1.162 255 255 255
-0.0859071 0.182947 0.689 255 255 255
0.918251 -0.715622 2.459 255 255 255
-0.908345 -0.864105 2.768 255 255 255
0.808066 0.372507 2.136 255 255 255
-0.00704242 -0.0799395 1.203 255 255 255
-0.282626 -0.404821 1.779 0 0 0
0.0356015 0.105464 0.77 255 255 255
0.643694 0.166056 2.42 255 255 255
0.535536 -0.394042 1.865 255 255 255
0.449349 -0.738942 2.392 255 255 255
0.8181 0.159744 2.572 255 255 255
-0.361112 0.123899 0.738 255 255 255
-0.263882 0.27662 0.745 255 255 255
-0.228023 0.00766721 0.912 255 255 255
-0.459339 -0.32907 1.607 255 255 255
0.488767 0.461318 2.037 255 255 255
1.04678 -0.584281 2.479 255 255 255
0.862521 0.552618 1.758 255 255 255
-0.113759 -0.323034 1.603 255 255 255
0.725879 0.637124 1.637 255 255 255
0.0179054 0.137034 0.47 0 0 0
0.824668 0.352803 2.143 255 255 255
-0.0885543 -0.86016 2.519 255 255 255
0.0765361 0.117126 0.473 0 0 0
-0.393032 -0.0272468 0.889 255 255 255
-0.262423 0.136298 0.721 255 255 255
-0.0409663 0.145157 0.707 255 255 255
1.2636 -0.0917435 2.469 255 255 255
1.19075 -0.689882 2.411 255 255 255
0.655122 0.52645 1.826 255 255 255
-0.344294 0.200761 0.738 255 255 255
1.07694 0.188979 2.411 255 255 255
0.272145 -0.398141 1.87 0 0 0
-0.365618 0.0298576 0.792 0 0 0
-0.299926 -0.00127824 0.942 0 0 0
0.168733 -0.511176 1.941 255 255 255
0.192295 0.102054 0.92 255 255 255
-0.342119 0.276236 0.771 255 255 255
-0.285218 0.0503206 0.832 255 255 255
-0.433194 -0.934145 2.672 0 0 0
0.463551 0.605856 1.691 255 255 255
-0.255004 0.246103 0.73 255 255 255
0.129107 0.127446 0.806 255 255 255
1.276 0.0214379 2.55 255 255 255
1.12953 -0.661325 2.365 255 255 255
0.330018 -0.851479 2.402 255 255 255
1.05337 -0.699034 2.402 255 255 255
0.224561 0.075428 1.004 255 255 255
-0.181257 -0.242475 1.435 0 0 0
0.592155 -0.888848 2.356 255 255 255
0.0375455 0.193581 0.508 255 255 255
-0.0622783 0.228998 0.676 0 0 0
0.0614682 -0.0138122 1.242 255 255 255
-0.0696759 -0.107015 1.081 0 0 0
1.1384 -0.439511 2.459 255 255 255
1.30652 0.188234 2.561 255 255 255
0.306216 -0.334316 1.837 0 0 0
0.496249 0.58361 1.748 255 255 255
0.610466 0.335445 2.338 255 255 255
0.013074 0.0956874 0.772 255 255 255
-1.12234 -1.11358 2.939 0 0 0
1.10565 -0.767053 2.347 255 255 255
0.998536 -0.626708 2.44 255 255 255
-0.860222 -0.547253 1.87 255 255 255
-0.26174 -0.336217 1.682 255 255 255
-0.163966 0.0524216 0.802 255 255 255
0.868234 -0.621571 2.42 255 255 255
0.984649 -0.0252529 2.66 255 255 255
0.0822681 -0.136704 1.316 0 0 0
-0.201219 0.00449802 0.873 255 255 255
-0.148134 -0.517514 1.953 255 255 255
