ply
format ascii 1.0
comment Created by Open3D
element vertex 1328
property double x
property double y
property double z
property uchar red
property uchar green
property uchar blue
end_header
-0.155476 0.208885 0.737 255 255 255
-0.200074 -0.161488 1.198 255 255 255
0.102722 -0.0738331 1.139 255 255 255
0.720475 -0.407097 1.789 255 255 255
0.375226 -0.0373113 1.156 255 255 255
0.339373 0.059737 1.015 255 255 255
0.777801 -0.437143 1.842 255 255 255
-0.175714 0.0778136 0.757 0 0 0
-0.218329 0.0258874 0.83 255 255 255
-0.118674 0.0950199 0.747 255 255 255
0.0682821 0.0982859 0.464 255 255 255
0.390105 -0.447221 1.81 255 255 255
1.11059 -0.136838 2.561 255 255 255
1.11892 -0.141006 2.561 255 255 255
-1.32667 -0.951943 2.884 255 255 255
-0.0479255 -0.458534 1.774 255 255 255
-0.719813 -1.16443 2.996 255 255 255
-0.423462 -0.242047 1.33 255 255 255
0.820996 -0.863128 2.278 0 0 0
-0.0406241 -0.0219494 0.975 255 255 255
1.08067 -0.258696 2.53 255 255 255
0.776074 -0.414821 1.81 255 255 255
0.866528 0.310955 2.143 255 255 255
0.367899 -0.0653548 1.187 255 255 255
0.312083 -0.352996 1.633 0 0 0
-0.28004 0.0552832 0.787 255 255 255
-0.251386 -0.424132 1.763 255 255 255
0.076737 0.153715 0.489 0 0 0
1.0496 0.0396775 2.66 255 255 255
-0.181375 0.138945 0.735 255 255 255
0.0129042 -0.0395554 0.843 0 0 0
0.91997 0.406877 2.03 0 0 0
0.338037 -0.4437 1.784 255 255 255
1.01721 0.179809 2.294 255 255 255
-0.0621576 0.262476 0.726 255 255 255
-0.222889 0.310001 0.817 255 255 255
-0.0511062 0.200677 0.704 255 255 255
0.824141 0.413484 2.03 0 0 0
0.102578 -0.101454 1.18 255 255 255
0.81725 -0.807309 2.32 0 0 0
0.254703 0.0791802 0.882 255 255 255
0.743233 0.489002 1.853 255 255 255
-0.322144 -0.0120755 0.84 255 255 255
0.0795205 -0.522082 1.923 255 255 255
0.916046 -0.797 2.312 0 0 0
0.215886 0.11435 0.797 255 255 255
0.357638 -0.191479 1.387 255 255 255
1.04634 0.314294 2.051 255 255 255
0.0248948 -0.0430492 0.831 0 0 0
-0.328864 0.0622935 0.72 255 255 255
-0.0919228 0.0925887 0.747 255 255 255
-0.078482 0.0383975 0.809 255 255 255
-0.600125 -0.247762 1.26 255 255 255
0.0333609 0.148775 0.697 255 255 255
1.1638 -0.205071 2.479 255 255 255
1.18407 -0.455225 2.374 255 255 255
-0.129441 0.172192 0.719 255 255 255
0.85253 -0.378421 1.848 255 255 255
0.834952 0.443081 1.985 255 255 255
-0.149198 0.146291 0.724 255 255 255
0.0703117 -0.233916 1.333 0 0 0
0.913699 -0.829764 2.278 0 0 0
-0.391194 0.21058 0.813 255 255 255
0.22049 0.100893 0.814 255 255 255
0.468817 -0.929678 2.392 255 255 255
0.152791 -0.50169 1.826 0 0 0
-1.16936 -1.08447 2.925 255 255 255
-0.111841 0.256186 0.742 255 255 255
0.558035 -0.876322 2.374 255 255 255
0.300516 -0.108981 1.244 255 255 255
0.23033 0.115748 0.816 255 255 255
-0.108261 -0.18634 1.289 255 255 255
1.09104 -0.711358 2.365 255 255 255
-0.200526 0.0761771 0.753 0 0 0
-0.187778 0.244528 0.766 255 255 255
1.05547 -0.273968 2.519 255 255 255
-0.33138 -0.644742 2.044 255 255 255
0.78101 0.577577 1.705 255 255 255
0.256725 -0.4437 1.784 255 255 255
1.16579 0.132994 2.392 255 255 255
0.439501 -0.518953 1.923 255 255 255
-0.283108 0.221895 0.792 255 255 255
-0.273247 0.0784027 0.775 255 255 255
0.0474787 0.213427 0.672 255 255 255
0.756671 0.362296 2.158 255 255 255
-0.616824 -0.469819 1.71 255 255 255
0.318592 -0.14674 1.31 255 255 255
0.0988314 -0.0541812 1.116 255 255 255
-0.124189 -0.209407 1.302 255 255 255
-0.396832 0.291887 0.811 255 255 255
0.634638 0.536783 1.753 255 255 255
-0.0650694 0.13475 0.719 255 255 255
-0.308299 0.0638178 0.724 255 255 255
0.196864 -0.0516674 1.229 255 255 255
0.103026 0.128489 0.464 255 255 255
-0.0518039 -0.364265 1.624 255 255 255
0.469144 -0.461349 1.831 255 255 255
0.0919211 0.0695796 0.469 0 0 0
-0.289267 0.104642 0.764 255 255 255
0.85075 -0.825601 2.329 255 255 255
-1.16849 -1.0913 2.996 255 255 255
0.0562133 0.194329 0.528 0 0 0
-0.260707 -0.573798 2.064 0 0 0
-1.15275 -1.12361 3.071 255 255 255
0.793049 0.507137 1.769 0 0 0
-0.242703 0.12541 0.747 255 255 255
-0.0868728 -0.185473 1.283 255 255 255
-0.408516 0.271024 0.849 255 255 255
-0.277346 0.108088 0.762 255 255 255
0.202672 0.105766 0.791 255 255 255
-0.353181 0.0855841 0.739 255 255 255
-0.416232 0.271664 0.834 255 255 255
0.22816 0.115322 0.813 255 255 255
0.287039 0.0729738 0.931 255 255 255
0.207294 0.0572653 1.094 255 255 255
0.295304 0.071996 0.938 255 255 255
-0.361299 -0.0442925 0.855 255 255 255
-0.0882312 0.218384 0.717 255 255 255
0.0586833 0.044146 0.794 0 0 0
0.119619 0.103652 0.461 0 0 0
0.235678 -0.92315 2.479 255 255 255
0.191246 0.203783 0.719 255 255 255
-0.115075 0.181047 0.717 255 255 255
-0.324896 0.0469964 0.719 255 255 255
-0.603238 -0.429169 1.65 255 255 255
0.34157 -0.214152 1.359 255 255 255
-0.33246 0.30669 0.856 255 255 255
0.0468225 -0.613668 1.997 0 0 0
-0.190583 -0.0199451 0.955 0 0 0
0.0308241 0.164362 0.691 0 0 0
0.0349655 0.182732 0.684 255 255 255
0.0772506 0.0778087 0.468 0 0 0
-0.689488 -0.290234 1.313 255 255 255
-0.0553189 0.239547 0.714 255 255 255
-1.37111 -0.989228 2.939 255 255 255
-0.188122 0.132306 0.738 255 255 255
-0.339796 0.158212 0.783 255 255 255
0.330545 -0.252421 1.387 255 255 255
-0.353426 -0.242461 1.369 255 255 255
-0.543646 -0.559426 1.87 255 255 255
0.5132 0.543156 1.719 255 255 255
0.612075 -0.663111 2.181 255 255 255
-0.0917326 0.20555 0.717 255 255 255
-0.382754 0.235091 0.844 255 255 255
-0.396137 0.147641 0.781 255 255 255
0.0707656 -0.119433 1.132 255 255 255
0.742218 0.398308 2.107 255 255 255
-0.0693791 0.102559 0.74 255 255 255
0.146594 -0.300568 1.516 255 255 255
-0.163258 -0.0865799 1.007 255 255 255
-0.120796 -0.432088 1.784 255 255 255
-0.191119 0.185693 0.745 255 255 255
-1.42913 -1.11718 2.911 255 255 255
1.18468 -0.332857 2.383 255 255 255
-0.642837 -0.340837 1.327 255 255 255
-0.332614 -0.037554 0.86 255 255 255
-0.235132 0.118591 0.75 255 255 255
0.904209 0.267478 2.158 255 255 255
0.0631264 0.21953 0.664 255 255 255
0.0892024 0.0306492 0.813 0 0 0
-0.338117 0.17785 0.791 255 255 255
0.852328 -0.670337 2.253 0 0 0
0.027534 0.0997234 0.755 255 255 255
1.1324 -0.637195 2.347 255 255 255
-0.778964 -0.592148 1.887 255 255 255
-0.425976 -0.343585 1.543 255 255 255
0.248623 0.0461957 1.128 255 255 255
-0.210891 0.207843 0.755 255 255 255
-0.435153 -0.118841 0.963 255 255 255
-0.492108 -0.162777 1.066 255 255 255
0.349749 -0.128597 1.299 255 255 255
0.958926 -0.865937 2.228 255 255 255
0.921664 -0.552807 2.166 255 255 255
0.405651 -0.636997 1.911 255 255 255
-0.410796 0.251385 0.848 255 255 255
1.21183 -0.445317 2.383 255 255 255
-1.32455 -1.11567 2.996 255 255 255
0.299565 0.0764937 0.937 255 255 255
-0.349618 -0.0619675 0.889 255 255 255
-0.17659 0.174827 0.735 255 255 255
-0.603899 -0.293481 1.299 255 255 255
-0.117351 0.0337048 0.823 255 255 255
-0.358841 0.310881 0.83 255 255 255
-0.150035 0.0668148 0.758 255 255 255
0.306319 0.0812412 0.939 255 255 255
-0.566991 -0.369382 1.466 255 255 255
-0.588076 -0.497294 1.81 0 0 0
1.18793 -0.54408 2.374 255 255 255
0.243861 -0.39003 1.714 0 0 0
-0.14199 0.0248915 0.842 255 255 255
-0.336364 -0.0671281 0.9 255 255 255
0.502197 0.574519 1.664 0 0 0
0.147163 0.227465 0.688 255 255 255
0.110382 -0.189169 1.294 0 0 0
-0.395971 0.185451 0.796 255 255 255
-0.332658 -0.435721 1.799 0 0 0
0.0528371 0.10607 0.731 255 255 255
0.288056 0.105812 0.901 255 255 255
0.958407 0.228734 2.261 255 255 255
0.0598491 0.0928862 0.475 0 0 0
-0.332967 0.181711 0.791 255 255 255
-0.341976 0.0457626 0.718 255 255 255
0.106059 -0.087714 1.176 255 255 255
1.18775 -0.061073 2.53 255 255 255
0.26678 -0.70815 2.064 255 255 255
-0.465192 -0.18563 1.178 255 255 255
-0.0715112 -0.0115244 0.904 255 255 255
0.385772 -0.582296 1.905 255 255 255
-0.250805 -0.334406 1.547 255 255 255
-0.154975 0.140183 0.729 255 255 255
0.973072 0.438848 2.01 255 255 255
-0.164933 0.0172047 0.869 255 255 255
0.052484 0.0482643 0.798 0 0 0
-0.119375 0.211363 0.729 255 255 255
-0.0178869 -0.0891592 1.037 255 255 255
0.110399 0.105727 0.457 0 0 0
0.47324 -0.649809 1.959 255 255 255
0.0159905 0.204395 0.682 0 0 0
-0.247953 0.197417 0.767 255 255 255
1.11059 -0.107665 2.561 255 255 255
-0.0829277 0.258689 0.732 255 255 255
-0.522133 -0.447116 1.719 255 255 255
0.40097 -0.0670065 1.217 255 255 255
-0.352912 0.153995 0.781 255 255 255
-1.0812 -1.23908 3.215 255 255 255
0.0978668 0.0317425 0.842 0 0 0
1.05186 0.116422 2.54 255 255 255
-0.336332 0.0722642 0.726 255 255 255
0.865568 0.281525 2.158 255 255 255
0.748248 0.576725 1.719 255 255 255
-0.321615 0.138581 0.773 255 255 255
-0.352677 -0.595615 1.959 0 0 0
0.0322961 0.115658 0.724 0 0 0
0.204167 0.0308961 1.106 255 255 255
0.0971925 0.0795801 0.465 255 255 255
0.81876 0.285451 2.303 255 255 255
0.0921225 0.185314 0.508 255 255 255
0.737876 -0.276417 1.87 255 255 255
-0.613398 -0.696261 2.196 255 255 255
-0.146399 0.254744 0.752 255 255 255
-0.132871 0.297079 0.773 255 255 255
-0.138673 -0.1098 1.057 255 255 255
0.0291534 0.137863 0.705 255 255 255
-0.108602 -0.15478 1.222 255 255 255
0.073057 0.16597 0.502 255 255 255
-0.168154 0.200101 0.74 255 255 255
-0.0993813 -0.240234 1.369 255 255 255
1.12215 0.0378875 2.54 255 255 255
-0.0727955 0.103483 0.738 255 255 255
0.395407 -0.0110126 1.16 255 255 255
1.15304 -0.145797 2.572 255 255 255
-0.351942 0.18745 0.799 255 255 255
1.08815 0.0865711 2.638 0 0 0
0.0787743 0.132643 0.468 255 255 255
-0.370317 0.0955914 0.742 255 255 255
0.250496 -0.154538 1.322 255 255 255
-0.382569 0.0676366 0.74 255 255 255
-0.207356 -0.525758 1.972 255 255 255
-0.162845 0.0211757 0.858 255 255 255
0.0620279 0.0961647 0.756 255 255 255
0.0982965 0.197663 0.51 255 255 255
0.269707 -0.0724253 1.242 255 255 255
0.278304 0.106692 0.884 255 255 255
-0.426985 -0.074285 0.864 255 255 255
-0.00075127 -0.0136458 0.774 0 0 0
-0.169201 0.0275991 0.841 255 255 255
0.746023 -0.538594 1.972 255 255 255
0.117364 0.124032 0.47 0 0 0
-0.605554 -0.428688 1.579 255 255 255
0.0770574 0.15119 0.486 0 0 0
-0.227759 -0.0560392 0.961 255 255 255
0.0642626 0.0789443 0.768 255 255 255
0.474771 -0.259778 1.599 255 255 255
0.753813 0.495092 1.842 255 255 255
0.0426298 0.0423142 0.784 0 0 0
1.06771 -0.620469 2.356 255 255 255
0.552136 -0.18158 1.532 255 255 255
0.460519 -0.239359 1.551 255 255 255
-0.238847 -0.0411277 0.908 255 255 255
-0.658278 -0.304753 1.302 255 255 255
1.10642 0.0298656 2.561 255 255 255
0.911377 0.127198 2.43 0 0 0
-0.653141 -0.365341 1.362 255 255 255
-0.412429 -1.05211 2.707 0 0 0
-0.280986 0.0881496 0.772 255 255 255
-0.562801 -0.258604 1.273 255 255 255
0.0492873 -0.0864484 1.066 255 255 255
-0.00630388 0.237797 0.692 255 255 255
0.19951 0.0742716 0.892 255 255 255
0.980886 0.23014 2.204 255 255 255
-0.51907 -0.315744 1.439 255 255 255
0.255184 0.182249 0.841 255 255 255
0.0705133 0.0814439 0.768 255 255 255
0.640022 0.54913 1.729 255 255 255
-0.401736 0.14783 0.782 255 255 255
-0.568398 -0.257386 1.267 255 255 255
-0.00291611 0.232618 0.69 255 255 255
-0.156576 0.276594 0.772 255 255 255
0.00991772 0.115818 0.725 255 255 255
0.211602 0.191617 0.754 255 255 255
-0.307873 0.0790249 0.723 255 255 255
-0.41422 -0.876849 2.365 255 255 255
-0.363869 0.173988 0.791 255 255 255
1.13567 -0.665189 2.338 255 255 255
-0.148341 0.0156816 0.863 255 255 255
-0.277703 -0.280447 1.403 0 0 0
1.04617 -0.853897 2.244 255 255 255
0.250108 0.0866971 0.871 255 255 255
-0.17907 -0.154075 1.201 255 255 255
0.801575 0.360723 2.128 255 255 255
0.52918 0.539703 1.744 255 255 255
-1.16787 -0.925572 2.818 0 0 0
0.456853 -0.561008 1.917 255 255 255
1.02016 -0.433919 2.136 0 0 0
0.0378017 0.219872 0.675 0 0 0
0.0960537 0.113659 0.456 255 255 255
0.577644 -0.546671 1.978 255 255 255
0.790023 0.595382 1.677 255 255 255
-0.53037 -0.944006 2.615 0 0 0
-0.637396 -0.930432 2.805 0 0 0
0.113056 0.125789 0.468 0 0 0
0.0982805 0.0995596 0.456 255 255 255
-0.054907 -0.0863219 1.004 255 255 255
-0.315828 0.195623 0.79 255 255 255
0.121383 0.10914 0.462 255 255 255
-0.429466 0.255693 0.844 255 255 255
-0.0671876 -0.56364 2.004 255 255 255
-0.312022 0.0680573 0.719 255 255 255
0.192326 -0.0174376 1.213 255 255 255
1.13072 0.0587851 2.55 255 255 255
0.18379 -0.0152469 1.196 255 255 255
0.987232 0.159812 2.329 255 255 255
0.802144 -0.829961 2.32 0 0 0
0.130232 -0.847104 2.469 0 0 0
-0.301782 0.305257 0.852 255 255 255
0.0230623 -0.1098 1.057 255 255 255
0.0846802 0.190274 0.508 255 255 255
-0.202177 -0.226385 1.327 255 255 255
-0.427763 -0.088008 0.889 255 255 255
0.125696 -0.387229 1.739 0 0 0
1.10582 -0.0242086 2.55 255 255 255
-0.414704 -0.123659 0.989 255 255 255
0.00393936 0.132094 0.711 255 255 255
0.0924105 0.0883636 0.763 0 0 0
0.0811558 0.0717125 0.473 0 0 0
-0.44527 -0.0994596 0.901 255 255 255
-0.387016 0.0637644 0.737 255 255 255
-0.423928 0.213727 0.82 255 255 255
1.25662 0.0410118 2.479 255 255 255
-0.515359 -0.154824 1.036 255 255 255
1.12215 -0.0447808 2.54 255 255 255
-0.136445 0.0361181 0.817 255 255 255
-0.244949 -0.809461 2.294 0 0 0
0.149277 -0.429184 1.784 255 255 255
0.665185 0.525008 1.821 255 255 255
0.093038 0.174833 0.504 255 255 255
-0.120964 -0.21545 1.313 255 255 255
0.0922894 0.0919678 0.762 0 0 0
-0.618266 -0.476497 1.714 255 255 255
-0.012278 0.0283523 0.786 255 255 255
-0.210599 0.129226 0.741 255 255 255
-0.0276803 -0.141873 1.165 255 255 255
-0.594899 -0.553718 1.831 255 255 255
-0.80461 -1.08556 2.967 255 255 255
0.0470909 0.11671 0.716 255 255 255
0.51698 -0.281845 1.668 255 255 255
-0.293454 -1.03008 2.707 255 255 255
0.171872 -0.0374529 1.222 255 255 255
-0.0846313 -0.342187 1.595 255 255 255
-0.0144688 -0.0653441 1.034 0 0 0
0.2956 0.0444147 0.969 255 255 255
-1.32796 -1.03328 3.026 255 255 255
0.206265 0.0431802 1.098 255 255 255
1.13825 -0.720475 2.32 255 255 255
0.219966 0.231209 0.793 255 255 255
-0.00454859 -0.0162276 0.777 0 0 0
-0.364749 -0.0238557 0.822 255 255 255
0.121045 -0.274409 1.419 255 255 255
0.732279 0.47321 1.911 255 255 255
0.0266534 0.078636 0.765 255 255 255
1.10954 -0.822794 2.269 255 255 255
-0.883685 -1.01308 2.925 0 0 0
0.625597 0.485987 1.853 255 255 255
0.0705673 -0.563127 1.935 255 255 255
-0.136834 0.281044 0.767 255 255 255
0.0730841 -0.0256918 0.796 255 255 255
0.779359 0.392826 2.078 0 0 0
-0.662588 -0.238419 1.254 255 255 255
-0.320846 -0.131058 1.062 255 255 255
-0.30253 -0.43451 1.794 0 0 0
-0.151615 -0.202176 1.283 255 255 255
-0.0787692 0.0211017 0.855 255 255 255
-0.100788 0.16658 0.715 255 255 255
0.286897 -0.190244 1.362 0 0 0
0.173486 -0.611554 1.959 255 255 255
0.28142 -0.214876 1.336 255 255 255
0.540802 0.609411 1.579 255 255 255
0.0621667 0.0413001 0.789 0 0 0
-0.261178 0.272426 0.812 255 255 255
0.0553617 0.186395 0.545 0 0 0
-0.345499 -0.624204 2.01 255 255 255
0.21979 -0.12473 1.281 255 255 255
0.268738 0.0112385 1.12 255 255 255
-0.362737 0.186981 0.797 255 255 255
0.710629 0.574528 1.696 255 255 255
0.0508849 0.0997234 0.755 255 255 255
0.668056 -0.273178 1.789 255 255 255
0.20664 0.0396788 1.1 255 255 255
1.05393 0.018034 2.66 255 255 255
-0.316182 -0.0277898 0.861 255 255 255
0.342604 -0.193873 1.372 255 255 255
-0.220707 0.039714 0.809 255 255 255
0.177214 -0.233195 1.354 0 0 0
-0.188632 0.126644 0.74 255 255 255
-0.298329 0.249866 0.816 255 255 255
-0.189746 0.0848673 0.754 0 0 0
-0.324548 0.12693 0.771 255 255 255
-0.125824 0.214615 0.732 255 255 255
0.103266 0.0684884 0.472 0 0 0
0.326837 -0.530733 1.887 255 255 255
0.337215 -0.577911 1.911 255 255 255
0.764735 -0.641816 2.181 0 0 0
0.686629 -0.33622 1.815 255 255 255
-0.0335813 -0.459827 1.779 255 255 255
0.292876 -0.44133 1.81 255 255 255
0.102873 0.177048 0.508 0 0 0
1.04317 -0.237075 2.519 255 255 255
-0.0723451 0.189678 0.71 255 255 255
0.21128 -0.244338 1.319 255 255 255
0.214594 -0.251774 1.313 255 255 255
-0.611244 -0.49159 1.758 255 255 255
-0.168332 -0.185066 1.252 255 255 255
-0.288888 0.10823 0.763 255 255 255
-0.0162301 -0.0774956 1.039 255 255 255
-0.420064 -0.0779001 0.873 255 255 255
-0.394325 -0.0289221 0.814 255 255 255
0.534637 0.585905 1.599 255 255 255
0.0405326 0.180506 0.684 255 255 255
-0.279785 0.292722 0.836 255 255 255
0.521364 0.548218 1.7 0 0 0
-0.137151 0.0862085 0.755 0 0 0
-0.393114 0.0982705 0.744 255 255 255
0.630582 -0.273245 1.734 255 255 255
0.688659 0.433304 2.03 255 255 255
1.15532 -0.55317 2.347 255 255 255
0.349304 -0.202804 1.372 0 0 0
0.0864132 0.121393 0.46 255 255 255
0.323458 -0.0769446 1.187 255 255 255
0.349446 -0.535501 1.893 255 255 255
0.0183586 0.0651958 0.783 0 0 0
0.0333096 0.073358 0.775 0 0 0
0.7257 -0.489434 1.87 255 255 255
-0.383568 0.25346 0.855 255 255 255
-0.0422907 -0.0757055 1.015 255 255 255
-0.621308 -1.00347 2.857 255 255 255
0.235641 0.148257 0.798 255 255 255
-0.447275 -0.0884485 0.879 255 255 255
-0.0630103 0.190565 0.709 255 255 255
-0.300906 -0.187933 1.244 0 0 0
0.828592 0.540689 1.729 0 0 0
-0.308022 0.175377 0.78 255 255 255
-0.0595564 -0.013283 0.924 255 255 255
0.249193 0.0287526 1.165 255 255 255
0.0556296 0.188729 0.539 0 0 0
0.188303 0.0273458 1.108 255 255 255
-0.331904 0.281356 0.851 255 255 255
0.836133 -0.803533 2.32 255 255 255
0.118883 0.129442 0.473 0 0 0
-0.374642 0.0689338 0.741 255 255 255
0.237636 -0.106704 1.265 255 255 255
-0.392885 0.309416 0.795 255 255 255
-0.053474 0.186048 0.705 0 0 0
-0.282115 -0.240234 1.369 255 255 255
0.0970148 -0.0559973 1.116 255 255 255
-0.815963 -0.971012 2.871 255 255 255
-0.393153 0.236377 0.834 255 255 255
0.00158349 0.247162 0.693 255 255 255
0.0733663 -0.81633 2.449 255 255 255
-0.387016 0.0157907 0.737 0 0 0
-0.425593 -0.388314 1.659 0 0 0
0.0244153 -0.360356 1.595 255 255 255
-0.0707744 0.101629 0.742 255 255 255
-0.197044 0.249278 0.773 255 255 255
0.563138 -0.270987 1.668 255 255 255
1.0247 -0.820658 2.253 255 255 255
1.03953 0.302851 2.064 255 255 255
-0.137428 -0.981976 2.672 255 255 255
-0.0890117 0.275877 0.743 255 255 255
-0.351146 0.297635 0.854 255 255 255
-0.321187 0.220348 0.81 255 255 255
0.788722 0.463409 1.935 0 0 0
0.180629 -0.971264 2.499 255 255 255
0.531911 -0.341851 1.753 0 0 0
0.100376 0.156869 0.484 0 0 0
-0.227168 0.0789411 0.756 255 255 255
-0.589478 -0.545054 1.842 255 255 255
-0.54549 -0.300164 1.348 255 255 255
0.80946 0.453609 1.947 0 0 0
-0.199463 0.042033 0.803 255 255 255
0.137943 0.0733992 0.789 255 255 255
0.0303098 0.0324892 0.763 255 255 255
0.189421 0.0326368 1.104 255 255 255
-0.196929 0.148513 0.735 255 255 255
0.0789304 -0.0778946 1.092 255 255 255
0.34775 -0.679635 1.935 255 255 255
-0.171914 -0.289179 1.435 255 255 255
0.0389005 0.21438 0.675 255 255 255
-0.302725 -0.1924 1.26 0 0 0
-0.209215 0.185471 0.749 255 255 255
-1.15508 -1.10351 2.925 255 255 255
0.11077 0.0778087 0.468 0 0 0
-0.558146 -0.494272 1.799 255 255 255
-0.692188 -0.921302 2.805 255 255 255
-0.20931 0.109314 0.745 255 255 255
-0.191556 -0.173762 1.244 255 255 255
0.165226 -0.043241 1.217 255 255 255
0.410884 -0.0268796 1.194 255 255 255
-0.358038 -0.00890785 0.801 255 255 255
0.0233202 -0.534787 1.935 255 255 255
1.22837 0.0571484 2.479 255 255 255
-0.243909 0.213226 0.77 255 255 255
1.21095 -0.275015 2.42 255 255 255
-0.368154 0.268312 0.858 255 255 255
-0.354997 -0.752678 2.085 255 255 255
-0.174843 0.21322 0.748 255 255 255
0.0819154 0.149945 0.482 255 255 255
-0.570709 -0.544034 1.859 255 255 255
0.0812992 -0.0730951 1.1 255 255 255
-0.342752 0.325519 0.847 255 255 255
0.978931 -0.439045 2.078 0 0 0
-0.228273 -0.0294682 0.913 0 0 0
0.0654524 -0.0609376 1.075 255 255 255
-0.651813 -0.231371 1.249 255 255 255
0.792367 0.499712 1.848 255 255 255
-0.0259316 0.16425 0.705 255 255 255
-0.274776 0.232792 0.794 255 255 255
-0.323663 -0.00245606 0.823 255 255 255
0.113902 0.0833397 0.774 255 255 255
0.696015 0.604119 1.599 255 255 255
-0.121012 0.243124 0.739 255 255 255
1.13377 0.140149 2.449 255 255 255
-1.042 -1.00856 3.011 0 0 0
0.0673931 0.088132 0.761 0 0 0
-0.19174 0.261948 0.777 255 255 255
0.276323 0.0911494 0.901 255 255 255
0.999437 0.431862 1.978 255 255 255
-0.278361 0.0160762 0.812 255 255 255
-0.226267 0.187687 0.753 255 255 255
-0.400582 -0.130176 1.002 255 255 255
0.107094 0.118162 0.462 0 0 0
0.757532 -0.349846 1.794 255 255 255
0.284667 -0.0104809 1.104 255 255 255
0.953775 0.442509 1.997 255 255 255
0.315024 -0.19646 1.359 255 255 255
-0.259266 0.244421 0.794 255 255 255
0.245425 -0.597187 1.923 255 255 255
0.683801 0.604527 1.607 255 255 255
-0.363012 0.0344106 0.725 255 255 255
-0.166764 0.230877 0.75 255 255 255
0.253801 0.0458492 0.966 255 255 255
-0.298863 0.0848179 0.776 255 255 255
0.698541 0.620246 1.587 255 255 255
0.0524462 0.0950285 0.478 255 255 255
0.898856 0.499706 1.826 0 0 0
-0.340821 0.288581 0.856 255 255 255
-0.20215 0.279762 0.788 255 255 255
-0.298863 0.174477 0.776 255 255 255
0.0463848 0.199211 0.672 255 255 255
-0.153319 0.225397 0.744 255 255 255
0.237725 -0.391903 1.71 0 0 0
-0.398169 0.144913 0.78 255 255 255
-0.0777269 0.142543 0.717 255 255 255
-0.289628 0.280827 0.833 255 255 255
-0.172 0.115962 0.741 255 255 255
-0.256616 0.00856934 0.854 255 255 255
0.751627 0.50851 1.815 255 255 255
-0.138806 -0.328383 1.591 255 255 255
0.0545513 0.098504 0.476 255 255 255
-0.349764 0.185684 0.797 255 255 255
-0.39638 -0.034515 0.821 255 255 255
-0.0268103 0.175114 0.698 255 255 255
-0.607893 -0.290245 1.294 255 255 255
0.838814 0.259351 2.338 0 0 0
-0.0605026 -0.0608572 0.963 255 255 255
-0.524533 -0.986324 2.672 0 0 0
0.347776 -0.206363 1.366 255 255 255
-0.146467 0.173162 0.728 255 255 255
0.256725 -0.446603 1.784 255 255 255
-0.192173 -0.141607 1.118 255 255 255
-0.411097 -0.379298 1.655 0 0 0
-0.074414 -0.0242713 0.886 0 0 0
0.00784547 -0.271524 1.416 255 255 255
-0.312022 0.0586969 0.719 255 255 255
0.131819 0.105761 0.467 255 255 255
0.602757 -0.419913 1.794 255 255 255
-0.010919 0.247027 0.699 255 255 255
0.743772 0.527427 1.789 255 255 255
-0.449853 -0.197023 1.225 255 255 255
0.0549554 0.190309 0.541 0 0 0
-0.569726 -0.932185 2.743 255 255 255
-0.00713286 0.0244215 0.783 255 255 255
0.350554 -0.561921 1.899 255 255 255
-0.607065 -0.697734 2.212 255 255 255
0.372606 -0.336237 1.642 0 0 0
0.325367 -0.808855 2.261 255 255 255
-0.424817 0.195165 0.804 255 255 255
-0.20003 -0.263706 1.387 255 255 255
-0.415235 0.245787 0.843 255 255 255
-0.271083 0.259892 0.81 255 255 255
-0.0154807 0.0898944 0.755 255 255 255
-0.295952 0.115528 0.762 255 255 255
0.293416 0.0760855 0.932 255 255 255
-0.0387242 -0.822296 2.479 255 255 255
-0.35901 0.158818 0.786 255 255 255
-0.0996545 -0.813462 2.489 255 255 255
1.03064 -0.301891 2.479 255 255 255
0.890947 0.279569 2.143 255 255 255
-0.0680559 0.0760759 0.752 0 0 0
-0.294452 0.257763 0.82 255 255 255
0.0935573 0.127183 0.462 255 255 255
0.91725 0.408968 2.024 0 0 0
-0.0485142 -0.0849412 1.007 255 255 255
0.622863 -0.303201 1.744 255 255 255
-0.436974 -0.543988 1.923 0 0 0
0.752079 -0.757197 2.294 255 255 255
0.576457 -0.545375 1.985 255 255 255
-0.0715641 -0.977834 2.649 0 0 0
0.589297 0.596313 1.599 255 255 255
-0.418002 -0.00896346 0.806 255 255 255
-0.338021 0.0115751 0.776 0 0 0
-0.103889 0.106941 0.737 255 255 255
-0.0128722 -0.0895031 1.041 255 255 255
-0.333089 0.0434862 0.719 255 255 255
-0.356564 0.279156 0.857 255 255 255
0.0781765 0.0862101 0.46 255 255 255
-0.366866 0.281287 0.855 255 255 255
-0.306704 -0.0254809 0.878 255 255 255
-0.340745 0.238518 0.832 255 255 255
-0.309918 0.334616 0.867 255 255 255
0.578247 -0.197929 1.583 255 255 255
-0.289066 0.241258 0.805 255 255 255
0.549562 -0.273702 1.668 255 255 255
-0.415093 0.276344 0.808 255 255 255
0.168134 0.217651 0.696 255 255 255
-0.189998 0.220129 0.755 255 255 255
0.0960106 0.0956879 0.762 255 255 255
0.494768 -0.349539 1.763 0 0 0
-0.52957 -0.357309 1.516 0 0 0
1.10437 -0.256549 2.509 255 255 255
0.35602 0.0229255 1.07 255 255 255
-0.0085073 0.201714 0.688 255 255 255
0.820148 0.55757 1.729 255 255 255
0.000502737 0.00394156 0.765 255 255 255
1.16847 -0.62609 2.32 255 255 255
-0.363009 -0.947126 2.489 255 255 255
-0.321199 0.0228221 0.772 0 0 0
-0.242291 -0.468133 1.87 255 255 255
0.029992 0.0235482 0.755 255 255 255
0.326364 -0.226082 1.351 0 0 0
-1.06204 -0.930996 2.793 255 255 255
-0.40065 0.305534 0.795 255 255 255
0.91933 0.27518 2.136 255 255 255
-0.0686658 -0.136636 1.122 255 255 255
-0.630609 -0.970927 2.857 0 0 0
-0.335731 0.245582 0.833 255 255 255
0.243504 -0.00158084 1.165 255 255 255
-0.213593 0.298327 0.807 255 255 255
0.0354358 0.120206 0.716 0 0 0
-0.358976 0.027294 0.724 255 255 255
-1.37864 -1.08259 3.04 255 255 255
0.0352722 0.165247 0.69 255 255 255
0.186035 0.268133 0.745 255 255 255
0.183826 -0.219974 1.354 0 0 0
0.027688 0.149909 0.697 255 255 255
-0.210947 0.144316 0.738 255 255 255
0.554043 -0.362244 1.769 0 0 0
0.799349 -0.713658 2.228 255 255 255
0.0201868 0.0949345 0.756 255 255 255
-0.0729565 0.142344 0.716 255 255 255
1.03087 -0.122296 2.519 255 255 255
-0.102522 0.203783 0.719 255 255 255
-0.00690512 0.086551 0.758 0 0 0
-0.444344 -0.188703 1.21 0 0 0
1.20653 -0.376527 2.365 255 255 255
-0.0373545 0.22359 0.704 255 255 255
-0.347445 0.255996 0.845 255 255 255
0.121193 0.0801794 0.473 0 0 0
-0.327395 -0.0375977 0.861 255 255 255
0.909861 0.317067 2.114 255 255 255
1.23685 -0.2892 2.44 255 255 255
1.10605 -0.825844 2.189 255 255 255
1.10476 -0.76875 2.329 255 255 255
-0.3416 0.271662 0.851 255 255 255
0.406543 -0.026722 1.187 255 255 255
-0.377749 0.137145 0.772 255 255 255
-0.167528 0.0338277 0.826 255 255 255
0.700475 -0.225686 1.805 255 255 255
1.11536 0.0592923 2.572 255 255 255
-0.551508 -0.30184 1.336 255 255 255
0.188372 0.0857017 0.861 255 255 255
-0.00827858 0.00773649 0.771 255 255 255
0.338037 -0.414669 1.784 255 255 255
1.03937 -0.340363 2.253 255 255 255
-0.358915 -0.542762 1.941 255 255 255
-0.159405 0.13141 0.733 255 255 255
0.813508 0.36867 2.114 255 255 255
1.19756 -0.214546 2.449 255 255 255
1.18793 -0.34319 2.374 255 255 255
0.0498305 -0.210372 1.308 255 255 255
0.579222 0.495374 1.821 0 0 0
-0.214043 -0.377978 1.673 255 255 255
-0.249449 0.134278 0.749 255 255 255
0.702415 -0.185075 1.81 255 255 255
0.948067 0.35462 2.092 255 255 255
1.02459 -0.815409 2.269 255 255 255
0.0438954 0.204741 0.535 255 255 255
0.174974 -0.0149919 1.176 255 255 255
-0.252409 0.0731687 0.773 255 255 255
-0.323343 -0.0289536 0.854 255 255 255
-0.219565 0.240453 0.777 255 255 255
0.281582 -0.0033006 1.106 255 255 255
-0.0210991 0.0307138 0.781 255 255 255
-0.277506 -0.661127 2.064 255 255 255
0.0839621 0.0784843 0.463 0 0 0
0.0583699 -0.453603 1.848 255 255 255
-0.0666602 0.213086 0.711 255 255 255
-0.0405049 -0.98248 2.593 255 255 255
-0.068058 0.0262929 0.843 255 255 255
-0.237006 -0.036412 0.901 255 255 255
1.14328 -0.649971 2.338 255 255 255
-0.599418 -0.419257 1.563 255 255 255
1.09037 -0.78233 2.347 255 255 255
-0.467785 -0.224445 1.291 255 255 255
-0.0397953 0.0795351 0.75 0 0 0
-0.384551 -0.0995158 0.958 255 255 255
-0.310959 0.17306 0.781 255 255 255
-0.20877 0.0322082 0.819 255 255 255
-0.262935 0.0950676 0.767 255 255 255
-0.424516 -0.0382885 0.816 255 255 255
0.166867 -0.123152 1.244 255 255 255
0.309556 0.000286609 1.06 255 255 255
0.187633 -0.283046 1.416 255 255 255
-0.640612 -0.542408 1.784 255 255 255
0.29073 -0.445503 1.815 255 255 255
0.691121 0.429025 2.057 255 255 255
0.56323 0.57569 1.629 255 255 255
0.0809842 0.0723289 0.472 255 255 255
-0.476184 -0.17732 1.149 255 255 255
-1.4373 -1.06142 2.967 255 255 255
1.23288 -0.0946366 2.44 255 255 255
-0.132682 0.224476 0.737 255 255 255
0.476392 -0.0593362 1.31 255 255 255
0.0367573 0.219098 0.676 0 0 0
-0.275765 0.00155613 0.82 0 0 0
0.347657 0.0344578 1.05 255 255 255
-0.01767 -0.271692 1.429 255 255 255
-0.38093 0.00534918 0.789 255 255 255
0.332669 -0.00497592 1.079 255 255 255
-0.0357873 -0.0726161 1.018 255 255 255
0.0923423 0.117369 0.456 0 0 0
-0.358456 0.15292 0.782 255 255 255
0.258507 -0.157638 1.33 255 255 255
-0.398035 -0.382277 1.668 255 255 255
-0.144232 0.303578 0.78 255 255 255
0.0496391 -0.468404 1.859 255 255 255
0.312672 0.056254 0.983 255 255 255
-0.275276 0.0485667 0.803 255 255 255
0.0695034 0.0975238 0.757 255 255 255
-0.0451053 -0.935495 2.615 0 0 0
1.0097 0.210892 2.228 255 255 255
0.0276085 0.157396 0.695 255 255 255
-0.137602 0.190146 0.725 255 255 255
-0.230882 -0.0290486 0.9 255 255 255
-0.18335 0.104184 0.743 255 255 255
0.0845061 0.0767179 0.466 255 255 255
0.509361 -0.466178 1.815 255 255 255
-0.21475 -0.951594 2.66 0 0 0
0.478447 -0.714868 2.064 255 255 255
-0.670877 -0.391938 1.362 255 255 255
-0.179689 0.13976 0.733 255 255 255
-0.0961322 0.165416 0.715 255 255 255
-0.22942 -0.627138 2.085 0 0 0
-0.198928 0.0950199 0.747 255 255 255
-0.184426 0.295525 0.789 255 255 255
-0.106981 -0.990672 2.672 0 0 0
0.100507 0.101786 0.456 255 255 255
-0.153948 0.0737263 0.753 0 0 0
-0.225239 0.00309499 0.878 255 255 255
-0.343657 -0.746769 2.078 255 255 255
0.53243 0.578985 1.616 255 255 255
-0.222923 0.103945 0.75 255 255 255
-0.130881 0.197769 0.727 255 255 255
-0.199552 -0.588589 2.057 255 255 255
0.0913766 0.16285 0.495 255 255 255
0.556223 0.609411 1.579 255 255 255
0.955271 0.137974 2.411 0 0 0
-0.0146859 0.012871 0.778 0 0 0
1.02593 0.385076 2.037 0 0 0
-0.216045 0.148119 0.739 0 0 0
-0.219254 -0.0363808 0.938 255 255 255
0.82004 0.329366 2.196 255 255 255
0.904149 0.458185 1.953 255 255 255
-0.156468 -0.277303 1.422 0 0 0
-0.290658 0.322013 0.856 255 255 255
0.876848 -0.66402 2.269 0 0 0
-1.27543 -1.11358 2.939 255 255 255
0.673935 -0.506167 1.887 255 255 255
0.60644 -0.495631 1.859 255 255 255
-0.517516 -0.211372 1.239 255 255 255
0.0507603 0.192649 0.672 0 0 0
0.355461 -0.432088 1.784 255 255 255
0.171873 -0.409146 1.748 255 255 255
-0.317038 0.106848 0.762 255 255 255
0.91418 0.504265 1.821 255 255 255
0.0940105 0.0747623 0.468 255 255 255
0.898291 0.490759 1.837 0 0 0
-0.366199 0.100286 0.741 255 255 255
-0.261668 0.00295751 0.839 255 255 255
0.0848377 0.0430275 0.822 255 255 255
0.719427 0.469706 1.935 255 255 255
-0.155586 0.25576 0.755 255 255 255
-0.35327 -0.0310642 0.836 255 255 255
-0.268046 0.00425071 0.825 255 255 255
-0.370019 0.315098 0.813 255 255 255
0.189212 -0.535501 1.893 255 255 255
-0.154575 0.0506065 0.794 255 255 255
0.2277 -0.108934 1.267 255 255 255
0.102959 0.0945721 0.457 255 255 255
-0.162453 0.124761 0.736 255 255 255
-0.115783 0.0398613 0.812 255 255 255
-0.110561 0.18831 0.718 255 255 255
-0.110831 -0.96458 2.66 255 255 255
-0.0345429 0.128541 0.717 255 255 255
1.15022 -0.271833 2.392 255 255 255
-0.106432 0.103483 0.738 255 255 255
-0.0494288 0.280554 0.73 255 255 255
-0.361925 0.155863 0.784 255 255 255
0.968499 -0.469238 2.092 0 0 0
-0.319642 0.0484344 0.723 255 255 255
0.132589 -0.344062 1.616 255 255 255
0.261252 -0.00338715 1.135 255 255 255
0.218843 -0.224074 1.339 0 0 0
0.021965 -0.200161 1.297 255 255 255
0.102215 0.190478 0.513 255 255 255
-0.145284 0.125617 0.734 255 255 255
-0.26277 -0.898064 2.499 0 0 0
-0.272542 0.193929 0.773 255 255 255
-0.0096972 0.235885 0.693 255 255 255
0.735476 0.582808 1.696 255 255 255
-0.190543 -0.468133 1.87 0 0 0
1.00621 0.289546 2.114 255 255 255
-0.287752 0.121409 0.76 255 255 255
0.0078726 -0.0478212 0.895 0 0 0
-0.326573 0.17974 0.788 255 255 255
0.570903 0.559075 1.691 255 255 255
0.371365 -0.389705 1.763 0 0 0
0.615836 -0.21065 1.642 255 255 255
-0.245162 0.211972 0.77 255 255 255
-0.0331896 0.140587 0.713 255 255 255
-0.124412 0.164712 0.717 0 0 0
1.12157 0.216382 2.286 255 255 255
-0.17683 0.177461 0.736 255 255 255
-0.0833168 -0.0804473 0.992 255 255 255
0.245093 -0.432739 1.763 0 0 0
0.599534 -0.309928 1.734 0 0 0
-0.180984 -0.23339 1.33 255 255 255
-0.00670916 -0.92369 2.582 0 0 0
0.818161 -0.68942 2.22 255 255 255
0.0179834 0.0326596 0.767 255 255 255
-0.15011 0.0375393 0.819 255 255 255
0.515851 -0.293987 1.691 255 255 255
0.0390157 0.227134 0.677 255 255 255
-0.0343984 0.139623 0.714 255 255 255
0.0774546 -0.167015 1.239 255 255 255
-0.0890242 0.177966 0.714 255 255 255
0.723387 -0.404186 1.789 255 255 255
1.1275 -0.692949 2.329 255 255 255
0.0464211 0.201751 0.534 0 0 0
0.705362 -0.182129 1.81 0 0 0
0.441925 -0.237507 1.539 255 255 255
-0.1792 0.288181 0.783 255 255 255
1.21959 -0.546143 2.383 255 255 255
0.316861 -0.00848769 1.079 255 255 255
-0.21525 0.272413 0.789 255 255 255
0.93348 0.150163 2.356 255 255 255
-0.223726 -0.373237 1.664 0 0 0
-0.0928837 0.0577711 0.786 255 255 255
0.488286 -0.929678 2.392 255 255 255
-0.131896 -0.0683804 0.981 255 255 255
0.0904687 0.188621 0.508 255 255 255
-0.0943548 0.0913731 0.747 255 255 255
-0.135857 0.159986 0.722 0 0 0
0.286541 -0.600897 1.905 255 255 255
0.120174 -0.249169 1.357 255 255 255
0.649682 -0.84284 2.356 255 255 255
-0.157329 -0.3344 1.595 255 255 255
0.00919553 -0.00103535 0.763 255 255 255
0.190484 0.269787 0.753 255 255 255
0.0105607 0.0705614 0.772 255 255 255
0.154124 -0.0165175 1.149 255 255 255
-0.497533 -0.15116 1.034 255 255 255
-0.450295 -0.524591 1.887 255 255 255
0.824736 -0.717284 2.228 255 255 255
0.599825 -0.896516 2.356 255 255 255
-0.282855 -0.986456 2.649 0 0 0
-0.000668766 0.23116 0.689 255 255 255
-1.33074 -1.11279 3.055 255 255 255
-0.0136903 -0.169792 1.275 0 0 0
0.147248 -0.503064 1.831 0 0 0
-0.264852 0.0725619 0.78 255 255 255
1.01853 -0.249447 2.479 255 255 255
-0.0816599 -0.320155 1.539 255 255 255
0.636966 0.561827 1.691 255 255 255
-1.12052 -1.12653 3.149 255 255 255
-0.324576 -0.140091 1.092 255 255 255
0.966211 0.394397 2.051 0 0 0
0.174573 -0.083531 1.227 255 255 255
-0.357955 -0.577899 1.953 255 255 255
-0.159062 0.0848673 0.754 0 0 0
0.0403825 -0.0859618 1.06 255 255 255
-0.0181014 0.2717 0.713 255 255 255
-0.295191 0.170029 0.773 255 255 255
0.518085 -0.382734 1.784 255 255 255
1.10522 -0.733674 2.338 255 255 255
-0.143305 0.146291 0.724 255 255 255
-0.255471 -0.295565 1.432 255 255 255
0.00386733 0.259168 0.698 255 255 255
-0.0402606 -0.229061 1.33 0 0 0
-0.280313 0.00285528 0.81 0 0 0
0.772973 0.463409 1.935 0 0 0
-0.145175 0.0883134 0.752 0 0 0
-0.427029 -0.0959049 0.909 255 255 255
0.79961 0.346127 2.189 255 255 255
0.690547 -0.684653 2.228 255 255 255
-0.38503 0.2849 0.837 255 255 255
0.370899 -0.230218 1.403 255 255 255
0.819293 0.429035 2.01 255 255 255
0.860176 0.548751 1.719 255 255 255
-0.185051 -0.0711354 0.975 255 255 255
0.0944123 0.0681982 0.47 0 0 0
-0.246858 0.176132 0.756 255 255 255
0.671093 -0.369615 1.805 0 0 0
0.0887594 0.175305 0.503 255 255 255
0.117114 0.10193 0.46 255 255 255
-0.0548393 0.261392 0.723 255 255 255
-0.684801 -0.381424 1.333 255 255 255
-0.466816 -0.554769 1.917 255 255 255
0.0686019 -0.242047 1.342 0 0 0
-0.678334 -0.55774 1.815 255 255 255
0.921808 0.474696 1.917 255 255 255
0.98578 0.341993 2.057 255 255 255
-0.149422 0.288647 0.774 255 255 255
-0.38753 -0.229578 1.333 0 0 0
0.513062 -0.306617 1.7 255 255 255
0.902024 -0.211426 2.286 0 0 0
-0.132754 -0.107466 1.051 255 255 255
1.1847 -0.153243 2.489 255 255 255
0.525321 0.512899 1.779 255 255 255
1.00269 -0.567678 2.253 0 0 0
0.096796 0.114401 0.456 255 255 255
0.959425 -0.248478 2.392 0 0 0
0.00179828 0.0501604 0.787 255 255 255
-0.410889 -0.266539 1.39 255 255 255
-0.0203081 0.150183 0.709 255 255 255
1.26574 -0.21805 2.489 255 255 255
-0.0588558 -0.291448 1.47 255 255 255
-0.0853129 -0.192932 1.291 255 255 255
-0.182856 0.184695 0.741 255 255 255
0.0560411 0.0820959 0.489 255 255 255
-0.257122 0.323597 0.842 255 255 255
0.241018 -0.122837 1.283 255 255 255
0.791757 0.454836 1.966 255 255 255
-0.217123 -0.035003 0.942 0 0 0
0.520343 -0.173476 1.484 255 255 255
0.157289 -0.0402435 1.187 255 255 255
0.149083 -0.733731 2.212 0 0 0
1.07578 -0.236134 2.509 255 255 255
0.770183 0.484405 1.882 255 255 255
0.0681098 0.18834 0.514 255 255 255
-0.380501 0.0481076 0.736 255 255 255
-0.312264 0.216099 0.804 255 255 255
0.954878 0.364833 2.092 255 255 255
-0.546022 -0.323134 1.4 255 255 255
-0.340068 0.248124 0.837 255 255 255
0.801502 -0.659344 2.204 255 255 255
-0.281196 0.133601 0.759 255 255 255
0.230703 0.239527 0.808 255 255 255
0.413166 -0.642117 1.917 255 255 255
-0.202371 0.00738137 0.878 255 255 255
0.901234 0.232982 2.303 0 0 0
0.1637 -0.922823 2.489 255 255 255
-0.647265 -0.229889 1.252 255 255 255
-0.143479 0.115336 0.737 255 255 255
-0.155733 0.16346 0.727 255 255 255
-0.216126 -0.061426 0.972 255 255 255
1.20795 -0.480218 2.383 255 255 255
-0.241291 0.0485667 0.803 255 255 255
0.229341 -0.679967 2.03 255 255 255
0.713403 0.467719 1.953 255 255 255
-0.0452358 -0.0996896 1.007 255 255 255
-0.0601887 -0.33873 1.567 255 255 255
-0.0839373 -0.00692231 0.88 255 255 255
0.631577 -0.672537 2.212 255 255 255
0.0648494 0.119951 0.472 0 0 0
-0.154067 0.206206 0.736 255 255 255
-0.0368559 -0.0323407 1.002 255 255 255
-0.0836596 0.247798 0.728 255 255 255
-0.463401 -0.401812 1.659 255 255 255
0.750024 0.592958 1.655 255 255 255
-0.307921 0.0971823 0.764 255 255 255
0.116921 0.087807 0.769 255 255 255
0.117875 0.0666946 0.801 255 255 255
-0.264067 -0.627539 2.064 255 255 255
-0.325206 -0.189957 1.244 255 255 255
0.194431 -0.247487 1.336 255 255 255
-0.0995772 -0.0413531 0.947 255 255 255
0.184233 -0.231503 1.357 0 0 0
0.488651 -0.101587 1.362 255 255 255
1.20819 -0.180866 2.479 255 255 255
-0.286725 -0.00376768 0.817 255 255 255
-0.652393 -1.00372 2.871 255 255 255
-0.688118 -0.392297 1.348 255 255 255
0.0461599 -0.149071 1.162 255 255 255
-0.129916 -0.188466 1.275 0 0 0
-0.105359 -0.112458 1.034 0 0 0
0.747486 -0.41955 1.805 255 255 255
1.03256 0.361871 2.037 0 0 0
0.44068 -0.225511 1.509 255 255 255
-0.305256 -0.12616 1.05 255 255 255
0.98863 0.267223 2.128 255 255 255
0.720475 -0.410008 1.789 255 255 255
-0.386639 -0.236022 1.345 0 0 0
1.17224 -0.656293 2.32 255 255 255
0.126842 -0.529327 1.882 255 255 255
0.0524462 0.0942507 0.478 255 255 255
0.0892463 0.0660439 0.471 0 0 0
0.0707888 0.077998 0.771 0 0 0
-0.429918 -0.109276 0.948 255 255 255
0.304888 -0.43159 1.794 255 255 255
-0.230687 -0.705867 2.128 0 0 0
-0.251447 0.11201 0.755 255 255 255
-1.38019 -1.12616 3.011 255 255 255
0.227431 0.0022393 1.18 255 255 255
-0.34022 0.296237 0.858 255 255 255
-0.0403521 -0.162285 1.265 255 255 255
-0.241295 0.113088 0.754 255 255 255
-0.237102 -0.0975028 1.036 255 255 255
-0.337678 0.160966 0.784 255 255 255
0.253266 0.050464 0.935 255 255 255
0.93834 -0.327452 2.078 255 255 255
0.0299063 -0.140038 1.12 255 255 255
-0.28937 0.117853 0.761 255 255 255
0.10022 0.134063 0.465 255 255 255
-0.149031 -0.865701 2.572 255 255 255
0.2484 -0.124438 1.278 255 255 255
-0.350455 0.102177 0.746 255 255 255
0.136813 -0.0462727 1.145 255 255 255
0.929002 0.504265 1.821 0 0 0
0.759643 -0.347894 1.799 255 255 255
0.361656 -0.0311472 1.137 255 255 255
-0.249201 0.196169 0.767 255 255 255
-0.0825049 -0.0212428 0.88 0 0 0
0.852046 0.514341 1.784 255 255 255
-0.134525 0.0707944 0.761 255 255 255
-0.513121 -0.504712 1.837 0 0 0
0.0611689 0.195239 0.519 0 0 0
-0.217717 -0.280993 1.429 255 255 255
1.23847 0.0846985 2.459 255 255 255
-0.425395 0.231502 0.836 255 255 255
0.196045 0.115719 0.78 255 255 255
0.30273 0.0984114 0.928 255 255 255
0.384557 -0.589733 1.899 255 255 255
-0.54086 -0.291781 1.381 255 255 255
0.708048 0.384963 2.128 255 255 255
-0.351877 -0.286491 1.445 255 255 255
-0.206735 -0.722435 2.244 255 255 255
-0.322556 0.0633771 0.719 255 255 255
0.920645 0.414118 2.017 255 255 255
0.448415 -0.219576 1.502 255 255 255
1.11475 -0.0826593 2.561 255 255 255
-0.373825 0.279896 0.855 255 255 255
-0.709157 -0.93933 2.818 255 255 255
0.659157 -0.707483 2.22 255 255 255
-0.131353 0.0753498 0.757 0 0 0
0.0361324 -0.0393251 0.81 0 0 0
-0.247453 -0.357837 1.607 255 255 255
0.105571 0.073097 0.472 0 0 0
-0.309832 -0.729861 2.078 255 255 255
-0.0770323 0.0727898 0.756 255 255 255
-0.0853057 -0.521747 1.899 255 255 255
-0.549333 -0.308363 1.336 255 255 255
-0.217531 -0.139962 1.064 0 0 0
-0.132731 0.248401 0.744 255 255 255
-0.0833499 0.0194798 0.845 255 255 255
0.666023 0.502719 1.848 255 255 255
0.0732471 0.198104 0.509 255 255 255
1.19955 -0.121153 2.582 255 255 255
-0.371966 0.0144726 0.731 255 255 255
-0.0797866 0.267289 0.736 255 255 255
-0.0221379 0.211379 0.694 255 255 255
0.965259 0.333076 2.085 255 255 255
0.219136 0.104223 0.809 255 255 255
-0.35495 -0.0184825 0.821 255 255 255
-0.604455 -0.433485 1.646 255 255 255
0.5944 0.590963 1.62 255 255 255
0.28181 -0.903697 2.459 255 255 255
-0.519542 -0.449717 1.729 255 255 255
-0.340346 0.0688145 0.727 255 255 255
-0.174517 0.262663 0.768 255 255 255
-0.658446 -0.326043 1.294 255 255 255
-0.370691 -0.0454702 0.851 255 255 255
-0.191041 0.129052 0.74 255 255 255
-1.13052 -0.934996 2.805 255 255 255
0.210756 0.32986 0.844 255 255 255
-0.130919 -0.355059 1.655 255 255 255
0.0995555 0.077975 0.469 255 255 255
0.726795 -0.327272 1.865 0 0 0
-0.0130248 0.186581 0.69 0 0 0
0.273501 0.0275439 0.986 255 255 255
0.206533 -0.0420065 1.239 255 255 255
-0.0824269 -0.373911 1.655 255 255 255
-0.412222 0.148397 0.785 255 255 255
-0.0753081 -0.0630077 0.972 255 255 255
0.0201601 0.0149477 0.755 255 255 255
-0.256015 0.0127087 0.852 0 0 0
1.23742 -0.087015 2.449 255 255 255
-1.07183 -1.02817 3.04 0 0 0
0.497272 -0.223962 1.532 255 255 255
0.0590686 0.215095 0.667 255 255 255
-0.227022 -0.280993 1.429 0 0 0
-0.414838 -0.0813889 0.88 255 255 255
0.700302 0.616631 1.591 255 255 255
-0.466496 -0.258485 1.348 255 255 255
-0.221798 0.0359413 0.813 255 255 255
-0.192926 0.0527218 0.787 255 255 255
1.01889 -0.196939 2.53 255 255 255
-0.207052 0.195482 0.75 255 255 255
-0.139474 0.0541398 0.789 255 255 255
0.39573 -0.887912 2.374 0 0 0
-0.320367 0.129272 0.77 255 255 255
-0.121923 0.146089 0.723 255 255 255
0.0147187 -0.273055 1.412 255 255 255
-0.0824111 -0.0226491 0.879 0 0 0
-0.323186 0.176726 0.786 255 255 255
0.100617 0.0633792 0.474 0 0 0
0.944701 0.454394 1.978 255 255 255
-0.66872 -0.272516 1.31 0 0 0
-0.21212 0.0849798 0.755 255 255 255
0.117614 0.126595 0.471 0 0 0
-0.0448586 0.139623 0.714 255 255 255
0.234939 0.129237 0.809 255 255 255
-0.591398 -0.528786 1.848 255 255 255
-0.295426 0.256116 0.819 255 255 255
0.00165542 -0.864259 2.519 255 255 255
-0.440985 -0.419142 1.719 255 255 255
1.16155 0.0333421 2.509 255 255 255
1.09861 -0.162539 2.572 255 255 255
-0.371273 -0.0686561 0.882 255 255 255
0.116543 -0.196668 1.316 0 0 0
0.21479 -0.56138 1.929 255 255 255
0.111168 -0.451317 1.876 0 0 0
-0.240741 0.0991471 0.76 255 255 255
-0.516616 -0.439209 1.71 255 255 255
-0.621426 -0.235261 1.27 0 0 0
0.0027859 0.129962 0.712 255 255 255
0.0871542 0.137974 0.468 255 255 255
-0.346012 0.0850051 0.734 255 255 255
0.086968 0.0746026 0.467 0 0 0
-0.231192 -0.227267 1.345 255 255 255
0.506096 0.592922 1.583 255 255 255
0.83622 0.299699 2.269 255 255 255
0.0901899 0.0363392 0.822 0 0 0
-0.233878 0.124028 0.746 255 255 255
0.735399 -0.778188 2.312 0 0 0
0.868786 0.14195 2.347 0 0 0
0.645129 -0.392136 1.774 255 255 255
-0.184302 0.302566 0.794 255 255 255
-0.988138 -0.979339 2.967 0 0 0
-0.256358 0.0949437 0.766 255 255 255
-0.390944 -0.605178 1.959 255 255 255
0.586516 -0.351783 1.789 0 0 0
-0.349836 0.0680966 0.732 255 255 255
1.08354 -0.845648 2.261 255 255 255
0.493929 -0.565984 1.978 255 255 255
-0.848677 -0.980356 2.871 0 0 0
-0.405396 0.000208738 0.772 255 255 255
-0.165969 0.112344 0.741 255 255 255
0.74661 0.510055 1.81 255 255 255
1.18343 -0.572807 2.365 255 255 255
-0.223863 0.16387 0.745 255 255 255
-0.20227 0.310915 0.809 255 255 255
0.242294 -0.603445 1.923 255 255 255
-0.0372227 -0.666654 2.158 0 0 0
-0.230692 -0.0277372 0.905 255 255 255
-1.22962 -1.02279 2.967 0 0 0
-0.323923 -0.0567495 0.898 255 255 255
0.174381 -0.265388 1.384 255 255 255
0.650982 0.484676 1.848 255 255 255
0.666646 0.594246 1.629 255 255 255
0.914551 0.515946 1.81 255 255 255
0.22277 0.0714322 0.875 255 255 255
0.188851 -0.609681 1.953 255 255 255
0.463182 -0.45241 1.831 255 255 255
-0.252819 0.00303154 0.86 255 255 255
0.255075 0.0514296 0.925 255 255 255
-0.55176 -0.33603 1.369 0 0 0
0.0262885 -0.211526 1.302 255 255 255
0.238651 0.0597423 0.914 255 255 255
0.805569 0.579271 1.71 255 255 255
-0.332969 0.140381 0.776 255 255 255
-0.405492 0.139298 0.777 255 255 255
-0.603132 -0.25637 1.262 255 255 255
-0.355655 -0.242461 1.369 0 0 0
0.697827 0.586292 1.659 255 255 255
1.22433 -0.184901 2.479 255 255 255
0.20018 -0.150681 1.289 255 255 255
0.959979 -0.0371177 2.582 255 255 255
-0.281463 0.0388304 0.791 255 255 255
-0.371369 0.292756 0.84 255 255 255
0.614256 0.60563 1.603 255 255 255
-0.0130437 0.201469 0.691 255 255 255
-0.337969 -0.00371695 0.806 255 255 255
0.337954 -0.0475895 1.132 255 255 255
0.744684 0.382431 2.114 255 255 255
-0.304136 0.10006 0.767 255 255 255
1.07322 -0.813194 2.294 255 255 255
-0.306633 0.0351559 0.767 255 255 255
-0.0153597 0.231708 0.694 255 255 255
0.170447 0.0120212 1.198 255 255 255
-0.292106 0.199495 0.785 255 255 255
-0.317028 0.200238 0.793 255 255 255
0.243703 -0.418874 1.753 0 0 0
-0.0490916 0.22486 0.708 255 255 255
0.519435 -0.921892 2.392 255 255 255
-0.347512 -0.0527479 0.88 255 255 255
-0.218959 -0.108657 1.046 0 0 0
-0.639845 -0.297709 1.299 255 255 255
0.865915 0.231823 2.329 0 0 0
0.731168 0.489002 1.853 255 255 255
-0.106574 -0.442032 1.789 0 0 0
0.0558652 0.114289 0.474 255 255 255
-0.445451 -0.770872 2.347 255 255 255
0.594689 -0.324735 1.753 0 0 0
-0.0028992 0.204477 0.686 255 255 255
-0.0358594 0.124392 0.72 255 255 255
-0.393734 -0.00761386 0.802 0 0 0
0.0176604 -0.18873 1.291 255 255 255
-0.0523264 0.169986 0.705 255 255 255
0.848326 -0.335286 1.826 255 255 255
0.43771 -0.078684 1.278 255 255 255
-0.0265867 0.00795725 0.793 255 255 255
-0.279961 0.136071 0.759 255 255 255
0.261712 0.024361 1.137 255 255 255
0.771136 -0.79149 2.329 0 0 0
-0.434271 -0.345218 1.528 0 0 0
-0.0306308 -0.249623 1.384 255 255 255
-0.118421 0.287514 0.761 255 255 255
0.222574 0.141829 0.784 255 255 255
0.357453 -0.443268 1.794 255 255 255
-0.134869 0.176679 0.723 255 255 255
0.529423 0.569459 1.673 255 255 255
0.653396 0.610848 1.603 255 255 255
0.0807243 0.082909 0.77 255 255 255
-0.0694728 0.288399 0.741 255 255 255
-0.270432 0.154802 0.76 255 255 255
-0.0640489 -0.185907 1.286 0 0 0
-0.218951 0.0612873 0.766 255 255 255
-0.466033 -0.822236 2.374 255 255 255
-0.531561 -0.474515 1.769 255 255 255
-0.0246109 -0.12999 1.112 255 255 255
0.823028 -0.865457 2.294 0 0 0
0.633111 -0.439121 1.789 255 255 255
-0.280448 0.0675712 0.781 255 255 255
0.0926159 -0.575722 1.935 255 255 255
-0.156728 0.293047 0.779 255 255 255
-0.399002 -0.122666 0.994 255 255 255
0.414984 -0.633888 1.911 255 255 255
-0.612802 -0.232276 1.265 0 0 0
0.68773 -0.79907 2.329 0 0 0
-0.313549 0.0967989 0.742 255 255 255
-0.453482 -0.451142 1.779 255 255 255
-0.326426 0.273548 0.844 255 255 255
0.130773 -0.209582 1.33 255 255 255
-0.264055 0.233894 0.789 255 255 255
0.269984 0.0451372 0.951 255 255 255
-0.500921 -0.165129 1.07 255 255 255
0.0898219 0.140858 0.47 255 255 255
-0.275602 0.0855261 0.771 255 255 255
0.255611 -0.639858 1.929 255 255 255
-0.135158 -0.470683 1.821 0 0 0
-0.341538 0.257066 0.844 255 255 255
0.743669 -0.84401 2.338 255 255 255
-0.104381 0.0754494 0.758 0 0 0
0.0801937 0.122938 0.463 255 255 255
1.12529 -0.743397 2.286 255 255 255
-0.236187 0.0483248 0.799 255 255 255
-0.550269 -0.314178 1.333 255 255 255
-0.540573 -0.203354 1.192 255 255 255
0.272953 0.0380285 0.967 255 255 255
0.582916 -0.564346 2.03 255 255 255
-0.227679 0.0587942 0.766 0 0 0
-0.0569976 0.200098 0.706 255 255 255
0.750052 -0.32815 1.87 0 0 0
-0.345884 0.12693 0.771 255 255 255
-0.0539622 -0.32182 1.535 255 255 255
-0.175629 0.159601 0.731 0 0 0
0.17132 -0.381663 1.714 255 255 255
-0.386863 -0.0128663 0.804 255 255 255
-0.13241 0.0801713 0.756 0 0 0
-0.131896 -0.0715732 0.981 255 255 255
-0.350968 0.239951 0.837 255 255 255
-0.374288 -0.0648159 0.869 255 255 255
0.937061 0.410836 2.017 0 0 0
0.821775 -0.660518 2.22 255 255 255
0.314523 -0.459141 1.799 255 255 255
0.668786 0.425764 2.01 255 255 255
-0.244207 0.082586 0.767 255 255 255
0.535119 0.553572 1.691 255 255 255
-0.0908181 0.14294 0.719 255 255 255
-0.243856 0.19117 0.762 255 255 255
0.803142 0.275279 2.312 0 0 0
0.519435 -0.914107 2.392 255 255 255
-0.365901 -0.64695 2.051 255 255 255
-0.204941 0.155124 0.738 255 255 255
-0.609295 -0.223511 1.262 0 0 0
-0.109278 0.133515 0.725 255 255 255
-0.154666 -0.0199242 0.954 0 0 0
-0.160476 -0.0715002 0.98 255 255 255
