ply
format ascii 1.0
comment Created by Open3D
element vertex 1323
property double x
property double y
property double z
property uchar red
property uchar green
property uchar blue
end_header
-0.333237 -0.0598067 0.858 255 255 255
0.054045 -0.701014 2.024 255 255 255
-0.386287 -0.519158 1.535 0 0 0
-0.412013 -0.0451214 0.871 255 255 255
-0.175881 0.00278831 0.791 255 255 255
-0.207567 0.227116 0.888 255 255 255
0.0194404 -0.235261 1.27 255 255 255
0.343484 -0.177823 1.203 255 255 255
0.143494 -0.0879834 0.986 0 0 0
0.103335 0.165646 0.687 255 255 255
-0.379573 0.227142 0.84 255 255 255
-0.388942 -0.101783 0.883 255 255 255
0.102747 0.270919 0.714 255 255 255
0.117833 0.024172 0.775 255 255 255
-0.294853 -0.410228 1.502 255 255 255
-0.111078 0.175893 0.788 255 255 255
-0.272754 -0.324784 1.378 255 255 255
-0.247463 0.271865 0.856 255 255 255
-0.19033 -0.306395 1.366 255 255 255
-0.257517 0.157824 0.857 255 255 255
0.0804065 -0.114559 0.98 255 255 255
0.134531 0.111416 0.485 255 255 255
-0.215436 0.108177 0.819 0 0 0
0.0860643 0.19613 0.692 255 255 255
0.879252 0.52662 1.729 255 255 255
-0.437618 -0.0267871 0.874 255 255 255
-0.191227 0.0161764 0.755 255 255 255
-0.412486 -0.0920012 0.872 0 0 0
-0.222905 -0.184872 1.025 255 255 255
0.107181 0.20914 0.683 255 255 255
0.479496 -0.94657 2.509 0 0 0
0.695547 -0.189631 1.39 255 255 255
0.245109 -0.522085 1.784 255 255 255
0.0889836 0.0788367 0.755 255 255 255
0.105062 0.15649 0.691 255 255 255
0.749985 0.561964 1.62 255 255 255
0.930743 0.484676 1.848 255 255 255
0.148458 0.168871 0.529 255 255 255
0.407382 -0.237601 1.294 0 0 0
0.120452 -0.147742 1.022 255 255 255
-0.0313578 -0.0244356 0.892 255 255 255
-0.246107 0.30609 0.828 0 0 0
-0.159682 -0.361557 1.473 255 255 255
-0.502527 -0.314675 1.257 0 0 0
0.316467 0.00927175 0.924 255 255 255
0.116672 0.206008 0.68 255 255 255
-0.236746 -0.0485751 0.833 0 0 0
-0.40524 0.00289054 0.82 255 255 255
0.233687 -0.281117 1.362 0 0 0
-0.337817 -0.052025 0.845 255 255 255
-0.189346 -0.315127 1.375 255 255 255
0.0898542 0.0675096 0.752 255 255 255
-0.497204 -0.349247 1.302 0 0 0
0.476116 -0.259011 1.275 0 0 0
-1.00253 -1.13267 3.055 255 255 255
0.169033 0.107535 0.443 0 0 0
-0.0944307 -0.388783 1.543 255 255 255
0.614347 -0.490513 1.744 255 255 255
-0.301985 0.291909 0.826 255 255 255
0.0517178 0.0966855 0.732 255 255 255
0.778646 -0.299556 1.603 255 255 255
-0.0961884 -0.0842357 0.944 255 255 255
0.16619 0.0640082 0.754 255 255 255
0.137906 0.160875 0.681 255 255 255
-0.179809 0.033937 0.797 0 0 0
0.322322 -1.02062 2.626 255 255 255
0.315682 -0.644224 1.991 255 255 255
-0.13445 -0.0650798 0.892 255 255 255
0.129191 0.179495 0.676 255 255 255
-0.27251 -1.09181 2.857 255 255 255
-0.0255894 -0.164456 1.077 0 0 0
0.2066 -0.0337113 0.772 255 255 255
-0.219119 0.0777965 0.808 255 255 255
0.226816 -0.649164 2.037 255 255 255
-0.28295 0.313935 0.81 255 255 255
0.160792 -0.198055 1.244 255 255 255
-0.378561 0.195544 0.889 255 255 255
-0.522821 0.123427 1.051 255 255 255
0.23839 -0.6603 2.051 255 255 255
0.0513192 0.157327 0.71 255 255 255
0.251211 0.0739221 0.755 255 255 255
-0.328148 -0.138683 0.918 255 255 255
-0.405474 -0.187369 0.994 255 255 255
1.02032 -0.674993 2.151 0 0 0
-0.185467 0.304879 0.9 255 255 255
0.406517 0.0908821 0.857 255 255 255
0.0365502 0.175888 0.715 255 255 255
-0.362146 0.268054 0.844 255 255 255
0.40999 -0.338643 1.532 0 0 0
-0.212811 -0.56112 1.826 255 255 255
-0.308576 0.315873 0.815 255 255 255
0.0924568 -0.0825402 0.925 0 0 0
-0.162882 -0.216552 1.169 255 255 255
-0.268255 0.115587 0.834 255 255 255
0.147583 0.0173589 0.753 255 255 255
-0.00784909 0.145326 0.731 255 255 255
-0.13444 0.0316577 0.805 255 255 255
-0.258951 -0.170523 1.029 255 255 255
-0.106119 -0.0465201 0.898 255 255 255
-0.00427345 0.152255 0.73 255 255 255
0.0198839 0.0260238 0.793 255 255 255
-0.142152 -0.239213 1.237 0 0 0
-0.401831 -0.304753 1.302 0 0 0
0.344627 -0.635107 1.953 255 255 255
-0.0247315 0.00686854 0.817 255 255 255
0.501005 -0.270665 1.291 255 255 255
0.333591 -0.0124168 0.974 255 255 255
0.0313864 0.0545515 0.759 0 0 0
0.252376 0.223695 0.67 255 255 255
0.168367 -0.0993167 1.02 255 255 255
0.497854 -0.465249 1.724 255 255 255
0.346916 0.0799286 0.803 255 255 255
0.104761 -0.0525766 0.984 255 255 255
-0.287871 0.244005 0.856 255 255 255
-0.274136 -0.0782305 0.861 0 0 0
-0.0797038 0.139592 0.758 255 255 255
-0.119447 0.149484 0.784 255 255 255
-0.279453 0.0886158 0.823 255 255 255
-0.271315 0.0474175 0.784 255 255 255
0.23584 -0.0798078 1.07 255 255 255
0.10409 -0.00105299 0.776 255 255 255
-0.0654966 0.0711665 0.765 255 255 255
-0.464974 0.306696 0.88 255 255 255
-0.538677 0.122518 1.029 255 255 255
-0.00552909 0.184197 0.739 255 255 255
-0.536245 0.111335 1.034 255 255 255
-0.366134 -0.0871171 0.88 255 255 255
0.160493 0.0344824 0.78 255 255 255
-0.397928 -0.0315844 0.85 255 255 255
0.206134 0.0658408 0.761 255 255 255
0.624986 -0.099667 1.229 255 255 255
-0.257302 0.307666 0.825 0 0 0
-0.406253 -0.231433 1.087 255 255 255
0.0675497 0.0660215 0.749 255 255 255
0.135742 -0.20714 1.275 255 255 255
-0.155003 -0.569141 1.882 255 255 255
0.44274 -0.455148 1.739 255 255 255
0.805743 -0.703584 1.923 255 255 255
-0.214348 -0.182776 1.032 255 255 255
0.453576 -0.156726 1.27 255 255 255
-0.210146 -0.426888 1.563 0 0 0
-0.553573 -0.22566 1.102 255 255 255
-0.202476 -0.00352787 0.765 255 255 255
-0.1157 -0.226676 1.213 0 0 0
0.160053 -0.0341523 0.754 255 255 255
-0.352269 0.0115453 0.774 255 255 255
-0.0380601 0.11701 0.74 255 255 255
-0.317705 0.206701 0.869 255 255 255
-0.482681 -0.147201 0.964 255 255 255
-0.249249 0.25708 0.872 255 255 255
0.0724645 -0.435789 1.686 255 255 255
-0.498386 -0.43206 1.322 255 255 255
-0.260667 -0.890876 2.479 255 255 255
-0.390606 0.020862 0.793 255 255 255
-0.245768 -0.425035 1.547 0 0 0
-0.508893 -0.359736 1.294 255 255 255
0.122699 0.0114259 0.766 255 255 255
0.754112 -0.630705 1.821 255 255 255
-0.148524 -0.0105173 0.825 255 255 255
-0.0431681 0.0984026 0.745 255 255 255
-0.128267 -0.61857 1.941 0 0 0
-0.109404 -0.244541 1.254 255 255 255
0.178296 0.121683 0.45 255 255 255
-0.128674 -0.0404938 0.863 255 255 255
0.128426 0.184994 0.672 255 255 255
-0.447143 -0.200691 1.004 255 255 255
-0.232049 -0.636997 1.911 0 0 0
-0.0976494 -0.171785 1.079 0 0 0
0.0355971 0.0261879 0.798 255 255 255
-0.380262 -0.325314 1.308 0 0 0
-0.184479 0.319487 0.842 255 255 255
0.550246 -0.0191993 1.089 255 255 255
0.00552397 -0.113302 0.997 255 255 255
-0.197379 -0.0396164 0.816 255 255 255
0.294464 0.0600269 0.799 255 255 255
-0.228679 -0.0644429 0.864 255 255 255
-0.387324 -0.00907467 0.816 255 255 255
-0.338473 -0.347649 1.345 0 0 0
-0.145502 0.106833 0.78 255 255 255
0.968361 -0.653061 2.114 0 0 0
0.117151 0.139501 0.696 255 255 255
-0.109679 0.25463 0.836 255 255 255
0.767088 -0.255702 1.528 255 255 255
-0.181698 0.224826 0.868 255 255 255
-0.207282 0.235661 0.893 255 255 255
0.162187 0.0781537 0.444 255 255 255
-0.587415 -0.485293 1.369 0 0 0
-0.221945 0.298656 0.849 255 255 255
-0.000759035 0.0294806 0.782 255 255 255
0.153056 0.124387 0.46 255 255 255
-0.26164 -0.0149824 0.778 255 255 255
-0.426491 -0.0840297 0.863 255 255 255
0.0355147 0.246526 0.742 255 255 255
-0.468091 -0.452998 1.359 255 255 255
1.0381 -0.80153 2.181 255 255 255
0.778624 0.576342 1.587 255 255 255
-0.574055 -0.235991 1.1 255 255 255
0.724385 -0.270767 1.543 255 255 255
-0.0771051 0.0615273 0.769 255 255 255
-0.251207 0.02563 0.781 255 255 255
-0.347777 0.314956 0.823 255 255 255
0.153919 0.190356 0.664 255 255 255
-0.237984 -0.387195 1.498 0 0 0
-0.10887 -0.102868 0.975 255 255 255
-0.346437 0.30826 0.823 255 255 255
0.515628 -0.0698941 1.106 255 255 255
0.408415 -0.492776 1.826 0 0 0
-0.378726 -0.102129 0.886 255 255 255
-0.138003 -0.153581 1.039 255 255 255
0.193714 0.0373059 0.786 255 255 255
-0.205157 0.0858979 0.81 255 255 255
-0.114587 0.141827 0.777 255 255 255
0.257773 0.0346058 0.845 255 255 255
-0.267133 -0.103922 0.889 255 255 255
-0.110513 -0.148514 1.051 255 255 255
0.0636716 0.154143 0.706 0 0 0
-0.193768 0.115181 0.812 255 255 255
0.510401 0.0118949 1.02 255 255 255
-0.230034 -1.01735 2.793 255 255 255
0.523233 -0.258659 1.294 255 255 255
0.00307153 0.291472 0.785 255 255 255
-0.0802667 -0.129535 1.036 255 255 255
0.229069 0.0229346 0.821 0 0 0
-0.493034 -0.533817 1.459 255 255 255
0.459964 -0.307068 1.369 255 255 255
-0.890426 -1.17179 3.133 255 255 255
-0.363597 0.243835 0.841 255 255 255
-0.202238 -0.701872 2.017 255 255 255
0.149786 0.194212 0.499 255 255 255
-0.456086 -0.114628 0.905 255 255 255
-0.364122 -0.522564 1.591 255 255 255
-0.0540826 0.108101 0.745 255 255 255
0.931542 0.437624 1.905 255 255 255
0.749787 -0.385003 1.729 0 0 0
-0.0576397 0.243129 0.794 255 255 255
-0.36368 -0.0994696 0.888 255 255 255
-0.34398 -0.554291 1.696 255 255 255
0.383093 -0.0790359 1.108 255 255 255
-0.1437 0.223339 0.836 255 255 255
-0.18908 -0.0587508 0.863 255 255 255
-0.0548518 -0.0964228 0.974 255 255 255
1.03076 -0.816271 2.173 255 255 255
0.191481 0.0740838 0.45 255 255 255
-0.408976 -0.458589 1.439 255 255 255
0.68281 -0.177855 1.369 255 255 255
-0.445068 0.304462 0.886 255 255 255
-0.458464 0.190972 1.037 255 255 255
-0.397592 -0.306871 1.302 0 0 0
0.177235 0.168149 0.494 0 0 0
0.0310969 0.257191 0.752 255 255 255
-0.542027 0.187825 1.029 255 255 255
0.116525 -0.825926 2.143 255 255 255
-0.306657 0.0091311 0.783 255 255 255
-0.054254 0.28747 0.821 255 255 255
0.174468 0.167808 0.493 0 0 0
0.963327 -0.603402 2.017 0 0 0
0.673059 -0.192898 1.381 255 255 255
-0.317806 0.229325 0.843 255 255 255
0.438098 -0.0176126 0.999 255 255 255
0.0557846 0.168405 0.708 255 255 255
-0.286969 0.0103389 0.778 255 255 255
0.185249 0.0931436 0.723 255 255 255
0.867571 0.466632 1.848 255 255 255
0.677028 0.578576 1.579 0 0 0
-0.272894 0.017843 0.774 255 255 255
-0.0728212 -0.0379202 0.902 255 255 255
-0.38099 -0.0103388 0.811 255 255 255
0.136286 0.213744 0.673 255 255 255
0.108398 0.138766 0.698 255 255 255
-0.0733498 0.169149 0.769 255 255 255
0.382541 -0.205769 1.254 255 255 255
-0.308926 -0.0412955 0.823 255 255 255
0.247441 -0.118667 1.075 255 255 255
0.0422259 0.277507 0.754 255 255 255
0.567911 -0.584022 1.842 255 255 255
0.195548 0.104179 0.441 255 255 255
-0.188759 0.00396733 0.77 255 255 255
-0.0625943 0.160986 0.76 255 255 255
-0.539702 -0.350494 1.239 255 255 255
0.286313 0.0186189 0.869 255 255 255
0.888914 -0.488793 1.748 255 255 255
-0.0456723 0.280009 0.811 255 255 255
0.111811 0.232955 0.691 255 255 255
-0.569143 -0.224022 1.094 255 255 255
-0.682198 -1.10401 2.939 255 255 255
-0.102726 0.170954 0.783 255 255 255
0.00734043 -0.133034 1.024 255 255 255
-0.031548 -0.0753757 0.989 255 255 255
0.0841088 -0.102424 0.986 0 0 0
-0.395955 -0.131407 0.909 255 255 255
0.00909911 0.067779 0.755 255 255 255
-0.119246 -0.182289 1.1 255 255 255
-0.147538 -0.009197 0.827 255 255 255
-0.145332 -0.183938 1.068 255 255 255
-0.500689 -0.880095 2.449 255 255 255
0.158504 0.0629325 0.465 0 0 0
0.248312 0.0686767 0.765 255 255 255
-0.0567685 0.0243903 0.782 255 255 255
0.620321 -0.47504 1.729 255 255 255
-0.339192 0.214743 0.845 255 255 255
0.340578 0.0666156 0.816 255 255 255
-0.0611348 0.258608 0.806 255 255 255
0.438335 -0.439428 1.744 0 0 0
-0.107705 0.068137 0.773 255 255 255
0.151561 0.149736 0.489 0 0 0
1.05776 -0.702331 2.107 255 255 255
-0.510061 -0.44766 1.33 255 255 255
-0.222629 0.132189 0.836 255 255 255
-0.45333 -0.433976 1.348 255 255 255
0.371751 -0.258139 1.302 255 255 255
-0.338534 -0.0647413 0.868 255 255 255
-0.124027 -0.0249585 0.86 0 0 0
0.144618 0.0990342 0.457 255 255 255
-0.501273 -0.466267 1.359 255 255 255
-0.350993 0.0517026 0.791 255 255 255
0.0892706 -0.0379477 0.939 255 255 255
0.0251901 0.188445 0.723 255 255 255
0.0529184 0.213419 0.716 255 255 255
0.353461 0.0828504 0.806 255 255 255
0.655274 -0.570931 1.81 255 255 255
0.399872 -0.118816 1.162 255 255 255
0.145191 0.0759595 0.466 0 0 0
0.723597 0.587975 1.563 255 255 255
-0.0930593 -0.913321 2.53 0 0 0
-0.0920534 -0.305651 1.393 0 0 0
0.303654 0.0423492 0.835 255 255 255
0.591035 -0.69515 1.917 255 255 255
-0.196956 -0.0779001 0.873 255 255 255
-0.155915 -0.404459 1.555 255 255 255
0.551482 -0.666991 1.899 255 255 255
0.596716 -0.668071 1.876 255 255 255
-0.356386 0.0215658 0.772 255 255 255
0.170177 0.074151 0.446 0 0 0
-0.171378 0.0790327 0.794 255 255 255
-0.199605 -0.0730477 0.866 255 255 255
-0.20277 0.096562 0.811 255 255 255
-0.0412349 0.0836403 0.754 255 255 255
-0.301065 -0.334551 1.354 0 0 0
0.271877 0.0673982 0.779 255 255 255
-0.0019982 0.261754 0.769 255 255 255
0.159046 0.0689929 0.46 255 255 255
-0.0961559 -0.0271855 0.887 0 0 0
-0.162863 0.031579 0.803 255 255 255
0.200229 0.0637529 0.46 255 255 255
0.213023 -0.667844 2.064 255 255 255
-0.522567 0.196618 0.989 255 255 255
-0.276988 -0.00360627 0.782 255 255 255
-0.21464 0.0749807 0.806 255 255 255
0.184239 0.0714708 0.452 255 255 255
0.034908 0.0616358 0.755 255 255 255
-0.170946 0.113632 0.792 255 255 255
-0.395163 0.256542 0.856 255 255 255
-0.334916 0.176777 0.904 255 255 255
0.00166346 0.14236 0.728 255 255 255
0.616548 -0.614649 1.853 255 255 255
0.0738693 0.040672 0.777 255 255 255
-0.0109286 0.269651 0.781 255 255 255
-0.218272 -0.0172894 0.768 255 255 255
-0.0968622 -0.00950838 0.855 0 0 0
0.343551 0.0248342 0.889 255 255 255
0.0423103 0.153566 0.714 0 0 0
0.161728 -0.0509507 0.786 0 0 0
-0.342922 0.073704 0.821 255 255 255
-0.209627 0.137137 0.833 255 255 255
-0.993359 -1.1104 2.857 255 255 255
-0.155823 -0.0144744 0.821 255 255 255
0.0215151 -0.748456 2.064 255 255 255
0.425082 -0.559584 1.821 255 255 255
0.0660635 0.214188 0.707 255 255 255
0.240509 -0.469819 1.71 0 0 0
-0.362955 0.0457886 0.778 255 255 255
-0.115507 -0.20028 1.152 255 255 255
0.136769 0.182263 0.67 255 255 255
-0.0949569 0.177099 0.782 255 255 255
-0.335955 -0.00486636 0.78 255 255 255
-0.150851 -0.176744 1.046 255 255 255
-0.476801 -0.252114 1.124 255 255 255
0.122463 0.140229 0.694 255 255 255
-0.287701 0.0622354 0.794 255 255 255
-0.222964 -0.0949201 0.886 255 255 255
0.419235 0.0140512 0.942 255 255 255
0.0217792 0.195403 0.727 255 255 255
0.0939625 -0.0825402 0.925 0 0 0
-0.0166798 -0.517962 1.831 255 255 255
0.397445 0.0516151 0.877 255 255 255
-0.200649 0.227274 0.883 255 255 255
-0.0859236 0.266309 0.83 255 255 255
-0.617896 -0.39759 1.267 255 255 255
-0.158446 -0.40952 1.555 255 255 255
-0.443788 0.21506 0.898 255 255 255
0.130004 0.0892936 0.73 255 255 255
-0.286589 -0.108505 0.891 255 255 255
-0.18419 -0.552543 1.837 0 0 0
-0.0578575 0.249236 0.797 255 255 255
-0.0640051 -0.286038 1.375 255 255 255
-0.297122 0.301798 0.82 255 255 255
0.286007 -0.0184487 0.958 255 255 255
0.331682 -0.0207178 0.992 255 255 255
-0.528763 -0.327785 1.237 255 255 255
0.185111 -0.991194 2.561 0 0 0
-0.0472134 -0.103396 0.98 255 255 255
-0.17173 -0.201695 1.07 255 255 255
-0.0846251 0.32986 0.844 255 255 255
-0.323718 0.238589 0.837 255 255 255
-0.190413 0.312005 0.844 255 255 255
0.00593951 -0.151481 1.072 255 255 255
0.080897 0.206325 0.696 255 255 255
0.862282 -0.688065 1.959 255 255 255
-0.254373 0.299805 0.833 255 255 255
-0.431135 0.242295 0.85 255 255 255
0.370016 -0.518076 1.842 255 255 255
-0.425942 0.113563 0.967 255 255 255
-0.0748303 0.315376 0.842 255 255 255
-0.131484 0.274088 0.863 255 255 255
0.388572 -0.0622414 1.098 255 255 255
-0.395906 -0.0906861 0.873 0 0 0
-0.296395 -0.318516 1.333 0 0 0
-0.133043 0.0820802 0.774 255 255 255
0.116058 -0.293049 1.387 255 255 255
-0.0634103 0.322652 0.836 255 255 255
-0.420379 -0.441061 1.384 255 255 255
-0.161247 0.005478 0.808 255 255 255
1.01682 -0.678493 2.151 0 0 0
-0.531278 0.144542 1.068 255 255 255
-0.427751 0.314927 0.883 255 255 255
-0.312765 0.207176 0.871 255 255 255
0.12545 0.00144226 0.76 255 255 255
0.0343927 0.0416126 0.771 255 255 255
0.434826 -0.056103 1.05 255 255 255
0.0708868 -0.00112762 0.831 255 255 255
-0.310234 -0.472902 1.607 0 0 0
0.450503 -0.250318 1.273 0 0 0
-0.349912 0.202419 0.851 255 255 255
-0.0929651 0.0481965 0.776 0 0 0
0.00549816 0.267314 0.767 255 255 255
-0.294888 -0.319233 1.336 0 0 0
0.0766944 0.161714 0.699 255 255 255
0.143825 0.0703214 0.474 0 0 0
-0.528044 -0.191327 1.015 0 0 0
-0.0539344 0.1783 0.76 255 255 255
0.310096 -0.152391 1.173 0 0 0
-0.58048 -0.266906 1.102 255 255 255
-0.139451 0.00158459 0.835 255 255 255
-0.514121 -0.388903 1.286 255 255 255
0.494093 -0.408923 1.655 0 0 0
-0.454511 -0.373914 1.345 255 255 255
-0.281884 0.0500329 0.785 255 255 255
0.146833 0.121693 0.464 0 0 0
0.136881 0.121231 0.474 255 255 255
-0.212072 0.272961 0.901 255 255 255
-0.29759 0.295583 0.825 255 255 255
-0.472094 0.164604 1.041 255 255 255
0.0213384 -0.227258 1.26 255 255 255
0.150901 0.160427 0.5 0 0 0
-0.421092 -0.455907 1.409 255 255 255
0.141246 -0.147083 1.053 255 255 255
-0.112301 0.128019 0.77 255 255 255
-0.291909 -0.403711 1.487 255 255 255
0.456188 -0.0622788 1.068 255 255 255
0.0408354 0.272737 0.751 255 255 255
-0.54483 0.173573 1.044 255 255 255
0.145302 -0.366501 1.555 255 255 255
0.0373033 -0.400877 1.591 255 255 255
0.683105 -0.156525 1.339 255 255 255
-0.43517 -0.30288 1.294 0 0 0
-0.267521 0.231464 0.905 255 255 255
0.177915 0.0974983 0.44 255 255 255
0.0809611 0.0660215 0.749 255 255 255
-0.260969 0.241704 0.878 255 255 255
0.13808 0.12875 0.693 255 255 255
-0.558968 -0.263975 1.12 0 0 0
0.307606 0.225675 0.737 255 255 255
0.0454959 -0.0830011 0.984 255 255 255
0.414201 -0.238781 1.289 0 0 0
0.0363326 -0.336802 1.449 255 255 255
-0.377587 -0.120914 0.897 255 255 255
0.429983 -0.221483 1.286 0 0 0
0.158362 0.127821 0.688 255 255 255
-0.491586 -0.14078 0.963 0 0 0
0.34234 -0.0600873 1.06 255 255 255
-0.179967 -0.188924 1.057 255 255 255
0.183909 -0.222185 1.278 0 0 0
-0.373451 -0.0768299 0.877 255 255 255
-0.0281753 0.0413427 0.766 0 0 0
-0.252015 -0.110696 0.897 255 255 255
-0.318693 0.254459 0.831 255 255 255
0.186632 -0.493044 1.753 0 0 0
0.673796 -0.45253 1.729 255 255 255
-0.290618 0.00783683 0.781 255 255 255
0.152671 0.17411 0.668 255 255 255
-0.091568 -0.0919123 0.96 255 255 255
0.229967 -0.0876041 1.059 255 255 255
0.10386 0.0487582 0.765 255 255 255
-0.109809 0.0319029 0.779 0 0 0
0.430707 -0.0984684 1.124 255 255 255
-0.32573 0.166235 0.887 255 255 255
-0.317722 0.0218452 0.782 255 255 255
0.347249 0.112772 0.786 255 255 255
0.272066 0.0409413 0.834 255 255 255
0.0894436 0.211896 0.692 255 255 255
0.121847 0.198783 0.678 0 0 0
-0.0789876 0.079672 0.763 255 255 255
0.15409 0.0763745 0.743 255 255 255
-0.47945 -0.491345 1.412 0 0 0
-0.34713 0.042692 0.791 255 255 255
0.829943 0.497023 1.774 0 0 0
0.0532143 -0.0338985 0.874 255 255 255
-0.136156 -1.11779 2.925 255 255 255
-0.320901 -0.345568 1.354 0 0 0
-0.0845725 0.270361 0.83 255 255 255
-0.201733 0.146802 0.834 255 255 255
0.417414 -0.274456 1.299 255 255 255
-0.194514 -0.0610603 0.856 255 255 255
-0.308878 -0.274417 1.26 255 255 255
0.0819431 0.23538 0.705 255 255 255
0.463157 -0.0263337 1.022 255 255 255
-0.627342 -0.390361 1.257 255 255 255
-0.131426 -0.628046 1.941 255 255 255
-0.371811 0.294473 0.841 255 255 255
0.473685 -0.174024 1.291 255 255 255
0.0817726 0.0370211 0.78 0 0 0
0.119699 -0.228961 1.281 255 255 255
0.144122 0.0780666 0.465 0 0 0
-0.186101 -0.0901591 0.896 255 255 255
-0.235704 -0.118613 0.913 255 255 255
0.151452 -0.506131 1.81 255 255 255
0.0376748 0.0949472 0.737 255 255 255
-0.148898 -0.228085 1.21 0 0 0
0.0056702 0.024671 0.791 255 255 255
-0.28319 -0.300829 1.322 255 255 255
-0.0208119 -0.125258 1.015 255 255 255
-0.502574 -0.395534 1.294 255 255 255
0.412912 -0.0516566 1.064 255 255 255
0.143222 0.114881 0.467 0 0 0
0.147398 -0.137965 1.036 0 0 0
-0.255543 0.174749 0.879 255 255 255
-0.495837 0.115595 1.027 255 255 255
-0.0509861 0.161954 0.753 255 255 255
-0.449295 -0.410546 1.336 255 255 255
-0.368046 0.170119 0.932 255 255 255
-0.0313811 0.319308 0.817 255 255 255
-0.369004 -0.127318 0.901 255 255 255
0.113589 0.140431 0.695 255 255 255
-0.120133 0.0806118 0.772 255 255 255
0.19173 0.186507 0.509 0 0 0
-0.255988 -0.0481924 0.804 255 255 255
0.271128 -0.472602 1.71 255 255 255
-0.532672 -0.450969 1.327 255 255 255
0.737771 -0.594495 1.81 255 255 255
0.977701 -0.830416 2.173 255 255 255
0.116921 0.0152249 0.769 255 255 255
0.117859 -0.123407 1 255 255 255
0.493743 -0.208121 1.294 255 255 255
-0.270183 -0.24154 1.189 0 0 0
0.842605 0.544957 1.673 255 255 255
0.375995 -0.0457635 1.048 255 255 255
-0.534475 -0.329129 1.227 255 255 255
0.749509 0.575206 1.591 255 255 255
0.44834 -0.14542 1.244 255 255 255
0.0227678 0.0546234 0.76 0 0 0
0.789747 0.603236 1.563 255 255 255
-0.37939 -0.318197 1.305 0 0 0
-0.366914 0.0492681 0.773 255 255 255
0.614486 -0.421277 1.705 255 255 255
0.0614225 0.0196455 0.796 255 255 255
-0.226963 0.308412 0.827 255 255 255
0.27568 -0.0120343 0.944 255 255 255
0.359869 -0.500316 1.821 255 255 255
-0.448864 -0.87611 2.449 255 255 255
-0.410053 0.32835 0.858 255 255 255
0.0488009 0.263431 0.742 255 255 255
0.00402801 0.153995 0.727 255 255 255
0.156652 0.133775 0.464 255 255 255
0.113262 0.146793 0.693 255 255 255
0.200466 -0.02711 0.763 0 0 0
0.158753 0.127294 0.457 255 255 255
-0.0236371 0.16299 0.741 255 255 255
0.849658 0.495529 1.779 255 255 255
-0.281336 -0.66811 1.929 255 255 255
0.856203 -0.45324 1.7 255 255 255
-0.0510499 -0.131496 1.025 255 255 255
-0.0589334 0.115376 0.745 255 255 255
0.182358 0.0595704 0.76 0 0 0
-0.140119 -0.00933045 0.839 0 0 0
-0.257633 0.0644115 0.789 255 255 255
-0.0294606 0.058871 0.767 255 255 255
-0.256515 -0.0136458 0.774 255 255 255
0.44388 -0.420042 1.7 0 0 0
0.0223229 -0.00657619 0.836 255 255 255
-0.368998 -0.202224 1.037 255 255 255
0.199226 -0.269833 1.339 0 0 0
-0.126302 -0.0406346 0.866 255 255 255
0.322679 -0.477415 1.748 255 255 255
-0.542865 0.163972 1.037 255 255 255
-0.249535 0.254534 0.873 255 255 255
0.335045 -0.07711 1.081 255 255 255
0.277374 -0.0447155 1.024 255 255 255
-0.417314 -0.22973 1.079 255 255 255
0.121405 0.151332 0.688 255 255 255
0.48953 -0.206015 1.294 0 0 0
-0.108591 0.0145005 0.798 0 0 0
0.420215 0.062659 0.892 255 255 255
0.760119 -0.255033 1.524 255 255 255
-0.378289 -0.0558772 0.862 255 255 255
-0.220872 0.26563 0.901 255 255 255
0.394631 -0.506043 1.831 0 0 0
-0.50543 -0.307372 1.244 0 0 0
-0.122495 0.192548 0.804 255 255 255
-0.225544 0.247007 0.908 255 255 255
-0.241324 0.151712 0.854 0 0 0
0.755416 -0.382189 1.729 0 0 0
0.276919 -0.360154 1.487 0 0 0
-0.0875725 0.0517839 0.773 255 255 255
0.0989507 -0.0104153 0.817 255 255 255
-0.313044 -0.189281 1.059 255 255 255
0.55551 -0.168507 1.281 255 255 255
-0.0540763 0.0733675 0.762 255 255 255
-0.0933483 -0.0755004 0.931 255 255 255
-0.294711 0.0582121 0.792 255 255 255
0.315583 -0.234586 1.289 255 255 255
-0.460381 -0.00545282 0.874 255 255 255
0.53673 -0.207638 1.291 255 255 255
-0.25751 0.302777 0.83 0 0 0
-0.152416 0.0239455 0.81 255 255 255
0.296414 -0.416093 1.62 255 255 255
0.162055 0.149573 0.68 0 0 0
-0.346975 0.203133 0.854 255 255 255
-0.146314 -0.602189 1.929 255 255 255
-0.189998 0.0296913 0.755 255 255 255
0.0618948 0.226131 0.712 255 255 255
-0.116363 0.0793555 0.772 255 255 255
0.000616428 -0.0455394 0.938 255 255 255
0.59513 -0.106265 1.213 255 255 255
0.402311 -0.193216 1.252 255 255 255
-0.352726 -0.139261 0.912 255 255 255
-0.547313 -0.345119 1.22 255 255 255
0.320672 -0.0157309 0.983 255 255 255
0.100177 0.069099 0.756 255 255 255
-0.561092 -0.489547 1.381 255 255 255
0.0147393 0.193833 0.73 255 255 255
0.0635815 0.191784 0.705 255 255 255
-0.20535 -0.175546 1.029 255 255 255
-0.424844 0.214312 0.877 255 255 255
-0.17966 -0.0339684 0.808 255 255 255
-0.402818 0.225775 0.84 255 255 255
0.0860206 0.0321076 0.784 255 255 255
0.518843 -0.234664 1.278 255 255 255
-0.31889 0.257583 0.828 255 255 255
-0.252377 -0.0936893 0.888 255 255 255
0.0254685 -0.29881 1.372 255 255 255
-0.161922 -0.668128 1.966 255 255 255
-0.019447 0.0450823 0.766 0 0 0
-0.404402 0.121732 0.957 255 255 255
0.560389 -0.570479 1.837 255 255 255
-0.184767 0.0546201 0.796 255 255 255
0.077216 -0.122533 0.98 0 0 0
0.507375 -0.376626 1.587 255 255 255
-0.255268 0.182319 0.888 255 255 255
-0.124672 -0.336804 1.429 255 255 255
0.0432228 0.273594 0.75 255 255 255
-0.355007 -0.106695 0.888 255 255 255
0.19224 0.10251 0.44 255 255 255
0.173359 0.108256 0.443 255 255 255
-0.393442 -0.517918 1.524 0 0 0
0.0539213 0.278205 0.746 255 255 255
-0.121368 0.284662 0.861 255 255 255
0.171141 0.104896 0.441 255 255 255
-0.461059 0.29314 0.878 255 255 255
-0.24487 -0.223245 1.126 0 0 0
-0.0251998 -0.229666 1.229 255 255 255
-0.135563 0.0959353 0.774 0 0 0
-0.0909285 0.107663 0.759 255 255 255
0.16816 0.148685 0.473 255 255 255
-0.136627 0.31743 0.878 255 255 255
-0.567408 -0.257541 1.108 0 0 0
-0.314876 -0.0676442 0.869 0 0 0
0.451452 -0.441276 1.729 255 255 255
-0.20723 0.166413 0.851 255 255 255
-0.243623 0.251646 0.893 255 255 255
0.0875154 0.123183 0.713 255 255 255
0.728022 -0.45726 1.758 255 255 255
0.113714 0.0592569 0.756 0 0 0
0.177753 -0.131221 1.036 255 255 255
-0.459162 0.275994 0.869 255 255 255
0.129026 0.0794635 0.738 255 255 255
0.127967 -0.0680508 0.954 0 0 0
-0.320308 -0.434291 1.484 0 0 0
0.729857 -0.498858 1.805 0 0 0
-0.205183 -0.0501704 0.837 255 255 255
-0.486638 -0.11066 0.921 255 255 255
0.901023 0.437948 1.893 255 255 255
-0.25658 0.30572 0.827 0 0 0
-0.581217 -0.259261 1.1 0 0 0
0.190528 0.0539486 0.768 255 255 255
0.172498 -0.0988299 1.015 255 255 255
0.516253 -0.94657 2.509 0 0 0
1.04483 -0.745 2.151 255 255 255
0.62054 -0.645944 1.865 255 255 255
-0.0396031 0.0490769 0.77 0 0 0
-0.288092 -0.011328 0.788 255 255 255
-0.208985 0.0383932 0.757 255 255 255
0.0786238 0.0430341 0.774 255 255 255
-0.448227 0.194523 1.029 255 255 255
0.152801 0.119858 0.457 255 255 255
-0.0632532 0.0576979 0.768 255 255 255
0.176642 0.112113 0.444 0 0 0
-0.320045 -0.183661 1.037 0 0 0
-0.331666 -0.376423 1.362 255 255 255
0.842381 -0.522491 1.826 255 255 255
-0.215261 -0.311524 1.369 255 255 255
0.154268 0.150089 0.485 0 0 0
0.42006 0.0200758 0.937 255 255 255
-0.27176 0.304467 0.82 255 255 255
0.00824539 0.309146 0.791 255 255 255
-0.359994 -0.0855877 0.879 255 255 255
0.582045 -0.434389 1.724 0 0 0
0.415471 -0.53998 1.805 255 255 255
-0.65202 -0.393259 1.234 255 255 255
-0.506068 -0.51821 1.442 0 0 0
0.151874 0.142661 0.684 255 255 255
-0.0691095 -0.0679081 0.952 0 0 0
-0.313806 0.246467 0.836 255 255 255
-0.38595 0.217314 0.839 255 255 255
0.366032 0.0236243 0.898 255 255 255
0.160369 0.128753 0.687 255 255 255
-0.534528 -0.257138 1.13 0 0 0
0.306758 -0.516482 1.805 255 255 255
-0.0219408 0.0587942 0.766 255 255 255
0.329181 -0.18446 1.208 255 255 255
0.647588 -0.545855 1.805 255 255 255
-0.0429302 0.244206 0.785 255 255 255
-0.204219 0.17175 0.85 255 255 255
0.033937 0.101728 0.734 255 255 255
-0.431652 -0.381815 1.342 255 255 255
-0.314544 -0.0692967 0.872 0 0 0
0.165969 -0.034107 0.753 255 255 255
-0.0270018 -0.0258872 0.892 255 255 255
0.163154 0.207019 0.662 255 255 255
-0.0294606 0.0376522 0.767 255 255 255
0.0821478 0.154446 0.697 255 255 255
-0.182547 -0.195002 1.062 255 255 255
-0.391505 -0.330075 1.31 0 0 0
0.0754484 0.177385 0.698 255 255 255
-0.424844 -0.0440051 0.877 255 255 255
-0.179658 0.021929 0.785 255 255 255
0.344743 0.230917 0.792 255 255 255
-0.233896 0.234668 0.906 255 255 255
0.110313 -0.0293994 0.758 0 0 0
-0.324592 -0.104302 0.88 0 0 0
0.12172 -0.132201 1.005 0 0 0
-0.176398 -0.404253 1.535 0 0 0
-0.571658 -0.225389 1.092 255 255 255
-0.126089 0.264591 0.855 255 255 255
-0.344264 0.016562 0.773 255 255 255
-0.316008 0.284498 0.824 255 255 255
-0.0566597 0.135135 0.747 255 255 255
-0.43328 0.263873 0.871 255 255 255
0.183831 -0.334378 1.459 255 255 255
-0.201142 0.317448 0.826 255 255 255
0.1774 0.150994 0.473 0 0 0
0.838174 -0.367197 1.686 0 0 0
0.0903117 0.0128544 0.777 0 0 0
-0.192456 0.0149477 0.755 255 255 255
0.108733 -0.0338139 0.91 0 0 0
0.00708094 0.0198677 0.805 255 255 255
1.07848 0.341149 2.114 0 0 0
-0.295527 -0.0751654 0.858 255 255 255
0.125621 0.128727 0.699 255 255 255
-0.045751 0.0364515 0.768 255 255 255
-0.0882239 -0.0824366 0.941 255 255 255
0.00301284 0.270866 0.77 255 255 255
0.290666 0.0859698 0.775 255 255 255
0.171858 0.0468127 0.774 255 255 255
0.155579 0.0715125 0.51 0 0 0
-0.34025 0.320871 0.821 255 255 255
-0.0623259 0.198704 0.772 255 255 255
0.750424 -0.58404 1.805 255 255 255
0.0116643 0.0547671 0.762 0 0 0
-0.370558 -0.211796 1.051 255 255 255
0.0264399 0.127616 0.725 255 255 255
-0.101038 0.320245 0.855 255 255 255
1.09327 -0.745717 2.143 255 255 255
0.123764 -0.0711839 0.934 0 0 0
-0.148661 -0.522356 1.805 255 255 255
0.215835 -0.206327 1.27 0 0 0
-0.502667 0.193301 1.059 255 255 255
-0.445361 0.133711 1 255 255 255
1.03374 -0.649621 2.114 0 0 0
-0.34267 -0.102129 0.886 255 255 255
0.363499 -0.626104 1.935 255 255 255
-0.0388686 -0.00113305 0.835 255 255 255
-0.644327 -0.385038 1.227 255 255 255
-0.335451 0.151898 0.871 255 255 255
-0.186295 0.13136 0.814 255 255 255
0.259909 -0.0149947 0.937 255 255 255
-0.460677 0.308129 0.88 255 255 255
-0.421816 0.205892 0.972 255 255 255
-0.571816 -0.349061 1.213 255 255 255
0.915219 -0.731662 2.064 0 0 0
-0.0220657 -0.0808528 0.997 255 255 255
-0.512878 -1.1486 3.071 0 0 0
0.147623 0.00871128 0.747 255 255 255
-0.255219 0.19314 0.898 255 255 255
-0.172514 -0.13035 0.967 255 255 255
-0.178807 -0.246582 1.254 255 255 255
-0.239045 -0.035647 0.787 255 255 255
0.430912 -0.696485 2.03 255 255 255
-0.0377572 -0.105312 0.983 255 255 255
0.478361 0.0304099 0.975 255 255 255
0.187226 0.0967823 0.44 255 255 255
0.949348 -0.84767 2.181 255 255 255
0.473476 -0.715791 2.057 255 255 255
-0.177746 -0.0859763 0.898 255 255 255
-0.031189 0.0081479 0.812 255 255 255
0.00293067 0.0757724 0.749 255 255 255
0.141992 -0.0469336 0.783 255 255 255
-0.0748926 0.17609 0.772 255 255 255
0.387159 0.0122791 0.924 255 255 255
-0.579274 -0.286907 1.11 255 255 255
-0.0446787 0.09174 0.75 255 255 255
0.173359 0.109698 0.443 0 0 0
-0.201006 0.265043 0.904 255 255 255
-0.395351 -0.237278 1.106 255 255 255
-0.330434 -0.115365 0.888 255 255 255
0.073986 -0.0371798 0.92 255 255 255
0.706793 -0.422799 1.734 255 255 255
0.0165822 0.0583337 0.76 0 0 0
-0.210392 -0.0549049 0.847 255 255 255
-0.218156 -0.142388 0.974 255 255 255
-0.519159 -0.531443 1.459 0 0 0
-0.501624 -0.384913 1.308 255 255 255
-0.318341 -0.281682 1.265 255 255 255
0.313677 0.0439697 0.84 255 255 255
0.0747719 -0.092774 0.969 255 255 255
0.106463 -0.0287581 0.891 255 255 255
0.0856281 0.137103 0.707 255 255 255
-0.229334 -0.150866 0.988 255 255 255
0.15497 0.170191 0.5 255 255 255
-0.245492 0.0433121 0.779 255 255 255
0.47395 0.0750489 0.938 255 255 255
-0.273545 -0.353082 1.429 0 0 0
0.161909 0.159285 0.489 255 255 255
0.180978 0.11428 0.444 255 255 255
-0.287171 -0.360237 1.439 0 0 0
0.832654 0.550148 1.664 255 255 255
-0.4428 0.210446 1.009 255 255 255
-0.155914 0.318876 0.882 255 255 255
-0.132239 -0.00250977 0.841 255 255 255
0.73192 -0.270767 1.543 255 255 255
-0.372023 -0.0754027 0.877 255 255 255
0.0879293 0.095893 0.726 255 255 255
0.988049 -0.824911 2.196 255 255 255
0.00402801 0.158728 0.727 255 255 255
0.0581045 -0.790469 2.051 255 255 255
-0.361201 0.186402 0.93 0 0 0
-0.0870759 -0.250782 1.286 0 0 0
-0.184232 0.31058 0.887 255 255 255
-0.353704 -0.0167706 0.803 0 0 0
-0.125037 0.303577 0.867 255 255 255
-0.483784 0.136971 1.037 255 255 255
-0.0814574 -0.00393831 0.854 255 255 255
-0.103644 0.190481 0.79 255 255 255
-0.189025 0.00893285 0.766 255 255 255
-0.221017 0.0930595 0.815 255 255 255
-0.462235 -0.429861 1.342 255 255 255
-0.179438 0.126291 0.807 255 255 255
0.701075 -0.549896 1.799 255 255 255
0.143708 0.161031 0.677 0 0 0
0.279605 -0.211787 1.278 0 0 0
-0.229114 -0.0819739 0.871 255 255 255
-0.113066 0.162242 0.784 255 255 255
-0.401638 0.327441 0.852 255 255 255
-0.214383 0.0996908 0.815 0 0 0
-0.341835 -0.523072 1.633 255 255 255
0.195193 0.0667266 0.757 255 255 255
-0.354184 0.0370685 0.781 255 255 255
0.638057 -0.943713 2.459 255 255 255
0.172846 0.145901 0.469 255 255 255
-0.405384 0.0330496 0.807 255 255 255
0.299776 -0.695473 2.107 255 255 255
0.786907 -0.465249 1.724 255 255 255
0.149186 0.182532 0.667 0 0 0
-0.152336 -1.05511 2.871 0 0 0
-0.20409 0.0952423 0.811 255 255 255
-0.346015 -1.16536 3.011 0 0 0
-0.263834 0.0179122 0.777 255 255 255
0.00453568 -0.622901 1.985 255 255 255
0.0807776 0.118874 0.715 255 255 255
-0.408709 0.282413 0.867 255 255 255
-0.45506 0.304868 0.883 255 255 255
0.166148 0.0779777 0.443 255 255 255
-0.1242 0.222815 0.824 255 255 255
-0.168975 0.295434 0.898 255 255 255
0.0642626 0.0464498 0.768 255 255 255
0.181629 0.124889 0.451 255 255 255
0.0475066 -0.222884 1.247 255 255 255
-0.298969 0.207118 0.889 0 0 0
0.202944 -0.68128 2.064 255 255 255
0.170686 0.176094 0.496 255 255 255
0.0945667 0.249148 0.705 255 255 255
-0.241016 -0.159156 1.01 255 255 255
-0.346824 -0.715461 2.037 255 255 255
0.112496 0.0190779 0.773 255 255 255
-0.443681 -0.0402671 0.889 0 0 0
0.304747 0.0892914 0.782 255 255 255
-0.472989 -0.254847 1.128 255 255 255
0.113685 0.197736 0.682 0 0 0
0.169009 0.0914583 0.719 255 255 255
0.371392 -0.380165 1.591 0 0 0
-0.667499 -0.44509 1.316 255 255 255
0.705129 -0.679151 1.848 255 255 255
-0.755127 -1.15185 3.04 0 0 0
-0.12367 -0.767733 2.196 255 255 255
-0.236323 -0.117444 0.904 255 255 255
0.160317 0.158489 0.489 255 255 255
0.177237 0.024016 0.77 0 0 0
-0.573077 -0.280186 1.112 255 255 255
0.144153 0.174897 0.529 255 255 255
0.558925 -0.0685123 1.143 255 255 255
-0.36323 0.208624 0.837 255 255 255
-0.44234 -0.210302 1.027 255 255 255
0.143959 0.212193 0.658 255 255 255
0.223556 0.0466125 0.792 0 0 0
-0.0380645 -0.0771408 0.991 255 255 255
0.0205532 -0.0533983 0.942 255 255 255
0.528127 -0.514817 1.769 255 255 255
0.853495 0.502548 1.763 255 255 255
0.193716 0.130269 0.457 0 0 0
-0.297407 -0.107296 0.893 255 255 255
-0.143613 0.0316577 0.805 255 255 255
-0.282078 0.0153437 0.775 255 255 255
0.00773466 -0.310852 1.396 255 255 255
0.407442 0.117224 0.836 255 255 255
-0.0145726 0.252725 0.772 255 255 255
0.185423 0.116247 0.446 255 255 255
0.455073 -0.0110876 0.997 255 255 255
0.149629 0.0836964 0.733 255 255 255
-0.00139674 -0.339161 1.439 0 0 0
-0.201997 0.130292 0.824 255 255 255
-0.00454859 0.273328 0.777 255 255 255
0.177224 0.124889 0.451 255 255 255
0.651669 -0.522085 1.784 0 0 0
-0.509836 -0.149645 0.98 255 255 255
0.0604756 0.293904 0.752 255 255 255
0.372215 0.114046 0.804 255 255 255
-0.499997 0.192935 1.057 255 255 255
0.0414114 -0.797144 2.051 255 255 255
-0.142596 0.0837704 0.778 255 255 255
0.850395 -0.426827 1.705 255 255 255
-0.545604 0.187959 1.039 255 255 255
-0.26084 0.299445 0.832 255 255 255
0.503333 -0.187497 1.297 255 255 255
-0.570184 -0.227998 1.096 255 255 255
0.0530602 0.0674199 0.751 255 255 255
0.16768 0.121954 0.451 255 255 255
-0.0570389 0.154396 0.752 255 255 255
0.0716539 -0.0650068 0.891 0 0 0
-0.26981 0.0103123 0.776 255 255 255
0.988313 -0.82688 2.173 255 255 255
-0.0151825 -0.167444 1.085 0 0 0
-0.204786 -0.113657 0.921 255 255 255
-0.0896229 0.145372 0.769 255 255 255
0.319357 -0.0330831 1.025 255 255 255
-0.130018 0.0454382 0.794 255 255 255
-0.473428 0.335602 0.896 255 255 255
-0.473521 -0.202889 1.015 255 255 255
-0.14932 0.327058 0.877 255 255 255
-0.372736 0.206638 0.84 255 255 255
-0.423943 -0.159678 0.945 255 255 255
0.0759018 0.103876 0.724 255 255 255
-0.000980339 -0.0835506 1.01 0 0 0
0.128392 -0.557496 1.905 255 255 255
0.294706 -0.15704 1.165 255 255 255
-0.0746029 -0.324519 1.406 0 0 0
0.306419 -0.0366678 1.032 255 255 255
0.0634595 0.0987972 0.73 255 255 255
0.189805 0.0905434 0.441 0 0 0
-0.110088 -0.5348 1.848 255 255 255
0.168033 0.191357 0.66 255 255 255
-0.0606305 0.143192 0.751 255 255 255
1.02597 -0.60879 2.024 255 255 255
-0.566726 -0.304737 1.143 255 255 255
-0.198075 0.0161335 0.753 255 255 255
0.176962 0.0698771 0.456 255 255 255
0.0487956 0.11448 0.724 255 255 255
0.168295 -0.793423 2.228 255 255 255
0.394563 -0.696485 2.03 255 255 255
-0.237034 -0.0184426 0.764 0 0 0
0.616972 -0.547367 1.81 255 255 255
0.0595117 -0.04718 0.883 0 0 0
-0.147842 -0.271476 1.305 255 255 255
0.143904 0.188776 0.504 255 255 255
-0.0338707 0.187936 0.754 255 255 255
0.12962 0.256198 0.69 255 255 255
0.343255 -0.0308634 1.007 255 255 255
0.273675 -0.026408 0.964 255 255 255
-0.190787 0.0906076 0.805 255 255 255
0.0512518 -0.794423 2.044 255 255 255
-0.421411 -0.0830083 0.867 255 255 255
0.00876659 -0.00387836 0.841 255 255 255
1.08814 -0.8535 2.196 255 255 255
0.33478 0.245187 0.772 255 255 255
0.147953 0.119285 0.697 255 255 255
-0.362415 0.304861 0.832 255 255 255
-0.628719 -0.363198 1.201 255 255 255
-0.124604 0.333458 0.864 255 255 255
0.485087 0.0180256 0.992 255 255 255
-0.174957 0.206088 0.849 255 255 255
0.433309 -0.487693 1.724 255 255 255
0.152833 0.170531 0.501 255 255 255
-0.0843397 0.0369262 0.778 0 0 0
-0.291687 0.30431 0.816 255 255 255
-0.222915 0.313236 0.822 255 255 255
0.103035 0.272843 0.716 255 255 255
0.131998 0.00389004 0.755 255 255 255
-0.00828933 -0.326827 1.416 0 0 0
0.45321 -0.0564771 1.057 255 255 255
0.579083 -0.121271 1.225 255 255 255
-0.0159318 0.0305565 0.777 255 255 255
-0.0192992 -0.0182116 0.872 255 255 255
0.253781 -0.311105 1.387 255 255 255
0.246671 0.0887037 0.745 255 255 255
-0.187119 -0.0820363 0.887 255 255 255
0.072063 0.0532461 0.758 0 0 0
0.851298 0.472963 1.826 255 255 255
0.262272 0.0837512 0.755 255 255 255
-0.233865 -0.13015 0.954 255 255 255
-0.462984 -0.447915 1.357 255 255 255
-0.53039 -0.358485 1.26 255 255 255
-0.395024 0.00549156 0.81 255 255 255
-0.354475 0.0752228 0.823 255 255 255
0.678743 0.564585 1.583 0 0 0
0.115883 -0.119791 0.997 255 255 255
0.144217 -0.168872 1.13 255 255 255
0.357245 0.108751 0.794 255 255 255
0.143057 0.0824292 0.464 0 0 0
0.430986 -0.226195 1.289 0 0 0
-0.522946 -0.33991 1.252 255 255 255
0.394407 -0.33599 1.52 255 255 255
-0.265098 0.00526783 0.777 255 255 255
-0.426151 -0.456249 1.403 255 255 255
-0.330871 0.190853 0.901 255 255 255
0.195831 0.125256 0.455 0 0 0
0.923777 0.493959 1.805 255 255 255
-0.114926 -0.0459503 0.887 255 255 255
0.695823 0.582237 1.575 255 255 255
-0.0888071 0.135369 0.762 255 255 255
0.0182791 0.19594 0.729 255 255 255
0.333599 0.0898623 0.787 255 255 255
-0.341586 0.316863 0.821 255 255 255
0.796036 -0.402533 1.744 0 0 0
-0.283863 0.288614 0.832 255 255 255
-0.524209 -0.442816 1.322 255 255 255
0.152319 0.0885326 0.449 255 255 255
-0.273854 0.234984 0.869 255 255 255
-0.0250323 -0.0863789 0.986 0 0 0
0.384429 -0.0364191 1.025 255 255 255
-0.36033 -0.138192 0.905 255 255 255
0.135308 0.184516 0.515 0 0 0
0.503661 -0.663954 1.917 255 255 255
0.00168403 0.10814 0.737 255 255 255
0.0617209 0.217408 0.71 255 255 255
0.759182 -0.29287 1.595 255 255 255
0.285274 -0.169571 1.173 255 255 255
-0.128536 0.223356 0.826 255 255 255
-0.37872 -0.168117 0.967 255 255 255
0.281472 -0.999361 2.604 255 255 255
0.069401 0.0976093 0.73 255 255 255
0.381835 -0.0291666 1.005 255 255 255
0.00285633 0.129684 0.73 255 255 255
-0.0989551 0.251584 0.826 255 255 255
-0.365192 -0.233823 1.124 255 255 255
0.00422193 0.254411 0.762 255 255 255
-0.253432 -0.163506 1.027 255 255 255
-0.208594 0.263864 0.905 255 255 255
-0.0133421 -0.16125 1.079 0 0 0
0.151601 0.208774 0.654 255 255 255
0.386747 0.0497302 0.869 255 255 255
0.177817 -0.517727 1.779 255 255 255
-0.452626 -0.409624 1.333 255 255 255
-0.414073 0.204525 0.923 255 255 255
-0.0791173 -0.0809913 0.942 255 255 255
0.38065 0.0250856 0.898 255 255 255
-0.574345 -0.258408 1.104 0 0 0
0.0351081 -0.0246393 0.849 0 0 0
-0.359214 -0.257019 1.189 255 255 255
0.215303 -0.285414 1.372 255 255 255
-0.219623 0.0176125 0.764 0 0 0
0.00335717 -0.0123342 0.858 255 255 255
-0.320899 -0.477157 1.595 255 255 255
-0.103614 -0.315396 1.396 0 0 0
0.441885 0.0338352 0.938 255 255 255
0.372838 0.144749 0.786 255 255 255
0.108842 -0.120805 0.992 255 255 255
0.147202 0.0704928 0.47 0 0 0
-0.280793 0.0872765 0.823 255 255 255
-0.198462 0.186674 0.855 255 255 255
-0.175697 0.0818225 0.796 0 0 0
-0.208736 0.232754 0.893 255 255 255
-0.464252 -0.0275227 0.898 255 255 255
0.22396 -0.224791 1.281 255 255 255
0.839122 0.50138 1.769 255 255 255
0.809925 -0.353475 1.673 0 0 0
0.196577 0.195486 0.513 0 0 0
-0.0182001 0.0475754 0.766 0 0 0
0.41796 -0.333565 1.498 255 255 255
0.848967 0.477594 1.821 255 255 255
0.408109 -0.00766174 0.974 255 255 255
0.741842 -0.33714 1.673 255 255 255
-0.0925291 0.190067 0.783 255 255 255
0.142415 -0.345754 1.498 255 255 255
0.0176679 -0.345525 1.466 0 0 0
-0.0371046 0.151746 0.745 255 255 255
-0.228701 -0.00225909 0.757 255 255 255
0.331679 0.0164993 0.908 255 255 255
-0.524237 -0.348233 1.26 255 255 255
0.0394217 0.118177 0.725 255 255 255
0.142061 0.146214 0.685 255 255 255
0.394615 -0.196503 1.247 255 255 255
0.103159 -0.0525766 0.984 255 255 255
-0.0453854 -0.0679621 0.975 0 0 0
-0.460908 -0.0766547 0.875 255 255 255
-0.0163114 0.160911 0.737 255 255 255
0.423339 0.106595 0.86 255 255 255
-0.0369551 0.105251 0.742 255 255 255
0.920295 0.450716 1.882 255 255 255
-0.513883 -0.171193 0.994 255 255 255
-0.0791781 0.115389 0.753 0 0 0
-0.261378 0.0408814 0.781 255 255 255
0.219949 0.0240046 0.812 0 0 0
-0.340512 -0.999214 2.731 255 255 255
-0.283534 0.00908445 0.779 255 255 255
0.165768 0.163932 0.491 255 255 255
-0.230355 -0.315287 1.366 255 255 255
0.558702 -0.19973 1.308 255 255 255
-0.389853 -0.0186176 0.827 255 255 255
0.336759 -0.047469 1.048 255 255 255
0.177502 0.172405 0.497 0 0 0
-0.0383497 0.0503299 0.77 0 0 0
-0.530248 0.13126 1.059 255 255 255
0.806576 -0.638772 1.853 255 255 255
0.151069 0.0111276 0.746 255 255 255
-0.484732 -0.185986 1.004 0 0 0
0.0515765 0.248479 0.73 255 255 255
0.0107864 -0.0288872 0.895 255 255 255
0.970355 0.38286 1.991 255 255 255
-0.187023 0.31819 0.835 255 255 255
0.174334 0.0974983 0.44 255 255 255
0.663307 0.594543 1.547 255 255 255
-0.0376664 -0.519659 1.837 0 0 0
-0.163166 -0.00637954 0.811 255 255 255
0.8224 0.486669 1.789 255 255 255
-0.0882296 -0.0599611 0.925 0 0 0
-0.0932434 -0.457347 1.705 255 255 255
0.447772 -0.18634 1.289 0 0 0
0.0420306 -0.316977 1.403 255 255 255
0.21456 0.0590245 0.769 0 0 0
0.269627 0.239008 0.689 255 255 255
0.223441 -0.565512 1.87 255 255 255
-0.254693 0.180466 0.886 255 255 255
0.53673 -0.205537 1.291 255 255 255
-0.182046 -0.297093 1.354 255 255 255
-0.199925 0.124473 0.821 255 255 255
0.499983 -0.922823 2.489 0 0 0
0.0207375 0.12051 0.732 255 255 255
-0.508239 -0.276197 1.18 0 0 0
0.607105 -0.173111 1.316 255 255 255
-0.422673 0.00158649 0.836 255 255 255
0.142749 0.0837585 0.463 0 0 0
0.352987 -0.263656 1.319 0 0 0
-0.109985 -0.657354 1.953 255 255 255
0.150205 0.0881057 0.73 255 255 255
-0.366158 -0.0950272 0.887 0 0 0
-0.422528 0.129574 0.981 255 255 255
0.18624 -0.105012 1.027 255 255 255
0.788266 0.559189 1.612 255 255 255
-0.151151 0.255831 0.863 255 255 255
0.46043 0.0113585 0.974 255 255 255
-0.0309993 0.157596 0.744 255 255 255
-0.277722 0.0796988 0.814 255 255 255
0.82652 -0.698528 1.935 0 0 0
0.280224 -0.163916 1.16 255 255 255
-0.205282 0.156617 0.843 255 255 255
0.201219 -0.147525 1.044 0 0 0
0.0405334 0.00955092 0.819 255 255 255
-0.0281753 0.0600407 0.766 255 255 255
-0.111343 -0.0506207 0.893 0 0 0
1.05586 -0.833473 2.181 255 255 255
0.0441609 -0.694426 2.024 255 255 255
-0.379124 0.0306745 0.78 255 255 255
-0.19619 -0.116282 0.93 255 255 255
0.200762 0.102489 0.443 255 255 255
-0.387777 0.205271 0.84 255 255 255
0.654857 -0.668067 1.859 255 255 255
-0.37218 -0.193549 1.018 255 255 255
0.191211 0.026901 0.781 0 0 0
-0.31214 -0.0244271 0.797 0 0 0
0.971802 -0.653061 2.114 0 0 0
-0.334375 0.100537 0.833 255 255 255
-0.321373 0.295225 0.824 255 255 255
0.234544 0.0790048 0.745 255 255 255
-0.248997 0.277277 0.847 255 255 255
0.119578 -0.00475406 0.762 255 255 255
-0.414851 0.205749 0.877 255 255 255
0.12841 0.182299 0.528 0 0 0
0.725324 -0.225161 1.459 255 255 255
-0.0256085 -0.730773 2.071 255 255 255
0.498892 0.0278512 0.997 255 255 255
0.275634 0.228126 0.69 255 255 255
0.0969993 0.126569 0.706 255 255 255
-0.288758 0.0292544 0.776 255 255 255
0.2935 -0.932847 2.561 255 255 255
0.17177 0.0565119 0.462 0 0 0
-0.176571 -0.0474463 0.837 255 255 255
0.107181 0.194691 0.683 0 0 0
-0.230866 0.0548618 0.781 255 255 255
-0.330457 -0.134809 0.912 255 255 255
0.69245 0.576007 1.579 255 255 255
-0.130153 0.142371 0.787 255 255 255
-0.0547374 -0.565471 1.911 255 255 255
-0.20369 0.0661117 0.794 255 255 255
0.00787012 0.241016 0.755 255 255 255
-0.332231 0.312855 0.821 255 255 255
-0.248346 0.0395597 0.78 255 255 255
-0.53916 -0.257593 1.132 0 0 0
-0.206768 0.0749807 0.806 255 255 255
-0.180367 0.186576 0.842 255 255 255
0.0909879 -0.140035 0.991 255 255 255
0.397415 -0.259757 1.289 255 255 255
0.237439 -0.211289 1.275 0 0 0
-0.334295 -0.0647413 0.868 255 255 255
-0.163491 -0.0759156 0.9 255 255 255
-0.245077 -0.0573893 0.843 0 0 0
-0.154257 0.295366 0.889 255 255 255
0.157928 0.122756 0.691 255 255 255
0.427769 0.0333302 0.924 255 255 255
-0.350984 -0.0569477 0.857 255 255 255
-0.330348 0.228509 0.84 255 255 255
-0.110574 -0.114256 1.02 255 255 255
-0.212593 0.137302 0.834 255 255 255
0.203558 0.0553421 0.77 255 255 255
-1.0029 -1.11219 2.898 255 255 255
-0.472003 -0.185191 0.991 0 0 0
0.436137 -0.888066 2.449 255 255 255
-0.401107 -0.011903 0.828 255 255 255
-0.158881 0.183705 0.823 255 255 255
0.316246 -0.278212 1.327 255 255 255
-0.512185 -0.364791 1.297 255 255 255
-0.201006 0.291523 0.904 255 255 255
-0.495 0.104334 1.015 255 255 255
0.00291502 0.211152 0.745 255 255 255
-0.0168545 0.00557291 0.822 255 255 255
0.13808 -0.0180564 0.748 255 255 255
0.54219 -0.182852 1.294 255 255 255
0.512201 -0.146022 1.232 255 255 255
0.390065 0.108018 0.828 255 255 255
-0.517046 0.204276 1.036 255 255 255
-0.535327 0.0974005 1.029 255 255 255
0.133236 0.182076 0.52 255 255 255
0.0238803 0.162831 0.719 255 255 255
-0.15176 -0.0199875 0.828 255 255 255
0.412102 -0.189896 1.257 255 255 255
0.0090027 0.0767857 0.747 255 255 255
0.0195993 0.113672 0.734 255 255 255
-0.0280089 -0.281943 1.366 255 255 255
0.0363182 -0.0176477 0.845 0 0 0
0.431469 -0.26378 1.278 255 255 255
0.118711 0.181396 0.679 255 255 255
0.189397 -0.344937 1.484 255 255 255
-0.203675 -0.197101 1.064 255 255 255
0.777931 0.506925 1.729 0 0 0
-0.217538 -0.606353 1.893 255 255 255
0.149821 0.198218 0.665 0 0 0
0.475023 -0.12986 1.194 255 255 255
0.0589921 0.237714 0.719 255 255 255
-0.579023 -0.298605 1.12 255 255 255
0.142476 0.139933 0.687 255 255 255
0.0759294 -0.099014 0.984 0 0 0
-0.469336 0.32938 0.891 255 255 255
0.423476 -0.478781 1.753 255 255 255
-0.0630525 0.026901 0.781 255 255 255
0.278489 0.240546 0.7 0 0 0
0.49045 -0.0711754 1.098 255 255 255
-0.0306691 0.233309 0.766 255 255 255
0.0313037 0.277379 0.757 255 255 255
-0.0226238 -0.753762 2.107 255 255 255
-0.323816 0.0469068 0.797 255 255 255
-0.359791 -0.0141394 0.802 255 255 255
0.165181 0.0161764 0.755 255 255 255
0.163595 0.187715 0.499 255 255 255
-0.351009 -0.0726311 0.878 255 255 255
-0.192381 -0.140076 0.98 255 255 255
0.15782 -0.111697 1.027 255 255 255
-0.185638 -0.590579 1.882 0 0 0
0.0249001 -0.146612 1.062 255 255 255
-0.176558 0.268783 0.892 255 255 255
-0.36307 -0.0902879 0.883 0 0 0
-0.385959 0.314006 0.842 255 255 255
-0.177512 0.198946 0.848 255 255 255
0.0677455 0.105199 0.725 255 255 255
0.207196 -0.505894 1.758 255 255 255
-0.0373084 -0.291781 1.381 255 255 255
0.201934 0.0783146 0.75 0 0 0
-0.107686 0.155465 0.782 255 255 255
-0.103954 0.00290111 0.823 0 0 0
0.171552 0.160219 0.487 255 255 255
-0.340336 0.244993 0.831 255 255 255
-0.62233 -0.417079 1.289 255 255 255
0.601054 -0.104635 1.217 255 255 255
-0.369168 -0.0796842 0.877 255 255 255
0.0615135 -0.127837 0.984 255 255 255
0.640542 -0.567985 1.81 255 255 255
0.762812 0.510895 1.714 0 0 0
0.162076 0.203787 0.662 255 255 255
-0.168793 0.0686959 0.794 255 255 255
0.118903 0.246034 0.693 255 255 255
-0.144787 0.072841 0.783 255 255 255
0.53153 -0.442805 1.724 0 0 0
-0.17743 0.22021 0.861 255 255 255
0.175457 -0.577911 1.911 255 255 255
-0.0255474 0.232091 0.762 255 255 255
-0.480725 -0.490301 1.409 0 0 0
0.486443 -0.189607 1.297 255 255 255
