ply
format ascii 1.0
comment Created by Open3D
element vertex 1323
property double x
property double y
property double z
property uchar red
property uchar green
property uchar blue
end_header
0.146624 0.245252 0.707 255 255 255
-0.0112925 -0.686945 1.929 0 0 0
-0.253457 0.0420956 0.83 255 255 255
0.403475 -0.265235 1.275 255 255 255
-0.325874 0.298681 0.857 255 255 255
-0.422628 -0.199057 1.004 255 255 255
0.483097 -0.0864484 1.066 255 255 255
-0.140535 -0.0398906 0.795 0 0 0
-0.0498237 0.113422 0.773 255 255 255
0.203301 0.185545 0.489 255 255 255
-0.603446 -0.498887 1.289 255 255 255
-0.528653 0.0678617 1.013 255 255 255
0.453679 -0.189298 1.189 255 255 255
0.0123938 -0.364191 1.409 0 0 0
-0.31454 0.298656 0.849 255 255 255
-0.208602 0.16607 0.918 255 255 255
0.0272058 0.070613 0.746 255 255 255
0.214363 0.0890587 0.427 255 255 255
0.178539 0.107636 0.462 0 0 0
-0.486866 0.131424 0.995 255 255 255
0.286859 0.0726623 0.73 0 0 0
0.00587808 0.261766 0.82 255 255 255
-0.241473 -0.426433 1.366 255 255 255
-0.331823 -0.109091 0.884 255 255 255
0.463662 -0.206425 1.21 255 255 255
0.136404 0.0215937 0.773 0 0 0
-0.125846 -0.072362 0.826 255 255 255
0.395944 -0.118589 1.124 255 255 255
0.22296 -0.010451 0.727 255 255 255
0.0856625 0.0697611 0.737 255 255 255
0.125488 -0.0787032 0.882 0 0 0
-0.587612 0.454336 1.213 255 255 255
0.360668 0.0505428 0.793 255 255 255
-0.136892 0.283793 0.889 0 0 0
-0.136161 0.178226 0.875 255 255 255
0.192099 -0.0446559 0.745 0 0 0
-0.285596 0.0833809 0.866 255 255 255
-0.133325 -0.205688 1.029 255 255 255
-0.413375 0.0625379 1.034 255 255 255
0.224052 0.126713 0.442 255 255 255
0.323602 -0.544393 1.753 0 0 0
-0.239796 0.183066 0.906 0 0 0
0.196584 0.143458 0.471 255 255 255
0.293132 -0.72872 2.037 255 255 255
0.186233 -0.089656 0.891 0 0 0
0.191171 0.21456 0.662 255 255 255
0.712653 -0.614986 1.784 255 255 255
0.107276 0.0905394 0.721 255 255 255
-0.302692 -0.336584 1.286 255 255 255
-0.426619 -0.375054 1.227 255 255 255
0.25516 -0.00101092 0.745 0 0 0
-0.545874 0.182417 1.046 255 255 255
0.810327 -0.609816 1.769 255 255 255
0.479317 -0.25962 1.278 0 0 0
-0.113213 0.275082 0.908 255 255 255
-0.67951 0.505733 1.294 255 255 255
0.181691 0.18947 0.493 255 255 255
0.290212 0.0346593 0.784 0 0 0
-0.379025 -0.213436 0.98 255 255 255
0.0665303 -0.345708 1.39 0 0 0
0.700276 -0.453592 1.691 0 0 0
-0.162168 -0.0756864 0.833 0 0 0
0.00657956 0.0781057 0.748 255 255 255
-0.120399 -0.186171 1.005 255 255 255
-0.160695 0.0309105 0.786 0 0 0
-0.128003 -0.0149054 0.774 255 255 255
-0.0991272 -0.530294 1.664 255 255 255
-0.580765 0.331975 1.145 255 255 255
0.383424 -0.398871 1.487 255 255 255
-0.326465 -0.0952415 0.889 0 0 0
-0.0273502 0.158468 0.778 255 255 255
0.612036 -0.196501 1.26 0 0 0
-0.013316 0.0303599 0.772 0 0 0
0.079316 0.243886 0.745 255 255 255
0.381714 -0.914546 2.383 255 255 255
-0.304919 -0.242432 1.043 255 255 255
-0.408818 -0.374546 1.252 0 0 0
0.0592543 -0.603961 1.876 255 255 255
-0.0370407 -0.396109 1.459 255 255 255
-0.437988 -0.356442 1.198 255 255 255
0.128666 0.210024 0.697 255 255 255
-0.242175 0.216101 0.867 255 255 255
-0.309739 0.277201 0.851 255 255 255
-0.447229 -0.16241 0.952 255 255 255
-0.467814 0.0956985 1.066 255 255 255
-0.276375 0.175779 0.877 255 255 255
-0.112215 0.249225 0.9 255 255 255
0.230274 0.022556 0.763 0 0 0
-0.0418912 0.0812318 0.766 255 255 255
0.241704 -0.014058 0.73 255 255 255
0.187918 0.11634 0.452 255 255 255
-0.0662181 0.00414251 0.804 255 255 255
-0.322933 -0.0469361 0.828 255 255 255
0.102954 -0.818508 2.151 255 255 255
0.171688 0.180588 0.511 0 0 0
-0.198653 0.125949 0.868 255 255 255
-0.575846 0.233005 1.1 255 255 255
0.0128862 -0.0794584 0.942 255 255 255
0.404046 -0.14528 1.147 255 255 255
-0.591816 0.311509 1.152 255 255 255
0.0703959 0.18264 0.728 255 255 255
-0.672641 0.506906 1.297 255 255 255
-0.48669 0.060973 1.036 255 255 255
0.229222 -0.282911 1.299 0 0 0
0.336889 -0.0348915 0.939 255 255 255
-0.00901947 -0.0298459 0.84 255 255 255
-0.293275 -0.260367 1.075 255 255 255
-0.248823 -0.0258855 0.802 0 0 0
0.153696 -0.0216442 0.84 255 255 255
-0.207544 -0.022898 0.789 255 255 255
0.026679 -0.198832 1.064 255 255 255
-0.131272 -0.0148476 0.771 255 255 255
0.591309 -0.643866 1.859 255 255 255
0.278201 0.0596071 0.745 0 0 0
0.436652 -0.272737 1.281 0 0 0
0.560737 -0.634041 1.848 255 255 255
-0.327032 -0.184284 0.945 0 0 0
0.337633 -0.234338 1.254 255 255 255
0.0760066 0.10402 0.725 255 255 255
-0.088577 0.0198677 0.805 255 255 255
-0.493332 -0.41334 1.234 255 255 255
-0.18785 0.0466399 0.815 255 255 255
0.0816046 -0.372913 1.416 255 255 255
-0.0267333 -0.195063 1.053 255 255 255
0.186375 0.0906402 0.438 255 255 255
0.430319 0.0159905 0.88 255 255 255
-0.416022 0.33255 0.941 255 255 255
0.185721 -0.362157 1.419 0 0 0
-0.08769 0.267879 0.889 255 255 255
0.203863 -0.118109 0.983 255 255 255
-0.481076 0.227009 1.017 255 255 255
0.573631 -0.683645 1.911 0 0 0
-0.152266 -0.0283517 0.763 255 255 255
-0.207567 -0.0450088 0.794 0 0 0
-0.247593 -0.20189 1.01 255 255 255
0.316405 -0.352094 1.425 0 0 0
-0.485075 0.0417645 1.062 255 255 255
0.289573 -0.119235 1.02 255 255 255
0.190505 0.0763284 0.446 0 0 0
-0.391314 0.195408 0.895 255 255 255
-0.149586 -0.0171543 0.762 255 255 255
-0.298739 0.109721 0.897 255 255 255
-0.564547 -0.332012 1.092 255 255 255
0.0797686 -0.639858 1.929 255 255 255
0.415761 -0.0661192 1.02 255 255 255
-0.217264 0.0343202 0.806 255 255 255
0.611635 -0.572392 1.769 255 255 255
0.824724 -0.563756 1.769 255 255 255
0.0214457 0.176365 0.757 255 255 255
-0.233498 -0.356348 1.297 0 0 0
-0.0934373 -0.117641 0.917 255 255 255
0.129995 0.173608 0.692 0 0 0
-0.269266 -0.322857 1.257 255 255 255
-0.302915 -0.345804 1.305 0 0 0
-0.512681 -0.228562 1.034 255 255 255
0.745268 0.587306 1.509 255 255 255
0.622004 -0.2396 1.239 0 0 0
-0.144599 0.3111 0.796 255 255 255
-0.306036 -0.0859291 0.868 255 255 255
-0.293136 0.0147003 0.809 255 255 255
-0.639615 -0.46308 1.249 255 255 255
0.141152 0.153125 0.686 0 0 0
-0.197476 0.0209146 0.795 255 255 255
0.0815467 -0.734349 1.972 255 255 255
0.223838 0.0606759 0.443 0 0 0
0.178262 0.124281 0.687 255 255 255
0.170906 0.18934 0.499 255 255 255
-0.215545 -0.242709 1.098 0 0 0
-0.234383 0.236484 0.849 0 0 0
0.139548 0.244669 0.712 255 255 255
0.110319 0.170648 0.703 255 255 255
0.208792 0.0551663 0.451 0 0 0
-0.215234 -0.122639 0.878 255 255 255
0.136685 0.178801 0.686 255 255 255
0.453679 -0.191233 1.189 255 255 255
0.109486 0.147041 0.705 255 255 255
0.20747 0.0896844 0.43 0 0 0
0.115546 0.165363 0.7 255 255 255
0.486434 -0.307714 1.362 255 255 255
-0.340403 0.318659 0.862 255 255 255
0.129241 0.166204 0.694 0 0 0
0.754632 0.588863 1.513 255 255 255
-0.0821185 -0.00111134 0.819 255 255 255
0.015022 0.0897954 0.744 255 255 255
0.310179 0.225875 0.67 255 255 255
-0.165807 0.226563 0.921 255 255 255
-0.361253 -0.248266 1.039 255 255 255
0.196566 -0.0130287 0.739 255 255 255
0.0571241 0.134695 0.725 255 255 255
-0.237777 -0.247168 1.11 255 255 255
0.379859 -0.462401 1.616 0 0 0
0.00674668 0.0401485 0.767 255 255 255
0.122993 0.195279 0.697 0 0 0
-0.0714355 -0.217841 1.081 255 255 255
-0.178549 0.0381127 0.803 0 0 0
-0.509541 -0.213464 0.995 255 255 255
-0.103081 0.254233 0.897 255 255 255
-0.549985 -0.288426 1.102 255 255 255
0.182356 0.181302 0.497 255 255 255
0.0384436 -0.324251 1.357 0 0 0
-0.000808537 0.290316 0.833 255 255 255
0.527149 -0.684808 1.923 255 255 255
0.200219 0.124676 0.445 255 255 255
-0.210764 -0.151949 0.908 255 255 255
0.378406 -0.0177362 0.921 255 255 255
-0.201006 0.151768 0.904 0 0 0
-0.152777 -0.0624193 0.819 0 0 0
0.203267 0.0724884 0.436 255 255 255
0.0607151 0.0748619 0.74 255 255 255
0.065952 -0.176548 1.055 0 0 0
-0.493268 -0.319792 1.124 255 255 255
-0.220926 0.0316577 0.805 255 255 255
-0.172352 -0.0702441 0.817 255 255 255
-0.636048 0.395769 1.215 255 255 255
0.120888 -0.129442 0.972 0 0 0
-0.0856359 0.129423 0.802 255 255 255
0.0886357 -0.011788 0.82 0 0 0
0.34475 0.0692818 0.758 255 255 255
0.202307 0.060248 0.738 0 0 0
-0.523496 -0.222674 1 255 255 255
0.183837 0.0212585 0.761 255 255 255
0.751975 -0.605765 1.774 255 255 255
-0.252054 0.104641 0.867 255 255 255
0.74515 -0.322546 1.47 255 255 255
-0.526147 0.0507593 1.034 255 255 255
-0.51608 -0.306069 1.114 0 0 0
-0.43631 -0.210732 1.013 255 255 255
0.219108 -0.0187068 0.726 255 255 255
0.338723 -0.29816 1.339 0 0 0
-0.289575 -0.827071 2.128 255 255 255
-0.307192 0.305138 0.844 255 255 255
-0.294181 0.154256 0.91 255 255 255
-0.576029 -0.384719 1.143 255 255 255
-0.159734 0.304893 0.807 255 255 255
-0.0119921 -0.037423 0.857 255 255 255
-0.216342 -0.0320474 0.793 255 255 255
-0.162045 -0.203889 1.02 255 255 255
0.557224 -0.246666 1.234 255 255 255
0.105044 0.190907 0.706 255 255 255
-0.293793 -0.00494747 0.793 0 0 0
0.188659 0.103943 0.44 255 255 255
-0.33113 -0.0183475 0.815 255 255 255
-0.262743 -0.326971 1.265 255 255 255
-0.101931 0.241294 0.887 255 255 255
0.340825 0.0473571 0.783 255 255 255
-0.178977 0.317635 0.823 255 255 255
-0.426568 0.175382 0.944 255 255 255
-0.144553 -0.0868114 0.849 255 255 255
-0.313328 -0.158902 0.914 255 255 255
0.10074 -0.00505353 0.81 0 0 0
-0.125159 -0.00732905 0.772 255 255 255
-0.129691 0.309537 0.792 255 255 255
-0.198338 -0.140562 0.892 255 255 255
0.0587787 0.0609011 0.746 255 255 255
0.160641 0.121983 0.693 255 255 255
0.0897347 0.26296 0.751 255 255 255
-0.278537 0.147369 0.932 255 255 255
0.183643 0.118111 0.456 0 0 0
0.0619823 -0.546677 1.779 0 0 0
-0.287378 0.118611 0.898 255 255 255
0.372236 -0.280733 1.289 255 255 255
0.142221 0.100428 0.708 255 255 255
0.239444 -0.0344409 0.734 255 255 255
0.232455 0.0490227 0.75 0 0 0
0.0651981 0.221113 0.75 255 255 255
-0.370642 0.277118 0.905 255 255 255
-0.416541 0.124728 1.077 255 255 255
-0.0627175 -0.0327738 0.845 255 255 255
0.0244754 -0.0104153 0.817 255 255 255
0.0817071 -0.163411 1.037 255 255 255
-0.42073 0.235882 0.905 255 255 255
-0.271039 -0.155348 0.902 0 0 0
-0.310997 -0.0907899 0.874 255 255 255
0.121819 0.227806 0.71 255 255 255
-0.205065 0.28421 0.831 255 255 255
-0.378132 -0.459412 1.308 255 255 255
-0.024368 -0.059938 0.902 0 0 0
0.398957 -0.100128 1.102 255 255 255
0.18212 0.169247 0.517 255 255 255
-0.337121 0.202225 0.868 255 255 255
0.243084 -0.214087 1.22 255 255 255
-0.406867 0.118694 1.07 255 255 255
0.0384017 -0.191636 1.053 0 0 0
-0.347088 0.0807388 0.989 255 255 255
0.0724266 0.235444 0.749 255 255 255
0.192542 0.112113 0.444 255 255 255
0.010205 0.0815389 0.746 255 255 255
-0.197509 -0.107904 0.863 0 0 0
-0.0904397 0.305021 0.787 255 255 255
-0.223726 -0.603406 1.664 255 255 255
-0.225995 -0.209168 1.055 255 255 255
0.393123 -0.0194438 0.931 255 255 255
0.834435 -0.435151 1.673 255 255 255
0.00927989 0.0340404 0.77 0 0 0
-0.147595 -0.185821 1.012 255 255 255
0.162292 -0.0108248 0.753 255 255 255
-0.481841 -0.0917618 0.975 255 255 255
0.276977 -0.177381 1.081 0 0 0
0.174382 -0.297322 1.316 0 0 0
-0.0812187 -0.649754 1.876 0 0 0
0.0282213 0.312617 0.81 255 255 255
0.248483 0.0636778 0.736 0 0 0
0.214264 -0.362123 1.456 255 255 255
0.187129 -0.321013 1.362 255 255 255
-0.365974 -0.271116 1.083 255 255 255
-0.108418 -0.150805 0.957 255 255 255
0.0689926 0.262882 0.765 255 255 255
-0.531718 -0.463159 1.283 255 255 255
-0.292425 0.258746 0.845 255 255 255
0.13137 0.00398278 0.773 0 0 0
0.176733 -0.0384762 0.82 0 0 0
-0.0775305 -0.210008 1.068 255 255 255
-0.419842 0.0997261 1.072 255 255 255
0.221462 0.189854 0.494 255 255 255
-0.330212 0.0546167 0.928 255 255 255
0.241694 -0.250663 1.254 0 0 0
-0.325052 -0.496289 1.381 255 255 255
0.208846 -0.0627803 0.79 255 255 255
0.403345 0.049232 0.814 255 255 255
-0.299381 -0.377548 1.327 0 0 0
-0.385598 0.327158 0.909 255 255 255
0.36894 0.0864368 0.757 255 255 255
0.376923 -0.69772 2.024 255 255 255
0.212252 0.0571137 0.449 0 0 0
-0.155491 -0.454224 1.502 255 255 255
-0.387666 0.106324 1.051 255 255 255
-0.169513 -0.208224 1.025 255 255 255
-0.2776 -0.0255305 0.791 255 255 255
0.0210412 0.241292 0.788 255 255 255
-0.307175 0.0549777 0.909 255 255 255
0.0173504 0.109784 0.74 0 0 0
0.360545 -0.0520422 0.974 255 255 255
-0.134453 0.297899 0.813 255 255 255
-0.117989 -0.0616572 0.809 255 255 255
0.640339 -0.48426 1.664 255 255 255
-0.048245 -0.385996 1.439 255 255 255
-0.353619 -0.301198 1.158 255 255 255
0.0688303 -0.0491124 0.892 255 255 255
-0.200027 0.236336 0.874 255 255 255
0.642523 -0.668071 1.876 0 0 0
0.383634 -0.321407 1.336 255 255 255
-0.195907 0.106099 0.856 255 255 255
-0.34902 -0.432422 1.378 255 255 255
-0.47599 -0.123157 0.96 255 255 255
0.480054 -0.0135705 0.944 255 255 255
-0.520452 -0.279707 1.089 255 255 255
-0.308065 -0.169846 0.925 255 255 255
0.0601539 0.0561954 0.748 255 255 255
-0.00624041 -0.194002 1.066 0 0 0
0.183392 0.154774 0.669 255 255 255
0.19307 0.068096 0.459 0 0 0
0.132761 -0.230054 1.21 255 255 255
-0.238373 -0.12707 0.879 0 0 0
0.0199158 -0.242727 1.176 255 255 255
-0.337597 0.167161 0.862 255 255 255
-0.545874 0.0445397 1.046 255 255 255
0.12107 0.142377 0.699 255 255 255
0.183378 0.188478 0.665 0 0 0
0.112891 -0.392433 1.463 255 255 255
-0.416893 -0.200291 1.002 255 255 255
0.00188968 0.284188 0.827 255 255 255
0.211951 0.10838 0.432 0 0 0
-0.358228 -0.0474056 0.861 255 255 255
0.157931 0.251156 0.701 255 255 255
-0.171041 0.074512 0.83 255 255 255
-0.333996 -0.528418 1.419 255 255 255
-0.562571 0.0263586 1.068 255 255 255
-0.105993 0.0833267 0.798 255 255 255
0.491669 -0.0447966 0.989 255 255 255
0.200816 0.142798 0.669 255 255 255
-0.0873323 0.309229 0.871 0 0 0
0.847136 -0.510379 1.744 0 0 0
-0.0572041 0.0220128 0.788 255 255 255
0.590796 -0.2372 1.237 255 255 255
-0.131959 0.143747 0.848 255 255 255
0.212369 0.0777887 0.43 255 255 255
0.202121 0.188317 0.49 255 255 255
-0.292559 -0.52445 1.466 255 255 255
0.213668 0.0848895 0.427 255 255 255
-0.150571 0.281789 0.844 255 255 255
0.628445 -0.196501 1.26 0 0 0
0.192621 0.0888073 0.436 255 255 255
0.0883027 -0.0720223 0.945 255 255 255
-0.120432 0.0574264 0.799 0 0 0
0.774285 -0.678709 1.799 255 255 255
-0.279838 -0.274757 1.112 255 255 255
0.777214 -0.664071 1.799 255 255 255
-0.185985 0.198719 0.917 255 255 255
-0.197621 0.0480839 0.817 255 255 255
-0.25018 0.0054102 0.798 255 255 255
-0.536937 0.218043 1.062 255 255 255
-0.190414 0.0679218 0.832 255 255 255
0.569566 -0.231535 1.239 255 255 255
0.125635 -0.123115 0.972 255 255 255
-0.141673 -0.128784 0.901 255 255 255
0.0660613 -0.218647 1.085 0 0 0
-0.442115 -0.070932 0.951 255 255 255
0.125592 0.281607 0.739 255 255 255
-0.0708029 0.269972 0.877 255 255 255
-0.32269 0.211429 0.871 255 255 255
0.178595 0.0898046 0.706 255 255 255
0.0892655 -0.585245 1.865 0 0 0
0.0177021 0.0567213 0.755 255 255 255
0.39033 -0.816523 2.212 255 255 255
0.135236 0.140544 0.69 255 255 255
-0.345213 0.183567 0.86 255 255 255
0.216832 0.174404 0.489 0 0 0
0.573075 -0.557063 1.748 255 255 255
-0.12757 0.238827 0.905 255 255 255
-0.318425 0.166608 0.852 255 255 255
0.0954701 0.00671722 0.799 255 255 255
-0.214888 0.0729354 0.843 255 255 255
-0.0898974 0.147798 0.817 255 255 255
0.272073 -0.681042 2.004 255 255 255
-0.0117682 0.305422 0.841 255 255 255
-0.0177365 -0.712366 1.947 255 255 255
0.0560479 0.194605 0.742 255 255 255
-0.46024 -0.360288 1.185 255 255 255
0.0800167 -0.717422 1.935 255 255 255
0.0526203 0.116297 0.728 0 0 0
0.155003 -0.336766 1.372 255 255 255
0.412368 -0.124785 1.114 255 255 255
-0.482801 0.114183 1 255 255 255
0.18083 0.0225856 0.764 0 0 0
0.293132 -0.722091 2.037 255 255 255
0.0909879 -0.140035 0.991 0 0 0
-0.270059 -0.289638 1.18 255 255 255
0.115711 0.141643 0.701 255 255 255
-0.147049 -0.126894 0.898 255 255 255
0.222081 -0.0282358 0.728 255 255 255
-0.112093 0.29959 0.814 255 255 255
-0.28713 -0.0075569 0.796 0 0 0
0.102745 0.165632 0.706 255 255 255
-0.147324 -0.0565306 0.811 255 255 255
-0.100914 -0.386064 1.422 255 255 255
0.436118 -0.163845 1.173 0 0 0
-0.166469 0.276224 0.848 255 255 255
0.0103144 0.0640082 0.754 255 255 255
0.11426 0.00796728 0.794 0 0 0
-0.239304 0.245495 0.842 255 255 255
0.715188 -0.447422 1.668 0 0 0
0.0473736 -0.200187 1.062 0 0 0
0.347321 -0.261509 1.267 255 255 255
0.547272 -0.58632 1.794 255 255 255
-0.126148 -0.17142 0.986 255 255 255
0.217462 0.073198 0.436 0 0 0
-0.163129 0.108861 0.845 255 255 255
0.198312 0.151495 0.477 255 255 255
0.362215 -0.493567 1.668 0 0 0
-0.0928971 -0.0251321 0.82 0 0 0
0.445009 -0.124785 1.114 255 255 255
-0.479619 -0.315533 1.135 0 0 0
-0.528577 -0.372349 1.145 255 255 255
0.0520236 0.00536274 0.791 255 255 255
-0.205999 -0.0215866 0.788 255 255 255
0.387101 -0.103903 1.104 255 255 255
-0.119796 0.222083 0.891 255 255 255
-0.596315 -0.470304 1.252 255 255 255
0.505735 -0.059713 1.024 255 255 255
0.0705673 -0.676486 1.935 255 255 255
-0.242146 -0.0885046 0.852 255 255 255
-0.205872 -0.410809 1.396 0 0 0
0.021869 0.304096 0.819 255 255 255
-0.490821 0.24094 1.027 255 255 255
-0.314001 -0.484124 1.372 255 255 255
0.160873 0.240743 0.694 255 255 255
-0.219119 0.0357203 0.808 255 255 255
0.0241945 0.0238913 0.766 0 0 0
0.196741 0.197502 0.659 255 255 255
-0.426886 0.114637 1.081 255 255 255
-0.0954539 -0.140721 0.952 255 255 255
-0.0818774 0.199381 0.844 255 255 255
-0.279703 0.169797 0.883 255 255 255
-0.168195 0.28592 0.836 255 255 255
0.196754 0.120872 0.447 255 255 255
-0.0933563 0.0850625 0.79 255 255 255
-0.191962 -0.083216 0.827 255 255 255
-0.0490052 0.0459063 0.78 255 255 255
-0.498266 -0.487921 1.316 255 255 255
0.0226356 0.256362 0.799 255 255 255
-0.205662 -0.803573 2.085 255 255 255
0.101681 0.000218201 0.807 255 255 255
0.079664 0.0697611 0.737 255 255 255
-0.0382149 -0.257015 1.198 0 0 0
-0.218022 0.225862 0.872 0 0 0
-0.24503 -0.205787 1.013 255 255 255
-0.129198 -0.0839492 0.848 255 255 255
-0.345637 -0.0269183 0.834 255 255 255
0.569628 -0.899502 2.374 255 255 255
-0.144411 -0.132886 0.909 255 255 255
0.115407 -0.003657 0.793 255 255 255
0.139728 0.201178 0.69 255 255 255
0.214623 0.11435 0.436 255 255 255
0.443759 -0.129102 1.12 255 255 255
-0.250145 0.293072 0.837 255 255 255
0.203112 0.1327 0.673 0 0 0
0.380548 0.00732252 0.871 255 255 255
-0.272657 0.321895 0.852 255 255 255
-0.681592 0.485553 1.302 255 255 255
-0.368847 0.1354 1.051 255 255 255
0.180672 0.166251 0.667 255 255 255
-0.0127154 0.318135 0.814 0 0 0
-0.553395 0.407824 1.154 255 255 255
-0.552439 -0.507239 1.333 255 255 255
0.0519279 -0.0743385 0.955 0 0 0
-0.178443 0.189589 0.909 255 255 255
-0.251496 -0.575882 1.567 0 0 0
0.40311 -0.540045 1.739 255 255 255
0.128429 -0.0142805 0.81 255 255 255
-0.578772 -0.362918 1.116 255 255 255
0.386859 0.0476719 0.81 255 255 255
0.423253 -0.799896 2.196 255 255 255
-0.00626231 0.302607 0.837 255 255 255
-0.134607 0.300581 0.806 255 255 255
-0.505985 -0.230109 1.041 255 255 255
0.19614 0.0614438 0.454 0 0 0
-0.0864789 -0.201342 1.05 255 255 255
-0.441474 -0.173374 0.97 255 255 255
-0.0305089 0.0770876 0.762 255 255 255
-0.0293985 -0.645707 1.882 255 255 255
-0.512188 -0.0516487 0.997 255 255 255
-0.239817 0.295138 0.839 255 255 255
-0.288989 0.0331521 0.843 255 255 255
-0.070585 -0.125098 0.951 255 255 255
-0.623488 0.340203 1.18 255 255 255
0.10319 -0.058002 0.852 0 0 0
0.701968 -0.598788 1.779 255 255 255
0.0412177 -0.0629035 0.924 255 255 255
0.128028 -0.307747 1.324 255 255 255
0.210572 0.0536171 0.746 255 255 255
0.257605 -0.575448 1.853 0 0 0
0.386912 0.0628875 0.786 255 255 255
-0.551615 0.0364076 1.057 255 255 255
0.488916 -0.139924 1.149 255 255 255
-0.131496 -0.00601769 0.765 255 255 255
-0.340327 -0.366315 1.31 255 255 255
-0.30258 -0.543909 1.48 255 255 255
0.901783 -0.537992 1.779 255 255 255
-0.0858971 0.193657 0.843 255 255 255
-0.10469 -0.027394 0.808 255 255 255
-0.0389642 -0.0685927 0.9 255 255 255
0.129411 0.0142461 0.784 255 255 255
0.0794676 -0.378322 1.419 255 255 255
-0.14645 0.278914 0.852 255 255 255
0.197805 -0.0770052 0.969 255 255 255
-0.106474 0.275894 0.901 255 255 255
0.184315 0.0791751 0.454 0 0 0
0.124051 0.217552 0.703 255 255 255
0.179666 0.0701901 0.729 255 255 255
-0.287868 -0.0458591 0.809 255 255 255
0.787746 -0.908018 2.356 0 0 0
-0.0619158 -0.719646 1.941 255 255 255
-0.0934373 -0.119133 0.917 255 255 255
-0.273095 0.017569 0.82 255 255 255
-0.029664 -0.66081 1.899 255 255 255
-0.0755096 -0.228314 1.089 255 255 255
0.202916 0.140412 0.461 255 255 255
0.0177021 0.16607 0.755 255 255 255
0.181712 0.138303 0.679 0 0 0
-0.0769495 0.275817 0.882 255 255 255
-0.446204 -0.212381 1.013 255 255 255
0.0103281 0.158698 0.755 255 255 255
0.220289 -0.0222511 0.726 255 255 255
0.708534 -0.45084 1.691 0 0 0
0.88575 -0.495897 1.753 0 0 0
0.178501 0.185789 0.667 0 0 0
0.0225789 -0.115706 0.963 255 255 255
-0.0518218 0.310302 0.804 255 255 255
0.17973 0.0583163 0.744 255 255 255
-0.166972 -0.238929 1.073 255 255 255
0.432264 -0.203695 1.194 255 255 255
0.0169151 -0.640997 1.923 255 255 255
-0.346412 0.0671086 0.978 255 255 255
-0.25287 0.271279 0.837 255 255 255
-0.254877 0.101819 0.867 255 255 255
0.0543917 0.00790707 0.788 255 255 255
-0.416541 0.126481 1.077 255 255 255
0.076581 0.229621 0.742 255 255 255
0.190618 -0.167113 0.989 0 0 0
-0.154514 0.00145744 0.768 255 255 255
-0.105936 -0.239606 1.092 255 255 255
0.110831 0.0194481 0.788 255 255 255
0.0533112 0.282114 0.791 255 255 255
0.0834242 -0.140883 0.997 255 255 255
-0.292639 0.0245367 0.83 255 255 255
0.615954 -0.231535 1.239 255 255 255
0.512347 -0.277674 1.247 255 255 255
0.124127 0.204353 0.697 255 255 255
-0.172017 -0.0472843 0.768 0 0 0
0.134456 0.0753908 0.722 255 255 255
0.793418 -0.426484 1.65 255 255 255
-0.407795 0.236452 0.896 255 255 255
0.0921579 0.140587 0.713 0 0 0
0.0967844 -0.00241726 0.81 255 255 255
-0.256916 0.0851045 0.855 255 255 255
-0.0450235 -0.0939063 0.904 0 0 0
-0.108719 -0.128505 0.92 255 255 255
0.605006 -0.169114 1.225 255 255 255
0.065295 0.147469 0.724 255 255 255
0.206754 -0.445092 1.62 255 255 255
0.578912 -0.162836 1.208 255 255 255
0.083828 0.242904 0.742 255 255 255
0.444483 -0.170583 1.18 0 0 0
-0.0691883 -0.0653155 0.857 0 0 0
-0.0111871 -0.658766 1.911 255 255 255
-0.385418 -0.0339373 0.875 255 255 255
-0.0381007 0.102289 0.765 255 255 255
0.230928 -0.0552303 0.757 0 0 0
-0.495199 0.109709 0.989 255 255 255
0.0309929 -0.424236 1.535 255 255 255
0.436141 -0.095479 1.07 255 255 255
0.316961 -0.291827 1.33 0 0 0
0.0506591 -0.0997184 0.991 255 255 255
0.00666752 0.0557131 0.758 255 255 255
-0.445063 -0.161199 0.954 255 255 255
0.0547164 0.223176 0.757 255 255 255
-0.342255 -0.177198 0.932 0 0 0
0.351555 -0.247762 1.26 255 255 255
0.768977 -0.944447 2.43 0 0 0
0.109721 0.216309 0.714 255 255 255
-0.278781 -0.0689086 0.833 255 255 255
-0.153137 0.114091 0.843 255 255 255
-0.0473022 -0.186495 1.053 255 255 255
-0.138641 0.304471 0.799 255 255 255
0.382801 0.0141779 0.857 255 255 255
0.649434 -0.196457 1.273 0 0 0
0.540687 -0.604034 1.821 255 255 255
-0.531336 -0.326058 1.108 255 255 255
-0.192619 0.00664996 0.791 255 255 255
0.203745 -0.336804 1.4 255 255 255
0.165011 -0.345717 1.381 255 255 255
-0.259682 0.283538 0.837 255 255 255
-0.365539 0.153105 1.032 255 255 255
-0.127064 0.142899 0.843 255 255 255
-0.286932 0.278089 0.837 255 255 255
0.1374 0.176054 0.684 255 255 255
0.227231 0.018683 0.757 0 0 0
-0.0994903 -0.107055 0.891 255 255 255
0.135669 0.0840856 0.716 255 255 255
0.224451 -0.0294205 0.728 255 255 255
-0.0455015 -0.184431 1.051 255 255 255
-0.435664 0.259536 0.921 255 255 255
0.640468 -0.684193 1.87 0 0 0
-0.22183 0.286249 0.833 255 255 255
0.034928 0.0104053 0.783 255 255 255
0.896542 -0.62783 1.763 255 255 255
-0.0952459 0.254267 0.892 255 255 255
-0.133847 0.286364 0.888 0 0 0
-0.621179 -0.437889 1.213 255 255 255
-0.130314 0.28896 0.874 255 255 255
-0.206622 0.246545 0.86 255 255 255
-0.0842057 0.309577 0.868 0 0 0
0.151422 0.177557 0.677 0 0 0
-0.100246 0.0263848 0.804 255 255 255
-0.455507 -0.453778 1.286 255 255 255
0.129495 -0.221924 1.198 255 255 255
0.86046 -0.650934 1.748 255 255 255
-0.374871 0.299353 0.901 255 255 255
0.405466 -0.0195274 0.935 255 255 255
-0.496133 -0.297005 1.114 0 0 0
-0.0447326 0.118301 0.772 255 255 255
-0.0407095 -0.0341488 0.845 255 255 255
0.21929 0.0742747 0.434 0 0 0
0.132637 -0.00876328 0.788 0 0 0
-0.0582204 0.164662 0.802 255 255 255
0.129726 0.289995 0.742 255 255 255
0.0886357 -0.0131224 0.82 0 0 0
0.176594 0.168674 0.668 0 0 0
-0.0755717 0.0585243 0.779 255 255 255
-0.0547374 -0.674315 1.911 255 255 255
-0.288124 -0.101207 0.878 0 0 0
0.466574 -0.0825119 1.06 255 255 255
0.0188505 -0.342724 1.378 0 0 0
0.176964 0.135585 0.682 0 0 0
-0.0811644 -0.126246 0.948 255 255 255
-0.297071 -0.00748095 0.788 255 255 255
0.132125 -0.0393612 0.869 255 255 255
-0.267021 -0.0282115 0.794 0 0 0
0.0149247 0.254042 0.804 255 255 255
-0.211103 -0.699024 1.837 0 0 0
-0.0240317 0.26237 0.839 255 255 255
-0.565205 -0.27909 1.073 0 0 0
0.417099 0.0384561 0.839 255 255 255
-0.144126 -0.891589 2.294 255 255 255
0.171184 -0.0266126 0.749 0 0 0
-0.31934 0.0709955 0.945 255 255 255
0.596493 -0.588858 1.784 255 255 255
0.589107 -0.461825 1.642 255 255 255
-0.383255 0.269463 0.914 255 255 255
-0.495447 0.0141129 1.062 255 255 255
0.243064 -0.128308 1.013 0 0 0
-0.203348 0.106347 0.858 255 255 255
-0.368999 -0.115758 0.88 255 255 255
-0.195449 0.261502 0.854 255 255 255
-0.355988 -0.446143 1.345 255 255 255
0.129875 0.280464 0.736 255 255 255
0.153633 -0.454512 1.616 255 255 255
0.50625 -0.270497 1.242 255 255 255
0.543555 -0.48725 1.763 0 0 0
-0.471513 0.0744603 1.036 255 255 255
0.192741 0.0622558 0.46 0 0 0
0.148615 -0.57991 1.848 0 0 0
0.873677 -0.678905 1.769 255 255 255
0.0456645 0.197923 0.75 255 255 255
-0.146691 0.185 0.887 255 255 255
0.189999 0.0648617 0.468 0 0 0
-0.0258156 0.131778 0.77 255 255 255
-0.418194 0.319619 0.939 255 255 255
0.715744 -0.564713 1.763 0 0 0
-0.261791 -0.225343 1.027 255 255 255
0.46401 -0.0881831 1.066 255 255 255
-0.271018 0.0925997 0.86 255 255 255
0.100575 0.0298486 0.759 255 255 255
-0.236001 0.26405 0.84 255 255 255
0.160356 -0.309902 1.324 255 255 255
0.182157 -0.041239 0.749 0 0 0
0.307279 0.0560806 0.763 255 255 255
0.346626 -0.230808 1.257 0 0 0
-0.49602 -0.355233 1.156 255 255 255
0.183971 0.0864894 0.446 255 255 255
0.144969 -0.08781 0.887 0 0 0
-0.373554 0.20883 0.884 255 255 255
0.174731 -0.751771 2.01 255 255 255
0.434576 -0.306585 1.319 255 255 255
-0.3935 -0.0480883 0.9 255 255 255
-0.233739 -0.0508091 0.804 0 0 0
-0.242221 -0.585352 1.607 255 255 255
-0.0463944 -0.131378 0.963 255 255 255
0.0280819 0.27566 0.806 255 255 255
-0.487476 0.264196 1.02 255 255 255
0.155895 0.138815 0.687 255 255 255
0.136251 0.125673 0.701 255 255 255
0.216584 0.0490227 0.75 255 255 255
-0.232864 -0.146541 0.902 255 255 255
0.0777184 0.147621 0.719 255 255 255
-0.254635 0.18875 0.871 255 255 255
0.0176266 -0.040963 0.873 255 255 255
0.26704 0.0153635 0.776 255 255 255
0.17001 -0.277339 1.283 255 255 255
-0.421029 -0.425577 1.283 255 255 255
0.045311 -0.106585 0.98 255 255 255
-0.247258 0.188193 0.875 255 255 255
-0.125112 0.302451 0.804 255 255 255
-0.516722 -0.209503 0.984 255 255 255
-0.016834 0.246053 0.821 255 255 255
0.832831 -0.680824 1.774 255 255 255
-0.040177 -0.18866 1.046 255 255 255
-0.204203 0.0625812 0.833 255 255 255
0.155896 0.110211 0.697 255 255 255
0.114331 0.0546841 0.744 255 255 255
0.156956 -0.132332 0.97 255 255 255
0.566732 -0.929215 2.411 255 255 255
0.0424289 -0.0146331 0.83 255 255 255
0.204795 0.169032 0.485 255 255 255
-0.20215 -0.0241513 0.788 255 255 255
-0.375148 -0.156269 0.916 255 255 255
-0.378615 0.263841 0.91 255 255 255
0.10174 0.167017 0.707 255 255 255
0.415928 -0.256936 1.275 255 255 255
-0.439677 -0.369246 1.208 255 255 255
-0.467403 0.157826 0.978 255 255 255
0.391064 -0.0937161 1.09 255 255 255
-0.50963 0.0298904 1.07 255 255 255
-0.538388 0.0412139 1.048 255 255 255
0.0509268 -0.191906 1.064 0 0 0
0.0153212 -0.222055 1.12 255 255 255
-0.423119 -0.210732 1.013 255 255 255
-0.354756 -0.102706 0.891 255 255 255
-0.0387481 0.0394583 0.778 0 0 0
0.212059 0.126426 0.441 255 255 255
0.0509268 -0.202295 1.064 0 0 0
0.0426262 -0.508569 1.7 255 255 255
-0.257019 0.212957 0.86 255 255 255
-0.404525 -0.0424645 0.905 255 255 255
-0.359831 -0.205884 0.967 255 255 255
0.129479 0.0919842 0.714 255 255 255
0.0969362 0.200042 0.714 255 255 255
-0.28104 0.324523 0.848 255 255 255
-0.16448 0.116695 0.852 255 255 255
0.258913 0.0707678 0.735 0 0 0
-0.112115 -0.223532 1.083 255 255 255
0.653496 -0.596331 1.789 255 255 255
0.356409 -0.187807 1.156 255 255 255
-0.133968 -0.0898911 0.852 255 255 255
-0.477063 -0.20229 1.012 255 255 255
-0.0550795 -0.0905616 0.9 255 255 255
-0.0929602 -0.200575 1.046 255 255 255
0.101016 0.196611 0.71 255 255 255
0.41579 -0.409249 1.535 255 255 255
-0.222239 0.186905 0.925 255 255 255
-0.496809 -0.00938916 0.989 255 255 255
-0.15176 0.0851119 0.828 255 255 255
-0.499137 -0.205177 1.01 255 255 255
-0.347894 -0.0999176 0.892 255 255 255
-0.497581 -0.105098 0.981 255 255 255
-0.545394 -0.494346 1.316 255 255 255
-0.458577 -0.395021 1.227 255 255 255
-0.105038 -0.0492114 0.821 255 255 255
0.204215 0.0837745 0.432 255 255 255
0.503857 -0.846366 2.303 255 255 255
0.220095 -0.569034 1.842 255 255 255
-0.214021 0.242612 0.856 255 255 255
0.542834 -0.546839 1.789 255 255 255
-0.113217 -0.0755955 0.832 255 255 255
-0.0473022 -0.200204 1.053 255 255 255
-0.473521 0.105986 1.015 255 255 255
0.134923 -0.0740599 0.878 0 0 0
0.632681 -0.395838 1.571 0 0 0
0.462884 -0.10455 1.092 255 255 255
0.345189 -0.505876 1.691 0 0 0
-0.232749 -0.10928 0.874 255 255 255
0.191913 0.0635913 0.735 255 255 255
-0.489191 -0.0808207 0.977 255 255 255
-0.209138 0.182783 0.927 255 255 255
-0.486804 0.0434927 1.062 255 255 255
0.182837 0.106511 0.454 255 255 255
-0.443809 -0.0271351 0.935 255 255 255
0.189673 -0.017984 0.745 255 255 255
-0.0979526 0.0403712 0.796 255 255 255
0.539413 -0.674315 1.911 255 255 255
0.390285 -0.082434 1.059 255 255 255
-0.0445637 -0.105119 0.925 255 255 255
0.15927 -0.0121942 0.762 255 255 255
0.616763 -0.512892 1.696 0 0 0
-0.278072 -0.147845 0.901 255 255 255
-0.209551 -0.593494 1.659 255 255 255
0.580748 -0.48426 1.664 0 0 0
0.0963931 0.153861 0.71 255 255 255
-0.434023 0.154773 0.989 255 255 255
0.179036 0.162395 0.669 255 255 255
0.118666 0.213582 0.705 0 0 0
-0.204183 -0.409708 1.4 0 0 0
-0.403937 -0.521556 1.359 255 255 255
-0.24197 0.293072 0.837 255 255 255
0.307078 0.226288 0.668 255 255 255
0.141854 0.19275 0.684 255 255 255
-0.0871514 -0.147049 0.963 255 255 255
-0.468667 -0.42208 1.254 255 255 255
-0.338343 -0.125198 0.886 255 255 255
-0.193237 0.173161 0.916 255 255 255
-0.0947744 0.107236 0.802 255 255 255
0.651506 -0.198528 1.273 255 255 255
-0.628048 -0.429806 1.196 255 255 255
-0.500286 0.0675938 1.009 255 255 255
0.255762 -0.769094 2.004 255 255 255
0.644827 -0.670224 1.865 255 255 255
0.0861018 -0.160476 1.029 255 255 255
0.234386 0.18113 0.501 255 255 255
-0.345267 -0.432772 1.372 255 255 255
0.200884 0.173691 0.487 255 255 255
-0.478666 -0.0457491 0.975 255 255 255
0.158431 0.181157 0.674 255 255 255
-0.37653 -0.409846 1.348 0 0 0
-0.321393 0.152016 0.942 255 255 255
-0.369399 -0.166655 0.924 255 255 255
0.206337 -0.0224043 0.731 255 255 255
-0.150324 0.224331 0.918 255 255 255
0.219673 0.164827 0.657 0 0 0
-0.302177 -0.446364 1.359 255 255 255
0.210479 0.0887778 0.429 255 255 255
0.134102 -0.0528678 0.882 255 255 255
-0.0625458 -0.171026 1.022 255 255 255
0.265961 -0.22056 1.234 255 255 255
0.170155 0.254661 0.695 255 255 255
-0.269042 0.0566073 0.845 255 255 255
0.11638 -0.107518 0.974 255 255 255
0.206465 -0.337526 1.403 255 255 255
0.18904 0.0361667 0.762 0 0 0
-0.290695 0.315994 0.84 255 255 255
0.206892 0.0960452 0.693 0 0 0
0.609122 -0.189443 1.254 255 255 255
-0.377207 0.061612 0.992 255 255 255
0.0708865 0.29568 0.786 255 255 255
-0.0234601 0.159118 0.775 255 255 255
0.0660324 -0.0993927 1.004 255 255 255
-0.208902 0.0713937 0.841 255 255 255
-0.0785089 0.0894056 0.783 255 255 255
-0.376002 -0.431501 1.354 255 255 255
-0.0968295 0.240822 0.88 255 255 255
0.174941 0.192076 0.67 255 255 255
0.547926 -0.792493 2.166 255 255 255
0.732795 -0.660411 1.805 255 255 255
0.536053 -0.330586 1.393 0 0 0
0.0863497 0.0143006 0.787 255 255 255
-0.377783 0.255873 0.908 255 255 255
-0.479346 -0.299432 1.13 0 0 0
0.471465 -0.214087 1.22 255 255 255
-0.088946 0.307938 0.833 255 255 255
-0.0598695 -0.161639 1.005 255 255 255
-0.290687 0.249797 0.852 255 255 255
0.78175 -0.593402 1.763 255 255 255
0.151453 0.0820979 0.719 255 255 255
0.174744 0.138914 0.682 255 255 255
0.111362 -0.164829 1.046 255 255 255
-0.232829 -0.0113855 0.792 255 255 255
-0.386622 0.0915838 1.039 255 255 255
0.0265521 -0.675425 1.941 0 0 0
0.0824016 0.0117242 0.786 255 255 255
0.332587 0.230578 0.694 255 255 255
-0.501443 0.160569 0.995 255 255 255
0.26692 0.0378977 0.772 255 255 255
0.0570168 -0.00240831 0.807 255 255 255
0.193619 0.16957 0.663 255 255 255
0.231096 -0.507541 1.744 255 255 255
-0.343757 -0.439771 1.366 255 255 255
-0.533684 -0.378374 1.152 255 255 255
0.217718 0.19315 0.648 0 0 0
0.430836 0.013186 0.884 255 255 255
0.239284 0.027703 0.768 0 0 0
0.200699 0.0922106 0.432 255 255 255
-0.113557 0.112954 0.815 255 255 255
0.342331 -0.493501 1.677 0 0 0
-0.505956 -0.0527903 0.988 255 255 255
-0.032687 0.279971 0.851 255 255 255
-0.224905 -0.284061 1.165 255 255 255
0.199315 0.164423 0.664 255 255 255
0.128317 0.0966318 0.714 255 255 255
-0.104399 0.135666 0.816 255 255 255
0.513528 -0.288996 1.27 255 255 255
-0.429912 -0.135664 0.928 255 255 255
-0.497915 -0.0367123 0.988 255 255 255
0.347582 -0.308939 1.348 0 0 0
0.379227 -0.842656 2.253 255 255 255
-0.116492 -0.36979 1.387 255 255 255
0.590285 -0.695379 1.935 255 255 255
-0.318985 0.19499 0.861 255 255 255
0.110075 -0.212468 1.178 255 255 255
0.187394 -0.0490501 0.918 255 255 255
0.565206 -0.535387 1.724 0 0 0
0.230432 -0.320435 1.369 255 255 255
0.41979 0.0172839 0.873 255 255 255
0.20601 0.040803 0.756 255 255 255
0.18595 0.093989 0.437 255 255 255
0.106043 0.169986 0.705 255 255 255
0.0089021 -0.0317331 0.854 255 255 255
-0.251065 -0.0574223 0.805 0 0 0
0.216478 0.179545 0.49 255 255 255
0.212118 -0.607097 1.905 255 255 255
-0.158746 0.277201 0.851 255 255 255
0.0674747 0.307859 0.791 255 255 255
0.194751 0.105836 0.436 255 255 255
-0.508078 0.088786 0.989 255 255 255
0.0245446 0.122865 0.739 255 255 255
0.0653306 -0.212737 1.073 0 0 0
0.192728 0.018683 0.757 255 255 255
-0.463865 0.043288 1.057 255 255 255
-0.006801 -0.0618824 0.909 255 255 255
0.186534 -0.047207 0.747 0 0 0
0.19996 0.174981 0.659 0 0 0
0.0398039 -0.146482 1.002 255 255 255
0.0329206 0.156325 0.738 255 255 255
-0.1753 0.103238 0.844 255 255 255
0.33157 -0.254316 1.262 255 255 255
-0.138253 0.0636463 0.812 255 255 255
-0.358547 0.18471 0.872 255 255 255
0.174231 0.232566 0.68 0 0 0
-0.601497 -0.397957 1.149 255 255 255
-0.541984 0.000285257 1.055 255 255 255
0.126396 0.207756 0.697 255 255 255
-0.197704 -0.157144 0.93 255 255 255
0.149675 -0.159823 0.974 255 255 255
0.00176629 0.185124 0.773 255 255 255
0.0775128 -0.31044 1.345 255 255 255
-0.201299 -0.205005 1.034 255 255 255
-0.23946 0.177633 0.916 255 255 255
-0.0992135 -0.70578 1.929 0 0 0
0.0126592 -0.015926 0.827 255 255 255
0.499489 -0.0768263 1.053 255 255 255
0.452916 -0.112272 1.098 255 255 255
0.229259 -0.034347 0.732 255 255 255
-0.184328 -0.621416 1.753 255 255 255
-0.08498 0.180732 0.834 255 255 255
0.19656 0.1747 0.662 0 0 0
-0.114797 -0.015329 0.796 255 255 255
0.548511 -0.243239 1.237 255 255 255
0.549032 -0.524424 1.753 255 255 255
0.308878 -0.103542 1.029 255 255 255
-0.00101528 -0.161425 1.046 255 255 255
-0.116211 -0.0674196 0.815 255 255 255
-0.433991 -0.409746 1.26 255 255 255
-0.464231 0.143025 1.02 255 255 255
0.0759517 -0.19389 1.075 0 0 0
0.160939 -0.120321 0.975 0 0 0
-0.289979 0.190625 0.854 255 255 255
0.0202402 0.175364 0.758 255 255 255
0.086597 0.152617 0.715 255 255 255
0.154829 -0.325016 1.351 255 255 255
0.208717 -0.0271626 0.731 255 255 255
0.043002 -0.0797453 0.964 0 0 0
-0.215429 0.220438 0.873 255 255 255
0.0570242 0.0795711 0.739 255 255 255
-0.314436 -0.0394707 0.813 255 255 255
-0.316906 -0.0542567 0.837 255 255 255
0.0036115 -0.0703456 0.923 255 255 255
-0.174677 0.0960282 0.841 255 255 255
0.0423469 -0.281834 1.275 0 0 0
-0.475886 0.231062 1.013 255 255 255
0.187499 -0.0204361 0.746 255 255 255
-0.134701 0.00516613 0.762 255 255 255
-0.138054 -0.567215 1.71 255 255 255
-0.159395 0.13069 0.862 255 255 255
-0.468919 0.0945084 1.034 255 255 255
-0.190607 0.266123 0.851 255 255 255
0.211132 0.0804776 0.715 255 255 255
-0.205482 -0.114837 0.873 255 255 255
-0.08769 0.270772 0.889 255 255 255
-0.166403 -0.479191 1.535 0 0 0
-0.0864066 0.200326 0.848 255 255 255
0.0795192 -0.0316216 0.851 255 255 255
0.146552 0.0382411 0.754 255 255 255
-0.142074 0.272139 0.913 255 255 255
0.195012 0.0850642 0.435 255 255 255
-0.254963 -0.636783 1.71 255 255 255
0.206337 -0.017646 0.731 255 255 255
-0.139414 -0.440008 1.487 255 255 255
0.111362 -0.166531 1.046 255 255 255
-0.0679476 -0.578149 1.769 255 255 255
-0.28104 -0.0784293 0.848 255 255 255
-0.232957 0.281164 0.834 255 255 255
0.346186 -0.718776 2.037 255 255 255
0.212294 0.0695734 0.44 0 0 0
-0.240033 0.058655 0.835 255 255 255
-0.21248 -0.248974 1.11 255 255 255
0.187293 0.0325744 0.765 0 0 0
-0.525077 0.257029 1.066 255 255 255
0.20467 0.100181 0.43 255 255 255
-0.587855 -0.364734 1.116 255 255 255
-0.225022 0.192105 0.9 255 255 255
-0.552288 0.0397724 1.055 255 255 255
-0.164907 -0.142853 0.916 255 255 255
-0.191752 0.157304 0.902 255 255 255
0.35999 -0.162777 1.126 255 255 255
-0.317584 -0.072626 0.861 255 255 255
0.4699 -0.00578349 0.927 255 255 255
0.383868 0.0234933 0.841 255 255 255
0.172615 0.146926 0.678 255 255 255
0.180672 0.20207 0.667 255 255 255
-0.286445 -0.00109234 0.805 255 255 255
-0.145026 0.280133 0.86 255 255 255
-0.419788 0.0453135 1.025 255 255 255
-0.255071 -0.499567 1.47 255 255 255
0.1939 0.120223 0.683 255 255 255
0.364115 -0.0989466 1.089 255 255 255
0.432517 0.0294843 0.856 255 255 255
-0.183286 -0.49933 1.551 0 0 0
-0.275398 -0.192118 0.969 255 255 255
-0.123866 0.088862 0.813 255 255 255
0.133658 0.0154229 0.779 255 255 255
-0.147987 -0.157597 0.951 255 255 255
-0.269046 -0.30094 1.21 255 255 255
-0.196019 -0.0533727 0.784 0 0 0
0.353613 -0.398318 1.494 255 255 255
0.0396657 0.192332 0.752 255 255 255
-0.39426 -0.386154 1.305 255 255 255
-0.352479 -0.156468 0.9 0 0 0
0.61138 -0.177525 1.242 255 255 255
-0.513811 0.138178 0.997 255 255 255
-0.0851989 -0.00647393 0.823 255 255 255
-0.351234 0.208128 0.875 255 255 255
-0.103775 0.0645747 0.791 0 0 0
0.190778 0.142345 0.672 255 255 255
0.366471 -0.0902553 1.07 255 255 255
0.859235 -0.553237 1.763 255 255 255
0.105082 0.0241408 0.774 255 255 255
0.138579 0.257605 0.719 255 255 255
0.11895 0.0310428 0.758 255 255 255
-0.470358 0.124484 1.06 255 255 255
-0.310473 -0.351393 1.31 0 0 0
-0.0760205 0.12732 0.797 255 255 255
-0.525478 -0.240805 1.036 255 255 255
-0.000746416 0.0189792 0.769 0 0 0
0.104346 0.101705 0.717 255 255 255
-0.386044 -0.280742 1.1 255 255 255
0.126215 0.175744 0.696 0 0 0
0.0355525 0.272582 0.797 255 255 255
0.180403 0.110404 0.461 0 0 0
0.372592 -0.277339 1.283 255 255 255
0.488394 -0.088514 1.07 255 255 255
0.336849 0.0101223 0.868 255 255 255
-0.214906 0.0356761 0.807 255 255 255
-0.277394 0.279452 0.837 255 255 255
0.210984 0.188458 0.65 0 0 0
-0.19727 -0.0151942 0.789 255 255 255
0.212338 0.16938 0.486 0 0 0
0.5335 -0.217143 1.249 255 255 255
0.0899627 0.143108 0.714 0 0 0
-0.163265 -0.0460345 0.768 255 255 255
-0.409964 -0.0144666 0.904 255 255 255
0.552946 -0.325446 1.362 255 255 255
-0.116012 0.131473 0.823 255 255 255
-0.263941 0.154765 0.913 255 255 255
-0.301282 0.150391 0.961 0 0 0
0.0692529 0.0129372 0.782 255 255 255
-0.486507 -0.112734 0.978 255 255 255
0.589483 -0.220854 1.247 255 255 255
-0.118135 0.0911704 0.81 255 255 255
-0.190285 -0.12222 0.875 255 255 255
-0.107055 -0.0102751 0.806 0 0 0
0.218349 0.0802128 0.428 255 255 255
-0.0496939 0.186536 0.812 255 255 255
-0.256015 0.224841 0.852 255 255 255
-0.472588 0.133801 1.013 255 255 255
-0.0130055 0.106953 0.754 255 255 255
0.452166 -0.166743 1.18 0 0 0
-0.246365 -0.111715 0.882 0 0 0
-0.162132 -0.4202 1.452 0 0 0
0.810097 -0.670983 1.794 255 255 255
0.728074 0.575028 1.509 255 255 255
0.0374192 0.115745 0.732 255 255 255
0.521709 -0.616639 1.859 0 0 0
-0.374406 -0.0251326 0.866 255 255 255
0.13657 0.0652653 0.727 255 255 255
-0.118684 0.304623 0.796 255 255 255
-0.077037 0.0764678 0.781 0 0 0
-0.323821 -0.425832 1.357 255 255 255
-0.52985 0.0725197 1.009 255 255 255
0.191819 0.109945 0.444 255 255 255
0.268372 -0.304014 1.336 0 0 0
-0.151495 0.277761 0.857 255 255 255
0.233246 0.0816411 0.715 255 255 255
-0.319797 0.264072 0.867 255 255 255
-0.178759 0.0523912 0.822 255 255 255
0.530796 -0.370084 1.528 0 0 0
0.107784 0.0343309 0.749 255 255 255
-0.152406 0.304689 0.803 255 255 255
-0.529039 -0.417115 1.21 255 255 255
-0.140453 -0.0791504 0.841 255 255 255
-0.128929 -0.0123542 0.772 255 255 255
-0.143966 0.277693 0.888 255 255 255
0.0803506 0.00922439 0.791 255 255 255
0.651252 -0.555788 1.744 255 255 255
0.325378 -0.185418 1.108 255 255 255
-0.137362 -0.0159352 0.763 255 255 255
0.651292 -0.602592 1.799 255 255 255
-0.270185 0.0412358 0.84 255 255 255
0.249238 -0.743004 2.004 255 255 255
-0.242442 0.17167 0.916 0 0 0
-0.00563383 0.111713 0.753 255 255 255
0.128869 0.182617 0.692 255 255 255
0.233788 -0.0356839 0.735 255 255 255
-0.0402945 -0.0654446 0.897 0 0 0
0.0244714 -0.385254 1.445 255 255 255
0.542162 -0.0870161 1.073 255 255 255
-0.415066 -0.421778 1.297 255 255 255
-0.492195 -0.0381262 0.983 255 255 255
0.0551414 0.107113 0.73 255 255 255
-0.38967 -0.294707 1.126 255 255 255
-0.0352633 0.149674 0.785 255 255 255
-0.0194348 -0.579767 1.81 255 255 255
-0.25301 0.0646276 0.842 255 255 255
0.0399395 0.2957 0.807 255 255 255
-0.34141 0.326696 0.861 255 255 255
0.183478 -0.265235 1.275 255 255 255
-0.18419 -0.696034 1.837 255 255 255
0.388052 0.0789443 0.768 255 255 255
0.819758 -0.459389 1.682 255 255 255
-0.475492 -0.104455 0.975 255 255 255
0.00124797 -0.629907 1.899 0 0 0
-0.351014 0.165743 0.9 255 255 255
-0.0549809 0.214147 0.832 255 255 255
0.175878 0.0638509 0.738 255 255 255
0.189477 0.0779544 0.447 255 255 255
-0.0990584 -0.0797241 0.862 255 255 255
0.538307 -0.14832 1.171 255 255 255
-0.0897539 0.228799 0.867 255 255 255
0.0626124 0.187729 0.734 255 255 255
-0.371871 -0.0869337 0.908 0 0 0
0.126759 0.211765 0.699 255 255 255
-0.466907 0.138284 1.06 255 255 255
-0.176682 -0.0600936 0.772 255 255 255
-0.469063 -0.446456 1.283 255 255 255
0.0145905 0.229168 0.786 255 255 255
0.13485 -0.137068 0.97 0 0 0
-0.0236021 0.320702 0.824 255 255 255
-0.2316 0.282521 0.834 255 255 255
-0.163833 -0.123756 0.886 255 255 255
0.15927 0.0113663 0.762 255 255 255
-0.00757013 0.316665 0.831 255 255 255
-0.357993 -0.434664 1.378 255 255 255
-0.432965 0.106037 1.083 255 255 255
-0.437132 -0.109533 0.937 255 255 255
0.777575 0.571248 1.559 255 255 255
0.0406324 -0.0104663 0.821 255 255 255
-0.239531 -0.116924 0.878 255 255 255
0.0437717 0.305448 0.805 255 255 255
0.215869 0.0756894 0.43 0 0 0
-0.125523 -0.36979 1.387 255 255 255
0.0940967 0.0878643 0.728 0 0 0
0.753452 -0.53876 1.744 255 255 255
-0.048038 -0.107662 0.934 255 255 255
0.301798 -0.173443 1.057 0 0 0
-0.310028 0.295544 0.848 255 255 255
-0.0549321 -0.345697 1.372 255 255 255
-0.0606393 0.182366 0.817 255 255 255
0.0649156 0.249124 0.761 255 255 255
-0.00560391 0.0818668 0.749 255 255 255
-0.174961 -0.147003 0.914 255 255 255
-0.472003 0.148635 0.991 255 255 255
0.00680997 -0.106415 0.95 255 255 255
-0.415296 -0.0336653 0.906 255 255 255
-0.000738651 0.15129 0.761 255 255 255
0.106978 0.221334 0.719 255 255 255
0.220816 -0.0800916 0.851 0 0 0
-0.101681 0.0211777 0.805 255 255 255
0.0404395 -0.155447 1.018 255 255 255
-0.469088 0.102701 1.085 255 255 255
-0.118983 -0.0283536 0.798 255 255 255
0.0954127 0.0856123 0.729 0 0 0
0.312404 0.0745584 0.737 255 255 255
-0.131704 -0.0264786 0.781 255 255 255
0.599048 -0.882057 2.338 255 255 255
0.0421278 0.144137 0.731 255 255 255
-0.557242 -0.436445 1.22 255 255 255
0.0856931 -0.308363 1.336 255 255 255
-0.279989 0.322143 0.849 255 255 255
-0.011825 0.0704223 0.757 255 255 255
0.82128 -0.576897 1.774 255 255 255
0.193411 0.0987657 0.433 255 255 255
-0.381276 0.136173 1.057 255 255 255
0.292725 -0.248623 1.254 255 255 255
-0.0839656 -0.345697 1.372 255 255 255
-0.226538 0.217347 0.872 255 255 255
0.0503192 0.149674 0.729 255 255 255
-0.168948 0.286249 0.833 255 255 255
-0.0150823 -0.00628514 0.799 255 255 255
0.0479481 0.237358 0.767 255 255 255
-0.489191 -0.0855904 0.977 255 255 255
-0.49279 -0.0412414 0.981 255 255 255
0.195604 0.107824 0.689 255 255 255
-0.301435 -0.0112992 0.786 255 255 255
0.0976377 0.262423 0.746 255 255 255
-0.469496 0.101729 1.039 255 255 255
0.0376748 0.0925486 0.737 255 255 255
0.31748 -0.224913 1.247 0 0 0
0.243685 0.00992689 0.747 0 0 0
0.190811 0.0848936 0.713 0 0 0
-0.0489124 -0.122002 0.951 255 255 255
0.0199828 -0.635878 1.917 255 255 255
-0.0132815 0.0428117 0.77 255 255 255
-0.291948 -0.354334 1.313 0 0 0
0.0977543 -0.130241 0.978 0 0 0
0.160562 -0.287472 1.291 0 0 0
0.418787 -0.181218 1.162 0 0 0
-0.156131 0.237517 0.917 0 0 0
-0.282827 0.257521 0.841 255 255 255
-0.0526019 0.159544 0.796 255 255 255
-0.228098 -0.386185 1.327 255 255 255
-0.293589 0.0954201 0.873 255 255 255
0.154271 0.177032 0.675 0 0 0
-0.091655 -0.381436 1.422 255 255 255
-0.0194084 -0.351733 1.387 0 0 0
0.25766 -0.201333 1.169 255 255 255
0.000573712 -0.0395424 0.873 255 255 255
-0.666936 -0.49354 1.286 255 255 255
-0.0728844 -0.169648 1.004 255 255 255
-0.19524 -0.0701369 0.786 255 255 255
0.172418 0.260316 0.695 255 255 255
-0.165853 -0.140899 0.913 255 255 255
-0.228383 -0.0634955 0.799 255 255 255
-0.396022 -0.0593777 0.916 255 255 255
-0.350441 0.196122 0.866 255 255 255
-0.56707 -0.305349 1.118 0 0 0
0.302055 -0.805553 2.099 0 0 0
0.330445 -0.490662 1.686 255 255 255
0.0243208 0.0190038 0.77 255 255 255
-0.337068 0.0763442 0.974 255 255 255
0.164104 0.0985751 0.703 255 255 255
-0.384332 -0.436362 1.322 255 255 255
0.180227 0.172447 0.514 255 255 255
0.198607 0.148999 0.474 255 255 255
-0.493712 -0.163434 0.958 0 0 0
-0.223443 0.219933 0.871 0 0 0
0.0126845 0.0696781 0.749 255 255 255
-0.0354716 -0.222279 1.112 255 255 255
-0.165461 0.159018 0.887 255 255 255
0.570593 -0.385003 1.528 255 255 255
-0.127342 0.00396733 0.77 255 255 255
0.070175 0.231184 0.751 255 255 255
-0.00996437 -0.0903587 0.928 0 0 0
-0.204208 -0.0512748 0.791 0 0 0
0.406781 -0.0466406 0.994 255 255 255
-0.240608 0.274003 0.837 255 255 255
0.198234 0.0722728 0.439 255 255 255
-0.106474 0.280292 0.901 255 255 255
0.214444 0.176792 0.489 0 0 0
-0.367227 -0.23081 1 255 255 255
-0.513373 -0.332044 1.116 255 255 255
0.0624381 0.24417 0.761 255 255 255
-0.639079 0.439631 1.244 255 255 255
-0.239313 -0.0976773 0.872 0 0 0
-0.289311 0.0260745 0.836 255 255 255
0.125423 0.0193247 0.783 255 255 255
-0.543062 -0.50848 1.342 255 255 255
-0.397892 -0.541847 1.4 255 255 255
0.0956746 -0.0676334 0.927 255 255 255
-0.120666 0.306959 0.792 255 255 255
-0.461814 -0.212604 1.022 255 255 255
0.65311 -0.533834 1.719 255 255 255
-0.586992 0.399731 1.18 255 255 255
-0.485075 -0.25549 1.062 255 255 255
-0.199335 -0.300814 1.242 255 255 255
0.180326 0.10424 0.457 0 0 0
-0.38642 0.251803 0.904 255 255 255
-0.311578 -0.172463 0.931 0 0 0
0.215654 0.139991 0.45 0 0 0
0.221893 0.12959 0.442 0 0 0
-0.315152 -0.142969 0.898 255 255 255
0.000540196 0.258391 0.822 255 255 255
-0.382358 -0.260184 1.06 255 255 255
-0.225062 0.29549 0.84 255 255 255
-0.20168 0.131237 0.875 255 255 255
-0.425545 0.296956 0.935 255 255 255
0.303674 0.0610643 0.748 255 255 255
-0.0685788 0.150118 0.801 255 255 255
-0.0615277 0.302166 0.867 255 255 255
-0.41364 -0.462149 1.286 255 255 255
0.191065 0.0706192 0.456 255 255 255
-0.154469 0.244712 0.916 255 255 255
-0.40022 -0.365814 1.257 0 0 0
-0.194248 0.25664 0.861 255 255 255
0.512602 -0.290816 1.278 255 255 255
0.187729 0.191487 0.492 255 255 255
-0.184693 0.206405 0.918 255 255 255
