ply
format ascii 1.0
comment Created by Open3D
element vertex 1302
property double x
property double y
property double z
property uchar red
property uchar green
property uchar blue
end_header
0.153779 0.163724 0.481 255 255 255
-0.157399 0.120479 0.51 255 255 255
0.166671 -0.112512 0.714 255 255 255
0.0501917 -0.114174 0.847 255 255 255
-0.133882 -0.0597469 0.682 0 0 0
-0.33736 0.00754584 0.752 255 255 255
-0.105727 0.145115 0.479 255 255 255
0.0532116 0.174116 0.471 255 255 255
-0.0855219 0.166649 0.443 255 255 255
0.0298331 -0.18556 0.751 255 255 255
0.0976377 -0.181896 0.746 255 255 255
0.183853 -0.135089 0.687 255 255 255
0.185304 -0.250129 0.649 255 255 255
-0.0965321 -0.219977 0.701 255 255 255
-0.206962 -0.148859 0.587 0 0 0
0.220346 0.151941 0.53 255 255 255
-0.339877 -0.0163439 0.726 255 255 255
-0.188025 0.0227318 0.366 0 0 0
-0.312159 -0.122827 0.681 255 255 255
0.0369372 0.159285 0.489 0 0 0
-0.0306801 0.101487 0.561 255 255 255
-0.0749203 -0.182479 0.928 255 255 255
0.0619458 -0.289753 0.755 255 255 255
0.204888 0.155183 0.515 255 255 255
-0.245369 0.0841446 0.555 255 255 255
0.317012 0.137462 0.644 255 255 255
0.0951913 0.168186 0.459 255 255 255
0.208982 -0.0339846 0.7 255 255 255
-0.111238 -0.0766624 0.738 255 255 255
0.201263 -0.235804 0.636 255 255 255
-0.201512 -0.250777 0.701 255 255 255
0.0260931 -0.0791391 0.871 255 255 255
-0.200201 -0.150949 0.584 0 0 0
0.164465 -0.0734555 0.73 255 255 255
0.24534 -0.0436577 0.657 255 255 255
0.0512135 0.069693 0.678 255 255 255
-0.0271051 0.171163 0.455 255 255 255
0.268982 -0.135557 0.6 255 255 255
-0.177536 -0.0715377 0.336 0 0 0
-0.173362 0.0460108 0.655 255 255 255
0.221627 -0.167769 0.641 255 255 255
-0.103245 0.131625 0.505 255 255 255
0.0089418 -0.163111 0.528 0 0 0
0.180938 0.0209233 0.749 255 255 255
0.152689 0.161928 0.485 255 255 255
0.0518108 0.0884209 0.596 0 0 0
0.0322957 0.114557 0.545 255 255 255
-0.183464 0.0539022 0.38 255 255 255
0.00186248 0.167444 0.476 255 255 255
0.176046 0.12188 0.571 255 255 255
-0.0524929 0.0825525 0.625 255 255 255
0.127531 -0.26636 0.697 255 255 255
-0.243855 -0.123558 0.667 255 255 255
-0.101661 0.153407 0.464 255 255 255
-0.206074 0.105026 0.524 255 255 255
-0.131763 0.115919 0.527 255 255 255
0.187859 0.14737 0.526 255 255 255
0.115101 0.00680129 0.809 255 255 255
-0.101687 0.0806279 0.603 0 0 0
-0.180381 0.0125722 0.365 255 255 255
-0.310017 -0.0254615 0.751 255 255 255
0.103527 -0.0770191 0.791 255 255 255
-0.047633 0.168937 0.453 255 255 255
-0.125726 -0.143871 0.913 0 0 0
-0.187129 0.073392 0.6 0 0 0
0.27337 0.126279 0.668 0 0 0
0.0749957 0.0956178 0.611 255 255 255
-0.0587888 0.0893908 0.596 0 0 0
-0.154352 0.106476 0.54 255 255 255
-0.176286 -0.11759 0.603 0 0 0
-0.11364 -0.0586479 0.738 255 255 255
0.237868 0.155891 0.523 255 255 255
-0.289807 -0.228453 0.63 255 255 255
0.17021 0.0262121 0.761 255 255 255
-0.0996126 0.119196 0.534 255 255 255
0.273128 -0.216138 0.568 255 255 255
0.289831 -0.124126 0.583 255 255 255
-0.153901 -0.137644 0.632 0 0 0
-0.174998 0.160685 0.429 255 255 255
0.0889199 0.0956178 0.611 255 255 255
0.316085 0.107447 0.64 255 255 255
0.166906 0.161063 0.492 255 255 255
0.102495 -0.185538 0.746 255 255 255
-0.290608 -0.0183702 0.761 255 255 255
0.162337 -0.241496 0.672 255 255 255
-0.000524141 0.101203 0.54 0 0 0
-0.304481 -0.106736 0.699 255 255 255
0.200318 0.082531 0.744 0 0 0
0.0708456 0.164152 0.471 255 255 255
-0.172645 -0.0805924 0.335 255 255 255
0.0730067 -0.27501 0.755 255 255 255
0.220201 -0.156462 0.646 255 255 255
0.0494371 0.162264 0.479 255 255 255
-0.294347 -0.23617 0.618 255 255 255
-0.278471 -0.120646 0.714 255 255 255
-0.0889659 0.106774 0.56 255 255 255
0.185827 0.141626 0.54 255 255 255
0.0362671 0.172217 0.47 255 255 255
-0.00506808 0.167573 0.472 255 255 255
0.288932 0.0768045 0.654 255 255 255
0.0489982 -0.136795 0.745 255 255 255
-0.318536 -0.193783 0.624 255 255 255
0.134917 -0.23675 0.7 255 255 255
0.273468 -0.132936 0.597 255 255 255
0.00256529 0.172666 0.463 255 255 255
0.014606 0.106966 0.547 0 0 0
0.21149 -0.024765 0.697 255 255 255
0.122873 -0.0520304 0.783 255 255 255
0.179206 0.169555 0.482 255 255 255
-0.0296957 0.103533 0.543 255 255 255
-0.0416175 -0.0791715 0.739 255 255 255
0.0358976 -0.156021 0.75 255 255 255
-0.118674 -0.0435601 0.747 255 255 255
-0.276788 -0.231475 0.65 255 255 255
-0.203429 -0.049509 0.623 255 255 255
0.286189 -0.0110542 0.627 255 255 255
0.11628 -0.0101858 0.799 255 255 255
-0.14903 0.0698802 0.612 255 255 255
0.308096 -0.0262878 0.602 255 255 255
-0.103542 -0.123782 0.941 255 255 255
0.143659 -0.265067 0.682 255 255 255
0.0429288 0.171317 0.476 255 255 255
0.201514 0.142151 0.542 255 255 255
0.165971 -0.118982 0.711 255 255 255
-0.182218 -0.0343518 0.347 255 255 255
-0.0716073 0.0478372 0.681 255 255 255
-0.115775 -0.0554925 0.744 255 255 255
-0.174465 0.146821 0.453 255 255 255
0.174142 0.113066 0.593 255 255 255
-0.17351 -0.0215626 0.636 0 0 0
-0.177324 -0.0122053 0.36 255 255 255
0.0554711 0.143956 0.491 255 255 255
-0.133299 -0.0963764 0.652 0 0 0
0.0952697 0.113444 0.566 255 255 255
-0.184357 -0.160851 0.582 0 0 0
-0.203672 0.141235 0.454 255 255 255
0.0386061 0.0521851 0.71 255 255 255
0.100846 -0.239888 0.734 255 255 255
-0.0152347 -0.0348632 0.743 255 255 255
-0.147415 0.0669733 0.622 255 255 255
0.217031 -0.0851164 0.672 255 255 255
0.175384 0.147948 0.522 255 255 255
0.286253 -0.0577864 0.614 255 255 255
-0.154807 -0.0810632 0.64 0 0 0
-0.0848609 0.157597 0.463 255 255 255
0.274222 -0.0353155 0.623 255 255 255
-0.0364675 0.167419 0.461 255 255 255
0.270355 0.139726 0.568 255 255 255
-0.313725 -0.158976 0.652 255 255 255
-0.180205 -0.26773 0.745 0 0 0
-0.183549 0.141912 0.461 255 255 255
-0.00288019 0.156259 0.492 255 255 255
-0.136947 0.0929119 0.57 255 255 255
0.261771 -0.00617083 0.65 255 255 255
-0.0552256 0.0784587 0.633 0 0 0
0.0503659 0.145459 0.488 255 255 255
0.313726 0.0290948 0.613 255 255 255
0.22189 -0.205938 0.627 255 255 255
-0.196744 0.0718818 0.377 255 255 255
-0.169567 0.127113 0.497 255 255 255
-0.00494667 -0.111154 0.845 255 255 255
-0.089784 0.0995793 0.571 255 255 255
0.213999 -0.146074 0.656 255 255 255
0.0993391 0.158366 0.479 255 255 255
0.165419 -0.0276828 0.745 255 255 255
0.305415 0.0774286 0.633 255 255 255
-0.307778 -0.0619134 0.734 255 255 255
-0.192541 0.105168 0.529 255 255 255
-0.132917 0.100763 0.557 255 255 255
0.0309389 -0.00987537 0.888 255 255 255
0.277052 -0.0440832 0.618 255 255 255
0.0165768 -0.0331823 0.893 255 255 255
0.0602161 0.125045 0.533 255 255 255
0.143935 0.149472 0.507 255 255 255
-0.135104 -0.0185459 0.677 0 0 0
-0.331664 -0.0526582 0.706 255 255 255
-0.122646 -0.0186357 0.772 255 255 255
0.257348 -0.130784 0.619 255 255 255
0.188843 -0.104692 0.693 255 255 255
0.094035 0.0792024 0.639 255 255 255
-0.280841 -0.183258 0.675 255 255 255
-0.150022 -0.152284 0.633 0 0 0
0.00887406 0.120375 0.524 0 0 0
0.104126 -0.157032 0.749 255 255 255
0.258525 -0.126345 0.617 255 255 255
-0.0145884 -0.201089 0.54 255 255 255
-0.169097 0.0417472 0.655 255 255 255
0.0393888 -0.00407204 0.883 255 255 255
0.217938 0.0845418 0.73 255 255 255
-0.177326 -0.0512592 0.343 255 255 255
0.237679 0.0700744 0.704 255 255 255
-0.125305 0.158343 0.446 255 255 255
-0.22356 0.104372 0.525 255 255 255
-0.288317 -0.042798 0.755 255 255 255
0.169949 -0.0751043 0.723 255 255 255
-0.280796 -0.126455 0.714 255 255 255
-0.0417932 0.110438 0.551 255 255 255
-0.103847 0.157786 0.457 255 255 255
0.198044 -0.163719 0.667 255 255 255
0.283707 -0.115055 0.59 255 255 255
-0.0910948 0.133532 0.506 255 255 255
0.0871123 0.128514 0.533 255 255 255
0.0308899 -0.184772 0.536 0 0 0
0.305157 -0.037064 0.602 255 255 255
-0.0669481 -0.233144 0.902 255 255 255
0.287506 0.113234 0.668 255 255 255
0.1072 -0.0155794 0.809 255 255 255
-0.0541506 -0.181701 0.909 255 255 255
-0.0808127 0.113926 0.542 255 255 255
-0.0913772 -0.0543053 0.958 0 0 0
-0.105466 0.123687 0.52 255 255 255
0.122677 -0.229024 0.715 255 255 255
-0.0880981 0.117463 0.538 255 255 255
-0.220591 0.136364 0.46 255 255 255
-0.288802 -0.181358 0.668 255 255 255
-0.103759 0.063704 0.64 255 255 255
0.0505418 0.015936 0.877 255 255 255
-0.319423 -0.0108248 0.753 255 255 255
-0.145712 0.14909 0.46 255 255 255
-0.271061 -0.146841 0.695 255 255 255
-0.0940315 0.093598 0.58 0 0 0
0.28491 0.0728802 0.657 255 255 255
-0.177875 0.0468611 0.652 255 255 255
0.197549 -0.145703 0.669 255 255 255
0.0626827 0.137105 0.504 255 255 255
-0.270281 -0.15093 0.693 255 255 255
0.174618 -0.0757533 0.718 255 255 255
-0.145562 0.107354 0.54 255 255 255
-0.0690838 0.0450355 0.689 255 255 255
-0.0477487 -0.0368976 0.76 255 255 255
-0.00368951 -0.136147 0.873 255 255 255
0.306053 0.093301 0.643 255 255 255
-0.182178 -0.00608539 0.641 255 255 255
-0.0643836 0.0222309 0.752 0 0 0
-0.298893 -0.232776 0.617 255 255 255
0.0209377 -0.0186502 0.893 255 255 255
-0.0149681 -0.0888989 0.73 255 255 255
0.233698 0.17808 0.486 255 255 255
0.245662 -0.183479 0.61 255 255 255
-0.0826303 0.0359588 0.709 255 255 255
-0.209484 -0.0407735 0.629 0 0 0
-0.0767716 0.0970377 0.578 255 255 255
-0.133096 0.144224 0.471 0 0 0
0.300245 -0.00482988 0.614 255 255 255
-0.205629 -0.110591 0.597 0 0 0
-0.0345691 -0.206265 0.9 255 255 255
-0.108154 0.102211 0.565 255 255 255
0.0247886 -0.0666873 0.875 255 255 255
-0.130363 -0.225821 0.705 0 0 0
-0.190688 0.14461 0.453 255 255 255
-0.181418 -0.236209 0.745 255 255 255
0.287252 -0.0527905 0.614 255 255 255
-0.156274 -0.171528 0.617 255 255 255
-0.139336 -0.262538 0.687 255 255 255
-0.209563 -0.0124211 0.645 255 255 255
0.224818 -0.0373849 0.679 255 255 255
0.0480189 0.126103 0.523 255 255 255
-0.123653 0.00708426 0.706 255 255 255
-0.122606 0.148191 0.469 255 255 255
-0.28988 -0.126009 0.705 255 255 255
0.298758 -0.00881223 0.613 255 255 255
-0.0615641 0.138746 0.507 255 255 255
0.206634 0.179093 0.466 255 255 255
-0.140614 -0.0130374 0.677 0 0 0
-0.16475 0.142528 0.463 255 255 255
-0.112253 -0.123256 0.937 255 255 255
-0.188281 0.064759 0.63 255 255 255
-0.182858 0.0876366 0.56 255 255 255
0.125277 0.171916 0.457 255 255 255
0.125674 0.117129 0.566 255 255 255
0.195695 0.146178 0.531 255 255 255
-0.174545 -0.0381223 0.636 0 0 0
0.0371185 -0.15358 0.75 255 255 255
0.15823 0.103711 0.606 255 255 255
-0.17837 -0.0831703 0.617 0 0 0
0.141769 -0.24312 0.689 255 255 255
0.145636 -0.140202 0.725 255 255 255
0.207568 -0.241781 0.63 255 255 255
-0.238072 0.0474361 0.66 255 255 255
0.240095 0.168086 0.501 255 255 255
0.0159822 0.137649 0.506 255 255 255
-0.15031 0.108972 0.535 255 255 255
0.118377 -0.0484541 0.787 255 255 255
-0.0951264 0.0666196 0.638 255 255 255
-0.155929 0.0976921 0.555 255 255 255
-0.178472 0.129045 0.486 255 255 255
0.101834 0.0956634 0.605 255 255 255
0.1541 0.146253 0.519 255 255 255
0.218726 0.0433653 0.717 255 255 255
0.190607 0.0845418 0.73 0 0 0
0.163 0.130401 0.552 255 255 255
0.179023 0.114414 0.59 255 255 255
-0.328164 -0.0816635 0.689 255 255 255
-0.00192717 0.174508 0.456 255 255 255
0.259524 -0.1806 0.594 255 255 255
-0.0924859 -0.0236609 0.772 255 255 255
0.0438988 0.0262218 0.887 255 255 255
-0.179048 -0.022308 0.353 255 255 255
-0.178778 -0.038415 0.348 255 255 255
-0.211804 0.153362 0.43 255 255 255
-0.173348 0.00490365 0.369 255 255 255
-0.03862 0.127407 0.532 255 255 255
0.205491 0.0452153 0.728 255 255 255
0.14247 -0.126242 0.733 255 255 255
0.00206595 -0.170844 0.528 255 255 255
0.249135 -0.0895888 0.634 255 255 255
0.170548 0.115151 0.584 255 255 255
0.0975064 -0.0993024 0.784 255 255 255
-0.180022 -0.0989396 0.609 0 0 0
-0.043816 0.128273 0.532 255 255 255
-0.188173 0.112878 0.517 255 255 255
-0.225405 0.148407 0.436 255 255 255
-0.271708 -0.0755198 0.727 255 255 255
-0.187511 0.0208878 0.365 0 0 0
0.118329 -0.224838 0.724 255 255 255
-0.0776396 0.163377 0.456 255 255 255
-0.148754 -0.00961726 0.669 0 0 0
-0.0979613 0.143183 0.483 255 255 255
0.148803 -0.199443 0.701 255 255 255
-0.206824 -0.0778967 0.615 255 255 255
-0.10004 0.0948679 0.582 255 255 255
0.27352 -0.152824 0.595 255 255 255
-0.0223011 -0.192011 0.557 255 255 255
0.15106 -0.0499705 0.752 255 255 255
0.00482032 0.0982435 0.548 0 0 0
-0.318158 -0.227871 0.604 255 255 255
0.222387 0.160002 0.509 255 255 255
-0.330046 -0.0560254 0.705 255 255 255
-0.149198 0.0242041 0.671 255 255 255
-0.199997 -0.120611 0.589 0 0 0
0.13657 -0.161884 0.727 255 255 255
-0.184799 -0.0698902 0.615 0 0 0
-0.186557 0.121452 0.497 255 255 255
0.109168 0.0919406 0.613 255 255 255
-0.242407 -0.18608 0.643 0 0 0
0.124376 -0.0963892 0.761 255 255 255
0.117381 -0.156822 0.748 255 255 255
0.0370097 0.0940529 0.577 0 0 0
-0.186944 -0.00569703 0.356 255 255 255
0.114388 -0.0650206 0.786 255 255 255
0.0217927 -0.172236 0.527 255 255 255
-0.161239 0.154394 0.443 255 255 255
-0.208615 0.160646 0.418 255 255 255
0.161243 -0.246964 0.672 255 255 255
0.108099 0.125659 0.547 255 255 255
-0.114922 0.10825 0.549 255 255 255
-0.138382 -0.172231 0.646 0 0 0
-0.176832 -0.013924 0.359 255 255 255
-0.169331 -0.103252 0.617 0 0 0
0.136056 -0.228776 0.7 255 255 255
0.11895 -0.126847 0.758 255 255 255
-0.051998 0.123132 0.536 255 255 255
0.286211 0.0861014 0.66 255 255 255
0.248385 0.190581 0.498 255 255 255
0.120667 -0.0781848 0.777 255 255 255
0.127291 0.0972869 0.609 255 255 255
0.0413622 0.0581184 0.698 255 255 255
0.212178 -0.0596593 0.681 255 255 255
0.105164 0.0189957 0.824 255 255 255
0.317622 0.136822 0.641 255 255 255
-0.0248573 0.120934 0.534 0 0 0
0.104294 0.110536 0.57 255 255 255
0.287111 -0.0219581 0.618 255 255 255
-0.117947 -0.164498 0.888 255 255 255
0.295249 0.0501646 0.64 255 255 255
-0.17364 -0.0664631 0.338 255 255 255
-0.180699 0.0572941 0.382 255 255 255
-0.158435 0.0150997 0.655 255 255 255
0.203637 0.136528 0.555 255 255 255
-0.129636 0.131685 0.499 255 255 255
0.189641 0.177193 0.469 255 255 255
-0.101229 0.151244 0.469 255 255 255
0.216995 0.0469964 0.719 255 255 255
0.213884 -0.101067 0.669 255 255 255
-0.0415083 -0.0244976 0.759 255 255 255
-0.0776081 0.136285 0.504 255 255 255
0.165242 -0.0962823 0.723 255 255 255
0.287192 0.0250115 0.636 255 255 255
-0.069727 0.107462 0.545 255 255 255
0.242276 -0.183683 0.614 255 255 255
0.225256 0.0252862 0.701 255 255 255
-0.0726312 0.16853 0.448 255 255 255
-0.126683 -0.203689 0.737 255 255 255
0.207199 -0.22815 0.632 255 255 255
-0.223493 0.110765 0.515 255 255 255
0.130294 -0.192114 0.725 255 255 255
0.102339 0.0941589 0.608 255 255 255
0.24618 0.028955 0.68 255 255 255
0.243484 0.190272 0.493 255 255 255
-0.146259 -0.0795219 0.653 0 0 0
-0.00194407 0.173044 0.46 255 255 255
0.0532895 0.142938 0.493 255 255 255
0.0861827 0.061405 0.684 255 255 255
-0.210678 0.063903 0.642 255 255 255
0.249482 -0.148625 0.622 255 255 255
0.297153 -0.089132 0.59 255 255 255
-0.226436 0.143504 0.445 255 255 255
0.0374047 -0.134065 0.809 255 255 255
0.0906514 -0.0963274 0.791 255 255 255
0.293384 -0.0832492 0.596 255 255 255
0.225915 0.0103818 0.696 255 255 255
0.180651 -0.233607 0.659 255 255 255
0.0626011 0.102544 0.588 255 255 255
-0.131378 -0.12309 0.653 255 255 255
0.23165 -0.143916 0.637 255 255 255
0.0844139 -0.0227646 0.831 255 255 255
0.244234 -0.129417 0.632 255 255 255
-0.178489 -0.194282 0.639 255 255 255
0.21348 0.172978 0.485 255 255 255
-0.153657 0.063835 0.631 255 255 255
-0.200019 0.0635049 0.638 255 255 255
0.18857 -0.10792 0.692 255 255 255
0.0457292 -0.131157 0.841 255 255 255
0.0558673 0.0129921 0.871 255 255 255
-0.190157 0.019484 0.361 255 255 255
-0.253021 -0.138631 0.677 255 255 255
-0.174848 -0.0825259 0.334 255 255 255
-0.131082 -0.010866 0.679 0 0 0
0.280685 -0.00291914 0.633 255 255 255
0.0952127 0.150463 0.494 255 255 255
-0.327196 -0.0319646 0.732 255 255 255
0.0756291 0.0141283 0.854 255 255 255
0.109427 -0.0194565 0.806 255 255 255
-0.12015 0.0470721 0.686 0 0 0
0.0437309 0.175292 0.468 255 255 255
-0.295569 0.0165059 0.716 255 255 255
-0.0373038 0.0197044 0.749 255 255 255
-0.105758 -0.0147898 0.768 255 255 255
0.00388527 -0.210654 0.542 255 255 255
-0.083353 0.108139 0.553 255 255 255
-0.0739971 0.0419137 0.693 255 255 255
0.187213 -0.0336432 0.717 255 255 255
0.196947 -0.111909 0.682 255 255 255
-0.147432 0.132753 0.488 255 255 255
0.0328822 0.123403 0.526 255 255 255
-0.157267 0.15402 0.444 255 255 255
0.00948571 0.131525 0.511 255 255 255
-0.111395 0.165103 0.437 255 255 255
-0.00929704 -0.179666 0.539 0 0 0
0.0491174 0.0985486 0.587 255 255 255
-0.0650443 -0.249091 0.896 255 255 255
-0.102029 0.118973 0.533 255 255 255
-0.0911177 0.149628 0.476 255 255 255
-0.167825 -0.0124404 0.646 0 0 0
0.244476 -0.104689 0.638 255 255 255
-0.195562 -0.0849254 0.608 0 0 0
-0.0225616 0.172623 0.453 255 255 255
0.296233 -0.0875074 0.592 255 255 255
0.171342 -0.221047 0.673 255 255 255
0.275136 0.0935505 0.675 255 255 255
-0.319449 -0.116007 0.68 255 255 255
0.216729 0.141682 0.547 255 255 255
-0.131303 -0.0477096 0.736 255 255 255
0.0542827 -0.195337 0.751 255 255 255
0.224784 0.0629363 0.714 255 255 255
0.181199 -0.223559 0.661 255 255 255
-0.0830515 0.109541 0.551 255 255 255
-0.148788 -0.132303 0.641 255 255 255
-0.0209173 0.0507886 0.691 255 255 255
-0.172499 -0.0655564 0.339 255 255 255
-0.18996 0.0232 0.364 255 255 255
0.0197459 0.00319016 0.905 255 255 255
0.0767874 -0.286742 0.744 255 255 255
0.0513314 0.179422 0.461 255 255 255
0.303836 0.119375 0.654 255 255 255
0.210849 0.0354432 0.722 255 255 255
-0.1018 -0.242889 0.698 255 255 255
0.254925 -0.0863572 0.633 255 255 255
0.142076 -0.221805 0.696 255 255 255
0.0773035 -0.254541 0.749 255 255 255
0.259712 0.172447 0.514 0 0 0
0.289027 0.0995898 0.664 255 255 255
-0.139224 -0.241927 0.692 255 255 255
0.243409 0.109026 0.704 0 0 0
0.263503 0.0808454 0.679 255 255 255
0.307378 0.102463 0.648 255 255 255
0.266023 -0.0459644 0.63 255 255 255
0.100162 0.0217564 0.827 255 255 255
0.00479565 0.0665905 0.669 255 255 255
-0.310669 -0.114345 0.69 255 255 255
0.200446 0.0628197 0.74 255 255 255
-0.202448 0.15088 0.437 255 255 255
0.093698 -0.0877584 0.795 255 255 255
-0.30547 -0.198857 0.637 255 255 255
0.294032 0.00118038 0.622 255 255 255
-0.0169844 0.0644132 0.669 255 255 255
-0.304161 -0.190266 0.643 255 255 255
-0.273416 -0.016614 0.738 255 255 255
0.184736 -0.030311 0.721 255 255 255
-0.314428 -0.137669 0.667 255 255 255
0.00198108 -0.0717212 0.867 255 255 255
0.0174205 0.15229 0.5 0 0 0
0.0909511 0.120301 0.551 255 255 255
0.154743 0.169878 0.472 255 255 255
0.255358 0.0353328 0.675 255 255 255
-0.0716493 0.167457 0.451 255 255 255
0.177293 -0.0318336 0.729 255 255 255
0.0220471 0.106724 0.555 0 0 0
0.037168 -0.155007 0.751 255 255 255
-0.17319 -0.0844085 0.335 255 255 255
0.256357 0.180709 0.509 0 0 0
-0.128575 0.116139 0.528 255 255 255
0.146163 -0.0695505 0.752 255 255 255
0.243692 0.0601306 0.695 255 255 255
-0.156554 0.114599 0.521 0 0 0
0.0299054 -0.182344 0.534 0 0 0
-0.187103 -0.0060759 0.64 255 255 255
-0.201496 -0.134072 0.585 0 0 0
-0.21645 0.157997 0.42 255 255 255
0.148018 0.0750185 0.657 255 255 255
0.0269699 0.149458 0.496 255 255 255
0.211205 -0.123003 0.664 255 255 255
0.140631 0.17267 0.461 255 255 255
-0.0659888 0.0796165 0.618 255 255 255
0.00382792 0.109638 0.534 255 255 255
-0.113282 -0.0566807 0.972 0 0 0
-0.160291 -0.118312 0.617 255 255 255
-0.250833 0.0763446 0.578 255 255 255
-0.280191 0.0363065 0.653 255 255 255
-0.168744 -0.0884583 0.626 255 255 255
-0.0878635 0.159223 0.459 255 255 255
0.28486 -0.180742 0.573 255 255 255
0.0642168 0.165619 0.473 255 255 255
-0.0020455 0.161594 0.484 255 255 255
-0.0323769 0.17431 0.446 255 255 255
-0.179794 -0.0859031 0.615 0 0 0
0.0937598 0.165885 0.463 0 0 0
0.0186636 0.0853298 0.623 255 255 255
0.218802 -0.011122 0.695 255 255 255
0.0168982 0.115937 0.535 255 255 255
0.277333 0.106732 0.675 255 255 255
-0.206007 -0.15459 0.587 0 0 0
0.0100264 0.0747901 0.655 255 255 255
-0.180699 0.0535643 0.382 255 255 255
0.132135 0.142875 0.519 255 255 255
0.0547805 0.162703 0.478 0 0 0
-0.173548 0.0834583 0.394 255 255 255
-0.221029 -0.129875 0.61 0 0 0
-0.209434 0.0810475 0.578 0 0 0
0.175395 -0.0953021 0.707 255 255 255
0.0494758 0.102093 0.58 255 255 255
-0.16185 -0.138726 0.623 255 255 255
-0.180226 0.0255228 0.649 255 255 255
-0.1749 0.144715 0.458 255 255 255
0.115079 -0.0748703 0.782 255 255 255
0.0745943 0.180172 0.461 0 0 0
0.000563854 -0.0472404 0.858 255 255 255
-0.084785 -0.243265 0.68 255 255 255
0.194126 -0.00919148 0.721 255 255 255
0.14565 0.145408 0.516 255 255 255
-0.269409 -0.244389 0.645 255 255 255
-0.178148 0.0426824 0.653 255 255 255
-0.00582404 0.166452 0.471 255 255 255
0.211522 -0.193104 0.642 255 255 255
-0.0328598 0.000205223 0.759 255 255 255
-0.0296681 -0.0420044 0.741 255 255 255
0.265839 -0.0399395 0.632 255 255 255
-0.0738645 0.0627764 0.652 255 255 255
0.217402 -0.0400613 0.687 255 255 255
-0.181578 -0.281732 0.731 0 0 0
0.156863 0.176019 0.458 255 255 255
-0.120762 0.141611 0.483 255 255 255
0.103145 -0.0595202 0.798 255 255 255
0.287518 -0.0831076 0.602 255 255 255
0.0967215 -0.234306 0.739 255 255 255
0.0517768 0.177952 0.465 255 255 255
0.264401 -0.0844472 0.619 255 255 255
0.278845 0.117891 0.676 255 255 255
0.0466535 -0.0584104 0.858 255 255 255
-0.0258737 0.0265487 0.736 255 255 255
0.147337 0.170723 0.468 255 255 255
0.0495243 0.123479 0.53 255 255 255
-0.247118 0.0223812 0.682 255 255 255
0.0393932 -0.164655 0.533 0 0 0
0.0460481 -0.00970856 0.873 255 255 255
-0.0868815 0.144368 0.487 255 255 255
-0.166724 -0.24513 0.739 255 255 255
0.0167063 0.148293 0.503 255 255 255
0.0348914 0.0541122 0.705 255 255 255
-0.00307248 -0.0767028 0.727 0 0 0
0.0506771 0.168993 0.476 0 0 0
0.167298 -0.138039 0.702 255 255 255
-0.273755 -0.245889 0.638 255 255 255
-0.23986 0.0622163 0.615 255 255 255
0.221695 -0.0342708 0.683 255 255 255
0.211243 -0.0836697 0.678 255 255 255
-0.1161 0.0371125 0.709 255 255 255
-0.0116783 0.171547 0.46 255 255 255
0.0541119 0.0860852 0.6 0 0 0
-0.0748513 0.0378345 0.701 255 255 255
-0.186312 0.0497957 0.377 0 0 0
0.150454 0.143426 0.521 255 255 255
-0.0509097 -0.235132 0.904 255 255 255
0.183647 0.157922 0.505 255 255 255
-0.311615 -0.0650506 0.729 255 255 255
0.26835 0.00755677 0.648 255 255 255
0.0660647 -0.204962 0.746 255 255 255
-0.119886 0.0515793 0.672 255 255 255
0.0665267 0.161001 0.473 255 255 255
0.0506657 -0.0526407 0.855 255 255 255
0.0327122 0.132098 0.51 255 255 255
-0.175789 -0.0979128 0.615 0 0 0
-0.312077 -0.00847414 0.762 255 255 255
-0.0588551 0.139021 0.505 255 255 255
0.168946 0.121453 0.569 255 255 255
-0.0316209 0.162758 0.467 255 255 255
0.232845 -0.112831 0.649 255 255 255
-0.276991 -0.232871 0.648 255 255 255
-0.0528158 0.157152 0.473 255 255 255
0.261727 0.149967 0.548 255 255 255
-0.258093 -0.182131 0.659 255 255 255
0.320345 0.126042 0.634 255 255 255
0.00392828 0.0463427 0.709 255 255 255
-0.067245 -0.222383 0.906 255 255 255
-0.237712 0.0848946 0.554 255 255 255
-0.151746 0.123407 0.505 0 0 0
-0.0812291 -0.196087 0.914 255 255 255
-0.119866 -0.0677007 0.732 255 255 255
0.080552 0.151018 0.488 255 255 255
0.0462724 -0.194232 0.553 255 255 255
0.217188 0.138335 0.555 255 255 255
0.028527 0.152379 0.495 255 255 255
-0.156303 -0.0488543 0.655 255 255 255
0.252277 -0.00198156 0.664 255 255 255
0.036266 -0.0254519 0.877 255 255 255
-0.0273661 -0.0324886 0.744 255 255 255
-0.184774 0.101893 0.539 255 255 255
-0.304811 -0.119181 0.692 255 255 255
-0.18995 0.129035 0.483 255 255 255
-0.170794 -0.26991 0.741 255 255 255
-0.173596 -0.00925787 0.644 255 255 255
0.243784 -0.0611745 0.65 255 255 255
0.036791 -0.122352 0.856 255 255 255
0.0777888 -0.201448 0.742 255 255 255
0.145435 -0.144721 0.724 255 255 255
0.10935 0.167782 0.462 255 255 255
-0.135171 -0.20203 0.731 255 255 255
0.0522423 0.106638 0.569 255 255 255
-0.116212 -0.0173569 0.771 255 255 255
-0.243404 -0.160271 0.632 255 255 255
-0.189277 0.0724025 0.383 255 255 255
0.107243 0.173676 0.45 255 255 255
0.2327 0.162167 0.508 255 255 255
0.234082 0.100118 0.714 255 255 255
-0.137221 0.128694 0.5 255 255 255
-0.0261601 0.101765 0.543 255 255 255
0.201447 0.00841974 0.722 255 255 255
0.137794 0.155142 0.491 255 255 255
0.0954642 -0.176298 0.748 255 255 255
0.299935 0.0236749 0.628 255 255 255
0.298948 0.0552855 0.639 255 255 255
0.24061 -0.0907919 0.65 255 255 255
-0.0404509 0.115444 0.545 255 255 255
0.283761 -0.213241 0.558 255 255 255
-0.010591 0.0608664 0.678 255 255 255
-0.0469991 0.168571 0.454 255 255 255
0.115936 0.136242 0.526 255 255 255
0.101671 -0.196088 0.74 255 255 255
0.289434 -0.00996981 0.623 255 255 255
0.252422 0.144657 0.555 255 255 255
-0.0973859 0.0739846 0.613 0 0 0
-0.183402 -0.0102099 0.638 255 255 255
-0.0145786 -0.114354 0.711 255 255 255
0.235657 0.15669 0.52 255 255 255
-0.0240722 -0.10029 0.718 0 0 0
0.320364 0.123587 0.632 255 255 255
-0.165509 -0.112741 0.614 0 0 0
0.100216 0.0633522 0.681 255 255 255
-0.109509 -0.0410354 0.768 0 0 0
-0.172857 0.117242 0.514 255 255 255
0.132098 0.0816637 0.642 255 255 255
-0.175094 -0.0143628 0.638 0 0 0
-0.176193 -0.219408 0.714 255 255 255
-0.108363 -0.179956 0.743 255 255 255
0.0123259 0.0714956 0.664 255 255 255
0.0232575 -0.0848087 0.871 255 255 255
-0.209248 -0.210552 0.678 255 255 255
-0.143259 0.117367 0.522 255 255 255
-0.191475 0.123683 0.493 255 255 255
0.18557 -0.182718 0.669 255 255 255
-0.167808 0.15064 0.449 255 255 255
-0.199911 0.0841186 0.567 255 255 255
-0.290577 -0.162564 0.685 255 255 255
0.232865 -0.0872267 0.655 255 255 255
-0.195493 0.104504 0.53 255 255 255
0.254463 -0.219336 0.589 255 255 255
0.0581881 -0.0711076 0.843 255 255 255
0.292573 0.0897127 0.655 255 255 255
-0.32925 -0.0179115 0.742 255 255 255
0.149736 0.132693 0.543 255 255 255
0.0288826 0.0690763 0.672 255 255 255
-0.299532 -0.00354171 0.768 255 255 255
0.0308899 0.118771 0.536 255 255 255
-0.138764 0.101305 0.555 255 255 255
-0.18303 0.0599101 0.644 255 255 255
-0.173097 0.0202733 0.65 255 255 255
0.227758 -0.211028 0.618 255 255 255
0.0372393 0.0541889 0.706 255 255 255
0.0639773 -0.206061 0.75 255 255 255
0.0645056 0.17908 0.464 255 255 255
0.15454 0.0536594 0.782 255 255 255
0.0482345 -0.168674 0.752 255 255 255
0.0589051 0.0315266 0.874 255 255 255
0.152146 0.119301 0.572 255 255 255
-0.0925233 -0.118808 0.938 255 255 255
-0.0550701 0.138193 0.508 0 0 0
0.113863 0.167782 0.462 255 255 255
-0.206388 0.118454 0.498 255 255 255
-0.0166992 0.172265 0.454 255 255 255
-0.107943 -0.245073 0.701 255 255 255
-0.18305 -0.134258 0.59 255 255 255
0.248743 -0.11314 0.633 255 255 255
0.149532 0.173419 0.463 255 255 255
0.211126 0.060533 0.727 255 255 255
0.183199 -0.0533295 0.715 255 255 255
-0.264375 -0.231057 0.664 255 255 255
-0.166047 -0.270484 0.736 255 255 255
0.308326 0.114414 0.65 255 255 255
0.274977 -0.210592 0.568 255 255 255
-0.235167 -0.000930863 0.686 255 255 255
-0.31362 -0.0855482 0.712 255 255 255
0.195604 -0.0984819 0.689 255 255 255
0.114848 0.166201 0.466 255 255 255
0.0897496 0.0221773 0.843 255 255 255
-0.332927 -0.0623737 0.699 255 255 255
0.252527 -0.0493867 0.648 255 255 255
0.0627396 0.0214225 0.868 255 255 255
0.00123389 0.101203 0.54 0 0 0
-0.180931 0.0266648 0.371 255 255 255
-0.157797 -0.0746949 0.648 0 0 0
-0.31055 -0.148746 0.668 255 255 255
0.166561 -0.0475799 0.734 255 255 255
0.198141 0.165867 0.492 255 255 255
-0.194494 -0.07777 0.614 0 0 0
0.182409 -0.130065 0.69 255 255 255
0.250425 -0.194141 0.6 255 255 255
0.278972 0.143993 0.563 255 255 255
0.284176 -0.136441 0.587 255 255 255
0.301102 0.101438 0.655 255 255 255
0.255317 0.0286144 0.672 255 255 255
0.22106 0.0632008 0.717 255 255 255
-0.203768 0.11014 0.516 255 255 255
-0.191002 0.064862 0.379 255 255 255
-0.117534 0.0761037 0.614 255 255 255
-0.210483 -0.0358256 0.632 0 0 0
-0.099483 0.116587 0.538 255 255 255
0.0536344 0.176815 0.468 255 255 255
0.127422 0.158574 0.482 255 255 255
0.137418 0.00404976 0.786 255 255 255
0.207932 -0.0924963 0.678 255 255 255
0.0616597 0.0861017 0.607 0 0 0
0.211793 -0.0168494 0.698 255 255 255
-0.0828551 0.0295275 0.721 255 255 255
0.176894 -0.246797 0.657 255 255 255
0.147252 -0.024659 0.764 255 255 255
-0.125773 0.0380504 0.705 0 0 0
0.248406 -0.180601 0.607 255 255 255
0.111904 -0.202215 0.736 255 255 255
0.143524 -0.0731244 0.751 255 255 255
-0.32304 -0.162553 0.641 255 255 255
-0.214881 0.138309 0.459 255 255 255
0.291229 -0.123913 0.582 255 255 255
-0.320544 -0.176254 0.634 255 255 255
0.135398 0.0866995 0.633 255 255 255
0.269571 0.0412403 0.664 255 255 255
0.174049 -0.211818 0.675 255 255 255
0.194979 0.155641 0.511 255 255 255
-0.14484 -0.127285 0.642 255 255 255
-0.199528 0.132801 0.474 255 255 255
-0.135857 -0.157026 0.644 0 0 0
-0.173362 0.0481426 0.655 255 255 255
-0.202987 0.14673 0.446 255 255 255
-0.0128541 -0.195299 0.541 255 255 255
-0.00534475 -0.0160964 0.913 255 255 255
0.245465 -0.0107059 0.669 255 255 255
-0.152196 -0.162564 0.625 0 0 0
-0.292659 -0.199742 0.65 255 255 255
-0.166166 0.0933442 0.556 255 255 255
0.120331 0.126348 0.55 255 255 255
0.172783 -0.0508845 0.73 255 255 255
-0.149046 0.123895 0.507 255 255 255
0.242718 0.111001 0.702 0 0 0
-0.103468 -0.0612364 0.969 0 0 0
0.241195 0.146039 0.55 255 255 255
-0.204353 0.144064 0.449 255 255 255
0.272135 -0.00400539 0.642 255 255 255
-0.141573 0.0236632 0.687 255 255 255
0.151994 0.0587497 0.782 0 0 0
-0.0808309 0.00143657 0.757 0 0 0
-0.189307 0.0637338 0.63 255 255 255
-0.0741257 0.11875 0.532 0 0 0
0.0168035 -0.157421 0.532 0 0 0
0.0120928 -0.0673732 0.884 255 255 255
-0.223596 0.0189399 0.678 255 255 255
0.0419772 0.117002 0.544 255 255 255
0.116418 0.00680129 0.809 255 255 255
0.148688 0.124777 0.559 255 255 255
0.0436557 -0.0817637 0.854 255 255 255
0.0864761 -0.189884 0.744 255 255 255
-0.131868 0.0600031 0.645 255 255 255
-0.169783 -0.15596 0.615 0 0 0
-0.217156 0.117265 0.493 255 255 255
0.276494 -0.199152 0.575 255 255 255
-0.00560496 0.111421 0.522 0 0 0
0.048353 -0.182888 0.546 255 255 255
0.134634 -0.0785323 0.756 255 255 255
0.243867 -0.196729 0.608 255 255 255
0.160902 -0.00349559 0.758 255 255 255
0.186859 0.138878 0.543 255 255 255
-0.0746107 0.143518 0.495 255 255 255
0.214712 0.108299 0.621 255 255 255
-0.15474 -0.0235214 0.662 0 0 0
0.0459895 0.0491992 0.717 0 0 0
-0.0955721 0.0454198 0.678 255 255 255
-0.219374 0.0635315 0.628 255 255 255
-0.196048 -0.00713963 0.642 255 255 255
-0.011653 0.171921 0.459 255 255 255
0.164035 -0.256042 0.67 255 255 255
-0.0591697 -0.177524 0.918 255 255 255
-0.181792 -0.0132828 0.636 255 255 255
-0.0520018 -0.0272877 0.768 255 255 255
0.280418 -0.0281281 0.621 255 255 255
0.248715 0.0516126 0.687 255 255 255
0.0662419 -0.211598 0.748 255 255 255
-0.157849 -0.0147905 0.657 255 255 255
0.181427 0.0184115 0.746 255 255 255
0.267698 -0.0999144 0.615 255 255 255
0.221524 -0.135842 0.653 255 255 255
0.0550886 0.0870616 0.6 0 0 0
0.182413 -0.0890429 0.703 255 255 255
0.12545 -0.103683 0.76 255 255 255
0.234976 0.11536 0.632 255 255 255
0.266939 -0.146785 0.602 255 255 255
0.156751 -0.229216 0.681 255 255 255
0.1504 -0.162475 0.714 255 255 255
-0.121355 -0.115656 0.925 0 0 0
0.302907 0.096729 0.652 255 255 255
0.245219 -0.0591499 0.651 255 255 255
-0.0361473 0.105185 0.547 0 0 0
0.293334 0.0134339 0.627 255 255 255
-0.322816 0.00268256 0.761 255 255 255
0.0123797 -0.164829 0.528 0 0 0
-0.187203 -0.0413984 0.623 0 0 0
-0.0766496 0.0544518 0.667 255 255 255
-0.234854 -0.15596 0.615 255 255 255
0.0300691 0.16842 0.481 255 255 255
0.195046 0.0634139 0.747 255 255 255
-0.14455 0.152317 0.454 255 255 255
0.165255 0.0187817 0.761 255 255 255
0.217453 -0.123336 0.66 255 255 255
-0.141355 0.0562372 0.65 0 0 0
0.247229 -0.211629 0.597 255 255 255
-0.127297 0.0521241 0.665 255 255 255
-0.181321 0.0585374 0.382 255 255 255
0.270759 0.127795 0.659 0 0 0
-0.0482841 0.135907 0.515 255 255 255
0.0927463 0.0944686 0.61 255 255 255
-0.204954 -0.161403 0.584 0 0 0
-0.123196 0.165642 0.431 255 255 255
-0.260443 -0.231405 0.665 255 255 255
-0.125371 0.0944345 0.568 255 255 255
0.127508 0.172659 0.457 255 255 255
0.103705 0.0500954 0.697 255 255 255
0.215937 0.142937 0.545 255 255 255
-0.2324 0.0802062 0.572 255 255 255
-0.119733 0.133851 0.495 255 255 255
-0.158229 0.119649 0.51 255 255 255
-0.176019 0.05197 0.384 255 255 255
0.192086 0.107833 0.607 255 255 255
-0.130951 0.0344614 0.702 255 255 255
0.13188 -0.0477768 0.776 255 255 255
-0.193915 0.0401136 0.367 255 255 255
0.0942466 -0.17995 0.748 255 255 255
-0.184795 0.115499 0.51 255 255 255
-0.175993 0.00189092 0.367 255 255 255
-0.190373 -0.0122671 0.637 255 255 255
0.0784561 0.0737785 0.675 255 255 255
-0.273755 -0.247966 0.638 255 255 255
-0.327724 -0.117923 0.672 255 255 255
0.31125 0.0272323 0.616 255 255 255
0.127485 -0.254925 0.703 255 255 255
0.205763 0.155415 0.513 255 255 255
-0.204568 -0.0246676 0.636 255 255 255
0.0170024 0.162136 0.488 255 255 255
0.0290361 -0.182344 0.534 255 255 255
-0.048275 0.0607815 0.665 255 255 255
0.200437 -0.0397937 0.702 255 255 255
-0.0676861 0.0931334 0.589 255 255 255
-0.122974 0.127516 0.505 255 255 255
-0.0223259 0.149759 0.497 255 255 255
-0.106865 0.0442329 0.694 255 255 255
0.181712 -0.16114 0.679 255 255 255
0.158089 -0.101687 0.728 255 255 255
-0.129791 -0.170212 0.748 255 255 255
-0.0977892 0.157324 0.46 255 255 255
0.237656 0.152218 0.534 255 255 255
0.0797978 0.107575 0.574 255 255 255
0.192234 -0.213821 0.651 255 255 255
-0.25613 0.0709673 0.588 255 255 255
0.172114 -0.125651 0.703 255 255 255
-0.0678311 0.101971 0.574 255 255 255
0.156426 0.130164 0.551 255 255 255
-0.0005222 -0.206473 0.538 255 255 255
0.087345 -0.284111 0.731 255 255 255
-0.185886 0.0200549 0.643 255 255 255
0.177651 -0.203221 0.672 255 255 255
-0.150765 0.073759 0.603 255 255 255
-0.00420906 -0.11096 0.719 255 255 255
0.0259433 -0.150557 0.866 255 255 255
-0.0783454 -0.227726 0.898 255 255 255
0.0188513 -0.127713 0.864 255 255 255
-0.114511 0.125012 0.515 255 255 255
0.209892 0.154944 0.517 255 255 255
0.137149 -0.251661 0.694 255 255 255
0.120632 -0.0521633 0.785 255 255 255
0.203217 -0.106682 0.677 255 255 255
-0.104803 0.00259091 0.735 255 255 255
-0.0280394 -0.0758314 0.73 0 0 0
-0.0953528 0.161944 0.452 255 255 255
0.169701 0.0863461 0.638 255 255 255
0.163435 0.156671 0.501 255 255 255
-0.106882 0.167563 0.436 255 255 255
0.0569713 0.114232 0.552 255 255 255
0.244679 -0.0868098 0.644 255 255 255
0.117378 0.140034 0.521 255 255 255
0.274678 0.0170474 0.648 255 255 255
0.134999 0.0981166 0.608 255 255 255
0.247826 -0.17793 0.608 255 255 255
0.220517 0.179474 0.473 255 255 255
0.296829 0.146374 0.603 255 255 255
0.278508 -0.0622863 0.619 255 255 255
-0.115182 0.146376 0.473 255 255 255
0.0164596 0.0918685 0.581 255 255 255
0.155007 0.132537 0.546 255 255 255
0.176593 -0.00462305 0.741 255 255 255
-0.197281 0.0278053 0.653 255 255 255
0.0146998 -0.129717 0.868 255 255 255
0.0611258 0.139525 0.498 255 255 255
0.215293 0.179866 0.47 255 255 255
0.194814 0.140646 0.543 255 255 255
0.123038 0.0494593 0.776 0 0 0
0.256011 0.137194 0.569 255 255 255
-0.106432 0.000199544 0.738 255 255 255
-0.268437 -0.137056 0.697 255 255 255
0.290915 -0.00693945 0.624 255 255 255
-0.00503448 -0.040353 0.86 255 255 255
0.111829 -0.071416 0.786 255 255 255
0.0447979 0.116544 0.546 255 255 255
0.117636 -0.217488 0.727 255 255 255
-0.15689 -0.0789802 0.64 0 0 0
-0.0847523 0.118558 0.539 255 255 255
0.0977396 -0.052312 0.807 255 255 255
-0.157871 -0.0773779 0.644 0 0 0
-0.0376635 0.0710459 0.65 0 0 0
0.183381 -0.168377 0.677 255 255 255
0.240499 -0.143013 0.633 255 255 255
-0.1253 0.0420952 0.696 255 255 255
0.255049 0.0646497 0.683 255 255 255
0.307741 0.122006 0.651 255 255 255
0.268713 0.105464 0.681 255 255 255
-0.0761531 0.0456878 0.682 255 255 255
0.161128 -0.152396 0.705 255 255 255
-0.068076 0.00519325 0.766 0 0 0
-0.270626 -0.152743 0.691 255 255 255
0.118329 -0.228372 0.724 255 255 255
-0.137698 -0.242351 0.69 255 255 255
-0.0714345 0.054615 0.669 255 255 255
-0.126495 -0.0804728 0.729 255 255 255
0.237538 -0.211223 0.607 255 255 255
-0.318287 0.00145175 0.765 255 255 255
-0.270998 -0.220162 0.667 255 255 255
0.147654 0.039864 0.786 255 255 255
0.185783 -0.194811 0.662 255 255 255
0.0793148 0.119878 0.545 255 255 255
-0.100944 -0.0794144 0.96 255 255 255
0.208529 0.127634 0.576 255 255 255
-0.238189 0.0771514 0.577 255 255 255
-0.12344 -0.0665095 0.732 255 255 255
-0.00929442 0.0921456 0.595 255 255 255
-0.175227 0.0395549 0.654 255 255 255
0.165367 0.142775 0.528 255 255 255
0.0593484 0.124177 0.533 255 255 255
0.173256 -0.0530415 0.727 255 255 255
0.00382075 -0.187207 0.533 0 0 0
0.308096 -0.0115931 0.602 255 255 255
0.0349185 0.0734348 0.662 0 0 0
0.294767 -0.0147975 0.613 255 255 255
0.0174554 0.15178 0.501 0 0 0
0.25987 -0.0777462 0.63 255 255 255
-0.12834 -0.256203 0.688 255 255 255
0.198037 0.0519817 0.74 255 255 255
-0.306528 -0.0921104 0.709 255 255 255
0.165357 0.150946 0.512 255 255 255
0.213285 0.173899 0.481 255 255 255
-0.0199484 0.0911774 0.595 0 0 0
-0.274421 -0.222207 0.657 255 255 255
0.225363 -0.104759 0.658 255 255 255
0.267474 -0.150453 0.601 255 255 255
0.0394853 -0.10122 0.854 255 255 255
-0.189565 -0.0833558 0.611 255 255 255
0.134828 -0.180067 0.724 255 255 255
0.291301 -0.166173 0.571 255 255 255
-0.00665251 -0.186337 0.538 255 255 255
-0.294908 -0.034107 0.753 255 255 255
-0.161496 0.159026 0.434 255 255 255
0.268539 -0.218421 0.574 255 255 255
-0.145685 0.166189 0.427 255 255 255
0.148031 -0.114002 0.731 255 255 255
-0.00811671 -0.186803 0.891 255 255 255
-0.0440796 0.0690364 0.651 255 255 255
-0.18099 0.0489552 0.38 255 255 255
0.275576 -0.161277 0.587 255 255 255
-0.22847 -0.0694224 0.648 255 255 255
0.184165 0.153978 0.511 255 255 255
-0.0659403 0.108209 0.558 255 255 255
-0.10551 -0.247002 0.7 255 255 255
-0.294875 -0.236792 0.617 255 255 255
-0.0495257 0.158787 0.471 255 255 255
0.153981 -0.102106 0.731 255 255 255
-0.200163 0.0468611 0.652 255 255 255
0.139682 0.0929905 0.62 255 255 255
-0.133406 0.135412 0.489 255 255 255
0.228221 0.166936 0.5 255 255 255
0.290544 0.115972 0.665 255 255 255
0.113902 -0.0992954 0.774 255 255 255
0.22636 -0.043885 0.677 255 255 255
0.195021 0.106381 0.61 255 255 255
0.153086 -0.0615462 0.744 255 255 255
-0.187539 0.0964574 0.382 255 255 255
-0.22989 0.0687384 0.602 255 255 255
-0.170809 -0.165124 0.601 255 255 255
0.285508 -0.148972 0.58 255 255 255
-0.27628 0.0212089 0.68 255 255 255
-0.290727 0.0392528 0.632 255 255 255
0.25567 0.183761 0.506 255 255 255
-0.273071 0.0435039 0.634 255 255 255
-0.148537 0.154714 0.446 255 255 255
0.142568 -0.0835634 0.746 255 255 255
0.0935855 0.0953048 0.609 255 255 255
0.163704 0.0828373 0.643 255 255 255
-0.318015 -0.197904 0.621 255 255 255
-0.266753 0.0543862 0.617 255 255 255
0.220933 -0.18302 0.636 255 255 255
0.24419 -0.152149 0.624 255 255 255
0.174898 -0.0598917 0.724 255 255 255
0.0494125 0.131525 0.511 255 255 255
-0.0817479 -0.138504 0.937 255 255 255
0.0500731 -0.0850273 0.845 255 255 255
0.186691 -0.0405306 0.715 255 255 255
0.206719 0.137679 0.556 255 255 255
0.16769 0.164296 0.485 255 255 255
-0.0838092 0.147113 0.483 255 255 255
0.294868 0.0905014 0.653 255 255 255
0.224487 -0.0450532 0.678 255 255 255
-0.30882 -0.0826486 0.717 255 255 255
0.193969 0.148515 0.524 255 255 255
0.291188 0.116879 0.664 255 255 255
-0.0372347 0.122488 0.537 0 0 0
0.228228 -0.0821473 0.657 255 255 255
-0.201779 -0.102359 0.6 0 0 0
-0.279155 -0.137286 0.704 255 255 255
0.051103 0.157134 0.48 255 255 255
0.300734 0.00717194 0.615 255 255 255
-0.0233819 -0.0594434 0.733 255 255 255
-0.0484574 0.172518 0.447 255 255 255
-0.0176698 0.0500235 0.696 255 255 255
-0.165971 0.147052 0.456 255 255 255
0.197023 -0.078868 0.694 255 255 255
-0.0887476 0.00509155 0.751 0 0 0
0.145331 0.147577 0.509 255 255 255
0.138877 -0.226661 0.697 255 255 255
0.155016 0.0609813 0.778 0 0 0
-0.125889 0.100944 0.558 255 255 255
-0.0983391 0.0706795 0.619 255 255 255
-0.261986 -0.240748 0.658 255 255 255
0.0522402 -0.027693 0.858 255 255 255
-0.200936 -0.240268 0.707 255 255 255
0.0768906 -0.188927 0.745 255 255 255
-0.0312526 0.0979259 0.589 0 0 0
-0.1752 -0.07853 0.62 255 255 255
0.123553 -0.20684 0.727 255 255 255
-0.0393153 0.103827 0.554 255 255 255
-0.270748 -0.127939 0.703 255 255 255
-0.133151 0.131135 0.5 255 255 255
0.000594741 -0.0336281 0.905 255 255 255
-0.0327926 -0.0900868 0.73 255 255 255
0.270532 0.121908 0.68 0 0 0
-0.113024 -0.0678857 0.734 255 255 255
0.195392 0.108462 0.605 255 255 255
0.285872 0.0314178 0.64 255 255 255
-0.0928432 -0.214799 0.699 255 255 255
0.255768 -0.0962001 0.63 255 255 255
0.200471 0.170171 0.486 255 255 255
-0.184717 0.0984117 0.544 255 255 255
-0.0871318 0.0588914 0.656 255 255 255
-0.207093 0.136333 0.465 255 255 255
-0.210989 0.129525 0.479 255 255 255
-0.01609 -0.0814351 0.727 255 255 255
0.181469 -0.12309 0.695 255 255 255
-0.0345147 0.0464247 0.693 255 255 255
0.0274611 -0.155419 0.753 255 255 255
-0.090402 0.162302 0.453 255 255 255
0.182817 -0.1523 0.679 255 255 255
0.243409 -0.0758663 0.649 255 255 255
-0.139243 -0.0904244 0.655 0 0 0
-0.153895 -0.0289515 0.663 255 255 255
0.239405 0.0616142 0.699 255 255 255
0.201752 0.162208 0.503 255 255 255
0.219336 0.0493365 0.719 255 255 255
-0.279783 -0.147264 0.697 255 255 255
-0.01309 0.172659 0.457 255 255 255
-0.180117 -0.044003 0.343 255 255 255
0.190346 0.0049424 0.729 255 255 255
-0.259329 0.0586362 0.609 255 255 255
0.139319 -0.142162 0.729 255 255 255
0.00188205 0.163724 0.481 255 255 255
-0.159342 0.0583528 0.65 0 0 0
-0.203787 -0.0675404 0.621 255 255 255
-0.0107032 0.130959 0.522 255 255 255
-0.219756 0.0472752 0.673 255 255 255
0.152191 0.0893642 0.63 255 255 255
-0.092328 0.0790567 0.606 0 0 0
-0.125075 0.149631 0.464 255 255 255
-0.219837 0.0729027 0.596 255 255 255
0.0907067 -0.252345 0.739 255 255 255
-0.17855 -0.156606 0.591 255 255 255
-0.00488278 -0.1996 0.536 0 0 0
0.142007 0.121519 0.565 255 255 255
-0.328927 -0.102577 0.679 255 255 255
0.191246 -0.0220365 0.719 255 255 255
-0.106972 -0.0886029 0.958 255 255 255
0.0975269 -0.24653 0.736 255 255 255
-0.0115087 0.133842 0.52 0 0 0
0.0190477 -0.0864241 0.873 255 255 255
-0.153104 -0.0595133 0.655 255 255 255
-0.10485 -0.121991 0.939 255 255 255
0.254189 -0.0264704 0.655 255 255 255
0.265185 -0.0124789 0.648 255 255 255
0.243056 -0.123184 0.637 255 255 255
-0.297838 -0.0567795 0.745 255 255 255
-0.224256 -0.0736575 0.639 0 0 0
-0.175357 -0.0912028 0.617 0 0 0
-0.181665 0.011353 0.364 255 255 255
-0.0758084 -0.143384 0.939 255 255 255
0.21746 0.109171 0.626 255 255 255
-0.306837 -0.210367 0.625 255 255 255
-0.0219408 -0.203177 0.548 0 0 0
-0.105215 0.101082 0.569 255 255 255
-0.0277008 0.165088 0.465 255 255 255
0.0158776 -0.158554 0.53 0 0 0
-0.189493 0.150022 0.445 255 255 255
0.194468 -0.113516 0.685 255 255 255
0.281513 0.143001 0.57 255 255 255
-0.139544 -0.158132 0.705 0 0 0
-0.148675 -0.0598768 0.659 0 0 0
0.0356498 0.176804 0.462 255 255 255
-0.0209719 -0.205989 0.546 255 255 255
-0.319948 -0.201997 0.615 255 255 255
-0.0165886 -0.184449 0.548 255 255 255
0.0985306 -0.101594 0.782 255 255 255
-0.129398 0.0614284 0.638 255 255 255
-0.198568 -0.139067 0.582 0 0 0
0.210367 -0.144378 0.658 255 255 255
0.0502509 -0.118449 0.848 255 255 255
-0.15845 0.0261126 0.664 255 255 255
-0.158535 -0.242999 0.729 255 255 255
-0.22016 0.108247 0.519 255 255 255
0.26338 -0.0391573 0.636 255 255 255
0.282586 0.13599 0.642 255 255 255
-0.0768242 0.109235 0.545 0 0 0
0.0641525 0.0327227 0.868 255 255 255
-0.00675026 -0.0504454 0.741 0 0 0
0.0842336 -0.283274 0.735 255 255 255
-0.187219 0.00773466 0.361 0 0 0
0.107465 0.160034 0.477 255 255 255
0.219519 -0.168554 0.644 255 255 255
-0.262934 -0.0102929 0.716 255 255 255
-0.193869 0.0586852 0.375 255 255 255
-0.147728 -0.156157 0.632 255 255 255
0.102673 -0.24452 0.73 255 255 255
-0.179794 -0.0798983 0.615 0 0 0
0.00386376 -0.204226 0.539 255 255 255
-0.197905 0.148181 0.446 255 255 255
-0.10168 -0.0532419 0.967 0 0 0
-0.0609411 0.0668149 0.65 255 255 255
0.0971822 0.104518 0.583 255 255 255
-0.209382 0.0195407 0.661 255 255 255
-0.169174 0.0881061 0.563 255 255 255
-0.22044 -0.0560674 0.64 0 0 0
-0.0239431 0.112902 0.533 255 255 255
0.0968504 0.163518 0.467 255 255 255
0.290068 0.137447 0.659 0 0 0
0.15683 0.152471 0.506 255 255 255
0.290656 0.0590449 0.646 255 255 255
0.00207377 -0.177528 0.53 255 255 255
0.226871 0.142459 0.55 255 255 255
0.149639 0.0307925 0.783 255 255 255
-0.0852238 -0.195014 0.909 255 255 255
-0.0448243 -0.182831 0.9 255 255 255
-0.00912557 0.0290228 0.738 255 255 255
0.0011562 0.148354 0.506 255 255 255
-0.186044 0.0100845 0.361 0 0 0
-0.107912 0.0559435 0.659 255 255 255
0.188309 -0.176712 0.671 255 255 255
0.269328 0.144652 0.562 255 255 255
-0.136902 -0.0591336 0.675 255 255 255
0.155508 -0.0530711 0.744 255 255 255
0.0975755 0.159591 0.478 255 255 255
-0.222368 0.0378633 0.681 255 255 255
0.154777 -0.214465 0.687 255 255 255
0.159577 -0.109376 0.724 255 255 255
0.153542 0.0944543 0.623 255 255 255
-0.172645 -0.0904052 0.335 255 255 255
-0.0891021 0.000203871 0.754 0 0 0
-0.222055 0.085814 0.56 0 0 0
-0.177923 0.135115 0.474 255 255 255
0.224867 0.145064 0.543 255 255 255
0.274963 -0.0273795 0.627 255 255 255
-0.0236075 0.159798 0.474 255 255 255
0.103619 0.084773 0.634 255 255 255
0.231831 -0.232186 0.605 255 255 255
0.234184 -0.0369444 0.671 255 255 255
-0.146576 -0.0237701 0.669 0 0 0
-0.218673 0.0620061 0.644 255 255 255
0.26086 -0.0842487 0.625 255 255 255
-0.0912754 0.10643 0.563 255 255 255
-0.2158 0.0945219 0.542 255 255 255
0.23347 0.134629 0.566 255 255 255
-0.175884 -0.162507 0.595 255 255 255
0.0989086 -0.0955967 0.785 255 255 255
0.0929881 0.149156 0.495 255 255 255
-0.173735 -0.0816827 0.335 255 255 255
0.234082 0.0954699 0.714 255 255 255
0.264929 -0.0781462 0.625 255 255 255
-0.25788 0.0562115 0.615 255 255 255
-0.123173 0.0937269 0.575 255 255 255
0.0111493 0.132357 0.511 255 255 255
-0.166111 0.134482 0.48 255 255 255
0.245433 -0.223507 0.595 255 255 255
-0.110864 -0.152786 0.913 255 255 255
-0.12836 0.071571 0.618 255 255 255
-0.294247 -0.135876 0.691 255 255 255
0.0947771 -0.00246799 0.827 255 255 255
0.178141 0.104395 0.61 255 255 255
-0.100466 0.152007 0.469 255 255 255
0.085265 -0.189884 0.744 255 255 255
-0.253278 -0.00208601 0.699 255 255 255
-0.132187 -0.0219155 0.679 0 0 0
0.237131 -0.0475785 0.667 255 255 255
0.116585 0.0582356 0.686 255 255 255
0.0725001 0.153083 0.482 255 255 255
-0.173735 -0.0811375 0.335 255 255 255
0.116069 0.171885 0.453 255 255 255
-0.068076 0.0101794 0.766 0 0 0
-0.303343 -0.111286 0.699 255 255 255
-0.181321 0.0622672 0.382 255 255 255
-0.11788 -0.196618 0.742 255 255 255
-0.135804 -0.0481491 0.675 0 0 0
0.13392 0.00406007 0.788 255 255 255
0.291389 0.13484 0.662 0 0 0
0.146072 0.161594 0.484 255 255 255
-0.0825013 0.14162 0.494 255 255 255
-0.176394 0.124127 0.498 255 255 255
0.106248 0.172242 0.452 255 255 255
0.255372 0.11345 0.696 0 0 0
0.17553 0.160758 0.496 255 255 255
0.213499 -0.184364 0.648 255 255 255
0.236429 -0.195625 0.617 255 255 255
0.122535 0.0954613 0.61 255 255 255
-0.136824 0.134858 0.487 255 255 255
-0.16572 -0.081847 0.63 0 0 0
-0.0658202 0.137367 0.508 255 255 255
0.120425 0.11834 0.563 255 255 255
0.00113106 0.154795 0.495 255 255 255
-0.00399531 -0.177999 0.534 0 0 0
-0.0778403 0.146143 0.485 255 255 255
0.154436 -0.130222 0.722 255 255 255
0.0983036 0.0909726 0.62 255 255 255
0.236399 -0.0389534 0.668 255 255 255
0.0190232 -0.201547 0.546 255 255 255
-0.269912 -0.18977 0.667 255 255 255
0.235173 0.120427 0.596 255 255 255
-0.328634 -0.14368 0.65 255 255 255
0.00122703 -0.203468 0.537 255 255 255
-0.022219 -0.0535522 0.734 255 255 255
0.274882 0.013841 0.646 255 255 255
-0.313549 -0.0396461 0.742 255 255 255
-0.141716 0.018912 0.677 255 255 255
0.207842 -0.0362629 0.7 255 255 255
0.264437 0.165152 0.52 255 255 255
-0.22108 0.088341 0.553 255 255 255
0.127319 0.021125 0.803 255 255 255
0.023776 -0.18287 0.533 255 255 255
-0.172033 0.0278479 0.654 255 255 255
-0.0853867 -0.249534 0.676 255 255 255
0.223817 -0.235098 0.61 255 255 255
-0.176466 0.0022666 0.643 255 255 255
-0.189482 -0.00608539 0.641 255 255 255
0.275543 0.10139 0.676 255 255 255
-0.0381845 0.131106 0.526 255 255 255
0.0130912 0.0890144 0.6 255 255 255
-0.107502 0.0224877 0.721 0 0 0
