ply
format ascii 1.0
comment Created by Open3D
element vertex 1323
property double x
property double y
property double z
property uchar red
property uchar green
property uchar blue
end_header
-0.461171 0.151859 1.083 255 255 255
-0.204175 0.160773 0.905 255 255 255
0.31814 0.109076 0.697 255 255 255
0.065183 0.189096 0.779 255 255 255
-0.0608623 0.238553 0.921 255 255 255
-0.116081 -0.319527 1.26 255 255 255
-0.241838 0.0487396 0.961 255 255 255
-0.124698 0.0739736 0.855 255 255 255
-0.0383565 0.120905 0.824 255 255 255
-0.217094 -0.144344 0.916 255 255 255
-0.468445 -0.105454 1.048 255 255 255
0.266381 -0.127071 0.966 255 255 255
0.501444 -0.164661 1.152 255 255 255
-0.664975 0.380752 1.359 255 255 255
-0.140481 -0.367064 1.336 0 0 0
-0.643131 -0.477169 1.31 255 255 255
-0.545052 0.345951 1.242 255 255 255
0.0264054 0.322652 0.836 0 0 0
0.519008 -0.087827 1.083 255 255 255
-0.1539 -0.200911 0.989 255 255 255
0.273978 0.154605 0.659 255 255 255
-0.0704186 0.285461 0.855 255 255 255
-0.550691 -0.248949 1.118 255 255 255
-0.41364 -0.47052 1.286 255 255 255
-0.477629 -0.249127 1.057 255 255 255
-0.136131 -0.380108 1.336 255 255 255
0.180974 -0.080025 1.007 255 255 255
-0.496142 -0.325913 1.139 255 255 255
-0.471198 -0.297014 1.094 255 255 255
-0.296436 -0.284024 1.12 255 255 255
0.0235467 0.133237 0.786 255 255 255
-0.216926 -0.054127 0.835 255 255 255
-0.0679633 0.0179583 0.779 255 255 255
-0.0440401 0.119085 0.83 255 255 255
0.266651 0.180775 0.649 0 0 0
0.12454 0.048567 0.762 0 0 0
-0.405476 -0.203552 1.002 255 255 255
-0.166167 0.172982 0.923 0 0 0
0.0709724 0.0417205 0.773 0 0 0
0.362494 -0.970839 2.519 0 0 0
-0.165024 0.207176 0.877 255 255 255
-0.408905 -0.0649017 1.027 255 255 255
-0.160609 -0.154947 0.917 0 0 0
-0.495341 0.436096 1.234 255 255 255
0.263139 0.220958 0.643 255 255 255
-0.438378 0.327716 1.124 255 255 255
0.994605 -0.914546 2.383 255 255 255
0.756627 -0.353601 1.532 255 255 255
0.162144 -0.311001 1.357 255 255 255
0.0220406 0.0685777 0.778 255 255 255
0.144791 0.158435 0.715 255 255 255
0.140703 0.061146 0.749 255 255 255
-0.110696 0.162644 0.924 255 255 255
0.168532 -1.07131 2.768 0 0 0
0.211154 -0.07769 0.958 255 255 255
-0.639968 -0.393259 1.234 255 255 255
0.257807 -0.0418524 0.924 0 0 0
0.0212815 0.163635 0.797 255 255 255
0.185867 -0.0241169 0.831 255 255 255
0.225315 -0.129442 0.972 255 255 255
-0.519612 0.21565 1.171 255 255 255
0.250116 0.250866 0.664 255 255 255
0.103472 -0.0148623 0.843 255 255 255
0.459329 -0.132983 1.092 255 255 255
-0.528402 0.452661 1.275 255 255 255
0.348095 -0.563386 1.853 255 255 255
0.704956 -0.951569 2.469 255 255 255
0.144288 0.0444349 0.755 0 0 0
0.0767922 0.212459 0.781 255 255 255
0.615698 -0.859711 2.329 255 255 255
0.0300202 0.0361184 0.788 255 255 255
-0.473665 0.359405 1.18 255 255 255
0.366327 -0.796129 2.057 255 255 255
0.116452 0.129151 0.727 255 255 255
-0.358667 -0.52208 1.372 255 255 255
0.237376 -0.0271855 0.887 255 255 255
0.491751 -0.0264902 0.967 255 255 255
-0.0409918 0.00151248 0.797 0 0 0
-0.516034 0.000300128 1.11 255 255 255
0.161128 0.191784 0.705 255 255 255
-0.167658 0.181485 0.891 255 255 255
-0.579707 -0.411332 1.234 255 255 255
0.0250473 0.148619 0.793 255 255 255
-0.679165 0.314137 1.339 255 255 255
0.189581 -0.0917475 0.992 255 255 255
-0.364796 -0.359375 1.182 255 255 255
-0.415936 0.146387 1.032 255 255 255
0.518536 -0.148907 1.132 255 255 255
0.15418 0.185057 0.71 255 255 255
-0.390957 -0.287941 1.114 255 255 255
-0.123957 -0.0246723 0.805 255 255 255
-0.455262 -0.266328 1.057 255 255 255
0.508837 -0.49615 1.686 0 0 0
0.52036 -0.11493 1.124 255 255 255
-0.2746 -0.247407 1.057 255 255 255
1.01018 -0.873512 2.356 0 0 0
0.0212425 -0.0926397 0.906 255 255 255
0.24609 -0.278912 1.31 255 255 255
-0.36834 0.0659249 1.09 255 255 255
0.0474302 0.0103521 0.779 255 255 255
0.274216 0.158413 0.657 0 0 0
-0.201006 0.162066 0.904 255 255 255
0.0861818 0.160515 0.752 255 255 255
-0.407919 -0.190888 1.004 0 0 0
0.103015 -0.717739 1.953 255 255 255
0.0953501 -0.0092526 0.832 255 255 255
0.589735 -0.235567 1.239 255 255 255
-0.304185 0.111941 1.089 255 255 255
0.229917 0.116408 0.464 255 255 255
-0.0934606 0.2849 0.837 255 255 255
-0.093166 -0.275745 1.154 255 255 255
-0.158655 0.139938 0.923 255 255 255
0.620985 -0.199666 1.229 0 0 0
-0.605161 -0.263054 1.156 255 255 255
0.158132 0.165866 0.707 255 255 255
0.0557452 -0.290918 1.297 255 255 255
0.517684 -0.252862 1.265 0 0 0
-0.178892 0.301064 0.848 255 255 255
0.205317 0.10834 0.707 255 255 255
0.267178 -0.0310256 0.738 0 0 0
0.722299 -0.520198 1.758 255 255 255
-0.6694 0.455945 1.359 255 255 255
0.0390217 -0.198212 1.07 255 255 255
1.01769 -0.870643 2.338 0 0 0
-0.693205 0.488633 1.316 255 255 255
0.238051 0.165633 0.482 255 255 255
0.246671 -0.0131345 0.745 0 0 0
-0.0422262 0.0870644 0.821 255 255 255
0.750764 -0.425585 1.616 255 255 255
-0.134755 0.0685681 0.857 255 255 255
-0.371719 0.122022 1.1 255 255 255
0.147444 0.237896 0.734 255 255 255
0.354984 -0.609704 1.923 255 255 255
0.0381355 -0.129406 0.96 255 255 255
0.157772 0.0501762 0.749 0 0 0
0.362487 -0.734695 2.017 255 255 255
-0.00208655 0.128278 0.803 255 255 255
0.29486 -0.117388 0.977 255 255 255
0.18021 0.104039 0.717 255 255 255
-0.354944 -0.124635 0.984 255 255 255
-0.170734 0.207176 0.877 255 255 255
-0.409372 0.246264 1.072 255 255 255
-0.181963 -0.0931618 0.883 255 255 255
-0.0854165 -0.193359 1.017 255 255 255
0.0340042 0.296939 0.856 255 255 255
-0.167376 -0.0900628 0.867 255 255 255
1.08436 -0.866159 2.286 0 0 0
0.17444 0.0673624 0.737 255 255 255
0.652312 -0.264362 1.291 255 255 255
0.124353 0.223575 0.746 255 255 255
0.0128582 0.321462 0.84 255 255 255
0.116395 -0.054666 0.912 255 255 255
0.242608 0.0468922 0.755 0 0 0
0.327461 -0.235833 1.262 255 255 255
-0.716891 0.42644 1.378 255 255 255
-0.0810829 -0.179868 1.025 255 255 255
0.120063 0.0823091 0.742 255 255 255
-0.615121 -0.342837 1.205 255 255 255
0.0496456 0.0518509 0.774 255 255 255
-0.626101 -0.0989372 1.196 255 255 255
-0.231743 -0.361126 1.299 255 255 255
-0.592331 0.489502 1.33 255 255 255
-0.107477 0.0970233 0.862 255 255 255
-0.587558 0.0618267 1.112 255 255 255
-0.231051 -0.0593885 0.852 255 255 255
0.0575007 0.0407243 0.778 0 0 0
0.115226 0.279261 0.783 255 255 255
-0.405002 0.00923092 1.098 255 255 255
-0.175561 0.153789 0.925 0 0 0
-0.452435 -0.0282405 1.096 255 255 255
-0.561226 -0.426125 1.242 255 255 255
-0.145247 0.286248 0.845 255 255 255
-0.217772 0.239777 0.871 255 255 255
-0.189793 0.0925156 0.886 255 255 255
-0.228908 -0.093283 0.898 255 255 255
0.198348 0.172462 0.683 255 255 255
-0.104574 0.151295 0.91 255 255 255
0.13139 0.00286233 0.812 255 255 255
0.348651 0.0786021 0.73 0 0 0
-0.593306 0.452425 1.342 255 255 255
-0.00607526 0.138966 0.812 255 255 255
-0.332244 0.250589 0.938 255 255 255
0.466011 -0.308848 1.387 0 0 0
0.27997 -0.274456 1.299 0 0 0
-0.170412 -0.327448 1.283 255 255 255
0.239528 -0.297307 1.345 255 255 255
-0.160202 0.170119 0.932 0 0 0
0.27194 -0.108543 0.969 0 0 0
-0.20427 -0.122936 0.912 255 255 255
-0.498595 0.251811 1.162 255 255 255
0.231702 0.237889 0.667 255 255 255
0.28335 -0.639492 1.947 0 0 0
0.170433 -0.0701908 0.984 0 0 0
0.0927739 0.209625 0.766 255 255 255
0.501077 -0.335243 1.403 255 255 255
0.862105 -0.538892 1.763 255 255 255
-0.296223 -0.450485 1.313 255 255 255
0.0419686 -0.0232303 0.848 255 255 255
0.26047 0.0828971 0.726 255 255 255
0.105378 0.221004 0.758 255 255 255
-0.135943 0.0187651 0.814 255 255 255
0.24534 0.226838 0.657 255 255 255
0.023337 0.106697 0.779 255 255 255
-0.0374255 -0.00763284 0.804 255 255 255
-0.361286 -0.255971 1.064 255 255 255
0.203702 0.00792714 0.79 255 255 255
0.0459887 -0.189506 1.07 255 255 255
-0.37033 -0.105928 1.004 255 255 255
-0.198588 -0.0224906 0.821 0 0 0
0.358951 -0.999321 2.582 0 0 0
0.368357 -0.678644 1.978 0 0 0
-0.339433 0.254453 0.941 255 255 255
-0.0939411 -0.52915 1.535 0 0 0
-0.647681 0.267319 1.302 255 255 255
0.664859 -0.634997 1.905 255 255 255
-0.235779 0.245118 0.88 255 255 255
0.248076 -0.328319 1.393 255 255 255
-0.246078 0.145561 0.902 255 255 255
0.0692879 -0.352752 1.4 255 255 255
-0.469496 -0.19416 1.039 255 255 255
-0.383165 -0.203937 1.012 255 255 255
0.361229 -0.728874 2.01 255 255 255
0.777964 -0.559575 1.774 255 255 255
0.122686 0.304898 0.79 255 255 255
0.385082 -0.598443 1.917 255 255 255
-0.0144129 -0.179069 1.03 255 255 255
0.269839 -0.631204 1.941 255 255 255
-0.186437 0.0687412 0.877 255 255 255
0.396821 -0.168067 1.137 255 255 255
0.0673609 0.267429 0.821 255 255 255
-0.123256 0.0120673 0.809 255 255 255
-0.338872 0.27023 0.948 255 255 255
-0.615369 -0.0536673 1.229 255 255 255
0.724846 -0.441992 1.71 0 0 0
-0.0575962 0.0141007 0.776 255 255 255
-0.221525 -0.0143157 0.812 255 255 255
-0.296856 -0.355958 1.244 0 0 0
-0.0406294 -0.608956 1.71 255 255 255
0.421196 0.0398214 0.839 255 255 255
-0.0786091 -0.0176496 0.784 0 0 0
-0.379203 -0.362366 1.173 255 255 255
-0.303747 -0.162752 0.954 255 255 255
-0.314925 0.323362 0.941 255 255 255
0.612449 -0.659164 1.997 255 255 255
0.0389992 0.173328 0.788 255 255 255
-0.0856186 -0.0972293 0.868 255 255 255
0.068181 0.0887832 0.756 255 255 255
0.102875 0.142298 0.74 255 255 255
-0.0686439 -0.119047 0.905 255 255 255
0.267541 0.045724 0.756 0 0 0
-0.34712 0.161338 0.98 255 255 255
0.22886 -0.0456912 0.882 255 255 255
-0.405562 0.0671284 1.027 255 255 255
-0.309618 -0.232376 1.036 255 255 255
-0.203831 -0.00918588 0.826 255 255 255
-0.21292 0.146635 0.937 255 255 255
0.217222 0.243299 0.676 255 255 255
-0.213518 0.195837 0.871 255 255 255
-0.100941 0.130736 0.891 255 255 255
-0.0754836 -0.203289 1.017 255 255 255
0.221222 0.0568753 0.741 255 255 255
0.00622216 0.261551 0.868 255 255 255
0.0830581 0.0802774 0.757 255 255 255
0.0370942 0.130111 0.775 255 255 255
-0.480117 -0.348126 1.145 0 0 0
0.111358 -0.281076 1.281 255 255 255
-0.227091 -0.0249175 0.813 255 255 255
-0.22394 0.284993 0.862 255 255 255
-0.118048 -0.114066 0.878 0 0 0
0.0520964 -0.565515 1.739 255 255 255
0.266925 -0.0201073 0.734 255 255 255
-0.439383 -0.48187 1.294 255 255 255
0.8308 -0.947846 2.449 255 255 255
-0.280031 0.151209 0.937 255 255 255
0.305622 0.0788063 0.721 0 0 0
0.731168 -0.605602 1.853 255 255 255
0.477176 -0.0232464 0.963 255 255 255
0.0048868 0.282993 0.882 255 255 255
0.707584 -0.586494 1.831 255 255 255
-0.00497594 0.209097 0.85 255 255 255
-0.217347 0.339128 0.875 255 255 255
0.071493 -0.0446072 0.889 255 255 255
0.0611843 0.24671 0.81 255 255 255
-0.00355726 -0.349396 1.369 255 255 255
-0.33954 -0.269675 1.106 255 255 255
-0.386943 -0.395125 1.203 255 255 255
-0.486124 -0.00514655 1.116 255 255 255
0.0959373 0.31681 0.814 255 255 255
-0.632823 0.44051 1.366 255 255 255
0.0490683 0.115983 0.765 255 255 255
0.0216042 -0.215625 1.07 255 255 255
-0.402218 0.0938686 1.027 255 255 255
0.27104 0.0761218 0.729 0 0 0
0.208338 -0.0805726 0.974 255 255 255
0.140721 0.2052 0.724 0 0 0
-0.279527 -0.0401765 0.887 0 0 0
-0.276746 0.175882 0.892 255 255 255
0.0185227 0.0452092 0.79 0 0 0
-0.0548456 -0.0406432 0.81 0 0 0
-0.0772343 -0.0456594 0.783 255 255 255
0.232462 -0.213768 1.196 255 255 255
-0.28646 0.30497 0.909 255 255 255
0.0269028 -0.00109912 0.81 255 255 255
0.0284093 0.116838 0.779 255 255 255
-0.2087 -0.229131 1.029 255 255 255
-0.432599 0.277757 1.1 255 255 255
-0.333185 -0.0489549 0.945 255 255 255
-0.20101 0.0252462 0.854 255 255 255
0.118855 0.0847241 0.742 255 255 255
0.0530802 0.147875 0.769 255 255 255
0.142222 -0.327026 1.378 255 255 255
-0.0437447 -0.10171 0.908 255 255 255
-0.606082 0.473047 1.351 255 255 255
0.524348 -0.225122 1.237 255 255 255
-0.113428 -0.125433 0.898 255 255 255
0.47962 -0.27314 1.313 0 0 0
-0.0995523 0.0186499 0.809 255 255 255
-0.0969424 -0.534419 1.543 0 0 0
-0.18421 0.0775686 0.88 255 255 255
0.0642626 0.0626971 0.768 255 255 255
0.188798 0.233844 0.697 0 0 0
0.0850698 0.187942 0.764 255 255 255
-0.257003 0.253412 0.889 255 255 255
0.130404 0.22268 0.739 255 255 255
0.318376 0.0831521 0.718 0 0 0
-0.363771 -0.0644987 0.995 255 255 255
0.171595 0.0833539 0.73 255 255 255
-0.0146441 -0.0619425 0.849 0 0 0
0.443978 -0.655204 1.985 0 0 0
0.219257 0.0419777 0.755 255 255 255
0.0400934 -0.550519 1.71 255 255 255
-0.40004 0.0941428 1.03 255 255 255
-0.267133 0.188311 0.889 255 255 255
-0.605186 0.275536 1.262 255 255 255
-0.0676109 0.0355876 0.805 0 0 0
0.174899 0.22276 0.705 255 255 255
-0.540927 -0.27871 1.128 0 0 0
0.138937 0.112588 0.727 255 255 255
-0.584404 0.263508 1.244 255 255 255
0.982968 -0.90679 2.383 0 0 0
-0.0441594 -0.177331 1.02 255 255 255
0.127305 0.202337 0.735 255 255 255
-0.20229 -0.224246 1.022 255 255 255
0.0196582 0.0589 0.784 255 255 255
0.266601 -0.0767784 0.893 0 0 0
-0.492429 0.227148 1.152 255 255 255
0.0390229 -0.0217472 0.844 255 255 255
-0.265918 -0.179452 0.952 255 255 255
-0.549305 0.503459 1.31 255 255 255
0.0527544 -0.117782 0.942 255 255 255
-0.119548 -0.587149 1.543 0 0 0
0.456605 -0.534106 1.805 0 0 0
0.729826 -0.596012 1.842 255 255 255
-0.232629 0.00291874 0.828 255 255 255
-0.0168378 0.302169 0.892 255 255 255
0.23066 0.187114 0.664 255 255 255
-0.381666 -0.146486 0.991 255 255 255
0.644578 -0.578329 1.882 0 0 0
0.243236 -0.250209 1.262 255 255 255
0.746806 -0.451136 1.642 0 0 0
-0.548303 0.0812128 1.081 255 255 255
-0.292888 -0.0233448 0.906 255 255 255
0.29991 -0.00676893 0.713 255 255 255
0.134942 0.211942 0.731 255 255 255
0.188915 -0.319602 1.375 255 255 255
0.223924 -0.112923 0.966 255 255 255
-0.37499 -0.129786 0.999 255 255 255
-0.0200801 -0.389593 1.435 0 0 0
0.425779 -0.395699 1.591 255 255 255
-0.00544426 -0.114768 0.93 255 255 255
-0.200304 0.0210029 0.851 255 255 255
0.167651 -0.300164 1.348 255 255 255
-0.39174 -0.186992 0.992 255 255 255
-0.372001 0.183256 1.013 255 255 255
-0.485814 0.042433 1.079 255 255 255
-0.213033 -0.451876 1.369 255 255 255
-0.370748 -0.136948 0.992 255 255 255
0.0301996 -0.195737 1.066 255 255 255
0.511898 -0.0908303 1.098 255 255 255
0.00843302 0.0173334 0.809 255 255 255
-0.384052 -0.065471 1.01 255 255 255
0.867484 -0.611539 1.774 255 255 255
-0.310514 -0.221213 1.039 255 255 255
0.242977 0.0385454 0.76 255 255 255
-0.15411 -0.0517571 0.819 255 255 255
0.277959 -0.0342227 0.921 0 0 0
0.237509 0.183319 0.662 0 0 0
-0.409439 0.0998683 1.02 255 255 255
-0.557773 0.376722 1.257 255 255 255
0.917551 -0.694377 1.941 255 255 255
0.15377 0.243727 0.73 255 255 255
0.202132 -0.0484099 0.854 0 0 0
0.272609 0.036965 0.753 255 255 255
0.241429 0.219688 0.658 255 255 255
-0.668483 -0.184027 1.273 255 255 255
0.206892 0.135516 0.693 255 255 255
-0.0347529 0.196575 0.868 255 255 255
-0.545559 0.323642 1.234 255 255 255
-0.0684868 -0.0406662 0.785 255 255 255
-0.155202 0.0259498 0.832 255 255 255
0.207439 0.150679 0.68 255 255 255
0.744565 -0.475989 1.673 255 255 255
0.12318 0.274268 0.769 255 255 255
0.0958895 0.0227925 0.771 255 255 255
0.468942 -0.346951 1.452 255 255 255
0.19075 0.240546 0.7 255 255 255
0.195144 -0.395091 1.491 255 255 255
-0.477178 -0.126772 1.041 255 255 255
0.0753173 0.175968 0.766 255 255 255
0.144621 -0.116788 0.972 255 255 255
0.257661 0.115337 0.687 255 255 255
-0.0114891 -0.229555 1.07 255 255 255
-0.00085998 0.28716 0.886 255 255 255
0.0479481 0.0713526 0.767 255 255 255
-0.491441 -0.055395 1.141 255 255 255
0.89375 -0.8874 2.383 255 255 255
-0.574492 0.16518 1.178 255 255 255
-0.0131059 -0.0475597 0.839 255 255 255
-0.131965 0.26521 0.857 255 255 255
0.219871 0.162512 0.674 255 255 255
0.185779 0.167492 0.69 0 0 0
-0.205977 0.0661502 0.9 255 255 255
0.316252 -0.616657 1.935 255 255 255
-0.137805 0.268576 0.85 0 0 0
-0.14941 0.212186 0.886 255 255 255
0.1439 -0.690187 1.947 0 0 0
-0.456495 -0.121488 1.025 255 255 255
0.0614179 0.281505 0.831 255 255 255
0.115359 -0.354264 1.406 255 255 255
0.128261 0.270531 0.762 255 255 255
-0.0998558 0.0703582 0.845 255 255 255
0.353231 -0.0815671 0.967 0 0 0
0.103998 -0.117576 0.992 255 255 255
0.509304 -0.0985129 1.104 255 255 255
0.3941 -0.217421 1.239 255 255 255
0.0865839 -0.691218 1.941 255 255 255
-0.550965 -0.140788 1.126 0 0 0
-0.137922 -0.565039 1.524 0 0 0
-0.481459 0.355143 1.185 255 255 255
0.215367 -0.00517831 0.83 0 0 0
0.978438 -0.778041 2.136 255 255 255
0.0351081 0.272405 0.849 255 255 255
0.0829258 0.248647 0.791 255 255 255
-0.117697 -0.0562517 0.807 0 0 0
-0.321974 0.00696275 1.027 255 255 255
-0.159637 -0.0531547 0.82 255 255 255
-0.697484 0.376495 1.384 255 255 255
0.238002 -0.162007 1.096 255 255 255
0.0344465 -0.0133304 0.833 255 255 255
-0.253982 -0.129213 0.904 255 255 255
0.0268625 0.0905447 0.771 0 0 0
-0.116968 -0.0376316 0.802 0 0 0
-0.15147 0.182389 0.925 0 0 0
0.0656336 0.297094 0.833 255 255 255
-0.505194 0.149489 1.118 255 255 255
0.139909 -0.640239 1.893 0 0 0
0.313738 0.0364741 0.743 0 0 0
0.265064 0.0550516 0.749 0 0 0
-0.611151 -0.418364 1.249 255 255 255
0.130441 -0.196004 1.077 255 255 255
0.47235 -0.0319211 0.989 255 255 255
-0.45781 -0.0937836 1.051 255 255 255
0.920629 -0.817798 2.286 255 255 255
-0.138253 0.00286233 0.812 0 0 0
-0.0829129 -0.188575 1.027 255 255 255
-0.525807 -0.307378 1.139 255 255 255
-0.362066 -0.32253 1.167 0 0 0
-0.477901 0.0370965 1.077 255 255 255
0.0751082 -0.0306986 0.864 255 255 255
0.655075 -0.287286 1.381 255 255 255
0.238545 0.168335 0.483 255 255 255
0.855946 -0.490642 1.705 255 255 255
-0.130671 -0.01421 0.806 255 255 255
-0.297221 -0.470405 1.327 255 255 255
-0.390139 -0.118417 1.013 255 255 255
0.16104 0.232187 0.72 255 255 255
-0.139411 -0.181598 0.989 255 255 255
-0.143359 0.165391 0.931 255 255 255
-0.0968451 -0.0497348 0.787 0 0 0
-0.298899 -0.115262 0.934 0 0 0
-0.0435626 0.0763761 0.821 255 255 255
0.0358327 0.126328 0.775 255 255 255
0.181759 -0.0365497 0.837 0 0 0
-0.596822 0.449059 1.345 255 255 255
-0.451577 -0.225782 1.029 0 0 0
-0.459083 -0.25602 1.05 255 255 255
-0.0756073 -0.132708 0.918 255 255 255
-0.495547 0.120906 1.044 255 255 255
0.196523 0.0181427 0.787 255 255 255
0.107904 -0.213947 1.135 255 255 255
0.342664 0.0205322 0.735 0 0 0
0.279351 0.159818 0.654 255 255 255
0.150719 0.0302419 0.769 255 255 255
0.272944 0.197747 0.639 0 0 0
0.0537986 -0.224678 1.124 255 255 255
0.0188949 0.273632 0.866 255 255 255
0.286449 0.16417 0.646 255 255 255
0.16707 -0.154173 1.043 255 255 255
-0.272781 -0.242351 1.05 255 255 255
-0.379833 0.0654007 1.053 255 255 255
-0.255457 0.144351 0.942 255 255 255
-0.491531 0.0926462 1.032 255 255 255
-0.247706 0.216526 0.892 255 255 255
0.269035 -0.00930622 0.73 255 255 255
-0.203717 0.142635 0.951 0 0 0
-0.153046 -0.561771 1.502 255 255 255
-0.0923457 0.241551 0.921 255 255 255
-0.525582 -0.235133 1.096 255 255 255
0.161346 0.278295 0.743 255 255 255
0.0886357 0.317811 0.82 255 255 255
0.344959 -0.133122 1.012 0 0 0
-0.0156109 -0.0347672 0.827 255 255 255
0.273904 0.218897 0.634 255 255 255
-0.176028 0.318289 0.861 255 255 255
-0.437436 -0.466733 1.27 255 255 255
0.102297 0.237649 0.772 255 255 255
0.738237 -0.912993 2.42 255 255 255
0.215065 0.103445 0.705 255 255 255
-0.361943 0.130826 1.114 255 255 255
0.0400026 -0.152129 1.007 255 255 255
-0.233255 -0.456748 1.357 255 255 255
0.0200936 -0.0346338 0.857 255 255 255
-0.623891 -0.328564 1.203 255 255 255
0.181137 0.009376 0.804 0 0 0
0.254244 0.229703 0.647 255 255 255
-0.0181483 0.010897 0.82 255 255 255
-0.43015 0.373522 1.141 255 255 255
0.488947 -0.223666 1.229 255 255 255
-0.568106 0.474366 1.324 255 255 255
0.215783 0.198693 0.517 0 0 0
0.0433165 -0.0940102 0.905 255 255 255
0.213605 0.166048 0.675 255 255 255
0.104757 -0.123606 1.015 255 255 255
0.0988156 0.195557 0.755 255 255 255
0.280876 0.0932513 0.706 255 255 255
0.318925 0.0327583 0.741 0 0 0
-0.106405 0.221624 0.913 255 255 255
0.235075 0.182031 0.499 255 255 255
0.199839 -0.46139 1.65 0 0 0
0.24009 0.0982947 0.701 255 255 255
0.0745539 0.0315752 0.771 0 0 0
-0.0373347 -0.148423 0.972 255 255 255
0.220486 0.0137191 0.755 0 0 0
0.6504 -0.592824 1.899 255 255 255
0.295197 0.0288262 0.733 255 255 255
-0.526061 0.192859 1.16 255 255 255
0.236419 0.173166 0.49 255 255 255
-0.35196 -0.161822 0.967 255 255 255
-0.234502 0.206419 0.886 255 255 255
-0.51649 -0.323337 1.143 255 255 255
-0.264467 -0.112037 0.92 255 255 255
0.0809339 0.198704 0.772 255 255 255
0.263611 -0.204037 1.196 255 255 255
-0.122186 -0.329022 1.281 255 255 255
0.0188295 -0.0545377 0.863 255 255 255
-0.247715 -0.089889 0.908 255 255 255
-0.34295 -0.0145193 1.01 255 255 255
0.0930388 0.192633 0.758 255 255 255
-0.538503 0.125894 1.072 255 255 255
0.166292 -0.0460121 0.917 255 255 255
0.265772 0.0319783 0.751 255 255 255
-0.161275 0.18119 0.904 255 255 255
-0.317082 -0.407696 1.26 255 255 255
-0.602429 0.242791 1.252 255 255 255
0.250656 -0.111351 0.966 255 255 255
0.569471 -0.638076 1.972 255 255 255
-0.38077 0.101755 1.075 255 255 255
-0.559084 -0.0976781 1.158 255 255 255
-0.334617 -0.1827 0.995 255 255 255
-0.194925 0.215353 0.864 255 255 255
0.146163 -0.676486 1.935 0 0 0
-0.10679 -0.00632447 0.804 255 255 255
-0.309713 -0.349637 1.215 0 0 0
0.24257 0.169348 0.477 0 0 0
-0.558483 0.359497 1.254 255 255 255
-0.278173 -0.247713 1.051 255 255 255
-0.38646 -0.0919503 1.012 255 255 255
0.0423266 0.245456 0.828 255 255 255
-0.428036 0.0477148 1.041 255 255 255
-0.227044 0.143273 0.945 255 255 255
0.104836 0.00673403 0.801 255 255 255
0.177948 0.122319 0.708 255 255 255
-0.296769 -0.540299 1.396 255 255 255
-0.0688775 0.172397 0.889 255 255 255
0.284126 -0.72091 1.997 255 255 255
-0.155696 0.0344829 0.842 255 255 255
-0.0441594 -0.175671 1.02 255 255 255
1.0732 -0.869879 2.286 0 0 0
-0.164083 0.0697683 0.872 255 255 255
0.245093 -0.445517 1.612 255 255 255
0.167827 0.248793 0.724 255 255 255
-0.223595 -0.54342 1.422 255 255 255
0.351288 -0.571598 1.87 255 255 255
-0.163895 0.225603 0.871 255 255 255
-0.190264 0.251327 0.862 255 255 255
0.195685 -0.857991 2.294 255 255 255
-0.173225 0.246832 0.861 255 255 255
-0.425913 0.224117 1.083 255 255 255
-0.66538 0.194518 1.283 255 255 255
0.326357 0.0708641 0.736 0 0 0
0.239806 -0.485093 1.705 0 0 0
-0.253799 0.321305 0.873 255 255 255
0.143479 -0.264195 1.27 255 255 255
0.363326 0.0739563 0.743 0 0 0
0.771844 -0.489365 1.691 255 255 255
-0.114149 0.0651649 0.849 255 255 255
0.0954642 0.152357 0.748 255 255 255
0.325075 -0.270096 1.319 255 255 255
-0.32807 0.281029 0.948 255 255 255
-0.534469 -0.278216 1.126 255 255 255
0.227579 -0.153206 1.048 255 255 255
0.268743 0.0134284 0.739 255 255 255
-0.193575 0.0616053 0.877 255 255 255
0.267429 -0.0678777 0.872 0 0 0
-0.183184 0.112515 0.896 255 255 255
-0.496353 -0.256068 1.079 255 255 255
0.0323822 0.26996 0.85 255 255 255
0.185205 -0.293583 1.348 255 255 255
-0.196238 -0.00381841 0.828 255 255 255
-0.116239 0.127119 0.886 255 255 255
-0.0500944 0.284959 0.916 255 255 255
0.75443 -0.412754 1.607 255 255 255
0.46503 -0.0337001 0.994 255 255 255
0.00189882 0.318018 0.831 255 255 255
0.477106 -0.290093 1.342 0 0 0
-0.52116 0.313409 1.21 255 255 255
0.643724 -0.489107 1.739 255 255 255
0.337366 -0.127801 1.009 255 255 255
-0.29381 -0.163098 0.947 255 255 255
0.190563 0.205893 0.687 255 255 255
-0.122647 -0.0325323 0.805 255 255 255
0.293832 0.0153836 0.718 255 255 255
0.131192 0.111865 0.73 255 255 255
-0.179924 0.148886 0.932 255 255 255
0.317789 -0.135607 0.994 255 255 255
0.285569 0.138939 0.661 0 0 0
-0.234633 -0.0462494 0.84 255 255 255
-0.194634 0.170648 0.895 255 255 255
0.227775 0.000223338 0.826 255 255 255
-0.244345 -0.0454167 0.85 255 255 255
0.0967666 0.0414507 0.768 0 0 0
-0.257634 -0.0877954 0.917 255 255 255
-0.178981 -0.180812 0.935 255 255 255
0.168295 0.291949 0.747 255 255 255
-0.622272 0.00610556 1.185 255 255 255
0.115218 0.249514 0.766 255 255 255
-0.340941 -0.128776 0.967 0 0 0
0.182544 0.100538 0.717 255 255 255
0.175395 0.224543 0.707 255 255 255
-0.258396 -0.130684 0.904 255 255 255
0.331689 -0.218825 1.247 255 255 255
-0.231326 0.250559 0.874 255 255 255
-0.474755 0.130393 1.066 255 255 255
-0.607091 -0.302566 1.178 255 255 255
-0.199605 0.213033 0.866 255 255 255
0.00186683 0.167741 0.817 255 255 255
0.199103 0.197679 0.678 255 255 255
-0.0724904 0.30784 0.801 255 255 255
0.0774048 0.0684074 0.762 255 255 255
-0.426878 -0.230899 1.022 255 255 255
-0.0896774 0.0320509 0.815 0 0 0
0.851521 -0.570129 1.789 255 255 255
0.584311 -0.56749 1.837 255 255 255
-0.262026 -0.375701 1.313 255 255 255
0.281404 -0.125889 0.969 255 255 255
0.228732 0.0299666 0.762 255 255 255
0.649738 -0.504464 1.763 255 255 255
0.0987499 0.0325318 0.764 0 0 0
0.168774 0.108857 0.718 255 255 255
0.0692413 -0.0291909 0.861 255 255 255
0.713412 -0.380423 1.603 0 0 0
-0.240901 -0.302157 1.169 255 255 255
-0.134074 0.233662 0.88 255 255 255
1.01014 -0.866356 2.347 0 0 0
0.353376 0.0563011 0.766 255 255 255
0.0244472 0.077042 0.774 255 255 255
0.0325764 -0.103213 0.935 255 255 255
0.12454 0.0460869 0.762 0 0 0
0.185846 -0.0379118 0.837 0 0 0
-0.289979 -0.0347906 0.897 255 255 255
-0.0610609 -0.198216 1.025 255 255 255
0.628459 -0.894644 2.392 255 255 255
-0.429396 -0.362983 1.139 255 255 255
-0.680475 0.21108 1.308 255 255 255
-0.227799 0.269404 0.866 255 255 255
0.178848 0.127899 0.707 255 255 255
0.199716 0.0845554 0.72 255 255 255
-0.291616 0.0631427 1.044 255 255 255
-0.0381433 -0.207287 1.037 255 255 255
0.221406 0.236392 0.672 255 255 255
0.410904 -0.753408 1.997 255 255 255
0.161781 0.0644565 0.745 255 255 255
0.46712 -0.0457025 1.009 255 255 255
-0.163869 0.140544 0.927 255 255 255
0.314747 -0.285086 1.339 255 255 255
-0.0355663 -0.540895 1.607 255 255 255
-0.550965 -0.133459 1.126 0 0 0
-0.47814 -0.425913 1.196 255 255 255
-0.334044 -0.529999 1.381 255 255 255
-0.596807 0.49934 1.316 255 255 255
0.638907 -0.898385 2.402 255 255 255
0.133487 0.0192013 0.778 255 255 255
0.285776 -0.282331 1.316 0 0 0
0.137451 -0.0134584 0.841 255 255 255
-0.68373 0.471997 1.348 255 255 255
-0.347648 -0.174625 0.977 255 255 255
-0.499759 0.148954 1.114 255 255 255
0.269525 -0.119211 0.966 255 255 255
-0.49776 -0.0575528 1.147 255 255 255
-0.32437 0.208352 0.92 255 255 255
0.183492 -0.09355 0.994 0 0 0
-0.191271 0.058483 0.873 255 255 255
0.0695182 -0.163122 1.057 255 255 255
-0.0868165 -0.0254659 0.789 255 255 255
0.151601 0.242871 0.731 255 255 255
-0.334744 0.228285 0.928 255 255 255
0.216502 0.19013 0.667 0 0 0
-0.69625 -0.0537491 1.33 255 255 255
0.0589294 -0.0493327 0.896 255 255 255
-0.636975 -0.124031 1.213 255 255 255
0.252232 -0.487654 1.714 0 0 0
-0.663907 0.484099 1.339 255 255 255
0.323774 0.0470785 0.758 0 0 0
-0.563386 0.504612 1.313 255 255 255
0.114638 0.202938 0.746 255 255 255
0.320752 0.112146 0.688 255 255 255
-0.440964 0.0196429 1.081 255 255 255
-0.087935 0.276897 0.863 255 255 255
0.242184 0.241857 0.663 255 255 255
0.196944 0.0409649 0.759 255 255 255
-0.27381 -0.201906 0.986 0 0 0
-0.522542 -0.105785 1.124 0 0 0
0.897271 -0.793423 2.228 255 255 255
0.25097 -0.0594997 0.874 255 255 255
0.228445 0.208583 0.667 0 0 0
-0.555836 0.32092 1.239 255 255 255
0.739437 -0.41082 1.62 255 255 255
0.43545 -0.300385 1.369 255 255 255
0.245595 0.204953 0.652 0 0 0
-0.316297 -0.285135 1.139 255 255 255
0.492784 -0.259153 1.286 0 0 0
0.0585005 0.323607 0.828 255 255 255
0.298006 0.0873365 0.714 255 255 255
0.261731 -0.0300267 0.743 0 0 0
0.213765 0.153773 0.679 255 255 255
0.239123 0.16842 0.481 0 0 0
-0.360905 0.00202676 1.068 255 255 255
-0.472878 -0.123147 1.039 255 255 255
-0.52313 -0.40727 1.21 255 255 255
-0.432795 -0.273887 1.087 255 255 255
-0.224763 -0.113904 0.923 0 0 0
0.247333 0.00749566 0.747 255 255 255
0.320766 -0.218299 1.244 255 255 255
0.678266 -0.303396 1.425 255 255 255
0.534637 -0.428914 1.599 0 0 0
0.48935 -0.193036 1.225 0 0 0
0.479317 -0.0785773 1.077 255 255 255
0.299221 0.0339183 0.74 0 0 0
0.181041 0.0863224 0.725 255 255 255
0.27347 0.00492206 0.726 255 255 255
0.178216 0.141441 0.7 255 255 255
0.14408 -0.340385 1.396 0 0 0
0.261663 -0.130215 0.966 255 255 255
-0.143883 -0.483002 1.435 255 255 255
-0.503372 -0.284073 1.106 255 255 255
-0.0270896 0.306586 0.808 255 255 255
0.0455983 -0.078144 0.892 0 0 0
0.0368461 0.236798 0.826 255 255 255
-0.476974 -0.113981 1.048 255 255 255
0.477293 -0.589733 1.899 255 255 255
-0.0431591 -0.605395 1.7 255 255 255
-0.268577 -0.170443 0.945 255 255 255
-0.20407 0.0312741 0.867 255 255 255
-0.505175 0.15185 1.122 255 255 255
0.0539787 0.115832 0.764 255 255 255
0.287242 -0.33357 1.396 255 255 255
-0.350975 0.077832 1.108 255 255 255
-0.138306 -0.369238 1.336 0 0 0
-0.591726 0.414621 1.319 255 255 255
0.493691 -0.483671 1.7 0 0 0
0.00605307 -0.465315 1.547 0 0 0
0.219759 0.184703 0.667 255 255 255
-0.21596 0.0900814 0.905 255 255 255
-0.235967 -0.248583 1.077 255 255 255
-0.347964 -0.293661 1.158 255 255 255
-0.399009 0.030086 1.077 255 255 255
-0.136184 0.0398689 0.84 255 255 255
-0.276549 -0.407222 1.291 255 255 255
-0.0427656 -0.537969 1.583 255 255 255
-0.723134 0.416581 1.39 255 255 255
0.263493 0.0269816 0.748 255 255 255
0.187667 -0.0891435 0.999 255 255 255
0.448933 -0.236944 1.257 255 255 255
0.130917 -0.0162341 0.843 255 255 255
-0.470616 -0.0106138 1.118 255 255 255
0.0206863 -0.00783221 0.825 255 255 255
-0.141153 0.306034 0.862 255 255 255
0.26885 0.00259443 0.736 255 255 255
0.258057 0.212528 0.646 255 255 255
0.67215 -0.606489 1.865 255 255 255
0.222263 0.181719 0.668 255 255 255
0.69526 -0.63246 1.87 255 255 255
-0.0833448 -0.522878 1.524 0 0 0
0.401325 -0.65853 1.966 255 255 255
-0.389061 0.086678 1.041 255 255 255
-0.645694 0.336473 1.324 255 255 255
-0.0337909 -0.00637954 0.811 255 255 255
-0.0792178 -0.123874 0.908 255 255 255
0.0236366 0.0438681 0.789 255 255 255
-0.213539 0.157129 0.901 255 255 255
0.642346 -0.386312 1.595 255 255 255
0.145435 0.0361193 0.761 255 255 255
-0.402451 -0.50862 1.354 255 255 255
-0.16076 -0.23417 1.044 255 255 255
-0.220775 0.00692739 0.824 255 255 255
0.00697538 0.0479619 0.793 0 0 0
-0.373707 -0.338302 1.156 255 255 255
-0.00592563 0.0646564 0.792 255 255 255
0.47265 -0.433485 1.646 255 255 255
-0.182823 0.324917 0.86 255 255 255
0.0136329 0.0172477 0.805 255 255 255
-0.537258 0.0596583 1.073 0 0 0
-0.136896 0.0369581 0.836 255 255 255
0.210098 0.0177739 0.771 0 0 0
0.239596 0.00271076 0.769 255 255 255
-0.397123 -0.517574 1.366 255 255 255
-0.40586 -0.147213 1.007 255 255 255
0.148841 0.246593 0.735 255 255 255
0.221931 0.199899 0.667 255 255 255
-0.49446 0.400382 1.217 255 255 255
0.41218 -0.628449 1.972 0 0 0
0.118445 0.115745 0.732 0 0 0
-0.0257305 -0.0675484 0.85 255 255 255
-0.38324 0.123709 1.039 255 255 255
0.00803973 -0.0934577 0.914 255 255 255
0.0877863 0.0313705 0.766 0 0 0
-0.435249 0.120961 1.03 255 255 255
-0.0789683 -0.0325811 0.775 255 255 255
0.237893 -0.0608522 0.873 0 0 0
-0.0208396 -0.242239 1.104 255 255 255
-0.312281 -0.389909 1.249 255 255 255
-0.272457 0.271749 0.897 255 255 255
-0.656546 -0.444716 1.278 255 255 255
0.602886 -0.137705 1.178 255 255 255
-0.146375 0.309577 0.868 255 255 255
0.0938981 0.0288397 0.765 0 0 0
0.58532 -0.189884 1.205 0 0 0
0.345807 -0.840572 2.181 255 255 255
0.135545 -0.0758954 0.975 0 0 0
-0.641323 0.288506 1.302 255 255 255
-0.159858 0.177321 0.93 0 0 0
0.140601 0.0382918 0.755 0 0 0
-0.0827901 -0.285303 1.194 255 255 255
-0.379379 -0.130176 1.002 255 255 255
0.0391616 -0.0245812 0.847 255 255 255
-0.413224 -0.374045 1.156 255 255 255
0.365552 -1.08553 2.793 255 255 255
-0.0541218 -0.0530898 0.819 0 0 0
0.0913053 -0.00111269 0.82 255 255 255
0.261662 0.0684687 0.736 0 0 0
0.250367 -0.272342 1.299 255 255 255
-0.184206 0.170326 0.901 255 255 255
-0.167658 0.106087 0.891 255 255 255
-0.0333265 -0.127788 0.948 255 255 255
0.716576 -0.511616 1.758 255 255 255
-0.181546 -0.512254 1.419 255 255 255
0.102458 0.116535 0.737 255 255 255
-0.386399 -0.429556 1.252 255 255 255
-0.235325 -0.0334618 0.828 255 255 255
-0.622393 -0.404933 1.239 255 255 255
0.258384 0.124669 0.683 255 255 255
-0.476661 0.213238 1.128 255 255 255
0.0139208 -0.00379074 0.822 255 255 255
-0.374019 -0.466505 1.316 255 255 255
-0.00790882 -0.33381 1.351 255 255 255
0.112755 -0.508659 1.673 255 255 255
0.71813 -0.356792 1.535 255 255 255
-0.200638 -0.109218 0.909 0 0 0
-0.186796 0.153124 0.921 255 255 255
0.494119 -0.208472 1.222 255 255 255
0.58958 -0.121543 1.152 255 255 255
0.11725 0.234873 0.755 255 255 255
0.335892 0.0119611 0.723 0 0 0
0.00564153 0.106512 0.787 255 255 255
0.178595 0.234565 0.706 255 255 255
0.514326 -0.485175 1.686 0 0 0
-0.224469 0.341976 0.875 255 255 255
-0.476853 -0.217181 1.044 0 0 0
0.204118 0.160638 0.68 0 0 0
0.582958 -0.14756 1.165 255 255 255
0.310534 -0.241611 1.26 0 0 0
0.393929 0.0403522 0.822 255 255 255
0.314671 0.0417553 0.751 0 0 0
-0.235661 0.31559 0.869 255 255 255
0.206142 0.0153437 0.775 0 0 0
-0.0882389 -0.393953 1.369 0 0 0
0.0038639 -0.547154 1.691 255 255 255
-0.398596 0.128337 1.022 255 255 255
-0.44755 -0.394696 1.167 255 255 255
0.290892 0.0923633 0.708 255 255 255
0.37996 -0.0743087 0.975 255 255 255
-0.392709 0.166915 1.024 255 255 255
0.326382 0.10115 0.705 255 255 255
-0.217945 0.0381099 0.895 255 255 255
0.262829 0.179996 0.65 255 255 255
-0.356387 -0.123534 0.988 255 255 255
0.315118 0.0530354 0.755 255 255 255
-0.105806 0.301683 0.827 255 255 255
-0.647866 0.464253 1.351 255 255 255
0.880267 -0.759002 2.151 255 255 255
-0.218637 -0.087711 0.886 255 255 255
-0.074498 0.27738 0.887 0 0 0
0.0545439 0.158502 0.772 255 255 255
-0.104574 0.240147 0.91 255 255 255
-0.488424 -0.341268 1.147 0 0 0
0.0876203 -0.00647393 0.823 255 255 255
0.281262 0.027671 0.734 255 255 255
0.613542 -0.344075 1.47 255 255 255
-0.0331349 -0.538664 1.616 255 255 255
-0.0170186 0.160956 0.83 255 255 255
-0.528104 -0.106538 1.132 0 0 0
-0.59339 0.0977662 1.13 255 255 255
0.162275 0.148188 0.705 255 255 255
0.287236 0.0288655 0.734 255 255 255
-0.534934 0.192124 1.167 255 255 255
-0.605432 0.245219 1.254 255 255 255
0.239307 0.244383 0.664 255 255 255
0.262351 -0.0694557 0.874 0 0 0
-0.288885 -0.0992811 0.941 255 255 255
-0.0521941 -0.456834 1.419 0 0 0
0.251517 0.167159 0.662 0 0 0
0.245792 0.247625 0.664 255 255 255
0.43773 -0.407176 1.616 255 255 255
-0.0311546 -0.06731 0.847 255 255 255
-0.273751 0.320684 0.887 255 255 255
0.0403489 0.264993 0.843 255 255 255
-0.354311 0.0591536 1.096 255 255 255
0.581973 -0.536601 1.784 255 255 255
0.52869 -0.447099 1.637 0 0 0
-0.255482 -0.155454 0.92 255 255 255
0.694296 -0.332675 1.505 255 255 255
-0.528162 0.0443528 1.083 255 255 255
0.256665 0.0776262 0.732 255 255 255
0.183192 0.128867 0.706 255 255 255
-0.299272 -0.244757 1.053 0 0 0
0.135446 0.0180274 0.782 255 255 255
0.485226 -0.517244 1.729 0 0 0
-0.192112 0.233632 0.864 255 255 255
0.151664 0.209925 0.72 255 255 255
-0.174533 -0.0198186 0.821 255 255 255
0.235621 0.168382 0.49 255 255 255
-0.0163624 0.0664448 0.798 0 0 0
0.17944 -0.151452 1.036 255 255 255
-0.0203609 0.308225 0.802 255 255 255
-0.394496 0.129746 1.02 255 255 255
0.122186 0.111132 0.733 255 255 255
-0.730725 0.348903 1.409 255 255 255
-0.126208 -0.232601 1.068 255 255 255
-0.197509 0.241788 0.863 255 255 255
0.0747473 0.186382 0.773 255 255 255
-0.0896504 0.108748 0.866 0 0 0
-0.572318 -0.453524 1.262 255 255 255
-0.456692 0.0814497 1.018 255 255 255
-0.197998 0.0534657 0.884 255 255 255
-0.0781921 0.0572276 0.834 255 255 255
0.0304136 -0.248065 1.139 255 255 255
0.154102 0.207303 0.715 255 255 255
-0.255834 0.0116943 0.88 255 255 255
0.826805 -0.634168 1.831 255 255 255
-0.321536 0.135286 1.106 255 255 255
-0.102031 -0.604758 1.624 255 255 255
0.689583 -0.551833 1.815 0 0 0
0.276076 -0.0807556 0.905 0 0 0
-0.460163 0.19828 1.106 255 255 255
0.198657 -0.0891337 0.981 255 255 255
-0.225497 -0.302566 1.178 255 255 255
0.0221256 0.109512 0.781 255 255 255
-0.154105 0.295546 0.856 255 255 255
0.19589 -0.180632 1.09 255 255 255
-0.209727 -0.47173 1.362 255 255 255
0.0956111 -0.0576342 0.912 255 255 255
0.135496 0.218785 0.734 255 255 255
0.299767 -0.0618449 0.867 0 0 0
0.0388686 -0.338999 1.372 255 255 255
0.0661952 0.0368312 0.776 0 0 0
-0.327285 0.216776 0.924 255 255 255
-0.201261 -0.0198186 0.821 0 0 0
0.252917 0.206122 0.649 0 0 0
-0.636679 -0.3749 1.22 255 255 255
0.41207 -0.0773573 1.015 255 255 255
0.144097 0.0529651 0.754 0 0 0
-0.329855 -0.232376 1.036 255 255 255
0.0661049 0.27043 0.822 255 255 255
-0.327285 0.198732 0.924 255 255 255
0.13928 0.0216496 0.775 255 255 255
0.543814 -0.771089 2.136 255 255 255
-0.294728 -0.092014 0.945 0 0 0
-0.0402759 -0.0664359 0.836 255 255 255
-0.429802 0.060561 1.029 255 255 255
0.291327 0.13596 0.657 255 255 255
0.270496 -0.0472666 0.942 255 255 255
-0.0677226 -0.0422643 0.791 255 255 255
-0.179292 0.0908682 0.884 255 255 255
0.0895388 -0.132137 1.03 255 255 255
-0.31263 0.141712 1.1 255 255 255
-0.667543 0.439895 1.378 255 255 255
-0.489416 0.0268275 1.087 255 255 255
-0.616485 -0.119239 1.185 255 255 255
0.573244 -0.226942 1.247 0 0 0
-0.0258381 0.0358087 0.81 255 255 255
0.261388 -0.17161 1.112 255 255 255
-0.577439 -0.0539914 1.192 255 255 255
-0.514564 -0.326335 1.147 255 255 255
-0.0662011 0.299129 0.82 255 255 255
-0.143937 -0.398878 1.348 255 255 255
-0.102505 -0.12972 0.918 255 255 255
-0.130084 -0.133331 0.902 255 255 255
-0.646703 0.201605 1.275 255 255 255
-0.0135733 -0.140225 0.97 255 255 255
-0.195444 0.0153 0.842 0 0 0
0.42359 -0.267229 1.305 0 0 0
0.16803 0.0833539 0.73 255 255 255
-0.0878068 -0.00887449 0.798 255 255 255
-0.628204 0.332915 1.31 255 255 255
-0.427703 -0.169032 1.02 255 255 255
0.303734 -0.170993 1.108 0 0 0
0.202434 0.260282 0.701 255 255 255
-0.46957 0.0420791 1.07 255 255 255
-0.254812 -0.101888 0.923 255 255 255
0.308504 -0.0554883 0.856 0 0 0
-0.271222 0.0886267 1.044 255 255 255
0.2476 0.0347892 0.759 255 255 255
0.316643 -0.0374821 0.747 0 0 0
-0.0506844 0.218468 0.9 255 255 255
-0.360524 0.147317 1.004 255 255 255
-0.310536 -0.140029 0.937 255 255 255
-0.237969 -0.117512 0.916 0 0 0
-0.369371 0.159269 0.997 255 255 255
0.0532074 -0.00109777 0.809 255 255 255
0.161476 -0.0945931 0.988 0 0 0
0.551804 -0.500269 1.7 255 255 255
-0.449248 0.134198 1.055 255 255 255
0.0246683 0.0599455 0.781 255 255 255
-0.145131 -0.070588 0.821 255 255 255
-0.227396 -0.442668 1.375 255 255 255
0.17339 0.0501092 0.748 0 0 0
-0.192143 -0.521216 1.412 255 255 255
-0.0256488 -0.437589 1.487 255 255 255
0.724832 -0.461207 1.659 255 255 255
-0.227193 -0.0931792 0.897 255 255 255
-0.0587476 0.189757 0.889 255 255 255
0.220917 -0.20828 1.176 255 255 255
-0.416417 -0.322206 1.139 0 0 0
-0.0445709 0.302611 0.815 255 255 255
-0.00981802 0.0984142 0.794 255 255 255
0.278887 0.0960132 0.701 255 255 255
0.210468 0.175152 0.672 255 255 255
-0.309676 -0.545292 1.403 255 255 255
0.376814 -0.363027 1.509 255 255 255
0.0220484 -0.236051 1.092 255 255 255
0.303695 0.0789156 0.722 0 0 0
0.00181656 0.120532 0.795 255 255 255
0.813206 -0.540726 1.769 255 255 255
-0.0111554 -0.42906 1.491 0 0 0
-0.432725 -0.244177 1.036 255 255 255
0.303496 0.0275202 0.73 255 255 255
-0.480964 -0.112811 1.053 255 255 255
0.338858 -0.288918 1.357 255 255 255
-0.310988 -0.361002 1.22 255 255 255
-0.343762 -0.0632022 0.975 255 255 255
-0.0129588 -0.206075 1.048 255 255 255
-0.0041549 -0.501773 1.599 0 0 0
0.924336 -0.906202 2.402 0 0 0
-0.471988 0.235682 1.13 255 255 255
-0.561963 0.0131311 1.126 255 255 255
0.54872 -0.133847 1.145 0 0 0
0.204209 -0.0792308 0.977 255 255 255
0.27537 0.207876 0.635 0 0 0
0.19427 -0.0396023 0.844 0 0 0
-0.196786 0.210215 0.866 255 255 255
0.0402054 0.257215 0.84 255 255 255
-0.24678 -0.17948 0.944 255 255 255
-0.591212 0.389309 1.299 255 255 255
0.30414 -0.400297 1.539 255 255 255
-0.0182811 0.154803 0.826 255 255 255
0.113674 0.0486945 0.764 0 0 0
-0.24376 -0.451332 1.354 255 255 255
-0.485183 -0.201534 1.051 255 255 255
-0.357394 -0.273582 1.1 255 255 255
-0.251449 -0.340031 1.26 255 255 255
-0.32396 -0.397402 1.247 255 255 255
0.865039 -0.583907 1.769 255 255 255
-0.410752 -0.380748 1.165 255 255 255
0.556049 -0.242501 1.254 0 0 0
-0.0964153 -0.0803275 0.839 255 255 255
-0.177742 -0.12307 0.913 255 255 255
0.024947 -0.200564 1.064 255 255 255
-0.377301 -0.409665 1.229 255 255 255
-0.556944 -0.0776577 1.198 255 255 255
0.320423 0.104147 0.702 255 255 255
-0.150911 -0.0142629 0.809 255 255 255
-0.299201 -0.423372 1.289 255 255 255
-0.0527827 -0.466655 1.435 0 0 0
-0.0891327 0.279058 0.861 255 255 255
-0.022585 0.159398 0.836 255 255 255
-0.759576 0.354728 1.442 255 255 255
0.254041 -0.631204 1.941 255 255 255
-0.560605 -0.20855 1.116 255 255 255
0.065148 -0.177317 1.07 255 255 255
-0.122474 -0.272206 1.147 255 255 255
0.64107 -0.924509 2.44 0 0 0
-0.117737 0.0497318 0.845 255 255 255
0.413086 -0.241611 1.26 255 255 255
0.0831949 -0.00510968 0.819 255 255 255
0.35961 0.0881927 0.721 0 0 0
-0.383665 -0.34463 1.152 255 255 255
0.241469 0.165503 0.664 255 255 255
-0.156997 -0.290129 1.182 255 255 255
0.0405666 -0.140219 0.981 255 255 255
0.013023 -0.120582 0.952 255 255 255
-0.162228 -0.349671 1.336 0 0 0
-0.2835 0.276864 0.909 255 255 255
0.200977 -0.741203 2.044 255 255 255
-0.065068 -0.650118 1.769 0 0 0
-0.510376 0.0234397 1.094 255 255 255
-0.0976373 0.307916 0.815 255 255 255
-0.156556 0.0259498 0.832 255 255 255
-0.374404 0.0126763 1.087 255 255 255
0.247345 -0.162894 1.09 255 255 255
0.0632044 -0.121721 0.961 255 255 255
0.139576 0.0691199 0.743 255 255 255
-0.190748 -0.44742 1.369 255 255 255
0.283273 -0.110233 0.97 255 255 255
-0.0859145 0.116463 0.871 255 255 255
-0.4699 -0.309139 1.112 255 255 255
0.335169 -0.298157 1.369 255 255 255
0.335846 0.051114 0.763 255 255 255
-0.154095 -0.197488 0.98 255 255 255
-0.396 -0.290794 1.118 255 255 255
0.0810195 -0.101365 0.932 255 255 255
-0.211541 0.103336 0.905 255 255 255
0.240739 0.021035 0.753 0 0 0
-0.118978 0.263158 0.864 255 255 255
0.232747 0.0854949 0.728 255 255 255
0.0730067 0.143954 0.755 255 255 255
0.224707 -0.0311606 0.877 255 255 255
-0.202425 0.234172 0.866 255 255 255
0.250224 0.215894 0.653 0 0 0
-0.472246 0.319363 1.167 255 255 255
0.628302 -0.439279 1.668 255 255 255
0.501203 -0.0716855 1.053 255 255 255
0.319434 0.0365722 0.745 0 0 0
-0.270601 -0.48554 1.345 255 255 255
0.105431 -0.272367 1.26 255 255 255
0.20998 -0.351744 1.396 255 255 255
0.708699 -0.320132 1.459 255 255 255
-0.155253 -0.39317 1.351 255 255 255
-0.247539 -0.379707 1.327 255 255 255
-0.180316 -0.00915251 0.823 0 0 0
0.199708 -0.700121 1.966 255 255 255
0.624454 -0.252301 1.252 255 255 255
0.0186986 -0.0388177 0.857 0 0 0
-0.589111 -0.0580652 1.196 0 0 0
-0.118695 -0.545568 1.532 255 255 255
0.18614 0.0054441 0.803 255 255 255
-0.348363 -0.246534 1.046 0 0 0
0.36367 -0.191845 1.205 255 255 255
0.221507 0.205942 0.669 255 255 255
-0.358781 -0.0219944 0.977 255 255 255
-0.0484156 -0.266311 1.162 0 0 0
-0.310473 -0.451588 1.31 255 255 255
-0.1793 -0.142134 0.921 0 0 0
-0.18852 -0.451876 1.369 255 255 255
0.758106 -0.465481 1.655 0 0 0
-0.0859236 0.0474983 0.83 255 255 255
0.0500735 0.212686 0.801 255 255 255
0.711684 -0.493044 1.753 0 0 0
0.185779 0.163001 0.69 0 0 0
0.296644 -0.295318 1.336 0 0 0
-0.110641 0.0395366 0.833 255 255 255
-0.222328 -0.139414 0.913 0 0 0
-0.645154 0.17241 1.244 255 255 255
-0.00210473 0.0199911 0.81 255 255 255
-0.131811 0.0698811 0.856 255 255 255
0.224688 0.239672 0.672 255 255 255
0.12545 0.261164 0.76 255 255 255
0.270877 0.177606 0.649 255 255 255
0.272983 0.0304695 0.744 255 255 255
0.0232771 0.1001 0.777 255 255 255
-0.328312 -0.0779588 0.981 255 255 255
0.266381 -0.123927 0.966 255 255 255
1.01785 -0.908018 2.356 255 255 255
0.00576339 0.314227 0.804 255 255 255
0.532843 -0.141914 1.135 0 0 0
-0.242751 -0.00113305 0.835 255 255 255
-0.318813 0.228777 0.93 255 255 255
-0.60339 0.48189 1.345 255 255 255
-0.335723 -0.0958114 0.984 255 255 255
0.0505736 0.227975 0.809 255 255 255
-0.482764 0.0127812 1.096 255 255 255
-0.38464 -0.274371 1.096 255 255 255
-0.206176 -0.075691 0.864 255 255 255
0.278224 0.0825546 0.723 255 255 255
-0.223186 0.00156182 0.823 255 255 255
0.135376 -0.443773 1.587 255 255 255
-0.0841728 -0.176015 1.022 255 255 255
0.222493 0.193734 0.515 255 255 255
0.166125 -0.00515959 0.827 255 255 255
-0.382901 0.125867 1.029 255 255 255
-0.272517 0.322111 0.883 255 255 255
-0.17477 -0.120099 0.913 0 0 0
-0.384715 0.0715688 1.043 255 255 255
-0.339661 -0.195316 1.01 255 255 255
0.101542 0.212089 0.757 255 255 255
-0.0756579 0.0723297 0.836 0 0 0
-0.355096 0.312842 0.98 255 255 255
0.449362 -0.413457 1.62 0 0 0
-0.0910143 -0.0629392 0.792 255 255 255
0.154397 0.142507 0.711 255 255 255
-0.135354 0.201908 0.898 255 255 255
-0.497864 -0.271095 1.09 255 255 255
0.263588 -0.450216 1.629 255 255 255
0.408407 0.0573545 0.798 255 255 255
0.0117505 -0.142534 0.975 255 255 255
-0.020386 0.199895 0.858 255 255 255
0.122251 0.0671505 0.748 255 255 255
0.246193 -0.125629 0.967 255 255 255
0.226408 -0.52782 1.774 255 255 255
0.0707888 0.179626 0.771 255 255 255
0.35029 0.0597272 0.762 255 255 255
-0.198986 0.179651 0.882 255 255 255
-0.114565 0.169937 0.931 255 255 255
0.293603 0.120474 0.672 0 0 0
-0.331365 0.220497 0.927 255 255 255
0.0689414 -0.344187 1.393 255 255 255
-0.682333 0.25029 1.324 255 255 255
0.35258 -0.0692165 0.928 0 0 0
0.184426 -0.143709 1.017 255 255 255
0.0154073 0.320336 0.83 255 255 255
-0.0415061 0.304893 0.807 255 255 255
0.262869 -0.064965 0.871 0 0 0
0.0813286 0.231033 0.788 255 255 255
-0.396589 -0.444309 1.265 255 255 255
0.27506 0.0528949 0.753 0 0 0
0.199017 0.0746271 0.726 255 255 255
-0.464767 -0.225632 1.036 0 0 0
0.67989 -0.611633 1.853 255 255 255
-0.0666855 0.0553345 0.826 255 255 255
0.31416 0.0619485 0.744 255 255 255
0.223162 0.160318 0.674 255 255 255
0.282107 -0.215541 1.217 255 255 255
0.450856 -0.313124 1.396 255 255 255
-0.0854871 -0.0672541 0.813 255 255 255
-0.0820897 -0.3943 1.378 0 0 0
-0.202104 -0.0184375 0.819 0 0 0
0.333834 0.0730605 0.734 0 0 0
-0.293461 0.153518 0.961 255 255 255
-0.222535 0.240327 0.873 255 255 255
-0.124104 0.150143 0.912 255 255 255
0.186195 -0.174647 1.075 0 0 0
0.0491735 -1.02094 2.649 255 255 255
0.196547 0.0341288 0.772 255 255 255
-0.060832 -0.0123062 0.769 255 255 255
-0.234633 -0.0476163 0.84 255 255 255
0.0492435 0.261221 0.831 255 255 255
-0.258435 -0.0659347 0.884 255 255 255
0.225011 0.0287266 0.762 255 255 255
0.047491 0.170299 0.78 255 255 255
-0.15786 0.0709424 0.869 255 255 255
-0.0715754 0.0777715 0.836 255 255 255
0.169221 -0.117388 0.977 255 255 255
-0.260817 -0.226973 1.05 255 255 255
-0.376827 -0.41334 1.234 255 255 255
-0.0232011 0.110942 0.81 255 255 255
0.513023 -0.106848 1.116 255 255 255
-0.537224 0.107842 1.066 255 255 255
-0.554127 0.134063 1.096 255 255 255
-0.607357 -0.0253334 1.213 255 255 255
0.370251 -0.424002 1.62 255 255 255
-0.699997 0.458674 1.354 255 255 255
0.0675702 0.151688 0.763 255 255 255
-0.0907356 0.0560714 0.837 255 255 255
-0.186659 -0.126042 0.913 255 255 255
-0.227799 -0.0688199 0.866 255 255 255
0.26712 0.215762 0.64 255 255 255
-0.616086 0.495057 1.316 255 255 255
0.518339 -0.460095 1.655 0 0 0
-0.352465 -0.19348 1.009 255 255 255
0.298345 -0.120692 0.978 255 255 255
-0.58696 0.319926 1.267 255 255 255
0.016718 0.214465 0.828 255 255 255
-0.449491 -0.490214 1.305 255 255 255
-0.237774 -0.185454 0.951 0 0 0
-0.662706 -0.172169 1.262 255 255 255
0.205303 0.195126 0.673 0 0 0
-0.692978 0.383252 1.384 255 255 255
-0.079182 -0.192647 1.022 255 255 255
0.0257037 0.271104 0.858 255 255 255
-0.644925 0.278553 1.305 255 255 255
-0.0541218 0.0508672 0.819 0 0 0
0.0909522 0.112344 0.741 255 255 255
-0.0558825 0.156844 0.867 255 255 255
-0.225239 0.227416 0.878 255 255 255
-0.318806 0.0172716 1.044 255 255 255
0.30169 0.0890325 0.709 255 255 255
-0.519391 -0.251643 1.098 255 255 255
-0.398109 -0.355579 1.145 255 255 255
-0.761923 0.364114 1.442 255 255 255
0.00817242 0.0627274 0.784 255 255 255
0.332434 0.112309 0.689 255 255 255
0.287321 0.201358 0.634 0 0 0
0.1482 0.2164 0.726 255 255 255
-0.227123 -0.088206 0.891 255 255 255
0.56006 -0.397343 1.547 255 255 255
0.178843 0.145581 0.698 255 255 255
0.559802 -0.534968 1.769 255 255 255
0.0840677 0.16607 0.755 255 255 255
-0.634693 0.161142 1.22 255 255 255
0.200124 0.242651 0.693 255 255 255
-0.476509 -0.331278 1.132 255 255 255
0.010387 -0.393394 1.449 0 0 0
0.22129 0.0374068 0.762 0 0 0
0.27738 0.141304 0.662 255 255 255
