ply
format ascii 1.0
comment Created by Open3D
element vertex 1327
property double x
property double y
property double z
property uchar red
property uchar green
property uchar blue
end_header
-0.281028 -0.126368 1.024 255 255 255
0.344079 -0.00118325 0.872 255 255 255
0.0977031 0.190632 0.796 255 255 255
0.260079 0.250981 0.673 255 255 255
-0.144359 -0.315384 1.205 255 255 255
0.0925201 0.178974 0.796 255 255 255
0.244539 0.150868 0.691 255 255 255
0.164544 -0.0909549 0.95 255 255 255
-0.0261359 -0.253891 1.1 255 255 255
-0.295293 -0.222904 1.039 255 255 255
0.259409 -0.253976 1.281 0 0 0
0.190457 0.252229 0.734 255 255 255
-0.654075 -0.202352 1.432 255 255 255
-0.247775 -0.169064 0.991 255 255 255
-0.00130259 -0.377448 1.342 255 255 255
-0.0968064 0.0946997 0.893 255 255 255
-0.327938 0.045008 1.057 255 255 255
0.0765731 0.011083 0.834 255 255 255
0.44885 -0.106491 0.994 255 255 255
0.0962206 -0.41386 1.463 255 255 255
0.259396 -0.367997 1.47 255 255 255
0.353562 0.0207527 0.702 255 255 255
-0.0432498 -0.269054 1.126 255 255 255
0.212833 -0.158776 1.051 255 255 255
0.16412 -0.17351 1.068 255 255 255
-0.296984 -0.0588969 1.039 255 255 255
-0.541315 -0.416575 1.281 255 255 255
-0.0738777 0.21482 0.897 255 255 255
0.178415 -0.426734 1.535 0 0 0
0.321447 0.0347903 0.733 255 255 255
0.11958 0.0766438 0.77 255 255 255
-0.446991 -0.340277 1.196 255 255 255
0.236104 -0.232906 1.225 255 255 255
0.337286 0.0380024 0.726 255 255 255
0.25241 0.207173 0.673 255 255 255
0.158927 0.185194 0.743 255 255 255
-0.801891 0.286371 1.612 255 255 255
0.349111 -0.0794144 0.96 255 255 255
-0.791745 0.194766 1.551 255 255 255
-0.411401 -0.149522 1.096 0 0 0
-0.0159895 0.25821 0.927 255 255 255
-0.267581 0.190661 0.975 255 255 255
-0.294732 0.134369 1.043 255 255 255
-0.0843189 0.0721669 0.884 255 255 255
-0.183184 0.262698 0.896 255 255 255
0.30599 0.0277464 0.736 255 255 255
-0.546866 0.231945 1.33 255 255 255
0.23441 0.104912 0.715 255 255 255
0.427881 -0.0909151 0.983 255 255 255
-0.346777 0.0417645 1.062 255 255 255
-0.648096 -0.0666201 1.286 255 255 255
0.0722648 -0.571633 1.62 255 255 255
-0.605957 -0.00382285 1.281 255 255 255
0.232368 -0.126368 1.024 255 255 255
-0.70661 0.452064 1.354 255 255 255
-0.0302411 0.138222 0.902 255 255 255
-0.34041 -0.152224 1.053 0 0 0
-0.0156101 -0.117574 0.905 255 255 255
0.421905 -0.061452 0.948 0 0 0
-0.0137644 0.0145005 0.798 255 255 255
0.257211 0.00155043 0.817 0 0 0
-0.208301 -0.02699 0.93 0 0 0
-0.054091 -0.126829 0.908 0 0 0
0.149346 -0.196055 1.087 255 255 255
0.113019 0.146433 0.768 255 255 255
0.311705 0.236887 0.627 255 255 255
0.000945671 -0.467956 1.439 255 255 255
-0.507801 0.506741 1.302 255 255 255
-0.688858 0.409973 1.422 255 255 255
0.075369 0.269715 0.867 255 255 255
0.845419 -0.619806 1.935 255 255 255
0.057355 0.210728 0.851 255 255 255
-0.0329112 0.311898 0.822 255 255 255
0.267421 0.133068 0.692 255 255 255
0.312559 0.176822 0.65 255 255 255
-0.252846 0.191058 0.938 255 255 255
0.46374 -0.270652 1.354 255 255 255
0.548168 -0.335106 1.494 255 255 255
0.398808 -0.62848 1.923 0 0 0
0.0257289 -1.12731 2.925 255 255 255
0.121928 0.0802985 0.769 255 255 255
-0.565921 0.0588066 1.239 255 255 255
-0.305434 -0.212604 1.022 255 255 255
0.122652 0.101353 0.758 255 255 255
0.30967 -0.379208 1.505 255 255 255
0.136221 -0.463681 1.567 0 0 0
0.804357 -0.828126 2.294 0 0 0
0.310625 0.0108889 0.73 255 255 255
0.33705 0.0175971 0.713 255 255 255
0.112809 0.304053 0.841 255 255 255
0.117542 0.0169263 0.79 255 255 255
-0.324225 0.246116 1.079 255 255 255
-0.642055 -0.119319 1.362 255 255 255
0.0721532 -0.282862 1.252 255 255 255
0.200377 0.15008 0.714 0 0 0
0.208794 0.228127 0.711 0 0 0
0.144334 -0.0345967 0.892 0 0 0
-0.6001 -0.374613 1.273 255 255 255
-0.458082 0.0113589 1.132 255 255 255
0.310846 0.0386829 0.739 255 255 255
0.239442 -0.082495 0.978 0 0 0
0.196801 -0.20886 1.158 255 255 255
0.295575 0.0390493 0.746 0 0 0
-0.625221 0.250308 1.409 255 255 255
0.211922 0.15644 0.706 255 255 255
-0.0501835 0.0149002 0.82 255 255 255
-0.20535 -0.204013 1.029 0 0 0
0.266925 0.0802272 0.734 255 255 255
0.164459 0.020862 0.793 255 255 255
0.356435 0.0406311 0.71 255 255 255
-0.0628355 -0.164357 0.928 255 255 255
-0.657836 -0.138751 1.425 255 255 255
-0.652757 0.192046 1.419 255 255 255
0.0954701 0.19005 0.799 255 255 255
-0.310055 -0.404241 1.201 255 255 255
-0.019887 0.0465368 0.837 255 255 255
-0.264553 -0.448178 1.294 255 255 255
0.0126947 0.266039 0.928 255 255 255
-0.219996 -0.35364 1.222 255 255 255
-0.118257 -0.179584 0.961 0 0 0
-0.134859 -0.408934 1.345 0 0 0
-0.273505 -0.307912 1.162 255 255 255
-0.117813 0.09523 0.898 255 255 255
0.199107 0.0788988 0.744 255 255 255
-0.312524 -0.256868 1.075 255 255 255
0.484938 -0.648356 1.917 255 255 255
-0.687696 -0.362763 1.369 0 0 0
0.474753 -0.143683 1.12 255 255 255
0.084617 0.00564749 0.833 255 255 255
-0.447436 -0.0520516 1.192 255 255 255
0.464862 -0.168733 1.208 255 255 255
0.194026 0.0318209 0.777 255 255 255
-0.520632 0.438253 1.387 255 255 255
-0.384375 0.315709 1.189 255 255 255
-0.419819 -0.455405 1.273 255 255 255
0.534772 -0.804429 2.114 255 255 255
0.149458 -0.130907 0.983 255 255 255
-0.622656 0.204395 1.393 255 255 255
0.131459 0.217543 0.781 255 255 255
-0.509419 0.465983 1.369 255 255 255
-0.271996 -0.157108 0.997 0 0 0
-0.710061 -0.24971 1.348 255 255 255
-0.680938 -0.134256 1.313 255 255 255
0.0612942 0.300814 0.888 255 255 255
-0.060601 0.118215 0.895 255 255 255
-0.236334 -0.298904 1.194 255 255 255
0.218297 0.181668 0.697 255 255 255
-0.0355685 -0.160248 0.967 255 255 255
0.0697842 0.0848472 0.788 0 0 0
0.258293 -0.178265 1.055 0 0 0
0.298917 0.0209672 0.797 0 0 0
-0.298675 0.135544 1.039 255 255 255
-0.604135 0.496328 1.286 255 255 255
-0.516128 0.4546 1.375 255 255 255
-0.152645 0.144444 0.923 255 255 255
0.135086 -0.145458 0.995 255 255 255
-0.189626 0.334104 0.892 255 255 255
-0.175695 0.244927 0.895 255 255 255
0.216458 -0.422837 1.539 0 0 0
-0.288432 -0.409626 1.217 255 255 255
0.12604 -0.668094 1.826 0 0 0
0.167592 -0.159682 1.057 255 255 255
0.0957542 -0.777956 2.071 255 255 255
0.251809 0.0133011 0.804 0 0 0
-0.231623 -0.34426 1.21 0 0 0
0.109706 0.0217893 0.78 255 255 255
-0.69192 -0.168459 1.33 255 255 255
0.286864 0.0830113 0.727 0 0 0
-0.640673 -0.117041 1.336 255 255 255
0.704597 -0.640984 1.991 255 255 255
-0.147998 0.0126043 0.845 255 255 255
0.0885089 -0.137789 0.964 255 255 255
-0.31701 -0.358967 1.162 255 255 255
0.550687 -0.308034 1.425 0 0 0
-0.472662 0.123287 1.145 255 255 255
-0.283224 -0.0920881 1.032 255 255 255
0.756554 -0.613739 1.966 255 255 255
0.711254 -0.535585 1.81 255 255 255
-0.0188416 -0.0320474 0.793 255 255 255
1.14493 -0.884546 2.365 0 0 0
0.215528 -0.00670205 0.852 255 255 255
0.0698728 0.0900907 0.789 0 0 0
0.0494909 -0.184813 1.034 255 255 255
0.44334 -0.725833 2.057 255 255 255
-0.707935 0.11772 1.442 255 255 255
0.285616 -0.412224 1.575 255 255 255
0.0697238 0.327562 0.867 0 0 0
-0.523726 -0.367551 1.249 255 255 255
-0.0112924 0.314086 0.807 255 255 255
-0.5632 -0.315339 1.22 255 255 255
-0.32112 -0.154616 1.046 255 255 255
-0.554428 -0.192457 1.302 255 255 255
-0.155694 -0.288007 1.158 255 255 255
-0.851231 0.195039 1.616 255 255 255
0.29028 0.034285 0.748 0 0 0
-0.381464 0.335904 1.192 255 255 255
0.00214559 -0.135744 0.939 255 255 255
0.275225 0.249033 0.662 255 255 255
-0.538831 -0.0197956 1.237 255 255 255
-0.14897 0.217978 0.892 255 255 255
0.343397 0.0867781 0.719 255 255 255
0.559918 -0.177528 1.201 255 255 255
-0.680021 -0.0736353 1.299 255 255 255
0.257833 0.110954 0.709 255 255 255
0.270362 -0.0501982 0.969 0 0 0
-0.604736 0.206679 1.378 255 255 255
0.0337658 -0.0633987 0.85 255 255 255
0.019062 0.308483 0.813 255 255 255
-0.0999105 0.332709 0.908 255 255 255
-0.145721 -0.0160223 0.832 255 255 255
-0.212465 0.248266 0.935 255 255 255
0.332101 -0.0104223 0.725 0 0 0
-0.0934458 0.275174 0.862 255 255 255
-0.447898 0.0878504 1.098 255 255 255
0.565124 -0.212737 1.247 255 255 255
-0.0143854 0.300165 0.834 255 255 255
-0.4056 -0.162894 1.09 255 255 255
0.23865 0.224899 0.687 255 255 255
0.219586 0.120206 0.716 255 255 255
-0.388489 -0.352408 1.178 0 0 0
0.0569456 0.164014 0.825 255 255 255
0.125053 -0.457599 1.555 255 255 255
-0.543348 -0.287666 1.229 0 0 0
0.334115 -0.483482 1.719 255 255 255
-0.179806 0.151265 0.901 255 255 255
-0.25262 -0.190049 1.017 255 255 255
-0.188282 0.110502 1.075 255 255 255
-0.320712 0.203975 1.079 255 255 255
-0.65737 0.055574 1.357 255 255 255
-0.350102 -0.284552 1.094 255 255 255
0.222416 0.0680936 0.745 0 0 0
-0.433385 0.0433376 1.102 255 255 255
0.276256 0.0252691 0.77 0 0 0
-0.391524 -0.480008 1.289 255 255 255
0.0278606 -0.125362 0.93 255 255 255
0.877474 -0.580535 1.831 255 255 255
0.23442 0.124623 0.708 255 255 255
-0.286276 -0.237625 1.075 255 255 255
-0.308172 0.073147 1.066 255 255 255
-0.485788 0.482483 1.359 255 255 255
0.176404 0.063364 0.761 255 255 255
-0.172202 0.165721 0.892 255 255 255
-0.0885236 -0.524695 1.409 255 255 255
-0.528763 -0.34389 1.237 255 255 255
-0.0168189 -0.107055 0.891 255 255 255
-0.478935 0.509855 1.31 255 255 255
-1.285 -1.07053 2.939 255 255 255
0.60002 -0.264656 1.324 255 255 255
-0.0436788 0.10442 0.877 0 0 0
0.0386751 0.204814 0.867 255 255 255
0.267007 0.191148 0.663 255 255 255
0.334716 0.030786 0.723 255 255 255
-0.0499523 0.115715 0.887 255 255 255
-0.206869 -0.329865 1.215 0 0 0
-0.242673 0.231091 0.952 255 255 255
-0.269922 0.371977 0.972 255 255 255
0.286931 -0.0303433 0.854 0 0 0
-0.164129 -0.132997 0.92 255 255 255
-0.22596 -0.135655 0.96 0 0 0
0.647105 -0.25766 1.289 255 255 255
-0.0556303 0.22657 0.909 255 255 255
0.277435 0.208136 0.652 0 0 0
-0.0273055 0.0740601 0.856 255 255 255
-0.121778 0.251981 0.874 255 255 255
-0.418252 0.0131077 1.124 255 255 255
0.344875 0.112318 0.696 255 255 255
-0.0268808 0.267578 0.888 255 255 255
-0.597855 0.498421 1.286 255 255 255
0.138741 0.0504606 0.772 0 0 0
-0.246116 -0.0299746 0.978 255 255 255
0.455755 -0.0891337 0.981 0 0 0
0.363598 -0.1181 0.957 255 255 255
-0.693109 0.465748 1.324 255 255 255
0.207325 0.169078 0.706 255 255 255
0.109284 0.0609029 0.777 255 255 255
0.699196 -0.750994 2.071 255 255 255
-0.106289 0.338627 0.912 255 255 255
-0.65873 0.413984 1.412 255 255 255
0.111495 0.226002 0.802 255 255 255
-0.142058 -0.476714 1.351 255 255 255
-0.221597 0.207184 0.935 255 255 255
-0.00332605 0.0219848 0.787 255 255 255
0.0599161 0.301153 0.889 255 255 255
0.268044 0.257879 0.671 0 0 0
0.355072 0.00936876 0.705 255 255 255
-0.0880364 -0.164777 0.939 0 0 0
0.238182 0.0596071 0.745 255 255 255
0.6423 -0.373131 1.551 255 255 255
0.292269 0.166584 0.664 255 255 255
-0.531755 -0.362031 1.244 255 255 255
-0.22237 -0.126018 0.958 0 0 0
0.115133 -0.0943853 0.938 255 255 255
0.0133111 0.024515 0.786 0 0 0
-0.382416 0.0836899 1.046 255 255 255
-0.069079 -0.571943 1.484 255 255 255
0.118182 0.125284 0.761 255 255 255
0.235554 -0.769643 2.085 255 255 255
0.316085 0.0712493 0.74 0 0 0
0.126174 0.026591 0.772 255 255 255
0.177745 0.184501 0.726 255 255 255
0.157448 -0.368576 1.435 255 255 255
-0.181344 0.293258 0.887 255 255 255
-0.0961825 0.0237168 0.849 255 255 255
0.325833 0.0679108 0.743 0 0 0
0.202884 0.061146 0.749 0 0 0
-0.0955091 0.292627 0.868 255 255 255
-0.689309 -0.351267 1.359 255 255 255
0.150433 0.199243 0.755 255 255 255
-0.0294029 0.277108 0.877 255 255 255
0.348563 0.0880704 0.72 255 255 255
0.171124 0.153023 0.728 255 255 255
-0.703433 -0.255268 1.378 255 255 255
-0.0830674 0.23093 0.886 255 255 255
-0.53923 0.156692 1.281 255 255 255
-0.297769 0.106232 1.085 255 255 255
-0.672664 -0.283153 1.452 255 255 255
-0.221555 0.154168 0.975 255 255 255
-0.188385 0.296695 0.893 255 255 255
0.356785 -0.450137 1.668 0 0 0
0.276579 -0.345224 1.435 255 255 255
0.241909 0.0951005 0.72 255 255 255
-0.695802 -0.205567 1.422 255 255 255
0.178023 0.0792169 0.747 255 255 255
1.08738 -0.729047 2.166 255 255 255
-0.112265 -0.031998 0.825 0 0 0
0.10183 -0.0363227 0.864 0 0 0
0.114917 0.100912 0.764 255 255 255
-0.192363 0.172681 0.898 255 255 255
-0.41924 0.407939 1.265 255 255 255
0.731345 -0.297272 1.429 255 255 255
0.011231 0.0456472 0.821 255 255 255
0.892757 -0.758952 2.244 255 255 255
-0.126302 0.182503 0.896 255 255 255
-0.0310793 -0.137026 0.927 255 255 255
-0.0199583 0.298224 0.84 255 255 255
-0.161214 -0.223946 1.036 255 255 255
-0.522569 0.0464837 1.182 255 255 255
-0.201261 -0.387388 1.254 255 255 255
-0.69782 -0.361901 1.333 255 255 255
-0.42923 -0.188095 1.124 255 255 255
0.546269 -0.439407 1.7 255 255 255
-0.247321 0.310496 0.958 255 255 255
-0.104671 0.273771 0.862 255 255 255
-0.148829 -0.0968545 0.918 255 255 255
-0.777614 0.213849 1.543 255 255 255
-0.237538 0.130403 1.126 255 255 255
0.380646 -0.0324041 0.912 255 255 255
0.549021 -0.377815 1.603 255 255 255
-0.510345 0.07304 1.176 255 255 255
-0.301392 0.0863302 1.079 255 255 255
-0.339339 -0.228053 1.055 0 0 0
-0.0213764 0.296193 0.842 255 255 255
0.073176 0.128617 0.797 255 255 255
0.36429 -0.300117 1.378 255 255 255
0.204164 0.193416 0.711 255 255 255
-1.38744 -0.872375 2.78 255 255 255
0.169987 0.259927 0.76 255 255 255
-0.215682 0.153378 0.97 255 255 255
0.38369 -0.0305812 0.823 0 0 0
-0.429889 -0.42615 1.26 255 255 255
-0.0842091 -0.282842 1.16 255 255 255
-0.739676 0.0451938 1.449 255 255 255
-0.041338 0.306829 0.83 255 255 255
-0.555161 0.0892661 1.242 255 255 255
0.584851 -0.445611 1.724 255 255 255
-0.561002 0.475849 1.359 255 255 255
0.11126 0.0498417 0.782 0 0 0
0.0323357 0.0545306 0.814 255 255 255
-0.523972 0.49934 1.316 255 255 255
-0.090168 0.0427576 0.871 255 255 255
-0.483479 0.510032 1.305 255 255 255
-0.160493 -0.184276 0.961 0 0 0
0.39967 -0.30818 1.384 255 255 255
-0.538249 0.0121717 1.213 255 255 255
-0.0137308 -0.0956006 0.879 0 0 0
0.0124602 -0.0395193 0.814 0 0 0
0.156366 0.0563011 0.766 0 0 0
-0.451977 0.0688166 1.108 0 0 0
0.299306 0.208078 0.642 255 255 255
-0.398184 -0.220461 1.094 255 255 255
0.229352 -0.0975046 0.969 0 0 0
-0.300088 0.10289 1.087 255 255 255
-0.565609 0.118146 1.27 255 255 255
-0.334631 -0.225478 1.051 0 0 0
0.120676 0.176658 0.769 255 255 255
-0.0649454 0.000221986 0.821 0 0 0
-0.0105599 0.085005 0.854 0 0 0
0.0264526 -0.0831033 0.883 255 255 255
-0.303512 0.168476 1.044 255 255 255
-0.436452 -0.49744 1.33 255 255 255
-0.109151 0.203765 0.887 255 255 255
-0.221622 -0.341149 1.22 0 0 0
-0.332258 -0.292355 1.124 255 255 255
-0.243425 0.204577 0.937 255 255 255
0.208748 -0.109394 0.991 255 255 255
-0.133617 0.220021 0.877 0 0 0
0.1323 0.22661 0.786 255 255 255
-0.169867 0.242014 0.895 255 255 255
-0.284478 0.0547847 1.116 255 255 255
0.328182 0.015405 0.719 255 255 255
-0.34413 0.169114 1.092 255 255 255
0.278346 -0.219762 1.176 255 255 255
-0.667246 0.472212 1.324 255 255 255
-0.0510223 0.13736 0.906 255 255 255
0.445185 -0.425049 1.624 255 255 255
0.322808 0.112472 0.69 255 255 255
0.171768 0.100286 0.741 255 255 255
0.118938 -0.130619 0.969 255 255 255
-0.49849 -0.368434 1.252 255 255 255
0.0781796 -0.365374 1.396 0 0 0
0.0420676 0.18005 0.85 255 255 255
0.0883739 -0.18517 1.036 255 255 255
-0.473892 -0.0996817 1.205 255 255 255
0.285506 -0.279797 1.345 255 255 255
0.256916 0.151332 0.688 255 255 255
0.480593 -0.194289 1.208 0 0 0
0.156578 0.211529 0.755 255 255 255
0.0333686 0.149225 0.84 255 255 255
0.122652 0.105054 0.758 255 255 255
0.1742 0.162054 0.726 255 255 255
0.46229 -0.393709 1.583 255 255 255
0.266446 0.24006 0.667 255 255 255
0.00469288 -0.0686884 0.847 0 0 0
-0.182582 -0.0487821 0.886 255 255 255
0.600795 -0.61793 1.959 0 0 0
-0.0739131 -0.45073 1.393 255 255 255
-0.0824434 -0.295717 1.189 255 255 255
0.175013 0.0702362 0.755 255 255 255
0.200865 -0.229103 1.205 255 255 255
0.234112 -0.00526566 0.844 255 255 255
-0.735428 0.214926 1.498 255 255 255
0.205006 0.229205 0.718 255 255 255
0.165121 0.00557291 0.822 255 255 255
-0.295975 0.105718 1.098 255 255 255
-0.164897 0.0854857 1.007 255 255 255
-0.569959 0.251554 1.354 255 255 255
0.00816287 0.255468 0.928 255 255 255
-0.349462 -0.0885569 1.092 255 255 255
0.263252 0.15223 0.687 255 255 255
-0.244927 -0.348644 1.198 255 255 255
-0.152093 -0.536159 1.403 255 255 255
-0.444203 -0.359523 1.215 255 255 255
0.395375 -1.10535 2.844 0 0 0
0.706426 -0.413301 1.599 255 255 255
0.150461 0.111439 0.743 255 255 255
-0.141795 0.0683511 0.951 255 255 255
-0.224498 -0.113858 0.974 255 255 255
0.257628 0.161983 0.681 255 255 255
-0.438469 0.38566 1.273 255 255 255
0.819701 -0.777211 2.244 255 255 255
0.018675 -0.291515 1.22 255 255 255
0.0206361 0.0645085 0.823 255 255 255
-0.274113 -0.389181 1.215 255 255 255
0.507388 -0.232276 1.265 255 255 255
-0.164387 0.163717 0.889 255 255 255
0.595572 -0.216796 1.247 255 255 255
-0.349736 -0.426448 1.203 255 255 255
-0.450534 0.268632 1.249 255 255 255
0.311051 0.02161 0.731 255 255 255
0.317477 0.157583 0.658 255 255 255
0.123672 0.203302 0.78 255 255 255
-0.308427 0.115313 1.055 255 255 255
-0.0525308 -0.021 0.815 255 255 255
-1.41884 -1.08314 2.871 255 255 255
0.609342 -0.607341 1.966 0 0 0
0.183334 0.243124 0.739 255 255 255
-0.0941018 0.111189 0.909 255 255 255
0.0135373 -0.583123 1.539 0 0 0
0.846785 -0.56504 1.81 255 255 255
0.317195 -0.080808 0.958 0 0 0
0.227865 -0.0765181 0.983 255 255 255
0.0623485 0.126447 0.808 255 255 255
0.279219 0.0600871 0.751 255 255 255
-0.715096 -0.233038 1.366 255 255 255
-0.255606 0.355774 0.954 255 255 255
0.306291 0.0775202 0.731 255 255 255
0.102302 -0.047791 0.868 255 255 255
-0.468445 -0.417132 1.27 255 255 255
-0.694028 0.0645823 1.409 255 255 255
-0.117681 0.0377267 0.886 255 255 255
0.172546 0.143742 0.729 255 255 255
0.336093 -0.0653402 0.916 255 255 255
1.15208 -0.90035 2.356 255 255 255
-0.321056 0.0897303 1.057 255 255 255
0.145623 0.127157 0.743 0 0 0
0.235003 0.0920943 0.724 255 255 255
0.481395 -0.214087 1.22 255 255 255
-0.434314 0.231661 1.215 255 255 255
0.312468 0.155074 0.661 255 255 255
-0.701913 0.462191 1.345 255 255 255
0.0380292 -0.253098 1.145 255 255 255
-0.56353 0.345712 1.387 255 255 255
0.699802 -0.664783 2.024 255 255 255
0.144144 -0.362157 1.419 255 255 255
0.137303 0.0698302 0.764 255 255 255
-0.298983 0.0707887 1.083 255 255 255
0.239891 0.198554 0.681 0 0 0
0.302026 -0.145975 1.07 255 255 255
-0.0395051 0.0295787 0.82 255 255 255
0.172507 0.209451 0.739 255 255 255
0.316431 -0.638997 1.917 255 255 255
-0.178598 -0.157471 0.941 0 0 0
0.638146 -0.395699 1.591 255 255 255
0.351476 0.01975 0.707 255 255 255
0.193674 0.178215 0.715 255 255 255
0.292901 0.226542 0.644 255 255 255
0.0969739 -0.103614 0.925 255 255 255
0.0172401 -0.18361 1.018 255 255 255
-0.00491155 0.0616666 0.839 0 0 0
-0.295226 -0.215316 1.027 255 255 255
-0.51227 -0.467926 1.308 255 255 255
1.15914 -0.862536 2.347 0 0 0
0.20735 0.137299 0.714 255 255 255
-0.414935 0.308563 1.222 255 255 255
-0.113342 -0.00800309 0.843 0 0 0
-0.0671699 -0.0688258 0.832 255 255 255
-0.225138 -0.215216 1.051 255 255 255
0.073176 0.133805 0.797 255 255 255
-0.00758835 -0.0661974 0.833 255 255 255
0.199994 0.115179 0.721 255 255 255
-1.49361 -1.05044 2.871 255 255 255
0.218818 0.233416 0.706 0 0 0
0.322551 -0.66704 1.935 0 0 0
-0.502402 -0.452023 1.299 255 255 255
-0.120106 0.29902 0.862 255 255 255
-0.242418 -0.0461706 0.951 255 255 255
-0.0991402 0.184988 0.901 255 255 255
0.31352 0.173122 0.652 255 255 255
-0.232251 0.322822 0.935 255 255 255
-0.104236 0.00158649 0.836 255 255 255
0.0783654 0.0482038 0.797 0 0 0
-0.275269 -0.142579 1.009 255 255 255
-0.0151389 0.0158783 0.802 255 255 255
0.0445987 -0.443091 1.412 255 255 255
0.158016 0.0727898 0.756 255 255 255
-0.713841 -0.237075 1.351 255 255 255
0.187306 0.0447292 0.76 255 255 255
-0.678282 0.394524 1.459 255 255 255
-0.12743 0.173835 0.904 255 255 255
-0.0558181 0.0608326 0.866 255 255 255
-0.0204117 -0.00763284 0.804 255 255 255
-0.700146 -0.286663 1.47 255 255 255
0.937081 -0.663455 2.01 255 255 255
-0.0918243 0.219643 0.887 255 255 255
0.042725 0.0727165 0.81 0 0 0
0.390024 -0.299726 1.366 255 255 255
0.245717 0.253216 0.688 255 255 255
-0.51966 -0.365518 1.249 255 255 255
-0.030997 0.0120375 0.807 255 255 255
-0.258058 -0.0425758 0.975 255 255 255
-0.16404 0.15317 0.895 255 255 255
-0.0266383 -0.137469 0.93 255 255 255
0.19729 0.233477 0.724 255 255 255
-0.396832 -0.347246 1.18 0 0 0
0.0600513 0.0674887 0.795 255 255 255
0.412216 -0.342225 1.452 0 0 0
-0.49167 0.146642 1.215 255 255 255
-0.706378 -0.245762 1.375 255 255 255
-0.48131 0.0929843 1.139 255 255 255
-0.391746 -0.301804 1.132 255 255 255
0.57389 -0.212225 1.244 255 255 255
-0.43211 0.29222 1.237 255 255 255
0.160783 0.0888228 0.746 255 255 255
-0.155354 0.17634 0.887 255 255 255
-0.336074 -0.461739 1.262 255 255 255
-0.265415 -0.124517 1.009 255 255 255
-0.251401 0.15146 0.999 255 255 255
-0.705044 -0.276648 1.351 255 255 255
0.0326535 0.0216249 0.822 255 255 255
0.275505 0.0485032 0.761 0 0 0
-0.281835 0.382149 0.986 255 255 255
-0.399917 0.4849 1.289 255 255 255
0.0875548 0.0252636 0.81 255 255 255
-0.0760098 -0.0999011 0.905 0 0 0
0.491113 -0.617885 1.929 255 255 255
-0.0437929 -0.128448 0.909 0 0 0
0.0660245 0.175243 0.821 255 255 255
0.0891725 0.296902 0.864 255 255 255
-0.119391 0.275359 0.867 255 255 255
-0.710083 0.415397 1.409 255 255 255
0.318586 -0.00978641 0.88 255 255 255
-0.278213 -0.332446 1.182 0 0 0
-0.106021 -0.193902 0.978 0 0 0
0.711982 -0.309996 1.456 255 255 255
0.32983 -0.314937 1.384 0 0 0
0.35879 -0.0404938 0.863 0 0 0
-0.237057 0.303778 0.942 255 255 255
0.521993 -0.304248 1.429 255 255 255
-0.799319 0.169526 1.551 255 255 255
0.160942 0.0290282 0.77 255 255 255
-0.653793 -0.0380182 1.31 255 255 255
0.282977 0.249598 0.655 255 255 255
-0.110743 -0.111063 0.912 255 255 255
0.0851602 0.3316 0.852 0 0 0
0.550211 -0.686213 1.972 255 255 255
0.314492 0.192107 0.641 0 0 0
0.0581401 0.313845 0.884 255 255 255
-0.452554 0.00767462 1.132 255 255 255
-0.398383 0.314857 1.208 255 255 255
0.593313 -0.422809 1.7 255 255 255
-0.278701 0.0422982 1.122 255 255 255
0.159203 -0.151452 1.036 255 255 255
-0.329934 -0.0300788 1.098 255 255 255
-0.690909 -0.243184 1.412 255 255 255
-0.0991734 0.0339386 0.863 255 255 255
0.0690231 0.0622354 0.794 255 255 255
-0.458801 0.194414 1.217 255 255 255
-0.0335826 -0.0443774 0.806 255 255 255
-0.0388711 -0.190762 1.012 255 255 255
-0.468945 -0.186751 1.173 0 0 0
0.390632 -0.664971 1.929 255 255 255
0.214324 0.245357 0.714 255 255 255
0.349578 -0.110313 0.957 255 255 255
-0.419342 -0.0220884 1.147 255 255 255
-0.205781 0.0807621 1.075 255 255 255
0.349326 0.0963611 0.712 255 255 255
0.377264 -0.659632 1.941 255 255 255
0.273582 -0.11971 1.01 0 0 0
0.179704 0.219979 0.734 255 255 255
-0.293116 0.0679471 1.094 255 255 255
-0.554448 -0.305168 1.227 255 255 255
-0.16316 -0.302674 1.171 255 255 255
0.284865 0.251638 0.652 255 255 255
0.304615 0.0830113 0.727 0 0 0
-0.0391013 -0.0790563 0.84 255 255 255
-0.26068 -0.151324 0.991 0 0 0
-0.385664 -0.0392603 1.158 255 255 255
0.055217 -0.399996 1.39 255 255 255
0.0942273 0.120486 0.778 255 255 255
0.0324208 0.31128 0.889 255 255 255
0.0637829 0.233361 0.863 255 255 255
-0.105185 -0.0869191 0.878 255 255 255
0.714514 -0.388168 1.571 255 255 255
-0.664832 0.303376 1.466 255 255 255
-0.394905 0.401958 1.234 255 255 255
-0.632622 0.424135 1.4 0 0 0
-0.385303 -0.427665 1.229 255 255 255
1.08161 -0.803533 2.32 255 255 255
-0.0591361 -0.564438 1.477 255 255 255
-0.58987 -0.0160628 1.26 255 255 255
-0.0177721 -0.00239637 0.803 255 255 255
-0.465443 -0.27172 1.169 0 0 0
0.173926 0.0472649 0.761 0 0 0
-0.344969 -0.345319 1.167 0 0 0
0.108159 0.112835 0.769 0 0 0
-0.555602 -0.00368259 1.234 255 255 255
0.168874 -0.102868 0.975 255 255 255
0.27882 -0.240511 1.265 255 255 255
0.124622 0.204046 0.778 255 255 255
0.308845 0.0215099 0.77 255 255 255
-0.0240168 -0.109708 0.889 0 0 0
-0.606082 0.46865 1.351 255 255 255
0.492716 -0.587798 1.923 255 255 255
0.20601 0.0481846 0.756 255 255 255
0.0256035 -0.236051 1.092 0 0 0
-0.270603 -0.389821 1.217 255 255 255
0.254285 0.249536 0.678 255 255 255
1.13037 -0.914546 2.383 255 255 255
0.346627 0.0899115 0.716 255 255 255
0.640092 -0.654122 1.972 0 0 0
-0.741099 0.325148 1.535 255 255 255
0.275145 0.104032 0.709 255 255 255
0.19218 -0.0544648 0.934 255 255 255
0.0831488 0.0840935 0.781 255 255 255
-0.139123 -0.107896 0.923 0 0 0
0.320995 0.0642835 0.743 0 0 0
-0.537383 -0.329237 1.22 255 255 255
-0.173928 0.272742 0.886 255 255 255
0.429528 -0.19503 1.225 255 255 255
-0.723008 0.140862 1.463 255 255 255
-0.187201 -0.136435 0.923 255 255 255
0.463818 -0.847259 2.347 255 255 255
-0.140099 0.140939 0.95 255 255 255
0.511066 -0.199369 1.215 255 255 255
0.068864 0.317406 0.874 255 255 255
0.204121 0.233034 0.719 255 255 255
0.235881 0.220905 0.692 0 0 0
0.296671 0.139478 0.674 255 255 255
0.229089 0.0505781 0.755 255 255 255
-0.110376 -0.0227646 0.831 0 0 0
0.0422244 0.0203859 0.826 255 255 255
-0.115273 0.177657 0.901 255 255 255
-0.485115 -0.127917 1.194 255 255 255
-0.198426 -0.365518 1.249 255 255 255
-0.0875914 0.21989 0.888 0 0 0
0.284204 -0.0246683 0.85 0 0 0
-0.0460993 -0.400155 1.375 0 0 0
-0.185893 0.287164 0.895 255 255 255
0.0925301 0.240936 0.831 255 255 255
0.322427 0.15793 0.655 255 255 255
0.480195 -0.615963 1.923 0 0 0
-0.38679 -0.121761 1.087 255 255 255
-0.0965884 -0.40766 1.393 0 0 0
-0.211214 -0.186912 1.009 255 255 255
1.06243 -0.79015 2.303 255 255 255
0.263675 0.130065 0.694 255 255 255
-0.111592 0.0919989 0.895 255 255 255
0.0967072 -0.0150915 0.856 255 255 255
0.280018 -0.618143 1.882 0 0 0
-0.263628 0.184882 0.978 255 255 255
0.0438804 0.0698207 0.807 0 0 0
0.343313 -0.323786 1.393 255 255 255
-0.24754 -0.507558 1.375 255 255 255
-0.129928 0.0142606 0.862 0 0 0
0.106304 0.0409861 0.783 0 0 0
-0.685704 -0.0257859 1.339 255 255 255
0.000580941 0.159919 0.884 255 255 255
0.551737 -0.664929 1.966 255 255 255
-0.00366899 -0.452282 1.412 255 255 255
0.245434 0.171957 0.681 255 255 255
0.316524 0.148438 0.665 255 255 255
0.0347279 -0.016875 0.808 255 255 255
-0.401739 0.412942 1.249 255 255 255
-0.121778 0.227802 0.874 255 255 255
0.144924 -0.0221853 0.861 255 255 255
0.124294 -0.0989646 0.938 255 255 255
-0.489491 0.483981 1.357 255 255 255
-0.0859519 0.0766557 0.886 255 255 255
-0.370601 0.333308 1.176 255 255 255
0.317012 0.181478 0.644 255 255 255
0.0545886 -0.032192 0.83 255 255 255
-0.213013 -0.155639 0.958 255 255 255
-0.266404 0.00919729 1.094 255 255 255
0.326477 0.0143142 0.723 255 255 255
-0.303601 -0.361379 1.176 255 255 255
0.063639 -0.1687 1.018 255 255 255
-0.771621 0.105509 1.502 255 255 255
-0.00547353 0.257395 0.935 0 0 0
-0.168148 -0.050791 0.871 255 255 255
0.448909 -0.0858532 0.98 0 0 0
0.301532 0.0775202 0.731 255 255 255
-0.0485484 -0.404148 1.381 0 0 0
0.281914 0.190283 0.66 0 0 0
0.0460072 0.293162 0.9 255 255 255
-0.566455 -0.259153 1.286 255 255 255
-0.692867 -0.399675 1.336 255 255 255
-0.00585405 -0.16409 1 255 255 255
-0.202467 0.32648 0.891 255 255 255
-0.23585 0.104005 1.118 255 255 255
-1.38622 -0.898479 2.805 255 255 255
-0.324881 -0.412979 1.198 255 255 255
0.0779488 -0.53525 1.575 0 0 0
1.18357 -0.867715 2.32 255 255 255
0.0674538 -0.0796848 0.893 255 255 255
-0.258912 0.138132 1.1 255 255 255
0.664937 -0.408792 1.612 255 255 255
-0.0910935 0.14542 0.939 255 255 255
-0.032687 0.29105 0.851 255 255 255
-0.740825 0.108045 1.47 255 255 255
0.273562 0.220759 0.658 0 0 0
0.37312 -0.037292 0.854 0 0 0
0.450824 -0.0626836 0.967 255 255 255
0.153675 0.155755 0.741 255 255 255
0.15764 -0.679151 1.848 255 255 255
0.380701 -0.353308 1.449 255 255 255
-0.197502 -0.285769 1.149 255 255 255
0.246196 0.189676 0.677 0 0 0
-0.021114 -0.148779 0.954 255 255 255
-0.367468 -0.285592 1.098 255 255 255
0.522091 -0.240318 1.286 255 255 255
0.0110035 -0.556628 1.535 0 0 0
-0.0465026 -0.18506 0.999 255 255 255
-0.288084 0.0558908 1.102 255 255 255
-0.00790882 -0.357994 1.351 0 0 0
0.288553 0.202016 0.646 255 255 255
0.0468535 0.317744 0.813 255 255 255
-0.347718 -0.46563 1.267 255 255 255
0.328182 0.0867781 0.719 255 255 255
0.0742234 0.190402 0.823 255 255 255
0.476698 -0.102632 0.988 0 0 0
-0.269922 0.375141 0.972 255 255 255
-0.0575583 0.120857 0.893 255 255 255
-0.116224 -0.0588308 0.844 0 0 0
-0.584764 0.399074 1.4 255 255 255
0.150658 0.09174 0.75 255 255 255
0.361419 0.0830113 0.727 255 255 255
0.286596 -0.606489 1.865 0 0 0
0.280975 0.0901626 0.718 255 255 255
0.0488285 0.283743 0.898 255 255 255
0.229784 0.219285 0.694 255 255 255
-0.644878 0.22022 1.422 255 255 255
0.297543 -0.0731655 0.96 255 255 255
-0.519187 0.196606 1.283 255 255 255
0.512745 -0.174197 1.205 255 255 255
0.19511 0.1505 0.716 0 0 0
0.692358 -0.446878 1.646 255 255 255
0.0665925 0.328859 0.863 0 0 0
0.0364001 0.0998132 0.816 255 255 255
0.290258 0.184072 0.657 0 0 0
-0.201134 0.350965 0.898 255 255 255
0.247045 -1.16536 3.011 0 0 0
-0.176684 -0.0808598 0.923 255 255 255
0.352915 0.0595271 0.744 255 255 255
0.235316 0.144238 0.697 255 255 255
-0.671235 0.411418 1.419 255 255 255
0.102611 0.0231768 0.784 0 0 0
-0.506847 -0.460482 1.305 255 255 255
0.0701505 -0.0595976 0.855 255 255 255
0.383582 -0.259658 1.299 255 255 255
-0.0906545 -0.0688505 0.849 255 255 255
-0.740305 0.349002 1.498 255 255 255
1.14108 -0.84606 2.365 0 0 0
-0.0894696 0.166635 0.938 0 0 0
-0.13766 -0.439339 1.351 255 255 255
0.673603 -0.446878 1.646 0 0 0
0.437999 -0.202159 1.232 255 255 255
0.0874613 -0.0628181 0.861 255 255 255
0.00782331 -0.445389 1.412 255 255 255
0.210475 0.184901 0.705 255 255 255
0.271832 0.198574 0.659 255 255 255
-0.14363 -0.10339 0.923 255 255 255
0.30216 0.216823 0.637 0 0 0
0.260516 -0.117365 1.004 0 0 0
-0.262727 0.150735 1.005 255 255 255
-0.05284 0.248512 0.887 255 255 255
0.0361779 -0.529397 1.543 255 255 255
-0.353619 -0.361501 1.158 0 0 0
0.0982241 0.214021 0.811 255 255 255
0.123611 0.00286586 0.813 0 0 0
-0.230262 0.153628 0.992 255 255 255
-0.0167623 -0.10236 0.888 0 0 0
0.815011 -0.812636 2.303 255 255 255
0.0323479 -0.0805928 0.887 255 255 255
-0.0228287 -0.0425849 0.797 255 255 255
-0.458873 -0.16609 1.162 0 0 0
-0.546648 0.427891 1.39 255 255 255
0.034287 0.250689 0.9 255 255 255
0.265819 -0.0216442 0.84 0 0 0
-0.526718 -0.420744 1.281 255 255 255
0.239872 0.0687478 0.739 0 0 0
0.0860598 0.31969 0.861 255 255 255
-0.319417 0.13816 1.046 255 255 255
-0.394592 -0.205276 1.089 255 255 255
0.316704 0.164634 0.652 255 255 255
0.269962 0.142169 0.687 255 255 255
-0.352741 -0.326904 1.149 255 255 255
0.987193 -0.807309 2.32 255 255 255
0.500533 -0.605328 1.929 255 255 255
0.512119 -0.209325 1.227 255 255 255
0.604155 -0.250239 1.305 255 255 255
0.0446767 0.320006 0.847 255 255 255
0.0224732 -0.20924 1.03 255 255 255
-0.39123 -0.0700708 1.169 255 255 255
0.10427 0.00553901 0.817 255 255 255
0.250631 -0.0993883 0.972 0 0 0
0.647745 -0.620138 1.966 255 255 255
0.271264 0.121902 0.699 255 255 255
0.64119 -0.258659 1.294 255 255 255
-0.674969 0.409973 1.422 255 255 255
-1.22494 -1.08684 2.844 255 255 255
-0.634847 0.376091 1.452 255 255 255
-0.484864 0.0462776 1.13 255 255 255
0.301238 0.0428057 0.748 255 255 255
0.236643 0.0274521 0.797 255 255 255
0.282916 0.019374 0.785 255 255 255
0.117907 -0.0655617 0.879 0 0 0
-0.133607 0.0566712 0.937 0 0 0
-0.167306 -0.13464 0.921 255 255 255
-0.0174419 0.191214 0.924 255 255 255
-0.49849 -0.370471 1.252 255 255 255
-0.164156 0.272327 0.88 255 255 255
-0.040038 -0.177108 1 255 255 255
0.015157 -0.0929714 0.895 255 255 255
0.177556 0.219083 0.735 255 255 255
0.312699 0.111349 0.69 255 255 255
0.278566 0.146926 0.678 255 255 255
0.0337848 0.0374477 0.817 255 255 255
0.389796 -0.0954328 0.964 255 255 255
-0.181662 -0.159002 0.941 0 0 0
-0.0575404 -0.390664 1.381 0 0 0
0.220376 0.223459 0.7 255 255 255
-0.598006 -0.212661 1.378 255 255 255
-0.315065 0.100335 1.06 255 255 255
-1.29537 -1.00372 2.898 255 255 255
0.357087 0.0417276 0.709 255 255 255
0.184736 0.18323 0.721 255 255 255
-0.104185 0.0253645 0.858 255 255 255
-0.342979 -0.286332 1.094 255 255 255
0.0359507 0.284482 0.905 255 255 255
0.274787 -0.147921 1.059 0 0 0
-0.218319 -0.0575046 0.934 255 255 255
0.282774 0.111475 0.705 255 255 255
-0.0163829 0.00931769 0.799 255 255 255
-0.130546 0.12213 0.948 255 255 255
-0.247933 -0.193212 1.025 255 255 255
-0.758778 0.360934 1.477 255 255 255
0.144674 -0.559449 1.729 255 255 255
0.29261 0.196314 0.648 0 0 0
0.113969 -0.105406 0.941 255 255 255
0.169614 -0.075176 0.927 0 0 0
0.0976017 -0.456025 1.484 0 0 0
0.136008 0.101504 0.75 255 255 255
0.212223 0.154361 0.707 255 255 255
-0.248975 -0.154902 0.983 255 255 255
-0.540253 -0.337731 1.222 255 255 255
0.038913 0.0478485 0.813 255 255 255
-0.0258076 0.142467 0.901 255 255 255
-0.281851 0.0568037 1.12 255 255 255
-0.668114 -0.123573 1.313 255 255 255
0.375689 -0.212971 1.225 255 255 255
-0.216145 0.14779 1.092 255 255 255
0.0598713 -0.394059 1.393 255 255 255
-0.0511414 -0.0196496 0.814 255 255 255
0.0324203 0.313208 0.851 255 255 255
-0.481067 -0.472906 1.31 255 255 255
-0.0553196 -0.00509721 0.817 0 0 0
0.00051128 0.00021036 0.778 255 255 255
-0.43701 -0.108596 1.217 0 0 0
0.0711351 0.265482 0.867 255 255 255
0.00588874 -0.526156 1.505 255 255 255
-0.461389 0.156287 1.198 255 255 255
0.119646 -0.176407 1.044 255 255 255
0.16826 0.145326 0.731 0 0 0
0.0698688 -0.0201565 0.835 255 255 255
0.363701 -0.670066 1.953 255 255 255
0.0519279 -0.141165 0.955 255 255 255
-0.111751 -0.311556 1.213 255 255 255
-0.169628 -0.0219018 0.85 255 255 255
-0.558667 0.498266 1.302 255 255 255
-0.606755 0.122704 1.319 255 255 255
0.248931 0.137432 0.697 255 255 255
-0.295861 0.330621 1.041 255 255 255
0.306199 -0.300385 1.369 255 255 255
-1.32327 -1.04184 2.939 255 255 255
0.0785185 0.183893 0.812 255 255 255
-0.17041 0.143016 0.964 255 255 255
-0.0182078 0.279138 0.888 255 255 255
0.314455 0.0699504 0.739 0 0 0
-0.0399869 0.30818 0.83 255 255 255
0.840893 -0.553258 1.81 255 255 255
-0.715916 0.0280344 1.416 255 255 255
-0.714063 0.274974 1.52 255 255 255
0.28801 -0.0549855 0.97 255 255 255
1.17679 -0.859711 2.329 0 0 0
0.511184 -0.206146 1.22 255 255 255
-1.39603 -1.0959 2.982 255 255 255
-0.767339 0.252231 1.563 255 255 255
-0.626269 -0.16546 1.396 255 255 255
-0.50921 0.0345583 1.169 255 255 255
0.0319385 -0.0154831 0.804 255 255 255
0.00620783 0.143979 0.866 255 255 255
0.266662 0.104325 0.711 255 255 255
-0.740305 0.192986 1.498 255 255 255
0.077843 0.296335 0.879 255 255 255
-0.12391 0.273166 0.869 255 255 255
-0.119775 -0.0202772 0.84 0 0 0
-0.223322 0.112293 1.11 255 255 255
0.295985 -0.174284 1.106 255 255 255
-0.575522 -0.426 1.297 0 0 0
-0.753828 0.39182 1.449 255 255 255
-0.208266 0.170546 0.91 255 255 255
-0.400935 0.267411 1.198 255 255 255
0.121797 -0.0795457 0.908 255 255 255
-0.0683595 -0.0389454 0.83 0 0 0
-0.0212651 0.271143 0.895 255 255 255
0.75913 -0.490513 1.744 0 0 0
-0.240106 0.146828 1.072 255 255 255
-0.26624 0.116036 1.147 255 255 255
0.37602 -0.0356501 0.848 0 0 0
-0.644558 0.392273 1.442 255 255 255
0.536084 -0.848341 2.329 0 0 0
-0.172306 0.0513262 1.012 255 255 255
-0.0672504 0.261551 0.868 255 255 255
-0.288111 0.0711296 1.116 255 255 255
-0.246264 0.0807851 1.124 255 255 255
-0.730505 0.278411 1.539 255 255 255
-0.10528 -0.238933 1.05 255 255 255
0.504061 -0.173908 1.203 255 255 255
-0.569313 -0.29273 1.242 0 0 0
-0.113112 -0.0821621 0.873 0 0 0
-0.12554 0.17619 0.901 255 255 255
-0.0219779 0.251632 0.925 255 255 255
0.186291 0.0400962 0.766 255 255 255
0.751975 -0.504725 1.774 255 255 255
-0.635427 0.29634 1.432 255 255 255
0.271581 0.22822 0.661 255 255 255
-0.237787 -0.141804 0.97 0 0 0
0.2412 0.11011 0.711 255 255 255
0.386309 -0.029355 0.79 0 0 0
0.208031 0.284443 0.737 255 255 255
-0.0905576 -0.00379535 0.823 255 255 255
-0.641384 -0.363767 1.324 255 255 255
0.129984 -0.0910403 0.935 255 255 255
0.101433 -0.455131 1.505 0 0 0
-0.410973 -0.0766205 1.182 255 255 255
-0.109958 -0.385289 1.362 255 255 255
0.175639 0.222077 0.737 255 255 255
0.45875 -0.0974127 0.984 255 255 255
-0.307925 -0.26902 1.096 255 255 255
0.237532 0.177944 0.687 0 0 0
-0.0962903 -0.16583 0.945 0 0 0
-0.484012 0.0225899 1.141 255 255 255
-0.18608 -0.428627 1.305 255 255 255
0.228791 0.210465 0.691 255 255 255
-0.703268 -0.234282 1.4 255 255 255
-0.0470239 0.315472 0.835 255 255 255
-0.663224 -0.0857871 1.291 255 255 255
-0.0359135 0.198055 0.935 255 255 255
-0.69661 -0.307068 1.369 255 255 255
0.336703 -0.0461648 0.864 0 0 0
0.272369 -0.286364 1.345 255 255 255
-0.0722153 -0.289638 1.18 255 255 255
-0.646455 0.0263318 1.33 255 255 255
0.352989 -0.0476809 0.866 0 0 0
-0.422356 0.115488 1.106 255 255 255
-0.675921 -0.309465 1.4 255 255 255
0.376411 -0.0336658 0.868 0 0 0
0.000599999 0.217167 0.913 255 255 255
-0.228325 -0.305072 1.203 255 255 255
-0.432353 -0.311136 1.167 0 0 0
0.792786 -0.801496 2.261 255 255 255
-0.137063 -0.0539689 0.854 255 255 255
0.377179 -0.584789 1.893 255 255 255
-0.0594745 0.237508 0.9 255 255 255
0.325917 0.0285902 0.727 255 255 255
-0.0578225 0.091367 0.875 255 255 255
-0.704391 0.412852 1.416 255 255 255
0.557061 -0.407688 1.65 255 255 255
-0.401428 -0.226628 1.098 255 255 255
-0.688614 -0.387506 1.362 255 255 255
0.314387 0.136877 0.672 255 255 255
-0.105358 -0.065776 0.845 255 255 255
0.335346 0.119519 0.679 255 255 255
-0.486243 -0.183956 1.192 255 255 255
0.369288 -0.173389 1.173 255 255 255
-0.322353 -0.199233 1.039 0 0 0
0.291992 0.129845 0.681 255 255 255
0.173188 -0.308793 1.357 255 255 255
0.0287439 0.310351 0.825 255 255 255
0.197135 0.292619 0.755 255 255 255
-0.439318 0.250331 1.229 255 255 255
-0.242447 -0.497229 1.359 255 255 255
-0.565788 0.445025 1.387 255 255 255
0.275225 -0.0683497 1.004 255 255 255
0.0895237 0.186006 0.804 255 255 255
0.304861 0.0400474 0.742 0 0 0
0.0172231 -0.181774 1.017 255 255 255
-0.0792853 -0.17948 0.944 255 255 255
-0.656669 -0.131102 1.393 255 255 255
0.055289 0.0614806 0.801 255 255 255
0.428549 -0.501838 1.774 0 0 0
0.263288 -0.0092526 0.832 0 0 0
-0.040263 0.210616 0.93 255 255 255
-0.375703 -0.372209 1.18 255 255 255
0.256536 0.262875 0.684 255 255 255
0.119264 0.137487 0.76 255 255 255
0.450037 -0.725833 2.057 255 255 255
-0.114228 0.294128 0.86 255 255 255
-0.676393 -0.154984 1.425 255 255 255
-0.485723 -0.450283 1.294 255 255 255
-0.194931 -0.339113 1.227 0 0 0
0.104761 0.162892 0.781 255 255 255
-0.314169 -0.386007 1.187 255 255 255
0.306433 0.178182 0.655 0 0 0
0.384352 -0.627302 1.929 255 255 255
0.175165 0.0472649 0.761 0 0 0
0.503054 -0.186734 1.21 255 255 255
0.0841666 -0.0596673 0.856 255 255 255
-0.282015 0.13126 1.059 255 255 255
-0.166427 -0.283257 1.154 255 255 255
0.484498 -0.0460306 0.981 0 0 0
-0.0732764 -0.388417 1.381 255 255 255
0.396525 -0.537348 1.826 0 0 0
-0.0342444 -0.140647 0.931 255 255 255
0.261317 0.194971 0.665 255 255 255
0.298846 0.124851 0.684 255 255 255
1.12044 -0.813572 2.338 255 255 255
-0.655811 0.43201 1.396 255 255 255
0.0192261 0.0495949 0.82 255 255 255
-0.0727342 0.266586 0.866 0 0 0
0.197313 0.0600871 0.751 0 0 0
0.168523 -0.509802 1.659 255 255 255
0.190076 0.14411 0.719 0 0 0
0.0654738 0.111896 0.798 255 255 255
0.0402859 -0.0183249 0.814 255 255 255
0.291585 -0.0512597 0.931 255 255 255
-0.134411 -0.152932 0.932 255 255 255
-0.13727 0.284368 0.873 255 255 255
0.863897 -0.563647 1.815 255 255 255
-0.682758 0.424135 1.4 255 255 255
-0.0297677 -0.341082 1.345 255 255 255
0.102093 -0.389957 1.445 0 0 0
0.521848 -0.403907 1.624 255 255 255
0.476092 -0.444378 1.677 255 255 255
0.478808 -0.22347 1.239 255 255 255
-0.0812566 0.0676978 0.882 255 255 255
0.00654474 -0.109699 0.913 255 255 255
-0.506656 -0.470774 1.31 255 255 255
0.183009 -0.392665 1.491 0 0 0
-0.0177721 -0.00500986 0.803 255 255 255
-0.701189 -0.203691 1.378 255 255 255
-0.108782 0.062097 0.884 255 255 255
0.104627 0.0268665 0.78 0 0 0
0.343588 0.118588 0.68 255 255 255
0.594742 -0.365235 1.539 255 255 255
-0.660012 0.259055 1.445 255 255 255
-0.376817 -0.0447585 1.154 255 255 255
0.0249869 0.310264 0.882 0 0 0
0.185335 0.271876 0.752 255 255 255
-0.492855 0.346498 1.313 255 255 255
-0.414022 0.0800859 1.066 255 255 255
-0.252431 -0.145451 0.984 0 0 0
0.282742 0.227234 0.652 255 255 255
1.08465 -0.933564 2.402 0 0 0
0.0602289 -0.126575 0.939 255 255 255
0.112149 -0.562788 1.664 255 255 255
-0.172395 0.24438 0.893 255 255 255
-0.332006 0.134707 1.059 255 255 255
-0.0454718 0.242424 0.913 255 255 255
0.0495612 -0.373383 1.359 0 0 0
-0.172281 0.237508 0.9 255 255 255
-0.326852 -0.113981 1.048 255 255 255
0.0482848 -0.0749034 0.888 255 255 255
0.259118 0.125494 0.7 255 255 255
0.219432 0.178265 0.697 0 0 0
0.382954 -0.036768 0.842 0 0 0
0.542137 -0.65853 1.966 0 0 0
-0.316492 0.274298 1.059 255 255 255
-0.577818 0.294135 1.378 255 255 255
0.128091 0.0444081 0.776 0 0 0
-0.0566702 0.239504 0.902 255 255 255
-0.0877951 0.1917 0.905 255 255 255
-0.503696 0.328763 1.319 255 255 255
0.011231 0.30751 0.821 255 255 255
-0.168235 -0.00395214 0.857 0 0 0
0.135619 0.25734 0.798 255 255 255
0.387202 -0.0316998 0.935 255 255 255
0.273482 0.250488 0.663 255 255 255
-0.200085 0.218988 0.927 255 255 255
-0.42557 0.0112786 1.124 255 255 255
0.0752209 0.160038 0.805 255 255 255
0.179913 0.209277 0.73 255 255 255
-0.501549 0.333056 1.319 255 255 255
-0.191425 -0.396464 1.27 255 255 255
0.867353 -0.472127 1.739 255 255 255
0.618583 -0.240511 1.265 255 255 255
-0.311308 -0.36113 1.169 255 255 255
-0.11022 0.0635356 0.884 255 255 255
-0.671092 0.144834 1.409 255 255 255
-0.244927 -0.346694 1.198 255 255 255
0.589185 -0.565471 1.911 255 255 255
-0.164115 -0.0203496 0.843 255 255 255
-0.0804292 -0.0999011 0.905 255 255 255
-0.119961 -0.440431 1.375 255 255 255
-0.0633729 0.115045 0.893 255 255 255
0.279137 0.238236 0.656 255 255 255
0.387304 -0.0312795 0.774 0 0 0
0.317045 0.133795 0.673 255 255 255
0.201821 0.132837 0.715 255 255 255
0.267842 0.108493 0.708 255 255 255
0.315379 0.00494918 0.73 0 0 0
-0.186046 -0.269813 1.114 255 255 255
0.375261 -0.668008 1.947 255 255 255
-0.24313 0.0785345 1.118 255 255 255
0.25278 -0.200542 1.122 255 255 255
0.317829 0.225664 0.627 0 0 0
-0.276391 -0.417356 1.234 255 255 255
0.26415 0.0654926 0.743 255 255 255
0.544291 -0.344315 1.524 255 255 255
-1.18163 -1.02646 2.818 255 255 255
0.393369 -0.569141 1.882 255 255 255
0.531112 -0.393052 1.612 255 255 255
0.481425 -0.0618051 0.978 255 255 255
-0.170305 -0.127146 0.921 255 255 255
-0.389993 -0.340786 1.171 255 255 255
0.173018 0.150239 0.726 255 255 255
-0.167842 0.0509712 1.005 255 255 255
0.28491 0.191556 0.657 0 0 0
-0.51758 -0.202103 1.244 0 0 0
-0.27517 0.0591497 1.13 255 255 255
0.819701 -0.773559 2.244 255 255 255
0.0254341 0.145298 0.849 255 255 255
-0.471919 -0.0488995 1.21 255 255 255
0.999174 -0.682316 2.057 255 255 255
-0.0179904 -0.223762 1.043 255 255 255
-0.412897 -0.105473 1.182 255 255 255
0.434385 -0.279797 1.345 0 0 0
-0.557285 -0.251367 1.289 255 255 255
-0.115232 -0.452866 1.372 255 255 255
0.0990377 0.0721898 0.776 255 255 255
0.0920552 0.170342 0.792 255 255 255
0.150143 0.244875 0.779 255 255 255
-0.628542 0.19802 1.396 255 255 255
-0.657357 -0.234484 1.429 255 255 255
0.19403 -0.136367 1.024 255 255 255
0.291233 0.193282 0.652 0 0 0
0.359936 -0.0166816 0.741 255 255 255
0.70122 -0.410699 1.599 255 255 255
-0.698851 0.278307 1.498 255 255 255
-0.120064 0.186252 0.893 255 255 255
0.30776 0.110067 0.689 255 255 255
-0.121201 -0.0620155 0.85 0 0 0
0.0635259 0.327319 0.841 255 255 255
-0.335951 0.00934862 1.112 255 255 255
0.316994 0.158413 0.657 0 0 0
-0.164529 -0.0629149 0.882 255 255 255
-0.0100901 0.308293 0.816 255 255 255
-0.716089 0.389462 1.449 255 255 255
0.155669 -0.141496 1.013 255 255 255
0.428387 -0.20734 1.239 255 255 255
0.022617 -0.102506 0.902 255 255 255
0.353399 -0.231927 1.252 255 255 255
0.200096 0.161472 0.713 0 0 0
-0.113242 0.243447 0.874 0 0 0
-0.224736 -0.171941 0.989 255 255 255
0.617445 -0.215926 1.242 0 0 0
-0.149831 0.318153 0.88 255 255 255
0.189281 0.0507791 0.758 0 0 0
-0.215584 -0.492081 1.357 255 255 255
-0.375847 -0.162777 1.066 255 255 255
-0.637933 0.400717 1.422 255 255 255
0.235207 -0.164514 1.044 255 255 255
-0.642868 0.14389 1.378 255 255 255
-0.365219 0.0200244 1.102 255 255 255
0.338895 0.0106204 0.712 255 255 255
-0.69782 -0.344547 1.333 255 255 255
-0.515213 -0.44186 1.294 255 255 255
-0.407658 -0.0433636 1.167 255 255 255
0.0440979 0.316963 0.811 255 255 255
-0.667187 0.453733 1.359 255 255 255
0.508963 -0.186734 1.21 255 255 255
-0.574543 -0.187031 1.339 255 255 255
-0.446853 -0.487921 1.316 255 255 255
0.0707249 0.254132 0.862 255 255 255
0.00473166 0.11141 0.854 255 255 255
0.132217 0.0132515 0.801 255 255 255
-0.244481 0.220631 0.947 255 255 255
0.328925 0.137823 0.666 0 0 0
-0.352359 -0.41091 1.192 255 255 255
0.00725441 -0.170999 1.012 255 255 255
0.500918 -0.302758 1.422 255 255 255
0.16287 -0.0251617 0.867 255 255 255
-0.646801 0.355132 1.463 255 255 255
-0.166791 0.198404 0.902 255 255 255
-0.138042 0.00434345 0.843 255 255 255
0.0303237 0.284025 0.913 255 255 255
0.599741 -0.751311 1.966 255 255 255
0.164206 0.206303 0.745 255 255 255
-0.0624309 0.0436171 0.86 255 255 255
-0.220557 0.318446 0.918 255 255 255
0.155946 0.00818804 0.816 255 255 255
-0.503542 0.305901 1.313 255 255 255
0.161106 -0.0121186 0.843 255 255 255
-0.362448 0.0355408 1.083 255 255 255
-0.034134 0.167879 0.928 255 255 255
-0.0328023 0.289297 0.854 255 255 255
-0.314698 -0.0699719 1.053 255 255 255
0.0557335 -0.437984 1.403 255 255 255
-1.46604 -1.08149 2.818 255 255 255
0.313822 0.111349 0.69 255 255 255
-0.110137 -0.143832 0.932 255 255 255
-0.647192 -0.17317 1.422 255 255 255
-0.021935 0.0958424 0.864 255 255 255
0.0845155 0.223625 0.832 255 255 255
0.33289 0.110211 0.697 255 255 255
-0.537335 0.464772 1.372 0 0 0
-0.0605319 0.204464 0.916 255 255 255
0.124393 0.293608 0.827 255 255 255
0.171577 -1.09066 2.818 255 255 255
0.267644 0.255314 0.67 255 255 255
0.210604 -0.188 1.102 255 255 255
-1.32488 -1.13139 2.911 255 255 255
0.364237 -1.09525 2.818 0 0 0
-0.112382 0.147278 0.951 0 0 0
0.0501986 0.0694746 0.803 0 0 0
-0.512769 0.460306 1.372 255 255 255
0.139298 0.136533 0.748 255 255 255
-0.0337241 -0.0983494 0.878 255 255 255
0.254125 -0.0255389 0.88 255 255 255
0.210475 0.181459 0.705 255 255 255
-0.293789 0.0219761 1.11 255 255 255
-0.409471 0.412554 1.254 255 255 255
-0.581666 0.0269963 1.26 255 255 255
0.575284 -0.688065 1.959 255 255 255
0.304697 0.104989 0.7 255 255 255
-0.0177942 0.0224597 0.804 255 255 255
-0.155354 0.336561 0.887 255 255 255
0.363574 -0.0222167 0.811 255 255 255
0.0374509 0.0621714 0.81 0 0 0
0.24618 0.230353 0.68 255 255 255
-0.386737 -0.185488 1.077 255 255 255
0.235853 -0.606976 1.848 255 255 255
0.169779 -0.12816 0.999 255 255 255
0.146833 0.13683 0.743 255 255 255
-0.481798 -0.428078 1.278 255 255 255
-0.442879 0.162305 1.185 255 255 255
0.766261 -0.55793 1.865 255 255 255
0.819325 -0.524023 1.821 255 255 255
0.439873 -0.104662 0.992 255 255 255
-0.0104981 -0.0743769 0.849 0 0 0
0.0967837 -0.315592 1.339 255 255 255
-0.316492 0.0881767 1.059 255 255 255
-0.346161 -0.355878 1.152 0 0 0
0.634382 -0.591466 1.935 255 255 255
0.235881 0.240049 0.692 255 255 255
0.253088 0.209208 0.669 255 255 255
0.463578 -0.25449 1.316 255 255 255
-0.343861 -0.338353 1.203 0 0 0
-0.0258515 0.0711076 0.854 255 255 255
0.0825267 -0.447037 1.432 0 0 0
0.388815 -0.190672 1.21 255 255 255
0.408798 -0.755319 2.121 255 255 255
0.0594506 -0.139026 0.951 255 255 255
0.1391 -0.163411 1.037 255 255 255
0.879788 -0.831338 2.356 255 255 255
0.208206 0.224024 0.709 255 255 255
0.530729 -0.351796 1.535 255 255 255
-0.109719 -0.419446 1.387 0 0 0
-0.0395137 -0.266747 1.124 255 255 255
-0.0706592 0.184614 0.952 0 0 0
-0.00222946 0.109139 0.858 255 255 255
-0.154557 -0.184659 0.963 0 0 0
0.162944 -0.0846815 0.932 255 255 255
0.169597 -0.625673 1.815 0 0 0
0.0834405 -0.215131 1.059 255 255 255
-0.130669 -0.236773 1.048 255 255 255
0.539492 -0.808033 2.189 0 0 0
-0.0690589 0.250272 0.873 255 255 255
-0.271972 -0.285225 1.132 255 255 255
-0.716003 0.437979 1.372 255 255 255
0.107579 0.173503 0.783 255 255 255
0.351045 -0.00841132 0.886 0 0 0
0.586213 -0.345754 1.498 255 255 255
0.392482 -0.242032 1.273 0 0 0
-0.468446 -0.206686 1.167 0 0 0
-0.350368 -0.265121 1.073 255 255 255
-0.192177 0.179719 0.904 255 255 255
