ply
format ascii 1.0
comment Created by Open3D
element vertex 1314
property double x
property double y
property double z
property uchar red
property uchar green
property uchar blue
end_header
-0.048235 0.224146 0.882 0 0 0
0.0799869 0.00273191 0.775 255 255 255
-0.210786 0.378171 0.984 255 255 255
0.363571 0.0307562 0.751 0 0 0
0.315335 0.172574 0.658 255 255 255
0.205438 0.182055 0.745 255 255 255
0.309457 -0.338958 1.354 255 255 255
0.0774888 0.136932 0.875 255 255 255
0.178027 0.167679 0.768 255 255 255
0.0660186 -0.107857 0.874 0 0 0
-0.596661 -0.464975 1.33 255 255 255
0.0126439 -0.0750504 0.826 0 0 0
-0.127244 -0.168111 0.958 255 255 255
-0.476505 -0.293682 1.39 255 255 255
0.0076351 0.0397853 0.868 255 255 255
-0.157134 0.0038846 1.102 255 255 255
0.179587 0.169293 0.764 255 255 255
-0.018436 -0.0295972 0.833 255 255 255
-0.184593 0.172677 0.981 255 255 255
0.281461 0.198489 0.677 255 255 255
-0.148906 0.0594115 1.135 255 255 255
-0.0367492 0.0232033 0.882 255 255 255
-0.12219 -0.187919 0.98 255 255 255
-0.414586 0.0393147 1.198 255 255 255
-0.0111906 0.196118 0.905 255 255 255
0.0863858 0.0928473 0.837 255 255 255
-0.265973 0.151094 1.13 255 255 255
0.0787179 0.0473839 0.828 255 255 255
-0.59198 -0.461585 1.339 255 255 255
0.0452569 0.0686481 0.858 255 255 255
0.452227 -0.119437 0.931 255 255 255
-0.762374 -0.105857 1.484 255 255 255
0.268234 0.134607 0.7 255 255 255
0.248229 -0.0274348 0.85 255 255 255
0.891274 -0.705977 2.01 255 255 255
0.30523 0.190487 0.657 255 255 255
-0.666327 0.315378 1.524 255 255 255
0.212754 0.253584 0.767 255 255 255
0.191496 0.224015 0.777 255 255 255
0.154342 0.112054 0.781 255 255 255
0.199678 0.0595704 0.76 255 255 255
-0.0836299 0.309427 0.892 255 255 255
0.195193 0.183756 0.757 255 255 255
0.71755 -0.718702 1.947 255 255 255
0.316704 0.2336 0.652 255 255 255
-0.13867 0.280214 0.92 255 255 255
0.15644 0.278504 0.855 255 255 255
-0.389809 0.0868772 1.182 255 255 255
-0.706271 0.230803 1.646 255 255 255
0.281601 0.180557 0.68 255 255 255
-0.474215 0.118557 1.345 255 255 255
-0.0780822 0.0136037 0.912 255 255 255
-0.00540914 -0.135079 0.924 255 255 255
0.45632 -0.103838 0.927 0 0 0
-0.563752 -0.298624 1.47 0 0 0
0.100649 0.0229067 0.82 255 255 255
0.0102199 0.284504 0.848 255 255 255
-0.537718 0.328835 1.484 255 255 255
-0.416674 0.246036 1.336 255 255 255
0.316574 0.144532 0.672 255 255 255
0.312989 -0.036412 0.901 255 255 255
0.313588 -0.245932 1.201 0 0 0
0.451181 -0.350232 1.39 255 255 255
-0.526908 -0.154005 1.416 255 255 255
0.130332 -0.050609 0.822 0 0 0
0.0372616 0.180373 0.938 255 255 255
-0.416735 0.44691 1.372 255 255 255
0.320472 0.142133 0.671 255 255 255
-0.337075 0.448649 1.357 255 255 255
-0.362668 -0.188151 1.194 255 255 255
-0.738328 -0.0482206 1.494 255 255 255
0.0604433 -0.197249 1.02 255 255 255
0.463578 -0.286614 1.316 255 255 255
-0.445944 0.484099 1.339 255 255 255
0.0163543 -0.487664 1.357 255 255 255
-0.739302 0.0806062 1.642 255 255 255
0.148401 -0.0825009 0.908 255 255 255
0.472273 -0.721475 1.929 255 255 255
0.0595225 -0.0472333 0.788 255 255 255
0.397561 -0.0224429 0.871 255 255 255
-0.676887 -0.0801656 1.456 255 255 255
-0.627264 0.425623 1.354 255 255 255
0.653226 -0.392814 1.559 255 255 255
0.614657 -0.210753 1.201 255 255 255
-0.370414 -0.15364 1.213 255 255 255
-0.959009 0.00344435 1.815 255 255 255
0.0495612 -0.0819079 0.814 0 0 0
0.316693 0.0821098 0.709 255 255 255
-0.768709 0.271417 1.571 255 255 255
0.216934 0.225091 0.747 255 255 255
0.02626 -0.280379 1.12 255 255 255
0.306901 0.190197 0.656 255 255 255
-0.0253676 0.14542 0.939 0 0 0
-0.584412 -0.340961 1.362 255 255 255
0.444695 -0.287499 1.33 255 255 255
0.292663 0.0808153 0.718 255 255 255
0.313308 0.244641 0.656 255 255 255
0.0678606 -0.0710479 0.811 255 255 255
0.240522 0.154798 0.709 255 255 255
-0.57433 -0.303396 1.425 255 255 255
0.321923 0.132061 0.681 255 255 255
-0.143042 -0.390226 1.194 255 255 255
-0.814469 0.0436444 1.659 0 0 0
-0.121127 -0.014735 1.025 255 255 255
0.204932 0.0129041 0.78 255 255 255
0.184492 -0.0694182 0.856 0 0 0
-0.137073 -0.213005 1.032 0 0 0
-0.740305 -0.0702894 1.498 255 255 255
-0.153802 0.355904 0.93 255 255 255
0.320099 0.200964 0.646 255 255 255
0.161656 -0.327448 1.283 255 255 255
0.271141 0.178721 0.69 255 255 255
0.123103 -0.327685 1.252 255 255 255
0.131404 0.148063 0.804 255 255 255
0.158618 -0.54865 1.513 255 255 255
0.165628 -0.164621 1.034 255 255 255
0.20065 0.206474 0.759 255 255 255
-0.834226 0.0304728 1.677 0 0 0
-0.503832 0.195724 1.429 255 255 255
0.323392 0.058567 0.732 255 255 255
0.34686 0.0341017 0.744 0 0 0
0.260316 -0.274955 1.217 255 255 255
0.16715 0.125778 0.764 255 255 255
0.333203 0.0607828 0.73 255 255 255
-0.0581529 0.217909 0.88 255 255 255
-0.490519 0.463593 1.324 255 255 255
0.319316 0.248836 0.653 255 255 255
0.638451 -0.657957 1.882 255 255 255
0.13317 -0.00379535 0.823 255 255 255
-0.0441462 -0.044455 0.832 0 0 0
0.0965117 -0.428656 1.366 255 255 255
0.282557 0.158475 0.685 255 255 255
0.357281 0.0733936 0.714 255 255 255
-0.516848 -0.388367 1.342 255 255 255
-0.00781609 0.0211757 0.858 255 255 255
0.280773 0.219746 0.678 255 255 255
0.328379 0.166756 0.652 255 255 255
-0.620532 -0.500822 1.294 255 255 255
-0.663215 0.435093 1.316 255 255 255
0.0840005 -0.0383055 0.789 255 255 255
-0.0747545 -0.121233 0.945 0 0 0
-0.0107825 0.0314545 0.872 255 255 255
-0.615834 0.476624 1.267 255 255 255
-0.0962643 0.263242 0.888 255 255 255
0.731908 -0.825844 2.189 0 0 0
-0.143521 -0.397382 1.198 255 255 255
0.304894 -0.0271549 0.886 255 255 255
-0.13268 0.337106 0.92 255 255 255
-0.434709 0.394418 1.416 255 255 255
-0.0527289 0.080213 0.91 255 255 255
-0.702244 -0.0245164 1.532 255 255 255
0.0021753 0.156728 0.952 0 0 0
-0.141747 0.0198791 1.094 255 255 255
-0.46614 0.477878 1.31 255 255 255
-0.292401 -0.21412 1.098 255 255 255
0.022857 0.273258 0.856 255 255 255
-0.380061 -0.131238 1.225 255 255 255
0.710574 -0.353067 1.498 0 0 0
0.337381 -0.166362 1.024 0 0 0
-0.669611 0.0280379 1.543 255 255 255
0.681312 -0.636088 1.899 0 0 0
-0.221883 -0.0548934 1.094 0 0 0
0.237923 0.0622816 0.748 255 255 255
-0.811283 0.156116 1.739 255 255 255
0.605596 -0.38198 1.516 255 255 255
-0.432122 0.158357 1.33 255 255 255
-0.148971 0.115697 1.108 255 255 255
-0.197167 0.333574 0.98 255 255 255
-0.568667 -0.306782 1.452 255 255 255
-0.420347 0.186073 1.327 255 255 255
-0.118657 -0.420738 1.244 255 255 255
0.575642 -0.622856 1.887 0 0 0
0.344578 0.0947371 0.7 255 255 255
0.248521 -0.0680231 0.912 255 255 255
-0.753106 0.195836 1.691 255 255 255
0.334729 0.0767716 0.713 0 0 0
-0.24409 -0.204791 1.059 0 0 0
0.0145304 0.325558 0.858 255 255 255
0.249307 -0.19089 1.068 255 255 255
-0.695171 -0.218525 1.416 255 255 255
-0.290781 0.376874 1.244 255 255 255
-0.0291258 -0.423674 1.316 255 255 255
-0.602307 0.375847 1.442 255 255 255
0.293276 -0.158654 1.039 255 255 255
-0.380435 -0.290884 1.201 0 0 0
-0.208194 -0.3852 1.167 255 255 255
0.215344 0.310709 0.795 255 255 255
0.0846393 0.308122 0.795 255 255 255
-0.111096 -0.288193 1.108 255 255 255
-0.0381832 -0.0786142 0.85 0 0 0
-0.750402 -0.234484 1.429 255 255 255
0.295505 0.140435 0.684 255 255 255
0.0472101 0.0386394 0.843 255 255 255
0.221042 -0.0563071 0.891 0 0 0
0.628769 -0.396867 1.555 255 255 255
-0.804394 0.251571 1.591 255 255 255
0.190445 -0.0782571 0.877 255 255 255
-0.0588693 -0.313211 1.182 255 255 255
0.28465 0.2388 0.682 255 255 255
-0.74788 0.33125 1.484 255 255 255
0.202155 0.261756 0.784 255 255 255
-0.0128316 -0.128086 0.917 255 255 255
0.134036 -0.144848 1.037 255 255 255
-0.531461 -0.0504236 1.357 255 255 255
0.078908 0.0610051 0.83 255 255 255
0.400488 -0.0932784 0.927 255 255 255
-0.773 0.302978 1.524 255 255 255
0.353263 0.0156011 0.788 255 255 255
-0.364612 -0.306676 1.194 0 0 0
-0.371477 0.0721494 1.132 255 255 255
-1.13534 -1.11244 2.911 255 255 255
0.166793 -0.0629512 0.844 0 0 0
-0.283156 -0.385337 1.203 0 0 0
0.207383 -0.461084 1.425 0 0 0
-0.63867 -0.271423 1.369 255 255 255
-0.188367 0.0966914 1.139 255 255 255
-0.201993 -0.0380397 1.122 255 255 255
0.0685884 -0.0151942 0.789 0 0 0
-0.0165547 0.231438 0.877 255 255 255
0.781385 -0.726346 1.917 255 255 255
0.0477621 0.305827 0.806 255 255 255
-0.457866 0.47208 1.342 255 255 255
0.112041 -0.38532 1.339 255 255 255
-0.139646 0.0914332 1.12 255 255 255
0.21351 -0.466655 1.435 0 0 0
-0.234187 0.187452 1.085 255 255 255
-0.151319 0.0220157 1.112 255 255 255
0.152162 0.188712 0.81 255 255 255
-0.674003 0.272968 1.595 255 255 255
-0.481749 0.257734 1.412 255 255 255
-0.272315 -0.0660393 1.165 255 255 255
0.345772 0.102515 0.691 255 255 255
-0.604288 0.390797 1.403 255 255 255
-0.453768 0.0975906 1.299 255 255 255
-0.333034 -0.202154 1.152 0 0 0
0.0707056 0.0758586 0.845 255 255 255
0.000594741 0.194645 0.905 255 255 255
0.282292 0.0485651 0.743 255 255 255
-0.535334 0.0524015 1.39 255 255 255
-0.646189 -0.494301 1.299 255 255 255
0.164123 0.20694 0.804 255 255 255
-0.00689079 -0.130144 0.921 255 255 255
0.24313 0.00410644 0.797 255 255 255
-0.213084 -0.400543 1.173 255 255 255
0.0816712 0.302451 0.804 255 255 255
0.33101 0.026591 0.772 255 255 255
-0.57129 -0.255413 1.429 255 255 255
-0.367791 0.013201 1.132 255 255 255
-0.0208927 -0.174871 0.944 255 255 255
0.0764781 0.0885477 0.848 255 255 255
0.281345 0.133261 0.693 255 255 255
0.928193 -0.56749 1.837 0 0 0
0.216006 0.220523 0.748 255 255 255
-0.396383 -0.0493037 1.22 255 255 255
-0.583359 0.337712 1.502 255 255 255
-0.671244 -0.271555 1.381 255 255 255
0.224792 0.000216579 0.801 255 255 255
0.273853 0.212648 0.68 255 255 255
0.0633755 0.135996 0.897 255 255 255
-0.191507 0.266629 0.992 255 255 255
0.0935165 0.0387297 0.816 255 255 255
-0.174386 -0.20089 1.005 255 255 255
-0.0509906 0.23939 0.88 255 255 255
0.297768 0.160318 0.674 255 255 255
0.256679 0.228639 0.709 255 255 255
0.150515 0.22849 0.83 255 255 255
0.350257 -0.00645033 0.82 255 255 255
-0.518366 0.0853997 1.375 255 255 255
0.337346 0.00152197 0.802 255 255 255
0.323931 0.110227 0.69 255 255 255
-0.119134 -0.428527 1.249 255 255 255
-0.044371 0.347964 0.921 255 255 255
-0.39426 0.202101 1.305 255 255 255
0.105224 -0.104317 0.945 255 255 255
0.297442 -0.138842 1.03 255 255 255
-0.121812 -0.256734 1.06 255 255 255
0.195834 -0.037685 0.863 255 255 255
0.00595693 -0.0606293 0.831 0 0 0
-0.0318858 -0.497561 1.342 255 255 255
0.0602097 -0.0865309 0.833 255 255 255
0.165156 -0.228414 1.098 255 255 255
0.202912 0.262361 0.782 255 255 255
0.184261 0.265819 0.812 255 255 255
0.387489 0.0269354 0.782 255 255 255
-0.227641 -0.29934 1.096 255 255 255
0.104313 0.000215497 0.797 0 0 0
0.212578 0.106215 0.732 255 255 255
-0.780868 -0.0465863 1.52 255 255 255
0.0719169 0.256569 0.932 255 255 255
0.245131 -0.229663 1.104 255 255 255
-0.0666719 0.251992 0.879 255 255 255
0.0271117 -0.139665 0.905 0 0 0
-0.369116 -0.252694 1.196 0 0 0
-0.0634862 -0.0556187 0.837 255 255 255
-0.450456 -0.144978 1.333 255 255 255
-0.514546 0.0534444 1.359 255 255 255
0.00240608 -0.256752 1.053 255 255 255
0.440924 -0.528257 1.71 255 255 255
-0.0394859 -0.0956006 0.879 0 0 0
0.148155 -0.106863 0.954 255 255 255
0.14377 -0.452997 1.393 255 255 255
0.662204 -0.511616 1.758 255 255 255
-0.132824 0.338971 0.921 255 255 255
-0.628948 -0.0380577 1.477 255 255 255
-0.147723 -0.213831 1.036 255 255 255
0.168901 0.150964 0.772 255 255 255
0.218899 0.28073 0.78 255 255 255
-0.728626 0.290678 1.551 255 255 255
0.482211 -0.654895 1.882 255 255 255
-0.601181 0.416561 1.375 255 255 255
0.0613354 0.0213618 0.812 255 255 255
-0.369116 -0.260479 1.196 0 0 0
-0.0277202 0.259024 0.869 255 255 255
0.242357 0.186474 0.711 255 255 255
-0.166537 0.129731 1.007 255 255 255
-0.140166 -0.0973137 0.983 255 255 255
-0.402291 0.111946 1.27 255 255 255
-0.227031 -0.0388873 1.147 255 255 255
-0.0206236 -0.0944042 0.868 255 255 255
-0.371772 0.228457 1.286 255 255 255
-0.461607 -0.284166 1.366 255 255 255
-0.465193 -0.191754 1.357 255 255 255
0.184412 0.00664155 0.79 0 0 0
0.0193968 0.0942756 0.889 255 255 255
0.0456805 -0.145447 0.923 255 255 255
-0.171101 0.108954 1.077 255 255 255
0.314582 0.228295 0.652 255 255 255
0.309695 -0.593814 1.739 255 255 255
0.2412 0.170276 0.711 255 255 255
0.196296 0.00910778 0.781 255 255 255
-0.171208 0.315965 0.951 255 255 255
-0.593278 0.0776798 1.484 255 255 255
0.140066 0.249869 0.857 255 255 255
-0.565369 -0.203248 1.375 255 255 255
-0.153434 -0.169815 0.986 255 255 255
0.252101 -0.33377 1.342 255 255 255
-0.688344 -0.446104 1.319 255 255 255
0.570273 -0.473266 1.673 0 0 0
0.177331 0.0661869 0.765 255 255 255
-0.538612 -0.0131106 1.381 255 255 255
-0.440949 0.123169 1.324 255 255 255
0.0138699 -0.039762 0.819 255 255 255
-0.662987 0.29005 1.575 255 255 255
0.398142 -0.225301 1.185 255 255 255
-0.0738777 0.188546 0.897 255 255 255
-0.59861 -0.333575 1.359 255 255 255
-0.371894 -0.0565412 1.205 255 255 255
-0.424254 0.148461 1.319 255 255 255
0.203403 0.169248 0.742 255 255 255
-0.102966 0.296234 0.896 255 255 255
-0.882479 0.184829 1.691 255 255 255
0.435539 -0.421425 1.543 255 255 255
0.718975 -0.660835 1.917 255 255 255
0.118286 0.0778385 0.795 255 255 255
0.549515 -0.315883 1.359 255 255 255
-0.426999 0.246052 1.348 255 255 255
0.287362 -0.110223 0.984 255 255 255
-0.257005 0.0844176 1.077 255 255 255
0.136144 0.210338 0.833 255 255 255
-0.614723 0.103819 1.513 255 255 255
0.0309726 -0.0725462 0.813 0 0 0
0.0166978 -0.0670664 0.827 0 0 0
0.0640944 -0.0140513 0.797 0 0 0
0.267476 0.132517 0.701 255 255 255
0.246399 0.148398 0.706 255 255 255
-0.14182 0.289512 0.921 255 255 255
-0.120072 0.270928 0.904 255 255 255
0.108525 0.0228787 0.819 255 255 255
0.25309 0.0847735 0.732 255 255 255
0.0119286 0.0697683 0.872 255 255 255
-0.515552 -0.0582088 1.333 255 255 255
-0.57201 -0.0112094 1.425 255 255 255
0.0586677 -0.181953 1.018 255 255 255
0.258999 -0.132234 1.044 255 255 255
0.238133 -0.0104536 0.82 255 255 255
0.0385606 0.286593 0.834 255 255 255
0.34342 0.0876308 0.707 255 255 255
-0.667416 0.334495 1.477 255 255 255
0.309411 0.163834 0.666 255 255 255
-0.262702 -0.416426 1.208 255 255 255
-0.637361 0.0424612 1.52 255 255 255
-0.239583 -0.0647279 1.11 255 255 255
-0.572489 -0.279253 1.432 255 255 255
0.327836 -0.146007 1.01 0 0 0
0.0182622 0.299883 0.837 255 255 255
-0.0826846 -0.303671 1.139 255 255 255
0.0235908 -0.455264 1.393 255 255 255
0.0770035 -0.438193 1.375 255 255 255
0.389084 -0.0569505 0.925 255 255 255
-0.623029 0.369002 1.452 255 255 255
0.541439 -0.184337 1.182 255 255 255
0.362196 -0.69118 1.848 255 255 255
0.156121 0.0284966 0.79 255 255 255
0.0400401 0.0791531 0.866 255 255 255
-0.590687 -0.195303 1.351 255 255 255
-0.78637 0.150024 1.734 255 255 255
0.073986 0.275723 0.92 255 255 255
-0.453772 -0.179281 1.33 255 255 255
0.116206 -0.533397 1.445 255 255 255
-0.306163 -0.477774 1.283 255 255 255
-0.21782 -0.10636 1.057 255 255 255
0.488934 -0.324891 1.369 255 255 255
-0.724518 0.000425857 1.575 255 255 255
-0.452468 0.449143 1.372 255 255 255
-0.554415 -0.230343 1.477 0 0 0
0.352693 -0.19291 1.06 255 255 255
-0.0949256 0.254859 0.889 255 255 255
0.189849 0.294766 0.819 255 255 255
0.244062 0.213419 0.716 255 255 255
-0.188434 0.364323 0.952 255 255 255
0.143233 0.035234 0.797 255 255 255
0.216469 0.294026 0.785 255 255 255
0.184111 0.123802 0.752 255 255 255
0.135747 -0.128181 1.012 255 255 255
0.279099 0.186637 0.682 255 255 255
-0.684372 -0.031745 1.52 255 255 255
-0.0961072 -0.090483 0.914 255 255 255
-0.136855 0.353629 0.928 255 255 255
-0.113335 0.16961 0.921 255 255 255
0.276919 -0.440008 1.487 255 255 255
0.812003 -0.703584 1.923 255 255 255
0.0481176 -0.0182799 0.812 255 255 255
0.0839607 -0.0763224 0.84 0 0 0
-0.609665 0.242578 1.583 255 255 255
-0.605729 0.120734 1.509 255 255 255
0.321872 0.114385 0.688 255 255 255
-0.0678028 -0.139581 0.934 0 0 0
0.165986 0.156798 0.776 255 255 255
0.195708 0.190417 0.759 255 255 255
-0.136143 0.128714 1.025 255 255 255
0.276672 0.17459 0.687 255 255 255
0.634442 -0.358696 1.491 255 255 255
0.44818 -0.0589412 0.887 0 0 0
-0.793291 0.284566 1.559 255 255 255
0.252762 0.0710567 0.738 255 255 255
0.153853 0.213467 0.819 255 255 255
-0.0967694 -0.400071 1.249 255 255 255
0.303697 -0.326488 1.348 255 255 255
-0.538881 0.440464 1.359 255 255 255
-0.471745 0.241183 1.396 255 255 255
0.0288059 -0.151134 0.912 0 0 0
-0.487819 0.418843 1.39 255 255 255
0.333832 -0.081061 0.961 0 0 0
0.811429 -0.547367 1.81 255 255 255
0.0811436 -0.0262413 0.774 255 255 255
0.214973 0.270102 0.775 255 255 255
0.228379 0.219679 0.733 255 255 255
-0.151002 0.12092 1.059 255 255 255
-0.117832 -0.0492104 0.921 0 0 0
-0.0173794 -0.343258 1.242 255 255 255
-0.656432 -0.121401 1.412 255 255 255
-0.256203 -0.391802 1.187 0 0 0
0.295135 0.234553 0.673 255 255 255
-0.0353363 -0.423227 1.308 255 255 255
0.0482742 0.0801902 0.862 255 255 255
0.0664459 -0.317845 1.222 255 255 255
0.00853726 -0.0290998 0.819 255 255 255
0.14063 -0.565342 1.505 255 255 255
-0.587751 0.423274 1.375 255 255 255
-0.177932 -0.300427 1.12 255 255 255
0.0135011 0.0849214 0.882 255 255 255
-0.619656 -0.0800408 1.412 255 255 255
0.465366 -0.0935803 0.93 255 255 255
-0.582266 -0.469998 1.357 0 0 0
-0.19358 0.188065 0.978 255 255 255
0.249755 0.13403 0.709 255 255 255
0.274576 0.145666 0.693 255 255 255
0.241139 0.00281651 0.799 255 255 255
-0.333034 -0.264019 1.152 255 255 255
0.325491 -0.0463634 0.924 255 255 255
0.109498 -0.156332 1.013 255 255 255
0.252774 0.222342 0.711 255 255 255
0.406762 -0.108831 0.931 0 0 0
-0.501275 -0.256486 1.435 255 255 255
-0.175696 0.0263035 1.141 0 0 0
-0.53412 0.465409 1.299 255 255 255
0.756778 -0.406168 1.612 255 255 255
-0.608773 -0.416999 1.357 255 255 255
-0.17918 0.284101 0.969 255 255 255
-0.14825 0.0536331 1.13 255 255 255
0.22442 0.268585 0.76 255 255 255
0.139341 0.0430159 0.797 255 255 255
-0.586082 0.052881 1.466 255 255 255
0.447896 -0.42361 1.551 255 255 255
0.314647 -0.0619057 0.955 0 0 0
-0.410641 0.0921815 1.227 255 255 255
0.0940362 -0.0292435 0.787 255 255 255
-0.484591 0.0301533 1.308 255 255 255
0.0788269 0.00526105 0.776 255 255 255
0.167249 0.0507221 0.776 255 255 255
0.884529 -0.78393 2.017 255 255 255
0.0752579 -0.33653 1.27 255 255 255
0.401997 -0.097804 0.927 255 255 255
-0.22168 -0.128964 1.059 255 255 255
-0.281354 -0.165372 1.083 255 255 255
-0.668328 -0.337502 1.375 255 255 255
-0.201699 0.089434 1.141 255 255 255
0.249708 -0.0203014 0.841 255 255 255
-0.0283581 0.0465346 0.889 255 255 255
0.200615 -0.00640313 0.814 0 0 0
0.719061 -0.86394 2.32 255 255 255
-0.141836 0.179418 0.941 255 255 255
0.228699 0.164001 0.719 255 255 255
-0.0533043 -0.0401504 0.827 0 0 0
-0.456466 0.317477 1.412 255 255 255
-0.108823 -0.269099 1.068 0 0 0
0.282708 0.22482 0.68 255 255 255
0.367664 0.0584069 0.73 255 255 255
0.21691 -0.0880219 0.904 255 255 255
0.07316 -0.496188 1.387 255 255 255
0.0392292 -0.339216 1.242 255 255 255
-0.583124 -0.0969403 1.359 255 255 255
-0.0635126 -0.123388 0.938 0 0 0
0.187157 0.00909612 0.78 255 255 255
-0.198693 -0.0106708 1.124 255 255 255
-0.923396 0.114582 1.753 255 255 255
-0.57433 -0.280207 1.425 255 255 255
-0.533623 -0.141845 1.324 255 255 255
-0.0665202 0.295661 0.877 255 255 255
-0.704296 -0.16231 1.449 255 255 255
0.186494 0.0466918 0.772 0 0 0
0.216426 0.040911 0.758 0 0 0
-0.766876 0.0902955 1.673 255 255 255
-0.508611 0.282351 1.456 255 255 255
0.236346 0.00410129 0.796 255 255 255
-0.259276 -0.0962442 1.141 0 0 0
0.0126439 -0.0777387 0.826 0 0 0
0.579303 -0.65772 1.899 255 255 255
-0.085224 -0.0588189 0.864 255 255 255
-0.645749 0.47793 1.265 255 255 255
-0.0240168 -0.106815 0.889 255 255 255
0.217064 0.264257 0.769 255 255 255
0.141208 -0.0238847 0.823 255 255 255
-0.483019 0.243429 1.409 255 255 255
0.343688 0.0462711 0.745 255 255 255
0.190061 0.00283061 0.803 0 0 0
0.168024 -0.532466 1.509 255 255 255
0.242743 0.225851 0.726 255 255 255
0.180198 0.0930845 0.751 255 255 255
0.321351 -0.416929 1.491 0 0 0
0.361233 -0.0187527 0.833 255 255 255
0.3075 0.192039 0.655 0 0 0
0.114988 -0.409846 1.348 255 255 255
0.264347 0.25821 0.711 255 255 255
-0.178984 -0.0320398 1.104 255 255 255
0.399185 -0.0755004 0.931 0 0 0
-0.84638 0.180019 1.724 255 255 255
-0.159985 -0.0585621 0.977 255 255 255
-0.356677 0.0186282 1.126 255 255 255
-0.48083 -0.334358 1.327 255 255 255
0.358888 0.0785375 0.708 255 255 255
0.246008 0.0534015 0.743 0 0 0
-0.227258 -0.463665 1.229 255 255 255
-0.575716 0.110437 1.47 255 255 255
-0.181101 -0.120872 1.034 255 255 255
-0.542087 0.451248 1.345 255 255 255
-0.297453 0.177282 1.182 255 255 255
0.0792629 0.308637 0.793 255 255 255
-0.421875 0.123525 1.305 255 255 255
0.181398 0.0801713 0.756 255 255 255
-0.316022 -0.363024 1.194 0 0 0
0.135855 0.167331 0.815 255 255 255
-0.600176 -0.446501 1.333 255 255 255
0.312468 0.258338 0.661 255 255 255
0.00730964 -0.0606293 0.831 0 0 0
0.184029 -0.128035 1.024 255 255 255
0.484556 -0.230624 1.213 0 0 0
0.0247151 0.00962089 0.825 255 255 255
0.0346454 -0.182167 0.95 255 255 255
-0.31536 0.0802101 1.116 255 255 255
0.134771 -0.0675484 0.85 255 255 255
-0.282858 -0.0124999 1.124 255 255 255
-0.143877 -0.460532 1.27 255 255 255
-0.679519 0.396423 1.375 255 255 255
0.191988 -0.132774 1.022 255 255 255
0.0692413 0.290267 0.861 255 255 255
-0.476074 -0.340214 1.308 0 0 0
-0.00508717 0.263267 0.869 255 255 255
0.23485 -0.155207 1.05 255 255 255
0.369026 0.0606163 0.728 255 255 255
0.254083 0.21014 0.705 255 255 255
0.313759 0.0931192 0.705 255 255 255
0.354372 0.0466549 0.732 255 255 255
0.328114 0.110865 0.687 255 255 255
0.670084 -0.370084 1.528 255 255 255
0.314423 -0.346408 1.366 255 255 255
0.256261 -0.581535 1.633 255 255 255
-0.74562 -0.155986 1.456 255 255 255
0.459833 -0.0828079 0.928 255 255 255
-0.357119 -0.460056 1.286 255 255 255
-0.798175 0.169287 1.729 255 255 255
-0.780899 0.000435861 1.612 255 255 255
0.461337 -0.380733 1.473 255 255 255
0.214592 -0.196004 1.077 255 255 255
-0.35681 0.223548 1.27 255 255 255
-0.684488 -0.42194 1.324 255 255 255
0.349536 -0.0310895 0.875 255 255 255
-0.139147 0.0529686 1.116 255 255 255
-1.0529 -1.02629 2.805 255 255 255
0.047525 -0.136115 0.901 255 255 255
-0.74588 -0.278437 1.416 255 255 255
0.20938 -0.130754 0.994 255 255 255
-0.532324 0.447867 1.348 255 255 255
-0.00952413 0.317797 0.887 255 255 255
0.485532 -0.625019 1.848 0 0 0
-0.0184803 -0.0677152 0.835 255 255 255
-0.0731442 0.158001 0.906 255 255 255
-0.166315 -0.448566 1.237 255 255 255
0.0111479 -0.147267 0.925 255 255 255
-0.0310067 -0.398896 1.305 0 0 0
0.659674 -0.614456 1.899 255 255 255
-0.724289 -0.160725 1.456 255 255 255
-0.460502 -0.3629 1.254 0 0 0
-0.0865788 -0.357031 1.22 0 0 0
-0.468569 -0.079977 1.299 255 255 255
-0.722544 0.252836 1.599 255 255 255
-0.119897 -0.439454 1.257 255 255 255
-0.0050579 0.270188 0.864 255 255 255
-0.575575 -0.322541 1.378 255 255 255
0.312199 0.147813 0.672 255 255 255
-0.769539 -0.131172 1.47 255 255 255
0.108205 -0.0231302 0.797 255 255 255
-0.812666 0.268176 1.567 255 255 255
-0.174002 0.0113388 1.13 255 255 255
-0.0908213 -0.250438 1.041 0 0 0
0.334082 -0.139295 1.009 255 255 255
0.3222 0.058567 0.732 255 255 255
0.128772 -0.10441 0.96 255 255 255
-0.667135 0.224898 1.642 255 255 255
0.313834 0.00155423 0.819 255 255 255
-0.210674 0.0653282 1.11 255 255 255
-0.0454718 -0.117127 0.913 255 255 255
0.3186 -0.180838 1.05 255 255 255
0.143434 0.0748117 0.777 255 255 255
0.129741 0.0743992 0.786 0 0 0
0.229653 0.185834 0.722 255 255 255
-0.553088 0.472315 1.289 255 255 255
-0.711431 -0.371171 1.359 255 255 255
-0.138369 0.299026 0.918 255 255 255
0.12334 0.155013 0.82 255 255 255
0.138682 -0.081138 0.893 255 255 255
0.0546486 0.0723275 0.852 255 255 255
-0.158534 -0.0191641 1.087 255 255 255
0.00358802 0.185288 0.917 255 255 255
0.131061 0.318659 0.862 0 0 0
0.38539 -0.0745417 0.938 0 0 0
-0.281106 0.259113 1.178 255 255 255
0.602821 -0.271623 1.316 255 255 255
-0.260995 -0.261335 1.079 0 0 0
-0.497139 -0.112693 1.336 255 255 255
0.195105 -0.0617736 0.866 0 0 0
-0.18857 0.110371 1.057 255 255 255
-0.556757 -0.464589 1.387 255 255 255
-0.167618 0.261213 0.966 255 255 255
0.177643 0.0769864 0.761 255 255 255
0.154817 0.132976 0.777 255 255 255
-0.710384 -0.375042 1.357 255 255 255
0.339249 -0.270317 1.26 255 255 255
0.133898 -0.277142 1.152 255 255 255
0.147607 0.0826104 0.779 0 0 0
0.115301 -0.249968 1.083 255 255 255
-0.836555 0.237817 1.603 255 255 255
-0.428781 -0.157343 1.275 0 0 0
-0.0700733 -0.301544 1.145 255 255 255
-0.0659832 0.191204 0.889 255 255 255
-0.273505 -0.0526326 1.162 255 255 255
-0.326897 0.490776 1.299 255 255 255
0.216643 0.211435 0.746 255 255 255
-0.0736286 0.142722 0.912 255 255 255
0.271198 -0.0325134 0.875 255 255 255
-0.706378 -0.337502 1.375 255 255 255
-0.0475952 -0.103397 0.897 255 255 255
0.877474 -0.562657 1.831 255 255 255
0.0844716 0.210612 0.904 255 255 255
0.164628 0.296574 0.847 255 255 255
-0.641982 0.309266 1.543 255 255 255
-0.0955592 -0.347622 1.208 0 0 0
-0.624082 0.454139 1.297 255 255 255
-0.0909958 -0.254314 1.043 0 0 0
0.326478 0.203899 0.642 255 255 255
0.265106 0.0832397 0.729 255 255 255
0.172915 0.140329 0.762 255 255 255
0.217341 0.157761 0.728 255 255 255
0.0878416 -0.147143 0.974 255 255 255
0.116896 -0.150773 1.02 0 0 0
0.796854 -0.473664 1.646 255 255 255
0.161151 0.134458 0.771 255 255 255
0.254907 0.239387 0.717 255 255 255
0.303159 -0.59775 1.734 255 255 255
-0.489269 0.427749 1.375 255 255 255
0.167588 0.114888 0.766 255 255 255
0.193015 -0.247628 1.104 255 255 255
-0.178569 0.259411 0.983 255 255 255
-0.4721 0.462309 1.339 255 255 255
-0.16627 0.350603 0.932 255 255 255
0.166793 0.292776 0.844 255 255 255
-0.389304 -0.157667 1.229 255 255 255
0.248324 0.255116 0.732 255 255 255
0.018764 0.0464161 0.86 255 255 255
0.277941 -0.0519245 0.916 255 255 255
0.0749284 -0.443634 1.378 255 255 255
0.177237 0.17814 0.77 255 255 255
-0.715856 -0.373383 1.359 255 255 255
-0.328949 0.174036 1.213 255 255 255
0.0351147 -0.019722 0.817 0 0 0
0.0427218 0.23933 0.924 0 0 0
0.298194 0.0336867 0.762 255 255 255
-0.741314 -0.03633 1.505 255 255 255
0.185696 -0.151364 1.024 255 255 255
-0.579769 -0.423841 1.372 255 255 255
0.166793 0.299644 0.844 255 255 255
0.159101 -0.267278 1.158 0 0 0
0.229041 -0.170029 1.079 255 255 255
-0.688344 -0.443958 1.319 255 255 255
0.147986 0.0980738 0.781 255 255 255
0.295318 0.149793 0.681 255 255 255
-0.0919767 -0.428517 1.267 255 255 255
0.324577 -0.137107 1.005 255 255 255
0.110012 -0.11871 0.988 255 255 255
0.120424 0.281711 0.887 255 255 255
-0.6244 0.309266 1.543 255 255 255
-0.451042 -0.081393 1.322 255 255 255
0.326841 -0.266884 1.244 255 255 255
0.405392 -0.223777 1.167 255 255 255
-0.494907 0.459201 1.33 255 255 255
-0.503497 0.490008 1.275 255 255 255
0.288286 -0.726075 1.876 255 255 255
-0.882478 0.0870861 1.774 255 255 255
0.124913 0.103844 0.796 255 255 255
0.317821 0.0130033 0.786 0 0 0
0.275234 0.154916 0.689 255 255 255
0.301708 0.155699 0.673 255 255 255
-0.171801 0.178912 0.963 255 255 255
-0.502559 -0.146424 1.432 255 255 255
0.157579 0.193856 0.804 255 255 255
-0.56036 -0.317515 1.48 0 0 0
0.280218 0.0346975 0.757 255 255 255
0.752528 -0.681679 1.923 255 255 255
-0.344713 -0.012689 1.141 255 255 255
0.339216 0.0226152 0.765 255 255 255
-0.435776 -0.0961556 1.348 255 255 255
-0.420426 -0.254447 1.294 255 255 255
-0.146556 -0.276625 1.077 0 0 0
0.12977 0.12684 0.794 255 255 255
-0.755513 -0.135586 1.466 255 255 255
0.384196 -0.0178983 0.857 255 255 255
-0.0199712 -0.205789 0.974 0 0 0
-0.130439 0.000286609 1.06 255 255 255
-0.186157 0.104274 1.083 255 255 255
-0.00667381 0.220881 0.892 255 255 255
-0.330034 -0.148205 1.217 0 0 0
-0.404009 -0.483638 1.316 255 255 255
0.256147 -0.0430634 0.887 255 255 255
0.277461 -0.425032 1.477 0 0 0
-0.495107 -0.0404258 1.319 255 255 255
-0.0950557 0.216497 0.904 255 255 255
-0.34713 -0.0221269 1.149 255 255 255
0.0374509 -0.0406432 0.81 0 0 0
-0.0980746 -0.500898 1.351 255 255 255
0.260559 0.232596 0.707 255 255 255
0.250996 0.185163 0.706 255 255 255
-0.0848889 -0.112703 0.938 255 255 255
0.540968 -0.192681 1.198 255 255 255
0.307 0.15067 0.675 255 255 255
0.104947 0.306959 0.792 255 255 255
-0.410623 -0.054104 1.239 255 255 255
-0.732857 0.0477727 1.616 255 255 255
-0.423551 0.477444 1.351 255 255 255
-0.132222 -0.0592773 0.938 255 255 255
-0.0586541 0.0668852 0.91 255 255 255
0.117403 0.297253 0.886 255 255 255
-0.552859 -0.013291 1.4 255 255 255
-0.539433 -0.0463122 1.366 255 255 255
0.503343 -0.284871 1.308 255 255 255
0.120081 0.310295 0.874 255 255 255
-0.668513 0.463129 1.281 255 255 255
0.00952754 0.122212 0.914 255 255 255
0.0354299 0.213643 0.93 255 255 255
-0.0941094 0.326489 0.895 255 255 255
0.113356 0.309932 0.877 255 255 255
0.264758 0.117877 0.709 255 255 255
-0.30078 -0.124966 1.203 255 255 255
-0.340433 -0.169282 1.171 0 0 0
-0.270146 0.0989304 1.102 255 255 255
-0.642767 -0.0264101 1.498 255 255 255
-0.512935 0.135085 1.403 255 255 255
-0.312772 -0.125462 1.227 255 255 255
0.198702 0.208256 0.761 255 255 255
-0.691436 -0.338999 1.372 255 255 255
-0.18689 -0.419876 1.201 255 255 255
-0.461604 -0.353541 1.257 255 255 255
-0.183958 0.331799 0.961 255 255 255
0.203389 0.226534 0.76 255 255 255
0.117783 -0.369744 1.33 0 0 0
0.297674 0.215208 0.664 255 255 255
0.0184149 0.316125 0.844 255 255 255
-0.26129 0.0736273 1.073 255 255 255
-0.55734 0.483953 1.27 255 255 255
-0.0591204 0.0477252 0.941 255 255 255
-0.0361824 -0.169902 0.942 255 255 255
0.256036 -0.0955027 0.934 255 255 255
-0.746284 -0.189291 1.439 255 255 255
-0.527149 0.493119 1.267 255 255 255
0.135031 0.105231 0.787 255 255 255
0.0381682 0.237569 0.923 0 0 0
0.0726742 -0.0800403 0.836 0 0 0
-0.1886 -0.227457 1.029 255 255 255
0.522793 -0.580535 1.831 255 255 255
0.12938 -0.0250095 0.816 255 255 255
-0.0319203 -0.116486 0.908 255 255 255
-0.0914685 -0.417948 1.26 255 255 255
-0.13039 0.16282 0.925 255 255 255
-0.709145 0.316464 1.494 255 255 255
0.0021296 0.180736 0.932 255 255 255
0.449051 -0.198236 1.162 255 255 255
0.109562 -0.0326132 0.807 255 255 255
-0.0869114 -0.144569 0.927 0 0 0
-0.181436 -0.0285497 1.108 255 255 255
0.446644 -0.113498 0.932 255 255 255
-0.711372 -0.13873 1.449 255 255 255
-0.73525 0.0721921 1.633 255 255 255
-0.561142 0.445454 1.354 255 255 255
-0.361864 -0.269653 1.185 0 0 0
-0.118076 0.28291 0.9 255 255 255
-0.588806 -0.0252465 1.432 255 255 255
0.194524 0.0923408 0.745 255 255 255
0.295871 -0.499367 1.575 0 0 0
-0.185681 0.189683 0.97 255 255 255
-0.128247 0.1129 1.116 255 255 255
0.00520261 -0.18617 0.939 255 255 255
0.682424 -0.372748 1.539 255 255 255
-0.575435 -0.279617 1.422 255 255 255
0.101226 0.302066 0.896 255 255 255
-0.289382 0.15767 1.165 255 255 255
-0.79125 0.181764 1.714 255 255 255
-0.264537 -0.216028 1.072 255 255 255
-0.583183 -0.460145 1.354 255 255 255
-0.331175 0.488633 1.316 255 255 255
-0.239927 0.141806 1.087 255 255 255
-0.0499872 -0.521556 1.359 255 255 255
0.306099 0.109233 0.698 255 255 255
0.274511 0.174229 0.69 255 255 255
0.239328 0.0964213 0.73 255 255 255
0.469828 -0.168363 1.139 255 255 255
0.235088 -0.00240234 0.805 255 255 255
-0.00396422 -0.147811 0.938 0 0 0
0.112746 0.000219283 0.811 0 0 0
-0.393298 0.240211 1.316 255 255 255
-0.411041 0.387056 1.406 255 255 255
0.182643 0.0906402 0.751 255 255 255
0.418703 0.0163534 0.826 255 255 255
0.339821 -0.0281448 0.872 255 255 255
0.0837715 -0.00105163 0.775 255 255 255
-0.264834 0.243385 1.149 255 255 255
-0.15212 -0.371178 1.189 255 255 255
-0.0271539 0.132929 0.948 255 255 255
-0.122499 -0.297593 1.13 255 255 255
-0.547604 -0.399653 1.381 255 255 255
-0.399065 -0.26144 1.247 0 0 0
0.3232 0.231113 0.648 255 255 255
-0.569587 -0.209044 1.369 255 255 255
-0.404983 0.0524752 1.187 255 255 255
0.228236 -0.0875082 0.914 255 255 255
0.259886 0.157164 0.699 0 0 0
-0.596436 0.114979 1.498 255 255 255
-0.0457208 0.0898815 0.918 255 255 255
-0.234778 -0.0674786 1.096 255 255 255
0.210007 0.192708 0.744 255 255 255
-0.106643 -0.0918689 0.928 255 255 255
0.283758 0.212333 0.672 255 255 255
0.586073 -0.90073 2.347 255 255 255
0.0929435 0.0200157 0.811 255 255 255
0.163112 0.222213 0.812 255 255 255
-0.307731 0.186541 1.192 255 255 255
-0.480725 0.403932 1.409 0 0 0
0.0678159 0.306828 0.795 255 255 255
0.156941 0.0645297 0.775 255 255 255
-0.0864369 -0.0795063 0.891 255 255 255
0.208748 -0.0245812 0.847 0 0 0
-0.598153 -0.429589 1.348 255 255 255
0.35394 -0.633668 1.821 255 255 255
0.301264 0.0889069 0.708 255 255 255
-0.187595 0.304868 0.98 255 255 255
0.627352 -0.358458 1.48 255 255 255
0.0338299 0.10862 0.888 255 255 255
-0.627162 0.462844 1.286 255 255 255
0.0360592 0.271271 0.872 255 255 255
-0.196797 0.0857747 1.167 255 255 255
-0.567187 -0.390364 1.396 255 255 255
0.0487741 0.26883 0.897 255 255 255
0.246671 0.285106 0.745 255 255 255
0.353432 0.0468461 0.735 255 255 255
-0.637084 -0.489087 1.302 255 255 255
0.184525 0.300953 0.825 255 255 255
-0.222308 -0.103406 1.062 255 255 255
0.35987 -0.037947 0.869 255 255 255
0.0901899 0.0737938 0.822 255 255 255
0.101017 -0.057367 0.823 0 0 0
0.585235 -0.545448 1.794 0 0 0
0.59288 -0.640239 1.893 0 0 0
-0.00957782 0.217978 0.892 255 255 255
-0.62941 -0.154357 1.378 255 255 255
0.169653 -0.203436 1.07 255 255 255
0.247218 0.0618653 0.743 255 255 255
-0.112227 0.148659 0.912 255 255 255
0.298932 0.201633 0.662 0 0 0
-0.585387 -0.464552 1.354 255 255 255
0.178227 -0.157127 1.029 255 255 255
-0.0266669 -0.148222 0.931 0 0 0
-0.365801 0.296982 1.302 255 255 255
0.155248 0.31637 0.841 255 255 255
-0.276066 -0.21472 1.083 255 255 255
-0.60614 -0.110777 1.366 255 255 255
0.322707 -0.455817 1.532 0 0 0
0.39027 0.00571529 0.843 255 255 255
-0.11489 0.273514 0.898 255 255 255
0.137942 -0.160653 1.041 255 255 255
0.180938 0.106244 0.749 0 0 0
0.265552 0.198669 0.693 255 255 255
-0.105494 0.172045 0.918 255 255 255
-0.70433 0.421191 1.333 255 255 255
0.184301 0.296566 0.824 255 255 255
-0.613789 0.263851 1.587 255 255 255
1.173 -0.852131 2.329 255 255 255
0.21473 0.293868 0.788 255 255 255
-0.208433 -0.218889 1.036 0 0 0
0.205938 0.262622 0.779 255 255 255
0.21298 -0.535595 1.532 0 0 0
0.268235 0.26099 0.706 255 255 255
-0.0156618 0.34453 0.908 255 255 255
0.121554 0.0748725 0.791 0 0 0
0.377672 -0.667189 1.865 0 0 0
0.061562 -0.0780297 0.815 255 255 255
-0.137439 -0.198603 1.01 255 255 255
0.0494394 -0.0182799 0.812 255 255 255
-0.170767 0.260473 0.975 255 255 255
-0.165003 0.138538 0.988 255 255 255
-0.164555 -0.135168 1.015 255 255 255
-0.0292735 -0.234225 1.022 255 255 255
0.597896 -0.251301 1.278 255 255 255
-0.294642 -0.118202 1.194 255 255 255
0.118794 0.307802 0.875 255 255 255
-0.418801 -0.121314 1.289 255 255 255
-0.114709 0.20386 0.92 255 255 255
-0.676455 0.418084 1.351 255 255 255
0.0727611 0.0601576 0.837 255 255 255
0.0597139 -0.119431 0.886 255 255 255
-0.236138 -0.155253 1.062 0 0 0
0.0893492 -0.498334 1.393 255 255 255
0.191201 0.0845296 0.751 255 255 255
0.255825 -0.170324 1.059 255 255 255
0.092372 0.211429 0.895 255 255 255
0.192099 0.110526 0.745 255 255 255
-0.34556 -0.267915 1.169 255 255 255
-0.643354 0.343932 1.466 255 255 255
0.218504 0.116836 0.724 255 255 255
-0.402556 -0.279925 1.239 0 0 0
-0.353791 -0.138206 1.252 255 255 255
0.385117 -0.135568 1.018 255 255 255
-0.265785 -0.173835 1.07 255 255 255
-0.212979 0.055485 1.094 255 255 255
0.0300912 -0.144242 0.906 0 0 0
-0.406842 -0.447139 1.291 255 255 255
-0.140862 -0.375994 1.192 255 255 255
0.335977 -0.495326 1.595 255 255 255
-0.613708 -0.107265 1.378 255 255 255
-0.370647 0.150504 1.247 255 255 255
0.0889323 -0.0149439 0.776 255 255 255
0.0889619 0.253266 0.92 255 255 255
0.39493 -0.153937 1.053 255 255 255
-0.602147 -0.31321 1.357 255 255 255
0.512545 -0.594395 1.837 0 0 0
0.127552 0.215505 0.848 255 255 255
-0.103046 -0.0409161 0.872 255 255 255
0.360811 0.0816466 0.705 255 255 255
-0.574367 -0.098787 1.354 255 255 255
0.424301 -0.0793577 0.923 0 0 0
0.147485 -0.478657 1.429 255 255 255
-0.610782 -0.427677 1.342 255 255 255
0.308457 -0.690652 1.815 0 0 0
-0.184712 -0.358964 1.187 0 0 0
-0.444736 0.456951 1.362 255 255 255
0.477512 -0.0746211 0.939 255 255 255
-0.0308781 0.331477 0.921 255 255 255
0.105238 -0.188542 1.036 255 255 255
0.174155 0.140329 0.762 255 255 255
-0.820588 0.0193001 1.655 0 0 0
-0.408533 0.484079 1.345 255 255 255
0.154145 0.125873 0.78 255 255 255
-0.293409 -0.365373 1.189 255 255 255
0.637075 -0.665847 1.887 255 255 255
-0.705769 0.38634 1.387 255 255 255
-0.228529 -0.076682 1.075 255 255 255
-0.0223105 0.14542 0.939 0 0 0
0.21353 -0.0754887 0.878 255 255 255
0.136559 -0.244496 1.098 255 255 255
-0.524713 0.444467 1.351 255 255 255
0.0671597 -0.383875 1.357 255 255 255
0.254077 0.253722 0.728 255 255 255
0.291954 0.106886 0.705 255 255 255
0.138528 -0.0292419 0.823 255 255 255
0.308566 0.226148 0.655 255 255 255
0.800108 -0.670193 1.917 255 255 255
-0.775612 -0.0779652 1.505 255 255 255
0.37596 -0.0520306 0.945 0 0 0
-0.566792 -0.37186 1.412 255 255 255
0.161959 -0.268894 1.165 0 0 0
0.209812 0.271963 0.784 255 255 255
0.293446 0.0381903 0.753 255 255 255
0.0530742 0.06102 0.849 255 255 255
-0.247138 -0.0537259 1.145 255 255 255
-0.427045 0.0766424 1.234 255 255 255
-0.26129 -0.228452 1.073 255 255 255
0.00354498 -0.114755 0.906 0 0 0
0.275044 -0.568793 1.65 255 255 255
-0.111471 0.206405 0.918 255 255 255
0.177409 0.078122 0.76 255 255 255
-0.48466 -0.16593 1.381 255 255 255
0.560131 -0.24046 1.254 255 255 255
-0.447272 0.397899 1.412 255 255 255
0.00352933 0.204275 0.902 0 0 0
0.483822 -0.858686 2.228 255 255 255
0.402648 -0.105915 0.932 255 255 255
0.0532074 -0.00241428 0.809 255 255 255
-0.646204 -0.185107 1.39 255 255 255
-0.480449 0.432566 1.369 255 255 255
-0.401484 0.429615 1.381 255 255 255
0.239065 0.185196 0.715 255 255 255
-0.312982 0.0800664 1.114 255 255 255
-0.165536 0.17103 0.954 255 255 255
-0.691073 -0.237067 1.403 255 255 255
-0.613191 -0.315418 1.357 255 255 255
-0.0759698 -0.16819 0.941 0 0 0
-0.51907 -0.184607 1.439 255 255 255
0.506382 -0.279717 1.294 255 255 255
0.326986 0.197938 0.643 255 255 255
-0.406436 0.0214418 1.18 255 255 255
-0.745536 0.293438 1.539 255 255 255
-0.47444 -0.352379 1.275 0 0 0
0.243039 0.19396 0.713 255 255 255
0.211786 0.0778969 0.746 255 255 255
0.146203 0.14972 0.792 255 255 255
0.8494 -1.06628 2.755 255 255 255
-0.630297 0.150684 1.539 255 255 255
-0.448181 -0.0947288 1.359 0 0 0
-0.0122859 0.0388149 0.878 255 255 255
-0.230086 0.0904943 1.066 255 255 255
-0.18363 0.123107 1.02 255 255 255
-0.673386 -0.208273 1.409 255 255 255
-0.48466 0.144203 1.381 255 255 255
-0.065241 0.249131 0.879 255 255 255
-0.705796 0.275369 1.579 255 255 255
0.324808 0.249708 0.647 255 255 255
0.328294 -0.10531 0.954 255 255 255
-0.0595716 0.110929 1 255 255 255
-0.573255 0.450402 1.336 255 255 255
-0.53893 0.150573 1.442 255 255 255
-0.0302324 -0.530911 1.366 255 255 255
-0.275049 -0.0143035 1.122 255 255 255
-0.168839 -0.255726 1.085 255 255 255
-0.409871 -0.371616 1.249 255 255 255
-0.75273 -0.160725 1.456 255 255 255
-0.630726 0.449534 1.302 255 255 255
-0.653719 0.083495 1.547 255 255 255
0.252936 0.186048 0.705 255 255 255
0.293345 0.246589 0.679 255 255 255
0.223032 0.27891 0.768 255 255 255
-0.519345 0.307221 1.473 255 255 255
-0.365661 0.125141 1.237 255 255 255
-0.00131715 -0.51858 1.357 255 255 255
0.315733 0.212786 0.65 0 0 0
0.379362 -0.0510395 0.927 255 255 255
-0.550865 0.45713 1.324 255 255 255
-0.559873 -0.196964 1.378 255 255 255
0.258489 0.108251 0.714 255 255 255
-0.177682 -0.148031 1.024 255 255 255
-0.405958 0.316952 1.351 255 255 255
-0.699574 -0.467187 1.324 255 255 255
0.00726566 -0.0495111 0.826 255 255 255
0.409983 -0.10546 0.928 255 255 255
-0.66609 -0.355403 1.375 255 255 255
0.0849409 0.0578121 0.823 255 255 255
-0.610587 -0.228593 1.366 255 255 255
-0.0372075 0.0336652 0.893 255 255 255
0.0343537 0.162747 0.942 255 255 255
-0.0793051 0.139295 0.909 255 255 255
-0.200169 -0.357032 1.187 255 255 255
-0.135488 -0.237535 1.059 0 0 0
-0.689058 0.249645 1.612 255 255 255
0.166172 0.14575 0.771 255 255 255
0.29776 -0.661633 1.769 255 255 255
-0.144985 -0.36691 1.194 0 0 0
-0.468609 -0.330939 1.305 255 255 255
-0.868389 0.203541 1.664 255 255 255
0.424269 -0.235961 1.21 255 255 255
0.315643 0.230417 0.652 255 255 255
-0.188361 0.294904 0.984 255 255 255
-0.632512 -0.059124 1.463 255 255 255
-0.0489386 0.284479 0.869 255 255 255
0.333484 -0.0591054 0.96 0 0 0
0.321023 0.238173 0.65 255 255 255
-0.405226 0.192656 1.313 255 255 255
-0.0999105 0.131753 0.908 255 255 255
0.0624526 0.0662329 0.845 0 0 0
-0.18225 0.280087 0.977 255 255 255
-0.505572 0.487933 1.275 255 255 255
1.11226 -0.933139 2.411 0 0 0
-0.0667649 -0.0107595 0.844 255 255 255
-0.567371 -0.319629 1.425 255 255 255
-0.0730235 -0.0488084 0.837 255 255 255
-0.649417 0.447807 1.297 255 255 255
-0.0744542 0.165008 0.904 255 255 255
0.183404 0.297286 0.826 255 255 255
0.134836 -0.0481086 0.825 255 255 255
0.21918 0.0141916 0.781 255 255 255
0.662866 -0.456931 1.673 255 255 255
0.00856853 -0.018505 0.822 255 255 255
-0.0463408 0.177657 0.901 255 255 255
-0.284871 0.121887 1.132 255 255 255
0.0146186 0.168101 0.955 0 0 0
-0.0232558 -0.336485 1.232 255 255 255
0.0987966 0.152385 0.85 255 255 255
-0.625813 0.323591 1.516 255 255 255
0.22543 0.0625314 0.751 255 255 255
0.187264 0.0490769 0.77 0 0 0
0.239328 0.236599 0.73 255 255 255
-0.330337 -0.054852 1.169 0 0 0
-0.390254 -0.25629 1.232 0 0 0
-0.146152 0.0884151 1.128 255 255 255
-0.59552 0.439816 1.357 255 255 255
0.281571 0.0156803 0.792 255 255 255
-0.0415684 0.194971 0.893 255 255 255
0.00365845 0.138714 0.935 255 255 255
0.226918 0.212194 0.736 255 255 255
0.390658 -0.344216 1.384 255 255 255
-0.106614 -0.0397689 0.878 255 255 255
0.244792 0.156884 0.708 255 255 255
-0.542394 -0.314468 1.477 255 255 255
0.0738674 -0.3581 1.319 0 0 0
-0.199049 0.0681532 1.158 255 255 255
-0.166972 -0.329352 1.171 255 255 255
-0.501501 0.36291 1.456 255 255 255
-0.388352 -0.413431 1.265 255 255 255
-0.571081 -0.151827 1.336 255 255 255
-0.609222 0.401773 1.378 255 255 255
-0.65728 -0.451989 1.33 255 255 255
-0.636261 0.38623 1.403 255 255 255
-0.107773 0.145691 0.912 255 255 255
-0.142928 -0.14805 0.98 0 0 0
0.026974 0.276789 0.854 255 255 255
-0.119897 0.0866907 1.106 255 255 255
-0.173368 0.188314 0.963 255 255 255
0.147034 0.232887 0.841 255 255 255
-1.15751 -1.0719 2.793 255 255 255
0.153637 0.224428 0.825 255 255 255
0.0102922 0.0238565 0.854 255 255 255
0.328868 -0.517546 1.624 255 255 255
-0.285274 0.35233 1.229 255 255 255
0.350072 -0.178548 1.027 0 0 0
-0.0997479 -0.0308408 0.868 255 255 255
-0.611016 -0.183595 1.362 255 255 255
0.0956759 0.179034 0.872 255 255 255
0.412943 -0.586786 1.769 255 255 255
0.280847 -0.00111269 0.82 255 255 255
0.503984 -0.227424 1.217 255 255 255
0.216605 -0.115846 1.005 255 255 255
-0.580583 -0.275353 1.412 255 255 255
0.0232588 0.000221986 0.821 255 255 255
-0.449915 -0.307092 1.294 255 255 255
-0.0475421 0.188335 0.896 255 255 255
0.120031 0.0521601 0.798 255 255 255
-0.420899 -0.119216 1.289 255 255 255
0.206134 0.0522184 0.761 255 255 255
-0.737297 -0.140071 1.463 255 255 255
0.257218 0.058967 0.737 0 0 0
-0.195635 0.131664 1.022 255 255 255
0.344141 0.0629857 0.728 255 255 255
0.539843 -0.210885 1.213 255 255 255
-0.153284 -0.0224513 1.075 255 255 255
0.383484 -0.0505073 0.891 255 255 255
-0.466693 -0.0887773 1.336 255 255 255
0.0637288 0.1529 0.902 255 255 255
0.0164468 0.089632 0.886 255 255 255
-0.85093 0.186359 1.705 255 255 255
-0.628467 0.384768 1.406 255 255 255
0.267037 0.109106 0.712 255 255 255
0.263675 0.193309 0.694 255 255 255
0.0366381 0.102608 0.886 255 255 255
0.158581 -0.17454 1.043 255 255 255
-0.00982367 -0.386385 1.313 255 255 255
0.267808 0.222352 0.693 255 255 255
0.539783 -0.293707 1.319 255 255 255
0.115544 -0.106745 0.967 255 255 255
-0.505838 0.452576 1.336 0 0 0
0.28645 0.163091 0.681 255 255 255
-0.583904 -0.0929938 1.366 255 255 255
-0.618179 0.349625 1.48 255 255 255
-0.364964 -0.503053 1.322 0 0 0
-0.911721 0.11777 1.758 255 255 255
-0.0137776 0.224146 0.882 255 255 255
0.270018 0.155141 0.69 255 255 255
-0.337235 -0.203558 1.16 0 0 0
-0.226935 -0.00150621 1.11 255 255 255
0.113679 0.0626273 0.799 0 0 0
0.219271 -0.55772 1.559 255 255 255
-0.130249 0.237827 0.924 255 255 255
-0.206687 -0.291799 1.108 255 255 255
-0.510122 0.0711367 1.359 255 255 255
0.82249 -0.618339 1.911 255 255 255
-0.0588683 -0.0674689 0.849 255 255 255
-0.32186 -0.0145203 1.139 255 255 255
0.0677191 -0.034017 0.779 255 255 255
0.580101 -0.492081 1.71 255 255 255
-0.311352 0.0493649 1.077 255 255 255
0.191787 -0.320588 1.289 255 255 255
0.225128 -0.14708 1.029 255 255 255
-0.936096 0.0886079 1.805 255 255 255
0.0221155 0.248546 0.882 255 255 255
0.256679 0.127107 0.709 255 255 255
-0.138896 -0.275341 1.072 0 0 0
0.563958 -0.25706 1.286 255 255 255
0.12977 0.0906616 0.794 255 255 255
-0.645022 -0.427939 1.336 255 255 255
-0.160598 -0.26553 1.089 255 255 255
-0.298024 -0.28921 1.126 255 255 255
-0.0425403 0.208594 0.883 255 255 255
0.225229 -0.29273 1.242 255 255 255
-0.64556 -0.0745461 1.439 255 255 255
0.0765182 -0.179411 1.013 255 255 255
-0.695848 0.353433 1.456 255 255 255
0.120219 0.24515 0.875 255 255 255
-0.721919 -0.165464 1.456 255 255 255
-0.177508 -0.0266983 1.106 255 255 255
0.217604 0.201577 0.741 255 255 255
0.156148 -0.158493 1.027 255 255 255
0.19275 0.303133 0.82 255 255 255
0.0499874 0.0122463 0.821 255 255 255
0.0987085 0.0360297 0.815 255 255 255
-0.334032 0.000305536 1.13 255 255 255
-0.728208 -0.203253 1.422 255 255 255
0.0890172 -0.214687 1.024 255 255 255
-0.0456212 0.155274 0.916 255 255 255
-0.00257765 -0.219278 0.992 255 255 255
0.048011 -0.510908 1.378 255 255 255
-0.360885 -0.159938 1.201 255 255 255
-0.0108814 -0.101438 0.88 255 255 255
0.00536834 -0.457332 1.372 255 255 255
0.21534 -0.168926 1.072 255 255 255
0.235624 0.244865 0.737 255 255 255
0.571916 -0.154212 1.158 255 255 255
-0.346726 0.354189 1.302 255 255 255
0.0412758 0.024655 0.834 0 0 0
0.560307 -0.54975 1.789 255 255 255
0.10798 0.0604776 0.805 0 0 0
0.214592 -0.197756 1.077 255 255 255
0.172617 0.000218201 0.807 255 255 255
-0.0785629 0.236163 0.884 255 255 255
0.211041 0.216807 0.752 255 255 255
0.121901 -0.243777 1.079 0 0 0
0.517989 -0.224381 1.222 255 255 255
-0.206609 0.0449671 1.098 255 255 255
0.328568 0.226883 0.642 255 255 255
-0.0658567 -0.149255 0.928 255 255 255
0.0965455 0.0133673 0.808 0 0 0
0.252184 -0.499265 1.543 0 0 0
0.193311 0.0984026 0.745 255 255 255
0.168327 0.17306 0.781 255 255 255
0.232275 0.0897829 0.734 255 255 255
-0.216509 0.15194 1.059 255 255 255
0.341711 -0.0279512 0.866 255 255 255
-0.572332 -0.460331 1.381 0 0 0
0.766777 -0.444708 1.668 255 255 255
0.0871791 0.236025 0.917 255 255 255
0.227445 0.200961 0.73 255 255 255
0.309993 0.109736 0.694 255 255 255
0.105869 -0.437237 1.372 0 0 0
0.0926711 -0.444906 1.375 255 255 255
-0.342489 0.352012 1.294 255 255 255
0.189739 -0.428869 1.381 0 0 0
0.172894 0.163739 0.773 255 255 255
-0.345041 0.473135 1.345 255 255 255
-0.767471 0.249608 1.595 255 255 255
-0.639838 0.405973 1.362 255 255 255
-0.478404 -0.0355303 1.297 255 255 255
-0.342763 0.155186 1.22 255 255 255
-0.0452092 0.239118 0.879 255 255 255
-0.719343 -0.18837 1.432 255 255 255
-0.0788688 0.18119 0.904 255 255 255
0.0486143 -0.154502 0.951 255 255 255
0.0253135 0.160698 0.948 255 255 255
0.0160013 0.040913 0.862 255 255 255
0.354146 0.0491713 0.734 255 255 255
-0.0970018 -0.405107 1.252 255 255 255
0.462673 -0.245649 1.239 255 255 255
0.322027 -0.283464 1.273 255 255 255
-0.161372 0.327149 0.93 255 255 255
0.304346 -0.170261 1.048 0 0 0
-0.546704 0.446665 1.351 255 255 255
0.372364 0.0232064 0.785 255 255 255
0.238139 0.233036 0.73 255 255 255
0.142627 -0.277656 1.162 255 255 255
-0.132568 -0.105633 0.986 255 255 255
-0.0874927 0.251398 0.887 255 255 255
-0.129744 0.0196792 1.083 255 255 255
0.137818 -0.177927 1.053 255 255 255
-0.754662 0.236372 1.629 255 255 255
0.491162 -0.322663 1.369 255 255 255
0.0276999 0.286593 0.834 255 255 255
-0.0776701 -0.243015 1.024 255 255 255
0.0325344 -0.0171047 0.819 0 0 0
-0.12283 -0.161728 0.948 255 255 255
0.28063 0.203395 0.675 255 255 255
-0.644536 -0.301043 1.372 255 255 255
0.131965 -0.147794 1.034 255 255 255
