ply
format ascii 1.0
comment Created by Open3D
element vertex 1322
property double x
property double y
property double z
property uchar red
property uchar green
property uchar blue
end_header
-0.0494845 -0.126173 1.143 255 255 255
-0.235312 0.186106 1.409 255 255 255
-0.337218 -0.267659 1.484 255 255 255
0.351289 0.165647 0.716 255 255 255
0.203439 -0.094378 0.923 0 0 0
-0.249604 -0.114508 1.412 255 255 255
-0.377111 0.453847 1.366 255 255 255
-0.00996597 -0.0726964 1.094 255 255 255
0.149475 0.028321 0.863 255 255 255
-0.856555 -0.608881 2.312 255 255 255
-0.338882 -0.0242124 1.513 255 255 255
0.0937163 -0.225701 1.12 255 255 255
-0.840539 -0.721934 2.22 255 255 255
-0.280982 -0.337896 1.575 0 0 0
-0.310718 -0.308726 1.532 255 255 255
0.346394 0.12353 0.743 255 255 255
0.163118 -0.320034 1.262 255 255 255
-1.0478 -0.424952 2.294 255 255 255
-0.166882 -0.473399 1.393 0 0 0
0.218718 -0.549802 1.47 255 255 255
-0.27705 0.476077 1.366 255 255 255
-0.722874 -0.054898 2.004 255 255 255
-0.311917 -0.266646 1.563 255 255 255
-0.0224441 0.0661079 1.189 255 255 255
-0.297879 -0.32852 1.543 255 255 255
0.275117 0.183227 0.781 255 255 255
0.263758 0.27813 0.825 255 255 255
1.29595 -1.23999 3.231 255 255 255
0.97837 -1.05519 2.884 255 255 255
-0.334679 0.444683 1.393 255 255 255
0.614794 -0.301631 1.473 255 255 255
-1.13438 -0.355412 2.303 255 255 255
-0.345075 -0.125184 1.456 255 255 255
-0.864796 -0.698027 2.236 255 255 255
-0.0689244 0.25997 1.043 255 255 255
-0.119437 -0.458559 1.369 255 255 255
0.653204 -0.301468 1.484 255 255 255
0.21018 0.201105 0.888 255 255 255
0.255797 0.0763761 0.821 255 255 255
-0.635572 0.399118 1.339 255 255 255
0.0858133 -0.0833127 0.969 255 255 255
0.146086 0.285198 0.912 255 255 255
-1.11385 -0.510433 2.196 255 255 255
-0.464719 0.21088 1.724 255 255 255
-0.279388 0.0208829 1.4 255 255 255
-1.0181 -0.438351 2.286 255 255 255
-0.0669688 0.240374 1.039 255 255 255
-0.498578 -0.130321 1.607 255 255 255
0.407188 0.0134993 0.905 255 255 255
0.217021 0.149091 0.847 255 255 255
1.41011 -1.09525 2.818 255 255 255
0.107282 0.0468123 0.923 255 255 255
-0.666443 0.281094 1.513 255 255 255
-0.0910621 -0.475029 1.378 255 255 255
-0.183562 0.260668 1.333 255 255 255
-0.252035 0.297788 1.439 255 255 255
0.17865 -0.0987886 0.951 0 0 0
0.195152 -0.117657 0.941 0 0 0
0.301161 -0.0122336 0.851 0 0 0
-0.385626 0.258154 1.616 255 255 255
0.270079 -0.42121 1.378 255 255 255
-1.14245 -0.503286 2.196 255 255 255
0.121327 0.228039 0.927 255 255 255
0.918506 -1.01742 2.844 255 255 255
0.310062 0.167587 0.74 255 255 255
0.189342 -0.10017 0.935 0 0 0
0.177868 -0.437517 1.359 255 255 255
0.281251 -0.501684 1.435 255 255 255
0.178283 0.165831 0.925 255 255 255
0.070528 -0.018316 0.877 0 0 0
0.13041 -0.0152854 0.867 255 255 255
0.0681551 -0.310603 1.217 255 255 255
-0.235814 0.276116 1.412 255 255 255
-0.343809 0.337638 1.535 255 255 255
0.343655 0.0480839 0.817 255 255 255
-0.609896 0.187343 1.714 255 255 255
-0.943695 -0.380526 2.44 255 255 255
0.664813 -0.175102 1.299 0 0 0
0.182121 0.206102 0.937 255 255 255
-0.717891 0.237426 1.583 255 255 255
-0.150459 -0.276967 1.291 0 0 0
-0.867606 -0.0247443 1.941 255 255 255
0.464821 -0.0612595 1.022 255 255 255
0.200651 -0.0914729 0.924 255 255 255
0.738821 -0.554047 1.842 255 255 255
0.216638 0.023502 0.795 255 255 255
1.33213 -1.08608 2.818 255 255 255
0.036818 -0.343665 1.229 255 255 255
-0.0679152 -0.552811 1.459 255 255 255
-0.511903 0.473813 1.265 255 255 255
0.20948 0.183332 0.879 255 255 255
0.251361 0.187626 0.811 255 255 255
-0.805104 -0.22258 2.212 255 255 255
0.176661 0.25255 0.957 255 255 255
-0.20949 -0.167446 1.375 255 255 255
0.234699 -0.458084 1.381 255 255 255
-0.763549 0.245291 1.52 255 255 255
0.160232 -0.044966 0.868 0 0 0
0.116286 0.112848 0.935 255 255 255
0.0638891 -0.161047 1.022 255 255 255
0.0753077 0.0192831 0.9 255 255 255
-0.498815 -0.43398 1.543 255 255 255
0.303229 0.267171 0.756 255 255 255
-0.412448 -0.318087 1.494 255 255 255
0.071865 -0.379138 1.247 255 255 255
-0.915393 -0.0807044 1.997 255 255 255
-0.0991635 -0.455332 1.366 255 255 255
-0.311025 0.471425 1.359 255 255 255
-0.216899 0.417216 1.439 255 255 255
-0.0164559 0.0232828 1.176 255 255 255
0.0838421 -0.337738 1.244 0 0 0
0.247706 0.0940383 0.812 255 255 255
0.225059 -0.0118023 0.821 255 255 255
-0.0493114 -0.127585 1.139 255 255 255
0.20757 0.0198677 0.805 0 0 0
0.430232 -0.148817 1.104 255 255 255
-1.05392 -0.260447 2.228 255 255 255
0.601781 -0.171896 1.26 0 0 0
-0.378904 -0.312064 1.477 255 255 255
0.450128 -0.100326 1.066 255 255 255
0.340849 -0.0025993 0.871 255 255 255
0.207122 -0.127977 0.961 255 255 255
-0.164772 -0.278549 1.339 255 255 255
-0.707406 0.201291 1.624 255 255 255
-0.939381 -0.616972 2.181 255 255 255
-0.498266 0.445801 1.316 255 255 255
1.01394 -0.770082 2.392 255 255 255
0.298349 0.206067 0.753 255 255 255
-0.38208 0.432801 1.384 255 255 255
-0.692536 0.0728716 1.853 255 255 255
0.188328 -0.415826 1.339 255 255 255
-1.02069 -0.668995 2.143 255 255 255
0.221539 0.343198 0.893 255 255 255
-0.470997 0.320084 1.559 0 0 0
1.25805 -1.14654 3.026 255 255 255
-0.523024 0.470439 1.267 255 255 255
-0.249583 0.23228 1.425 255 255 255
0.563381 -0.212946 1.324 255 255 255
-0.612766 0.342281 1.439 255 255 255
0.496153 -0.114685 1.087 255 255 255
-0.97256 -0.768822 2.092 255 255 255
0.0887953 0.091448 0.934 255 255 255
0.017726 0.021042 1.158 255 255 255
0.154367 -0.0882329 0.954 255 255 255
-0.185952 0.458309 1.4 255 255 255
-0.131644 -0.430249 1.357 255 255 255
0.310426 0.17434 0.738 0 0 0
-0.622449 0.314413 1.473 255 255 255
-0.359927 0.413042 1.449 255 255 255
0.145753 0.312053 0.883 255 255 255
-0.691476 0.348711 1.381 255 255 255
0.365343 -0.45965 1.435 255 255 255
0.487356 -0.193036 1.225 255 255 255
0.400075 0.0516746 0.832 255 255 255
-0.941442 -0.0211853 1.905 255 255 255
0.550992 -0.113643 1.094 255 255 255
0.139052 0.312787 0.877 255 255 255
-0.746362 0.069253 1.837 255 255 255
0.164714 0.234595 0.96 0 0 0
-0.350199 0.471997 1.348 255 255 255
-0.76449 0.178489 1.633 255 255 255
-0.258248 0.0943901 1.409 255 255 255
0.150944 0.238837 0.952 255 255 255
0.202366 0.122413 0.873 255 255 255
-0.763534 -0.201029 2.136 255 255 255
0.118649 0.132218 0.954 255 255 255
-0.0962338 -0.23633 1.192 255 255 255
0.865181 -1.06692 2.996 255 255 255
-0.217857 -0.416543 1.4 255 255 255
0.110151 0.138302 0.975 255 255 255
-0.0585704 -0.124075 1.176 255 255 255
0.0245899 -0.557247 1.452 255 255 255
0.107891 -0.0441054 0.879 255 255 255
0.10204 0.213643 0.93 255 255 255
0.0794515 0.120998 1.075 255 255 255
0.725616 -0.320127 1.551 255 255 255
-0.329715 0.477513 1.345 255 255 255
0.0139122 0.142604 1.017 255 255 255
-0.919393 -0.512453 2.236 255 255 255
0.327836 -0.0523222 1.01 255 255 255
0.252682 0.199504 0.811 255 255 255
0.149475 -0.0334719 0.863 255 255 255
0.0748893 0.284252 0.895 255 255 255
-0.352625 0.132685 1.563 255 255 255
0.0658484 0.191352 0.932 255 255 255
-0.451271 0.225203 1.705 255 255 255
-0.874944 0.0423483 1.837 255 255 255
0.374664 -0.405152 1.4 255 255 255
-0.177244 0.488437 1.351 255 255 255
-0.49073 0.269792 1.607 255 255 255
0.903858 -1.02241 2.871 0 0 0
-0.0642566 -0.14452 1.141 0 0 0
0.304881 0.174781 0.745 0 0 0
-0.897719 -0.562224 2.402 255 255 255
-0.385697 -0.140607 1.494 255 255 255
-0.0764304 -0.373381 1.283 255 255 255
0.447431 -0.0794528 1.089 255 255 255
-0.148703 -0.260765 1.294 0 0 0
0.211134 0.190823 0.874 255 255 255
-0.424938 0.0084808 1.646 255 255 255
0.283924 0.0776039 0.806 255 255 255
-0.972489 -0.0210519 1.893 255 255 255
-0.15327 -0.160058 1.297 255 255 255
-1.06652 -0.660991 2.151 255 255 255
-0.4025 0.319051 1.579 255 255 255
0.111168 0.145984 0.984 255 255 255
0.342056 0.0809137 0.763 255 255 255
1.11572 -0.935541 2.793 255 255 255
0.0529047 0.230307 0.918 0 0 0
-0.00646287 -0.143427 1.104 255 255 255
0.292154 0.187204 0.756 255 255 255
-0.265211 0.495033 1.351 255 255 255
0.229981 0.169875 0.834 255 255 255
0.23317 -0.125011 1.013 255 255 255
0.220816 0.189955 0.851 255 255 255
-0.74091 -0.789835 2.121 255 255 255
0.206382 0.139752 0.866 255 255 255
-0.553185 -0.220664 1.637 0 0 0
-0.0173079 -0.178205 1.108 255 255 255
-0.0138084 -0.403552 1.286 0 0 0
0.0119146 0.123071 1.143 255 255 255
0.164595 -0.439729 1.359 255 255 255
0.136352 0.311715 0.878 255 255 255
-0.180984 0.238438 1.33 255 255 255
-0.930801 -0.172005 2.121 255 255 255
-0.84819 -0.471298 2.32 255 255 255
0.521764 -0.400451 1.502 0 0 0
-0.592584 0.210086 1.673 255 255 255
0.09526 0.150285 1.002 255 255 255
-0.165081 0.334318 1.324 255 255 255
-0.658483 0.32647 1.452 255 255 255
0.0614944 0.185882 0.935 255 255 255
0.30532 -0.406888 1.406 255 255 255
0.0249939 -0.110735 1.066 255 255 255
0.0650394 0.00883024 0.88 255 255 255
-0.369486 0.429738 1.396 255 255 255
0.191975 0.282572 0.948 255 255 255
-0.43626 0.36023 1.484 255 255 255
0.0776506 0.201102 0.928 255 255 255
1.22038 -1.08793 3.055 0 0 0
-0.8829 -0.590069 2.312 255 255 255
0.338817 0.253306 0.707 255 255 255
-0.0860894 0.015083 1.135 255 255 255
-0.439853 0.406779 1.403 255 255 255
0.11943 0.085958 0.924 255 255 255
-0.514316 -0.189521 1.599 255 255 255
0.666634 -0.380165 1.591 0 0 0
0.439005 -0.111491 1.108 255 255 255
-0.397309 0.416801 1.406 255 255 255
0.258049 0.139937 0.795 255 255 255
0.29787 0.0678307 0.784 0 0 0
-0.255592 0.355162 1.473 255 255 255
0.216868 0.28013 0.91 255 255 255
0.150716 -0.16931 1.002 0 0 0
0.15167 0.137676 0.928 255 255 255
-0.327582 -0.209904 1.452 255 255 255
0.106463 0.284431 0.891 0 0 0
0.00820007 -0.57281 1.48 255 255 255
0.00768452 -0.0433226 1.072 255 255 255
-0.0814141 -0.073847 1.232 255 255 255
0.250658 0.0915081 0.813 255 255 255
0.267836 -0.425695 1.378 255 255 255
1.20924 -0.998946 2.831 255 255 255
-0.156939 0.373419 1.31 255 255 255
0.511112 -0.473998 1.559 0 0 0
-0.0933603 -0.160471 1.205 255 255 255
0.273171 0.299494 0.821 255 255 255
-0.631915 -0.174825 1.826 255 255 255
-0.143311 0.243253 1.265 255 255 255
1.29595 -1.22947 3.231 255 255 255
-0.112423 -0.324912 1.265 0 0 0
-0.723165 0.314006 1.449 255 255 255
0.343494 -0.390038 1.403 0 0 0
-0.391505 0.475746 1.31 255 255 255
0.406183 -0.43283 1.439 255 255 255
0.017511 -0.0670267 1.034 255 255 255
0.150647 0.0716085 0.895 255 255 255
0.170386 -0.196777 1.053 255 255 255
-0.141925 -0.0133562 1.201 255 255 255
-0.211806 0.0630927 1.244 255 255 255
-0.239634 0.34466 1.449 255 255 255
0.020335 0.323303 0.932 255 255 255
0.308485 0.176492 0.742 0 0 0
-0.219029 0.108093 1.351 255 255 255
0.126484 0.0378544 0.889 255 255 255
1.23779 -1.12408 3.086 0 0 0
0.349909 0.259931 0.697 255 255 255
-0.0388711 0.207778 1.012 255 255 255
0.222651 0.0274865 0.798 255 255 255
-0.0648377 0.22364 1.032 255 255 255
-0.0621332 0.186985 1.043 255 255 255
0.679918 -0.342695 1.539 0 0 0
-0.71152 0.00993892 1.929 255 255 255
-0.409445 0.452254 1.348 255 255 255
0.279293 0.264509 0.804 255 255 255
-0.458006 -0.325238 1.516 255 255 255
-0.0228808 0.27764 0.963 255 255 255
-1.00665 -0.0829032 1.972 255 255 255
-0.125025 0.164064 1.227 255 255 255
-0.253194 -0.138631 1.473 255 255 255
0.316567 0.23066 0.73 255 255 255
-0.257038 -0.0640957 1.366 255 255 255
0.430404 -0.360831 1.396 0 0 0
-0.969435 -0.460349 2.303 255 255 255
0.216449 0.253949 0.896 255 255 255
-0.334703 -0.492511 1.422 255 255 255
0.22395 0.0183963 0.798 255 255 255
0.116858 0.167375 0.978 255 255 255
0.13631 -0.236916 1.096 255 255 255
-0.255364 0.0790303 1.381 255 255 255
0.694244 -0.336053 1.543 0 0 0
0.36644 0.159822 0.716 255 255 255
-0.0633593 0.384185 0.983 255 255 255
-0.764301 -0.0583333 2.01 255 255 255
0.0394067 -0.0659185 0.992 0 0 0
-0.972271 -0.327737 2.374 255 255 255
0.0384777 -0.0358861 1.01 0 0 0
-0.098377 -0.371123 1.297 255 255 255
0.230003 0.318137 0.892 255 255 255
0.820119 -0.424579 1.753 255 255 255
0.0571249 0.032016 1.083 255 255 255
0.071493 0.295366 0.889 255 255 255
0.0123941 0.0835219 1.189 255 255 255
0.45913 -0.115597 1.079 255 255 255
-0.546089 0.255524 1.616 0 0 0
0.541228 -0.255268 1.366 255 255 255
0.173546 0.246321 0.957 255 255 255
-0.0416376 -0.228119 1.132 0 0 0
-0.11982 -0.103641 1.278 255 255 255
-0.614533 0.0280726 1.882 255 255 255
0.0935066 0.162345 0.967 255 255 255
0.110752 -0.00691444 0.879 0 0 0
0.544912 -0.473371 1.591 0 0 0
-0.421583 0.44051 1.366 255 255 255
-0.439158 0.487933 1.275 255 255 255
-0.47345 -0.469046 1.487 255 255 255
1.15247 -0.989772 2.805 255 255 255
0.0105818 0.0590556 1.203 255 255 255
-0.284699 -0.381224 1.513 255 255 255
-0.475964 -0.223978 1.567 255 255 255
0.163608 -0.134187 0.972 255 255 255
-1.15797 -0.298173 2.212 255 255 255
-0.250254 -0.192795 1.484 0 0 0
0.117102 0.00875999 0.873 255 255 255
0.47672 -0.0553341 1.005 255 255 255
0.00367019 0.329963 0.938 255 255 255
0.150818 -0.408683 1.316 255 255 255
-0.501208 0.235326 1.659 255 255 255
0.601273 -0.316597 1.487 0 0 0
-0.458655 -0.393455 1.494 0 0 0
-0.316114 0.0633178 1.487 255 255 255
-0.0413049 -0.344504 1.232 255 255 255
-0.292029 -0.0980049 1.406 255 255 255
0.413037 -0.0131968 0.918 255 255 255
0.931123 -0.488166 1.831 0 0 0
-0.0621337 -0.0130226 1.171 255 255 255
-0.171685 -0.884546 2.365 255 255 255
-0.344705 0.0429919 1.539 255 255 255
0.383172 -0.30538 1.342 0 0 0
-0.059096 -0.242763 1.149 255 255 255
0.157329 -0.324912 1.265 0 0 0
-0.0969604 -0.0270372 1.201 255 255 255
-0.378181 0.43541 1.378 255 255 255
-0.361093 -0.368748 1.473 255 255 255
0.860964 -0.566306 1.893 255 255 255
0.2383 0.109108 0.816 0 0 0
0.467523 -0.378322 1.419 255 255 255
-0.525878 0.0294312 1.779 255 255 255
-0.184712 0.0447486 1.187 255 255 255
-0.0399979 0.265259 0.999 255 255 255
0.259013 0.0298312 0.827 255 255 255
0.20793 -0.068364 0.897 255 255 255
0.0767782 -0.114694 0.995 0 0 0
-0.529891 0.440042 1.299 255 255 255
0.0929176 0.189408 0.945 255 255 255
0.181257 0.334473 0.874 0 0 0
-0.369015 0.494056 1.291 255 255 255
-1.01951 -0.113939 2.01 255 255 255
-0.226037 -0.293167 1.516 255 255 255
0.369791 0.127675 0.739 255 255 255
0.0330043 0.115961 1.165 255 255 255
1.21847 -0.869348 2.66 255 255 255
0.0694933 0.218832 0.92 255 255 255
0.107308 -0.0473403 0.886 255 255 255
-0.284816 0.414652 1.463 255 255 255
-0.853936 -0.774565 2.136 255 255 255
-0.34146 0.196782 1.547 255 255 255
-0.828828 -0.801515 2.143 255 255 255
0.34854 -0.315979 1.369 0 0 0
-0.626912 0.284157 1.543 255 255 255
0.81582 -1.08893 3.086 255 255 255
-0.218633 0.0269963 1.26 255 255 255
-0.049398 -0.23736 1.141 255 255 255
-0.211944 0.1666 1.362 255 255 255
-0.823354 0.0454611 1.842 255 255 255
-0.0773933 0.00216909 1.143 255 255 255
-0.632516 0.378522 1.375 255 255 255
-0.0434803 -0.213382 1.132 0 0 0
-0.922449 -0.69826 2.158 255 255 255
0.202598 0.146732 0.874 255 255 255
0.362487 0.0650645 0.797 255 255 255
-0.564311 0.363157 1.429 255 255 255
0.331536 -0.0891592 1.037 255 255 255
-0.509261 -0.123162 1.616 255 255 255
-0.0603297 -0.197672 1.137 255 255 255
-0.370037 -0.264529 1.48 255 255 255
-0.550118 -1.18215 3.231 255 255 255
0.26234 0.309895 0.842 255 255 255
0.360948 -0.328668 1.357 0 0 0
-0.544035 0.404489 1.372 255 255 255
-0.218957 -0.0352289 1.286 255 255 255
-0.625196 0.237817 1.603 255 255 255
-0.931397 -0.156558 2.099 255 255 255
0.680965 -0.672331 2.017 255 255 255
-1.0339 -0.709911 2.099 255 255 255
0.194466 -0.00641887 0.816 255 255 255
0.128634 -0.202664 1.048 0 0 0
-0.939199 -0.804917 2.071 255 255 255
0.513424 -0.10992 1.075 255 255 255
0.128004 -0.119211 0.966 255 255 255
-0.133771 0.0389909 1.132 255 255 255
-0.0690792 -0.491674 1.387 255 255 255
-0.066983 -0.24048 1.156 255 255 255
0.285078 0.0967551 0.791 255 255 255
0.132304 -0.336464 1.262 0 0 0
-0.704391 0.334506 1.416 255 255 255
0.294672 -0.127868 1.05 0 0 0
-0.532461 -0.2533 1.591 0 0 0
-0.620553 0.43186 1.281 255 255 255
-0.495463 0.387649 1.425 255 255 255
0.0248329 0.243911 0.93 255 255 255
-0.448766 0.308773 1.579 255 255 255
0.177028 -0.205371 1.062 255 255 255
1.19014 -0.885928 2.684 0 0 0
-0.155073 0.0118606 1.182 0 0 0
0.312327 0.186534 0.734 255 255 255
0.465215 0.0283514 0.909 0 0 0
0.0411042 -0.0369352 0.994 0 0 0
0.284918 0.252512 0.787 255 255 255
0.813556 -1.05785 3.04 0 0 0
-1.00315 -0.521497 2.228 255 255 255
1.29859 -1.05368 2.805 255 255 255
0.23595 -0.298622 1.267 255 255 255
-0.0329568 0.270609 0.983 255 255 255
0.304433 0.138541 0.759 255 255 255
-0.387701 0.435747 1.372 255 255 255
0.215133 0.106111 0.845 255 255 255
-0.241949 -0.366245 1.463 255 255 255
0.452091 -0.0817471 1.096 0 0 0
0.252708 0.237565 0.824 255 255 255
0.183892 0.0897375 0.873 255 255 255
-0.382673 -0.44066 1.473 255 255 255
-0.287203 0.488437 1.351 255 255 255
-0.721485 0.195522 1.62 255 255 255
-0.388731 -0.224643 1.487 255 255 255
-0.570836 0.395558 1.372 255 255 255
0.368061 0.0498368 0.824 255 255 255
-0.358805 0.275369 1.579 0 0 0
-0.220001 0.121823 1.357 255 255 255
-0.199236 0.23121 1.351 255 255 255
-0.657155 0.282394 1.52 255 255 255
0.506425 -0.10992 1.075 255 255 255
0.098232 0.102415 0.937 255 255 255
0.54529 -0.246415 1.354 255 255 255
-0.986042 -0.744964 2.121 255 255 255
-0.699723 0.383396 1.345 255 255 255
-0.337887 -1.13669 3.026 255 255 255
-1.14089 -0.360229 2.286 255 255 255
-0.182046 0.379351 1.354 255 255 255
-0.985163 -0.581905 2.196 0 0 0
0.150344 -0.015021 0.852 255 255 255
-0.876992 -0.0642619 1.991 255 255 255
-0.0732854 0.163131 1.137 255 255 255
-0.293736 0.212917 1.484 255 255 255
0.097212 -0.00841132 0.886 0 0 0
0.28099 -0.0936897 1.013 255 255 255
-0.245768 -0.324336 1.547 255 255 255
-0.288193 -0.542197 1.456 0 0 0
-0.121137 -0.195994 1.27 0 0 0
-0.0401658 0.33911 0.964 255 255 255
0.0727216 0.0722831 1.079 255 255 255
-0.152561 -0.302178 1.291 0 0 0
0.66578 -0.22267 1.357 0 0 0
-0.716192 0.333561 1.412 255 255 255
-0.320739 -0.181379 1.432 255 255 255
-0.743201 0.0403231 1.882 255 255 255
0.0207277 0.224421 0.95 255 255 255
-0.0998922 0.0442027 1.124 255 255 255
0.222658 0.122079 0.832 255 255 255
0.658776 -0.599572 1.853 0 0 0
-0.622249 0.415633 1.302 255 255 255
-0.238291 -0.0764129 1.348 255 255 255
0.263892 0.247624 0.813 255 255 255
0.251809 0.110121 0.804 255 255 255
0.0354682 -0.0345138 1.018 0 0 0
-1.12578 -0.429402 2.278 255 255 255
0.44213 -0.345708 1.39 0 0 0
-0.483745 0.324332 1.543 255 255 255
0.32948 -0.0523222 1.01 255 255 255
0.109211 0.248639 0.914 255 255 255
0.918526 -1.10166 3.011 0 0 0
-0.660163 0.440876 1.265 255 255 255
-0.595903 0.302452 1.509 255 255 255
-0.0917935 0.0909708 1.137 255 255 255
0.315912 -0.00817398 0.861 0 0 0
-1.02965 -0.785679 2.03 255 255 255
-0.43797 0.447867 1.348 255 255 255
0.108644 -0.0845926 0.948 255 255 255
-0.96729 -0.642657 2.196 255 255 255
0.157616 0.121677 0.91 255 255 255
0.633449 -0.411415 1.612 255 255 255
-0.548363 0.377904 1.406 255 255 255
-0.407093 -0.104127 1.567 255 255 255
0.197876 0.115177 0.872 255 255 255
-0.0154484 -0.197324 1.104 255 255 255
-0.265996 -0.38296 1.491 255 255 255
-0.985456 -0.21512 2.173 255 255 255
0.967889 -1.1097 2.967 255 255 255
0.30085 0.114532 0.772 255 255 255
-0.0121432 -0.44867 1.333 255 255 255
-0.314253 0.187532 1.513 255 255 255
-0.345601 0.0531475 1.543 255 255 255
-0.976849 -0.45855 2.294 255 255 255
-0.365786 0.393225 1.463 255 255 255
0.165504 -0.306575 1.249 255 255 255
0.325008 0.084084 0.758 0 0 0
0.253346 -0.0190003 0.844 0 0 0
0.217867 0.243355 0.884 255 255 255
0.236038 0.316005 0.882 255 255 255
-0.261949 0.267903 1.442 255 255 255
0.270169 0.281782 0.82 255 255 255
0.174262 0.203033 0.944 255 255 255
0.0827138 0.193283 0.934 255 255 255
-0.597607 0.250234 1.599 255 255 255
0.670811 -0.334395 1.524 0 0 0
-0.940801 -0.182961 2.128 255 255 255
0.615246 -0.156793 1.254 255 255 255
0.405595 0.0505021 0.835 255 255 255
-0.181436 -0.235261 1.366 255 255 255
-0.304134 -0.334395 1.524 255 255 255
-0.972983 -0.130435 2.064 255 255 255
0.0549916 0.192041 0.928 255 255 255
-0.436111 0.227309 1.7 255 255 255
0.135545 0.174795 0.975 255 255 255
-0.488287 -0.168704 1.599 255 255 255
-0.162712 0.267935 1.305 255 255 255
-0.91795 0.00661298 1.876 255 255 255
0.27289 0.242823 0.793 255 255 255
-1.16326 -0.326879 2.236 255 255 255
-0.415394 -0.430194 1.47 255 255 255
0.82182 -0.359697 1.664 255 255 255
-0.363183 -0.0322254 1.543 255 255 255
0.204325 -0.138646 0.97 255 255 255
-0.0519572 -0.34667 1.247 255 255 255
0.30536 -0.0178566 0.855 255 255 255
-0.145111 -0.435306 1.359 255 255 255
-0.123529 -0.0618178 1.232 255 255 255
0.161026 -0.117639 0.966 0 0 0
-1.09809 -0.649095 2.158 255 255 255
-0.352724 0.368754 1.509 255 255 255
0.219165 -0.0103771 0.814 255 255 255
0.269162 0.290142 0.821 255 255 255
0.218353 -0.345322 1.336 0 0 0
-0.28289 0.474683 1.362 255 255 255
0.184263 -0.0337851 0.836 0 0 0
0.318626 0.258689 0.732 255 255 255
0.0601385 0.0776915 1.106 255 255 255
0.304702 -0.0238056 0.869 255 255 255
-0.941045 -0.460829 2.383 255 255 255
-0.384838 0.393225 1.463 255 255 255
-0.879082 0.00362653 1.911 255 255 255
-0.113714 0.365338 1.116 255 255 255
0.322027 -0.361898 1.409 255 255 255
0.272794 0.153404 0.778 255 255 255
-0.501521 0.344109 1.477 255 255 255
-0.676268 0.27905 1.502 255 255 255
-0.628894 0.427691 1.281 255 255 255
0.393709 0.0501997 0.83 255 255 255
0.66905 -0.32857 1.52 0 0 0
0.316243 0.186026 0.732 0 0 0
-0.303597 0.277895 1.509 255 255 255
0.0526016 -0.0901459 1.029 0 0 0
-0.923927 -0.571746 2.212 255 255 255
0.0187822 -0.337116 1.227 255 255 255
0.554993 -0.547855 1.668 255 255 255
-0.589447 0.343708 1.445 255 255 255
0.0788221 0.366628 0.942 255 255 255
-1.03851 -0.522768 2.173 255 255 255
0.429201 0.0565403 0.844 255 255 255
0.279312 0.172991 0.775 255 255 255
0.506761 -0.26474 1.369 255 255 255
0.0380441 0.242786 0.92 255 255 255
-0.033889 0.340678 0.964 255 255 255
0.769092 -0.401307 1.691 255 255 255
-0.318181 0.193347 1.52 255 255 255
0.301534 0.0722829 0.777 0 0 0
0.361941 0.0258375 0.874 0 0 0
-0.486899 0.271729 1.603 255 255 255
-0.352768 0.25673 1.575 0 0 0
-0.856475 -0.185234 2.196 255 255 255
-0.314036 -0.433794 1.466 255 255 255
0.285108 0.240067 0.784 255 255 255
-0.276577 -0.49072 1.509 0 0 0
-0.498815 -0.449046 1.543 255 255 255
-0.443199 -0.2907 1.516 255 255 255
-0.0562794 -0.185421 1.13 255 255 255
-0.78328 0.269004 1.487 255 255 255
-0.120044 0.164707 1.217 255 255 255
-0.0247437 -0.0961234 1.118 255 255 255
0.492068 -0.46028 1.547 255 255 255
0.0418896 0.305437 0.906 255 255 255
0.529047 -0.220727 1.319 255 255 255
-0.302929 0.402283 1.47 255 255 255
-0.50799 0.442525 1.319 255 255 255
-0.0155883 -0.248058 1.114 0 0 0
-0.407899 -1.19358 3.071 255 255 255
0.192224 -0.20326 1.06 255 255 255
0.220801 -0.564698 1.484 255 255 255
-0.485968 0.417885 1.372 0 0 0
-1.13543 -0.307366 2.253 255 255 255
-0.833418 -0.775127 2.128 255 255 255
-0.775608 0.276809 1.477 255 255 255
0.308858 0.160362 0.74 255 255 255
0.0982541 -0.150103 0.983 0 0 0
0.484663 0.0141258 0.947 255 255 255
0.306109 0.260329 0.754 255 255 255
0.128999 -0.0166963 0.867 255 255 255
-0.157735 -0.297709 1.299 255 255 255
-0.631928 0.307101 1.484 255 255 255
0.484903 -0.128411 1.114 255 255 255
-0.550131 0.303456 1.539 255 255 255
0.273717 0.0864623 0.803 255 255 255
-0.12923 -0.0556673 1.229 0 0 0
0.0451361 0.323786 0.912 255 255 255
0.209639 0.154536 0.862 255 255 255
-0.725714 -0.034996 1.985 255 255 255
-0.996501 -0.143871 2.064 255 255 255
0.00281509 -0.346509 1.232 0 0 0
0.315545 -0.012363 0.86 0 0 0
0.437485 0.015154 0.916 255 255 255
0.245169 -0.172843 1.043 255 255 255
0.367631 0.0258375 0.874 0 0 0
0.77038 -0.539263 1.853 0 0 0
0.438124 0.0238084 0.905 255 255 255
0.215393 -0.268319 1.232 255 255 255
0.0888106 -0.378087 1.257 255 255 255
-0.437396 -0.290124 1.513 255 255 255
0.304934 -0.0999983 1.027 255 255 255
0.144975 -0.397979 1.302 255 255 255
0.257135 0.309416 0.852 255 255 255
-0.637394 0.207826 1.655 255 255 255
-0.173205 -0.00944738 1.201 0 0 0
-0.27856 0.0719682 1.419 0 0 0
0.00688166 0.236157 0.96 255 255 255
0.110743 -0.207499 1.073 255 255 255
0.659366 -0.302078 1.487 255 255 255
-0.934937 -0.591198 2.204 255 255 255
0.205558 -0.127977 0.961 255 255 255
0.133016 0.0894898 0.914 255 255 255
-0.931129 -0.553748 2.212 255 255 255
-0.901188 -0.792493 2.166 255 255 255
0.0362287 0.305976 0.912 255 255 255
0.362242 0.0720238 0.788 255 255 255
-0.309372 -0.274277 1.563 255 255 255
-0.696602 0.390402 1.339 255 255 255
-0.593169 0.386627 1.372 255 255 255
0.35365 0.12353 0.743 255 255 255
-1.0555 -0.696165 2.01 255 255 255
-0.568004 0.470817 1.257 255 255 255
-1.09563 -0.357283 2.365 255 255 255
0.238447 -0.0577571 0.891 0 0 0
0.300159 0.0776392 0.78 0 0 0
-0.282581 -0.137875 1.416 255 255 255
-0.745157 0.0904802 1.784 255 255 255
-0.637039 0.248356 1.587 255 255 255
0.119841 0.209598 0.939 255 255 255
0.136406 0.325354 0.843 255 255 255
-0.0477047 -0.452332 1.357 255 255 255
-0.600447 0.453228 1.265 255 255 255
-0.262946 0.104517 1.422 255 255 255
-0.59903 0.0879488 1.853 255 255 255
0.234847 0.18436 0.832 255 255 255
-0.0384765 0.328671 0.961 255 255 255
0.950168 -0.601308 2.01 255 255 255
0.166276 -0.0950368 0.96 255 255 255
0.335667 0.188687 0.715 255 255 255
0.0132145 0.187329 0.966 255 255 255
-1.04033 -0.477216 2.294 0 0 0
-0.774169 0.158737 1.677 255 255 255
-0.22745 -0.269712 1.509 255 255 255
-0.32925 -0.104858 1.47 255 255 255
0.0239961 0.202715 0.957 255 255 255
0.290966 -0.474514 1.403 0 0 0
0.158133 0.170188 0.958 0 0 0
-0.519187 0.455501 1.283 255 255 255
0.328237 -0.393652 1.416 0 0 0
0.130453 0.318577 0.858 255 255 255
-0.439096 -0.00495091 1.659 255 255 255
-0.0337826 -0.123193 1.116 255 255 255
-0.52791 0.447143 1.289 255 255 255
1.35506 -1.09525 2.818 255 255 255
-0.279773 -0.381224 1.513 255 255 255
0.600003 -0.3369 1.502 0 0 0
0.386152 -0.362234 1.384 255 255 255
-0.220044 0.439897 1.429 255 255 255
-0.915291 -0.189753 2.166 255 255 255
-0.961585 -0.730108 2.128 255 255 255
-0.306877 -0.45288 1.466 255 255 255
-0.881253 -0.232008 2.269 255 255 255
-0.53367 0.419941 1.357 255 255 255
-0.929475 -0.75796 2.158 255 255 255
-0.416863 0.467217 1.316 255 255 255
0.235842 0.170933 0.826 255 255 255
0.0296378 -0.292053 1.182 255 255 255
-0.130221 -0.209707 1.278 0 0 0
0.138796 -0.341381 1.265 0 0 0
0.235643 0.0493529 0.816 0 0 0
-0.345631 0.349444 1.532 255 255 255
0.321761 0.114288 0.762 255 255 255
-0.02033 0.129986 1.077 255 255 255
-0.395425 -0.215975 1.494 255 255 255
-0.274537 0.199833 1.459 255 255 255
-0.182161 -0.0525082 1.249 255 255 255
0.25035 0.187857 0.812 255 255 255
0.0209023 0.204486 0.958 255 255 255
0.104841 0.217714 0.928 255 255 255
0.177672 -0.0120324 0.837 0 0 0
0.425859 -0.360831 1.396 0 0 0
0.271732 0.25179 0.801 255 255 255
0.268521 -0.168555 1.048 255 255 255
0.0976125 -0.384611 1.265 255 255 255
0.0616961 -0.427567 1.289 255 255 255
0.27618 0.0684431 0.822 255 255 255
-0.12754 0.202825 1.232 255 255 255
0.211151 0.202157 0.88 255 255 255
0.169417 0.0789109 0.879 255 255 255
0.174562 0.329732 0.869 0 0 0
0.173558 0.0663162 0.864 255 255 255
0.164663 -0.21472 1.083 255 255 255
-0.0749395 0.386139 0.988 255 255 255
-1.14024 -0.568324 2.158 255 255 255
-0.00898212 0.155908 0.986 255 255 255
-0.20484 0.267964 1.359 255 255 255
-0.400884 -0.12855 1.524 255 255 255
0.137179 0.101167 0.912 255 255 255
0.227013 0.261208 0.886 255 255 255
-0.696046 0.147202 1.734 255 255 255
0.32132 0.185518 0.73 0 0 0
0.153468 0.151532 0.939 255 255 255
0.206891 -0.0990983 0.925 0 0 0
0.117245 -0.268832 1.173 255 255 255
-0.455215 0.380816 1.452 255 255 255
0.312666 -0.144708 1.036 255 255 255
0.16799 0.181516 0.952 255 255 255
-0.723579 0.326667 1.422 255 255 255
-0.584735 -1.1778 3.248 255 255 255
0.140613 -0.0421895 0.869 255 255 255
0.143527 -0.387712 1.289 255 255 255
0.213825 0.319243 0.916 255 255 255
0.0532584 -0.0585513 0.951 255 255 255
-0.182046 0.491725 1.354 255 255 255
-0.801953 0.117955 1.719 255 255 255
0.102535 -0.391801 1.275 255 255 255
-0.694272 0.0468679 1.899 255 255 255
0.626385 -0.200951 1.316 255 255 255
-0.587264 0.328943 1.463 255 255 255
-0.362074 -0.400996 1.477 255 255 255
-0.597944 0.0247043 1.859 255 255 255
-0.880673 -0.0246679 1.935 255 255 255
0.0211521 -0.402104 1.249 255 255 255
-0.899289 -0.530472 2.365 255 255 255
0.135874 -0.0945418 0.955 255 255 255
-0.051124 0.309224 0.994 255 255 255
0.351517 0.142727 0.736 255 255 255
-0.112928 -0.137016 1.319 255 255 255
0.178837 -0.0453633 0.849 0 0 0
-0.49128 -0.305921 1.543 255 255 255
0.332052 -0.0336477 0.947 255 255 255
0.145835 -0.159388 0.991 255 255 255
0.152826 -0.203643 1.062 255 255 255
-0.511713 -0.181715 1.599 255 255 255
0.146012 -0.00253962 0.851 255 255 255
0.451203 -0.479493 1.528 255 255 255
0.443134 0.00934199 0.931 0 0 0
0.70369 -0.308781 1.52 255 255 255
0.671528 -0.218025 1.342 255 255 255
-0.709307 0.0192961 1.923 255 255 255
0.314942 -0.329269 1.378 255 255 255
0.0411731 0.351723 0.923 255 255 255
-0.0598155 -0.101305 1.201 255 255 255
-0.0717229 0.353983 0.988 255 255 255
-0.0246338 -0.413762 1.305 255 255 255
-0.369124 0.42777 1.412 0 0 0
-0.191825 0.471885 1.393 255 255 255
-0.675907 0.318547 1.459 255 255 255
0.138663 0.089294 0.912 255 255 255
-0.0100388 -0.175447 1.102 255 255 255
-0.181701 0.046405 1.18 0 0 0
-0.958672 0.000496698 1.837 255 255 255
0.0496345 -0.100972 1.037 255 255 255
0.291288 -0.140729 1.044 255 255 255
-0.989293 -0.191226 2.143 255 255 255
-0.384172 0.0680869 1.599 255 255 255
-0.0228418 -0.0994052 1.114 255 255 255
-0.344729 0.0203056 1.528 255 255 255
0.0460926 -0.0467531 0.963 255 255 255
0.15675 0.112172 0.905 255 255 255
0.214516 0.0926876 0.848 255 255 255
-0.44386 0.240608 1.677 255 255 255
0.175595 -0.161793 0.986 0 0 0
-0.064629 0.345626 0.978 255 255 255
-0.636157 0.201919 1.673 255 255 255
-0.972271 -0.420455 2.374 255 255 255
0.261858 0.146213 0.787 255 255 255
0.256062 -0.420293 1.375 255 255 255
0.0482653 -0.316024 1.215 255 255 255
-0.417392 0.409388 1.412 255 255 255
-0.0959687 0.268807 1.1 255 255 255
-0.462535 0.292996 1.591 255 255 255
0.848527 -0.513782 1.859 0 0 0
0.207994 0.117928 0.861 255 255 255
-0.216677 0.235831 1.378 255 255 255
0.148628 0.314927 0.883 255 255 255
-0.0363556 -0.0270372 1.201 0 0 0
0.417463 -0.499216 1.505 255 255 255
0.230784 0.178945 0.832 255 255 255
-0.155446 -0.0352612 1.215 0 0 0
-0.515291 0.374023 1.435 255 255 255
-0.758485 0.0160154 1.905 255 255 255
0.191388 -0.0618978 0.888 255 255 255
-0.0148086 0.348908 0.948 255 255 255
-0.79399 -0.0413103 1.978 255 255 255
0.153639 0.202103 0.969 255 255 255
-0.193615 0.460273 1.406 255 255 255
-0.093668 -0.33441 1.262 0 0 0
-0.427809 0.210711 1.7 255 255 255
0.0558262 -0.234655 1.128 255 255 255
-0.456538 0.442268 1.351 255 255 255
-0.0378182 -0.221806 1.128 0 0 0
-0.0691553 0.174999 1.13 0 0 0
-0.517153 0.260783 1.616 255 255 255
0.2361 0.0438794 0.813 0 0 0
-0.208741 0.333005 1.4 255 255 255
0.210671 0.17455 0.878 255 255 255
0.325225 0.0266983 0.856 255 255 255
0.347199 0.235857 0.703 255 255 255
0.492238 -0.272018 1.372 255 255 255
-0.278132 -0.438766 1.491 0 0 0
-0.725032 0.172382 1.677 255 255 255
0.00255461 -0.250768 1.118 255 255 255
-1.11904 -0.573481 2.151 255 255 255
0.804688 -1.17421 3.181 0 0 0
0.083911 0.276436 0.898 255 255 255
0.589511 -0.332674 1.494 0 0 0
-0.0910669 0.0718944 1.128 255 255 255
0.892024 -0.549158 1.887 255 255 255
-0.134066 0.33232 1.275 255 255 255
0.235643 0.0506808 0.816 255 255 255
0.285301 0.0152818 0.841 255 255 255
0.35643 -0.4261 1.409 255 255 255
0.182903 -0.0215411 0.836 255 255 255
-0.510288 -0.272873 1.555 0 0 0
-0.191932 0.126708 1.316 255 255 255
-0.550588 -0.00532394 1.784 255 255 255
0.422148 0.0385496 0.872 255 255 255
0.292894 -0.155752 1.02 255 255 255
0.140725 -0.210556 1.062 255 255 255
0.273321 -0.149786 1.06 255 255 255
0.0662689 -0.474658 1.339 255 255 255
0.0292115 0.0609818 1.165 255 255 255
-0.0598521 0.0333463 1.128 0 0 0
0.22643 0.118511 0.826 255 255 255
-0.189346 -0.223386 1.375 255 255 255
-0.383312 0.41923 1.422 255 255 255
-1.04972 -0.565802 2.189 255 255 255
0.0148329 0.145335 0.969 255 255 255
-0.427966 -0.547241 1.432 0 0 0
-0.431327 0.351564 1.509 0 0 0
0.425999 0.0250018 0.895 255 255 255
-1.12474 -0.404122 2.261 0 0 0
-0.828317 -0.620634 2.286 255 255 255
-0.342898 0.00286365 1.509 255 255 255
0.392279 -0.00714256 0.908 0 0 0
-0.631063 0.109774 1.815 255 255 255
0.142382 0.296895 0.898 255 255 255
-0.0732372 0.309289 1.032 255 255 255
-0.166016 -0.0373916 1.22 255 255 255
-0.0883732 0.281416 1.073 255 255 255
0.347441 -0.289444 1.339 255 255 255
0.438212 -0.131088 1.106 255 255 255
0.0624772 0.197869 0.927 0 0 0
0.206515 -0.0010937 0.806 255 255 255
-0.0383717 0.175846 0.999 255 255 255
0.289165 0.22103 0.771 255 255 255
-0.893683 -0.0959089 2.044 255 255 255
0.0908257 -0.124697 0.972 255 255 255
0.176695 0.0501438 0.852 255 255 255
0.0632959 0.319592 0.917 255 255 255
0.177733 0.168241 0.93 255 255 255
0.0742019 0.0947571 1.075 255 255 255
1.09346 -1.01314 2.967 255 255 255
0.1087 -0.0154088 0.874 0 0 0
-0.313138 -0.0283664 1.473 255 255 255
-0.2854 -0.543535 1.466 0 0 0
0.338817 0.252155 0.707 255 255 255
0.0731014 0.260592 0.909 0 0 0
-0.178671 -0.168443 1.313 0 0 0
0.231461 -0.164052 1.02 255 255 255
-0.144627 0.0319855 1.145 255 255 255
0.185008 0.184598 0.921 255 255 255
-0.49759 -0.316784 1.547 0 0 0
0.245173 0.26826 0.849 255 255 255
0.167967 -0.0121186 0.843 255 255 255
-1.04698 -0.697015 2.051 255 255 255
0.511039 -1.08553 2.793 255 255 255
0.46968 -0.0500263 0.997 255 255 255
-0.912138 -0.511027 2.329 255 255 255
0.343512 0.134231 0.742 255 255 255
0.194683 0.0137974 0.834 255 255 255
1.01103 -0.966844 2.818 0 0 0
0.00893899 -0.381167 1.247 0 0 0
0.203907 -0.332967 1.313 255 255 255
0.0402066 0.0735516 1.154 255 255 255
0.174897 0.0458764 0.85 255 255 255
-0.00505459 0.0431417 1.196 0 0 0
0.123595 -0.324903 1.257 0 0 0
-0.00572526 0.186473 0.978 255 255 255
0.513096 -0.395652 1.484 0 0 0
-0.344309 -0.25369 1.473 255 255 255
-0.0456032 -0.264746 1.139 0 0 0
-0.829262 0.203396 1.599 255 255 255
-0.314538 0.090178 1.491 255 255 255
0.348416 -0.057096 1.037 255 255 255
-1.04008 -0.774466 2.044 255 255 255
0.0876165 -0.240375 1.112 255 255 255
-0.41805 0.468289 1.313 255 255 255
-0.163086 -0.131616 1.308 0 0 0
0.313248 -0.174832 1.055 255 255 255
-0.0164559 0.000317973 1.176 255 255 255
0.091957 0.22482 0.92 255 255 255
-0.282986 -0.198557 1.491 255 255 255
-0.700118 0.166056 1.696 255 255 255
-0.412845 0.231867 1.673 255 255 255
0.969742 -1.00812 2.818 255 255 255
0.309104 -0.327835 1.372 255 255 255
0.211994 0.0248581 0.797 0 0 0
-0.518279 0.169747 1.763 255 255 255
0.0105203 0.0762285 1.196 255 255 255
0.170207 -0.219081 1.096 255 255 255
1.05737 -1.18544 3.102 255 255 255
-0.0793655 -0.292839 1.201 255 255 255
-0.37107 -0.0501895 1.555 255 255 255
0.485672 0.00800349 0.952 255 255 255
-0.878406 -0.35747 2.392 255 255 255
0.290459 0.198801 0.758 255 255 255
-0.803859 -0.184644 2.189 255 255 255
0.391649 0.0634112 0.809 255 255 255
-0.276033 0.101294 1.442 255 255 255
-0.331783 0.490557 1.327 255 255 255
0.192862 0.00428677 0.832 0 0 0
-0.960886 -0.453499 2.365 255 255 255
0.275831 -0.112785 1.037 255 255 255
0.293536 0.0139794 0.845 255 255 255
0.443483 0.0195616 0.913 255 255 255
0.291515 0.169293 0.764 255 255 255
-0.421253 -0.506578 1.449 255 255 255
-0.0800499 0.0663876 1.128 0 0 0
0.136037 -0.172571 1.002 255 255 255
-0.756726 0.0491953 1.87 255 255 255
0.3652 -0.377376 1.39 255 255 255
0.136973 0.0432976 0.882 255 255 255
0.257008 0.0948899 0.808 255 255 255
0.205364 0.222627 0.905 255 255 255
0.197239 0.0943271 0.863 0 0 0
-0.0417491 0.269317 1.002 255 255 255
-0.438833 -0.0958453 1.599 255 255 255
-0.075797 -0.158346 1.147 255 255 255
-0.360672 -0.160283 1.452 255 255 255
0.131696 0.0058102 0.857 255 255 255
-0.325401 -0.481992 1.432 255 255 255
-0.15985 -0.200469 1.299 255 255 255
0.0136185 -0.25346 1.13 255 255 255
-0.992339 -0.530226 2.204 255 255 255
-1.05557 -0.665507 2.143 255 255 255
-0.499144 0.356831 1.47 255 255 255
-0.269352 -0.310679 1.567 0 0 0
0.0477939 0.016587 1.112 255 255 255
-0.658441 0.0934218 1.842 255 255 255
0.0961623 -0.114326 0.978 255 255 255
-0.286838 -0.127477 1.403 255 255 255
0.336682 0.154494 0.735 255 255 255
-0.611874 0.371991 1.384 255 255 255
-0.617716 0.366026 1.387 255 255 255
0.303232 -0.221676 1.176 255 255 255
0.227801 0.15574 0.831 255 255 255
-0.391326 0.0815031 1.607 255 255 255
-0.479713 0.48281 1.267 255 255 255
0.187697 0.144916 0.898 255 255 255
-0.459278 -0.181089 1.571 255 255 255
-0.348289 0.132006 1.555 255 255 255
-0.635043 0.308681 1.48 255 255 255
0.11878 -0.564438 1.477 255 255 255
0.373787 0.0733062 0.788 255 255 255
-0.385531 -0.335278 1.484 255 255 255
-0.614723 0.295867 1.513 255 255 255
0.353174 0.124571 0.742 255 255 255
-0.618569 0.202402 1.677 255 255 255
0.0749511 0.194386 0.932 255 255 255
0.278508 0.25734 0.798 255 255 255
0.254654 -0.036659 0.872 0 0 0
-0.488305 0.371365 1.452 255 255 255
0.369664 -0.546241 1.52 255 255 255
-0.044562 0.28923 0.992 255 255 255
0.189919 -0.350052 1.305 0 0 0
0.341666 -0.290093 1.342 255 255 255
-0.112157 -0.168061 1.262 0 0 0
-0.153723 -0.126284 1.319 0 0 0
-0.0375651 0.29788 0.978 255 255 255
0.0173739 0.125904 1.135 255 255 255
0.449171 -0.10438 1.072 255 255 255
0.264084 0.149865 0.786 255 255 255
-0.742646 0.165076 1.686 255 255 255
0.406828 -0.302358 1.348 0 0 0
0.0680581 -0.0393444 0.901 255 255 255
-0.249583 0.174306 1.425 255 255 255
-0.360016 0.0231353 1.551 255 255 255
-0.897092 0.0955756 1.719 255 255 255
0.308941 0.0440744 0.842 255 255 255
-0.292942 0.457834 1.378 255 255 255
0.182471 0.335511 0.873 0 0 0
-0.730797 0.193958 1.629 255 255 255
1.3399 -0.985882 2.731 255 255 255
-0.759859 -0.0928997 2.051 255 255 255
-0.438334 0.257589 1.646 255 255 255
-0.161895 -0.0518776 1.234 0 0 0
-0.0438564 0.19974 1.013 255 255 255
-0.554875 -0.21065 1.642 0 0 0
-1.00697 -0.597862 2.189 255 255 255
-0.193494 0.495023 1.357 255 255 255
-0.484344 -0.0134828 1.714 255 255 255
0.741566 -0.406811 1.691 255 255 255
-0.731745 -0.00263383 1.941 255 255 255
0.0786385 0.133611 1.064 255 255 255
-0.510845 0.230619 1.664 255 255 255
0.247343 0.216111 0.824 255 255 255
0.254425 -0.479081 1.403 255 255 255
0.226118 0.224308 0.866 255 255 255
-0.715567 -0.0154651 1.966 255 255 255
0.205906 0.149271 0.864 255 255 255
-0.0660053 0.121106 1.108 255 255 255
0.314368 -0.129947 1.053 255 255 255
-0.538269 0.083925 1.831 255 255 255
0.328207 -0.4046 1.406 255 255 255
-0.237484 0.308155 1.422 255 255 255
-0.787413 0.168785 1.642 255 255 255
-0.0469156 -0.166441 1.126 255 255 255
0.408367 0.031707 0.879 255 255 255
-0.173702 -0.368076 1.324 255 255 255
0.306839 0.127187 0.765 255 255 255
0.211728 0.0313037 0.796 255 255 255
-0.140073 -0.25239 1.273 0 0 0
0.603283 -0.214876 1.336 255 255 255
1.19585 -0.936176 2.768 255 255 255
-0.56518 0.256077 1.603 255 255 255
0.265015 -0.442668 1.375 255 255 255
0.0109689 -0.389284 1.247 0 0 0
0.119523 0.0457473 0.902 255 255 255
0.102284 0.315289 0.88 255 255 255
0.214049 -0.114985 0.957 255 255 255
0.372916 0.0453906 0.841 255 255 255
0.609783 -0.327123 1.502 0 0 0
-1.11334 -0.475004 2.181 255 255 255
0.272964 -0.279901 1.257 255 255 255
-0.280605 0.492834 1.351 255 255 255
-0.280898 -0.51019 1.48 0 0 0
-0.687912 0.405396 1.31 255 255 255
-0.0459096 0.24642 1.022 255 255 255
0.151717 -0.545018 1.47 255 255 255
0.373204 0.100286 0.741 255 255 255
0.198499 -0.10093 0.928 255 255 255
0.31198 0.185845 0.736 255 255 255
-0.4394 -0.0586259 1.65 255 255 255
-0.220245 0.510344 1.345 255 255 255
0.346705 0.209246 0.702 255 255 255
-0.330063 -0.176718 1.432 255 255 255
-0.178671 -0.142803 1.313 0 0 0
-0.797754 0.128468 1.71 255 255 255
-1.13578 -0.323175 2.261 255 255 255
0.746972 -0.441276 1.729 255 255 255
0.0567625 0.279515 0.908 255 255 255
-0.236096 0.504901 1.348 255 255 255
-0.540006 0.462309 1.273 255 255 255
-0.414677 -0.170263 1.52 255 255 255
-0.419744 -0.356987 1.494 255 255 255
0.213523 -0.383593 1.333 255 255 255
-0.258502 -0.048393 1.362 255 255 255
-0.441415 -0.439453 1.477 255 255 255
0.223534 0.24599 0.878 255 255 255
0.114131 -0.0500538 0.883 255 255 255
0.0954987 0.32138 0.897 255 255 255
-0.652037 0.273714 1.555 255 255 255
1.19785 -0.833364 2.615 255 255 255
0.0601183 -0.0186293 0.892 255 255 255
0.187804 0.110255 0.878 255 255 255
1.24 -0.937571 2.707 255 255 255
0.174897 0.0431099 0.85 255 255 255
-0.331783 0.492717 1.327 255 255 255
-0.510525 0.412985 1.378 255 255 255
-0.484646 -1.18457 3.181 255 255 255
0.342974 0.0717496 0.785 255 255 255
-0.492553 -0.263917 1.547 255 255 255
-0.732002 0.074986 1.831 255 255 255
-1.1201 -0.350485 2.32 255 255 255
0.140389 -0.235991 1.1 255 255 255
0.146604 0.0673894 0.897 255 255 255
-0.00656824 0.12081 1.122 255 255 255
-0.286189 0.51219 1.316 255 255 255
-0.103384 0.160376 1.185 255 255 255
0.490847 -0.279506 1.387 255 255 255
0.434908 -0.130457 1.116 255 255 255
-0.364867 0.180752 1.583 255 255 255
0.161621 0.26799 0.951 255 255 255
-0.953186 -0.318797 2.365 255 255 255
0.02697 0.148982 0.952 255 255 255
-0.082607 -0.051289 1.22 0 0 0
-0.447133 0.479586 1.286 255 255 255
0.31488 0.0541286 0.808 0 0 0
-0.592577 0.42199 1.302 255 255 255
-0.185628 -0.333069 1.348 255 255 255
-0.82433 0.187613 1.62 255 255 255
0.127067 0.300557 0.883 255 255 255
0.121084 0.139444 0.961 255 255 255
-1.07965 -0.32019 2.347 255 255 255
0.17007 0.075704 0.875 255 255 255
-0.928844 -0.804256 2.078 255 255 255
0.814907 -0.454037 1.779 255 255 255
0.0036428 0.298715 0.931 255 255 255
0.0341218 0.0447926 1.139 255 255 255
0.176846 -0.119782 0.958 0 0 0
-0.346001 -0.241212 1.47 255 255 255
0.625338 -0.335106 1.516 0 0 0
0.797877 -0.298945 1.559 255 255 255
0.217021 0.153226 0.847 255 255 255
-0.402332 0.394031 1.466 255 255 255
-0.0647812 0.109463 1.118 255 255 255
0.0622748 0.0980185 1.112 255 255 255
-0.445525 0.00861992 1.673 255 255 255
0.301146 0.0987088 0.776 0 0 0
-0.869522 -0.595183 2.347 255 255 255
0.0986749 -0.301175 1.227 255 255 255
-0.0801731 0.251418 1.057 255 255 255
-0.568359 0.41185 1.345 255 255 255
0.0896581 0.277588 0.897 0 0 0
0.178308 -0.0189103 0.84 0 0 0
-0.469586 0.234361 1.691 255 255 255
-0.428656 -0.0183495 1.65 255 255 255
0.11743 0.215619 0.932 255 255 255
-0.868728 -0.82688 2.173 255 255 255
-0.289161 -0.514969 1.473 0 0 0
-0.373017 0.486672 1.305 255 255 255
0.291516 0.0825958 0.791 255 255 255
0.353033 0.0750043 0.779 255 255 255
0.388733 -0.164078 1.135 255 255 255
-0.00463196 -0.181626 1.096 255 255 255
-0.606466 0.0218773 1.876 255 255 255
-0.0483659 -0.0370238 1.208 0 0 0
-0.153464 0.483975 1.281 255 255 255
-0.0837735 0.173082 1.154 255 255 255
0.30724 0.0515504 0.83 255 255 255
0.221075 0.0183732 0.797 255 255 255
0.37784 -0.101167 1.039 255 255 255
-0.178688 0.485765 1.362 255 255 255
-0.471158 0.240608 1.677 255 255 255
0.309898 -0.0164845 0.856 255 255 255
0.0468251 0.332659 0.916 255 255 255
0.35276 0.161661 0.719 255 255 255
0.0245659 0.289197 0.92 255 255 255
0.0135462 -0.250285 1.124 255 255 255
0.198434 0.0284854 0.827 255 255 255
-0.0745414 0.0241681 1.128 255 255 255
0.31102 0.290846 0.76 0 0 0
-0.24658 -0.365975 1.491 255 255 255
-0.478247 0.291523 1.583 255 255 255
0.247263 0.266049 0.842 255 255 255
-0.15045 0.101148 1.239 255 255 255
0.379802 -0.0157967 0.896 255 255 255
-0.318128 0.423348 1.452 255 255 255
0.296593 0.0920714 0.784 0 0 0
-0.801781 -0.816276 2.136 255 255 255
0.286951 -0.0864079 1.005 255 255 255
0.32444 0.175773 0.729 255 255 255
-0.17888 0.135641 1.299 255 255 255
-0.0372274 -0.495211 1.378 255 255 255
1.26214 -1.20027 3.266 255 255 255
-0.993662 -0.114733 2.024 255 255 255
-0.554512 0.462309 1.273 255 255 255
-0.799277 -0.0587396 2.024 255 255 255
-0.415248 0.481451 1.291 255 255 255
0.252282 0.257272 0.827 255 255 255
-0.570503 0.37441 1.393 255 255 255
0.307712 0.285037 0.761 255 255 255
-0.40483 0.336014 1.539 255 255 255
-0.498411 0.0668779 1.774 255 255 255
-0.3539 -0.407101 1.473 255 255 255
0.20637 0.334149 0.916 255 255 255
-0.444883 0.348183 1.505 255 255 255
-0.0385966 0.337541 0.964 255 255 255
0.215935 0.00152197 0.802 255 255 255
0.479782 -0.270035 1.362 255 255 255
-1.11488 -0.219125 2.143 255 255 255
-0.809418 0.227578 1.551 255 255 255
0.361041 -0.267082 1.294 255 255 255
-0.425852 -0.0764362 1.629 255 255 255
-0.160588 -0.32032 1.305 0 0 0
0.112902 -0.187268 1.029 255 255 255
0.147224 -0.00391986 0.85 255 255 255
-0.315775 -0.423384 1.463 255 255 255
-0.612969 0.336654 1.445 255 255 255
-0.362411 -0.149185 1.459 255 255 255
-0.66442 -0.0748172 1.929 255 255 255
0.125127 -0.401851 1.294 255 255 255
-0.398347 -0.107554 1.543 255 255 255
-0.00552622 0.273699 0.944 255 255 255
-0.355606 -0.0419679 1.532 255 255 255
0.0447845 -0.198858 1.083 255 255 255
-0.0586848 0.117288 1.106 255 255 255
0.192466 0.148468 0.893 255 255 255
-0.302402 -0.378107 1.491 255 255 255
0.250599 -0.0203738 0.844 0 0 0
-0.342673 -0.457651 1.466 255 255 255
0.157968 -0.0916251 0.957 255 255 255
-0.0788829 -0.149456 1.165 255 255 255
-0.755879 0.0608098 1.853 255 255 255
-1.01065 -0.274667 2.286 255 255 255
-0.106666 -0.156726 1.27 0 0 0
0.236299 -0.0348359 0.862 0 0 0
0.00247006 -0.212564 1.081 255 255 255
0.281106 0.272923 0.798 255 255 255
0.0289531 -0.067912 1.022 255 255 255
-0.40044 0.406353 1.442 255 255 255
0.295784 0.163244 0.759 0 0 0
-0.299349 -0.147404 1.419 255 255 255
-0.798627 0.208078 1.595 255 255 255
0.0245659 0.292192 0.92 255 255 255
0.131693 0.324523 0.848 255 255 255
-1.01419 -0.41002 2.294 255 255 255
-0.489824 -1.16386 3.181 255 255 255
-0.0756648 -0.16366 1.145 255 255 255
-0.0775287 0.173596 1.145 255 255 255
-0.384808 -0.493422 1.445 255 255 255
0.096359 -0.0986115 0.98 255 255 255
0.302856 -0.152433 1.02 255 255 255
-0.0490083 0.0353067 1.132 255 255 255
0.0934563 0.0367701 0.935 255 255 255
0.0852873 -0.00980865 0.882 0 0 0
0.381349 -0.193723 1.169 255 255 255
0.0122274 0.0270412 1.173 255 255 255
0.24344 0.227953 0.843 255 255 255
-0.0716765 -0.0922638 1.237 0 0 0
-0.110645 0.182086 1.201 255 255 255
-0.0189466 -0.466755 1.354 255 255 255
0.247524 0.318659 0.862 255 255 255
-0.36464 0.501434 1.283 255 255 255
0.134451 0.218627 0.945 255 255 255
0.171117 0.0126043 0.845 0 0 0
-0.307692 0.235523 1.505 255 255 255
0.162113 0.0838647 0.886 255 255 255
0.354602 0.114163 0.745 0 0 0
0.24466 0.0820189 0.824 255 255 255
-0.30506 -0.546053 1.435 255 255 255
-0.456041 0.48602 1.27 255 255 255
0.41776 0.0121196 0.912 255 255 255
-0.0343097 -0.381998 1.27 0 0 0
-0.126553 0.236809 1.242 255 255 255
-0.12012 -0.501912 1.403 0 0 0
0.187938 0.283466 0.951 255 255 255
0.267661 0.186388 0.789 255 255 255
-0.234983 0.338994 1.435 255 255 255
0.768755 -0.444548 1.753 255 255 255
-0.6947 0.240002 1.583 255 255 255
-0.220001 -0.0835479 1.357 255 255 255
-0.487705 0.243425 1.659 255 255 255
-0.80391 -0.787005 2.151 255 255 255
0.397184 -0.262377 1.302 255 255 255
0.0419027 0.10128 1.149 255 255 255
-0.666568 0.348722 1.39 255 255 255
-0.418033 -0.548048 1.422 0 0 0
0.415781 0.0652077 0.815 255 255 255
-0.712299 0.0994676 1.789 255 255 255
-0.531718 0.46438 1.273 255 255 255
0.275117 0.17433 0.781 255 255 255
-0.181327 0.0179444 1.203 0 0 0
-0.00245292 0.359726 0.944 255 255 255
-0.931299 0.0583814 1.779 255 255 255
-0.410159 0.377759 1.477 0 0 0
-0.0101469 0.352418 0.945 255 255 255
0.27547 0.114743 0.782 255 255 255
-0.310758 0.257659 1.52 255 255 255
-0.346307 -0.0268685 1.524 255 255 255
-0.171547 -0.340066 1.324 0 0 0
-0.530534 0.206385 1.71 255 255 255
0.0594985 0.117785 1.128 255 255 255
0.116328 0.0368582 0.9 255 255 255
-0.214788 -0.342818 1.425 255 255 255
-0.0393731 -0.149151 1.12 255 255 255
0.926285 -0.713658 2.228 255 255 255
-0.696831 0.203933 1.624 255 255 255
0.181882 0.130736 0.891 0 0 0
0.198899 0.259471 0.937 255 255 255
0.337841 -0.266614 1.302 255 255 255
0.2583 -0.400155 1.375 255 255 255
0.2661 0.202563 0.792 255 255 255
-0.429946 0.304115 1.595 255 255 255
-0.0527951 0.311154 0.995 255 255 255
0.253641 -0.354259 1.362 255 255 255
0.265428 0.193052 0.79 255 255 255
1.24596 -1.04581 2.884 255 255 255
0.0509623 0.28013 0.91 255 255 255
-0.572982 0.350763 1.445 255 255 255
-1.1361 -0.412936 2.269 255 255 255
-0.327046 -0.178673 1.429 255 255 255
1.08517 -1.08206 3.011 0 0 0
