ply
format ascii 1.0
comment Created by Open3D
element vertex 1326
property double x
property double y
property double z
property uchar red
property uchar green
property uchar blue
end_header
0.467396 0.0587881 0.972 255 255 255
0.15665 0.214195 0.913 255 255 255
-0.346758 -0.152967 1.571 255 255 255
-0.448759 0.0714405 1.616 255 255 255
0.218916 0.0385054 0.871 0 0 0
-0.408583 -0.0622194 1.48 255 255 255
-0.554372 -0.22942 1.587 0 0 0
0.378298 0.0665225 0.947 0 0 0
0.288643 -0.150671 1.254 255 255 255
-0.305254 0.515191 1.425 255 255 255
0.286225 -0.979804 2.911 255 255 255
0.145766 0.101701 0.866 255 255 255
0.652203 -0.294113 1.724 255 255 255
-0.0201636 -1.0299 2.695 255 255 255
0.0175957 -0.0758048 1.039 0 0 0
0.162042 -0.0978483 1.022 255 255 255
-0.330855 0.180467 1.456 255 255 255
0.0983001 -0.155045 1.11 255 255 255
-0.525474 0.347814 1.642 255 255 255
-0.940433 0.0401906 2.03 255 255 255
-0.173187 0.116238 1.149 255 255 255
0.456574 -0.420092 1.646 0 0 0
-0.36351 0.268783 1.513 255 255 255
-0.292896 0.0533658 1.357 0 0 0
0.406119 0.0286333 1.025 255 255 255
0.231867 0.0754531 0.856 255 255 255
0.375478 0.18824 0.736 255 255 255
-0.249094 -0.378149 1.463 255 255 255
0.65832 -0.147715 1.422 255 255 255
0.0517326 -0.0870098 1.012 0 0 0
-0.271188 0.390278 1.393 255 255 255
-1.0301 -0.37126 2.356 255 255 255
-0.108733 -0.247662 1.27 255 255 255
-0.356303 -0.23689 1.535 255 255 255
0.171042 0.182108 0.88 255 255 255
-0.468633 -0.00217518 1.603 255 255 255
0.27788 0.240697 0.754 255 255 255
-0.155792 -0.0142681 1.283 255 255 255
0.330309 0.234392 0.716 255 255 255
-0.221266 -0.400481 1.484 0 0 0
0.0797763 0.223043 0.992 255 255 255
-1.02248 -0.180246 2.365 255 255 255
0.563263 -0.137902 1.393 0 0 0
-1.08611 -0.16549 2.32 255 255 255
0.386247 -0.203688 1.409 255 255 255
-0.033549 -0.410922 1.412 255 255 255
-0.28849 -0.120792 1.52 255 255 255
1.42598 -1.17029 3.102 255 255 255
0.254571 -0.110738 1.083 0 0 0
0.0829228 -0.972212 2.768 255 255 255
0.212469 0.206724 0.824 255 255 255
-0.595309 -1.06681 3.248 255 255 255
-0.340643 -0.296261 1.532 255 255 255
0.544621 -0.403456 1.748 255 255 255
-0.351497 0.100388 1.463 255 255 255
-0.318732 -0.118818 1.559 0 0 0
0.110565 0.0190474 0.889 255 255 255
-0.0266111 0.0312872 1.12 255 255 255
0.469415 -0.133151 1.345 255 255 255
-0.226819 -0.390322 1.473 0 0 0
0.0171522 0.28444 0.924 0 0 0
0.0300131 0.177728 1.124 255 255 255
1.07097 -1.06762 3.283 255 255 255
0.107552 -0.0515451 0.995 255 255 255
-0.687785 0.410684 1.449 255 255 255
-0.424574 0.420913 1.52 0 0 0
0.634748 -0.0559381 1.281 255 255 255
0.449124 0.0877448 0.96 0 0 0
0.329825 0.269798 0.705 255 255 255
-0.0600218 0.0231047 1.167 255 255 255
-0.421665 0.276946 1.603 255 255 255
-0.329971 0.425433 1.484 255 255 255
-0.341911 0.237707 1.473 255 255 255
0.0945405 0.0667132 0.888 255 255 255
-0.640677 0.486672 1.305 255 255 255
-0.341235 0.359502 1.491 255 255 255
0.0676147 0.0968147 0.957 255 255 255
0.556695 -0.202952 1.524 255 255 255
0.379461 -0.134837 1.278 0 0 0
0.981127 -1.03429 3.149 255 255 255
-0.714279 -0.674562 2.064 255 255 255
0.0288691 0.314084 0.914 255 255 255
-0.0879281 0.28105 1.027 255 255 255
-0.29843 -0.169558 1.559 255 255 255
-0.287542 -0.338503 1.477 255 255 255
0.02116 -0.0457635 1.048 255 255 255
-1.04513 0.0423799 1.978 255 255 255
-0.339754 -0.302947 1.528 255 255 255
0.271434 -0.0817777 1.073 255 255 255
0.234709 -0.059959 1.089 255 255 255
0.205544 0.0721567 0.834 255 255 255
-0.491269 -0.0556768 1.567 255 255 255
-0.258731 0.360622 1.375 255 255 255
1.35616 -0.711218 2.684 0 0 0
0.0394128 0.0718764 0.917 255 255 255
-0.221713 -0.406131 1.487 255 255 255
-0.480664 0.39397 1.591 255 255 255
-0.301384 -0.331127 1.498 255 255 255
0.0933008 0.101751 0.904 255 255 255
-0.138489 0.180907 1.156 255 255 255
0.349362 -0.0410226 1.104 255 255 255
-0.56295 -0.00492405 1.65 255 255 255
-0.518002 -0.192885 1.563 255 255 255
-0.908398 -0.782542 2.158 255 255 255
-0.443819 0.45948 1.477 255 255 255
-0.373092 0.151949 1.502 255 255 255
0.11191 0.168659 0.924 255 255 255
0.347981 0.10783 0.837 255 255 255
0.378374 0.0776022 0.932 255 255 255
-1.07384 -0.259263 2.42 255 255 255
-0.114605 0.229094 1.143 255 255 255
0.181538 -0.0195065 0.934 0 0 0
-0.494236 -0.441536 1.484 0 0 0
0.844538 -0.224939 1.71 255 255 255
0.205429 0.0423158 0.862 255 255 255
-0.0128736 0.332614 0.92 255 255 255
0.805077 -0.245733 1.739 0 0 0
0.177482 -0.0486715 0.97 0 0 0
0.420209 -0.00870008 1.106 255 255 255
0.688754 -0.155558 1.452 255 255 255
0.112999 0.247367 0.986 255 255 255
0.393438 -0.0568514 1.171 255 255 255
0.0371344 0.33489 0.898 255 255 255
0.267017 0.0446315 0.88 0 0 0
-0.355798 -0.370828 1.491 255 255 255
-0.422942 -0.444811 1.463 255 255 255
-0.263208 0.293494 1.375 255 255 255
-0.33635 0.118984 1.429 255 255 255
0.289892 0.221444 0.747 255 255 255
-0.339754 -0.297974 1.528 255 255 255
-0.956179 -0.447371 2.22 255 255 255
-0.0755327 -0.100133 1.143 0 0 0
0.160635 0.21455 0.902 255 255 255
0.202744 -0.321948 1.425 255 255 255
-0.454357 -0.384951 1.48 255 255 255
-0.40389 0.486075 1.463 255 255 255
-0.809388 0.0926951 1.953 255 255 255
-0.280092 0.00262074 1.381 255 255 255
0.377644 0.169932 0.745 255 255 255
-1.07777 -0.271077 2.42 255 255 255
-0.26989 0.525676 1.422 255 255 255
-0.538884 0.312128 1.71 255 255 255
0.00934156 -0.0446467 1.062 255 255 255
-0.228098 0.229262 1.327 255 255 255
-0.801004 0.272164 1.637 255 255 255
0.141047 0.0873052 0.863 255 255 255
-0.843568 -0.477988 2.228 255 255 255
-0.351712 -0.446366 1.484 255 255 255
0.0149247 0.0113701 0.975 0 0 0
-0.522574 -0.357721 1.539 0 0 0
-0.317344 -0.357309 1.516 0 0 0
0.0945945 -0.0547835 0.995 255 255 255
-0.317337 -0.923784 2.884 255 255 255
0.179622 0.262946 0.887 255 255 255
0.110878 0.0431994 0.88 255 255 255
-0.401912 -0.208263 1.491 255 255 255
0.397197 0.10405 0.886 255 255 255
-0.34274 0.300462 1.487 255 255 255
-0.436502 0.504926 1.378 255 255 255
-0.632512 0.40989 1.463 255 255 255
0.0230187 0.074109 1.055 255 255 255
0.192448 -0.050528 1.007 255 255 255
-1.02626 -0.37126 2.356 255 255 255
-0.542362 0.150456 1.739 255 255 255
0.411619 0.0705602 0.96 0 0 0
-0.60286 0.24725 1.784 255 255 255
-0.120087 0.322856 1.06 255 255 255
1.35986 -0.863993 2.857 0 0 0
-0.293614 -0.145595 1.547 255 255 255
0.786859 -0.838754 3.071 255 255 255
-0.796751 0.186806 1.789 255 255 255
0.309448 0.0876295 0.895 255 255 255
0.338716 0.217824 0.719 255 255 255
-0.13785 -0.0290633 1.291 255 255 255
-0.397887 0.129143 1.551 255 255 255
0.451276 -0.0581047 1.158 255 255 255
0.279866 -0.295239 1.477 0 0 0
0.146003 -1.04428 2.768 0 0 0
0.583604 -0.377984 1.789 255 255 255
0.903822 -1.09676 3.011 0 0 0
0.0494766 0.00330649 0.938 255 255 255
-0.413552 -0.345754 1.498 255 255 255
0.931948 -1.1625 3.055 255 255 255
0.272155 -0.141212 1.208 255 255 255
-0.228432 -0.343555 1.409 255 255 255
-0.508579 0.419208 1.505 255 255 255
0.151939 0.252384 0.939 255 255 255
0.242602 -1.03593 2.844 255 255 255
-0.466245 -0.169446 1.535 255 255 255
0.909364 -0.957422 3.149 0 0 0
-0.0731022 0.319823 1.007 255 255 255
0.0836879 0.155576 0.945 255 255 255
0.362575 -0.0896277 1.176 255 255 255
0.0702823 0.347168 0.892 255 255 255
-0.0238875 0.0496068 1.165 255 255 255
0.227599 0.225899 0.811 255 255 255
0.329014 0.218763 0.726 255 255 255
-0.617379 -1.18049 3.198 255 255 255
-0.505838 0.5178 1.336 255 255 255
0.414871 0.106325 0.893 255 255 255
-0.292029 0.528914 1.406 255 255 255
1.20054 -1.131 3.133 255 255 255
-0.378468 -0.0950302 1.466 255 255 255
-0.415797 0.478933 1.463 255 255 255
0.483264 0.00543575 1.055 0 0 0
0.0866727 0.164628 0.944 255 255 255
0.0576793 -0.33377 1.342 255 255 255
0.465008 -1.15147 3.026 255 255 255
0.443105 -0.155918 1.372 255 255 255
-0.481797 0.513759 1.354 255 255 255
0.230204 0.0739736 0.855 255 255 255
-0.51944 0.431133 1.487 255 255 255
1.41102 -0.88259 2.857 255 255 255
1.13058 -0.971405 3.301 255 255 255
0.184983 -0.265417 1.396 0 0 0
0.0566239 0.0789491 0.93 0 0 0
0.0575989 0.228037 0.972 255 255 255
0.378571 -0.186156 1.381 255 255 255
-0.806416 0.288542 1.595 255 255 255
0.272643 0.0407478 0.889 255 255 255
0.294439 -0.0740001 1.087 255 255 255
-0.0474061 0.229251 0.984 255 255 255
0.041132 0.240091 0.957 255 255 255
-0.262663 -0.365243 1.459 0 0 0
-0.742879 -0.750333 2.107 255 255 255
-0.061907 -0.00522033 1.132 255 255 255
0.822596 -1.12432 3.231 255 255 255
0.224206 -0.39136 1.459 255 255 255
-0.671782 0.473252 1.333 255 255 255
0.40768 -0.185906 1.396 255 255 255
0.487653 -0.0340815 1.112 255 255 255
0.0390689 0.316804 0.909 0 0 0
-1.09914 -0.542438 2.181 255 255 255
-0.812704 0.224907 1.724 255 255 255
-0.902614 -0.795421 2.136 255 255 255
0.117492 0.123023 0.909 255 255 255
-0.431036 -0.351417 1.491 255 255 255
0.248673 0.0608326 0.866 255 255 255
0.127209 0.309582 0.96 255 255 255
-0.242925 0.519822 1.4 255 255 255
0.253849 0.276494 0.786 255 255 255
-0.711856 -0.689011 2.057 255 255 255
0.36759 0.187297 0.737 255 255 255
0.238474 -0.0653354 1.09 255 255 255
-1.00004 -0.758554 2.037 255 255 255
-0.164906 -0.391928 1.435 255 255 255
0.401932 0.0645122 0.963 0 0 0
0.153167 0.0298976 0.868 255 255 255
-0.303887 -0.00639629 1.387 255 255 255
0.00417885 -0.0987765 1.068 255 255 255
0.25649 -1.07296 2.844 255 255 255
-0.00440797 -0.0065072 1.043 255 255 255
0.344088 0.221026 0.718 255 255 255
-0.733501 0.122947 1.929 255 255 255
1.58005 -1.14529 3.354 0 0 0
-0.213354 0.40297 1.316 255 255 255
0.0915393 -0.0938747 1.015 255 255 255
0.000784664 -0.190094 1.194 255 255 255
-0.340286 0.491843 1.466 0 0 0
-1.17577 -0.296367 2.253 255 255 255
-0.968199 -0.27081 2.383 255 255 255
-0.510412 -0.917259 3.117 0 0 0
-0.0456791 -0.468619 1.509 255 255 255
-0.789402 0.197342 1.779 255 255 255
0.176082 -0.420199 1.494 0 0 0
-0.47267 0.382941 1.599 255 255 255
-0.724081 0.116669 1.929 255 255 255
0.0779016 0.289625 0.931 0 0 0
0.946212 -0.389938 1.935 255 255 255
0.319087 -0.0681527 1.137 255 255 255
-0.273846 -0.226898 1.535 0 0 0
0.560578 -0.285859 1.629 0 0 0
0.569534 -0.112007 1.354 255 255 255
-0.321201 -0.069304 1.477 255 255 255
-0.148872 0.239316 1.194 255 255 255
0.301922 0.143275 0.778 0 0 0
0.543134 -0.0489768 1.165 255 255 255
0.569396 -0.169384 1.449 255 255 255
0.133847 0.0455924 0.871 255 255 255
-1.18889 -0.241933 2.329 255 255 255
0.289549 0.261368 0.743 255 255 255
0.110548 -0.147287 1.106 255 255 255
-0.492808 -1.1501 3.102 255 255 255
1.05956 -1.07209 3.248 255 255 255
-1.21409 -0.247692 2.312 255 255 255
-0.797984 -0.75262 2.173 255 255 255
-0.996488 -0.699495 2.151 255 255 255
0.110286 0.162468 0.923 255 255 255
1.19441 -0.942621 3.117 255 255 255
-0.0349448 0.137318 1.22 255 255 255
-0.035619 -0.403737 1.403 255 255 255
-0.0167657 0.210637 0.972 0 0 0
1.35668 -0.771917 2.793 255 255 255
-0.688472 0.437305 1.384 255 255 255
-0.58999 0.465788 1.375 255 255 255
-0.80092 -0.630634 2.143 255 255 255
-0.643449 -0.512081 1.842 255 255 255
0.414743 -0.0580044 1.156 255 255 255
0.957885 -0.407022 1.972 255 255 255
-0.479688 0.0729436 1.65 255 255 255
0.313519 -0.247779 1.412 0 0 0
0.27673 0.0688979 0.879 255 255 255
0.848893 -1.2137 3.231 255 255 255
0.0430333 -0.191706 1.18 0 0 0
0.332162 -0.203248 1.375 0 0 0
0.598934 -0.082255 1.336 0 0 0
0.0343172 0.266703 0.941 255 255 255
-0.737432 0.282747 1.668 255 255 255
0.102902 -0.0854473 1.013 255 255 255
1.19034 -0.947459 3.133 255 255 255
0.757309 -0.493187 2.064 255 255 255
-0.0118112 -0.0498243 1.1 255 255 255
-1.03191 -0.077777 2.189 255 255 255
0.457121 0.0521911 0.967 0 0 0
-0.454169 -0.0692105 1.528 255 255 255
-0.768869 0.105084 1.947 255 255 255
0.000629571 0.263727 0.958 255 255 255
-0.29747 -0.111482 1.528 255 255 255
1.22611 -0.685199 2.755 255 255 255
-0.155963 0.145667 1.16 255 255 255
0.212856 0.333935 0.858 255 255 255
0.602119 -0.0873811 1.348 0 0 0
-0.243453 -0.289158 1.39 0 0 0
0.752904 -1.06152 3.248 255 255 255
-0.433511 0.414727 1.543 0 0 0
0.299185 0.248646 0.734 255 255 255
0.0728428 0.0954995 0.944 255 255 255
-0.741992 -0.414523 2.057 255 255 255
0.237279 0.247416 0.808 255 255 255
-0.0421362 0.348281 0.938 255 255 255
-0.0915383 0.305338 1.03 255 255 255
-0.019069 0.357418 0.93 255 255 255
0.28834 0.263786 0.743 255 255 255
0.28654 0.200375 0.764 255 255 255
0.299931 0.260358 0.73 255 255 255
0.18125 -0.166353 1.205 0 0 0
-0.216807 -0.0621249 1.324 0 0 0
-0.653771 0.313077 1.642 255 255 255
0.0632044 0.122241 0.961 255 255 255
-0.760143 0.122182 1.917 255 255 255
-0.361374 0.154958 1.484 255 255 255
0.34507 0.252297 0.701 255 255 255
-0.593732 0.390201 1.516 255 255 255
-0.110197 0.293619 1.048 255 255 255
-1.03115 -0.651558 2.143 255 255 255
-0.945486 -0.195641 2.365 255 255 255
-0.604961 -1.12921 3.215 255 255 255
1.08239 -1.0358 3.318 255 255 255
-0.660813 0.391118 1.473 255 255 255
-0.161632 0.365219 1.232 255 255 255
-0.66782 0.268539 1.734 255 255 255
-0.223923 0.500539 1.354 255 255 255
-0.0428173 0.269042 0.989 255 255 255
0.250243 0.309672 0.799 255 255 255
0.168321 -0.0794687 1 255 255 255
-0.715918 0.265441 1.714 255 255 255
-0.614299 0.394263 1.494 255 255 255
-0.606167 0.329154 1.629 255 255 255
0.492391 -0.0645452 1.208 255 255 255
-0.372615 -0.197472 1.52 255 255 255
0.216508 0.0854842 0.845 255 255 255
0.622016 -0.28269 1.673 255 255 255
0.898528 -0.977738 3.165 0 0 0
-0.340813 -0.211874 1.591 255 255 255
1.16881 -0.701945 2.768 255 255 255
0.151519 -0.0639152 0.986 255 255 255
-1.01022 -0.668995 2.143 255 255 255
1.35037 -0.745704 2.78 255 255 255
0.349703 0.0960759 0.879 255 255 255
0.128439 -0.287641 1.351 255 255 255
0.127882 0.0921546 0.869 255 255 255
0.430118 0.042882 0.97 255 255 255
0.46174 0.0937 0.957 0 0 0
-0.514426 0.354572 1.624 255 255 255
-0.401851 -0.296724 1.509 255 255 255
-0.0266249 0.117786 1.203 255 255 255
0.0810813 0.255717 0.969 255 255 255
0.0412609 0.23147 0.96 255 255 255
-0.440731 -0.152546 1.516 255 255 255
-0.167012 -0.175852 1.289 0 0 0
0.308853 -0.403383 1.513 255 255 255
-0.0683113 0.0358591 1.213 0 0 0
0.1915 0.200798 0.85 255 255 255
-0.349407 -0.179896 1.583 255 255 255
0.22194 0.121954 0.85 255 255 255
0.26544 -0.316871 1.477 255 255 255
0.420249 0.108743 0.889 255 255 255
0.338954 0.212858 0.722 255 255 255
1.24309 -0.64204 2.743 255 255 255
0.260637 0.25775 0.772 255 255 255
0.140995 -0.162902 1.18 255 255 255
0.549445 -0.249479 1.567 0 0 0
-0.594614 0.184221 1.821 255 255 255
-0.452321 0.525665 1.345 255 255 255
-0.510433 0.371601 1.595 255 255 255
-0.254377 -0.0206864 1.439 0 0 0
0.317417 0.13179 0.785 255 255 255
-0.553832 -1.17689 3.133 255 255 255
-0.936231 -0.114704 2.286 255 255 255
-0.908398 -0.779031 2.158 255 255 255
-1.02002 -0.724944 2.064 255 255 255
-0.357965 0.490793 1.47 0 0 0
0.281211 -0.0242457 1.077 255 255 255
-0.721955 0.343874 1.575 255 255 255
-0.328545 -0.203545 1.607 0 0 0
0.169094 0.267694 0.908 255 255 255
0.176343 -0.383448 1.456 255 255 255
-0.065667 0.197602 1.073 255 255 255
-0.336309 0.301456 1.48 255 255 255
-0.512576 -1.15413 2.982 255 255 255
0.21236 0.319227 0.856 255 255 255
-0.592295 -0.122471 1.642 0 0 0
-0.154563 -0.290741 1.345 255 255 255
-0.709825 -0.56364 2.004 255 255 255
-0.344465 -0.328033 1.484 255 255 255
0.409384 0.0841177 0.937 255 255 255
0.16213 -0.0756043 0.992 0 0 0
-0.633158 0.411144 1.459 255 255 255
-0.112132 -0.17095 1.196 0 0 0
-0.97359 -0.438783 2.269 255 255 255
0.464548 -0.225247 1.491 0 0 0
-1.03957 -0.656843 2.03 255 255 255
-0.0684199 -0.89833 2.695 255 255 255
0.218857 0.143915 0.833 255 255 255
0.320458 0.187204 0.756 255 255 255
0.481683 -0.417564 1.668 255 255 255
0.0756873 -0.0682136 1.002 255 255 255
0.145125 0.178643 0.906 255 255 255
0.293441 -0.106274 1.11 255 255 255
0.996505 -1.05991 3.149 255 255 255
-0.0772508 -0.1747 1.169 0 0 0
-0.859579 0.0837141 1.966 255 255 255
0.961786 -1.17245 3.055 0 0 0
-0.988994 -0.642998 2.173 255 255 255
0.117536 0.0117874 0.887 255 255 255
-0.0462499 0.32208 0.96 255 255 255
-0.277386 -0.057674 1.487 0 0 0
-0.655946 0.290253 1.696 255 255 255
-0.217441 0.0229863 1.265 255 255 255
0.286654 0.203303 0.761 255 255 255
-0.43779 0.515015 1.375 255 255 255
-0.334036 0.493185 1.47 0 0 0
0.227879 0.21957 0.812 255 255 255
-0.206748 -0.255794 1.357 0 0 0
0.109586 -0.0265724 0.97 255 255 255
-0.0240105 0.0746351 1.171 255 255 255
0.265227 0.147668 0.809 0 0 0
-0.359939 -1.02736 2.925 255 255 255
-0.619972 0.355924 1.583 255 255 255
-0.53794 0.454066 1.452 255 255 255
-0.69399 0.282747 1.668 255 255 255
-0.198538 -0.39136 1.459 255 255 255
-0.327758 0.0744345 1.422 255 255 255
-0.676247 -0.774586 2.071 255 255 255
-0.325139 0.451998 1.484 255 255 255
-0.66687 0.444677 1.372 255 255 255
0.814059 -0.782987 2.884 255 255 255
-0.0206478 0.206751 1.007 255 255 255
0.189342 -0.1167 1.073 0 0 0
-0.191744 0.389598 1.286 255 255 255
-0.0916569 -0.360762 1.387 255 255 255
0.31617 -1.03212 2.925 255 255 255
-0.886135 0.0955787 1.947 255 255 255
0.0332735 -0.338677 1.327 255 255 255
-0.768238 -0.608817 2.092 255 255 255
0.370927 0.0128745 1.104 255 255 255
0.64794 -1.05479 3.149 255 255 255
-0.00280371 -0.0260466 1.079 255 255 255
-0.466068 0.467276 1.449 255 255 255
-0.532628 0.238602 1.763 255 255 255
-0.100688 -0.358505 1.387 255 255 255
0.127243 -0.0516487 0.997 255 255 255
0.642814 -1.04454 3.149 255 255 255
-0.951818 -0.00286858 2.114 255 255 255
-0.0659415 -0.314211 1.324 0 0 0
0.335534 0.0969108 0.861 255 255 255
0.339022 -0.359418 1.494 255 255 255
-0.0134163 -0.109177 1.085 0 0 0
-0.5659 -0.0812864 1.62 255 255 255
-0.0936939 0.346169 1.017 255 255 255
-1.03902 -0.257435 2.44 255 255 255
-0.162816 -0.0122372 1.289 255 255 255
-1.14401 -0.181993 2.338 255 255 255
-0.305254 0.51751 1.425 255 255 255
1.33175 -1.12861 3.071 255 255 255
-0.947023 0.0946951 1.929 255 255 255
-0.350977 -0.203578 1.567 255 255 255
0.452179 -0.147806 1.359 255 255 255
0.202099 0.0894772 0.831 255 255 255
0.247937 -0.292042 1.473 0 0 0
0.0343966 0.126118 1.089 255 255 255
0.0217279 -0.300305 1.283 255 255 255
-0.223801 0.0130647 1.302 255 255 255
-0.348113 -0.140197 1.543 255 255 255
-0.0683322 -0.35686 1.372 255 255 255
0.234199 0.253614 0.811 255 255 255
0.353913 0.196624 0.736 255 255 255
-0.48279 0.416757 1.532 255 255 255
0.416388 -0.0425461 1.145 255 255 255
0.160846 0.24578 0.92 255 255 255
-0.385317 -0.275794 1.502 255 255 255
-0.408228 0.506025 1.381 0 0 0
-0.427734 -0.193074 1.505 255 255 255
-0.65822 0.428241 1.406 255 255 255
-0.904714 -0.743146 2.166 255 255 255
0.0945945 -0.0483067 0.995 0 0 0
0.801558 -1.15061 3.231 255 255 255
0.166169 -0.269785 1.372 0 0 0
-0.294218 0.540908 1.384 255 255 255
0.183954 0.180768 0.86 255 255 255
0.127607 0.29958 0.963 0 0 0
-0.878275 -0.802373 2.136 255 255 255
-0.617668 0.474683 1.362 255 255 255
0.292773 -0.0994009 1.094 255 255 255
-0.496341 -0.0815915 1.575 255 255 255
0.329962 0.113134 0.826 255 255 255
-0.445286 -0.505364 1.466 255 255 255
0.429703 0.102313 0.909 255 255 255
-1.01662 0.0104954 2.037 255 255 255
0.0577915 0.327211 0.901 0 0 0
1.68783 -1.16824 3.373 255 255 255
-0.0932149 0.307014 1.03 255 255 255
0.0707941 -0.0616912 1.002 255 255 255
0.579356 -0.241111 1.579 0 0 0
0.947314 -0.300425 1.887 255 255 255
-1.08793 -0.276462 2.365 255 255 255
-0.154312 0.0146238 1.254 255 255 255
-0.546541 0.471089 1.384 255 255 255
1.07897 -0.805521 2.967 255 255 255
0.201855 -0.956979 2.857 255 255 255
-0.280529 -0.86469 2.844 255 255 255
0.155955 0.0758057 0.86 255 255 255
-0.383973 0.148432 1.516 255 255 255
-0.319445 0.445963 1.48 255 255 255
-1.16752 -0.239984 2.347 255 255 255
-0.980134 -0.314948 2.365 255 255 255
0.1159 -0.427337 1.502 255 255 255
0.335481 0.154575 0.765 0 0 0
-0.129092 0.0246885 1.247 255 255 255
-0.837521 0.180984 1.789 255 255 255
0.0116123 0.0800664 1.114 255 255 255
-0.477659 -1.11981 3.102 255 255 255
0.589767 -1.07386 3.086 255 255 255
0.684329 -0.160204 1.473 255 255 255
-0.607135 0.321875 1.646 255 255 255
-0.562894 -0.0182605 1.642 255 255 255
-0.672224 0.382566 1.477 255 255 255
-0.0311799 0.34531 0.93 255 255 255
-0.362241 -0.179905 1.539 255 255 255
-0.0143868 0.326981 0.921 255 255 255
-0.225807 0.0504548 1.232 0 0 0
-0.671659 -0.0112613 1.805 255 255 255
-0.267992 0.535766 1.412 255 255 255
-0.0662276 -0.206366 1.176 255 255 255
0.389154 -0.387575 1.579 255 255 255
0.10631 0.3203 0.941 0 0 0
-0.24186 -0.391382 1.477 255 255 255
-0.120101 -0.247722 1.281 255 255 255
-0.0579558 0.356246 0.947 255 255 255
1.20564 -0.97805 3.133 255 255 255
-0.307735 0.00487866 1.384 255 255 255
0.311726 0.11286 0.824 255 255 255
-0.1934 -0.289879 1.372 255 255 255
-0.414657 -0.251351 1.502 255 255 255
0.463639 -0.265649 1.528 255 255 255
-0.404216 0.512777 1.375 255 255 255
-0.290723 0.342866 1.422 255 255 255
0.137329 0.177051 0.913 255 255 255
-0.880295 -0.75796 2.158 255 255 255
-0.628542 0.438825 1.396 255 255 255
0.519194 -1.14262 3.055 255 255 255
-1.07377 -0.273992 2.411 255 255 255
-0.463994 -0.522233 1.48 0 0 0
0.169069 0.236043 0.9 255 255 255
0.438661 0.0156771 1.051 255 255 255
-0.0363556 0.187949 1.201 255 255 255
-0.418429 0.439198 1.498 0 0 0
0.571903 -1.06864 3.071 255 255 255
-0.702178 0.315226 1.612 255 255 255
-0.929475 -0.673677 2.158 255 255 255
-0.952949 -0.235018 2.374 255 255 255
0.018832 -0.12818 1.112 255 255 255
0.933809 -0.418136 2.01 255 255 255
-0.120873 0.169783 1.132 255 255 255
0.0254002 0.0909405 1.013 255 255 255
-0.333127 0.219877 1.466 255 255 255
0.133176 -0.128599 1.085 255 255 255
-0.626152 0.471631 1.366 255 255 255
-0.0511239 0.156077 1.227 255 255 255
-0.811897 -0.525541 2.261 255 255 255
-0.37036 -0.378107 1.491 255 255 255
0.00218901 0.221634 0.958 0 0 0
0.415601 -0.0814849 1.169 255 255 255
-0.525377 0.212715 1.739 255 255 255
-0.0894254 0.273831 1.025 255 255 255
0.239185 0.302072 0.81 255 255 255
0.479377 0.0984748 0.958 255 255 255
-0.0202915 -0.329417 1.299 255 255 255
0.187639 0.07504 0.821 255 255 255
-0.99593 -0.454596 2.22 255 255 255
0.306946 -0.251815 1.435 0 0 0
-0.384287 -0.0928973 1.47 255 255 255
0.884881 -0.218997 1.729 0 0 0
-0.103977 0.280412 1.037 255 255 255
0.50301 -0.0782991 1.239 0 0 0
0.0925397 0.269681 0.957 255 255 255
0.100017 -0.388678 1.449 255 255 255
-0.141003 -0.137443 1.227 255 255 255
0.382209 0.140039 0.803 255 255 255
-0.437396 -0.144858 1.513 255 255 255
0.76751 -0.193084 1.607 255 255 255
0.101467 -0.411056 1.47 255 255 255
-0.958806 0.073626 1.953 255 255 255
0.270194 0.273532 0.76 255 255 255
-0.568045 0.460824 1.387 255 255 255
-0.529512 0.17542 1.734 255 255 255
-0.662362 0.128316 1.87 255 255 255
0.473077 -0.0523608 1.156 255 255 255
-0.491269 -0.109227 1.567 255 255 255
0.302337 0.110178 0.824 255 255 255
0.00434319 0.0635218 1.11 255 255 255
-0.516784 0.456255 1.459 255 255 255
-1.01894 -0.25638 2.43 255 255 255
-1.04584 -0.291296 2.392 255 255 255
0.402307 0.113367 0.869 255 255 255
0.24194 0.301892 0.806 255 255 255
0.102226 0.014757 0.892 255 255 255
0.286118 0.110436 0.816 255 255 255
0.196603 0.304918 0.879 255 255 255
-0.762788 0.263223 1.682 255 255 255
-0.17051 -0.0831652 1.316 255 255 255
-0.21611 0.488437 1.333 255 255 255
1.23845 -0.608878 2.638 0 0 0
0.0628587 0.100736 0.98 255 255 255
0.378862 -0.253044 1.442 255 255 255
0.363451 0.20905 0.717 255 255 255
-0.0900981 0.180096 1.116 255 255 255
0.332555 0.170536 0.764 255 255 255
-0.569627 0.489546 1.348 255 255 255
-0.336947 0.521756 1.393 255 255 255
0.383496 -0.998653 2.967 255 255 255
-0.560116 -1.12845 3.198 255 255 255
-0.0391241 0.336427 0.939 255 255 255
0.259196 0.286708 0.779 255 255 255
-0.0584387 0.174036 1.213 255 255 255
-0.372424 0.513847 1.39 255 255 255
0.535764 -0.0281374 1.092 0 0 0
-0.262059 0.247657 1.369 255 255 255
0.135447 0.348831 0.952 0 0 0
0.351056 0.179109 0.753 255 255 255
-0.100685 -0.148954 1.176 255 255 255
-0.421752 0.493347 1.396 255 255 255
-0.0667225 0.21113 1.062 255 255 255
-0.0629827 0.0312272 1.187 255 255 255
-0.401247 0.0374154 1.516 255 255 255
0.0817396 -0.00275448 0.923 0 0 0
-0.393329 0.481112 1.477 255 255 255
0.315112 0.170622 0.77 255 255 255
0.215674 0.177654 0.826 255 255 255
-0.151661 0.143283 1.156 255 255 255
0.514267 -0.320205 1.642 0 0 0
0.227555 -0.0468115 1.072 255 255 255
-0.178605 -0.143173 1.297 255 255 255
-0.604473 0.222011 1.815 255 255 255
-0.638866 0.486405 1.31 255 255 255
0.409541 0.0892541 0.927 255 255 255
0.234351 0.0632102 0.86 255 255 255
0.372708 0.0939775 0.9 255 255 255
0.145766 0.0481492 0.866 255 255 255
0.259137 0.0835735 0.868 255 255 255
0.238004 0.249427 0.806 255 255 255
0.450957 0.0967274 0.941 255 255 255
0.447143 -0.382559 1.612 0 0 0
-0.34683 -0.190201 1.583 255 255 255
0.241047 0.0454877 0.869 0 0 0
-0.45298 -0.245113 1.524 255 255 255
0.00442927 0.114519 1.132 255 255 255
1.2034 -1.12245 3.181 255 255 255
-0.0927623 0.10315 1.149 255 255 255
-0.546448 0.107697 1.734 255 255 255
-0.222935 0.292938 1.322 255 255 255
-0.516918 -0.0542117 1.599 255 255 255
-0.416178 -0.542197 1.456 255 255 255
0.453598 -0.0205286 1.066 0 0 0
0.475758 -0.259372 1.535 255 255 255
0.120043 -0.994628 2.793 255 255 255
-0.571537 0.415774 1.484 255 255 255
-0.380855 -0.553078 1.466 255 255 255
0.179153 0.0982289 0.825 255 255 255
-0.279987 0.320019 1.403 255 255 255
-0.53249 0.443221 1.463 255 255 255
-0.479688 0.349508 1.65 255 255 255
0.212443 -0.106421 1.075 255 255 255
-0.251321 -0.308581 1.396 0 0 0
-0.0148606 0.0210258 1.062 255 255 255
-1.06862 -0.428763 2.236 255 255 255
-0.230135 -0.302359 1.378 0 0 0
-0.402946 -0.10055 1.477 255 255 255
-0.154167 0.376825 1.205 255 255 255
0.450196 0.0190069 1.046 255 255 255
-0.602044 0.487367 1.342 255 255 255
-0.515383 -0.883026 3.086 0 0 0
-0.452864 -0.226455 1.532 255 255 255
-0.434304 -0.942621 3.117 255 255 255
-0.139413 -0.216149 1.267 255 255 255
-0.749605 -0.29519 1.997 255 255 255
1.02242 -0.935891 3.198 0 0 0
0.301429 0.162683 0.78 255 255 255
-0.961386 -0.710843 2.143 255 255 255
0.398386 0.144382 0.791 255 255 255
0.284109 0.254405 0.751 255 255 255
-0.506814 0.311878 1.724 255 255 255
-1.13946 -0.41148 2.261 255 255 255
0.773396 -0.337228 1.853 0 0 0
0.29081 0.267652 0.737 255 255 255
0.523249 -0.123024 1.354 255 255 255
0.0367252 0.22616 0.964 255 255 255
-0.345276 0.431885 1.498 255 255 255
0.631289 -0.135635 1.393 0 0 0
1.1568 -0.930916 3.181 255 255 255
-0.14084 -0.280828 1.319 255 255 255
-0.167004 0.0945354 1.158 255 255 255
-0.386287 0.185263 1.535 255 255 255
-0.0532837 0.19468 1.106 255 255 255
-0.508242 0.486854 1.384 255 255 255
0.656498 -0.132507 1.384 0 0 0
1.57283 -1.02903 3.133 0 0 0
-0.834481 -0.766943 2.204 255 255 255
-0.0342405 0.230091 0.974 255 255 255
-0.505358 -1.00856 3.181 255 255 255
-0.235046 0.428402 1.342 255 255 255
-0.386729 -0.262871 1.498 255 255 255
-0.174001 0.135151 1.167 255 255 255
-0.518206 -0.128699 1.587 255 255 255
-0.85668 0.0506193 2.051 255 255 255
0.150705 0.0535379 0.862 255 255 255
0.39009 0.110284 0.867 255 255 255
0.355773 0.0940635 0.887 255 255 255
0.36759 0.189695 0.737 255 255 255
1.0921 -0.523052 2.204 0 0 0
-0.825239 -0.783097 2.189 255 255 255
0.174072 -0.207418 1.33 255 255 255
-0.738891 0.219263 1.769 255 255 255
-0.711326 0.300731 1.633 255 255 255
-0.817872 0.297425 1.587 255 255 255
-0.877559 -0.431398 2.269 255 255 255
0.111023 0.202603 0.942 255 255 255
0.183198 -0.39991 1.473 255 255 255
0.642346 -0.230576 1.595 255 255 255
-0.746893 0.345313 1.547 255 255 255
-1.1008 -0.475631 2.136 255 255 255
-1.09488 -0.603387 2.085 255 255 255
0.285125 -0.168443 1.313 255 255 255
-0.919393 -0.567034 2.236 255 255 255
-0.569941 -0.0814871 1.624 255 255 255
-0.114141 -0.320306 1.359 255 255 255
-0.638288 0.358339 1.571 255 255 255
-1.12557 -0.43496 2.212 255 255 255
-0.782909 0.194994 1.784 255 255 255
0.920859 -0.789359 2.925 0 0 0
0.0708344 -0.114307 1.051 255 255 255
0.140226 -0.0613834 0.997 0 0 0
0.0160651 -0.355393 1.333 255 255 255
-0.985163 -0.5962 2.196 255 255 255
0.0495294 0.272249 0.939 255 255 255
-0.417777 -0.391612 1.487 255 255 255
0.163505 0.329002 0.944 255 255 255
0.28429 0.195175 0.768 255 255 255
0.187278 0.124208 0.856 255 255 255
-0.948951 -0.599103 2.22 255 255 255
0.143947 0.353778 0.957 255 255 255
-0.0117594 0.286561 0.951 255 255 255
0.351678 0.207556 0.724 255 255 255
-0.901194 -0.0867244 2.236 255 255 255
-0.216479 -0.0727877 1.322 0 0 0
-0.425284 -0.300836 1.505 255 255 255
-0.00992042 -0.0741363 1.089 255 255 255
0.28709 0.138295 0.793 0 0 0
0.401816 0.128539 0.83 255 255 255
-0.150589 -0.120348 1.257 0 0 0
1.42093 -1.17534 3.102 255 255 255
-0.509552 0.466454 1.432 255 255 255
0.165878 0.279626 0.923 255 255 255
-0.942111 -0.182694 2.347 255 255 255
1.18116 -1.04566 3.248 255 255 255
-0.11982 -0.0350098 1.278 0 0 0
-0.58199 0.364726 1.599 0 0 0
-0.231893 0.211507 1.324 255 255 255
0.0257911 -0.119637 1.1 255 255 255
0.139978 0.122174 0.892 255 255 255
0.221814 -0.0317829 1.037 255 255 255
0.102952 -0.10029 1.03 255 255 255
-0.495504 0.251495 1.714 255 255 255
0.319373 0.273625 0.715 255 255 255
0.376953 0.132328 0.82 255 255 255
0.245039 -0.394311 1.47 255 255 255
-0.692319 -0.624204 2.01 255 255 255
1.11969 -0.604356 2.582 255 255 255
-0.365218 -0.423486 1.48 255 255 255
0.541387 -1.05785 3.04 255 255 255
-0.183589 0.362872 1.273 255 255 255
-0.992782 -0.651558 2.143 255 255 255
-0.629238 0.300405 1.691 255 255 255
-1.14822 -0.380095 2.228 255 255 255
0.104956 -1.03938 2.755 255 255 255
-0.144396 -1.19048 3.102 0 0 0
-0.135258 -1.09676 3.011 0 0 0
1.24364 -0.620185 2.43 255 255 255
-0.058535 0.172345 1.215 255 255 255
0.104503 0.15981 0.925 255 255 255
-0.357264 -0.127849 1.487 255 255 255
-0.764117 0.261879 1.691 255 255 255
0.315503 0.0487909 0.904 0 0 0
0.825146 -0.987479 3.283 255 255 255
0.381742 -0.0727735 1.182 255 255 255
0.811855 -0.736656 2.78 255 255 255
-1.01991 -0.72918 2.057 255 255 255
0.27702 0.286476 0.755 255 255 255
1.39071 -0.860062 2.844 255 255 255
0.359254 -0.382766 1.539 255 255 255
0.170545 0.113521 0.849 0 0 0
-0.406271 -0.459095 1.463 255 255 255
-0.459663 -0.0248845 1.555 255 255 255
0.0466565 -0.958679 2.755 255 255 255
0.0515205 -0.101361 1.041 255 255 255
-0.0094376 -0.00140579 1.036 255 255 255
-0.328545 -0.219235 1.607 0 0 0
-0.573008 -0.182169 1.603 0 0 0
-0.133074 0.209487 1.158 255 255 255
0.486953 -0.968806 3.04 255 255 255
1.14351 -0.758492 2.898 255 255 255
0.191216 0.269048 0.874 255 255 255
0.319052 -0.232998 1.406 0 0 0
0.0962142 -0.0547835 0.995 255 255 255
0.250964 0.282685 0.789 255 255 255
-0.400025 -0.18072 1.484 255 255 255
0.0143773 -0.0561565 1.051 255 255 255
0.00954839 0.331168 0.916 255 255 255
-0.20091 0.128976 1.18 255 255 255
-0.272278 0.255428 1.387 255 255 255
-0.212039 0.0560111 1.222 0 0 0
1.47971 -0.964344 3.026 255 255 255
-0.786394 0.127618 1.905 255 255 255
-0.167576 0.125587 1.149 255 255 255
0.312786 0.24408 0.724 0 0 0
-0.128914 -0.326314 1.375 255 255 255
-0.750329 0.242442 1.729 255 255 255
-0.0923981 -0.287802 1.302 0 0 0
-0.719576 0.150259 1.917 255 255 255
0.143947 0.325746 0.957 0 0 0
0.268038 -0.35404 1.452 255 255 255
-0.95943 -0.527008 2.236 255 255 255
0.428394 -0.935064 3.011 255 255 255
-0.487471 -0.136927 1.563 255 255 255
0.141004 -0.426873 1.509 255 255 255
0.385122 -0.133276 1.283 0 0 0
1.4704 -1.19406 3.165 255 255 255
0.413463 0.0160947 1.079 255 255 255
-0.0510406 0.147849 1.225 255 255 255
0.0532504 0.287447 0.924 255 255 255
0.0969084 0.275045 0.954 255 255 255
-0.014161 0.206131 1.012 255 255 255
-0.570528 -1.13885 3.198 255 255 255
-0.398745 0.498104 1.403 255 255 255
0.317116 0.194521 0.751 255 255 255
-0.585004 0.0602086 1.748 255 255 255
-0.923009 -0.354564 2.347 255 255 255
-0.142443 0.273142 1.189 255 255 255
-0.053726 0.0762285 1.196 0 0 0
1.60188 -1.15074 3.354 0 0 0
0.175656 -0.229633 1.359 255 255 255
-0.648764 0.440852 1.381 255 255 255
1.07579 -0.513867 2.136 255 255 255
0.217544 0.261625 0.828 255 255 255
0.793867 -0.39255 1.917 255 255 255
0.221376 0.05085 0.864 0 0 0
-0.258248 -0.288525 1.409 0 0 0
-0.116058 0.150444 1.139 255 255 255
0.0744787 -0.37186 1.412 255 255 255
0.461765 -0.419696 1.655 0 0 0
0.636012 -0.12216 1.369 255 255 255
0.326107 0.188661 0.752 255 255 255
-0.176766 -0.192014 1.299 0 0 0
-0.272162 -0.0233482 1.459 0 0 0
0.26466 0.00542545 1.053 255 255 255
0.0467905 -0.0853629 1.012 0 0 0
-0.229645 0.372134 1.336 255 255 255
0.0633649 0.0659793 0.918 255 255 255
0.276748 -0.998752 2.911 255 255 255
0.932953 -1.0973 3.026 0 0 0
0.316313 -0.204578 1.384 255 255 255
0.169238 -0.418886 1.498 0 0 0
-0.0339037 -0.056198 1.12 255 255 255
0.267727 0.164104 0.793 255 255 255
-0.0720929 -0.206717 1.178 0 0 0
-0.57176 0.214913 1.805 255 255 255
1.21903 -0.911744 2.967 255 255 255
-0.557352 -0.137823 1.603 255 255 255
0.31449 0.122351 0.807 255 255 255
0.0904123 -0.0103981 0.935 255 255 255
0.260975 0.237957 0.773 255 255 255
-0.033221 0.317048 0.945 255 255 255
0.197035 0.221547 0.85 255 255 255
-1.13454 -0.426645 2.244 255 255 255
-1.04222 -0.59158 2.166 255 255 255
0.708995 -0.168583 1.505 255 255 255
-0.423958 -0.289357 1.509 255 255 255
-0.904885 -0.768495 2.158 255 255 255
-0.283286 -0.146677 1.532 255 255 255
-0.0794246 0.16257 1.173 255 255 255
0.27418 0.0618161 0.88 255 255 255
-0.40244 -0.040653 1.484 255 255 255
-0.196792 0.212478 1.278 255 255 255
-0.0860974 -0.122387 1.16 255 255 255
0.280168 -0.273955 1.466 255 255 255
0.32464 -0.0829548 1.137 255 255 255
-0.163068 -0.102594 1.291 0 0 0
-0.955998 -0.583133 2.228 255 255 255
1.6439 -1.15177 3.373 255 255 255
0.230771 -0.211946 1.345 255 255 255
-0.608357 -0.0212131 1.664 0 0 0
0.105779 0.132428 0.923 255 255 255
-0.0180837 0.283994 0.958 255 255 255
-0.0499044 0.285623 1.002 255 255 255
-1.04927 -0.344422 2.356 255 255 255
0.38519 0.0709955 0.945 255 255 255
0.134743 -0.365681 1.442 255 255 255
-0.457934 0.506064 1.375 255 255 255
-0.506525 0.401268 1.559 255 255 255
0.162387 0.113196 0.857 0 0 0
0.331561 0.192967 0.745 255 255 255
-0.767945 0.178412 1.853 255 255 255
-0.0391927 -0.195626 1.169 255 255 255
-0.411114 -0.233618 1.498 255 255 255
0.197041 -0.41339 1.487 0 0 0
0.0640273 0.259979 0.95 255 255 255
-0.685701 0.188065 1.859 255 255 255
0.0384672 0.338141 0.895 255 255 255
0.232416 0.251903 0.814 255 255 255
0.006416 0.183104 1.158 255 255 255
0.26315 0.226342 0.772 255 255 255
-0.0561471 0.300422 0.997 255 255 255
0.222928 0.158259 0.823 255 255 255
-0.968363 -0.756179 2.143 255 255 255
-0.0968564 -0.0551804 1.176 255 255 255
0.191668 -0.0057211 0.917 0 0 0
0.340139 -0.177916 1.336 255 255 255
1.08166 -1.06762 3.283 255 255 255
0.0275011 0.29305 0.918 0 0 0
0.311024 0.192379 0.757 255 255 255
0.0725385 0.0457473 0.902 0 0 0
0.701075 -0.324473 1.799 255 255 255
0.0908275 -0.341222 1.381 255 255 255
-0.187205 0.0266107 1.242 0 0 0
-0.248381 -0.36409 1.445 255 255 255
0.719207 -0.18478 1.559 255 255 255
-1.03108 -0.22964 2.44 255 255 255
-0.583615 0.415774 1.484 255 255 255
-0.808001 0.196233 1.769 255 255 255
-0.406911 0.415668 1.528 255 255 255
-0.585195 0.383509 1.559 255 255 255
-0.234811 -0.0362282 1.406 255 255 255
0.453601 0.0121981 1.046 255 255 255
-0.864238 -0.5435 2.244 255 255 255
-0.199108 -0.367035 1.429 255 255 255
0.0620137 0.187528 0.992 255 255 255
-0.450059 -0.488665 1.466 255 255 255
0.132065 0.107397 0.878 255 255 255
-0.690808 0.27102 1.714 255 255 255
0.332488 0.173581 0.761 255 255 255
-0.775994 0.244625 1.705 255 255 255
-0.531618 -0.0364698 1.62 255 255 255
-0.831914 0.115943 1.917 255 255 255
0.0716996 -0.445701 1.498 255 255 255
0.480932 0.0654501 0.977 255 255 255
-0.65487 0.343909 1.599 255 255 255
1.16972 -1.16112 3.231 255 255 255
-0.41665 -0.479122 1.466 255 255 255
0.582291 -0.247498 1.587 0 0 0
-0.4505 -0.12111 1.524 255 255 255
0.251408 -0.075072 1.077 255 255 255
-0.755339 0.289028 1.642 255 255 255
0.350608 0.154802 0.76 255 255 255
0.463417 0.0490439 0.967 255 255 255
-0.137675 -0.222861 1.27 255 255 255
-0.393329 -0.131797 1.477 255 255 255
-0.74142 0.147139 1.917 255 255 255
-0.474203 0.208328 1.659 255 255 255
-0.770015 0.269175 1.668 255 255 255
0.0592279 -0.253976 1.281 0 0 0
-0.596984 -0.0264848 1.655 0 0 0
-0.16316 0.0860687 1.171 255 255 255
0.16106 0.0500261 0.85 0 0 0
0.038854 0.328301 0.904 255 255 255
-0.234811 -0.246726 1.406 255 255 255
0.469822 -0.00994928 1.048 255 255 255
-0.75859 0.342634 1.535 255 255 255
0.208179 0.0503792 0.856 255 255 255
-0.900766 -0.554456 2.244 255 255 255
-0.743455 0.371301 1.48 255 255 255
-1.12753 -0.304128 2.312 255 255 255
-0.0742522 0.00781022 1.152 255 255 255
0.0396982 0.23147 0.96 255 255 255
0.269511 0.130715 0.81 0 0 0
-0.0484156 -0.194454 1.162 255 255 255
-0.0732907 0.220457 1.057 255 255 255
-0.135011 0.0402664 1.227 0 0 0
0.240841 0.125087 0.834 255 255 255
-0.852632 0.0177136 2.107 255 255 255
-0.792038 0.307755 1.587 255 255 255
0.165223 0.059217 0.843 0 0 0
-0.721955 0.341311 1.575 255 255 255
-0.00390082 0.345715 0.923 255 255 255
0.450721 0.0373597 0.991 255 255 255
-1.17107 -0.422993 2.244 255 255 255
-0.892868 -0.521862 2.261 255 255 255
-0.554181 0.428596 1.47 255 255 255
-0.0430194 -0.145506 1.12 0 0 0
0.0686315 -0.123339 1.07 255 255 255
-0.0818194 0.0752087 1.18 255 255 255
-0.701249 -1.10399 3.086 255 255 255
0.36117 0.0337554 0.98 255 255 255
1.10185 -1.11966 3.248 255 255 255
0.247237 0.0744927 0.861 255 255 255
-0.0506713 -0.0474213 1.128 255 255 255
0.798279 -0.727608 2.78 255 255 255
0.153873 0.0201022 0.872 0 0 0
-0.642563 0.428486 1.422 255 255 255
0.124824 0.340568 0.942 0 0 0
0.398503 0.122322 0.843 255 255 255
0.135962 -0.0315661 0.978 255 255 255
0.243653 0.290314 0.803 255 255 255
0.0463476 0.110183 1.039 255 255 255
-0.645899 0.416604 1.445 255 255 255
0.290003 0.269217 0.738 255 255 255
-1.06615 -0.714189 2.024 255 255 255
-0.375089 -0.192525 1.52 255 255 255
0.121458 0.352118 0.928 255 255 255
-0.171232 -0.412258 1.449 0 0 0
-0.630026 0.309148 1.664 255 255 255
-0.6434 0.425944 1.429 255 255 255
-0.292029 0.526626 1.406 255 255 255
-1.07156 -0.470956 2.212 255 255 255
-0.664595 0.476492 1.336 255 255 255
0.448415 -0.258684 1.502 255 255 255
0.0578252 0.290769 0.925 255 255 255
-0.357769 0.371442 1.52 255 255 255
-0.107073 -1.12192 2.911 255 255 255
-0.598503 0.403177 1.491 255 255 255
-0.62473 0.421307 1.445 255 255 255
-0.698828 -0.746769 2.078 255 255 255
0.00706425 -0.290133 1.275 0 0 0
0.115038 -0.238519 1.299 0 0 0
0.0649113 -0.0474852 1.012 0 0 0
0.204626 -1.02659 2.831 255 255 255
0.337452 -0.079106 1.162 255 255 255
0.10902 -0.0963734 1.024 255 255 255
0.330323 -0.266293 1.425 255 255 255
0.0225733 0.138573 1.118 255 255 255
0.450984 -0.075013 1.187 255 255 255
0.25967 0.167316 0.796 255 255 255
0.258531 0.244246 0.777 255 255 255
-0.0749171 0.228678 1.032 255 255 255
-0.734379 0.288623 1.655 255 255 255
-0.356298 -0.493395 1.473 255 255 255
-0.16808 -0.351225 1.403 255 255 255
0.0154022 -0.282497 1.278 0 0 0
0.0423784 -0.018988 0.986 255 255 255
-0.427 0.521227 1.362 255 255 255
-0.359296 0.493227 1.456 255 255 255
-0.528955 0.404683 1.543 0 0 0
-0.769884 0.342648 1.513 255 255 255
0.302903 -0.0228063 1.092 255 255 255
0.424584 -0.0612859 1.147 255 255 255
-0.750156 0.333621 1.575 255 255 255
0.185243 -0.244587 1.381 255 255 255
0.252026 0.0844964 0.863 0 0 0
0.512528 -0.271946 1.579 255 255 255
-0.560949 -0.245532 1.591 0 0 0
-0.261971 0.201321 1.357 255 255 255
-0.295763 -1.04067 2.857 255 255 255
0.195725 0.323935 0.888 255 255 255
-0.967962 -0.2368 2.392 255 255 255
0.103665 -0.00883853 0.931 255 255 255
-0.18012 -0.0911738 1.308 255 255 255
-0.29747 -0.104022 1.528 255 255 255
0.239316 0.16286 0.806 255 255 255
0.138081 0.189972 0.918 255 255 255
0.154287 -1.04386 2.755 0 0 0
0.375523 0.112271 0.85 255 255 255
0.613935 -0.318436 1.719 255 255 255
-0.0607083 -0.967895 2.743 255 255 255
0.567271 -0.283903 1.633 0 0 0
-0.514273 -0.0309469 1.607 255 255 255
0.0938158 -0.0699836 1.004 0 0 0
0.164666 -0.200018 1.324 255 255 255
0.253137 0.0914123 0.862 255 255 255
0.270937 -0.0650357 1.085 255 255 255
0.0615759 -0.0122383 0.96 255 255 255
-0.356991 -0.0998015 1.466 255 255 255
0.234939 0.242456 0.809 255 255 255
-0.322343 -0.407382 1.528 0 0 0
-0.412286 -0.44122 1.459 255 255 255
-0.237809 0.221622 1.333 255 255 255
-0.301653 -0.396396 1.524 255 255 255
-0.811572 -0.726997 2.181 255 255 255
0.64415 -0.171867 1.491 255 255 255
0.297951 0.110044 0.823 255 255 255
0.0542805 0.0121727 0.916 255 255 255
0.223945 -0.231605 1.384 255 255 255
0.117479 -0.419355 1.491 255 255 255
-0.142033 -0.321137 1.372 255 255 255
-0.0679712 -0.0479678 1.141 255 255 255
-0.275855 -0.0258459 1.466 0 0 0
0.252248 0.248038 0.785 255 255 255
0.140537 0.351485 0.955 0 0 0
-0.680618 0.418968 1.429 255 255 255
-0.0990801 -0.203273 1.203 255 255 255
0.432929 -0.0294488 1.075 255 255 255
-0.91593 -0.291204 2.329 255 255 255
-0.445286 -0.405166 1.466 255 255 255
-0.435539 0.387815 1.587 255 255 255
-0.320655 -0.343411 1.52 0 0 0
0.439445 0.00716614 1.057 255 255 255
-0.260585 -0.209288 1.516 255 255 255
0.984099 -0.376172 1.929 255 255 255
-0.0468992 -0.924029 2.719 255 255 255
1.13934 -0.906672 3.133 255 255 255
0.860389 -1.03504 3.215 255 255 255
1.21796 -0.624803 2.707 0 0 0
0.105996 -0.098327 1.027 255 255 255
0.0364585 0.236976 0.957 255 255 255
0.228346 0.123693 0.843 255 255 255
0.727017 -1.15351 3.181 255 255 255
-0.178603 -0.340385 1.396 255 255 255
0.0261775 -0.0489867 1.044 255 255 255
-0.176955 0.188025 1.227 255 255 255
-0.196838 -0.988247 3.133 255 255 255
0.0662689 -0.322129 1.339 255 255 255
-0.249286 -1.08563 2.805 255 255 255
0.25572 0.229957 0.78 255 255 255
0.835719 -0.256453 1.774 0 0 0
-0.419884 0.510539 1.375 255 255 255
0.257022 -0.409135 1.498 255 255 255
-0.466024 0.000433428 1.603 255 255 255
-0.414657 -0.241574 1.502 255 255 255
0.441847 -0.230811 1.48 0 0 0
0.00246549 -0.0541408 1.079 255 255 255
-0.0557814 0.00212544 1.12 255 255 255
-0.358423 0.23261 1.502 255 255 255
0.143442 0.038417 0.869 255 255 255
0.458602 -0.134736 1.339 255 255 255
0.678479 -0.462362 1.935 255 255 255
-0.00879993 0.262785 0.966 255 255 255
-1.13203 -0.287414 2.329 255 255 255
-0.225626 -0.100767 1.351 0 0 0
-0.430184 -0.188176 1.505 255 255 255
-0.256542 0.519829 1.425 255 255 255
0.39385 -0.141933 1.305 255 255 255
0.389626 -0.0568514 1.171 255 255 255
1.40859 -0.882243 2.871 255 255 255
0.244157 0.155567 0.809 255 255 255
0.3259 0.258138 0.714 0 0 0
-0.118476 -0.254967 1.286 0 0 0
0.642698 -0.104337 1.369 255 255 255
-0.712179 -0.809756 2.128 255 255 255
0.669818 -0.301052 1.748 255 255 255
-0.256285 0.250824 1.362 255 255 255
-0.00304277 0.152765 1.171 255 255 255
-0.0781748 0.33031 1.009 255 255 255
0.0305568 -0.069439 1.02 0 0 0
-0.575618 -0.189995 1.603 0 0 0
-1.04813 -0.637184 2.107 255 255 255
-0.116008 0.386878 1.024 255 255 255
-0.377287 0.0740772 1.509 255 255 255
1.01914 -0.422874 2.017 255 255 255
-0.415394 -0.478037 1.47 255 255 255
1.24627 -1.0712 3.198 255 255 255
0.132348 0.333339 0.952 255 255 255
-0.0414169 0.200033 1.126 255 255 255
-0.160037 -0.127491 1.267 0 0 0
0.525073 -0.152265 1.4 255 255 255
-0.126179 0.296907 1.098 255 255 255
-0.325968 0.343932 1.466 255 255 255
-0.314532 0.171987 1.425 255 255 255
-1.01341 -0.729861 2.078 255 255 255
-1.02989 -0.775128 2.037 255 255 255
0.290651 0.195657 0.765 255 255 255
-0.462033 -0.988247 3.133 255 255 255
-0.616457 -0.955809 3.248 255 255 255
-0.49158 0.41405 1.513 255 255 255
0.255391 0.128951 0.824 255 255 255
0.0212206 -0.0339223 1.051 0 0 0
-1.15011 -0.270267 2.312 255 255 255
0.345385 0.179347 0.754 255 255 255
-0.0615134 0.122939 1.196 255 255 255
-0.125271 -0.0141236 1.27 255 255 255
0.159551 0.126529 0.872 255 255 255
0.298156 -0.915599 2.844 255 255 255
-0.5384 0.460883 1.422 255 255 255
-0.328419 0.161518 1.435 0 0 0
-0.693936 0.404445 1.452 255 255 255
-0.487824 -0.313914 1.509 255 255 255
0.197392 0.335874 0.889 255 255 255
-1.07844 -0.505119 2.204 255 255 255
-0.782902 -0.773003 2.151 255 255 255
0.123234 0.355904 0.93 255 255 255
0.157146 -0.457763 1.547 0 0 0
0.120768 0.0388591 0.879 255 255 255
-0.0279773 -0.118061 1.102 0 0 0
-0.0674478 -0.384647 1.4 255 255 255
0.120631 0.0788211 0.878 255 255 255
0.240264 0.130203 0.832 255 255 255
0.217041 0.187267 0.821 255 255 255
-0.503736 0.489107 1.384 255 255 255
1.16418 -0.580504 2.365 0 0 0
-1.07384 -0.235634 2.42 255 255 255
-1.03641 -0.432023 2.253 255 255 255
0.0706944 -0.432242 1.477 255 255 255
-0.112547 0.100575 1.141 255 255 255
-0.716816 0.362878 1.505 255 255 255
0.0385538 -0.0688943 1.012 255 255 255
-0.857464 0.0502738 2.037 255 255 255
-0.153023 -0.258184 1.313 0 0 0
0.239433 0.231223 0.802 255 255 255
0.3197 0.157246 0.772 0 0 0
0.0819167 0.304316 0.925 255 255 255
-0.1127 0.175899 1.124 255 255 255
-0.539002 0.399661 1.543 255 255 255
-0.947787 -0.451645 2.278 255 255 255
0.242346 0.289008 0.803 255 255 255
0.27231 0.275642 0.759 255 255 255
-0.448019 0.41706 1.524 255 255 255
-0.901981 0.0924103 1.947 255 255 255
0.193302 0.132876 0.858 255 255 255
-0.124531 0.0266107 1.242 0 0 0
-0.0127239 0.158448 1.185 255 255 255
0.329832 0.120172 0.819 255 255 255
-0.622923 0.388399 1.509 255 255 255
0.159863 0.118613 0.866 255 255 255
0.690547 -1.1412 3.133 255 255 255
-0.331796 0.532993 1.381 255 255 255
0.0684728 0.219814 0.992 0 0 0
-0.672619 0.201989 1.848 255 255 255
0.190473 -0.0827269 1.041 255 255 255
0.183799 -0.351353 1.422 255 255 255
-0.377982 0.440371 1.502 255 255 255
-0.0908679 -0.208277 1.198 0 0 0
-0.65737 0.464107 1.357 255 255 255
-0.0607083 -0.990214 2.743 255 255 255
0.0642016 -0.098327 1.027 0 0 0
-0.747315 0.398874 1.432 255 255 255
-0.050089 0.347436 0.944 255 255 255
-1.02779 -0.055038 2.136 255 255 255
0.193702 0.338459 0.892 255 255 255
0.481359 -0.223867 1.498 0 0 0
-0.347581 0.210928 1.487 255 255 255
-0.893228 -0.709251 2.181 255 255 255
-0.341127 0.20271 1.48 255 255 255
0.0982272 -0.0615065 0.999 255 255 255
0.16172 0.274211 0.925 255 255 255
0.0870279 0.0134247 0.9 255 255 255
-0.156731 0.171221 1.18 255 255 255
-0.750308 -0.713327 2.099 255 255 255
-0.643064 0.435615 1.393 255 255 255
-0.479042 0.420641 1.528 255 255 255
0.258032 0.158333 0.803 255 255 255
-0.678782 0.452616 1.369 255 255 255
-0.365006 0.422778 1.509 255 255 255
-0.124761 -0.280614 1.308 0 0 0
-0.258707 -1.01296 2.911 255 255 255
0.0850163 0.261153 0.96 255 255 255
-0.709825 -0.560379 2.004 255 255 255
-0.901188 -0.0346623 2.166 255 255 255
0.866054 -0.908136 3.086 0 0 0
-0.306753 -0.0415588 1.432 255 255 255
0.332036 -1.04184 2.939 255 255 255
0.266093 0.242035 0.766 255 255 255
-0.56986 0.208343 1.799 255 255 255
0.148221 -0.105319 1.03 0 0 0
-0.476431 0.329697 1.686 255 255 255
-0.931543 -0.631936 2.196 255 255 255
0.33534 0.115822 0.826 255 255 255
0.117416 0.17242 0.92 255 255 255
-0.553492 0.218219 1.784 255 255 255
-0.651397 -0.719809 1.985 255 255 255
-0.0772559 -0.430835 1.456 255 255 255
-0.669103 0.449143 1.372 255 255 255
0.427246 -0.22816 1.463 0 0 0
1.31685 -0.798057 2.805 255 255 255
-0.723351 0.425882 1.369 255 255 255
-0.471345 0.236602 1.668 255 255 255
0.117772 0.0702483 0.878 0 0 0
0.105387 0.0720037 0.882 255 255 255
-0.366946 -0.384352 1.487 255 255 255
0.424554 -0.0299693 1.094 255 255 255
0.408407 0.143063 0.798 0 0 0
-0.959792 -0.0861038 2.22 255 255 255
0.028269 0.339597 0.895 255 255 255
-0.193036 0.256009 1.267 255 255 255
0.255446 0.164046 0.799 255 255 255
-0.45669 0.502683 1.378 255 255 255
-0.518002 -0.195428 1.563 255 255 255
-0.459582 -0.295938 1.505 255 255 255
0.195373 -0.328212 1.422 255 255 255
-0.455891 -0.286902 1.509 255 255 255
0.225073 0.0549406 0.862 255 255 255
0.446791 0.108206 0.873 255 255 255
0.578319 -0.18072 1.484 255 255 255
-0.0651013 -0.167114 1.156 0 0 0
-1.10397 -0.201008 2.383 255 255 255
-0.980134 -0.426559 2.365 255 255 255
0.0362865 -0.0175421 0.995 255 255 255
0.951335 -1.0239 3.102 0 0 0
-0.227239 0.211188 1.322 255 255 255
-0.510526 -1.13678 3.149 255 255 255
0.0868439 -0.0615065 0.999 255 255 255
-0.944338 -0.0133264 2.136 255 255 255
0.868571 -0.220528 1.719 0 0 0
0.178261 -0.0557225 0.983 255 255 255
0.242973 0.130203 0.832 255 255 255
0.659006 -0.159878 1.47 255 255 255
-1.11836 -0.143959 2.278 255 255 255
-0.743475 -0.648427 2.099 255 255 255
-1.01916 -0.392438 2.44 255 255 255
0.153719 0.331093 0.95 255 255 255
