ply
format ascii 1.0
comment Created by Open3D
element vertex 1334
property double x
property double y
property double z
property uchar red
property uchar green
property uchar blue
end_header
0.483452 0.089953 1.002 0 0 0
0.232251 -0.192276 1.48 255 255 255
-0.294831 0.107629 1.244 255 255 255
-0.356585 0.0524015 1.39 255 255 255
0.114131 0.0649007 0.883 0 0 0
-0.510383 0.0786917 1.603 255 255 255
-0.356585 0.217527 1.39 255 255 255
0.23155 -0.25679 1.491 255 255 255
0.988931 -0.353489 2.092 255 255 255
-0.23641 -0.349572 1.473 0 0 0
0.122505 0.0753579 0.871 255 255 255
-0.356285 0.475769 1.425 255 255 255
-1.15737 -0.350894 2.204 255 255 255
0.386219 0.164654 0.871 255 255 255
0.170319 0.162862 0.869 255 255 255
0.58683 -0.0476683 1.406 255 255 255
0.592268 -0.82292 3.266 255 255 255
-0.605784 0.444425 1.491 255 255 255
-0.167972 0.139323 1.139 255 255 255
1.39174 -0.748799 3.071 255 255 255
-0.178069 -0.170192 1.278 255 255 255
-0.428172 -0.170711 1.524 255 255 255
1.7534 -1.29045 3.527 255 255 255
-1.07076 -0.362003 2.449 255 255 255
0.184603 -0.878608 2.953 255 255 255
-0.120397 0.214588 1.145 255 255 255
0.393097 -0.253936 1.595 255 255 255
-0.133681 -0.0131227 1.18 255 255 255
0.498065 0.0198193 1.198 255 255 255
-0.472296 -0.341712 1.491 255 255 255
0.338714 0.0945812 0.966 255 255 255
0.257687 0.217656 0.786 255 255 255
0.127427 0.267104 0.906 255 255 255
-0.0103187 0.262989 0.961 255 255 255
-0.0619572 -0.187933 1.244 255 255 255
-0.218445 -0.099688 1.308 0 0 0
-0.298565 0.364791 1.333 255 255 255
0.256466 0.272092 0.756 255 255 255
-0.708768 0.415089 1.473 255 255 255
-0.401508 0.0884845 1.463 255 255 255
0.452104 0.0318977 1.079 0 0 0
-1.01765 -0.481614 2.228 255 255 255
1.79636 -1.21919 3.787 255 255 255
-0.474851 0.0915183 1.555 255 255 255
-0.540399 -0.195945 1.547 255 255 255
0.783472 -0.664013 2.982 255 255 255
-0.72676 0.337881 1.62 255 255 255
0.558708 -0.0933372 1.516 255 255 255
0.14063 -0.34492 1.505 0 0 0
0.308546 0.151379 0.86 255 255 255
-1.02267 -0.733909 1.997 255 255 255
0.760834 -0.106863 1.691 255 255 255
0.181291 -0.307257 1.477 255 255 255
0.0824682 -0.894535 2.911 255 255 255
-0.82248 0.24434 1.763 255 255 255
0.551819 -0.0387902 1.416 255 255 255
-0.571431 -0.12421 1.563 255 255 255
0.409192 0.105198 0.992 0 0 0
-0.307396 -0.0393107 1.435 255 255 255
0.396685 0.130631 0.989 0 0 0
0.834222 -1.07689 3.215 255 255 255
-1.04079 -0.0899824 2.32 255 255 255
1.13229 -0.752456 3.086 255 255 255
-0.61169 -0.0774364 1.595 255 255 255
0.416376 0.0626209 1.064 255 255 255
0.166399 0.218523 0.849 255 255 255
-0.551475 0.187293 1.664 255 255 255
0.680987 -0.845986 3.336 255 255 255
-0.251467 -0.2162 1.372 0 0 0
-0.0889277 -0.193036 1.225 255 255 255
0.000879954 -0.267654 1.339 255 255 255
-0.405675 -0.534382 1.487 0 0 0
0.0189996 0.318768 0.941 0 0 0
0.372441 -0.973055 3.117 255 255 255
-0.0989387 -0.151124 1.178 0 0 0
0.123353 0.111695 0.867 255 255 255
-0.631071 0.426556 1.505 255 255 255
0.269576 0.141849 0.879 0 0 0
0.0590102 0.0376773 0.92 0 0 0
1.09013 -0.557141 2.857 255 255 255
-0.0383881 0.154963 1.145 255 255 255
0.210856 -0.0335299 1.094 255 255 255
0.120081 0.0798843 0.874 0 0 0
1.24482 -0.837738 3.181 255 255 255
1.37858 -0.734515 2.755 255 255 255
-0.807118 0.307476 1.655 255 255 255
0.0830333 -0.117954 1.232 255 255 255
0.320355 0.147235 0.877 255 255 255
0.297125 -1.01308 2.925 0 0 0
-0.00412904 0.254648 0.977 255 255 255
0.254247 0.144956 0.847 0 0 0
-0.585544 0.17198 1.7 255 255 255
0.951826 -0.628858 3.071 255 255 255
-0.440813 -1.01695 2.719 255 255 255
0.266788 0.237667 0.768 255 255 255
-0.167576 0.123718 1.149 0 0 0
-0.491479 -0.200998 1.528 255 255 255
-0.0669809 0.261213 0.966 255 255 255
-0.040709 0.168029 1.158 255 255 255
1.11328 -0.806975 3.266 255 255 255
0.0675064 0.267641 0.978 0 0 0
0.0624006 -0.358115 1.509 255 255 255
0.885712 -0.507957 2.649 0 0 0
-0.207681 -0.12389 1.294 0 0 0
-1.17373 -0.181293 2.329 255 255 255
0.163768 -0.197277 1.429 255 255 255
-0.541463 0.282381 1.65 255 255 255
-0.682365 0.482911 1.354 255 255 255
-0.779362 0.319018 1.659 255 255 255
-0.52142 -0.165307 1.543 255 255 255
-0.53649 0.514956 1.393 255 255 255
-0.43624 0.383488 1.509 255 255 255
-0.224284 -0.190103 1.33 0 0 0
0.0892372 0.252022 0.955 255 255 255
-1.05042 -0.527008 2.236 255 255 255
1.43263 -1.06887 3.354 255 255 255
-0.988994 -0.688969 2.173 255 255 255
0.256299 0.0859471 0.908 0 0 0
1.28356 -1.03429 3.149 0 0 0
0.0860379 0.247101 0.954 0 0 0
0.824605 -0.920278 3.198 255 255 255
1.58594 -1.17368 3.487 0 0 0
0.160772 -0.0787664 1.13 255 255 255
-0.441983 -0.425489 1.487 255 255 255
-0.0151265 0.151579 1.081 255 255 255
0.152173 0.0234463 0.95 0 0 0
0.0533103 -0.215841 1.342 0 0 0
0.203307 0.0360287 1.046 255 255 255
-0.101626 0.149976 1.21 0 0 0
0.0848974 0.0772613 0.893 255 255 255
0.197921 0.181095 0.842 255 255 255
0.62106 -1.16073 3.117 255 255 255
-1.02047 0.0144272 2.128 255 255 255
-1.09803 -0.576982 2.151 255 255 255
-0.561359 0.408393 1.607 255 255 255
0.253394 -0.234953 1.491 255 255 255
-0.488761 -0.562794 1.559 255 255 255
-0.103729 0.308451 1.002 255 255 255
-0.193554 0.279227 1.182 255 255 255
-0.012897 -0.0336641 1.043 0 0 0
0.593542 0.042952 1.247 255 255 255
1.31394 -1.00875 3.198 0 0 0
0.781827 -0.11143 1.719 0 0 0
0.890603 -0.180418 1.917 255 255 255
0.227178 0.189477 0.819 255 255 255
1.14825 -0.447939 2.356 255 255 255
1.26791 -0.581636 2.818 255 255 255
0.348138 0.243124 0.739 255 255 255
-0.523759 0.496598 1.452 255 255 255
0.0904212 -0.0652622 1.06 0 0 0
1.12936 -0.617012 2.898 255 255 255
0.872768 -0.869578 3.165 255 255 255
0.519993 0.0826403 1.1 255 255 255
0.0698434 0.224778 0.945 255 255 255
-0.248804 0.217168 1.257 255 255 255
-0.566369 0.511658 1.372 255 255 255
0.0553305 0.31218 0.988 0 0 0
0.977268 -0.221944 1.953 255 255 255
0.724646 -0.0828348 1.599 255 255 255
0.535289 0.0845838 1.102 255 255 255
0.693516 -0.884617 3.318 255 255 255
0.249576 0.030505 1.092 255 255 255
0.293307 -0.337896 1.575 0 0 0
1.09902 -1.02916 3.149 255 255 255
-0.322934 0.324112 1.372 255 255 255
0.79738 -0.0377301 1.563 255 255 255
0.345994 -0.0903057 1.359 255 255 255
-0.966 -0.546233 2.286 255 255 255
-0.334827 -0.00198521 1.463 0 0 0
0.162911 -0.227231 1.442 0 0 0
0.602608 0.00257899 1.359 255 255 255
-0.535784 0.482372 1.459 0 0 0
0.113715 -0.165498 1.359 255 255 255
-1.0935 -0.425695 2.22 255 255 255
0.0876612 0.326106 0.972 255 255 255
1.0723 -0.877841 3.354 255 255 255
-0.104261 0.241098 1.057 255 255 255
1.22024 -0.998341 3.198 255 255 255
0.821637 -1.1408 3.248 255 255 255
-0.640587 0.40487 1.583 255 255 255
-0.428609 -0.392665 1.491 255 255 255
-0.738961 -1.03822 3.055 255 255 255
0.69705 -0.00413023 1.384 255 255 255
0.353166 -0.00168804 1.244 255 255 255
-0.31991 0.0959177 1.305 255 255 255
-0.247993 0.102973 1.213 0 0 0
0.644545 -0.328999 1.966 0 0 0
-0.539823 0.471656 1.47 255 255 255
0.644302 -0.0299072 1.432 255 255 255
1.4926 -0.882007 3.391 0 0 0
0.0947371 -0.321678 1.477 255 255 255
1.28272 -0.67512 2.925 255 255 255
-0.464853 0.121257 1.547 255 255 255
0.259023 0.204097 0.798 255 255 255
-0.469788 0.223104 1.555 255 255 255
0.445152 -0.859277 3.165 255 255 255
0.100434 0.340117 0.958 255 255 255
0.212696 0.0622331 1.002 255 255 255
-0.0322897 -0.29819 1.359 255 255 255
0.228712 -0.118947 1.333 255 255 255
0.0659897 0.193283 0.934 255 255 255
0.922593 -0.156595 1.893 255 255 255
-0.831642 0.156259 1.953 255 255 255
0.695336 -0.966034 3.301 255 255 255
0.106204 -0.25359 1.406 255 255 255
0.122645 0.0711873 0.872 255 255 255
0.227599 0.196864 0.811 255 255 255
0.141785 -0.267123 1.442 255 255 255
0.149615 0.194643 0.872 255 255 255
0.261566 0.159178 0.814 255 255 255
0.23676 0.266544 0.772 255 255 255
0.233977 -0.298038 1.491 255 255 255
0.035156 0.197922 0.964 255 255 255
0.464934 -0.127876 1.516 0 0 0
0.219454 -1.00353 2.844 0 0 0
0.237925 0.0925129 0.9 255 255 255
-0.183185 0.296066 1.165 255 255 255
-1.18223 -0.2047 2.294 255 255 255
-0.876107 0.26604 1.7 255 255 255
0.872731 -0.457025 2.489 255 255 255
-0.444063 -0.356987 1.494 255 255 255
0.146877 0.142367 0.848 0 0 0
1.67276 -1.09673 3.588 255 255 255
-0.00237237 0.346427 0.913 255 255 255
0.384076 -0.0602421 1.33 255 255 255
0.156909 0.091523 0.85 255 255 255
-0.0131319 0.00201537 1.062 0 0 0
0.094283 -0.00629508 1.009 0 0 0
-1.13756 -0.536913 2.173 255 255 255
0.0102572 0.133173 0.984 255 255 255
-0.614287 0.41313 1.595 255 255 255
0.0694517 0.320199 0.983 255 255 255
-0.111757 -0.0128113 1.152 255 255 255
0.178354 0.103796 0.86 255 255 255
0.0808972 0.130157 0.897 255 255 255
-0.128254 -0.387195 1.498 255 255 255
0.211728 0.285193 0.796 255 255 255
-0.486654 -0.0709932 1.513 255 255 255
0.0815625 0.186096 0.921 255 255 255
0.219024 0.27231 0.785 255 255 255
0.232634 0.283975 0.775 255 255 255
-0.639198 -0.937598 2.54 255 255 255
-0.674338 0.31841 1.729 255 255 255
0.0647679 -0.162542 1.267 255 255 255
-1.05113 -0.437236 2.261 255 255 255
-0.142964 -0.280544 1.381 255 255 255
-0.69891 -1.08696 3.011 255 255 255
-0.16389 -0.187268 1.281 255 255 255
-0.126588 -0.801755 2.818 255 255 255
-1.04974 -0.505119 2.204 255 255 255
-0.271924 0.216404 1.289 255 255 255
-0.0561475 0.276216 0.969 255 255 255
-0.152408 0.257291 1.12 255 255 255
-0.0382833 -0.0475539 1.089 0 0 0
0.320544 0.207673 0.768 0 0 0
-0.428183 0.214926 1.498 255 255 255
0.215803 -0.0476849 1.092 255 255 255
-0.172411 0.0457027 1.267 255 255 255
0.110047 0.223566 0.921 255 255 255
0.135024 -0.286491 1.445 255 255 255
0.380899 -0.0511581 1.319 255 255 255
-0.244927 0.119246 1.198 255 255 255
0.230703 0.198766 0.808 255 255 255
0.384252 0.171761 0.83 255 255 255
0.395212 -1.12666 2.911 255 255 255
-0.774197 0.250154 1.784 255 255 255
-0.611256 0.0811616 1.71 255 255 255
-0.640841 -0.0129793 1.65 255 255 255
-0.850625 -0.826375 2.181 255 255 255
-0.19593 0.0296461 1.286 255 255 255
0.127049 0.146564 0.873 0 0 0
-0.187423 -0.760503 2.768 255 255 255
0.0589951 0.103882 0.897 255 255 255
0.5216 0.0915838 1.039 0 0 0
-0.727137 0.393471 1.491 255 255 255
-0.941297 0.143569 1.911 255 255 255
0.209929 0.246191 0.804 255 255 255
0.237035 -0.357296 1.559 255 255 255
-0.0488351 -0.0951476 1.128 255 255 255
0.185156 0.0846326 0.879 0 0 0
0.614053 -0.0457031 1.416 255 255 255
0.0214066 0.0626484 0.913 255 255 255
0.617132 0.013145 1.31 255 255 255
-0.018027 0.266009 0.955 255 255 255
-0.171379 0.207538 1.137 255 255 255
-1.08536 -0.508806 2.189 255 255 255
1.00671 -1.03871 3.086 0 0 0
0.104344 0.343822 0.951 255 255 255
0.436668 -0.158183 1.547 0 0 0
0.20582 0.167995 0.852 255 255 255
-0.125517 0.315652 1.02 255 255 255
-0.587093 0.495863 1.384 255 255 255
-0.173472 0.313713 1.07 255 255 255
0.158708 0.0408926 0.925 0 0 0
-0.0156163 -0.0814227 1.116 255 255 255
0.380954 -0.130191 1.459 255 255 255
0.811062 -0.998093 3.248 255 255 255
-0.613982 0.360249 1.65 255 255 255
0.0216877 0.223493 0.994 255 255 255
-0.534792 0.185267 1.646 255 255 255
-0.59902 0.0189386 1.624 255 255 255
0.0629561 -0.0485175 1.034 255 255 255
-0.0061526 0.00541514 1.051 0 0 0
-1.01064 -0.496106 2.261 255 255 255
1.37394 -0.779211 3.133 255 255 255
-0.354652 -0.147517 1.595 255 255 255
0.13736 -0.308193 1.47 255 255 255
0.0944558 0.241694 0.945 0 0 0
0.573097 -0.0453803 1.406 255 255 255
0.244395 0.0511176 1.077 255 255 255
-0.121137 -0.212527 1.27 255 255 255
0.159309 0.185612 0.863 0 0 0
0.519583 -1.06436 3.117 255 255 255
1.29861 -0.552353 2.719 0 0 0
-1.02083 -0.671288 2.173 255 255 255
0.168374 0.283073 0.852 255 255 255
0.342086 -0.327266 1.624 0 0 0
-0.065013 -0.0636018 1.122 255 255 255
-0.62007 0.0871835 1.719 255 255 255
-0.541605 -0.91021 3.181 255 255 255
0.380352 -0.0309228 1.281 255 255 255
1.57051 -0.986108 3.568 0 0 0
0.377914 0.0365581 1.114 255 255 255
-0.546287 0.346213 1.673 255 255 255
-0.656969 0.180984 1.789 255 255 255
0.0268284 0.310013 0.947 255 255 255
0.667945 -0.299546 1.941 255 255 255
0.340081 0.130545 0.931 255 255 255
1.27462 -1.15286 3.165 255 255 255
-0.323811 0.0258937 1.425 255 255 255
1.8156 -1.22371 3.763 255 255 255
-0.112013 -0.416404 1.543 255 255 255
0.00374845 0.27464 0.958 255 255 255
-0.268143 0.433131 1.291 255 255 255
0.0333594 -1.01275 2.768 255 255 255
1.4784 -0.997831 3.448 0 0 0
-0.465409 -0.251227 1.516 255 255 255
0.144102 0.165032 0.873 255 255 255
0.0444092 -0.294775 1.406 255 255 255
-1.19299 -0.226306 2.286 255 255 255
-0.380765 -0.265745 1.543 255 255 255
-0.932665 0.0744518 2.064 255 255 255
1.37487 -0.735556 2.793 255 255 255
-1.11488 -0.145609 2.365 255 255 255
-0.640406 -0.0289488 1.642 255 255 255
0.0177277 0.0328943 0.955 255 255 255
0.318737 0.0292015 1.11 255 255 255
0.0805365 0.125217 0.893 255 255 255
-0.077365 0.250134 0.978 255 255 255
-1.06681 -0.0277019 2.173 255 255 255
0.439634 0.0923148 1.01 255 255 255
-0.318947 0.0144996 1.445 0 0 0
0.29635 0.195686 0.78 0 0 0
0.57935 0.0254013 1.283 255 255 255
-0.3822 -0.326192 1.509 255 255 255
0.137716 0.018947 0.957 255 255 255
0.172084 0.219722 0.843 255 255 255
-0.103596 0.0810589 1.21 255 255 255
0.0751585 0.0067458 0.995 255 255 255
0.948067 -0.316041 2.092 255 255 255
-0.600864 -0.0313706 1.629 255 255 255
-0.384986 -0.279099 1.52 255 255 255
-0.158395 0.0309491 1.254 0 0 0
-0.840392 0.262137 1.729 255 255 255
0.283473 -0.264801 1.509 255 255 255
-0.395745 0.115374 1.442 255 255 255
-0.28578 -1.00371 3.102 255 255 255
0.340776 -0.0753925 1.33 0 0 0
0.0394682 -0.0570409 1.036 255 255 255
-0.369155 0.536644 1.439 255 255 255
0.214533 -0.0671771 1.152 0 0 0
0.394426 0.190632 0.796 255 255 255
0.142393 0.186404 0.88 255 255 255
-0.292129 -0.207541 1.452 255 255 255
0.227433 -0.194684 1.48 255 255 255
0.268417 0.22488 0.78 255 255 255
-0.0679681 0.111031 1.173 255 255 255
0.188572 0.197662 0.831 255 255 255
0.189849 0.270776 0.819 255 255 255
0.604397 -0.0783797 1.513 255 255 255
0.14619 0.174352 0.877 0 0 0
-0.105817 0.334093 0.991 255 255 255
0.338783 0.030017 1.141 255 255 255
0.410169 0.188623 0.804 255 255 255
-0.144839 0.246429 1.104 255 255 255
0.644966 -0.23407 1.848 255 255 255
0.492768 0.140604 0.969 255 255 255
-0.95498 0.103538 1.978 255 255 255
-0.830467 0.2929 1.664 255 255 255
0.0850163 0.373634 0.96 0 0 0
0.370582 -0.237446 1.555 255 255 255
-1.00705 -0.13071 2.374 255 255 255
0.128255 0.118065 0.862 255 255 255
-0.626239 0.40636 1.599 255 255 255
1.05025 -0.8297 3.336 255 255 255
0.318431 0.181447 0.807 255 255 255
-1.00344 -0.770027 2.114 255 255 255
0.197848 0.28677 0.819 255 255 255
0.196415 -1.00809 2.78 255 255 255
0.171549 0.186456 0.854 255 255 255
-0.847075 -0.822826 2.181 255 255 255
0.601416 0.0505367 1.234 255 255 255
-0.0437492 0.244974 1.139 255 255 255
-0.173241 -0.366996 1.466 0 0 0
0.00185191 -0.966844 2.818 255 255 255
-0.635792 0.0324099 1.637 255 255 255
0.0506823 0.0930268 0.905 255 255 255
-0.110665 -0.362869 1.459 255 255 255
0.992494 -0.34204 2.064 255 255 255
-0.384 0.55111 1.416 255 255 255
0.56312 -0.0583965 1.445 0 0 0
0.796618 -0.098608 1.691 255 255 255
-0.075463 0.252281 0.974 255 255 255
0.413009 0.153461 0.856 0 0 0
-0.123857 0.328931 1.02 255 255 255
-0.643467 0.497231 1.351 255 255 255
0.0782732 0.371299 0.954 255 255 255
-0.0318514 0.240976 1.112 255 255 255
-0.427734 0.294302 1.505 255 255 255
0.938815 -0.222626 1.959 255 255 255
-0.496869 0.527419 1.39 0 0 0
-0.655642 0.418575 1.494 255 255 255
-0.609094 -0.111179 1.595 255 255 255
0.23939 0.0969067 0.9 255 255 255
-0.220147 0.0746342 1.234 255 255 255
0.118138 0.23674 0.914 255 255 255
0.678801 -0.039886 1.456 0 0 0
0.652349 -0.8962 3.301 255 255 255
1.69536 -1.07103 3.467 255 255 255
1.39597 -0.737826 3.026 255 255 255
0.321351 -0.213115 1.491 255 255 255
0.247977 0.042669 1.085 255 255 255
-0.637795 0.511146 1.33 255 255 255
-0.889378 -0.722539 2.189 255 255 255
0.445614 0.100558 0.994 255 255 255
0.718095 -0.259216 1.923 0 0 0
-0.138081 0.289407 1.027 255 255 255
-0.0486657 -0.193469 1.267 255 255 255
-0.991753 -0.480706 2.329 255 255 255
0.242419 0.162751 0.812 0 0 0
-0.662528 -1.08213 3.215 255 255 255
0.0796356 -0.288873 1.422 255 255 255
-1.09605 -0.0421548 2.189 255 255 255
-0.241313 0.152765 1.171 255 255 255
-0.303586 0.0367255 1.396 0 0 0
-0.412429 -1.02127 2.707 255 255 255
0.796059 -0.237835 1.953 0 0 0
0.439396 0.146969 0.92 255 255 255
-0.0393731 0.246355 1.12 255 255 255
-0.276235 -1.02593 2.755 255 255 255
-1.0854 -0.198702 2.402 255 255 255
0.00967347 0.105962 0.928 255 255 255
-0.966203 -0.568017 2.269 255 255 255
0.451867 0.144131 0.921 255 255 255
0.14648 -0.253044 1.442 255 255 255
0.003948 0.179248 1.009 255 255 255
-0.0131072 -0.0117882 1.06 255 255 255
0.330517 -1.08335 2.884 255 255 255
0.194805 0.0306561 1.037 255 255 255
0.500318 0.0869278 1.044 255 255 255
-0.223044 -0.14674 1.31 0 0 0
0.238858 0.112766 0.898 0 0 0
-0.399156 0.539891 1.429 255 255 255
-0.083738 0.0416196 1.104 255 255 255
1.19822 -0.982681 3.181 255 255 255
0.483028 -0.15592 1.575 0 0 0
-1.0454 -0.708795 2.158 255 255 255
0.538348 -0.213808 1.71 255 255 255
0.886556 -0.820533 3.215 255 255 255
0.127584 -0.379154 1.555 255 255 255
-0.270428 0.362664 1.302 255 255 255
0.266303 0.103214 0.917 255 255 255
-0.0111776 -0.1634 1.227 255 255 255
-1.11836 -0.470215 2.143 255 255 255
0.129049 -0.00454704 0.986 0 0 0
0.145915 -0.318373 1.484 255 255 255
-0.1343 0.219878 1.106 255 255 255
-0.0226194 0.274469 0.952 255 255 255
1.07147 -0.912315 3.301 255 255 255
0.0577915 0.11021 0.901 255 255 255
0.124932 -0.0855122 1.122 255 255 255
1.19886 -0.657555 2.953 0 0 0
0.409155 0.153783 0.916 255 255 255
-0.582485 0.494761 1.4 255 255 255
-0.533448 -0.366451 1.513 0 0 0
0.390358 0.195076 0.793 0 0 0
-0.569969 -0.238057 1.559 0 0 0
0.0517447 0.309969 0.981 0 0 0
0.140449 0.306098 0.895 255 255 255
-1.0717 -0.109704 2.338 255 255 255
0.451986 -0.104573 1.466 255 255 255
-0.266834 0.0941782 1.227 0 0 0
-0.407755 0.461884 1.477 255 255 255
-0.909568 -0.774565 2.136 255 255 255
-0.648898 -0.200936 1.65 255 255 255
-0.16969 -0.149829 1.247 255 255 255
-0.0346103 -0.0473792 1.085 0 0 0
0.809114 -1.03556 3.283 255 255 255
0.329095 0.266535 0.721 255 255 255
-0.408326 -0.230232 1.524 255 255 255
1.30096 -1.09986 3.117 0 0 0
-0.392993 -0.342399 1.494 255 255 255
0.290217 -1.09646 2.857 255 255 255
0.616524 0.0373963 1.265 255 255 255
-0.485367 -0.289357 1.509 255 255 255
-1.1382 -0.353611 2.244 255 255 255
1.30764 -1.20748 3.133 255 255 255
-0.757347 -0.715819 2.158 255 255 255
-0.0234836 0.317864 0.925 255 255 255
0.982877 -0.308789 2.044 255 255 255
0.34528 -0.14714 1.439 0 0 0
-0.131982 0.165253 1.165 255 255 255
-0.763622 0.354241 1.587 255 255 255
0.483304 0.109067 0.969 255 255 255
0.209139 0.245492 0.806 255 255 255
0.82005 -0.741213 3.102 255 255 255
-0.722571 -0.768201 2.128 255 255 255
0.166836 0.0481573 0.92 0 0 0
0.169164 0.181321 0.856 255 255 255
0.442027 -0.0962862 1.449 255 255 255
-0.457759 0.53498 1.416 255 255 255
1.18894 -0.606592 2.871 0 0 0
-0.950084 -0.688969 2.173 255 255 255
0.0964568 0.041527 0.906 0 0 0
-0.273612 0.42248 1.297 255 255 255
0.543497 -0.800582 3.198 0 0 0
0.206476 0.309044 0.811 255 255 255
-0.0299978 -0.363864 1.463 255 255 255
-0.0162727 -0.25449 1.316 255 255 255
0.0789332 0.0563949 0.908 0 0 0
1.32447 -0.672 2.871 255 255 255
0.0592165 -0.304887 1.432 255 255 255
-0.387895 0.0682991 1.439 255 255 255
-0.286838 -0.250766 1.403 0 0 0
-0.805979 0.355602 1.559 255 255 255
-0.539497 -1.01652 2.66 255 255 255
-0.641162 0.477845 1.384 255 255 255
0.234247 0.265288 0.772 255 255 255
-0.212181 0.0379284 1.283 255 255 255
-0.134475 0.322203 1.025 255 255 255
-0.368266 0.048222 1.4 255 255 255
-0.0688586 0.0288332 1.096 255 255 255
0.134772 0.259782 0.896 255 255 255
0.707577 -1.0409 3.283 255 255 255
-0.164548 0.1205 1.154 255 255 255
0.348482 0.124456 0.954 255 255 255
0.173921 0.109763 0.852 255 255 255
-0.385238 -0.975912 2.831 0 0 0
-0.37478 0.216987 1.416 255 255 255
-1.10753 -0.180932 2.374 255 255 255
0.00511396 0.0783548 0.923 255 255 255
0.667825 -0.228672 1.853 255 255 255
0.259451 -0.21936 1.484 0 0 0
-0.290452 0.112789 1.234 255 255 255
-0.754384 0.288595 1.719 255 255 255
0.85971 -0.650871 3.011 255 255 255
0.134239 -0.197228 1.412 0 0 0
0.265145 0.205399 0.793 255 255 255
-0.108273 0.347746 0.984 255 255 255
0.0369835 0.11691 0.931 0 0 0
-0.916037 -0.0168574 2.143 255 255 255
-1.03464 -0.588785 2.143 255 255 255
-0.0802939 0.0700376 1.158 255 255 255
-1.1103 -0.54799 2.189 255 255 255
-0.407584 -0.374005 1.494 255 255 255
-0.0361824 0.308376 0.942 0 0 0
-0.941568 0.148848 1.899 255 255 255
-0.363946 -0.0997856 1.579 255 255 255
-0.165129 0.281667 1.145 255 255 255
-0.476952 -0.0727271 1.498 255 255 255
0.516797 -0.288166 1.81 255 255 255
-0.043173 -0.0929811 1.124 255 255 255
-1.13756 -0.533376 2.173 255 255 255
0.300544 0.189582 0.781 0 0 0
-0.318412 -0.926058 2.982 255 255 255
-0.27578 0.149357 1.205 255 255 255
0.6131 -0.993034 3.181 255 255 255
0.371321 -0.190765 1.487 0 0 0
-0.867269 0.126899 1.991 255 255 255
0.406594 0.0135859 1.165 255 255 255
0.100329 0.338204 0.957 255 255 255
-1.04966 -0.193252 2.383 255 255 255
0.000632857 0.0363041 0.963 255 255 255
-0.697964 -0.819276 2.181 255 255 255
-0.410516 -0.534382 1.487 0 0 0
-0.316596 -0.730031 2.755 255 255 255
0.895791 -0.968372 3.102 255 255 255
0.0346819 0.31287 0.951 255 255 255
-0.244319 -0.060378 1.333 255 255 255
0.179184 0.101466 0.864 255 255 255
0.184213 -0.0251236 1.116 255 255 255
-0.347756 0.435526 1.4 255 255 255
-0.110444 -0.114701 1.178 0 0 0
-0.318768 0.221428 1.345 255 255 255
0.139769 0.342959 0.9 255 255 255
1.58933 -1.15758 3.507 0 0 0
-0.244257 0.147676 1.176 255 255 255
0.688722 -0.184564 1.805 255 255 255
0.355218 0.140544 0.927 255 255 255
-0.568506 -0.300709 1.555 0 0 0
1.63892 -1.25158 3.467 0 0 0
0.227706 -0.0436863 1.081 255 255 255
-0.108948 0.297926 1.005 255 255 255
0.135166 0.241838 0.889 255 255 255
1.2745 -0.781597 3.102 255 255 255
-1.14515 -0.145054 2.356 255 255 255
-0.102774 0.22269 1.178 255 255 255
0.688351 -0.594657 2.793 255 255 255
-1.19717 -0.208433 2.294 255 255 255
0.307896 0.0436522 1.11 255 255 255
0.243686 -0.281053 1.491 255 255 255
0.045277 -0.0178947 1.015 255 255 255
0.118794 0.105606 0.875 255 255 255
-0.142343 -0.272613 1.375 255 255 255
0.0187487 0.232021 1.01 255 255 255
0.0646336 -0.409083 1.563 0 0 0
1.0231 -0.87313 3.336 255 255 255
0.283559 0.0393698 1.143 255 255 255
-1.08203 -0.501533 2.204 255 255 255
-0.349554 0.161215 1.354 255 255 255
1.69208 -1.34591 3.507 255 255 255
-0.353507 0.206679 1.378 255 255 255
0.244641 0.179267 0.815 255 255 255
-0.0656479 0.063064 1.102 255 255 255
0.345402 -0.0140124 1.26 255 255 255
-0.661613 0.470263 1.375 255 255 255
-0.311085 0.0426986 1.369 255 255 255
-1.12645 -0.0719113 2.228 255 255 255
0.449103 -0.0892122 1.449 255 255 255
-0.426182 -0.545525 1.491 0 0 0
0.369253 -0.886278 3.133 255 255 255
-0.0193875 0.19419 1.124 255 255 255
-0.603516 -0.0154651 1.629 255 255 255
0.679216 -0.939175 3.301 255 255 255
0.369346 0.166912 0.868 255 255 255
-0.0540634 0.30802 0.96 255 255 255
0.393095 0.212798 0.773 255 255 255
0.277461 -0.213518 1.477 255 255 255
-0.534792 0.112946 1.646 255 255 255
-0.393286 0.294804 1.459 255 255 255
-0.571912 0.494548 1.419 255 255 255
0.401403 0.0341215 1.094 255 255 255
-0.355882 -0.371562 1.555 0 0 0
1.22992 -1.0745 3.117 255 255 255
0.18652 0.150653 0.872 255 255 255
1.26494 -0.673569 2.939 0 0 0
-0.625894 -1.08213 3.215 255 255 255
0.261301 0.180098 0.801 0 0 0
-1.17838 -0.0979898 2.244 255 255 255
0.312161 0.000333656 1.234 255 255 255
0.0156312 0.0933751 0.923 255 255 255
0.0170174 -0.161615 1.244 255 255 255
1.23196 -1.00888 3.215 255 255 255
0.0187858 0.248949 1.012 255 255 255
0.583956 -0.185437 1.705 0 0 0
0.57972 -1.15421 3.086 255 255 255
-0.240429 0.140021 1.176 0 0 0
0.0128452 0.11333 0.939 0 0 0
0.0417767 0.30238 0.972 255 255 255
0.287245 0.0546865 1.114 255 255 255
-0.491024 0.171309 1.591 255 255 255
-0.301925 0.292118 1.348 255 255 255
0.176584 0.143558 0.872 255 255 255
0.912006 -0.814101 3.231 255 255 255
0.0573546 0.191873 0.942 255 255 255
0.44694 -0.257323 1.65 0 0 0
0.203464 -0.0268432 1.112 255 255 255
1.23415 -0.514434 2.638 0 0 0
0.184395 0.000293368 1.085 255 255 255
-0.604961 -1.01411 3.215 255 255 255
0.104192 -0.966277 2.857 255 255 255
0.980757 -0.977489 3.215 255 255 255
-0.661734 0.244963 1.81 255 255 255
-0.0578732 -0.122598 1.162 255 255 255
-0.0295703 0.318551 0.927 0 0 0
0.0970099 0.270671 0.955 255 255 255
-0.0628487 -0.0741583 1.116 0 0 0
-0.779587 0.22729 1.81 255 255 255
-0.0292038 0.009088 1.081 255 255 255
0.45317 -0.2718 1.673 0 0 0
0.985499 -0.83711 3.301 255 255 255
-0.65655 -0.177171 1.629 255 255 255
-1.08162 -0.254375 2.411 255 255 255
-0.503775 -0.323814 1.498 255 255 255
0.16571 -0.180374 1.406 255 255 255
1.34729 -0.649697 2.719 255 255 255
0.427701 0.0922234 1.009 0 0 0
-0.659881 0.282879 1.789 255 255 255
1.15573 -0.695182 3.055 255 255 255
0.366652 0.254802 0.721 255 255 255
-0.914414 -0.581392 2.278 255 255 255
-0.46353 0.361349 1.551 255 255 255
0.316085 0.250679 0.74 255 255 255
0.0220865 0.0370454 0.942 255 255 255
-0.081015 0.236395 1.116 255 255 255
0.171676 0.228781 0.841 255 255 255
0.0941817 -0.286244 1.432 255 255 255
0.110752 0.10895 0.879 255 255 255
-1.01765 -0.503368 2.228 255 255 255
0.0252223 -0.108797 1.156 255 255 255
-0.0451703 0.195519 1.176 255 255 255
-0.590702 0.0857634 1.691 255 255 255
-0.49182 -0.385992 1.484 255 255 255
-0.277373 -0.178816 1.449 255 255 255
-0.379638 -0.0553926 1.559 255 255 255
-0.0340663 -1.01248 2.755 0 0 0
0.343352 -1.00354 2.996 255 255 255
-0.711641 0.479643 1.351 255 255 255
-0.693839 0.292878 1.779 255 255 255
-0.316634 -0.0422553 1.456 255 255 255
0.657875 -0.370715 2.037 255 255 255
0.137053 0.0856866 0.847 255 255 255
-0.999732 -0.534681 2.253 255 255 255
0.327682 0.233318 0.75 255 255 255
0.635973 -0.0414718 1.429 0 0 0
1.02734 -1.03962 3.181 255 255 255
0.0379369 0.183642 0.955 255 255 255
-1.14938 -0.284205 2.303 255 255 255
-1.05355 -0.521351 2.212 255 255 255
0.401455 -0.0510417 1.316 255 255 255
0.260357 -0.0743743 1.208 255 255 255
-1.10814 -0.100566 2.303 255 255 255
0.00529791 -0.277263 1.354 255 255 255
-0.833945 0.316075 1.603 255 255 255
0.403082 0.0206968 1.139 255 255 255
0.684072 -0.219033 1.848 255 255 255
0.0222114 0.00524511 1.018 255 255 255
-1.08434 -0.3316 2.374 255 255 255
0.374795 0.225693 0.749 255 255 255
-0.582916 0.0293643 1.616 255 255 255
-0.220911 -0.108368 1.31 255 255 255
0.380224 0.170893 0.839 255 255 255
0.169561 0.199649 0.851 0 0 0
0.0781167 -0.162506 1.283 255 255 255
-0.0397962 -0.129099 1.187 255 255 255
-0.442992 -0.994011 2.939 255 255 255
-0.574815 0.462822 1.48 0 0 0
-1.07931 -0.441732 2.228 255 255 255
-0.472812 -0.189551 1.516 255 255 255
1.42036 -0.810069 3.215 255 255 255
-0.638565 0.445059 1.477 255 255 255
0.146776 0.244309 0.872 255 255 255
-0.79205 0.369731 1.513 255 255 255
-0.223801 0.266981 1.232 255 255 255
0.330107 0.149849 0.884 255 255 255
0.0139532 -0.0229625 1.02 0 0 0
-0.0912471 0.113871 1.203 0 0 0
-0.497451 0.176931 1.595 255 255 255
0.2347 0.168768 0.822 0 0 0
0.423045 -0.0515847 1.33 255 255 255
0.187411 0.260432 0.82 255 255 255
-0.592799 0.507198 1.366 255 255 255
0.271383 0.255082 0.753 255 255 255
-0.578794 -0.930402 3.215 255 255 255
0.524319 -0.053099 1.429 255 255 255
-1.0648 -0.438106 2.228 255 255 255
0.349008 0.271329 0.709 255 255 255
-0.596376 -0.010132 1.624 255 255 255
0.114421 0.236797 0.92 255 255 255
-0.0674666 0.166035 1.198 255 255 255
-0.619656 0.480619 1.412 255 255 255
-0.398366 -0.154136 1.583 255 255 255
0.232865 0.292154 0.78 255 255 255
-0.203182 -0.229968 1.348 255 255 255
0.763427 -0.267257 1.959 255 255 255
-0.665109 0.3625 1.624 255 255 255
0.135397 0.33048 0.91 255 255 255
-0.210824 0.0972115 1.215 0 0 0
0.374221 0.214056 0.773 255 255 255
-0.0889041 -0.2475 1.313 0 0 0
-0.236865 -0.235086 1.378 255 255 255
0.38664 -0.210777 1.509 0 0 0
-0.270428 0.263081 1.302 255 255 255
-0.555202 0.520589 1.372 255 255 255
-0.572506 -0.309093 1.559 0 0 0
-0.662818 0.367691 1.612 255 255 255
-0.199718 0.2122 1.173 255 255 255
-1.0749 0.000567539 2.099 255 255 255
-0.448886 -0.156026 1.502 255 255 255
0.125953 0.268578 0.906 255 255 255
0.14485 0.0112302 0.963 0 0 0
-0.794172 0.329939 1.607 255 255 255
0.731756 -1.11966 3.248 255 255 255
-0.0552591 -0.762375 2.695 255 255 255
0.368921 -0.0667351 1.33 0 0 0
-0.417777 0.457751 1.487 255 255 255
-1.03045 -0.802866 2.092 255 255 255
-1.07331 -0.431398 2.269 255 255 255
-0.147508 -1.02619 2.78 0 0 0
0.651292 -0.201516 1.799 255 255 255
-0.368122 -0.215736 1.62 255 255 255
-0.0137272 0.247709 0.981 255 255 255
-0.523278 -0.364513 1.505 0 0 0
0.217579 0.0746198 0.952 255 255 255
0.775937 -1.0681 3.301 255 255 255
1.36621 -1.05095 3.248 255 255 255
0.295156 0.229869 0.767 255 255 255
-1.00329 -0.390235 2.402 255 255 255
0.84872 -1.04662 2.939 0 0 0
0.203387 -0.192448 1.463 255 255 255
1.25258 -0.491496 2.479 0 0 0
-1.08613 -0.375613 2.312 255 255 255
-0.445015 -0.455042 1.473 255 255 255
-0.845022 -0.757343 2.261 255 255 255
-0.612055 0.326849 1.744 255 255 255
-1.03879 -0.641816 2.181 255 255 255
1.06407 -1.03997 3.198 0 0 0
0.29828 0.15997 0.839 255 255 255
0.244905 -1.06445 2.871 255 255 255
-0.104478 -0.413893 1.543 255 255 255
0.421343 0.0989402 0.994 255 255 255
-0.0227188 -0.0754298 1.108 255 255 255
0.191317 0.118886 0.868 255 255 255
0.315871 0.110483 0.954 0 0 0
-0.864957 0.285484 1.637 255 255 255
0.123499 0.338469 0.932 255 255 255
0.607832 -0.199784 1.758 255 255 255
0.24846 0.0725294 1.057 255 255 255
-0.677922 -0.837539 2.22 255 255 255
-0.371679 -0.276504 1.547 255 255 255
0.0732683 0.115045 0.893 255 255 255
0.0356301 0.21808 0.977 255 255 255
-0.866311 0.257824 1.719 255 255 255
-1.0702 -0.398821 2.294 255 255 255
0.0565124 0.0826263 0.904 255 255 255
-0.280627 -0.1499 1.466 255 255 255
-0.601962 0.427733 1.563 255 255 255
0.554064 -0.0244531 1.387 255 255 255
-0.170728 -0.290199 1.406 255 255 255
-0.540862 0.0453664 1.624 255 255 255
-0.532845 -0.216085 1.547 255 255 255
-1.02128 -0.64477 2.228 255 255 255
-0.66603 -1.08512 3.133 255 255 255
-1.06514 -0.4376 2.244 255 255 255
-0.977156 0.0817843 1.997 255 255 255
0.000685431 0.147947 1.043 255 255 255
-0.333091 0.0143993 1.435 255 255 255
0.610982 0.0583319 1.229 0 0 0
0.438415 0.180471 0.879 255 255 255
0.174903 -0.328033 1.484 255 255 255
0.215475 0.0953992 0.886 255 255 255
1.34328 -1.18936 3.086 0 0 0
-0.0118327 0.192183 1.102 255 255 255
-0.424608 0.100084 1.494 255 255 255
-0.48989 0.103209 1.579 255 255 255
0.394077 0.215732 0.77 0 0 0
-0.883128 0.166861 1.893 255 255 255
-0.407093 -0.139828 1.567 255 255 255
-0.150419 0.290521 1.043 255 255 255
0.128191 0.22311 0.901 255 255 255
0.0450798 0.228741 0.975 255 255 255
-0.225828 0.158881 1.16 255 255 255
0.334989 0.143933 0.901 255 255 255
-0.415797 -0.0757894 1.463 255 255 255
-1.0486 -0.606222 2.143 255 255 255
0.170182 -0.878608 2.953 255 255 255
0.3222 0.257498 0.732 0 0 0
0.132432 -0.176439 1.393 255 255 255
0.382479 -0.32982 1.65 0 0 0
-0.278297 -0.276471 1.406 255 255 255
-0.0498742 0.133414 1.152 255 255 255
-0.801119 0.298806 1.682 255 255 255
-1.03592 -0.448555 2.244 255 255 255
0.397822 0.0542678 1.07 255 255 255
0.119367 -0.0111098 0.999 255 255 255
-0.119672 0.0398176 1.156 255 255 255
-0.258731 0.318445 1.286 255 255 255
0.207033 -0.104764 1.242 255 255 255
-0.606167 -0.0366724 1.629 255 255 255
0.631393 0.00896276 1.322 255 255 255
-0.498862 0.041645 1.583 255 255 255
-0.37323 -0.270767 1.543 255 255 255
0.276301 0.206669 0.788 255 255 255
0.257044 0.178156 0.804 0 0 0
-1.08088 -0.178411 2.392 255 255 255
1.13358 -1.1408 3.248 255 255 255
0.846501 -0.28869 1.997 255 255 255
-0.667509 0.106629 1.763 255 255 255
0.0816187 0.137209 0.905 255 255 255
-0.258798 -0.293735 1.412 255 255 255
-0.10735 0.028259 1.145 255 255 255
-0.046401 -0.32845 1.384 255 255 255
-0.139388 -0.00940805 1.196 255 255 255
0.295377 0.130563 0.91 255 255 255
0.924723 -0.137389 1.842 255 255 255
-0.385626 -0.157349 1.616 0 0 0
-0.879355 -0.796272 2.236 255 255 255
-0.451331 -0.168247 1.502 255 255 255
-1.14089 -0.0961038 2.286 255 255 255
0.00180262 -1.017 2.743 255 255 255
0.196697 -0.137328 1.322 255 255 255
0.303496 0.274614 0.73 255 255 255
0.894544 -1.00864 3.133 0 0 0
0.266483 0.248796 0.76 255 255 255
0.389652 -0.967853 3.133 255 255 255
0.385089 0.136741 0.964 255 255 255
-0.464482 -0.320429 1.505 255 255 255
-0.263531 0.312895 1.289 255 255 255
-0.443609 0.0200531 1.509 255 255 255
-0.634603 -0.161703 1.607 0 0 0
-0.691299 0.411775 1.487 255 255 255
-0.225807 0.264976 1.232 255 255 255
-1.02695 -0.780456 2.051 255 255 255
-0.455358 0.19986 1.532 255 255 255
0.416203 0.0458597 1.077 255 255 255
0.0499434 0.257828 0.977 255 255 255
0.582963 -0.298027 1.911 255 255 255
-0.152363 -0.348592 1.449 255 255 255
-0.125752 0.242604 1.079 255 255 255
0.382437 -0.0309228 1.281 255 255 255
0.367367 -0.927403 3.117 255 255 255
-0.0420207 -0.0210678 1.094 255 255 255
0.43441 -0.147347 1.539 0 0 0
-1.07036 -0.228699 2.43 255 255 255
0.417599 -0.181308 1.551 255 255 255
-1.01366 -0.807093 2.121 255 255 255
0.362255 0.186384 0.823 255 255 255
-0.856519 0.137611 1.959 255 255 255
1.05309 -0.720214 3.165 255 255 255
-0.523932 -0.197949 1.543 255 255 255
-0.653023 -0.763768 2.051 255 255 255
-0.182968 0.355189 1.085 255 255 255
-0.666113 -0.0403855 1.673 0 0 0
0.0237601 -0.305562 1.403 255 255 255
-0.618367 -0.887856 2.294 255 255 255
-0.47861 0.41649 1.559 255 255 255
0.787542 -0.632281 2.925 255 255 255
-0.95444 -0.561538 2.303 255 255 255
0.0281258 -0.294316 1.393 255 255 255
-0.0471647 0.199686 1.178 255 255 255
-0.654534 0.3625 1.624 255 255 255
-0.690636 0.473854 1.366 255 255 255
-0.0617874 0.338037 0.935 255 255 255
-0.606497 -0.230576 1.595 255 255 255
-0.31187 -0.753736 2.793 255 255 255
-0.446707 0.266475 1.528 255 255 255
1.3149 -1.20563 3.102 255 255 255
0.0268796 -0.0712345 1.072 0 0 0
1.13817 -0.933036 3.102 255 255 255
1.05568 -0.867701 3.336 255 255 255
0.230621 0.303967 0.781 255 255 255
-0.636896 -0.0606793 1.633 255 255 255
0.319496 0.257007 0.734 0 0 0
0.361732 0.0414463 1.149 255 255 255
-0.869449 -0.808638 2.22 255 255 255
-0.2149 -0.255823 1.381 255 255 255
0.0960304 0.185086 0.916 0 0 0
0.264769 -0.387094 1.62 0 0 0
-1.09103 -0.601484 2.151 255 255 255
0.182941 0.279816 0.83 255 255 255
-0.345477 0.298831 1.4 255 255 255
-0.822223 -0.826375 2.181 255 255 255
-0.293741 0.0596779 1.302 0 0 0
-0.347182 -0.942416 2.898 255 255 255
0.0732683 0.117951 0.893 255 255 255
1.00678 -0.836022 3.318 255 255 255
0.376786 0.125609 0.975 255 255 255
-0.0236813 -0.0206056 1.07 255 255 255
0.0907558 -0.0574814 1.044 0 0 0
-0.568392 0.241325 1.682 255 255 255
-0.289646 0.396202 1.322 255 255 255
-1.02011 -0.757735 2.071 255 255 255
0.153334 0.213205 0.861 255 255 255
-0.703563 0.0878224 1.789 255 255 255
-0.465248 -0.419801 1.484 255 255 255
0.338714 0.0914372 0.966 255 255 255
0.494899 0.108842 0.967 0 0 0
0.0484025 0.248543 0.978 255 255 255
-0.246509 -0.200587 1.357 0 0 0
1.23098 -0.489278 2.509 0 0 0
-0.54011 0.453723 1.539 255 255 255
-0.579691 0.151807 1.691 255 255 255
0.275897 0.234223 0.769 255 255 255
0.290438 -0.794612 3.055 255 255 255
0.177524 0.113064 0.856 255 255 255
-0.549937 -0.0913772 1.567 255 255 255
-1.10814 -0.22123 2.392 255 255 255
0.260675 -0.247084 1.491 255 255 255
0.162244 0.0380049 0.928 0 0 0
-0.775745 0.119063 1.917 255 255 255
-0.14056 -0.321948 1.425 255 255 255
0.631208 -1.17088 3.117 255 255 255
-1.06415 -0.709572 2.078 255 255 255
0.210007 0.175406 0.841 255 255 255
0.39313 0.189337 0.796 255 255 255
-1.01766 -0.594625 2.244 255 255 255
0.235223 0.211382 0.801 255 255 255
-0.771932 0.39989 1.47 255 255 255
-0.407755 0.457077 1.477 255 255 255
0.601385 0.0211924 1.281 255 255 255
0.571634 -0.0715134 1.473 255 255 255
-0.814205 0.327475 1.595 255 255 255
0.0527544 0.168879 0.942 255 255 255
-0.561985 0.493382 1.429 255 255 255
0.276521 0.247814 0.757 255 255 255
0.294806 0.270514 0.735 255 255 255
-1.13143 -0.20702 2.32 255 255 255
0.18089 0.297094 0.833 255 255 255
-0.145684 -0.234492 1.324 0 0 0
-0.288463 -0.989733 2.831 255 255 255
0.149812 -0.229833 1.429 0 0 0
-0.0718056 -0.230407 1.313 0 0 0
1.09297 -0.912315 3.301 255 255 255
-0.693398 -0.822282 2.189 255 255 255
-0.887176 0.263273 1.7 255 255 255
-0.0807169 -0.847613 2.818 255 255 255
-1.02491 -0.514245 2.228 255 255 255
-0.406237 -0.41401 1.498 255 255 255
-0.842321 -0.799121 2.244 255 255 255
0.237538 -0.0703105 1.173 0 0 0
0.19045 -0.0376329 1.11 255 255 255
-0.774226 -0.569865 2.099 255 255 255
-0.153224 0.264166 1.126 255 255 255
1.08206 -0.923202 3.086 255 255 255
0.076238 0.308965 0.988 0 0 0
-0.400833 -0.0818724 1.487 255 255 255
-0.66768 -1.0859 3.165 255 255 255
-0.0972589 -0.0373758 1.158 255 255 255
0.258864 -0.125205 1.378 255 255 255
-0.378406 -0.232811 1.575 255 255 255
0.140135 0.0438376 0.893 255 255 255
1.09083 -0.76678 3.231 255 255 255
-0.0156163 -0.0796066 1.116 255 255 255
-0.0760209 0.171636 1.21 255 255 255
-1.13176 -0.318365 2.253 255 255 255
0.298547 -1.04184 2.939 255 255 255
-0.38075 -0.447702 1.513 0 0 0
0.262578 -0.305502 1.516 255 255 255
0.00356063 0.351212 0.91 255 255 255
-0.0398301 0.353574 0.92 255 255 255
-0.982788 -0.763147 2.114 255 255 255
-0.328407 0.123525 1.305 0 0 0
-0.249808 0.0407025 1.305 255 255 255
1.27435 -0.566156 2.743 0 0 0
-0.811572 -0.819276 2.181 255 255 255
0.00663762 -0.15174 1.198 255 255 255
1.14067 -0.797471 3.165 0 0 0
0.977373 -0.226621 1.966 255 255 255
0.247712 0.25608 0.767 255 255 255
-0.192605 0.397694 1.11 255 255 255
-0.643408 -1.08681 3.198 255 255 255
0.434404 0.129364 1.017 0 0 0
-0.395571 -0.148257 1.603 255 255 255
0.318376 0.27711 0.718 255 255 255
-0.108623 0.328018 1.002 255 255 255
-0.621788 0.492541 1.381 255 255 255
0.301108 0.0244038 1.139 255 255 255
0.238531 0.149427 0.826 255 255 255
-0.758062 0.371076 1.539 255 255 255
0.244078 0.145469 0.85 0 0 0
0.392694 -0.0305848 1.267 255 255 255
0.93263 -0.14603 1.876 255 255 255
-0.132728 -1.07076 2.755 0 0 0
0.590188 -0.0109105 1.387 255 255 255
-0.665616 0.0920223 1.758 255 255 255
-0.399587 -0.0493635 1.456 255 255 255
-0.597981 0.408393 1.607 255 255 255
0.159643 -0.171905 1.393 255 255 255
0.28841 0.270051 0.737 255 255 255
-0.117972 -0.149541 1.196 0 0 0
-0.0986683 0.220622 1.198 255 255 255
-0.325167 0.341973 1.372 255 255 255
0.213023 0.283898 0.796 255 255 255
-0.486989 -0.470515 1.484 0 0 0
-0.198024 0.0296461 1.286 255 255 255
-0.168562 0.128652 1.143 0 0 0
-0.0385222 0.164853 1.149 255 255 255
0.837601 -0.957422 3.149 0 0 0
-0.817239 0.278736 1.71 255 255 255
-0.477748 -0.169815 1.516 255 255 255
0.0298219 -0.360135 1.477 255 255 255
-0.259202 0.403812 1.278 255 255 255
0.238692 0.0440251 1.075 255 255 255
-0.747418 0.357723 1.591 255 255 255
0.348195 0.0578935 1.106 255 255 255
0.290842 0.242293 0.759 0 0 0
-1.1321 -0.374686 2.261 255 255 255
-0.0545821 -0.221353 1.31 0 0 0
-0.63861 0.410767 1.547 255 255 255
0.265876 -0.368142 1.595 255 255 255
0.167784 -0.852398 2.996 255 255 255
0.175865 0.186526 0.848 255 255 255
-0.69232 0.415774 1.484 255 255 255
-0.18004 0.207135 1.145 255 255 255
0.0907576 0.162783 0.908 255 255 255
-1.014 -0.64968 2.22 255 255 255
-0.165574 0.329292 1.053 255 255 255
-0.905899 -0.451084 2.294 255 255 255
0.34584 0.0581028 1.11 255 255 255
0.388352 0.168315 0.833 255 255 255
-0.417372 -0.499542 1.477 255 255 255
-0.239187 0.0343315 1.305 255 255 255
0.240221 0.284788 0.767 255 255 255
-0.202495 0.186427 1.167 255 255 255
0.182304 0.0752138 0.886 0 0 0
0.172332 0.105479 0.851 255 255 255
0.136152 0.189117 0.886 255 255 255
-0.794302 -0.733731 2.212 255 255 255
-0.170124 0.182273 1.141 255 255 255
-0.0897261 0.242456 1.048 255 255 255
-0.180821 0.287739 1.162 255 255 255
1.06239 -0.454333 2.638 255 255 255
-0.636859 0.33615 1.719 255 255 255
0.41374 0.11826 1.007 255 255 255
0.471553 -0.256821 1.7 255 255 255
-0.121122 -0.168733 1.208 0 0 0
0.157251 0.33628 0.875 255 255 255
-0.0200846 0.0106766 1.064 0 0 0
-0.0486998 -0.232337 1.324 0 0 0
0.0347574 -0.876852 2.884 255 255 255
-0.1141 0.202336 1.217 255 255 255
-0.107921 0.185531 1.237 255 255 255
-0.216401 0.245098 1.213 255 255 255
-0.558451 -1.06428 3.102 255 255 255
-0.779539 0.100031 1.911 255 255 255
0.395455 0.0957051 0.994 0 0 0
-0.154618 0.324288 1.037 255 255 255
0.143825 0.258007 0.88 255 255 255
-0.447412 -0.0139841 1.473 255 255 255
0.3259 0.276728 0.714 255 255 255
-0.397542 -0.432226 1.502 255 255 255
-0.658016 0.0889079 1.753 255 255 255
-0.162695 0.135854 1.141 255 255 255
-0.150214 -0.906807 2.831 255 255 255
-0.649003 0.482633 1.372 255 255 255
-0.821507 0.2296 1.805 255 255 255
-0.239108 -0.235086 1.378 255 255 255
-1.12439 -0.456535 2.128 255 255 255
0.13549 0.0320676 0.931 255 255 255
0.324219 0.192075 0.786 255 255 255
0.442707 0.181901 0.879 255 255 255
1.31323 -0.630343 2.731 0 0 0
-0.355333 0.260032 1.412 255 255 255
0.328284 0.262838 0.727 255 255 255
1.6494 -1.19016 3.588 0 0 0
-0.350335 -0.1635 1.599 255 255 255
0.631488 -0.128827 1.655 255 255 255
-0.0683737 0.130896 1.18 255 255 255
-0.223974 0.0898172 1.222 0 0 0
-1.1495 -0.394815 2.189 255 255 255
0.151405 0.242628 0.866 255 255 255
0.158116 -0.36856 1.532 0 0 0
-0.150214 -0.84231 2.831 255 255 255
-0.294758 0.23807 1.316 255 255 255
0.155634 0.260948 0.866 255 255 255
-0.991753 -0.473126 2.329 255 255 255
-0.0556926 -0.116321 1.156 255 255 255
0.171951 0.178535 0.856 255 255 255
-0.157132 -0.16364 1.244 255 255 255
0.397223 0.0754665 1.05 255 255 255
0.203447 0.00734242 1.083 255 255 255
-0.267728 0.22899 1.289 255 255 255
0.307462 0.195945 0.776 0 0 0
-0.14823 0.214601 1.116 255 255 255
0.19859 0.0735548 0.901 0 0 0
-0.400411 0.214079 1.459 0 0 0
1.24257 -0.573118 2.844 255 255 255
-0.855015 0.16739 1.899 255 255 255
-0.187205 0.0730969 1.242 255 255 255
0.0102155 0.205992 0.98 255 255 255
-0.885507 -0.761022 2.261 255 255 255
-0.0652447 0.0112987 1.126 255 255 255
0.388337 -0.0307296 1.273 255 255 255
-0.491904 0.495534 1.477 255 255 255
0.635791 -0.00184409 1.359 255 255 255
-0.681719 0.499195 1.327 255 255 255
0.26325 0.193951 0.799 255 255 255
0.102748 0.0951839 0.884 0 0 0
0.127379 -1.0349 2.755 255 255 255
0.105771 0.204606 0.91 255 255 255
-0.709629 -1.07689 3.215 255 255 255
1.37385 -0.68067 2.719 255 255 255
-0.019233 0.30554 0.938 255 255 255
-0.0349329 0.22942 1.154 255 255 255
0.145258 0.28808 0.88 255 255 255
-0.193912 -0.310353 1.425 255 255 255
0.173958 0.0716085 0.895 0 0 0
0.0319841 0.0749426 0.918 0 0 0
-0.755127 0.396454 1.484 255 255 255
0.475284 0.0270496 1.096 0 0 0
1.11537 -1.19492 3.181 255 255 255
0.315144 0.272357 0.724 255 255 255
-0.59894 -0.890368 2.32 255 255 255
-0.467663 -0.419801 1.484 255 255 255
0.382318 -0.0909463 1.403 255 255 255
0.169164 0.189679 0.856 0 0 0
0.165211 0.254744 0.85 255 255 255
-0.0389525 0.0726667 1.059 0 0 0
0.46821 0.136996 0.977 0 0 0
-0.55666 -1.00867 3.149 255 255 255
0.0565323 0.212947 0.954 255 255 255
0.027225 0.291138 0.961 255 255 255
0.246743 0.277458 0.764 255 255 255
-0.962797 -0.613847 2.261 255 255 255
-0.141925 0.101955 1.201 255 255 255
-0.351758 0.165621 1.354 255 255 255
0.876476 -0.223739 1.941 0 0 0
0.291618 0.276935 0.733 255 255 255
0.0998705 0.0779212 0.884 255 255 255
-0.297429 0.0384944 1.378 0 0 0
0.360196 0.133905 0.944 255 255 255
1.71896 -1.36507 3.527 255 255 255
-0.671056 -0.993034 3.181 255 255 255
0.0170223 0.341976 0.917 255 255 255
-1.01086 -0.484722 2.312 255 255 255
1.01719 -0.693169 3.231 0 0 0
-0.32647 -0.906915 2.967 255 255 255
0.292119 0.158227 0.837 255 255 255
-0.415357 0.348859 1.487 255 255 255
0.102349 -0.26922 1.416 255 255 255
-0.667762 -0.815301 3.215 255 255 255
-0.47345 -0.355314 1.487 255 255 255
0.151162 -1.01262 2.78 255 255 255
-0.0229238 -0.083388 1.118 255 255 255
-1.00324 -0.20179 2.347 255 255 255
0.144762 0.258554 0.877 255 255 255
-1.04559 -0.72433 2.173 255 255 255
-0.662984 0.409305 1.551 255 255 255
-0.0808266 -0.205769 1.254 255 255 255
0.788557 -0.258614 1.966 255 255 255
-0.339276 0.374243 1.384 255 255 255
0.690404 0.00480111 1.362 255 255 255
-0.876783 -0.810637 2.158 255 255 255
1.01258 -0.294864 2.017 255 255 255
0.127299 -0.139094 1.339 255 255 255
-0.503915 0.45048 1.528 0 0 0
0.935415 -0.259403 1.972 255 255 255
0.221475 -0.237159 1.505 0 0 0
-0.974507 0.112107 1.959 255 255 255
-0.872265 -0.809199 2.173 255 255 255
0.779706 -0.524914 2.626 255 255 255
-0.947039 -0.747425 2.158 255 255 255
0.34425 -0.233323 1.528 255 255 255
0.990574 -0.879218 3.318 255 255 255
-0.428607 0.530723 1.442 255 255 255
-1.01817 -0.467845 2.303 255 255 255
0.145621 -0.088817 1.141 255 255 255
-0.991347 0.138327 1.882 255 255 255
-0.404253 -0.0739104 1.473 255 255 255
0.26459 0.132204 0.901 255 255 255
0.252785 0.113771 0.906 0 0 0
-0.623915 0.372152 1.62 255 255 255
-0.729746 0.440504 1.416 255 255 255
0.419528 -0.0440407 1.299 255 255 255
0.130301 0.121564 0.857 255 255 255
-0.45584 -0.0236363 1.477 255 255 255
-1.13368 -0.316693 2.294 255 255 255
0.289215 -0.385407 1.624 0 0 0
0.212526 0.253762 0.799 255 255 255
0.0747053 0.294793 0.989 255 255 255
0.120081 0.104063 0.874 255 255 255
0.0593881 0.216692 0.95 255 255 255
0.0512481 -0.393805 1.543 0 0 0
-0.551123 0.501476 1.419 255 255 255
-0.616072 -1.06975 2.898 255 255 255
-0.265419 0.0414822 1.33 255 255 255
-0.561547 0.49328 1.422 255 255 255
-0.607842 0.154769 1.724 255 255 255
0.228971 0.133186 0.888 255 255 255
0.0107576 -0.0517825 1.032 255 255 255
0.0262481 0.273808 0.983 0 0 0
-0.741508 0.353431 1.595 255 255 255
0.323526 -0.928224 3.086 255 255 255
-0.491131 0.18848 1.583 255 255 255
-0.183333 0.124256 1.154 255 255 255
-0.10212 -0.341503 1.439 255 255 255
0.416282 0.15364 0.857 0 0 0
0.010153 0.203146 0.974 255 255 255
0.214368 -0.19616 1.473 255 255 255
0.20757 0.297588 0.805 255 255 255
0.190908 -0.30245 1.477 255 255 255
-1.07228 -0.114383 2.356 255 255 255
-0.711018 0.478505 1.354 255 255 255
0.440754 -0.252631 1.637 0 0 0
0.137284 0.187252 0.884 255 255 255
0.287537 0.224503 0.77 255 255 255
0.235371 -0.148974 1.412 255 255 255
0.147073 0.31488 0.891 255 255 255
-0.0779777 0.0886505 1.18 255 255 255
-0.831496 0.284273 1.677 255 255 255
0.385976 0.222531 0.759 255 255 255
0.101865 -0.0519832 1.036 0 0 0
0.658192 -0.716573 3.149 255 255 255
-0.107312 0.320823 1.005 255 255 255
0.333999 0.248463 0.737 255 255 255
0.631562 0.0337527 1.283 0 0 0
0.196035 0.279422 0.817 255 255 255
0.857595 -1.05461 2.857 255 255 255
-0.814849 0.28347 1.705 255 255 255
-0.11118 -0.335883 1.435 255 255 255
0.755585 -0.726822 3.149 0 0 0
0.104015 0.2872 0.948 255 255 255
1.291 -0.581456 2.731 0 0 0
0.325203 -0.842173 3.102 255 255 255
0.451731 0.124443 1.004 255 255 255
0.157377 -0.149465 1.354 255 255 255
0.279695 0.252508 0.749 255 255 255
-0.381346 0.0749579 1.432 255 255 255
0.0173564 0.111326 0.935 0 0 0
-0.0476229 -0.012233 1.1 255 255 255
-0.409048 0.395912 1.473 255 255 255
1.27096 -0.691194 2.953 255 255 255
0.949187 -1.04662 2.939 255 255 255
1.32978 -1.15256 3.055 0 0 0
-1.04569 -0.401139 2.374 255 255 255
0.641345 -0.313003 1.966 0 0 0
1.02269 -0.419867 2.509 0 0 0
0.0186361 0.0483143 0.923 0 0 0
0.240703 0.0735978 1.024 255 255 255
-0.555509 -0.253847 1.547 0 0 0
-0.283014 -0.157057 1.466 255 255 255
0.145623 0.333729 0.891 255 255 255
-0.0855867 0.311565 0.981 255 255 255
0.124748 0.339257 0.93 255 255 255
0.111966 -0.879226 2.939 255 255 255
0.0946874 0.27764 0.963 255 255 255
0.789717 -0.0516096 1.599 255 255 255
0.796136 -0.998006 3.318 0 0 0
0.0723637 0.365061 0.958 255 255 255
-0.875125 -0.665544 2.189 255 255 255
-0.0323198 0.243416 0.964 255 255 255
0.346395 0.0704922 1.106 255 255 255
-0.562916 0.296069 1.682 255 255 255
0.0365831 -0.0646465 1.05 0 0 0
-0.956838 0.0639699 2.051 255 255 255
0.345071 0.217961 0.756 0 0 0
0.172502 -0.168908 1.387 255 255 255
0.282398 0.00602312 1.169 255 255 255
0.0880327 -0.041706 1.032 255 255 255
0.814159 -0.258614 1.966 0 0 0
0.100881 0.166848 0.906 255 255 255
0.187411 0.268438 0.82 255 255 255
0.199982 -0.284851 1.473 255 255 255
-0.385873 0.32108 1.449 255 255 255
