ply
format ascii 1.0
comment Created by Open3D
element vertex 1329
property double x
property double y
property double z
property uchar red
property uchar green
property uchar blue
end_header
-0.586725 -0.0548241 1.543 255 255 255
-0.133656 -0.268624 1.333 0 0 0
-0.066351 0.352756 0.914 255 255 255
0.0536504 0.302701 0.958 255 255 255
0.123825 0.0298797 0.958 0 0 0
0.0659559 -0.174539 1.378 255 255 255
-1.14409 -0.497948 2.22 255 255 255
0.613686 -0.845092 3.354 255 255 255
0.948413 -0.0875098 1.865 255 255 255
0.350984 0.266834 0.725 255 255 255
0.18703 0.00578096 1.122 255 255 255
0.00375627 0.339265 0.96 0 0 0
0.18751 0.0601251 1.114 255 255 255
0.491251 -0.814101 3.231 255 255 255
0.203395 -0.0794367 1.257 255 255 255
-0.431639 0.403072 1.406 255 255 255
-0.574181 0.0810974 1.599 255 255 255
-0.138245 0.109955 1.203 255 255 255
0.111794 -0.27898 1.48 255 255 255
-0.177676 0.0745133 1.232 0 0 0
-0.189363 -0.990326 2.731 255 255 255
0.33956 0.214486 0.798 255 255 255
0.250926 -0.125729 1.409 255 255 255
-0.653811 -1.06503 2.898 255 255 255
-0.124613 0.234846 0.974 255 255 255
-0.170343 0.338931 0.991 255 255 255
0.00684581 0.154114 0.955 255 255 255
0.381543 0.201948 0.77 255 255 255
0.290003 0.265614 0.738 255 255 255
-0.453436 -0.485121 1.477 255 255 255
1.15472 -1.11966 3.248 255 255 255
0.284151 0.172559 0.854 255 255 255
-0.143286 0.331799 0.961 255 255 255
-0.460649 -0.480314 1.477 255 255 255
0.134771 0.217397 0.85 255 255 255
0.123067 0.16541 0.875 255 255 255
0.372385 0.111925 1.024 255 255 255
-0.418799 0.284701 1.409 255 255 255
-0.23668 -1.06315 2.818 0 0 0
-0.132208 0.0610865 1.167 255 255 255
0.0562624 0.0793315 0.9 255 255 255
-0.307135 -0.0389469 1.342 0 0 0
0.0433643 0.073963 0.906 255 255 255
0.0505685 0.189428 0.93 255 255 255
0.899319 -0.55987 2.996 0 0 0
-0.0658862 0.167683 1.106 255 255 255
0.330306 -0.0246689 1.281 255 255 255
-0.502561 -0.498189 1.473 255 255 255
-0.414873 -0.146777 1.587 255 255 255
0.232776 0.275418 0.755 255 255 255
-0.0358751 0.0884082 0.934 255 255 255
0.0582304 -0.975409 2.884 255 255 255
0.254162 -0.343903 1.603 0 0 0
-0.0867748 0.131531 1.12 255 255 255
-0.0424277 0.175691 0.98 255 255 255
0.709656 -0.208691 1.978 0 0 0
-0.0293327 0.27937 0.969 255 255 255
-0.457633 -0.185048 1.583 255 255 255
-0.551689 0.437512 1.509 255 255 255
-0.060095 -0.192932 1.291 255 255 255
0.172661 -0.954783 2.996 255 255 255
-0.8064 0.24866 1.753 255 255 255
0.388677 0.0891361 1.05 255 255 255
0.201898 -1.01784 2.925 255 255 255
-0.586108 0.496938 1.387 0 0 0
-0.862844 0.287444 1.633 255 255 255
1.28489 -0.688505 2.805 255 255 255
-0.111462 -0.0364721 1.13 255 255 255
-0.0661245 -0.0773723 1.11 255 255 255
0.14064 0.154547 0.878 255 255 255
0.131849 0.312472 0.849 255 255 255
-0.175255 0.221944 1.081 255 255 255
-0.603815 0.146959 1.637 255 255 255
-0.618614 0.494945 1.369 255 255 255
-0.106379 0.318091 0.939 255 255 255
0.226826 -0.398556 1.691 0 0 0
0.260124 0.104659 0.972 0 0 0
-0.591287 -0.00970154 1.555 255 255 255
0.158238 0.315527 0.821 255 255 255
0.203079 0.0628275 1.13 255 255 255
0.0160566 -0.86696 2.898 255 255 255
0.344868 0.0218234 1.201 255 255 255
-0.354276 0.0228468 1.381 0 0 0
-0.0592503 -0.100921 1.152 0 0 0
-0.764286 0.379265 1.502 255 255 255
-0.253473 0.000352042 1.302 255 255 255
-0.854377 -0.971666 3.248 255 255 255
0.391717 0.0401116 1.112 255 255 255
0.797877 0.0232546 1.559 255 255 255
-0.735911 0.429891 1.419 255 255 255
0.306378 0.118946 0.999 255 255 255
0.438638 -0.0197233 1.372 255 255 255
0.0580338 0.001911 1.007 0 0 0
-0.741897 0.371776 1.563 0 0 0
0.318034 0.122932 1.005 255 255 255
-0.076653 0.25414 0.969 255 255 255
-0.684836 0.0218737 1.646 255 255 255
-0.264377 0.0990011 1.189 255 255 255
0.134023 0.174377 0.863 255 255 255
-0.474975 -0.172392 1.539 255 255 255
-0.454636 -0.275352 1.513 255 255 255
-0.46819 0.219427 1.463 255 255 255
-0.880593 0.220132 1.753 255 255 255
0.691043 0.0565569 1.381 255 255 255
-0.178069 -0.215946 1.278 255 255 255
-0.0539301 -0.854695 2.857 255 255 255
0.387325 -0.821398 3.198 255 255 255
0.333702 0.256353 0.739 255 255 255
-0.323433 0.08584 1.222 255 255 255
0.136244 0.27564 0.842 255 255 255
-0.159739 -0.0185634 1.16 255 255 255
1.16446 -1.19793 3.231 255 255 255
0.0575372 0.243232 0.945 255 255 255
0.206408 0.260348 0.776 0 0 0
1.04409 -0.520167 2.884 255 255 255
-0.295429 0.0153818 1.319 255 255 255
-0.0772644 -0.204382 1.297 255 255 255
0.0771946 0.0710484 0.888 255 255 255
-0.593819 -0.131165 1.555 255 255 255
0.0359904 0.116719 0.906 255 255 255
0.92036 -0.944011 3.318 255 255 255
-0.714887 -0.155964 1.629 0 0 0
-0.130883 -0.317668 1.396 255 255 255
0.0582405 0.140619 0.908 0 0 0
-0.434355 0.105179 1.4 255 255 255
0.771422 -0.872852 3.215 0 0 0
0.0396982 0.234595 0.96 0 0 0
0.310613 0.246257 0.756 255 255 255
1.51218 -1.0268 3.609 255 255 255
-0.0222868 0.0903132 0.938 255 255 255
-0.460448 -0.191802 1.575 255 255 255
0.150644 0.148832 0.878 255 255 255
0.377561 0.0642688 1.092 255 255 255
-0.397502 0.318108 1.375 255 255 255
-0.610621 0.0160449 1.599 255 255 255
0.00534486 -0.217478 1.366 0 0 0
0.0803561 0.0495392 0.891 255 255 255
0.14546 0.239872 0.832 255 255 255
0.813434 -0.169549 1.972 255 255 255
1.04416 -1.18964 3.266 255 255 255
-1.09865 -0.614709 2.173 255 255 255
-0.921447 -0.480308 2.189 255 255 255
0.430966 -0.18841 1.682 0 0 0
0.490102 -0.386236 2.085 255 255 255
-0.304148 0.293023 1.249 255 255 255
0.0463139 0.131463 0.906 255 255 255
-1.13325 -0.497948 2.22 255 255 255
0.259935 -0.0670345 1.294 0 0 0
0.950049 -0.99834 3.165 0 0 0
-1.09493 -0.343106 2.347 255 255 255
0.294326 0.252508 0.749 255 255 255
-0.716642 -0.0766239 1.633 0 0 0
0.360953 0.271646 0.719 255 255 255
-0.320257 0.112564 1.21 0 0 0
0.938131 -0.552873 3.011 0 0 0
-1.08282 -0.764738 2.128 255 255 255
0.174808 0.278466 0.799 255 255 255
0.0524436 0.0579999 0.91 255 255 255
0.0152156 0.302753 0.994 255 255 255
-0.0837905 -1.02627 2.768 255 255 255
-0.218032 0.261655 1.139 255 255 255
0.557399 -0.196804 1.837 255 255 255
0.637431 -0.273396 2.004 255 255 255
-0.014319 -0.110869 1.158 255 255 255
-0.0846482 -0.086871 1.116 255 255 255
0.0245926 0.126146 0.921 255 255 255
0.990574 -0.992607 3.318 0 0 0
-0.990909 0.123341 1.887 255 255 255
-0.17741 0.0982091 1.203 0 0 0
-0.104344 -0.145648 1.196 255 255 255
-0.321612 0.326863 1.278 255 255 255
0.302811 0.0629856 1.167 255 255 255
-1.00325 0.0243146 2.085 255 255 255
0.0838516 0.0935332 0.882 0 0 0
0.0766306 -0.0940565 1.137 255 255 255
-0.261089 -0.207418 1.33 255 255 255
-0.814455 0.284301 1.71 255 255 255
-0.0153553 0.205023 0.983 255 255 255
-0.147406 -0.0756482 1.167 255 255 255
-0.523545 -0.237049 1.52 255 255 255
0.807352 0.0110102 1.624 255 255 255
1.16818 -0.722519 3.198 255 255 255
0.511184 -0.0862771 1.567 255 255 255
0.143438 0.296803 0.836 255 255 255
0.0704013 0.0176986 0.974 255 255 255
1.18645 -0.881811 3.248 255 255 255
0.282107 0.0161727 1.217 255 255 255
0.77934 -0.924095 3.248 0 0 0
0.0732971 -0.15319 1.348 255 255 255
0.237226 0.106928 0.95 0 0 0
0.300408 -0.0287706 1.278 255 255 255
1.5295 -1.21584 3.527 0 0 0
0.383207 0.187887 0.887 255 255 255
-0.663027 0.119417 1.7 255 255 255
-0.521861 -0.108491 1.487 255 255 255
-0.0803445 -0.962384 2.805 255 255 255
0.113097 0.316345 0.875 255 255 255
0.242143 -0.935064 3.011 255 255 255
0.0395417 0.0421687 0.92 255 255 255
0.308534 -1.11219 2.898 255 255 255
0.464181 -1.09395 3.086 255 255 255
-0.478111 -0.386161 1.494 255 255 255
0.239581 0.260269 0.761 255 255 255
0.10491 0.238846 0.878 255 255 255
0.411127 -0.0406301 1.4 255 255 255
0.0830919 0.1593 0.905 255 255 255
0.195375 0.0627163 1.128 255 255 255
-0.318811 -0.218802 1.403 255 255 255
0.348161 0.0729531 1.089 255 255 255
1.13418 -0.582272 3.011 0 0 0
0.303275 0.280615 0.721 255 255 255
-0.560098 -0.141691 1.532 255 255 255
0.153294 0.0897828 0.902 255 255 255
-0.102736 0.0868474 1.156 255 255 255
-1.06437 -0.350745 2.347 255 255 255
-0.414368 -0.168282 1.595 255 255 255
0.877152 -0.884617 3.318 255 255 255
-0.191436 -0.127135 1.205 255 255 255
-0.0711105 -0.434926 1.583 255 255 255
0.357402 -0.204618 1.575 0 0 0
0.0234892 -0.247907 1.387 255 255 255
-0.681689 -0.0989399 1.607 255 255 255
0.979657 -0.748268 3.336 0 0 0
0.00992365 0.15363 0.952 255 255 255
0.26692 0.23388 0.772 255 255 255
0.115492 0.0941085 0.861 255 255 255
-0.777076 -1.01892 3.149 255 255 255
-0.601795 -0.213015 1.543 255 255 255
0.670962 -0.256192 1.997 255 255 255
-0.581668 0.207557 1.591 255 255 255
-0.0637434 -0.339066 1.419 255 255 255
-0.157549 -0.901905 2.719 255 255 255
-0.580534 0.226248 1.595 255 255 255
1.11712 -0.829874 3.231 255 255 255
0.247883 0.193856 0.804 0 0 0
-0.46021 -0.138679 1.583 255 255 255
-0.222023 -0.298331 1.412 255 255 255
1.15102 -0.318191 2.278 255 255 255
-0.194129 -0.220001 1.302 255 255 255
-0.987897 0.126814 1.893 255 255 255
-0.820241 0.265717 1.734 255 255 255
0.118707 0.197075 0.864 255 255 255
0.30286 0.252508 0.749 255 255 255
-0.169512 0.27116 1.015 255 255 255
0.98025 -0.865954 3.248 255 255 255
0.356611 0.0269489 1.169 255 255 255
-0.302576 0.122014 1.187 0 0 0
-0.0621897 -0.256184 1.336 255 255 255
-0.989293 -0.791053 2.143 255 255 255
0.276374 0.174451 0.843 255 255 255
-0.0659118 0.135244 1.077 255 255 255
0.661561 0.0236409 1.429 255 255 255
-0.42704 -0.0433582 1.494 255 255 255
0.171991 0.0092141 1.096 255 255 255
0.248882 0.196229 0.803 0 0 0
0.970657 -1.1065 3.165 255 255 255
-0.181016 0.305225 1.024 255 255 255
0.717561 -0.223022 1.991 255 255 255
0.0762193 -0.265328 1.445 255 255 255
-0.42073 -0.374075 1.524 0 0 0
-0.40828 -0.971305 2.831 255 255 255
0.497458 0.197983 0.972 255 255 255
0.134771 0.216014 0.85 255 255 255
-0.786177 -1.03439 3.165 255 255 255
0.0405627 -0.164889 1.354 255 255 255
0.209573 -0.167396 1.473 0 0 0
-0.591287 -0.00717104 1.555 255 255 255
-0.099692 0.28861 0.963 255 255 255
-0.224624 -0.249155 1.345 255 255 255
0.0649518 -0.0318442 1.039 255 255 255
-0.503679 0.0444913 1.505 255 255 255
-0.572057 -0.259993 1.524 255 255 255
-1.14862 -0.443618 2.294 255 255 255
0.264417 0.282044 0.737 255 255 255
-0.676647 0.396687 1.571 255 255 255
-0.700655 0.370442 1.579 255 255 255
0.330062 0.205288 0.813 255 255 255
0.386097 0.105362 1.025 0 0 0
0.280916 -1.09181 2.857 255 255 255
0.593884 0.100172 1.252 255 255 255
-0.555933 -0.40318 1.494 255 255 255
0.09795 0.0834772 0.867 255 255 255
0.0264884 0.290844 0.992 255 255 255
-0.901372 -0.491065 2.158 255 255 255
0.156221 -0.157157 1.403 255 255 255
0.229824 0.104828 0.945 255 255 255
-0.374295 -0.989773 2.818 255 255 255
-0.10824 -0.856785 2.818 255 255 255
0.0690304 0.25408 0.934 255 255 255
-0.0957582 0.334422 0.925 255 255 255
0.133386 0.17115 0.868 255 255 255
0.506725 0.000380162 1.406 0 0 0
-0.294218 -0.240614 1.384 255 255 255
0.365524 -1.0514 2.939 255 255 255
-0.612715 -0.135072 1.571 255 255 255
1.46766 -1.1866 3.41 0 0 0
-0.736422 0.410731 1.466 255 255 255
-0.322447 -0.309046 1.419 255 255 255
0.414412 -0.0871203 1.494 255 255 255
-0.0964446 -0.123547 1.171 255 255 255
0.0800578 -0.157928 1.351 255 255 255
0.326101 0.104848 1.02 0 0 0
0.254361 0.131567 0.917 255 255 255
0.409235 -0.241507 1.729 255 255 255
0.436101 0.148333 0.91 0 0 0
-0.309014 -0.163656 1.4 255 255 255
0.157284 0.258706 0.823 255 255 255
0.449176 -0.914001 3.231 255 255 255
0.465482 -0.0749642 1.494 255 255 255
0.330253 -0.97342 3.102 255 255 255
-0.934463 0.119808 1.929 255 255 255
-0.238634 0.28298 1.158 255 255 255
-0.213331 0.228944 1.124 255 255 255
0.131816 0.0628543 0.916 0 0 0
0.0284079 -0.164913 1.302 255 255 255
-0.992312 -0.714129 2.196 255 255 255
0.88551 -0.184697 1.997 255 255 255
0.242798 0.0252823 1.18 255 255 255
0.995598 -0.355132 2.143 255 255 255
-0.680793 0.0473777 1.696 255 255 255
0.0789057 0.0466393 0.891 255 255 255
0.110084 -0.0131817 1.034 255 255 255
-0.388229 0.302688 1.366 255 255 255
0.692422 0.0464688 1.416 255 255 255
0.467118 0.120089 0.995 255 255 255
-0.255374 -0.255828 1.369 255 255 255
0.131312 0.165032 0.873 255 255 255
-0.16343 0.125408 1.201 255 255 255
-0.338195 0.23272 1.31 255 255 255
-0.502496 -0.0116971 1.487 255 255 255
0.0799052 0.0939574 0.886 255 255 255
-0.00854106 -0.327255 1.459 255 255 255
0.620108 -0.735046 3.301 255 255 255
-0.697256 0.401798 1.532 0 0 0
-0.827935 -0.701224 2.114 255 255 255
-0.668146 -0.921892 2.392 255 255 255
0.612218 -0.687911 3.231 255 255 255
0.320957 0.22383 0.772 0 0 0
0.906351 -0.238938 2.044 255 255 255
-0.459605 -0.538764 1.466 0 0 0
0.76544 -0.135032 1.893 255 255 255
-0.392676 0.324917 1.366 255 255 255
-0.674642 -0.998341 3.198 255 255 255
-0.00610577 -0.0540317 1.043 0 0 0
-0.361989 0.472575 1.319 255 255 255
0.0112845 -0.843999 2.884 255 255 255
0.235633 0.16906 0.83 255 255 255
0.00555167 0.274209 1.002 0 0 0
1.22061 -1.19584 3.283 255 255 255
-1.00663 0.0782986 1.991 255 255 255
-0.868226 0.237499 1.734 255 255 255
0.865448 -0.100237 1.876 255 255 255
0.251437 0.266981 0.752 255 255 255
-0.653232 -0.0982011 1.595 255 255 255
0.871295 -1.00348 2.967 255 255 255
0.115288 -0.375929 1.595 0 0 0
0.0986665 -0.090197 1.135 255 255 255
1.34745 -0.992332 3.429 255 255 255
0.212891 0.133818 0.912 255 255 255
-0.626679 0.507095 1.348 255 255 255
0.421356 -0.101536 1.528 255 255 255
0.283571 -0.276768 1.607 255 255 255
1.28774 -0.695605 2.743 0 0 0
-0.122566 0.312055 0.958 255 255 255
0.221494 0.140254 0.887 0 0 0
0.17086 -0.176623 1.47 255 255 255
0.802496 -0.0214935 1.686 255 255 255
-0.837723 -0.750195 2.166 255 255 255
-0.0921403 0.275361 0.966 255 255 255
0.350633 0.0216962 1.194 255 255 255
-0.60614 0.500529 1.366 255 255 255
-0.605476 0.486703 1.39 255 255 255
0.31906 -0.228494 1.563 255 255 255
-0.481829 -0.136108 1.498 255 255 255
-0.795329 -0.780796 3.181 255 255 255
0.163621 -0.852269 3.102 255 255 255
-0.543194 0.0586219 1.555 255 255 255
-1.10218 -0.618245 2.173 255 255 255
0.340476 0.248059 0.754 255 255 255
0.54785 -0.0453603 1.48 255 255 255
-0.0984924 -0.226385 1.327 255 255 255
-0.163067 -0.313665 1.419 255 255 255
-0.789871 0.297343 1.705 255 255 255
0.149219 0.0855685 0.904 255 255 255
-0.434355 0.107457 1.4 255 255 255
-1.1068 -0.2179 2.356 255 255 255
0.307192 0.227966 0.769 255 255 255
0.205018 0.135005 0.91 255 255 255
-0.259629 0.264509 1.185 255 255 255
0.272946 -1.11585 2.871 255 255 255
-0.0567488 -0.287767 1.362 255 255 255
-0.271574 -0.0584708 1.339 255 255 255
-0.356356 0.213339 1.322 255 255 255
-0.455165 -0.808398 2.925 255 255 255
1.16644 -1.19496 3.266 255 255 255
0.400225 0.107239 1.027 255 255 255
0.74652 -1.08681 3.198 255 255 255
0.821286 -1.0313 2.844 255 255 255
0.150699 -0.0556963 1.11 255 255 255
-0.0636816 0.238222 0.988 255 255 255
-0.664543 -0.201518 1.591 0 0 0
1.0022 -0.374391 2.561 0 0 0
0.225989 0.0120713 1.203 255 255 255
-0.371004 0.411268 1.336 255 255 255
-0.13808 0.263135 0.991 255 255 255
0.435376 0.198087 0.921 0 0 0
0.0404012 0.299165 0.977 255 255 255
-0.0263271 -0.00478223 1.037 255 255 255
-0.165661 -0.156289 1.203 0 0 0
-0.0139791 0.283142 0.999 0 0 0
0.472987 -0.00636862 1.381 0 0 0
0.846501 -0.210695 1.997 255 255 255
-0.565162 -0.222481 1.539 255 255 255
-0.139969 -0.32752 1.419 255 255 255
0.308054 -0.957656 3.133 255 255 255
-0.546685 -0.383341 1.502 255 255 255
-0.287016 0.0152768 1.31 255 255 255
0.198285 0.114032 0.92 255 255 255
0.234211 0.209036 0.802 255 255 255
-0.639494 0.49386 1.366 255 255 255
0.71512 -0.830622 3.318 255 255 255
0.112175 -0.0345355 1.07 255 255 255
-0.553132 0.46523 1.48 255 255 255
-0.00693705 -0.136595 1.185 0 0 0
0.750916 -0.0796283 1.758 255 255 255
-0.278113 0.0495511 1.26 255 255 255
-1.04201 -0.811507 2.151 255 255 255
1.46821 -0.920796 3.631 0 0 0
-0.197168 0.382924 0.988 255 255 255
0.284432 -0.0475996 1.281 255 255 255
0.233355 0.132791 0.905 0 0 0
-0.0637714 -0.366351 1.473 255 255 255
0.308905 0.0471129 1.198 255 255 255
-0.071204 -0.207289 1.302 255 255 255
-0.477802 -0.189059 1.532 255 255 255
-0.302177 -0.0195364 1.359 0 0 0
-0.401992 -0.132178 1.567 255 255 255
0.222547 0.223466 0.793 255 255 255
-0.683057 -1.07581 2.768 255 255 255
-0.507284 0.475249 1.459 255 255 255
0.0836615 0.0618161 0.88 255 255 255
-0.00129094 -0.181446 1.33 255 255 255
0.575575 0.112988 1.154 0 0 0
0.340342 0.162934 0.877 255 255 255
0.306048 -0.797471 3.165 255 255 255
-0.32603 -0.0570485 1.357 255 255 255
0.0710909 0.106692 0.884 255 255 255
-0.0535053 -0.316985 1.393 255 255 255
-0.456221 -0.312458 1.502 255 255 255
0.286023 -0.161401 1.484 0 0 0
-1.20186 -0.396638 2.303 255 255 255
-0.129943 -0.0594193 1.147 255 255 255
-0.0559377 0.0629044 0.939 255 255 255
0.144626 0.22579 0.835 255 255 255
0.310201 0.241974 0.758 255 255 255
0.824452 -0.0105188 1.686 255 255 255
-0.56014 0.196776 1.567 255 255 255
-0.714255 0.108318 1.744 255 255 255
0.351956 -0.148496 1.551 0 0 0
-0.000924042 0.347282 0.952 255 255 255
0.0492984 -0.875586 2.911 255 255 255
0.0383713 -1.00347 2.805 0 0 0
-0.164894 -0.792034 2.768 0 0 0
0.37784 0.089893 1.039 255 255 255
-0.246274 0.135854 1.141 255 255 255
-0.45577 -0.215224 1.559 255 255 255
-0.975571 0.129894 1.893 255 255 255
-0.517232 -0.226557 1.516 255 255 255
0.473515 0.0454272 1.205 255 255 255
-0.909645 0.122565 1.923 255 255 255
-0.309449 0.439083 1.254 255 255 255
-0.164299 0.0818628 1.222 255 255 255
0.561519 -0.742839 3.336 255 255 255
-0.507294 -0.36428 1.494 255 255 255
0.056091 -0.238588 1.412 255 255 255
-0.738509 0.175161 1.789 255 255 255
0.179754 0.151379 0.86 255 255 255
-0.55511 0.41925 1.532 255 255 255
0.267885 0.243889 0.764 255 255 255
-0.293231 -0.268801 1.39 255 255 255
-0.543646 -0.466627 1.487 0 0 0
-0.0633289 -0.103331 1.158 255 255 255
-0.475918 0.514311 1.429 255 255 255
-0.379224 0.375989 1.342 255 255 255
0.0462661 -0.224043 1.393 0 0 0
-0.223987 0.273255 1.141 255 255 255
-0.640845 -0.204098 1.571 255 255 255
-0.517345 0.415928 1.502 255 255 255
0.172831 0.243472 0.808 0 0 0
-0.369691 -0.0602015 1.432 255 255 255
-0.625126 -0.0330608 1.583 255 255 255
-0.575044 0.408879 1.559 255 255 255
0.712921 -0.853916 3.283 255 255 255
-0.016162 0.340285 0.937 255 255 255
-0.523597 -0.334443 1.513 255 255 255
0.267876 -0.308149 1.607 255 255 255
0.735615 -1.04577 2.871 255 255 255
-0.648639 0.411416 1.559 255 255 255
1.48919 -1.10223 3.568 0 0 0
-0.38788 0.428774 1.357 255 255 255
-0.837789 0.245807 1.753 255 255 255
-0.613428 -0.213567 1.547 255 255 255
0.881594 -0.108327 1.911 255 255 255
-0.948942 -0.108012 2.085 255 255 255
-0.16343 0.11759 1.201 255 255 255
0.236104 0.204323 0.804 255 255 255
-1.08258 -0.694343 2.114 255 255 255
0.23552 0.187626 0.811 0 0 0
-0.214935 0.344835 1.043 255 255 255
0.168607 0.284669 0.813 255 255 255
0.290685 0.171171 0.861 255 255 255
0.0814739 0.322134 0.92 255 255 255
0.0206736 -0.998875 2.884 255 255 255
0.174078 -0.177464 1.477 255 255 255
0.0483585 -0.291041 1.456 255 255 255
0.27618 0.18482 0.822 255 255 255
-0.346959 0.225734 1.319 255 255 255
-0.294797 0.367731 1.227 255 255 255
-0.205752 -0.146022 1.232 255 255 255
0.239596 0.24924 0.769 255 255 255
-0.718817 0.430713 1.445 255 255 255
-0.524065 -0.998752 2.911 255 255 255
-1.23629 -0.213248 2.347 255 255 255
0.268646 0.10871 0.98 0 0 0
0.348696 -0.156873 1.559 0 0 0
-0.0216231 0.138585 0.977 255 255 255
1.10714 -1.13023 3.248 255 255 255
-0.680246 -0.0600476 1.616 255 255 255
-0.948942 -0.104619 2.085 255 255 255
0.287887 0.0219506 1.208 255 255 255
0.607108 -0.0634886 1.571 255 255 255
0.199085 0.294823 0.777 255 255 255
-0.43612 -0.836958 2.925 255 255 255
0.0551904 -0.0013773 1.015 255 255 255
-0.16457 0.306104 1.005 255 255 255
0.203697 0.235673 0.795 255 255 255
-0.457053 -0.171306 1.599 255 255 255
-0.81136 0.162365 1.842 255 255 255
-0.10223 -0.412448 1.547 0 0 0
1.51507 -0.957215 3.547 255 255 255
0.139356 0.232862 0.836 255 255 255
-1.17322 -0.250471 2.374 255 255 255
-0.684844 0.351415 1.659 255 255 255
-0.577019 -0.267433 1.524 255 255 255
0.510675 -0.0428648 1.477 0 0 0
0.303748 0.0559113 1.178 255 255 255
-0.445214 0.441744 1.435 255 255 255
0.216207 0.141519 0.895 0 0 0
1.39382 -0.88795 3.547 0 0 0
-1.11819 -0.0307062 2.136 255 255 255
1.40923 -0.809153 2.844 0 0 0
-0.539272 0.0408032 1.551 255 255 255
-0.297114 -0.270478 1.387 255 255 255
0.468917 -0.135087 1.633 0 0 0
-0.0309101 0.280947 0.969 255 255 255
0.907641 -0.51326 2.898 0 0 0
1.3675 -0.538457 2.672 255 255 255
-0.92518 -0.542438 2.181 255 255 255
-0.445146 -0.971305 2.831 255 255 255
0.392667 -0.202032 1.659 0 0 0
0.113299 -0.114129 1.234 255 255 255
0.21308 0.0812412 0.939 0 0 0
-0.478111 -0.376437 1.494 255 255 255
0.345546 0.275944 0.709 255 255 255
1.53795 -0.98637 3.507 255 255 255
0.42257 0.203143 0.897 255 255 255
-0.492895 -0.358898 1.502 255 255 255
0.512492 -0.0065577 1.422 0 0 0
-0.519699 0.303855 1.516 255 255 255
-0.0191715 0.0443778 0.935 255 255 255
-0.0399991 0.292398 0.96 255 255 255
-1.20187 -0.22964 2.44 255 255 255
-0.021345 -0.00649473 1.041 255 255 255
-0.591748 -0.177862 1.543 255 255 255
0.0783082 0.291556 0.918 255 255 255
-0.0823942 0.164692 1.135 255 255 255
-0.500391 -0.984874 2.857 255 255 255
0.90321 -0.0729452 1.805 0 0 0
0.00754832 -0.0579769 1.053 255 255 255
-0.176536 -0.209964 1.267 255 255 255
0.324372 0.0322795 1.227 255 255 255
-0.174431 -0.1184 1.196 255 255 255
-0.1071 0.0110779 1.104 255 255 255
0.0426897 -0.268612 1.425 255 255 255
0.326074 -0.0311159 1.289 255 255 255
0.0322169 0.371212 0.97 0 0 0
0.889719 -0.0420994 1.744 255 255 255
0.180219 0.168785 0.849 255 255 255
0.12127 0.0227764 0.988 0 0 0
0.326541 0.246505 0.753 255 255 255
-0.0467243 -0.111731 1.167 0 0 0
0.0185958 0.0512072 0.921 0 0 0
-0.61718 0.472902 1.396 255 255 255
-0.00337537 -0.172989 1.299 255 255 255
1.62278 -1.02675 3.568 255 255 255
-0.137212 -0.940746 2.755 255 255 255
0.636384 -0.071309 1.633 255 255 255
-1.06461 -0.355924 2.356 255 255 255
-0.344066 0.355821 1.308 255 255 255
-0.187246 -0.169667 1.229 255 255 255
0.100416 0.115309 0.852 255 255 255
0.154642 -1.08684 2.844 255 255 255
-0.139624 0.202003 1.215 255 255 255
-0.321051 0.106921 1.213 0 0 0
-0.497897 0.5084 1.432 255 255 255
0.122358 0.233949 0.86 255 255 255
-0.100244 0.106889 1.149 255 255 255
-0.280292 -0.182673 1.339 0 0 0
0.692365 -0.15917 1.887 255 255 255
0.223959 -0.181778 1.473 0 0 0
-0.705313 -0.803688 3.149 255 255 255
0.262695 0.241102 0.767 255 255 255
-0.545327 -0.332675 1.505 255 255 255
-0.277925 0.0336212 1.278 0 0 0
-0.0324828 0.340075 0.924 255 255 255
0.458151 0.0938729 1.085 255 255 255
0.0224118 -0.0972419 1.11 0 0 0
-0.6166 -0.237446 1.555 255 255 255
-0.665878 -1.0448 3.181 255 255 255
-0.457734 -0.458176 1.491 255 255 255
-0.748897 0.354877 1.567 0 0 0
-0.559445 0.516089 1.366 0 0 0
-1.11836 -0.567861 2.143 255 255 255
-0.657554 -0.795521 3.117 255 255 255
0.07882 0.323535 0.924 255 255 255
-0.482157 0.232237 1.484 255 255 255
-1.05418 -0.52159 2.244 255 255 255
-0.0415073 0.332557 0.924 255 255 255
-0.164299 -0.18262 1.222 0 0 0
0.337587 0.206357 0.812 0 0 0
-0.101668 0.0309813 1.048 255 255 255
0.247111 0.222339 0.789 255 255 255
-0.468383 -0.40318 1.494 255 255 255
0.286743 0.0103995 1.237 255 255 255
-0.893489 -0.837488 2.173 255 255 255
0.882637 -0.0609924 1.799 0 0 0
-0.00417975 0.222368 0.989 255 255 255
0.772175 -1.00836 2.939 255 255 255
-0.803857 0.298806 1.682 255 255 255
0.00101402 -0.378739 1.543 255 255 255
0.154792 0.313998 0.824 255 255 255
-0.646424 0.326902 1.7 255 255 255
0.614999 0.0707036 1.31 0 0 0
-0.264622 -0.0193783 1.348 255 255 255
0.157284 0.320313 0.823 255 255 255
-0.374017 0.346822 1.339 255 255 255
-0.0408324 0.188449 0.98 255 255 255
-0.0890875 0.230011 0.967 0 0 0
-0.549667 0.259196 1.559 255 255 255
0.239832 0.272599 0.754 255 255 255
0.0713112 -0.994277 2.844 255 255 255
-0.355406 0.0765092 1.265 255 255 255
1.47631 -0.828718 3.354 255 255 255
-0.0435378 -0.385461 1.52 255 255 255
-0.843324 0.285461 1.668 255 255 255
0.144173 0.139436 0.891 255 255 255
0.19673 0.247985 0.793 255 255 255
0.686222 -0.162241 1.887 255 255 255
0.134713 0.25889 0.841 255 255 255
-0.190614 0.344807 1.013 255 255 255
0.371864 0.241087 0.763 255 255 255
0.225825 0.240727 0.782 255 255 255
-0.169879 0.366204 0.961 255 255 255
1.19009 -0.940866 3.215 0 0 0
0.0306063 0.372406 0.969 0 0 0
-0.53625 0.00538627 1.528 255 255 255
-0.732592 0.335277 1.633 255 255 255
0.367709 -0.0757894 1.463 255 255 255
0.245917 0.0504416 1.141 255 255 255
0.940531 -0.35235 2.236 255 255 255
0.805773 -1.00857 3.086 0 0 0
0.0679665 -0.29384 1.47 255 255 255
-0.0920121 -0.260936 1.327 255 255 255
-0.0478624 0.281755 0.961 255 255 255
-0.672354 -0.0206012 1.616 255 255 255
2.03167 -1.44035 4.008 255 255 255
-1.06344 -0.786086 2.057 255 255 255
0.384475 0.0123824 1.234 255 255 255
0.0326809 0.181899 0.938 255 255 255
-0.490833 -0.946184 2.939 255 255 255
-0.723389 0.372727 1.567 255 255 255
-0.517598 -0.840181 3.04 255 255 255
0.840717 -0.190622 1.991 255 255 255
-0.583183 0.513759 1.354 255 255 255
1.22061 -0.84323 3.283 255 255 255
-0.812692 0.223725 1.805 255 255 255
1.2231 -1.21981 3.165 255 255 255
0.366944 -1.04365 3.071 255 255 255
0.162641 0.071897 0.957 255 255 255
0.525453 0.0967396 1.185 255 255 255
0.379248 0.252632 0.753 255 255 255
0.206405 0.172175 0.832 0 0 0
-0.673166 0.34704 1.677 255 255 255
0.401603 0.149958 1.022 255 255 255
-0.730385 -0.200449 1.646 255 255 255
0.299434 0.239531 0.762 255 255 255
0.0952025 0.107366 0.855 255 255 255
1.49453 -1.0747 3.652 0 0 0
0.129645 -0.0355038 1.1 255 255 255
-0.511377 0.0750099 1.528 255 255 255
0.360164 0.248852 0.749 0 0 0
0.184923 0.146838 0.858 255 255 255
-0.0084902 0.0897355 0.932 255 255 255
0.359347 -1.15316 2.967 255 255 255
0.349934 0.0729531 1.089 255 255 255
-0.190909 0.237982 1.09 255 255 255
0.414412 -0.0846891 1.494 255 255 255
0.0861597 0.115259 0.862 255 255 255
0.136568 0.22685 0.844 255 255 255
0.316567 0.27105 0.73 255 255 255
-0.734412 0.041611 1.686 255 255 255
0.0203869 -1.00353 2.844 255 255 255
-0.0417596 -0.0370587 1.043 0 0 0
0.6548 -0.354106 2.158 255 255 255
-0.485777 0.132236 1.473 255 255 255
-0.0323422 0.0571402 0.92 255 255 255
0.28036 0.217379 0.785 0 0 0
-0.00570965 -0.210693 1.351 0 0 0
0.182254 0.130592 0.9 255 255 255
1.20366 -0.833549 3.266 255 255 255
-0.604998 0.260869 1.633 255 255 255
-0.441377 -0.245002 1.571 255 255 255
-0.0403182 0.157589 1.007 255 255 255
0.219426 -0.0567758 1.21 255 255 255
1.31247 -0.501566 2.684 0 0 0
0.724333 -1.07053 2.939 255 255 255
-0.192326 -0.18259 1.249 255 255 255
-0.134605 0.338219 0.944 255 255 255
0.474935 0.0989871 1.083 0 0 0
0.783831 -0.14656 1.923 255 255 255
0.0578417 0.287806 0.95 255 255 255
-0.383113 0.366702 1.348 255 255 255
-1.07557 -0.719474 2.107 255 255 255
-0.470571 -0.0853126 1.463 255 255 255
0.402173 0.131272 1.032 255 255 255
0.742074 -0.0232884 1.62 255 255 255
-0.494021 -0.367693 1.498 255 255 255
0.349839 0.256795 0.73 255 255 255
-0.776511 0.374376 1.502 255 255 255
0.107602 0.103072 0.854 255 255 255
-0.395088 0.0401752 1.359 255 255 255
-0.214935 0.300705 1.043 255 255 255
-0.00703071 -0.142348 1.201 0 0 0
0.353135 0.265204 0.727 255 255 255
-0.521738 0.52288 1.396 255 255 255
0.311497 -0.173135 1.502 0 0 0
0.506287 0.130718 1.002 255 255 255
-0.494236 0.179108 1.484 255 255 255
0.290751 0.240771 0.762 255 255 255
-0.60744 -0.229263 1.551 255 255 255
-0.785813 0.0643518 1.784 255 255 255
-0.118101 0.336516 0.935 255 255 255
-0.796182 0.181258 1.821 255 255 255
-0.0318989 0.14673 1 255 255 255
0.326839 -0.151267 1.528 0 0 0
1.10501 -0.672089 3.181 255 255 255
0.892724 -0.0944327 1.882 0 0 0
0.788478 -0.108055 1.853 0 0 0
0.341035 0.0941428 1.03 255 255 255
1.14241 -0.43551 2.459 255 255 255
1.2231 -1.20951 3.165 255 255 255
1.53568 -1.1149 3.609 0 0 0
-0.211125 0.259576 1.122 255 255 255
-0.540663 0.144659 1.555 255 255 255
-0.219255 0.0683319 1.229 255 255 255
1.0683 -0.234906 2.128 255 255 255
-0.638356 0.340672 1.686 255 255 255
-0.533709 0.377605 1.535 255 255 255
0.706305 -1.23633 3.181 255 255 255
-0.703833 0.322314 1.705 255 255 255
-1.01817 -0.340421 2.303 255 255 255
-0.482683 -0.196953 1.516 255 255 255
-0.00560818 0.0220848 0.958 255 255 255
-0.298995 -1.04252 2.982 0 0 0
-0.729429 0.156371 1.774 255 255 255
-0.101668 0.0326867 1.048 255 255 255
0.222669 0.128615 0.928 255 255 255
-0.121923 0.329487 0.941 255 255 255
-0.107402 -0.0345106 1.126 255 255 255
0.0959245 0.336009 0.901 255 255 255
-0.400971 0.277999 1.387 255 255 255
0.316637 0.0921974 1.027 255 255 255
-0.882746 0.212781 1.763 255 255 255
0.984943 -0.937879 3.354 255 255 255
0.0801956 -0.241968 1.432 255 255 255
-0.0595949 -0.168758 1.237 255 255 255
-0.285768 -1.05229 2.996 0 0 0
0.382796 0.193177 0.77 255 255 255
-0.0272112 0.321817 0.95 255 255 255
0.508963 0.0849971 1.21 255 255 255
-0.0338398 0.344591 0.92 255 255 255
1.09066 -0.804837 3.215 255 255 255
-0.177558 -0.0552743 1.178 255 255 255
-0.527404 0.312898 1.524 255 255 255
-1.16877 -0.257219 2.365 255 255 255
-0.668975 0.396687 1.571 255 255 255
-0.0391171 0.268957 0.977 255 255 255
-0.160015 -0.0204863 1.162 255 255 255
-0.448766 -0.212846 1.579 255 255 255
0.287638 -0.902953 3.248 255 255 255
0.890591 -0.267482 2.085 255 255 255
-0.685924 0.485159 1.348 255 255 255
0.298235 0.222177 0.775 0 0 0
-0.63665 -0.0854369 1.599 255 255 255
0.113605 0.084986 0.868 255 255 255
0.959098 -0.496614 2.911 0 0 0
0.583449 -1.1514 3.133 255 255 255
-0.122156 0.0790492 1.18 255 255 255
0.313522 0.266563 0.734 255 255 255
-0.337469 0.3576 1.299 255 255 255
-0.667133 -0.1109 1.591 255 255 255
0.276453 -0.984063 3.011 255 255 255
-0.416775 0.0139177 1.387 255 255 255
0.744985 -0.987479 3.283 255 255 255
-0.400025 -0.0116735 1.484 255 255 255
-1.02069 -0.0168574 2.143 255 255 255
-0.126218 0.0302536 1.083 255 255 255
0.0135155 0.00830614 0.988 255 255 255
1.56323 -0.986419 3.487 255 255 255
0.233394 0.0896387 0.947 0 0 0
1.29967 -0.658835 2.649 255 255 255
-1.03626 0.0434941 2.03 255 255 255
1.18645 -0.902953 3.248 255 255 255
-0.0883351 -0.342823 1.406 255 255 255
0.125835 -0.0372261 1.098 0 0 0
-0.296379 0.0629912 1.242 0 0 0
-0.259889 -0.00391835 1.313 255 255 255
-0.55571 -0.264258 1.52 255 255 255
0.088465 -0.873803 2.953 255 255 255
0.719704 -1.10091 3.149 0 0 0
-1.2028 -0.379376 2.312 255 255 255
0.0577627 0.180688 0.924 255 255 255
1.35355 -0.751494 2.768 255 255 255
0.673393 -0.241732 1.985 0 0 0
0.356447 0.206694 0.798 0 0 0
0.58184 0.104688 1.21 255 255 255
-0.172957 0.209849 1.16 255 255 255
-0.2254 -0.198355 1.299 255 255 255
-0.390664 0.407291 1.359 255 255 255
-0.153799 -0.896997 2.731 255 255 255
-0.727309 0.383509 1.559 0 0 0
-0.0435824 -0.0371653 1.046 0 0 0
0.247759 0.288399 0.741 0 0 0
-0.135503 0.294904 0.984 255 255 255
-0.126305 0.224468 1.013 255 255 255
0.425352 -0.819999 3.133 255 255 255
-0.995887 -0.714129 2.196 255 255 255
-0.669436 -1.02957 3.198 255 255 255
0.148242 0.171767 0.864 255 255 255
1.11674 -0.224544 2.196 255 255 255
0.0829301 -0.247834 1.439 255 255 255
-0.294856 -0.265963 1.387 255 255 255
-0.532265 -0.969363 3.011 255 255 255
-0.764351 -0.0607577 1.71 0 0 0
1.06803 -0.494396 2.898 255 255 255
0.514985 -0.972257 3.215 255 255 255
0.358765 0.0806118 1.073 255 255 255
0.239275 0.105604 0.952 0 0 0
0.449031 -0.24693 1.81 255 255 255
0.644304 0.0670486 1.322 255 255 255
-0.946819 0.107585 1.935 255 255 255
-0.721955 0.364378 1.575 255 255 255
-0.104256 -0.0648446 1.112 255 255 255
0.979483 -1.00883 3.354 255 255 255
-0.927528 -0.521351 2.212 255 255 255
-1.17626 -0.440915 2.261 255 255 255
-0.240568 0.316562 1.098 255 255 255
0.213008 0.114002 0.932 255 255 255
0.803213 -0.0328341 1.705 255 255 255
0.396819 0.00652805 1.267 255 255 255
0.226783 0.256414 0.768 255 255 255
1.33125 -1.09398 3.266 255 255 255
0.194229 -0.0734274 1.225 0 0 0
-0.0502038 0.336373 0.918 255 255 255
-1.01755 -0.564547 2.212 255 255 255
0.145623 0.122037 0.891 0 0 0
-1.06344 0.0239881 2.057 255 255 255
-0.343277 0.357128 1.305 255 255 255
0.0508503 0.0652605 0.908 255 255 255
-0.58999 0.501589 1.375 255 255 255
1.81967 -1.363 3.81 255 255 255
-1.24011 -0.289635 2.347 255 255 255
0.543162 0.0326274 1.322 255 255 255
-0.306261 0.0854888 1.217 0 0 0
0.50839 -0.308067 1.935 255 255 255
-0.744848 0.0362308 1.691 255 255 255
-0.260455 0.412215 1.13 255 255 255
1.03471 -0.52486 2.884 255 255 255
0.752041 -0.0464606 1.696 255 255 255
-0.615173 0.112946 1.646 255 255 255
-0.571309 0.150597 1.591 255 255 255
1.83828 -1.3506 3.81 255 255 255
-0.676858 0.321226 1.714 255 255 255
-0.0361938 0.195624 0.984 255 255 255
0.0990291 0.116695 0.852 255 255 255
0.511507 -0.32464 1.959 255 255 255
1.81716 -1.25308 3.741 255 255 255
-0.615835 0.000426939 1.579 255 255 255
0.303218 0.26081 0.738 255 255 255
0.364425 0.170652 0.88 255 255 255
-0.155152 0.355335 0.957 255 255 255
-0.33864 -0.268456 1.4 0 0 0
0.103373 -0.95037 2.967 255 255 255
0.310026 0.0560062 1.18 255 255 255
-0.159854 0.316362 0.986 255 255 255
-1.0172 -0.801515 2.143 255 255 255
-0.214672 -0.177812 1.273 255 255 255
-0.0459987 -0.292112 1.372 255 255 255
-1.08729 -0.335467 2.347 255 255 255
-0.0154512 -0.320427 1.439 255 255 255
-0.519699 0.392668 1.516 255 255 255
-0.480454 -0.348293 1.509 255 255 255
-0.0105549 0.206622 0.983 0 0 0
0.0108105 -0.149667 1.229 255 255 255
0.462835 0.151756 0.931 0 0 0
0.316594 0.15146 0.92 255 255 255
0.0682526 -0.951381 2.911 255 255 255
-0.0100182 -0.193568 1.339 255 255 255
-0.317102 0.0970515 1.213 255 255 255
-0.189847 -0.00761149 1.22 255 255 255
0.538828 0.050377 1.281 255 255 255
0.202657 0.232084 0.796 255 255 255
-0.0333968 0.0327221 0.95 0 0 0
0.0769812 0.284706 0.92 255 255 255
0.284514 0.23388 0.772 255 255 255
-0.649191 0.279872 1.7 255 255 255
-0.28447 0.342948 1.217 255 255 255
0.20928 0.298907 0.768 255 255 255
-0.568883 -0.35566 1.509 255 255 255
-0.247031 0.272818 1.171 255 255 255
0.239652 -0.060881 1.254 255 255 255
0.872593 -0.287382 2.158 255 255 255
0.812598 -0.998443 3.055 0 0 0
-0.0542614 0.237208 1.055 0 0 0
0.168024 -0.264801 1.509 255 255 255
-0.101849 -0.342092 1.403 255 255 255
-0.310404 -0.288135 1.396 255 255 255
-0.662202 0.330638 1.705 255 255 255
0.152781 0.205408 0.835 255 255 255
-0.513502 -0.499567 1.47 0 0 0
-0.613678 0.0431972 1.642 255 255 255
0.426686 0.0943519 1.051 255 255 255
0.0903692 0.126481 0.862 0 0 0
0.731756 -0.749672 3.248 0 0 0
-0.225981 -0.123152 1.244 255 255 255
-0.133074 -0.101447 1.158 255 255 255
0.289224 0.0104163 1.239 255 255 255
-0.663617 -0.139731 1.595 255 255 255
-0.432387 -0.282588 1.539 255 255 255
-0.658146 -0.0204864 1.607 255 255 255
-0.218148 0.20626 1.13 255 255 255
1.04859 -0.362468 2.166 255 255 255
0.676114 -0.161295 1.876 255 255 255
-0.0418667 0.0472688 0.932 255 255 255
0.0504598 0.201102 0.928 255 255 255
0.781888 -0.883315 3.215 0 0 0
-1.15988 -0.408035 2.347 255 255 255
0.0832823 -1.03071 2.78 255 255 255
-0.211501 0.223456 1.124 255 255 255
-0.593457 -0.268135 1.528 255 255 255
-0.529122 -0.427909 1.487 255 255 255
-0.230506 0.0720964 1.225 255 255 255
-0.513556 -0.378107 1.491 255 255 255
0.152279 0.163237 0.871 255 255 255
0.265575 0.0400243 1.162 255 255 255
0.338013 0.167489 0.871 255 255 255
0.0751554 0.202974 0.916 255 255 255
0.18779 -0.0202571 1.149 255 255 255
0.284017 0.220084 0.781 255 255 255
-0.476239 -0.169446 1.535 255 255 255
0.383253 0.223727 0.776 255 255 255
-0.577938 0.350836 1.595 255 255 255
-0.0685596 -0.255609 1.333 255 255 255
0.459694 -0.903485 3.231 255 255 255
-0.0255526 -1.02172 2.805 0 0 0
0.216044 0.280084 0.761 255 255 255
0.453659 0.0459724 1.169 255 255 255
-0.0210255 0.0296302 0.95 255 255 255
-0.00861909 -0.112169 1.152 0 0 0
0.38981 0.189172 0.769 0 0 0
-0.895472 -0.741837 2.204 255 255 255
-0.0268804 0.131424 0.995 255 255 255
0.226649 -0.327644 1.575 255 255 255
0.0703767 -0.231022 1.422 255 255 255
0.281342 0.159195 0.88 255 255 255
-0.649698 0.365068 1.612 255 255 255
0.726049 -0.0429791 1.668 255 255 255
0.710713 -0.20164 1.972 255 255 255
0.248312 0.251678 0.765 255 255 255
-0.161744 0.117786 1.203 255 255 255
0.0916667 0.00505448 0.981 255 255 255
0.0869308 -0.00949359 1 0 0 0
-0.59635 -0.0147625 1.555 255 255 255
-0.784818 -1.13206 3.04 255 255 255
-0.257913 -0.346249 1.459 255 255 255
-0.631257 -0.128051 1.579 255 255 255
0.304792 0.263696 0.736 255 255 255
0.122199 0.0846326 0.879 255 255 255
1.13909 -0.582272 3.011 0 0 0
-0.16064 0.335511 0.981 255 255 255
-0.669697 0.348075 1.682 255 255 255
-0.190981 0.10767 1.178 255 255 255
0.334132 0.173973 0.861 255 255 255
-0.572063 0.513445 1.359 255 255 255
0.00859389 0.237159 0.977 255 255 255
-0.2046 -0.182437 1.262 255 255 255
0.668481 0.0350214 1.419 255 255 255
-0.967226 -0.576852 2.204 255 255 255
0.323707 0.0610865 1.167 255 255 255
0.108203 -0.984168 2.967 255 255 255
-0.0211362 0.30797 0.955 255 255 255
-0.963207 0.130306 1.899 255 255 255
0.362619 0.1254 1.039 255 255 255
-0.724814 0.435246 1.429 255 255 255
0.545737 -0.0506519 1.494 255 255 255
-0.457053 -0.168704 1.599 255 255 255
-0.763493 0.400367 1.463 255 255 255
-0.549049 0.399661 1.543 255 255 255
0.191716 0.223857 0.799 255 255 255
0.0514103 0.146649 0.918 255 255 255
0.774574 -0.260426 2.03 255 255 255
0.200018 -1.07266 2.831 255 255 255
0.113485 0.323145 0.878 255 255 255
0.281685 -0.018372 1.278 255 255 255
1.00588 -0.121782 1.978 255 255 255
-0.241208 0.0648553 1.239 0 0 0
-0.350259 -0.992869 3.231 0 0 0
-0.359051 0.314927 1.324 255 255 255
-0.676769 0.0190435 1.633 255 255 255
0.570264 0.0284961 1.33 255 255 255
1.04461 -0.407818 2.615 0 0 0
-1.09071 -0.488724 2.244 255 255 255
0.507212 0.0797435 1.22 255 255 255
-0.351657 0.0506916 1.289 255 255 255
1.08738 -0.313121 2.166 255 255 255
-0.0663898 -0.253439 1.333 255 255 255
0.0446637 0.248637 0.966 255 255 255
0.0416449 -0.303409 1.47 255 255 255
0.265246 0.250033 0.76 255 255 255
0.294014 0.188636 0.827 255 255 255
0.0272615 0.0965025 0.91 0 0 0
-0.437681 -0.981096 2.755 255 255 255
-0.334092 0.190787 1.286 255 255 255
-0.34862 -1.00839 2.871 255 255 255
-1.17924 -0.183066 2.402 255 255 255
-1.01019 -0.606921 2.196 255 255 255
1.28606 -0.671889 2.911 255 255 255
0.0933008 0.348896 0.904 255 255 255
0.357921 0.0794537 1.081 255 255 255
0.365473 0.0283577 1.149 255 255 255
0.0726914 -0.210195 1.422 0 0 0
-0.0857101 0.149255 1.13 255 255 255
-0.455307 -0.45575 1.491 255 255 255
0.515998 -0.395684 2.136 255 255 255
0.0401117 0.257559 0.97 255 255 255
-0.022889 -0.200471 1.327 0 0 0
1.36564 -0.804751 3.391 255 255 255
0.900943 -1.00338 3.248 255 255 255
0.560437 -0.311439 1.997 0 0 0
0.425937 -0.187402 1.673 0 0 0
0.292781 0.154368 0.902 255 255 255
0.704318 -0.944011 3.318 0 0 0
-0.606167 0.241674 1.629 255 255 255
-0.0255837 0.0326187 0.947 255 255 255
1.6494 -1.26022 3.588 255 255 255
-0.843968 -0.816271 2.173 255 255 255
-0.740769 0.0860552 1.753 255 255 255
0.389066 0.232267 0.775 255 255 255
-1.01925 0.0892419 1.947 255 255 255
-0.163239 0.188331 1.229 255 255 255
-1.1008 -0.569482 2.136 255 255 255
-0.185543 0.109773 1.18 255 255 255
0.321329 0.203463 0.811 255 255 255
-0.527404 -0.242633 1.524 255 255 255
0.213847 0.287892 0.762 255 255 255
-0.197811 0.0848566 1.208 255 255 255
-0.00268159 -0.024912 1.032 0 0 0
0.179194 0.214549 0.813 255 255 255
0.056825 0.0579362 0.909 255 255 255
0.361782 0.220495 0.787 255 255 255
-0.140857 -0.0393281 1.16 255 255 255
-0.400103 0.466584 1.384 255 255 255
1.42281 -0.864877 2.939 255 255 255
0.180306 -0.208321 1.509 0 0 0
-0.674003 -0.217598 1.595 0 0 0
0.628866 0.0764516 1.299 255 255 255
1.27978 -1.17346 3.165 0 0 0
-0.357909 -0.98868 3.071 255 255 255
-0.484692 0.211913 1.477 255 255 255
0.163023 -1.00823 2.911 0 0 0
-0.138144 -0.121434 1.169 0 0 0
0.25801 0.0981298 0.97 0 0 0
0.137467 0.170953 0.867 255 255 255
0.695336 -0.761905 3.301 255 255 255
0.452164 0.147685 0.934 0 0 0
0.0565915 0.318848 0.955 255 255 255
0.045949 0.237719 0.96 255 255 255
0.36669 0.240139 0.76 255 255 255
-0.0526437 0.234218 1.057 0 0 0
0.00658988 -0.895624 2.884 255 255 255
-0.341482 -0.0789638 1.393 0 0 0
-0.0310696 0.277642 0.974 255 255 255
0.409567 -0.0357387 1.387 255 255 255
0.332231 0.215244 0.796 255 255 255
0.450858 0.173846 0.944 255 255 255
0.646975 -0.745789 3.301 0 0 0
-0.352591 -0.201927 1.498 255 255 255
1.03471 -0.520167 2.884 255 255 255
0.676996 -0.157736 1.87 255 255 255
-0.929672 -0.705832 2.261 255 255 255
-0.672164 -0.0934765 1.603 255 255 255
-0.380919 0.480771 1.348 255 255 255
-1.10014 -0.653923 2.128 255 255 255
-0.191412 -0.286896 1.39 255 255 255
-0.76292 0.330787 1.624 255 255 255
0.0950728 0.158641 0.893 255 255 255
-0.810863 -0.770443 3.181 255 255 255
-0.297729 -0.108588 1.339 0 0 0
0.071493 0.0986156 0.889 255 255 255
0.320565 -1.05266 3.011 255 255 255
-0.191098 0.175032 1.167 255 255 255
0.328831 0.269627 0.723 255 255 255
-0.0741449 0.164631 1.122 255 255 255
0.399445 0.108698 1.025 0 0 0
1.64356 -1.25438 3.588 255 255 255
-0.0339037 -0.089005 1.12 255 255 255
0.0215222 -0.269607 1.406 255 255 255
-0.65822 0.455697 1.406 255 255 255
-0.90346 0.170462 1.865 255 255 255
0.512522 -0.897328 3.266 255 255 255
-0.995927 -0.576852 2.204 255 255 255
1.03297 -0.982354 3.231 255 255 255
0.112558 0.121989 0.86 255 255 255
0.896873 -0.0731472 1.81 0 0 0
-0.99997 -0.00985038 2.136 255 255 255
-0.355448 -1.00348 2.967 255 255 255
0.801336 -0.07542 1.794 255 255 255
-0.539441 -0.00699119 1.516 255 255 255
-0.0240515 -0.12185 1.173 255 255 255
-0.202468 0.171501 1.156 255 255 255
-0.747923 -1.11636 3.011 255 255 255
-0.985164 -0.709557 2.204 255 255 255
0.302192 0.131955 0.975 255 255 255
-0.149235 0.186331 1.229 255 255 255
0.077818 0.352877 0.93 255 255 255
-0.429013 -0.485005 1.484 255 255 255
-1.07013 -0.735875 2.057 255 255 255
0.11773 -0.0241556 1.073 255 255 255
0.0347184 0.221795 0.952 255 255 255
-0.824919 -0.825509 2.151 255 255 255
-0.637678 0.344311 1.677 255 255 255
0.291443 -0.161727 1.487 0 0 0
-0.156701 0.293603 1.007 255 255 255
-0.226636 0.151236 1.145 0 0 0
0.112311 0.0761366 0.88 255 255 255
-1.06819 -0.343106 2.347 255 255 255
-0.696029 -0.14683 1.616 0 0 0
-1.02107 -0.0522863 2.166 255 255 255
0.406987 0.0107021 1.273 255 255 255
-0.231614 -0.380733 1.473 0 0 0
-0.0685068 0.329193 0.923 0 0 0
0.0550151 -0.0336641 1.043 0 0 0
1.07197 -0.932846 3.336 255 255 255
-0.822655 -0.82367 3.248 255 255 255
0.0533916 0.0940819 0.901 0 0 0
0.744308 -1.17534 3.102 0 0 0
-0.516122 0.171085 1.52 255 255 255
-0.50882 -0.297511 1.513 255 255 255
0.646456 0.0670486 1.322 255 255 255
-0.342665 0.249344 1.319 255 255 255
0.918125 -0.814809 3.41 255 255 255
0.435562 0.100732 1.012 255 255 255
0.0794171 0.350227 0.931 255 255 255
-0.282804 -0.0523992 1.351 255 255 255
-0.748061 0.142737 1.784 255 255 255
0.121942 0.180829 0.867 0 0 0
0.522935 -0.322601 1.966 255 255 255
-0.536128 0.511937 1.416 255 255 255
0.405266 0.150297 0.904 0 0 0
-0.507565 -0.190245 1.502 255 255 255
-0.228995 0.334432 1.053 255 255 255
0.0489492 0.0334745 0.928 0 0 0
-1.17826 -0.387447 2.338 255 255 255
0.400365 0.149137 0.963 255 255 255
0.115416 0.18875 0.871 0 0 0
-0.827972 0.29742 1.659 255 255 255
0.0784758 -0.0245499 1.017 0 0 0
-0.596176 -0.191927 1.535 255 255 255
0.0124616 -0.0333736 1.034 255 255 255
-0.257698 0.0903784 1.203 0 0 0
0.333354 0.117266 1.027 0 0 0
-0.682843 -1.08863 3.071 255 255 255
-0.505233 -0.814498 3.055 255 255 255
0.0100487 0.208904 0.964 255 255 255
0.0613314 0.0491147 0.91 0 0 0
0.519592 -0.126439 1.659 0 0 0
-0.81309 -1.09277 3.231 255 255 255
0.220764 -0.0947743 1.299 255 255 255
1.20484 -0.569852 2.898 255 255 255
0.046284 0.266204 0.967 255 255 255
-0.552237 -0.914388 3.04 255 255 255
-0.907194 -0.523055 2.189 255 255 255
0.1515 0.316869 0.828 255 255 255
-0.00445023 -0.0665448 1.053 0 0 0
-0.160967 0.329797 0.983 255 255 255
-0.0825394 0.166832 1.137 255 255 255
-0.127021 0.161523 1.208 255 255 255
-0.619354 0.166922 1.65 255 255 255
-0.134582 0.286746 0.989 255 255 255
1.11159 -0.972257 3.215 255 255 255
-0.769784 -0.950523 3.248 0 0 0
-1.03983 0.0370143 2.037 255 255 255
1.25417 -1.18091 3.301 255 255 255
-0.127753 0.26983 0.986 255 255 255
-0.0631866 -0.0855122 1.122 255 255 255
-0.0315811 -0.132848 1.169 255 255 255
-0.440239 -1.01253 2.743 255 255 255
-0.730646 0.138188 1.763 255 255 255
0.0202937 -1.00816 2.831 255 255 255
0.450988 -0.125091 1.607 0 0 0
0.9606 -0.3494 2.338 0 0 0
-0.308274 0.167783 1.225 0 0 0
-0.198854 -0.162982 1.239 255 255 255
-0.763323 -1.08805 2.884 0 0 0
-0.490394 0.00524174 1.487 255 255 255
0.0752441 -0.048846 1.041 0 0 0
0.160519 0.308094 0.819 255 255 255
0.447457 0.155053 0.906 0 0 0
-0.329086 0.334389 1.291 255 255 255
0.124575 0.225896 0.856 255 255 255
0.33762 0.192207 0.825 255 255 255
0.0294377 0.144336 0.932 255 255 255
0.697873 -0.211267 1.972 0 0 0
-0.647049 0.507909 1.305 255 255 255
0.196041 0.164446 0.834 0 0 0
0.331974 0.199291 0.821 0 0 0
0.381686 -1.10927 2.953 255 255 255
-0.663056 0.0663041 1.686 255 255 255
-0.414287 -0.840964 2.939 255 255 255
-0.105137 -0.304376 1.357 255 255 255
0.220243 0.219872 0.794 255 255 255
0.384296 0.0680713 1.096 255 255 255
-0.571072 -0.0393718 1.528 255 255 255
0.473212 0.151006 0.955 0 0 0
0.135088 0.201271 0.852 0 0 0
-0.291343 0.041776 1.273 255 255 255
0.333551 -0.0139456 1.254 255 255 255
-0.332635 0.0826667 1.234 255 255 255
-0.489286 0.0610618 1.491 255 255 255
0.212886 0.290753 0.763 255 255 255
0.956449 -0.354331 2.181 255 255 255
-0.746724 -1.11207 3.026 255 255 255
0.296338 -0.327203 1.664 0 0 0
0.285835 0.208703 0.786 0 0 0
1.60267 -1.27774 3.588 0 0 0
-0.512179 -0.0189566 1.487 255 255 255
0.204541 0.0848199 0.928 0 0 0
-0.765078 -0.820899 2.121 255 255 255
-0.0123653 0.28668 1 0 0 0
0.0800191 -0.0469707 1.037 255 255 255
1.42281 -0.86966 2.939 255 255 255
-0.76508 0.37091 1.528 255 255 255
-0.856489 0.216996 1.774 255 255 255
0.959616 -0.251379 2.037 255 255 255
1.15346 -0.815301 3.215 255 255 255
-0.541797 0.164479 1.551 255 255 255
-0.501531 -0.0876934 1.463 255 255 255
0.995948 -0.769983 3.336 255 255 255
0.356001 0.207732 0.797 255 255 255
-0.508699 -0.276625 1.52 255 255 255
0.894019 -1.04286 3.011 255 255 255
0.0853126 0.319683 0.913 255 255 255
0.238964 0.247379 0.771 255 255 255
-0.344259 0.162679 1.247 255 255 255
1.0901 -0.790173 3.198 255 255 255
-0.224284 -0.229061 1.33 0 0 0
1.33053 -0.762871 2.844 0 0 0
1.20231 -0.887096 3.248 255 255 255
0.193094 0.185938 0.833 255 255 255
-0.167027 0.348283 0.981 255 255 255
-1.15376 -0.109382 2.253 255 255 255
0.41207 0.124155 1.015 255 255 255
0.0282775 -0.0600306 1.059 255 255 255
0.209573 -0.160204 1.473 0 0 0
-0.946918 0.0205102 2.044 255 255 255
-0.293258 -0.166716 1.369 0 0 0
0.0944579 0.340407 0.901 0 0 0
0.259401 0.252839 0.761 255 255 255
-0.217672 0.298735 1.048 255 255 255
0.834235 -0.200342 1.991 255 255 255
-0.850403 0.279646 1.682 255 255 255
0.00183548 -1.0219 2.793 0 0 0
-0.369015 0.0780817 1.291 255 255 255
-0.13329 -0.44119 1.587 0 0 0
-0.0708691 0.222416 1.128 255 255 255
0.355933 0.277098 0.709 0 0 0
-0.33098 -0.00188208 1.387 255 255 255
0.34868 0.0616903 1.143 255 255 255
-0.000959955 0.240072 0.989 255 255 255
-0.967739 0.0815386 1.991 255 255 255
1.09946 -0.751117 3.165 255 255 255
0.0294783 0.317322 0.984 255 255 255
-0.287628 0.0838514 1.222 255 255 255
0.0303172 -0.00466694 1.012 255 255 255
1.01948 -0.16576 2.044 255 255 255
-0.460509 0.194752 1.439 255 255 255
-0.152449 -0.0564145 1.162 255 255 255
-0.248269 0.0666017 1.234 255 255 255
-1.08762 -0.164224 2.356 255 255 255
-0.996385 -0.743146 2.166 255 255 255
-0.298049 0.343836 1.249 255 255 255
1.09984 -0.718678 3.181 255 255 255
-0.76033 0.269313 1.739 255 255 255
-0.0711045 0.273081 0.958 255 255 255
-0.626263 0.367167 1.633 255 255 255
0.401394 0.102524 1.03 255 255 255
0.0447099 0.263057 0.967 255 255 255
0.24904 -0.198957 1.494 255 255 255
-0.411089 -0.0065577 1.422 255 255 255
-0.0447866 0.248504 0.997 255 255 255
0.0380855 0.141133 0.921 255 255 255
-0.00545012 0.0835791 0.931 0 0 0
-0.431722 0.532915 1.429 255 255 255
-0.47043 0.239615 1.47 255 255 255
-0.110825 -0.958699 2.768 255 255 255
-0.0108126 0.00518844 1.007 255 255 255
0.50819 0.0664938 1.232 255 255 255
0.240206 0.191113 0.809 0 0 0
1.50353 -1.16501 3.547 0 0 0
