ply
format ascii 1.0
comment Created by Open3D
element vertex 1336
property double x
property double y
property double z
property uchar red
property uchar green
property uchar blue
end_header
-0.179253 0.377456 0.978 255 255 255
0.0931306 -0.236242 1.616 255 255 255
0.383468 0.147463 1.064 0 0 0
0.157164 0.183596 0.916 255 255 255
0.0085675 0.355307 0.974 255 255 255
-0.561651 0.143498 1.516 255 255 255
-0.515539 -0.354933 1.571 255 255 255
0.340185 0.190973 1.075 0 0 0
0.129553 -0.128051 1.579 0 0 0
-0.138095 -0.190995 1.4 255 255 255
1.08669 -0.82292 3.266 255 255 255
-0.0520632 0.138138 0.952 0 0 0
-0.078291 -0.782072 2.898 255 255 255
0.465899 -0.749568 3.391 255 255 255
-0.861418 -0.519103 3.102 255 255 255
-0.188913 -0.110138 1.281 255 255 255
0.220784 0.239196 0.825 0 0 0
0.0548166 -0.907441 2.953 255 255 255
-0.302288 -0.952877 2.831 0 0 0
0.139202 0.106482 1.165 255 255 255
-1.14567 -0.230278 2.365 255 255 255
-0.34692 -0.789605 2.857 0 0 0
-1.04552 0.246779 1.991 255 255 255
-0.338129 0.154368 1.262 255 255 255
-0.84279 0.448604 1.62 255 255 255
-0.913007 -0.729277 2.312 255 255 255
-0.0523366 0.159109 0.957 255 255 255
-0.940349 -0.752638 2.269 255 255 255
-0.459753 -1.00809 2.78 255 255 255
-0.429294 -0.799792 2.911 255 255 255
-0.0940425 -0.998901 2.805 255 255 255
-0.727363 -0.978173 2.604 0 0 0
-1.17476 -0.578009 2.294 255 255 255
-0.992782 -0.766641 2.143 255 255 255
0.450738 -0.164625 2.03 255 255 255
0.238725 0.273104 0.791 255 255 255
1.21742 -0.717233 3.318 255 255 255
-0.215664 -0.00761149 1.22 0 0 0
-0.914414 -0.777866 2.278 255 255 255
-0.600422 -0.255816 1.559 255 255 255
1.0944 -0.394104 2.996 255 255 255
0.129881 -0.154136 1.583 255 255 255
0.0844207 -1.08149 2.818 255 255 255
-0.0794217 0.315602 1.004 255 255 255
-0.157291 -0.953722 2.793 255 255 255
-0.128446 -0.286958 1.591 0 0 0
0.304008 0.190015 1.041 0 0 0
0.38613 0.201456 0.803 255 255 255
-0.0480559 -0.0105379 1.11 0 0 0
-0.320857 0.141434 1.275 255 255 255
-0.399725 0.424386 1.316 255 255 255
0.0842847 0.155836 0.902 255 255 255
-0.699047 0.524054 1.547 255 255 255
-0.138807 0.0351819 1.128 255 255 255
0.44989 0.0328241 1.532 0 0 0
0.0847166 -0.0594069 1.47 255 255 255
-0.724123 -0.90935 2.519 255 255 255
0.213379 0.181668 0.961 255 255 255
-0.335627 -0.218325 1.477 255 255 255
-0.310645 -0.221775 1.484 255 255 255
0.390244 -0.705993 3.266 255 255 255
-0.474853 0.308285 1.412 255 255 255
-0.474622 0.0132074 1.571 255 255 255
-0.122282 0.297677 1.128 255 255 255
-1.08402 -0.790505 2.151 255 255 255
-0.0698639 -0.0105569 1.112 255 255 255
0.0936192 0.213863 0.893 255 255 255
-0.354133 0.23037 1.198 255 255 255
-0.200919 -1.01246 2.707 255 255 255
-0.686921 0.499922 1.607 255 255 255
0.162286 0.235904 0.842 255 255 255
-0.300839 0.203833 1.158 255 255 255
-0.971978 -0.611986 2.151 255 255 255
-0.75273 0.533507 1.456 255 255 255
-0.00671459 -0.0146222 1.147 0 0 0
-0.782915 -0.717928 2.374 255 255 255
-0.865329 -0.836932 2.228 255 255 255
1.06073 -0.71893 3.301 255 255 255
0.0277108 0.102609 0.925 255 255 255
-0.134395 -0.196809 1.409 255 255 255
0.298213 -0.791956 3.248 255 255 255
0.0948599 0.216283 0.891 255 255 255
0.193789 0.2247 0.836 0 0 0
-0.162952 0.0586295 1.156 255 255 255
1.78945 -1.19867 4.142 255 255 255
1.16236 -0.576194 3.41 255 255 255
-0.269716 -0.167001 1.409 0 0 0
-0.11798 -0.12969 1.378 0 0 0
-0.367161 -0.203793 1.459 255 255 255
0.80374 0.0569523 1.826 0 0 0
-0.639202 0.186687 1.612 255 255 255
-0.0038275 -0.148219 1.473 255 255 255
0.143772 0.191585 0.871 0 0 0
-0.406987 0.0936006 1.432 255 255 255
-0.181244 0.28633 1.229 255 255 255
-0.00104537 0.0230754 1.077 0 0 0
0.123791 0.19965 0.901 255 255 255
-0.59585 -0.229078 1.567 255 255 255
-0.1797 0.0724811 1.167 255 255 255
0.382614 0.20314 0.815 0 0 0
-0.0706114 0.0796094 0.995 255 255 255
-0.0268388 0.129862 0.937 255 255 255
-0.369498 0.211017 1.21 255 255 255
-0.725283 0.527564 1.528 255 255 255
0.737862 -0.0842608 2.085 0 0 0
0.142313 0.314161 0.814 255 255 255
-0.305242 -0.246955 1.505 255 255 255
-0.072589 0.0877984 0.978 255 255 255
-0.064443 0.0602599 1.053 255 255 255
1.01218 -1.13299 3.318 255 255 255
-0.115346 -0.026767 1.189 0 0 0
-0.180796 -0.756975 2.805 255 255 255
0.303655 0.287323 0.754 255 255 255
1.32235 -1.09923 2.939 255 255 255
-0.609665 -0.133527 1.583 255 255 255
-0.759174 0.0801644 1.633 255 255 255
0.363217 -0.747287 3.215 255 255 255
0.095992 0.0307023 1.244 255 255 255
0.0928283 0.0570979 1.203 255 255 255
0.565686 -0.886698 3.266 0 0 0
0.0321146 0.0194793 1.072 255 255 255
0.383737 0.272759 0.79 255 255 255
-0.702562 -0.0514805 1.595 255 255 255
0.0240092 0.070265 1.024 255 255 255
0.0170965 0.153124 0.921 255 255 255
-0.126132 0.292179 1.025 255 255 255
-0.27127 -1.04519 2.844 0 0 0
-0.72007 -0.995139 2.593 0 0 0
-0.0228808 0.088019 0.963 0 0 0
0.477473 -0.863019 3.318 255 255 255
-0.148 0.276545 1.187 255 255 255
-0.349402 -0.006281 1.362 255 255 255
1.32707 -0.269357 2.593 255 255 255
-0.598675 0.507499 1.535 255 255 255
-0.715569 -0.62627 3.266 255 255 255
0.10077 0.289635 0.855 255 255 255
0.379696 -0.609489 3.41 255 255 255
0.365151 0.232024 0.937 255 255 255
-0.47765 -0.130321 1.607 255 255 255
0.974752 -1.1057 3.301 255 255 255
0.365696 0.0746146 1.342 255 255 255
0.644906 -1.0412 3.318 255 255 255
-0.192899 0.0674133 1.178 255 255 255
1.40556 -1.03719 2.953 255 255 255
-0.210824 -0.00164869 1.215 255 255 255
0.413095 -0.00487332 1.633 255 255 255
-0.126204 0.194276 1.114 255 255 255
1.19076 -1.08225 3.231 255 255 255
0.985682 -0.907957 3.266 255 255 255
1.31252 -0.735931 3.354 255 255 255
-1.13505 -0.447099 2.312 255 255 255
-0.690441 -0.0591187 1.591 255 255 255
-0.0936402 -0.930996 2.793 255 255 255
0.206724 -0.0310558 1.487 255 255 255
-1.0528 -0.739621 2.166 255 255 255
0.73283 0.112014 1.524 255 255 255
0.0517054 -0.260623 1.637 0 0 0
-0.0857877 0.313343 1.002 255 255 255
-0.078957 0.334485 0.978 255 255 255
-0.540741 0.205563 1.466 255 255 255
-0.265849 0.15328 1.27 255 255 255
-0.161648 -0.159879 1.387 0 0 0
-0.237102 0.377925 1.036 255 255 255
-0.00574282 0.306776 0.981 255 255 255
-0.525202 0.460055 1.456 255 255 255
-0.582698 0.343527 1.539 255 255 255
0.3684 0.188321 1.041 255 255 255
1.00631 -0.0337181 2.107 255 255 255
0.646975 -1.15405 3.301 255 255 255
0.328032 0.248731 0.808 255 255 255
0.0902046 0.25767 0.874 0 0 0
-0.463901 0.110143 1.435 255 255 255
-0.129019 -0.0495865 1.227 255 255 255
-0.677523 0.516907 1.579 255 255 255
-0.0562225 -0.031969 1.167 0 0 0
-0.747522 -0.696498 3.198 0 0 0
-0.203218 -0.165569 1.378 255 255 255
1.44001 -1.16501 3.547 0 0 0
1.2632 -0.397488 2.719 255 255 255
-0.971588 0.118907 1.966 255 255 255
-0.0214318 -0.0889368 1.372 255 255 255
-0.208503 0.000327978 1.213 255 255 255
-0.160265 0.231156 1.192 255 255 255
0.290842 0.286758 0.759 255 255 255
0.0759517 0.0790127 1.075 255 255 255
-0.113289 0.110929 1 255 255 255
0.448909 0.198163 1.005 255 255 255
-0.19471 0.301306 1.201 255 255 255
0.468118 -0.520893 3.448 255 255 255
-0.927761 -0.845849 2.204 255 255 255
-0.430734 -1.02176 2.768 255 255 255
-0.52165 0.367789 1.466 255 255 255
1.00678 -0.757764 3.354 255 255 255
-1.02553 0.258753 1.959 255 255 255
0.398267 0.22057 0.981 255 255 255
-0.875039 -0.824324 2.253 255 255 255
0.0709712 -0.227409 1.591 255 255 255
-0.00278812 0.0282281 1.073 0 0 0
-0.753143 0.264951 1.729 255 255 255
0.0893789 0.297589 0.866 255 255 255
-0.13053 0.0531585 1.12 255 255 255
1.14485 -0.699904 3.391 0 0 0
-1.08697 -0.777103 2.143 255 255 255
-0.0925218 0.0997083 0.97 255 255 255
1.19651 -0.370214 2.78 255 255 255
-0.878346 -0.850529 2.939 255 255 255
0.283962 0.105986 1.225 255 255 255
-0.774809 0.50515 1.513 255 255 255
0.394589 0.297565 0.771 255 255 255
-1.09307 -0.741513 2.121 255 255 255
0.305366 0.200181 0.975 255 255 255
-0.0416658 0.356655 1 0 0 0
1.57332 -1.09967 3.283 0 0 0
0.208838 -0.0136233 1.435 255 255 255
0.0511367 0.0344957 1.106 255 255 255
-0.229251 0.267321 1.262 255 255 255
1.49719 -1.08509 3.858 0 0 0
-0.254261 0.247611 1.178 255 255 255
-0.764497 -0.670388 3.248 255 255 255
0.064718 0.116517 0.916 255 255 255
0.356346 0.210296 0.792 0 0 0
0.324889 0.230893 0.81 0 0 0
-0.48585 -0.72344 2.967 255 255 255
0.357984 -0.778678 3.215 255 255 255
-0.981588 -0.474697 2.196 255 255 255
-1.17626 -0.510824 2.261 255 255 255
-0.148903 0.360622 0.967 255 255 255
0.606928 -0.289223 2.582 255 255 255
-0.738118 -0.0416393 1.616 255 255 255
0.324772 -0.220281 1.911 255 255 255
-0.66082 0.404371 1.633 255 255 255
-0.374363 0.219436 1.213 255 255 255
1.26494 -0.721396 2.939 0 0 0
0.386002 0.291779 0.779 255 255 255
0.278249 0.29139 0.755 255 255 255
0.122685 0.100046 1.135 255 255 255
-0.184473 -0.0523137 1.198 0 0 0
0.235557 0.232484 0.825 255 255 255
-0.489309 -0.958699 2.768 0 0 0
-0.311012 -0.197209 1.463 255 255 255
0.445152 -1.10135 3.165 255 255 255
-0.950032 -0.592127 2.181 255 255 255
-0.196734 0.0712473 1.178 255 255 255
0.721777 0.0877824 1.677 255 255 255
-1.12597 -0.187228 2.356 255 255 255
-0.510383 -0.1613 1.603 255 255 255
-0.711699 0.513034 1.575 255 255 255
0.529099 0.0639566 1.502 255 255 255
0.309239 -0.951503 3.198 255 255 255
1.33661 -0.636179 2.857 255 255 255
0.333068 0.199369 0.92 0 0 0
-0.609006 0.471093 1.555 255 255 255
-0.0196226 0.207387 0.957 255 255 255
-1.17769 -0.0364546 2.278 255 255 255
-0.0407491 0.254909 0.978 255 255 255
-0.10109 -0.110453 1.362 255 255 255
0.0171015 -0.0735101 1.419 255 255 255
1.06407 -1.18049 3.198 255 255 255
1.2743 -0.672567 3.568 0 0 0
-0.627836 0.54556 1.509 255 255 255
0.42323 0.181557 1.022 0 0 0
-0.358215 0.369667 1.275 255 255 255
0.272112 0.0277177 1.4 255 255 255
0.927784 -0.44079 3.231 0 0 0
0.322006 -0.0282613 1.603 255 255 255
-0.847472 0.445795 1.629 255 255 255
0.137522 0.291556 0.825 0 0 0
-0.130918 0.106223 1.05 0 0 0
0.245566 0.278027 0.776 255 255 255
-0.231259 0.176331 1.229 0 0 0
-0.083478 0.284649 1.034 255 255 255
-0.931225 -0.840392 3.133 255 255 255
1.40549 -0.635882 2.755 255 255 255
0.265822 0.201752 0.931 255 255 255
-0.816361 -0.0218505 1.714 0 0 0
0.493498 -0.821306 3.391 255 255 255
0.562256 -0.68521 3.373 255 255 255
-0.502644 0.021196 1.595 255 255 255
-0.248937 0.181181 1.208 255 255 255
-0.122955 0.08441 1.055 255 255 255
-0.266547 0.240833 1.173 255 255 255
0.200956 -0.967853 3.133 255 255 255
-0.16269 -0.985882 2.731 255 255 255
0.636362 0.0889878 1.555 255 255 255
0.273282 0.124687 1.213 255 255 255
-0.406859 0.13257 1.354 255 255 255
-0.900711 -0.805993 2.253 255 255 255
-0.603944 -0.313361 1.555 255 255 255
-0.659467 0.572127 1.47 255 255 255
-1.18808 -0.301405 2.32 255 255 255
-0.112303 -0.263917 1.547 255 255 255
0.326207 0.24671 0.81 255 255 255
-0.161797 0.228639 1.189 255 255 255
-0.473763 0.220924 1.369 0 0 0
0.265833 0.0824888 1.262 255 255 255
-0.915377 -0.806425 2.244 255 255 255
0.0368246 0.276312 0.927 255 255 255
0.0892107 -0.701199 3.149 255 255 255
-0.96777 -0.829406 2.189 255 255 255
-0.156558 -0.922139 2.78 255 255 255
0.877843 -0.577004 3.448 255 255 255
-0.0424991 0.34885 1.02 0 0 0
-0.210909 0.146093 1.227 255 255 255
-1.14432 -0.477594 2.278 255 255 255
0.30565 -0.967025 3.215 255 255 255
-0.294685 0.234706 1.171 0 0 0
0.0492984 -0.922958 2.911 255 255 255
1.81531 -1.14192 3.547 255 255 255
-0.566097 -0.355165 1.528 255 255 255
-0.546226 -0.252672 1.571 255 255 255
-0.466016 -0.0887548 1.612 255 255 255
-0.56361 -0.0194793 1.528 255 255 255
-0.513039 0.0107594 1.587 255 255 255
-0.820147 0.195013 1.758 255 255 255
0.000700546 0.0453913 1.066 0 0 0
-0.712133 0.502637 1.599 255 255 255
-0.520582 0.178954 1.463 255 255 255
0.844397 -0.251501 2.768 255 255 255
1.48003 -0.938522 3.631 255 255 255
-0.749501 -0.87922 2.731 0 0 0
0.0131051 0.084444 0.958 255 255 255
-0.376562 0.260746 1.26 255 255 255
0.81774 -0.830622 3.318 255 255 255
0.198849 0.0326274 1.322 255 255 255
-0.238706 0.270231 1.247 255 255 255
0.840075 0.0390161 1.821 0 0 0
1.29063 -0.313752 2.684 255 255 255
0.2698 0.138383 1.102 255 255 255
0.193918 -0.892653 3.102 255 255 255
0.318008 -0.0753706 1.664 255 255 255
-0.804785 -0.816194 3.198 255 255 255
-1.00321 -0.115183 2.092 255 255 255
0.960352 -0.426635 3.165 255 255 255
0.461121 0.0582029 1.48 255 255 255
0.380807 0.218351 0.766 255 255 255
0.724321 -0.977489 3.215 255 255 255
-0.142487 0.291279 0.988 255 255 255
0.26649 -0.72853 3.248 255 255 255
-0.3835 0.0385782 1.381 255 255 255
-0.230381 -0.874156 2.743 255 255 255
-0.591627 -0.16444 1.583 255 255 255
-0.357653 0.371159 1.273 255 255 255
-0.592557 0.0274927 1.513 255 255 255
0.129131 0.121211 1.143 255 255 255
-1.18889 0.00441978 2.329 255 255 255
0.0281302 0.296698 0.939 255 255 255
-0.733756 0.549496 1.442 255 255 255
-0.56434 -0.830009 2.805 0 0 0
0.561625 0.0365851 1.587 255 255 255
0.350869 0.0526277 1.396 255 255 255
0.099088 -1.0961 2.844 255 255 255
-0.0986085 -0.857397 2.805 255 255 255
0.606935 0.128751 1.384 255 255 255
0.877843 -0.700446 3.448 255 255 255
1.30384 -0.733432 3.318 255 255 255
0.13196 0.183796 0.917 255 255 255
0.442977 0.237623 0.999 255 255 255
1.39863 -1.15665 3.487 0 0 0
0.710711 -0.0842608 2.085 0 0 0
0.196118 -0.197225 1.664 255 255 255
0.526971 0.104202 1.387 255 255 255
0.00844386 -0.183112 1.524 255 255 255
-0.130195 -0.0348549 1.201 255 255 255
0.850984 -0.345679 3.086 0 0 0
0.563533 -0.605059 3.448 255 255 255
-0.206546 0.293525 1.079 255 255 255
0.928357 -0.605059 3.448 255 255 255
0.474407 -0.822435 3.373 255 255 255
1.22611 -0.492417 2.755 255 255 255
0.632003 0.0792716 1.563 255 255 255
1.15648 -1.01953 3.283 0 0 0
-0.021114 0.0965112 0.954 255 255 255
-0.222823 -0.0870612 1.249 0 0 0
0.0676049 0.262405 0.895 255 255 255
1.13058 -0.826367 3.301 255 255 255
0.46127 -0.458058 3.318 255 255 255
-0.149524 -0.705453 2.818 255 255 255
-0.206313 0.0486938 1.189 255 255 255
-0.45019 -0.976078 2.805 0 0 0
0.157242 0.2938 0.809 0 0 0
-0.205252 0.36917 1.012 255 255 255
0.0614662 0.216929 0.912 255 255 255
-0.274026 0.381655 1.075 255 255 255
-0.0173694 0.354236 1.007 255 255 255
0.293835 0.255305 0.808 255 255 255
0.13849 0.250082 0.839 255 255 255
-0.639253 0.479219 1.599 255 255 255
1.01219 -0.624187 3.283 255 255 255
-0.594384 0.518742 1.524 255 255 255
0.507365 -0.664981 3.41 255 255 255
-0.691529 -0.71803 3.133 255 255 255
-0.30913 0.135528 1.278 255 255 255
-0.535181 0.0436635 1.477 255 255 255
-0.780177 0.065085 1.655 0 0 0
-0.423198 0.343871 1.336 255 255 255
-0.381155 -0.0679902 1.449 255 255 255
0.210216 0.236879 0.831 0 0 0
-0.404718 -0.178528 1.466 0 0 0
0.0052691 0.266443 0.951 255 255 255
-0.254034 0.322802 1.126 255 255 255
0.380575 0.200173 0.945 0 0 0
-0.325214 0.19123 1.185 255 255 255
0.246031 0.0426986 1.369 255 255 255
-0.608381 0.0949024 1.528 255 255 255
0.592824 -0.877509 3.102 255 255 255
0.34425 0.00289971 1.528 255 255 255
0.172966 -0.77562 3.181 255 255 255
-0.63685 0.10164 1.555 255 255 255
0.282937 0.285037 0.761 255 255 255
0.264953 0.139328 1.068 255 255 255
0.23498 0.184789 0.986 255 255 255
-0.174908 0.0917598 1.124 255 255 255
-0.0921062 -0.176348 1.429 255 255 255
0.428341 0.192103 0.999 0 0 0
1.9538 -1.14484 3.956 255 255 255
-0.804574 -0.747956 2.347 255 255 255
0.428644 0.155705 1.027 255 255 255
1.33968 -0.426626 2.626 255 255 255
-0.866188 -0.745088 2.338 255 255 255
0.412793 0.163742 1.025 0 0 0
1.35141 -0.490714 2.649 255 255 255
-0.222467 -0.0828633 1.247 0 0 0
1.03068 -0.317865 2.967 255 255 255
-0.156536 -0.23817 1.466 255 255 255
-0.900663 0.0457326 1.853 255 255 255
-1.17937 0.0830729 2.303 255 255 255
-0.306304 0.367556 1.194 255 255 255
-0.682143 0.167832 1.659 255 255 255
-0.520818 -0.29287 1.595 255 255 255
1.67483 -1.18519 4.142 255 255 255
0.422549 -0.272625 2.269 255 255 255
-0.258367 0.325955 1.137 255 255 255
-0.615843 0.057604 1.528 255 255 255
0.490709 -0.121782 1.978 0 0 0
0.200569 0.276819 0.798 255 255 255
-0.490028 0.458938 1.416 255 255 255
0.384464 0.200596 0.947 0 0 0
1.15848 -0.61067 3.448 0 0 0
-0.348711 -0.144094 1.432 255 255 255
-0.567667 -0.0446641 1.539 255 255 255
-0.761963 -0.674041 3.215 255 255 255
0.426774 0.205662 0.935 0 0 0
-0.137441 -0.0327635 1.196 255 255 255
-0.846597 -0.832659 2.236 255 255 255
-0.943673 -0.743397 2.286 255 255 255
0.160935 0.256235 0.828 255 255 255
-0.0661953 0.304448 1.027 255 255 255
-0.469661 -0.172536 1.563 255 255 255
0.0189592 0.226407 0.939 255 255 255
2.0328 -1.19467 4.199 255 255 255
-1.01432 -0.580732 2.261 255 255 255
1.66632 -1.23816 4.008 255 255 255
0.0523842 0.174305 0.884 255 255 255
-0.868226 0.392697 1.734 255 255 255
-0.0753946 0.168495 0.994 255 255 255
0.113356 0.221448 0.877 0 0 0
-0.190809 -0.820098 2.818 255 255 255
0.355478 -0.218347 1.978 255 255 255
-0.302417 0.340353 1.194 255 255 255
-0.0286147 0.369304 0.999 255 255 255
-0.561651 0.141031 1.516 255 255 255
-0.00397689 0.112041 0.941 255 255 255
-0.34902 0.0788587 1.378 255 255 255
-0.626019 0.0985999 1.547 255 255 255
0.33311 0.222352 0.916 255 255 255
0.274945 0.171642 1.053 0 0 0
-0.310807 -0.0759027 1.339 255 255 255
-0.604431 0.555382 1.47 255 255 255
0.543949 0.111213 1.39 0 0 0
0.364576 0.248363 0.782 255 255 255
-0.208194 0.106665 1.167 255 255 255
0.904281 -0.615412 3.507 255 255 255
-0.0185078 0.0317204 1.073 0 0 0
0.044178 0.360735 0.923 255 255 255
0.83199 -0.195185 2.228 255 255 255
-0.129522 -0.041125 1.213 255 255 255
0.964005 -0.729674 3.301 255 255 255
-0.533586 -0.269376 1.579 255 255 255
-0.204275 -0.104231 1.26 255 255 255
0.340443 0.129245 1.116 255 255 255
-0.518497 -0.154336 1.612 255 255 255
-0.100672 0.317004 0.988 255 255 255
-0.731043 0.00305912 1.612 255 255 255
-0.191891 0.118108 1.149 255 255 255
-0.257313 -0.69465 2.793 255 255 255
-0.249254 0.0633463 1.249 255 255 255
0.282718 0.229855 0.871 255 255 255
0.0267291 0.0263092 1.066 0 0 0
1.23063 -0.812344 3.354 0 0 0
-0.766031 0.0699179 1.642 255 255 255
-1.18223 0.0939476 2.294 255 255 255
-0.604915 -0.330223 1.551 255 255 255
0.904838 -0.033142 2.071 255 255 255
0.21736 -0.942049 3.149 255 255 255
0.540227 -0.259081 2.347 255 255 255
-0.131438 -0.1566 1.378 0 0 0
0.629483 -0.647529 3.266 0 0 0
-0.845393 -0.799876 2.365 255 255 255
0.0399687 0.173755 0.896 0 0 0
-0.152186 0.162656 1.16 255 255 255
-0.567734 -0.87798 2.755 255 255 255
0.100613 0.162904 0.917 255 255 255
0.192464 -0.151032 1.633 0 0 0
-0.0930651 0.0533611 1.087 255 255 255
-0.633412 -0.00465248 1.559 255 255 255
1.17959 -0.429053 2.871 255 255 255
-1.22652 0.00448809 2.365 255 255 255
-0.577582 -0.316704 1.559 255 255 255
-0.299286 -0.115223 1.366 0 0 0
1.2632 -0.29572 2.719 0 0 0
-0.200923 0.205995 1.227 0 0 0
-0.458655 0.100084 1.494 255 255 255
0.763478 -0.40611 3.248 255 255 255
-0.469112 -0.754914 3.181 255 255 255
0.126787 0.190214 0.912 255 255 255
-0.0568371 -0.739069 3.011 255 255 255
0.0795502 -0.0519816 1.463 255 255 255
-0.0576677 -0.710097 3.055 255 255 255
-0.194136 0.17135 1.222 255 255 255
-0.16991 0.0533985 1.165 255 255 255
1.38989 -1.08781 2.871 255 255 255
-0.581184 0.117819 1.535 255 255 255
-1.13048 0.163252 2.173 255 255 255
1.02045 -0.0821939 2.212 255 255 255
0.33178 0.198557 1.007 255 255 255
0.233539 -0.682653 3.231 255 255 255
0.305076 -0.0550593 1.624 0 0 0
-0.12433 -0.0348549 1.201 255 255 255
0.078989 0.0491853 1.201 255 255 255
0.218906 -0.585819 3.248 255 255 255
-0.243445 0.278247 1.154 255 255 255
0.246139 0.270187 0.79 255 255 255
-0.185022 -0.171905 1.393 0 0 0
-1.05362 0.205445 2.064 255 255 255
-0.134416 0.0459499 1.122 255 255 255
0.0295008 0.2556 0.934 255 255 255
0.641602 -1.05735 3.301 255 255 255
1.3153 -0.451493 2.672 255 255 255
0.000703175 0.0403379 1.07 0 0 0
-0.0149023 0.211394 0.954 255 255 255
-0.411706 0.447368 1.327 255 255 255
0.996245 -0.976777 3.301 255 255 255
-0.314237 0.399731 1.18 255 255 255
0.269129 0.284918 0.764 255 255 255
-0.119837 -0.886627 2.768 255 255 255
0.145143 0.185626 0.897 255 255 255
-0.46193 0.135801 1.387 255 255 255
-0.599929 -0.10695 1.571 255 255 255
0.537636 0.148461 1.319 255 255 255
0.314691 0.0792878 1.244 255 255 255
0.234796 0.2632 0.804 255 255 255
-0.277192 0.105638 1.294 255 255 255
-0.752666 -0.0984228 1.642 0 0 0
-1.11342 0.0372729 2.253 255 255 255
0.229171 -0.14884 1.668 255 255 255
-0.502644 -0.316231 1.595 0 0 0
0.256721 0.0793751 1.278 255 255 255
-0.509152 -0.305081 1.591 0 0 0
-0.740971 -0.907766 2.684 0 0 0
-0.223088 0.26116 1.262 255 255 255
-0.305469 -0.0189183 1.316 0 0 0
-0.429472 -0.157626 1.494 0 0 0
0.745674 0.0250099 1.882 255 255 255
-0.107418 0.0321933 1.089 0 0 0
-0.548314 0.0341184 1.48 255 255 255
-0.2013 0.301484 1.017 255 255 255
-0.545245 -0.0897341 1.583 255 255 255
-0.794111 -0.67227 3.283 255 255 255
0.179785 0.282014 0.798 255 255 255
1.14579 -0.992821 3.283 0 0 0
-0.109133 -0.670329 2.967 255 255 255
0.0979473 0.142477 0.92 255 255 255
-0.509663 -0.865344 2.831 255 255 255
-0.0658846 0.339361 0.997 0 0 0
0.173456 0.21835 0.843 0 0 0
0.163042 -0.00386165 1.294 0 0 0
-0.0344514 0.379823 0.98 0 0 0
0.0843132 -0.0543624 1.463 255 255 255
-0.695034 0.366013 1.664 255 255 255
-0.529968 -0.0675585 1.607 255 255 255
0.0242989 0.169065 0.91 255 255 255
0.50988 -0.927813 3.318 255 255 255
0.0536286 0.312464 0.905 255 255 255
-0.55871 -0.0707958 1.563 255 255 255
-0.400028 -0.802818 2.871 0 0 0
0.201978 -0.853747 3.071 255 255 255
0.220511 0.144096 1.227 255 255 255
0.0409877 -0.161952 1.535 255 255 255
0.762703 -0.487407 3.41 0 0 0
0.225369 0.155538 1.015 0 0 0
1.19034 -1.20748 3.133 0 0 0
0.207834 -1.00856 3.011 255 255 255
0.0781468 -0.148607 1.579 0 0 0
-0.260814 -0.985126 2.831 255 255 255
-0.239083 0.33048 1.03 255 255 255
-0.395306 0.230331 1.229 255 255 255
-0.713482 0.545595 1.463 255 255 255
-0.651967 0.0794744 1.567 255 255 255
0.0311545 -0.185394 1.543 255 255 255
-0.477413 0.126221 1.406 255 255 255
0.358259 0.0986439 1.162 0 0 0
-0.235041 0.270998 1.26 255 255 255
0.110764 0.139036 0.927 255 255 255
-0.124118 0.000304995 1.128 255 255 255
0.195025 0.298883 0.781 255 255 255
1.15464 -1.1412 3.133 0 0 0
-0.315937 -0.173259 1.442 255 255 255
0.0872213 0.210147 0.902 255 255 255
-0.216037 -1.03032 2.731 255 255 255
-0.537597 -0.752411 2.857 255 255 255
0.0313533 0.355117 0.944 255 255 255
0.234247 0.289157 0.772 0 0 0
1.67046 -1.04828 3.956 255 255 255
0.152147 0.243255 0.839 255 255 255
-0.822961 0.399331 1.789 255 255 255
-0.635433 -0.17732 1.583 255 255 255
-0.0656793 0.0902373 0.97 255 255 255
0.146828 0.295376 0.817 0 0 0
1.33345 -1.07563 2.953 255 255 255
-0.42575 0.402695 1.351 255 255 255
-0.979356 0.319176 1.865 255 255 255
-0.598892 -0.21487 1.575 255 255 255
0.1735 0.275318 0.805 255 255 255
-0.370695 -0.147753 1.445 255 255 255
0.10902 0.173357 0.925 255 255 255
0.0894582 0.215798 0.895 255 255 255
0.389367 -0.0212641 1.668 255 255 255
-0.190017 -0.0860157 1.234 255 255 255
-0.658746 -0.229663 1.571 255 255 255
0.48196 0.127479 1.302 255 255 255
-1.04315 -0.512453 2.236 255 255 255
0.339795 0.0840573 1.225 255 255 255
0.387954 -0.220784 2.03 255 255 255
0.0508503 0.25144 0.908 255 255 255
-0.0315574 -0.778789 2.939 255 255 255
-0.241701 -0.0567091 1.252 255 255 255
0.866261 -0.188439 2.151 0 0 0
-0.198859 0.316783 1.013 255 255 255
-0.08929 -0.19667 1.459 255 255 255
-0.381624 0.418424 1.291 255 255 255
0.45761 0.178296 1.032 255 255 255
-0.466446 0.494681 1.387 255 255 255
0.172903 0.0297153 1.289 255 255 255
-0.0479717 -0.713816 3.071 255 255 255
0.220205 0.192717 0.924 255 255 255
0.140979 0.123419 0.958 255 255 255
0.0648357 0.279048 0.897 255 255 255
-0.518184 -1.03889 2.707 255 255 255
0.134828 0.10225 1.16 255 255 255
0.262471 0.1856 0.999 255 255 255
0.951649 -0.628166 3.391 255 255 255
-0.0946934 0.129925 0.96 255 255 255
0.703913 -0.80166 3.266 0 0 0
-0.193226 0.0636872 1.18 255 255 255
0.0837346 0.202087 0.912 255 255 255
-0.755478 -0.638353 3.301 255 255 255
0.363046 0.150359 1.06 0 0 0
0.160915 0.238644 0.842 255 255 255
-0.742546 0.325906 1.724 255 255 255
-0.685464 -0.934145 2.672 0 0 0
0.396986 0.153698 1.036 255 255 255
1.1568 -0.718678 3.181 0 0 0
-0.550788 -0.323483 1.555 255 255 255
0.19778 -0.145717 1.633 0 0 0
0.4107 -0.633684 3.391 255 255 255
-0.376499 -0.218325 1.477 255 255 255
0.0558703 -0.109281 1.532 255 255 255
1.11323 -0.470889 3.117 255 255 255
-0.479702 0.430529 1.406 255 255 255
0.357525 0.230499 0.937 255 255 255
-1.05666 -0.628362 2.196 255 255 255
-0.0626503 0.349833 0.972 255 255 255
-0.626019 -0.286574 1.547 255 255 255
-0.478351 -0.734169 3.011 255 255 255
-0.630616 0.496392 1.571 255 255 255
-0.0107589 0.0769083 1.002 255 255 255
0.750863 0.106427 1.551 255 255 255
0.577173 -0.0975844 2.01 255 255 255
-0.272954 0.407185 1.064 255 255 255
0.443475 -1.21146 3.117 255 255 255
-0.213744 -0.769655 2.818 255 255 255
-0.656085 0.555841 1.484 255 255 255
0.104639 -0.13938 1.591 0 0 0
0.0813474 0.24679 0.886 0 0 0
1.3094 -0.341248 2.66 255 255 255
-0.502822 -0.89918 2.793 255 255 255
0.31243 -0.998127 3.231 255 255 255
0.238942 0.281453 0.775 255 255 255
-0.192803 0.286644 1.239 255 255 255
-0.860533 -0.820098 2.818 0 0 0
-0.378221 -0.125188 1.429 0 0 0
0.743022 -0.066844 2.071 255 255 255
-0.0873298 -0.146653 1.39 255 255 255
-0.338169 0.32908 1.247 255 255 255
-0.850164 -0.846161 3.026 255 255 255
0.0910302 0.228452 0.882 255 255 255
-0.418346 0.0331732 1.439 255 255 255
-0.162769 0.19844 1.182 255 255 255
-0.0573437 -0.238057 1.559 255 255 255
0.309836 0.142519 1.079 255 255 255
-0.613474 0.54069 1.516 255 255 255
0.599712 -0.442087 3.165 255 255 255
0.151494 -0.230472 1.65 255 255 255
-0.274537 -0.199044 1.459 255 255 255
-0.0936402 -1.07644 2.793 255 255 255
0.126641 0.000342578 1.267 255 255 255
0.0928451 0.166834 0.914 255 255 255
-0.120356 -1.06238 2.78 0 0 0
1.08708 -0.410964 3.086 0 0 0
-0.214111 0.306315 1.039 255 255 255
0.654136 -0.490624 3.283 255 255 255
1.25749 -0.542436 2.805 255 255 255
1.00632 -0.0589249 2.151 255 255 255
0.374145 0.134544 1.13 255 255 255
-0.800296 -0.64417 2.189 0 0 0
0.414539 -0.0159682 1.682 255 255 255
1.28406 -0.483838 2.707 255 255 255
-0.714473 -0.853897 2.244 255 255 255
0.214531 0.22904 0.832 0 0 0
0.147206 0.0409884 1.249 255 255 255
-1.07914 0.182901 2.114 255 255 255
-0.0731022 0.183809 1.007 255 255 255
0.146289 0.302239 0.814 255 255 255
-0.113446 0.33614 0.96 255 255 255
-0.0153241 0.292408 0.981 255 255 255
0.525654 -0.0810955 1.929 255 255 255
-0.995892 -0.583133 2.228 255 255 255
0.25439 -0.198647 1.748 0 0 0
0.895656 -0.432538 3.248 0 0 0
-0.0642617 0.254994 0.997 255 255 255
-0.0901796 -0.0510788 1.215 255 255 255
-0.549705 -0.628843 3.198 255 255 255
0.183854 0.257054 0.822 255 255 255
1.05025 -0.8297 3.336 255 255 255
0.2786 -0.557177 3.266 255 255 255
1.41908 -1.13552 3.248 0 0 0
1.41661 -0.985126 2.831 255 255 255
-0.140105 -0.140596 1.375 0 0 0
0.793082 -1.13173 3.283 0 0 0
-0.78889 0.446251 1.691 255 255 255
-0.497226 -0.0714837 1.637 0 0 0
0.92944 -0.411184 3.165 255 255 255
-0.55299 -0.339441 1.547 255 255 255
0.092837 0.25708 0.872 255 255 255
-0.726392 0.479951 1.637 255 255 255
0.371086 0.0782761 1.33 255 255 255
0.0408608 0.259618 0.916 255 255 255
0.774989 -0.198604 2.449 255 255 255
-0.401508 -0.171021 1.463 0 0 0
0.00974644 0.109805 0.935 255 255 255
0.00512504 0.138736 0.925 255 255 255
0.307171 -0.803585 3.231 255 255 255
0.0731911 -0.215961 1.583 255 255 255
-0.69131 -0.171306 1.599 255 255 255
0.520872 -0.883299 3.354 255 255 255
-0.284833 -0.0392612 1.281 255 255 255
-0.402783 0.350227 1.319 255 255 255
0.238927 0.048841 1.354 255 255 255
0.945788 -0.404948 3.117 255 255 255
-0.0256107 0.180753 0.948 255 255 255
-0.523707 -0.128739 1.62 255 255 255
0.432176 0.211445 0.927 0 0 0
0.21636 0.288346 0.78 255 255 255
-0.773255 0.0727668 1.646 255 255 255
-0.124166 -0.131358 1.372 255 255 255
-0.664505 0.360965 1.629 255 255 255
0.364012 0.223814 0.954 255 255 255
-0.52698 -0.35148 1.567 255 255 255
0.314107 0.21261 0.9 255 255 255
0.208474 0.291779 0.779 255 255 255
0.393227 0.0834944 1.31 255 255 255
0.237297 -0.602817 3.283 255 255 255
-0.752189 0.1985 1.714 255 255 255
1.46416 -1.13118 3.266 0 0 0
-0.218963 -0.981221 2.768 255 255 255
1.10501 -1.15868 3.181 255 255 255
1.09669 -0.0859097 2.312 255 255 255
-0.691709 -0.808112 2.731 0 0 0
-0.734846 0.473022 1.65 255 255 255
-0.686122 -0.216507 1.587 0 0 0
0.255356 0.163223 1.043 0 0 0
0.952505 -0.997991 3.336 255 255 255
-0.486346 0.466833 1.412 255 255 255
0.290871 0.0515174 1.31 0 0 0
0.186204 -0.609043 3.231 255 255 255
0.221352 0.269028 0.798 255 255 255
-0.17918 0.200026 1.215 255 255 255
-1.00345 -0.771089 2.136 255 255 255
0.126401 0.184397 0.92 255 255 255
-0.248056 0.212443 1.185 255 255 255
0.226477 0.21766 0.862 255 255 255
-0.889611 0.403958 1.71 255 255 255
-1.13203 -0.283624 2.329 255 255 255
-0.0422978 0.240339 0.977 255 255 255
0.311121 0.0100136 1.477 255 255 255
-0.200943 -0.67832 2.898 255 255 255
-0.362204 -0.113778 1.403 0 0 0
-0.274615 0.344416 1.143 255 255 255
1.06563 -0.832545 3.283 0 0 0
0.901836 -0.343999 3.071 255 255 255
-0.324339 0.189113 1.196 255 255 255
0.194268 0.171621 0.975 255 255 255
0.0535188 0.161875 0.879 255 255 255
-0.572956 0.532843 1.494 255 255 255
-0.89797 -0.652021 2.228 255 255 255
-0.179475 0.295417 1.217 255 255 255
-0.434908 0.405079 1.359 255 255 255
-0.815847 0.322519 1.799 255 255 255
0.640001 -0.867961 3.086 255 255 255
-0.577281 -0.169164 1.579 255 255 255
0.143815 0.310568 0.815 255 255 255
0.693801 0.094873 1.612 255 255 255
0.833905 0.0605531 1.758 0 0 0
0.570143 -1.2137 3.231 255 255 255
-0.492461 0.0441093 1.579 255 255 255
-0.0473643 0.130255 0.951 0 0 0
-0.352812 0.11533 1.333 255 255 255
-0.161084 -0.976427 2.78 255 255 255
-0.00095219 0.314758 0.981 255 255 255
-0.811235 -0.741138 2.561 255 255 255
0.352033 0.274391 0.791 0 0 0
0.122731 0.324594 0.834 255 255 255
0.0591924 0.2668 0.9 255 255 255
0.570777 -0.721977 3.391 255 255 255
-0.407058 0.390822 1.333 255 255 255
0.202586 0.138883 1.252 255 255 255
-0.0276981 0.215848 0.967 255 255 255
0.326244 -0.630842 3.318 255 255 255
-1.1123 0.0624626 2.236 255 255 255
-0.244644 -0.242719 1.494 255 255 255
0.339068 0.0102034 1.505 255 255 255
-1.01403 -0.57795 2.236 255 255 255
0.0572626 0.110555 0.916 255 255 255
-0.0747719 0.0706767 1.03 255 255 255
-0.10728 -1.00372 2.793 255 255 255
0.343968 0.0151017 1.505 255 255 255
-0.232056 -0.0543224 1.244 0 0 0
-0.0773853 0.0557997 1.066 255 255 255
-0.426535 0.0407571 1.459 255 255 255
-0.0718178 0.318117 1.012 0 0 0
0.910271 -1.07884 3.301 255 255 255
1.22162 -0.411718 2.755 255 255 255
-0.145679 -0.6894 2.925 255 255 255
-0.349339 -0.249404 1.505 255 255 255
0.0748893 0.166278 0.895 255 255 255
-1.09291 -0.718425 2.114 255 255 255
-0.190909 0.29297 1.09 255 255 255
-0.343763 -1.0358 2.831 255 255 255
0.521098 -0.677831 3.391 0 0 0
0.624166 -0.498713 3.266 255 255 255
-0.757314 0.119732 1.629 255 255 255
0.223978 0.283268 0.78 255 255 255
-0.092209 0.030086 1.077 255 255 255
-0.748293 0.1606 1.668 255 255 255
0.281968 0.107979 1.225 255 255 255
-0.457415 0.320884 1.387 255 255 255
1.38753 -0.997437 3.652 0 0 0
0.218042 -0.115787 1.587 255 255 255
-0.181475 0.31403 0.999 255 255 255
0.120081 0.259813 0.844 255 255 255
-0.119109 0.105054 1.022 0 0 0
0.953396 -0.119257 2.166 255 255 255
0.12259 -0.566644 3.086 255 255 255
0.147844 0.150531 0.952 255 255 255
-0.307074 0.244604 1.182 255 255 255
0.112027 -0.00171653 1.265 0 0 0
-1.01701 -0.131017 2.128 255 255 255
-0.553698 -0.424236 1.535 0 0 0
-0.53999 0.312863 1.477 255 255 255
0.339529 0.195576 1.062 255 255 255
1.09235 -0.752408 3.283 255 255 255
0.16125 0.209343 0.851 0 0 0
1.13312 -1.17029 3.102 255 255 255
0.578619 0.0756199 1.491 255 255 255
-0.493607 0.216813 1.4 255 255 255
-0.770851 0.462926 1.624 255 255 255
-0.439171 -0.940087 2.793 0 0 0
0.411678 -0.664976 3.354 255 255 255
0.343987 -0.772038 3.231 255 255 255
1.25525 -0.732102 3.547 0 0 0
-0.509169 -0.200505 1.583 255 255 255
0.134613 0.240628 0.849 255 255 255
0.0834592 0.202902 0.909 255 255 255
-0.115368 0.327788 0.963 255 255 255
-0.550226 0.135109 1.505 255 255 255
-0.0306972 -0.0583097 1.387 255 255 255
-0.0381797 0.304371 0.994 255 255 255
0.406424 0.154484 1.03 255 255 255
-0.723267 0.0612231 1.624 255 255 255
0.365175 0.296572 0.762 255 255 255
1.28276 -0.490464 2.695 255 255 255
0.169094 0.187903 0.908 0 0 0
-1.10715 0.0902617 2.204 255 255 255
-0.16991 0.00221084 1.165 255 255 255
0.418062 -0.944011 3.318 255 255 255
0.0958954 -0.163609 1.575 255 255 255
-0.111134 0.161346 1.01 255 255 255
-0.303326 0.105292 1.316 255 255 255
-0.949491 -0.79103 3.266 255 255 255
-0.0358576 0.34055 1.02 0 0 0
0.96897 -0.495855 3.318 255 255 255
0.446057 -0.0872283 1.859 255 255 255
0.10319 0.321895 0.852 255 255 255
-0.692177 -0.111179 1.595 255 255 255
-0.671108 -0.727346 3.086 255 255 255
-0.510383 -0.278688 1.603 255 255 255
1.39825 -0.683036 2.898 0 0 0
0.124535 0.276727 0.837 0 0 0
-0.132991 -0.775657 2.857 255 255 255
0.483314 -0.203015 2.085 255 255 255
0.658978 -0.185631 2.244 255 255 255
0.426701 0.114012 1.27 255 255 255
-0.0431694 0.105039 0.961 0 0 0
1.2297 -0.347432 2.743 0 0 0
-0.573616 -0.734912 2.898 255 255 255
-0.118497 -0.725846 2.844 255 255 255
-0.726107 0.527482 1.535 255 255 255
-0.00400648 0.0974469 0.948 0 0 0
0.192577 0.203397 0.861 255 255 255
0.576297 -0.595056 3.391 255 255 255
-0.142487 0.294495 0.988 255 255 255
0.603988 -0.740418 3.301 255 255 255
-0.10743 0.137346 0.991 0 0 0
0.0193612 0.0596877 1.043 0 0 0
0.157268 0.127572 1.057 255 255 255
0.0563163 0.148832 0.878 255 255 255
-0.0585821 -0.130037 1.406 0 0 0
0.354469 0.18838 0.988 255 255 255
-0.0309849 -0.108978 1.4 255 255 255
1.28626 -0.305017 2.684 255 255 255
1.24756 -0.454562 2.743 255 255 255
1.27525 -0.492648 2.707 255 255 255
0.223556 0.21469 0.867 255 255 255
-0.0523069 0.327964 1.017 255 255 255
0.106972 0.3028 0.849 255 255 255
1.32889 -1.11447 3.41 0 0 0
0.428655 -0.165778 2.004 255 255 255
-0.0121885 -0.829919 2.884 255 255 255
0.281573 0.106591 1.232 255 255 255
-0.276987 0.0836856 1.313 0 0 0
-0.106182 0.257064 1.059 0 0 0
0.16699 0.203742 0.845 0 0 0
0.843898 -0.949133 3.336 0 0 0
-0.741969 -0.613847 2.261 255 255 255
1.6974 -1.12389 4.115 255 255 255
-0.0941975 -0.729638 2.953 255 255 255
-0.690441 -0.147147 1.591 0 0 0
-0.819572 -0.695295 2.561 255 255 255
-0.835759 -0.825238 2.286 255 255 255
-0.447225 -0.0121691 1.547 255 255 255
-0.722598 0.39561 1.71 255 255 255
-0.35725 0.42786 1.257 255 255 255
0.557542 -0.110668 2.01 0 0 0
-0.796583 0.19346 1.744 255 255 255
0.309831 0.234503 0.837 0 0 0
0.344964 0.182904 1.079 0 0 0
0.768259 0.00686326 1.947 255 255 255
-0.773154 -0.838432 2.479 255 255 255
0.165878 0.181995 0.923 0 0 0
-0.215509 0.153943 1.242 255 255 255
0.357111 0.231033 0.788 255 255 255
-0.0891268 0.301822 1.041 255 255 255
0.703077 0.147087 1.387 255 255 255
-0.190187 0.0446732 1.185 255 255 255
0.372191 -0.242094 2.071 255 255 255
0.961824 -0.373984 3.071 255 255 255
0.675165 -0.802675 3.086 255 255 255
0.262771 0.295794 0.76 255 255 255
0.164978 0.256235 0.828 255 255 255
1.29164 -0.86399 3.429 0 0 0
0.109486 0.212171 0.892 255 255 255
-0.666395 -0.810731 2.755 0 0 0
-0.717158 0.517971 1.559 255 255 255
0.344548 0.227686 0.832 255 255 255
-0.476513 -0.0389129 1.612 255 255 255
0.114151 0.121325 0.93 0 0 0
0.793855 -0.785054 3.354 255 255 255
-0.798381 0.0114035 1.682 0 0 0
-0.624571 -0.955886 2.672 255 255 255
-0.2599 0.0304062 1.232 255 255 255
-0.0385565 0.189882 0.963 255 255 255
-0.625967 0.569735 1.47 0 0 0
0.275256 0.124687 1.213 255 255 255
1.39728 -0.968067 3.631 0 0 0
0.00386974 0.0807388 0.989 255 255 255
1.14644 -0.708325 3.181 0 0 0
-0.236986 -0.846087 2.768 255 255 255
0.221161 -0.129455 1.629 255 255 255
1.57058 -1.20534 3.763 255 255 255
-0.0134473 0.223892 0.961 255 255 255
-0.780814 -0.735488 2.356 255 255 255
0.298352 -0.0145727 1.535 255 255 255
0.0958207 0.193606 0.914 255 255 255
-0.0982263 0.124191 0.964 255 255 255
0.0538709 -0.692795 3.181 255 255 255
-0.477855 -0.944759 2.78 255 255 255
0.277243 -1.15316 2.967 255 255 255
0.670072 -0.729974 3.231 0 0 0
-0.591748 -0.353629 1.543 255 255 255
0.378578 0.287813 0.782 0 0 0
0.276578 0.227802 0.874 255 255 255
-0.17213 0.345731 0.992 255 255 255
-0.274446 -0.0386789 1.262 255 255 255
0.295898 0.288168 0.753 255 255 255
-1.11987 -0.639462 2.173 255 255 255
-0.184643 0.293372 1.225 255 255 255
-0.0325209 0.213361 0.97 255 255 255
-0.596781 -0.179896 1.583 255 255 255
0.0245125 0.151131 0.918 255 255 255
-0.102946 -0.132794 1.387 0 0 0
0.0498073 0.341603 0.916 255 255 255
-0.550106 0.349002 1.498 255 255 255
0.111278 -0.189239 1.575 255 255 255
0.336571 0.278905 0.782 255 255 255
0.528473 0.0188919 1.62 255 255 255
0.0522657 0.143769 0.882 0 0 0
1.16818 -1.12845 3.198 0 0 0
-0.603672 0.514993 1.535 255 255 255
-1.16939 0.134269 2.22 255 255 255
0.208399 -0.0770214 1.535 255 255 255
0.3758 -0.0605801 1.705 0 0 0
-0.960957 -0.545576 3.198 255 255 255
-0.953614 0.278162 1.917 255 255 255
-0.379165 0.13129 1.319 0 0 0
-0.421968 0.325032 1.339 255 255 255
-0.606475 -0.315892 1.555 255 255 255
0.644578 -0.0117417 1.882 0 0 0
0.953681 -0.255217 2.312 255 255 255
0.187179 0.211491 0.843 255 255 255
-0.803799 -0.845197 2.499 255 255 255
1.09946 -1.15801 3.165 255 255 255
1.07174 -0.0724278 2.244 255 255 255
-0.0205758 -0.297416 1.664 0 0 0
-0.00811781 0.0126529 1.085 255 255 255
0.526083 -0.938612 3.318 255 255 255
-0.52543 -0.682149 3.086 255 255 255
-1.11875 -0.342824 2.294 255 255 255
0.957454 -0.0686837 2.128 255 255 255
-0.824324 -0.745088 2.338 255 255 255
0.303548 -0.201016 1.821 255 255 255
1.10563 -0.0619383 2.261 255 255 255
0.394617 -0.789142 3.215 255 255 255
0.366769 -0.149957 1.887 255 255 255
-0.162218 0.159429 1.178 255 255 255
0.968564 -0.877841 3.354 255 255 255
-0.106989 0.179697 1.05 255 255 255
-0.703194 0.183298 1.677 255 255 255
0.828879 -0.0539043 2.092 255 255 255
-0.706551 0.0372536 1.616 255 255 255
-0.259653 0.106963 1.26 0 0 0
0.658022 -0.425879 3.198 0 0 0
0.380776 0.224179 0.969 255 255 255
1.00678 -0.949411 3.318 255 255 255
1.21328 -0.638333 2.953 255 255 255
-0.49073 -0.148627 1.607 255 255 255
0.13054 0.137779 0.939 255 255 255
0.0561305 -1.03524 2.78 255 255 255
-0.0533377 -0.0578081 1.232 0 0 0
-0.468804 -0.917615 2.78 255 255 255
-0.51055 -0.0235328 1.637 0 0 0
-0.550122 -0.418421 1.532 0 0 0
0.394879 0.204309 0.779 255 255 255
-0.823637 -0.84338 2.898 255 255 255
0.421212 0.207652 0.873 0 0 0
-0.374824 -0.989524 2.857 255 255 255
-0.195291 0.114169 1.147 255 255 255
-0.0728844 0.17836 1.004 255 255 255
-0.530327 -0.359581 1.547 255 255 255
0.483521 -0.163467 2.057 0 0 0
0.867899 -1.12104 3.283 255 255 255
0.189704 0.0854134 1.275 255 255 255
0.389626 0.124181 1.171 0 0 0
1.02288 -0.597475 3.283 255 255 255
-0.352737 -0.0175288 1.375 255 255 255
0.576518 0.174046 1.286 255 255 255
1.41274 -0.976078 2.805 255 255 255
-0.26233 0.0143905 1.234 255 255 255
0.296082 -0.645557 3.283 255 255 255
0.844554 -0.207429 2.204 255 255 255
0.0867988 0.199338 0.913 255 255 255
-0.745352 0.311878 1.724 255 255 255
0.468143 0.0584782 1.487 255 255 255
-0.439171 -0.944632 2.793 0 0 0
-0.547129 -0.0427076 1.559 255 255 255
0.452203 0.0763712 1.459 0 0 0
-0.767913 0.490064 1.559 255 255 255
-0.0647364 -0.779839 2.925 255 255 255
-0.478877 -0.0496512 1.62 255 255 255
-0.627405 -0.233581 1.563 255 255 255
0.201124 0.199293 0.88 255 255 255
0.162428 -0.179112 1.599 255 255 255
0.033989 0.300553 0.932 255 255 255
-0.174672 0.251509 1.225 255 255 255
-0.709064 0.385711 1.691 255 255 255
-0.493607 0.219092 1.4 255 255 255
-0.619972 0.216817 1.583 255 255 255
-0.0130276 0.126 0.931 255 255 255
-0.640852 0.360421 1.603 255 255 255
0.905421 -0.201029 2.136 255 255 255
-0.507885 -0.0448443 1.637 0 0 0
-0.107504 -0.11021 1.359 255 255 255
-0.751176 0.484423 1.599 255 255 255
0.175728 -0.0699609 1.491 0 0 0
-1.20561 -0.272962 2.303 255 255 255
-0.381155 -0.178816 1.449 255 255 255
0.355221 0.288408 0.77 255 255 255
-0.308892 0.257662 1.189 255 255 255
0.0193832 0.348638 0.96 255 255 255
-0.601962 0.19373 1.563 255 255 255
0.275882 0.271713 0.776 255 255 255
-0.632687 -0.297411 1.551 255 255 255
0.766556 -1.19987 3.354 255 255 255
-1.03641 -0.53658 2.261 255 255 255
-0.533439 -0.022584 1.571 255 255 255
-0.00778861 0.0663494 1.041 255 255 255
-0.101725 0.00559032 1.085 255 255 255
-0.0425855 0.143728 0.948 255 255 255
0.439456 0.209164 0.917 0 0 0
0.146887 0.182304 0.917 255 255 255
-0.95939 -0.739998 2.253 255 255 255
0.585495 -0.668638 3.318 255 255 255
-0.161013 0.303919 1.104 255 255 255
0.0201073 -1.0126 2.805 255 255 255
-0.242469 0.0359182 1.215 255 255 255
0.196977 -0.0510248 1.505 0 0 0
-0.557043 0.0631901 1.484 255 255 255
-0.537585 0.0893312 1.477 255 255 255
0.363217 -0.935634 3.215 255 255 255
-0.0274976 0.200226 0.96 255 255 255
-0.128969 -0.80749 2.871 255 255 255
0.777389 -0.595964 3.527 255 255 255
-1.07702 -0.794006 2.151 255 255 255
-0.183437 0.186492 1.217 255 255 255
-0.913007 -0.740565 2.312 255 255 255
0.842369 -0.202455 2.189 255 255 255
0.225145 0.191352 0.932 255 255 255
-0.505054 -0.79624 2.831 0 0 0
0.25942 0.233141 0.837 255 255 255
1.34742 -0.226397 2.684 255 255 255
-0.151829 0.325989 0.986 255 255 255
-0.812183 0.46827 1.571 255 255 255
-0.587862 -0.653846 3.071 255 255 255
-0.767391 -0.60816 3.283 255 255 255
-0.720807 0.549806 1.449 255 255 255
0.755855 -0.598291 3.507 255 255 255
0.855401 -0.098865 2.107 255 255 255
-0.823747 -0.82066 2.294 255 255 255
-0.299064 0.0747814 1.345 255 255 255
-0.581806 0.0613485 1.498 255 255 255
-0.116296 0.104026 1.012 0 0 0
0.126204 0.217167 0.877 0 0 0
0.240848 0.181984 0.997 255 255 255
-0.345342 -1.00353 2.844 255 255 255
1.27084 -0.316441 2.707 255 255 255
-0.0160585 0.130545 0.931 255 255 255
1.00162 -0.933803 3.301 255 255 255
-0.19184 0.123014 1.16 255 255 255
-0.302915 0.121402 1.305 255 255 255
-1.12444 -0.166132 2.329 255 255 255
-0.572219 -0.869013 2.755 255 255 255
-0.74824 0.18081 1.705 255 255 255
0.996457 -1.01411 3.215 255 255 255
-0.441544 0.424983 1.359 255 255 255
0.235702 0.155251 1.024 255 255 255
-0.660361 0.543157 1.516 255 255 255
0.393801 0.213361 0.97 255 255 255
-0.520318 0.306932 1.449 255 255 255
0.92036 -1.11679 3.318 255 255 255
1.00697 -0.833208 3.487 255 255 255
1.02257 -0.28172 2.479 255 255 255
0.373801 0.287076 0.78 0 0 0
0.617132 0.14958 1.31 255 255 255
0.823746 -0.00595959 1.997 255 255 255
-0.345456 0.403191 1.244 255 255 255
-0.304709 0.0390814 1.322 0 0 0
0.315969 0.281924 0.766 0 0 0
-0.523586 0.513016 1.445 255 255 255
0.218906 -0.575248 3.248 255 255 255
0.10202 0.0809228 1.152 255 255 255
0.701264 0.13995 1.406 255 255 255
-0.0167827 -0.220863 1.563 255 255 255
0.684589 -1.11107 3.301 255 255 255
-0.647835 -0.299935 1.551 0 0 0
0.0323435 0.0635995 1.024 0 0 0
0.271165 -0.0273445 1.551 255 255 255
-0.394539 0.318721 1.313 255 255 255
-0.0392986 -0.1001 1.372 255 255 255
0.342448 0.28001 0.778 255 255 255
0.0123524 -0.0170351 1.185 255 255 255
0.70532 -1.2518 3.248 255 255 255
-0.627244 0.556515 1.473 255 255 255
-0.0451527 0.371212 0.97 255 255 255
-0.414802 0.320683 1.33 255 255 255
0.509773 0.193919 1.053 0 0 0
0.351738 0.00542504 1.539 255 255 255
-0.626912 -0.348607 1.543 0 0 0
1.4504 -1.13707 3.283 0 0 0
1.79476 -1.19999 4.17 255 255 255
0.103373 -1.00348 2.967 255 255 255
0.347313 -0.172489 1.865 255 255 255
-0.829997 -0.585099 3.215 255 255 255
-0.38762 0.454139 1.297 255 255 255
0.235859 0.29774 0.765 255 255 255
-0.0697598 0.163432 0.983 255 255 255
0.470861 0.172742 1.039 0 0 0
0.457535 0.0511153 1.484 255 255 255
0.0310212 0.24648 0.934 0 0 0
1.07477 -0.102095 2.338 255 255 255
-0.5681 -0.331889 1.547 255 255 255
-0.181085 0.370061 0.988 255 255 255
-1.09997 -0.558919 2.204 255 255 255
0.223994 0.0202415 1.357 255 255 255
1.05627 -0.342207 3.055 255 255 255
-1.01401 -0.595105 2.166 255 255 255
0.0705972 -0.538173 3.011 255 255 255
-0.232861 -0.141589 1.342 255 255 255
-0.014793 0.111214 0.947 0 0 0
-0.781064 -0.715586 2.392 255 255 255
-0.180023 -0.744646 2.793 255 255 255
0.722879 -1.21624 3.354 255 255 255
-0.165829 -0.120844 1.33 255 255 255
0.394282 0.191669 0.941 0 0 0
0.377727 0.228212 0.898 255 255 255
0.446954 -0.723633 3.373 255 255 255
-0.266547 0.237015 1.173 255 255 255
0.2057 0.144919 1.234 255 255 255
0.220204 0.21981 0.854 255 255 255
0.390931 0.0706496 1.393 0 0 0
0.104578 0.0727593 1.203 255 255 255
-0.780719 0.280039 1.753 255 255 255
-0.198925 0.198008 1.227 0 0 0
-0.0115146 -0.202445 1.539 255 255 255
-0.424148 0.436161 1.339 255 255 255
-0.989297 -0.795904 2.128 255 255 255
0.0796286 0.131423 0.916 255 255 255
0.242285 0.249866 0.816 0 0 0
0.69447 -0.0663921 2.057 255 255 255
0.154852 0.131076 0.957 0 0 0
-0.418234 -0.786208 2.967 0 0 0
-0.547129 -0.31163 1.559 255 255 255
-1.1398 -0.398167 2.269 255 255 255
0.382691 0.156434 1.043 0 0 0
-0.703921 0.0740703 1.616 255 255 255
0.28005 -0.634872 3.283 255 255 255
0.0764315 0.229162 0.896 0 0 0
1.05737 -0.342423 3.102 0 0 0
0.128185 0.0468221 1.242 255 255 255
0.794068 -0.0711635 2.099 255 255 255
-0.714862 -0.64265 3.215 255 255 255
0.186076 0.260432 0.82 255 255 255
-0.00095219 0.313162 0.981 255 255 255
0.465411 -1.066 3.198 255 255 255
0.0855929 0.189558 0.916 255 255 255
-0.244153 -0.234953 1.491 255 255 255
-0.898431 -0.708667 2.294 255 255 255
-0.542681 0.357076 1.491 255 255 255
0.428138 -1.07174 3.231 255 255 255
0.28544 -0.885029 3.165 255 255 255
0.630733 0.0540167 1.646 255 255 255
-0.111313 -0.730196 2.898 255 255 255
0.979541 -1.20117 3.373 255 255 255
-0.49759 0.0608377 1.547 255 255 255
1.24694 -0.200191 2.684 0 0 0
0.0364592 -0.196958 1.555 255 255 255
0.149649 0.194263 0.864 0 0 0
-1.01387 -0.476426 2.204 255 255 255
-1.06117 -0.499743 2.228 255 255 255
-0.627772 -0.856301 2.743 0 0 0
-0.331164 0.0222016 1.342 255 255 255
0.0085048 -0.196923 1.535 255 255 255
-0.025671 -0.930158 2.818 255 255 255
-0.414802 0.433229 1.33 255 255 255
-0.258291 0.174323 1.215 255 255 255
0.0285848 0.171082 0.905 255 255 255
0.273817 0.139664 1.173 255 255 255
-0.399156 0.00968819 1.429 0 0 0
1.29843 -1.12793 2.939 255 255 255
0.671887 0.0980699 1.579 255 255 255
0.863789 0.0330894 1.821 0 0 0
-0.470996 -0.994628 2.793 255 255 255
-0.303086 0.288621 1.189 255 255 255
0.0999747 -0.248059 1.642 255 255 255
0.819802 -1.2546 3.283 255 255 255
0.840223 -0.431084 3.198 0 0 0
1.31491 -0.223932 2.707 0 0 0
-0.157035 -0.00719972 1.154 0 0 0
-0.38194 0.0026568 1.4 0 0 0
0.634722 -0.027558 1.917 255 255 255
0.0784116 0.211614 0.902 255 255 255
0.378441 0.0340493 1.477 255 255 255
0.00629511 -1.04835 2.755 255 255 255
-0.175253 -1.0081 2.719 255 255 255
0.106846 0.331423 0.848 255 255 255
0.00220272 0.285772 0.964 0 0 0
1.33243 -0.746674 3.507 255 255 255
-0.549607 0.233545 1.477 255 255 255
-0.139299 0.0113589 1.132 0 0 0
0.571591 -0.813769 3.429 255 255 255
0.0848454 0.170171 0.908 0 0 0
-1.07701 -0.652607 2.158 255 255 255
0.347266 0.218518 0.813 255 255 255
-0.675436 -1.02133 2.684 0 0 0
-0.915377 -0.824683 2.244 255 255 255
0.416579 0.187788 1.002 255 255 255
0.101995 0.191049 0.916 255 255 255
0.942218 -0.30095 3.04 255 255 255
-0.552676 0.120414 1.505 255 255 255
-0.0645945 -0.0220884 1.147 255 255 255
0.269062 0.0276385 1.396 255 255 255
0.143225 0.171944 0.942 255 255 255
0.27326 0.0877367 1.249 255 255 255
1.66003 -1.13742 3.429 0 0 0
-0.214904 0.186028 1.227 255 255 255
-0.671181 0.551934 1.48 255 255 255
-0.466531 -0.766895 2.967 255 255 255
0.139038 0.223413 0.868 0 0 0
-0.560913 -0.315892 1.555 255 255 255
-0.371452 0.0698888 1.378 0 0 0
-0.205773 0.290475 1.143 255 255 255
-0.775609 -0.844639 2.793 0 0 0
0.365626 0.280688 0.787 0 0 0
-1.09511 -0.635926 2.173 255 255 255
-1.16615 -0.268464 2.329 255 255 255
-0.430086 0.0646767 1.463 255 255 255
-0.276582 0.268088 1.167 255 255 255
0.892771 -0.514831 3.336 255 255 255
0.523788 0.214826 1.03 0 0 0
1.00129 -0.850231 3.487 255 255 255
0.103069 0.331211 0.851 255 255 255
-0.97359 -0.693559 2.269 255 255 255
1.25525 -0.657064 3.547 0 0 0
0.671987 -0.987953 3.215 255 255 255
-0.133162 0.326002 0.967 255 255 255
-0.628285 0.378436 1.591 255 255 255
-0.490028 0.537284 1.416 255 255 255
0.243346 0.106284 1.252 255 255 255
