ply
format ascii 1.0
comment Created by Open3D
element vertex 1299
property double x
property double y
property double z
property uchar red
property uchar green
property uchar blue
end_header
0.211387 0.142572 0.547 255 255 255
-0.102986 0.118338 0.538 255 255 255
-0.160734 -0.0431351 0.369 0 0 0
-0.127354 -0.104899 0.633 0 0 0
-0.0119037 0.15178 0.501 255 255 255
-0.13628 0.155956 0.456 255 255 255
0.092913 0.138959 0.517 255 255 255
-0.0512376 -0.252415 0.722 255 255 255
-0.17326 -0.122012 0.332 255 255 255
-0.0927709 -0.0694306 0.69 255 255 255
0.091899 0.167453 0.485 255 255 255
0.0115571 -0.0661421 0.755 255 255 255
-0.141666 -0.131791 0.619 255 255 255
0.258016 -0.22439 0.633 255 255 255
-0.153285 -0.0392805 0.638 0 0 0
-0.0500465 0.118938 0.553 255 255 255
0.286101 -0.228145 0.597 255 255 255
-0.270612 -0.0408216 0.764 255 255 255
-0.156866 -0.0116466 0.38 255 255 255
-0.000485316 0.154731 0.5 255 255 255
0.116113 0.0818747 0.652 255 255 255
0.171326 -0.168119 0.755 255 255 255
-0.0941092 -0.163075 0.66 255 255 255
0.0330099 -0.0840955 0.74 255 255 255
-0.0786523 -0.0862219 0.748 255 255 255
0.174097 0.133337 0.553 255 255 255
-0.196036 0.0782237 0.378 255 255 255
-0.0118087 0.154612 0.497 255 255 255
0.00759264 0.0873138 0.63 255 255 255
0.00121332 0.138401 0.531 255 255 255
0.146199 -0.215162 0.765 255 255 255
0.247622 0.158005 0.533 255 255 255
0.18416 -0.200017 0.728 255 255 255
0.122733 0.167159 0.473 0 0 0
0.0155296 -0.225083 0.917 255 255 255
-0.170291 -0.108586 0.339 255 255 255
0.145428 0.108424 0.594 255 255 255
0.0993731 0.120013 0.558 255 255 255
0.267409 -0.093828 0.664 255 255 255
-0.0863572 0.162278 0.455 255 255 255
0.0931564 -0.055296 0.875 255 255 255
-0.274059 -0.0687181 0.743 255 255 255
-0.154192 -0.025529 0.375 255 255 255
0.0220788 -0.0945487 0.737 0 0 0
0.237731 -0.143249 0.678 255 255 255
0.154418 0.166763 0.483 255 255 255
-0.145769 -0.0130529 0.385 255 255 255
0.227798 -0.198416 0.678 255 255 255
0.00421085 -0.0876052 0.76 255 255 255
0.0682449 0.115964 0.556 255 255 255
0.246671 0.0802172 0.745 255 255 255
0.223713 -0.205338 0.679 255 255 255
0.132467 0.144848 0.517 255 255 255
-0.0616668 0.151514 0.482 255 255 255
-0.116943 0.0988229 0.572 255 255 255
0.0737204 -0.163327 0.543 0 0 0
-0.256001 -0.0329595 0.784 255 255 255
0.0467744 0.165867 0.492 255 255 255
0.291849 0.0144195 0.673 255 255 255
-0.0959985 0.146932 0.485 255 255 255
-0.158347 0.0608938 0.406 255 255 255
0.0735028 0.0721118 0.68 0 0 0
-0.029388 0.0904979 0.61 255 255 255
0.0498954 0.0125596 0.842 255 255 255
-0.212991 0.0300196 0.705 255 255 255
-0.186861 0.0381044 0.706 255 255 255
-0.186783 0.0892307 0.383 255 255 255
-0.107995 0.0363274 0.694 255 255 255
-0.117081 0.107627 0.555 255 255 255
0.133259 0.0964819 0.623 255 255 255
-0.176816 0.143144 0.465 255 255 255
0.114299 0.0860754 0.636 255 255 255
0.131512 0.0755251 0.671 255 255 255
0.0420579 -0.049904 0.751 0 0 0
-0.192853 0.0938496 0.379 255 255 255
0.259758 -0.18351 0.645 255 255 255
-0.0565343 0.0676638 0.648 255 255 255
-0.153317 -0.119356 0.343 255 255 255
0.123314 0.068792 0.68 255 255 255
0.139635 -0.219074 0.77 255 255 255
0.225017 -0.0399727 0.726 255 255 255
-0.186307 -0.0167512 0.357 255 255 255
0.22211 -0.0319646 0.732 255 255 255
0.200124 -0.240021 0.693 255 255 255
0.0727248 -0.00125246 0.923 255 255 255
0.199485 -0.0259023 0.764 255 255 255
0.125436 -0.113893 0.825 255 255 255
-0.123816 -0.0950463 0.636 0 0 0
0.143624 -0.111915 0.792 255 255 255
0.00305588 -0.0213949 0.781 255 255 255
0.188747 0.0118137 0.792 255 255 255
-0.213877 0.147456 0.446 255 255 255
0.0772159 0.172899 0.487 255 255 255
0.198441 -0.0480285 0.76 255 255 255
-0.0165845 0.109454 0.579 255 255 255
0.203973 0.0936137 0.638 255 255 255
0.187303 -0.105458 0.755 255 255 255
0.00860309 0.15142 0.508 0 0 0
-0.108263 0.063903 0.642 255 255 255
-0.286153 -0.0323289 0.769 255 255 255
-0.164625 -0.265332 0.735 255 255 255
-0.223975 -0.256681 0.666 255 255 255
0.00561854 0.135224 0.539 255 255 255
-0.235167 -0.21527 0.686 255 255 255
-0.0299716 0.165845 0.465 255 255 255
-0.0519406 0.116448 0.554 255 255 255
-0.13258 -0.269527 0.75 0 0 0
0.217052 -0.143015 0.704 255 255 255
0.188878 0.0313824 0.798 255 255 255
0.120452 0.144568 0.516 255 255 255
0.26325 -0.126366 0.659 255 255 255
-0.0354847 0.170056 0.458 255 255 255
0.251735 0.0671796 0.735 255 255 255
-0.0694391 0.0333683 0.728 255 255 255
-0.122988 -0.08524 0.648 255 255 255
-0.0997818 -0.17171 0.648 255 255 255
-0.167493 0.079068 0.401 255 255 255
-0.122974 -0.126294 0.637 255 255 255
-0.10995 -0.130329 0.652 0 0 0
0.0488844 -0.200168 0.552 255 255 255
0.12136 0.136673 0.531 255 255 255
-0.236277 0.0300621 0.706 255 255 255
-0.149545 -0.276321 0.72 255 255 255
0.265572 0.0161832 0.702 255 255 255
0.124056 -0.0532738 0.843 255 255 255
-0.0906468 0.140617 0.499 255 255 255
0.250194 -0.124114 0.67 255 255 255
-0.122801 0.055787 0.67 255 255 255
-0.00383743 -0.256859 0.908 255 255 255
0.0982965 0.143717 0.51 255 255 255
0.164975 -0.204138 0.743 255 255 255
0.0816229 -0.0561807 0.889 255 255 255
-0.081706 -0.255512 0.711 255 255 255
0.304435 0.0182415 0.653 255 255 255
0.0418385 0.12544 0.531 255 255 255
-0.15123 0.0661641 0.41 255 255 255
0.213711 0.0708356 0.775 0 0 0
-0.037896 0.130493 0.534 255 255 255
-0.184079 0.0588621 0.644 255 255 255
-0.08681 -0.117572 0.67 0 0 0
-0.0549303 0.155702 0.478 255 255 255
-0.0579804 0.122089 0.543 255 255 255
-0.10765 0.0574485 0.664 0 0 0
0.1629 0.142659 0.534 255 255 255
0.00780714 0.175671 0.461 255 255 255
0.000513252 -0.0048726 0.781 255 255 255
-0.151118 -0.0275787 0.378 255 255 255
-0.0599024 0.112442 0.561 255 255 255
-0.0863542 0.156679 0.467 255 255 255
0.119619 0.178672 0.461 255 255 255
-0.177618 0.131959 0.488 255 255 255
-0.221133 0.0570959 0.636 255 255 255
0.140534 0.0690955 0.683 255 255 255
-0.137408 0.143256 0.478 255 255 255
0.00304414 -0.0377715 0.778 255 255 255
0.243225 0.0204205 0.731 255 255 255
-0.18285 -0.00404801 0.364 255 255 255
0.0316439 0.127017 0.534 255 255 255
0.0134845 0.152992 0.505 255 255 255
-0.130445 -0.150223 0.633 0 0 0
-0.196493 0.0691094 0.614 255 255 255
0.18867 -0.232705 0.705 255 255 255
-0.22153 0.148673 0.441 255 255 255
0.112898 -0.0649344 0.852 255 255 255
-0.0416385 0.107878 0.561 0 0 0
-0.15028 -0.0305932 0.652 0 0 0
-0.169673 0.146844 0.46 255 255 255
-0.115025 0.166237 0.44 255 255 255
-0.017323 0.174796 0.451 255 255 255
0.211573 -0.0576805 0.741 255 255 255
0.0852302 0.173051 0.483 0 0 0
-0.031288 0.15006 0.498 255 255 255
-0.25786 -0.234942 0.645 255 255 255
0.146826 0.128604 0.552 255 255 255
-0.104823 0.155491 0.468 255 255 255
0.236774 0.180944 0.481 255 255 255
-0.102646 -0.0685249 0.681 0 0 0
-0.183946 -0.00108926 0.365 255 255 255
0.0116345 0.173794 0.464 255 255 255
0.0739473 0.157847 0.497 0 0 0
0.273892 0.0308132 0.697 255 255 255
0.290172 -0.0880775 0.638 255 255 255
0.229965 -0.230361 0.662 255 255 255
-0.21839 -0.216338 0.693 255 255 255
-0.00992141 -0.210261 0.924 255 255 255
0.134791 0.17715 0.459 255 255 255
-0.233613 -0.212538 0.688 255 255 255
-0.154219 0.0740036 0.605 255 255 255
0.206082 0.157773 0.518 255 255 255
-0.00785982 0.0347429 0.732 255 255 255
0.111118 -0.0771402 0.849 255 255 255
0.1277 -0.0687431 0.831 255 255 255
0.242531 -0.142827 0.676 255 255 255
-0.192449 0.0847653 0.377 255 255 255
-0.136497 -0.138726 0.623 0 0 0
-0.136747 -0.152957 0.615 255 255 255
0.129056 0.0560819 0.858 255 255 255
-0.155521 -0.11247 0.618 0 0 0
-0.0036287 0.161139 0.485 255 255 255
0.218996 0.0389004 0.767 255 255 255
0.262134 -0.0411793 0.687 255 255 255
-0.0815275 0.110222 0.559 255 255 255
-0.149219 -0.0305932 0.652 0 0 0
-0.152047 0.117592 0.523 255 255 255
0.0691609 -0.156512 0.86 255 255 255
0.200437 -0.1963 0.702 255 255 255
0.247848 0.151249 0.543 255 255 255
-0.175439 -0.054208 0.355 255 255 255
-0.0886003 -0.239999 0.72 255 255 255
0.167482 -0.0729725 0.789 255 255 255
0.0447158 -0.180779 0.545 255 255 255
-0.195733 -0.0298065 0.709 255 255 255
-0.155199 -0.126429 0.341 255 255 255
-0.261259 -0.0902384 0.741 255 255 255
0.303714 0.112472 0.69 255 255 255
-0.015913 -0.252536 0.719 255 255 255
0.31625 0.138444 0.669 0 0 0
-0.0640929 0.158787 0.471 255 255 255
0.00235941 0.0992722 0.603 0 0 0
-0.166587 -0.148675 0.618 0 0 0
0.311222 -0.0984311 0.612 255 255 255
-0.092155 0.0688037 0.639 255 255 255
0.272011 -0.189068 0.632 255 255 255
0.2286 -0.250309 0.655 255 255 255
0.0330002 0.107752 0.542 0 0 0
-0.087059 -0.166337 0.747 0 0 0
-0.199798 0.129302 0.484 255 255 255
-0.0669377 0.0484694 0.69 255 255 255
0.134713 -0.0161956 0.841 255 255 255
0.307091 -0.0683017 0.628 255 255 255
0.0366236 -0.0877082 0.74 255 255 255
-0.274144 -0.0430815 0.76 255 255 255
-0.105036 0.0556205 0.668 0 0 0
-0.2571 -0.101607 0.736 255 255 255
-0.0730792 0.163313 0.46 255 255 255
-0.0112277 -0.234695 0.908 255 255 255
0.274365 0.086416 0.716 255 255 255
0.19383 -0.106772 0.747 255 255 255
-0.0533949 -0.0326536 0.808 255 255 255
0.111406 0.160019 0.484 255 255 255
0.289133 -0.0891158 0.638 255 255 255
-0.078928 0.151514 0.482 255 255 255
0.190177 0.0599518 0.798 0 0 0
0.262953 0.115778 0.64 255 255 255
-0.185726 -0.0109416 0.357 255 255 255
0.277082 0.104039 0.717 255 255 255
0.14971 -0.0670887 0.811 255 255 255
-0.144928 -0.081124 0.367 255 255 255
-0.153524 0.0109505 0.392 255 255 255
-0.188916 0.007167 0.362 255 255 255
-0.246927 -0.0752375 0.76 255 255 255
-0.0568873 -0.090114 0.75 255 255 255
0.313162 -0.038911 0.632 255 255 255
0.0382073 0.0228221 0.772 0 0 0
0.0187827 0.0789403 0.663 255 255 255
-0.133325 -0.0903346 0.632 0 0 0
-0.238874 -0.0947757 0.758 255 255 255
-0.159013 -0.0301677 0.372 0 0 0
-0.0443809 -0.238633 0.745 255 255 255
0.218508 -0.128303 0.705 255 255 255
0.1603 -0.160786 0.761 255 255 255
-0.141769 -0.0927925 0.359 255 255 255
0.173594 0.102249 0.615 255 255 255
0.228702 0.126122 0.582 255 255 255
-0.120162 0.158966 0.454 255 255 255
-0.0760022 -0.038034 0.758 255 255 255
-0.120821 0.150921 0.468 255 255 255
0.172374 0.173683 0.474 255 255 255
0.0330087 -0.0185392 0.768 255 255 255
0.0135077 0.0731226 0.669 0 0 0
0.241636 0.151012 0.539 255 255 255
-0.261378 -0.0315624 0.781 255 255 255
-0.122039 -0.15155 0.643 255 255 255
0.265559 0.0254305 0.705 255 255 255
-0.166577 -0.0392108 0.366 255 255 255
0.114173 0.1426 0.518 255 255 255
0.0688297 0.0970946 0.584 0 0 0
0.0861526 -0.165131 0.549 0 0 0
-0.148596 -0.0234574 0.381 255 255 255
-0.226894 -0.228213 0.688 255 255 255
-0.18965 0.0619412 0.38 255 255 255
0.239737 0.184486 0.476 255 255 255
0.167623 0.0853263 0.646 255 255 255
-0.147734 -0.122705 0.343 0 0 0
-0.0651715 -0.0861067 0.747 255 255 255
-0.172021 0.118078 0.514 255 255 255
-0.0412896 0.0210909 0.755 0 0 0
-0.176192 -0.121017 0.642 0 0 0
0.29486 -0.188943 0.599 255 255 255
-0.00393463 -0.199734 0.931 255 255 255
-0.168845 0.0933121 0.395 255 255 255
-0.068676 -0.252887 0.72 0 0 0
0.209063 -0.221817 0.689 255 255 255
0.179542 -0.233815 0.719 255 255 255
-0.122894 -0.180567 0.642 255 255 255
-0.194352 0.00840808 0.721 255 255 255
0.111345 0.0980856 0.614 255 255 255
-0.1955 0.0440542 0.37 255 255 255
0.00513257 0.04447 0.716 255 255 255
0.0715668 0.175465 0.481 255 255 255
0.0498763 0.167128 0.491 255 255 255
0.0685613 0.152992 0.505 255 255 255
0.136022 -0.0860929 0.816 255 255 255
-0.191211 0.0219548 0.363 255 255 255
-0.0391571 -0.0793119 0.978 255 255 255
0.0858427 0.15674 0.491 0 0 0
-0.155261 0.0719895 0.613 0 0 0
0.165028 0.0912503 0.636 255 255 255
0.146289 0.168572 0.477 255 255 255
0.116476 0.0302765 0.879 255 255 255
0.184714 0.163354 0.499 255 255 255
-0.189651 0.0216584 0.368 255 255 255
0.204562 0.113991 0.603 255 255 255
0.0838175 0.0367354 0.897 255 255 255
0.274037 -0.0415585 0.675 255 255 255
-0.115256 0.153407 0.464 255 255 255
-0.0512285 0.0811441 0.622 0 0 0
-0.189644 0.100027 0.548 255 255 255
-0.192124 0.0971892 0.38 255 255 255
0.295248 -0.151709 0.614 255 255 255
0.059578 -0.15449 0.543 0 0 0
0.160724 0.0536021 0.841 0 0 0
0.0706424 0.111072 0.568 255 255 255
0.201854 -0.0962897 0.732 255 255 255
0.314854 0.104225 0.673 255 255 255
-0.180976 -0.0159386 0.365 255 255 255
0.136051 -0.21685 0.771 255 255 255
0.195587 -0.223399 0.701 255 255 255
0.0301294 0.107832 0.538 0 0 0
0.1855 0.172815 0.478 255 255 255
0.124909 0.0355477 0.868 255 255 255
0.283639 -0.128998 0.635 255 255 255
0.0358204 0.0999281 0.573 0 0 0
0.273853 -0.010882 0.68 255 255 255
-0.132087 -0.145641 0.631 0 0 0
-0.18042 0.14895 0.455 255 255 255
-0.218462 0.127452 0.48 255 255 255
-0.0302493 0.0356395 0.726 255 255 255
-0.259875 -0.132265 0.714 255 255 255
0.287321 0.148183 0.565 255 255 255
-0.15975 -0.0952942 0.351 0 0 0
0.271662 -0.171635 0.636 255 255 255
0.182071 -0.0113711 0.791 255 255 255
0.282104 0.103313 0.712 255 255 255
-0.183813 0.0280003 0.712 255 255 255
0.220831 0.154779 0.525 255 255 255
0.0152441 0.0272341 0.755 255 255 255
-0.00586577 0.00276363 0.784 0 0 0
0.130398 -0.155628 0.76 255 255 255
0.250641 -0.0216074 0.705 255 255 255
-0.186997 -0.0103026 0.355 255 255 255
-0.171505 0.0228078 0.695 255 255 255
0.0220408 0.108565 0.533 0 0 0
0.30638 -0.0473626 0.635 255 255 255
0.207897 -0.11291 0.724 255 255 255
0.191455 0.143649 0.541 255 255 255
0.169939 0.0629857 0.728 255 255 255
0.138143 -0.281153 0.755 255 255 255
0.153846 0.146817 0.521 255 255 255
0.232938 -0.0734422 0.707 255 255 255
-0.0242575 0.121415 0.54 255 255 255
0.287467 0.00784831 0.673 255 255 255
-0.190149 0.0813246 0.381 255 255 255
0.039682 -0.185679 0.549 255 255 255
-0.184627 -0.00108627 0.364 255 255 255
0.0504023 -0.00415044 0.9 255 255 255
0.0452351 -0.230297 0.914 255 255 255
0.036503 0.0903857 0.616 255 255 255
0.0966005 0.104114 0.597 255 255 255
-0.242709 -0.164566 0.708 255 255 255
0.0121922 0.145689 0.52 255 255 255
0.119728 -0.10132 0.832 255 255 255
-0.0535085 -0.0967296 0.754 255 255 255
0.215675 -0.133269 0.707 255 255 255
0.201354 -0.0416795 0.757 255 255 255
-0.166101 -0.127476 0.335 255 255 255
-0.226073 -0.249128 0.669 255 255 255
0.230778 -0.112102 0.697 255 255 255
-0.11113 -0.104918 0.659 0 0 0
0.228366 -0.162089 0.683 255 255 255
-0.1648 0.0790021 0.404 255 255 255
-0.00417222 0.175273 0.458 255 255 255
0.113808 0.0932904 0.622 255 255 255
-0.167235 0.0699944 0.613 255 255 255
-0.0474475 -0.256859 0.718 255 255 255
0.283776 -0.145073 0.633 255 255 255
0.263781 -0.210666 0.632 255 255 255
-0.199855 0.155502 0.436 255 255 255
0.0240365 -0.0282774 0.761 255 255 255
-0.0745868 0.0216396 0.732 255 255 255
0.118375 0.179059 0.462 255 255 255
0.0363426 0.0640964 0.689 255 255 255
-0.0300169 -0.166659 0.941 255 255 255
-0.0227758 0.0420219 0.714 255 255 255
0.177706 0.0629477 0.756 0 0 0
-0.11995 0.158925 0.456 255 255 255
-0.155686 0.154588 0.452 255 255 255
0.255964 0.0655346 0.73 255 255 255
-0.133342 0.140825 0.483 255 255 255
0.0571777 -0.195484 0.554 255 255 255
0.223383 -0.206139 0.678 255 255 255
0.153779 0.0499084 0.848 255 255 255
-0.218191 0.132587 0.476 255 255 255
-0.0634524 0.171747 0.445 255 255 255
0.264055 -0.00207407 0.695 255 255 255
0.260814 0.0350504 0.714 255 255 255
-0.159819 0.112915 0.529 255 255 255
-0.0171621 0.0617869 0.676 255 255 255
-0.202491 0.163367 0.418 255 255 255
0.0340995 0.0652176 0.689 255 255 255
0.125328 0.160475 0.483 255 255 255
0.261976 0.0350504 0.714 255 255 255
0.166841 -0.248084 0.73 255 255 255
-0.188385 0.0740336 0.385 0 0 0
-0.0485026 -0.198286 0.772 255 255 255
0.150696 -0.00788917 0.831 255 255 255
-0.163366 -0.0397114 0.645 0 0 0
-0.152032 0.0843262 0.414 255 255 255
-0.166406 -0.0820505 0.353 255 255 255
-0.169373 -0.117118 0.335 255 255 255
0.300407 0.0737785 0.675 255 255 255
0.16936 0.109519 0.6 255 255 255
-0.0533111 0.144522 0.507 255 255 255
0.129406 0.130925 0.543 255 255 255
-0.132234 0.129354 0.509 255 255 255
-0.168746 0.0763724 0.404 255 255 255
0.0140216 -0.203969 0.916 255 255 255
0.129271 -0.167264 0.768 255 255 255
0.288997 -0.212069 0.601 255 255 255
0.209466 -0.236557 0.683 255 255 255
0.224247 -0.173458 0.684 255 255 255
-0.244589 -0.218531 0.672 255 255 255
0.123173 0.0587955 0.837 255 255 255
0.0519081 0.118321 0.546 255 255 255
-0.247156 -0.169783 0.701 255 255 255
-0.154532 0.148121 0.464 255 255 255
0.180541 -0.213938 0.723 255 255 255
-0.0377949 0.173676 0.45 255 255 255
0.294372 -0.184623 0.604 255 255 255
-0.0471494 0.15648 0.478 255 255 255
-0.0440419 -0.264466 0.701 255 255 255
0.0120135 0.0989235 0.595 255 255 255
0.196215 0.120854 0.584 255 255 255
-0.0623419 0.144967 0.5 255 255 255
0.304858 0.108313 0.685 255 255 255
-0.118714 -0.181612 0.642 255 255 255
-0.190026 0.100187 0.382 255 255 255
0.183534 0.177193 0.469 255 255 255
0.24534 -0.184786 0.657 255 255 255
-0.150593 0.11984 0.518 255 255 255
-0.110406 -0.0397115 0.681 0 0 0
-0.0912919 0.149634 0.481 255 255 255
0.0898949 -0.0904783 0.871 255 255 255
-0.170558 -0.129036 0.332 255 255 255
0.0420083 0.155112 0.512 255 255 255
0.02324 -0.204709 0.562 255 255 255
0.0086532 0.0445942 0.718 255 255 255
-0.155812 0.0265846 0.676 255 255 255
-0.112988 0.0406094 0.69 255 255 255
0.0719756 -0.069668 0.895 255 255 255
0.0859599 0.146073 0.501 255 255 255
-0.180062 -0.0339884 0.355 255 255 255
-0.153724 -0.0768604 0.361 255 255 255
-0.0561171 0.142057 0.51 255 255 255
0.0749814 -0.181426 0.879 255 255 255
0.278566 -0.00643665 0.678 255 255 255
-0.152399 0.0404122 0.406 255 255 255
0.11293 -0.154188 0.759 255 255 255
0.130398 0.112108 0.583 255 255 255
-0.0427784 0.0456891 0.699 255 255 255
0.157969 0.10354 0.605 255 255 255
0.0342143 -0.0210114 0.767 255 255 255
0.191164 -0.210091 0.71 255 255 255
0.125615 -0.294533 0.761 255 255 255
-0.145311 -0.0829642 0.362 255 255 255
-0.167737 -0.119298 0.335 255 255 255
0.151629 -0.1806 0.761 255 255 255
-0.167559 0.0431741 0.395 255 255 255
-0.172748 -0.0155128 0.369 255 255 255
-0.108323 -0.129863 0.655 0 0 0
0.259243 -0.143089 0.657 255 255 255
0.193713 0.101877 0.625 255 255 255
0.227337 -0.146908 0.69 255 255 255
-0.105907 0.143576 0.487 255 255 255
-0.0681887 -0.168098 0.862 255 255 255
0.261685 -0.18997 0.642 255 255 255
0.251943 0.121462 0.606 255 255 255
0.162284 0.110949 0.592 255 255 255
-0.174747 -0.0760093 0.349 255 255 255
0.22064 -0.231999 0.673 255 255 255
-0.187271 0.0619684 0.384 255 255 255
0.118658 -0.100207 0.834 255 255 255
0.277265 -0.186375 0.623 255 255 255
-0.158096 0.113776 0.529 255 255 255
-0.162809 -0.0109701 0.378 255 255 255
0.154504 -0.242271 0.745 255 255 255
-0.0854177 -0.0334555 0.713 0 0 0
0.191295 -0.246565 0.702 255 255 255
-0.14916 0.112245 0.534 255 255 255
0.150192 -0.203862 0.76 255 255 255
0.101161 0.100899 0.601 255 255 255
-0.241998 0.137262 0.458 255 255 255
0.090204 -0.0315514 0.888 255 255 255
0.0869672 0.118621 0.56 255 255 255
0.198153 -0.248273 0.694 255 255 255
0.115459 -0.199314 0.776 255 255 255
-0.15248 0.0314312 0.401 255 255 255
-0.135228 -0.2576 0.758 0 0 0
0.144521 -0.0544226 0.819 255 255 255
0.151422 0.163844 0.486 255 255 255
0.253514 0.160262 0.529 255 255 255
0.0188319 0.100727 0.567 255 255 255
0.317959 0.0763193 0.659 255 255 255
0.201096 0.00525427 0.775 255 255 255
-0.181471 -0.0112175 0.366 255 255 255
-0.182874 0.132965 0.483 255 255 255
0.104321 0.146172 0.507 255 255 255
0.112872 0.150964 0.501 0 0 0
-0.256733 -0.18932 0.681 255 255 255
-0.103701 0.0449701 0.688 255 255 255
-0.194388 -0.0567672 0.7 255 255 255
0.0328883 -0.195837 0.555 255 255 255
-0.149735 0.0898226 0.58 255 255 255
-0.211327 0.13081 0.478 255 255 255
-0.0934148 0.147047 0.488 255 255 255
-0.258444 -0.125696 0.723 255 255 255
-0.24408 -0.157385 0.712 255 255 255
0.206392 -0.0991811 0.727 255 255 255
0.245727 -0.246106 0.644 255 255 255
-0.166008 0.0812709 0.399 255 255 255
0.0421139 0.0332446 0.752 255 255 255
-0.096129 0.111941 0.554 255 255 255
-0.189772 0.0769694 0.59 255 255 255
0.257152 0.0774141 0.73 255 255 255
0.157921 0.124497 0.566 255 255 255
-0.177853 0.0929212 0.388 255 255 255
-0.0132818 0.120228 0.559 255 255 255
0.2862 0.149872 0.561 255 255 255
0.200913 0.16963 0.489 255 255 255
-0.0420825 0.165088 0.465 255 255 255
0.166585 0.0889769 0.642 255 255 255
-0.166393 -0.0442059 0.363 255 255 255
0.174688 0.173683 0.474 255 255 255
0.197727 0.166744 0.497 255 255 255
-0.0963373 -0.102003 0.668 0 0 0
-0.165951 -0.125332 0.627 0 0 0
0.00865037 0.172268 0.466 255 255 255
0.100628 0.0774774 0.669 255 255 255
-0.223531 0.00853635 0.732 255 255 255
-0.0231271 -0.242233 0.764 255 255 255
0.199581 -0.219349 0.699 255 255 255
-0.206958 0.141734 0.458 255 255 255
-0.163856 0.0456878 0.682 0 0 0
0.141772 -0.136019 0.768 255 255 255
-0.114334 -0.0329165 0.678 255 255 255
-0.251779 -0.167921 0.698 255 255 255
0.138369 0.0868874 0.642 255 255 255
-0.152637 0.011618 0.393 255 255 255
-0.189109 0.0749681 0.597 255 255 255
-0.0397422 -0.232601 0.749 255 255 255
0.229389 0.169039 0.499 255 255 255
-0.177853 0.0885014 0.388 255 255 255
-0.00843782 0.0943659 0.603 0 0 0
-0.147176 -0.119915 0.343 0 0 0
-0.00534475 -0.241931 0.913 255 255 255
0.289897 -0.00849033 0.666 255 255 255
0.252412 -0.0526639 0.691 255 255 255
0.290114 -0.00526253 0.669 255 255 255
0.260055 -0.156614 0.651 255 255 255
0.0365009 0.0632493 0.692 255 255 255
-0.00414495 0.120055 0.554 0 0 0
-0.0362674 -0.0655198 0.986 255 255 255
0.284274 -0.0311094 0.663 255 255 255
0.00508072 -0.24896 0.917 255 255 255
-0.0163984 0.0920285 0.607 0 0 0
-0.0218829 -0.199087 0.921 255 255 255
-0.100196 -0.0873035 0.672 255 255 255
0.026096 -0.0497711 0.749 255 255 255
0.0502828 0.141458 0.52 255 255 255
-0.12098 0.00346239 0.672 255 255 255
-0.0340055 0.0211468 0.757 0 0 0
-0.15528 0.00518272 0.39 255 255 255
-0.144871 -0.0872907 0.358 255 255 255
-0.22196 -0.148051 0.723 255 255 255
-0.180078 0.0874171 0.386 255 255 255
-0.00124465 0.166161 0.479 255 255 255
-0.0891235 0.161922 0.454 255 255 255
0.183363 -0.155983 0.744 255 255 255
-0.159127 0.0665053 0.408 255 255 255
-0.123057 0.165481 0.438 255 255 255
0.117546 0.1426 0.518 255 255 255
0.23194 -0.133971 0.687 255 255 255
-0.0214303 0.153184 0.495 255 255 255
-0.148218 0.0994835 0.56 255 255 255
-0.0619354 -0.0450755 0.752 255 255 255
-0.146941 -0.124941 0.62 0 0 0
-0.0121861 0.162602 0.48 255 255 255
0.0660952 0.15217 0.505 255 255 255
-0.146941 -0.117879 0.62 0 0 0
-0.141536 -0.0376705 0.646 0 0 0
0.207895 0.11376 0.607 255 255 255
-0.149789 -0.173687 0.607 255 255 255
0.0160914 0.0999804 0.568 255 255 255
-0.0740065 0.0672461 0.644 255 255 255
0.135039 0.124777 0.559 255 255 255
0.296837 0.001243 0.655 255 255 255
0.213199 -0.0919561 0.726 255 255 255
0.00106023 0.172284 0.464 255 255 255
0.150844 -0.0617334 0.81 255 255 255
0.109248 -0.112601 0.856 255 255 255
0.282113 -0.0773966 0.653 255 255 255
0.306323 0.00122972 0.648 255 255 255
-0.0673319 -0.229838 0.744 255 255 255
-0.180175 -0.00169246 0.367 255 255 255
0.185695 0.1024 0.622 255 255 255
-0.178311 0.0558119 0.389 255 255 255
-0.160651 -0.102408 0.348 0 0 0
-0.173878 0.0229719 0.7 255 255 255
0.0464047 0.138282 0.524 255 255 255
0.284103 0.0682433 0.697 255 255 255
-0.0595064 0.100896 0.584 255 255 255
-0.107165 0.118118 0.537 255 255 255
-0.157802 -0.0428804 0.372 0 0 0
0.226754 -0.0433971 0.724 255 255 255
-0.144812 -0.221732 0.714 255 255 255
0.0362276 -0.102246 0.732 0 0 0
-0.191113 0.0880658 0.378 255 255 255
0.259457 -0.235256 0.629 255 255 255
-0.12611 0.0345894 0.682 255 255 255
0.0920147 -0.165135 0.552 255 255 255
0.00736365 0.0946235 0.611 0 0 0
0.0921655 -0.0215566 0.893 255 255 255
-0.0914264 -0.090556 0.68 0 0 0
-0.154417 0.159792 0.44 255 255 255
-0.137412 -0.221303 0.724 255 255 255
-0.215513 -0.210009 0.702 255 255 255
-0.188909 0.0912448 0.381 255 255 255
-0.100047 -0.0893574 0.671 255 255 255
-0.158225 0.027466 0.391 0 0 0
0.219827 -0.104233 0.713 255 255 255
-0.184824 0.0473625 0.707 255 255 255
0.181662 -0.2571 0.709 255 255 255
-0.18443 0.0473479 0.382 255 255 255
-0.0260747 0.173676 0.45 255 255 255
0.193059 -0.259182 0.696 255 255 255
-0.122081 0.14367 0.482 255 255 255
0.31984 -0.000858945 0.633 255 255 255
-0.240326 -0.0382084 0.787 255 255 255
-0.121438 0.0626801 0.651 255 255 255
-0.232255 -0.223547 0.684 255 255 255
-0.0434076 0.143697 0.507 255 255 255
-0.00544389 0.150297 0.507 255 255 255
-0.178005 -0.0224724 0.365 255 255 255
-0.0168742 0.161821 0.48 255 255 255
-0.112445 0.111133 0.55 255 255 255
0.270916 0.0577172 0.707 255 255 255
0.0125021 -0.211513 0.573 0 0 0
-0.15043 0.149309 0.463 255 255 255
-0.184627 -0.00167862 0.364 255 255 255
0.136475 0.00993576 0.852 255 255 255
0.249845 0.112586 0.628 255 255 255
0.0272058 -0.0519997 0.746 255 255 255
0.195866 -0.214579 0.702 255 255 255
0.0707249 -0.151265 0.862 255 255 255
-0.0921255 -0.146791 0.669 255 255 255
-0.142239 -0.00303905 0.659 255 255 255
0.194306 -0.133763 0.735 255 255 255
0.0700008 0.175465 0.481 255 255 255
-0.0684838 0.131808 0.522 255 255 255
0.0927071 0.172334 0.481 255 255 255
0.160089 -0.158101 0.76 255 255 255
-0.163135 -0.000921364 0.679 255 255 255
-0.159405 -0.257454 0.733 255 255 255
-0.170549 0.090921 0.393 255 255 255
-0.210908 0.125882 0.486 255 255 255
-0.144354 -0.0285585 0.654 0 0 0
-0.181533 0.0288598 0.376 255 255 255
-0.173567 0.0198911 0.38 255 255 255
-0.239126 0.135285 0.464 255 255 255
-0.0921255 -0.125018 0.669 0 0 0
-0.257864 -0.186815 0.684 255 255 255
-0.135483 -0.13467 0.623 0 0 0
-0.151683 -0.0606525 0.366 255 255 255
-0.0167687 0.162362 0.477 255 255 255
-0.174882 -0.114988 0.332 255 255 255
-0.155356 0.137681 0.483 255 255 255
-0.139576 0.0548599 0.672 255 255 255
-0.192621 0.134911 0.476 255 255 255
0.310177 -0.12846 0.608 255 255 255
0.0858675 -0.0416669 0.888 255 255 255
-0.146274 -0.253548 0.739 255 255 255
0.113212 -0.0835532 0.844 255 255 255
0.275401 -0.184805 0.628 255 255 255
-0.0339593 -0.103491 0.966 255 255 255
0.0350561 0.167453 0.485 255 255 255
0.0921844 0.0697958 0.679 0 0 0
0.0650272 0.0951939 0.584 0 0 0
0.00373279 -0.158094 0.954 255 255 255
0.168724 0.0162346 0.82 255 255 255
-0.273279 -0.0385358 0.768 255 255 255
-0.262781 -0.219454 0.652 255 255 255
-0.0452092 -0.181426 0.879 255 255 255
0.115431 0.101403 0.604 255 255 255
0.00240636 0.0932414 0.615 0 0 0
0.0356042 0.0737785 0.675 0 0 0
0.272631 -0.202922 0.624 255 255 255
0.255828 -0.137714 0.662 255 255 255
-0.15653 -0.0509414 0.369 255 255 255
-0.16249 0.117143 0.521 255 255 255
-0.166658 0.0884132 0.399 255 255 255
0.203744 -0.116766 0.726 255 255 255
0.0183011 0.0832238 0.646 255 255 255
-0.106409 -0.0915288 0.663 255 255 255
0.0664725 -0.202684 0.564 0 0 0
0.0182344 0.157986 0.5 255 255 255
0.0995881 0.160019 0.484 255 255 255
-0.265095 -0.078602 0.745 255 255 255
-0.0439828 -0.0112273 0.781 255 255 255
0.254973 0.172031 0.503 255 255 255
0.309729 0.117654 0.681 255 255 255
0.178089 -0.272472 0.704 255 255 255
-0.0515925 -0.248248 0.727 255 255 255
-0.0121062 0.0153437 0.775 0 0 0
0.317215 0.000171965 0.636 255 255 255
-0.247853 -0.217556 0.669 255 255 255
-0.24418 -0.20896 0.68 255 255 255
-0.143366 0.146066 0.472 255 255 255
-0.231056 -0.134127 0.737 255 255 255
-0.00545012 -0.199734 0.931 255 255 255
-0.222711 -0.248058 0.672 255 255 255
0.252843 0.141496 0.564 255 255 255
0.15251 0.0289676 0.841 255 255 255
0.135396 0.158338 0.491 255 255 255
-0.0610446 -0.260871 0.713 255 255 255
0.0803102 0.11073 0.571 255 255 255
0.0481921 0.0853078 0.638 0 0 0
-0.226762 0.0311668 0.705 255 255 255
0.0195458 0.101487 0.561 255 255 255
-0.0780775 0.132484 0.518 255 255 255
0.0288059 -0.214951 0.912 255 255 255
0.228633 -0.0211857 0.73 255 255 255
0.277174 0.0101431 0.68 255 255 255
0.0694933 -0.0207112 0.92 255 255 255
0.292328 0.0717361 0.687 255 255 255
-0.153427 -0.121791 0.342 255 255 255
-0.236716 -0.0784268 0.767 255 255 255
0.267095 0.0333664 0.703 255 255 255
0.0821267 -0.165117 0.546 0 0 0
-0.0900217 -0.200718 0.722 255 255 255
0.121294 -0.279897 0.765 255 255 255
-0.0388407 0.0712645 0.652 255 255 255
-0.101317 -0.127517 0.665 255 255 255
-0.237716 0.0411161 0.662 255 255 255
-0.176778 0.138679 0.473 255 255 255
-0.145925 -0.120264 0.344 255 255 255
0.227932 -0.0433971 0.724 255 255 255
-0.182496 -0.0314991 0.353 255 255 255
-0.191113 0.0536185 0.378 255 255 255
-0.121063 0.152551 0.466 255 255 255
-0.247577 -0.0704754 0.762 255 255 255
-0.0920826 0.0867714 0.598 255 255 255
0.308069 -0.0531409 0.63 255 255 255
0.0913408 -0.166266 0.775 255 255 255
-0.0298283 -0.242271 0.745 255 255 255
-0.213606 0.157524 0.428 255 255 255
0.0478262 -0.149861 0.854 255 255 255
0.244305 -0.0601846 0.7 255 255 255
-0.154492 -0.0850651 0.356 255 255 255
-0.0427046 0.0325815 0.737 255 255 255
-0.225761 0.130487 0.474 255 255 255
0.238724 -0.0174046 0.721 255 255 255
-0.148799 0.0458103 0.407 255 255 255
0.135881 -0.259299 0.763 255 255 255
0.0716839 0.129886 0.528 255 255 255
-0.157854 -0.0212573 0.375 0 0 0
-0.271522 0.0196255 0.746 255 255 255
-0.169404 0.069798 0.404 255 255 255
-0.26621 -0.0240287 0.784 255 255 255
-0.147999 -0.0960672 0.616 0 0 0
-0.184404 -0.05102 0.349 255 255 255
-0.218468 0.147125 0.445 255 255 255
-0.0679872 -0.200223 0.765 255 255 255
0.171901 0.104224 0.609 255 255 255
-0.0982223 0.165953 0.445 255 255 255
0.256906 -0.134482 0.662 255 255 255
-0.107912 0.0580883 0.659 255 255 255
-0.180643 -0.0631645 0.344 255 255 255
0.0290116 0.0737785 0.675 0 0 0
-0.0165242 -0.0963978 0.958 255 255 255
0.220916 0.0587174 0.765 255 255 255
-0.167691 -0.120201 0.336 255 255 255
0.129776 -0.132787 0.771 255 255 255
0.280096 -0.151492 0.634 255 255 255
0.0253903 0.0880938 0.614 0 0 0
-0.142632 0.0616207 0.651 255 255 255
-0.0413528 0.155759 0.483 255 255 255
-0.0650544 -0.242808 0.732 255 255 255
0.249645 -0.219537 0.646 255 255 255
-0.166717 -0.107635 0.343 255 255 255
0.2168 0.100091 0.633 255 255 255
-0.257551 -0.134589 0.714 255 255 255
-0.0259735 0.148061 0.505 255 255 255
-0.050628 0.12493 0.54 255 255 255
-0.136618 0.105762 0.55 255 255 255
-0.158618 -0.124952 0.34 0 0 0
-0.239131 -0.197722 0.691 255 255 255
-0.0762243 0.100378 0.581 255 255 255
-0.0766247 -0.100144 0.752 255 255 255
0.0204004 -0.0221725 0.764 255 255 255
0.254508 -0.198205 0.645 255 255 255
0.249868 -0.095122 0.681 255 255 255
0.0142345 0.0529649 0.705 255 255 255
-0.169 -0.0209739 0.37 255 255 255
-0.220243 0.13755 0.464 255 255 255
-0.159057 0.155788 0.447 255 255 255
-0.19405 0.0547303 0.373 255 255 255
0.15657 -0.128353 0.767 255 255 255
0.137935 0.141964 0.525 255 255 255
0.0234671 0.102328 0.546 255 255 255
-0.112458 -0.0352268 0.68 0 0 0
0.123182 -0.123745 0.856 255 255 255
-0.115834 0.0853678 0.595 255 255 255
0.301955 -0.203387 0.59 255 255 255
-0.0505696 0.0830979 0.614 0 0 0
0.228226 -0.176929 0.676 255 255 255
0.213723 0.171922 0.491 255 255 255
0.0846995 0.10718 0.582 255 255 255
0.126605 -0.194506 0.767 255 255 255
-0.0197065 0.0743334 0.651 255 255 255
0.200826 -0.140008 0.724 255 255 255
0.244367 0.18331 0.479 255 255 255
-0.161363 0.0366531 0.394 255 255 255
0.057136 -0.151512 0.545 255 255 255
-0.0686093 -0.0110979 0.772 255 255 255
-0.0764154 0.1512 0.481 255 255 255
0.0166731 0.156167 0.502 255 255 255
-0.147628 -0.0598569 0.636 0 0 0
0.230867 0.167452 0.504 255 255 255
0.0922886 0.135465 0.523 255 255 255
-0.0558891 -0.0953759 0.753 255 255 255
0.206939 -0.256188 0.682 255 255 255
-0.192436 0.0824983 0.575 255 255 255
0.0604363 0.16173 0.499 255 255 255
-0.253445 -0.0949959 0.75 255 255 255
0.027582 -0.119979 0.724 0 0 0
-0.0951188 -0.000948503 0.699 255 255 255
-0.175847 -0.0376656 0.357 255 255 255
-0.219553 -0.0254615 0.751 255 255 255
0.256516 0.141496 0.564 255 255 255
0.152479 -0.0118742 0.826 255 255 255
-0.162194 -0.0122004 0.378 255 255 255
-0.146993 0.153324 0.457 255 255 255
-0.102504 0.158417 0.461 255 255 255
-0.143431 -0.0479799 0.374 255 255 255
0.28288 0.0611734 0.694 255 255 255
0.148839 -0.261155 0.747 255 255 255
0.135881 -0.264266 0.763 255 255 255
0.163811 0.150993 0.515 255 255 255
-0.176942 -0.0906647 0.338 255 255 255
0.275464 0.0068635 0.684 255 255 255
-0.147692 -0.0504144 0.374 255 255 255
-0.159084 -0.12199 0.341 0 0 0
0.0574746 0.0825541 0.649 0 0 0
0.113116 0.1321 0.537 255 255 255
-0.00629215 0.103149 0.586 255 255 255
0.044771 0.180201 0.463 255 255 255
0.100191 -0.0839324 0.862 255 255 255
0.0439295 0.136838 0.525 255 255 255
0.21366 -0.181379 0.693 255 255 255
-0.143834 0.126869 0.509 255 255 255
0.128033 0.137278 0.53 255 255 255
0.0458237 0.171124 0.482 255 255 255
0.0909685 0.179063 0.476 255 255 255
-0.0597752 0.086946 0.606 0 0 0
-0.194527 0.153348 0.44 255 255 255
-0.180755 -0.0257509 0.361 255 255 255
-0.171375 0.0567029 0.681 255 255 255
-0.102101 -0.172706 0.864 255 255 255
0.311198 -0.0991021 0.61 255 255 255
0.281076 -0.189908 0.618 255 255 255
-0.229024 0.145743 0.443 255 255 255
0.251345 -0.0874928 0.682 255 255 255
-0.116079 -0.124611 0.639 255 255 255
0.095253 0.161471 0.486 0 0 0
0.141523 0.0168088 0.849 255 255 255
-0.0292354 0.10237 0.587 255 255 255
-0.0424656 0.13453 0.526 255 255 255
0.0665704 -0.0252301 0.921 255 255 255
-0.147078 -0.0823751 0.362 255 255 255
-0.137697 0.10276 0.558 255 255 255
-0.212079 0.0400209 0.68 255 255 255
0.0909516 0.173538 0.48 255 255 255
-0.136929 0.14729 0.471 255 255 255
0.011529 -0.219138 0.571 0 0 0
-0.147266 -0.0123941 0.384 255 255 255
0.315158 0.128891 0.676 255 255 255
-0.190234 0.138385 0.472 255 255 255
-0.165386 -0.0603229 0.357 255 255 255
0.0071134 0.144843 0.52 255 255 255
0.123561 0.11775 0.569 255 255 255
-0.143128 0.164676 0.434 255 255 255
-0.152041 -0.0918161 0.353 0 0 0
0.0528588 -0.203428 0.556 255 255 255
-0.167536 0.0868963 0.398 255 255 255
-0.187929 0.137617 0.472 255 255 255
-0.0448586 -0.25659 0.714 255 255 255
0.186459 0.073198 0.701 255 255 255
-0.165657 -0.100431 0.349 255 255 255
0.256325 0.165679 0.519 255 255 255
0.139189 -0.0215153 0.835 255 255 255
0.114316 -0.135839 0.76 255 255 255
-0.101012 -0.10987 0.663 0 0 0
0.274379 -0.192981 0.628 255 255 255
-0.158283 -0.102247 0.617 0 0 0
0.102066 -0.0730477 0.866 255 255 255
0.263693 0.121264 0.615 255 255 255
0.219567 0.0527674 0.769 255 255 255
-0.0927701 -0.208371 0.716 255 255 255
-0.0851971 0.15506 0.469 255 255 255
-0.177671 -0.00349364 0.368 255 255 255
0.280538 -0.148631 0.635 255 255 255
0.152736 0.140226 0.538 255 255 255
-0.202662 -0.0915907 0.705 255 255 255
-0.0976739 0.0492329 0.685 0 0 0
-0.150717 0.011618 0.393 255 255 255
0.173002 0.0214407 0.815 255 255 255
0.109775 0.0612916 0.722 0 0 0
-0.0706804 -0.177721 0.781 255 255 255
0.305743 -0.116548 0.613 255 255 255
-0.179411 -0.0317668 0.356 255 255 255
-0.262985 0.00402915 0.782 255 255 255
0.157837 0.0846664 0.649 255 255 255
0.319133 0.0653961 0.657 255 255 255
0.166992 0.0552702 0.769 0 0 0
-0.0873369 -0.187784 0.76 0 0 0
-0.21952 0.15088 0.437 255 255 255
0.249504 0.17564 0.497 255 255 255
0.307232 0.0430746 0.659 255 255 255
-0.172954 0.103216 0.546 255 255 255
0.163335 0.175292 0.468 255 255 255
0.317517 0.12851 0.674 255 255 255
0.276782 -0.0478638 0.671 255 255 255
0.0673783 -0.0824987 0.892 255 255 255
0.124432 -0.171236 0.769 255 255 255
-0.190396 0.0750911 0.384 255 255 255
0.278637 0.106075 0.715 255 255 255
0.134634 -0.286446 0.756 255 255 255
0.0193529 0.173007 0.468 255 255 255
0.164252 -0.0706723 0.792 255 255 255
0.240739 0.0737263 0.753 255 255 255
-0.222949 -0.118769 0.746 255 255 255
-0.184271 -0.0457304 0.352 255 255 255
0.180007 0.141888 0.541 255 255 255
0.241965 0.082304 0.753 255 255 255
0.285961 0.078339 0.696 255 255 255
-0.103084 0.0309016 0.699 255 255 255
0.141551 -0.0427384 0.825 255 255 255
-0.0540331 -0.0218606 0.798 255 255 255
-0.123499 0.160495 0.45 255 255 255
-0.280997 -0.00993088 0.779 255 255 255
-0.251003 -0.0998779 0.75 255 255 255
-0.167143 0.023801 0.691 255 255 255
-0.203055 0.16081 0.422 255 255 255
-0.155767 -0.129939 0.615 0 0 0
0.275136 -0.0327709 0.675 255 255 255
-0.170966 0.0618135 0.642 255 255 255
-0.146295 -0.102731 0.353 255 255 255
-0.0189996 0.172282 0.456 255 255 255
-0.0684373 0.165199 0.459 255 255 255
-0.0229487 0.15417 0.493 255 255 255
0.182901 0.10442 0.616 255 255 255
0.197098 -0.162442 0.719 255 255 255
0.019601 0.170597 0.474 255 255 255
0.204279 -0.233811 0.688 255 255 255
0.253324 -0.212954 0.642 255 255 255
-0.0918365 -0.0499325 0.7 255 255 255
0.223255 0.16951 0.498 255 255 255
0.0152239 -0.0574654 0.754 255 255 255
-0.184289 0.0985797 0.383 255 255 255
-0.230897 -0.231092 0.68 255 255 255
-0.25442 -0.139431 0.715 255 255 255
0.0115724 -0.082223 0.756 0 0 0
0.30524 -0.140794 0.61 255 255 255
0.239584 -0.148547 0.677 255 255 255
-0.15647 0.0671693 0.408 255 255 255
0.077996 0.123628 0.542 255 255 255
-0.0622939 0.159639 0.469 255 255 255
-0.153916 0.0148157 0.393 255 255 255
0.262851 -0.130458 0.658 255 255 255
0.0515078 0.111529 0.561 0 0 0
-0.199804 0.148514 0.447 255 255 255
0.184229 -0.242443 0.71 255 255 255
-0.0431571 0.135724 0.524 255 255 255
0.29848 -0.0704275 0.638 255 255 255
-0.111023 0.00349331 0.678 255 255 255
0.262401 0.165469 0.521 255 255 255
-0.166771 -0.0640289 0.355 255 255 255
0.283295 -0.102848 0.646 255 255 255
0.0591391 -0.16914 0.539 255 255 255
0.251577 -0.186277 0.651 255 255 255
-0.147512 -0.0767337 0.366 255 255 255
-0.139243 -0.0243386 0.655 0 0 0
0.0325951 0.0688932 0.681 255 255 255
0.128561 0.0886997 0.64 255 255 255
0.292614 -0.141864 0.619 255 255 255
-0.0888831 0.0493048 0.686 0 0 0
-0.165935 -0.0464405 0.362 255 255 255
0.102774 -0.140231 0.757 255 255 255
0.222169 -0.228034 0.671 255 255 255
0.0557739 -0.202344 0.558 255 255 255
-0.163294 -0.0418205 0.368 255 255 255
0.318489 0.0296556 0.647 255 255 255
0.225104 0.155369 0.527 255 255 255
0.272714 0.155354 0.545 255 255 255
-0.191526 0.0414873 0.374 255 255 255
-0.0346768 0.127093 0.538 0 0 0
-0.15434 0.14559 0.468 255 255 255
-0.134313 0.153497 0.462 255 255 255
0.26879 -0.157026 0.644 255 255 255
0.289281 -0.0601168 0.65 255 255 255
0.230128 0.121751 0.593 255 255 255
0.164292 -0.270787 0.724 255 255 255
-0.119469 0.157042 0.457 255 255 255
0.251285 -0.124114 0.67 255 255 255
0.190797 0.0825026 0.657 255 255 255
0.308219 -0.108036 0.61 255 255 255
0.116372 -0.0686884 0.847 255 255 255
0.265645 0.0755997 0.724 255 255 255
0.122477 0.149472 0.507 255 255 255
-0.251439 -0.120974 0.73 255 255 255
0.0872213 -0.0100311 0.902 255 255 255
0.0651204 0.119878 0.545 255 255 255
-0.0276971 0.160369 0.478 255 255 255
0.131931 0.155108 0.496 255 255 255
0.0189274 0.147098 0.519 255 255 255
0.199539 -0.0160605 0.769 255 255 255
-0.214876 -0.120606 0.735 255 255 255
0.327758 0.104635 0.655 255 255 255
0.0465728 -0.0616289 0.745 0 0 0
0.186046 0.0196702 0.797 255 255 255
0.311597 -0.0420629 0.633 255 255 255
-0.238876 -0.066547 0.774 255 255 255
0.00125217 0.124997 0.548 0 0 0
-0.0128208 0.150526 0.505 255 255 255
-0.180874 0.0591461 0.671 255 255 255
0.31935 -0.0275105 0.63 255 255 255
-0.161228 0.0082703 0.386 0 0 0
-0.158225 0.0160129 0.391 0 0 0
-0.210947 -0.00340336 0.738 255 255 255
-0.16898 -0.084201 0.35 255 255 255
0.0816684 -0.132036 0.874 255 255 255
0.157672 0.0715273 0.685 255 255 255
0.28157 0.0767296 0.702 255 255 255
-0.0666096 -0.190965 0.778 255 255 255
0.0327336 0.0971483 0.602 255 255 255
-0.0929394 0.163787 0.451 255 255 255
0.20966 0.14723 0.538 255 255 255
-0.0605927 0.14549 0.499 255 255 255
0.240284 0.0534734 0.744 255 255 255
0.010713 0.161534 0.491 255 255 255
-0.0877695 -0.148969 0.669 0 0 0
-0.264796 -0.211515 0.657 255 255 255
0.208928 0.171123 0.491 255 255 255
-0.0804892 0.103296 0.571 255 255 255
0.0999041 0.141499 0.514 255 255 255
0.00803093 -0.255302 0.913 255 255 255
-0.180485 0.112701 0.524 255 255 255
-0.235129 0.144953 0.445 255 255 255
0.132467 0.14569 0.517 255 255 255
0.279923 0.151609 0.554 255 255 255
-0.227162 0.0404622 0.669 255 255 255
0.266715 0.0161832 0.702 255 255 255
-0.135646 -0.0388416 0.648 255 255 255
-0.0739792 -0.0669245 0.75 255 255 255
0.267449 0.0024499 0.695 255 255 255
-0.234846 0.135868 0.466 255 255 255
-0.154556 0.0218506 0.393 255 255 255
0.11887 0.109056 0.587 255 255 255
0.0316439 0.125279 0.534 255 255 255
-0.0806859 0.159034 0.465 255 255 255
0.0285388 0.08014 0.664 255 255 255
0.288813 -0.0106579 0.666 255 255 255
-0.238486 -0.189774 0.699 255 255 255
0.25214 -0.224438 0.639 255 255 255
-0.0280704 -0.0635263 0.98 255 255 255
0.110632 0.11318 0.574 255 255 255
0.0175614 -0.0765862 0.749 0 0 0
-0.192929 0.154077 0.438 255 255 255
-0.164007 0.0969224 0.561 255 255 255
-0.154359 -0.0488025 0.371 255 255 255
0.147279 0.162136 0.488 255 255 255
0.175876 0.167695 0.488 255 255 255
0.056067 0.148988 0.511 255 255 255
-0.167017 0.0643787 0.403 0 0 0
-0.117028 -0.279304 0.76 0 0 0
0.111382 0.0333259 0.884 255 255 255
0.131116 0.145964 0.515 255 255 255
-0.0386168 0.0812913 0.631 255 255 255
-0.110244 -0.0429729 0.68 255 255 255
0.153805 -0.086791 0.798 255 255 255
-0.16341 0.0572467 0.399 255 255 255
-0.105972 -0.00203229 0.681 255 255 255
0.275313 -0.113353 0.652 255 255 255
-0.167957 0.0806216 0.399 255 255 255
-0.178592 -0.0862644 0.338 255 255 255
0.245393 0.177876 0.492 255 255 255
-0.0667926 -0.248745 0.725 255 255 255
0.0263735 0.159613 0.5 255 255 255
-0.188267 -0.0779588 0.686 255 255 255
-0.0514124 -0.187167 0.778 255 255 255
-0.155138 0.162557 0.434 255 255 255
0.0322961 -0.119979 0.724 0 0 0
0.14608 0.127726 0.556 255 255 255
0.217222 -0.234133 0.676 255 255 255
0.272586 -0.212694 0.617 255 255 255
0.173733 -0.220459 0.729 255 255 255
0.0146872 0.172655 0.465 255 255 255
0.188231 -0.185123 0.73 255 255 255
-0.17487 0.0769872 0.397 255 255 255
0.230627 0.0259021 0.752 255 255 255
-0.105097 0.131885 0.506 255 255 255
-0.175858 0.0638973 0.392 255 255 255
0.158295 -0.0727789 0.801 255 255 255
-0.190026 0.067862 0.382 255 255 255
-0.0264973 0.114713 0.55 255 255 255
-0.216334 -0.253934 0.676 255 255 255
0.264402 -0.0155334 0.69 255 255 255
-0.194901 -0.138836 0.678 255 255 255
-0.184241 0.156921 0.436 255 255 255
-0.00488565 0.0830629 0.653 255 255 255
0.283977 -0.219125 0.607 255 255 255
-0.193287 0.157613 0.434 255 255 255
0.321442 0.0596847 0.653 255 255 255
-0.0047008 -0.258518 0.803 255 255 255
-0.03571 -0.248333 0.717 255 255 255
0.134172 0.00997074 0.855 255 255 255
0.265777 -0.217162 0.627 255 255 255
-0.0718571 0.121639 0.541 255 255 255
-0.0815349 -0.0866209 0.741 255 255 255
0.309188 -0.131428 0.608 255 255 255
0.149354 -0.0950567 0.802 255 255 255
0.190886 0.13229 0.56 255 255 255
0.164513 -0.107819 0.781 255 255 255
0.212317 0.0983403 0.635 255 255 255
-0.260239 -0.217521 0.659 255 255 255
-0.136497 -0.118449 0.623 255 255 255
0.277462 -0.0130566 0.678 255 255 255
-0.14692 0.123933 0.514 255 255 255
-0.170519 -0.0114014 0.372 255 255 255
0.15039 -0.147163 0.761 255 255 255
-0.149421 0.022053 0.672 255 255 255
-0.160511 0.159438 0.441 255 255 255
-0.17304 0.148019 0.459 255 255 255
0.0529189 0.0367686 0.749 255 255 255
0.298142 -0.0469859 0.644 255 255 255
-0.235209 -0.254668 0.658 255 255 255
-0.0766247 -0.205387 0.752 255 255 255
0.0865304 0.073003 0.678 0 0 0
0.10569 0.168993 0.476 0 0 0
-0.184791 -0.00461486 0.362 255 255 255
0.238831 0.174128 0.495 255 255 255
-0.143337 0.151242 0.462 255 255 255
-0.234862 -0.102042 0.757 255 255 255
0.136952 0.0633407 0.693 255 255 255
-0.113444 0.15277 0.469 255 255 255
-0.0571628 0.112442 0.561 255 255 255
-0.180709 0.164414 0.426 255 255 255
-0.142124 -0.124132 0.621 255 255 255
0.196643 0.159799 0.511 255 255 255
-0.0569631 -0.0755686 0.751 255 255 255
0.192614 -0.105556 0.747 255 255 255
-0.0752001 -0.0498376 0.75 255 255 255
0.209516 0.132787 0.566 255 255 255
0.148887 0.152772 0.507 255 255 255
0.212823 -0.137108 0.709 255 255 255
-0.164287 -0.121467 0.338 255 255 255
0.0255113 0.1103 0.533 0 0 0
-0.160278 -0.123845 0.34 0 0 0
0.223781 0.178225 0.48 255 255 255
0.0346326 -0.198189 0.554 255 255 255
-0.0775896 0.169533 0.443 255 255 255
-0.148684 0.106575 0.545 255 255 255
0.277257 -0.225649 0.614 255 255 255
0.260814 0.0304028 0.714 255 255 255
-0.0674476 0.110095 0.563 255 255 255
0.302907 -0.0168 0.652 255 255 255
-0.0901973 0.00363242 0.705 0 0 0
0.296317 -0.0929766 0.629 255 255 255
0.246939 0.161066 0.526 255 255 255
-0.109275 -0.158001 0.648 0 0 0
0.308233 -0.117354 0.612 255 255 255
-0.159139 -0.00609711 0.381 0 0 0
0.0741363 -0.194405 0.886 255 255 255
-0.11817 0.0791872 0.607 255 255 255
-0.168832 0.0506264 0.398 255 255 255
-0.192712 0.129045 0.486 255 255 255
-0.153136 -0.075098 0.361 255 255 255
0.0416204 -0.198909 0.551 255 255 255
-0.159946 0.117143 0.521 255 255 255
0.182261 0.0900217 0.642 255 255 255
-0.115596 -0.0782262 0.66 0 0 0
0.232866 0.168757 0.503 255 255 255
-0.148753 -0.00924545 0.383 255 255 255
-0.149781 -0.140031 0.611 0 0 0
-0.122042 -0.071782 0.66 0 0 0
-0.0984933 0.124731 0.528 255 255 255
-0.162844 -0.0713375 0.354 255 255 255
-0.177395 -0.0560412 0.352 255 255 255
-0.0516805 0.152931 0.484 255 255 255
-0.247347 -0.05986 0.769 255 255 255
-0.0969472 0.149479 0.478 0 0 0
0.0790301 -0.164378 0.778 255 255 255
0.0795789 0.119838 0.553 255 255 255
0.00298638 0.134347 0.539 255 255 255
-0.113706 0.0871576 0.594 255 255 255
0.132873 -0.153154 0.76 255 255 255
-0.111744 0.116587 0.538 255 255 255
-0.166255 0.0283711 0.386 255 255 255
-0.0976248 -0.265332 0.735 255 255 255
-0.172266 0.0469118 0.394 255 255 255
-0.109073 0.14698 0.48 255 255 255
0.0203817 0.10636 0.535 0 0 0
0.172859 0.168683 0.484 255 255 255
-0.178038 0.0770466 0.394 255 255 255
0.249847 -0.117923 0.672 255 255 255
-0.167691 -0.118561 0.336 255 255 255
-0.148912 0.0155339 0.395 255 255 255
0.290451 -0.22238 0.592 255 255 255
0.190153 -0.247708 0.702 255 255 255
0.116968 0.114847 0.573 255 255 255
0.264403 0.152642 0.548 255 255 255
-0.154556 0.0192925 0.393 255 255 255
0.178158 -0.0816616 0.774 255 255 255
0.16993 0.00286586 0.813 255 255 255
-0.189506 0.0130579 0.362 255 255 255
0.291558 -0.112961 0.632 255 255 255
-0.170626 -0.0959131 0.343 255 255 255
0.250641 -0.0204602 0.705 255 255 255
0.331055 0.100818 0.651 255 255 255
0.303632 -0.0870206 0.623 255 255 255
-0.168176 -0.0922476 0.346 255 255 255
0.129024 0.139932 0.527 255 255 255
0.307512 0.106572 0.681 255 255 255
0.221483 0.137512 0.559 255 255 255
-0.13468 0.127617 0.512 255 255 255
-0.0545593 0.108131 0.572 255 255 255
-0.162954 0.113561 0.528 255 255 255
0.0797827 0.0837391 0.65 255 255 255
0.129508 0.0212498 0.861 255 255 255
0.232455 0.0478022 0.75 255 255 255
0.133397 -0.266749 0.763 255 255 255
0.212836 0.114748 0.607 255 255 255
0.0350551 0.125912 0.533 0 0 0
-0.0651715 -0.084891 0.747 255 255 255
-0.19405 0.0492673 0.373 255 255 255
0.0693799 0.070207 0.683 255 255 255
-0.125522 0.113749 0.537 255 255 255
0.163782 0.10175 0.612 255 255 255
0.275808 -0.208323 0.613 255 255 255
-0.129267 -0.0117065 0.664 255 255 255
0.236776 0.0764806 0.756 255 255 255
0.125592 0.162158 0.481 255 255 255
-0.0837566 0.166714 0.449 255 255 255
0.199592 0.122857 0.58 255 255 255
0.321377 0.0115204 0.634 255 255 255
0.165991 0.131346 0.556 255 255 255
0.0379192 0.161069 0.502 255 255 255
-0.1955 0.0573006 0.37 255 255 255
0.0244591 -0.227819 0.916 255 255 255
-0.186263 0.0249206 0.372 255 255 255
0.220028 -0.0333823 0.737 255 255 255
0.023337 0.0103521 0.779 255 255 255
-0.0505189 0.151018 0.488 255 255 255
0.277004 -0.176348 0.627 255 255 255
-0.147777 0.121291 0.517 255 255 255
-0.223188 -0.144138 0.727 255 255 255
0.292351 -0.223549 0.59 255 255 255
-0.230935 0.0487578 0.649 255 255 255
-0.163335 0.120353 0.513 255 255 255
-0.0565623 0.0956959 0.593 255 255 255
-0.0760749 0.15517 0.474 255 255 255
0.241938 -0.0963791 0.69 255 255 255
-0.17755 0.035553 0.701 255 255 255
-0.0946753 0.133449 0.512 255 255 255
-0.0597477 0.161998 0.467 255 255 255
-0.193774 0.0857643 0.376 255 255 255
0.165034 0.161565 0.496 255 255 255
-0.168362 -0.129424 0.333 255 255 255
-0.17437 0.116858 0.516 255 255 255
0.165838 -0.160152 0.758 255 255 255
-0.0803962 0.00605306 0.72 0 0 0
0.200822 -0.056313 0.755 255 255 255
0.0901277 0.148142 0.497 255 255 255
-0.0932416 -0.0123764 0.702 0 0 0
0.193372 -0.118375 0.736 255 255 255
0.307691 -0.143065 0.607 255 255 255
0.172479 0.156588 0.506 255 255 255
0.190557 0.151073 0.524 255 255 255
-0.176186 0.152491 0.448 255 255 255
