ply
format ascii 1.0
comment Created by Open3D
element vertex 1339
property double x
property double y
property double z
property uchar red
property uchar green
property uchar blue
end_header
-0.708645 -0.691416 2.78 0 0 0
0.0725041 0.187045 0.981 0 0 0
0.70532 -0.162974 3.248 255 255 255
0.11239 0.255719 0.892 0 0 0
1.33315 -1.11722 3.04 255 255 255
0.704515 0.127758 2.057 255 255 255
0.912575 -0.393071 3.41 255 255 255
1.03997 -0.766123 3.391 0 0 0
-1.00656 0.419023 1.905 255 255 255
-0.311748 -0.145668 1.575 255 255 255
-0.145227 0.216583 1.007 255 255 255
0.277829 0.311395 0.835 255 255 255
-0.56615 -0.623418 2.884 0 0 0
0.0456494 0.331572 0.893 255 255 255
-0.279655 -0.0448639 1.39 255 255 255
0.81774 -0.220481 3.318 255 255 255
-0.306781 0.389738 1.145 255 255 255
-0.60619 0.173484 1.498 255 255 255
0.174718 -0.0365068 1.748 255 255 255
-0.111955 0.0704936 1.135 0 0 0
-0.815117 0.281544 1.677 255 255 255
-0.205614 -0.0934744 1.442 255 255 255
1.42281 -1.02271 2.939 255 255 255
1.1202 -1.26258 3.318 255 255 255
0.628703 -0.555249 3.318 0 0 0
0.360796 0.222678 1.158 255 255 255
-0.502777 -0.946152 2.719 255 255 255
0.277634 -0.674037 3.318 255 255 255
-0.75499 0.143149 1.624 255 255 255
-0.47528 -0.0464637 1.516 0 0 0
-1.21543 -0.321524 2.329 255 255 255
1.09297 -1.16479 3.301 255 255 255
0.970704 0.166302 1.959 255 255 255
-0.270443 0.400077 1.041 255 255 255
-0.41626 -0.398058 2.953 255 255 255
1.25211 -0.294678 2.793 255 255 255
0.45378 0.268177 1.083 255 255 255
-0.296279 0.349358 1.185 255 255 255
0.108475 -0.557177 3.266 255 255 255
0.734949 -1.06452 3.41 255 255 255
1.43392 -1.15899 2.982 255 255 255
1.72234 -0.91137 4.347 255 255 255
-0.530884 -0.742081 2.871 255 255 255
1.47238 -0.915465 3.011 255 255 255
1.36779 -0.752143 3.956 255 255 255
1.05927 -1.00864 3.231 255 255 255
0.340718 0.255616 0.826 0 0 0
-0.323433 0.262825 1.222 255 255 255
-0.0984503 -0.0990272 1.567 255 255 255
-0.0174074 0.0590439 1.244 255 255 255
0.0485023 0.337007 0.892 255 255 255
0.37017 0.292229 0.794 255 255 255
-0.278456 -0.0350945 1.362 255 255 255
-1.01607 0.360396 1.923 255 255 255
-0.616964 -0.501323 3.117 255 255 255
0.455084 0.146515 1.603 255 255 255
0.814202 0.122637 2.143 255 255 255
-0.0734983 0.222602 0.969 255 255 255
-0.325046 -0.870849 2.911 255 255 255
0.207621 -0.393071 3.41 255 255 255
0.163122 -0.00495091 1.659 255 255 255
-1.04786 -0.536513 3.086 255 255 255
0.663023 -0.712673 3.248 255 255 255
-0.0488585 0.163099 0.981 255 255 255
-0.619679 -0.611264 2.871 255 255 255
-0.522593 0.0748495 1.633 255 255 255
0.590261 0.111755 2.01 0 0 0
1.37904 -0.825097 3.133 255 255 255
0.110878 0.282352 0.88 255 255 255
0.294024 0.0385448 1.799 0 0 0
-1.08653 -0.298784 2.329 255 255 255
0.967238 -1.10558 3.487 255 255 255
-0.899008 -0.583569 2.459 255 255 255
0.705553 -1.15416 3.429 255 255 255
0.438614 0.276695 1.055 255 255 255
0.0909207 0.332378 0.854 0 0 0
-0.81842 -0.59814 2.831 255 255 255
0.973729 -0.512282 3.391 255 255 255
-0.721485 0.461786 1.62 255 255 255
-1.00803 -0.530917 3.301 255 255 255
-0.0900274 0.336565 1.013 255 255 255
-0.0442925 0.350058 0.986 0 0 0
0.0127087 -0.554106 3.248 0 0 0
0.00977771 0.255168 0.938 0 0 0
-0.219913 -0.115945 1.459 255 255 255
0.657208 0.217365 1.587 255 255 255
1.44195 -1.09923 2.939 255 255 255
1.3327 -0.0247213 2.604 255 255 255
-1.18398 -0.40195 2.312 255 255 255
-1.05063 -0.463912 3.283 255 255 255
-0.227829 -0.00605503 1.313 255 255 255
0.1892 -0.522679 3.283 0 0 0
-0.270632 -0.428239 3.102 255 255 255
-0.479597 -0.818409 2.844 255 255 255
0.333937 0.310949 0.816 0 0 0
0.270177 -0.495703 3.429 255 255 255
-0.357661 -0.0589623 1.459 255 255 255
-0.478583 0.170589 1.473 255 255 255
-0.606818 0.0883011 1.543 255 255 255
0.398961 0.262249 0.92 0 0 0
-0.384713 -0.131503 1.559 255 255 255
-0.495289 -0.471228 3.086 0 0 0
1.04458 -1.0898 3.318 255 255 255
0.310078 0.282521 0.834 255 255 255
1.79941 -0.896644 4.676 255 255 255
0.293519 0.291707 0.857 0 0 0
0.304105 0.296857 0.84 0 0 0
0.830578 -0.164789 3.181 255 255 255
1.20553 -0.267662 2.844 255 255 255
1.15588 -0.882007 3.391 255 255 255
-0.414695 0.446752 1.27 255 255 255
-0.412212 -0.0924753 1.502 255 255 255
-0.295763 -0.989524 2.857 0 0 0
0.777476 -0.222874 3.354 255 255 255
-0.256503 -0.156068 1.551 255 255 255
-0.421685 0.260746 1.26 0 0 0
-0.337747 -0.617012 2.898 255 255 255
0.803737 0.0773015 2.143 255 255 255
0.363604 0.319308 0.817 255 255 255
-0.121872 -0.138504 1.642 255 255 255
-0.565636 -0.18751 1.65 0 0 0
0.171058 -0.0513391 1.769 255 255 255
-0.616964 -0.506396 3.117 255 255 255
-0.504877 0.233759 1.406 255 255 255
-0.0545795 0.0596446 1.215 255 255 255
-0.430572 0.263213 1.262 255 255 255
-0.267921 0.140674 1.232 255 255 255
-0.218006 0.268791 1.222 255 255 255
0.347713 -0.955791 3.266 255 255 255
0.678459 0.0219652 2.189 255 255 255
0.0993463 0.219895 0.978 0 0 0
0.230372 -1.18609 3.117 255 255 255
1.39861 -0.526272 2.768 255 255 255
-0.586145 -0.555984 3.198 255 255 255
0.714456 0.241183 1.396 255 255 255
-0.653719 0.461117 1.547 255 255 255
0.571558 0.0819953 2.085 255 255 255
-0.146551 0.305386 1.09 255 255 255
-0.108948 0.155641 1.005 255 255 255
-0.82498 0.565653 1.686 255 255 255
-0.949084 -0.517037 2.374 255 255 255
0.358909 -0.0815993 2.196 255 255 255
-0.615093 0.129035 1.52 255 255 255
-0.800207 -0.774016 2.768 0 0 0
0.0306891 0.290455 0.924 0 0 0
-0.652393 -0.64864 2.871 255 255 255
-0.145574 0.264262 1.096 255 255 255
0.499157 -0.60816 3.283 0 0 0
-0.833176 0.146675 1.664 0 0 0
1.32713 -0.463129 2.939 255 255 255
0.35848 0.200814 1.27 255 255 255
-0.741154 -0.999531 2.638 0 0 0
0.759901 0.126951 2.099 0 0 0
1.10455 -0.856843 3.336 255 255 255
0.0436041 -0.141026 1.739 0 0 0
0.298138 0.272499 0.967 255 255 255
-0.887861 0.388413 1.779 255 255 255
1.41173 -0.898724 3.071 255 255 255
-0.525869 0.22876 1.432 255 255 255
-0.32647 -0.448228 2.967 255 255 255
0.166572 0.310408 0.836 255 255 255
0.236599 0.297633 0.858 255 255 255
-0.0165242 0.174865 0.958 0 0 0
-0.681792 0.252203 1.595 255 255 255
0.0726363 0.0413293 1.571 0 0 0
-0.398915 -0.457885 2.967 255 255 255
1.26521 -0.09137 2.695 255 255 255
0.281034 0.280603 0.902 255 255 255
-0.583266 0.440252 1.477 255 255 255
-0.253132 0.372779 1.122 255 255 255
0.00370932 0.293371 0.948 255 255 255
0.528146 0.172602 1.603 255 255 255
0.377163 0.258254 0.809 255 255 255
1.03396 -1.18257 3.336 255 255 255
0.306373 0.285578 0.835 255 255 255
0.00366628 0.174081 0.937 255 255 255
0.106579 0.197626 0.986 0 0 0
-0.573521 0.0630703 1.673 255 255 255
0.634362 -0.416567 3.467 255 255 255
-1.12106 -0.455633 2.261 255 255 255
1.17442 -0.408863 3.547 255 255 255
-0.10367 0.142241 1.051 255 255 255
0.244141 0.310408 0.836 0 0 0
-0.710051 0.425403 1.612 255 255 255
0.408148 -0.961912 3.198 255 255 255
0.283201 0.306222 0.847 255 255 255
0.766556 -1.06341 3.354 255 255 255
-1.13813 -0.50907 2.303 255 255 255
-0.408404 0.470817 1.257 255 255 255
-0.107213 0.164429 0.989 255 255 255
-0.220346 -0.943368 2.844 255 255 255
0.213255 0.168898 1.345 255 255 255
0.0161693 0.0868772 1.182 255 255 255
-0.207929 0.386137 1.009 255 255 255
1.46347 -0.652222 3.787 255 255 255
1.30554 -0.854126 3.165 255 255 255
0.0218286 0.309321 0.931 255 255 255
0.306913 0.241956 1.1 0 0 0
1.49708 -0.641964 3.763 255 255 255
-0.200871 -0.0575883 1.425 0 0 0
0.136504 -0.552404 3.301 255 255 255
-0.36386 -1.0961 2.844 255 255 255
-0.659202 -0.14683 1.616 255 255 255
0.267488 0.114587 1.559 255 255 255
0.367647 0.270948 1.002 255 255 255
-0.567234 -0.905885 2.731 255 255 255
-0.244864 0.118139 1.227 255 255 255
-0.283778 0.362322 1.135 255 255 255
-0.220721 0.160661 1.173 255 255 255
0.716717 -1.12067 3.429 255 255 255
1.44674 -0.81705 2.939 255 255 255
0.216749 0.288389 0.868 255 255 255
-0.742634 -0.922813 2.755 0 0 0
0.150342 0.284151 0.868 0 0 0
-0.909453 -0.621502 2.303 255 255 255
1.0569 -0.80926 3.41 0 0 0
-0.0164725 0.191412 0.955 255 255 255
-0.292236 -0.364369 3.117 255 255 255
0.325276 0.249753 1.072 0 0 0
-0.629115 0.206256 1.524 255 255 255
1.43103 -0.927988 3.102 255 255 255
1.33869 -0.248236 2.684 255 255 255
-0.767921 0.0402042 1.629 255 255 255
0.515412 -0.370241 3.354 255 255 255
-0.783973 0.0218737 1.646 0 0 0
0.617184 0.25432 1.357 255 255 255
-0.228624 0.0794167 1.215 255 255 255
0.230418 0.295871 0.861 255 255 255
0.0103179 0.0881246 1.173 255 255 255
-0.692188 -0.68394 2.805 0 0 0
0.241864 0.275012 0.938 255 255 255
0.213967 0.276812 0.904 255 255 255
-0.257387 0.284892 1.249 0 0 0
-0.532349 0.547161 1.4 255 255 255
0.198932 0.26761 0.923 255 255 255
1.13781 -0.910589 3.354 0 0 0
0.728339 -0.201041 3.354 255 255 255
-0.347701 0.362332 1.196 255 255 255
-0.0169545 -0.00728172 1.579 255 255 255
-0.815061 0.405633 1.729 255 255 255
-1.06216 -0.384541 3.336 255 255 255
0.232879 0.128394 1.484 255 255 255
0.180048 -0.86762 3.215 255 255 255
0.516703 0.264635 1.128 255 255 255
1.61563 -0.943929 4.061 255 255 255
0.80367 -0.450418 3.467 255 255 255
0.422327 -0.35655 3.487 0 0 0
0.159115 -0.846692 3.215 255 255 255
-0.313339 0.41958 1.135 255 255 255
0.655492 0.255961 1.354 0 0 0
1.46805 -1.03719 2.953 255 255 255
-0.722842 0.565086 1.629 255 255 255
-0.0391171 0.307115 0.977 255 255 255
-0.866986 -0.547554 2.459 255 255 255
-0.476802 -0.0636068 1.513 0 0 0
0.142023 0.30387 0.852 255 255 255
0.858243 0.127858 2.114 255 255 255
1.4713 -0.81584 2.884 255 255 255
-0.586934 -0.561722 3.231 255 255 255
-0.286807 0.387825 1.118 255 255 255
0.250302 0.306148 0.843 255 255 255
0.059088 0.0534231 1.551 255 255 255
0.304382 0.0331803 1.826 0 0 0
-0.279247 -0.9022 2.831 255 255 255
0.0189592 0.25544 0.939 255 255 255
0.86834 -0.0871998 2.572 255 255 255
0.782437 0.168954 1.882 0 0 0
-0.169323 0.182269 1.055 0 0 0
1.03918 -0.987207 3.318 255 255 255
-0.508059 -0.561189 3.198 0 0 0
0.10109 0.090125 1.283 255 255 255
1.37358 -1.12902 2.967 255 255 255
-0.755058 0.481002 1.659 255 255 255
-0.46388 0.303796 1.286 0 0 0
0.537838 0.331689 1.089 255 255 255
-0.364283 -0.689123 2.884 255 255 255
1.39509 -0.649455 2.982 255 255 255
-1.07999 -0.731767 2.143 255 255 255
-0.598289 -0.0486397 1.587 255 255 255
-0.3835 0.076783 1.381 0 0 0
0.01409 0.146103 1.03 0 0 0
-0.840709 0.576355 1.616 255 255 255
0.432137 -0.486765 3.568 0 0 0
0.590896 -1.27878 3.318 0 0 0
0.331178 0.0505623 1.81 0 0 0
-0.415923 -0.651577 2.884 255 255 255
-0.741081 0.330811 1.664 255 255 255
-0.192976 -0.169634 1.633 0 0 0
-0.76598 0.412537 1.677 255 255 255
-1.11836 -0.525786 2.278 255 255 255
0.815852 -0.0352704 2.204 255 255 255
-0.287583 -0.177945 1.612 255 255 255
-0.225657 -0.0385162 1.406 255 255 255
0.197687 0.153113 1.422 255 255 255
0.886473 -0.882943 3.527 255 255 255
0.702399 0.230906 1.491 255 255 255
-0.725421 -0.999321 2.582 0 0 0
0.276902 0.195852 1.178 0 0 0
-0.173839 0.143281 1.141 0 0 0
-0.593765 0.0850063 1.575 255 255 255
-0.67309 -0.168704 1.599 255 255 255
0.618846 -1.01491 3.507 255 255 255
-0.171069 0.296683 1.16 255 255 255
-0.594859 0.536244 1.47 255 255 255
-0.201891 -0.140581 1.52 255 255 255
-0.0967557 0.371427 1.032 255 255 255
0.0227629 -0.118697 1.664 255 255 255
-0.52543 -0.58171 3.086 255 255 255
0.0347745 -0.422542 3.336 255 255 255
0.0921509 0.00563654 1.599 255 255 255
-0.653719 0.466152 1.547 255 255 255
-0.561359 0.12596 1.607 255 255 255
1.12506 -0.32911 3.026 0 0 0
0.269016 -0.820533 3.215 255 255 255
-0.64025 -0.287679 1.595 0 0 0
-0.120359 -0.167898 1.696 0 0 0
0.0743077 0.258878 0.924 255 255 255
0.233539 -0.956064 3.231 255 255 255
0.731459 -0.521349 3.527 0 0 0
0.000829352 0.0578445 1.262 255 255 255
-0.505358 -0.537499 3.181 0 0 0
0.834822 0.130863 2.107 255 255 255
0.580928 -0.550357 3.354 0 0 0
-0.0918513 0.259861 0.997 255 255 255
-0.436007 0.292155 1.254 255 255 255
0.0437474 -0.691294 3.198 255 255 255
-0.135071 0.0709904 1.143 255 255 255
-0.502706 0.0934016 1.587 255 255 255
1.07355 -0.653882 3.41 255 255 255
-0.985026 0.447842 1.87 255 255 255
-0.111008 0.39521 1.024 0 0 0
1.35584 -0.510956 2.939 255 255 255
-0.290067 -0.0309543 1.375 255 255 255
-0.274407 0.0232771 1.281 0 0 0
0.048448 -0.452388 3.165 255 255 255
-0.561089 -0.100294 1.629 255 255 255
1.12806 0.122382 2.338 255 255 255
1.37567 -0.829004 2.982 255 255 255
0.162835 0.2142 1.027 255 255 255
-0.761724 -0.71346 2.743 0 0 0
-0.837597 -0.627494 2.818 0 0 0
-0.0573297 0.389581 1.018 255 255 255
-1.04564 -0.466455 3.301 255 255 255
-0.102384 0.169257 0.989 0 0 0
0.0952857 0.278426 0.895 0 0 0
-0.0573988 0.102003 1.116 0 0 0
-0.33479 -0.162273 1.587 0 0 0
0.27554 0.27359 0.928 255 255 255
-0.585304 -0.852199 2.818 255 255 255
0.130416 -0.389116 3.283 255 255 255
-0.0924962 0.27639 1.004 255 255 255
1.17698 -0.123623 2.831 255 255 255
0.341607 0.264837 0.809 255 255 255
-0.601711 0.0473884 1.603 255 255 255
-0.803451 0.0993107 1.642 255 255 255
-0.0832328 0.250234 0.991 255 255 255
-0.180377 -0.952324 2.871 255 255 255
0.501989 0.304116 1.073 255 255 255
-0.34692 -0.943031 2.857 255 255 255
0.783243 0.143582 2.044 255 255 255
-0.280508 0.283535 1.217 255 255 255
1.18014 -0.39683 3.133 255 255 255
0.0115554 -0.0966245 1.612 255 255 255
-0.199983 -1.0127 2.818 255 255 255
-0.310594 0.0910629 1.267 255 255 255
0.730854 -1.29588 3.391 255 255 255
0.966248 0.159664 2.037 255 255 255
-1.06381 -0.624789 2.196 255 255 255
0.0141594 0.189915 0.925 255 255 255
0.346489 0.270665 0.799 255 255 255
1.33978 -0.399945 2.967 255 255 255
-0.309288 0.0237132 1.305 255 255 255
-0.398648 0.405881 1.265 255 255 255
-0.265422 -0.985126 2.831 255 255 255
-0.0448269 0.191449 0.963 255 255 255
-0.975272 -0.498545 3.336 255 255 255
0.871555 0.177574 1.876 0 0 0
-0.0753946 0.307606 0.994 255 255 255
1.00699 -1.12982 3.373 255 255 255
-0.185399 0.108564 1.167 255 255 255
0.567747 -0.388806 3.373 255 255 255
-0.830084 0.593541 1.571 255 255 255
-0.174469 -0.543073 3.011 255 255 255
0.446915 -0.587799 3.547 255 255 255
0.104422 0.19212 1.062 255 255 255
-0.602387 -0.0358169 1.591 255 255 255
0.206754 0.0768899 1.62 255 255 255
0.618439 0.295898 1.244 255 255 255
-0.624353 -0.709377 2.871 255 255 255
-0.554743 -0.263036 1.603 0 0 0
0.722704 0.0880912 2.151 255 255 255
0.502275 0.252063 1.322 255 255 255
0.248623 0.213238 1.128 255 255 255
0.060033 0.106921 1.213 255 255 255
1.40866 -0.949764 3.011 255 255 255
-1.12359 -0.419342 2.244 255 255 255
0.0296927 0.148687 1.112 255 255 255
1.42643 -0.629164 2.805 255 255 255
0.0574385 0.0388715 1.575 255 255 255
-0.219636 0.242541 1.22 255 255 255
0.250401 0.203076 1.198 255 255 255
-0.0995346 -0.0307008 1.47 0 0 0
0.628718 -0.422209 3.467 255 255 255
-0.467869 0.44089 1.327 255 255 255
-0.65583 -0.412125 3.133 255 255 255
-0.649664 -0.0490075 1.599 255 255 255
-0.718312 0.612372 1.607 255 255 255
-0.299958 0.127164 1.257 255 255 255
-0.623636 -0.108856 1.599 255 255 255
0.370914 0.224331 1.229 255 255 255
-0.519466 0.43201 1.396 255 255 255
-0.576487 0.558883 1.442 255 255 255
-0.968863 -0.600928 2.982 0 0 0
-0.462464 -0.700312 2.911 255 255 255
-0.8111 -0.709758 2.509 255 255 255
0.360844 0.217087 1.222 255 255 255
-0.24247 0.107979 1.225 255 255 255
1.04604 -1.28808 3.429 255 255 255
0.253275 0.252782 1.085 0 0 0
0.000616428 0.175794 0.938 255 255 255
1.00259 0.143069 2.085 255 255 255
-0.616964 -0.511468 3.117 255 255 255
0.957169 -0.495728 3.391 255 255 255
-0.881826 -0.83461 2.261 255 255 255
0.334609 0.282918 0.808 255 255 255
0.193349 0.306425 0.84 255 255 255
0.195867 0.28334 0.857 255 255 255
-0.153464 0.0107694 1.281 0 0 0
-0.355352 -0.0156026 1.403 0 0 0
0.130058 0.105424 1.345 255 255 255
-0.178815 -0.410964 3.086 255 255 255
-0.235022 0.345868 1.249 255 255 255
-0.0693267 0.0378567 1.439 255 255 255
-0.573952 0.227407 1.484 255 255 255
-0.0186217 -0.620324 3.181 255 255 255
-0.661328 0.114587 1.559 255 255 255
-0.101795 0.351274 1.032 255 255 255
0.916542 -0.568899 3.467 255 255 255
1.35105 -1.07532 2.939 255 255 255
1.28868 -1.15215 3.149 255 255 255
-0.278554 0.259106 1.262 255 255 255
1.37925 -0.802767 3.011 255 255 255
0.323964 -0.551974 3.467 255 255 255
-0.21967 -0.60487 3.026 255 255 255
-0.119485 -0.0718532 1.48 255 255 255
1.28606 -0.354499 2.911 0 0 0
-0.578227 -0.101302 1.603 255 255 255
0.887929 -0.0289258 2.269 255 255 255
0.503713 -0.00294864 2.173 0 0 0
0.076154 -0.585819 3.248 255 255 255
0.456853 0.0909864 1.917 0 0 0
-0.216964 -0.0385984 1.409 255 255 255
-0.826835 -0.754658 2.356 255 255 255
-0.00243993 0.183621 0.939 0 0 0
1.39109 -0.505933 2.78 255 255 255
-0.871371 -0.79866 2.253 255 255 255
0.120292 0.166337 1.244 255 255 255
-0.765398 0.607142 1.607 255 255 255
-0.36946 0.241594 1.278 255 255 255
-0.0286863 -0.757568 3.149 255 255 255
-0.901194 -0.752608 2.236 255 255 255
0.01264 0.242338 0.924 0 0 0
0.755637 -0.206499 3.354 255 255 255
0.0190601 0.270626 0.944 255 255 255
-0.392109 0.154334 1.412 255 255 255
1.12818 -0.19545 2.871 255 255 255
0.172694 0.212705 1.036 0 0 0
0.15737 -0.0330075 1.714 255 255 255
0.00212046 0.216204 0.928 255 255 255
-0.847665 0.12089 1.682 0 0 0
1.05101 -0.926153 3.391 255 255 255
-0.507175 0.39866 1.375 255 255 255
-0.29569 0.0765092 1.265 255 255 255
-0.927496 -0.603437 2.32 255 255 255
0.883455 -1.06516 3.448 255 255 255
-0.251597 -1.09109 2.831 0 0 0
-0.430007 -0.628111 2.884 255 255 255
1.31965 -0.168858 2.672 255 255 255
0.333937 0.260489 0.816 255 255 255
0.277815 0.166061 1.289 255 255 255
0.297217 0.147296 1.456 255 255 255
0.381067 -0.734611 3.373 255 255 255
0.342875 0.219132 1.13 0 0 0
0.618481 0.26282 1.322 255 255 255
0.694031 -1.2396 3.373 255 255 255
0.180826 0.229638 1.044 0 0 0
0.415915 0.0680671 1.887 255 255 255
-0.399276 0.213424 1.336 0 0 0
-0.1773 -0.0320124 1.422 0 0 0
-0.764652 -0.565642 2.925 255 255 255
-0.696455 0.13214 1.587 255 255 255
-0.440427 0.413678 1.316 255 255 255
-0.426279 0.414676 1.299 255 255 255
-0.34227 -0.543193 2.857 0 0 0
-0.597218 0.0161754 1.612 255 255 255
0.359091 0.260915 0.801 0 0 0
1.66589 -0.753951 4.257 255 255 255
0.358997 0.221678 1.106 255 255 255
-0.687923 -0.619399 2.844 255 255 255
-0.626517 -0.412737 3.301 255 255 255
-0.648835 -1.01695 2.719 255 255 255
-0.0478126 0.23147 0.96 255 255 255
-0.947394 -0.687595 2.286 255 255 255
0.515412 -0.353867 3.354 255 255 255
1.09733 -1.05677 3.266 255 255 255
1.20338 -0.896832 3.448 0 0 0
1.14555 -0.674381 3.547 0 0 0
1.07837 -0.712655 3.373 255 255 255
0.451539 -1.1778 3.248 255 255 255
1.30114 -0.433743 2.967 255 255 255
-0.0953494 0.334584 1.017 255 255 255
0.393805 0.258297 1.05 255 255 255
-0.0123026 -0.975067 2.911 255 255 255
-0.793795 -0.599202 2.793 255 255 255
-0.817876 0.439397 1.729 255 255 255
-0.397703 0.390542 1.262 255 255 255
-0.303677 -0.906343 2.844 0 0 0
0.868851 -0.468136 3.391 255 255 255
0.374458 0.292788 1.039 255 255 255
0.0236629 -0.439596 3.301 255 255 255
-0.31123 0.27131 1.198 255 255 255
-0.688625 0.489967 1.575 255 255 255
-0.0215777 -0.994182 2.884 255 255 255
1.21942 -0.281547 2.844 255 255 255
0.237998 0.154245 1.278 255 255 255
-1.06652 -0.755501 2.151 255 255 255
-0.130669 0.346488 1.048 255 255 255
-0.295186 0.262025 1.237 255 255 255
-0.759655 -1.00825 2.768 0 0 0
-0.214544 0.364374 1.017 255 255 255
0.128167 -1.06679 2.982 255 255 255
-0.304253 0.247251 1.275 255 255 255
-0.878073 -0.54394 2.479 255 255 255
-0.122288 -0.0304084 1.456 0 0 0
0.0276809 0.313009 0.924 255 255 255
0.213734 0.201146 1.234 255 255 255
0.715855 0.175215 1.917 255 255 255
0.249144 0.314934 0.83 0 0 0
-0.218669 0.0345556 1.237 255 255 255
-0.0950972 0.227412 0.997 255 255 255
-0.000919189 0.345458 0.947 255 255 255
-0.151735 0.14384 1.089 255 255 255
1.23664 -1.07296 3.283 255 255 255
-0.598474 -0.929797 2.672 255 255 255
0.341653 0.26779 0.806 255 255 255
1.25006 0.0355082 2.672 255 255 255
-0.75499 -0.0788443 1.624 0 0 0
0.83219 0.0502786 2.181 255 255 255
-0.37066 0.279807 1.201 255 255 255
0.193579 0.293104 0.841 0 0 0
0.610488 0.226794 1.48 255 255 255
1.33407 -0.139723 2.615 255 255 255
0.748771 0.199006 1.794 255 255 255
0.563889 0.329016 1.116 255 255 255
1.11399 -0.0799543 2.755 0 0 0
0.0545465 0.180955 0.974 0 0 0
0.126405 -0.636241 3.318 255 255 255
0.571591 -1.03139 3.429 255 255 255
-0.0313161 -0.123739 1.659 0 0 0
0.493447 -0.478962 3.429 255 255 255
-0.0771833 -1.04532 2.857 255 255 255
-0.676458 -0.224466 1.607 255 255 255
-0.239956 -0.738463 2.857 255 255 255
-0.130645 0.0352539 1.262 255 255 255
0.0861498 0.189949 1.05 255 255 255
-0.937658 0.426583 1.831 255 255 255
0.857767 -1.02069 3.527 255 255 255
-0.109316 -0.159618 1.696 255 255 255
-1.11939 -0.0968185 2.303 255 255 255
-0.383277 -0.125131 1.543 255 255 255
-0.981385 -0.608513 2.228 255 255 255
-0.744256 0.405409 1.659 255 255 255
-0.189709 0.0504548 1.232 255 255 255
-0.0148606 0.13336 1.062 0 0 0
0.882096 -0.844557 3.487 255 255 255
-0.105323 -0.81827 2.996 0 0 0
0.147697 0.19972 1.075 255 255 255
-0.10147 -0.511617 3.181 255 255 255
-0.953551 -0.427971 3.336 255 255 255
-0.616372 -0.077048 1.587 255 255 255
-0.21409 0.182032 1.128 255 255 255
-1.16432 -0.118217 2.356 255 255 255
-0.575044 0.114587 1.559 255 255 255
0.00825083 0.346754 0.938 255 255 255
-0.614758 -0.247384 1.603 255 255 255
-0.913904 -0.721076 2.286 255 255 255
-0.607334 0.209692 1.513 255 255 255
-0.0117594 0.195253 0.951 0 0 0
-0.559832 0.231806 1.466 255 255 255
-1.11342 -0.560346 2.253 255 255 255
-0.789248 -0.908271 2.793 0 0 0
-0.534006 -0.91433 2.743 255 255 255
-1.14898 -0.375094 2.356 255 255 255
0.920295 0.205705 1.882 255 255 255
0.750225 -0.0148674 2.383 0 0 0
-0.775119 -0.633113 2.743 255 255 255
1.29955 -0.869549 3.741 0 0 0
0.266794 0.210867 1.135 255 255 255
0.195484 0.279004 0.874 255 255 255
0.00393235 0.145828 1.005 255 255 255
0.599161 0.300386 1.182 255 255 255
-0.783507 -0.610906 2.805 0 0 0
-0.587733 0.0942907 1.559 255 255 255
-0.0368737 0.193977 0.96 255 255 255
0.469654 -0.944546 3.301 0 0 0
0.526519 0.0918545 2.004 255 255 255
0.103143 0.259477 0.9 0 0 0
1.1746 -0.423502 3.674 255 255 255
0.305746 0.282932 0.86 255 255 255
0.382764 0.287784 0.796 0 0 0
-0.626588 -0.77424 2.818 255 255 255
1.34837 -0.254674 2.66 255 255 255
-0.199083 -0.10912 1.463 255 255 255
0.052562 0.329344 0.887 255 255 255
-0.319457 0.34346 1.178 255 255 255
-0.293258 -0.0263636 1.369 255 255 255
0.0424342 -0.852269 3.102 255 255 255
-0.824919 -0.454468 2.151 0 0 0
1.27881 -0.258157 2.743 255 255 255
0.621863 -0.0406474 2.54 255 255 255
-0.804713 -0.647892 2.768 255 255 255
0.315727 0.276096 0.831 255 255 255
0.042262 0.158274 1.022 255 255 255
-0.312095 0.234994 1.299 0 0 0
-0.0229045 0.298322 0.964 255 255 255
-0.0790262 0.301025 0.999 255 255 255
-0.84604 0.0764538 1.668 0 0 0
-1.08975 -0.820145 2.128 255 255 255
0.382022 0.136081 1.603 255 255 255
-0.741188 -0.573887 2.871 0 0 0
0.789279 -1.33272 3.429 255 255 255
0.191361 0.166709 1.345 0 0 0
0.673314 0.118116 2.064 255 255 255
-0.365973 -0.100539 1.513 255 255 255
0.206627 0.254925 0.966 255 255 255
-1.04234 -0.734096 2.181 255 255 255
0.49075 0.180267 1.535 255 255 255
0.119107 -0.392416 3.266 255 255 255
0.659918 0.245727 1.396 0 0 0
-0.557379 -0.881 2.793 0 0 0
0.0647634 0.288943 0.896 255 255 255
0.54817 -1.10708 3.354 255 255 255
1.65086 -0.944218 4.034 255 255 255
-0.347648 -0.0741111 1.477 255 255 255
-0.134946 -0.450599 3.117 255 255 255
-0.123622 -0.834491 2.967 255 255 255
-0.695649 -0.205647 1.603 0 0 0
-0.113308 0.18158 0.986 0 0 0
1.17986 0.049625 2.731 0 0 0
-0.0655727 -0.535168 3.198 255 255 255
-0.237275 -0.539653 2.939 255 255 255
1.23321 -0.114812 2.731 255 255 255
1.00139 -0.892498 3.41 255 255 255
-1.04511 -0.808489 2.143 255 255 255
1.37134 -0.988965 3.026 255 255 255
-0.943753 -0.595022 3.026 255 255 255
-0.477527 0.426219 1.342 255 255 255
0.43039 -1.18837 3.248 255 255 255
1.07811 -0.400819 3.631 0 0 0
1.66391 -0.722105 4.115 255 255 255
1.31785 -0.336966 2.695 0 0 0
-0.681689 -0.151242 1.607 255 255 255
0.486304 0.133276 1.774 255 255 255
0.386585 0.269858 0.992 0 0 0
-0.719668 0.321875 1.646 255 255 255
0.180838 -0.0104377 1.673 255 255 255
-0.524011 0.500163 1.396 255 255 255
0.429684 -1.12638 3.283 255 255 255
0.185557 0.266509 0.909 255 255 255
-0.278778 -0.452217 3.026 255 255 255
0.0649234 0.155765 1.194 255 255 255
-0.454908 0.408498 1.327 255 255 255
-0.238131 0.269581 1.244 255 255 255
0.750146 -0.381424 3.507 255 255 255
-0.620817 0.278908 1.528 255 255 255
-0.397231 -1.09066 2.818 0 0 0
-0.00155592 -0.0465215 1.603 0 0 0
0.100969 -1.12162 2.898 0 0 0
0.778936 0.0289833 2.181 255 255 255
1.81502 -0.937653 4.034 255 255 255
1.14555 -0.680153 3.547 0 0 0
0.322949 -1.01916 3.231 255 255 255
0.312592 0.167099 1.22 0 0 0
-0.805278 -0.802086 2.383 255 255 255
-1.0887 -0.455352 2.278 255 255 255
-0.230236 -0.423191 3.102 255 255 255
0.603896 -0.42399 3.391 255 255 255
0.380172 0.311459 0.807 255 255 255
-1.10832 -0.0102746 2.228 255 255 255
-0.275693 0.187258 1.222 255 255 255
0.34856 0.0315157 1.905 255 255 255
-0.699663 0.202391 1.571 255 255 255
-0.294684 -0.568349 2.939 255 255 255
0.104259 0.262991 0.897 0 0 0
0.830621 0.220298 1.71 255 255 255
0.0773474 -0.00745235 1.616 0 0 0
-1.02616 -0.503518 2.347 255 255 255
0.0385919 0.158528 1.013 0 0 0
-0.408026 0.371742 1.275 255 255 255
-0.0977679 0.343888 1.025 255 255 255
-0.320505 0.30797 1.189 255 255 255
0.0344775 0.349282 0.905 255 255 255
0.211731 -0.557776 3.301 255 255 255
1.00139 -0.293185 3.41 255 255 255
-0.161336 0.361696 1.094 255 255 255
1.00685 -0.716458 3.391 0 0 0
-1.0498 -0.527549 3.215 255 255 255
0.278887 0.172331 1.229 255 255 255
0.276954 -0.0148043 1.882 255 255 255
-0.0620989 -0.0626803 1.551 255 255 255
0.784398 -0.284404 3.507 255 255 255
1.30254 -1.20238 3.133 255 255 255
-0.177864 -0.869951 2.831 255 255 255
0.337016 0.288498 0.984 255 255 255
0.433517 -0.888757 3.354 255 255 255
-0.0756955 0.23239 0.977 255 255 255
0.730841 -0.28093 3.609 255 255 255
0.00369367 0.322857 0.944 255 255 255
1.32125 -1.16073 3.117 255 255 255
-0.112043 0.16282 0.989 255 255 255
0.549495 0.216348 1.491 255 255 255
-0.00244513 0.20392 0.941 0 0 0
1.22022 -0.487227 3.448 255 255 255
1.33661 -0.417663 2.857 255 255 255
0.0700146 -0.0154651 1.629 0 0 0
0.379865 -0.434508 3.568 255 255 255
0.682894 0.070097 2.136 255 255 255
-0.613789 0.0469154 1.587 255 255 255
-0.986089 -0.383317 3.373 255 255 255
-0.713936 -0.790335 2.731 255 255 255
0.95143 -0.559546 3.41 0 0 0
0.748936 -1.26704 3.373 255 255 255
-0.873866 -0.782177 2.269 255 255 255
-0.882997 -0.555558 2.459 255 255 255
0.979184 -0.903596 3.41 255 255 255
0.221222 0.297563 0.842 0 0 0
0.433842 0.216779 1.357 255 255 255
-0.233345 -0.069183 1.425 0 0 0
0.186064 0.199622 1.237 255 255 255
-0.20135 0.375328 1.194 255 255 255
-0.662171 0.0973246 1.567 255 255 255
0.0611911 0.205184 0.954 255 255 255
0.0818013 0.186851 0.997 255 255 255
-0.5528 -0.127125 1.668 255 255 255
1.43984 -0.7132 2.925 255 255 255
0.00818046 0.195482 0.93 0 0 0
0.370527 0.279893 0.792 255 255 255
1.37925 -0.969363 3.011 255 255 255
-0.194718 -0.109344 1.466 255 255 255
0.962033 -1.32888 3.448 255 255 255
-0.589809 0.0568331 1.65 255 255 255
1.02288 -1.02488 3.283 255 255 255
0.048921 0.194928 0.957 255 255 255
0.513447 0.238746 1.369 255 255 255
-0.0489155 0.0336343 1.459 255 255 255
-0.243212 -0.681583 2.953 255 255 255
-1.15924 -0.132532 2.338 255 255 255
0.749639 0.000609178 2.253 255 255 255
-0.57415 0.434587 1.466 255 255 255
-0.81557 -0.697189 2.615 255 255 255
-0.289352 0.401271 1.1 255 255 255
-0.20566 -0.777356 2.898 255 255 255
-1.22495 -0.0382789 2.392 255 255 255
-0.960886 -0.565109 2.365 255 255 255
-0.596436 0.2003 1.498 255 255 255
0.858542 0.11296 2.158 255 255 255
-0.268971 0.0356171 1.275 0 0 0
0.178241 0.317833 0.827 255 255 255
-0.785016 0.597165 1.637 255 255 255
-0.581691 -0.946572 2.695 0 0 0
0.660726 -0.441668 3.487 255 255 255
0.632059 0.271093 1.31 255 255 255
0.373177 0.257721 0.995 0 0 0
0.961368 -0.895057 3.507 255 255 255
0.380233 0.113884 1.7 255 255 255
-0.231683 0.244894 1.242 255 255 255
1.19942 -1.21692 3.198 0 0 0
-0.101165 -0.0233482 1.459 0 0 0
-0.319493 -0.0314271 1.396 255 255 255
-0.316387 0.219594 1.308 255 255 255
1.30976 -0.0804839 2.626 255 255 255
0.00395073 -0.165538 1.729 255 255 255
1.48819 -0.765267 3.181 0 0 0
0.272703 0.26161 1.085 0 0 0
-0.057427 0.232435 0.964 255 255 255
0.418996 -1.1157 3.283 255 255 255
0.793272 0.0807888 2.143 255 255 255
-0.480425 -0.976822 2.743 255 255 255
1.01753 0.126656 2.278 255 255 255
0.602608 0.250271 1.359 255 255 255
-1.07701 -0.424013 2.269 255 255 255
1.45082 -0.898214 3.588 0 0 0
1.01224 -1.18895 3.354 255 255 255
1.20886 -0.423191 3.102 0 0 0
0.45128 -0.39184 3.448 255 255 255
0.439742 0.224116 1.348 0 0 0
-0.233705 0.255 1.242 255 255 255
-0.1797 0.296574 1.167 255 255 255
0.0542302 0.257516 0.941 255 255 255
1.35703 -0.250345 2.66 255 255 255
-0.384238 0.475487 1.232 255 255 255
0.899964 0.184574 1.917 0 0 0
-0.95565 -0.584595 2.43 255 255 255
0.0497863 0.340214 0.889 255 255 255
0.950691 -0.101851 2.626 255 255 255
-0.203974 0.376585 1.198 255 255 255
0.179298 0.168122 1.305 255 255 255
-0.788484 -0.769994 2.356 255 255 255
-1.0161 0.39605 1.929 255 255 255
-0.0667202 0.0932558 1.12 255 255 255
-0.934237 -0.753541 2.228 255 255 255
-0.67309 0.0108407 1.599 255 255 255
0.791494 0.172381 1.853 0 0 0
0.635034 -0.820358 3.41 255 255 255
0.619393 0.252111 1.357 255 255 255
1.00139 -1.23655 3.41 255 255 255
-0.650635 -0.264319 1.595 255 255 255
0.0532584 0.235491 0.951 0 0 0
1.34787 -0.489363 2.953 255 255 255
0.0407926 -0.921206 2.982 255 255 255
-1.27 0.0163459 2.411 255 255 255
1.12351 -0.223483 2.871 255 255 255
-0.442089 -0.896259 2.871 255 255 255
0.504559 -0.591467 3.467 255 255 255
0.324499 0.285437 0.819 255 255 255
-0.0564609 -0.0345563 1.535 0 0 0
-0.6571 0.4053 1.555 255 255 255
-0.595706 -0.0563875 1.587 255 255 255
-0.248702 -0.18751 1.65 255 255 255
-0.145515 0.200594 1.009 255 255 255
0.366178 0.251607 0.835 255 255 255
0.273283 -0.923902 3.266 255 255 255
-0.62499 0.443175 1.52 255 255 255
-0.0329589 0.0618754 1.22 255 255 255
0.0276809 0.194221 0.924 255 255 255
-0.605883 -0.485394 3.248 255 255 255
0.519955 -0.0102009 2.212 0 0 0
-1.06381 -0.717703 2.196 255 255 255
0.167941 0.197609 1.237 255 255 255
-0.937603 -0.33927 3.318 255 255 255
-0.727229 -0.498798 3.133 255 255 255
1.47177 -0.887401 3.568 0 0 0
1.17013 0.0847334 2.582 255 255 255
0.855156 -0.182246 3.215 255 255 255
-0.86011 -0.558688 2.509 255 255 255
-0.465456 -0.835523 2.871 255 255 255
-0.760042 0.449957 1.664 255 255 255
0.801755 0.220977 1.673 0 0 0
0.0596517 0.260559 0.93 255 255 255
-0.148063 0.387491 1.004 255 255 255
0.391744 0.226704 1.189 255 255 255
-0.0532663 0.258621 0.974 255 255 255
-0.410408 0.23738 1.289 255 255 255
-0.848764 0.375246 1.758 255 255 255
-0.352633 -0.0391463 1.429 0 0 0
0.60391 0.303718 1.18 255 255 255
0.371683 0.222462 1.075 0 0 0
-0.81325 -0.699273 2.43 255 255 255
0.0629798 0.153822 1.194 255 255 255
-0.595309 -0.543535 3.248 255 255 255
0.372756 0.251978 0.85 255 255 255
1.26871 -0.896656 3.283 255 255 255
-0.137235 -0.38695 3.055 255 255 255
0.92001 -0.68418 3.568 255 255 255
0.352391 0.00378974 1.997 255 255 255
-0.498698 0.0732911 1.599 255 255 255
-0.220639 0.362327 1.03 255 255 255
1.37976 -0.950966 2.939 255 255 255
0.474407 -0.63581 3.373 0 0 0
-0.368489 -1.01279 2.844 255 255 255
1.46612 -0.690837 2.911 255 255 255
0.928357 -1.26155 3.448 255 255 255
0.195748 -0.904243 3.215 255 255 255
0.115927 0.088829 1.359 0 0 0
-1.17811 -0.482991 2.286 255 255 255
-0.937033 -0.65432 2.261 255 255 255
0.0441988 -0.66688 3.231 255 255 255
-0.311087 0.268973 1.205 255 255 255
1.45065 -0.914948 2.871 255 255 255
-0.555361 0.443899 1.442 255 255 255
-0.116175 -0.0136613 1.439 0 0 0
-0.00313891 0.0651985 1.208 0 0 0
0.055999 0.252459 0.945 255 255 255
0.428256 0.203591 1.419 0 0 0
-1.08274 -0.302574 2.329 255 255 255
-0.15856 0.141449 1.112 255 255 255
0.275676 0.214692 1.126 255 255 255
0.672078 -0.895627 3.487 255 255 255
-0.553134 0.11443 1.629 255 255 255
-0.800778 0.259635 1.642 255 255 255
0.845253 0.116094 2.151 255 255 255
0.948468 -0.248915 3.266 255 255 255
0.730854 -0.804751 3.391 255 255 255
0.559788 0.23336 1.39 255 255 255
1.32675 -0.983682 3.071 255 255 255
-0.623546 -0.00471217 1.579 255 255 255
1.44823 -0.659425 2.857 255 255 255
-0.484803 -0.922663 2.768 255 255 255
0.718028 0.0116907 2.269 255 255 255
0.297239 -1.14315 3.181 255 255 255
0.328836 -0.109704 2.338 255 255 255
-0.0178194 0.229149 0.944 255 255 255
-0.528922 0.383947 1.403 255 255 255
-0.0691651 -0.908746 2.911 0 0 0
-0.402791 -0.751279 2.925 0 0 0
0.0155296 0.207672 0.917 255 255 255
0.324499 0.290768 0.819 255 255 255
-0.0377515 0.0221806 1.487 255 255 255
0.65693 0.204812 1.744 255 255 255
0.0787017 0.102165 1.227 255 255 255
0.393676 -0.267617 3.588 255 255 255
0.44179 0.235856 1.237 255 255 255
-0.778528 0.0826189 1.629 255 255 255
-0.016231 0.231483 0.941 255 255 255
-0.876703 0.404643 1.774 255 255 255
-0.0981148 0.122465 1.104 0 0 0
-0.256205 -0.966698 2.831 255 255 255
0.346066 -1.21851 3.301 255 255 255
0.216682 -0.689736 3.215 255 255 255
-0.228343 0.0207954 1.257 255 255 255
-0.569851 0.408326 1.449 0 0 0
-0.34862 -0.522494 2.871 255 255 255
0.713569 -0.601691 3.336 255 255 255
0.0712772 -0.929229 3.04 255 255 255
-0.784942 -0.798041 2.53 255 255 255
0.599061 0.250997 1.351 255 255 255
0.13672 -0.873974 3.181 255 255 255
0.486376 0.269441 1.081 255 255 255
-0.830649 0.3978 1.744 255 255 255
1.18534 -0.0955401 2.818 255 255 255
-0.925508 0.510004 1.779 255 255 255
0.110272 -0.921083 3.165 255 255 255
0.187349 0.285175 0.85 0 0 0
0.201418 0.124451 1.466 255 255 255
-0.273343 -0.631703 2.967 255 255 255
-0.453556 0.221844 1.403 0 0 0
-0.544244 -0.564745 2.996 255 255 255
1.11593 0.125732 2.402 255 255 255
0.598288 -0.912651 3.487 255 255 255
0.0340619 0.264719 0.934 255 255 255
0.127431 -0.12002 1.763 0 0 0
0.517227 0.314299 1.072 0 0 0
-0.00556135 0.321817 0.95 255 255 255
0.394315 0.093645 1.789 255 255 255
-0.865593 0.400624 1.769 255 255 255
0.483262 -0.633389 3.248 255 255 255
0.192303 0.219205 1.051 255 255 255
-0.0506097 0.333335 0.984 255 255 255
0.559017 0.236 1.366 255 255 255
-0.638362 -0.821445 2.731 0 0 0
-0.940013 -0.789566 2.158 255 255 255
0.101452 0.267668 0.898 0 0 0
0.789753 -0.0900248 3.102 255 255 255
0.0957778 0.249427 0.928 255 255 255
-0.221818 0.367108 1.02 255 255 255
0.299865 -0.966421 3.266 255 255 255
0.163572 0.265925 0.902 255 255 255
-0.626756 -0.161703 1.607 255 255 255
-0.20783 -0.0738209 1.425 0 0 0
1.37847 -0.622231 2.857 255 255 255
-0.557709 0.469711 1.442 255 255 255
-0.144729 0.314983 1.051 255 255 255
1.18746 0.0233715 2.78 0 0 0
0.170555 -0.101695 1.794 0 0 0
-0.0881233 0.0981948 1.114 0 0 0
0.289233 -0.918587 3.266 255 255 255
-0.12909 0.374481 1.022 255 255 255
-0.166506 0.366943 0.997 255 255 255
-0.286612 0.0234224 1.289 255 255 255
-0.963715 -0.771307 2.196 255 255 255
-0.275404 0.0739798 1.257 0 0 0
0.19098 -1.05313 3.055 255 255 255
1.82556 -0.883464 4.087 255 255 255
-0.865722 0.543502 1.729 255 255 255
0.729748 0.0221157 2.204 255 255 255
0.538867 0.0839958 2.051 0 0 0
-0.062582 -0.0167036 1.502 0 0 0
-0.612242 -0.0176044 1.583 255 255 255
1.31684 -0.252604 2.684 255 255 255
-0.142678 0.368548 1.024 255 255 255
0.00994256 0.0545455 1.387 255 255 255
1.47758 -0.887401 3.568 0 0 0
0.0649655 0.343539 0.879 255 255 255
0.368595 -0.209947 3.41 255 255 255
0.0352013 0.276922 0.924 255 255 255
0.850314 -0.986108 3.568 255 255 255
-1.07321 -0.562335 2.261 255 255 255
0.312441 -0.0318618 1.991 255 255 255
-0.231582 -0.148001 1.52 255 255 255
0.342603 0.171171 1.381 255 255 255
0.26459 0.292556 0.872 255 255 255
0.509925 0.304682 1.075 0 0 0
1.27374 -0.465052 2.982 0 0 0
-0.74061 -0.745893 2.731 255 255 255
-0.988364 -0.741561 2.269 255 255 255
-0.391092 0.180552 1.384 255 255 255
0.276777 0.28071 0.893 0 0 0
0.411801 0.280064 0.815 255 255 255
0.00215245 0.365095 0.942 255 255 255
-1.12643 -0.364981 2.365 255 255 255
-0.303687 -0.125456 1.547 255 255 255
1.37847 -0.952329 2.857 255 255 255
-0.0312928 0.353072 0.981 255 255 255
0.343237 0.218531 1.156 255 255 255
-0.222922 -0.530087 2.939 255 255 255
-0.578227 -0.234341 1.603 255 255 255
0.776389 -0.229625 3.373 255 255 255
-0.559859 0.163734 1.498 255 255 255
-0.0927624 0.352228 1.025 255 255 255
0.744625 -0.953272 3.429 255 255 255
0.625904 -0.304964 3.547 255 255 255
-1.08931 -0.389969 3.336 255 255 255
-0.399124 0.439134 1.26 255 255 255
-0.831538 0.185718 1.65 0 0 0
0.179867 -0.320931 3.41 255 255 255
0.288908 -0.0929244 2.128 255 255 255
0.311937 0.266466 0.839 0 0 0
0.342084 0.223703 1.081 255 255 255
1.04129 -0.318646 3.507 255 255 255
0.20238 0.120251 1.473 0 0 0
-1.05602 -0.556208 2.312 255 255 255
-0.135392 0.38701 1.007 255 255 255
-0.918065 0.424636 1.81 255 255 255
0.327295 0.29767 0.816 255 255 255
0.205318 0.277492 0.892 255 255 255
-0.626465 -0.518621 3.04 255 255 255
0.654773 -0.356913 3.547 255 255 255
0.58048 0.0528899 2.143 255 255 255
-0.59946 -0.32703 1.677 255 255 255
-1.09996 -0.155625 2.286 255 255 255
0.884688 -0.0430692 2.996 0 0 0
-1.00697 -0.608548 2.189 255 255 255
1.56763 -0.874858 3.588 0 0 0
-0.969006 -0.571668 2.329 255 255 255
0.186233 0.269932 0.891 255 255 255
-0.363711 0.342948 1.217 255 255 255
-0.134446 0.201242 0.988 255 255 255
-0.156646 -0.065451 1.445 255 255 255
-0.413845 0.191752 1.4 255 255 255
0.045781 -0.00482258 1.616 0 0 0
-0.212214 -0.0885965 1.439 255 255 255
0.0470807 0.270028 0.921 255 255 255
-0.93123 -0.585181 2.449 255 255 255
0.527879 -0.670477 3.198 255 255 255
-1.28925 -0.0350764 2.44 255 255 255
-1.23247 -0.369841 2.347 255 255 255
0.850146 -0.225881 3.318 255 255 255
-0.22282 0.119943 1.205 255 255 255
-0.315661 0.202101 1.305 0 0 0
-0.577738 0.462267 1.463 255 255 255
-0.997409 -0.560548 3.165 255 255 255
-1.12949 -0.5332 2.278 255 255 255
0.399879 0.266863 0.947 0 0 0
1.3153 -0.277564 2.672 255 255 255
-0.0442881 -0.488441 3.165 255 255 255
0.878443 -0.909891 3.588 255 255 255
1.16112 -0.971735 3.266 255 255 255
-0.154798 0.174089 1.027 255 255 255
-0.337741 -0.491825 2.939 255 255 255
-0.79301 0.157615 1.637 255 255 255
-0.168267 0.354954 1.141 255 255 255
0.130436 0.1321 1.372 255 255 255
-0.414305 0.27363 1.244 255 255 255
-0.0102435 0.340249 0.954 255 255 255
-0.143311 0.029162 1.265 255 255 255
-0.881089 -0.532061 2.499 255 255 255
0.640843 -0.111326 2.996 0 0 0
1.31491 -0.232743 2.707 255 255 255
0.576854 -0.687619 3.181 255 255 255
0.381714 -0.100182 2.383 255 255 255
-0.36169 0.0160348 1.375 255 255 255
-0.901644 -0.360527 3.266 255 255 255
-0.754662 -0.0949926 1.629 0 0 0
1.15132 -0.356913 3.547 255 255 255
0.307171 -0.793069 3.231 255 255 255
1.15472 -0.987522 3.248 255 255 255
0.525005 0.215693 1.47 255 255 255
-0.359563 0.103005 1.342 0 0 0
1.65585 -0.789449 4.377 255 255 255
-0.183846 -0.113864 1.494 255 255 255
-0.151296 -0.00634095 1.375 255 255 255
-1.08653 -0.526187 2.329 255 255 255
-0.673842 -0.151242 1.607 255 255 255
0.0477132 -0.810739 3.117 255 255 255
-0.637405 0.459139 1.532 255 255 255
-0.772465 0.0456178 1.633 255 255 255
0.265741 0.278426 0.895 255 255 255
-0.234447 -0.668886 3.026 255 255 255
-0.586031 0.167033 1.484 255 255 255
-0.562009 0.308637 1.435 255 255 255
0.0619328 0.181954 1.139 255 255 255
0.650106 -1.22313 3.373 255 255 255
-0.199536 -0.0986442 1.449 255 255 255
-0.257602 0.0351981 1.26 255 255 255
0.507205 -0.679418 3.266 255 255 255
-0.385238 -1.07726 2.831 0 0 0
-0.349816 -0.0588411 1.456 255 255 255
0.176577 0.206558 1.039 255 255 255
-0.844175 0.18943 1.659 0 0 0
-0.392035 0.39104 1.257 255 255 255
0.00216616 0.307255 0.948 255 255 255
-0.048206 -0.757478 3.086 255 255 255
0.80524 0.217206 1.686 0 0 0
1.70573 -0.910537 4.377 255 255 255
-0.414543 0.343993 1.257 0 0 0
-0.178105 0.0802147 1.169 255 255 255
0.387023 0.282973 1.01 0 0 0
0.0976138 -1.09445 2.939 255 255 255
1.02426 -0.337682 3.527 0 0 0
0.0995495 0.205992 0.98 255 255 255
1.26575 -0.312859 2.793 0 0 0
-0.904108 0.461755 1.794 255 255 255
-0.736291 -0.0441595 1.612 255 255 255
0.212501 -0.919259 3.231 255 255 255
-0.518184 -0.959597 2.707 255 255 255
-0.703678 -1.0036 2.743 255 255 255
-0.0602202 0.158794 0.984 255 255 255
0.657363 -1.29811 3.354 255 255 255
0.807233 -0.992077 3.507 255 255 255
0.822063 0.0394856 2.173 255 255 255
1.33314 -0.88118 3.133 255 255 255
-0.11 0.0547277 1.194 255 255 255
1.06501 -0.20786 2.982 255 255 255
0.640116 -0.142618 3.266 255 255 255
0.37216 0.262339 0.988 0 0 0
-0.0973992 0.269855 1.004 255 255 255
-0.556077 -0.519973 3.266 0 0 0
-0.443697 0.427692 1.313 255 255 255
-0.875839 -0.491228 2.519 255 255 255
0.318027 0.194135 1.203 0 0 0
-0.951429 -0.719406 2.269 255 255 255
0.272738 0.248661 1.114 255 255 255
0.325928 0.260993 0.826 255 255 255
0.766952 -0.239018 3.429 255 255 255
0.239891 0.301374 0.845 255 255 255
-0.192299 -0.17677 1.65 0 0 0
0.364264 0.150684 1.539 255 255 255
0.315509 0.262164 0.834 0 0 0
1.30689 -0.703991 3.834 0 0 0
0.466522 0.20445 1.409 0 0 0
1.23586 -0.935891 3.198 255 255 255
1.00674 -0.192893 3.133 255 255 255
-0.432931 0.251401 1.275 255 255 255
0.486185 -0.00292828 2.158 255 255 255
-0.145893 0.10475 1.126 0 0 0
0.345151 0.147505 1.532 255 255 255
-0.597252 0.536244 1.47 255 255 255
0.221008 0.258336 0.967 255 255 255
1.46296 -0.896213 4.115 255 255 255
0.862464 -0.15881 3.165 255 255 255
0.0367954 0.0721313 1.378 255 255 255
0.258231 0.00049075 1.815 0 0 0
-0.380603 0.215816 1.324 255 255 255
0.82108 0.236602 1.668 255 255 255
-0.0240542 -0.548476 3.215 255 255 255
-0.5479 0.193635 1.466 255 255 255
0.644615 -1.24509 3.373 255 255 255
-0.232627 0.147396 1.205 255 255 255
0.334122 0.321653 0.823 255 255 255
1.74785 -0.758889 4.061 255 255 255
0.379612 -0.828234 3.266 255 255 255
1.30406 -0.998418 3.149 255 255 255
-0.0843246 0.284559 1.004 255 255 255
-0.426758 0.324953 1.239 255 255 255
-0.372418 0.101948 1.357 0 0 0
0.908163 -0.31196 3.373 255 255 255
-0.480784 0.46438 1.345 255 255 255
0.150275 0.241883 1.01 0 0 0
0.582647 0.0285847 2.151 255 255 255
-0.969842 -0.493116 3.336 255 255 255
-0.140202 -0.138167 1.607 255 255 255
-0.854845 0.569104 1.664 255 255 255
-0.835891 0.547155 1.714 255 255 255
0.159959 0.312141 0.837 255 255 255
1.30976 0.0049834 2.626 0 0 0
0.162826 0.294165 0.852 255 255 255
-0.191109 -0.127623 1.513 255 255 255
-0.0666273 0.261277 0.984 255 255 255
1.41201 -0.478359 2.831 255 255 255
-0.123557 -0.662061 3.086 255 255 255
-0.792149 -0.81239 2.402 255 255 255
-0.497978 -0.585473 2.953 255 255 255
-0.265174 0.0617064 1.257 0 0 0
-0.523232 -0.580373 3.133 0 0 0
1.17893 0.0610674 2.649 255 255 255
-0.246509 -0.0327574 1.357 255 255 255
-0.283511 0.00666717 1.294 0 0 0
-0.148873 0.0713631 1.149 255 255 255
-0.141757 0.274368 1.108 255 255 255
0.278125 0.309159 0.84 0 0 0
0.273582 0.261606 1.01 255 255 255
-0.702616 -0.143397 1.607 255 255 255
0.20202 -0.593045 3.318 255 255 255
0.255323 0.154723 1.336 255 255 255
-0.31857 0.288621 1.189 255 255 255
-0.21437 -0.547029 2.953 255 255 255
-0.922343 -0.799543 2.166 255 255 255
-0.509124 -0.0607769 1.567 255 255 255
0.0975324 0.243232 0.945 255 255 255
-0.344598 0.401856 1.192 255 255 255
-0.144982 -0.705049 2.911 255 255 255
-1.16685 -0.391251 2.338 255 255 255
1.06073 -1.08959 3.301 255 255 255
0.311766 -0.139849 2.54 255 255 255
0.170348 0.211884 1.032 0 0 0
0.0620075 0.142452 1.213 255 255 255
-0.446247 -0.635876 2.898 255 255 255
1.20231 -1.05095 3.248 255 255 255
1.17946 -0.450681 3.652 255 255 255
-0.236888 0.371071 1.05 255 255 255
-0.556723 -0.0762016 1.624 255 255 255
0.326447 -1.20027 3.266 255 255 255
-0.171686 -0.109001 1.494 255 255 255
-0.877344 0.48939 1.799 0 0 0
-0.569432 0.0468469 1.677 255 255 255
0.291473 0.306222 0.847 255 255 255
0.53508 0.338155 1.087 0 0 0
-0.518206 -0.0796306 1.587 255 255 255
-0.566437 0.173456 1.477 255 255 255
-0.566944 -0.149556 1.646 255 255 255
1.18058 -0.423502 3.674 255 255 255
-0.262684 0.370907 1.156 255 255 255
1.41568 -0.711726 3.982 255 255 255
0.0127904 0.17371 0.935 255 255 255
-0.250478 -0.714049 2.871 255 255 255
-0.892868 -0.841969 2.261 255 255 255
-0.2899 -0.510956 2.939 255 255 255
1.17856 -0.418143 3.102 255 255 255
0.321093 0.169312 1.366 255 255 255
-1.07302 -0.395398 3.336 255 255 255
-0.485284 -0.0718847 1.532 255 255 255
-0.299897 0.0525435 1.283 255 255 255
0.943563 -0.104284 3.231 255 255 255
-0.298049 0.256437 1.249 255 255 255
-0.986985 -0.561189 3.198 255 255 255
-1.04849 -0.447099 2.312 255 255 255
0.910089 0.0670769 2.269 255 255 255
-0.164792 -0.980393 2.844 255 255 255
0.187679 0.205688 1.137 255 255 255
0.294782 -0.595056 3.391 255 255 255
0.36045 -0.00274645 2.024 255 255 255
-0.134879 0.151052 1.041 255 255 255
-0.191306 0.077129 1.18 0 0 0
-0.611422 -0.530309 2.967 255 255 255
-0.669555 -0.116954 1.603 255 255 255
1.08386 -0.915748 3.373 255 255 255
0.0210666 -0.164512 1.748 0 0 0
1.29857 -0.0722659 2.638 255 255 255
-0.105832 -0.0987745 1.563 255 255 255
-0.302417 0.29955 1.194 255 255 255
0.315543 0.185995 1.201 0 0 0
-0.121717 -0.109506 1.571 255 255 255
0.535119 -0.970186 3.41 255 255 255
-0.516864 -0.723393 2.871 0 0 0
-0.281101 0.029577 1.283 0 0 0
-0.823064 0.536609 1.734 255 255 255
-0.0908619 0.27639 1.004 255 255 255
-0.251902 -0.0668641 1.425 255 255 255
-0.80763 -0.845911 2.312 255 255 255
-0.351571 -1.10576 2.857 255 255 255
-0.185081 0.106482 1.165 255 255 255
1.29693 -0.0676638 2.626 255 255 255
-0.599963 -0.762871 2.844 255 255 255
0.120564 -0.0484079 1.668 255 255 255
-0.022151 -0.0691256 1.583 255 255 255
0.588671 -0.498545 3.336 0 0 0
0.0255328 -0.121696 1.668 255 255 255
0.833905 0.200734 1.758 255 255 255
0.380214 -0.0129645 2.078 255 255 255
1.22713 0.0483349 2.66 255 255 255
-0.516864 -0.686017 2.871 255 255 255
0.309265 0.260329 1.102 255 255 255
0.771723 0.109094 2.151 0 0 0
-0.00670289 0.0897476 1.145 255 255 255
-0.868536 0.540689 1.729 255 255 255
-1.1828 -0.186513 2.347 255 255 255
0.085094 0.296672 0.88 255 255 255
0.758521 -0.935626 3.467 255 255 255
0.489836 0.27896 1.077 255 255 255
-0.0739992 0.334494 0.997 255 255 255
-0.20919 0.325124 1.217 255 255 255
0.359765 -1.09803 3.231 255 255 255
-0.349155 0.350166 1.201 255 255 255
0.17513 0.203705 1.116 255 255 255
0.196084 0.296857 0.84 0 0 0
1.30286 -0.411673 2.982 255 255 255
-0.510288 0.121884 1.555 255 255 255
-0.770654 -0.633113 2.743 255 255 255
-0.837789 0.445496 1.753 255 255 255
1.28474 -1.08364 3.283 255 255 255
0.153979 0.263539 0.889 255 255 255
0.792518 -0.0630888 2.303 255 255 255
1.15801 -1.25718 3.318 255 255 255
1.35962 -1.18736 3.055 255 255 255
0.46471 -0.312939 3.507 255 255 255
0.1225 0.297272 0.861 255 255 255
0.549144 0.219124 1.477 255 255 255
1.05092 -0.899281 3.373 255 255 255
-0.825271 0.0814407 1.659 0 0 0
0.405795 0.160284 1.535 255 255 255
-0.240491 0.387861 1.215 255 255 255
0.748575 0.000602419 2.228 255 255 255
0.77025 -0.449267 3.547 255 255 255
0.393482 0.296479 0.802 0 0 0
-0.0228808 0.334056 0.963 255 255 255
-0.4721 0.420908 1.339 255 255 255
1.2612 -0.262862 2.793 255 255 255
0.132692 -0.0102942 1.65 255 255 255
-0.236458 -0.746753 2.871 255 255 255
-0.151337 0.173707 1.015 255 255 255
-0.521209 0.0563853 1.637 255 255 255
0.177724 0.165952 1.375 255 255 255
0.152624 -0.573891 3.301 255 255 255
0.101452 0.261823 0.898 255 255 255
0.464538 0.0592429 2.004 255 255 255
-0.620834 -0.151713 1.612 255 255 255
-0.253908 -0.738463 2.857 255 255 255
0.210619 -0.0221692 1.739 0 0 0
-0.337601 0.073169 1.316 255 255 255
1.38449 -0.58581 3.055 0 0 0
0.544632 -0.883643 3.507 255 255 255
0.792234 -0.939657 3.568 255 255 255
0.714907 -0.296811 3.588 255 255 255
-0.200871 -0.0668641 1.425 0 0 0
0.0545109 0.127601 1.222 255 255 255
0.529407 0.186416 1.524 255 255 255
0.248574 0.260995 0.989 255 255 255
-0.258418 -1.04455 2.805 0 0 0
0.235766 0.172062 1.213 255 255 255
0.512778 0.317195 1.07 255 255 255
0.253537 0.174036 1.213 0 0 0
0.188346 0.307687 0.836 255 255 255
0.964601 -0.225216 3.231 255 255 255
1.46805 -1.02758 2.953 255 255 255
-0.651799 -0.527807 2.953 255 255 255
0.3194 0.26901 0.83 255 255 255
0.244909 0.253083 1.064 0 0 0
-0.0539301 -1.03137 2.857 255 255 255
-0.699119 0.445391 1.599 255 255 255
