ply
format ascii 1.0
comment Created by Open3D
element vertex 1334
property double x
property double y
property double z
property uchar red
property uchar green
property uchar blue
end_header
-0.00871516 -0.364783 3.354 255 255 255
1.00653 -0.153703 2.967 255 255 255
-0.254359 -0.276923 3.283 255 255 255
-0.761038 -0.221672 1.587 0 0 0
0.0113476 0.0802859 1.583 0 0 0
-0.931397 -0.753634 2.743 0 0 0
-0.307764 0.365278 1.239 255 255 255
-0.834467 -0.00216975 1.599 255 255 255
0.495824 0.387654 1.102 255 255 255
1.13229 -0.888048 3.086 255 255 255
0.234596 0.112728 1.815 0 0 0
-0.786872 0.00559424 1.587 255 255 255
-0.671439 0.115624 1.646 255 255 255
0.0952953 -1.10174 3.181 255 255 255
-0.266751 -0.0757168 1.509 255 255 255
-1.07043 -0.788968 2.166 255 255 255
0.255927 0.331423 0.848 255 255 255
0.208778 -0.774708 3.429 255 255 255
-0.691191 0.109999 1.642 255 255 255
-0.261833 0.123969 1.169 0 0 0
0.552272 0.198179 1.991 255 255 255
0.719091 -0.421882 3.609 255 255 255
-0.370715 -0.117474 1.575 255 255 255
-0.406647 -0.479752 2.953 255 255 255
-1.1074 -0.535072 2.286 255 255 255
0.81644 -0.766735 3.547 255 255 255
0.640005 -0.196531 3.467 255 255 255
0.865775 0.319977 1.753 255 255 255
0.598095 -1.11425 3.588 255 255 255
0.381812 -0.618465 3.429 255 255 255
0.104551 0.312073 0.875 255 255 255
-0.0600351 0.0741845 1.563 255 255 255
0.57153 -0.457734 3.568 255 255 255
-0.2231 0.338619 1.1 255 255 255
0.0516319 -0.515052 3.373 255 255 255
-0.0232551 0.332659 0.916 255 255 255
-0.918079 -0.785109 2.489 255 255 255
0.796136 -0.150288 3.318 0 0 0
0.0174473 -1.03429 3.149 255 255 255
-0.767913 0.134883 1.559 255 255 255
0.734154 -0.765468 3.568 255 255 255
0.458342 -1.25314 3.336 255 255 255
-0.407248 0.230766 1.299 255 255 255
0.260092 -0.992893 3.301 255 255 255
-0.966864 -0.644849 2.755 0 0 0
-0.878421 -0.865887 2.731 255 255 255
-0.836555 -0.0073924 1.603 255 255 255
-0.606071 0.22491 1.516 255 255 255
0.0886586 0.280267 0.887 255 255 255
-0.663598 -0.90233 2.707 255 255 255
-0.729588 -0.725846 2.844 0 0 0
-0.448627 -0.0404612 1.477 255 255 255
-0.347303 0.328449 1.222 255 255 255
0.296801 0.270182 1.07 255 255 255
-0.112864 0.168854 1.057 255 255 255
-0.90954 -0.625899 2.731 255 255 255
0.68755 0.0118659 2.303 255 255 255
-0.313259 -0.663962 3.026 255 255 255
-0.391386 -0.738209 2.911 255 255 255
0.0331502 0.302011 0.909 0 0 0
-0.658766 0.495594 1.422 255 255 255
0.245853 0.29618 0.866 255 255 255
-1.01916 -0.551265 2.44 255 255 255
-0.618139 -0.940235 2.78 0 0 0
-0.425312 -1.1209 2.884 0 0 0
-1.02484 -0.772511 2.22 255 255 255
0.472469 0.346628 1.132 255 255 255
0.102242 -0.363152 3.609 255 255 255
-1.14661 -0.537399 2.204 255 255 255
1.04879 -0.386288 3.215 0 0 0
0.767472 -1.17264 3.588 255 255 255
0.278362 0.207745 1.535 255 255 255
0.273954 0.287282 0.844 255 255 255
-0.0152587 0.213195 1.234 255 255 255
-0.0504524 -1.13683 2.925 0 0 0
-0.880527 -0.854342 2.356 255 255 255
-0.567776 0.354847 1.289 255 255 255
-0.730862 -0.763991 2.831 0 0 0
0.205352 0.214747 1.22 0 0 0
0.735946 -1.24029 3.467 255 255 255
0.381942 0.304164 1.055 255 255 255
-0.957036 -0.70366 2.365 255 255 255
0.139878 0.244643 1.096 0 0 0
0.62786 0.246172 1.887 255 255 255
-0.594318 -0.764214 2.884 255 255 255
-0.207939 -0.838754 3.071 0 0 0
1.3039 -0.84338 2.898 255 255 255
-0.34227 -0.831448 2.857 255 255 255
-0.465116 -1.09333 2.898 255 255 255
0.546645 -0.979531 3.674 255 255 255
-0.723788 -0.00214261 1.579 255 255 255
1.20546 -0.665353 3.055 255 255 255
-0.596436 0.185673 1.498 255 255 255
0.311723 -1.01971 3.336 255 255 255
-0.756134 -1.03889 2.707 255 255 255
-0.154721 0.0546258 1.449 255 255 255
-0.737337 -0.153357 1.575 255 255 255
0.574898 0.274185 1.463 255 255 255
-0.0888136 -0.010132 1.624 255 255 255
0.221915 -1.12921 3.215 255 255 255
0.0391443 -0.628104 3.248 255 255 255
-1.03929 -0.68942 2.22 255 255 255
1.17986 -0.208141 2.731 255 255 255
0.527506 -0.621119 3.507 0 0 0
-0.420091 -0.0228681 1.429 0 0 0
-1.25784 -0.365842 3.266 255 255 255
-0.84977 -0.670414 2.768 0 0 0
-0.414177 -0.0326202 1.449 0 0 0
-0.175277 0.0590622 1.336 255 255 255
-0.110636 0.0384766 1.559 255 255 255
0.992461 0.203457 2.078 255 255 255
0.0154384 0.210892 1.281 255 255 255
-0.722221 -0.799992 2.78 255 255 255
0.266061 -0.795834 3.448 255 255 255
-0.995677 -0.430367 2.303 255 255 255
0.409721 -0.428741 3.429 255 255 255
0.861005 -0.857555 3.448 255 255 255
-0.377171 0.0671585 1.283 255 255 255
1.17158 -0.421485 3.165 255 255 255
-0.276343 -0.0185614 1.456 0 0 0
-0.275992 0.226836 1.141 0 0 0
-1.10064 -0.636493 2.303 255 255 255
-0.146795 0.00292058 1.539 0 0 0
0.491251 -0.0622212 3.231 255 255 255
-0.150168 -0.617988 3.117 255 255 255
-0.925729 -0.332238 3.149 255 255 255
0.163604 0.0556363 1.882 255 255 255
-0.474635 0.155102 1.378 0 0 0
0.696953 0.179684 2.158 255 255 255
0.924867 -0.0808951 2.953 0 0 0
-0.041028 -0.776627 3.318 255 255 255
0.231275 0.186541 1.505 255 255 255
0.567733 0.390341 1.12 255 255 255
0.255286 0.136163 1.774 0 0 0
-0.611139 0.265224 1.403 255 255 255
-0.254397 -0.0549941 1.48 255 255 255
-0.665013 0.110535 1.65 255 255 255
1.37219 -0.351682 2.707 0 0 0
-1.13988 -0.50125 3.248 255 255 255
0.587355 0.351755 1.234 255 255 255
0.0158344 0.28174 0.935 255 255 255
0.51935 -1.07966 3.609 255 255 255
1.27739 -0.576554 3.858 255 255 255
-0.268457 0.141573 1.173 255 255 255
-0.392324 0.32429 1.178 255 255 255
1.16447 -0.788354 2.939 255 255 255
0.19455 0.285214 1.018 255 255 255
-0.416439 -0.962812 2.793 0 0 0
-0.89008 -0.957782 2.572 255 255 255
0.533215 -0.661069 3.507 255 255 255
-0.51532 0.466022 1.289 255 255 255
-0.499049 0.0374095 1.422 255 255 255
1.14327 -0.40299 3.354 255 255 255
1.29676 0.033887 2.55 255 255 255
-0.488703 -0.645308 2.898 255 255 255
0.309446 0.269911 1.09 0 0 0
1.19153 0.0535941 2.707 255 255 255
-0.149377 0.0767376 1.466 255 255 255
-0.368328 0.400472 1.128 255 255 255
-0.0243976 0.212945 0.961 255 255 255
1.43044 -0.708708 2.831 255 255 255
-0.0647812 0.145851 1.118 255 255 255
-0.00248151 0.242698 0.955 0 0 0
-0.316767 0.102165 1.227 255 255 255
-0.51353 0.372825 1.244 255 255 255
-0.524835 0.323719 1.242 0 0 0
-0.228599 -0.665328 3.149 255 255 255
-0.391179 0.21923 1.281 255 255 255
0.606609 0.0849357 2.253 255 255 255
-0.115415 0.0383779 1.555 255 255 255
-0.359622 -0.0154914 1.393 255 255 255
-0.340894 -0.736999 2.925 0 0 0
-1.14563 -0.415376 2.303 255 255 255
0.761631 -0.752242 3.588 255 255 255
0.437776 -0.0503931 3.149 255 255 255
-0.846269 -0.30204 3.102 255 255 255
0.714294 -0.175668 3.391 255 255 255
-0.38031 -0.141864 1.65 255 255 255
-0.833411 -0.010026 1.607 255 255 255
0.165749 0.257725 1.114 0 0 0
-0.433423 -0.477477 2.939 255 255 255
-0.0717725 0.343312 0.967 255 255 255
-0.688669 -0.893056 2.719 255 255 255
0.568354 0.341161 1.232 255 255 255
-0.710937 -0.179442 1.579 255 255 255
0.977245 -0.656675 3.674 0 0 0
-0.396124 -0.738209 2.911 255 255 255
-1.14978 -0.408448 3.354 255 255 255
-0.0989505 -0.62511 3.102 255 255 255
0.458662 -0.208508 3.787 255 255 255
0.964093 -1.01953 3.283 0 0 0
-0.840169 0.114637 1.595 255 255 255
0.120384 -0.869341 3.301 255 255 255
-0.736415 0.184092 1.505 255 255 255
0.562874 0.176404 2.078 255 255 255
-0.0269885 0.193729 0.999 0 0 0
0.737955 -0.180224 3.373 255 255 255
0.253316 -1.03504 3.215 255 255 255
0.64714 0.261429 1.62 255 255 255
0.464067 0.235795 1.607 255 255 255
1.05674 0.168115 2.572 255 255 255
-0.648457 -0.882463 2.755 0 0 0
-0.915477 -0.332238 3.149 255 255 255
-0.808439 0.349114 1.599 255 255 255
-0.57415 0.193635 1.466 255 255 255
-0.731473 -0.285412 1.673 0 0 0
-0.275257 -0.260724 3.215 255 255 255
0.27991 0.275191 0.88 0 0 0
0.172491 0.183051 1.369 255 255 255
-0.24052 0.148025 1.149 255 255 255
0.367928 0.263034 1.145 255 255 255
0.857119 0.298121 1.905 0 0 0
0.855392 -0.728502 3.448 0 0 0
-0.216296 0.0237402 1.435 0 0 0
0.348192 0.312608 0.831 0 0 0
-0.120747 -1.12162 2.898 255 255 255
-0.309281 0.0903317 1.229 0 0 0
-0.901956 -0.891339 2.303 255 255 255
1.08145 -0.232827 2.871 0 0 0
0.466984 0.225204 1.664 255 255 255
-0.287266 0.392783 1.005 255 255 255
-0.812387 -0.162206 1.612 0 0 0
-0.740281 -0.474098 3.04 255 255 255
0.266735 -0.445374 3.609 255 255 255
-0.109685 -0.930911 2.982 255 255 255
-0.923512 -0.890032 2.329 255 255 255
-0.978813 -0.506174 2.939 0 0 0
-1.00243 -0.304085 3.231 255 255 255
-0.837573 0.112042 1.595 255 255 255
1.43238 -1.07053 2.939 255 255 255
0.824359 -0.963542 3.507 255 255 255
0.557212 -0.530366 3.588 255 255 255
-0.278253 0.0497249 1.319 255 255 255
-0.955998 -0.401849 2.228 255 255 255
-0.356095 0.417648 1.096 255 255 255
0.531869 -0.401979 3.696 255 255 255
-0.135258 -0.851766 3.011 255 255 255
-0.595022 0.45607 1.366 255 255 255
-0.798366 0.193234 1.559 255 255 255
-0.535877 -0.404792 2.898 255 255 255
0.219529 0.278337 1.139 0 0 0
1.15855 -0.29408 2.831 0 0 0
-0.141245 0.147617 1.104 255 255 255
0.647162 -0.0942619 3.248 255 255 255
-0.118546 -0.0686516 1.633 255 255 255
-0.633051 -0.733472 2.911 255 255 255
-0.547758 -0.506088 2.911 255 255 255
-0.11763 0.0705774 1.487 255 255 255
-0.175524 0.169606 1.051 255 255 255
0.483328 0.386981 1.09 255 255 255
-0.551871 -0.361778 3.011 255 255 255
0.134172 0.324419 0.855 255 255 255
-0.201563 0.389137 1.062 255 255 255
-0.440895 0.0533658 1.357 255 255 255
-0.853338 -0.0180159 1.62 255 255 255
0.380707 0.220574 1.555 255 255 255
-1.06554 -0.482853 3.231 255 255 255
-0.99925 -0.448646 2.32 255 255 255
1.14676 0.0577421 2.695 0 0 0
-0.379484 0.368787 1.198 255 255 255
0.301389 -0.828429 3.467 255 255 255
-1.05208 -0.710843 2.143 255 255 255
0.89123 0.24852 1.905 255 255 255
-0.415494 -0.596075 2.982 255 255 255
-0.688818 -0.855564 2.755 255 255 255
-0.281979 0.292755 1.198 255 255 255
-0.842857 -0.754781 2.731 255 255 255
-0.276912 -0.047091 1.459 255 255 255
-0.853338 0.445968 1.62 255 255 255
-0.19434 0.136998 1.12 0 0 0
0.389053 -1.22388 3.301 255 255 255
-0.325046 -0.814003 2.911 255 255 255
0.0136439 -0.271433 3.487 255 255 255
0.428057 -0.501235 3.354 255 255 255
-1.0819 -0.610259 2.303 255 255 255
0.10348 0.290283 0.878 255 255 255
-0.00819869 0.350282 0.9 255 255 255
1.36187 -0.629254 2.911 255 255 255
1.23005 -0.431083 2.982 255 255 255
0.321822 0.256742 1.102 0 0 0
0.842317 -0.0619655 2.967 0 0 0
-0.911016 -0.791652 2.459 255 255 255
-0.510467 0.344344 1.208 255 255 255
-0.244898 0.148411 1.152 255 255 255
-0.324196 0.171636 1.21 255 255 255
-0.334547 -1.07726 2.831 255 255 255
0.351319 0.311631 0.832 255 255 255
-0.554273 0.466803 1.327 255 255 255
-0.18093 0.129245 1.116 255 255 255
-0.7467 -0.0696496 1.595 255 255 255
-0.327593 0.415113 1.208 255 255 255
-0.610573 -0.0198745 1.559 255 255 255
0.212266 0.199526 1.249 255 255 255
-0.246029 -0.0231242 1.445 255 255 255
-0.18289 -1.10771 2.911 255 255 255
0.387835 -0.279295 3.588 255 255 255
0.296998 0.274669 0.897 255 255 255
-1.0765 -0.738742 2.143 255 255 255
0.807233 -0.358595 3.507 0 0 0
-0.0574417 0.108772 1.234 255 255 255
0.106337 0.329985 0.855 255 255 255
-0.565133 0.174884 1.449 255 255 255
0.410019 0.136741 2.092 255 255 255
-0.131064 0.292896 0.999 255 255 255
-0.690574 0.206124 1.47 255 255 255
1.17894 -1.19702 3.301 255 255 255
0.873707 0.218578 2.03 255 255 255
-0.291472 0.106216 1.205 0 0 0
0.241391 0.277339 1.12 255 255 255
-0.783661 0.460971 1.555 255 255 255
1.23701 0.0746422 2.672 255 255 255
-0.358508 0.0154167 1.322 255 255 255
0.236169 0.0109282 2.121 255 255 255
0.402231 0.255469 1.425 255 255 255
-0.671002 -0.375156 3.04 255 255 255
-0.715544 -0.139731 1.595 255 255 255
0.696888 -0.12199 3.283 255 255 255
-0.711955 -0.203594 1.587 255 255 255
0.178541 0.131447 1.677 255 255 255
0.693922 -0.442181 3.631 255 255 255
-0.498529 0.379812 1.247 255 255 255
-0.429341 -0.875128 2.818 255 255 255
-0.793741 0.0850063 1.575 255 255 255
0.50107 0.311259 1.336 0 0 0
0.21635 -0.575431 3.373 255 255 255
0.179096 -1.23773 3.198 255 255 255
0.599299 0.340137 1.281 255 255 255
-0.298304 0.321281 1.225 255 255 255
0.806817 -0.104284 3.231 255 255 255
-0.580717 -0.93933 2.818 0 0 0
-0.284987 0.209528 1.118 255 255 255
-0.476953 -0.65627 2.884 255 255 255
0.74995 -0.40775 3.588 0 0 0
0.446241 -0.787275 3.588 255 255 255
-0.396124 -0.747683 2.911 255 255 255
-1.06647 -0.782542 2.158 255 255 255
0.516535 0.189292 1.966 255 255 255
-0.255364 0.0273415 1.381 255 255 255
-0.106888 0.366103 0.986 0 0 0
0.783713 -1.03855 3.609 255 255 255
0.936563 -0.306873 3.318 255 255 255
-0.834296 -0.0312743 1.624 255 255 255
1.21903 -0.375804 2.967 255 255 255
-0.733459 0.417867 1.509 255 255 255
1.21268 -0.0808517 2.638 255 255 255
1.24514 -0.0453449 2.572 255 255 255
-0.511547 0.208929 1.393 255 255 255
1.30772 -0.630044 2.982 255 255 255
1.34905 -0.86469 2.844 255 255 255
-0.235845 0.383458 1.002 255 255 255
1.40215 -0.408306 2.793 255 255 255
0.464507 0.208922 1.779 255 255 255
-0.0652447 0.145062 1.126 255 255 255
0.0664902 0.111187 1.547 255 255 255
-0.0436166 0.34486 0.937 255 255 255
0.293515 0.272575 0.841 255 255 255
0.257973 0.317004 0.988 255 255 255
-0.490833 -1.13749 2.939 255 255 255
1.31675 -1.17859 3.071 255 255 255
0.142406 -0.0586969 2.278 255 255 255
0.0842662 0.189561 1.384 255 255 255
-0.801943 -0.51315 2.871 255 255 255
1.07339 -0.844684 3.149 255 255 255
0.469563 0.210488 1.744 255 255 255
-0.804511 0.465714 1.571 255 255 255
-0.385011 0.312719 1.185 255 255 255
0.454996 0.317261 1.139 255 255 255
-0.49258 0.229103 1.378 255 255 255
-0.0934217 0.221224 0.963 0 0 0
-0.717891 0.0390689 1.583 255 255 255
-0.149052 -1.11691 2.898 255 255 255
-0.103363 0.307401 0.983 255 255 255
0.222352 0.294225 0.966 255 255 255
-0.396417 0.29913 1.208 255 255 255
-0.0521294 0.102054 1.302 255 255 255
0.432148 -0.22891 3.718 255 255 255
1.24201 -0.915465 3.011 255 255 255
-0.748664 0.240422 1.505 255 255 255
-0.143316 0.158322 1.079 255 255 255
0.816269 0.271072 1.911 255 255 255
0.523008 0.392338 1.066 255 255 255
-0.0239914 0.221702 0.945 255 255 255
0.563706 0.295087 1.372 255 255 255
-0.547536 0.441518 1.316 255 255 255
0.459332 0.297826 1.354 255 255 255
0.00535775 0.255189 0.967 255 255 255
0.767926 -1.21868 3.674 255 255 255
-0.735465 0.0873469 1.571 255 255 255
-0.695751 -0.907101 2.695 255 255 255
1.52791 -0.851389 4.44 255 255 255
-0.135392 0.390288 1.007 255 255 255
0.00748533 0.143269 1.351 255 255 255
-0.511941 0.012207 1.452 255 255 255
0.494258 0.390099 1.079 255 255 255
0.344837 0.254898 1.372 255 255 255
0.103695 -0.875286 3.283 255 255 255
0.0234444 0.280218 0.935 255 255 255
-1.18412 -0.616019 2.269 255 255 255
-0.515555 0.308045 1.244 255 255 255
-0.673098 -0.167385 1.637 255 255 255
-0.463325 0.456329 1.229 255 255 255
-0.805418 -0.770381 2.755 0 0 0
0.347099 0.253718 1.39 255 255 255
1.28701 -0.0537159 2.572 255 255 255
0.947004 -0.00380623 2.805 0 0 0
-0.394406 0.414175 1.156 255 255 255
-0.868628 -0.916766 2.43 255 255 255
0.4019 -0.437464 3.41 0 0 0
0.480859 -0.303926 3.674 255 255 255
-0.126489 -0.0490075 1.599 255 255 255
-0.429341 -1.01729 2.818 0 0 0
-0.173963 -0.38738 3.181 255 255 255
0.262654 0.284662 0.861 255 255 255
0.541559 0.0905894 2.212 255 255 255
-1.04104 -0.503447 2.329 255 255 255
0.225442 0.281143 1.046 255 255 255
-1.18555 -0.41603 2.286 255 255 255
0.66279 0.314841 1.342 255 255 255
0.298555 0.0359494 2.173 255 255 255
-0.325419 0.406507 1.145 255 255 255
-0.615843 0.229177 1.528 255 255 255
-0.662986 -0.393126 3.026 0 0 0
0.887155 -0.501271 3.507 0 0 0
0.165166 -1.13483 3.231 255 255 255
-0.632896 0.116147 1.616 255 255 255
-0.236023 0.383545 1.024 255 255 255
-0.487677 0.354759 1.21 255 255 255
0.20694 0.294486 0.932 255 255 255
-0.278519 -0.999045 2.871 255 255 255
-0.098537 0.167896 1.051 255 255 255
-0.383131 0.0695702 1.289 255 255 255
1.431 -0.706763 2.805 255 255 255
0.547852 0.379849 1.196 255 255 255
0.499226 0.238375 1.7 255 255 255
-0.991786 -0.656404 2.294 255 255 255
-0.567077 0.333833 1.297 255 255 255
-0.126532 0.317325 0.989 255 255 255
-0.292682 0.293718 1.21 255 255 255
-0.798849 0.587496 1.555 255 255 255
-0.34582 0.399691 1.203 255 255 255
1.43238 -0.989649 2.844 255 255 255
-0.0795606 0.195189 0.966 255 255 255
-0.359147 0.393129 1.128 255 255 255
0.147696 -0.313616 3.718 255 255 255
0.442311 -0.831033 3.652 255 255 255
1.49983 -0.766973 4.034 255 255 255
-0.268457 0.149208 1.173 255 255 255
0.0107623 0.335932 0.893 0 0 0
0.790834 -1.02667 3.588 255 255 255
-0.573616 -0.626444 2.898 0 0 0
0.0330408 0.303963 0.906 255 255 255
0.274308 0.305523 1.025 255 255 255
-0.949257 -0.87862 2.743 0 0 0
0.723475 -0.39491 3.631 255 255 255
-0.377152 0.362495 1.203 255 255 255
-0.10507 0.366962 0.984 0 0 0
-0.950832 -0.368349 2.024 255 255 255
-0.633977 0.454725 1.403 255 255 255
-0.83681 -0.716582 2.755 0 0 0
-0.799031 -0.624028 2.844 255 255 255
-0.31376 -0.110351 1.547 255 255 255
-0.367139 0.384353 1.242 255 255 255
0.616859 0.362129 1.249 255 255 255
-0.189173 -0.905665 3.011 255 255 255
0.425528 0.301033 1.12 255 255 255
0.0659433 -0.780401 3.266 0 0 0
-0.628064 0.476535 1.4 255 255 255
-0.886617 -0.94129 2.55 255 255 255
-0.442992 -0.491825 2.939 255 255 255
-0.353478 -0.643466 2.911 255 255 255
0.179096 -1.20651 3.198 255 255 255
0.620653 -0.593313 3.652 255 255 255
-0.545016 -0.342207 3.055 255 255 255
1.23317 -0.0791354 2.582 255 255 255
-1.11394 -0.660328 2.269 255 255 255
1.05202 -0.0311942 2.805 255 255 255
0.4107 -1.15792 3.391 255 255 255
0.357051 0.257143 1.152 255 255 255
0.149674 0.298295 0.925 255 255 255
-0.78748 -0.810731 2.755 0 0 0
-1.25913 -0.229333 3.215 255 255 255
-1.12862 -0.750233 2.136 255 255 255
0.654295 -0.537099 3.674 255 255 255
0.200938 0.00732504 2.078 255 255 255
-0.208533 0.238812 1.004 255 255 255
-0.55302 0.493758 1.324 255 255 255
0.055991 0.207486 1.354 255 255 255
-0.476313 0.465199 1.242 255 255 255
-0.783114 0.240844 1.539 255 255 255
0.727612 0.0109876 3.117 0 0 0
1.07097 -1.13707 3.283 255 255 255
-1.04652 -0.823088 2.22 255 255 255
-0.414763 0.275945 1.283 255 255 255
0.158017 0.32062 0.856 0 0 0
-0.20584 -0.879758 3.04 255 255 255
0.147614 0.182214 1.27 255 255 255
-0.333491 0.409828 1.187 255 255 255
0.763194 -0.771274 3.568 255 255 255
-0.139891 0.307433 1.004 255 255 255
0.409721 -0.423161 3.429 0 0 0
0.498915 -1.0936 3.467 255 255 255
-0.417178 0.126989 1.297 255 255 255
-0.666661 0.509661 1.429 255 255 255
1.19129 -0.465474 3.149 255 255 255
0.567813 0.335093 1.262 255 255 255
0.10101 -1.00875 3.198 255 255 255
-0.148952 0.328662 0.999 255 255 255
-0.656017 0.213736 1.473 255 255 255
1.32266 -0.961628 2.857 255 255 255
-0.885894 -1.00787 2.66 0 0 0
0.484956 -0.464783 3.448 255 255 255
-0.413772 -0.0770214 1.535 255 255 255
0.329607 -0.365789 3.467 0 0 0
-0.787661 0.587984 1.543 255 255 255
-0.604593 -0.813781 2.844 0 0 0
-0.364722 -0.931187 2.78 255 255 255
-0.0876279 0.183185 0.986 0 0 0
0.267799 0.184255 1.591 0 0 0
-0.538281 -0.496614 2.911 0 0 0
-0.390407 0.339626 1.178 255 255 255
0.0799524 -0.437464 3.41 255 255 255
-0.627189 -1.04881 2.78 255 255 255
-0.329033 0.0110637 1.316 255 255 255
-0.30678 0.293851 1.227 255 255 255
0.298141 0.280153 0.831 255 255 255
1.20433 -0.865442 4.034 0 0 0
0.598049 -1.01547 3.696 255 255 255
0.163215 -0.676079 3.41 255 255 255
1.15763 0.0140711 2.731 255 255 255
0.86741 0.280309 1.81 255 255 255
0.641701 0.349617 1.27 255 255 255
-0.890738 -0.517822 2.871 255 255 255
0.566025 0.166797 2.128 255 255 255
-0.864672 -0.932583 2.43 255 255 255
-0.864641 -0.884546 2.365 255 255 255
1.33355 -0.593861 3.931 255 255 255
-0.816815 0.279797 1.575 255 255 255
-0.944079 -0.733381 2.278 255 255 255
0.854758 -0.16739 3.336 255 255 255
-0.119469 -0.384968 3.248 255 255 255
-0.282088 -0.384658 3.117 255 255 255
-0.60809 0.279803 1.396 255 255 255
0.906241 -0.179955 3.086 255 255 255
-0.449424 0.313246 1.187 255 255 255
0.976821 -0.239051 3.071 255 255 255
0.144695 0.275004 1.017 255 255 255
-0.326726 -0.848692 2.884 255 255 255
0.953258 -1.02512 3.301 0 0 0
0.168994 0.286193 1.004 255 255 255
0.0666499 -0.735046 3.301 255 255 255
-0.110798 -0.114228 1.719 0 0 0
-0.832882 0.16872 1.591 255 255 255
0.234245 -0.385308 3.652 0 0 0
-0.48284 0.323948 1.198 255 255 255
1.14234 -0.360745 3.086 255 255 255
-0.96251 -0.409244 2.269 255 255 255
0.0268724 -1.06804 3.055 255 255 255
1.25131 -0.165249 2.684 255 255 255
1.33849 -0.667328 2.871 255 255 255
-0.817343 0.000430183 1.591 255 255 255
-0.170963 0.0762076 1.227 255 255 255
-0.638243 -0.0282613 1.603 255 255 255
-0.0708819 0.230265 0.955 255 255 255
0.0177188 -0.883849 3.198 255 255 255
0.681641 -0.701018 3.507 255 255 255
-0.765375 0.142494 1.559 255 255 255
0.799314 -1.21078 3.354 255 255 255
-0.673039 -0.110558 1.624 255 255 255
0.995948 -0.856843 3.336 255 255 255
-0.0744558 0.216073 0.961 0 0 0
-1.13604 -0.513282 2.925 0 0 0
0.197266 0.327056 0.851 255 255 255
0.695958 0.29226 1.587 255 255 255
1.12391 -1.15776 3.266 255 255 255
0.356793 0.269084 1.116 0 0 0
-0.53007 0.189474 1.4 255 255 255
-1.09194 -0.548326 2.884 0 0 0
-1.1369 -0.514665 2.278 255 255 255
0.136444 0.273394 1.005 255 255 255
-0.944391 -0.859601 2.768 0 0 0
-0.15708 0.0546258 1.449 255 255 255
-0.607895 0.483688 1.375 255 255 255
1.09242 0.0414674 2.78 0 0 0
1.1568 -0.982681 3.181 255 255 255
0.87223 -0.694835 3.448 255 255 255
0.89093 -0.810269 3.391 0 0 0
0.257182 -1.18569 3.198 255 255 255
0.466091 0.384856 1.055 255 255 255
-0.939352 -0.341752 2.312 255 255 255
-0.105912 0.281677 0.977 255 255 255
0.198121 0.180667 1.477 255 255 255
0.299044 0.250022 1.104 0 0 0
-0.739648 -0.108311 1.591 255 255 255
0.977268 0.242069 1.953 0 0 0
0.0267679 0.11068 1.442 255 255 255
-0.0436166 0.215251 0.937 255 255 255
-0.862382 -0.893471 2.338 255 255 255
1.18523 -0.361319 2.967 255 255 255
0.304502 0.284104 0.819 255 255 255
-0.241073 -0.321541 3.248 255 255 255
-0.999391 -0.850245 2.244 255 255 255
0.818651 -0.957835 3.507 255 255 255
-0.923024 -0.727627 2.459 255 255 255
1.17975 -0.74124 3.04 255 255 255
0.15341 -0.895416 3.318 255 255 255
-0.841931 -0.356321 3.181 255 255 255
-0.0263519 0.343094 0.92 255 255 255
0.250471 0.273936 1.051 255 255 255
0.951414 0.272771 1.859 255 255 255
0.555874 0.384076 1.156 255 255 255
0.431453 0.176312 1.929 0 0 0
-0.763622 -0.226837 1.587 0 0 0
0.542464 0.387654 1.102 255 255 255
-0.377018 0.0282604 1.319 0 0 0
0.316332 0.273514 0.898 255 255 255
0.54249 -1.01514 3.568 255 255 255
0.953784 -1.18964 3.266 255 255 255
-1.01623 -0.599233 2.731 0 0 0
-0.180542 0.336232 1.012 255 255 255
0.529518 0.346834 1.203 255 255 255
-0.811179 0.162309 1.579 255 255 255
0.598941 0.0588132 2.383 255 255 255
-0.223475 0.0919523 1.198 255 255 255
-0.0314046 0.183518 1.237 255 255 255
-0.856194 -0.803668 2.731 255 255 255
0.240508 0.318205 0.857 255 255 255
-0.224603 -0.115119 1.691 255 255 255
-0.589204 -0.999173 2.793 255 255 255
0.617762 0.28965 1.378 255 255 255
-0.652539 0.178626 1.587 255 255 255
-1.06265 -0.452267 2.626 255 255 255
-0.331447 0.406853 1.041 255 255 255
0.0224586 -0.809802 3.133 255 255 255
-0.161961 0.279891 0.999 255 255 255
0.533754 0.385049 1.11 255 255 255
-0.141228 0.154614 1.09 255 255 255
-0.733965 0.426556 1.505 255 255 255
1.23511 -0.70368 2.925 255 255 255
-0.151145 0.162434 1.06 255 255 255
-0.166179 -0.535432 3.231 255 255 255
-0.356398 0.108495 1.254 255 255 255
-0.369708 -1.0448 2.818 255 255 255
-0.689581 -0.035907 1.595 255 255 255
-0.319076 0.418805 1.213 255 255 255
0.75434 -1.0268 3.609 255 255 255
-0.2456 -0.901795 2.982 255 255 255
1.04223 -0.261656 3.102 255 255 255
-0.357031 0.39648 1.242 255 255 255
-0.0204027 0.00313123 1.65 255 255 255
1.26676 -1.13861 3.071 255 255 255
0.413652 -1.27063 3.283 255 255 255
-0.29758 0.158237 1.198 255 255 255
0.460833 0.181126 1.947 0 0 0
0.0710105 0.31349 0.883 255 255 255
-0.231038 -0.921206 2.982 255 255 255
1.0021 0.108855 2.768 255 255 255
-0.277362 0.187514 1.139 255 255 255
-1.10814 -0.511403 3.086 255 255 255
1.34312 -1.1498 2.996 255 255 255
1.30177 -0.894077 2.925 255 255 255
0.466477 -1.09141 3.609 255 255 255
0.0488089 -0.277738 3.568 255 255 255
0.0719013 -0.0142379 1.81 0 0 0
0.941644 -1.26943 3.336 255 255 255
-0.86571 -0.826685 2.719 255 255 255
-0.447943 0.225806 1.345 255 255 255
-0.71042 -0.574568 2.898 255 255 255
0.551998 0.386437 1.114 255 255 255
0.0716169 -0.316508 3.547 255 255 255
-0.0791066 0.00846019 1.642 0 0 0
-1.19072 -0.267698 3.301 255 255 255
-0.221816 0.10315 1.149 255 255 255
-0.736515 -0.643968 2.871 255 255 255
1.24361 -0.137229 2.649 255 255 255
0.578869 -0.00414546 3.055 255 255 255
-1.11044 -0.33387 3.318 255 255 255
-0.912138 -0.78012 2.329 255 255 255
0.0769343 0.130211 1.505 255 255 255
-0.0810763 0.0700368 1.528 255 255 255
-0.411991 0.0418565 1.342 255 255 255
1.22607 -0.442858 2.996 255 255 255
1.19063 -0.833546 4.17 0 0 0
-0.141374 0.0886959 1.324 255 255 255
1.22929 -1.18457 3.181 255 255 255
0.406928 0.303046 1.114 0 0 0
0.101377 0.269352 0.967 255 255 255
-0.789168 0.376235 1.571 255 255 255
-0.00673367 0.347353 0.9 255 255 255
0.00642288 0.33706 0.896 0 0 0
0.272157 -0.291765 3.527 255 255 255
-0.682118 0.333559 1.452 255 255 255
-0.535812 -0.0911439 1.563 255 255 255
-0.715225 -0.879781 2.719 255 255 255
-0.0619775 -0.0970687 1.763 0 0 0
0.918125 -0.964637 3.41 255 255 255
-0.297574 0.2847 1.222 255 255 255
1.21356 -0.135829 2.707 255 255 255
0.125092 -1.15728 3.149 255 255 255
0.197159 0.18487 1.435 255 255 255
-0.30405 0.0596609 1.257 255 255 255
0.649346 -0.0767879 3.181 255 255 255
-0.543019 -0.496614 2.911 255 255 255
-0.0052745 0.340407 0.901 255 255 255
-0.658529 -0.67832 2.898 255 255 255
-0.981395 -0.827991 2.253 255 255 255
0.65865 -0.73063 3.568 255 255 255
-0.117057 0.246554 0.964 255 255 255
1.23579 0.117594 2.66 255 255 255
0.0890781 -0.623406 3.336 255 255 255
0.904691 0.00515988 2.719 0 0 0
-0.672723 0.396544 1.432 255 255 255
0.156852 0.206331 1.229 255 255 255
-1.18677 -0.62634 2.253 255 255 255
0.246949 0.173032 1.607 0 0 0
0.186194 0.237101 1.128 255 255 255
-1.05747 -0.583518 2.805 0 0 0
0.283895 0.250928 1.108 255 255 255
-0.396124 -0.71926 2.911 255 255 255
-0.06676 -0.1147 1.815 0 0 0
-0.714736 -0.0672222 1.599 255 255 255
-0.0360134 -0.348409 3.354 255 255 255
-0.163846 -1.03767 2.996 255 255 255
-0.611937 -1.03553 2.793 255 255 255
-0.062259 0.0738048 1.555 255 255 255
-0.561221 0.18851 1.445 255 255 255
-0.715864 0.564641 1.463 255 255 255
0.56472 0.194876 2.024 255 255 255
-0.10136 0.122418 1.12 0 0 0
-0.00305652 -1.00354 3.149 255 255 255
-0.651376 0.500415 1.416 255 255 255
0.70351 0.304907 1.509 255 255 255
0.636755 0.27685 1.452 255 255 255
-0.104429 0.199205 0.978 255 255 255
0.0925253 -0.966421 3.266 255 255 255
0.200656 0.29417 0.931 255 255 255
-0.667407 0.258657 1.456 255 255 255
1.29676 0.0380367 2.55 255 255 255
0.331509 -0.929674 3.487 255 255 255
-0.351094 -0.122912 1.579 255 255 255
0.153748 -0.271263 3.718 255 255 255
1.26701 -0.136038 2.626 255 255 255
0.933969 -0.868777 3.448 255 255 255
-0.8978 -0.423959 3.071 255 255 255
0.287456 0.0459152 2.143 0 0 0
0.884169 -1.04255 3.429 255 255 255
-0.361377 -0.0725329 1.494 255 255 255
1.23317 -0.0749336 2.582 255 255 255
0.276212 -0.128031 3.301 255 255 255
-1.10064 -0.524061 2.303 255 255 255
-0.0448046 0.224237 0.93 255 255 255
0.0230479 0.233817 0.983 255 255 255
0.951465 0.212333 1.972 255 255 255
1.29631 -1.06142 2.967 255 255 255
1.43505 -0.510608 2.831 255 255 255
1.07029 -0.0448881 2.805 255 255 255
0.0585142 0.127442 1.473 255 255 255
0.342436 0.173821 1.691 255 255 255
-0.472258 -0.473235 2.884 255 255 255
-0.0880598 0.0974786 1.27 255 255 255
-0.405062 0.398441 1.165 255 255 255
-0.726253 -0.777812 2.831 0 0 0
0.0685988 0.285239 0.889 0 0 0
0.10777 0.177526 1.491 255 255 255
-0.627772 -0.954503 2.743 0 0 0
-0.348643 -0.0851426 1.502 255 255 255
-0.898589 -0.929797 2.672 0 0 0
-0.823541 0.178176 1.583 255 255 255
1.30506 -0.00346021 2.55 255 255 255
-0.12098 -0.035907 1.595 255 255 255
-0.78661 0.128251 1.571 255 255 255
0.10861 0.32427 0.862 255 255 255
-0.77851 -0.824181 2.755 0 0 0
-0.500446 -0.763991 2.831 0 0 0
1.26616 -0.441308 2.953 255 255 255
0.582186 -0.326203 3.527 255 255 255
0.813087 -0.756645 3.609 255 255 255
0.16549 -0.00601928 2.017 255 255 255
-0.198641 0.0446967 1.362 255 255 255
-0.120092 0.307668 0.989 255 255 255
1.24399 0.0465359 2.561 255 255 255
0.0366657 0.273618 0.923 0 0 0
0.0424342 -1.11476 3.102 255 255 255
-0.0573845 -0.949017 3.04 255 255 255
1.21543 -0.212585 2.731 255 255 255
-0.259485 0.131353 1.167 0 0 0
-1.05108 -0.681336 2.253 255 255 255
-0.265582 -0.721022 3.102 255 255 255
-0.483132 -0.0383153 1.487 255 255 255
-0.258358 -0.312693 3.266 255 255 255
-0.0311799 0.252992 0.93 0 0 0
-0.649094 -0.588716 2.898 255 255 255
0.128235 0.0152588 1.815 255 255 255
0.554106 -1.04998 3.568 255 255 255
0.414292 0.26979 1.403 255 255 255
-0.268009 0.189623 1.108 255 255 255
-0.495331 0.298742 1.239 0 0 0
-0.925145 -0.363435 1.997 0 0 0
0.561932 0.0318481 2.731 255 255 255
-0.792821 -0.438952 3.071 255 255 255
-0.265416 0.324289 1.185 255 255 255
-0.74178 -0.146038 1.579 255 255 255
0.0115818 0.272372 0.961 255 255 255
-0.491121 0.479897 1.254 255 255 255
-0.358215 0.077114 1.275 255 255 255
0.0466522 0.19865 1.339 255 255 255
-0.202861 -0.930406 2.996 255 255 255
-1.09365 -0.514821 2.312 255 255 255
0.0101113 0.232303 0.97 255 255 255
0.0992529 0.229638 1.044 0 0 0
-0.463888 -0.843703 2.805 0 0 0
-0.464847 0.323468 1.182 255 255 255
1.32447 -0.835523 2.871 255 255 255
-0.847514 -0.150199 1.624 255 255 255
1.24327 -0.53593 3.026 255 255 255
-0.723045 -0.156712 1.583 255 255 255
0.125397 0.174219 1.319 255 255 255
-0.0854144 -1.04738 2.982 0 0 0
0.311681 0.312886 1.044 255 255 255
1.39562 -0.447122 2.78 255 255 255
0.153808 -0.537727 3.448 255 255 255
-1.07739 -0.484095 2.684 255 255 255
0.0344096 -0.708187 3.301 255 255 255
-0.480148 0.289652 1.252 255 255 255
-0.0991744 0.251255 0.958 255 255 255
-0.236423 -0.496251 3.117 255 255 255
-0.30028 0.154724 1.201 255 255 255
-0.139882 -0.561722 3.231 255 255 255
0.0549185 0.251744 1.01 255 255 255
-0.326176 -0.382807 3.102 0 0 0
-0.626022 0.27229 1.416 255 255 255
0.97708 -0.600461 3.696 0 0 0
0.277287 -0.8295 3.448 255 255 255
-1.08136 -0.572273 2.286 255 255 255
-0.266751 -0.0781724 1.509 255 255 255
1.10959 -0.619449 3.931 255 255 255
0.279952 -0.0869485 2.996 255 255 255
0.238132 0.227707 1.215 0 0 0
-0.350916 -0.484275 3.011 0 0 0
0.396349 -0.39862 3.41 0 0 0
1.3011 -0.344956 2.871 255 255 255
0.119169 -0.378555 3.588 255 255 255
-1.18412 -0.630788 2.269 255 255 255
1.21439 -0.464203 3.04 255 255 255
-0.715006 0.120582 1.571 255 255 255
0.672063 -1.24344 3.429 255 255 255
-0.715544 -0.0982011 1.595 255 255 255
0.0541588 -0.852624 3.198 255 255 255
-0.530214 0.482425 1.305 255 255 255
-0.647011 -0.859601 2.768 0 0 0
0.527149 0.203928 1.923 255 255 255
-0.911208 -0.743156 2.356 255 255 255
0.483097 0.390603 1.066 255 255 255
-0.507338 -0.0358955 1.487 255 255 255
0.344827 -0.295818 3.507 0 0 0
0.0448283 0.21584 1.043 0 0 0
0.741206 -1.08624 3.631 255 255 255
-0.220505 0.332037 1.096 255 255 255
-0.540594 -0.532124 2.898 255 255 255
1.03283 -1.03997 3.198 255 255 255
0.310168 0.278804 0.827 255 255 255
-0.0817489 -0.974193 3.026 255 255 255
0.180567 0.190822 1.33 255 255 255
0.313336 0.247653 1.333 255 255 255
0.830068 -0.895057 3.507 255 255 255
1.01816 -0.851944 3.448 255 255 255
-0.320762 0.415652 1.227 255 255 255
0.297177 0.205391 1.555 255 255 255
-0.19834 0.133591 1.122 255 255 255
0.432873 0.152219 2.071 255 255 255
0.848818 -0.585825 3.467 255 255 255
-0.749239 -0.496701 2.884 255 255 255
-0.53613 0.0147806 1.473 255 255 255
1.41998 -1.11888 2.953 255 255 255
0.0496707 -0.176283 3.631 255 255 255
-0.299072 0.258424 1.22 255 255 255
0.480919 0.216164 1.744 255 255 255
0.431539 0.326027 1.112 255 255 255
-0.665109 -0.0735588 1.624 255 255 255
-0.303541 0.302597 1.222 255 255 255
0.0593285 0.225452 1.33 255 255 255
-0.330424 0.00472003 1.339 255 255 255
-0.521532 0.484675 1.294 255 255 255
0.960015 0.191542 2.173 255 255 255
0.024646 0.288638 0.923 255 255 255
0.00207995 -0.99834 3.165 255 255 255
1.09359 -0.228529 2.818 0 0 0
-0.291681 0.183052 1.182 255 255 255
-0.731499 0.0338311 1.579 255 255 255
0.714651 0.23921 1.789 255 255 255
-0.34942 -0.00182509 1.345 255 255 255
-0.905007 -0.776199 2.411 255 255 255
-0.808608 0.159739 1.579 255 255 255
0.0435558 0.28013 0.91 0 0 0
0.550687 0.285615 1.425 0 0 0
-0.368129 -0.032305 1.435 0 0 0
0.13576 -0.992821 3.283 255 255 255
0.612218 -0.0832528 3.231 255 255 255
0.0133239 0.231676 0.974 255 255 255
-0.153534 0.0853997 1.375 255 255 255
0.555935 -0.414009 3.696 255 255 255
0.510762 -0.268053 3.674 255 255 255
0.112555 0.279996 0.955 255 255 255
-0.0365984 0.189715 0.995 255 255 255
1.43515 -0.736784 3.81 0 0 0
0.313353 0.272685 1.073 0 0 0
-0.269749 0.0371535 1.33 255 255 255
-0.302014 0.0745133 1.232 255 255 255
-0.211877 0.159721 1.126 255 255 255
-0.40369 0.112915 1.281 255 255 255
0.443442 0.230513 1.571 0 0 0
-0.351281 0.17135 1.222 255 255 255
-0.204 -0.565699 3.165 255 255 255
0.294663 0.274483 1.009 0 0 0
0.0331136 0.216055 0.997 0 0 0
-0.703226 0.134044 1.579 255 255 255
-0.495634 -0.496614 2.911 0 0 0
-1.01032 -0.388168 2.114 255 255 255
-1.08989 -0.443336 2.312 255 255 255
-0.0660102 0.209402 0.952 255 255 255
-0.763417 -0.424305 3.266 0 0 0
-0.596159 0.2601 1.4 255 255 255
-0.606979 0.473531 1.378 255 255 255
-0.697752 0.0663448 1.62 255 255 255
-1.03987 -0.355212 3.266 255 255 255
0.249324 0.270124 1.005 0 0 0
-0.375 0.379742 1.16 255 255 255
-0.980884 -0.695036 2.286 255 255 255
0.0329716 0.0482752 1.633 255 255 255
-0.32802 0.288495 1.247 255 255 255
-0.411892 -0.958267 2.793 255 255 255
-0.255247 0.318816 1.165 255 255 255
-0.411892 -0.799188 2.793 255 255 255
-0.293741 0.0533216 1.302 255 255 255
-0.728606 0.155288 1.535 255 255 255
-0.351146 -0.926663 2.78 255 255 255
-0.913202 -0.775159 2.303 255 255 255
-0.310307 -0.0919828 1.494 255 255 255
1.25892 -1.12216 3.04 255 255 255
-0.914298 -0.510648 2.857 255 255 255
0.835966 -0.0499112 2.831 0 0 0
-0.595022 0.498306 1.366 255 255 255
1.18755 -0.878004 3.086 255 255 255
-0.525087 0.293122 1.267 255 255 255
0.329015 0.281496 0.827 0 0 0
0.133991 -0.624832 3.373 255 255 255
0.285248 -0.489672 3.547 255 255 255
-0.339644 0.402226 1.26 255 255 255
1.123 -0.749672 3.248 255 255 255
0.421293 -1.2776 3.301 255 255 255
-1.21727 -0.25026 3.215 255 255 255
-0.469228 0.39995 1.234 255 255 255
-0.465149 -0.335635 3.086 255 255 255
0.192318 0.309861 0.906 255 255 255
0.868405 -0.541622 3.547 255 255 255
-1.07043 -0.792493 2.166 255 255 255
0.282357 0.260329 1.102 255 255 255
-0.343325 0.244928 1.222 255 255 255
1.42959 -1.08044 2.953 255 255 255
-0.316858 -0.0949195 1.502 255 255 255
0.794613 -1.16992 3.527 255 255 255
-0.35526 0.394072 1.222 255 255 255
-0.143659 -0.727723 3.198 0 0 0
-0.160014 0.186851 0.997 255 255 255
-1.0718 -0.428576 2.638 255 255 255
1.16054 -0.398856 3.149 255 255 255
0.276596 0.118486 1.859 0 0 0
-0.964338 -0.691575 2.626 0 0 0
0.666256 -0.405565 3.674 255 255 255
1.13187 0.143566 2.66 255 255 255
-0.714321 -0.650126 2.857 255 255 255
-0.167934 -1.01341 2.982 255 255 255
0.462633 0.335629 1.126 0 0 0
-0.604516 0.274668 1.393 255 255 255
0.59058 0.256789 1.624 255 255 255
-0.676968 -0.827136 2.78 255 255 255
-0.0247879 0.193499 1.12 255 255 255
1.13697 0.0833387 2.672 0 0 0
-0.680955 -0.22942 1.587 255 255 255
0.330191 0.267017 1.1 255 255 255
0.196723 -1.12957 3.231 0 0 0
1.28665 -0.399945 2.967 255 255 255
-0.721178 0.312274 1.509 255 255 255
-0.402704 0.291689 1.252 255 255 255
-0.208951 0.145577 1.13 0 0 0
1.03155 -0.764437 3.763 0 0 0
-0.0758286 -0.0393233 1.629 255 255 255
1.03832 -0.297347 3.215 255 255 255
-0.594814 0.0745642 1.571 255 255 255
0.625196 0.259338 1.591 255 255 255
-0.731499 0.00813559 1.579 255 255 255
0.645577 0.241684 1.876 255 255 255
-0.464041 0.366574 1.21 255 255 255
-0.462511 -0.296992 3.102 255 255 255
-0.340272 0.0540778 1.27 0 0 0
-0.213209 -0.11363 1.71 255 255 255
1.12024 0.131758 2.684 255 255 255
-0.842227 0.367786 1.624 255 255 255
0.886473 -0.590224 3.527 255 255 255
0.660344 -1.12665 3.609 255 255 255
-0.829227 -0.39683 3.133 255 255 255
-0.506571 0.315098 1.232 255 255 255
0.307314 0.170209 1.71 255 255 255
-0.344587 -0.461184 3.086 255 255 255
-0.298003 0.363214 1.232 255 255 255
-0.0194791 0.26307 0.95 255 255 255
0.359105 -1.13531 3.373 255 255 255
1.02951 0.18749 2.392 255 255 255
-0.305747 0.341083 1.239 255 255 255
0.230879 0.296864 0.868 0 0 0
1.35414 -0.613241 2.925 255 255 255
-0.951568 -0.780593 2.638 0 0 0
0.548511 0.301802 1.362 255 255 255
0.548356 0.387292 1.16 255 255 255
-0.0829795 0.140939 1.094 0 0 0
-0.195143 -1.05641 2.953 255 255 255
-0.302414 -0.0469941 1.456 255 255 255
0.0770207 0.292928 0.886 0 0 0
1.02362 0.134909 2.66 255 255 255
-1.05267 -0.615728 2.338 255 255 255
0.0992529 0.227939 1.044 255 255 255
0.335613 0.283868 0.83 0 0 0
0.220723 0.0808612 1.899 255 255 255
0.0150554 0.330087 0.889 255 255 255
0.467093 -0.0632226 3.283 255 255 255
0.479465 0.388965 1.043 255 255 255
-0.502723 0.127961 1.4 255 255 255
0.144886 -1.00338 3.248 255 255 255
0.637922 -0.573783 3.718 255 255 255
-0.960957 -0.347817 3.198 255 255 255
0.0370111 -1.05365 3.071 255 255 255
1.22205 0.117108 2.649 0 0 0
-1.06009 -0.396921 2.181 255 255 255
0.153181 0.239224 1.156 255 255 255
-0.979533 -0.503806 2.871 255 255 255
-0.40984 -0.0847355 1.539 255 255 255
0.0393698 0.276015 0.916 0 0 0
-0.000962867 0.202057 0.992 0 0 0
0.526771 0.141577 2.166 255 255 255
-0.781705 0.00817681 1.587 255 255 255
1.40919 -0.451646 2.78 255 255 255
1.41497 -0.402837 2.884 255 255 255
-0.387943 0.137392 1.257 255 255 255
-0.375363 0.376336 1.167 255 255 255
0.175718 0.097744 1.758 0 0 0
0.189284 0.0426585 1.991 255 255 255
0.183742 0.165327 1.559 0 0 0
1.31553 -0.631271 3.011 255 255 255
1.4713 -0.872158 2.884 255 255 255
-0.33065 0.0698887 1.257 0 0 0
1.18771 -1.17901 3.266 255 255 255
-0.696154 -0.883664 2.731 255 255 255
-0.850158 0.542209 1.624 255 255 255
1.30908 -0.32381 2.695 0 0 0
-0.0884184 0.350042 0.977 255 255 255
0.408618 -1.07103 3.467 255 255 255
-0.338277 0.0214075 1.294 255 255 255
-0.498014 -0.547548 2.982 255 255 255
1.16446 -1.08751 3.231 255 255 255
-1.18112 -0.23368 3.133 255 255 255
0.273794 0.00765992 2.173 255 255 255
0.844745 -1.17079 3.318 255 255 255
-0.157313 0.134693 1.116 255 255 255
-0.992316 -0.776124 2.22 255 255 255
1.02763 -0.29057 3.198 255 255 255
-0.84597 0.594763 1.616 255 255 255
1.30985 -1.20058 3.102 255 255 255
-0.829983 -0.522494 2.871 0 0 0
-0.371183 0.162027 1.242 255 255 255
-0.555614 0.0915086 1.513 255 255 255
-0.508842 0.445407 1.278 255 255 255
-0.324576 0.398353 1.092 255 255 255
0.349965 0.308923 0.832 255 255 255
-0.588893 0.470732 1.357 255 255 255
-0.186964 -0.864213 3.055 255 255 255
-0.0871855 0.0980458 1.201 0 0 0
-0.104182 -0.424305 3.266 255 255 255
0.212978 0.252722 1.124 0 0 0
0.0475029 -0.0197841 1.779 255 255 255
-0.422794 -0.916738 2.805 255 255 255
1.37258 -0.74917 2.743 255 255 255
-0.544409 -0.952624 2.844 255 255 255
1.09672 -0.215465 2.768 255 255 255
-0.357465 0.288542 1.265 255 255 255
-0.728503 -0.879781 2.719 255 255 255
-0.446747 0.101272 1.348 255 255 255
-0.803233 -0.0906411 1.599 255 255 255
1.15416 -0.313365 2.925 255 255 255
-0.234705 -0.940713 2.967 255 255 255
-0.310775 0.226308 1.167 255 255 255
-0.917771 -0.829231 2.383 255 255 255
1.08043 0.135517 2.672 255 255 255
-0.674019 -0.0997403 1.62 255 255 255
0.618853 0.174948 2.143 0 0 0
-0.167087 -0.608959 3.149 255 255 255
0.544285 0.321664 1.299 0 0 0
0.648479 0.20976 1.978 0 0 0
-0.53377 0.227162 1.422 255 255 255
-0.912232 -0.431052 3.086 255 255 255
0.0802355 0.220706 1.354 255 255 255
-0.272433 0.205108 1.104 255 255 255
-0.176121 0.299239 1.015 255 255 255
0.894681 -0.986609 3.448 255 255 255
0.108494 0.285425 0.908 255 255 255
-0.726168 0.474494 1.494 255 255 255
-0.133282 -0.902087 2.967 255 255 255
-0.811042 -0.108856 1.599 255 255 255
0.942716 -0.378431 3.283 255 255 255
-0.0633095 0.252831 0.935 255 255 255
0.544333 0.385313 1.132 255 255 255
-0.0125507 0.193528 1.015 255 255 255
-0.751929 0.161537 1.547 255 255 255
-1.16477 -0.688669 2.253 255 255 255
-0.0785802 0.167185 1.036 255 255 255
-0.827187 0.021196 1.595 255 255 255
-0.805836 -0.0984474 1.599 255 255 255
-0.326609 0.122829 1.234 255 255 255
0.466515 0.114164 2.181 0 0 0
0.0209099 0.14486 1.366 255 255 255
-0.0413215 -1.12369 2.953 255 255 255
1.29019 -0.811331 2.953 255 255 255
-0.70339 -0.175627 1.591 255 255 255
0.796008 -1.31424 3.41 255 255 255
-0.296088 -0.806526 2.953 255 255 255
-0.193565 0.164499 1.085 255 255 255
0.517619 0.390148 1.13 255 255 255
0.0699546 0.123517 1.513 255 255 255
-1.12093 -0.259146 2.128 255 255 255
0.442157 0.28826 1.149 0 0 0
0.200635 0.270447 1.137 255 255 255
0.736855 0.24564 1.815 255 255 255
0.87683 0.312307 1.758 255 255 255
0.838445 -0.111318 3.133 0 0 0
-0.0933044 -1.07019 2.925 255 255 255
-0.00862685 0.240665 0.947 255 255 255
-0.627191 0.487753 1.393 255 255 255
0.0890114 0.0883525 1.637 0 0 0
0.481142 -0.908978 3.631 255 255 255
0.901473 -0.393071 3.41 255 255 255
0.31097 0.2466 1.351 255 255 255
0.350685 0.290687 1.075 255 255 255
-1.12664 -0.323071 3.318 255 255 255
-0.406842 0.258757 1.291 255 255 255
-0.13881 -0.930911 2.982 255 255 255
1.05427 -0.379682 3.248 0 0 0
-0.410844 0.240964 1.297 255 255 255
0.285248 -0.420407 3.547 255 255 255
0.320671 -0.608365 3.373 255 255 255
1.04425 -1.14241 3.283 255 255 255
-1.06796 -0.859719 2.212 255 255 255
0.129683 0.243908 1.237 255 255 255
-0.801432 0.0824432 1.575 255 255 255
-0.0515645 -0.536289 3.301 255 255 255
-0.709727 0.224386 1.48 255 255 255
0.0250742 0.208568 1 255 255 255
-0.395988 0.3041 1.189 255 255 255
-0.1273 0.290104 0.995 255 255 255
0.618357 0.049674 2.509 0 0 0
0.0839336 0.325115 0.868 255 255 255
-0.644488 0.519762 1.406 255 255 255
-0.203093 0.125838 1.118 255 255 255
-0.206262 -0.276923 3.283 255 255 255
-0.377376 0.303564 1.21 255 255 255
-0.729065 0.360429 1.505 255 255 255
0.636073 0.257515 1.612 255 255 255
-0.314662 -0.934744 2.818 255 255 255
-1.04144 -0.61046 2.347 255 255 255
-0.154346 0.398543 1.024 255 255 255
-0.181112 0.240392 0.997 0 0 0
-0.136687 0.265269 0.981 255 255 255
0.253515 0.00408198 2.151 255 255 255
0.0343725 0.110137 1.466 255 255 255
-1.04007 -0.682482 2.269 255 255 255
0.436915 0.240844 1.539 255 255 255
-0.189891 0.0533216 1.302 255 255 255
0.178865 -0.793714 3.391 255 255 255
0.959504 -0.313992 3.652 255 255 255
0.522515 -0.353548 3.631 255 255 255
-0.498055 0.156115 1.387 255 255 255
-0.49817 -0.980356 2.871 255 255 255
-0.0481923 0.219826 0.937 255 255 255
1.25432 -0.625191 2.982 255 255 255
0.257593 0.302651 0.999 255 255 255
-0.773093 0.543884 1.539 255 255 255
0.123048 0.11443 1.629 0 0 0
-0.159347 0.381879 1.024 255 255 255
0.502996 0.390854 1.039 255 255 255
0.54888 0.385043 1.194 255 255 255
0.429108 0.290787 1.322 255 255 255
0.182506 0.181907 1.412 0 0 0
-0.693478 0.471902 1.456 255 255 255
0.0781611 0.0695347 1.633 0 0 0
0.300215 0.27676 0.833 255 255 255
-0.0349436 0.192759 0.994 255 255 255
-0.157768 0.0177724 1.524 0 0 0
0.923241 -0.412001 3.429 255 255 255
1.00278 0.202184 2.136 255 255 255
-0.196646 -0.230095 3.301 255 255 255
0.346839 0.308551 0.831 0 0 0
-0.572085 0.370964 1.294 255 255 255
0.0921464 0.121884 1.555 255 255 255
0.630525 0.193312 2.078 255 255 255
-0.0749693 0.100005 1.225 0 0 0
0.010943 0.312022 0.908 255 255 255
-0.00699443 0.00314072 1.655 255 255 255
-0.0582218 0.152504 1.169 255 255 255
1.01636 -0.199084 2.996 255 255 255
-0.295584 0.266802 1.222 255 255 255
-0.652922 -0.0180159 1.62 255 255 255
0.19782 0.285703 1.044 255 255 255
-1.02166 -0.637738 2.294 255 255 255
-0.651098 -0.0663579 1.642 255 255 255
-0.338777 0.403796 1.192 255 255 255
0.513781 0.16907 2.071 0 0 0
-0.53978 -0.952624 2.844 255 255 255
0.469969 0.261144 1.47 0 0 0
-0.326609 0.112789 1.234 255 255 255
-0.322645 0.000375836 1.39 255 255 255
0.536256 -1.11253 3.527 255 255 255
0.562392 -0.460812 3.547 255 255 255
0.646975 -0.111916 3.301 255 255 255
0.374664 0.253265 1.4 0 0 0
-0.499624 0.400175 1.26 255 255 255
-0.0977136 0.126063 1.12 0 0 0
1.2284 0.1723 2.572 0 0 0
-0.445576 0.454429 1.208 255 255 255
0.0239138 -0.493116 3.336 255 255 255
0.222871 0.214331 1.229 0 0 0
-0.0202066 0.334541 0.913 255 255 255
0.799119 -0.864861 3.547 255 255 255
-0.562927 -0.827665 2.844 0 0 0
0.294554 0.296822 0.821 255 255 255
-0.597203 -0.56042 2.898 0 0 0
0.532582 0.258531 1.555 255 255 255
1.45363 -1.10447 2.953 255 255 255
0.0510115 0.231335 1.339 255 255 255
-1.01478 -0.594303 2.374 255 255 255
0.194818 0.286578 0.994 255 255 255
0.127402 0.331032 0.847 255 255 255
0.032838 -0.0628541 1.769 0 0 0
0.43846 0.295542 1.305 255 255 255
-0.242737 -0.483503 3.133 255 255 255
0.276154 0.209673 1.445 255 255 255
0.511951 0.328695 1.194 255 255 255
-0.153743 0.383707 1.02 255 255 255
0.197342 0.312896 0.902 255 255 255
-0.549953 0.475441 1.327 255 255 255
0.738729 -0.227333 3.507 255 255 255
-1.03455 -0.318008 3.266 255 255 255
-0.335424 0.409828 1.187 255 255 255
-0.187146 0.0904172 1.178 255 255 255
0.666688 0.00600627 3.165 255 255 255
0.642611 0.209883 2.01 0 0 0
-0.695436 0.162039 1.528 255 255 255
0.585616 0.334405 1.283 255 255 255
-0.843876 0.443766 1.612 255 255 255
0.91744 -0.244138 3.674 0 0 0
0.881022 0.267929 1.826 0 0 0
1.21796 -0.219527 2.707 255 255 255
-0.252699 0.117553 1.162 255 255 255
0.415073 -0.262074 3.674 255 255 255
-0.436952 -0.550119 2.996 255 255 255
-0.288193 -0.0446247 1.456 255 255 255
-0.177148 -0.00700963 1.52 255 255 255
0.816136 0.300647 1.882 255 255 255
1.44599 -0.829513 4.641 255 255 255
0.101865 0.0256412 1.719 0 0 0
0.919326 -0.55956 3.588 0 0 0
-1.14602 -0.710555 2.196 255 255 255
0.909844 -0.20309 3.133 255 255 255
-1.00696 -0.691114 2.261 255 255 255
0.652693 0.296552 1.4 255 255 255
-0.644937 -0.820098 2.818 0 0 0
0.307536 -0.986834 3.41 255 255 255
-0.280864 0.358698 1.21 255 255 255
0.282032 -0.683897 3.507 255 255 255
-0.33411 0.308788 1.247 255 255 255
1.25446 0.00895361 2.54 255 255 255
1.14229 -0.48427 3.467 255 255 255
1.05926 -1.02981 3.215 255 255 255
-1.1032 -0.185731 2.939 255 255 255
-0.0584454 0.286212 0.955 255 255 255
0.21775 0.276931 1.018 0 0 0
-0.669808 -0.0313706 1.629 255 255 255
0.585065 0.367131 1.225 0 0 0
0.188363 0.274299 1.13 255 255 255
0.326552 0.251834 1.112 0 0 0
0.320156 -0.685671 3.487 255 255 255
-0.415335 0.374132 1.178 255 255 255
-0.339584 0.398741 1.118 255 255 255
0.0999388 -0.932846 3.336 255 255 255
-0.535558 -0.723393 2.871 0 0 0
-0.452567 0.288957 1.249 255 255 255
0.363044 -0.509604 3.41 255 255 255
-0.94319 -0.69677 2.449 255 255 255
0.310028 0.306966 0.816 255 255 255
-0.129122 0.0895127 1.48 255 255 255
0.0725604 0.244283 1.027 0 0 0
0.0386122 0.264417 0.972 255 255 255
0.174815 0.295185 0.964 255 255 255
-0.413225 -0.67832 2.898 255 255 255
1.27374 -1.08134 2.982 255 255 255
-0.383436 0.265505 1.283 255 255 255
1.29538 0.0760342 2.572 255 255 255
-0.508304 -0.229672 2.32 255 255 255
1.2414 -0.506863 3.429 0 0 0
0.961961 0.242987 1.935 255 255 255
1.2677 0.000689483 2.55 255 255 255
0.610579 0.343993 1.257 255 255 255
0.0797156 0.271839 0.917 255 255 255
0.0669532 0.225576 1.018 0 0 0
-1.01403 -0.825382 2.236 255 255 255
-0.268457 0.263739 1.173 255 255 255
1.16313 0.197543 2.469 255 255 255
-1.13637 -0.704934 2.212 255 255 255
-0.772712 -0.543633 2.884 255 255 255
-1.06256 -0.701569 2.136 255 255 255
-0.389846 -1.07266 2.831 255 255 255
-0.347848 0.377621 1.26 255 255 255
0.866251 -0.155261 3.198 0 0 0
-0.0975131 0.255665 0.957 255 255 255
-0.130764 -0.498713 3.266 255 255 255
1.0239 0.199345 2.181 255 255 255
0.161869 0.0808081 1.763 0 0 0
-0.0599372 0.344907 0.954 255 255 255
-0.715314 0.0081562 1.583 255 255 255
0.726062 -1.18879 3.674 255 255 255
-0.405774 -0.367064 3.055 255 255 255
1.05809 0.142379 2.638 255 255 255
1.14673 -0.139492 2.78 255 255 255
-0.747718 0.537157 1.513 255 255 255
0.873719 -1.08117 3.41 255 255 255
0.0288779 -0.77912 3.283 255 255 255
-0.0413215 -1.12849 2.953 255 255 255
1.23177 -1.11862 3.071 255 255 255
